1495.00	1493.50	1493.00	1492.00	1491.00	1490.50	1490.00	1491.00	1491.00	1491.00	1491.50	1492.00	1492.00	1492.00	1492.00	1493.00	1493.00	1494.50	1495.00	1496.50	1497.00	1497.50	1499.00	1499.50	1500.00	1499.00	1498.50	1498.00	1497.00	1496.50	1496.00	1495.00	1494.50	1494.00	1494.00	1493.00	1493.00	1493.00	1492.00	1492.00	1492.00	1491.00	1491.00	1491.00	1490.00	1490.00	1489.00	1489.00	1488.50	1488.00	1487.50	1487.00	1486.50	1486.00	1485.00	1484.00	1483.00	1482.00	1481.50	1480.50	1480.00	1478.50	1478.00	1477.00	1476.00	1475.50	1473.50	1473.00	1472.50	1471.00	1470.00	1469.50	1468.00	1466.50	1465.50	1464.00	1463.00	1462.50	1461.00	1459.50	1458.50	1458.00	1456.50	1456.00	1455.00	1454.00	1453.00	1452.00	1451.00	1450.50	1450.00	1450.00	1449.00	1448.00	1448.00	1447.50	1447.00	1446.50	1446.00	1446.00	1446.00	1446.00	1446.00	1446.00	1446.00	1446.00	1446.00	1446.00	1447.00	1447.00	1448.00	1448.00	1448.50	1449.00	1449.00	1449.50	1450.00	1450.00	1450.00	1451.00	1451.00	1451.00	1451.00	1451.00	1452.00	1452.00	1451.00	1451.00	1451.00	1450.00	1450.00	1449.50	1449.00	1448.00	1447.00	1445.00	1443.50	1442.50	1441.00	1439.00	1437.00	1436.00	1433.50	1432.50	1430.00	1427.00	1425.50	1423.00	1421.00	1418.50	1416.00	1413.50	1412.00	1410.50	1408.00	1406.50	1404.00	1403.00	1401.50	1400.50	1398.50	1396.50	1395.50	1395.00	1394.00	1393.50	1393.00	1392.00	1392.00	1391.50	1391.00	1390.00	1390.00	1390.00	1390.00	1390.00	1390.00	1389.50	1389.00	1389.00	1389.00	1389.00	1388.00	1387.50	1387.00	1387.00	1386.00	1385.50	1385.00	1384.50	1383.50	1382.50	1380.50	1379.50	1378.00	1377.00	1375.50	1374.00	1372.50	1371.50	1370.50	1369.00	1367.00	1365.00	1364.00	1362.50	1361.50	1359.50	1357.50	1356.50	1355.00	1354.00	1352.50	1351.00	1348.50	1347.50	1346.50	1345.00	1343.50	1342.00	1341.00	1339.50	1338.50	1336.50	1335.50	1334.50	1333.00	1331.50	1330.50	1329.00	1327.50	1326.50	1325.00	1324.00	1322.50	1321.00	1319.50	1318.50	1317.50	1316.50	1315.50	1314.00	1313.00	1311.50	1310.50	1308.50	1307.50	1306.50	1305.00	1304.00	1302.00	1300.00	1298.50	1297.50	1295.50	1293.00
1495.00	1493.50	1493.00	1492.00	1491.00	1490.50	1490.00	1491.00	1491.00	1491.00	1491.50	1492.00	1492.00	1492.00	1492.00	1493.00	1493.00	1494.50	1495.00	1496.50	1497.00	1497.50	1499.00	1499.50	1500.00	1499.00	1498.50	1498.00	1497.00	1496.50	1496.00	1495.00	1494.50	1494.00	1494.00	1493.00	1493.00	1493.00	1492.00	1492.00	1492.00	1491.00	1491.00	1491.00	1490.00	1490.00	1489.00	1489.00	1488.50	1488.00	1487.50	1487.00	1486.50	1486.00	1485.00	1484.00	1483.00	1482.00	1481.50	1480.50	1480.00	1478.50	1478.00	1477.00	1476.00	1475.50	1473.50	1473.00	1472.50	1471.00	1470.00	1469.50	1468.00	1466.50	1465.50	1464.00	1463.00	1462.50	1461.00	1459.50	1458.50	1458.00	1456.50	1456.00	1455.00	1454.00	1453.00	1452.00	1451.00	1450.50	1450.00	1450.00	1449.00	1448.00	1448.00	1447.50	1447.00	1446.50	1446.00	1446.00	1446.00	1446.00	1446.00	1446.00	1446.00	1446.00	1446.00	1446.00	1447.00	1447.00	1448.00	1448.00	1448.50	1449.00	1449.00	1449.50	1450.00	1450.00	1450.00	1451.00	1451.00	1451.00	1451.00	1451.00	1452.00	1452.00	1451.00	1451.00	1451.00	1450.00	1450.00	1449.50	1449.00	1448.00	1447.00	1445.00	1443.50	1442.50	1441.00	1439.00	1437.00	1436.00	1433.50	1432.50	1430.00	1427.00	1425.50	1423.00	1421.00	1418.50	1416.00	1413.50	1412.00	1410.50	1408.00	1406.50	1404.00	1403.00	1401.50	1400.50	1398.50	1396.50	1395.50	1395.00	1394.00	1393.50	1393.00	1392.00	1392.00	1391.50	1391.00	1390.00	1390.00	1390.00	1390.00	1390.00	1390.00	1389.50	1389.00	1389.00	1389.00	1389.00	1388.00	1387.50	1387.00	1387.00	1386.00	1385.50	1385.00	1384.50	1383.50	1382.50	1380.50	1379.50	1378.00	1377.00	1375.50	1374.00	1372.50	1371.50	1370.50	1369.00	1367.00	1365.00	1364.00	1362.50	1361.50	1359.50	1357.50	1356.50	1355.00	1354.00	1352.50	1351.00	1348.50	1347.50	1346.50	1345.00	1343.50	1342.00	1341.00	1339.50	1338.50	1336.50	1335.50	1334.50	1333.00	1331.50	1330.50	1329.00	1327.50	1326.50	1325.00	1324.00	1322.50	1321.00	1319.50	1318.50	1317.50	1316.50	1315.50	1314.00	1313.00	1311.50	1310.50	1308.50	1307.50	1306.50	1305.00	1304.00	1302.00	1300.00	1298.50	1297.50	1295.50	1293.00
1495.00	1493.50	1493.00	1492.00	1491.00	1490.50	1490.00	1491.00	1491.00	1491.00	1491.50	1492.00	1492.00	1492.00	1492.00	1493.00	1493.00	1494.50	1495.00	1496.50	1497.00	1497.50	1499.00	1499.50	1500.00	1499.00	1498.50	1498.00	1497.00	1496.50	1496.00	1495.00	1494.50	1494.00	1494.00	1493.00	1493.00	1493.00	1492.00	1492.00	1492.00	1491.00	1491.00	1491.00	1490.00	1490.00	1489.00	1489.00	1488.50	1488.00	1487.50	1487.00	1486.50	1486.00	1485.00	1484.00	1483.00	1482.00	1481.50	1480.50	1480.00	1478.50	1478.00	1477.00	1476.00	1475.50	1473.50	1473.00	1472.50	1471.00	1470.00	1469.50	1468.00	1466.50	1465.50	1464.00	1463.00	1462.50	1461.00	1459.50	1458.50	1458.00	1456.50	1456.00	1455.00	1454.00	1453.00	1452.00	1451.00	1450.50	1450.00	1450.00	1449.00	1448.00	1448.00	1447.50	1447.00	1446.50	1446.00	1446.00	1446.00	1446.00	1446.00	1446.00	1446.00	1446.00	1446.00	1446.00	1447.00	1447.00	1448.00	1448.00	1448.50	1449.00	1449.00	1449.50	1450.00	1450.00	1450.00	1451.00	1451.00	1451.00	1451.00	1451.00	1452.00	1452.00	1451.00	1451.00	1451.00	1450.00	1450.00	1449.50	1449.00	1448.00	1447.00	1445.00	1443.50	1442.50	1441.00	1439.00	1437.00	1436.00	1433.50	1432.50	1430.00	1427.00	1425.50	1423.00	1421.00	1418.50	1416.00	1413.50	1412.00	1410.50	1408.00	1406.50	1404.00	1403.00	1401.50	1400.50	1398.50	1396.50	1395.50	1395.00	1394.00	1393.50	1393.00	1392.00	1392.00	1391.50	1391.00	1390.00	1390.00	1390.00	1390.00	1390.00	1390.00	1389.50	1389.00	1389.00	1389.00	1389.00	1388.00	1387.50	1387.00	1387.00	1386.00	1385.50	1385.00	1384.50	1383.50	1382.50	1380.50	1379.50	1378.00	1377.00	1375.50	1374.00	1372.50	1371.50	1370.50	1369.00	1367.00	1365.00	1364.00	1362.50	1361.50	1359.50	1357.50	1356.50	1355.00	1354.00	1352.50	1351.00	1348.50	1347.50	1346.50	1345.00	1343.50	1342.00	1341.00	1339.50	1338.50	1336.50	1335.50	1334.50	1333.00	1331.50	1330.50	1329.00	1327.50	1326.50	1325.00	1324.00	1322.50	1321.00	1319.50	1318.50	1317.50	1316.50	1315.50	1314.00	1313.00	1311.50	1310.50	1308.50	1307.50	1306.50	1305.00	1304.00	1302.00	1300.00	1298.50	1297.50	1295.50	1293.00
1495.00	1493.50	1493.00	1492.00	1491.00	1490.50	1490.00	1491.00	1491.00	1491.00	1491.50	1492.00	1492.00	1492.00	1492.00	1493.00	1493.00	1494.50	1495.00	1496.50	1497.00	1497.50	1499.00	1499.50	1500.00	1499.00	1498.50	1498.00	1497.00	1496.50	1496.00	1495.00	1494.50	1494.00	1494.00	1493.00	1493.00	1493.00	1492.00	1492.00	1492.00	1491.00	1491.00	1491.00	1490.00	1490.00	1489.00	1489.00	1488.50	1488.00	1487.50	1487.00	1486.50	1486.00	1485.00	1484.00	1483.00	1482.00	1481.50	1480.50	1480.00	1478.50	1478.00	1477.00	1476.00	1475.50	1473.50	1473.00	1472.50	1471.00	1470.00	1469.50	1468.00	1466.50	1465.50	1464.00	1463.00	1462.50	1461.00	1459.50	1458.50	1458.00	1456.50	1456.00	1455.00	1454.00	1453.00	1452.00	1451.00	1450.50	1450.00	1450.00	1449.00	1448.00	1448.00	1447.50	1447.00	1446.50	1446.00	1446.00	1446.00	1446.00	1446.00	1446.00	1446.00	1446.00	1446.00	1446.00	1447.00	1447.00	1448.00	1448.00	1448.50	1449.00	1449.00	1449.50	1450.00	1450.00	1450.00	1451.00	1451.00	1451.00	1451.00	1451.00	1452.00	1452.00	1451.00	1451.00	1451.00	1450.00	1450.00	1449.50	1449.00	1448.00	1447.00	1445.00	1443.50	1442.50	1441.00	1439.00	1437.00	1436.00	1433.50	1432.50	1430.00	1427.00	1425.50	1423.00	1421.00	1418.50	1416.00	1413.50	1412.00	1410.50	1408.00	1406.50	1404.00	1403.00	1401.50	1400.50	1398.50	1396.50	1395.50	1395.00	1394.00	1393.50	1393.00	1392.00	1392.00	1391.50	1391.00	1390.00	1390.00	1390.00	1390.00	1390.00	1390.00	1389.50	1389.00	1389.00	1389.00	1389.00	1388.00	1387.50	1387.00	1387.00	1386.00	1385.50	1385.00	1384.50	1383.50	1382.50	1380.50	1379.50	1378.00	1377.00	1375.50	1374.00	1372.50	1371.50	1370.50	1369.00	1367.00	1365.00	1364.00	1362.50	1361.50	1359.50	1357.50	1356.50	1355.00	1354.00	1352.50	1351.00	1348.50	1347.50	1346.50	1345.00	1343.50	1342.00	1341.00	1339.50	1338.50	1336.50	1335.50	1334.50	1333.00	1331.50	1330.50	1329.00	1327.50	1326.50	1325.00	1324.00	1322.50	1321.00	1319.50	1318.50	1317.50	1316.50	1315.50	1314.00	1313.00	1311.50	1310.50	1308.50	1307.50	1306.50	1305.00	1304.00	1302.00	1300.00	1298.50	1297.50	1295.50	1293.00
1495.00	1493.50	1493.00	1492.00	1491.00	1490.50	1490.00	1491.00	1491.00	1491.00	1491.50	1492.00	1492.00	1492.00	1492.00	1493.00	1493.00	1494.50	1495.00	1496.50	1497.00	1497.50	1499.00	1499.50	1500.00	1499.00	1498.50	1498.00	1497.00	1496.50	1496.00	1495.00	1494.50	1494.00	1494.00	1493.00	1493.00	1493.00	1492.00	1492.00	1492.00	1491.00	1491.00	1491.00	1490.00	1490.00	1489.00	1489.00	1488.50	1488.00	1487.50	1487.00	1486.50	1486.00	1485.00	1484.00	1483.00	1482.00	1481.50	1480.50	1480.00	1478.50	1478.00	1477.00	1476.00	1475.50	1473.50	1473.00	1472.50	1471.00	1470.00	1469.50	1468.00	1466.50	1465.50	1464.00	1463.00	1462.50	1461.00	1459.50	1458.50	1458.00	1456.50	1456.00	1455.00	1454.00	1453.00	1452.00	1451.00	1450.50	1450.00	1450.00	1449.00	1448.00	1448.00	1447.50	1447.00	1446.50	1446.00	1446.00	1446.00	1446.00	1446.00	1446.00	1446.00	1446.00	1446.00	1446.00	1447.00	1447.00	1448.00	1448.00	1448.50	1449.00	1449.00	1449.50	1450.00	1450.00	1450.00	1451.00	1451.00	1451.00	1451.00	1451.00	1452.00	1452.00	1451.00	1451.00	1451.00	1450.00	1450.00	1449.50	1449.00	1448.00	1447.00	1445.00	1443.50	1442.50	1441.00	1439.00	1437.00	1436.00	1433.50	1432.50	1430.00	1427.00	1425.50	1423.00	1421.00	1418.50	1416.00	1413.50	1412.00	1410.50	1408.00	1406.50	1404.00	1403.00	1401.50	1400.50	1398.50	1396.50	1395.50	1395.00	1394.00	1393.50	1393.00	1392.00	1392.00	1391.50	1391.00	1390.00	1390.00	1390.00	1390.00	1390.00	1390.00	1389.50	1389.00	1389.00	1389.00	1389.00	1388.00	1387.50	1387.00	1387.00	1386.00	1385.50	1385.00	1384.50	1383.50	1382.50	1380.50	1379.50	1378.00	1377.00	1375.50	1374.00	1372.50	1371.50	1370.50	1369.00	1367.00	1365.00	1364.00	1362.50	1361.50	1359.50	1357.50	1356.50	1355.00	1354.00	1352.50	1351.00	1348.50	1347.50	1346.50	1345.00	1343.50	1342.00	1341.00	1339.50	1338.50	1336.50	1335.50	1334.50	1333.00	1331.50	1330.50	1329.00	1327.50	1326.50	1325.00	1324.00	1322.50	1321.00	1319.50	1318.50	1317.50	1316.50	1315.50	1314.00	1313.00	1311.50	1310.50	1308.50	1307.50	1306.50	1305.00	1304.00	1302.00	1300.00	1298.50	1297.50	1295.50	1293.00
1492.00	1491.50	1490.50	1489.50	1489.00	1489.50	1490.00	1491.00	1491.00	1492.00	1493.50	1494.50	1495.00	1496.00	1496.50	1497.00	1498.00	1498.00	1498.50	1499.50	1500.00	1500.50	1501.00	1500.50	1500.00	1499.00	1498.00	1497.50	1497.00	1496.00	1495.50	1495.00	1494.00	1494.00	1494.00	1493.00	1493.00	1492.00	1492.00	1492.00	1491.00	1491.00	1491.00	1491.00	1490.00	1490.00	1490.00	1489.00	1489.00	1489.00	1488.50	1487.50	1487.00	1487.00	1486.00	1485.00	1484.00	1483.50	1483.00	1482.50	1481.00	1480.50	1479.00	1478.00	1477.00	1476.50	1474.50	1474.00	1473.50	1472.00	1470.50	1469.50	1469.00	1467.50	1466.50	1465.00	1463.50	1463.00	1462.00	1460.50	1460.00	1459.50	1457.50	1457.00	1456.00	1455.00	1454.00	1453.00	1452.50	1452.00	1451.50	1451.00	1450.50	1450.00	1449.00	1448.50	1448.50	1449.00	1449.00	1449.00	1449.00	1449.00	1449.00	1449.00	1449.50	1450.00	1450.00	1451.00	1451.00	1452.00	1452.00	1452.50	1453.00	1453.50	1454.00	1454.50	1455.00	1455.00	1456.00	1456.00	1457.00	1457.00	1457.50	1458.00	1458.00	1458.00	1458.00	1458.00	1458.00	1458.00	1458.00	1458.00	1458.00	1457.50	1456.00	1454.50	1453.50	1452.50	1451.00	1450.50	1449.00	1448.00	1446.00	1444.00	1441.50	1439.50	1438.00	1436.00	1434.00	1432.00	1429.00	1427.00	1425.50	1424.00	1422.00	1420.00	1418.00	1416.00	1414.50	1413.00	1411.00	1410.00	1409.50	1408.00	1407.00	1406.00	1405.00	1404.00	1403.50	1402.50	1402.00	1401.00	1400.00	1400.00	1399.50	1399.00	1398.50	1398.00	1397.50	1397.00	1395.50	1395.00	1394.00	1393.50	1392.50	1392.00	1391.00	1390.50	1389.00	1387.50	1387.00	1386.50	1384.50	1383.50	1382.00	1381.00	1379.50	1378.00	1376.50	1375.50	1374.50	1373.00	1371.00	1369.00	1368.00	1366.50	1365.50	1364.00	1363.00	1362.50	1361.00	1360.00	1358.50	1358.00	1356.50	1355.50	1355.00	1354.00	1353.00	1352.00	1351.00	1350.50	1349.50	1348.50	1347.50	1347.00	1346.00	1345.50	1345.00	1344.00	1343.00	1342.50	1341.00	1341.00	1339.50	1339.00	1338.00	1337.50	1336.50	1335.50	1334.50	1334.00	1333.00	1331.50	1330.50	1328.50	1327.50	1326.50	1325.00	1324.00	1322.00	1321.00	1319.50	1318.00	1315.50	1313.50
1492.00	1491.50	1490.50	1489.50	1489.00	1489.50	1490.00	1491.00	1491.00	1492.00	1493.50	1494.50	1495.00	1496.00	1496.50	1497.00	1498.00	1498.00	1498.50	1499.50	1500.00	1500.50	1501.00	1500.50	1500.00	1499.00	1498.00	1497.50	1497.00	1496.00	1495.50	1495.00	1494.00	1494.00	1494.00	1493.00	1493.00	1492.00	1492.00	1492.00	1491.00	1491.00	1491.00	1491.00	1490.00	1490.00	1490.00	1489.00	1489.00	1489.00	1488.50	1487.50	1487.00	1487.00	1486.00	1485.00	1484.00	1483.50	1483.00	1482.50	1481.00	1480.50	1479.00	1478.00	1477.00	1476.50	1474.50	1474.00	1473.50	1472.00	1470.50	1469.50	1469.00	1467.50	1466.50	1465.00	1463.50	1463.00	1462.00	1460.50	1460.00	1459.50	1457.50	1457.00	1456.00	1455.00	1454.00	1453.00	1452.50	1452.00	1451.50	1451.00	1450.50	1450.00	1449.00	1448.50	1448.50	1449.00	1449.00	1449.00	1449.00	1449.00	1449.00	1449.00	1449.50	1450.00	1450.00	1451.00	1451.00	1452.00	1452.00	1452.50	1453.00	1453.50	1454.00	1454.50	1455.00	1455.00	1456.00	1456.00	1457.00	1457.00	1457.50	1458.00	1458.00	1458.00	1458.00	1458.00	1458.00	1458.00	1458.00	1458.00	1458.00	1457.50	1456.00	1454.50	1453.50	1452.50	1451.00	1450.50	1449.00	1448.00	1446.00	1444.00	1441.50	1439.50	1438.00	1436.00	1434.00	1432.00	1429.00	1427.00	1425.50	1424.00	1422.00	1420.00	1418.00	1416.00	1414.50	1413.00	1411.00	1410.00	1409.50	1408.00	1407.00	1406.00	1405.00	1404.00	1403.50	1402.50	1402.00	1401.00	1400.00	1400.00	1399.50	1399.00	1398.50	1398.00	1397.50	1397.00	1395.50	1395.00	1394.00	1393.50	1392.50	1392.00	1391.00	1390.50	1389.00	1387.50	1387.00	1386.50	1384.50	1383.50	1382.00	1381.00	1379.50	1378.00	1376.50	1375.50	1374.50	1373.00	1371.00	1369.00	1368.00	1366.50	1365.50	1364.00	1363.00	1362.50	1361.00	1360.00	1358.50	1358.00	1356.50	1355.50	1355.00	1354.00	1353.00	1352.00	1351.00	1350.50	1349.50	1348.50	1347.50	1347.00	1346.00	1345.50	1345.00	1344.00	1343.00	1342.50	1341.00	1341.00	1339.50	1339.00	1338.00	1337.50	1336.50	1335.50	1334.50	1334.00	1333.00	1331.50	1330.50	1328.50	1327.50	1326.50	1325.00	1324.00	1322.00	1321.00	1319.50	1318.00	1315.50	1313.50
1492.00	1491.50	1490.50	1489.50	1489.00	1489.50	1490.00	1491.00	1491.00	1492.00	1493.50	1494.50	1495.00	1496.00	1496.50	1497.00	1498.00	1498.00	1498.50	1499.50	1500.00	1500.50	1501.00	1500.50	1500.00	1499.00	1498.00	1497.50	1497.00	1496.00	1495.50	1495.00	1494.00	1494.00	1494.00	1493.00	1493.00	1492.00	1492.00	1492.00	1491.00	1491.00	1491.00	1491.00	1490.00	1490.00	1490.00	1489.00	1489.00	1489.00	1488.50	1487.50	1487.00	1487.00	1486.00	1485.00	1484.00	1483.50	1483.00	1482.50	1481.00	1480.50	1479.00	1478.00	1477.00	1476.50	1474.50	1474.00	1473.50	1472.00	1470.50	1469.50	1469.00	1467.50	1466.50	1465.00	1463.50	1463.00	1462.00	1460.50	1460.00	1459.50	1457.50	1457.00	1456.00	1455.00	1454.00	1453.00	1452.50	1452.00	1451.50	1451.00	1450.50	1450.00	1449.00	1448.50	1448.50	1449.00	1449.00	1449.00	1449.00	1449.00	1449.00	1449.00	1449.50	1450.00	1450.00	1451.00	1451.00	1452.00	1452.00	1452.50	1453.00	1453.50	1454.00	1454.50	1455.00	1455.00	1456.00	1456.00	1457.00	1457.00	1457.50	1458.00	1458.00	1458.00	1458.00	1458.00	1458.00	1458.00	1458.00	1458.00	1458.00	1457.50	1456.00	1454.50	1453.50	1452.50	1451.00	1450.50	1449.00	1448.00	1446.00	1444.00	1441.50	1439.50	1438.00	1436.00	1434.00	1432.00	1429.00	1427.00	1425.50	1424.00	1422.00	1420.00	1418.00	1416.00	1414.50	1413.00	1411.00	1410.00	1409.50	1408.00	1407.00	1406.00	1405.00	1404.00	1403.50	1402.50	1402.00	1401.00	1400.00	1400.00	1399.50	1399.00	1398.50	1398.00	1397.50	1397.00	1395.50	1395.00	1394.00	1393.50	1392.50	1392.00	1391.00	1390.50	1389.00	1387.50	1387.00	1386.50	1384.50	1383.50	1382.00	1381.00	1379.50	1378.00	1376.50	1375.50	1374.50	1373.00	1371.00	1369.00	1368.00	1366.50	1365.50	1364.00	1363.00	1362.50	1361.00	1360.00	1358.50	1358.00	1356.50	1355.50	1355.00	1354.00	1353.00	1352.00	1351.00	1350.50	1349.50	1348.50	1347.50	1347.00	1346.00	1345.50	1345.00	1344.00	1343.00	1342.50	1341.00	1341.00	1339.50	1339.00	1338.00	1337.50	1336.50	1335.50	1334.50	1334.00	1333.00	1331.50	1330.50	1328.50	1327.50	1326.50	1325.00	1324.00	1322.00	1321.00	1319.50	1318.00	1315.50	1313.50
1492.00	1491.50	1490.50	1489.50	1489.00	1489.50	1490.00	1491.00	1491.00	1492.00	1493.50	1494.50	1495.00	1496.00	1496.50	1497.00	1498.00	1498.00	1498.50	1499.50	1500.00	1500.50	1501.00	1500.50	1500.00	1499.00	1498.00	1497.50	1497.00	1496.00	1495.50	1495.00	1494.00	1494.00	1494.00	1493.00	1493.00	1492.00	1492.00	1492.00	1491.00	1491.00	1491.00	1491.00	1490.00	1490.00	1490.00	1489.00	1489.00	1489.00	1488.50	1487.50	1487.00	1487.00	1486.00	1485.00	1484.00	1483.50	1483.00	1482.50	1481.00	1480.50	1479.00	1478.00	1477.00	1476.50	1474.50	1474.00	1473.50	1472.00	1470.50	1469.50	1469.00	1467.50	1466.50	1465.00	1463.50	1463.00	1462.00	1460.50	1460.00	1459.50	1457.50	1457.00	1456.00	1455.00	1454.00	1453.00	1452.50	1452.00	1451.50	1451.00	1450.50	1450.00	1449.00	1448.50	1448.50	1449.00	1449.00	1449.00	1449.00	1449.00	1449.00	1449.00	1449.50	1450.00	1450.00	1451.00	1451.00	1452.00	1452.00	1452.50	1453.00	1453.50	1454.00	1454.50	1455.00	1455.00	1456.00	1456.00	1457.00	1457.00	1457.50	1458.00	1458.00	1458.00	1458.00	1458.00	1458.00	1458.00	1458.00	1458.00	1458.00	1457.50	1456.00	1454.50	1453.50	1452.50	1451.00	1450.50	1449.00	1448.00	1446.00	1444.00	1441.50	1439.50	1438.00	1436.00	1434.00	1432.00	1429.00	1427.00	1425.50	1424.00	1422.00	1420.00	1418.00	1416.00	1414.50	1413.00	1411.00	1410.00	1409.50	1408.00	1407.00	1406.00	1405.00	1404.00	1403.50	1402.50	1402.00	1401.00	1400.00	1400.00	1399.50	1399.00	1398.50	1398.00	1397.50	1397.00	1395.50	1395.00	1394.00	1393.50	1392.50	1392.00	1391.00	1390.50	1389.00	1387.50	1387.00	1386.50	1384.50	1383.50	1382.00	1381.00	1379.50	1378.00	1376.50	1375.50	1374.50	1373.00	1371.00	1369.00	1368.00	1366.50	1365.50	1364.00	1363.00	1362.50	1361.00	1360.00	1358.50	1358.00	1356.50	1355.50	1355.00	1354.00	1353.00	1352.00	1351.00	1350.50	1349.50	1348.50	1347.50	1347.00	1346.00	1345.50	1345.00	1344.00	1343.00	1342.50	1341.00	1341.00	1339.50	1339.00	1338.00	1337.50	1336.50	1335.50	1334.50	1334.00	1333.00	1331.50	1330.50	1328.50	1327.50	1326.50	1325.00	1324.00	1322.00	1321.00	1319.50	1318.00	1315.50	1313.50
1492.00	1491.50	1490.50	1489.50	1489.00	1489.50	1490.00	1491.00	1491.00	1492.00	1493.50	1494.50	1495.00	1496.00	1496.50	1497.00	1498.00	1498.00	1498.50	1499.50	1500.00	1500.50	1501.00	1500.50	1500.00	1499.00	1498.00	1497.50	1497.00	1496.00	1495.50	1495.00	1494.00	1494.00	1494.00	1493.00	1493.00	1492.00	1492.00	1492.00	1491.00	1491.00	1491.00	1491.00	1490.00	1490.00	1490.00	1489.00	1489.00	1489.00	1488.50	1487.50	1487.00	1487.00	1486.00	1485.00	1484.00	1483.50	1483.00	1482.50	1481.00	1480.50	1479.00	1478.00	1477.00	1476.50	1474.50	1474.00	1473.50	1472.00	1470.50	1469.50	1469.00	1467.50	1466.50	1465.00	1463.50	1463.00	1462.00	1460.50	1460.00	1459.50	1457.50	1457.00	1456.00	1455.00	1454.00	1453.00	1452.50	1452.00	1451.50	1451.00	1450.50	1450.00	1449.00	1448.50	1448.50	1449.00	1449.00	1449.00	1449.00	1449.00	1449.00	1449.00	1449.50	1450.00	1450.00	1451.00	1451.00	1452.00	1452.00	1452.50	1453.00	1453.50	1454.00	1454.50	1455.00	1455.00	1456.00	1456.00	1457.00	1457.00	1457.50	1458.00	1458.00	1458.00	1458.00	1458.00	1458.00	1458.00	1458.00	1458.00	1458.00	1457.50	1456.00	1454.50	1453.50	1452.50	1451.00	1450.50	1449.00	1448.00	1446.00	1444.00	1441.50	1439.50	1438.00	1436.00	1434.00	1432.00	1429.00	1427.00	1425.50	1424.00	1422.00	1420.00	1418.00	1416.00	1414.50	1413.00	1411.00	1410.00	1409.50	1408.00	1407.00	1406.00	1405.00	1404.00	1403.50	1402.50	1402.00	1401.00	1400.00	1400.00	1399.50	1399.00	1398.50	1398.00	1397.50	1397.00	1395.50	1395.00	1394.00	1393.50	1392.50	1392.00	1391.00	1390.50	1389.00	1387.50	1387.00	1386.50	1384.50	1383.50	1382.00	1381.00	1379.50	1378.00	1376.50	1375.50	1374.50	1373.00	1371.00	1369.00	1368.00	1366.50	1365.50	1364.00	1363.00	1362.50	1361.00	1360.00	1358.50	1358.00	1356.50	1355.50	1355.00	1354.00	1353.00	1352.00	1351.00	1350.50	1349.50	1348.50	1347.50	1347.00	1346.00	1345.50	1345.00	1344.00	1343.00	1342.50	1341.00	1341.00	1339.50	1339.00	1338.00	1337.50	1336.50	1335.50	1334.50	1334.00	1333.00	1331.50	1330.50	1328.50	1327.50	1326.50	1325.00	1324.00	1322.00	1321.00	1319.50	1318.00	1315.50	1313.50
1492.00	1491.50	1490.50	1489.50	1489.00	1489.50	1490.00	1491.00	1491.00	1492.00	1493.50	1494.50	1495.00	1496.00	1496.50	1497.00	1498.00	1498.00	1498.50	1499.50	1500.00	1500.50	1501.00	1500.50	1500.00	1499.00	1498.00	1497.50	1497.00	1496.00	1495.50	1495.00	1494.00	1494.00	1494.00	1493.00	1493.00	1492.00	1492.00	1492.00	1491.00	1491.00	1491.00	1491.00	1490.00	1490.00	1490.00	1489.00	1489.00	1489.00	1488.50	1487.50	1487.00	1487.00	1486.00	1485.00	1484.00	1483.50	1483.00	1482.50	1481.00	1480.50	1479.00	1478.00	1477.00	1476.50	1474.50	1474.00	1473.50	1472.00	1470.50	1469.50	1469.00	1467.50	1466.50	1465.00	1463.50	1463.00	1462.00	1460.50	1460.00	1459.50	1457.50	1457.00	1456.00	1455.00	1454.00	1453.00	1452.50	1452.00	1451.50	1451.00	1450.50	1450.00	1449.00	1448.50	1448.50	1449.00	1449.00	1449.00	1449.00	1449.00	1449.00	1449.00	1449.50	1450.00	1450.00	1451.00	1451.00	1452.00	1452.00	1452.50	1453.00	1453.50	1454.00	1454.50	1455.00	1455.00	1456.00	1456.00	1457.00	1457.00	1457.50	1458.00	1458.00	1458.00	1458.00	1458.00	1458.00	1458.00	1458.00	1458.00	1458.00	1457.50	1456.00	1454.50	1453.50	1452.50	1451.00	1450.50	1449.00	1448.00	1446.00	1444.00	1441.50	1439.50	1438.00	1436.00	1434.00	1432.00	1429.00	1427.00	1425.50	1424.00	1422.00	1420.00	1418.00	1416.00	1414.50	1413.00	1411.00	1410.00	1409.50	1408.00	1407.00	1406.00	1405.00	1404.00	1403.50	1402.50	1402.00	1401.00	1400.00	1400.00	1399.50	1399.00	1398.50	1398.00	1397.50	1397.00	1395.50	1395.00	1394.00	1393.50	1392.50	1392.00	1391.00	1390.50	1389.00	1387.50	1387.00	1386.50	1384.50	1383.50	1382.00	1381.00	1379.50	1378.00	1376.50	1375.50	1374.50	1373.00	1371.00	1369.00	1368.00	1366.50	1365.50	1364.00	1363.00	1362.50	1361.00	1360.00	1358.50	1358.00	1356.50	1355.50	1355.00	1354.00	1353.00	1352.00	1351.00	1350.50	1349.50	1348.50	1347.50	1347.00	1346.00	1345.50	1345.00	1344.00	1343.00	1342.50	1341.00	1341.00	1339.50	1339.00	1338.00	1337.50	1336.50	1335.50	1334.50	1334.00	1333.00	1331.50	1330.50	1328.50	1327.50	1326.50	1325.00	1324.00	1322.00	1321.00	1319.50	1318.00	1315.50	1313.50
1492.00	1491.50	1490.50	1489.50	1489.00	1489.50	1490.00	1491.00	1491.00	1492.00	1493.50	1494.50	1495.00	1496.00	1496.50	1497.00	1498.00	1498.00	1498.50	1499.50	1500.00	1500.50	1501.00	1500.50	1500.00	1499.00	1498.00	1497.50	1497.00	1496.00	1495.50	1495.00	1494.00	1494.00	1494.00	1493.00	1493.00	1492.00	1492.00	1492.00	1491.00	1491.00	1491.00	1491.00	1490.00	1490.00	1490.00	1489.00	1489.00	1489.00	1488.50	1487.50	1487.00	1487.00	1486.00	1485.00	1484.00	1483.50	1483.00	1482.50	1481.00	1480.50	1479.00	1478.00	1477.00	1476.50	1474.50	1474.00	1473.50	1472.00	1470.50	1469.50	1469.00	1467.50	1466.50	1465.00	1463.50	1463.00	1462.00	1460.50	1460.00	1459.50	1457.50	1457.00	1456.00	1455.00	1454.00	1453.00	1452.50	1452.00	1451.50	1451.00	1450.50	1450.00	1449.00	1448.50	1448.50	1449.00	1449.00	1449.00	1449.00	1449.00	1449.00	1449.00	1449.50	1450.00	1450.00	1451.00	1451.00	1452.00	1452.00	1452.50	1453.00	1453.50	1454.00	1454.50	1455.00	1455.00	1456.00	1456.00	1457.00	1457.00	1457.50	1458.00	1458.00	1458.00	1458.00	1458.00	1458.00	1458.00	1458.00	1458.00	1458.00	1457.50	1456.00	1454.50	1453.50	1452.50	1451.00	1450.50	1449.00	1448.00	1446.00	1444.00	1441.50	1439.50	1438.00	1436.00	1434.00	1432.00	1429.00	1427.00	1425.50	1424.00	1422.00	1420.00	1418.00	1416.00	1414.50	1413.00	1411.00	1410.00	1409.50	1408.00	1407.00	1406.00	1405.00	1404.00	1403.50	1402.50	1402.00	1401.00	1400.00	1400.00	1399.50	1399.00	1398.50	1398.00	1397.50	1397.00	1395.50	1395.00	1394.00	1393.50	1392.50	1392.00	1391.00	1390.50	1389.00	1387.50	1387.00	1386.50	1384.50	1383.50	1382.00	1381.00	1379.50	1378.00	1376.50	1375.50	1374.50	1373.00	1371.00	1369.00	1368.00	1366.50	1365.50	1364.00	1363.00	1362.50	1361.00	1360.00	1358.50	1358.00	1356.50	1355.50	1355.00	1354.00	1353.00	1352.00	1351.00	1350.50	1349.50	1348.50	1347.50	1347.00	1346.00	1345.50	1345.00	1344.00	1343.00	1342.50	1341.00	1341.00	1339.50	1339.00	1338.00	1337.50	1336.50	1335.50	1334.50	1334.00	1333.00	1331.50	1330.50	1328.50	1327.50	1326.50	1325.00	1324.00	1322.00	1321.00	1319.50	1318.00	1315.50	1313.50
1499.00	1498.75	1498.25	1497.75	1497.50	1497.75	1498.00	1498.50	1498.50	1499.00	1500.25	1500.50	1500.50	1500.50	1500.75	1500.50	1501.00	1501.00	1501.00	1501.25	1501.50	1501.50	1501.50	1500.75	1500.00	1499.50	1498.50	1498.00	1497.50	1496.50	1496.00	1495.50	1495.00	1494.75	1494.50	1493.75	1493.50	1493.00	1492.50	1492.50	1492.00	1492.00	1491.75	1491.50	1491.00	1491.00	1491.00	1490.50	1490.00	1490.00	1489.50	1488.75	1488.25	1488.00	1487.50	1486.50	1485.50	1485.00	1484.25	1483.75	1482.50	1481.50	1480.50	1479.50	1478.25	1477.50	1476.00	1475.25	1474.50	1473.00	1471.50	1470.75	1470.00	1468.50	1467.50	1466.00	1464.75	1464.25	1463.00	1461.75	1461.25	1460.50	1459.00	1458.25	1457.50	1456.50	1455.75	1455.00	1454.25	1453.75	1453.25	1453.00	1452.25	1451.50	1451.00	1450.75	1450.75	1451.00	1451.00	1451.00	1451.00	1451.00	1451.50	1451.50	1451.75	1452.25	1452.50	1453.00	1453.25	1454.00	1454.00	1454.75	1455.00	1455.50	1456.00	1456.50	1457.00	1457.00	1458.00	1458.50	1459.25	1459.50	1459.75	1460.00	1460.50	1460.50	1460.50	1461.00	1461.00	1461.00	1461.00	1461.00	1460.50	1460.00	1459.00	1457.75	1457.00	1456.25	1455.00	1454.25	1453.00	1451.50	1449.75	1448.25	1446.25	1444.25	1442.75	1441.00	1439.50	1437.25	1434.50	1432.50	1431.00	1429.50	1427.50	1425.25	1423.50	1421.50	1419.75	1418.25	1416.50	1415.25	1414.50	1413.00	1412.00	1410.75	1409.50	1408.25	1407.75	1407.00	1406.00	1405.25	1404.00	1404.00	1403.25	1402.75	1402.00	1401.25	1400.50	1400.00	1398.50	1397.75	1397.00	1396.00	1395.00	1394.50	1393.50	1392.50	1391.00	1390.00	1389.25	1388.50	1386.75	1386.00	1384.50	1383.50	1382.00	1380.50	1379.00	1378.00	1377.00	1375.50	1373.75	1372.00	1371.00	1369.75	1369.00	1367.75	1367.00	1366.50	1365.00	1364.50	1363.00	1362.50	1361.25	1360.75	1360.50	1359.50	1359.00	1358.00	1357.50	1356.75	1356.25	1355.50	1354.75	1354.50	1354.00	1353.75	1353.25	1352.50	1352.00	1351.50	1350.50	1350.50	1349.75	1349.00	1348.50	1348.25	1347.50	1346.75	1346.00	1345.00	1344.50	1343.00	1342.00	1340.00	1339.00	1338.00	1336.50	1335.50	1333.50	1332.00	1330.25	1328.75	1326.50	1324.50
1506.00	1506.00	1506.00	1506.00	1506.00	1506.00	1506.00	1506.00	1506.00	1506.00	1507.00	1506.50	1506.00	1505.00	1505.00	1504.00	1504.00	1504.00	1503.50	1503.00	1503.00	1502.50	1502.00	1501.00	1500.00	1500.00	1499.00	1498.50	1498.00	1497.00	1496.50	1496.00	1496.00	1495.50	1495.00	1494.50	1494.00	1494.00	1493.00	1493.00	1493.00	1493.00	1492.50	1492.00	1492.00	1492.00	1492.00	1492.00	1491.00	1491.00	1490.50	1490.00	1489.50	1489.00	1489.00	1488.00	1487.00	1486.50	1485.50	1485.00	1484.00	1482.50	1482.00	1481.00	1479.50	1478.50	1477.50	1476.50	1475.50	1474.00	1472.50	1472.00	1471.00	1469.50	1468.50	1467.00	1466.00	1465.50	1464.00	1463.00	1462.50	1461.50	1460.50	1459.50	1459.00	1458.00	1457.50	1457.00	1456.00	1455.50	1455.00	1455.00	1454.00	1453.00	1453.00	1453.00	1453.00	1453.00	1453.00	1453.00	1453.00	1453.00	1454.00	1454.00	1454.00	1454.50	1455.00	1455.00	1455.50	1456.00	1456.00	1457.00	1457.00	1457.50	1458.00	1458.50	1459.00	1459.00	1460.00	1461.00	1461.50	1462.00	1462.00	1462.00	1463.00	1463.00	1463.00	1464.00	1464.00	1464.00	1464.00	1464.00	1463.00	1462.50	1462.00	1461.00	1460.50	1460.00	1459.00	1458.00	1457.00	1455.00	1453.50	1452.50	1451.00	1449.00	1447.50	1446.00	1445.00	1442.50	1440.00	1438.00	1436.50	1435.00	1433.00	1430.50	1429.00	1427.00	1425.00	1423.50	1422.00	1420.50	1419.50	1418.00	1417.00	1415.50	1414.00	1412.50	1412.00	1411.50	1410.00	1409.50	1408.00	1408.00	1407.00	1406.50	1405.50	1404.50	1403.50	1403.00	1401.50	1400.50	1400.00	1398.50	1397.50	1397.00	1396.00	1394.50	1393.00	1392.50	1391.50	1390.50	1389.00	1388.50	1387.00	1386.00	1384.50	1383.00	1381.50	1380.50	1379.50	1378.00	1376.50	1375.00	1374.00	1373.00	1372.50	1371.50	1371.00	1370.50	1369.00	1369.00	1367.50	1367.00	1366.00	1366.00	1366.00	1365.00	1365.00	1364.00	1364.00	1363.00	1363.00	1362.50	1362.00	1362.00	1362.00	1362.00	1361.50	1361.00	1361.00	1360.50	1360.00	1360.00	1360.00	1359.00	1359.00	1359.00	1358.50	1358.00	1357.50	1356.00	1356.00	1354.50	1353.50	1351.50	1350.50	1349.50	1348.00	1347.00	1345.00	1343.00	1341.00	1339.50	1337.50	1335.50
1506.00	1506.00	1506.00	1506.00	1506.00	1506.00	1506.00	1506.00	1506.00	1506.00	1507.00	1506.50	1506.00	1505.00	1505.00	1504.00	1504.00	1504.00	1503.50	1503.00	1503.00	1502.50	1502.00	1501.00	1500.00	1500.00	1499.00	1498.50	1498.00	1497.00	1496.50	1496.00	1496.00	1495.50	1495.00	1494.50	1494.00	1494.00	1493.00	1493.00	1493.00	1493.00	1492.50	1492.00	1492.00	1492.00	1492.00	1492.00	1491.00	1491.00	1490.50	1490.00	1489.50	1489.00	1489.00	1488.00	1487.00	1486.50	1485.50	1485.00	1484.00	1482.50	1482.00	1481.00	1479.50	1478.50	1477.50	1476.50	1475.50	1474.00	1472.50	1472.00	1471.00	1469.50	1468.50	1467.00	1466.00	1465.50	1464.00	1463.00	1462.50	1461.50	1460.50	1459.50	1459.00	1458.00	1457.50	1457.00	1456.00	1455.50	1455.00	1455.00	1454.00	1453.00	1453.00	1453.00	1453.00	1453.00	1453.00	1453.00	1453.00	1453.00	1454.00	1454.00	1454.00	1454.50	1455.00	1455.00	1455.50	1456.00	1456.00	1457.00	1457.00	1457.50	1458.00	1458.50	1459.00	1459.00	1460.00	1461.00	1461.50	1462.00	1462.00	1462.00	1463.00	1463.00	1463.00	1464.00	1464.00	1464.00	1464.00	1464.00	1463.00	1462.50	1462.00	1461.00	1460.50	1460.00	1459.00	1458.00	1457.00	1455.00	1453.50	1452.50	1451.00	1449.00	1447.50	1446.00	1445.00	1442.50	1440.00	1438.00	1436.50	1435.00	1433.00	1430.50	1429.00	1427.00	1425.00	1423.50	1422.00	1420.50	1419.50	1418.00	1417.00	1415.50	1414.00	1412.50	1412.00	1411.50	1410.00	1409.50	1408.00	1408.00	1407.00	1406.50	1405.50	1404.50	1403.50	1403.00	1401.50	1400.50	1400.00	1398.50	1397.50	1397.00	1396.00	1394.50	1393.00	1392.50	1391.50	1390.50	1389.00	1388.50	1387.00	1386.00	1384.50	1383.00	1381.50	1380.50	1379.50	1378.00	1376.50	1375.00	1374.00	1373.00	1372.50	1371.50	1371.00	1370.50	1369.00	1369.00	1367.50	1367.00	1366.00	1366.00	1366.00	1365.00	1365.00	1364.00	1364.00	1363.00	1363.00	1362.50	1362.00	1362.00	1362.00	1362.00	1361.50	1361.00	1361.00	1360.50	1360.00	1360.00	1360.00	1359.00	1359.00	1359.00	1358.50	1358.00	1357.50	1356.00	1356.00	1354.50	1353.50	1351.50	1350.50	1349.50	1348.00	1347.00	1345.00	1343.00	1341.00	1339.50	1337.50	1335.50
1506.00	1506.00	1506.00	1506.00	1506.00	1506.00	1506.00	1506.00	1506.00	1506.00	1507.00	1506.50	1506.00	1505.00	1505.00	1504.00	1504.00	1504.00	1503.50	1503.00	1503.00	1502.50	1502.00	1501.00	1500.00	1500.00	1499.00	1498.50	1498.00	1497.00	1496.50	1496.00	1496.00	1495.50	1495.00	1494.50	1494.00	1494.00	1493.00	1493.00	1493.00	1493.00	1492.50	1492.00	1492.00	1492.00	1492.00	1492.00	1491.00	1491.00	1490.50	1490.00	1489.50	1489.00	1489.00	1488.00	1487.00	1486.50	1485.50	1485.00	1484.00	1482.50	1482.00	1481.00	1479.50	1478.50	1477.50	1476.50	1475.50	1474.00	1472.50	1472.00	1471.00	1469.50	1468.50	1467.00	1466.00	1465.50	1464.00	1463.00	1462.50	1461.50	1460.50	1459.50	1459.00	1458.00	1457.50	1457.00	1456.00	1455.50	1455.00	1455.00	1454.00	1453.00	1453.00	1453.00	1453.00	1453.00	1453.00	1453.00	1453.00	1453.00	1454.00	1454.00	1454.00	1454.50	1455.00	1455.00	1455.50	1456.00	1456.00	1457.00	1457.00	1457.50	1458.00	1458.50	1459.00	1459.00	1460.00	1461.00	1461.50	1462.00	1462.00	1462.00	1463.00	1463.00	1463.00	1464.00	1464.00	1464.00	1464.00	1464.00	1463.00	1462.50	1462.00	1461.00	1460.50	1460.00	1459.00	1458.00	1457.00	1455.00	1453.50	1452.50	1451.00	1449.00	1447.50	1446.00	1445.00	1442.50	1440.00	1438.00	1436.50	1435.00	1433.00	1430.50	1429.00	1427.00	1425.00	1423.50	1422.00	1420.50	1419.50	1418.00	1417.00	1415.50	1414.00	1412.50	1412.00	1411.50	1410.00	1409.50	1408.00	1408.00	1407.00	1406.50	1405.50	1404.50	1403.50	1403.00	1401.50	1400.50	1400.00	1398.50	1397.50	1397.00	1396.00	1394.50	1393.00	1392.50	1391.50	1390.50	1389.00	1388.50	1387.00	1386.00	1384.50	1383.00	1381.50	1380.50	1379.50	1378.00	1376.50	1375.00	1374.00	1373.00	1372.50	1371.50	1371.00	1370.50	1369.00	1369.00	1367.50	1367.00	1366.00	1366.00	1366.00	1365.00	1365.00	1364.00	1364.00	1363.00	1363.00	1362.50	1362.00	1362.00	1362.00	1362.00	1361.50	1361.00	1361.00	1360.50	1360.00	1360.00	1360.00	1359.00	1359.00	1359.00	1358.50	1358.00	1357.50	1356.00	1356.00	1354.50	1353.50	1351.50	1350.50	1349.50	1348.00	1347.00	1345.00	1343.00	1341.00	1339.50	1337.50	1335.50
1506.00	1506.00	1506.00	1506.00	1506.00	1506.00	1506.00	1506.00	1506.00	1506.00	1507.00	1506.50	1506.00	1505.00	1505.00	1504.00	1504.00	1504.00	1503.50	1503.00	1503.00	1502.50	1502.00	1501.00	1500.00	1500.00	1499.00	1498.50	1498.00	1497.00	1496.50	1496.00	1496.00	1495.50	1495.00	1494.50	1494.00	1494.00	1493.00	1493.00	1493.00	1493.00	1492.50	1492.00	1492.00	1492.00	1492.00	1492.00	1491.00	1491.00	1490.50	1490.00	1489.50	1489.00	1489.00	1488.00	1487.00	1486.50	1485.50	1485.00	1484.00	1482.50	1482.00	1481.00	1479.50	1478.50	1477.50	1476.50	1475.50	1474.00	1472.50	1472.00	1471.00	1469.50	1468.50	1467.00	1466.00	1465.50	1464.00	1463.00	1462.50	1461.50	1460.50	1459.50	1459.00	1458.00	1457.50	1457.00	1456.00	1455.50	1455.00	1455.00	1454.00	1453.00	1453.00	1453.00	1453.00	1453.00	1453.00	1453.00	1453.00	1453.00	1454.00	1454.00	1454.00	1454.50	1455.00	1455.00	1455.50	1456.00	1456.00	1457.00	1457.00	1457.50	1458.00	1458.50	1459.00	1459.00	1460.00	1461.00	1461.50	1462.00	1462.00	1462.00	1463.00	1463.00	1463.00	1464.00	1464.00	1464.00	1464.00	1464.00	1463.00	1462.50	1462.00	1461.00	1460.50	1460.00	1459.00	1458.00	1457.00	1455.00	1453.50	1452.50	1451.00	1449.00	1447.50	1446.00	1445.00	1442.50	1440.00	1438.00	1436.50	1435.00	1433.00	1430.50	1429.00	1427.00	1425.00	1423.50	1422.00	1420.50	1419.50	1418.00	1417.00	1415.50	1414.00	1412.50	1412.00	1411.50	1410.00	1409.50	1408.00	1408.00	1407.00	1406.50	1405.50	1404.50	1403.50	1403.00	1401.50	1400.50	1400.00	1398.50	1397.50	1397.00	1396.00	1394.50	1393.00	1392.50	1391.50	1390.50	1389.00	1388.50	1387.00	1386.00	1384.50	1383.00	1381.50	1380.50	1379.50	1378.00	1376.50	1375.00	1374.00	1373.00	1372.50	1371.50	1371.00	1370.50	1369.00	1369.00	1367.50	1367.00	1366.00	1366.00	1366.00	1365.00	1365.00	1364.00	1364.00	1363.00	1363.00	1362.50	1362.00	1362.00	1362.00	1362.00	1361.50	1361.00	1361.00	1360.50	1360.00	1360.00	1360.00	1359.00	1359.00	1359.00	1358.50	1358.00	1357.50	1356.00	1356.00	1354.50	1353.50	1351.50	1350.50	1349.50	1348.00	1347.00	1345.00	1343.00	1341.00	1339.50	1337.50	1335.50
1506.00	1506.00	1506.00	1506.00	1506.00	1506.00	1506.00	1506.00	1506.00	1506.00	1507.00	1506.50	1506.00	1505.00	1505.00	1504.00	1504.00	1504.00	1503.50	1503.00	1503.00	1502.50	1502.00	1501.00	1500.00	1500.00	1499.00	1498.50	1498.00	1497.00	1496.50	1496.00	1496.00	1495.50	1495.00	1494.50	1494.00	1494.00	1493.00	1493.00	1493.00	1493.00	1492.50	1492.00	1492.00	1492.00	1492.00	1492.00	1491.00	1491.00	1490.50	1490.00	1489.50	1489.00	1489.00	1488.00	1487.00	1486.50	1485.50	1485.00	1484.00	1482.50	1482.00	1481.00	1479.50	1478.50	1477.50	1476.50	1475.50	1474.00	1472.50	1472.00	1471.00	1469.50	1468.50	1467.00	1466.00	1465.50	1464.00	1463.00	1462.50	1461.50	1460.50	1459.50	1459.00	1458.00	1457.50	1457.00	1456.00	1455.50	1455.00	1455.00	1454.00	1453.00	1453.00	1453.00	1453.00	1453.00	1453.00	1453.00	1453.00	1453.00	1454.00	1454.00	1454.00	1454.50	1455.00	1455.00	1455.50	1456.00	1456.00	1457.00	1457.00	1457.50	1458.00	1458.50	1459.00	1459.00	1460.00	1461.00	1461.50	1462.00	1462.00	1462.00	1463.00	1463.00	1463.00	1464.00	1464.00	1464.00	1464.00	1464.00	1463.00	1462.50	1462.00	1461.00	1460.50	1460.00	1459.00	1458.00	1457.00	1455.00	1453.50	1452.50	1451.00	1449.00	1447.50	1446.00	1445.00	1442.50	1440.00	1438.00	1436.50	1435.00	1433.00	1430.50	1429.00	1427.00	1425.00	1423.50	1422.00	1420.50	1419.50	1418.00	1417.00	1415.50	1414.00	1412.50	1412.00	1411.50	1410.00	1409.50	1408.00	1408.00	1407.00	1406.50	1405.50	1404.50	1403.50	1403.00	1401.50	1400.50	1400.00	1398.50	1397.50	1397.00	1396.00	1394.50	1393.00	1392.50	1391.50	1390.50	1389.00	1388.50	1387.00	1386.00	1384.50	1383.00	1381.50	1380.50	1379.50	1378.00	1376.50	1375.00	1374.00	1373.00	1372.50	1371.50	1371.00	1370.50	1369.00	1369.00	1367.50	1367.00	1366.00	1366.00	1366.00	1365.00	1365.00	1364.00	1364.00	1363.00	1363.00	1362.50	1362.00	1362.00	1362.00	1362.00	1361.50	1361.00	1361.00	1360.50	1360.00	1360.00	1360.00	1359.00	1359.00	1359.00	1358.50	1358.00	1357.50	1356.00	1356.00	1354.50	1353.50	1351.50	1350.50	1349.50	1348.00	1347.00	1345.00	1343.00	1341.00	1339.50	1337.50	1335.50
1506.00	1506.00	1506.00	1506.00	1506.00	1506.00	1506.00	1506.00	1506.00	1506.00	1507.00	1506.50	1506.00	1505.00	1505.00	1504.00	1504.00	1504.00	1503.50	1503.00	1503.00	1502.50	1502.00	1501.00	1500.00	1500.00	1499.00	1498.50	1498.00	1497.00	1496.50	1496.00	1496.00	1495.50	1495.00	1494.50	1494.00	1494.00	1493.00	1493.00	1493.00	1493.00	1492.50	1492.00	1492.00	1492.00	1492.00	1492.00	1491.00	1491.00	1490.50	1490.00	1489.50	1489.00	1489.00	1488.00	1487.00	1486.50	1485.50	1485.00	1484.00	1482.50	1482.00	1481.00	1479.50	1478.50	1477.50	1476.50	1475.50	1474.00	1472.50	1472.00	1471.00	1469.50	1468.50	1467.00	1466.00	1465.50	1464.00	1463.00	1462.50	1461.50	1460.50	1459.50	1459.00	1458.00	1457.50	1457.00	1456.00	1455.50	1455.00	1455.00	1454.00	1453.00	1453.00	1453.00	1453.00	1453.00	1453.00	1453.00	1453.00	1453.00	1454.00	1454.00	1454.00	1454.50	1455.00	1455.00	1455.50	1456.00	1456.00	1457.00	1457.00	1457.50	1458.00	1458.50	1459.00	1459.00	1460.00	1461.00	1461.50	1462.00	1462.00	1462.00	1463.00	1463.00	1463.00	1464.00	1464.00	1464.00	1464.00	1464.00	1463.00	1462.50	1462.00	1461.00	1460.50	1460.00	1459.00	1458.00	1457.00	1455.00	1453.50	1452.50	1451.00	1449.00	1447.50	1446.00	1445.00	1442.50	1440.00	1438.00	1436.50	1435.00	1433.00	1430.50	1429.00	1427.00	1425.00	1423.50	1422.00	1420.50	1419.50	1418.00	1417.00	1415.50	1414.00	1412.50	1412.00	1411.50	1410.00	1409.50	1408.00	1408.00	1407.00	1406.50	1405.50	1404.50	1403.50	1403.00	1401.50	1400.50	1400.00	1398.50	1397.50	1397.00	1396.00	1394.50	1393.00	1392.50	1391.50	1390.50	1389.00	1388.50	1387.00	1386.00	1384.50	1383.00	1381.50	1380.50	1379.50	1378.00	1376.50	1375.00	1374.00	1373.00	1372.50	1371.50	1371.00	1370.50	1369.00	1369.00	1367.50	1367.00	1366.00	1366.00	1366.00	1365.00	1365.00	1364.00	1364.00	1363.00	1363.00	1362.50	1362.00	1362.00	1362.00	1362.00	1361.50	1361.00	1361.00	1360.50	1360.00	1360.00	1360.00	1359.00	1359.00	1359.00	1358.50	1358.00	1357.50	1356.00	1356.00	1354.50	1353.50	1351.50	1350.50	1349.50	1348.00	1347.00	1345.00	1343.00	1341.00	1339.50	1337.50	1335.50
1506.00	1506.00	1506.00	1506.00	1506.00	1506.00	1506.00	1506.00	1506.00	1506.00	1507.00	1506.50	1506.00	1505.00	1505.00	1504.00	1504.00	1504.00	1503.50	1503.00	1503.00	1502.50	1502.00	1501.00	1500.00	1500.00	1499.00	1498.50	1498.00	1497.00	1496.50	1496.00	1496.00	1495.50	1495.00	1494.50	1494.00	1494.00	1493.00	1493.00	1493.00	1493.00	1492.50	1492.00	1492.00	1492.00	1492.00	1492.00	1491.00	1491.00	1490.50	1490.00	1489.50	1489.00	1489.00	1488.00	1487.00	1486.50	1485.50	1485.00	1484.00	1482.50	1482.00	1481.00	1479.50	1478.50	1477.50	1476.50	1475.50	1474.00	1472.50	1472.00	1471.00	1469.50	1468.50	1467.00	1466.00	1465.50	1464.00	1463.00	1462.50	1461.50	1460.50	1459.50	1459.00	1458.00	1457.50	1457.00	1456.00	1455.50	1455.00	1455.00	1454.00	1453.00	1453.00	1453.00	1453.00	1453.00	1453.00	1453.00	1453.00	1453.00	1454.00	1454.00	1454.00	1454.50	1455.00	1455.00	1455.50	1456.00	1456.00	1457.00	1457.00	1457.50	1458.00	1458.50	1459.00	1459.00	1460.00	1461.00	1461.50	1462.00	1462.00	1462.00	1463.00	1463.00	1463.00	1464.00	1464.00	1464.00	1464.00	1464.00	1463.00	1462.50	1462.00	1461.00	1460.50	1460.00	1459.00	1458.00	1457.00	1455.00	1453.50	1452.50	1451.00	1449.00	1447.50	1446.00	1445.00	1442.50	1440.00	1438.00	1436.50	1435.00	1433.00	1430.50	1429.00	1427.00	1425.00	1423.50	1422.00	1420.50	1419.50	1418.00	1417.00	1415.50	1414.00	1412.50	1412.00	1411.50	1410.00	1409.50	1408.00	1408.00	1407.00	1406.50	1405.50	1404.50	1403.50	1403.00	1401.50	1400.50	1400.00	1398.50	1397.50	1397.00	1396.00	1394.50	1393.00	1392.50	1391.50	1390.50	1389.00	1388.50	1387.00	1386.00	1384.50	1383.00	1381.50	1380.50	1379.50	1378.00	1376.50	1375.00	1374.00	1373.00	1372.50	1371.50	1371.00	1370.50	1369.00	1369.00	1367.50	1367.00	1366.00	1366.00	1366.00	1365.00	1365.00	1364.00	1364.00	1363.00	1363.00	1362.50	1362.00	1362.00	1362.00	1362.00	1361.50	1361.00	1361.00	1360.50	1360.00	1360.00	1360.00	1359.00	1359.00	1359.00	1358.50	1358.00	1357.50	1356.00	1356.00	1354.50	1353.50	1351.50	1350.50	1349.50	1348.00	1347.00	1345.00	1343.00	1341.00	1339.50	1337.50	1335.50
1512.50	1512.25	1511.75	1511.25	1511.00	1510.75	1510.50	1510.00	1510.00	1509.50	1509.50	1509.00	1508.25	1507.25	1507.00	1506.00	1505.50	1505.25	1504.75	1504.00	1504.00	1503.50	1503.00	1502.00	1501.00	1501.00	1500.00	1499.50	1499.00	1498.50	1498.00	1497.50	1497.25	1496.75	1496.50	1496.00	1495.50	1495.50	1495.00	1494.75	1494.50	1494.50	1494.25	1494.00	1493.50	1493.50	1493.50	1493.50	1492.50	1492.50	1492.25	1491.75	1491.25	1491.00	1491.00	1490.00	1489.00	1488.25	1487.50	1486.75	1486.00	1484.50	1484.00	1483.00	1481.75	1481.00	1479.50	1478.75	1478.00	1476.50	1475.00	1474.50	1473.50	1472.00	1471.00	1470.00	1468.75	1468.25	1467.00	1465.75	1465.25	1464.50	1463.25	1462.50	1462.00	1461.00	1460.50	1460.00	1459.00	1458.50	1458.00	1457.50	1457.00	1456.50	1456.50	1456.00	1456.00	1456.00	1456.00	1456.00	1456.00	1456.00	1456.75	1457.00	1457.00	1457.25	1457.75	1458.00	1458.25	1458.50	1459.00	1459.50	1459.50	1460.00	1460.50	1460.75	1461.50	1461.50	1462.00	1463.00	1463.25	1463.50	1463.75	1464.00	1464.75	1465.00	1465.00	1465.75	1466.00	1466.00	1465.75	1465.50	1465.00	1464.50	1464.00	1463.50	1463.00	1462.50	1461.50	1460.75	1459.50	1458.00	1456.50	1455.50	1454.00	1452.50	1451.50	1450.00	1448.50	1446.50	1444.00	1442.00	1440.50	1439.25	1437.00	1434.75	1433.00	1431.50	1429.50	1428.00	1426.25	1424.50	1423.50	1422.00	1420.50	1419.00	1417.50	1416.00	1415.50	1415.00	1413.50	1412.50	1411.50	1411.00	1409.75	1409.00	1407.50	1406.75	1406.00	1405.00	1403.50	1402.50	1401.50	1400.50	1399.50	1398.50	1397.50	1396.50	1395.00	1394.25	1393.50	1392.50	1391.00	1390.50	1389.00	1388.00	1387.00	1385.50	1384.00	1383.25	1382.50	1381.00	1379.50	1378.50	1377.50	1376.75	1376.25	1375.50	1374.75	1374.25	1373.00	1373.00	1372.00	1372.00	1371.50	1371.50	1371.50	1371.00	1371.00	1370.50	1370.50	1370.00	1370.00	1369.75	1369.75	1370.00	1370.00	1370.00	1369.75	1370.00	1369.75	1369.25	1369.00	1369.00	1369.00	1368.00	1368.00	1368.00	1367.75	1367.25	1366.50	1365.00	1364.50	1363.00	1362.00	1360.00	1359.00	1358.00	1356.00	1355.00	1352.50	1350.50	1348.50	1347.00	1345.00	1342.75
1519.00	1518.50	1517.50	1516.50	1516.00	1515.50	1515.00	1514.00	1514.00	1513.00	1512.00	1511.50	1510.50	1509.50	1509.00	1508.00	1507.00	1506.50	1506.00	1505.00	1505.00	1504.50	1504.00	1503.00	1502.00	1502.00	1501.00	1500.50	1500.00	1500.00	1499.50	1499.00	1498.50	1498.00	1498.00	1497.50	1497.00	1497.00	1497.00	1496.50	1496.00	1496.00	1496.00	1496.00	1495.00	1495.00	1495.00	1495.00	1494.00	1494.00	1494.00	1493.50	1493.00	1493.00	1493.00	1492.00	1491.00	1490.00	1489.50	1488.50	1488.00	1486.50	1486.00	1485.00	1484.00	1483.50	1481.50	1481.00	1480.50	1479.00	1477.50	1477.00	1476.00	1474.50	1473.50	1473.00	1471.50	1471.00	1470.00	1468.50	1468.00	1467.50	1466.00	1465.50	1465.00	1464.00	1463.50	1463.00	1462.00	1461.50	1461.00	1460.00	1460.00	1460.00	1460.00	1459.00	1459.00	1459.00	1459.00	1459.00	1459.00	1459.00	1459.50	1460.00	1460.00	1460.00	1460.50	1461.00	1461.00	1461.00	1462.00	1462.00	1462.00	1462.50	1463.00	1463.00	1464.00	1464.00	1464.00	1465.00	1465.00	1465.00	1465.50	1466.00	1466.50	1467.00	1467.00	1467.50	1468.00	1468.00	1467.50	1467.00	1467.00	1466.50	1466.00	1466.00	1465.50	1465.00	1464.00	1463.50	1462.00	1461.00	1459.50	1458.50	1457.00	1456.00	1455.50	1454.00	1452.00	1450.50	1448.00	1446.00	1444.50	1443.50	1441.00	1439.00	1437.00	1436.00	1434.00	1432.50	1430.50	1428.50	1427.50	1426.00	1424.00	1422.50	1421.00	1419.50	1419.00	1418.50	1417.00	1415.50	1415.00	1414.00	1412.50	1411.50	1409.50	1409.00	1408.50	1407.00	1405.50	1404.50	1403.00	1402.50	1401.50	1400.00	1399.00	1398.50	1397.00	1396.00	1395.50	1394.50	1393.00	1392.50	1391.00	1390.00	1389.50	1388.00	1386.50	1386.00	1385.50	1384.00	1382.50	1382.00	1381.00	1380.50	1380.00	1379.50	1378.50	1378.00	1377.00	1377.00	1376.50	1377.00	1377.00	1377.00	1377.00	1377.00	1377.00	1377.00	1377.00	1377.00	1377.00	1377.00	1377.50	1378.00	1378.00	1378.00	1378.00	1379.00	1378.50	1378.00	1378.00	1378.00	1378.00	1377.00	1377.00	1377.00	1377.00	1376.50	1375.50	1374.00	1373.00	1371.50	1370.50	1368.50	1367.50	1366.50	1364.00	1363.00	1360.00	1358.00	1356.00	1354.50	1352.50	1350.00
1519.00	1518.50	1517.50	1516.50	1516.00	1515.50	1515.00	1514.00	1514.00	1513.00	1512.00	1511.50	1510.50	1509.50	1509.00	1508.00	1507.00	1506.50	1506.00	1505.00	1505.00	1504.50	1504.00	1503.00	1502.00	1502.00	1501.00	1500.50	1500.00	1500.00	1499.50	1499.00	1498.50	1498.00	1498.00	1497.50	1497.00	1497.00	1497.00	1496.50	1496.00	1496.00	1496.00	1496.00	1495.00	1495.00	1495.00	1495.00	1494.00	1494.00	1494.00	1493.50	1493.00	1493.00	1493.00	1492.00	1491.00	1490.00	1489.50	1488.50	1488.00	1486.50	1486.00	1485.00	1484.00	1483.50	1481.50	1481.00	1480.50	1479.00	1477.50	1477.00	1476.00	1474.50	1473.50	1473.00	1471.50	1471.00	1470.00	1468.50	1468.00	1467.50	1466.00	1465.50	1465.00	1464.00	1463.50	1463.00	1462.00	1461.50	1461.00	1460.00	1460.00	1460.00	1460.00	1459.00	1459.00	1459.00	1459.00	1459.00	1459.00	1459.00	1459.50	1460.00	1460.00	1460.00	1460.50	1461.00	1461.00	1461.00	1462.00	1462.00	1462.00	1462.50	1463.00	1463.00	1464.00	1464.00	1464.00	1465.00	1465.00	1465.00	1465.50	1466.00	1466.50	1467.00	1467.00	1467.50	1468.00	1468.00	1467.50	1467.00	1467.00	1466.50	1466.00	1466.00	1465.50	1465.00	1464.00	1463.50	1462.00	1461.00	1459.50	1458.50	1457.00	1456.00	1455.50	1454.00	1452.00	1450.50	1448.00	1446.00	1444.50	1443.50	1441.00	1439.00	1437.00	1436.00	1434.00	1432.50	1430.50	1428.50	1427.50	1426.00	1424.00	1422.50	1421.00	1419.50	1419.00	1418.50	1417.00	1415.50	1415.00	1414.00	1412.50	1411.50	1409.50	1409.00	1408.50	1407.00	1405.50	1404.50	1403.00	1402.50	1401.50	1400.00	1399.00	1398.50	1397.00	1396.00	1395.50	1394.50	1393.00	1392.50	1391.00	1390.00	1389.50	1388.00	1386.50	1386.00	1385.50	1384.00	1382.50	1382.00	1381.00	1380.50	1380.00	1379.50	1378.50	1378.00	1377.00	1377.00	1376.50	1377.00	1377.00	1377.00	1377.00	1377.00	1377.00	1377.00	1377.00	1377.00	1377.00	1377.00	1377.50	1378.00	1378.00	1378.00	1378.00	1379.00	1378.50	1378.00	1378.00	1378.00	1378.00	1377.00	1377.00	1377.00	1377.00	1376.50	1375.50	1374.00	1373.00	1371.50	1370.50	1368.50	1367.50	1366.50	1364.00	1363.00	1360.00	1358.00	1356.00	1354.50	1352.50	1350.00
1519.00	1518.50	1517.50	1516.50	1516.00	1515.50	1515.00	1514.00	1514.00	1513.00	1512.00	1511.50	1510.50	1509.50	1509.00	1508.00	1507.00	1506.50	1506.00	1505.00	1505.00	1504.50	1504.00	1503.00	1502.00	1502.00	1501.00	1500.50	1500.00	1500.00	1499.50	1499.00	1498.50	1498.00	1498.00	1497.50	1497.00	1497.00	1497.00	1496.50	1496.00	1496.00	1496.00	1496.00	1495.00	1495.00	1495.00	1495.00	1494.00	1494.00	1494.00	1493.50	1493.00	1493.00	1493.00	1492.00	1491.00	1490.00	1489.50	1488.50	1488.00	1486.50	1486.00	1485.00	1484.00	1483.50	1481.50	1481.00	1480.50	1479.00	1477.50	1477.00	1476.00	1474.50	1473.50	1473.00	1471.50	1471.00	1470.00	1468.50	1468.00	1467.50	1466.00	1465.50	1465.00	1464.00	1463.50	1463.00	1462.00	1461.50	1461.00	1460.00	1460.00	1460.00	1460.00	1459.00	1459.00	1459.00	1459.00	1459.00	1459.00	1459.00	1459.50	1460.00	1460.00	1460.00	1460.50	1461.00	1461.00	1461.00	1462.00	1462.00	1462.00	1462.50	1463.00	1463.00	1464.00	1464.00	1464.00	1465.00	1465.00	1465.00	1465.50	1466.00	1466.50	1467.00	1467.00	1467.50	1468.00	1468.00	1467.50	1467.00	1467.00	1466.50	1466.00	1466.00	1465.50	1465.00	1464.00	1463.50	1462.00	1461.00	1459.50	1458.50	1457.00	1456.00	1455.50	1454.00	1452.00	1450.50	1448.00	1446.00	1444.50	1443.50	1441.00	1439.00	1437.00	1436.00	1434.00	1432.50	1430.50	1428.50	1427.50	1426.00	1424.00	1422.50	1421.00	1419.50	1419.00	1418.50	1417.00	1415.50	1415.00	1414.00	1412.50	1411.50	1409.50	1409.00	1408.50	1407.00	1405.50	1404.50	1403.00	1402.50	1401.50	1400.00	1399.00	1398.50	1397.00	1396.00	1395.50	1394.50	1393.00	1392.50	1391.00	1390.00	1389.50	1388.00	1386.50	1386.00	1385.50	1384.00	1382.50	1382.00	1381.00	1380.50	1380.00	1379.50	1378.50	1378.00	1377.00	1377.00	1376.50	1377.00	1377.00	1377.00	1377.00	1377.00	1377.00	1377.00	1377.00	1377.00	1377.00	1377.00	1377.50	1378.00	1378.00	1378.00	1378.00	1379.00	1378.50	1378.00	1378.00	1378.00	1378.00	1377.00	1377.00	1377.00	1377.00	1376.50	1375.50	1374.00	1373.00	1371.50	1370.50	1368.50	1367.50	1366.50	1364.00	1363.00	1360.00	1358.00	1356.00	1354.50	1352.50	1350.00
1519.00	1518.50	1517.50	1516.50	1516.00	1515.50	1515.00	1514.00	1514.00	1513.00	1512.00	1511.50	1510.50	1509.50	1509.00	1508.00	1507.00	1506.50	1506.00	1505.00	1505.00	1504.50	1504.00	1503.00	1502.00	1502.00	1501.00	1500.50	1500.00	1500.00	1499.50	1499.00	1498.50	1498.00	1498.00	1497.50	1497.00	1497.00	1497.00	1496.50	1496.00	1496.00	1496.00	1496.00	1495.00	1495.00	1495.00	1495.00	1494.00	1494.00	1494.00	1493.50	1493.00	1493.00	1493.00	1492.00	1491.00	1490.00	1489.50	1488.50	1488.00	1486.50	1486.00	1485.00	1484.00	1483.50	1481.50	1481.00	1480.50	1479.00	1477.50	1477.00	1476.00	1474.50	1473.50	1473.00	1471.50	1471.00	1470.00	1468.50	1468.00	1467.50	1466.00	1465.50	1465.00	1464.00	1463.50	1463.00	1462.00	1461.50	1461.00	1460.00	1460.00	1460.00	1460.00	1459.00	1459.00	1459.00	1459.00	1459.00	1459.00	1459.00	1459.50	1460.00	1460.00	1460.00	1460.50	1461.00	1461.00	1461.00	1462.00	1462.00	1462.00	1462.50	1463.00	1463.00	1464.00	1464.00	1464.00	1465.00	1465.00	1465.00	1465.50	1466.00	1466.50	1467.00	1467.00	1467.50	1468.00	1468.00	1467.50	1467.00	1467.00	1466.50	1466.00	1466.00	1465.50	1465.00	1464.00	1463.50	1462.00	1461.00	1459.50	1458.50	1457.00	1456.00	1455.50	1454.00	1452.00	1450.50	1448.00	1446.00	1444.50	1443.50	1441.00	1439.00	1437.00	1436.00	1434.00	1432.50	1430.50	1428.50	1427.50	1426.00	1424.00	1422.50	1421.00	1419.50	1419.00	1418.50	1417.00	1415.50	1415.00	1414.00	1412.50	1411.50	1409.50	1409.00	1408.50	1407.00	1405.50	1404.50	1403.00	1402.50	1401.50	1400.00	1399.00	1398.50	1397.00	1396.00	1395.50	1394.50	1393.00	1392.50	1391.00	1390.00	1389.50	1388.00	1386.50	1386.00	1385.50	1384.00	1382.50	1382.00	1381.00	1380.50	1380.00	1379.50	1378.50	1378.00	1377.00	1377.00	1376.50	1377.00	1377.00	1377.00	1377.00	1377.00	1377.00	1377.00	1377.00	1377.00	1377.00	1377.00	1377.50	1378.00	1378.00	1378.00	1378.00	1379.00	1378.50	1378.00	1378.00	1378.00	1378.00	1377.00	1377.00	1377.00	1377.00	1376.50	1375.50	1374.00	1373.00	1371.50	1370.50	1368.50	1367.50	1366.50	1364.00	1363.00	1360.00	1358.00	1356.00	1354.50	1352.50	1350.00
1519.00	1518.50	1517.50	1516.50	1516.00	1515.50	1515.00	1514.00	1514.00	1513.00	1512.00	1511.50	1510.50	1509.50	1509.00	1508.00	1507.00	1506.50	1506.00	1505.00	1505.00	1504.50	1504.00	1503.00	1502.00	1502.00	1501.00	1500.50	1500.00	1500.00	1499.50	1499.00	1498.50	1498.00	1498.00	1497.50	1497.00	1497.00	1497.00	1496.50	1496.00	1496.00	1496.00	1496.00	1495.00	1495.00	1495.00	1495.00	1494.00	1494.00	1494.00	1493.50	1493.00	1493.00	1493.00	1492.00	1491.00	1490.00	1489.50	1488.50	1488.00	1486.50	1486.00	1485.00	1484.00	1483.50	1481.50	1481.00	1480.50	1479.00	1477.50	1477.00	1476.00	1474.50	1473.50	1473.00	1471.50	1471.00	1470.00	1468.50	1468.00	1467.50	1466.00	1465.50	1465.00	1464.00	1463.50	1463.00	1462.00	1461.50	1461.00	1460.00	1460.00	1460.00	1460.00	1459.00	1459.00	1459.00	1459.00	1459.00	1459.00	1459.00	1459.50	1460.00	1460.00	1460.00	1460.50	1461.00	1461.00	1461.00	1462.00	1462.00	1462.00	1462.50	1463.00	1463.00	1464.00	1464.00	1464.00	1465.00	1465.00	1465.00	1465.50	1466.00	1466.50	1467.00	1467.00	1467.50	1468.00	1468.00	1467.50	1467.00	1467.00	1466.50	1466.00	1466.00	1465.50	1465.00	1464.00	1463.50	1462.00	1461.00	1459.50	1458.50	1457.00	1456.00	1455.50	1454.00	1452.00	1450.50	1448.00	1446.00	1444.50	1443.50	1441.00	1439.00	1437.00	1436.00	1434.00	1432.50	1430.50	1428.50	1427.50	1426.00	1424.00	1422.50	1421.00	1419.50	1419.00	1418.50	1417.00	1415.50	1415.00	1414.00	1412.50	1411.50	1409.50	1409.00	1408.50	1407.00	1405.50	1404.50	1403.00	1402.50	1401.50	1400.00	1399.00	1398.50	1397.00	1396.00	1395.50	1394.50	1393.00	1392.50	1391.00	1390.00	1389.50	1388.00	1386.50	1386.00	1385.50	1384.00	1382.50	1382.00	1381.00	1380.50	1380.00	1379.50	1378.50	1378.00	1377.00	1377.00	1376.50	1377.00	1377.00	1377.00	1377.00	1377.00	1377.00	1377.00	1377.00	1377.00	1377.00	1377.00	1377.50	1378.00	1378.00	1378.00	1378.00	1379.00	1378.50	1378.00	1378.00	1378.00	1378.00	1377.00	1377.00	1377.00	1377.00	1376.50	1375.50	1374.00	1373.00	1371.50	1370.50	1368.50	1367.50	1366.50	1364.00	1363.00	1360.00	1358.00	1356.00	1354.50	1352.50	1350.00
1519.00	1518.50	1517.50	1516.50	1516.00	1515.50	1515.00	1514.00	1514.00	1513.00	1512.00	1511.50	1510.50	1509.50	1509.00	1508.00	1507.00	1506.50	1506.00	1505.00	1505.00	1504.50	1504.00	1503.00	1502.00	1502.00	1501.00	1500.50	1500.00	1500.00	1499.50	1499.00	1498.50	1498.00	1498.00	1497.50	1497.00	1497.00	1497.00	1496.50	1496.00	1496.00	1496.00	1496.00	1495.00	1495.00	1495.00	1495.00	1494.00	1494.00	1494.00	1493.50	1493.00	1493.00	1493.00	1492.00	1491.00	1490.00	1489.50	1488.50	1488.00	1486.50	1486.00	1485.00	1484.00	1483.50	1481.50	1481.00	1480.50	1479.00	1477.50	1477.00	1476.00	1474.50	1473.50	1473.00	1471.50	1471.00	1470.00	1468.50	1468.00	1467.50	1466.00	1465.50	1465.00	1464.00	1463.50	1463.00	1462.00	1461.50	1461.00	1460.00	1460.00	1460.00	1460.00	1459.00	1459.00	1459.00	1459.00	1459.00	1459.00	1459.00	1459.50	1460.00	1460.00	1460.00	1460.50	1461.00	1461.00	1461.00	1462.00	1462.00	1462.00	1462.50	1463.00	1463.00	1464.00	1464.00	1464.00	1465.00	1465.00	1465.00	1465.50	1466.00	1466.50	1467.00	1467.00	1467.50	1468.00	1468.00	1467.50	1467.00	1467.00	1466.50	1466.00	1466.00	1465.50	1465.00	1464.00	1463.50	1462.00	1461.00	1459.50	1458.50	1457.00	1456.00	1455.50	1454.00	1452.00	1450.50	1448.00	1446.00	1444.50	1443.50	1441.00	1439.00	1437.00	1436.00	1434.00	1432.50	1430.50	1428.50	1427.50	1426.00	1424.00	1422.50	1421.00	1419.50	1419.00	1418.50	1417.00	1415.50	1415.00	1414.00	1412.50	1411.50	1409.50	1409.00	1408.50	1407.00	1405.50	1404.50	1403.00	1402.50	1401.50	1400.00	1399.00	1398.50	1397.00	1396.00	1395.50	1394.50	1393.00	1392.50	1391.00	1390.00	1389.50	1388.00	1386.50	1386.00	1385.50	1384.00	1382.50	1382.00	1381.00	1380.50	1380.00	1379.50	1378.50	1378.00	1377.00	1377.00	1376.50	1377.00	1377.00	1377.00	1377.00	1377.00	1377.00	1377.00	1377.00	1377.00	1377.00	1377.00	1377.50	1378.00	1378.00	1378.00	1378.00	1379.00	1378.50	1378.00	1378.00	1378.00	1378.00	1377.00	1377.00	1377.00	1377.00	1376.50	1375.50	1374.00	1373.00	1371.50	1370.50	1368.50	1367.50	1366.50	1364.00	1363.00	1360.00	1358.00	1356.00	1354.50	1352.50	1350.00
1519.00	1518.50	1517.50	1516.50	1516.00	1515.50	1515.00	1514.00	1514.00	1513.00	1512.00	1511.50	1510.50	1509.50	1509.00	1508.00	1507.00	1506.50	1506.00	1505.00	1505.00	1504.50	1504.00	1503.00	1502.00	1502.00	1501.00	1500.50	1500.00	1500.00	1499.50	1499.00	1498.50	1498.00	1498.00	1497.50	1497.00	1497.00	1497.00	1496.50	1496.00	1496.00	1496.00	1496.00	1495.00	1495.00	1495.00	1495.00	1494.00	1494.00	1494.00	1493.50	1493.00	1493.00	1493.00	1492.00	1491.00	1490.00	1489.50	1488.50	1488.00	1486.50	1486.00	1485.00	1484.00	1483.50	1481.50	1481.00	1480.50	1479.00	1477.50	1477.00	1476.00	1474.50	1473.50	1473.00	1471.50	1471.00	1470.00	1468.50	1468.00	1467.50	1466.00	1465.50	1465.00	1464.00	1463.50	1463.00	1462.00	1461.50	1461.00	1460.00	1460.00	1460.00	1460.00	1459.00	1459.00	1459.00	1459.00	1459.00	1459.00	1459.00	1459.50	1460.00	1460.00	1460.00	1460.50	1461.00	1461.00	1461.00	1462.00	1462.00	1462.00	1462.50	1463.00	1463.00	1464.00	1464.00	1464.00	1465.00	1465.00	1465.00	1465.50	1466.00	1466.50	1467.00	1467.00	1467.50	1468.00	1468.00	1467.50	1467.00	1467.00	1466.50	1466.00	1466.00	1465.50	1465.00	1464.00	1463.50	1462.00	1461.00	1459.50	1458.50	1457.00	1456.00	1455.50	1454.00	1452.00	1450.50	1448.00	1446.00	1444.50	1443.50	1441.00	1439.00	1437.00	1436.00	1434.00	1432.50	1430.50	1428.50	1427.50	1426.00	1424.00	1422.50	1421.00	1419.50	1419.00	1418.50	1417.00	1415.50	1415.00	1414.00	1412.50	1411.50	1409.50	1409.00	1408.50	1407.00	1405.50	1404.50	1403.00	1402.50	1401.50	1400.00	1399.00	1398.50	1397.00	1396.00	1395.50	1394.50	1393.00	1392.50	1391.00	1390.00	1389.50	1388.00	1386.50	1386.00	1385.50	1384.00	1382.50	1382.00	1381.00	1380.50	1380.00	1379.50	1378.50	1378.00	1377.00	1377.00	1376.50	1377.00	1377.00	1377.00	1377.00	1377.00	1377.00	1377.00	1377.00	1377.00	1377.00	1377.00	1377.50	1378.00	1378.00	1378.00	1378.00	1379.00	1378.50	1378.00	1378.00	1378.00	1378.00	1377.00	1377.00	1377.00	1377.00	1376.50	1375.50	1374.00	1373.00	1371.50	1370.50	1368.50	1367.50	1366.50	1364.00	1363.00	1360.00	1358.00	1356.00	1354.50	1352.50	1350.00
1519.00	1518.50	1517.50	1516.50	1516.00	1515.50	1515.00	1514.00	1514.00	1513.00	1512.00	1511.50	1510.50	1509.50	1509.00	1508.00	1507.00	1506.50	1506.00	1505.00	1505.00	1504.50	1504.00	1503.00	1502.00	1502.00	1501.00	1500.50	1500.00	1500.00	1499.50	1499.00	1498.50	1498.00	1498.00	1497.50	1497.00	1497.00	1497.00	1496.50	1496.00	1496.00	1496.00	1496.00	1495.00	1495.00	1495.00	1495.00	1494.00	1494.00	1494.00	1493.50	1493.00	1493.00	1493.00	1492.00	1491.00	1490.00	1489.50	1488.50	1488.00	1486.50	1486.00	1485.00	1484.00	1483.50	1481.50	1481.00	1480.50	1479.00	1477.50	1477.00	1476.00	1474.50	1473.50	1473.00	1471.50	1471.00	1470.00	1468.50	1468.00	1467.50	1466.00	1465.50	1465.00	1464.00	1463.50	1463.00	1462.00	1461.50	1461.00	1460.00	1460.00	1460.00	1460.00	1459.00	1459.00	1459.00	1459.00	1459.00	1459.00	1459.00	1459.50	1460.00	1460.00	1460.00	1460.50	1461.00	1461.00	1461.00	1462.00	1462.00	1462.00	1462.50	1463.00	1463.00	1464.00	1464.00	1464.00	1465.00	1465.00	1465.00	1465.50	1466.00	1466.50	1467.00	1467.00	1467.50	1468.00	1468.00	1467.50	1467.00	1467.00	1466.50	1466.00	1466.00	1465.50	1465.00	1464.00	1463.50	1462.00	1461.00	1459.50	1458.50	1457.00	1456.00	1455.50	1454.00	1452.00	1450.50	1448.00	1446.00	1444.50	1443.50	1441.00	1439.00	1437.00	1436.00	1434.00	1432.50	1430.50	1428.50	1427.50	1426.00	1424.00	1422.50	1421.00	1419.50	1419.00	1418.50	1417.00	1415.50	1415.00	1414.00	1412.50	1411.50	1409.50	1409.00	1408.50	1407.00	1405.50	1404.50	1403.00	1402.50	1401.50	1400.00	1399.00	1398.50	1397.00	1396.00	1395.50	1394.50	1393.00	1392.50	1391.00	1390.00	1389.50	1388.00	1386.50	1386.00	1385.50	1384.00	1382.50	1382.00	1381.00	1380.50	1380.00	1379.50	1378.50	1378.00	1377.00	1377.00	1376.50	1377.00	1377.00	1377.00	1377.00	1377.00	1377.00	1377.00	1377.00	1377.00	1377.00	1377.00	1377.50	1378.00	1378.00	1378.00	1378.00	1379.00	1378.50	1378.00	1378.00	1378.00	1378.00	1377.00	1377.00	1377.00	1377.00	1376.50	1375.50	1374.00	1373.00	1371.50	1370.50	1368.50	1367.50	1366.50	1364.00	1363.00	1360.00	1358.00	1356.00	1354.50	1352.50	1350.00
1521.00	1519.50	1519.00	1518.50	1517.50	1517.00	1516.00	1515.00	1514.50	1514.00	1513.00	1512.50	1512.00	1511.00	1510.50	1510.00	1509.00	1509.00	1508.50	1508.00	1508.00	1507.50	1507.00	1506.50	1506.00	1506.00	1505.50	1505.00	1505.00	1504.50	1504.00	1504.00	1503.50	1503.00	1503.00	1503.00	1502.50	1502.00	1502.00	1502.00	1502.00	1501.50	1501.00	1501.00	1501.00	1500.50	1500.00	1500.00	1500.00	1499.50	1499.00	1499.00	1498.50	1498.00	1497.00	1496.50	1496.00	1494.50	1494.00	1493.50	1493.00	1491.50	1491.00	1490.00	1489.00	1488.50	1487.50	1486.50	1486.00	1485.00	1484.00	1483.50	1482.00	1481.00	1480.50	1479.00	1478.00	1477.50	1476.00	1475.50	1474.50	1473.50	1472.50	1472.00	1471.00	1470.00	1469.50	1469.00	1467.50	1467.00	1467.00	1466.00	1466.00	1466.00	1466.00	1465.00	1465.00	1465.00	1465.00	1465.00	1465.00	1465.00	1465.00	1465.00	1465.00	1465.00	1465.50	1466.00	1466.00	1466.00	1467.00	1467.00	1467.00	1467.00	1467.50	1468.00	1468.00	1468.00	1468.00	1469.00	1469.00	1469.00	1469.00	1469.00	1470.00	1470.00	1470.00	1470.00	1470.00	1470.00	1470.00	1470.00	1470.00	1470.00	1469.00	1469.00	1469.00	1468.50	1467.00	1466.50	1465.00	1465.00	1463.50	1463.00	1462.00	1460.50	1459.50	1458.00	1457.00	1455.00	1453.00	1451.50	1450.50	1449.00	1447.00	1445.50	1443.00	1442.00	1440.00	1438.50	1436.50	1434.50	1433.50	1431.00	1430.00	1428.50	1427.00	1425.50	1424.50	1423.50	1422.00	1420.50	1419.00	1418.00	1416.50	1415.50	1413.00	1411.50	1410.50	1409.00	1407.50	1406.50	1405.00	1403.50	1402.50	1401.00	1401.00	1399.50	1398.00	1396.50	1395.50	1394.50	1393.50	1392.50	1391.00	1391.00	1389.50	1389.00	1387.50	1387.00	1386.50	1386.00	1385.00	1385.00	1385.00	1384.50	1384.00	1384.00	1383.50	1383.00	1383.00	1384.00	1384.00	1385.00	1385.00	1385.50	1386.00	1386.00	1387.00	1387.00	1388.00	1388.50	1389.00	1390.00	1390.00	1390.50	1391.00	1392.00	1392.00	1392.00	1392.00	1392.00	1391.00	1391.00	1391.00	1391.00	1391.00	1390.50	1389.50	1388.00	1387.50	1386.00	1385.00	1383.50	1382.50	1380.50	1379.00	1377.00	1374.00	1373.00	1369.00	1367.00	1364.00	1362.00	1359.50	1357.00
1521.00	1519.50	1519.00	1518.50	1517.50	1517.00	1516.00	1515.00	1514.50	1514.00	1513.00	1512.50	1512.00	1511.00	1510.50	1510.00	1509.00	1509.00	1508.50	1508.00	1508.00	1507.50	1507.00	1506.50	1506.00	1506.00	1505.50	1505.00	1505.00	1504.50	1504.00	1504.00	1503.50	1503.00	1503.00	1503.00	1502.50	1502.00	1502.00	1502.00	1502.00	1501.50	1501.00	1501.00	1501.00	1500.50	1500.00	1500.00	1500.00	1499.50	1499.00	1499.00	1498.50	1498.00	1497.00	1496.50	1496.00	1494.50	1494.00	1493.50	1493.00	1491.50	1491.00	1490.00	1489.00	1488.50	1487.50	1486.50	1486.00	1485.00	1484.00	1483.50	1482.00	1481.00	1480.50	1479.00	1478.00	1477.50	1476.00	1475.50	1474.50	1473.50	1472.50	1472.00	1471.00	1470.00	1469.50	1469.00	1467.50	1467.00	1467.00	1466.00	1466.00	1466.00	1466.00	1465.00	1465.00	1465.00	1465.00	1465.00	1465.00	1465.00	1465.00	1465.00	1465.00	1465.00	1465.50	1466.00	1466.00	1466.00	1467.00	1467.00	1467.00	1467.00	1467.50	1468.00	1468.00	1468.00	1468.00	1469.00	1469.00	1469.00	1469.00	1469.00	1470.00	1470.00	1470.00	1470.00	1470.00	1470.00	1470.00	1470.00	1470.00	1470.00	1469.00	1469.00	1469.00	1468.50	1467.00	1466.50	1465.00	1465.00	1463.50	1463.00	1462.00	1460.50	1459.50	1458.00	1457.00	1455.00	1453.00	1451.50	1450.50	1449.00	1447.00	1445.50	1443.00	1442.00	1440.00	1438.50	1436.50	1434.50	1433.50	1431.00	1430.00	1428.50	1427.00	1425.50	1424.50	1423.50	1422.00	1420.50	1419.00	1418.00	1416.50	1415.50	1413.00	1411.50	1410.50	1409.00	1407.50	1406.50	1405.00	1403.50	1402.50	1401.00	1401.00	1399.50	1398.00	1396.50	1395.50	1394.50	1393.50	1392.50	1391.00	1391.00	1389.50	1389.00	1387.50	1387.00	1386.50	1386.00	1385.00	1385.00	1385.00	1384.50	1384.00	1384.00	1383.50	1383.00	1383.00	1384.00	1384.00	1385.00	1385.00	1385.50	1386.00	1386.00	1387.00	1387.00	1388.00	1388.50	1389.00	1390.00	1390.00	1390.50	1391.00	1392.00	1392.00	1392.00	1392.00	1392.00	1391.00	1391.00	1391.00	1391.00	1391.00	1390.50	1389.50	1388.00	1387.50	1386.00	1385.00	1383.50	1382.50	1380.50	1379.00	1377.00	1374.00	1373.00	1369.00	1367.00	1364.00	1362.00	1359.50	1357.00
1521.00	1519.50	1519.00	1518.50	1517.50	1517.00	1516.00	1515.00	1514.50	1514.00	1513.00	1512.50	1512.00	1511.00	1510.50	1510.00	1509.00	1509.00	1508.50	1508.00	1508.00	1507.50	1507.00	1506.50	1506.00	1506.00	1505.50	1505.00	1505.00	1504.50	1504.00	1504.00	1503.50	1503.00	1503.00	1503.00	1502.50	1502.00	1502.00	1502.00	1502.00	1501.50	1501.00	1501.00	1501.00	1500.50	1500.00	1500.00	1500.00	1499.50	1499.00	1499.00	1498.50	1498.00	1497.00	1496.50	1496.00	1494.50	1494.00	1493.50	1493.00	1491.50	1491.00	1490.00	1489.00	1488.50	1487.50	1486.50	1486.00	1485.00	1484.00	1483.50	1482.00	1481.00	1480.50	1479.00	1478.00	1477.50	1476.00	1475.50	1474.50	1473.50	1472.50	1472.00	1471.00	1470.00	1469.50	1469.00	1467.50	1467.00	1467.00	1466.00	1466.00	1466.00	1466.00	1465.00	1465.00	1465.00	1465.00	1465.00	1465.00	1465.00	1465.00	1465.00	1465.00	1465.00	1465.50	1466.00	1466.00	1466.00	1467.00	1467.00	1467.00	1467.00	1467.50	1468.00	1468.00	1468.00	1468.00	1469.00	1469.00	1469.00	1469.00	1469.00	1470.00	1470.00	1470.00	1470.00	1470.00	1470.00	1470.00	1470.00	1470.00	1470.00	1469.00	1469.00	1469.00	1468.50	1467.00	1466.50	1465.00	1465.00	1463.50	1463.00	1462.00	1460.50	1459.50	1458.00	1457.00	1455.00	1453.00	1451.50	1450.50	1449.00	1447.00	1445.50	1443.00	1442.00	1440.00	1438.50	1436.50	1434.50	1433.50	1431.00	1430.00	1428.50	1427.00	1425.50	1424.50	1423.50	1422.00	1420.50	1419.00	1418.00	1416.50	1415.50	1413.00	1411.50	1410.50	1409.00	1407.50	1406.50	1405.00	1403.50	1402.50	1401.00	1401.00	1399.50	1398.00	1396.50	1395.50	1394.50	1393.50	1392.50	1391.00	1391.00	1389.50	1389.00	1387.50	1387.00	1386.50	1386.00	1385.00	1385.00	1385.00	1384.50	1384.00	1384.00	1383.50	1383.00	1383.00	1384.00	1384.00	1385.00	1385.00	1385.50	1386.00	1386.00	1387.00	1387.00	1388.00	1388.50	1389.00	1390.00	1390.00	1390.50	1391.00	1392.00	1392.00	1392.00	1392.00	1392.00	1391.00	1391.00	1391.00	1391.00	1391.00	1390.50	1389.50	1388.00	1387.50	1386.00	1385.00	1383.50	1382.50	1380.50	1379.00	1377.00	1374.00	1373.00	1369.00	1367.00	1364.00	1362.00	1359.50	1357.00
1521.00	1519.50	1519.00	1518.50	1517.50	1517.00	1516.00	1515.00	1514.50	1514.00	1513.00	1512.50	1512.00	1511.00	1510.50	1510.00	1509.00	1509.00	1508.50	1508.00	1508.00	1507.50	1507.00	1506.50	1506.00	1506.00	1505.50	1505.00	1505.00	1504.50	1504.00	1504.00	1503.50	1503.00	1503.00	1503.00	1502.50	1502.00	1502.00	1502.00	1502.00	1501.50	1501.00	1501.00	1501.00	1500.50	1500.00	1500.00	1500.00	1499.50	1499.00	1499.00	1498.50	1498.00	1497.00	1496.50	1496.00	1494.50	1494.00	1493.50	1493.00	1491.50	1491.00	1490.00	1489.00	1488.50	1487.50	1486.50	1486.00	1485.00	1484.00	1483.50	1482.00	1481.00	1480.50	1479.00	1478.00	1477.50	1476.00	1475.50	1474.50	1473.50	1472.50	1472.00	1471.00	1470.00	1469.50	1469.00	1467.50	1467.00	1467.00	1466.00	1466.00	1466.00	1466.00	1465.00	1465.00	1465.00	1465.00	1465.00	1465.00	1465.00	1465.00	1465.00	1465.00	1465.00	1465.50	1466.00	1466.00	1466.00	1467.00	1467.00	1467.00	1467.00	1467.50	1468.00	1468.00	1468.00	1468.00	1469.00	1469.00	1469.00	1469.00	1469.00	1470.00	1470.00	1470.00	1470.00	1470.00	1470.00	1470.00	1470.00	1470.00	1470.00	1469.00	1469.00	1469.00	1468.50	1467.00	1466.50	1465.00	1465.00	1463.50	1463.00	1462.00	1460.50	1459.50	1458.00	1457.00	1455.00	1453.00	1451.50	1450.50	1449.00	1447.00	1445.50	1443.00	1442.00	1440.00	1438.50	1436.50	1434.50	1433.50	1431.00	1430.00	1428.50	1427.00	1425.50	1424.50	1423.50	1422.00	1420.50	1419.00	1418.00	1416.50	1415.50	1413.00	1411.50	1410.50	1409.00	1407.50	1406.50	1405.00	1403.50	1402.50	1401.00	1401.00	1399.50	1398.00	1396.50	1395.50	1394.50	1393.50	1392.50	1391.00	1391.00	1389.50	1389.00	1387.50	1387.00	1386.50	1386.00	1385.00	1385.00	1385.00	1384.50	1384.00	1384.00	1383.50	1383.00	1383.00	1384.00	1384.00	1385.00	1385.00	1385.50	1386.00	1386.00	1387.00	1387.00	1388.00	1388.50	1389.00	1390.00	1390.00	1390.50	1391.00	1392.00	1392.00	1392.00	1392.00	1392.00	1391.00	1391.00	1391.00	1391.00	1391.00	1390.50	1389.50	1388.00	1387.50	1386.00	1385.00	1383.50	1382.50	1380.50	1379.00	1377.00	1374.00	1373.00	1369.00	1367.00	1364.00	1362.00	1359.50	1357.00
1521.00	1519.50	1519.00	1518.50	1517.50	1517.00	1516.00	1515.00	1514.50	1514.00	1513.00	1512.50	1512.00	1511.00	1510.50	1510.00	1509.00	1509.00	1508.50	1508.00	1508.00	1507.50	1507.00	1506.50	1506.00	1506.00	1505.50	1505.00	1505.00	1504.50	1504.00	1504.00	1503.50	1503.00	1503.00	1503.00	1502.50	1502.00	1502.00	1502.00	1502.00	1501.50	1501.00	1501.00	1501.00	1500.50	1500.00	1500.00	1500.00	1499.50	1499.00	1499.00	1498.50	1498.00	1497.00	1496.50	1496.00	1494.50	1494.00	1493.50	1493.00	1491.50	1491.00	1490.00	1489.00	1488.50	1487.50	1486.50	1486.00	1485.00	1484.00	1483.50	1482.00	1481.00	1480.50	1479.00	1478.00	1477.50	1476.00	1475.50	1474.50	1473.50	1472.50	1472.00	1471.00	1470.00	1469.50	1469.00	1467.50	1467.00	1467.00	1466.00	1466.00	1466.00	1466.00	1465.00	1465.00	1465.00	1465.00	1465.00	1465.00	1465.00	1465.00	1465.00	1465.00	1465.00	1465.50	1466.00	1466.00	1466.00	1467.00	1467.00	1467.00	1467.00	1467.50	1468.00	1468.00	1468.00	1468.00	1469.00	1469.00	1469.00	1469.00	1469.00	1470.00	1470.00	1470.00	1470.00	1470.00	1470.00	1470.00	1470.00	1470.00	1470.00	1469.00	1469.00	1469.00	1468.50	1467.00	1466.50	1465.00	1465.00	1463.50	1463.00	1462.00	1460.50	1459.50	1458.00	1457.00	1455.00	1453.00	1451.50	1450.50	1449.00	1447.00	1445.50	1443.00	1442.00	1440.00	1438.50	1436.50	1434.50	1433.50	1431.00	1430.00	1428.50	1427.00	1425.50	1424.50	1423.50	1422.00	1420.50	1419.00	1418.00	1416.50	1415.50	1413.00	1411.50	1410.50	1409.00	1407.50	1406.50	1405.00	1403.50	1402.50	1401.00	1401.00	1399.50	1398.00	1396.50	1395.50	1394.50	1393.50	1392.50	1391.00	1391.00	1389.50	1389.00	1387.50	1387.00	1386.50	1386.00	1385.00	1385.00	1385.00	1384.50	1384.00	1384.00	1383.50	1383.00	1383.00	1384.00	1384.00	1385.00	1385.00	1385.50	1386.00	1386.00	1387.00	1387.00	1388.00	1388.50	1389.00	1390.00	1390.00	1390.50	1391.00	1392.00	1392.00	1392.00	1392.00	1392.00	1391.00	1391.00	1391.00	1391.00	1391.00	1390.50	1389.50	1388.00	1387.50	1386.00	1385.00	1383.50	1382.50	1380.50	1379.00	1377.00	1374.00	1373.00	1369.00	1367.00	1364.00	1362.00	1359.50	1357.00
1521.00	1519.50	1519.00	1518.50	1517.50	1517.00	1516.00	1515.00	1514.50	1514.00	1513.00	1512.50	1512.00	1511.00	1510.50	1510.00	1509.00	1509.00	1508.50	1508.00	1508.00	1507.50	1507.00	1506.50	1506.00	1506.00	1505.50	1505.00	1505.00	1504.50	1504.00	1504.00	1503.50	1503.00	1503.00	1503.00	1502.50	1502.00	1502.00	1502.00	1502.00	1501.50	1501.00	1501.00	1501.00	1500.50	1500.00	1500.00	1500.00	1499.50	1499.00	1499.00	1498.50	1498.00	1497.00	1496.50	1496.00	1494.50	1494.00	1493.50	1493.00	1491.50	1491.00	1490.00	1489.00	1488.50	1487.50	1486.50	1486.00	1485.00	1484.00	1483.50	1482.00	1481.00	1480.50	1479.00	1478.00	1477.50	1476.00	1475.50	1474.50	1473.50	1472.50	1472.00	1471.00	1470.00	1469.50	1469.00	1467.50	1467.00	1467.00	1466.00	1466.00	1466.00	1466.00	1465.00	1465.00	1465.00	1465.00	1465.00	1465.00	1465.00	1465.00	1465.00	1465.00	1465.00	1465.50	1466.00	1466.00	1466.00	1467.00	1467.00	1467.00	1467.00	1467.50	1468.00	1468.00	1468.00	1468.00	1469.00	1469.00	1469.00	1469.00	1469.00	1470.00	1470.00	1470.00	1470.00	1470.00	1470.00	1470.00	1470.00	1470.00	1470.00	1469.00	1469.00	1469.00	1468.50	1467.00	1466.50	1465.00	1465.00	1463.50	1463.00	1462.00	1460.50	1459.50	1458.00	1457.00	1455.00	1453.00	1451.50	1450.50	1449.00	1447.00	1445.50	1443.00	1442.00	1440.00	1438.50	1436.50	1434.50	1433.50	1431.00	1430.00	1428.50	1427.00	1425.50	1424.50	1423.50	1422.00	1420.50	1419.00	1418.00	1416.50	1415.50	1413.00	1411.50	1410.50	1409.00	1407.50	1406.50	1405.00	1403.50	1402.50	1401.00	1401.00	1399.50	1398.00	1396.50	1395.50	1394.50	1393.50	1392.50	1391.00	1391.00	1389.50	1389.00	1387.50	1387.00	1386.50	1386.00	1385.00	1385.00	1385.00	1384.50	1384.00	1384.00	1383.50	1383.00	1383.00	1384.00	1384.00	1385.00	1385.00	1385.50	1386.00	1386.00	1387.00	1387.00	1388.00	1388.50	1389.00	1390.00	1390.00	1390.50	1391.00	1392.00	1392.00	1392.00	1392.00	1392.00	1391.00	1391.00	1391.00	1391.00	1391.00	1390.50	1389.50	1388.00	1387.50	1386.00	1385.00	1383.50	1382.50	1380.50	1379.00	1377.00	1374.00	1373.00	1369.00	1367.00	1364.00	1362.00	1359.50	1357.00
1521.00	1519.50	1519.00	1518.50	1517.50	1517.00	1516.00	1515.00	1514.50	1514.00	1513.00	1512.50	1512.00	1511.00	1510.50	1510.00	1509.00	1509.00	1508.50	1508.00	1508.00	1507.50	1507.00	1506.50	1506.00	1506.00	1505.50	1505.00	1505.00	1504.50	1504.00	1504.00	1503.50	1503.00	1503.00	1503.00	1502.50	1502.00	1502.00	1502.00	1502.00	1501.50	1501.00	1501.00	1501.00	1500.50	1500.00	1500.00	1500.00	1499.50	1499.00	1499.00	1498.50	1498.00	1497.00	1496.50	1496.00	1494.50	1494.00	1493.50	1493.00	1491.50	1491.00	1490.00	1489.00	1488.50	1487.50	1486.50	1486.00	1485.00	1484.00	1483.50	1482.00	1481.00	1480.50	1479.00	1478.00	1477.50	1476.00	1475.50	1474.50	1473.50	1472.50	1472.00	1471.00	1470.00	1469.50	1469.00	1467.50	1467.00	1467.00	1466.00	1466.00	1466.00	1466.00	1465.00	1465.00	1465.00	1465.00	1465.00	1465.00	1465.00	1465.00	1465.00	1465.00	1465.00	1465.50	1466.00	1466.00	1466.00	1467.00	1467.00	1467.00	1467.00	1467.50	1468.00	1468.00	1468.00	1468.00	1469.00	1469.00	1469.00	1469.00	1469.00	1470.00	1470.00	1470.00	1470.00	1470.00	1470.00	1470.00	1470.00	1470.00	1470.00	1469.00	1469.00	1469.00	1468.50	1467.00	1466.50	1465.00	1465.00	1463.50	1463.00	1462.00	1460.50	1459.50	1458.00	1457.00	1455.00	1453.00	1451.50	1450.50	1449.00	1447.00	1445.50	1443.00	1442.00	1440.00	1438.50	1436.50	1434.50	1433.50	1431.00	1430.00	1428.50	1427.00	1425.50	1424.50	1423.50	1422.00	1420.50	1419.00	1418.00	1416.50	1415.50	1413.00	1411.50	1410.50	1409.00	1407.50	1406.50	1405.00	1403.50	1402.50	1401.00	1401.00	1399.50	1398.00	1396.50	1395.50	1394.50	1393.50	1392.50	1391.00	1391.00	1389.50	1389.00	1387.50	1387.00	1386.50	1386.00	1385.00	1385.00	1385.00	1384.50	1384.00	1384.00	1383.50	1383.00	1383.00	1384.00	1384.00	1385.00	1385.00	1385.50	1386.00	1386.00	1387.00	1387.00	1388.00	1388.50	1389.00	1390.00	1390.00	1390.50	1391.00	1392.00	1392.00	1392.00	1392.00	1392.00	1391.00	1391.00	1391.00	1391.00	1391.00	1390.50	1389.50	1388.00	1387.50	1386.00	1385.00	1383.50	1382.50	1380.50	1379.00	1377.00	1374.00	1373.00	1369.00	1367.00	1364.00	1362.00	1359.50	1357.00
1521.00	1519.50	1519.00	1518.50	1517.50	1517.00	1516.00	1515.00	1514.50	1514.00	1513.00	1512.50	1512.00	1511.00	1510.50	1510.00	1509.00	1509.00	1508.50	1508.00	1508.00	1507.50	1507.00	1506.50	1506.00	1506.00	1505.50	1505.00	1505.00	1504.50	1504.00	1504.00	1503.50	1503.00	1503.00	1503.00	1502.50	1502.00	1502.00	1502.00	1502.00	1501.50	1501.00	1501.00	1501.00	1500.50	1500.00	1500.00	1500.00	1499.50	1499.00	1499.00	1498.50	1498.00	1497.00	1496.50	1496.00	1494.50	1494.00	1493.50	1493.00	1491.50	1491.00	1490.00	1489.00	1488.50	1487.50	1486.50	1486.00	1485.00	1484.00	1483.50	1482.00	1481.00	1480.50	1479.00	1478.00	1477.50	1476.00	1475.50	1474.50	1473.50	1472.50	1472.00	1471.00	1470.00	1469.50	1469.00	1467.50	1467.00	1467.00	1466.00	1466.00	1466.00	1466.00	1465.00	1465.00	1465.00	1465.00	1465.00	1465.00	1465.00	1465.00	1465.00	1465.00	1465.00	1465.50	1466.00	1466.00	1466.00	1467.00	1467.00	1467.00	1467.00	1467.50	1468.00	1468.00	1468.00	1468.00	1469.00	1469.00	1469.00	1469.00	1469.00	1470.00	1470.00	1470.00	1470.00	1470.00	1470.00	1470.00	1470.00	1470.00	1470.00	1469.00	1469.00	1469.00	1468.50	1467.00	1466.50	1465.00	1465.00	1463.50	1463.00	1462.00	1460.50	1459.50	1458.00	1457.00	1455.00	1453.00	1451.50	1450.50	1449.00	1447.00	1445.50	1443.00	1442.00	1440.00	1438.50	1436.50	1434.50	1433.50	1431.00	1430.00	1428.50	1427.00	1425.50	1424.50	1423.50	1422.00	1420.50	1419.00	1418.00	1416.50	1415.50	1413.00	1411.50	1410.50	1409.00	1407.50	1406.50	1405.00	1403.50	1402.50	1401.00	1401.00	1399.50	1398.00	1396.50	1395.50	1394.50	1393.50	1392.50	1391.00	1391.00	1389.50	1389.00	1387.50	1387.00	1386.50	1386.00	1385.00	1385.00	1385.00	1384.50	1384.00	1384.00	1383.50	1383.00	1383.00	1384.00	1384.00	1385.00	1385.00	1385.50	1386.00	1386.00	1387.00	1387.00	1388.00	1388.50	1389.00	1390.00	1390.00	1390.50	1391.00	1392.00	1392.00	1392.00	1392.00	1392.00	1391.00	1391.00	1391.00	1391.00	1391.00	1390.50	1389.50	1388.00	1387.50	1386.00	1385.00	1383.50	1382.50	1380.50	1379.00	1377.00	1374.00	1373.00	1369.00	1367.00	1364.00	1362.00	1359.50	1357.00
1519.00	1518.50	1518.00	1517.00	1516.00	1516.00	1515.00	1515.00	1514.00	1514.00	1513.00	1513.00	1512.50	1511.50	1511.00	1511.00	1511.00	1511.00	1510.50	1510.00	1510.00	1510.00	1510.00	1509.00	1509.00	1509.00	1509.00	1509.00	1509.00	1509.00	1509.00	1509.00	1508.00	1508.00	1508.00	1508.00	1508.00	1508.00	1507.00	1507.00	1507.00	1507.00	1507.00	1506.50	1506.00	1506.00	1506.00	1505.00	1505.00	1505.00	1504.50	1504.00	1504.00	1503.00	1503.00	1502.00	1501.00	1500.50	1500.00	1499.50	1498.00	1497.50	1497.00	1496.00	1495.00	1494.50	1493.00	1492.50	1491.50	1491.00	1489.50	1488.50	1487.00	1486.50	1485.50	1484.00	1482.50	1482.00	1481.00	1479.50	1479.00	1478.50	1477.00	1476.50	1475.00	1475.00	1473.50	1473.00	1472.00	1472.00	1471.50	1471.00	1470.50	1470.00	1470.00	1469.50	1469.00	1469.00	1468.50	1468.00	1468.00	1468.00	1468.00	1468.00	1468.00	1468.00	1468.00	1468.00	1468.00	1468.00	1468.00	1468.00	1468.50	1469.00	1469.00	1469.00	1469.00	1469.00	1469.00	1469.00	1470.00	1470.00	1470.00	1470.00	1470.00	1470.00	1470.00	1470.50	1471.00	1471.00	1471.00	1471.00	1471.00	1471.00	1471.00	1470.00	1470.00	1469.50	1469.00	1468.50	1468.00	1468.00	1467.00	1466.50	1465.50	1464.50	1463.50	1462.00	1461.00	1459.50	1458.00	1456.50	1455.50	1454.50	1453.00	1451.50	1450.00	1449.00	1447.50	1446.00	1444.00	1442.50	1441.50	1439.00	1438.00	1436.00	1434.00	1432.00	1430.50	1429.50	1427.00	1425.50	1423.00	1422.00	1420.00	1418.50	1416.50	1415.00	1413.50	1412.00	1409.50	1408.50	1407.00	1405.50	1404.00	1402.00	1401.00	1399.50	1398.00	1396.50	1395.50	1394.50	1393.50	1392.50	1391.00	1391.00	1389.50	1388.00	1387.50	1387.00	1387.00	1387.00	1387.00	1387.00	1386.00	1386.00	1386.00	1386.00	1386.50	1387.00	1388.00	1388.00	1389.50	1390.00	1391.00	1391.50	1392.00	1393.00	1394.00	1395.00	1395.00	1396.00	1396.50	1397.50	1398.00	1398.50	1400.00	1400.00	1399.50	1399.00	1399.00	1399.00	1399.00	1399.00	1398.00	1398.00	1396.50	1395.50	1394.50	1392.50	1391.50	1390.00	1389.00	1387.50	1386.50	1383.00	1381.00	1379.00	1376.00	1374.00	1370.00	1368.00	1365.00	1363.00	1359.50	1355.50
1519.00	1518.50	1518.00	1517.00	1516.00	1516.00	1515.00	1515.00	1514.00	1514.00	1513.00	1513.00	1512.50	1511.50	1511.00	1511.00	1511.00	1511.00	1510.50	1510.00	1510.00	1510.00	1510.00	1509.00	1509.00	1509.00	1509.00	1509.00	1509.00	1509.00	1509.00	1509.00	1508.00	1508.00	1508.00	1508.00	1508.00	1508.00	1507.00	1507.00	1507.00	1507.00	1507.00	1506.50	1506.00	1506.00	1506.00	1505.00	1505.00	1505.00	1504.50	1504.00	1504.00	1503.00	1503.00	1502.00	1501.00	1500.50	1500.00	1499.50	1498.00	1497.50	1497.00	1496.00	1495.00	1494.50	1493.00	1492.50	1491.50	1491.00	1489.50	1488.50	1487.00	1486.50	1485.50	1484.00	1482.50	1482.00	1481.00	1479.50	1479.00	1478.50	1477.00	1476.50	1475.00	1475.00	1473.50	1473.00	1472.00	1472.00	1471.50	1471.00	1470.50	1470.00	1470.00	1469.50	1469.00	1469.00	1468.50	1468.00	1468.00	1468.00	1468.00	1468.00	1468.00	1468.00	1468.00	1468.00	1468.00	1468.00	1468.00	1468.00	1468.50	1469.00	1469.00	1469.00	1469.00	1469.00	1469.00	1469.00	1470.00	1470.00	1470.00	1470.00	1470.00	1470.00	1470.00	1470.50	1471.00	1471.00	1471.00	1471.00	1471.00	1471.00	1471.00	1470.00	1470.00	1469.50	1469.00	1468.50	1468.00	1468.00	1467.00	1466.50	1465.50	1464.50	1463.50	1462.00	1461.00	1459.50	1458.00	1456.50	1455.50	1454.50	1453.00	1451.50	1450.00	1449.00	1447.50	1446.00	1444.00	1442.50	1441.50	1439.00	1438.00	1436.00	1434.00	1432.00	1430.50	1429.50	1427.00	1425.50	1423.00	1422.00	1420.00	1418.50	1416.50	1415.00	1413.50	1412.00	1409.50	1408.50	1407.00	1405.50	1404.00	1402.00	1401.00	1399.50	1398.00	1396.50	1395.50	1394.50	1393.50	1392.50	1391.00	1391.00	1389.50	1388.00	1387.50	1387.00	1387.00	1387.00	1387.00	1387.00	1386.00	1386.00	1386.00	1386.00	1386.50	1387.00	1388.00	1388.00	1389.50	1390.00	1391.00	1391.50	1392.00	1393.00	1394.00	1395.00	1395.00	1396.00	1396.50	1397.50	1398.00	1398.50	1400.00	1400.00	1399.50	1399.00	1399.00	1399.00	1399.00	1399.00	1398.00	1398.00	1396.50	1395.50	1394.50	1392.50	1391.50	1390.00	1389.00	1387.50	1386.50	1383.00	1381.00	1379.00	1376.00	1374.00	1370.00	1368.00	1365.00	1363.00	1359.50	1355.50
1519.00	1518.50	1518.00	1517.00	1516.00	1516.00	1515.00	1515.00	1514.00	1514.00	1513.00	1513.00	1512.50	1511.50	1511.00	1511.00	1511.00	1511.00	1510.50	1510.00	1510.00	1510.00	1510.00	1509.00	1509.00	1509.00	1509.00	1509.00	1509.00	1509.00	1509.00	1509.00	1508.00	1508.00	1508.00	1508.00	1508.00	1508.00	1507.00	1507.00	1507.00	1507.00	1507.00	1506.50	1506.00	1506.00	1506.00	1505.00	1505.00	1505.00	1504.50	1504.00	1504.00	1503.00	1503.00	1502.00	1501.00	1500.50	1500.00	1499.50	1498.00	1497.50	1497.00	1496.00	1495.00	1494.50	1493.00	1492.50	1491.50	1491.00	1489.50	1488.50	1487.00	1486.50	1485.50	1484.00	1482.50	1482.00	1481.00	1479.50	1479.00	1478.50	1477.00	1476.50	1475.00	1475.00	1473.50	1473.00	1472.00	1472.00	1471.50	1471.00	1470.50	1470.00	1470.00	1469.50	1469.00	1469.00	1468.50	1468.00	1468.00	1468.00	1468.00	1468.00	1468.00	1468.00	1468.00	1468.00	1468.00	1468.00	1468.00	1468.00	1468.50	1469.00	1469.00	1469.00	1469.00	1469.00	1469.00	1469.00	1470.00	1470.00	1470.00	1470.00	1470.00	1470.00	1470.00	1470.50	1471.00	1471.00	1471.00	1471.00	1471.00	1471.00	1471.00	1470.00	1470.00	1469.50	1469.00	1468.50	1468.00	1468.00	1467.00	1466.50	1465.50	1464.50	1463.50	1462.00	1461.00	1459.50	1458.00	1456.50	1455.50	1454.50	1453.00	1451.50	1450.00	1449.00	1447.50	1446.00	1444.00	1442.50	1441.50	1439.00	1438.00	1436.00	1434.00	1432.00	1430.50	1429.50	1427.00	1425.50	1423.00	1422.00	1420.00	1418.50	1416.50	1415.00	1413.50	1412.00	1409.50	1408.50	1407.00	1405.50	1404.00	1402.00	1401.00	1399.50	1398.00	1396.50	1395.50	1394.50	1393.50	1392.50	1391.00	1391.00	1389.50	1388.00	1387.50	1387.00	1387.00	1387.00	1387.00	1387.00	1386.00	1386.00	1386.00	1386.00	1386.50	1387.00	1388.00	1388.00	1389.50	1390.00	1391.00	1391.50	1392.00	1393.00	1394.00	1395.00	1395.00	1396.00	1396.50	1397.50	1398.00	1398.50	1400.00	1400.00	1399.50	1399.00	1399.00	1399.00	1399.00	1399.00	1398.00	1398.00	1396.50	1395.50	1394.50	1392.50	1391.50	1390.00	1389.00	1387.50	1386.50	1383.00	1381.00	1379.00	1376.00	1374.00	1370.00	1368.00	1365.00	1363.00	1359.50	1355.50
1519.00	1518.50	1518.00	1517.00	1516.00	1516.00	1515.00	1515.00	1514.00	1514.00	1513.00	1513.00	1512.50	1511.50	1511.00	1511.00	1511.00	1511.00	1510.50	1510.00	1510.00	1510.00	1510.00	1509.00	1509.00	1509.00	1509.00	1509.00	1509.00	1509.00	1509.00	1509.00	1508.00	1508.00	1508.00	1508.00	1508.00	1508.00	1507.00	1507.00	1507.00	1507.00	1507.00	1506.50	1506.00	1506.00	1506.00	1505.00	1505.00	1505.00	1504.50	1504.00	1504.00	1503.00	1503.00	1502.00	1501.00	1500.50	1500.00	1499.50	1498.00	1497.50	1497.00	1496.00	1495.00	1494.50	1493.00	1492.50	1491.50	1491.00	1489.50	1488.50	1487.00	1486.50	1485.50	1484.00	1482.50	1482.00	1481.00	1479.50	1479.00	1478.50	1477.00	1476.50	1475.00	1475.00	1473.50	1473.00	1472.00	1472.00	1471.50	1471.00	1470.50	1470.00	1470.00	1469.50	1469.00	1469.00	1468.50	1468.00	1468.00	1468.00	1468.00	1468.00	1468.00	1468.00	1468.00	1468.00	1468.00	1468.00	1468.00	1468.00	1468.50	1469.00	1469.00	1469.00	1469.00	1469.00	1469.00	1469.00	1470.00	1470.00	1470.00	1470.00	1470.00	1470.00	1470.00	1470.50	1471.00	1471.00	1471.00	1471.00	1471.00	1471.00	1471.00	1470.00	1470.00	1469.50	1469.00	1468.50	1468.00	1468.00	1467.00	1466.50	1465.50	1464.50	1463.50	1462.00	1461.00	1459.50	1458.00	1456.50	1455.50	1454.50	1453.00	1451.50	1450.00	1449.00	1447.50	1446.00	1444.00	1442.50	1441.50	1439.00	1438.00	1436.00	1434.00	1432.00	1430.50	1429.50	1427.00	1425.50	1423.00	1422.00	1420.00	1418.50	1416.50	1415.00	1413.50	1412.00	1409.50	1408.50	1407.00	1405.50	1404.00	1402.00	1401.00	1399.50	1398.00	1396.50	1395.50	1394.50	1393.50	1392.50	1391.00	1391.00	1389.50	1388.00	1387.50	1387.00	1387.00	1387.00	1387.00	1387.00	1386.00	1386.00	1386.00	1386.00	1386.50	1387.00	1388.00	1388.00	1389.50	1390.00	1391.00	1391.50	1392.00	1393.00	1394.00	1395.00	1395.00	1396.00	1396.50	1397.50	1398.00	1398.50	1400.00	1400.00	1399.50	1399.00	1399.00	1399.00	1399.00	1399.00	1398.00	1398.00	1396.50	1395.50	1394.50	1392.50	1391.50	1390.00	1389.00	1387.50	1386.50	1383.00	1381.00	1379.00	1376.00	1374.00	1370.00	1368.00	1365.00	1363.00	1359.50	1355.50
1519.00	1518.50	1518.00	1517.00	1516.00	1516.00	1515.00	1515.00	1514.00	1514.00	1513.00	1513.00	1512.50	1511.50	1511.00	1511.00	1511.00	1511.00	1510.50	1510.00	1510.00	1510.00	1510.00	1509.00	1509.00	1509.00	1509.00	1509.00	1509.00	1509.00	1509.00	1509.00	1508.00	1508.00	1508.00	1508.00	1508.00	1508.00	1507.00	1507.00	1507.00	1507.00	1507.00	1506.50	1506.00	1506.00	1506.00	1505.00	1505.00	1505.00	1504.50	1504.00	1504.00	1503.00	1503.00	1502.00	1501.00	1500.50	1500.00	1499.50	1498.00	1497.50	1497.00	1496.00	1495.00	1494.50	1493.00	1492.50	1491.50	1491.00	1489.50	1488.50	1487.00	1486.50	1485.50	1484.00	1482.50	1482.00	1481.00	1479.50	1479.00	1478.50	1477.00	1476.50	1475.00	1475.00	1473.50	1473.00	1472.00	1472.00	1471.50	1471.00	1470.50	1470.00	1470.00	1469.50	1469.00	1469.00	1468.50	1468.00	1468.00	1468.00	1468.00	1468.00	1468.00	1468.00	1468.00	1468.00	1468.00	1468.00	1468.00	1468.00	1468.50	1469.00	1469.00	1469.00	1469.00	1469.00	1469.00	1469.00	1470.00	1470.00	1470.00	1470.00	1470.00	1470.00	1470.00	1470.50	1471.00	1471.00	1471.00	1471.00	1471.00	1471.00	1471.00	1470.00	1470.00	1469.50	1469.00	1468.50	1468.00	1468.00	1467.00	1466.50	1465.50	1464.50	1463.50	1462.00	1461.00	1459.50	1458.00	1456.50	1455.50	1454.50	1453.00	1451.50	1450.00	1449.00	1447.50	1446.00	1444.00	1442.50	1441.50	1439.00	1438.00	1436.00	1434.00	1432.00	1430.50	1429.50	1427.00	1425.50	1423.00	1422.00	1420.00	1418.50	1416.50	1415.00	1413.50	1412.00	1409.50	1408.50	1407.00	1405.50	1404.00	1402.00	1401.00	1399.50	1398.00	1396.50	1395.50	1394.50	1393.50	1392.50	1391.00	1391.00	1389.50	1388.00	1387.50	1387.00	1387.00	1387.00	1387.00	1387.00	1386.00	1386.00	1386.00	1386.00	1386.50	1387.00	1388.00	1388.00	1389.50	1390.00	1391.00	1391.50	1392.00	1393.00	1394.00	1395.00	1395.00	1396.00	1396.50	1397.50	1398.00	1398.50	1400.00	1400.00	1399.50	1399.00	1399.00	1399.00	1399.00	1399.00	1398.00	1398.00	1396.50	1395.50	1394.50	1392.50	1391.50	1390.00	1389.00	1387.50	1386.50	1383.00	1381.00	1379.00	1376.00	1374.00	1370.00	1368.00	1365.00	1363.00	1359.50	1355.50
1519.00	1518.50	1518.00	1517.00	1516.00	1516.00	1515.00	1515.00	1514.00	1514.00	1513.00	1513.00	1512.50	1511.50	1511.00	1511.00	1511.00	1511.00	1510.50	1510.00	1510.00	1510.00	1510.00	1509.00	1509.00	1509.00	1509.00	1509.00	1509.00	1509.00	1509.00	1509.00	1508.00	1508.00	1508.00	1508.00	1508.00	1508.00	1507.00	1507.00	1507.00	1507.00	1507.00	1506.50	1506.00	1506.00	1506.00	1505.00	1505.00	1505.00	1504.50	1504.00	1504.00	1503.00	1503.00	1502.00	1501.00	1500.50	1500.00	1499.50	1498.00	1497.50	1497.00	1496.00	1495.00	1494.50	1493.00	1492.50	1491.50	1491.00	1489.50	1488.50	1487.00	1486.50	1485.50	1484.00	1482.50	1482.00	1481.00	1479.50	1479.00	1478.50	1477.00	1476.50	1475.00	1475.00	1473.50	1473.00	1472.00	1472.00	1471.50	1471.00	1470.50	1470.00	1470.00	1469.50	1469.00	1469.00	1468.50	1468.00	1468.00	1468.00	1468.00	1468.00	1468.00	1468.00	1468.00	1468.00	1468.00	1468.00	1468.00	1468.00	1468.50	1469.00	1469.00	1469.00	1469.00	1469.00	1469.00	1469.00	1470.00	1470.00	1470.00	1470.00	1470.00	1470.00	1470.00	1470.50	1471.00	1471.00	1471.00	1471.00	1471.00	1471.00	1471.00	1470.00	1470.00	1469.50	1469.00	1468.50	1468.00	1468.00	1467.00	1466.50	1465.50	1464.50	1463.50	1462.00	1461.00	1459.50	1458.00	1456.50	1455.50	1454.50	1453.00	1451.50	1450.00	1449.00	1447.50	1446.00	1444.00	1442.50	1441.50	1439.00	1438.00	1436.00	1434.00	1432.00	1430.50	1429.50	1427.00	1425.50	1423.00	1422.00	1420.00	1418.50	1416.50	1415.00	1413.50	1412.00	1409.50	1408.50	1407.00	1405.50	1404.00	1402.00	1401.00	1399.50	1398.00	1396.50	1395.50	1394.50	1393.50	1392.50	1391.00	1391.00	1389.50	1388.00	1387.50	1387.00	1387.00	1387.00	1387.00	1387.00	1386.00	1386.00	1386.00	1386.00	1386.50	1387.00	1388.00	1388.00	1389.50	1390.00	1391.00	1391.50	1392.00	1393.00	1394.00	1395.00	1395.00	1396.00	1396.50	1397.50	1398.00	1398.50	1400.00	1400.00	1399.50	1399.00	1399.00	1399.00	1399.00	1399.00	1398.00	1398.00	1396.50	1395.50	1394.50	1392.50	1391.50	1390.00	1389.00	1387.50	1386.50	1383.00	1381.00	1379.00	1376.00	1374.00	1370.00	1368.00	1365.00	1363.00	1359.50	1355.50
1519.00	1518.50	1518.00	1517.00	1516.00	1516.00	1515.00	1515.00	1514.00	1514.00	1513.00	1513.00	1512.50	1511.50	1511.00	1511.00	1511.00	1511.00	1510.50	1510.00	1510.00	1510.00	1510.00	1509.00	1509.00	1509.00	1509.00	1509.00	1509.00	1509.00	1509.00	1509.00	1508.00	1508.00	1508.00	1508.00	1508.00	1508.00	1507.00	1507.00	1507.00	1507.00	1507.00	1506.50	1506.00	1506.00	1506.00	1505.00	1505.00	1505.00	1504.50	1504.00	1504.00	1503.00	1503.00	1502.00	1501.00	1500.50	1500.00	1499.50	1498.00	1497.50	1497.00	1496.00	1495.00	1494.50	1493.00	1492.50	1491.50	1491.00	1489.50	1488.50	1487.00	1486.50	1485.50	1484.00	1482.50	1482.00	1481.00	1479.50	1479.00	1478.50	1477.00	1476.50	1475.00	1475.00	1473.50	1473.00	1472.00	1472.00	1471.50	1471.00	1470.50	1470.00	1470.00	1469.50	1469.00	1469.00	1468.50	1468.00	1468.00	1468.00	1468.00	1468.00	1468.00	1468.00	1468.00	1468.00	1468.00	1468.00	1468.00	1468.00	1468.50	1469.00	1469.00	1469.00	1469.00	1469.00	1469.00	1469.00	1470.00	1470.00	1470.00	1470.00	1470.00	1470.00	1470.00	1470.50	1471.00	1471.00	1471.00	1471.00	1471.00	1471.00	1471.00	1470.00	1470.00	1469.50	1469.00	1468.50	1468.00	1468.00	1467.00	1466.50	1465.50	1464.50	1463.50	1462.00	1461.00	1459.50	1458.00	1456.50	1455.50	1454.50	1453.00	1451.50	1450.00	1449.00	1447.50	1446.00	1444.00	1442.50	1441.50	1439.00	1438.00	1436.00	1434.00	1432.00	1430.50	1429.50	1427.00	1425.50	1423.00	1422.00	1420.00	1418.50	1416.50	1415.00	1413.50	1412.00	1409.50	1408.50	1407.00	1405.50	1404.00	1402.00	1401.00	1399.50	1398.00	1396.50	1395.50	1394.50	1393.50	1392.50	1391.00	1391.00	1389.50	1388.00	1387.50	1387.00	1387.00	1387.00	1387.00	1387.00	1386.00	1386.00	1386.00	1386.00	1386.50	1387.00	1388.00	1388.00	1389.50	1390.00	1391.00	1391.50	1392.00	1393.00	1394.00	1395.00	1395.00	1396.00	1396.50	1397.50	1398.00	1398.50	1400.00	1400.00	1399.50	1399.00	1399.00	1399.00	1399.00	1399.00	1398.00	1398.00	1396.50	1395.50	1394.50	1392.50	1391.50	1390.00	1389.00	1387.50	1386.50	1383.00	1381.00	1379.00	1376.00	1374.00	1370.00	1368.00	1365.00	1363.00	1359.50	1355.50
1519.00	1518.50	1518.00	1517.00	1516.00	1516.00	1515.00	1515.00	1514.00	1514.00	1513.00	1513.00	1512.50	1511.50	1511.00	1511.00	1511.00	1511.00	1510.50	1510.00	1510.00	1510.00	1510.00	1509.00	1509.00	1509.00	1509.00	1509.00	1509.00	1509.00	1509.00	1509.00	1508.00	1508.00	1508.00	1508.00	1508.00	1508.00	1507.00	1507.00	1507.00	1507.00	1507.00	1506.50	1506.00	1506.00	1506.00	1505.00	1505.00	1505.00	1504.50	1504.00	1504.00	1503.00	1503.00	1502.00	1501.00	1500.50	1500.00	1499.50	1498.00	1497.50	1497.00	1496.00	1495.00	1494.50	1493.00	1492.50	1491.50	1491.00	1489.50	1488.50	1487.00	1486.50	1485.50	1484.00	1482.50	1482.00	1481.00	1479.50	1479.00	1478.50	1477.00	1476.50	1475.00	1475.00	1473.50	1473.00	1472.00	1472.00	1471.50	1471.00	1470.50	1470.00	1470.00	1469.50	1469.00	1469.00	1468.50	1468.00	1468.00	1468.00	1468.00	1468.00	1468.00	1468.00	1468.00	1468.00	1468.00	1468.00	1468.00	1468.00	1468.50	1469.00	1469.00	1469.00	1469.00	1469.00	1469.00	1469.00	1470.00	1470.00	1470.00	1470.00	1470.00	1470.00	1470.00	1470.50	1471.00	1471.00	1471.00	1471.00	1471.00	1471.00	1471.00	1470.00	1470.00	1469.50	1469.00	1468.50	1468.00	1468.00	1467.00	1466.50	1465.50	1464.50	1463.50	1462.00	1461.00	1459.50	1458.00	1456.50	1455.50	1454.50	1453.00	1451.50	1450.00	1449.00	1447.50	1446.00	1444.00	1442.50	1441.50	1439.00	1438.00	1436.00	1434.00	1432.00	1430.50	1429.50	1427.00	1425.50	1423.00	1422.00	1420.00	1418.50	1416.50	1415.00	1413.50	1412.00	1409.50	1408.50	1407.00	1405.50	1404.00	1402.00	1401.00	1399.50	1398.00	1396.50	1395.50	1394.50	1393.50	1392.50	1391.00	1391.00	1389.50	1388.00	1387.50	1387.00	1387.00	1387.00	1387.00	1387.00	1386.00	1386.00	1386.00	1386.00	1386.50	1387.00	1388.00	1388.00	1389.50	1390.00	1391.00	1391.50	1392.00	1393.00	1394.00	1395.00	1395.00	1396.00	1396.50	1397.50	1398.00	1398.50	1400.00	1400.00	1399.50	1399.00	1399.00	1399.00	1399.00	1399.00	1398.00	1398.00	1396.50	1395.50	1394.50	1392.50	1391.50	1390.00	1389.00	1387.50	1386.50	1383.00	1381.00	1379.00	1376.00	1374.00	1370.00	1368.00	1365.00	1363.00	1359.50	1355.50
1518.00	1517.50	1517.00	1516.25	1515.50	1515.25	1514.50	1514.50	1513.75	1513.50	1512.75	1512.50	1512.25	1511.75	1511.50	1511.50	1511.50	1511.50	1511.00	1510.50	1510.50	1510.50	1510.50	1510.50	1510.50	1510.50	1510.50	1510.75	1511.00	1511.00	1511.00	1511.00	1510.50	1510.50	1510.50	1510.50	1510.50	1510.50	1510.00	1509.75	1509.50	1509.50	1509.50	1509.25	1508.50	1508.50	1508.50	1508.00	1507.50	1507.50	1507.00	1506.50	1506.25	1505.50	1505.50	1504.50	1504.00	1503.25	1502.75	1502.25	1501.00	1500.25	1499.50	1498.50	1497.50	1497.00	1495.50	1495.00	1494.00	1493.00	1492.00	1491.00	1489.50	1488.50	1487.75	1486.50	1485.00	1484.25	1483.00	1482.00	1481.25	1480.50	1479.00	1478.50	1477.00	1476.50	1475.50	1475.00	1474.00	1473.75	1473.25	1472.50	1472.00	1471.50	1471.00	1470.50	1470.00	1469.75	1469.25	1469.00	1469.00	1468.50	1468.50	1468.00	1468.00	1468.00	1468.00	1468.00	1468.00	1468.00	1468.00	1468.00	1468.25	1468.50	1468.50	1468.50	1468.50	1468.50	1468.50	1468.50	1469.00	1469.00	1469.00	1469.50	1469.50	1469.50	1469.50	1469.75	1470.00	1470.00	1470.00	1470.00	1470.00	1470.00	1470.00	1469.50	1469.50	1469.25	1469.00	1468.75	1468.50	1468.50	1468.00	1467.50	1466.50	1465.75	1465.00	1464.00	1463.00	1462.00	1461.00	1459.50	1458.75	1458.00	1456.50	1455.25	1454.00	1453.00	1451.50	1450.50	1448.75	1447.00	1446.00	1443.50	1442.50	1440.25	1438.50	1436.25	1434.75	1433.50	1431.00	1429.25	1426.50	1425.50	1423.00	1421.50	1419.00	1417.50	1415.75	1414.00	1411.50	1410.25	1408.50	1406.50	1405.00	1403.00	1401.50	1400.00	1398.00	1396.50	1395.50	1394.50	1393.00	1392.00	1390.50	1390.50	1389.00	1387.50	1387.25	1387.00	1387.00	1387.00	1387.00	1387.00	1386.50	1386.50	1386.75	1387.25	1387.75	1388.25	1389.50	1389.50	1390.75	1391.50	1392.50	1393.00	1393.75	1394.50	1395.75	1397.00	1397.00	1398.25	1398.75	1400.00	1400.50	1400.75	1402.00	1402.00	1401.75	1401.50	1401.50	1401.50	1401.50	1401.50	1400.75	1400.00	1398.25	1397.00	1396.00	1393.75	1392.50	1391.00	1390.00	1388.00	1386.50	1382.50	1380.50	1378.50	1375.50	1373.00	1369.00	1367.00	1363.75	1361.50	1357.75	1353.75
