1375.50	1472.50	1684.75	1582.75	1549.75	1583.75	1689.50	1463.50	1358.75	1309.50	1469.75	1610.00	1614.00	1540.50	1508.75	1589.75	1667.25	1729.75	1851.75	1764.75	1810.25	1636.50	1651.75	1770.00	1495.75	1269.00	1340.75	1700.75	1721.50	1865.50	2034.50	1797.00	1672.75	1544.50	1526.50	1460.00	1291.50	1242.25	1095.75	1002.25	957.00	1037.75	1229.25	1157.50	1149.50	1324.25	1492.25	1745.25	1689.00	1495.50	1381.75	1307.75	1100.00	1138.25	1179.75	1262.75	1169.75	963.50	982.00	1125.25	1050.25	1054.00	1077.75	1145.25	1256.50	1371.00	1367.25	1294.25	1301.25	1389.25	1561.50	1722.25	1659.00	1596.00	1573.00	1494.50	1515.00	1539.25	1356.75	1284.75	1248.00	1228.50	1276.25	1203.50	1115.75	1024.25	1040.75	1125.75	1222.75	1303.25	1521.25	1490.00	1376.75	1346.75	1332.25	1207.25	1035.25	944.75	1042.00	1061.00	1098.25	1166.75	1287.00	1385.50	1453.00	1434.50	1419.25	1383.25	1269.00	1083.25	1004.00	1215.50	1258.25	1337.50	1526.25	1431.25	1283.50	1201.50	1198.50	1229.25	1250.25	1168.75	1001.75	1073.00	1217.75	1058.75	949.75	922.75	889.50	876.50	868.25	874.25	869.75	858.00	859.25	886.75	1003.00	1000.00	956.75	901.50	911.50	885.50	889.75	895.75	897.00	980.25	962.75	891.00	855.00	845.25	830.50	827.75	810.50	812.25	808.75	810.75	809.50	796.50	789.25	771.50	766.25	780.00	764.75	758.75	764.25	774.50	786.00	787.25	792.75	759.00	736.25	727.00	732.00	739.25	743.00	742.00	730.75	726.00	700.50	687.00	674.50	673.00	669.50	664.00	664.75	664.25	652.00	648.00	661.00	662.25	662.25	659.25	581.50	508.75	619.25	658.75	654.75	656.75	657.50	655.00	652.00	651.00	647.25	647.00	648.00	645.25	635.50	627.25	607.50	611.50	629.50	601.25	611.50	640.75	645.75	692.25	714.00	742.00	790.00	842.50	813.00	742.25	679.75	660.75	660.75	689.75	568.75	586.00	650.75	682.25	701.00	702.50	740.75	797.50	833.75	802.25	741.00	700.75	741.75	780.75	812.25	803.25	838.50	830.75	808.50	809.50	818.25	822.75	799.75	744.50	726.75	689.25	689.00	689.25	710.75	745.00
1452.50	1508.25	1681.75	1653.25	1550.25	1677.75	1773.00	1474.75	1472.50	1352.75	1367.25	1429.00	1432.50	1453.25	1509.75	1719.00	1895.75	1807.00	1904.75	1893.25	1934.25	1699.50	1710.00	1619.00	1381.00	1265.50	1455.75	1836.00	1754.75	1909.50	2042.25	1858.50	1690.00	1597.00	1594.00	1560.25	1403.00	1308.75	1193.00	1083.25	972.50	973.00	1109.00	1107.00	1109.00	1374.00	1579.75	1691.50	1648.25	1507.75	1464.50	1334.25	1110.50	1054.00	1119.50	1189.00	1123.00	950.50	956.25	1021.75	1049.25	1054.50	1067.00	1300.25	1425.50	1459.50	1490.75	1380.75	1334.00	1373.25	1419.00	1590.25	1718.00	1731.00	1650.00	1562.25	1650.00	1634.25	1409.50	1399.25	1322.50	1202.75	1270.75	1143.75	1032.00	1031.00	1135.25	1156.25	1301.00	1349.75	1584.75	1561.50	1459.75	1464.00	1383.50	1268.25	1073.50	935.50	1067.75	1088.00	1074.50	1128.25	1217.00	1258.75	1410.00	1443.75	1414.50	1320.75	1179.50	1137.50	999.25	1116.50	1268.50	1345.50	1497.25	1443.50	1340.00	1309.50	1309.00	1273.50	1255.50	1158.00	996.75	1073.25	1186.00	1082.00	982.75	945.25	903.00	889.00	890.75	901.50	884.75	865.25	863.75	889.50	1000.50	1023.75	984.25	922.25	918.25	886.75	868.50	875.25	904.25	997.75	975.25	927.50	867.50	854.00	833.00	819.00	809.50	817.00	824.25	823.00	819.75	815.25	806.75	792.25	786.50	801.25	787.50	778.25	784.25	799.25	798.75	810.25	820.75	765.75	735.50	719.75	717.25	728.00	739.50	744.25	736.25	731.50	700.75	673.50	668.50	671.75	664.25	663.25	662.25	663.50	661.25	657.25	660.00	662.50	662.50	663.25	629.75	516.75	591.00	656.75	653.00	653.50	656.75	655.00	651.25	649.25	647.25	648.75	648.25	644.50	642.25	638.00	627.25	606.00	602.25	577.00	631.00	638.75	642.50	680.00	730.50	762.50	796.00	855.00	782.50	731.00	686.25	660.50	636.50	668.75	556.50	625.75	648.25	669.75	683.75	702.00	746.50	797.00	839.25	816.50	748.25	701.00	733.50	781.50	802.50	787.25	829.00	834.00	808.25	795.50	800.00	813.00	804.50	767.75	746.25	689.00	689.00	692.25	723.25	765.25
1464.25	1688.75	1626.75	1735.75	1659.50	1837.00	1914.50	1624.75	1709.50	1564.50	1465.25	1473.50	1519.50	1549.50	1541.50	1674.25	1829.25	1685.25	1681.75	1676.25	1699.75	1704.00	1551.50	1386.25	1315.75	1422.50	1562.75	1813.00	1941.00	1709.00	1667.25	1657.75	1675.25	1573.25	1475.75	1420.50	1424.75	1459.00	1337.00	1275.75	1115.50	961.75	954.75	993.00	1049.00	1218.50	1347.50	1755.75	1726.50	1608.75	1468.50	1307.00	1205.75	1036.50	1071.25	1041.50	966.25	904.75	999.75	1212.50	1321.75	1170.50	1090.00	1352.25	1384.75	1535.25	1705.75	1538.25	1325.50	1314.00	1263.00	1378.50	1504.50	1645.25	1662.75	1538.00	1545.50	1532.00	1533.00	1369.75	1264.25	1074.25	1101.50	1088.25	1088.25	1144.50	1257.25	1351.50	1437.00	1541.75	1538.25	1508.25	1282.50	1289.50	1227.75	1107.50	1036.00	959.50	1013.75	1197.00	1242.75	1171.50	1233.25	1415.75	1375.00	1354.00	1275.75	1285.50	1390.75	1426.75	1225.75	1056.25	1246.75	1249.75	1322.25	1575.75	1557.50	1452.50	1350.50	1242.50	1170.50	1053.25	1002.00	1181.75	1264.00	1242.75	1101.75	1001.25	950.75	942.75	938.00	913.00	900.00	887.25	875.00	887.25	953.75	1036.00	995.25	923.75	891.00	885.25	847.00	854.25	875.00	881.25	896.50	958.00	928.25	880.00	845.75	823.00	807.25	812.25	815.75	829.75	824.75	821.50	827.00	821.75	825.25	841.75	805.25	817.00	864.25	834.25	778.25	795.25	845.50	788.00	746.00	727.00	711.00	706.25	713.25	735.50	738.00	694.75	674.50	667.75	667.75	664.25	668.25	666.25	665.00	667.00	664.75	666.25	659.75	662.50	663.00	664.25	629.00	536.00	641.50	656.00	654.75	652.75	655.00	654.50	653.75	655.00	649.00	646.75	643.50	645.50	645.25	640.50	633.25	624.00	628.75	559.00	623.50	632.75	635.25	644.25	674.25	702.00	753.50	853.00	805.75	781.25	682.00	653.25	622.00	582.50	528.25	566.25	610.50	638.75	667.25	714.00	727.25	786.25	821.75	826.50	786.50	712.75	699.25	743.00	751.50	772.25	833.50	843.00	839.25	818.25	784.00	762.00	795.00	802.00	768.25	689.25	689.00	698.75	744.75	758.75
1489.00	1684.50	1731.75	1800.50	1751.25	1956.25	1857.50	1715.50	1783.25	1673.50	1534.50	1530.50	1615.25	1693.50	1693.75	1699.75	1801.75	1637.00	1576.00	1563.75	1532.25	1504.00	1412.00	1332.75	1374.50	1534.00	1697.50	1807.25	1854.00	1797.50	1715.25	1608.00	1576.75	1518.00	1427.25	1370.75	1277.25	1314.75	1284.25	1291.75	1180.25	990.25	940.25	953.50	990.00	1122.75	1240.50	1740.50	1884.75	1673.25	1444.50	1344.75	1222.25	1062.00	1028.50	1033.00	919.50	912.25	1021.75	1237.50	1401.50	1205.50	1104.50	1335.00	1453.50	1591.75	1805.50	1589.25	1380.25	1291.75	1243.75	1289.00	1397.00	1503.25	1684.25	1528.50	1468.25	1422.25	1502.75	1354.25	1160.75	1101.00	1219.75	1146.00	1117.75	1191.00	1324.75	1428.75	1436.25	1430.25	1374.50	1364.75	1203.75	1146.75	1108.25	1064.50	1082.50	998.00	975.00	1196.25	1293.50	1247.75	1252.00	1533.50	1424.75	1340.75	1333.25	1400.50	1470.75	1483.50	1309.75	1110.75	1176.50	1234.50	1326.00	1557.25	1590.25	1480.25	1376.00	1282.25	1216.50	1028.50	1036.25	1213.50	1307.75	1312.75	1164.25	1039.75	989.25	973.00	939.50	924.00	919.75	899.00	883.75	888.25	949.00	1039.50	1001.00	931.50	894.00	877.50	849.25	841.50	858.75	855.50	877.25	934.00	981.25	909.75	852.75	827.75	811.50	805.50	806.25	812.25	808.75	810.00	825.00	817.50	826.75	852.00	801.25	808.75	877.75	830.25	766.75	788.50	862.25	829.50	761.75	731.75	712.25	692.00	697.00	723.75	713.75	672.25	673.75	671.25	671.75	669.75	667.50	666.25	666.25	665.00	663.75	665.00	658.00	663.50	663.25	656.50	582.75	566.75	659.00	655.75	655.75	653.75	655.50	654.25	654.50	654.25	651.75	650.00	640.25	641.00	641.50	638.25	626.00	584.00	589.50	555.75	610.75	631.75	636.50	638.25	646.00	664.00	714.50	806.50	760.50	742.75	666.00	647.75	633.50	549.25	531.25	594.25	630.25	643.25	680.25	725.25	722.75	786.50	817.75	818.75	776.50	714.50	684.50	704.00	716.50	774.50	822.00	838.25	840.00	833.50	797.25	757.25	780.00	802.00	782.25	691.00	689.00	693.25	732.25	748.50
1667.75	1693.75	1780.25	1702.75	1635.00	1636.00	1582.25	1446.75	1460.25	1503.50	1602.75	1634.25	1683.50	1765.75	1798.75	1777.25	1871.25	1724.00	1616.75	1560.50	1472.25	1438.50	1408.25	1417.00	1560.75	1748.25	1855.00	1724.75	1678.25	1605.00	1579.00	1503.00	1409.50	1329.50	1249.75	1204.75	1168.75	1145.25	1107.00	1086.00	1062.50	1021.75	988.50	936.00	923.00	959.25	1019.75	1392.75	1487.75	1521.25	1346.25	1234.25	1173.00	1149.25	968.00	1019.50	899.25	1037.25	1053.75	1121.50	1370.50	1378.25	1249.75	1350.50	1471.50	1626.00	1784.00	1678.25	1463.25	1403.75	1310.00	1220.00	1264.25	1381.00	1639.50	1636.00	1479.00	1319.50	1444.00	1328.50	1106.25	1337.00	1479.75	1244.75	1156.00	1319.00	1433.00	1336.25	1292.50	1211.25	1194.00	1162.25	1140.25	1192.75	1240.50	1253.50	1271.50	1119.75	976.25	1080.50	1138.75	1256.75	1265.25	1433.25	1540.50	1541.00	1555.75	1485.00	1425.75	1399.50	1306.25	1291.50	1197.00	1169.50	1283.25	1400.50	1511.25	1497.25	1414.50	1273.00	1184.25	1024.75	1077.50	1228.00	1332.25	1377.75	1237.25	1126.50	1048.00	1017.50	977.75	958.25	941.50	905.25	896.25	895.75	920.00	974.25	1003.50	958.25	919.50	878.25	859.75	832.50	844.75	865.50	937.00	996.75	978.75	889.25	847.75	831.00	810.00	802.50	798.75	782.50	777.25	794.75	801.75	804.75	812.50	828.75	794.50	778.75	811.25	824.25	771.75	756.50	831.00	892.75	792.50	739.50	720.00	694.75	676.75	676.50	675.50	674.50	677.00	684.00	687.75	677.50	668.00	666.75	666.50	665.75	664.50	667.75	660.75	665.50	660.75	651.50	579.75	510.00	555.50	652.75	654.50	654.00	653.00	653.75	655.50	656.75	653.75	649.00	639.50	632.50	627.00	635.00	593.25	601.75	629.50	629.00	635.75	633.00	633.00	632.25	632.75	637.00	645.00	662.25	686.00	663.00	640.75	627.75	619.25	582.75	527.75	578.75	621.25	641.75	702.25	776.50	768.00	797.75	844.25	827.50	775.25	742.25	713.25	684.75	717.75	743.75	806.50	797.75	799.50	819.00	808.50	764.00	751.25	782.75	790.75	719.00	690.75	689.25	704.50	731.50
1715.00	1664.50	1594.00	1471.75	1393.00	1351.50	1351.50	1282.50	1312.25	1358.00	1425.50	1569.75	1693.00	1701.00	1658.75	1723.50	1899.50	1866.50	1760.50	1685.00	1630.50	1518.50	1452.50	1488.75	1619.75	1838.50	1752.75	1617.75	1571.00	1504.25	1463.50	1413.00	1335.00	1299.50	1306.50	1311.25	1345.75	1302.25	1256.75	1173.00	1055.50	1070.75	1080.25	972.75	922.75	924.25	937.75	1130.50	1180.50	1273.00	1209.75	1137.00	1085.75	1146.75	946.00	947.75	916.75	1070.25	1110.50	1074.25	1340.00	1465.75	1338.25	1267.25	1358.50	1581.50	1797.25	1703.75	1537.75	1495.00	1354.25	1265.50	1207.00	1316.25	1502.75	1644.00	1464.50	1272.00	1438.00	1361.75	1104.00	1347.00	1506.00	1316.50	1189.50	1329.75	1432.75	1389.50	1345.00	1280.75	1229.50	1251.75	1212.25	1298.75	1287.75	1383.25	1315.00	1149.50	1010.25	1042.00	1168.25	1271.25	1260.25	1337.75	1568.50	1644.00	1595.00	1506.25	1421.50	1369.50	1391.75	1383.00	1307.25	1203.50	1211.00	1308.25	1401.25	1456.25	1421.25	1306.25	1184.25	1043.00	1053.75	1196.50	1304.00	1396.25	1306.00	1198.75	1087.75	1056.25	1003.75	967.50	941.25	911.75	903.50	904.25	906.50	937.50	962.25	974.50	935.00	876.25	839.75	826.25	849.50	868.25	936.50	960.25	966.75	899.25	849.50	831.25	820.00	815.50	816.75	793.75	774.25	789.75	789.50	805.75	796.50	803.25	790.50	769.50	803.50	828.25	772.25	748.75	814.50	880.00	788.25	733.00	720.50	699.25	675.00	673.25	677.25	677.25	693.25	710.25	704.25	685.00	671.00	668.50	667.00	665.75	667.00	669.25	653.75	663.00	662.00	663.00	616.00	511.75	510.75	623.25	654.50	655.50	654.25	652.75	653.50	656.25	650.75	646.50	641.00	637.00	621.25	627.25	589.25	596.00	632.75	637.75	641.25	634.50	632.75	631.25	630.75	614.50	629.25	635.25	640.25	636.00	626.00	617.00	596.75	605.00	522.00	567.75	618.00	632.75	682.50	762.50	794.75	808.00	859.25	850.00	807.00	776.50	732.25	683.00	696.50	751.00	811.50	780.25	774.25	793.50	812.00	772.25	751.50	768.75	798.25	739.75	694.75	689.00	695.75	723.25
1372.25	1248.75	1214.50	1173.75	1175.25	1248.75	1198.25	1081.75	1123.75	1418.75	1535.25	1439.50	1425.50	1464.00	1530.00	1599.75	1711.50	1787.75	1737.50	1733.25	1632.75	1613.00	1594.50	1614.50	1667.00	1830.25	1707.50	1710.00	1812.50	1646.75	1603.75	1553.00	1487.75	1654.00	1802.50	1765.50	1743.25	1631.25	1407.50	1229.25	1109.00	1188.75	1225.25	1121.00	1061.50	1006.25	914.00	912.00	905.75	917.75	946.50	930.75	902.25	924.50	912.25	907.50	901.00	1117.25	1278.75	1156.00	1211.25	1323.25	1429.00	1353.25	1448.00	1502.50	1688.00	1778.50	1614.75	1501.25	1378.25	1303.50	1190.75	1206.25	1306.00	1468.50	1483.75	1239.75	1269.75	1363.75	1277.25	1132.25	1292.25	1429.50	1188.75	1273.50	1419.25	1483.25	1360.75	1375.75	1371.75	1532.25	1331.75	1440.25	1502.75	1459.00	1350.25	1257.50	1102.75	977.00	1107.00	1162.25	1147.50	1237.25	1408.50	1623.50	1761.00	1612.50	1499.25	1573.25	1378.75	1356.50	1295.75	1265.75	1260.50	1286.25	1216.75	1306.00	1383.25	1346.25	1266.50	1112.00	1030.50	1121.50	1207.25	1310.25	1472.50	1412.25	1184.75	1109.75	1050.75	1006.25	971.00	942.25	929.00	935.25	930.75	919.00	915.25	944.75	974.50	913.50	847.25	814.25	840.00	845.75	856.25	872.25	913.25	876.25	835.00	806.50	803.75	805.75	795.50	782.50	779.00	753.00	763.75	783.00	782.25	782.00	791.25	759.25	768.00	789.50	767.25	733.50	776.50	819.00	780.75	738.25	718.75	702.75	679.25	675.00	680.75	728.75	748.50	744.00	723.75	692.00	675.00	674.00	676.50	671.25	671.75	665.00	656.25	666.50	665.00	670.75	672.75	583.25	493.50	574.00	651.50	658.50	656.50	653.75	653.75	651.50	647.50	644.25	641.00	639.50	632.00	612.50	585.75	560.75	573.50	607.00	625.00	634.00	627.25	628.25	591.25	542.75	545.25	543.00	544.00	533.50	533.75	521.25	513.75	514.50	493.25	523.25	582.00	593.25	629.00	717.75	784.50	865.75	861.75	845.75	853.75	811.00	744.25	704.50	678.00	769.50	767.50	718.75	742.75	791.25	821.00	791.25	754.00	747.00	771.50	769.25	720.50	693.25	689.25	729.75
1214.75	1168.00	1165.25	1215.00	1244.00	1351.25	1421.00	1202.75	1086.75	1236.50	1491.50	1516.50	1504.75	1496.50	1528.75	1601.00	1755.00	1764.50	1612.75	1543.00	1464.25	1483.75	1598.75	1711.00	1813.25	1980.50	1758.75	1789.00	1889.75	1781.75	1701.25	1683.00	1670.75	1824.75	1761.50	1655.25	1601.00	1489.00	1305.00	1170.25	1149.25	1311.75	1313.00	1193.50	1135.25	1148.25	979.75	932.50	964.00	926.25	895.25	897.50	891.00	889.50	902.00	905.00	878.25	1107.25	1307.00	1199.50	1215.50	1365.50	1486.25	1452.50	1487.50	1511.25	1643.25	1757.50	1708.50	1540.00	1417.25	1367.50	1252.75	1158.25	1215.00	1326.25	1416.25	1226.75	1223.25	1428.25	1397.00	1088.75	1259.25	1415.25	1193.75	1212.25	1367.75	1509.50	1397.25	1429.75	1528.00	1631.25	1416.25	1512.00	1565.25	1486.25	1396.75	1272.75	1124.00	978.25	1009.75	1094.75	1142.75	1241.00	1332.00	1530.00	1714.50	1637.75	1626.50	1712.00	1493.25	1460.25	1381.25	1350.25	1330.75	1317.00	1179.75	1238.25	1336.00	1358.75	1307.50	1172.25	1052.50	1081.75	1147.25	1251.00	1438.75	1484.75	1232.75	1153.75	1086.75	1052.75	1004.00	972.75	951.75	952.25	934.00	909.50	894.50	915.50	957.00	932.25	867.00	818.00	821.25	834.75	847.00	862.50	867.25	843.25	833.00	811.25	800.25	794.50	786.00	780.00	771.50	735.75	739.00	769.25	763.00	771.50	786.50	757.25	757.00	777.50	776.25	735.25	749.00	766.25	762.50	744.25	720.50	704.50	680.75	676.50	678.00	739.75	754.00	749.00	733.75	694.75	679.75	678.50	676.25	672.25	672.00	665.00	660.00	668.25	668.00	671.75	676.25	626.00	499.50	605.75	657.00	658.50	657.50	655.00	653.50	650.75	647.75	645.50	641.25	639.50	636.00	626.50	616.75	602.75	574.75	565.00	571.00	622.50	605.25	583.25	541.25	560.00	599.75	587.50	591.00	568.75	553.75	568.25	573.75	564.50	522.50	471.00	514.00	535.75	570.00	673.50	750.25	873.25	848.50	824.00	839.00	811.75	763.50	710.25	667.50	745.25	726.00	698.00	761.00	805.50	830.75	788.00	750.00	737.50	769.25	775.50	739.50	701.00	689.75	729.50
1295.25	1230.75	1260.75	1518.75	1605.50	1331.00	1417.25	1606.75	1454.50	1164.00	1074.50	1307.25	1422.25	1483.50	1530.00	1562.50	1631.50	1670.25	1488.25	1496.25	1435.25	1401.50	1345.50	1428.25	1662.00	1889.00	1790.25	1702.25	1666.00	1670.00	1577.25	1645.25	1871.25	1974.50	1930.50	1726.75	1669.75	1596.50	1268.50	1178.00	1342.00	1472.25	1547.00	1353.00	1281.50	1310.50	1225.75	1048.50	1236.50	1244.00	1114.25	1092.75	1051.00	1037.75	985.25	937.75	859.25	930.25	1167.50	1120.00	1203.00	1388.00	1511.75	1652.50	1558.75	1631.50	1693.75	1815.50	1754.00	1639.25	1530.75	1455.50	1342.25	1230.50	1153.25	1130.00	1176.25	1121.50	1292.00	1333.50	1224.50	1099.75	1252.00	1274.50	1122.25	1238.25	1319.50	1433.00	1521.25	1567.50	1541.00	1478.00	1547.50	1529.25	1535.75	1396.25	1344.75	1251.25	1105.25	1118.50	1032.25	1020.25	1067.75	1149.75	1222.00	1320.00	1498.00	1721.75	1737.75	1609.00	1449.00	1391.00	1359.25	1308.00	1243.50	1226.75	1113.75	1116.00	1197.50	1239.50	1319.00	1247.50	1126.25	1078.25	1041.00	1077.75	1234.25	1398.25	1418.00	1269.75	1136.50	1089.00	1045.75	1003.25	984.00	961.00	912.75	890.25	878.75	873.50	884.25	927.00	914.00	842.25	800.50	805.50	822.00	827.50	822.75	824.00	825.00	823.25	823.50	804.00	783.50	760.75	751.00	771.00	765.50	747.50	755.75	746.75	751.00	738.75	746.50	778.75	781.75	749.25	715.25	739.75	758.75	760.50	728.25	708.50	683.00	679.25	680.75	694.25	755.00	756.75	738.25	703.75	692.25	692.25	679.50	670.00	665.50	669.75	652.00	673.25	674.50	672.75	678.00	579.00	488.00	654.75	662.50	658.50	655.75	654.00	654.00	651.75	646.00	644.75	642.00	639.50	638.00	640.25	641.00	638.25	635.00	631.00	612.50	561.50	570.50	598.50	611.25	630.00	631.75	632.50	632.50	632.50	636.75	632.75	627.50	568.50	502.00	484.75	456.75	461.50	459.00	506.50	560.00	681.00	761.00	769.25	785.25	769.00	772.50	715.50	664.00	653.75	661.25	700.50	756.25	805.25	831.25	797.25	758.00	729.00	740.00	763.25	740.00	713.00	696.00	710.50
1496.25	1349.75	1259.50	1571.75	1785.75	1448.50	1359.50	1644.75	1597.50	1370.25	1045.00	1250.75	1347.75	1402.75	1439.50	1506.75	1587.25	1566.50	1541.25	1639.75	1585.50	1537.00	1378.25	1326.00	1497.75	1753.00	1754.75	1685.50	1632.00	1566.00	1496.75	1655.00	1849.00	1793.50	1870.50	1762.00	1742.50	1613.75	1223.25	1246.25	1474.50	1554.00	1605.00	1421.25	1325.25	1228.75	1171.00	1125.00	1348.25	1484.50	1394.25	1284.00	1198.00	1181.50	1121.00	1010.75	881.25	877.00	1058.00	1104.75	1217.00	1315.75	1451.25	1669.75	1683.50	1620.50	1726.75	1831.25	1728.00	1638.75	1534.25	1430.25	1375.75	1318.25	1255.75	1142.25	1101.25	1114.50	1273.50	1207.25	1084.00	1199.25	1324.25	1160.50	1128.75	1294.50	1279.50	1420.50	1504.00	1583.50	1544.50	1411.25	1379.00	1367.00	1494.75	1347.50	1234.00	1142.50	1111.00	1236.75	1120.25	1012.50	1016.50	1094.00	1174.50	1307.25	1517.25	1696.00	1637.75	1531.25	1418.50	1344.75	1278.50	1239.00	1190.50	1140.50	1110.75	1053.75	1108.75	1162.75	1301.75	1283.00	1213.25	1174.75	1085.25	1048.25	1173.00	1331.00	1501.75	1332.25	1155.00	1096.75	1053.25	1022.25	996.75	952.50	913.50	888.25	875.00	858.50	864.50	909.00	934.00	867.50	814.75	791.25	794.25	797.75	808.25	797.50	794.25	795.00	811.00	788.25	757.25	756.75	769.25	775.25	773.75	771.50	775.25	766.25	772.75	749.25	733.00	770.50	786.25	759.75	713.00	731.75	748.25	750.50	723.50	708.50	689.25	684.25	681.00	682.00	739.25	756.50	744.25	711.00	699.25	697.50	678.50	668.75	664.75	666.00	647.00	673.00	676.50	672.50	666.00	530.50	490.25	662.75	665.75	659.25	656.25	654.00	653.75	652.25	647.50	644.00	641.75	639.75	639.00	640.00	640.50	636.00	633.25	630.75	633.75	602.00	609.50	630.75	630.25	631.00	630.25	629.75	631.50	632.25	633.00	628.50	605.00	511.00	483.75	468.00	441.00	437.00	430.75	449.50	490.50	566.00	649.50	708.00	724.25	742.75	772.25	724.00	684.75	648.00	617.00	689.25	727.00	794.75	821.75	804.50	769.75	727.50	724.00	757.50	741.50	717.00	700.00	700.00
1568.50	1495.00	1269.00	1527.00	1794.25	1609.75	1398.50	1596.25	1671.50	1486.75	1082.00	1286.50	1432.25	1495.50	1513.25	1541.25	1646.25	1645.00	1663.75	1747.50	1799.50	1687.00	1491.50	1342.50	1357.00	1537.00	1735.00	1682.00	1661.75	1539.00	1450.75	1617.25	1838.25	1695.00	1702.50	1737.00	1614.75	1473.50	1221.50	1324.75	1598.75	1660.25	1650.50	1486.75	1354.50	1162.50	1087.50	1174.50	1376.50	1633.50	1663.75	1465.25	1362.50	1324.50	1208.75	1059.00	903.00	855.25	973.75	1094.50	1200.00	1250.75	1377.50	1567.75	1713.25	1596.25	1642.50	1814.00	1825.50	1748.50	1577.75	1492.75	1451.75	1365.50	1313.75	1230.00	1120.00	1092.00	1150.25	1078.50	1020.50	1316.75	1362.50	1095.75	1129.50	1258.00	1279.00	1413.50	1410.00	1564.25	1571.50	1436.00	1295.25	1250.00	1377.75	1277.75	1140.00	1101.75	1178.00	1300.75	1216.25	1066.00	1020.50	1053.25	1127.50	1261.75	1475.25	1625.75	1641.50	1606.25	1444.25	1334.75	1278.75	1251.00	1209.75	1091.75	1070.50	1007.50	1035.25	1140.50	1252.00	1316.25	1271.50	1201.50	1084.25	1025.25	1134.75	1293.00	1542.00	1403.00	1170.75	1107.00	1048.75	1014.50	1000.25	957.00	909.75	882.00	874.00	855.00	850.75	877.50	916.75	890.50	836.00	805.50	792.25	781.75	787.25	773.50	763.25	759.00	771.00	760.75	753.00	782.00	782.50	776.75	776.50	776.00	772.50	772.00	776.00	761.00	724.75	759.75	784.50	760.75	714.50	716.25	733.00	739.75	722.00	717.00	703.00	695.50	682.25	677.50	722.00	758.00	751.25	722.75	709.50	699.00	676.75	669.00	665.00	663.50	641.75	670.75	677.50	675.25	642.00	508.25	529.75	664.50	668.00	660.75	657.00	652.50	652.50	650.50	648.25	644.00	642.00	641.25	640.75	640.25	639.50	636.00	633.75	633.50	637.00	631.75	631.75	633.25	634.50	632.25	630.50	628.75	629.75	628.50	626.75	621.75	561.75	486.75	468.00	443.50	428.00	425.25	438.50	436.00	444.50	486.00	541.50	625.25	666.50	740.25	781.25	739.75	714.00	680.50	584.00	659.00	718.00	777.50	804.25	808.50	782.50	727.75	715.00	751.00	747.00	722.25	705.50	701.00
1743.25	1745.00	1400.50	1389.50	1477.00	1730.75	1740.75	1736.00	1607.50	1379.50	1067.00	1327.75	1576.50	1719.25	1830.25	1752.25	1725.25	1702.50	1792.75	1674.50	1714.25	1732.75	1602.50	1420.25	1299.50	1235.75	1438.00	1394.75	1510.00	1728.00	1597.00	1455.00	1662.50	1783.25	1624.50	1486.50	1555.75	1348.25	1349.50	1445.00	1463.50	1638.25	1815.75	1611.00	1403.75	1252.50	1141.00	1217.75	1312.25	1565.50	1802.50	1721.25	1509.75	1356.50	1136.50	1077.75	1001.25	868.50	900.25	990.25	1077.25	1122.00	1208.50	1447.50	1668.00	1647.25	1536.00	1604.00	1800.50	1695.75	1528.00	1410.00	1546.75	1423.75	1241.25	1217.75	1132.75	1036.25	1032.00	989.00	1009.00	1244.50	1232.00	1074.00	1183.75	1169.25	1300.75	1289.25	1286.00	1377.50	1382.00	1337.50	1342.00	1273.25	1209.50	1158.50	1163.25	1256.00	1360.00	1383.50	1307.25	1171.50	1086.25	1076.25	1028.50	1140.50	1371.50	1491.25	1601.00	1576.25	1469.00	1418.50	1221.50	1164.50	1172.25	1159.50	1114.75	1061.00	974.50	1033.00	1058.00	1147.25	1097.25	1004.25	969.75	977.25	1041.75	1209.25	1524.25	1526.25	1271.00	1164.00	1070.50	1006.25	964.75	949.50	935.50	902.25	880.50	865.25	854.25	839.75	835.25	861.25	867.50	830.00	800.50	797.25	780.00	770.00	762.50	771.25	770.75	779.50	803.25	822.50	811.25	785.25	779.75	779.75	775.25	779.25	779.00	774.50	739.00	726.00	760.25	756.75	718.50	704.75	702.75	709.25	719.00	716.50	697.25	687.50	685.50	682.25	727.25	760.25	758.25	737.75	717.75	696.00	669.50	659.25	657.25	638.50	641.75	671.00	675.75	680.50	657.50	505.50	628.00	666.50	666.00	660.00	651.00	646.25	637.25	638.25	642.75	647.25	642.00	641.25	641.00	642.75	641.25	635.25	634.25	633.75	633.00	636.50	637.50	637.25	631.25	628.25	627.50	627.50	620.00	613.75	583.25	526.75	485.25	458.75	436.50	423.00	459.75	569.75	602.75	566.50	492.75	438.00	429.25	492.00	602.75	708.25	778.75	782.00	742.75	682.75	599.50	570.50	668.25	715.00	769.75	814.50	790.75	731.25	692.50	737.50	744.75	733.25	725.25	719.50
1891.25	1832.00	1545.50	1550.75	1629.00	1836.00	1903.75	1819.25	1506.50	1176.25	1101.25	1467.00	1651.00	1775.25	1768.75	1683.50	1597.75	1645.25	1841.50	1681.25	1567.50	1528.75	1436.25	1343.00	1312.75	1228.00	1263.50	1285.25	1442.75	1677.00	1706.25	1461.00	1573.50	1742.50	1670.75	1476.00	1443.00	1292.25	1455.50	1569.50	1513.00	1596.50	1812.25	1653.00	1454.00	1344.00	1161.75	1314.25	1327.00	1594.50	1774.00	1727.75	1487.25	1308.25	1150.25	1213.75	1029.50	886.00	880.50	952.25	1028.75	1065.25	1164.50	1446.25	1636.00	1649.25	1542.75	1519.25	1685.75	1617.00	1486.00	1359.75	1472.25	1419.25	1277.00	1187.25	1087.75	1067.00	1119.50	1026.75	978.25	1131.75	1068.75	1122.00	1239.25	1210.00	1219.75	1220.50	1268.75	1367.50	1404.00	1433.50	1431.75	1330.75	1274.00	1190.25	1212.50	1249.50	1368.00	1461.50	1380.75	1188.75	1106.00	1135.75	1050.75	1067.75	1267.25	1430.75	1527.25	1619.25	1569.00	1464.00	1261.75	1152.50	1093.25	1135.00	1118.25	1067.25	988.50	965.00	997.75	1053.50	996.75	935.75	969.25	995.75	986.25	1157.50	1420.50	1501.00	1338.25	1176.75	1100.25	1036.75	980.50	979.00	950.25	904.50	881.25	857.50	851.75	839.00	818.75	823.00	832.00	813.00	797.50	785.00	774.00	768.50	775.75	782.50	781.25	789.50	819.75	849.00	834.25	788.25	778.25	775.25	779.75	786.00	781.00	774.25	734.25	724.75	759.25	753.25	717.00	700.75	692.25	698.75	700.50	697.25	685.75	683.50	683.75	689.50	727.00	763.75	763.50	746.75	723.25	699.50	666.50	655.75	652.75	638.50	637.75	671.25	678.75	684.00	619.75	506.25	625.25	665.25	666.00	657.50	648.75	623.75	576.75	573.25	615.50	646.25	636.75	638.00	639.75	643.50	643.25	637.75	636.50	633.00	631.00	633.50	634.50	632.75	628.50	626.50	626.75	628.00	619.00	586.25	531.75	498.25	470.75	450.50	429.00	430.00	527.75	613.25	622.75	605.25	523.25	474.25	431.25	447.25	523.50	618.75	719.25	771.25	739.75	699.25	611.50	537.00	617.75	681.25	761.50	807.75	787.00	723.75	672.00	731.25	736.50	732.25	728.25	724.75
1686.25	1731.50	1762.25	1742.00	1789.75	1856.25	1693.00	1702.00	1300.00	1027.50	1353.75	1478.75	1492.25	1504.75	1529.50	1523.75	1583.00	1790.00	1699.50	1606.25	1486.75	1442.50	1451.50	1403.25	1498.75	1431.25	1230.50	1148.75	1228.00	1474.75	1577.00	1477.25	1316.00	1462.50	1436.25	1360.00	1235.00	1278.50	1536.75	1628.75	1657.75	1670.00	1756.25	1785.75	1617.25	1427.50	1247.25	1442.75	1524.00	1651.00	1844.00	1700.50	1452.50	1298.75	1357.00	1307.25	1040.25	899.25	842.25	929.25	959.25	1034.50	1249.00	1555.25	1522.75	1686.00	1593.50	1474.00	1406.00	1481.00	1454.50	1267.00	1215.25	1193.50	1139.50	1101.50	1180.00	1341.00	1394.75	1239.75	1052.25	936.50	1010.25	1241.50	1215.50	1166.00	1188.75	1265.50	1339.25	1422.00	1434.75	1613.25	1554.75	1473.75	1319.75	1253.50	1269.50	1310.75	1423.25	1560.25	1351.50	1234.50	1119.00	1211.50	1159.50	999.75	1094.75	1315.25	1476.75	1578.25	1460.00	1347.25	1227.75	1138.25	1116.25	1042.75	999.00	1003.25	1009.00	952.50	901.75	942.00	873.75	923.00	1097.25	982.00	957.50	1058.75	1272.75	1448.50	1489.50	1288.50	1202.00	1119.50	1052.75	991.00	943.75	909.00	879.75	852.75	841.25	847.50	863.00	842.75	814.75	875.25	842.75	800.00	809.50	828.75	836.00	840.75	792.50	797.50	832.00	855.00	841.25	793.75	774.50	788.50	799.75	779.75	778.00	775.75	756.75	716.25	716.50	710.75	708.25	704.00	697.25	686.00	686.75	687.50	687.00	688.50	696.50	698.75	748.00	767.50	756.25	748.00	741.25	710.25	664.00	662.50	645.50	640.50	627.00	668.25	675.25	680.25	622.75	526.50	538.50	656.00	648.50	626.50	586.00	553.00	468.25	488.25	494.75	504.25	510.75	602.75	641.75	647.75	647.00	642.25	639.00	636.25	637.75	639.00	638.50	632.50	627.25	613.50	605.75	613.00	557.75	507.25	478.25	461.25	455.50	429.75	463.00	582.25	588.50	620.75	622.50	629.75	599.25	533.25	511.25	452.75	425.25	471.00	534.75	595.25	693.00	706.00	642.50	531.25	583.50	651.50	730.50	756.00	738.25	689.25	607.00	694.50	696.00	694.75	686.75	684.25
1665.75	1826.25	1779.25	1640.00	1647.25	1814.50	1599.25	1495.75	1223.25	1026.75	1244.25	1298.50	1330.25	1365.00	1414.50	1492.00	1653.00	1774.50	1676.00	1555.00	1555.50	1562.50	1521.25	1475.00	1589.50	1555.25	1282.75	1138.00	1147.75	1319.50	1417.00	1503.25	1305.75	1319.50	1313.75	1267.00	1208.25	1287.50	1457.75	1559.00	1656.75	1627.75	1665.50	1744.25	1760.00	1457.50	1368.00	1372.50	1572.25	1740.75	1769.00	1660.25	1425.75	1320.50	1385.00	1250.75	1043.75	901.00	838.00	902.25	944.00	1015.25	1195.00	1688.50	1678.75	1681.50	1630.25	1505.25	1387.25	1319.25	1277.00	1207.00	1179.25	1150.25	1163.75	1150.25	1239.50	1423.25	1419.75	1255.50	1090.25	951.00	970.50	1156.25	1099.00	1156.50	1192.25	1226.50	1324.75	1335.50	1349.50	1539.25	1557.00	1458.00	1297.75	1286.25	1290.75	1357.00	1481.75	1469.75	1326.25	1209.25	1110.75	1244.00	1194.25	1001.25	1047.00	1240.25	1444.75	1580.50	1550.75	1420.00	1283.00	1189.25	1164.00	1104.25	1015.25	972.25	964.75	951.75	896.00	879.00	852.25	960.50	1125.75	945.25	954.75	1059.00	1291.50	1389.25	1529.25	1365.25	1255.00	1176.25	1072.50	981.25	970.25	919.00	877.75	852.75	857.00	864.75	875.75	839.00	818.00	892.75	869.75	827.75	840.25	856.00	856.25	848.00	803.00	809.25	831.50	861.75	857.75	801.00	775.25	807.50	806.25	783.25	778.75	778.75	777.75	744.00	732.75	732.25	731.00	714.75	700.50	691.25	689.00	686.25	686.00	699.75	727.00	705.50	753.50	772.50	750.75	746.25	739.75	693.50	663.00	664.50	639.75	628.25	623.25	663.75	668.00	671.50	661.75	595.75	498.00	624.00	590.25	563.75	512.50	501.00	462.50	513.00	458.25	473.25	464.25	555.75	640.75	646.50	645.00	640.50	634.50	626.25	625.50	624.00	609.00	563.75	544.25	523.00	513.50	524.25	480.50	465.25	449.25	442.75	437.50	441.50	526.50	623.75	607.50	623.25	626.25	629.25	586.00	596.25	581.25	502.50	428.25	438.75	479.25	506.50	596.00	647.50	618.00	521.50	576.25	645.00	701.25	710.75	697.75	668.25	607.50	639.75	656.50	659.50	657.00	660.00
1513.00	1764.00	1548.00	1550.00	1756.50	1610.25	1555.50	1373.75	1143.00	996.50	1276.25	1413.00	1491.25	1482.25	1401.25	1435.25	1516.25	1601.75	1632.00	1640.00	1840.75	1663.00	1653.75	1627.75	1709.75	1585.75	1345.50	1211.25	1140.75	1094.25	1189.50	1321.25	1369.00	1282.50	1220.00	1126.00	1262.75	1374.50	1512.75	1604.25	1643.50	1624.25	1537.50	1450.25	1574.00	1786.50	1731.25	1457.75	1494.75	1678.25	1626.00	1518.75	1440.25	1478.50	1539.75	1341.00	1129.25	958.75	828.00	911.00	942.25	995.50	1152.50	1602.25	1824.00	1808.25	1682.25	1580.00	1404.50	1263.50	1282.50	1409.75	1324.50	1263.25	1361.25	1356.75	1363.50	1481.50	1402.50	1418.50	1314.50	1082.00	954.25	987.50	1177.75	1243.00	1079.50	1107.25	1202.50	1244.00	1387.00	1510.50	1504.25	1407.75	1230.25	1204.00	1192.00	1274.25	1413.25	1296.75	1213.50	1116.25	1159.50	1341.50	1177.00	966.25	995.00	1166.00	1368.50	1518.50	1562.00	1461.75	1315.50	1255.75	1242.25	1171.75	1128.75	1138.50	1112.25	1048.00	951.00	825.75	842.25	1010.75	1080.25	904.50	928.25	1004.75	1136.25	1272.00	1492.75	1546.75	1384.50	1273.25	1150.50	1034.25	995.25	922.00	893.00	877.00	872.00	888.25	890.00	856.00	829.00	862.25	898.25	867.25	845.25	849.00	860.25	849.75	813.25	836.75	853.00	853.25	832.75	804.25	791.50	823.25	819.25	801.00	783.00	790.75	789.50	776.25	769.50	767.25	754.25	732.75	706.25	698.25	689.25	687.50	692.25	756.50	761.75	716.25	746.25	765.75	733.25	713.25	690.75	667.00	663.50	654.75	645.00	580.00	643.75	669.25	670.00	663.75	658.75	629.75	485.50	486.75	529.00	497.00	470.50	511.00	556.00	604.50	590.75	628.75	509.25	456.25	606.00	641.75	637.75	595.50	535.00	500.75	485.50	454.00	434.50	430.75	437.25	440.00	442.00	441.00	440.25	445.50	458.00	492.00	539.25	616.00	626.75	626.00	624.75	629.00	631.00	627.25	617.50	624.25	635.50	619.25	524.25	439.50	424.50	442.00	464.25	516.25	514.50	548.00	589.00	607.00	605.50	591.50	568.50	535.00	487.00	474.50	503.75	553.00	615.00	644.25
1403.50	1601.25	1482.75	1602.00	1747.25	1406.25	1364.00	1193.75	1041.50	1021.50	1242.25	1421.50	1528.50	1597.75	1571.00	1517.75	1508.25	1591.50	1684.00	1684.25	1897.75	1712.25	1738.75	1697.75	1686.50	1530.00	1315.00	1295.25	1183.75	1076.50	1077.75	1133.00	1218.00	1211.25	1197.25	1112.00	1242.75	1362.25	1487.00	1530.00	1616.25	1653.00	1577.75	1472.50	1422.25	1738.75	1737.50	1641.25	1609.25	1691.00	1639.50	1657.75	1588.00	1585.50	1510.25	1430.00	1193.50	983.00	835.50	899.25	923.00	986.25	1140.50	1665.00	1805.25	1811.75	1665.25	1515.00	1312.50	1295.50	1335.75	1516.75	1404.50	1327.00	1355.50	1470.75	1445.00	1485.75	1443.25	1533.75	1377.00	1130.75	1013.25	975.75	1204.25	1143.00	1034.75	1120.00	1160.00	1314.25	1463.00	1597.25	1485.50	1408.50	1245.75	1200.75	1150.50	1206.75	1313.75	1238.25	1161.00	1110.25	1204.00	1375.25	1157.75	952.75	971.75	1118.75	1292.75	1475.00	1612.75	1501.50	1341.25	1303.75	1280.75	1218.25	1210.00	1181.00	1124.00	1027.50	963.00	823.50	838.50	1000.75	1039.50	895.50	919.25	989.75	1131.75	1215.50	1431.00	1596.75	1452.25	1284.50	1162.50	1072.75	1014.50	951.50	924.25	885.00	886.00	903.00	897.00	868.25	839.00	847.00	904.75	865.50	841.25	833.00	843.00	838.75	815.00	846.50	857.50	852.75	838.25	809.75	807.50	831.75	829.50	804.00	794.75	793.25	788.25	777.50	778.75	770.00	757.25	730.25	713.75	708.75	693.25	692.00	707.50	760.00	756.50	718.75	727.50	739.25	714.75	696.75	678.50	666.75	657.00	651.00	659.25	586.50	645.75	671.25	667.00	654.75	657.50	641.75	510.75	500.75	595.25	565.50	526.00	591.25	628.50	644.75	643.75	646.00	560.25	452.00	536.75	573.00	576.00	523.00	489.00	471.25	452.75	428.50	441.25	455.50	461.50	467.25	471.50	485.75	525.75	539.00	549.50	585.00	623.75	634.25	628.75	628.75	630.50	631.25	632.00	629.25	628.00	617.75	638.50	642.50	610.75	499.00	428.50	421.00	441.00	465.00	470.00	520.25	529.75	534.75	509.50	488.00	467.50	439.75	421.75	431.25	434.25	457.75	520.50	599.25
1160.00	1208.50	1354.75	1620.00	1503.50	1101.00	1023.50	1220.25	1190.00	1332.00	1360.50	1454.00	1551.25	1592.75	1705.50	1700.00	1658.25	1850.75	1911.25	1832.25	1808.50	1575.75	1506.25	1458.25	1450.00	1437.00	1414.50	1594.75	1463.25	1248.75	1102.25	1113.50	1067.25	1041.25	1028.25	1035.00	1167.50	1304.25	1339.25	1437.00	1529.50	1664.75	1663.25	1585.75	1434.25	1393.75	1641.75	1533.25	1609.75	1739.00	1726.00	1759.25	1870.50	1681.25	1310.50	1322.75	1145.50	977.75	831.00	831.00	885.50	959.00	1075.25	1539.75	1641.00	1470.50	1412.25	1384.00	1443.00	1535.25	1407.50	1556.50	1633.25	1504.75	1490.75	1512.25	1446.75	1304.25	1283.00	1429.50	1456.25	1354.50	1100.00	907.25	978.50	1030.00	1232.75	1384.00	1370.00	1336.25	1297.00	1460.50	1427.00	1392.75	1264.75	1188.25	1084.50	1072.25	1158.50	1138.25	1090.50	1127.00	1282.25	1344.75	1149.75	935.75	906.25	1032.50	1190.75	1307.00	1518.50	1524.25	1470.75	1409.75	1345.00	1257.25	1218.75	1158.50	1091.00	1071.75	1018.50	830.25	813.00	960.75	962.50	899.00	983.75	962.25	1032.50	1133.00	1383.50	1529.25	1521.00	1318.50	1240.25	1139.75	1013.50	950.50	923.50	910.00	922.00	915.25	902.25	880.00	854.00	833.25	899.25	901.50	867.50	827.25	823.75	814.00	823.50	853.25	860.75	879.25	853.50	812.50	823.25	857.75	844.75	820.50	802.75	796.50	800.50	783.25	785.75	770.75	751.50	729.25	712.75	716.00	705.25	703.25	714.50	725.75	721.00	717.75	712.75	710.00	702.25	689.50	678.50	664.50	661.00	664.00	663.25	629.50	601.25	656.50	656.00	649.75	655.75	658.75	647.50	635.00	649.25	650.00	653.75	652.75	651.25	647.75	642.50	641.00	630.75	575.25	501.50	439.75	438.25	439.00	452.50	437.75	431.75	528.75	556.50	585.00	607.50	621.25	565.00	628.50	661.50	651.00	640.50	639.25	639.50	637.25	633.25	633.50	633.75	631.50	628.25	628.75	624.50	629.25	637.50	640.50	642.00	635.50	591.00	515.25	451.00	419.75	421.50	425.75	422.00	417.75	418.75	419.00	435.00	505.25	540.75	572.50	560.50	490.25	425.25	453.25
1228.00	1115.75	1302.75	1512.75	1302.25	996.00	1141.25	1430.50	1330.50	1454.75	1413.25	1528.50	1615.25	1635.25	1687.50	1672.00	1674.50	1709.00	1694.00	1692.00	1771.00	1730.50	1577.75	1536.75	1545.00	1483.25	1465.00	1615.25	1468.75	1220.00	1179.50	1246.50	1220.75	1096.75	1045.50	996.25	1099.50	1204.75	1348.50	1462.00	1460.25	1615.50	1643.50	1641.75	1552.75	1312.25	1452.25	1447.25	1693.25	1779.50	1710.00	1652.25	1754.00	1575.25	1256.75	1185.00	1115.25	946.50	813.50	825.25	888.00	943.25	1030.75	1456.50	1644.25	1444.75	1458.75	1474.75	1535.75	1612.75	1439.00	1545.25	1693.75	1539.75	1580.75	1477.50	1373.25	1272.25	1200.25	1279.25	1382.50	1362.00	1155.25	889.50	916.25	1096.50	1299.50	1444.25	1408.00	1229.75	1245.00	1349.75	1428.25	1476.00	1290.50	1195.75	1081.25	1000.50	1079.75	1068.75	1053.00	1167.50	1328.25	1244.75	1113.00	925.75	868.25	988.00	1132.00	1169.75	1374.25	1489.00	1532.50	1421.25	1325.25	1206.50	1160.25	1126.75	1098.75	1096.25	1017.50	841.75	794.50	910.50	912.25	880.00	935.75	929.00	1005.00	1100.50	1268.00	1424.25	1550.75	1382.75	1256.50	1142.50	1027.50	951.75	943.00	944.00	945.75	927.50	912.50	892.00	866.50	844.75	894.75	922.00	865.50	830.50	810.75	807.50	828.50	855.50	872.50	882.00	853.00	796.75	806.00	859.00	836.00	814.25	798.25	797.50	808.00	791.75	788.75	771.50	754.25	730.00	715.00	710.75	707.00	704.75	710.75	716.25	717.75	721.00	715.25	713.25	708.75	689.75	673.75	663.50	659.50	665.75	663.50	655.75	610.75	654.50	655.25	650.00	653.00	653.75	656.00	653.25	650.50	654.25	654.75	652.00	649.25	646.25	639.75	639.75	639.25	628.50	535.25	457.00	445.75	435.50	438.75	437.00	485.00	622.00	623.75	651.75	662.50	662.50	604.00	628.00	659.50	665.75	648.00	643.75	642.50	641.00	636.50	635.25	634.75	632.25	630.25	630.50	626.75	632.25	634.75	635.75	634.50	642.50	629.00	600.75	539.25	464.50	441.75	436.25	429.75	428.25	446.00	485.75	526.75	599.75	621.50	631.00	628.50	571.25	461.00	424.50
1314.50	1172.75	1110.50	1130.75	1009.25	1209.50	1327.75	1704.25	1608.25	1493.75	1527.75	1553.75	1402.50	1483.75	1448.50	1396.75	1375.00	1401.75	1450.75	1481.25	1523.25	1598.25	1751.75	1754.50	1603.00	1494.75	1556.25	1457.25	1264.50	1270.25	1368.75	1423.75	1550.50	1444.50	1366.25	1209.00	971.50	1059.50	1289.50	1480.50	1386.25	1381.00	1443.25	1539.00	1555.25	1458.25	1290.50	1368.75	1725.25	1825.50	1674.00	1572.00	1669.25	1559.25	1245.50	1040.50	976.25	871.50	810.75	866.50	956.25	1051.75	1061.25	1390.25	1513.25	1581.50	1784.75	1616.75	1639.75	1718.75	1558.00	1578.75	1755.75	1582.50	1625.50	1670.00	1490.00	1406.25	1226.25	1093.25	1066.25	1029.25	972.50	945.50	865.50	990.00	1141.25	1244.50	1153.25	1108.00	1154.00	1197.75	1343.75	1429.75	1221.25	1116.00	1080.50	1013.50	932.50	922.00	1010.00	1238.25	1275.50	1202.00	1075.00	940.50	826.00	905.25	978.00	1022.25	1293.75	1411.00	1505.25	1401.50	1336.00	1242.75	1195.50	1149.25	1107.00	1020.75	955.25	878.75	788.50	840.25	854.50	832.50	950.00	978.50	1024.75	1100.25	1287.50	1419.50	1576.50	1438.25	1264.50	1159.00	1068.50	997.50	985.25	959.50	947.75	929.00	908.50	891.50	875.50	861.25	872.25	886.75	832.25	793.00	769.00	801.00	866.50	879.75	900.00	881.00	853.00	761.50	762.75	790.00	776.75	787.00	794.50	815.50	814.25	796.50	772.25	763.75	764.25	747.50	735.00	721.50	717.50	721.25	718.50	723.50	725.25	734.75	724.75	730.75	712.25	696.50	690.75	668.00	662.75	660.75	662.25	648.25	614.75	662.00	651.00	652.00	653.25	652.25	656.00	651.25	650.25	648.75	657.00	650.25	645.25	641.75	641.75	638.25	626.75	541.25	487.00	445.50	439.50	471.50	503.00	611.25	657.00	690.25	688.75	683.75	670.25	662.00	658.75	653.50	641.50	653.50	668.75	662.00	652.75	642.25	641.50	639.25	637.75	634.25	632.50	634.50	637.50	636.00	633.50	634.75	638.75	645.25	647.25	648.25	640.50	587.25	522.25	509.00	511.00	534.50	593.00	626.75	637.50	639.50	635.50	634.75	635.00	633.50	605.25	479.75
1264.25	1300.25	1179.25	1019.75	998.50	1374.00	1361.00	1766.75	1744.00	1610.25	1488.50	1464.50	1313.25	1430.50	1359.50	1339.50	1422.50	1508.00	1549.50	1595.25	1594.75	1554.50	1626.75	1756.25	1636.00	1574.75	1500.00	1320.50	1232.75	1433.50	1400.75	1479.25	1684.00	1562.00	1416.75	1287.25	990.75	986.75	1217.00	1419.50	1409.00	1295.50	1342.50	1416.25	1478.25	1531.50	1425.75	1268.00	1553.00	1755.00	1674.25	1557.50	1455.00	1372.75	1192.75	1032.75	934.50	842.25	831.00	897.75	985.25	1089.25	1152.75	1338.50	1378.25	1543.25	1745.50	1538.25	1544.25	1708.00	1612.75	1563.50	1653.00	1464.50	1549.25	1650.25	1548.50	1425.50	1257.00	1149.00	1039.25	1016.00	1057.25	1074.25	869.50	939.75	1102.50	1091.00	1065.00	1189.50	1219.50	1241.75	1321.75	1341.50	1177.75	1150.25	1119.25	1042.25	932.75	877.75	976.75	1224.00	1243.25	1215.00	1109.50	968.00	822.75	866.75	957.25	1028.00	1223.75	1326.50	1443.25	1399.00	1320.25	1217.50	1162.50	1114.00	1078.75	1028.50	992.50	878.00	778.50	831.00	817.75	869.75	1029.25	1037.75	1081.25	1159.00	1309.25	1385.00	1518.50	1456.75	1257.50	1153.75	1096.75	1026.75	999.25	969.00	953.50	930.00	903.75	890.50	879.25	867.75	868.50	861.00	805.75	777.00	759.25	792.25	882.00	901.00	908.25	883.00	846.75	743.50	743.50	747.75	762.75	789.00	792.75	827.25	826.00	807.25	754.50	759.75	762.00	750.50	744.75	732.50	725.75	738.00	735.25	731.50	729.50	736.25	727.25	734.00	706.50	693.50	693.00	669.50	656.75	653.25	657.25	613.75	603.75	660.25	648.50	653.25	653.00	652.00	655.00	649.25	646.50	646.25	650.00	647.50	641.50	640.75	640.50	639.50	607.00	507.00	454.25	435.00	473.00	563.50	606.00	665.00	667.25	678.75	673.00	675.00	667.00	661.50	661.75	660.75	650.25	652.50	662.00	667.50	663.50	647.75	647.75	642.75	637.75	635.50	635.25	637.50	638.00	637.00	635.75	637.00	639.00	644.00	647.50	649.50	647.00	631.50	590.25	579.00	580.25	611.50	632.00	634.50	638.50	638.50	633.50	635.75	635.50	634.00	634.50	543.00
1559.50	1506.25	1322.25	1012.50	1052.75	1539.00	1698.75	1760.25	1600.75	1415.50	1325.25	1240.75	1229.50	1300.50	1246.50	1321.25	1431.75	1497.50	1541.50	1490.50	1522.25	1597.00	1617.50	1611.25	1526.00	1485.50	1330.25	1368.50	1613.00	1649.25	1393.50	1638.75	1878.25	1574.50	1389.50	1287.75	1084.75	942.50	1130.25	1298.75	1461.25	1390.00	1236.25	1196.25	1242.25	1381.25	1352.00	1174.50	1221.75	1582.75	1748.25	1623.75	1550.00	1557.75	1261.25	1070.75	844.00	826.50	928.50	980.25	1082.75	1251.00	1484.25	1325.75	1260.75	1502.75	1617.50	1414.50	1386.25	1431.25	1337.75	1460.50	1574.50	1298.25	1258.25	1321.50	1467.00	1428.50	1265.25	1090.00	1120.25	1214.00	1441.75	1272.50	979.50	852.50	879.00	1046.75	1253.00	1461.50	1468.00	1408.75	1327.25	1355.25	1296.75	1261.00	1196.75	1101.25	998.50	858.75	875.25	1044.75	1120.00	1123.50	1172.00	1036.75	848.25	832.75	886.00	954.50	1135.75	1168.75	1229.00	1310.50	1295.25	1230.00	1192.50	1162.75	1120.00	1077.50	1045.00	907.50	787.75	757.75	792.50	940.75	1088.75	1078.00	1038.75	1067.00	1117.75	1264.00	1451.00	1569.50	1338.50	1205.00	1139.50	1057.50	1010.75	977.50	956.50	931.50	910.00	902.00	890.75	883.50	861.25	825.00	783.75	811.75	775.00	744.50	789.00	824.25	865.75	886.75	803.50	725.50	726.00	747.00	792.50	824.25	795.50	831.00	833.75	828.00	747.25	745.50	756.75	749.50	752.25	747.75	738.50	765.25	768.25	737.75	736.00	723.25	726.50	711.25	687.25	674.00	670.00	659.00	639.50	632.25	620.25	566.75	609.00	641.50	628.75	649.00	650.00	646.00	645.25	643.50	643.50	643.00	643.00	628.00	637.25	630.75	583.00	570.75	467.75	438.25	446.50	526.25	636.25	680.25	676.75	689.50	681.25	671.25	658.75	658.00	659.50	659.50	661.75	659.50	654.25	651.75	654.50	666.00	677.75	664.00	655.50	659.50	648.25	643.50	641.00	638.50	638.25	637.00	636.75	636.25	628.75	586.50	574.75	582.00	597.75	604.00	591.00	625.75	648.00	650.25	650.50	649.00	643.00	632.75	633.75	638.25	634.00	625.75	553.50	464.00
1614.00	1427.25	1272.50	1027.25	1039.25	1558.00	1737.00	1772.75	1641.75	1348.75	1189.50	1165.25	1158.00	1190.00	1190.75	1282.50	1344.00	1378.25	1378.75	1362.25	1456.25	1514.00	1611.00	1633.25	1548.50	1464.00	1361.25	1481.75	1826.00	1661.50	1449.75	1696.50	1885.75	1641.25	1536.50	1443.50	1131.75	960.00	1083.25	1244.50	1437.75	1469.75	1304.50	1189.25	1157.25	1237.75	1237.00	1158.25	1172.25	1516.75	1858.00	1820.50	1647.75	1686.00	1255.00	1031.00	794.25	885.50	983.50	1017.75	1154.25	1405.50	1604.00	1330.50	1224.00	1472.25	1537.50	1386.75	1269.25	1294.25	1305.00	1511.25	1508.50	1296.00	1188.50	1263.25	1453.75	1509.25	1261.50	1130.25	1205.00	1342.50	1536.75	1288.00	1029.50	885.75	837.25	989.50	1180.25	1402.25	1545.25	1384.75	1221.75	1303.75	1309.75	1309.75	1228.50	1120.75	1016.25	875.25	824.00	920.50	1054.25	1027.00	1150.75	1071.50	895.25	792.25	853.00	973.75	1032.50	1071.75	1134.50	1250.50	1304.75	1258.25	1205.00	1149.50	1103.00	1098.75	1029.00	869.00	778.75	769.50	857.50	987.50	1086.25	1051.00	961.50	984.50	1131.75	1274.25	1446.00	1602.25	1377.75	1257.00	1187.00	1085.75	1020.00	972.50	956.00	932.00	914.25	899.75	885.50	891.75	861.75	815.75	797.75	823.50	789.50	748.00	749.50	782.75	834.00	850.00	764.25	722.25	721.75	769.50	831.50	847.50	790.75	798.75	801.25	805.50	745.75	735.75	741.50	738.25	746.00	744.75	739.50	765.00	776.25	735.25	738.00	712.75	707.00	690.75	673.75	667.75	668.00	651.00	635.00	645.75	652.50	621.25	600.50	596.25	627.00	646.50	647.75	643.75	643.50	646.25	646.50	645.75	647.00	613.25	589.75	569.50	523.00	493.00	436.25	437.25	493.50	613.00	681.75	691.00	680.25	687.00	679.50	673.75	661.00	658.75	658.50	658.75	662.00	659.25	656.25	651.75	652.75	650.75	660.00	655.25	654.50	662.75	653.50	649.50	644.00	636.75	636.75	635.75	635.50	627.00	599.75	524.25	508.75	513.25	522.50	529.25	518.75	566.75	619.75	629.75	648.50	645.25	650.50	638.50	634.00	638.50	630.00	573.25	476.00	478.75
1545.00	1447.00	1297.25	1077.00	966.75	1354.50	1544.50	1722.75	1486.75	1219.00	1179.50	1248.50	1262.50	1215.75	1212.25	1206.25	1208.50	1267.50	1372.00	1475.25	1693.25	1745.25	1617.50	1586.75	1590.00	1621.00	1665.25	1773.00	1864.75	1641.50	1555.75	1578.75	1593.75	1562.25	1604.25	1638.25	1240.50	1031.25	999.25	1136.00	1295.50	1478.00	1370.50	1257.50	1240.25	1116.75	1059.50	1006.00	1206.75	1473.75	1685.25	1785.25	1667.00	1580.50	1142.50	970.25	778.50	995.75	1055.00	1046.50	1240.00	1489.25	1500.00	1345.00	1244.25	1256.00	1420.00	1412.75	1142.75	1161.50	1421.25	1427.00	1254.00	1180.00	1243.75	1286.75	1339.50	1304.25	1268.25	1325.25	1421.75	1653.75	1562.50	1381.50	1136.50	1002.50	844.75	873.00	1040.50	1256.25	1303.50	1155.50	1107.50	1197.50	1417.25	1530.50	1460.75	1304.50	1131.25	956.75	880.00	777.00	815.25	869.00	1057.75	1092.25	965.00	784.25	808.25	906.00	911.50	1036.75	1141.75	1208.25	1265.25	1273.00	1177.25	1088.50	1066.50	1019.00	949.50	863.75	757.25	791.75	927.25	982.25	934.75	878.50	973.50	1011.50	1100.00	1196.50	1317.50	1544.00	1436.25	1238.75	1156.25	1083.00	1045.50	993.75	972.00	950.50	929.75	914.00	911.00	891.00	857.75	811.50	801.00	792.75	784.00	760.75	732.00	734.75	741.00	745.25	729.50	716.00	719.25	763.75	788.00	822.00	829.50	785.50	757.75	752.75	753.00	734.75	723.75	719.25	724.50	718.50	742.50	774.00	764.25	724.25	718.00	700.25	682.25	678.75	672.25	668.25	661.50	665.00	667.75	662.50	656.75	660.00	626.25	519.50	597.50	643.50	645.75	647.50	644.75	646.75	645.25	631.00	586.25	512.00	484.50	463.25	442.75	440.25	476.00	549.50	645.00	684.75	691.75	686.25	673.25	685.75	682.50	685.25	673.00	664.50	654.50	653.00	654.75	658.50	652.50	654.25	653.75	652.50	655.25	653.75	656.25	654.00	661.25	660.50	652.25	627.75	617.00	611.50	575.75	522.50	505.75	546.25	610.50	599.75	581.00	573.75	590.00	523.50	499.25	506.75	507.25	499.25	527.00	616.50	618.75	596.00	508.75	480.00	544.00	605.75
1666.50	1541.50	1305.75	1079.25	936.75	1273.75	1499.75	1633.50	1386.75	1106.75	1335.75	1440.50	1369.00	1259.00	1263.25	1273.00	1197.75	1275.25	1427.50	1528.25	1715.00	1846.50	1604.00	1497.00	1465.00	1493.00	1609.00	1956.00	1847.75	1717.25	1730.75	1653.75	1501.25	1439.75	1415.00	1482.75	1287.75	1040.00	995.50	1130.25	1294.00	1469.75	1430.50	1378.25	1409.25	1210.00	1072.50	983.75	1129.75	1348.00	1463.25	1709.75	1761.25	1608.75	1096.75	894.75	785.25	939.75	1013.75	1036.25	1224.25	1437.75	1411.25	1263.00	1249.50	1189.25	1325.25	1416.00	1160.00	1130.75	1413.25	1316.50	1128.50	1095.75	1225.25	1237.75	1280.75	1366.50	1390.00	1421.50	1562.50	1721.00	1604.00	1426.50	1208.75	1097.50	859.00	865.50	1056.50	1191.50	1108.50	1063.75	1166.50	1219.00	1501.75	1648.00	1569.00	1411.25	1211.50	976.75	940.00	815.00	752.25	810.25	977.50	1060.00	972.50	796.00	774.50	820.50	912.50	1062.00	1183.00	1193.50	1183.25	1232.00	1178.50	1093.00	1062.50	1016.50	988.75	888.25	776.50	762.00	867.25	870.50	841.25	884.50	1028.50	999.25	1068.25	1189.75	1358.00	1578.00	1430.25	1232.50	1215.00	1136.50	1081.50	1005.50	984.00	965.25	936.75	913.00	916.75	892.75	854.75	810.25	796.00	783.00	768.75	753.50	732.25	732.00	730.25	729.25	724.00	714.50	718.25	751.00	772.25	819.25	852.50	794.25	753.75	743.25	744.75	736.75	720.00	714.75	716.75	714.25	733.50	757.00	750.75	713.00	700.50	688.50	672.50	672.25	670.50	669.50	669.50	667.75	670.50	661.25	658.00	661.50	627.75	517.50	581.00	643.50	646.25	645.75	643.25	646.75	639.50	587.75	522.75	475.75	450.50	441.00	450.50	463.25	541.50	623.00	672.25	689.75	693.25	693.50	679.50	681.25	674.25	683.25	676.25	664.50	655.00	653.75	657.25	660.75	651.25	654.25	659.00	662.75	664.00	657.75	660.75	655.50	661.75	662.00	653.75	591.25	560.00	565.25	524.00	524.25	564.00	598.25	637.50	639.00	633.75	626.00	636.00	600.75	555.00	530.00	531.25	507.00	474.25	526.25	553.75	504.25	468.50	522.25	599.50	631.50
1592.50	1484.25	1310.00	1160.75	934.50	1124.50	1356.75	1580.75	1306.25	1116.50	1464.00	1639.50	1575.50	1277.75	1265.25	1452.25	1314.75	1238.50	1280.75	1467.75	1621.00	1618.25	1673.75	1556.75	1406.75	1328.75	1394.75	1695.25	1884.25	2084.75	1818.25	1648.00	1567.25	1377.00	1223.75	1160.00	1110.25	1017.00	913.50	1065.50	1309.50	1584.00	1607.25	1646.00	1495.00	1252.50	1154.25	936.75	1014.25	1141.25	1331.50	1686.50	1645.75	1534.50	993.50	790.50	873.25	989.75	1006.50	1056.00	1250.25	1477.50	1430.50	1196.25	1119.25	1053.00	1280.75	1441.50	1202.50	1014.25	1164.50	1047.50	1028.00	1225.50	1307.75	1336.00	1428.25	1548.00	1461.00	1297.75	1444.50	1477.75	1380.75	1359.75	1373.00	1233.50	961.25	817.50	871.75	983.25	981.25	1149.00	1334.75	1355.00	1600.75	1611.00	1524.00	1408.75	1240.25	1089.25	1048.75	917.50	823.00	717.75	839.75	964.00	934.25	780.25	759.75	841.00	917.50	908.50	1055.50	1043.50	1020.25	1109.25	1129.00	1091.25	1050.00	1028.50	1007.75	927.25	850.50	768.00	702.50	810.00	926.75	992.25	1004.50	916.75	1092.75	1221.50	1311.00	1418.50	1456.50	1312.25	1216.75	1140.75	1092.75	1028.75	1008.25	990.00	957.50	925.75	920.50	902.50	853.75	816.75	791.00	781.75	759.00	748.75	732.00	727.25	725.50	723.75	720.00	714.50	716.00	724.50	753.00	767.00	786.50	785.00	745.25	734.75	728.75	724.75	716.25	712.25	710.00	708.75	706.00	711.75	715.25	695.25	683.50	681.25	670.00	670.50	670.25	667.50	667.75	668.75	663.00	660.50	658.25	619.75	547.00	581.25	639.50	648.75	648.75	646.75	644.75	605.75	546.50	497.25	454.75	459.00	483.50	516.25	552.50	589.75	659.50	670.00	683.50	694.25	694.50	682.25	671.75	689.25	679.50	677.50	670.50	672.00	668.75	655.75	652.75	662.50	654.50	658.75	665.25	664.25	656.75	653.75	659.00	659.00	659.25	660.75	605.75	540.75	605.00	553.00	581.00	612.00	633.00	637.75	641.25	643.50	643.00	643.50	647.25	643.25	586.25	592.75	655.50	641.50	606.00	538.25	544.25	577.25	589.00	619.75	590.25	626.50
1584.25	1502.50	1409.25	1246.25	956.25	1156.25	1410.25	1534.25	1251.75	1127.00	1466.00	1675.75	1674.25	1297.50	1257.50	1534.75	1546.50	1403.50	1229.00	1323.75	1521.25	1710.00	1791.25	1779.25	1595.50	1395.75	1326.75	1528.25	1739.75	1977.00	1856.50	1690.50	1549.00	1416.75	1282.25	1257.50	1140.50	1035.00	893.50	1018.75	1269.00	1548.00	1596.25	1662.75	1534.00	1329.75	1217.50	973.50	943.50	1089.00	1278.50	1599.25	1488.00	1404.00	927.75	759.00	928.75	1017.75	1027.00	1079.75	1287.75	1519.50	1471.00	1219.50	1088.25	1015.25	1234.25	1379.50	1196.75	971.75	1000.50	999.25	1059.75	1284.00	1454.50	1482.75	1586.25	1583.25	1425.75	1228.50	1265.00	1230.50	1209.50	1242.25	1294.50	1191.75	1009.50	848.25	787.75	912.25	1016.00	1155.25	1374.75	1335.00	1522.00	1498.50	1395.50	1313.50	1269.25	1181.00	1097.00	921.75	833.00	712.50	761.75	911.00	890.75	748.00	781.00	799.00	830.25	809.25	930.75	911.25	963.00	1109.50	1100.00	1087.25	1060.75	1014.75	989.25	916.25	855.50	794.50	707.25	791.00	915.00	979.25	958.00	893.50	1035.75	1128.00	1221.00	1280.25	1446.75	1372.75	1256.50	1174.00	1108.25	1059.50	1025.75	989.75	952.50	928.50	922.00	904.25	853.75	826.75	800.25	782.50	760.00	745.50	731.50	725.00	722.00	719.25	715.25	711.75	711.75	712.75	726.50	734.50	758.00	759.75	736.75	731.50	723.50	719.50	713.50	708.50	705.75	703.50	699.25	694.75	691.75	687.25	680.25	684.50	670.25	672.00	668.75	668.25	668.25	668.25	661.00	659.50	633.75	558.75	551.25	634.00	650.50	649.25	645.00	647.00	617.75	542.75	508.25	463.25	445.00	486.00	525.00	577.25	604.25	634.25	666.00	672.50	686.00	694.75	696.00	686.50	667.25	679.50	676.50	681.00	675.50	676.00	673.25	656.75	649.00	654.50	654.25	659.00	668.00	662.50	653.25	651.75	652.75	652.75	656.50	643.75	569.75	592.00	628.50	590.75	605.50	626.25	636.75	641.00	646.00	646.75	650.25	649.50	649.75	641.00	585.00	630.50	658.50	653.00	641.00	596.75	622.00	627.50	614.75	637.25	626.50	628.25
1652.50	1658.25	1457.00	1182.50	947.75	1212.00	1475.00	1321.25	1078.00	1179.50	1421.00	1642.25	1867.75	1693.75	1449.25	1570.00	1776.00	1754.00	1538.50	1626.50	1838.00	1818.25	1646.00	1811.25	1910.50	1858.75	1431.25	1342.75	1517.75	1813.50	1785.75	1690.25	1554.00	1583.75	1419.00	1572.75	1324.50	1146.50	890.50	968.50	1238.50	1302.00	1423.50	1372.50	1409.25	1582.00	1432.50	1086.75	965.75	945.00	1100.50	1363.25	1297.25	1021.25	757.00	791.00	1041.00	1095.50	1065.75	1124.50	1329.25	1489.25	1521.25	1347.25	1248.00	1086.25	974.25	976.00	928.50	962.00	1092.00	1241.00	1217.75	1442.75	1525.75	1389.50	1490.00	1497.00	1470.25	1347.25	1307.00	1216.50	1096.50	1031.75	959.00	921.50	907.75	897.25	781.75	926.25	1053.25	1128.75	1136.50	1231.00	1520.25	1480.00	1322.50	1193.75	1094.00	987.50	914.50	826.25	760.00	680.00	669.75	770.50	726.25	683.00	717.25	681.50	659.25	661.75	698.00	745.50	891.75	998.00	1080.00	1109.25	1074.75	1029.25	993.00	956.25	926.25	846.50	752.25	723.75	826.00	897.50	840.00	868.50	979.25	1061.75	1123.75	1263.00	1351.50	1457.50	1360.75	1263.00	1207.25	1135.00	1055.25	1017.25	971.75	923.50	895.00	888.50	858.25	846.75	818.25	790.00	768.25	745.00	731.25	725.25	725.25	719.50	712.75	715.50	715.75	714.00	719.00	714.00	722.75	719.75	723.50	720.00	714.75	715.50	711.25	705.00	699.00	700.00	689.75	682.25	682.50	680.25	679.50	681.50	674.50	673.75	672.75	674.00	671.75	668.25	659.00	634.00	535.25	594.50	645.75	650.50	649.25	648.50	643.75	585.25	521.00	481.75	441.50	466.25	506.25	549.00	604.50	627.75	649.75	655.00	672.00	676.75	680.75	682.50	693.50	703.50	687.25	679.75	677.00	683.50	682.25	675.25	672.50	658.50	649.00	649.00	655.00	664.00	659.00	656.25	651.00	652.25	647.50	641.00	611.00	549.50	581.25	633.25	633.75	629.50	628.75	630.50	642.75	643.25	645.50	648.75	652.00	651.00	651.00	625.00	630.75	651.25	654.25	652.00	645.25	645.50	646.50	645.00	645.75	647.25	642.50	641.75
1630.00	1645.50	1399.00	1048.50	980.00	1251.00	1390.75	1251.00	1031.50	1284.75	1555.50	1745.50	1857.50	1919.25	1639.25	1692.25	1703.50	1709.50	1813.50	1912.25	1832.75	1627.75	1566.25	1920.25	1892.50	1806.00	1559.75	1307.00	1411.50	1730.25	1741.75	1657.50	1595.75	1664.50	1516.25	1597.25	1357.75	1202.50	908.50	916.50	1128.25	1184.50	1324.25	1261.25	1224.50	1498.00	1505.25	1106.75	1017.00	916.00	984.75	1199.50	1175.50	889.00	766.00	846.25	947.75	1027.25	1066.50	1127.75	1323.75	1448.00	1450.25	1417.00	1300.50	1242.50	1065.50	924.00	915.00	1116.25	1211.50	1357.75	1459.75	1535.00	1395.25	1245.25	1361.00	1415.75	1394.00	1430.75	1374.75	1354.75	1195.50	1167.25	1026.75	1061.50	1062.25	997.25	789.00	892.50	984.50	999.50	1155.00	1308.00	1440.00	1417.50	1287.75	1198.75	1027.50	887.75	834.75	740.25	687.75	659.00	659.25	688.75	672.50	659.50	667.50	660.50	659.00	659.00	661.50	684.00	803.25	987.00	1074.25	1045.50	1061.50	1068.75	1003.50	983.75	939.25	881.75	783.00	708.25	769.00	843.75	813.00	876.75	944.25	969.75	1073.25	1170.75	1296.75	1333.25	1381.00	1346.75	1271.25	1146.00	1079.00	1054.50	1003.25	942.75	911.25	897.75	873.50	852.75	822.50	791.75	770.50	748.75	736.75	726.50	725.25	718.75	715.75	721.50	722.00	719.50	716.75	717.50	720.25	719.00	720.25	714.25	708.00	713.50	708.50	703.50	695.25	697.75	685.50	680.25	681.75	678.75	679.25	678.50	672.75	670.50	671.25	676.25	672.00	668.25	657.25	603.25	564.25	643.75	653.00	646.75	648.00	647.00	644.25	549.50	508.25	447.50	454.00	494.50	548.00	588.75	579.75	629.00	653.25	658.00	670.25	674.50	677.25	678.50	685.75	704.50	697.75	691.00	689.50	689.75	687.25	675.50	668.25	655.75	652.00	651.00	662.50	667.50	658.00	655.00	649.75	641.50	638.75	610.75	581.00	552.75	602.25	635.75	634.25	636.00	635.50	639.25	644.25	645.50	648.00	648.75	653.50	652.25	650.75	629.25	647.75	649.25	653.75	651.25	649.25	650.25	651.00	649.50	649.00	647.25	644.25	644.00
1171.50	1210.75	1157.50	872.75	1122.50	1383.25	1221.00	1058.75	1099.25	1279.50	1301.00	1396.50	1575.75	1808.50	1836.25	1607.00	1504.50	1431.50	1715.00	1777.75	1451.25	1423.00	1740.25	2017.00	1897.00	1699.75	1461.50	1260.25	1235.50	1421.00	1657.75	1644.00	1543.00	1552.75	1606.25	1602.75	1444.75	1270.00	1015.00	930.25	895.00	914.00	1001.00	1072.50	984.00	1217.50	1245.25	1323.75	1232.00	1038.25	887.75	886.25	807.50	843.00	1052.25	1035.50	1063.50	1057.50	1037.25	1114.75	1322.75	1425.50	1358.50	1288.75	1203.50	1378.50	1310.25	1029.75	908.00	1242.25	1532.25	1552.00	1584.75	1409.75	1236.25	1094.50	1183.00	1223.25	1206.25	1356.00	1497.50	1561.75	1471.75	1381.25	1275.50	1184.50	1056.00	923.75	742.25	888.50	965.50	1021.25	1241.75	1373.25	1113.50	1113.00	1086.75	1027.75	941.00	757.00	693.00	660.25	659.00	659.00	659.00	659.00	659.00	659.00	659.00	659.00	659.00	659.00	659.00	659.00	698.25	894.75	934.75	1002.00	1031.75	1028.50	1010.00	986.00	958.00	896.75	811.00	707.50	715.25	748.00	816.00	866.50	938.50	1004.00	1082.75	1157.25	1111.00	1074.25	1179.00	1318.50	1369.75	1287.75	1180.75	1127.00	1071.75	997.00	954.00	924.75	888.50	859.25	822.00	800.75	776.00	754.00	735.25	724.00	723.50	718.75	720.75	709.25	699.75	704.00	702.00	698.25	705.25	712.75	707.50	704.25	697.75	701.50	698.50	692.50	689.50	687.25	681.50	679.75	680.75	677.50	678.25	675.75	671.00	670.75	669.75	666.00	657.25	657.50	562.25	528.00	636.75	650.75	645.00	639.25	638.75	620.00	577.75	483.25	443.75	469.75	516.25	589.00	641.00	633.50	632.25	631.25	643.25	653.75	667.75	670.50	672.50	680.75	671.25	667.75	672.00	676.75	697.00	693.25	692.75	672.00	661.00	663.00	658.00	657.50	677.50	667.00	650.00	649.50	649.00	611.00	571.75	574.00	588.75	628.00	643.00	641.75	638.75	638.50	639.75	644.50	649.50	656.25	659.00	653.25	660.75	654.50	650.25	647.50	647.75	647.00	655.75	646.75	650.50	655.50	655.25	656.25	652.50	650.00	648.50	646.75
1051.00	1089.00	1033.00	845.50	1138.50	1400.50	1247.50	1013.00	1128.00	1168.00	1211.00	1311.50	1556.00	1774.50	1845.00	1571.50	1427.50	1362.50	1618.50	1646.00	1361.50	1448.00	1778.50	2016.00	1963.00	1707.00	1448.50	1257.00	1218.50	1331.50	1577.00	1626.50	1528.00	1530.50	1629.00	1621.50	1442.00	1292.00	998.00	972.50	904.50	854.00	908.00	991.00	933.00	1150.00	1147.00	1401.50	1302.00	1077.50	924.50	822.50	771.00	919.50	1148.00	1077.50	1137.00	1120.00	1044.50	1118.00	1337.50	1432.50	1350.00	1238.50	1158.50	1318.00	1255.00	1011.00	890.50	1213.50	1534.00	1504.00	1505.00	1342.00	1195.50	1071.50	1101.00	1150.00	1155.50	1285.00	1483.50	1603.50	1530.00	1444.00	1302.50	1134.00	988.00	884.50	747.50	941.00	1040.50	1073.00	1260.50	1339.00	1054.00	1043.50	1024.00	982.00	906.00	725.50	662.00	659.00	659.00	659.00	659.00	659.00	659.00	659.00	659.00	659.00	659.00	659.00	659.00	659.00	669.50	833.00	889.50	1010.50	999.50	1006.00	997.50	968.00	940.50	879.00	809.50	709.50	707.00	731.50	842.50	911.00	991.00	1041.00	1077.00	1117.50	1050.50	1023.00	1132.00	1338.00	1352.50	1338.50	1213.50	1148.50	1085.00	1003.50	955.00	926.50	889.50	858.50	823.00	803.50	777.00	753.00	735.50	724.50	725.00	719.00	718.50	702.00	693.00	721.00	720.00	699.00	704.00	709.50	707.50	702.50	695.00	699.50	693.00	687.50	689.00	686.00	681.00	679.50	679.00	677.50	678.00	675.00	671.50	672.00	670.50	660.00	649.50	648.00	517.50	548.50	647.50	647.50	644.00	635.00	635.00	603.00	537.50	462.50	435.50	481.50	535.50	616.00	644.50	642.00	647.00	652.00	658.00	654.00	667.50	670.50	673.50	688.00	672.00	665.50	670.50	672.50	695.00	693.50	695.50	671.00	662.00	663.50	657.00	661.00	679.50	666.50	650.50	647.00	648.00	582.50	562.50	585.50	606.50	641.00	646.00	642.00	638.50	637.00	639.00	645.00	649.00	656.00	660.00	651.50	662.50	653.50	651.50	648.00	647.00	646.00	654.50	648.00	651.50	654.50	656.50	658.50	652.50	652.00	650.00	647.50
1159.25	1127.75	1111.75	949.25	991.50	1468.50	1322.25	981.75	1079.00	1332.50	1544.00	1496.50	1532.75	1731.25	1720.00	1553.00	1412.25	1246.75	1355.00	1287.75	1339.25	1514.75	1618.00	1815.50	2016.50	1811.50	1528.25	1340.75	1300.00	1217.75	1260.25	1360.00	1407.00	1521.00	1675.25	1676.25	1331.50	1153.00	1055.00	1077.25	1125.50	1053.50	939.25	884.75	841.50	888.75	930.25	1155.25	1176.00	1149.50	1000.75	811.25	803.00	1196.75	1368.50	1281.50	1353.00	1268.50	1087.00	1175.00	1411.75	1435.50	1331.50	1149.25	1075.25	1348.75	1263.50	987.75	833.00	1111.50	1197.00	1234.00	1458.75	1391.00	1319.75	1108.75	975.75	1017.50	1211.00	1393.00	1494.25	1358.75	1527.25	1424.75	1278.75	1173.00	1082.00	970.50	786.50	895.50	1093.50	1185.25	1201.50	1213.25	977.75	896.50	875.25	812.50	737.00	660.25	659.00	659.00	659.00	659.00	659.00	659.00	659.00	659.00	659.00	659.00	659.00	659.00	659.00	659.00	659.00	697.00	786.25	909.25	872.00	945.25	939.00	858.25	831.00	801.00	749.00	689.75	690.75	712.50	836.75	939.00	958.25	965.25	959.75	935.00	961.75	1082.50	1312.50	1298.00	1191.25	1323.50	1264.75	1122.75	1049.25	1030.00	972.25	923.75	894.75	857.25	823.50	809.75	779.50	749.00	737.25	730.25	733.00	723.25	719.25	715.25	718.25	711.75	712.75	697.50	682.00	702.00	702.00	697.25	689.00	693.75	685.50	684.75	685.25	681.75	678.50	678.00	676.25	676.25	675.75	663.50	664.00	670.25	670.25	666.25	645.25	572.50	496.25	528.75	531.50	539.75	554.75	546.00	520.50	486.25	461.75	450.75	473.25	567.00	556.00	607.00	646.75	650.25	652.50	657.75	662.75	662.50	666.50	672.50	670.50	685.25	689.75	680.25	669.75	660.25	674.25	695.50	686.25	667.00	672.50	670.50	669.50	672.00	674.00	659.00	649.50	645.75	634.25	590.00	590.75	636.50	634.00	619.25	636.75	641.00	639.50	641.00	647.25	652.75	655.25	657.50	660.25	669.50	671.50	657.50	654.00	653.25	648.75	649.25	655.50	652.50	654.00	659.25	655.25	654.75	653.75	653.00	652.50	650.75
1484.00	1497.50	1406.00	1149.50	915.50	1376.00	1444.00	1075.50	951.00	1238.50	1572.50	1763.50	1670.00	1756.50	1877.00	1682.00	1486.00	1261.50	1052.50	1064.00	1248.00	1529.50	1675.00	1761.50	1919.00	1904.00	1705.50	1548.00	1443.00	1318.50	1243.00	1195.50	1347.50	1596.50	1689.50	1761.00	1260.00	1077.00	1164.00	1176.00	1245.50	1304.00	1276.00	1152.50	1013.50	858.50	816.50	836.50	922.50	1026.00	1012.50	798.00	865.50	1145.00	1372.00	1264.50	1242.00	1196.50	1077.00	1216.00	1452.00	1402.50	1296.50	1139.00	1043.50	1292.00	1310.00	1001.50	792.00	940.00	1165.50	1378.50	1277.00	1259.00	1155.00	1049.50	887.50	1053.50	1323.50	1261.50	1330.50	1148.50	1406.00	1401.00	1349.50	1222.00	1130.50	968.00	752.50	852.50	1065.50	1115.50	1114.50	1150.00	991.50	846.50	772.50	695.50	660.00	659.00	659.00	659.00	659.00	659.00	659.00	659.00	660.50	678.00	680.00	685.50	659.00	659.00	659.00	659.00	659.00	659.00	667.50	688.00	679.50	774.00	758.00	705.50	693.50	693.50	670.00	668.50	687.00	693.50	805.50	886.50	882.00	887.00	845.50	849.00	1056.50	1271.50	1349.50	1257.00	1133.00	1227.50	1243.50	1128.00	1100.50	1108.50	996.50	933.50	898.00	858.50	820.00	800.50	768.00	742.00	734.50	744.50	740.50	722.50	719.50	715.50	713.50	708.50	703.50	701.50	680.00	678.50	699.50	692.00	687.00	684.50	680.50	680.50	681.00	679.00	676.50	676.00	674.50	672.50	663.00	669.00	607.00	661.00	665.50	638.00	587.50	512.50	502.50	508.00	509.50	511.50	500.50	484.50	456.00	437.00	456.00	490.50	558.50	652.00	607.50	617.50	647.00	658.50	662.50	662.50	665.00	667.00	668.00	669.50	662.00	664.00	672.00	666.00	668.00	655.50	658.50	684.50	665.00	657.50	667.50	666.50	676.00	675.50	663.50	656.00	649.50	641.50	598.00	615.50	605.00	648.00	650.00	640.50	649.50	649.00	647.50	649.00	659.50	660.00	668.50	673.00	672.00	671.50	664.00	652.50	650.00	652.50	651.00	655.00	658.00	655.50	658.50	656.50	653.00	650.50	654.00	655.00	649.50	653.50
1548.75	1606.00	1534.25	1149.50	902.00	1163.75	1385.25	1185.00	936.25	1138.75	1391.50	1615.25	1724.00	1730.75	1561.50	1418.00	1207.00	1068.75	1168.00	1253.00	1167.25	1341.75	1502.50	1584.75	1736.75	1949.75	1669.50	1734.50	1741.00	1512.00	1428.00	1249.00	1220.25	1546.50	1661.25	1627.50	1248.25	1124.50	1352.50	1354.25	1378.75	1461.50	1567.75	1449.00	1415.25	1121.75	1047.00	868.00	813.25	825.25	867.25	784.50	793.50	932.00	1178.00	1159.75	1116.75	1049.25	996.25	1103.25	1345.50	1366.50	1293.00	1143.50	998.50	1174.75	1270.50	1015.25	771.00	904.25	1189.75	1317.00	1091.25	1157.75	1047.00	885.75	905.25	1132.25	1177.00	1144.00	1117.75	1020.25	1169.25	1254.25	1247.75	1198.75	1038.00	874.75	705.25	794.25	920.50	1017.50	1035.50	1035.75	983.50	864.25	727.50	661.25	659.00	659.00	659.00	659.00	659.00	659.00	661.50	673.25	690.25	709.25	707.75	714.00	665.25	659.00	659.00	659.00	659.00	659.00	659.00	659.00	659.00	659.00	659.00	659.00	659.00	659.00	659.00	663.75	683.75	686.50	714.50	742.75	784.00	792.50	779.75	892.75	1101.50	1199.25	1158.00	1157.50	1055.50	1098.25	1256.25	1229.75	1175.25	1159.75	1015.75	935.75	898.75	845.25	809.75	784.00	756.50	739.50	739.75	750.25	738.75	725.25	723.75	716.25	712.00	705.75	699.00	695.50	695.25	674.50	680.00	682.50	688.75	682.25	674.75	679.50	678.50	679.25	676.75	676.00	674.00	670.50	677.00	665.75	638.25	578.50	564.50	524.75	488.00	473.00	492.75	500.25	496.50	493.00	470.50	445.50	456.00	482.00	512.75	566.25	628.25	655.75	623.25	653.25	661.50	668.00	670.00	669.75	667.25	667.00	673.25	677.75	666.25	677.00	688.50	686.25	685.25	668.25	655.50	659.75	648.75	643.00	645.75	658.25	674.75	687.75	661.75	657.50	648.25	638.50	592.50	632.75	646.75	653.75	651.25	652.25	653.00	655.50	665.25	670.75	673.25	674.25	680.00	674.50	672.75	672.00	662.00	651.75	649.00	651.50	653.25	653.25	655.25	655.50	654.00	657.00	656.50	642.00	622.75	548.75	489.75	527.25
1436.50	1699.00	1547.50	1383.50	1037.50	866.00	1135.50	1196.50	929.50	1091.00	1361.00	1557.00	1804.00	1665.00	1439.50	1151.50	1018.00	1090.00	1398.00	1573.00	1210.50	1263.00	1559.50	1773.00	1891.50	2046.00	1713.50	1534.50	1602.50	1723.00	1646.50	1301.50	1144.00	1332.50	1346.00	1320.50	1167.00	1201.50	1589.50	1595.50	1521.00	1576.50	1657.50	1702.50	1661.50	1519.50	1320.50	1067.00	966.00	809.50	768.50	815.50	723.50	757.00	1040.50	1034.50	1073.50	958.00	1014.00	1071.00	1329.00	1402.50	1289.00	1142.00	983.50	1097.50	1223.50	1035.00	803.00	808.50	987.50	1039.50	1016.50	940.00	962.00	796.50	947.00	1191.00	1098.50	951.50	861.00	960.50	1114.50	1072.00	1126.50	1109.50	1022.00	815.50	677.00	774.00	906.00	1035.50	982.50	931.00	893.00	781.00	672.00	659.00	659.00	659.00	659.00	659.00	659.00	676.00	792.00	784.50	769.50	766.50	800.50	783.00	710.50	667.50	659.00	659.00	659.00	659.00	659.00	659.00	659.00	659.00	659.00	659.00	659.00	659.00	659.00	659.00	665.00	681.00	680.50	681.50	683.50	693.50	759.00	864.50	1022.50	1075.00	956.00	934.50	927.00	1090.00	1190.00	1237.00	1197.00	1134.00	1013.00	925.00	871.50	854.50	812.00	786.00	752.50	736.50	742.50	741.50	734.50	726.50	727.50	717.50	710.00	699.50	699.50	698.00	693.50	689.00	687.00	680.50	662.00	686.00	677.00	677.50	676.50	676.50	677.00	676.50	674.50	667.50	661.00	646.00	547.00	493.00	479.00	464.00	451.00	444.50	464.50	461.50	455.00	445.50	445.00	501.00	575.50	615.50	645.00	621.50	609.00	658.50	663.00	663.50	667.50	671.50	672.50	670.50	671.00	672.00	673.50	677.50	668.00	664.00	678.00	678.50	663.00	657.50	659.50	653.50	651.50	643.50	642.50	648.50	670.00	674.00	661.50	654.00	647.00	626.50	581.50	640.00	655.50	656.50	655.50	655.00	662.50	672.00	674.00	678.00	677.50	678.00	680.00	676.50	672.00	668.50	655.00	651.50	651.50	652.50	653.00	656.50	655.50	651.50	658.00	659.50	658.50	580.00	520.50	445.50	432.50	433.00
1519.75	1662.00	1640.75	1510.25	1301.50	921.25	862.00	1019.00	871.00	1142.75	1497.25	1643.00	1663.75	1441.25	1201.50	1084.25	1271.25	1351.75	1327.00	1548.00	1374.50	1197.75	1422.50	1710.00	1868.75	1834.75	1730.75	1543.75	1486.25	1467.00	1518.50	1239.75	1124.00	1212.25	1307.50	1386.00	1527.75	1326.25	1530.50	1614.00	1644.75	1545.75	1474.25	1469.00	1387.25	1438.00	1282.75	1005.00	989.50	895.50	765.75	773.75	757.00	702.00	866.00	880.75	1036.00	877.75	923.00	994.00	1193.75	1350.50	1326.25	1150.25	940.25	1033.25	1185.75	1024.50	805.50	762.00	858.25	1012.50	1010.50	809.25	865.00	741.00	898.25	1018.75	1086.00	927.25	809.00	1089.50	1079.50	910.25	978.00	972.75	954.25	816.25	679.25	740.25	867.75	959.50	910.75	851.25	722.25	662.50	659.00	659.00	659.00	659.00	659.00	659.00	680.25	699.00	853.50	999.00	936.00	887.25	913.25	889.50	831.00	799.00	705.25	669.75	664.00	659.00	659.00	659.00	659.00	659.00	659.00	659.00	659.00	659.00	659.00	659.00	659.00	660.50	660.25	663.50	664.00	674.50	684.25	729.50	919.50	938.75	832.75	964.75	1008.75	963.00	1036.00	1140.50	1131.00	1111.75	1047.00	924.00	908.00	889.50	826.50	784.00	751.75	736.50	735.00	733.75	729.50	722.75	718.00	712.00	709.75	689.00	686.25	679.75	694.50	692.75	692.75	689.50	672.75	650.75	680.00	680.25	678.00	678.00	677.00	674.75	668.00	654.00	608.50	503.50	458.00	448.25	445.00	449.00	460.75	480.00	508.00	524.75	530.25	557.00	548.25	639.00	651.25	657.50	664.00	645.25	645.75	664.75	668.50	668.75	666.25	671.75	672.25	675.75	679.50	684.00	681.75	682.00	678.50	673.50	669.00	671.75	673.75	673.75	680.50	667.50	663.75	654.75	649.00	644.25	660.25	668.75	655.75	645.25	632.00	587.50	610.50	654.50	660.00	656.25	662.00	661.75	673.75	673.75	678.00	680.25	682.00	674.00	664.75	660.50	660.25	660.00	654.75	652.00	653.75	654.75	656.50	657.75	659.50	658.25	657.00	655.00	608.50	501.75	466.00	441.25	503.50	469.25
1395.00	1479.00	1466.00	1763.00	1468.50	1199.00	1049.00	784.50	899.50	1266.00	1347.50	1337.50	1369.50	1203.00	984.50	1151.50	1409.00	1622.50	1603.50	1601.00	1703.00	1338.00	1386.50	1562.00	1765.00	1897.50	1716.00	1438.50	1364.00	1329.00	1252.00	1127.50	1185.00	1376.50	1544.00	1530.00	1692.00	1592.50	1547.50	1613.50	1648.50	1460.00	1415.00	1370.50	1266.00	1153.50	1074.50	1036.50	948.50	875.00	817.00	772.00	752.50	727.00	699.00	824.00	955.50	817.00	862.50	878.50	1035.00	1242.50	1215.50	1011.50	819.00	941.50	1103.50	1018.50	850.50	733.00	808.00	937.00	860.00	714.00	778.00	701.50	741.50	760.00	907.00	912.00	735.50	815.00	709.50	716.50	745.00	744.00	737.50	804.50	735.00	705.00	785.50	787.50	771.00	741.00	659.50	659.00	659.00	659.00	659.00	659.00	659.00	688.50	833.00	737.50	887.50	1078.00	1110.00	1098.00	1016.00	986.50	964.00	942.00	821.50	749.00	761.50	664.00	659.00	659.00	659.00	659.00	659.00	659.00	659.00	659.00	659.00	659.00	659.00	659.00	659.00	659.00	659.00	659.00	659.00	667.00	745.00	759.50	852.50	1033.50	1007.00	874.00	962.50	1020.00	1007.00	978.50	964.00	958.50	952.00	915.50	823.00	779.50	753.50	736.50	733.50	733.50	732.50	726.50	719.50	695.50	691.50	701.00	700.50	687.50	679.00	695.00	687.50	690.00	688.50	669.50	685.00	680.50	678.50	679.50	676.00	669.50	648.00	597.50	498.00	466.50	460.00	492.50	506.00	525.00	528.50	628.50	659.50	657.00	558.00	651.00	629.50	658.50	663.50	665.50	670.00	668.50	674.50	666.00	673.00	670.50	671.50	678.00	681.00	689.00	686.00	687.00	674.50	679.00	699.50	692.50	694.00	692.00	678.50	672.50	682.50	676.50	674.00	661.00	660.00	647.00	646.00	662.50	645.00	604.00	590.00	599.00	637.00	661.50	662.00	662.00	666.00	673.00	676.50	680.50	683.00	681.00	673.00	662.50	653.00	655.50	657.00	658.00	662.00	660.50	657.50	659.00	660.00	666.00	659.50	658.00	657.50	609.00	526.50	436.50	431.50	495.00	554.00	582.00
1229.75	1222.50	1332.25	1623.25	1587.50	1355.50	1205.25	849.75	891.50	1083.75	986.00	994.50	1030.00	992.75	1088.75	1405.00	1629.75	1721.75	1830.25	1802.00	1690.25	1391.50	1379.00	1560.50	1767.00	1762.75	1595.25	1435.75	1387.25	1315.75	1159.25	1108.25	1322.75	1491.00	1538.00	1591.75	1617.50	1760.75	1643.75	1743.25	1778.00	1684.25	1531.25	1477.25	1473.75	1248.00	1242.75	1227.00	1137.25	1019.50	989.25	926.25	839.25	760.75	675.75	714.25	757.50	762.00	782.25	846.25	900.25	937.75	971.50	926.50	816.50	787.75	883.75	835.50	773.25	719.25	734.00	753.50	721.00	677.25	668.00	660.00	663.25	659.75	685.50	706.50	662.50	660.50	659.00	659.00	659.25	659.75	660.25	679.00	691.75	660.50	666.00	661.00	662.50	662.00	659.00	659.00	659.00	659.00	659.00	686.25	728.25	928.25	960.00	787.50	958.00	1169.75	1310.75	1358.50	1302.25	1234.00	1036.00	975.75	898.50	880.00	904.00	779.00	720.25	788.25	811.25	741.00	703.50	666.25	661.25	659.00	659.00	659.00	659.00	659.00	659.00	659.00	659.00	659.00	659.00	659.00	665.00	694.50	818.00	958.00	928.75	821.50	872.75	1013.00	1071.50	1047.50	1064.50	1092.00	971.00	920.50	834.50	794.75	759.50	741.25	734.00	734.50	734.25	731.25	726.00	718.00	709.50	704.25	699.00	696.00	649.25	680.00	695.75	687.75	686.25	660.25	685.75	680.25	678.25	676.75	671.00	640.25	572.50	480.75	451.25	470.50	512.25	522.25	550.25	618.75	597.75	579.25	664.75	664.00	592.00	617.25	647.50	657.00	670.00	674.00	676.00	670.00	672.00	664.00	676.00	678.00	682.25	691.00	680.25	681.50	687.25	688.00	685.25	673.75	680.25	681.00	686.00	688.75	689.25	685.75	681.50	678.25	675.00	664.25	659.75	645.75	627.75	626.25	598.50	605.25	639.50	638.75	655.00	659.25	660.75	665.50	672.50	678.50	677.50	682.50	682.50	680.75	677.00	668.25	663.25	661.00	660.75	664.00	663.00	662.50	658.50	658.00	662.25	655.75	657.75	641.50	622.50	527.50	442.00	485.00	548.50	595.25	608.50	645.75
1011.00	1115.00	1325.50	1528.00	1704.00	1482.50	1227.00	907.50	796.00	835.00	949.50	983.00	1055.00	1109.00	1112.50	1258.00	1420.00	1464.50	1567.00	1728.00	1714.00	1412.00	1417.50	1476.00	1701.50	1681.00	1499.00	1517.00	1512.00	1288.50	1100.00	1129.00	1461.00	1584.00	1581.50	1695.00	1724.00	1813.00	1793.50	1582.50	1593.00	1646.50	1604.00	1565.00	1479.50	1323.00	1317.00	1433.00	1329.50	1140.50	1151.00	1100.00	925.50	841.50	759.00	739.50	674.50	693.00	726.50	737.50	735.00	739.50	732.50	762.00	771.00	720.00	673.00	673.50	659.00	667.50	671.00	674.00	669.50	659.00	659.00	659.00	659.00	659.00	659.00	659.00	659.00	659.00	659.00	659.00	659.00	659.00	659.00	659.00	659.00	659.00	659.00	659.00	659.00	659.00	659.00	659.00	659.00	659.00	675.00	877.00	1011.50	1056.00	1020.50	822.00	976.50	1210.50	1351.00	1427.00	1465.00	1391.00	1119.00	1058.00	1002.00	974.00	948.00	824.50	778.00	856.00	959.00	1014.50	956.50	824.50	809.50	717.50	666.50	660.00	659.00	659.00	659.00	659.00	659.00	659.00	659.00	659.00	659.00	659.00	682.50	797.50	805.50	799.00	904.50	1026.50	1119.00	1085.00	1074.00	1126.50	997.00	942.50	859.50	807.00	768.00	741.00	738.50	743.50	738.50	736.00	735.00	724.50	714.50	711.50	700.00	693.00	669.00	650.50	694.50	690.50	688.00	647.00	685.00	677.50	675.00	673.00	630.00	519.00	485.50	452.50	452.50	517.50	540.00	599.50	656.00	661.50	644.50	616.00	649.00	665.00	639.00	615.50	663.00	657.50	674.00	673.50	673.00	673.00	674.50	674.50	676.00	681.50	687.00	690.50	685.00	685.50	698.00	696.00	690.50	691.00	700.00	701.00	699.00	699.00	703.00	687.50	684.50	686.50	678.50	656.00	626.00	611.50	605.50	601.50	653.00	654.50	659.50	651.00	660.00	661.00	661.50	671.00	676.50	693.00	690.00	691.50	686.00	679.50	676.50	671.00	666.50	667.00	669.50	664.00	662.00	660.50	658.50	658.00	655.50	659.50	656.00	620.50	537.50	447.50	434.50	578.00	632.00	632.00	643.00	668.00
975.25	1119.25	1309.00	1484.50	1670.25	1488.25	1239.25	847.25	771.50	1061.75	1356.75	1241.25	1299.25	1404.50	1341.00	1414.50	1435.00	1517.25	1701.00	1820.25	1822.00	1673.00	1642.50	1621.00	1658.25	1762.50	1612.00	1419.50	1318.25	1243.00	1098.75	1120.75	1480.00	1682.75	1753.50	1780.50	1656.50	1686.00	1640.75	1507.75	1468.25	1491.75	1515.50	1645.25	1610.00	1406.50	1446.50	1658.00	1548.75	1342.75	1316.25	1268.50	1057.00	955.00	868.25	825.50	729.00	670.00	717.25	722.25	713.75	688.75	709.50	705.75	693.75	690.00	664.75	659.00	659.00	659.00	659.00	659.00	659.00	659.00	659.50	659.00	659.00	659.00	659.50	663.75	659.75	659.00	659.00	659.00	659.00	659.00	659.00	659.00	659.00	659.00	659.00	659.00	659.00	659.00	659.00	659.00	671.50	719.25	795.00	1005.75	1203.00	1098.50	1040.00	930.75	924.00	1077.25	1166.25	1267.00	1375.25	1400.25	1308.25	1190.75	1215.75	1036.75	925.25	803.00	821.50	939.50	972.50	1065.00	1047.50	984.75	932.25	835.25	831.00	741.25	662.00	659.00	659.00	659.00	659.00	659.00	659.00	659.00	659.00	659.00	659.00	679.50	719.75	792.00	803.75	984.50	1122.25	1073.75	1030.75	1076.25	1072.00	965.25	876.75	813.50	771.25	742.25	739.75	736.75	736.00	731.00	726.75	712.75	707.75	705.50	700.25	693.25	680.75	653.50	658.50	659.25	675.25	630.50	674.75	673.25	669.00	647.00	551.00	489.00	479.25	448.50	493.75	598.75	614.25	661.25	665.25	665.75	665.25	637.75	657.50	669.50	660.25	645.25	660.50	672.00	674.00	673.00	676.25	680.50	684.50	682.25	686.75	690.00	691.50	692.75	697.50	691.25	688.75	705.50	714.25	717.25	729.25	719.25	705.00	692.50	695.25	691.25	695.25	675.00	656.50	631.75	649.25	659.25	652.50	643.25	653.75	653.25	657.00	659.75	660.00	659.50	663.50	676.25	682.75	686.50	686.00	685.50	683.25	682.00	678.25	671.00	668.50	670.25	668.50	668.50	671.25	670.00	661.00	661.25	658.75	639.50	544.75	457.75	450.00	464.25	523.25	638.00	651.00	646.25	651.75	677.25
894.00	1049.50	1272.50	1477.00	1662.00	1565.00	1252.50	786.00	811.00	1250.50	1552.00	1574.50	1498.00	1583.50	1577.50	1641.00	1659.50	1764.50	1795.50	1724.50	1904.00	2017.00	1993.50	2043.50	1861.50	1697.50	1537.50	1447.50	1406.50	1402.50	1133.00	1039.50	1306.00	1595.00	1579.00	1512.00	1829.00	1808.00	1630.00	1500.50	1331.00	1368.00	1493.50	1627.00	1633.50	1467.00	1603.00	1717.50	1680.50	1438.50	1541.00	1451.50	1206.00	1095.00	1051.00	920.50	822.00	686.50	697.00	716.00	691.00	659.00	659.00	659.00	659.00	659.00	659.00	659.00	659.00	659.00	659.00	659.00	659.00	670.00	673.00	687.00	670.00	718.00	729.00	744.00	690.50	680.50	659.00	664.50	666.50	659.00	659.00	659.00	659.00	659.00	659.00	659.00	659.00	659.00	660.50	697.50	795.50	941.00	969.50	1044.50	1266.50	1153.50	1098.50	1043.50	931.00	982.00	1096.00	1229.50	1340.00	1423.50	1447.00	1382.00	1248.50	1046.50	885.50	792.00	888.50	1044.00	1113.00	1108.00	1100.00	1060.50	1015.00	958.50	972.50	883.00	733.50	669.00	659.00	659.00	659.00	659.00	659.00	659.00	659.00	659.00	659.00	659.00	665.00	720.00	740.00	931.50	1079.50	1077.50	1001.00	1026.00	1100.00	968.50	888.50	828.50	771.50	744.50	736.00	737.50	732.00	725.00	718.00	706.00	700.50	698.00	701.00	696.50	685.00	686.00	681.50	644.00	584.50	567.00	649.00	659.50	633.50	546.00	500.50	486.50	477.50	446.00	582.50	671.50	653.00	663.50	666.00	666.50	668.00	633.00	671.50	671.00	670.00	676.00	676.50	678.00	676.50	680.00	689.50	685.00	683.00	685.50	686.50	690.50	688.50	687.50	694.50	712.50	700.50	705.50	750.50	759.50	734.50	711.00	707.00	699.50	694.00	689.50	690.50	642.00	649.50	658.50	663.50	662.00	660.50	660.00	657.50	657.00	664.00	664.00	662.50	662.50	665.50	677.50	691.00	686.50	686.00	681.00	676.50	676.00	673.00	672.00	672.50	672.00	668.50	667.50	672.00	669.00	666.00	668.50	629.00	554.50	468.00	466.00	519.00	516.00	588.50	657.00	652.50	660.50	662.50	680.00
835.25	1015.25	1231.50	1365.25	1489.75	1487.00	1387.25	884.50	733.75	1082.25	1464.50	1585.50	1501.75	1464.50	1444.25	1573.00	1781.75	1816.25	1572.25	1632.75	1744.00	1855.00	1755.50	1765.25	1853.75	1834.25	1642.75	1586.75	1490.50	1295.50	1149.50	1023.25	1159.50	1328.00	1285.25	1413.75	1754.75	1679.50	1488.00	1332.25	1212.25	1307.50	1447.00	1564.25	1584.75	1638.00	1692.25	1497.50	1464.50	1292.75	1349.25	1394.00	1316.50	1239.75	1193.25	1087.00	959.25	754.75	675.25	703.00	682.25	659.00	659.00	659.00	659.00	659.00	659.50	659.00	660.75	673.75	674.00	659.00	676.75	776.00	742.25	808.00	872.75	946.50	853.50	828.00	726.50	855.00	796.75	725.75	727.75	704.75	698.50	705.00	669.00	659.00	659.00	659.00	694.25	772.00	908.00	1057.00	1026.50	1058.25	1155.25	1126.25	1287.75	1219.75	1194.75	1140.00	1025.25	1045.00	1202.75	1281.25	1305.00	1350.00	1291.00	1255.75	1108.75	977.50	861.25	837.25	968.00	1061.50	1147.25	1230.50	1202.25	1112.50	1077.00	1048.50	1043.75	966.25	829.50	731.25	723.00	669.75	659.00	659.00	659.00	659.00	659.00	659.00	659.00	659.00	659.00	672.25	683.25	812.50	1042.00	1072.25	992.25	976.00	1072.00	989.25	869.25	819.75	770.75	737.25	736.75	736.00	729.75	720.75	717.50	706.75	698.75	696.00	692.25	688.50	687.00	685.75	680.50	674.75	659.25	636.00	585.25	555.00	535.50	504.50	492.50	483.50	473.75	453.75	592.50	671.50	666.50	671.50	669.00	667.25	667.25	649.25	663.00	672.50	680.75	683.75	680.75	681.50	684.25	689.75	700.50	696.25	691.50	702.50	708.75	715.50	717.75	708.25	710.00	721.50	742.75	756.75	747.25	730.50	715.75	700.25	693.75	661.25	660.00	647.00	649.25	627.50	661.75	665.00	665.00	663.50	660.50	662.00	661.00	660.25	661.25	661.25	662.75	670.25	683.50	686.75	691.75	688.50	686.25	686.00	685.50	683.25	683.25	679.25	676.50	641.75	636.75	626.00	630.75	635.00	623.25	601.25	545.50	503.00	452.50	521.75	585.75	582.75	582.75	641.25	660.25	691.75	676.50	687.00
785.50	964.50	1202.00	1226.50	1289.50	1215.50	1397.50	1016.00	705.00	955.00	1252.00	1307.50	1511.00	1314.50	1282.50	1404.00	1672.00	1592.00	1575.00	1886.00	1945.00	1772.50	1647.50	1523.00	1643.50	1862.00	1554.50	1431.00	1333.50	1276.00	1330.00	1054.00	936.00	1083.50	1264.50	1569.50	1917.50	1803.00	1567.00	1345.00	1145.50	1423.50	1545.00	1709.00	1796.50	1679.50	1621.50	1458.50	1421.50	1253.00	1123.00	1211.00	1208.00	1133.00	1128.00	1127.50	958.00	814.50	716.50	661.00	667.50	659.00	659.00	659.00	659.00	676.50	775.00	710.50	802.50	767.00	722.50	686.00	786.50	951.00	790.00	907.50	1119.50	1127.50	952.00	850.00	788.00	799.00	882.50	845.50	900.50	840.50	803.00	861.50	767.00	661.00	659.00	659.00	799.50	1050.00	1041.00	1211.00	1221.50	1195.50	1276.50	1316.00	1319.00	1384.00	1243.00	1140.50	1069.50	1082.00	1198.50	1255.50	1268.00	1328.50	1192.00	1098.50	975.00	884.00	851.50	925.50	942.50	1066.50	1191.00	1342.00	1270.50	1183.00	1157.00	1113.00	1057.50	960.50	824.00	789.50	836.50	747.50	660.00	659.00	659.00	659.00	659.00	659.00	659.00	659.00	659.00	659.00	659.00	702.00	905.00	1074.00	1068.50	998.00	996.00	1022.50	847.00	800.00	762.50	740.00	737.00	730.50	726.00	717.50	715.50	712.00	701.50	693.00	690.00	688.00	686.00	682.50	678.50	643.00	639.00	630.50	541.50	517.00	514.50	511.50	489.50	459.50	454.50	530.00	585.50	673.50	673.50	672.50	671.00	669.00	669.00	667.50	675.50	680.50	684.00	686.50	693.00	691.00	701.00	711.50	718.50	728.50	732.00	729.50	718.00	721.00	729.50	734.00	732.00	759.00	754.50	733.00	709.00	700.50	696.00	699.50	670.00	669.50	673.00	667.00	637.00	634.50	663.50	666.50	665.50	666.00	665.50	664.50	661.50	661.00	662.50	665.50	672.50	685.00	693.00	689.00	688.50	691.00	688.00	686.00	688.00	690.50	691.50	688.00	651.00	583.00	539.50	517.50	505.00	500.00	449.00	446.50	449.50	463.00	453.50	588.50	637.00	619.50	551.00	628.50	674.00	731.50	694.00	696.00
755.00	987.75	1149.75	1119.50	1060.00	954.50	1208.25	1008.25	678.00	790.25	911.25	1062.00	1385.75	1290.00	1117.25	1288.25	1391.00	1335.25	1552.00	1606.75	1698.75	1756.00	1574.50	1414.00	1449.25	1618.25	1712.75	1464.00	1458.75	1578.75	1494.25	1226.75	975.25	944.75	1173.00	1350.50	1750.75	1769.75	1512.25	1273.50	1110.50	1407.25	1625.50	1666.75	1718.75	1528.75	1523.50	1431.50	1439.25	1252.75	1119.50	1055.75	1185.75	1159.25	1011.00	1030.00	904.75	808.00	729.75	662.50	659.00	659.00	659.00	659.00	660.25	925.00	1081.00	977.75	1015.75	836.75	726.50	756.25	962.75	994.75	832.50	910.75	1153.00	1309.00	1156.75	948.50	868.75	863.25	997.75	1064.50	1048.75	931.50	826.25	959.75	948.00	729.75	659.50	659.00	772.75	1030.25	1221.75	1263.75	1324.75	1357.75	1391.25	1385.50	1484.00	1415.50	1340.25	1221.75	1179.75	1179.50	1182.50	1171.50	1194.75	1218.00	1138.50	1069.75	920.50	903.50	984.00	1012.00	982.50	1062.25	1214.75	1409.25	1368.50	1223.50	1163.75	1095.25	1008.75	897.75	850.00	927.00	908.75	861.50	733.50	695.00	664.00	659.00	659.00	659.00	659.00	659.00	659.00	659.00	659.00	668.75	733.50	921.00	1095.75	1050.75	935.75	981.00	804.50	770.00	749.25	738.50	737.25	730.25	724.25	715.25	714.25	710.25	702.50	692.50	690.75	688.25	684.00	680.25	675.00	661.25	579.75	546.25	522.25	524.75	523.00	513.25	487.75	474.75	507.75	618.50	562.00	676.50	673.25	673.25	672.75	671.25	673.25	675.50	683.00	686.00	694.00	702.25	708.75	716.75	745.00	779.25	793.50	774.75	765.75	748.50	737.50	744.00	762.25	761.75	754.00	757.25	726.50	706.25	709.00	712.00	708.75	698.00	673.00	685.00	671.00	667.50	646.50	668.50	667.50	667.25	669.25	671.00	672.25	675.75	678.00	675.75	683.25	686.00	686.25	690.75	700.50	698.50	690.50	692.00	687.75	685.00	680.75	689.50	688.00	666.50	586.25	535.75	511.25	485.75	463.75	474.00	486.75	499.00	501.00	523.50	589.50	637.00	658.75	625.75	580.50	645.00	677.50	752.75	735.50	759.25
726.50	922.00	1044.50	908.00	785.50	695.00	849.00	798.00	659.50	698.50	743.00	952.50	1296.50	1215.50	1016.00	1182.00	1156.50	1342.00	1530.50	1693.50	1803.00	1881.50	1638.00	1364.50	1257.50	1413.00	1782.00	1509.50	1707.50	1620.50	1467.50	1435.50	1269.00	943.50	915.50	1247.50	1641.00	1606.50	1346.50	1166.50	1075.50	1286.50	1396.00	1550.50	1706.00	1474.00	1390.50	1301.00	1247.50	1143.00	1051.50	997.00	989.00	1058.00	1033.00	930.50	790.00	748.50	710.50	702.50	670.00	659.00	659.00	659.00	671.50	1118.00	1313.50	1160.50	1102.00	913.50	755.50	829.50	1060.00	1097.00	978.00	880.50	1068.00	1328.50	1279.00	990.50	870.00	938.50	1073.00	1179.00	1134.00	964.00	862.50	1061.00	1087.50	843.00	691.50	659.00	689.00	924.50	1168.50	1182.00	1272.00	1348.00	1286.50	1296.00	1450.00	1473.00	1407.50	1331.00	1216.50	1178.50	1155.00	1123.50	1129.50	1157.00	1023.00	976.00	978.00	997.00	1135.00	1142.00	1106.50	1128.50	1170.00	1448.50	1429.00	1296.50	1236.50	1141.00	1005.00	984.00	1068.00	1033.50	955.00	910.00	824.00	804.50	726.00	662.00	659.00	659.00	659.00	659.00	659.00	659.00	659.00	659.00	670.00	768.00	957.50	1075.00	894.00	815.00	778.00	760.00	740.50	736.00	733.00	735.50	725.50	716.50	713.00	702.50	695.50	687.00	684.50	686.50	682.50	680.00	676.00	633.00	543.00	528.50	524.00	525.00	520.50	515.50	478.50	518.50	540.00	665.50	606.00	673.00	679.50	673.00	672.00	674.50	681.00	683.00	689.50	695.50	729.00	735.00	741.50	766.50	809.50	838.00	816.50	772.00	786.50	773.00	753.00	759.50	773.00	748.00	726.00	707.00	696.50	708.50	719.00	708.00	689.50	660.00	672.00	678.00	671.50	669.00	668.50	670.00	674.00	670.50	673.00	677.00	681.50	693.00	703.00	699.00	703.50	698.00	690.50	691.00	692.50	688.50	684.00	690.00	688.00	679.00	676.50	679.00	675.00	652.00	561.50	525.00	468.00	451.50	540.00	539.50	513.00	546.50	601.00	652.50	665.00	655.50	666.50	643.00	634.00	664.50	681.50	778.50	812.00	834.00
678.25	764.50	788.25	696.25	662.50	659.00	664.50	659.50	659.00	668.25	719.25	875.00	1082.50	1000.00	1015.75	1148.75	1023.25	1195.50	1482.50	1532.00	1534.00	1662.00	1422.75	1164.75	1233.50	1535.75	1757.50	1740.25	1783.25	1663.50	1537.25	1601.50	1358.75	1113.25	849.75	930.75	1296.75	1346.00	1071.25	1019.00	1173.75	1217.75	1326.50	1501.25	1653.50	1596.25	1554.25	1431.00	1466.00	1457.50	1262.25	1092.75	929.25	881.00	950.00	987.50	824.25	807.25	724.25	700.25	677.75	659.00	659.00	659.50	688.00	1030.50	1293.25	1244.75	1136.50	955.50	789.25	878.50	1073.25	1251.25	1171.25	975.00	1030.50	1287.00	1303.00	1013.75	868.25	986.25	1095.00	1262.00	1198.25	991.00	944.50	1125.25	1131.00	924.50	783.25	679.25	670.50	827.50	1014.25	1103.75	1226.25	1213.75	1156.00	1282.25	1457.25	1555.50	1469.00	1346.25	1249.75	1161.75	1114.75	1074.50	1054.25	1055.25	975.00	1007.25	1111.00	1120.25	1171.25	1340.75	1286.50	1289.75	1393.75	1521.75	1481.50	1345.00	1261.50	1160.00	1054.75	1059.00	1058.00	1036.75	1010.00	960.75	872.75	834.50	794.25	718.25	667.25	659.00	659.00	659.00	659.00	659.00	659.00	659.00	659.00	690.25	774.25	856.75	992.00	957.50	788.25	755.00	747.50	742.25	735.75	736.00	722.75	715.75	717.00	694.00	688.00	683.75	683.75	686.50	683.75	680.00	671.00	601.75	529.25	521.50	526.25	524.75	502.50	468.75	479.75	532.50	600.50	682.25	628.25	674.25	680.00	679.25	678.25	681.25	689.50	705.00	732.25	744.25	767.75	771.00	786.75	800.25	810.00	804.00	794.75	774.25	770.25	763.25	753.75	752.25	746.50	736.50	714.50	710.75	704.00	705.25	700.50	693.50	670.50	659.75	676.25	674.50	671.50	677.25	677.50	713.00	714.75	683.00	693.75	684.25	687.75	693.25	709.50	712.25	715.75	707.50	694.25	686.25	689.50	692.25	689.00	689.00	684.75	678.50	676.75	675.75	666.75	639.50	557.50	487.50	490.50	568.50	649.50	628.00	599.50	591.75	658.75	680.00	686.00	672.75	669.25	666.25	663.75	686.75	692.25	754.00	836.50	829.25
659.00	659.00	659.00	661.00	677.50	673.50	676.00	659.00	659.00	659.00	661.00	681.00	740.00	730.50	766.00	822.50	916.50	1199.00	1240.00	1252.00	1290.00	1458.50	1168.50	946.00	1263.50	1429.00	1494.00	1607.50	1501.50	1602.00	1564.50	1603.50	1473.00	1283.50	1114.00	857.00	970.50	1029.00	946.50	1201.50	1414.50	1448.50	1473.50	1575.00	1764.50	1791.00	1603.50	1540.00	1557.50	1582.50	1270.00	1133.50	1100.50	1001.50	845.50	849.00	845.50	795.50	752.50	703.00	667.00	659.00	659.00	665.00	685.00	931.50	1069.50	1180.50	1142.50	959.50	821.00	931.00	1094.50	1345.00	1193.00	1019.50	1096.00	1283.00	1276.00	1074.00	885.50	1086.50	1185.50	1424.00	1295.50	1097.50	1014.00	1171.50	1155.00	1040.50	875.00	745.50	659.50	729.00	1016.00	1143.50	1165.50	1077.50	1107.00	1386.50	1479.00	1604.00	1519.00	1381.50	1262.50	1184.50	1132.50	1075.50	1016.50	992.00	978.50	1082.50	1215.00	1224.50	1264.50	1498.00	1543.00	1394.50	1636.50	1654.00	1481.00	1300.00	1249.00	1193.50	1158.00	1115.50	1074.50	1001.00	931.50	902.50	854.50	823.50	780.50	753.00	697.00	659.00	659.00	659.00	659.00	659.00	659.00	659.00	659.00	663.50	700.00	718.00	922.50	986.50	811.50	775.00	764.00	757.00	746.00	735.00	725.00	715.50	722.00	695.00	680.00	683.00	685.50	686.00	682.50	679.00	653.50	575.00	520.00	521.50	528.50	504.50	454.00	456.50	495.50	601.50	677.50	683.50	635.50	685.00	681.50	686.00	686.50	701.50	727.50	753.50	780.50	784.50	797.00	801.50	802.50	787.50	784.00	792.50	797.00	780.00	766.00	758.50	753.00	738.50	740.50	726.00	696.50	694.00	698.00	694.50	681.50	658.00	646.50	655.50	683.00	679.00	680.00	681.50	685.00	735.00	736.00	692.50	698.50	689.50	690.00	692.50	702.00	715.00	715.50	697.50	688.00	686.00	688.50	690.00	682.00	688.00	682.00	683.50	678.00	671.00	658.50	591.50	499.00	496.00	647.00	665.00	682.00	676.50	624.00	583.00	661.00	695.00	696.00	672.00	674.00	672.00	687.00	740.50	766.50	785.00	826.50	767.00
659.50	681.50	734.50	853.25	1057.00	869.25	799.25	718.00	659.25	659.00	659.00	659.00	659.00	659.00	659.00	661.25	713.25	775.00	819.75	768.75	821.00	911.25	870.50	909.25	1167.75	1179.25	1163.50	1263.75	1160.00	1341.00	1266.25	1447.25	1442.75	1359.50	1315.75	1151.25	745.75	866.50	1101.75	1398.00	1602.75	1588.50	1518.25	1538.25	1693.75	1641.25	1454.25	1396.75	1468.00	1605.75	1417.75	1311.75	1223.00	1120.25	978.50	845.50	773.75	732.75	723.25	695.75	670.25	659.00	659.00	783.75	722.75	808.00	933.25	1069.75	1143.00	997.75	857.75	976.00	1155.50	1405.50	1203.25	1056.25	1138.50	1278.00	1238.75	1112.75	936.75	1107.00	1235.00	1399.50	1313.25	1170.00	1068.75	1205.25	1229.75	1097.50	936.00	786.25	671.00	678.50	984.75	1071.00	1024.00	976.25	1099.00	1351.75	1367.00	1507.25	1509.50	1381.75	1242.50	1115.25	1075.50	1039.75	1003.50	978.50	994.00	1108.75	1248.75	1305.75	1364.75	1543.75	1613.75	1605.25	1656.25	1696.00	1529.50	1324.25	1247.50	1219.25	1229.75	1218.75	1152.00	1083.50	1000.00	954.25	876.00	821.00	789.00	769.50	731.00	678.00	659.00	659.00	659.00	659.00	659.00	659.00	659.00	662.00	665.25	696.25	742.00	766.25	778.75	801.00	784.00	753.75	747.00	736.25	715.25	712.25	723.75	692.75	678.00	683.25	691.50	687.50	683.00	681.00	660.50	576.50	524.75	522.75	501.25	464.25	467.25	492.50	552.50	663.00	684.25	686.25	673.50	667.50	688.25	697.00	712.50	761.50	778.50	790.50	798.50	802.00	813.00	812.25	801.75	776.75	791.00	794.25	786.50	766.75	754.00	748.25	743.75	728.00	718.00	700.75	672.50	671.75	672.75	669.75	661.75	659.50	667.00	673.50	680.50	686.25	696.75	711.00	729.25	733.00	720.50	702.75	699.50	693.50	691.50	691.75	697.50	702.00	693.75	690.25	687.25	687.00	686.00	687.75	681.75	688.25	682.25	664.75	635.50	570.25	523.25	489.50	493.25	599.00	659.25	680.00	678.25	678.00	650.75	580.75	657.50	692.25	715.75	682.75	681.00	680.25	694.50	784.00	830.00	833.00	820.75	798.50
729.00	871.75	1052.00	1205.75	1310.50	1173.00	924.25	1066.75	1002.75	887.25	723.50	717.50	774.00	892.25	824.50	711.50	659.25	659.00	659.00	659.00	659.00	659.00	660.25	669.00	735.50	881.50	746.50	738.75	781.50	977.75	1026.25	998.00	919.50	886.25	891.00	980.25	690.25	991.00	1381.50	1490.75	1666.25	1469.75	1286.00	1267.25	1407.50	1624.50	1476.25	1184.25	1244.25	1525.75	1517.25	1236.50	1181.50	1129.75	991.75	943.75	713.25	725.00	699.00	671.25	660.50	659.00	670.00	977.25	881.75	774.50	989.00	1128.00	1080.00	1009.75	951.25	1043.25	1281.50	1452.75	1219.25	1127.50	1235.00	1327.25	1248.75	1105.00	1020.25	1198.25	1370.50	1391.25	1256.50	1199.75	1207.75	1278.00	1245.75	1097.75	974.50	859.25	723.50	665.25	854.25	876.50	920.50	1044.50	1163.75	1217.75	1178.50	1293.50	1403.00	1314.00	1198.75	1105.25	1044.00	1003.50	980.00	970.75	957.25	1026.75	1159.25	1228.75	1323.25	1323.25	1460.75	1404.75	1353.00	1442.75	1356.75	1274.25	1204.75	1106.50	1157.00	1204.00	1150.75	1117.25	1055.75	996.00	913.50	875.75	810.25	766.50	738.50	703.25	679.50	715.00	667.75	659.00	659.00	659.00	659.00	674.50	691.50	690.00	696.00	699.00	740.50	765.00	783.25	744.75	746.00	748.50	732.00	727.50	724.00	704.25	676.50	682.75	688.75	687.25	682.00	679.25	664.50	586.25	516.00	489.75	475.75	496.25	512.25	526.75	614.25	683.50	692.25	694.50	692.75	679.50	716.25	752.75	779.25	804.25	806.75	801.50	802.50	810.25	813.00	797.00	776.25	783.25	784.00	773.00	764.50	744.00	732.00	712.25	705.25	701.25	692.75	687.50	670.75	685.00	683.50	685.50	686.00	680.00	679.75	681.50	699.75	746.25	787.25	811.50	816.50	733.00	720.50	714.25	701.75	694.75	692.75	691.75	690.50	692.50	690.25	688.75	688.25	686.00	684.50	688.25	682.25	676.50	630.00	549.00	501.75	465.50	484.75	545.25	652.75	679.25	683.75	682.75	679.50	681.00	654.50	596.25	648.25	697.75	746.25	715.50	720.50	688.50	707.25	771.25	845.75	825.25	756.50	781.50
773.75	856.75	1001.75	1189.25	1363.75	1306.75	1043.75	1120.00	1306.50	1268.25	961.25	961.00	1118.50	1179.25	970.50	851.25	713.50	667.50	659.00	659.00	659.00	659.00	659.00	659.00	662.25	712.50	674.25	660.25	679.25	778.00	862.25	787.50	721.50	721.00	729.00	779.00	698.00	989.00	1398.00	1415.00	1530.25	1349.25	1211.75	1190.75	1298.00	1622.00	1549.50	1172.50	1139.25	1419.75	1489.25	1162.50	1096.50	1162.25	1010.25	939.00	707.00	722.00	686.00	662.25	659.00	664.00	701.00	1024.00	934.00	795.50	914.75	999.50	1028.75	1039.00	1002.25	1087.75	1287.75	1472.25	1253.50	1170.25	1275.00	1319.50	1205.75	1110.00	1066.00	1264.25	1396.25	1421.50	1302.25	1283.25	1294.75	1297.25	1240.25	1077.00	974.50	875.00	737.00	677.00	778.00	838.75	974.00	1112.75	1157.50	1098.00	1155.50	1269.50	1351.50	1289.75	1209.75	1116.00	1036.00	1014.50	1023.75	1015.50	921.50	967.50	1088.25	1191.50	1247.50	1237.00	1417.25	1349.75	1217.00	1263.00	1207.00	1177.25	1120.50	1041.25	1093.00	1140.75	1122.25	1067.50	1032.75	975.25	878.75	826.00	771.00	749.00	733.75	711.75	709.50	761.00	715.25	662.75	659.00	659.00	659.00	676.00	696.00	697.00	688.00	695.75	736.50	756.50	768.50	744.25	747.75	746.75	741.50	732.50	726.00	699.75	676.75	683.25	690.25	688.75	684.75	662.25	622.00	547.00	490.50	469.25	494.00	504.75	521.25	553.25	657.50	703.50	699.50	695.25	696.00	701.00	748.50	779.25	797.25	810.75	806.50	796.75	800.00	809.75	806.75	780.75	772.00	787.50	773.25	759.75	753.25	730.50	715.50	697.50	689.50	687.50	684.50	685.00	672.50	681.00	684.50	687.00	681.25	677.25	682.75	688.75	732.25	788.50	815.50	822.75	808.25	733.75	727.50	710.50	699.75	695.50	692.25	692.75	690.25	693.25	692.50	688.50	688.25	682.75	685.00	687.75	673.25	682.25	627.75	476.50	456.75	497.75	534.00	602.75	658.50	680.75	683.00	681.50	677.75	682.50	650.50	604.50	653.25	698.25	771.00	764.50	759.25	690.25	739.50	777.75	839.75	810.75	742.25	723.00
