1336.00	1380.50	1382.00	1385.00	1387.00	1388.50	1391.00	1393.00	1396.00	1397.00	1397.50	1398.50	1399.00	1400.00	1400.50	1402.00	1402.00	1403.00	1403.00	1401.50	1400.50	1400.00	1399.00	1398.00	1396.00	1396.00	1394.50	1393.00	1391.00	1387.50	1386.00	1383.00	1381.00	1378.50	1376.00	1373.00	1371.00	1368.00	1366.00	1364.00	1361.00	1358.00	1356.00	1354.00	1350.50	1349.00	1346.00	1345.00	1342.50	1341.00	1338.00	1336.00	1334.50	1332.00	1331.00	1327.00	1325.00	1323.00	1321.00	1319.50	1316.00	1314.50	1312.00	1311.00	1310.00	1309.50	1307.50	1307.00	1306.50	1305.00	1305.00	1304.00	1305.00	1306.50	1308.00	1309.50	1312.00	1313.50	1315.00	1317.00	1318.50	1320.00	1324.00	1326.00	1327.50	1330.00	1333.00	1335.00	1337.00	1339.50	1340.50	1342.00	1342.50	1343.50	1345.00	1346.00	1346.50	1348.00	1348.50	1347.50	1346.00	1345.00	1343.50	1342.00	1340.50	1339.50	1338.50	1336.00	1333.50	1329.00	1327.00	1323.00	1320.50	1315.50	1313.00	1310.50	1307.00	1304.00	1300.00	1298.00	1294.00	1292.00	1289.50	1285.00	1282.50	1279.00	1278.00	1275.50	1274.50	1271.50	1270.00	1268.50	1266.00	1264.00	1263.00	1264.00	1264.50	1265.00	1266.00	1267.00	1267.50	1268.00	1269.50	1271.00	1273.50	1279.00	1281.50	1286.00	1289.00	1293.00	1297.00	1301.50	1304.50	1307.00	1312.50	1315.00	1319.00	1322.00	1325.50	1328.50	1333.50	1336.00	1338.00	1341.00	1343.00	1347.00	1349.00	1352.00	1354.00	1355.50	1359.00	1361.00	1364.00	1366.00	1368.50	1370.00	1374.00	1376.00	1377.50	1380.00	1384.00	1387.00	1389.00	1392.50	1395.00	1398.00	1401.00	1403.50	1406.00	1408.50	1409.50	1411.00	1413.50	1415.00	1417.00	1418.00	1420.50	1420.00	1418.50	1417.50	1416.00	1414.00	1412.50	1411.00	1410.00	1408.50	1407.00	1404.00	1401.00	1399.00	1396.00	1394.00	1390.00	1388.00	1385.00	1383.00	1380.50	1375.00	1372.50	1369.00	1366.00	1362.00	1359.50	1354.00	1351.50	1348.50	1344.00	1342.00	1336.00	1333.00	1329.00	1326.50	1323.50	1319.00	1317.50	1315.00	1313.00	1310.00	1308.50	1305.00	1303.00	1301.00	1299.00	1297.50	1296.00	1295.00	1293.50	1292.00	1290.00	1288.50	1286.00	1286.00	1285.50	1285.00	1284.50	1283.50
1359.00	1410.50	1411.50	1414.50	1416.00	1417.50	1420.00	1421.00	1424.00	1425.00	1426.50	1427.00	1427.50	1429.00	1429.50	1431.00	1431.00	1432.50	1432.50	1432.00	1432.00	1432.00	1431.00	1431.00	1431.00	1431.00	1430.00	1429.50	1428.50	1426.50	1425.00	1423.00	1422.00	1420.50	1419.00	1417.00	1415.50	1413.00	1412.00	1409.00	1407.00	1404.00	1402.50	1401.00	1398.00	1396.00	1394.00	1392.00	1389.00	1387.50	1384.00	1382.50	1381.00	1378.00	1376.00	1373.00	1371.00	1368.00	1366.50	1365.00	1361.00	1359.00	1357.00	1356.00	1354.50	1353.50	1351.50	1350.50	1350.00	1349.00	1348.00	1346.00	1347.00	1348.00	1348.50	1349.50	1350.50	1351.50	1352.00	1353.00	1354.00	1354.50	1355.00	1355.50	1356.00	1357.00	1357.00	1358.00	1358.00	1358.50	1359.00	1358.00	1358.00	1358.00	1358.00	1358.00	1358.00	1357.00	1356.50	1355.50	1353.00	1351.00	1349.00	1347.00	1344.00	1342.50	1341.00	1337.00	1335.00	1332.00	1330.00	1326.00	1324.00	1320.00	1317.50	1315.00	1312.00	1310.00	1307.00	1306.00	1303.50	1302.00	1300.00	1297.00	1295.50	1293.00	1292.00	1290.50	1289.50	1287.00	1285.50	1284.50	1283.00	1281.50	1281.00	1283.00	1286.50	1289.00	1292.00	1296.00	1298.50	1302.00	1305.50	1308.50	1311.50	1318.00	1321.50	1326.00	1329.00	1334.50	1339.00	1344.00	1347.50	1350.00	1355.50	1358.50	1363.00	1365.00	1369.50	1372.50	1377.50	1380.00	1382.00	1385.00	1387.00	1390.00	1392.00	1395.00	1397.00	1399.00	1402.00	1403.50	1405.00	1406.00	1408.00	1409.50	1411.50	1412.50	1413.50	1416.00	1418.00	1420.00	1422.00	1424.00	1425.50	1428.00	1430.00	1431.50	1433.00	1432.50	1432.00	1432.00	1431.00	1431.00	1430.00	1430.00	1429.50	1429.00	1428.00	1427.50	1426.50	1426.00	1424.50	1424.00	1423.00	1422.00	1421.00	1418.00	1415.00	1413.00	1410.00	1408.00	1405.00	1403.00	1400.00	1397.50	1394.00	1387.50	1384.00	1379.00	1376.00	1371.00	1367.50	1361.00	1357.50	1354.50	1349.00	1346.00	1339.00	1335.00	1329.50	1326.00	1322.50	1314.50	1310.00	1303.00	1299.00	1291.50	1286.50	1277.50	1272.50	1267.50	1260.00	1250.00	1241.00	1234.00	1224.50	1217.50	1208.00	1197.50	1187.00	1182.00	1176.00	1171.50	1165.00	1158.50
1359.00	1410.50	1411.50	1414.50	1416.00	1417.50	1420.00	1421.00	1424.00	1425.00	1426.50	1427.00	1427.50	1429.00	1429.50	1431.00	1431.00	1432.50	1432.50	1432.00	1432.00	1432.00	1431.00	1431.00	1431.00	1431.00	1430.00	1429.50	1428.50	1426.50	1425.00	1423.00	1422.00	1420.50	1419.00	1417.00	1415.50	1413.00	1412.00	1409.00	1407.00	1404.00	1402.50	1401.00	1398.00	1396.00	1394.00	1392.00	1389.00	1387.50	1384.00	1382.50	1381.00	1378.00	1376.00	1373.00	1371.00	1368.00	1366.50	1365.00	1361.00	1359.00	1357.00	1356.00	1354.50	1353.50	1351.50	1350.50	1350.00	1349.00	1348.00	1346.00	1347.00	1348.00	1348.50	1349.50	1350.50	1351.50	1352.00	1353.00	1354.00	1354.50	1355.00	1355.50	1356.00	1357.00	1357.00	1358.00	1358.00	1358.50	1359.00	1358.00	1358.00	1358.00	1358.00	1358.00	1358.00	1357.00	1356.50	1355.50	1353.00	1351.00	1349.00	1347.00	1344.00	1342.50	1341.00	1337.00	1335.00	1332.00	1330.00	1326.00	1324.00	1320.00	1317.50	1315.00	1312.00	1310.00	1307.00	1306.00	1303.50	1302.00	1300.00	1297.00	1295.50	1293.00	1292.00	1290.50	1289.50	1287.00	1285.50	1284.50	1283.00	1281.50	1281.00	1283.00	1286.50	1289.00	1292.00	1296.00	1298.50	1302.00	1305.50	1308.50	1311.50	1318.00	1321.50	1326.00	1329.00	1334.50	1339.00	1344.00	1347.50	1350.00	1355.50	1358.50	1363.00	1365.00	1369.50	1372.50	1377.50	1380.00	1382.00	1385.00	1387.00	1390.00	1392.00	1395.00	1397.00	1399.00	1402.00	1403.50	1405.00	1406.00	1408.00	1409.50	1411.50	1412.50	1413.50	1416.00	1418.00	1420.00	1422.00	1424.00	1425.50	1428.00	1430.00	1431.50	1433.00	1432.50	1432.00	1432.00	1431.00	1431.00	1430.00	1430.00	1429.50	1429.00	1428.00	1427.50	1426.50	1426.00	1424.50	1424.00	1423.00	1422.00	1421.00	1418.00	1415.00	1413.00	1410.00	1408.00	1405.00	1403.00	1400.00	1397.50	1394.00	1387.50	1384.00	1379.00	1376.00	1371.00	1367.50	1361.00	1357.50	1354.50	1349.00	1346.00	1339.00	1335.00	1329.50	1326.00	1322.50	1314.50	1310.00	1303.00	1299.00	1291.50	1286.50	1277.50	1272.50	1267.50	1260.00	1250.00	1241.00	1234.00	1224.50	1217.50	1208.00	1197.50	1187.00	1182.00	1176.00	1171.50	1165.00	1158.50
1359.00	1410.50	1411.50	1414.50	1416.00	1417.50	1420.00	1421.00	1424.00	1425.00	1426.50	1427.00	1427.50	1429.00	1429.50	1431.00	1431.00	1432.50	1432.50	1432.00	1432.00	1432.00	1431.00	1431.00	1431.00	1431.00	1430.00	1429.50	1428.50	1426.50	1425.00	1423.00	1422.00	1420.50	1419.00	1417.00	1415.50	1413.00	1412.00	1409.00	1407.00	1404.00	1402.50	1401.00	1398.00	1396.00	1394.00	1392.00	1389.00	1387.50	1384.00	1382.50	1381.00	1378.00	1376.00	1373.00	1371.00	1368.00	1366.50	1365.00	1361.00	1359.00	1357.00	1356.00	1354.50	1353.50	1351.50	1350.50	1350.00	1349.00	1348.00	1346.00	1347.00	1348.00	1348.50	1349.50	1350.50	1351.50	1352.00	1353.00	1354.00	1354.50	1355.00	1355.50	1356.00	1357.00	1357.00	1358.00	1358.00	1358.50	1359.00	1358.00	1358.00	1358.00	1358.00	1358.00	1358.00	1357.00	1356.50	1355.50	1353.00	1351.00	1349.00	1347.00	1344.00	1342.50	1341.00	1337.00	1335.00	1332.00	1330.00	1326.00	1324.00	1320.00	1317.50	1315.00	1312.00	1310.00	1307.00	1306.00	1303.50	1302.00	1300.00	1297.00	1295.50	1293.00	1292.00	1290.50	1289.50	1287.00	1285.50	1284.50	1283.00	1281.50	1281.00	1283.00	1286.50	1289.00	1292.00	1296.00	1298.50	1302.00	1305.50	1308.50	1311.50	1318.00	1321.50	1326.00	1329.00	1334.50	1339.00	1344.00	1347.50	1350.00	1355.50	1358.50	1363.00	1365.00	1369.50	1372.50	1377.50	1380.00	1382.00	1385.00	1387.00	1390.00	1392.00	1395.00	1397.00	1399.00	1402.00	1403.50	1405.00	1406.00	1408.00	1409.50	1411.50	1412.50	1413.50	1416.00	1418.00	1420.00	1422.00	1424.00	1425.50	1428.00	1430.00	1431.50	1433.00	1432.50	1432.00	1432.00	1431.00	1431.00	1430.00	1430.00	1429.50	1429.00	1428.00	1427.50	1426.50	1426.00	1424.50	1424.00	1423.00	1422.00	1421.00	1418.00	1415.00	1413.00	1410.00	1408.00	1405.00	1403.00	1400.00	1397.50	1394.00	1387.50	1384.00	1379.00	1376.00	1371.00	1367.50	1361.00	1357.50	1354.50	1349.00	1346.00	1339.00	1335.00	1329.50	1326.00	1322.50	1314.50	1310.00	1303.00	1299.00	1291.50	1286.50	1277.50	1272.50	1267.50	1260.00	1250.00	1241.00	1234.00	1224.50	1217.50	1208.00	1197.50	1187.00	1182.00	1176.00	1171.50	1165.00	1158.50
1359.00	1410.50	1411.50	1414.50	1416.00	1417.50	1420.00	1421.00	1424.00	1425.00	1426.50	1427.00	1427.50	1429.00	1429.50	1431.00	1431.00	1432.50	1432.50	1432.00	1432.00	1432.00	1431.00	1431.00	1431.00	1431.00	1430.00	1429.50	1428.50	1426.50	1425.00	1423.00	1422.00	1420.50	1419.00	1417.00	1415.50	1413.00	1412.00	1409.00	1407.00	1404.00	1402.50	1401.00	1398.00	1396.00	1394.00	1392.00	1389.00	1387.50	1384.00	1382.50	1381.00	1378.00	1376.00	1373.00	1371.00	1368.00	1366.50	1365.00	1361.00	1359.00	1357.00	1356.00	1354.50	1353.50	1351.50	1350.50	1350.00	1349.00	1348.00	1346.00	1347.00	1348.00	1348.50	1349.50	1350.50	1351.50	1352.00	1353.00	1354.00	1354.50	1355.00	1355.50	1356.00	1357.00	1357.00	1358.00	1358.00	1358.50	1359.00	1358.00	1358.00	1358.00	1358.00	1358.00	1358.00	1357.00	1356.50	1355.50	1353.00	1351.00	1349.00	1347.00	1344.00	1342.50	1341.00	1337.00	1335.00	1332.00	1330.00	1326.00	1324.00	1320.00	1317.50	1315.00	1312.00	1310.00	1307.00	1306.00	1303.50	1302.00	1300.00	1297.00	1295.50	1293.00	1292.00	1290.50	1289.50	1287.00	1285.50	1284.50	1283.00	1281.50	1281.00	1283.00	1286.50	1289.00	1292.00	1296.00	1298.50	1302.00	1305.50	1308.50	1311.50	1318.00	1321.50	1326.00	1329.00	1334.50	1339.00	1344.00	1347.50	1350.00	1355.50	1358.50	1363.00	1365.00	1369.50	1372.50	1377.50	1380.00	1382.00	1385.00	1387.00	1390.00	1392.00	1395.00	1397.00	1399.00	1402.00	1403.50	1405.00	1406.00	1408.00	1409.50	1411.50	1412.50	1413.50	1416.00	1418.00	1420.00	1422.00	1424.00	1425.50	1428.00	1430.00	1431.50	1433.00	1432.50	1432.00	1432.00	1431.00	1431.00	1430.00	1430.00	1429.50	1429.00	1428.00	1427.50	1426.50	1426.00	1424.50	1424.00	1423.00	1422.00	1421.00	1418.00	1415.00	1413.00	1410.00	1408.00	1405.00	1403.00	1400.00	1397.50	1394.00	1387.50	1384.00	1379.00	1376.00	1371.00	1367.50	1361.00	1357.50	1354.50	1349.00	1346.00	1339.00	1335.00	1329.50	1326.00	1322.50	1314.50	1310.00	1303.00	1299.00	1291.50	1286.50	1277.50	1272.50	1267.50	1260.00	1250.00	1241.00	1234.00	1224.50	1217.50	1208.00	1197.50	1187.00	1182.00	1176.00	1171.50	1165.00	1158.50
1359.00	1410.50	1411.50	1414.50	1416.00	1417.50	1420.00	1421.00	1424.00	1425.00	1426.50	1427.00	1427.50	1429.00	1429.50	1431.00	1431.00	1432.50	1432.50	1432.00	1432.00	1432.00	1431.00	1431.00	1431.00	1431.00	1430.00	1429.50	1428.50	1426.50	1425.00	1423.00	1422.00	1420.50	1419.00	1417.00	1415.50	1413.00	1412.00	1409.00	1407.00	1404.00	1402.50	1401.00	1398.00	1396.00	1394.00	1392.00	1389.00	1387.50	1384.00	1382.50	1381.00	1378.00	1376.00	1373.00	1371.00	1368.00	1366.50	1365.00	1361.00	1359.00	1357.00	1356.00	1354.50	1353.50	1351.50	1350.50	1350.00	1349.00	1348.00	1346.00	1347.00	1348.00	1348.50	1349.50	1350.50	1351.50	1352.00	1353.00	1354.00	1354.50	1355.00	1355.50	1356.00	1357.00	1357.00	1358.00	1358.00	1358.50	1359.00	1358.00	1358.00	1358.00	1358.00	1358.00	1358.00	1357.00	1356.50	1355.50	1353.00	1351.00	1349.00	1347.00	1344.00	1342.50	1341.00	1337.00	1335.00	1332.00	1330.00	1326.00	1324.00	1320.00	1317.50	1315.00	1312.00	1310.00	1307.00	1306.00	1303.50	1302.00	1300.00	1297.00	1295.50	1293.00	1292.00	1290.50	1289.50	1287.00	1285.50	1284.50	1283.00	1281.50	1281.00	1283.00	1286.50	1289.00	1292.00	1296.00	1298.50	1302.00	1305.50	1308.50	1311.50	1318.00	1321.50	1326.00	1329.00	1334.50	1339.00	1344.00	1347.50	1350.00	1355.50	1358.50	1363.00	1365.00	1369.50	1372.50	1377.50	1380.00	1382.00	1385.00	1387.00	1390.00	1392.00	1395.00	1397.00	1399.00	1402.00	1403.50	1405.00	1406.00	1408.00	1409.50	1411.50	1412.50	1413.50	1416.00	1418.00	1420.00	1422.00	1424.00	1425.50	1428.00	1430.00	1431.50	1433.00	1432.50	1432.00	1432.00	1431.00	1431.00	1430.00	1430.00	1429.50	1429.00	1428.00	1427.50	1426.50	1426.00	1424.50	1424.00	1423.00	1422.00	1421.00	1418.00	1415.00	1413.00	1410.00	1408.00	1405.00	1403.00	1400.00	1397.50	1394.00	1387.50	1384.00	1379.00	1376.00	1371.00	1367.50	1361.00	1357.50	1354.50	1349.00	1346.00	1339.00	1335.00	1329.50	1326.00	1322.50	1314.50	1310.00	1303.00	1299.00	1291.50	1286.50	1277.50	1272.50	1267.50	1260.00	1250.00	1241.00	1234.00	1224.50	1217.50	1208.00	1197.50	1187.00	1182.00	1176.00	1171.50	1165.00	1158.50
1359.00	1410.50	1411.50	1414.50	1416.00	1417.50	1420.00	1421.00	1424.00	1425.00	1426.50	1427.00	1427.50	1429.00	1429.50	1431.00	1431.00	1432.50	1432.50	1432.00	1432.00	1432.00	1431.00	1431.00	1431.00	1431.00	1430.00	1429.50	1428.50	1426.50	1425.00	1423.00	1422.00	1420.50	1419.00	1417.00	1415.50	1413.00	1412.00	1409.00	1407.00	1404.00	1402.50	1401.00	1398.00	1396.00	1394.00	1392.00	1389.00	1387.50	1384.00	1382.50	1381.00	1378.00	1376.00	1373.00	1371.00	1368.00	1366.50	1365.00	1361.00	1359.00	1357.00	1356.00	1354.50	1353.50	1351.50	1350.50	1350.00	1349.00	1348.00	1346.00	1347.00	1348.00	1348.50	1349.50	1350.50	1351.50	1352.00	1353.00	1354.00	1354.50	1355.00	1355.50	1356.00	1357.00	1357.00	1358.00	1358.00	1358.50	1359.00	1358.00	1358.00	1358.00	1358.00	1358.00	1358.00	1357.00	1356.50	1355.50	1353.00	1351.00	1349.00	1347.00	1344.00	1342.50	1341.00	1337.00	1335.00	1332.00	1330.00	1326.00	1324.00	1320.00	1317.50	1315.00	1312.00	1310.00	1307.00	1306.00	1303.50	1302.00	1300.00	1297.00	1295.50	1293.00	1292.00	1290.50	1289.50	1287.00	1285.50	1284.50	1283.00	1281.50	1281.00	1283.00	1286.50	1289.00	1292.00	1296.00	1298.50	1302.00	1305.50	1308.50	1311.50	1318.00	1321.50	1326.00	1329.00	1334.50	1339.00	1344.00	1347.50	1350.00	1355.50	1358.50	1363.00	1365.00	1369.50	1372.50	1377.50	1380.00	1382.00	1385.00	1387.00	1390.00	1392.00	1395.00	1397.00	1399.00	1402.00	1403.50	1405.00	1406.00	1408.00	1409.50	1411.50	1412.50	1413.50	1416.00	1418.00	1420.00	1422.00	1424.00	1425.50	1428.00	1430.00	1431.50	1433.00	1432.50	1432.00	1432.00	1431.00	1431.00	1430.00	1430.00	1429.50	1429.00	1428.00	1427.50	1426.50	1426.00	1424.50	1424.00	1423.00	1422.00	1421.00	1418.00	1415.00	1413.00	1410.00	1408.00	1405.00	1403.00	1400.00	1397.50	1394.00	1387.50	1384.00	1379.00	1376.00	1371.00	1367.50	1361.00	1357.50	1354.50	1349.00	1346.00	1339.00	1335.00	1329.50	1326.00	1322.50	1314.50	1310.00	1303.00	1299.00	1291.50	1286.50	1277.50	1272.50	1267.50	1260.00	1250.00	1241.00	1234.00	1224.50	1217.50	1208.00	1197.50	1187.00	1182.00	1176.00	1171.50	1165.00	1158.50
1359.00	1410.50	1411.50	1414.50	1416.00	1417.50	1420.00	1421.00	1424.00	1425.00	1426.50	1427.00	1427.50	1429.00	1429.50	1431.00	1431.00	1432.50	1432.50	1432.00	1432.00	1432.00	1431.00	1431.00	1431.00	1431.00	1430.00	1429.50	1428.50	1426.50	1425.00	1423.00	1422.00	1420.50	1419.00	1417.00	1415.50	1413.00	1412.00	1409.00	1407.00	1404.00	1402.50	1401.00	1398.00	1396.00	1394.00	1392.00	1389.00	1387.50	1384.00	1382.50	1381.00	1378.00	1376.00	1373.00	1371.00	1368.00	1366.50	1365.00	1361.00	1359.00	1357.00	1356.00	1354.50	1353.50	1351.50	1350.50	1350.00	1349.00	1348.00	1346.00	1347.00	1348.00	1348.50	1349.50	1350.50	1351.50	1352.00	1353.00	1354.00	1354.50	1355.00	1355.50	1356.00	1357.00	1357.00	1358.00	1358.00	1358.50	1359.00	1358.00	1358.00	1358.00	1358.00	1358.00	1358.00	1357.00	1356.50	1355.50	1353.00	1351.00	1349.00	1347.00	1344.00	1342.50	1341.00	1337.00	1335.00	1332.00	1330.00	1326.00	1324.00	1320.00	1317.50	1315.00	1312.00	1310.00	1307.00	1306.00	1303.50	1302.00	1300.00	1297.00	1295.50	1293.00	1292.00	1290.50	1289.50	1287.00	1285.50	1284.50	1283.00	1281.50	1281.00	1283.00	1286.50	1289.00	1292.00	1296.00	1298.50	1302.00	1305.50	1308.50	1311.50	1318.00	1321.50	1326.00	1329.00	1334.50	1339.00	1344.00	1347.50	1350.00	1355.50	1358.50	1363.00	1365.00	1369.50	1372.50	1377.50	1380.00	1382.00	1385.00	1387.00	1390.00	1392.00	1395.00	1397.00	1399.00	1402.00	1403.50	1405.00	1406.00	1408.00	1409.50	1411.50	1412.50	1413.50	1416.00	1418.00	1420.00	1422.00	1424.00	1425.50	1428.00	1430.00	1431.50	1433.00	1432.50	1432.00	1432.00	1431.00	1431.00	1430.00	1430.00	1429.50	1429.00	1428.00	1427.50	1426.50	1426.00	1424.50	1424.00	1423.00	1422.00	1421.00	1418.00	1415.00	1413.00	1410.00	1408.00	1405.00	1403.00	1400.00	1397.50	1394.00	1387.50	1384.00	1379.00	1376.00	1371.00	1367.50	1361.00	1357.50	1354.50	1349.00	1346.00	1339.00	1335.00	1329.50	1326.00	1322.50	1314.50	1310.00	1303.00	1299.00	1291.50	1286.50	1277.50	1272.50	1267.50	1260.00	1250.00	1241.00	1234.00	1224.50	1217.50	1208.00	1197.50	1187.00	1182.00	1176.00	1171.50	1165.00	1158.50
1371.50	1429.75	1431.25	1434.25	1436.00	1437.50	1440.00	1441.00	1444.50	1445.50	1446.50	1447.25	1448.00	1449.25	1450.00	1451.50	1451.50	1453.00	1453.25	1453.00	1453.00	1452.75	1452.00	1452.00	1452.00	1452.00	1451.25	1450.75	1450.00	1448.00	1446.75	1445.00	1444.00	1442.50	1441.00	1439.25	1438.00	1435.50	1434.50	1431.75	1429.50	1427.00	1425.50	1424.00	1421.00	1419.00	1417.00	1415.00	1412.00	1410.50	1407.00	1405.25	1403.75	1401.00	1399.00	1396.00	1394.00	1391.50	1390.00	1388.50	1384.75	1383.00	1380.50	1379.50	1378.00	1377.00	1374.75	1373.50	1372.75	1371.50	1370.50	1368.50	1368.50	1369.00	1369.00	1369.25	1369.25	1369.75	1369.50	1370.00	1370.25	1370.25	1370.00	1370.00	1369.75	1370.00	1369.50	1369.50	1369.00	1369.00	1368.75	1367.25	1366.75	1366.25	1365.50	1364.75	1364.25	1363.00	1362.00	1360.50	1357.00	1354.50	1351.25	1348.00	1344.25	1342.00	1339.75	1335.00	1333.00	1330.00	1328.00	1324.50	1322.50	1318.00	1315.75	1313.50	1310.50	1309.00	1307.50	1307.00	1305.50	1304.50	1303.50	1302.00	1301.00	1299.50	1299.50	1299.00	1299.00	1298.25	1297.75	1297.50	1297.50	1297.00	1297.50	1300.00	1304.00	1306.75	1311.00	1315.25	1318.00	1322.50	1326.50	1329.50	1332.75	1340.00	1343.75	1348.50	1352.00	1357.75	1363.00	1368.25	1371.75	1374.75	1380.00	1383.00	1387.50	1389.50	1394.00	1397.00	1402.00	1404.50	1406.50	1409.50	1411.50	1415.00	1417.00	1420.00	1422.00	1424.00	1427.25	1428.50	1429.50	1430.50	1432.00	1433.00	1435.00	1435.75	1436.50	1438.50	1439.00	1440.00	1440.50	1441.50	1442.00	1443.00	1443.75	1444.25	1445.00	1444.75	1444.75	1445.00	1444.75	1445.00	1445.00	1445.00	1445.00	1445.00	1444.50	1444.50	1444.25	1444.00	1443.25	1443.00	1442.50	1442.00	1441.50	1439.25	1436.50	1434.75	1432.50	1430.50	1427.50	1426.00	1423.25	1421.25	1418.00	1411.25	1407.75	1403.00	1399.50	1394.50	1391.00	1384.25	1380.75	1377.25	1371.00	1367.50	1359.50	1355.00	1349.00	1345.00	1341.25	1332.25	1326.75	1318.00	1313.00	1304.00	1298.00	1287.00	1281.00	1275.25	1266.50	1254.25	1242.50	1234.00	1222.25	1213.75	1202.00	1189.50	1177.00	1169.50	1160.50	1154.00	1144.50	1135.00
1384.00	1449.00	1451.00	1454.00	1456.00	1457.50	1460.00	1461.00	1465.00	1466.00	1466.50	1467.50	1468.50	1469.50	1470.50	1472.00	1472.00	1473.50	1474.00	1474.00	1474.00	1473.50	1473.00	1473.00	1473.00	1473.00	1472.50	1472.00	1471.50	1469.50	1468.50	1467.00	1466.00	1464.50	1463.00	1461.50	1460.50	1458.00	1457.00	1454.50	1452.00	1450.00	1448.50	1447.00	1444.00	1442.00	1440.00	1438.00	1435.00	1433.50	1430.00	1428.00	1426.50	1424.00	1422.00	1419.00	1417.00	1415.00	1413.50	1412.00	1408.50	1407.00	1404.00	1403.00	1401.50	1400.50	1398.00	1396.50	1395.50	1394.00	1393.00	1391.00	1390.00	1390.00	1389.50	1389.00	1388.00	1388.00	1387.00	1387.00	1386.50	1386.00	1385.00	1384.50	1383.50	1383.00	1382.00	1381.00	1380.00	1379.50	1378.50	1376.50	1375.50	1374.50	1373.00	1371.50	1370.50	1369.00	1367.50	1365.50	1361.00	1358.00	1353.50	1349.00	1344.50	1341.50	1338.50	1333.00	1331.00	1328.00	1326.00	1323.00	1321.00	1316.00	1314.00	1312.00	1309.00	1308.00	1308.00	1308.00	1307.50	1307.00	1307.00	1307.00	1306.50	1306.00	1307.00	1307.50	1308.50	1309.50	1310.00	1310.50	1312.00	1312.50	1314.00	1317.00	1321.50	1324.50	1330.00	1334.50	1337.50	1343.00	1347.50	1350.50	1354.00	1362.00	1366.00	1371.00	1375.00	1381.00	1387.00	1392.50	1396.00	1399.50	1404.50	1407.50	1412.00	1414.00	1418.50	1421.50	1426.50	1429.00	1431.00	1434.00	1436.00	1440.00	1442.00	1445.00	1447.00	1449.00	1452.50	1453.50	1454.00	1455.00	1456.00	1456.50	1458.50	1459.00	1459.50	1461.00	1460.00	1460.00	1459.00	1459.00	1458.50	1458.00	1457.50	1457.00	1457.00	1457.00	1457.50	1458.00	1458.50	1459.00	1460.00	1460.00	1460.50	1461.00	1461.00	1461.50	1462.00	1462.00	1462.00	1462.00	1462.00	1462.00	1462.00	1460.50	1458.00	1456.50	1455.00	1453.00	1450.00	1449.00	1446.50	1445.00	1442.00	1435.00	1431.50	1427.00	1423.00	1418.00	1414.50	1407.50	1404.00	1400.00	1393.00	1389.00	1380.00	1375.00	1368.50	1364.00	1360.00	1350.00	1343.50	1333.00	1327.00	1316.50	1309.50	1296.50	1289.50	1283.00	1273.00	1258.50	1244.00	1234.00	1220.00	1210.00	1196.00	1181.50	1167.00	1157.00	1145.00	1136.50	1124.00	1111.50
1384.00	1449.00	1451.00	1454.00	1456.00	1457.50	1460.00	1461.00	1465.00	1466.00	1466.50	1467.50	1468.50	1469.50	1470.50	1472.00	1472.00	1473.50	1474.00	1474.00	1474.00	1473.50	1473.00	1473.00	1473.00	1473.00	1472.50	1472.00	1471.50	1469.50	1468.50	1467.00	1466.00	1464.50	1463.00	1461.50	1460.50	1458.00	1457.00	1454.50	1452.00	1450.00	1448.50	1447.00	1444.00	1442.00	1440.00	1438.00	1435.00	1433.50	1430.00	1428.00	1426.50	1424.00	1422.00	1419.00	1417.00	1415.00	1413.50	1412.00	1408.50	1407.00	1404.00	1403.00	1401.50	1400.50	1398.00	1396.50	1395.50	1394.00	1393.00	1391.00	1390.00	1390.00	1389.50	1389.00	1388.00	1388.00	1387.00	1387.00	1386.50	1386.00	1385.00	1384.50	1383.50	1383.00	1382.00	1381.00	1380.00	1379.50	1378.50	1376.50	1375.50	1374.50	1373.00	1371.50	1370.50	1369.00	1367.50	1365.50	1361.00	1358.00	1353.50	1349.00	1344.50	1341.50	1338.50	1333.00	1331.00	1328.00	1326.00	1323.00	1321.00	1316.00	1314.00	1312.00	1309.00	1308.00	1308.00	1308.00	1307.50	1307.00	1307.00	1307.00	1306.50	1306.00	1307.00	1307.50	1308.50	1309.50	1310.00	1310.50	1312.00	1312.50	1314.00	1317.00	1321.50	1324.50	1330.00	1334.50	1337.50	1343.00	1347.50	1350.50	1354.00	1362.00	1366.00	1371.00	1375.00	1381.00	1387.00	1392.50	1396.00	1399.50	1404.50	1407.50	1412.00	1414.00	1418.50	1421.50	1426.50	1429.00	1431.00	1434.00	1436.00	1440.00	1442.00	1445.00	1447.00	1449.00	1452.50	1453.50	1454.00	1455.00	1456.00	1456.50	1458.50	1459.00	1459.50	1461.00	1460.00	1460.00	1459.00	1459.00	1458.50	1458.00	1457.50	1457.00	1457.00	1457.00	1457.50	1458.00	1458.50	1459.00	1460.00	1460.00	1460.50	1461.00	1461.00	1461.50	1462.00	1462.00	1462.00	1462.00	1462.00	1462.00	1462.00	1460.50	1458.00	1456.50	1455.00	1453.00	1450.00	1449.00	1446.50	1445.00	1442.00	1435.00	1431.50	1427.00	1423.00	1418.00	1414.50	1407.50	1404.00	1400.00	1393.00	1389.00	1380.00	1375.00	1368.50	1364.00	1360.00	1350.00	1343.50	1333.00	1327.00	1316.50	1309.50	1296.50	1289.50	1283.00	1273.00	1258.50	1244.00	1234.00	1220.00	1210.00	1196.00	1181.50	1167.00	1157.00	1145.00	1136.50	1124.00	1111.50
1384.00	1449.00	1451.00	1454.00	1456.00	1457.50	1460.00	1461.00	1465.00	1466.00	1466.50	1467.50	1468.50	1469.50	1470.50	1472.00	1472.00	1473.50	1474.00	1474.00	1474.00	1473.50	1473.00	1473.00	1473.00	1473.00	1472.50	1472.00	1471.50	1469.50	1468.50	1467.00	1466.00	1464.50	1463.00	1461.50	1460.50	1458.00	1457.00	1454.50	1452.00	1450.00	1448.50	1447.00	1444.00	1442.00	1440.00	1438.00	1435.00	1433.50	1430.00	1428.00	1426.50	1424.00	1422.00	1419.00	1417.00	1415.00	1413.50	1412.00	1408.50	1407.00	1404.00	1403.00	1401.50	1400.50	1398.00	1396.50	1395.50	1394.00	1393.00	1391.00	1390.00	1390.00	1389.50	1389.00	1388.00	1388.00	1387.00	1387.00	1386.50	1386.00	1385.00	1384.50	1383.50	1383.00	1382.00	1381.00	1380.00	1379.50	1378.50	1376.50	1375.50	1374.50	1373.00	1371.50	1370.50	1369.00	1367.50	1365.50	1361.00	1358.00	1353.50	1349.00	1344.50	1341.50	1338.50	1333.00	1331.00	1328.00	1326.00	1323.00	1321.00	1316.00	1314.00	1312.00	1309.00	1308.00	1308.00	1308.00	1307.50	1307.00	1307.00	1307.00	1306.50	1306.00	1307.00	1307.50	1308.50	1309.50	1310.00	1310.50	1312.00	1312.50	1314.00	1317.00	1321.50	1324.50	1330.00	1334.50	1337.50	1343.00	1347.50	1350.50	1354.00	1362.00	1366.00	1371.00	1375.00	1381.00	1387.00	1392.50	1396.00	1399.50	1404.50	1407.50	1412.00	1414.00	1418.50	1421.50	1426.50	1429.00	1431.00	1434.00	1436.00	1440.00	1442.00	1445.00	1447.00	1449.00	1452.50	1453.50	1454.00	1455.00	1456.00	1456.50	1458.50	1459.00	1459.50	1461.00	1460.00	1460.00	1459.00	1459.00	1458.50	1458.00	1457.50	1457.00	1457.00	1457.00	1457.50	1458.00	1458.50	1459.00	1460.00	1460.00	1460.50	1461.00	1461.00	1461.50	1462.00	1462.00	1462.00	1462.00	1462.00	1462.00	1462.00	1460.50	1458.00	1456.50	1455.00	1453.00	1450.00	1449.00	1446.50	1445.00	1442.00	1435.00	1431.50	1427.00	1423.00	1418.00	1414.50	1407.50	1404.00	1400.00	1393.00	1389.00	1380.00	1375.00	1368.50	1364.00	1360.00	1350.00	1343.50	1333.00	1327.00	1316.50	1309.50	1296.50	1289.50	1283.00	1273.00	1258.50	1244.00	1234.00	1220.00	1210.00	1196.00	1181.50	1167.00	1157.00	1145.00	1136.50	1124.00	1111.50
1384.00	1449.00	1451.00	1454.00	1456.00	1457.50	1460.00	1461.00	1465.00	1466.00	1466.50	1467.50	1468.50	1469.50	1470.50	1472.00	1472.00	1473.50	1474.00	1474.00	1474.00	1473.50	1473.00	1473.00	1473.00	1473.00	1472.50	1472.00	1471.50	1469.50	1468.50	1467.00	1466.00	1464.50	1463.00	1461.50	1460.50	1458.00	1457.00	1454.50	1452.00	1450.00	1448.50	1447.00	1444.00	1442.00	1440.00	1438.00	1435.00	1433.50	1430.00	1428.00	1426.50	1424.00	1422.00	1419.00	1417.00	1415.00	1413.50	1412.00	1408.50	1407.00	1404.00	1403.00	1401.50	1400.50	1398.00	1396.50	1395.50	1394.00	1393.00	1391.00	1390.00	1390.00	1389.50	1389.00	1388.00	1388.00	1387.00	1387.00	1386.50	1386.00	1385.00	1384.50	1383.50	1383.00	1382.00	1381.00	1380.00	1379.50	1378.50	1376.50	1375.50	1374.50	1373.00	1371.50	1370.50	1369.00	1367.50	1365.50	1361.00	1358.00	1353.50	1349.00	1344.50	1341.50	1338.50	1333.00	1331.00	1328.00	1326.00	1323.00	1321.00	1316.00	1314.00	1312.00	1309.00	1308.00	1308.00	1308.00	1307.50	1307.00	1307.00	1307.00	1306.50	1306.00	1307.00	1307.50	1308.50	1309.50	1310.00	1310.50	1312.00	1312.50	1314.00	1317.00	1321.50	1324.50	1330.00	1334.50	1337.50	1343.00	1347.50	1350.50	1354.00	1362.00	1366.00	1371.00	1375.00	1381.00	1387.00	1392.50	1396.00	1399.50	1404.50	1407.50	1412.00	1414.00	1418.50	1421.50	1426.50	1429.00	1431.00	1434.00	1436.00	1440.00	1442.00	1445.00	1447.00	1449.00	1452.50	1453.50	1454.00	1455.00	1456.00	1456.50	1458.50	1459.00	1459.50	1461.00	1460.00	1460.00	1459.00	1459.00	1458.50	1458.00	1457.50	1457.00	1457.00	1457.00	1457.50	1458.00	1458.50	1459.00	1460.00	1460.00	1460.50	1461.00	1461.00	1461.50	1462.00	1462.00	1462.00	1462.00	1462.00	1462.00	1462.00	1460.50	1458.00	1456.50	1455.00	1453.00	1450.00	1449.00	1446.50	1445.00	1442.00	1435.00	1431.50	1427.00	1423.00	1418.00	1414.50	1407.50	1404.00	1400.00	1393.00	1389.00	1380.00	1375.00	1368.50	1364.00	1360.00	1350.00	1343.50	1333.00	1327.00	1316.50	1309.50	1296.50	1289.50	1283.00	1273.00	1258.50	1244.00	1234.00	1220.00	1210.00	1196.00	1181.50	1167.00	1157.00	1145.00	1136.50	1124.00	1111.50
1384.00	1449.00	1451.00	1454.00	1456.00	1457.50	1460.00	1461.00	1465.00	1466.00	1466.50	1467.50	1468.50	1469.50	1470.50	1472.00	1472.00	1473.50	1474.00	1474.00	1474.00	1473.50	1473.00	1473.00	1473.00	1473.00	1472.50	1472.00	1471.50	1469.50	1468.50	1467.00	1466.00	1464.50	1463.00	1461.50	1460.50	1458.00	1457.00	1454.50	1452.00	1450.00	1448.50	1447.00	1444.00	1442.00	1440.00	1438.00	1435.00	1433.50	1430.00	1428.00	1426.50	1424.00	1422.00	1419.00	1417.00	1415.00	1413.50	1412.00	1408.50	1407.00	1404.00	1403.00	1401.50	1400.50	1398.00	1396.50	1395.50	1394.00	1393.00	1391.00	1390.00	1390.00	1389.50	1389.00	1388.00	1388.00	1387.00	1387.00	1386.50	1386.00	1385.00	1384.50	1383.50	1383.00	1382.00	1381.00	1380.00	1379.50	1378.50	1376.50	1375.50	1374.50	1373.00	1371.50	1370.50	1369.00	1367.50	1365.50	1361.00	1358.00	1353.50	1349.00	1344.50	1341.50	1338.50	1333.00	1331.00	1328.00	1326.00	1323.00	1321.00	1316.00	1314.00	1312.00	1309.00	1308.00	1308.00	1308.00	1307.50	1307.00	1307.00	1307.00	1306.50	1306.00	1307.00	1307.50	1308.50	1309.50	1310.00	1310.50	1312.00	1312.50	1314.00	1317.00	1321.50	1324.50	1330.00	1334.50	1337.50	1343.00	1347.50	1350.50	1354.00	1362.00	1366.00	1371.00	1375.00	1381.00	1387.00	1392.50	1396.00	1399.50	1404.50	1407.50	1412.00	1414.00	1418.50	1421.50	1426.50	1429.00	1431.00	1434.00	1436.00	1440.00	1442.00	1445.00	1447.00	1449.00	1452.50	1453.50	1454.00	1455.00	1456.00	1456.50	1458.50	1459.00	1459.50	1461.00	1460.00	1460.00	1459.00	1459.00	1458.50	1458.00	1457.50	1457.00	1457.00	1457.00	1457.50	1458.00	1458.50	1459.00	1460.00	1460.00	1460.50	1461.00	1461.00	1461.50	1462.00	1462.00	1462.00	1462.00	1462.00	1462.00	1462.00	1460.50	1458.00	1456.50	1455.00	1453.00	1450.00	1449.00	1446.50	1445.00	1442.00	1435.00	1431.50	1427.00	1423.00	1418.00	1414.50	1407.50	1404.00	1400.00	1393.00	1389.00	1380.00	1375.00	1368.50	1364.00	1360.00	1350.00	1343.50	1333.00	1327.00	1316.50	1309.50	1296.50	1289.50	1283.00	1273.00	1258.50	1244.00	1234.00	1220.00	1210.00	1196.00	1181.50	1167.00	1157.00	1145.00	1136.50	1124.00	1111.50
1384.00	1449.00	1451.00	1454.00	1456.00	1457.50	1460.00	1461.00	1465.00	1466.00	1466.50	1467.50	1468.50	1469.50	1470.50	1472.00	1472.00	1473.50	1474.00	1474.00	1474.00	1473.50	1473.00	1473.00	1473.00	1473.00	1472.50	1472.00	1471.50	1469.50	1468.50	1467.00	1466.00	1464.50	1463.00	1461.50	1460.50	1458.00	1457.00	1454.50	1452.00	1450.00	1448.50	1447.00	1444.00	1442.00	1440.00	1438.00	1435.00	1433.50	1430.00	1428.00	1426.50	1424.00	1422.00	1419.00	1417.00	1415.00	1413.50	1412.00	1408.50	1407.00	1404.00	1403.00	1401.50	1400.50	1398.00	1396.50	1395.50	1394.00	1393.00	1391.00	1390.00	1390.00	1389.50	1389.00	1388.00	1388.00	1387.00	1387.00	1386.50	1386.00	1385.00	1384.50	1383.50	1383.00	1382.00	1381.00	1380.00	1379.50	1378.50	1376.50	1375.50	1374.50	1373.00	1371.50	1370.50	1369.00	1367.50	1365.50	1361.00	1358.00	1353.50	1349.00	1344.50	1341.50	1338.50	1333.00	1331.00	1328.00	1326.00	1323.00	1321.00	1316.00	1314.00	1312.00	1309.00	1308.00	1308.00	1308.00	1307.50	1307.00	1307.00	1307.00	1306.50	1306.00	1307.00	1307.50	1308.50	1309.50	1310.00	1310.50	1312.00	1312.50	1314.00	1317.00	1321.50	1324.50	1330.00	1334.50	1337.50	1343.00	1347.50	1350.50	1354.00	1362.00	1366.00	1371.00	1375.00	1381.00	1387.00	1392.50	1396.00	1399.50	1404.50	1407.50	1412.00	1414.00	1418.50	1421.50	1426.50	1429.00	1431.00	1434.00	1436.00	1440.00	1442.00	1445.00	1447.00	1449.00	1452.50	1453.50	1454.00	1455.00	1456.00	1456.50	1458.50	1459.00	1459.50	1461.00	1460.00	1460.00	1459.00	1459.00	1458.50	1458.00	1457.50	1457.00	1457.00	1457.00	1457.50	1458.00	1458.50	1459.00	1460.00	1460.00	1460.50	1461.00	1461.00	1461.50	1462.00	1462.00	1462.00	1462.00	1462.00	1462.00	1462.00	1460.50	1458.00	1456.50	1455.00	1453.00	1450.00	1449.00	1446.50	1445.00	1442.00	1435.00	1431.50	1427.00	1423.00	1418.00	1414.50	1407.50	1404.00	1400.00	1393.00	1389.00	1380.00	1375.00	1368.50	1364.00	1360.00	1350.00	1343.50	1333.00	1327.00	1316.50	1309.50	1296.50	1289.50	1283.00	1273.00	1258.50	1244.00	1234.00	1220.00	1210.00	1196.00	1181.50	1167.00	1157.00	1145.00	1136.50	1124.00	1111.50
1384.00	1449.00	1451.00	1454.00	1456.00	1457.50	1460.00	1461.00	1465.00	1466.00	1466.50	1467.50	1468.50	1469.50	1470.50	1472.00	1472.00	1473.50	1474.00	1474.00	1474.00	1473.50	1473.00	1473.00	1473.00	1473.00	1472.50	1472.00	1471.50	1469.50	1468.50	1467.00	1466.00	1464.50	1463.00	1461.50	1460.50	1458.00	1457.00	1454.50	1452.00	1450.00	1448.50	1447.00	1444.00	1442.00	1440.00	1438.00	1435.00	1433.50	1430.00	1428.00	1426.50	1424.00	1422.00	1419.00	1417.00	1415.00	1413.50	1412.00	1408.50	1407.00	1404.00	1403.00	1401.50	1400.50	1398.00	1396.50	1395.50	1394.00	1393.00	1391.00	1390.00	1390.00	1389.50	1389.00	1388.00	1388.00	1387.00	1387.00	1386.50	1386.00	1385.00	1384.50	1383.50	1383.00	1382.00	1381.00	1380.00	1379.50	1378.50	1376.50	1375.50	1374.50	1373.00	1371.50	1370.50	1369.00	1367.50	1365.50	1361.00	1358.00	1353.50	1349.00	1344.50	1341.50	1338.50	1333.00	1331.00	1328.00	1326.00	1323.00	1321.00	1316.00	1314.00	1312.00	1309.00	1308.00	1308.00	1308.00	1307.50	1307.00	1307.00	1307.00	1306.50	1306.00	1307.00	1307.50	1308.50	1309.50	1310.00	1310.50	1312.00	1312.50	1314.00	1317.00	1321.50	1324.50	1330.00	1334.50	1337.50	1343.00	1347.50	1350.50	1354.00	1362.00	1366.00	1371.00	1375.00	1381.00	1387.00	1392.50	1396.00	1399.50	1404.50	1407.50	1412.00	1414.00	1418.50	1421.50	1426.50	1429.00	1431.00	1434.00	1436.00	1440.00	1442.00	1445.00	1447.00	1449.00	1452.50	1453.50	1454.00	1455.00	1456.00	1456.50	1458.50	1459.00	1459.50	1461.00	1460.00	1460.00	1459.00	1459.00	1458.50	1458.00	1457.50	1457.00	1457.00	1457.00	1457.50	1458.00	1458.50	1459.00	1460.00	1460.00	1460.50	1461.00	1461.00	1461.50	1462.00	1462.00	1462.00	1462.00	1462.00	1462.00	1462.00	1460.50	1458.00	1456.50	1455.00	1453.00	1450.00	1449.00	1446.50	1445.00	1442.00	1435.00	1431.50	1427.00	1423.00	1418.00	1414.50	1407.50	1404.00	1400.00	1393.00	1389.00	1380.00	1375.00	1368.50	1364.00	1360.00	1350.00	1343.50	1333.00	1327.00	1316.50	1309.50	1296.50	1289.50	1283.00	1273.00	1258.50	1244.00	1234.00	1220.00	1210.00	1196.00	1181.50	1167.00	1157.00	1145.00	1136.50	1124.00	1111.50
1399.50	1468.50	1470.50	1474.00	1476.00	1478.00	1481.00	1482.50	1486.50	1487.50	1488.50	1489.50	1490.50	1492.00	1493.00	1494.50	1495.00	1496.50	1496.75	1496.50	1496.50	1496.00	1495.50	1495.50	1495.00	1495.00	1494.25	1493.75	1493.00	1491.00	1490.00	1488.50	1487.50	1486.00	1484.00	1482.50	1481.50	1479.00	1478.00	1475.50	1473.00	1470.75	1469.25	1467.75	1464.75	1463.00	1460.50	1458.50	1456.00	1454.25	1451.00	1449.00	1447.25	1445.00	1443.00	1440.00	1438.50	1436.25	1435.00	1433.50	1430.25	1428.75	1426.50	1425.00	1423.50	1422.50	1419.75	1418.50	1417.25	1415.50	1414.50	1412.00	1411.00	1410.25	1409.25	1408.25	1406.75	1406.00	1404.50	1404.00	1402.75	1401.75	1400.00	1399.00	1398.00	1396.50	1395.25	1393.50	1392.50	1391.25	1390.00	1388.00	1387.00	1386.00	1384.00	1382.50	1381.50	1380.00	1378.25	1376.00	1371.50	1369.00	1364.50	1360.00	1355.50	1352.50	1349.50	1343.75	1341.50	1338.00	1335.50	1332.25	1329.75	1324.75	1322.25	1320.00	1316.50	1315.50	1316.00	1316.50	1316.75	1316.75	1317.25	1317.75	1318.00	1318.50	1319.50	1321.25	1322.75	1325.50	1327.00	1328.25	1330.50	1332.25	1334.50	1338.00	1343.75	1347.25	1353.50	1358.75	1362.50	1368.50	1374.25	1377.75	1381.50	1389.50	1393.50	1399.00	1403.00	1409.50	1415.50	1421.25	1425.00	1428.25	1433.50	1436.50	1440.50	1443.00	1447.50	1450.50	1455.50	1458.25	1460.25	1463.00	1465.00	1468.50	1470.00	1473.00	1474.75	1476.50	1480.00	1480.75	1480.50	1481.00	1481.50	1481.75	1482.75	1483.00	1483.00	1483.50	1483.00	1483.00	1482.00	1482.00	1481.75	1481.50	1481.00	1480.50	1480.50	1481.50	1482.75	1484.00	1486.50	1488.00	1490.00	1491.00	1492.75	1494.50	1495.25	1496.00	1496.75	1497.00	1497.75	1498.50	1499.00	1499.50	1499.75	1499.25	1497.75	1496.75	1495.50	1494.50	1492.50	1491.50	1490.25	1489.25	1486.50	1479.00	1475.50	1470.50	1466.50	1461.00	1457.50	1450.25	1446.50	1442.25	1435.00	1430.50	1420.50	1415.50	1408.50	1403.75	1399.25	1388.75	1382.25	1371.50	1364.50	1354.00	1346.75	1332.75	1325.50	1318.50	1308.00	1293.75	1279.00	1269.00	1254.50	1244.50	1230.00	1215.25	1200.50	1190.50	1175.50	1165.25	1149.75	1134.25
1415.00	1488.00	1490.00	1494.00	1496.00	1498.50	1502.00	1504.00	1508.00	1509.00	1510.50	1511.50	1512.50	1514.50	1515.50	1517.00	1518.00	1519.50	1519.50	1519.00	1519.00	1518.50	1518.00	1518.00	1517.00	1517.00	1516.00	1515.50	1514.50	1512.50	1511.50	1510.00	1509.00	1507.50	1505.00	1503.50	1502.50	1500.00	1499.00	1496.50	1494.00	1491.50	1490.00	1488.50	1485.50	1484.00	1481.00	1479.00	1477.00	1475.00	1472.00	1470.00	1468.00	1466.00	1464.00	1461.00	1460.00	1457.50	1456.50	1455.00	1452.00	1450.50	1449.00	1447.00	1445.50	1444.50	1441.50	1440.50	1439.00	1437.00	1436.00	1433.00	1432.00	1430.50	1429.00	1427.50	1425.50	1424.00	1422.00	1421.00	1419.00	1417.50	1415.00	1413.50	1412.50	1410.00	1408.50	1406.00	1405.00	1403.00	1401.50	1399.50	1398.50	1397.50	1395.00	1393.50	1392.50	1391.00	1389.00	1386.50	1382.00	1380.00	1375.50	1371.00	1366.50	1363.50	1360.50	1354.50	1352.00	1348.00	1345.00	1341.50	1338.50	1333.50	1330.50	1328.00	1324.00	1323.00	1324.00	1325.00	1326.00	1326.50	1327.50	1328.50	1329.50	1331.00	1332.00	1335.00	1337.00	1341.50	1344.00	1346.00	1349.00	1352.00	1355.00	1359.00	1366.00	1370.00	1377.00	1383.00	1387.50	1394.00	1401.00	1405.00	1409.00	1417.00	1421.00	1427.00	1431.00	1438.00	1444.00	1450.00	1454.00	1457.00	1462.50	1465.50	1469.00	1472.00	1476.50	1479.50	1484.50	1487.50	1489.50	1492.00	1494.00	1497.00	1498.00	1501.00	1502.50	1504.00	1507.50	1508.00	1507.00	1507.00	1507.00	1507.00	1507.00	1507.00	1506.50	1506.00	1506.00	1506.00	1505.00	1505.00	1505.00	1505.00	1504.50	1504.00	1504.00	1506.00	1508.00	1510.00	1514.50	1517.00	1520.00	1522.00	1525.00	1528.00	1529.50	1530.50	1531.50	1532.00	1533.50	1535.00	1536.00	1537.00	1537.50	1538.00	1537.50	1537.00	1536.00	1536.00	1535.00	1534.00	1534.00	1533.50	1531.00	1523.00	1519.50	1514.00	1510.00	1504.00	1500.50	1493.00	1489.00	1484.50	1477.00	1472.00	1461.00	1456.00	1448.50	1443.50	1438.50	1427.50	1421.00	1410.00	1402.00	1391.50	1384.00	1369.00	1361.50	1354.00	1343.00	1329.00	1314.00	1304.00	1289.00	1279.00	1264.00	1249.00	1234.00	1224.00	1206.00	1194.00	1175.50	1157.00
1415.00	1488.00	1490.00	1494.00	1496.00	1498.50	1502.00	1504.00	1508.00	1509.00	1510.50	1511.50	1512.50	1514.50	1515.50	1517.00	1518.00	1519.50	1519.50	1519.00	1519.00	1518.50	1518.00	1518.00	1517.00	1517.00	1516.00	1515.50	1514.50	1512.50	1511.50	1510.00	1509.00	1507.50	1505.00	1503.50	1502.50	1500.00	1499.00	1496.50	1494.00	1491.50	1490.00	1488.50	1485.50	1484.00	1481.00	1479.00	1477.00	1475.00	1472.00	1470.00	1468.00	1466.00	1464.00	1461.00	1460.00	1457.50	1456.50	1455.00	1452.00	1450.50	1449.00	1447.00	1445.50	1444.50	1441.50	1440.50	1439.00	1437.00	1436.00	1433.00	1432.00	1430.50	1429.00	1427.50	1425.50	1424.00	1422.00	1421.00	1419.00	1417.50	1415.00	1413.50	1412.50	1410.00	1408.50	1406.00	1405.00	1403.00	1401.50	1399.50	1398.50	1397.50	1395.00	1393.50	1392.50	1391.00	1389.00	1386.50	1382.00	1380.00	1375.50	1371.00	1366.50	1363.50	1360.50	1354.50	1352.00	1348.00	1345.00	1341.50	1338.50	1333.50	1330.50	1328.00	1324.00	1323.00	1324.00	1325.00	1326.00	1326.50	1327.50	1328.50	1329.50	1331.00	1332.00	1335.00	1337.00	1341.50	1344.00	1346.00	1349.00	1352.00	1355.00	1359.00	1366.00	1370.00	1377.00	1383.00	1387.50	1394.00	1401.00	1405.00	1409.00	1417.00	1421.00	1427.00	1431.00	1438.00	1444.00	1450.00	1454.00	1457.00	1462.50	1465.50	1469.00	1472.00	1476.50	1479.50	1484.50	1487.50	1489.50	1492.00	1494.00	1497.00	1498.00	1501.00	1502.50	1504.00	1507.50	1508.00	1507.00	1507.00	1507.00	1507.00	1507.00	1507.00	1506.50	1506.00	1506.00	1506.00	1505.00	1505.00	1505.00	1505.00	1504.50	1504.00	1504.00	1506.00	1508.00	1510.00	1514.50	1517.00	1520.00	1522.00	1525.00	1528.00	1529.50	1530.50	1531.50	1532.00	1533.50	1535.00	1536.00	1537.00	1537.50	1538.00	1537.50	1537.00	1536.00	1536.00	1535.00	1534.00	1534.00	1533.50	1531.00	1523.00	1519.50	1514.00	1510.00	1504.00	1500.50	1493.00	1489.00	1484.50	1477.00	1472.00	1461.00	1456.00	1448.50	1443.50	1438.50	1427.50	1421.00	1410.00	1402.00	1391.50	1384.00	1369.00	1361.50	1354.00	1343.00	1329.00	1314.00	1304.00	1289.00	1279.00	1264.00	1249.00	1234.00	1224.00	1206.00	1194.00	1175.50	1157.00
1415.00	1488.00	1490.00	1494.00	1496.00	1498.50	1502.00	1504.00	1508.00	1509.00	1510.50	1511.50	1512.50	1514.50	1515.50	1517.00	1518.00	1519.50	1519.50	1519.00	1519.00	1518.50	1518.00	1518.00	1517.00	1517.00	1516.00	1515.50	1514.50	1512.50	1511.50	1510.00	1509.00	1507.50	1505.00	1503.50	1502.50	1500.00	1499.00	1496.50	1494.00	1491.50	1490.00	1488.50	1485.50	1484.00	1481.00	1479.00	1477.00	1475.00	1472.00	1470.00	1468.00	1466.00	1464.00	1461.00	1460.00	1457.50	1456.50	1455.00	1452.00	1450.50	1449.00	1447.00	1445.50	1444.50	1441.50	1440.50	1439.00	1437.00	1436.00	1433.00	1432.00	1430.50	1429.00	1427.50	1425.50	1424.00	1422.00	1421.00	1419.00	1417.50	1415.00	1413.50	1412.50	1410.00	1408.50	1406.00	1405.00	1403.00	1401.50	1399.50	1398.50	1397.50	1395.00	1393.50	1392.50	1391.00	1389.00	1386.50	1382.00	1380.00	1375.50	1371.00	1366.50	1363.50	1360.50	1354.50	1352.00	1348.00	1345.00	1341.50	1338.50	1333.50	1330.50	1328.00	1324.00	1323.00	1324.00	1325.00	1326.00	1326.50	1327.50	1328.50	1329.50	1331.00	1332.00	1335.00	1337.00	1341.50	1344.00	1346.00	1349.00	1352.00	1355.00	1359.00	1366.00	1370.00	1377.00	1383.00	1387.50	1394.00	1401.00	1405.00	1409.00	1417.00	1421.00	1427.00	1431.00	1438.00	1444.00	1450.00	1454.00	1457.00	1462.50	1465.50	1469.00	1472.00	1476.50	1479.50	1484.50	1487.50	1489.50	1492.00	1494.00	1497.00	1498.00	1501.00	1502.50	1504.00	1507.50	1508.00	1507.00	1507.00	1507.00	1507.00	1507.00	1507.00	1506.50	1506.00	1506.00	1506.00	1505.00	1505.00	1505.00	1505.00	1504.50	1504.00	1504.00	1506.00	1508.00	1510.00	1514.50	1517.00	1520.00	1522.00	1525.00	1528.00	1529.50	1530.50	1531.50	1532.00	1533.50	1535.00	1536.00	1537.00	1537.50	1538.00	1537.50	1537.00	1536.00	1536.00	1535.00	1534.00	1534.00	1533.50	1531.00	1523.00	1519.50	1514.00	1510.00	1504.00	1500.50	1493.00	1489.00	1484.50	1477.00	1472.00	1461.00	1456.00	1448.50	1443.50	1438.50	1427.50	1421.00	1410.00	1402.00	1391.50	1384.00	1369.00	1361.50	1354.00	1343.00	1329.00	1314.00	1304.00	1289.00	1279.00	1264.00	1249.00	1234.00	1224.00	1206.00	1194.00	1175.50	1157.00
1415.00	1488.00	1490.00	1494.00	1496.00	1498.50	1502.00	1504.00	1508.00	1509.00	1510.50	1511.50	1512.50	1514.50	1515.50	1517.00	1518.00	1519.50	1519.50	1519.00	1519.00	1518.50	1518.00	1518.00	1517.00	1517.00	1516.00	1515.50	1514.50	1512.50	1511.50	1510.00	1509.00	1507.50	1505.00	1503.50	1502.50	1500.00	1499.00	1496.50	1494.00	1491.50	1490.00	1488.50	1485.50	1484.00	1481.00	1479.00	1477.00	1475.00	1472.00	1470.00	1468.00	1466.00	1464.00	1461.00	1460.00	1457.50	1456.50	1455.00	1452.00	1450.50	1449.00	1447.00	1445.50	1444.50	1441.50	1440.50	1439.00	1437.00	1436.00	1433.00	1432.00	1430.50	1429.00	1427.50	1425.50	1424.00	1422.00	1421.00	1419.00	1417.50	1415.00	1413.50	1412.50	1410.00	1408.50	1406.00	1405.00	1403.00	1401.50	1399.50	1398.50	1397.50	1395.00	1393.50	1392.50	1391.00	1389.00	1386.50	1382.00	1380.00	1375.50	1371.00	1366.50	1363.50	1360.50	1354.50	1352.00	1348.00	1345.00	1341.50	1338.50	1333.50	1330.50	1328.00	1324.00	1323.00	1324.00	1325.00	1326.00	1326.50	1327.50	1328.50	1329.50	1331.00	1332.00	1335.00	1337.00	1341.50	1344.00	1346.00	1349.00	1352.00	1355.00	1359.00	1366.00	1370.00	1377.00	1383.00	1387.50	1394.00	1401.00	1405.00	1409.00	1417.00	1421.00	1427.00	1431.00	1438.00	1444.00	1450.00	1454.00	1457.00	1462.50	1465.50	1469.00	1472.00	1476.50	1479.50	1484.50	1487.50	1489.50	1492.00	1494.00	1497.00	1498.00	1501.00	1502.50	1504.00	1507.50	1508.00	1507.00	1507.00	1507.00	1507.00	1507.00	1507.00	1506.50	1506.00	1506.00	1506.00	1505.00	1505.00	1505.00	1505.00	1504.50	1504.00	1504.00	1506.00	1508.00	1510.00	1514.50	1517.00	1520.00	1522.00	1525.00	1528.00	1529.50	1530.50	1531.50	1532.00	1533.50	1535.00	1536.00	1537.00	1537.50	1538.00	1537.50	1537.00	1536.00	1536.00	1535.00	1534.00	1534.00	1533.50	1531.00	1523.00	1519.50	1514.00	1510.00	1504.00	1500.50	1493.00	1489.00	1484.50	1477.00	1472.00	1461.00	1456.00	1448.50	1443.50	1438.50	1427.50	1421.00	1410.00	1402.00	1391.50	1384.00	1369.00	1361.50	1354.00	1343.00	1329.00	1314.00	1304.00	1289.00	1279.00	1264.00	1249.00	1234.00	1224.00	1206.00	1194.00	1175.50	1157.00
1415.00	1488.00	1490.00	1494.00	1496.00	1498.50	1502.00	1504.00	1508.00	1509.00	1510.50	1511.50	1512.50	1514.50	1515.50	1517.00	1518.00	1519.50	1519.50	1519.00	1519.00	1518.50	1518.00	1518.00	1517.00	1517.00	1516.00	1515.50	1514.50	1512.50	1511.50	1510.00	1509.00	1507.50	1505.00	1503.50	1502.50	1500.00	1499.00	1496.50	1494.00	1491.50	1490.00	1488.50	1485.50	1484.00	1481.00	1479.00	1477.00	1475.00	1472.00	1470.00	1468.00	1466.00	1464.00	1461.00	1460.00	1457.50	1456.50	1455.00	1452.00	1450.50	1449.00	1447.00	1445.50	1444.50	1441.50	1440.50	1439.00	1437.00	1436.00	1433.00	1432.00	1430.50	1429.00	1427.50	1425.50	1424.00	1422.00	1421.00	1419.00	1417.50	1415.00	1413.50	1412.50	1410.00	1408.50	1406.00	1405.00	1403.00	1401.50	1399.50	1398.50	1397.50	1395.00	1393.50	1392.50	1391.00	1389.00	1386.50	1382.00	1380.00	1375.50	1371.00	1366.50	1363.50	1360.50	1354.50	1352.00	1348.00	1345.00	1341.50	1338.50	1333.50	1330.50	1328.00	1324.00	1323.00	1324.00	1325.00	1326.00	1326.50	1327.50	1328.50	1329.50	1331.00	1332.00	1335.00	1337.00	1341.50	1344.00	1346.00	1349.00	1352.00	1355.00	1359.00	1366.00	1370.00	1377.00	1383.00	1387.50	1394.00	1401.00	1405.00	1409.00	1417.00	1421.00	1427.00	1431.00	1438.00	1444.00	1450.00	1454.00	1457.00	1462.50	1465.50	1469.00	1472.00	1476.50	1479.50	1484.50	1487.50	1489.50	1492.00	1494.00	1497.00	1498.00	1501.00	1502.50	1504.00	1507.50	1508.00	1507.00	1507.00	1507.00	1507.00	1507.00	1507.00	1506.50	1506.00	1506.00	1506.00	1505.00	1505.00	1505.00	1505.00	1504.50	1504.00	1504.00	1506.00	1508.00	1510.00	1514.50	1517.00	1520.00	1522.00	1525.00	1528.00	1529.50	1530.50	1531.50	1532.00	1533.50	1535.00	1536.00	1537.00	1537.50	1538.00	1537.50	1537.00	1536.00	1536.00	1535.00	1534.00	1534.00	1533.50	1531.00	1523.00	1519.50	1514.00	1510.00	1504.00	1500.50	1493.00	1489.00	1484.50	1477.00	1472.00	1461.00	1456.00	1448.50	1443.50	1438.50	1427.50	1421.00	1410.00	1402.00	1391.50	1384.00	1369.00	1361.50	1354.00	1343.00	1329.00	1314.00	1304.00	1289.00	1279.00	1264.00	1249.00	1234.00	1224.00	1206.00	1194.00	1175.50	1157.00
1415.00	1488.00	1490.00	1494.00	1496.00	1498.50	1502.00	1504.00	1508.00	1509.00	1510.50	1511.50	1512.50	1514.50	1515.50	1517.00	1518.00	1519.50	1519.50	1519.00	1519.00	1518.50	1518.00	1518.00	1517.00	1517.00	1516.00	1515.50	1514.50	1512.50	1511.50	1510.00	1509.00	1507.50	1505.00	1503.50	1502.50	1500.00	1499.00	1496.50	1494.00	1491.50	1490.00	1488.50	1485.50	1484.00	1481.00	1479.00	1477.00	1475.00	1472.00	1470.00	1468.00	1466.00	1464.00	1461.00	1460.00	1457.50	1456.50	1455.00	1452.00	1450.50	1449.00	1447.00	1445.50	1444.50	1441.50	1440.50	1439.00	1437.00	1436.00	1433.00	1432.00	1430.50	1429.00	1427.50	1425.50	1424.00	1422.00	1421.00	1419.00	1417.50	1415.00	1413.50	1412.50	1410.00	1408.50	1406.00	1405.00	1403.00	1401.50	1399.50	1398.50	1397.50	1395.00	1393.50	1392.50	1391.00	1389.00	1386.50	1382.00	1380.00	1375.50	1371.00	1366.50	1363.50	1360.50	1354.50	1352.00	1348.00	1345.00	1341.50	1338.50	1333.50	1330.50	1328.00	1324.00	1323.00	1324.00	1325.00	1326.00	1326.50	1327.50	1328.50	1329.50	1331.00	1332.00	1335.00	1337.00	1341.50	1344.00	1346.00	1349.00	1352.00	1355.00	1359.00	1366.00	1370.00	1377.00	1383.00	1387.50	1394.00	1401.00	1405.00	1409.00	1417.00	1421.00	1427.00	1431.00	1438.00	1444.00	1450.00	1454.00	1457.00	1462.50	1465.50	1469.00	1472.00	1476.50	1479.50	1484.50	1487.50	1489.50	1492.00	1494.00	1497.00	1498.00	1501.00	1502.50	1504.00	1507.50	1508.00	1507.00	1507.00	1507.00	1507.00	1507.00	1507.00	1506.50	1506.00	1506.00	1506.00	1505.00	1505.00	1505.00	1505.00	1504.50	1504.00	1504.00	1506.00	1508.00	1510.00	1514.50	1517.00	1520.00	1522.00	1525.00	1528.00	1529.50	1530.50	1531.50	1532.00	1533.50	1535.00	1536.00	1537.00	1537.50	1538.00	1537.50	1537.00	1536.00	1536.00	1535.00	1534.00	1534.00	1533.50	1531.00	1523.00	1519.50	1514.00	1510.00	1504.00	1500.50	1493.00	1489.00	1484.50	1477.00	1472.00	1461.00	1456.00	1448.50	1443.50	1438.50	1427.50	1421.00	1410.00	1402.00	1391.50	1384.00	1369.00	1361.50	1354.00	1343.00	1329.00	1314.00	1304.00	1289.00	1279.00	1264.00	1249.00	1234.00	1224.00	1206.00	1194.00	1175.50	1157.00
1415.00	1488.00	1490.00	1494.00	1496.00	1498.50	1502.00	1504.00	1508.00	1509.00	1510.50	1511.50	1512.50	1514.50	1515.50	1517.00	1518.00	1519.50	1519.50	1519.00	1519.00	1518.50	1518.00	1518.00	1517.00	1517.00	1516.00	1515.50	1514.50	1512.50	1511.50	1510.00	1509.00	1507.50	1505.00	1503.50	1502.50	1500.00	1499.00	1496.50	1494.00	1491.50	1490.00	1488.50	1485.50	1484.00	1481.00	1479.00	1477.00	1475.00	1472.00	1470.00	1468.00	1466.00	1464.00	1461.00	1460.00	1457.50	1456.50	1455.00	1452.00	1450.50	1449.00	1447.00	1445.50	1444.50	1441.50	1440.50	1439.00	1437.00	1436.00	1433.00	1432.00	1430.50	1429.00	1427.50	1425.50	1424.00	1422.00	1421.00	1419.00	1417.50	1415.00	1413.50	1412.50	1410.00	1408.50	1406.00	1405.00	1403.00	1401.50	1399.50	1398.50	1397.50	1395.00	1393.50	1392.50	1391.00	1389.00	1386.50	1382.00	1380.00	1375.50	1371.00	1366.50	1363.50	1360.50	1354.50	1352.00	1348.00	1345.00	1341.50	1338.50	1333.50	1330.50	1328.00	1324.00	1323.00	1324.00	1325.00	1326.00	1326.50	1327.50	1328.50	1329.50	1331.00	1332.00	1335.00	1337.00	1341.50	1344.00	1346.00	1349.00	1352.00	1355.00	1359.00	1366.00	1370.00	1377.00	1383.00	1387.50	1394.00	1401.00	1405.00	1409.00	1417.00	1421.00	1427.00	1431.00	1438.00	1444.00	1450.00	1454.00	1457.00	1462.50	1465.50	1469.00	1472.00	1476.50	1479.50	1484.50	1487.50	1489.50	1492.00	1494.00	1497.00	1498.00	1501.00	1502.50	1504.00	1507.50	1508.00	1507.00	1507.00	1507.00	1507.00	1507.00	1507.00	1506.50	1506.00	1506.00	1506.00	1505.00	1505.00	1505.00	1505.00	1504.50	1504.00	1504.00	1506.00	1508.00	1510.00	1514.50	1517.00	1520.00	1522.00	1525.00	1528.00	1529.50	1530.50	1531.50	1532.00	1533.50	1535.00	1536.00	1537.00	1537.50	1538.00	1537.50	1537.00	1536.00	1536.00	1535.00	1534.00	1534.00	1533.50	1531.00	1523.00	1519.50	1514.00	1510.00	1504.00	1500.50	1493.00	1489.00	1484.50	1477.00	1472.00	1461.00	1456.00	1448.50	1443.50	1438.50	1427.50	1421.00	1410.00	1402.00	1391.50	1384.00	1369.00	1361.50	1354.00	1343.00	1329.00	1314.00	1304.00	1289.00	1279.00	1264.00	1249.00	1234.00	1224.00	1206.00	1194.00	1175.50	1157.00
1415.00	1488.00	1490.00	1494.00	1496.00	1498.50	1502.00	1504.00	1508.00	1509.00	1510.50	1511.50	1512.50	1514.50	1515.50	1517.00	1518.00	1519.50	1519.50	1519.00	1519.00	1518.50	1518.00	1518.00	1517.00	1517.00	1516.00	1515.50	1514.50	1512.50	1511.50	1510.00	1509.00	1507.50	1505.00	1503.50	1502.50	1500.00	1499.00	1496.50	1494.00	1491.50	1490.00	1488.50	1485.50	1484.00	1481.00	1479.00	1477.00	1475.00	1472.00	1470.00	1468.00	1466.00	1464.00	1461.00	1460.00	1457.50	1456.50	1455.00	1452.00	1450.50	1449.00	1447.00	1445.50	1444.50	1441.50	1440.50	1439.00	1437.00	1436.00	1433.00	1432.00	1430.50	1429.00	1427.50	1425.50	1424.00	1422.00	1421.00	1419.00	1417.50	1415.00	1413.50	1412.50	1410.00	1408.50	1406.00	1405.00	1403.00	1401.50	1399.50	1398.50	1397.50	1395.00	1393.50	1392.50	1391.00	1389.00	1386.50	1382.00	1380.00	1375.50	1371.00	1366.50	1363.50	1360.50	1354.50	1352.00	1348.00	1345.00	1341.50	1338.50	1333.50	1330.50	1328.00	1324.00	1323.00	1324.00	1325.00	1326.00	1326.50	1327.50	1328.50	1329.50	1331.00	1332.00	1335.00	1337.00	1341.50	1344.00	1346.00	1349.00	1352.00	1355.00	1359.00	1366.00	1370.00	1377.00	1383.00	1387.50	1394.00	1401.00	1405.00	1409.00	1417.00	1421.00	1427.00	1431.00	1438.00	1444.00	1450.00	1454.00	1457.00	1462.50	1465.50	1469.00	1472.00	1476.50	1479.50	1484.50	1487.50	1489.50	1492.00	1494.00	1497.00	1498.00	1501.00	1502.50	1504.00	1507.50	1508.00	1507.00	1507.00	1507.00	1507.00	1507.00	1507.00	1506.50	1506.00	1506.00	1506.00	1505.00	1505.00	1505.00	1505.00	1504.50	1504.00	1504.00	1506.00	1508.00	1510.00	1514.50	1517.00	1520.00	1522.00	1525.00	1528.00	1529.50	1530.50	1531.50	1532.00	1533.50	1535.00	1536.00	1537.00	1537.50	1538.00	1537.50	1537.00	1536.00	1536.00	1535.00	1534.00	1534.00	1533.50	1531.00	1523.00	1519.50	1514.00	1510.00	1504.00	1500.50	1493.00	1489.00	1484.50	1477.00	1472.00	1461.00	1456.00	1448.50	1443.50	1438.50	1427.50	1421.00	1410.00	1402.00	1391.50	1384.00	1369.00	1361.50	1354.00	1343.00	1329.00	1314.00	1304.00	1289.00	1279.00	1264.00	1249.00	1234.00	1224.00	1206.00	1194.00	1175.50	1157.00
1456.00	1519.50	1522.50	1528.50	1531.00	1533.50	1538.00	1541.00	1546.00	1548.00	1550.50	1551.50	1552.50	1555.50	1556.50	1559.00	1560.00	1562.00	1562.50	1562.00	1561.50	1561.00	1560.00	1560.00	1559.00	1558.00	1558.00	1557.00	1555.50	1552.50	1551.50	1549.00	1548.00	1546.00	1544.00	1541.50	1540.00	1537.00	1536.00	1533.00	1530.00	1528.00	1526.00	1524.00	1521.00	1519.00	1516.00	1515.00	1512.00	1510.00	1507.00	1505.00	1503.00	1501.00	1499.00	1496.00	1495.00	1493.00	1491.50	1490.50	1487.50	1486.00	1484.00	1483.00	1481.50	1480.00	1477.50	1476.50	1475.50	1474.00	1473.00	1471.00	1469.00	1467.00	1465.50	1464.00	1460.50	1459.00	1457.00	1455.00	1453.00	1451.00	1448.00	1446.00	1444.00	1441.00	1439.00	1436.00	1434.00	1431.50	1430.00	1426.50	1425.00	1423.00	1421.00	1418.00	1416.50	1414.00	1411.50	1409.50	1405.00	1402.00	1398.50	1394.00	1390.50	1387.50	1384.50	1379.50	1377.00	1374.00	1371.00	1368.00	1366.00	1362.00	1359.50	1357.00	1354.00	1353.00	1356.00	1358.00	1360.00	1362.00	1363.50	1366.50	1368.00	1371.00	1373.00	1378.00	1381.50	1388.50	1392.00	1395.50	1401.00	1406.00	1411.00	1416.00	1422.50	1427.50	1435.00	1442.50	1447.50	1454.00	1461.50	1466.50	1471.50	1480.00	1484.00	1490.00	1494.00	1501.00	1507.00	1513.00	1517.00	1521.00	1526.50	1529.50	1533.00	1536.00	1540.50	1543.00	1548.50	1551.50	1553.50	1555.00	1556.00	1559.00	1560.00	1561.50	1563.00	1564.50	1566.50	1567.00	1567.00	1567.00	1568.00	1568.00	1568.00	1568.00	1568.00	1568.00	1569.00	1572.00	1573.00	1576.00	1577.50	1580.00	1582.50	1584.00	1587.00	1590.50	1593.00	1595.50	1601.50	1604.00	1608.00	1611.00	1615.50	1619.00	1623.50	1626.50	1629.00	1633.00	1637.00	1641.00	1644.00	1648.00	1650.50	1652.00	1651.00	1649.50	1647.00	1646.00	1643.00	1642.00	1639.50	1638.00	1635.50	1628.00	1624.00	1617.00	1613.00	1607.00	1603.00	1594.00	1590.00	1585.50	1577.00	1572.00	1560.00	1555.00	1546.50	1541.00	1535.00	1524.00	1516.50	1502.00	1493.00	1478.00	1468.00	1449.00	1439.00	1429.00	1414.00	1398.00	1381.00	1369.00	1351.00	1339.00	1321.00	1303.00	1285.00	1273.00	1253.50	1238.00	1215.00	1192.50
1456.00	1519.50	1522.50	1528.50	1531.00	1533.50	1538.00	1541.00	1546.00	1548.00	1550.50	1551.50	1552.50	1555.50	1556.50	1559.00	1560.00	1562.00	1562.50	1562.00	1561.50	1561.00	1560.00	1560.00	1559.00	1558.00	1558.00	1557.00	1555.50	1552.50	1551.50	1549.00	1548.00	1546.00	1544.00	1541.50	1540.00	1537.00	1536.00	1533.00	1530.00	1528.00	1526.00	1524.00	1521.00	1519.00	1516.00	1515.00	1512.00	1510.00	1507.00	1505.00	1503.00	1501.00	1499.00	1496.00	1495.00	1493.00	1491.50	1490.50	1487.50	1486.00	1484.00	1483.00	1481.50	1480.00	1477.50	1476.50	1475.50	1474.00	1473.00	1471.00	1469.00	1467.00	1465.50	1464.00	1460.50	1459.00	1457.00	1455.00	1453.00	1451.00	1448.00	1446.00	1444.00	1441.00	1439.00	1436.00	1434.00	1431.50	1430.00	1426.50	1425.00	1423.00	1421.00	1418.00	1416.50	1414.00	1411.50	1409.50	1405.00	1402.00	1398.50	1394.00	1390.50	1387.50	1384.50	1379.50	1377.00	1374.00	1371.00	1368.00	1366.00	1362.00	1359.50	1357.00	1354.00	1353.00	1356.00	1358.00	1360.00	1362.00	1363.50	1366.50	1368.00	1371.00	1373.00	1378.00	1381.50	1388.50	1392.00	1395.50	1401.00	1406.00	1411.00	1416.00	1422.50	1427.50	1435.00	1442.50	1447.50	1454.00	1461.50	1466.50	1471.50	1480.00	1484.00	1490.00	1494.00	1501.00	1507.00	1513.00	1517.00	1521.00	1526.50	1529.50	1533.00	1536.00	1540.50	1543.00	1548.50	1551.50	1553.50	1555.00	1556.00	1559.00	1560.00	1561.50	1563.00	1564.50	1566.50	1567.00	1567.00	1567.00	1568.00	1568.00	1568.00	1568.00	1568.00	1568.00	1569.00	1572.00	1573.00	1576.00	1577.50	1580.00	1582.50	1584.00	1587.00	1590.50	1593.00	1595.50	1601.50	1604.00	1608.00	1611.00	1615.50	1619.00	1623.50	1626.50	1629.00	1633.00	1637.00	1641.00	1644.00	1648.00	1650.50	1652.00	1651.00	1649.50	1647.00	1646.00	1643.00	1642.00	1639.50	1638.00	1635.50	1628.00	1624.00	1617.00	1613.00	1607.00	1603.00	1594.00	1590.00	1585.50	1577.00	1572.00	1560.00	1555.00	1546.50	1541.00	1535.00	1524.00	1516.50	1502.00	1493.00	1478.00	1468.00	1449.00	1439.00	1429.00	1414.00	1398.00	1381.00	1369.00	1351.00	1339.00	1321.00	1303.00	1285.00	1273.00	1253.50	1238.00	1215.00	1192.50
1456.00	1519.50	1522.50	1528.50	1531.00	1533.50	1538.00	1541.00	1546.00	1548.00	1550.50	1551.50	1552.50	1555.50	1556.50	1559.00	1560.00	1562.00	1562.50	1562.00	1561.50	1561.00	1560.00	1560.00	1559.00	1558.00	1558.00	1557.00	1555.50	1552.50	1551.50	1549.00	1548.00	1546.00	1544.00	1541.50	1540.00	1537.00	1536.00	1533.00	1530.00	1528.00	1526.00	1524.00	1521.00	1519.00	1516.00	1515.00	1512.00	1510.00	1507.00	1505.00	1503.00	1501.00	1499.00	1496.00	1495.00	1493.00	1491.50	1490.50	1487.50	1486.00	1484.00	1483.00	1481.50	1480.00	1477.50	1476.50	1475.50	1474.00	1473.00	1471.00	1469.00	1467.00	1465.50	1464.00	1460.50	1459.00	1457.00	1455.00	1453.00	1451.00	1448.00	1446.00	1444.00	1441.00	1439.00	1436.00	1434.00	1431.50	1430.00	1426.50	1425.00	1423.00	1421.00	1418.00	1416.50	1414.00	1411.50	1409.50	1405.00	1402.00	1398.50	1394.00	1390.50	1387.50	1384.50	1379.50	1377.00	1374.00	1371.00	1368.00	1366.00	1362.00	1359.50	1357.00	1354.00	1353.00	1356.00	1358.00	1360.00	1362.00	1363.50	1366.50	1368.00	1371.00	1373.00	1378.00	1381.50	1388.50	1392.00	1395.50	1401.00	1406.00	1411.00	1416.00	1422.50	1427.50	1435.00	1442.50	1447.50	1454.00	1461.50	1466.50	1471.50	1480.00	1484.00	1490.00	1494.00	1501.00	1507.00	1513.00	1517.00	1521.00	1526.50	1529.50	1533.00	1536.00	1540.50	1543.00	1548.50	1551.50	1553.50	1555.00	1556.00	1559.00	1560.00	1561.50	1563.00	1564.50	1566.50	1567.00	1567.00	1567.00	1568.00	1568.00	1568.00	1568.00	1568.00	1568.00	1569.00	1572.00	1573.00	1576.00	1577.50	1580.00	1582.50	1584.00	1587.00	1590.50	1593.00	1595.50	1601.50	1604.00	1608.00	1611.00	1615.50	1619.00	1623.50	1626.50	1629.00	1633.00	1637.00	1641.00	1644.00	1648.00	1650.50	1652.00	1651.00	1649.50	1647.00	1646.00	1643.00	1642.00	1639.50	1638.00	1635.50	1628.00	1624.00	1617.00	1613.00	1607.00	1603.00	1594.00	1590.00	1585.50	1577.00	1572.00	1560.00	1555.00	1546.50	1541.00	1535.00	1524.00	1516.50	1502.00	1493.00	1478.00	1468.00	1449.00	1439.00	1429.00	1414.00	1398.00	1381.00	1369.00	1351.00	1339.00	1321.00	1303.00	1285.00	1273.00	1253.50	1238.00	1215.00	1192.50
1456.00	1519.50	1522.50	1528.50	1531.00	1533.50	1538.00	1541.00	1546.00	1548.00	1550.50	1551.50	1552.50	1555.50	1556.50	1559.00	1560.00	1562.00	1562.50	1562.00	1561.50	1561.00	1560.00	1560.00	1559.00	1558.00	1558.00	1557.00	1555.50	1552.50	1551.50	1549.00	1548.00	1546.00	1544.00	1541.50	1540.00	1537.00	1536.00	1533.00	1530.00	1528.00	1526.00	1524.00	1521.00	1519.00	1516.00	1515.00	1512.00	1510.00	1507.00	1505.00	1503.00	1501.00	1499.00	1496.00	1495.00	1493.00	1491.50	1490.50	1487.50	1486.00	1484.00	1483.00	1481.50	1480.00	1477.50	1476.50	1475.50	1474.00	1473.00	1471.00	1469.00	1467.00	1465.50	1464.00	1460.50	1459.00	1457.00	1455.00	1453.00	1451.00	1448.00	1446.00	1444.00	1441.00	1439.00	1436.00	1434.00	1431.50	1430.00	1426.50	1425.00	1423.00	1421.00	1418.00	1416.50	1414.00	1411.50	1409.50	1405.00	1402.00	1398.50	1394.00	1390.50	1387.50	1384.50	1379.50	1377.00	1374.00	1371.00	1368.00	1366.00	1362.00	1359.50	1357.00	1354.00	1353.00	1356.00	1358.00	1360.00	1362.00	1363.50	1366.50	1368.00	1371.00	1373.00	1378.00	1381.50	1388.50	1392.00	1395.50	1401.00	1406.00	1411.00	1416.00	1422.50	1427.50	1435.00	1442.50	1447.50	1454.00	1461.50	1466.50	1471.50	1480.00	1484.00	1490.00	1494.00	1501.00	1507.00	1513.00	1517.00	1521.00	1526.50	1529.50	1533.00	1536.00	1540.50	1543.00	1548.50	1551.50	1553.50	1555.00	1556.00	1559.00	1560.00	1561.50	1563.00	1564.50	1566.50	1567.00	1567.00	1567.00	1568.00	1568.00	1568.00	1568.00	1568.00	1568.00	1569.00	1572.00	1573.00	1576.00	1577.50	1580.00	1582.50	1584.00	1587.00	1590.50	1593.00	1595.50	1601.50	1604.00	1608.00	1611.00	1615.50	1619.00	1623.50	1626.50	1629.00	1633.00	1637.00	1641.00	1644.00	1648.00	1650.50	1652.00	1651.00	1649.50	1647.00	1646.00	1643.00	1642.00	1639.50	1638.00	1635.50	1628.00	1624.00	1617.00	1613.00	1607.00	1603.00	1594.00	1590.00	1585.50	1577.00	1572.00	1560.00	1555.00	1546.50	1541.00	1535.00	1524.00	1516.50	1502.00	1493.00	1478.00	1468.00	1449.00	1439.00	1429.00	1414.00	1398.00	1381.00	1369.00	1351.00	1339.00	1321.00	1303.00	1285.00	1273.00	1253.50	1238.00	1215.00	1192.50
1456.00	1519.50	1522.50	1528.50	1531.00	1533.50	1538.00	1541.00	1546.00	1548.00	1550.50	1551.50	1552.50	1555.50	1556.50	1559.00	1560.00	1562.00	1562.50	1562.00	1561.50	1561.00	1560.00	1560.00	1559.00	1558.00	1558.00	1557.00	1555.50	1552.50	1551.50	1549.00	1548.00	1546.00	1544.00	1541.50	1540.00	1537.00	1536.00	1533.00	1530.00	1528.00	1526.00	1524.00	1521.00	1519.00	1516.00	1515.00	1512.00	1510.00	1507.00	1505.00	1503.00	1501.00	1499.00	1496.00	1495.00	1493.00	1491.50	1490.50	1487.50	1486.00	1484.00	1483.00	1481.50	1480.00	1477.50	1476.50	1475.50	1474.00	1473.00	1471.00	1469.00	1467.00	1465.50	1464.00	1460.50	1459.00	1457.00	1455.00	1453.00	1451.00	1448.00	1446.00	1444.00	1441.00	1439.00	1436.00	1434.00	1431.50	1430.00	1426.50	1425.00	1423.00	1421.00	1418.00	1416.50	1414.00	1411.50	1409.50	1405.00	1402.00	1398.50	1394.00	1390.50	1387.50	1384.50	1379.50	1377.00	1374.00	1371.00	1368.00	1366.00	1362.00	1359.50	1357.00	1354.00	1353.00	1356.00	1358.00	1360.00	1362.00	1363.50	1366.50	1368.00	1371.00	1373.00	1378.00	1381.50	1388.50	1392.00	1395.50	1401.00	1406.00	1411.00	1416.00	1422.50	1427.50	1435.00	1442.50	1447.50	1454.00	1461.50	1466.50	1471.50	1480.00	1484.00	1490.00	1494.00	1501.00	1507.00	1513.00	1517.00	1521.00	1526.50	1529.50	1533.00	1536.00	1540.50	1543.00	1548.50	1551.50	1553.50	1555.00	1556.00	1559.00	1560.00	1561.50	1563.00	1564.50	1566.50	1567.00	1567.00	1567.00	1568.00	1568.00	1568.00	1568.00	1568.00	1568.00	1569.00	1572.00	1573.00	1576.00	1577.50	1580.00	1582.50	1584.00	1587.00	1590.50	1593.00	1595.50	1601.50	1604.00	1608.00	1611.00	1615.50	1619.00	1623.50	1626.50	1629.00	1633.00	1637.00	1641.00	1644.00	1648.00	1650.50	1652.00	1651.00	1649.50	1647.00	1646.00	1643.00	1642.00	1639.50	1638.00	1635.50	1628.00	1624.00	1617.00	1613.00	1607.00	1603.00	1594.00	1590.00	1585.50	1577.00	1572.00	1560.00	1555.00	1546.50	1541.00	1535.00	1524.00	1516.50	1502.00	1493.00	1478.00	1468.00	1449.00	1439.00	1429.00	1414.00	1398.00	1381.00	1369.00	1351.00	1339.00	1321.00	1303.00	1285.00	1273.00	1253.50	1238.00	1215.00	1192.50
1456.00	1519.50	1522.50	1528.50	1531.00	1533.50	1538.00	1541.00	1546.00	1548.00	1550.50	1551.50	1552.50	1555.50	1556.50	1559.00	1560.00	1562.00	1562.50	1562.00	1561.50	1561.00	1560.00	1560.00	1559.00	1558.00	1558.00	1557.00	1555.50	1552.50	1551.50	1549.00	1548.00	1546.00	1544.00	1541.50	1540.00	1537.00	1536.00	1533.00	1530.00	1528.00	1526.00	1524.00	1521.00	1519.00	1516.00	1515.00	1512.00	1510.00	1507.00	1505.00	1503.00	1501.00	1499.00	1496.00	1495.00	1493.00	1491.50	1490.50	1487.50	1486.00	1484.00	1483.00	1481.50	1480.00	1477.50	1476.50	1475.50	1474.00	1473.00	1471.00	1469.00	1467.00	1465.50	1464.00	1460.50	1459.00	1457.00	1455.00	1453.00	1451.00	1448.00	1446.00	1444.00	1441.00	1439.00	1436.00	1434.00	1431.50	1430.00	1426.50	1425.00	1423.00	1421.00	1418.00	1416.50	1414.00	1411.50	1409.50	1405.00	1402.00	1398.50	1394.00	1390.50	1387.50	1384.50	1379.50	1377.00	1374.00	1371.00	1368.00	1366.00	1362.00	1359.50	1357.00	1354.00	1353.00	1356.00	1358.00	1360.00	1362.00	1363.50	1366.50	1368.00	1371.00	1373.00	1378.00	1381.50	1388.50	1392.00	1395.50	1401.00	1406.00	1411.00	1416.00	1422.50	1427.50	1435.00	1442.50	1447.50	1454.00	1461.50	1466.50	1471.50	1480.00	1484.00	1490.00	1494.00	1501.00	1507.00	1513.00	1517.00	1521.00	1526.50	1529.50	1533.00	1536.00	1540.50	1543.00	1548.50	1551.50	1553.50	1555.00	1556.00	1559.00	1560.00	1561.50	1563.00	1564.50	1566.50	1567.00	1567.00	1567.00	1568.00	1568.00	1568.00	1568.00	1568.00	1568.00	1569.00	1572.00	1573.00	1576.00	1577.50	1580.00	1582.50	1584.00	1587.00	1590.50	1593.00	1595.50	1601.50	1604.00	1608.00	1611.00	1615.50	1619.00	1623.50	1626.50	1629.00	1633.00	1637.00	1641.00	1644.00	1648.00	1650.50	1652.00	1651.00	1649.50	1647.00	1646.00	1643.00	1642.00	1639.50	1638.00	1635.50	1628.00	1624.00	1617.00	1613.00	1607.00	1603.00	1594.00	1590.00	1585.50	1577.00	1572.00	1560.00	1555.00	1546.50	1541.00	1535.00	1524.00	1516.50	1502.00	1493.00	1478.00	1468.00	1449.00	1439.00	1429.00	1414.00	1398.00	1381.00	1369.00	1351.00	1339.00	1321.00	1303.00	1285.00	1273.00	1253.50	1238.00	1215.00	1192.50
1456.00	1519.50	1522.50	1528.50	1531.00	1533.50	1538.00	1541.00	1546.00	1548.00	1550.50	1551.50	1552.50	1555.50	1556.50	1559.00	1560.00	1562.00	1562.50	1562.00	1561.50	1561.00	1560.00	1560.00	1559.00	1558.00	1558.00	1557.00	1555.50	1552.50	1551.50	1549.00	1548.00	1546.00	1544.00	1541.50	1540.00	1537.00	1536.00	1533.00	1530.00	1528.00	1526.00	1524.00	1521.00	1519.00	1516.00	1515.00	1512.00	1510.00	1507.00	1505.00	1503.00	1501.00	1499.00	1496.00	1495.00	1493.00	1491.50	1490.50	1487.50	1486.00	1484.00	1483.00	1481.50	1480.00	1477.50	1476.50	1475.50	1474.00	1473.00	1471.00	1469.00	1467.00	1465.50	1464.00	1460.50	1459.00	1457.00	1455.00	1453.00	1451.00	1448.00	1446.00	1444.00	1441.00	1439.00	1436.00	1434.00	1431.50	1430.00	1426.50	1425.00	1423.00	1421.00	1418.00	1416.50	1414.00	1411.50	1409.50	1405.00	1402.00	1398.50	1394.00	1390.50	1387.50	1384.50	1379.50	1377.00	1374.00	1371.00	1368.00	1366.00	1362.00	1359.50	1357.00	1354.00	1353.00	1356.00	1358.00	1360.00	1362.00	1363.50	1366.50	1368.00	1371.00	1373.00	1378.00	1381.50	1388.50	1392.00	1395.50	1401.00	1406.00	1411.00	1416.00	1422.50	1427.50	1435.00	1442.50	1447.50	1454.00	1461.50	1466.50	1471.50	1480.00	1484.00	1490.00	1494.00	1501.00	1507.00	1513.00	1517.00	1521.00	1526.50	1529.50	1533.00	1536.00	1540.50	1543.00	1548.50	1551.50	1553.50	1555.00	1556.00	1559.00	1560.00	1561.50	1563.00	1564.50	1566.50	1567.00	1567.00	1567.00	1568.00	1568.00	1568.00	1568.00	1568.00	1568.00	1569.00	1572.00	1573.00	1576.00	1577.50	1580.00	1582.50	1584.00	1587.00	1590.50	1593.00	1595.50	1601.50	1604.00	1608.00	1611.00	1615.50	1619.00	1623.50	1626.50	1629.00	1633.00	1637.00	1641.00	1644.00	1648.00	1650.50	1652.00	1651.00	1649.50	1647.00	1646.00	1643.00	1642.00	1639.50	1638.00	1635.50	1628.00	1624.00	1617.00	1613.00	1607.00	1603.00	1594.00	1590.00	1585.50	1577.00	1572.00	1560.00	1555.00	1546.50	1541.00	1535.00	1524.00	1516.50	1502.00	1493.00	1478.00	1468.00	1449.00	1439.00	1429.00	1414.00	1398.00	1381.00	1369.00	1351.00	1339.00	1321.00	1303.00	1285.00	1273.00	1253.50	1238.00	1215.00	1192.50
1456.00	1519.50	1522.50	1528.50	1531.00	1533.50	1538.00	1541.00	1546.00	1548.00	1550.50	1551.50	1552.50	1555.50	1556.50	1559.00	1560.00	1562.00	1562.50	1562.00	1561.50	1561.00	1560.00	1560.00	1559.00	1558.00	1558.00	1557.00	1555.50	1552.50	1551.50	1549.00	1548.00	1546.00	1544.00	1541.50	1540.00	1537.00	1536.00	1533.00	1530.00	1528.00	1526.00	1524.00	1521.00	1519.00	1516.00	1515.00	1512.00	1510.00	1507.00	1505.00	1503.00	1501.00	1499.00	1496.00	1495.00	1493.00	1491.50	1490.50	1487.50	1486.00	1484.00	1483.00	1481.50	1480.00	1477.50	1476.50	1475.50	1474.00	1473.00	1471.00	1469.00	1467.00	1465.50	1464.00	1460.50	1459.00	1457.00	1455.00	1453.00	1451.00	1448.00	1446.00	1444.00	1441.00	1439.00	1436.00	1434.00	1431.50	1430.00	1426.50	1425.00	1423.00	1421.00	1418.00	1416.50	1414.00	1411.50	1409.50	1405.00	1402.00	1398.50	1394.00	1390.50	1387.50	1384.50	1379.50	1377.00	1374.00	1371.00	1368.00	1366.00	1362.00	1359.50	1357.00	1354.00	1353.00	1356.00	1358.00	1360.00	1362.00	1363.50	1366.50	1368.00	1371.00	1373.00	1378.00	1381.50	1388.50	1392.00	1395.50	1401.00	1406.00	1411.00	1416.00	1422.50	1427.50	1435.00	1442.50	1447.50	1454.00	1461.50	1466.50	1471.50	1480.00	1484.00	1490.00	1494.00	1501.00	1507.00	1513.00	1517.00	1521.00	1526.50	1529.50	1533.00	1536.00	1540.50	1543.00	1548.50	1551.50	1553.50	1555.00	1556.00	1559.00	1560.00	1561.50	1563.00	1564.50	1566.50	1567.00	1567.00	1567.00	1568.00	1568.00	1568.00	1568.00	1568.00	1568.00	1569.00	1572.00	1573.00	1576.00	1577.50	1580.00	1582.50	1584.00	1587.00	1590.50	1593.00	1595.50	1601.50	1604.00	1608.00	1611.00	1615.50	1619.00	1623.50	1626.50	1629.00	1633.00	1637.00	1641.00	1644.00	1648.00	1650.50	1652.00	1651.00	1649.50	1647.00	1646.00	1643.00	1642.00	1639.50	1638.00	1635.50	1628.00	1624.00	1617.00	1613.00	1607.00	1603.00	1594.00	1590.00	1585.50	1577.00	1572.00	1560.00	1555.00	1546.50	1541.00	1535.00	1524.00	1516.50	1502.00	1493.00	1478.00	1468.00	1449.00	1439.00	1429.00	1414.00	1398.00	1381.00	1369.00	1351.00	1339.00	1321.00	1303.00	1285.00	1273.00	1253.50	1238.00	1215.00	1192.50
1493.00	1543.50	1547.00	1554.00	1557.50	1561.00	1566.00	1570.00	1577.00	1579.00	1582.00	1584.00	1585.50	1589.00	1591.00	1593.00	1595.00	1598.00	1599.00	1598.00	1598.00	1597.50	1597.00	1596.00	1595.00	1595.00	1594.00	1593.00	1591.50	1588.00	1586.50	1584.00	1582.00	1580.00	1577.00	1575.00	1573.00	1570.00	1568.00	1565.00	1562.00	1559.00	1557.00	1555.00	1551.00	1549.00	1546.00	1544.00	1542.00	1540.00	1536.50	1535.00	1533.00	1530.00	1529.00	1526.00	1525.00	1522.50	1521.00	1519.50	1517.00	1515.50	1514.00	1512.00	1511.50	1510.50	1508.50	1507.50	1506.50	1505.00	1504.00	1503.00	1502.00	1499.50	1498.50	1497.00	1494.50	1493.00	1491.00	1490.00	1488.00	1486.50	1483.50	1482.00	1480.00	1478.00	1475.50	1473.00	1472.00	1469.00	1467.50	1464.00	1462.00	1460.50	1458.00	1455.00	1453.50	1451.00	1448.00	1446.00	1443.00	1441.00	1438.00	1435.00	1432.00	1430.00	1428.00	1423.00	1421.50	1420.00	1419.00	1417.50	1416.50	1415.00	1414.50	1413.50	1412.00	1411.00	1415.00	1417.00	1419.00	1421.00	1423.00	1427.00	1429.00	1432.00	1434.00	1440.00	1444.00	1452.00	1455.50	1459.00	1465.00	1471.00	1477.00	1481.00	1487.50	1492.50	1500.00	1507.00	1511.50	1519.00	1526.50	1531.00	1535.50	1544.00	1548.00	1554.00	1558.00	1564.00	1570.00	1576.00	1580.00	1584.00	1589.50	1592.00	1596.00	1598.00	1602.00	1604.50	1610.00	1612.50	1614.50	1617.00	1618.00	1620.00	1622.00	1623.50	1624.50	1625.50	1628.50	1629.50	1630.00	1631.00	1632.00	1632.50	1634.00	1634.50	1635.00	1636.00	1638.00	1641.00	1643.00	1646.50	1649.00	1652.00	1655.50	1658.00	1661.00	1665.50	1670.00	1674.50	1684.50	1689.00	1696.00	1701.00	1708.50	1716.00	1722.00	1725.50	1728.50	1733.00	1737.50	1742.00	1745.00	1749.50	1752.50	1755.00	1755.50	1755.00	1754.00	1754.00	1753.00	1752.00	1751.50	1751.00	1750.50	1742.50	1737.50	1731.00	1726.00	1718.50	1714.00	1704.50	1699.50	1694.50	1683.00	1675.00	1659.00	1651.00	1638.00	1629.50	1621.00	1603.50	1593.50	1574.00	1560.00	1540.00	1526.00	1498.00	1484.00	1470.00	1449.00	1427.50	1404.00	1389.00	1365.50	1350.00	1326.00	1303.00	1279.00	1263.00	1239.50	1222.50	1197.50	1172.50
1493.00	1543.50	1547.00	1554.00	1557.50	1561.00	1566.00	1570.00	1577.00	1579.00	1582.00	1584.00	1585.50	1589.00	1591.00	1593.00	1595.00	1598.00	1599.00	1598.00	1598.00	1597.50	1597.00	1596.00	1595.00	1595.00	1594.00	1593.00	1591.50	1588.00	1586.50	1584.00	1582.00	1580.00	1577.00	1575.00	1573.00	1570.00	1568.00	1565.00	1562.00	1559.00	1557.00	1555.00	1551.00	1549.00	1546.00	1544.00	1542.00	1540.00	1536.50	1535.00	1533.00	1530.00	1529.00	1526.00	1525.00	1522.50	1521.00	1519.50	1517.00	1515.50	1514.00	1512.00	1511.50	1510.50	1508.50	1507.50	1506.50	1505.00	1504.00	1503.00	1502.00	1499.50	1498.50	1497.00	1494.50	1493.00	1491.00	1490.00	1488.00	1486.50	1483.50	1482.00	1480.00	1478.00	1475.50	1473.00	1472.00	1469.00	1467.50	1464.00	1462.00	1460.50	1458.00	1455.00	1453.50	1451.00	1448.00	1446.00	1443.00	1441.00	1438.00	1435.00	1432.00	1430.00	1428.00	1423.00	1421.50	1420.00	1419.00	1417.50	1416.50	1415.00	1414.50	1413.50	1412.00	1411.00	1415.00	1417.00	1419.00	1421.00	1423.00	1427.00	1429.00	1432.00	1434.00	1440.00	1444.00	1452.00	1455.50	1459.00	1465.00	1471.00	1477.00	1481.00	1487.50	1492.50	1500.00	1507.00	1511.50	1519.00	1526.50	1531.00	1535.50	1544.00	1548.00	1554.00	1558.00	1564.00	1570.00	1576.00	1580.00	1584.00	1589.50	1592.00	1596.00	1598.00	1602.00	1604.50	1610.00	1612.50	1614.50	1617.00	1618.00	1620.00	1622.00	1623.50	1624.50	1625.50	1628.50	1629.50	1630.00	1631.00	1632.00	1632.50	1634.00	1634.50	1635.00	1636.00	1638.00	1641.00	1643.00	1646.50	1649.00	1652.00	1655.50	1658.00	1661.00	1665.50	1670.00	1674.50	1684.50	1689.00	1696.00	1701.00	1708.50	1716.00	1722.00	1725.50	1728.50	1733.00	1737.50	1742.00	1745.00	1749.50	1752.50	1755.00	1755.50	1755.00	1754.00	1754.00	1753.00	1752.00	1751.50	1751.00	1750.50	1742.50	1737.50	1731.00	1726.00	1718.50	1714.00	1704.50	1699.50	1694.50	1683.00	1675.00	1659.00	1651.00	1638.00	1629.50	1621.00	1603.50	1593.50	1574.00	1560.00	1540.00	1526.00	1498.00	1484.00	1470.00	1449.00	1427.50	1404.00	1389.00	1365.50	1350.00	1326.00	1303.00	1279.00	1263.00	1239.50	1222.50	1197.50	1172.50
1493.00	1543.50	1547.00	1554.00	1557.50	1561.00	1566.00	1570.00	1577.00	1579.00	1582.00	1584.00	1585.50	1589.00	1591.00	1593.00	1595.00	1598.00	1599.00	1598.00	1598.00	1597.50	1597.00	1596.00	1595.00	1595.00	1594.00	1593.00	1591.50	1588.00	1586.50	1584.00	1582.00	1580.00	1577.00	1575.00	1573.00	1570.00	1568.00	1565.00	1562.00	1559.00	1557.00	1555.00	1551.00	1549.00	1546.00	1544.00	1542.00	1540.00	1536.50	1535.00	1533.00	1530.00	1529.00	1526.00	1525.00	1522.50	1521.00	1519.50	1517.00	1515.50	1514.00	1512.00	1511.50	1510.50	1508.50	1507.50	1506.50	1505.00	1504.00	1503.00	1502.00	1499.50	1498.50	1497.00	1494.50	1493.00	1491.00	1490.00	1488.00	1486.50	1483.50	1482.00	1480.00	1478.00	1475.50	1473.00	1472.00	1469.00	1467.50	1464.00	1462.00	1460.50	1458.00	1455.00	1453.50	1451.00	1448.00	1446.00	1443.00	1441.00	1438.00	1435.00	1432.00	1430.00	1428.00	1423.00	1421.50	1420.00	1419.00	1417.50	1416.50	1415.00	1414.50	1413.50	1412.00	1411.00	1415.00	1417.00	1419.00	1421.00	1423.00	1427.00	1429.00	1432.00	1434.00	1440.00	1444.00	1452.00	1455.50	1459.00	1465.00	1471.00	1477.00	1481.00	1487.50	1492.50	1500.00	1507.00	1511.50	1519.00	1526.50	1531.00	1535.50	1544.00	1548.00	1554.00	1558.00	1564.00	1570.00	1576.00	1580.00	1584.00	1589.50	1592.00	1596.00	1598.00	1602.00	1604.50	1610.00	1612.50	1614.50	1617.00	1618.00	1620.00	1622.00	1623.50	1624.50	1625.50	1628.50	1629.50	1630.00	1631.00	1632.00	1632.50	1634.00	1634.50	1635.00	1636.00	1638.00	1641.00	1643.00	1646.50	1649.00	1652.00	1655.50	1658.00	1661.00	1665.50	1670.00	1674.50	1684.50	1689.00	1696.00	1701.00	1708.50	1716.00	1722.00	1725.50	1728.50	1733.00	1737.50	1742.00	1745.00	1749.50	1752.50	1755.00	1755.50	1755.00	1754.00	1754.00	1753.00	1752.00	1751.50	1751.00	1750.50	1742.50	1737.50	1731.00	1726.00	1718.50	1714.00	1704.50	1699.50	1694.50	1683.00	1675.00	1659.00	1651.00	1638.00	1629.50	1621.00	1603.50	1593.50	1574.00	1560.00	1540.00	1526.00	1498.00	1484.00	1470.00	1449.00	1427.50	1404.00	1389.00	1365.50	1350.00	1326.00	1303.00	1279.00	1263.00	1239.50	1222.50	1197.50	1172.50
1493.00	1543.50	1547.00	1554.00	1557.50	1561.00	1566.00	1570.00	1577.00	1579.00	1582.00	1584.00	1585.50	1589.00	1591.00	1593.00	1595.00	1598.00	1599.00	1598.00	1598.00	1597.50	1597.00	1596.00	1595.00	1595.00	1594.00	1593.00	1591.50	1588.00	1586.50	1584.00	1582.00	1580.00	1577.00	1575.00	1573.00	1570.00	1568.00	1565.00	1562.00	1559.00	1557.00	1555.00	1551.00	1549.00	1546.00	1544.00	1542.00	1540.00	1536.50	1535.00	1533.00	1530.00	1529.00	1526.00	1525.00	1522.50	1521.00	1519.50	1517.00	1515.50	1514.00	1512.00	1511.50	1510.50	1508.50	1507.50	1506.50	1505.00	1504.00	1503.00	1502.00	1499.50	1498.50	1497.00	1494.50	1493.00	1491.00	1490.00	1488.00	1486.50	1483.50	1482.00	1480.00	1478.00	1475.50	1473.00	1472.00	1469.00	1467.50	1464.00	1462.00	1460.50	1458.00	1455.00	1453.50	1451.00	1448.00	1446.00	1443.00	1441.00	1438.00	1435.00	1432.00	1430.00	1428.00	1423.00	1421.50	1420.00	1419.00	1417.50	1416.50	1415.00	1414.50	1413.50	1412.00	1411.00	1415.00	1417.00	1419.00	1421.00	1423.00	1427.00	1429.00	1432.00	1434.00	1440.00	1444.00	1452.00	1455.50	1459.00	1465.00	1471.00	1477.00	1481.00	1487.50	1492.50	1500.00	1507.00	1511.50	1519.00	1526.50	1531.00	1535.50	1544.00	1548.00	1554.00	1558.00	1564.00	1570.00	1576.00	1580.00	1584.00	1589.50	1592.00	1596.00	1598.00	1602.00	1604.50	1610.00	1612.50	1614.50	1617.00	1618.00	1620.00	1622.00	1623.50	1624.50	1625.50	1628.50	1629.50	1630.00	1631.00	1632.00	1632.50	1634.00	1634.50	1635.00	1636.00	1638.00	1641.00	1643.00	1646.50	1649.00	1652.00	1655.50	1658.00	1661.00	1665.50	1670.00	1674.50	1684.50	1689.00	1696.00	1701.00	1708.50	1716.00	1722.00	1725.50	1728.50	1733.00	1737.50	1742.00	1745.00	1749.50	1752.50	1755.00	1755.50	1755.00	1754.00	1754.00	1753.00	1752.00	1751.50	1751.00	1750.50	1742.50	1737.50	1731.00	1726.00	1718.50	1714.00	1704.50	1699.50	1694.50	1683.00	1675.00	1659.00	1651.00	1638.00	1629.50	1621.00	1603.50	1593.50	1574.00	1560.00	1540.00	1526.00	1498.00	1484.00	1470.00	1449.00	1427.50	1404.00	1389.00	1365.50	1350.00	1326.00	1303.00	1279.00	1263.00	1239.50	1222.50	1197.50	1172.50
1493.00	1543.50	1547.00	1554.00	1557.50	1561.00	1566.00	1570.00	1577.00	1579.00	1582.00	1584.00	1585.50	1589.00	1591.00	1593.00	1595.00	1598.00	1599.00	1598.00	1598.00	1597.50	1597.00	1596.00	1595.00	1595.00	1594.00	1593.00	1591.50	1588.00	1586.50	1584.00	1582.00	1580.00	1577.00	1575.00	1573.00	1570.00	1568.00	1565.00	1562.00	1559.00	1557.00	1555.00	1551.00	1549.00	1546.00	1544.00	1542.00	1540.00	1536.50	1535.00	1533.00	1530.00	1529.00	1526.00	1525.00	1522.50	1521.00	1519.50	1517.00	1515.50	1514.00	1512.00	1511.50	1510.50	1508.50	1507.50	1506.50	1505.00	1504.00	1503.00	1502.00	1499.50	1498.50	1497.00	1494.50	1493.00	1491.00	1490.00	1488.00	1486.50	1483.50	1482.00	1480.00	1478.00	1475.50	1473.00	1472.00	1469.00	1467.50	1464.00	1462.00	1460.50	1458.00	1455.00	1453.50	1451.00	1448.00	1446.00	1443.00	1441.00	1438.00	1435.00	1432.00	1430.00	1428.00	1423.00	1421.50	1420.00	1419.00	1417.50	1416.50	1415.00	1414.50	1413.50	1412.00	1411.00	1415.00	1417.00	1419.00	1421.00	1423.00	1427.00	1429.00	1432.00	1434.00	1440.00	1444.00	1452.00	1455.50	1459.00	1465.00	1471.00	1477.00	1481.00	1487.50	1492.50	1500.00	1507.00	1511.50	1519.00	1526.50	1531.00	1535.50	1544.00	1548.00	1554.00	1558.00	1564.00	1570.00	1576.00	1580.00	1584.00	1589.50	1592.00	1596.00	1598.00	1602.00	1604.50	1610.00	1612.50	1614.50	1617.00	1618.00	1620.00	1622.00	1623.50	1624.50	1625.50	1628.50	1629.50	1630.00	1631.00	1632.00	1632.50	1634.00	1634.50	1635.00	1636.00	1638.00	1641.00	1643.00	1646.50	1649.00	1652.00	1655.50	1658.00	1661.00	1665.50	1670.00	1674.50	1684.50	1689.00	1696.00	1701.00	1708.50	1716.00	1722.00	1725.50	1728.50	1733.00	1737.50	1742.00	1745.00	1749.50	1752.50	1755.00	1755.50	1755.00	1754.00	1754.00	1753.00	1752.00	1751.50	1751.00	1750.50	1742.50	1737.50	1731.00	1726.00	1718.50	1714.00	1704.50	1699.50	1694.50	1683.00	1675.00	1659.00	1651.00	1638.00	1629.50	1621.00	1603.50	1593.50	1574.00	1560.00	1540.00	1526.00	1498.00	1484.00	1470.00	1449.00	1427.50	1404.00	1389.00	1365.50	1350.00	1326.00	1303.00	1279.00	1263.00	1239.50	1222.50	1197.50	1172.50
1493.00	1543.50	1547.00	1554.00	1557.50	1561.00	1566.00	1570.00	1577.00	1579.00	1582.00	1584.00	1585.50	1589.00	1591.00	1593.00	1595.00	1598.00	1599.00	1598.00	1598.00	1597.50	1597.00	1596.00	1595.00	1595.00	1594.00	1593.00	1591.50	1588.00	1586.50	1584.00	1582.00	1580.00	1577.00	1575.00	1573.00	1570.00	1568.00	1565.00	1562.00	1559.00	1557.00	1555.00	1551.00	1549.00	1546.00	1544.00	1542.00	1540.00	1536.50	1535.00	1533.00	1530.00	1529.00	1526.00	1525.00	1522.50	1521.00	1519.50	1517.00	1515.50	1514.00	1512.00	1511.50	1510.50	1508.50	1507.50	1506.50	1505.00	1504.00	1503.00	1502.00	1499.50	1498.50	1497.00	1494.50	1493.00	1491.00	1490.00	1488.00	1486.50	1483.50	1482.00	1480.00	1478.00	1475.50	1473.00	1472.00	1469.00	1467.50	1464.00	1462.00	1460.50	1458.00	1455.00	1453.50	1451.00	1448.00	1446.00	1443.00	1441.00	1438.00	1435.00	1432.00	1430.00	1428.00	1423.00	1421.50	1420.00	1419.00	1417.50	1416.50	1415.00	1414.50	1413.50	1412.00	1411.00	1415.00	1417.00	1419.00	1421.00	1423.00	1427.00	1429.00	1432.00	1434.00	1440.00	1444.00	1452.00	1455.50	1459.00	1465.00	1471.00	1477.00	1481.00	1487.50	1492.50	1500.00	1507.00	1511.50	1519.00	1526.50	1531.00	1535.50	1544.00	1548.00	1554.00	1558.00	1564.00	1570.00	1576.00	1580.00	1584.00	1589.50	1592.00	1596.00	1598.00	1602.00	1604.50	1610.00	1612.50	1614.50	1617.00	1618.00	1620.00	1622.00	1623.50	1624.50	1625.50	1628.50	1629.50	1630.00	1631.00	1632.00	1632.50	1634.00	1634.50	1635.00	1636.00	1638.00	1641.00	1643.00	1646.50	1649.00	1652.00	1655.50	1658.00	1661.00	1665.50	1670.00	1674.50	1684.50	1689.00	1696.00	1701.00	1708.50	1716.00	1722.00	1725.50	1728.50	1733.00	1737.50	1742.00	1745.00	1749.50	1752.50	1755.00	1755.50	1755.00	1754.00	1754.00	1753.00	1752.00	1751.50	1751.00	1750.50	1742.50	1737.50	1731.00	1726.00	1718.50	1714.00	1704.50	1699.50	1694.50	1683.00	1675.00	1659.00	1651.00	1638.00	1629.50	1621.00	1603.50	1593.50	1574.00	1560.00	1540.00	1526.00	1498.00	1484.00	1470.00	1449.00	1427.50	1404.00	1389.00	1365.50	1350.00	1326.00	1303.00	1279.00	1263.00	1239.50	1222.50	1197.50	1172.50
1493.00	1543.50	1547.00	1554.00	1557.50	1561.00	1566.00	1570.00	1577.00	1579.00	1582.00	1584.00	1585.50	1589.00	1591.00	1593.00	1595.00	1598.00	1599.00	1598.00	1598.00	1597.50	1597.00	1596.00	1595.00	1595.00	1594.00	1593.00	1591.50	1588.00	1586.50	1584.00	1582.00	1580.00	1577.00	1575.00	1573.00	1570.00	1568.00	1565.00	1562.00	1559.00	1557.00	1555.00	1551.00	1549.00	1546.00	1544.00	1542.00	1540.00	1536.50	1535.00	1533.00	1530.00	1529.00	1526.00	1525.00	1522.50	1521.00	1519.50	1517.00	1515.50	1514.00	1512.00	1511.50	1510.50	1508.50	1507.50	1506.50	1505.00	1504.00	1503.00	1502.00	1499.50	1498.50	1497.00	1494.50	1493.00	1491.00	1490.00	1488.00	1486.50	1483.50	1482.00	1480.00	1478.00	1475.50	1473.00	1472.00	1469.00	1467.50	1464.00	1462.00	1460.50	1458.00	1455.00	1453.50	1451.00	1448.00	1446.00	1443.00	1441.00	1438.00	1435.00	1432.00	1430.00	1428.00	1423.00	1421.50	1420.00	1419.00	1417.50	1416.50	1415.00	1414.50	1413.50	1412.00	1411.00	1415.00	1417.00	1419.00	1421.00	1423.00	1427.00	1429.00	1432.00	1434.00	1440.00	1444.00	1452.00	1455.50	1459.00	1465.00	1471.00	1477.00	1481.00	1487.50	1492.50	1500.00	1507.00	1511.50	1519.00	1526.50	1531.00	1535.50	1544.00	1548.00	1554.00	1558.00	1564.00	1570.00	1576.00	1580.00	1584.00	1589.50	1592.00	1596.00	1598.00	1602.00	1604.50	1610.00	1612.50	1614.50	1617.00	1618.00	1620.00	1622.00	1623.50	1624.50	1625.50	1628.50	1629.50	1630.00	1631.00	1632.00	1632.50	1634.00	1634.50	1635.00	1636.00	1638.00	1641.00	1643.00	1646.50	1649.00	1652.00	1655.50	1658.00	1661.00	1665.50	1670.00	1674.50	1684.50	1689.00	1696.00	1701.00	1708.50	1716.00	1722.00	1725.50	1728.50	1733.00	1737.50	1742.00	1745.00	1749.50	1752.50	1755.00	1755.50	1755.00	1754.00	1754.00	1753.00	1752.00	1751.50	1751.00	1750.50	1742.50	1737.50	1731.00	1726.00	1718.50	1714.00	1704.50	1699.50	1694.50	1683.00	1675.00	1659.00	1651.00	1638.00	1629.50	1621.00	1603.50	1593.50	1574.00	1560.00	1540.00	1526.00	1498.00	1484.00	1470.00	1449.00	1427.50	1404.00	1389.00	1365.50	1350.00	1326.00	1303.00	1279.00	1263.00	1239.50	1222.50	1197.50	1172.50
1493.00	1543.50	1547.00	1554.00	1557.50	1561.00	1566.00	1570.00	1577.00	1579.00	1582.00	1584.00	1585.50	1589.00	1591.00	1593.00	1595.00	1598.00	1599.00	1598.00	1598.00	1597.50	1597.00	1596.00	1595.00	1595.00	1594.00	1593.00	1591.50	1588.00	1586.50	1584.00	1582.00	1580.00	1577.00	1575.00	1573.00	1570.00	1568.00	1565.00	1562.00	1559.00	1557.00	1555.00	1551.00	1549.00	1546.00	1544.00	1542.00	1540.00	1536.50	1535.00	1533.00	1530.00	1529.00	1526.00	1525.00	1522.50	1521.00	1519.50	1517.00	1515.50	1514.00	1512.00	1511.50	1510.50	1508.50	1507.50	1506.50	1505.00	1504.00	1503.00	1502.00	1499.50	1498.50	1497.00	1494.50	1493.00	1491.00	1490.00	1488.00	1486.50	1483.50	1482.00	1480.00	1478.00	1475.50	1473.00	1472.00	1469.00	1467.50	1464.00	1462.00	1460.50	1458.00	1455.00	1453.50	1451.00	1448.00	1446.00	1443.00	1441.00	1438.00	1435.00	1432.00	1430.00	1428.00	1423.00	1421.50	1420.00	1419.00	1417.50	1416.50	1415.00	1414.50	1413.50	1412.00	1411.00	1415.00	1417.00	1419.00	1421.00	1423.00	1427.00	1429.00	1432.00	1434.00	1440.00	1444.00	1452.00	1455.50	1459.00	1465.00	1471.00	1477.00	1481.00	1487.50	1492.50	1500.00	1507.00	1511.50	1519.00	1526.50	1531.00	1535.50	1544.00	1548.00	1554.00	1558.00	1564.00	1570.00	1576.00	1580.00	1584.00	1589.50	1592.00	1596.00	1598.00	1602.00	1604.50	1610.00	1612.50	1614.50	1617.00	1618.00	1620.00	1622.00	1623.50	1624.50	1625.50	1628.50	1629.50	1630.00	1631.00	1632.00	1632.50	1634.00	1634.50	1635.00	1636.00	1638.00	1641.00	1643.00	1646.50	1649.00	1652.00	1655.50	1658.00	1661.00	1665.50	1670.00	1674.50	1684.50	1689.00	1696.00	1701.00	1708.50	1716.00	1722.00	1725.50	1728.50	1733.00	1737.50	1742.00	1745.00	1749.50	1752.50	1755.00	1755.50	1755.00	1754.00	1754.00	1753.00	1752.00	1751.50	1751.00	1750.50	1742.50	1737.50	1731.00	1726.00	1718.50	1714.00	1704.50	1699.50	1694.50	1683.00	1675.00	1659.00	1651.00	1638.00	1629.50	1621.00	1603.50	1593.50	1574.00	1560.00	1540.00	1526.00	1498.00	1484.00	1470.00	1449.00	1427.50	1404.00	1389.00	1365.50	1350.00	1326.00	1303.00	1279.00	1263.00	1239.50	1222.50	1197.50	1172.50
1507.50	1552.25	1556.00	1563.75	1567.75	1571.50	1577.00	1581.00	1589.00	1591.50	1594.50	1596.50	1598.50	1602.50	1604.50	1607.00	1609.50	1612.50	1613.50	1613.00	1612.75	1612.25	1611.50	1611.00	1610.00	1610.00	1609.25	1608.25	1606.75	1603.00	1601.25	1598.50	1596.50	1594.00	1591.00	1588.50	1586.50	1583.50	1581.50	1578.00	1575.00	1572.00	1570.00	1567.75	1563.50	1561.50	1559.00	1557.00	1554.75	1553.00	1549.25	1547.75	1546.00	1543.00	1542.00	1539.00	1538.00	1535.50	1534.25	1533.00	1530.25	1529.00	1527.00	1525.50	1524.75	1524.00	1522.00	1521.25	1520.50	1519.00	1518.50	1517.00	1516.00	1514.00	1513.25	1512.25	1510.00	1508.75	1507.00	1506.00	1504.50	1503.50	1501.00	1499.75	1498.25	1496.50	1494.50	1492.50	1491.50	1489.25	1488.00	1485.25	1483.75	1482.25	1480.00	1477.75	1476.50	1474.50	1472.25	1470.50	1468.00	1466.50	1464.00	1461.50	1459.25	1457.50	1455.75	1452.25	1451.00	1450.00	1449.50	1449.25	1448.75	1448.00	1447.75	1447.25	1446.50	1446.00	1450.00	1452.00	1455.00	1457.00	1459.00	1463.00	1465.25	1468.50	1470.50	1476.00	1479.75	1487.50	1491.00	1494.50	1500.00	1505.75	1511.50	1515.00	1521.75	1526.25	1533.00	1539.50	1543.75	1550.50	1557.25	1561.50	1566.00	1574.00	1577.75	1583.50	1587.00	1592.75	1598.50	1604.00	1607.75	1611.50	1617.00	1619.50	1623.50	1625.50	1629.25	1631.75	1637.00	1639.25	1641.50	1644.00	1645.00	1647.50	1649.00	1650.50	1651.75	1653.00	1655.50	1656.75	1658.00	1659.00	1660.50	1661.50	1663.25	1664.25	1665.25	1666.50	1668.75	1672.00	1674.00	1677.50	1680.00	1683.50	1687.00	1689.50	1692.50	1697.00	1700.75	1704.75	1713.00	1717.00	1723.00	1727.00	1733.50	1739.50	1744.75	1747.00	1748.75	1751.50	1753.75	1756.50	1758.00	1760.50	1762.25	1763.25	1763.00	1762.25	1761.00	1760.50	1758.50	1757.50	1756.50	1755.75	1754.75	1747.50	1742.75	1736.00	1731.50	1724.25	1719.75	1710.25	1705.50	1700.75	1689.00	1679.50	1660.00	1650.50	1635.50	1625.50	1615.75	1595.50	1584.75	1565.00	1550.00	1528.75	1514.25	1484.75	1470.25	1455.75	1433.50	1411.50	1386.50	1369.50	1343.00	1325.75	1299.50	1273.25	1246.50	1229.00	1202.50	1185.50	1162.00	1138.75
1522.00	1561.00	1565.00	1573.50	1578.00	1582.00	1588.00	1592.00	1601.00	1604.00	1607.00	1609.00	1611.50	1616.00	1618.00	1621.00	1624.00	1627.00	1628.00	1628.00	1627.50	1627.00	1626.00	1626.00	1625.00	1625.00	1624.50	1623.50	1622.00	1618.00	1616.00	1613.00	1611.00	1608.00	1605.00	1602.00	1600.00	1597.00	1595.00	1591.00	1588.00	1585.00	1583.00	1580.50	1576.00	1574.00	1572.00	1570.00	1567.50	1566.00	1562.00	1560.50	1559.00	1556.00	1555.00	1552.00	1551.00	1548.50	1547.50	1546.50	1543.50	1542.50	1540.00	1539.00	1538.00	1537.50	1535.50	1535.00	1534.50	1533.00	1533.00	1531.00	1530.00	1528.50	1528.00	1527.50	1525.50	1524.50	1523.00	1522.00	1521.00	1520.50	1518.50	1517.50	1516.50	1515.00	1513.50	1512.00	1511.00	1509.50	1508.50	1506.50	1505.50	1504.00	1502.00	1500.50	1499.50	1498.00	1496.50	1495.00	1493.00	1492.00	1490.00	1488.00	1486.50	1485.00	1483.50	1481.50	1480.50	1480.00	1480.00	1481.00	1481.00	1481.00	1481.00	1481.00	1481.00	1481.00	1485.00	1487.00	1491.00	1493.00	1495.00	1499.00	1501.50	1505.00	1507.00	1512.00	1515.50	1523.00	1526.50	1530.00	1535.00	1540.50	1546.00	1549.00	1556.00	1560.00	1566.00	1572.00	1576.00	1582.00	1588.00	1592.00	1596.50	1604.00	1607.50	1613.00	1616.00	1621.50	1627.00	1632.00	1635.50	1639.00	1644.50	1647.00	1651.00	1653.00	1656.50	1659.00	1664.00	1666.00	1668.50	1671.00	1672.00	1675.00	1676.00	1677.50	1679.00	1680.50	1682.50	1684.00	1686.00	1687.00	1689.00	1690.50	1692.50	1694.00	1695.50	1697.00	1699.50	1703.00	1705.00	1708.50	1711.00	1715.00	1718.50	1721.00	1724.00	1728.50	1731.50	1735.00	1741.50	1745.00	1750.00	1753.00	1758.50	1763.00	1767.50	1768.50	1769.00	1770.00	1770.00	1771.00	1771.00	1771.50	1772.00	1771.50	1770.50	1769.50	1768.00	1767.00	1764.00	1763.00	1761.50	1760.50	1759.00	1752.50	1748.00	1741.00	1737.00	1730.00	1725.50	1716.00	1711.50	1707.00	1695.00	1684.00	1661.00	1650.00	1633.00	1621.50	1610.50	1587.50	1576.00	1556.00	1540.00	1517.50	1502.50	1471.50	1456.50	1441.50	1418.00	1395.50	1369.00	1350.00	1320.50	1301.50	1273.00	1243.50	1214.00	1195.00	1165.50	1148.50	1126.50	1105.00
1522.00	1561.00	1565.00	1573.50	1578.00	1582.00	1588.00	1592.00	1601.00	1604.00	1607.00	1609.00	1611.50	1616.00	1618.00	1621.00	1624.00	1627.00	1628.00	1628.00	1627.50	1627.00	1626.00	1626.00	1625.00	1625.00	1624.50	1623.50	1622.00	1618.00	1616.00	1613.00	1611.00	1608.00	1605.00	1602.00	1600.00	1597.00	1595.00	1591.00	1588.00	1585.00	1583.00	1580.50	1576.00	1574.00	1572.00	1570.00	1567.50	1566.00	1562.00	1560.50	1559.00	1556.00	1555.00	1552.00	1551.00	1548.50	1547.50	1546.50	1543.50	1542.50	1540.00	1539.00	1538.00	1537.50	1535.50	1535.00	1534.50	1533.00	1533.00	1531.00	1530.00	1528.50	1528.00	1527.50	1525.50	1524.50	1523.00	1522.00	1521.00	1520.50	1518.50	1517.50	1516.50	1515.00	1513.50	1512.00	1511.00	1509.50	1508.50	1506.50	1505.50	1504.00	1502.00	1500.50	1499.50	1498.00	1496.50	1495.00	1493.00	1492.00	1490.00	1488.00	1486.50	1485.00	1483.50	1481.50	1480.50	1480.00	1480.00	1481.00	1481.00	1481.00	1481.00	1481.00	1481.00	1481.00	1485.00	1487.00	1491.00	1493.00	1495.00	1499.00	1501.50	1505.00	1507.00	1512.00	1515.50	1523.00	1526.50	1530.00	1535.00	1540.50	1546.00	1549.00	1556.00	1560.00	1566.00	1572.00	1576.00	1582.00	1588.00	1592.00	1596.50	1604.00	1607.50	1613.00	1616.00	1621.50	1627.00	1632.00	1635.50	1639.00	1644.50	1647.00	1651.00	1653.00	1656.50	1659.00	1664.00	1666.00	1668.50	1671.00	1672.00	1675.00	1676.00	1677.50	1679.00	1680.50	1682.50	1684.00	1686.00	1687.00	1689.00	1690.50	1692.50	1694.00	1695.50	1697.00	1699.50	1703.00	1705.00	1708.50	1711.00	1715.00	1718.50	1721.00	1724.00	1728.50	1731.50	1735.00	1741.50	1745.00	1750.00	1753.00	1758.50	1763.00	1767.50	1768.50	1769.00	1770.00	1770.00	1771.00	1771.00	1771.50	1772.00	1771.50	1770.50	1769.50	1768.00	1767.00	1764.00	1763.00	1761.50	1760.50	1759.00	1752.50	1748.00	1741.00	1737.00	1730.00	1725.50	1716.00	1711.50	1707.00	1695.00	1684.00	1661.00	1650.00	1633.00	1621.50	1610.50	1587.50	1576.00	1556.00	1540.00	1517.50	1502.50	1471.50	1456.50	1441.50	1418.00	1395.50	1369.00	1350.00	1320.50	1301.50	1273.00	1243.50	1214.00	1195.00	1165.50	1148.50	1126.50	1105.00
1522.00	1561.00	1565.00	1573.50	1578.00	1582.00	1588.00	1592.00	1601.00	1604.00	1607.00	1609.00	1611.50	1616.00	1618.00	1621.00	1624.00	1627.00	1628.00	1628.00	1627.50	1627.00	1626.00	1626.00	1625.00	1625.00	1624.50	1623.50	1622.00	1618.00	1616.00	1613.00	1611.00	1608.00	1605.00	1602.00	1600.00	1597.00	1595.00	1591.00	1588.00	1585.00	1583.00	1580.50	1576.00	1574.00	1572.00	1570.00	1567.50	1566.00	1562.00	1560.50	1559.00	1556.00	1555.00	1552.00	1551.00	1548.50	1547.50	1546.50	1543.50	1542.50	1540.00	1539.00	1538.00	1537.50	1535.50	1535.00	1534.50	1533.00	1533.00	1531.00	1530.00	1528.50	1528.00	1527.50	1525.50	1524.50	1523.00	1522.00	1521.00	1520.50	1518.50	1517.50	1516.50	1515.00	1513.50	1512.00	1511.00	1509.50	1508.50	1506.50	1505.50	1504.00	1502.00	1500.50	1499.50	1498.00	1496.50	1495.00	1493.00	1492.00	1490.00	1488.00	1486.50	1485.00	1483.50	1481.50	1480.50	1480.00	1480.00	1481.00	1481.00	1481.00	1481.00	1481.00	1481.00	1481.00	1485.00	1487.00	1491.00	1493.00	1495.00	1499.00	1501.50	1505.00	1507.00	1512.00	1515.50	1523.00	1526.50	1530.00	1535.00	1540.50	1546.00	1549.00	1556.00	1560.00	1566.00	1572.00	1576.00	1582.00	1588.00	1592.00	1596.50	1604.00	1607.50	1613.00	1616.00	1621.50	1627.00	1632.00	1635.50	1639.00	1644.50	1647.00	1651.00	1653.00	1656.50	1659.00	1664.00	1666.00	1668.50	1671.00	1672.00	1675.00	1676.00	1677.50	1679.00	1680.50	1682.50	1684.00	1686.00	1687.00	1689.00	1690.50	1692.50	1694.00	1695.50	1697.00	1699.50	1703.00	1705.00	1708.50	1711.00	1715.00	1718.50	1721.00	1724.00	1728.50	1731.50	1735.00	1741.50	1745.00	1750.00	1753.00	1758.50	1763.00	1767.50	1768.50	1769.00	1770.00	1770.00	1771.00	1771.00	1771.50	1772.00	1771.50	1770.50	1769.50	1768.00	1767.00	1764.00	1763.00	1761.50	1760.50	1759.00	1752.50	1748.00	1741.00	1737.00	1730.00	1725.50	1716.00	1711.50	1707.00	1695.00	1684.00	1661.00	1650.00	1633.00	1621.50	1610.50	1587.50	1576.00	1556.00	1540.00	1517.50	1502.50	1471.50	1456.50	1441.50	1418.00	1395.50	1369.00	1350.00	1320.50	1301.50	1273.00	1243.50	1214.00	1195.00	1165.50	1148.50	1126.50	1105.00
1522.00	1561.00	1565.00	1573.50	1578.00	1582.00	1588.00	1592.00	1601.00	1604.00	1607.00	1609.00	1611.50	1616.00	1618.00	1621.00	1624.00	1627.00	1628.00	1628.00	1627.50	1627.00	1626.00	1626.00	1625.00	1625.00	1624.50	1623.50	1622.00	1618.00	1616.00	1613.00	1611.00	1608.00	1605.00	1602.00	1600.00	1597.00	1595.00	1591.00	1588.00	1585.00	1583.00	1580.50	1576.00	1574.00	1572.00	1570.00	1567.50	1566.00	1562.00	1560.50	1559.00	1556.00	1555.00	1552.00	1551.00	1548.50	1547.50	1546.50	1543.50	1542.50	1540.00	1539.00	1538.00	1537.50	1535.50	1535.00	1534.50	1533.00	1533.00	1531.00	1530.00	1528.50	1528.00	1527.50	1525.50	1524.50	1523.00	1522.00	1521.00	1520.50	1518.50	1517.50	1516.50	1515.00	1513.50	1512.00	1511.00	1509.50	1508.50	1506.50	1505.50	1504.00	1502.00	1500.50	1499.50	1498.00	1496.50	1495.00	1493.00	1492.00	1490.00	1488.00	1486.50	1485.00	1483.50	1481.50	1480.50	1480.00	1480.00	1481.00	1481.00	1481.00	1481.00	1481.00	1481.00	1481.00	1485.00	1487.00	1491.00	1493.00	1495.00	1499.00	1501.50	1505.00	1507.00	1512.00	1515.50	1523.00	1526.50	1530.00	1535.00	1540.50	1546.00	1549.00	1556.00	1560.00	1566.00	1572.00	1576.00	1582.00	1588.00	1592.00	1596.50	1604.00	1607.50	1613.00	1616.00	1621.50	1627.00	1632.00	1635.50	1639.00	1644.50	1647.00	1651.00	1653.00	1656.50	1659.00	1664.00	1666.00	1668.50	1671.00	1672.00	1675.00	1676.00	1677.50	1679.00	1680.50	1682.50	1684.00	1686.00	1687.00	1689.00	1690.50	1692.50	1694.00	1695.50	1697.00	1699.50	1703.00	1705.00	1708.50	1711.00	1715.00	1718.50	1721.00	1724.00	1728.50	1731.50	1735.00	1741.50	1745.00	1750.00	1753.00	1758.50	1763.00	1767.50	1768.50	1769.00	1770.00	1770.00	1771.00	1771.00	1771.50	1772.00	1771.50	1770.50	1769.50	1768.00	1767.00	1764.00	1763.00	1761.50	1760.50	1759.00	1752.50	1748.00	1741.00	1737.00	1730.00	1725.50	1716.00	1711.50	1707.00	1695.00	1684.00	1661.00	1650.00	1633.00	1621.50	1610.50	1587.50	1576.00	1556.00	1540.00	1517.50	1502.50	1471.50	1456.50	1441.50	1418.00	1395.50	1369.00	1350.00	1320.50	1301.50	1273.00	1243.50	1214.00	1195.00	1165.50	1148.50	1126.50	1105.00
