3490.75	3908.50	3442.50	3288.50	3309.00	2986.25	2835.50	2742.00	3192.25	3524.75	3263.25	3612.25	4178.75	4379.50	4391.75	4686.25	4789.00	4876.25	4834.25	4774.00	4902.75	4744.50	4834.25	4834.75	4786.25	4759.75	4540.25	4752.50	4673.75	4649.25	4686.25	4636.25	4634.00	4677.50	4693.00	4615.50	4706.25	4706.75	4647.75	4623.25	4636.00	4673.75	4666.00	4658.00	4648.00	4558.75	4501.25	4543.50	4614.00	4554.25	4552.00	4472.00	4262.00	4030.75	4161.00	4304.75	4299.00	4175.50	4217.50	4118.00	4050.00	3976.75	3965.75	4021.75	4018.75	4057.50	3985.00	3926.25	4028.75	3791.50	3418.00	3711.50	3878.75	3863.00	3853.25	3933.75	4255.75	4303.75	4243.75	4208.50	4004.50	3567.75	3368.50	3181.25	3541.25	3815.25	3984.50	4175.25	4222.75	4227.00	4227.25	4155.75	3969.00	4054.25	4080.00	4081.50	3956.50	3989.50	4034.25	3906.25	3813.25	3844.75	3816.75	3326.75	3440.75	3421.75	3603.00	3891.50	3909.00	4103.75	4124.75	4218.25	4131.25	4092.25	3778.25	3420.50	3154.50	3089.00	3236.00	3604.50	4009.50	3721.75	3690.75	3991.50	3754.75	3366.75	3398.00	2911.00	2317.75	2105.75	2304.00	2361.25	2134.00	2107.50	2145.50	2153.25	2161.00	2060.50	2209.00	2601.50	2705.50	3550.00	3894.75	3744.25	3479.00	3106.00	3121.00	3002.25	2506.50	2180.75	1984.25	2087.00	1735.50	2134.00	2373.00	2624.00	2825.50	2389.75	2807.25	3364.25	3486.25	3327.75	3051.25	2655.50	2336.25	2643.50	2288.00	1888.50	1602.50	1706.00	1236.25	1088.50	1072.75	976.00	986.25	924.75	937.25	990.00	1183.00	1139.25	921.25	812.50	877.75	822.00	743.25	601.25	626.00	517.50	609.50	693.00	854.50	1185.00	1385.25	1738.50	1811.25	1644.00	1455.50	1918.75	2048.50	2198.50	2135.25	1865.75	1670.75	1944.50	2541.25	2646.75	2559.25	2439.50	2347.50	2498.00	2787.00	3169.00	3423.25	3745.75	3703.50	3850.75	3914.25	3882.75	3855.50	3712.00	3664.00	3739.00	3689.50	3662.25	3347.50	3071.00	2954.25	2919.25	2665.00	2592.00	2640.00	2863.00	2692.25	2250.50	2169.75	1941.50	1695.75	1549.50	1441.75	1338.00	1239.00	1157.25	1026.00	1108.50	1275.75	1286.00	1546.50	1950.50	2120.50	2342.00	2519.75	2189.75	2041.00	1837.50	1603.75	1638.25
3376.50	3262.50	2951.75	2850.25	2826.00	2556.00	2874.50	3050.25	3351.50	3993.25	3500.50	3370.25	3625.25	3870.50	4246.75	4660.00	4689.50	4871.75	4761.00	4703.25	4687.25	4744.50	4838.50	4823.75	4696.50	4760.50	4513.00	4726.00	4714.25	4691.50	4721.75	4627.75	4655.75	4649.75	4730.25	4659.50	4722.00	4682.00	4649.00	4699.25	4708.25	4696.25	4687.00	4603.25	4608.00	4621.00	4627.25	4583.50	4601.50	4569.25	4541.00	4398.00	4161.75	4036.50	4366.50	4397.00	4354.50	4283.50	4401.50	4361.75	4246.00	4078.25	3991.00	3960.75	3972.50	4086.25	4013.50	3746.50	3724.50	3562.00	3543.50	3945.75	4190.75	4194.25	4062.75	4027.00	4095.50	4250.75	4357.00	4272.25	4221.75	4018.50	3646.75	3055.50	3435.25	3762.25	4037.00	4132.00	4123.00	4269.25	4310.50	4260.75	4206.75	4101.00	4238.75	4163.25	4185.50	4256.50	4048.75	3680.50	3379.25	3460.25	3634.50	3219.75	3198.50	3185.25	3265.75	3525.00	3525.75	3876.25	4053.25	4024.75	4074.25	4120.75	4024.75	3867.50	3406.00	3224.25	3410.25	3450.25	3972.75	4032.00	3823.50	3987.25	4097.50	3804.25	3321.75	2921.50	2916.25	2534.75	2246.00	2555.50	2551.75	2643.75	2578.25	2309.50	2376.25	2463.25	2248.75	2157.50	2593.00	3632.00	3911.00	3808.50	3622.75	3159.00	2649.00	2493.75	2163.00	1940.75	2424.25	2193.75	1785.25	2059.50	2484.75	2850.75	2914.50	2706.75	2911.75	3524.50	3588.75	3489.00	3167.25	2841.00	2625.00	2771.50	2233.00	2026.50	1521.25	1415.75	1264.75	1237.75	1338.00	1055.75	1138.00	1219.75	1044.25	1112.50	1123.50	1252.75	1106.25	951.00	879.50	839.75	653.50	632.50	649.25	527.25	560.25	647.00	837.75	988.25	1313.25	1284.25	1496.50	1263.00	1385.25	1552.25	1638.00	2091.25	2043.00	1618.75	1678.00	2128.50	2267.75	2607.50	2899.75	2793.50	2636.50	2592.75	2624.75	2890.75	3062.00	3367.50	3701.50	3844.00	3820.75	3826.00	3930.50	3825.00	3793.75	3849.50	3610.25	3549.50	3319.25	3032.75	2795.75	2544.25	2393.50	2229.00	2187.75	2469.25	2655.00	2595.75	2254.50	2076.50	1869.25	1654.75	1638.00	1569.25	1254.00	1067.00	1056.00	1172.50	1463.75	1594.75	1468.25	1816.50	1887.00	2067.25	2347.00	1942.50	1780.00	1656.50	1522.50	1306.50
3560.50	3203.50	2912.50	2589.75	2685.50	2786.00	3134.25	3572.00	3907.25	4275.00	3883.00	3841.25	3764.25	3649.25	3865.50	4382.00	4504.00	4731.50	4664.50	4652.00	4572.75	4646.75	4834.75	4778.50	4651.50	4621.00	4559.50	4740.50	4757.50	4676.50	4673.50	4680.50	4669.00	4670.50	4747.50	4766.00	4730.50	4670.25	4653.75	4642.25	4623.50	4694.75	4646.75	4556.25	4671.50	4584.75	4612.50	4604.50	4581.00	4543.25	4488.00	4364.75	4075.25	4151.00	4315.50	4445.75	4428.75	4439.50	4394.50	4466.50	4390.25	4202.75	4069.25	4026.50	4062.25	4127.00	4041.25	3555.75	3474.00	3505.75	3846.00	4117.75	4323.75	4412.25	4365.50	4292.00	4263.00	4320.00	4387.50	4320.75	4150.75	3970.25	3690.75	3091.75	3151.25	3656.50	3862.25	4012.25	4120.25	4252.25	4290.50	4329.00	4159.50	4051.00	4162.00	4235.75	4260.00	4089.00	3835.50	3576.25	3511.50	3096.50	3157.75	2911.25	2950.25	2846.75	3105.00	3227.00	3438.00	3605.75	3601.00	3582.00	3834.75	3860.50	4084.25	3908.75	3566.75	3459.50	3638.25	3458.00	3820.50	4164.00	4123.00	4176.75	4236.00	3973.75	3514.75	3485.50	3091.25	2469.50	2931.50	3326.00	3076.50	3350.75	3244.75	2871.25	3082.00	3055.00	2645.00	2007.75	2361.25	3418.50	3864.50	3761.25	3602.00	3450.50	2951.00	2688.75	2248.50	2345.50	2795.75	2539.00	2043.50	2170.25	2386.00	2811.50	3035.25	3218.75	3311.75	3581.00	3640.75	3528.75	3306.25	2989.25	2672.00	2424.75	2111.50	1712.75	1570.50	1283.25	1304.25	1532.50	1472.75	1091.75	1389.50	1394.00	1222.50	1341.00	1320.25	1211.75	1112.50	1036.00	883.00	760.25	735.50	817.00	707.25	593.75	533.25	555.00	674.00	837.50	1044.75	1122.50	1229.75	1071.50	1240.00	1435.25	1613.25	1777.25	1721.00	1538.00	1772.25	1932.00	2512.50	2862.50	3142.00	3024.75	2906.25	2890.75	2778.25	2844.75	2979.50	3259.50	3585.25	3761.75	3673.50	3755.00	3795.00	3771.75	3879.25	3838.00	3735.75	3687.25	3449.00	3267.00	3070.50	2831.00	2702.50	2520.75	2218.50	2053.25	2147.00	2351.00	2312.00	2037.50	1854.50	1714.50	1592.50	1521.50	1315.50	1115.00	1164.25	1479.50	1493.50	1931.75	1779.25	1633.00	1756.75	2038.75	2232.75	1995.50	1833.00	1709.25	1585.00	1598.00
3579.00	3209.25	2827.25	2440.00	2998.00	3437.25	3449.25	3764.25	4215.25	4528.25	4370.00	4408.50	4204.75	4001.00	3933.25	4063.75	4295.50	4540.75	4464.75	4616.50	4536.50	4659.00	4781.25	4813.75	4712.00	4477.50	4662.00	4706.50	4716.50	4693.50	4673.75	4734.75	4679.00	4693.75	4681.50	4816.50	4731.75	4649.25	4702.00	4676.00	4564.75	4689.50	4600.75	4655.75	4681.75	4533.50	4542.50	4548.25	4810.75	4709.25	4531.50	4328.75	4073.00	4288.75	4282.75	4422.75	4524.00	4534.25	4457.50	4460.00	4487.25	4402.25	4161.50	4069.25	4143.25	4122.50	4103.00	3537.50	3265.00	3398.75	3613.25	3900.25	4302.00	4400.00	4454.25	4353.50	4332.50	4396.50	4403.00	4260.50	4043.00	3856.50	3824.00	3261.25	3041.00	3662.75	3844.50	3848.75	4081.50	4144.00	4315.75	4232.50	3977.25	3818.75	3975.75	4237.25	4155.50	3718.50	3615.25	3335.25	3323.75	2999.25	2782.25	3178.25	3380.00	3011.50	2737.75	2888.00	3059.25	3250.50	3129.50	3460.50	3474.00	3839.25	4102.75	4134.75	3796.75	3634.00	3942.25	3719.50	3791.50	4156.25	4312.25	4260.50	4269.50	4046.75	3906.25	3560.00	2981.00	2311.00	3354.50	3778.50	3749.25	3893.25	3857.50	3456.00	3576.50	3063.50	2474.25	1951.75	2359.25	3577.75	3964.25	3788.50	3611.75	3519.50	2986.00	2691.00	2581.00	2445.50	2965.00	2560.25	2127.25	2376.75	2655.75	2748.00	3187.25	3332.75	3535.50	3773.75	3696.50	3444.00	3318.50	3105.50	2539.25	2237.25	2142.50	1911.25	1406.00	1238.25	1549.75	1880.75	1563.00	1138.00	1340.25	1564.50	1594.25	1554.25	1433.50	1253.50	1097.50	955.50	779.25	866.75	835.25	878.25	870.50	732.25	564.25	535.75	590.75	750.00	1000.00	1006.75	861.75	906.50	1011.00	1069.00	1149.25	1217.25	1328.00	1470.50	1655.50	1884.50	2587.25	2889.75	3306.75	3270.25	3145.00	3165.25	2999.00	2979.25	3141.25	3314.50	3553.00	3503.75	3513.00	3514.75	3709.50	3653.50	3811.25	3837.25	3833.25	3696.00	3683.00	3455.00	3335.50	3174.50	3046.75	2832.00	2440.75	2003.00	1838.50	1828.75	1896.00	1905.25	1631.00	1475.25	1280.25	1284.25	1166.25	1057.75	1352.25	1794.00	1753.25	2173.25	2142.25	2051.25	1993.25	2165.25	2238.00	1998.00	1866.00	1883.00	2068.75	2004.50
3264.25	2804.75	2470.25	2644.00	3161.25	3497.75	3911.50	4040.00	4338.00	4606.50	4719.75	4801.50	4690.75	4544.25	4303.00	3976.75	3942.75	4247.00	4220.00	4506.00	4620.75	4710.00	4772.75	4661.00	4643.75	4448.00	4573.50	4590.50	4683.25	4764.25	4699.75	4725.50	4702.25	4717.50	4644.75	4740.75	4663.75	4684.25	4609.75	4628.75	4604.50	4513.75	4568.00	4537.50	4556.25	4488.25	4512.50	4634.75	4741.25	4581.50	4358.50	4209.75	4394.75	4501.25	4398.25	4530.25	4566.75	4526.00	4429.25	4315.75	4398.75	4472.50	4299.50	4110.75	4082.25	4135.25	4040.00	3530.00	3401.25	3791.75	3831.00	3956.00	4268.50	4336.75	4427.25	4434.75	4435.00	4442.00	4403.00	4233.50	4016.75	3908.00	3754.50	3356.50	3002.75	3380.50	3474.25	3513.00	3695.75	3923.25	3938.00	4034.75	3838.50	3638.00	3604.50	3942.25	4067.25	3699.00	3305.25	3094.25	2984.75	2810.75	3149.50	3713.75	4086.50	3639.25	3213.25	2972.50	2893.25	2983.50	2764.25	2986.50	3420.50	3416.75	3741.50	4040.75	4028.25	4108.00	4171.00	4047.00	4008.25	3997.25	4022.50	3823.75	3799.00	3718.00	3537.00	3083.00	2692.50	2464.75	3598.50	3986.75	4184.00	4164.50	3920.00	3597.00	3256.50	2827.75	2235.50	2319.00	2654.75	3509.75	3747.50	3839.00	3577.25	3429.75	3256.00	3271.00	2830.50	2811.25	3009.75	2707.25	2269.25	2716.75	2999.50	3222.25	3425.25	3604.00	3607.25	3799.25	3683.25	3655.25	3532.00	3242.00	2886.50	2857.00	2374.25	1934.50	1396.75	1529.75	1775.25	1989.00	1855.00	1308.50	1358.50	1615.00	1743.75	1760.50	1612.00	1347.25	1103.75	894.75	769.50	957.75	1138.75	1024.00	820.25	706.75	616.75	531.25	543.00	659.75	815.75	839.25	1129.00	1431.00	1312.50	1523.50	1486.75	1609.25	1645.50	1976.50	2097.50	2325.00	2625.00	2879.50	3330.25	3475.25	3438.75	3466.00	3363.00	3301.50	3237.75	3154.25	3201.25	3129.25	3209.00	3228.50	3147.00	3245.00	3363.75	3600.50	3695.25	3807.25	3708.50	3669.00	3608.25	3596.50	3432.00	3200.25	2830.00	2295.25	2258.75	1986.25	1755.00	1678.00	1574.00	1629.50	1617.75	1355.75	1151.50	1154.00	1615.00	2066.50	2137.75	2271.00	2209.25	2038.00	1902.25	1743.50	1766.25	2095.75	1968.75	1724.50	1617.75	1633.00
3197.00	2725.75	2484.25	2699.25	2880.50	3177.50	3492.75	3841.25	4268.00	4597.75	4681.00	4717.50	4677.75	4691.25	4687.75	4313.00	4081.25	3913.00	4041.00	4283.25	4576.25	4669.25	4666.25	4634.00	4578.50	4400.50	4629.25	4721.50	4721.75	4777.00	4698.00	4718.75	4726.25	4635.50	4620.25	4669.25	4651.50	4659.75	4551.50	4438.75	4440.50	4400.25	4396.75	4339.75	4318.50	4300.50	4305.00	4484.25	4453.50	4398.00	4231.25	4320.50	4543.75	4553.50	4490.00	4491.25	4567.75	4539.00	4385.75	4265.00	4210.00	4357.50	4389.50	4113.75	3918.25	4250.50	4088.25	3354.50	3580.75	3934.00	4138.00	4025.50	4359.00	4491.25	4457.25	4515.00	4515.75	4443.25	4382.25	4254.25	3991.25	3736.25	3785.50	3472.75	3135.00	2993.75	3052.50	3233.00	3379.25	3554.75	3533.25	3861.00	3930.00	3853.75	3268.25	3623.00	3900.50	3717.75	3248.25	2818.25	2801.50	2888.00	3232.75	3940.50	4280.25	3797.50	3593.00	3240.00	3205.75	3405.00	2673.25	2765.75	3014.00	3367.00	3646.00	3675.75	3918.25	4133.00	4219.00	4111.75	4166.50	3789.50	3746.25	3554.00	3425.75	3440.75	3142.50	3018.75	2563.75	2663.50	3494.00	3790.25	4253.00	4185.50	4026.00	3838.50	3172.00	2673.00	2406.50	2003.75	2202.00	3240.00	3661.25	3833.00	3724.50	3805.50	3491.50	3282.50	2723.25	3008.50	3303.00	2780.50	2382.50	2473.00	3011.50	3374.25	3548.25	3712.00	3764.25	3860.00	3801.25	3714.00	3455.50	3007.25	2694.75	2547.75	2238.75	1541.50	1735.50	1990.00	2150.25	2248.50	1851.50	1511.50	1750.00	1958.50	1727.75	1461.25	1530.25	1366.50	1180.75	898.00	869.75	1033.75	1204.25	1078.75	783.50	804.25	569.25	536.25	551.25	674.75	708.25	991.75	1233.75	1536.50	1611.75	1954.75	1809.75	1967.00	1912.50	2073.00	2512.50	2456.25	3085.75	3045.25	3237.75	3432.25	3535.00	3554.00	3537.00	3494.25	3427.25	3184.25	3003.50	3048.25	3042.75	2905.00	2832.75	2990.50	3048.25	3306.75	3508.25	3695.25	3701.50	3835.75	3691.25	3808.75	3633.00	3511.50	3141.00	2488.00	2593.25	2212.75	2027.75	1917.50	1908.00	1965.00	1602.50	1422.50	1171.50	1304.50	1783.00	2192.50	2425.00	2306.25	1923.50	1793.50	1571.00	1573.00	1779.50	1939.50	1809.50	1623.00	1317.75	1424.00
3123.25	2514.00	2610.00	3080.00	3381.50	3591.25	3686.50	4054.75	4111.25	4401.75	4449.50	4614.00	4802.00	4819.00	4747.75	4549.75	4500.50	4404.75	4110.00	3968.50	4282.75	4338.50	4376.75	4376.50	4381.75	4376.00	4592.50	4658.00	4727.50	4844.50	4763.00	4703.00	4721.25	4627.00	4664.25	4666.50	4702.50	4603.25	4506.25	4450.00	4482.00	4458.25	4492.50	4525.50	4530.50	4335.00	4306.00	4326.00	4324.50	4309.25	4220.25	4396.50	4509.75	4597.50	4586.75	4538.25	4609.75	4454.50	4367.25	4314.50	4125.00	4116.50	4208.75	3985.00	3775.75	3823.25	3694.00	3357.00	3700.75	3880.00	4052.50	4112.75	4270.50	4364.00	4478.25	4536.25	4497.00	4478.75	4390.50	4353.25	4088.00	3916.00	4012.50	3776.25	3473.50	3269.75	3046.75	3121.50	3066.00	3108.50	3240.25	3661.25	3613.00	3673.75	3074.75	3164.25	3434.50	3411.50	3030.00	2964.00	3086.00	3131.50	3436.50	4066.00	4321.00	4116.75	3897.25	3491.50	3383.25	3608.50	3048.25	2768.00	3031.50	3214.50	3245.00	3515.75	3852.00	4182.25	4363.50	4297.00	4144.75	3858.25	3529.75	3391.00	3182.75	3065.25	2826.00	2732.00	2801.00	3103.50	3158.25	3530.00	4001.00	4249.25	4181.00	4018.00	3770.50	3371.00	3083.75	2088.00	2126.25	3198.50	3697.00	3963.25	3887.75	3764.50	3574.00	3468.25	3047.50	2868.25	3342.25	3174.00	2739.75	2659.00	2970.50	3476.50	3807.00	3861.75	3900.50	3816.00	3729.25	3617.00	3429.25	3003.25	2566.50	2266.25	2034.25	1557.25	1970.00	2185.00	2453.25	2296.75	1849.00	1827.50	2122.75	2166.25	1800.50	1387.75	1229.75	1178.25	980.00	1002.75	1022.25	1257.75	1197.25	1029.25	963.25	832.75	595.50	540.25	597.00	643.25	636.00	909.25	1043.50	1268.25	1315.00	1868.00	1978.50	2216.75	2270.00	2293.25	2568.75	2755.00	3129.50	3256.00	3352.50	3471.75	3547.00	3456.00	3442.25	3508.75	3508.25	3435.50	3154.75	2902.50	2887.50	2775.50	2684.50	2692.75	2775.75	3004.50	3260.00	3464.50	3572.25	3755.50	3689.50	3771.00	3592.50	3355.75	3074.25	2944.50	2961.00	2619.50	2368.00	2237.75	2102.00	1893.50	1504.00	1329.50	1198.00	1450.75	1984.75	2271.75	2200.00	2137.25	1861.50	1590.75	1419.00	1620.25	1864.25	1724.75	1485.50	1395.75	1253.75	1265.75
3277.00	2628.25	2514.75	3080.50	3748.25	4132.75	4254.00	4545.50	4577.75	4604.50	4562.00	4451.25	4628.00	4932.75	4780.25	4679.25	4777.75	4684.50	4540.50	4073.25	3995.25	4065.00	4251.50	4476.50	4443.25	4414.75	4480.00	4671.25	4715.75	4938.75	4798.25	4710.25	4672.50	4624.50	4659.75	4744.25	4741.25	4615.50	4455.50	4484.00	4581.00	4626.50	4635.75	4666.00	4641.00	4381.25	4591.25	4565.75	4641.00	4461.00	4528.25	4547.00	4549.50	4571.00	4638.25	4602.00	4545.75	4593.25	4393.00	4202.50	4051.50	3960.00	3928.00	3849.25	3693.00	3813.25	3954.25	3417.75	3974.00	3978.75	4042.00	4253.25	4429.00	4490.50	4473.50	4550.50	4436.50	4467.50	4381.25	4431.50	4300.50	4137.00	4172.00	4011.25	3752.50	3442.00	3238.50	3536.00	3307.50	3075.00	3249.50	3520.50	3171.00	3129.50	2894.75	2920.00	3029.00	2978.00	3068.25	3297.00	3438.00	3356.50	3378.75	3816.75	4359.25	4456.75	4238.75	3861.25	3677.50	3737.75	3136.75	2863.00	2750.75	2695.75	3198.50	3712.50	4035.50	4336.25	4482.75	4298.75	4319.50	3786.50	3658.50	3616.00	3400.00	3077.25	2872.75	2968.50	2990.75	3322.25	3272.50	3622.50	4080.25	4295.00	4169.50	3776.25	3506.00	3194.00	2833.50	2121.25	2278.00	3397.25	3636.25	3720.50	3610.75	3732.75	3737.50	3699.75	3378.00	3096.00	3289.50	3421.50	3322.50	3052.25	3183.75	3554.00	3857.25	4067.75	3980.75	3715.50	3572.25	3413.25	3272.75	3084.25	2636.00	2369.50	1759.00	1900.25	1932.50	2249.75	2703.75	2587.00	2165.50	2234.00	2312.25	2408.25	2128.00	1682.25	1439.75	1200.75	1025.25	1218.50	1386.25	1480.25	1397.25	1235.50	988.00	833.75	625.00	542.50	569.25	586.25	595.75	759.25	932.25	1043.00	1149.00	1511.00	1841.25	2144.75	2215.50	2231.75	2314.50	2469.00	2944.00	3182.75	3473.75	3517.00	3571.00	3511.75	3458.25	3310.50	3368.75	3369.75	3140.25	3035.25	2906.75	2765.25	2816.50	2614.75	2534.00	2691.50	2979.25	3135.75	3395.25	3705.75	3629.50	3743.75	3682.50	3477.00	3186.50	2769.00	2720.00	2720.25	2371.25	2239.50	2199.50	1878.50	1533.00	1331.75	1305.50	1611.00	2019.25	2155.75	1844.75	1667.50	1824.50	1627.50	1420.25	1464.25	1552.50	1582.25	1506.25	1216.75	1084.25	1310.50
3228.00	2647.00	2507.50	2994.25	3619.75	4217.00	4393.25	4393.50	4463.00	4659.25	4676.50	4693.50	4596.50	4887.75	4873.50	4807.75	4779.75	4739.50	4602.50	4261.75	4423.75	4188.50	4521.50	4702.50	4784.00	4665.25	4468.00	4546.75	4631.75	4855.50	4745.00	4698.25	4656.50	4616.25	4612.25	4693.25	4630.50	4548.25	4541.75	4542.50	4553.50	4638.75	4657.00	4636.25	4551.75	4442.50	4653.75	4658.50	4633.00	4498.00	4635.50	4633.25	4649.25	4618.25	4615.75	4620.00	4501.00	4562.50	4536.25	4453.75	4218.50	4199.25	4182.50	4107.00	4055.75	4155.00	4047.00	3568.25	3991.00	4116.50	4091.75	4199.25	4364.25	4490.25	4534.75	4487.50	4406.50	4342.75	4343.50	4392.00	4287.50	4147.75	4141.25	3785.25	3733.50	3566.25	3240.50	3476.75	3573.00	3208.25	3045.00	3081.00	3037.25	3089.75	3384.50	3163.25	2947.00	3056.25	3395.25	3797.25	3776.25	3737.50	3754.25	3833.75	4389.75	4504.50	4406.75	4218.00	4146.75	3999.50	3730.25	3401.00	2982.50	2740.25	3281.50	3797.25	4134.50	4407.75	4263.75	4239.75	4352.00	4091.00	3970.50	3728.00	3427.00	3122.00	2999.75	3155.50	3243.25	3519.50	3709.50	3715.00	4124.00	4297.00	4193.50	3949.50	3473.75	3065.00	2672.00	2315.25	2169.50	2811.50	2916.00	3142.50	3633.25	3973.25	3911.50	3740.75	3507.75	3322.50	3254.00	3600.50	3531.75	3555.00	3399.50	3487.25	3735.00	3992.75	4076.75	3873.25	3752.50	3399.50	2988.75	2759.75	2595.25	2116.00	1915.00	2386.25	2118.75	2335.25	2856.50	2897.75	2582.50	2741.00	2697.75	2343.50	2092.00	1598.00	1491.50	1209.25	1059.50	1231.25	1418.75	1550.50	1277.00	1136.25	913.25	884.50	739.75	566.00	554.00	565.50	571.25	620.50	812.25	910.50	1006.50	1206.75	1619.50	1997.50	1895.50	1922.75	1952.25	2164.00	2905.00	2992.75	3070.00	3268.00	3361.75	3532.75	3524.50	3459.25	3368.00	3258.25	3109.75	3219.75	3229.75	3056.25	2900.25	2638.50	2459.00	2589.50	2771.25	2797.25	3027.75	3240.00	3370.25	3493.50	3637.50	3415.00	2784.75	2337.75	2158.00	2312.50	2184.00	1900.50	1945.50	1859.75	1489.50	1303.75	1329.25	1618.00	1969.00	1809.50	1607.00	1569.25	1915.50	1866.00	1746.75	1284.75	1198.50	1263.25	1296.50	1109.50	1166.50	1448.75
2805.75	2466.75	2479.00	2996.00	3533.00	3817.50	3821.50	3951.75	4376.00	4515.25	4609.50	4933.25	4788.00	4947.75	5128.00	4718.25	4568.25	4541.00	4368.00	4448.00	4622.50	4206.25	4446.75	4634.75	4853.25	4798.00	4543.75	4620.25	4745.25	4821.25	4771.25	4645.00	4615.25	4607.50	4600.00	4614.00	4580.50	4567.50	4681.00	4700.50	4525.00	4626.50	4665.50	4613.25	4646.00	4481.25	4664.75	4694.25	4619.50	4521.75	4609.00	4668.50	4674.00	4659.00	4547.50	4560.00	4563.50	4456.00	4479.75	4445.25	4285.25	4314.25	4450.75	4413.25	4342.25	4209.50	3841.75	3754.25	3881.25	3835.00	3890.50	4118.25	4339.00	4481.00	4515.75	4450.50	4288.00	4189.00	4220.25	4243.00	4208.25	4022.25	3817.25	3698.25	3472.00	3412.50	3410.00	3525.75	3673.50	3353.25	3209.25	3242.50	3249.50	3587.25	3744.75	3626.50	3310.00	3400.75	3530.50	4087.50	4234.50	4247.75	4228.75	4015.50	4418.50	4363.50	4331.00	4220.50	4229.75	4159.00	3833.50	3473.75	2844.00	2919.00	3590.75	4176.00	4362.25	4323.50	4067.00	4204.25	4300.75	4227.50	4047.75	3870.25	3665.25	3275.75	3154.25	3185.25	3542.75	3812.00	4281.75	4227.25	4291.75	4208.25	4122.00	3906.25	3630.50	3173.50	2740.50	2704.75	2403.75	2318.75	2706.25	3182.50	3795.00	4104.50	3888.50	3791.75	3737.25	3567.00	3319.00	3721.50	3776.00	3672.75	3767.00	3749.75	3958.25	4078.00	4089.00	3950.25	3747.25	3330.75	2922.25	2514.00	2320.75	1986.25	2293.25	2556.00	2468.25	2562.25	2943.75	3337.00	3182.75	3047.00	2834.75	2173.00	1937.00	1576.50	1268.75	1184.00	1401.25	1469.25	1485.50	1560.25	1559.50	1376.00	1043.00	1088.75	847.25	654.00	600.50	589.50	606.25	596.25	700.50	783.50	887.75	1169.00	1524.75	1691.00	1617.25	1674.00	1987.75	2251.00	2756.25	2648.25	2436.25	2795.50	2798.50	3431.00	3429.00	3362.50	3300.00	3356.00	3344.25	3352.25	3277.50	3203.00	2971.75	2660.00	2471.50	2614.25	2665.00	2602.50	2568.25	2770.25	2989.25	3107.00	3318.50	3194.50	2602.25	2418.00	2157.00	1886.75	1819.50	1761.00	1665.50	1566.25	1239.50	1200.50	1374.75	1596.00	2008.75	1721.75	1407.75	1567.00	1904.75	2013.75	1927.50	1531.00	1241.50	1149.50	1011.25	1147.25	1431.50	1575.00
2441.50	2193.75	2590.50	2871.25	3066.00	3233.25	3429.00	3930.25	4208.50	4643.75	4705.25	4696.00	4746.00	4917.00	4997.75	4756.75	4829.25	4601.25	4486.75	4620.00	4564.75	4222.00	4507.50	4636.00	4768.75	4747.75	4503.25	4674.50	4785.00	4816.25	4713.25	4648.00	4679.75	4699.00	4644.75	4619.75	4617.00	4640.50	4704.50	4745.50	4558.00	4628.50	4692.50	4704.25	4712.25	4486.75	4673.75	4705.50	4642.00	4593.00	4703.75	4691.00	4588.50	4650.25	4543.75	4517.75	4584.75	4513.75	4418.00	4388.00	4314.75	4363.25	4427.50	4388.50	4310.25	4078.25	3709.75	3716.50	3819.25	3996.25	3979.25	4197.75	4467.25	4485.50	4522.50	4457.00	4352.50	4210.75	4237.75	4207.25	4081.25	3911.25	3861.25	3711.00	3754.00	3723.75	3811.25	3792.25	3751.25	3478.50	3552.25	3217.00	3453.75	3770.50	3950.75	3945.25	3625.00	3647.25	3735.25	3897.25	4157.75	4314.75	4385.25	4359.75	4376.25	4338.75	4161.50	4191.75	3936.75	3852.75	3341.50	2912.75	2869.25	3112.75	3629.50	4069.75	4217.50	4076.25	3868.75	4231.00	4138.00	4361.25	4309.00	4116.00	3823.00	3491.75	3388.75	3343.25	3495.25	3739.25	4256.75	4497.00	4387.50	4197.50	4019.00	3874.75	3500.00	3075.75	2688.00	3021.75	2735.25	2292.50	2964.50	3487.00	3812.75	4041.50	3756.75	3743.50	3820.00	3708.00	3527.00	3647.00	3825.50	3845.00	3973.00	3898.00	3981.00	4191.00	4053.00	3774.75	3627.25	3339.25	2840.00	2539.00	2178.50	2291.00	2678.75	3062.25	2870.00	3067.75	3191.00	3418.75	3101.50	2503.00	2412.50	1963.25	1638.25	1375.75	1230.75	1351.25	1536.50	1801.75	1819.75	1701.00	1559.25	1597.50	1296.25	1260.25	947.00	799.50	765.50	634.25	604.00	618.50	690.25	830.00	985.50	1265.75	1467.75	1418.75	1406.75	1846.50	2056.00	1997.00	2510.50	2303.25	2233.00	2427.00	2355.75	2846.50	2718.50	2711.25	2929.00	3397.75	3481.25	3295.00	3014.00	2903.75	2697.50	2526.75	2663.75	2710.50	2577.25	2438.00	2357.50	2403.25	2493.25	2530.00	2846.50	2990.75	2917.00	2818.25	2489.75	1944.75	1745.75	1590.25	1476.50	1372.75	1320.50	1415.25	1583.75	1816.25	1928.00	1666.25	1350.00	1447.75	1836.50	1701.75	1477.25	1450.00	1227.50	1018.50	1159.50	1431.50	1495.00	1390.00
2355.75	2179.50	2516.50	2620.75	2973.25	3233.25	3446.75	3817.50	4118.00	4651.00	4588.00	4457.50	4512.00	4706.25	4920.25	4927.50	4839.25	4596.25	4636.50	4740.75	4557.50	4249.75	4592.25	4759.75	4721.00	4667.50	4509.75	4731.75	4824.75	4813.00	4686.50	4657.50	4700.75	4759.25	4692.75	4651.25	4665.50	4695.50	4747.75	4752.25	4567.00	4648.75	4710.75	4749.50	4701.25	4502.25	4670.75	4710.50	4633.50	4615.00	4712.50	4712.50	4559.00	4600.50	4546.25	4503.00	4541.00	4552.75	4532.50	4485.25	4397.25	4389.00	4397.00	4378.00	4224.25	4128.25	3737.00	3876.00	4054.50	4114.00	4072.50	4234.25	4481.25	4519.25	4549.25	4467.75	4360.00	4319.00	4378.00	4385.75	4166.50	3988.25	3865.00	3737.75	3806.75	3945.50	3989.75	3961.75	3785.75	3531.00	3584.75	3188.75	3409.00	3559.00	3651.50	3896.75	3850.25	3794.25	3936.50	3846.00	4046.75	4361.75	4391.25	4442.50	4428.50	4306.75	4094.25	4130.75	3867.50	3580.50	3232.75	2771.50	3025.75	3113.00	3461.75	3986.75	4084.00	3962.75	3760.75	4049.50	4193.25	4467.50	4362.25	4201.25	3936.50	3723.50	3508.25	3505.75	3517.25	3670.00	4134.25	4426.00	4399.75	4239.50	3958.75	3797.00	3680.00	3150.75	2687.00	3078.75	2645.25	2388.00	3009.50	3321.75	3543.50	3942.75	3638.50	3814.75	3954.50	3784.75	3727.75	3697.25	3754.00	3870.50	4052.50	4009.00	3985.25	4094.50	3915.50	3742.00	3526.50	3434.75	3144.00	2766.75	2326.50	2463.25	2825.50	3239.00	3195.00	3331.00	3471.25	3495.75	3082.50	2394.25	2151.75	1813.25	1742.25	1435.25	1299.25	1574.75	1530.25	1922.75	2064.75	1677.75	1400.50	1537.50	1445.50	1327.00	1045.75	912.75	826.00	648.00	622.50	591.25	718.50	803.75	870.75	1244.00	1387.50	1263.25	1386.25	1895.25	2000.00	1809.75	2388.25	2210.00	2132.50	2181.75	2138.00	2308.50	2332.50	2627.75	3114.25	3533.50	3484.25	3193.50	2839.00	2724.75	2497.75	2488.25	2784.25	2756.75	2573.25	2394.75	2244.50	2207.25	2332.75	2275.50	2706.25	2805.25	2796.25	3034.75	2643.25	2132.75	1884.25	1512.25	1388.75	1354.75	1411.50	1493.00	1737.25	1991.25	1828.25	1647.75	1396.50	1417.75	1844.75	1601.25	1340.50	1293.50	1126.00	1080.25	1351.00	1517.00	1340.75	1234.00
2268.50	2591.00	2878.00	3056.75	3386.00	4031.25	4222.75	4067.75	4156.00	4411.50	4492.00	4706.50	4746.00	4795.25	4862.25	4713.50	4618.75	4542.50	4704.75	4883.75	4446.00	4388.50	4514.25	4771.50	4834.50	4723.75	4568.00	4634.75	4752.25	4866.25	4768.75	4677.00	4717.50	4791.00	4752.00	4705.75	4653.00	4650.75	4737.00	4717.50	4670.25	4624.75	4743.25	4679.75	4683.25	4559.00	4640.75	4729.00	4668.00	4707.25	4706.25	4633.50	4538.25	4391.25	4410.25	4337.25	4561.50	4545.25	4568.75	4525.00	4363.25	4168.00	3994.75	3970.75	3985.25	3737.25	3612.25	3769.25	4050.00	4143.75	4229.00	4249.00	4404.75	4515.25	4506.00	4514.75	4506.75	4495.75	4401.75	4292.00	4149.00	4049.50	4102.25	3699.25	3836.50	4058.00	4044.75	4020.00	3852.75	3630.25	3517.50	3390.00	3080.75	3242.50	3228.25	3412.25	3757.25	4073.50	4258.75	4257.75	4145.00	4190.00	4341.50	4425.00	4497.00	4349.50	4178.50	3746.75	3511.00	3198.75	3048.75	3056.00	2847.00	2615.00	3191.75	3525.75	3474.75	3413.25	3591.50	4157.25	4359.75	4364.50	4161.25	4332.50	4232.50	4060.25	3952.00	3933.75	4018.75	3930.75	3985.50	4115.25	3845.50	3672.25	3569.75	3260.75	3077.25	2981.00	3078.00	3121.25	2539.00	2296.25	2260.00	2472.75	3096.75	3408.25	3793.25	3952.25	3920.75	3888.25	3868.75	3970.75	3976.50	4032.75	4192.75	4118.50	4075.75	4196.75	4175.00	3988.50	3854.25	3438.00	3123.00	2714.00	2733.00	2787.00	3195.75	3366.75	3555.00	3570.00	3738.25	3792.00	3350.50	2864.25	2535.50	2475.50	2536.50	1789.75	1418.00	1854.25	2078.75	2291.25	2210.00	1802.50	1413.75	1356.75	1190.25	1183.50	976.00	912.00	815.25	679.50	763.50	576.50	583.00	700.00	781.50	989.75	1137.00	1089.25	1334.75	1625.75	1688.25	1600.00	1821.25	1839.00	1612.50	1740.00	1926.50	2364.00	2577.25	2726.50	3087.75	3524.50	3394.50	3008.25	2852.50	2649.50	2353.00	2468.00	2777.50	2750.25	2662.75	2503.25	2262.25	2083.75	2023.25	2076.25	2232.75	2151.00	2412.25	2478.50	2711.75	2351.50	1948.75	1528.75	1568.50	1858.25	1807.75	1812.25	2076.25	2034.75	1610.00	1463.75	1272.25	1140.75	1555.25	1624.50	1416.75	1046.50	902.50	1328.50	1450.00	1349.00	1289.00	1098.50
2282.00	2827.00	3275.75	3494.00	3734.75	4160.00	4620.00	4707.25	4668.00	4699.00	4688.25	4935.75	5026.75	5053.75	4954.50	4677.25	4847.25	4729.75	4676.00	4891.75	4586.75	4739.00	4517.75	4593.50	4740.75	4704.50	4600.75	4769.00	4698.50	4897.75	4778.75	4662.75	4768.50	4834.75	4725.25	4675.50	4701.25	4659.25	4667.25	4773.25	4779.25	4559.25	4693.75	4763.75	4767.75	4594.00	4621.25	4752.50	4743.75	4734.50	4692.50	4564.00	4493.50	4537.75	4346.25	4208.00	4408.25	4558.00	4543.50	4454.00	4478.00	4271.50	3912.00	3710.00	3563.50	3568.25	3637.50	3674.50	3772.25	3920.50	4039.00	4153.25	4380.50	4469.75	4529.00	4564.50	4521.00	4462.75	4329.75	4326.00	4350.00	4216.75	4214.75	3753.75	3778.50	3969.25	4071.75	4156.00	4002.75	3758.00	3711.25	3576.75	3136.50	3525.50	3303.50	3149.00	3554.50	4041.50	4272.75	4387.00	4390.75	4358.25	4361.50	4460.75	4445.00	4368.75	4365.75	3987.25	3580.75	3349.50	3390.00	3450.00	2804.75	2738.75	3004.75	3009.50	3044.50	3297.00	3654.00	4095.75	3979.00	4248.50	4198.75	4283.50	4343.25	4235.25	4205.75	4191.50	4201.75	4191.25	4017.75	3846.75	3624.00	3506.75	3376.50	3531.25	3431.00	3463.25	3626.50	3198.75	2707.25	2621.25	2170.75	2369.75	2896.75	3005.00	3306.75	3398.75	3597.00	3806.25	4052.50	4099.75	4114.50	4121.00	4195.00	4169.00	4226.50	4281.75	4114.50	3740.50	3610.50	3426.25	3154.75	3049.50	3269.25	3201.75	3345.75	3539.00	3707.00	3766.25	3780.00	3829.75	3583.25	3236.25	3058.50	2911.00	2637.75	1960.75	1481.00	1737.00	2026.75	2403.00	2096.25	1658.75	1612.75	1553.25	1222.50	969.25	875.00	803.00	726.25	774.00	836.50	607.50	579.25	666.75	745.25	870.25	1028.50	1014.50	1195.00	1280.75	1233.75	1247.00	1546.75	1430.50	1649.50	2041.50	2219.75	2739.25	3035.25	3139.25	3368.50	3514.75	3359.25	3277.00	3099.00	2838.75	2561.50	2268.25	2282.75	2424.00	2571.75	2640.25	2266.25	2022.00	1889.50	1954.75	1927.25	1856.00	2025.00	2010.25	2325.50	2173.25	1991.50	1691.25	1969.50	2174.00	1977.25	2013.50	2252.00	2163.25	1869.75	1773.75	1293.50	1023.50	1409.50	1349.50	1197.00	882.75	949.25	1266.75	1100.25	999.25	1222.50	1070.00
2499.25	2955.00	3664.00	3885.75	4218.25	4515.50	4650.00	4663.25	4743.00	4772.75	4774.00	4868.75	4760.00	4749.50	4746.50	4911.00	4894.50	4693.50	4741.50	4915.00	4642.00	4853.50	4643.50	4505.25	4630.25	4735.75	4677.50	4857.50	4830.00	4846.75	4726.25	4654.50	4769.25	4760.25	4704.00	4736.00	4710.50	4709.00	4686.75	4774.75	4760.25	4629.25	4703.50	4740.50	4673.00	4610.50	4651.25	4749.25	4719.00	4683.75	4659.50	4619.25	4643.50	4623.75	4548.75	4244.75	4164.50	4124.00	4386.75	4343.25	4046.75	3950.25	3786.75	3736.50	3828.25	3795.75	3621.50	3739.75	3707.00	3955.00	4149.75	4121.50	4211.50	4264.25	4459.25	4523.00	4524.00	4470.00	4354.25	4404.50	4407.25	4304.50	4136.75	3817.75	3848.50	3969.00	4124.75	4212.75	4119.50	3932.50	3823.25	3635.75	3209.75	3593.50	3585.25	3195.00	3574.00	4023.50	4246.50	4348.75	4400.00	4450.50	4449.25	4489.00	4422.50	4301.00	4189.25	3990.75	3894.00	3846.50	3758.50	3453.25	2912.75	2702.25	2692.00	2752.00	3153.75	3462.25	3493.00	3630.75	3875.00	4106.25	4191.00	4287.25	4264.25	4184.50	4191.50	4185.75	4160.50	4037.50	3934.25	3742.75	3744.50	3980.25	3785.25	3879.25	4001.00	3793.50	4004.75	3517.50	3190.00	2548.50	2222.00	2226.25	2282.50	2488.00	2694.50	2818.00	3374.50	3856.25	4149.00	4165.75	4235.50	4237.00	4160.75	4227.00	4139.50	4020.75	3998.75	3660.75	3570.00	3645.75	3467.25	3262.00	3391.75	3450.50	3532.00	3641.75	3807.75	3901.25	3851.50	3736.75	3565.50	3282.00	3187.75	2582.00	2227.75	1935.00	1908.50	1971.75	2238.25	2572.25	2258.25	1917.00	1730.00	1468.25	1112.25	1113.50	1112.00	885.25	769.50	922.50	894.75	598.50	601.50	677.00	677.00	789.25	847.25	895.50	1049.00	1053.00	1190.50	1304.50	1370.25	1403.75	1718.00	2080.00	2362.75	2494.25	2742.25	3102.50	3392.25	3569.50	3549.00	3330.00	3173.25	3092.75	2713.00	2362.75	2198.50	2147.75	2244.25	2305.00	2301.75	2162.75	1868.00	1759.25	1692.25	1644.00	1698.50	1648.50	1709.50	1756.00	1588.75	1624.75	2169.00	1971.50	1729.50	1729.50	2126.25	2101.50	2136.75	1821.75	1330.50	1001.25	1058.25	1041.00	901.75	951.25	1183.50	1067.75	889.50	864.25	992.50	810.75
2665.75	2870.00	3510.25	3976.75	4389.75	4491.75	4502.25	4662.75	4719.75	4734.75	4731.00	4621.00	4685.75	4457.50	4510.00	4973.00	4890.00	4851.75	4866.75	4849.25	4803.75	4897.50	4701.00	4500.25	4552.75	4671.75	4793.00	4796.75	4735.25	4749.50	4592.75	4647.75	4753.50	4692.25	4772.75	4842.50	4720.50	4733.00	4764.50	4758.00	4794.50	4697.00	4842.00	4907.25	4691.25	4711.25	4692.75	4775.50	4729.00	4692.75	4657.00	4691.00	4628.75	4575.00	4466.00	4431.75	4436.00	4174.25	3910.00	3957.25	3850.50	4146.00	4174.25	4132.25	3926.50	3676.25	3605.75	3854.25	3800.00	4010.50	4370.75	4284.00	4299.25	4348.75	4375.25	4473.25	4502.75	4406.25	4371.25	4432.75	4377.50	4261.50	4163.75	3806.50	3975.25	4075.50	4217.00	4209.50	3988.75	3753.75	3579.00	3439.00	3508.25	3609.25	3672.75	3282.75	3431.75	3925.75	4270.00	4408.25	4453.50	4402.50	4409.50	4512.00	4468.00	4424.25	4173.25	4258.75	4352.50	4187.00	3693.50	3321.50	2989.50	3106.50	2981.00	2595.25	2970.50	3067.00	3117.50	3413.25	3885.50	3975.50	4282.00	4208.00	4080.00	4078.50	4108.50	4238.75	4181.00	4098.75	3856.50	3750.75	3836.50	4039.00	4086.50	3983.00	4202.00	4100.50	4167.25	3995.75	3701.00	2860.25	2496.75	2421.00	2388.25	2177.75	2150.25	2428.25	3189.25	3556.75	4150.75	4160.50	4222.00	4168.25	4125.25	4204.75	4089.00	3860.00	3814.25	3751.75	3898.75	3793.50	3515.75	3454.00	3517.25	3615.50	3646.75	3856.25	3869.25	3925.25	3760.50	3650.00	3499.25	3175.00	2883.50	2909.25	2600.25	2174.75	2421.75	2403.25	2483.50	2698.50	2321.50	1738.75	1519.25	1315.00	1388.25	1409.50	1178.00	845.50	806.00	968.00	912.00	652.50	585.50	733.50	703.75	720.00	760.25	899.75	1097.50	1303.25	1418.50	1653.75	1821.00	1681.50	1748.75	1787.75	2055.25	2384.50	2602.75	2916.75	3289.00	3465.75	3501.25	3485.25	3335.75	3006.75	2619.00	2590.25	2503.00	2326.50	2064.00	2027.00	2017.25	1871.50	1868.25	1741.25	1705.50	1577.00	1516.75	1463.75	1445.75	1435.50	1663.75	1953.00	2167.25	1763.75	1490.50	1428.25	1798.25	1750.25	1822.00	1734.25	1510.50	1116.00	826.50	803.75	918.00	1224.25	1216.25	917.25	726.00	721.00	672.50	655.25
2651.50	2755.75	3057.75	3614.50	3854.50	3958.00	4401.75	4556.75	4582.25	4750.25	4705.75	4580.50	4494.50	4473.25	4691.50	4887.50	4729.25	4713.25	4560.50	4736.25	4902.50	4827.25	4690.00	4567.50	4656.25	4670.50	4741.25	4655.00	4592.75	4785.00	4550.50	4730.25	4759.75	4716.00	4823.25	4836.75	4799.50	4831.00	4803.50	4847.25	4813.75	4768.75	4882.25	4902.25	4820.50	4827.00	4754.00	4783.25	4734.75	4713.50	4700.75	4684.00	4640.75	4610.50	4608.75	4596.00	4530.75	4336.00	3846.50	3895.50	4354.00	4522.25	4417.00	4157.50	3900.75	3589.25	3709.50	4074.50	3963.50	4065.50	4384.25	4461.75	4459.25	4537.75	4526.50	4503.00	4518.75	4475.00	4424.25	4359.00	4269.25	4058.25	3947.50	3928.50	4054.50	4185.25	4272.25	4280.25	4023.50	3715.25	3460.75	3500.25	3757.50	3798.50	3878.00	3534.25	3326.50	3602.75	4133.25	4351.00	4326.75	4397.00	4471.25	4506.50	4453.25	4366.50	4343.50	4404.75	4407.75	4314.75	3767.50	3529.75	3458.00	3546.50	3290.75	2786.75	2661.75	2879.50	3275.00	3472.00	3902.75	3875.75	4217.25	3960.50	3813.00	4009.75	4260.50	4256.00	4209.75	4199.00	4127.75	3933.25	4019.50	4060.00	4237.00	4252.00	4199.50	4256.50	4087.75	3849.25	3567.75	2995.50	3028.00	2901.00	2669.25	2412.50	2144.50	2509.25	3255.75	3657.50	3934.75	4111.75	4071.50	4054.00	4185.75	4110.75	4043.75	3906.00	3837.75	3960.25	4040.50	3775.75	3545.00	3674.75	3621.50	3740.25	3726.75	3897.25	3958.25	3880.25	3779.75	3643.25	3382.75	3119.75	2910.50	3123.50	3057.25	2702.00	2951.00	2816.00	2491.50	2242.75	2044.00	1756.75	1467.75	1521.75	1750.75	1583.00	1084.25	829.50	995.75	1098.50	966.50	704.00	625.50	658.25	687.50	719.00	769.00	939.50	1024.25	1177.25	1221.00	1337.50	1665.75	1778.25	1982.50	2015.75	2191.25	2440.25	2643.00	2732.25	2957.00	3421.00	3356.75	3284.00	3053.75	2887.25	2949.25	2948.00	2811.25	2702.75	2566.75	2310.25	1965.25	1985.75	2147.25	2105.75	1879.50	1787.50	1755.00	1632.75	1638.00	1697.00	1776.75	1906.50	1838.50	1538.50	1292.00	1249.75	1493.25	1435.50	1390.75	1316.25	1377.75	1165.75	872.00	926.50	1120.00	995.25	883.25	711.50	729.25	801.25	880.50	800.75
3184.25	3257.75	3219.00	3020.25	3351.75	3894.75	4190.25	4396.50	4693.00	4715.00	4582.50	4407.50	4532.75	4664.00	4623.25	4880.00	4718.00	4546.50	4606.25	4759.00	4842.25	4684.50	4624.75	4646.00	4706.25	4740.50	4754.25	4601.00	4551.50	4772.25	4489.75	4687.75	4785.00	4796.25	4777.25	4851.00	4819.00	4890.50	4864.50	4793.00	4666.00	4820.00	4931.50	4964.50	4946.25	4882.75	4929.75	4938.50	4803.00	4672.25	4660.25	4658.50	4631.50	4593.75	4592.50	4539.75	4542.25	4259.75	3768.75	4127.00	4472.25	4496.75	4376.50	4096.25	3886.00	3592.75	3812.75	4331.50	4263.00	4156.50	4261.75	4368.75	4456.25	4514.50	4597.00	4600.75	4556.00	4495.75	4352.50	4232.25	4102.25	3924.25	3942.00	4130.00	4235.75	4206.25	4307.00	4332.00	4030.25	3680.25	3515.75	3698.75	3915.25	3895.50	3828.25	3691.75	3320.50	3457.25	3862.75	4035.25	4200.50	4473.75	4452.50	4476.50	4466.75	4470.00	4486.00	4496.50	4364.25	4330.75	4171.50	4098.50	3898.50	3646.50	3253.50	2862.50	2708.75	2722.50	2964.00	3516.00	3956.25	3672.00	4020.00	3882.25	3495.75	4007.25	4318.00	4035.25	4035.50	4136.25	4259.75	4156.25	4149.00	4199.25	4292.75	4319.25	4365.75	4267.50	4213.25	3991.25	3620.00	3509.75	3344.50	2823.75	2397.75	2216.25	2495.50	2751.75	3269.00	3597.50	3668.25	3867.25	4020.25	4219.00	4165.75	4065.25	4009.25	4093.25	3878.50	4071.50	3965.50	3742.00	3840.75	3904.25	3810.00	3881.00	3881.50	4048.25	3944.50	3724.50	3764.00	3600.75	3250.75	3026.75	3030.50	3316.00	3241.75	3245.00	3432.25	2995.75	2587.25	2444.00	2121.00	2006.25	1837.25	1796.75	1927.50	1573.75	1039.00	998.00	1249.25	1216.75	1020.50	845.75	787.75	608.25	637.50	729.25	717.00	896.75	856.25	889.25	978.50	1085.75	1244.00	1386.50	1917.75	1996.50	2141.75	2145.75	2195.50	2525.00	2768.25	3271.75	3337.50	3129.75	3103.25	3161.00	3331.50	3310.25	3195.50	3096.25	2659.25	2293.75	2098.00	2256.00	2456.75	2407.75	2114.25	2012.00	1936.75	1794.25	1790.50	1760.75	1749.25	1633.25	1404.25	1304.25	1211.50	1098.00	1289.00	1161.00	1183.75	1049.25	1104.50	1136.50	893.00	948.50	971.25	691.50	681.25	790.00	924.25	1081.75	1184.25	1105.50
3640.25	3814.75	3777.00	3568.75	3576.00	3656.75	3947.00	4424.50	4643.25	4523.75	4388.75	4614.75	4756.00	4854.00	4824.00	4810.25	4664.75	4465.50	4656.50	4652.25	4834.50	4842.25	4712.75	4672.00	4733.25	4784.00	4702.50	4558.75	4540.25	4694.50	4463.25	4665.50	4841.75	4879.75	4823.75	4811.75	4733.00	4790.00	4826.25	4827.75	4681.00	4705.75	4897.00	5049.75	4946.00	4710.25	4766.75	4901.25	4679.25	4659.75	4581.00	4646.50	4588.00	4450.75	4468.50	4468.00	4332.50	3998.25	4012.25	4335.00	4466.75	4533.50	4398.75	4141.75	3963.75	3672.75	3713.25	4302.75	4371.00	4292.00	4229.25	4356.00	4482.50	4598.25	4572.75	4571.00	4475.25	4454.00	4190.75	4126.00	4151.75	4207.50	4128.75	4277.25	4273.00	4206.00	4158.75	4197.50	3938.75	3631.25	3758.00	3840.75	3906.75	3885.50	3705.00	3652.75	3412.25	3242.25	3606.25	3952.25	4165.25	4346.00	4382.50	4445.50	4477.75	4461.00	4422.75	4373.25	4301.50	4289.00	4210.75	4265.50	3786.50	3512.25	3161.75	3155.25	2989.50	2596.25	2789.00	3235.50	3552.50	3478.75	3848.75	3880.75	3415.00	3709.50	4120.75	3822.00	3860.00	4059.75	4379.75	4329.75	4262.00	4346.00	4277.75	4169.75	4161.75	4103.50	4264.75	4173.75	3978.00	3383.75	3051.50	2820.00	2455.75	2252.25	2829.50	3196.50	3549.00	3595.00	3705.00	3858.75	4091.50	4154.25	4249.00	4207.25	4153.50	4093.50	3938.00	3963.25	3883.00	3776.75	3796.25	3946.50	3992.25	4043.50	3945.75	4007.00	4001.75	3796.00	3665.00	3497.00	3381.50	3428.75	3336.50	3377.25	3351.00	3563.00	3675.75	3298.75	2893.50	2526.25	2270.25	1968.00	1926.75	1706.00	1569.75	1447.75	1237.25	998.25	1336.25	1379.50	1218.00	862.75	791.50	751.25	618.25	687.00	692.50	759.25	661.50	666.25	787.25	921.75	1119.25	1437.50	1760.75	1721.50	1828.00	1686.00	1914.00	2413.25	2820.50	3191.25	3289.25	3396.50	3372.75	3301.00	3476.25	3427.00	3180.00	2963.00	2647.00	2317.50	2450.25	2579.75	2694.50	2403.25	2086.00	1910.25	1951.50	1727.00	1618.25	1565.75	1602.75	1522.00	1384.75	1153.75	1100.25	1009.50	1139.50	1025.00	1035.75	923.00	841.25	925.25	806.00	759.75	740.75	803.25	970.25	965.50	1011.00	1293.25	1484.25	1355.00
3337.00	3768.50	4302.00	4306.50	4228.00	4116.00	4010.00	4165.25	4318.50	4380.50	4592.00	4744.25	4721.25	4765.00	4794.50	4714.75	4493.50	4394.75	4510.25	4493.25	4603.75	4736.50	4758.75	4701.50	4677.50	4659.50	4662.75	4521.00	4487.25	4621.50	4468.00	4680.75	4858.75	4795.75	4725.00	4781.25	4662.50	4713.75	4812.75	4858.25	4743.75	4582.25	4693.50	4926.25	4956.00	4825.00	4698.25	4940.75	4806.25	4699.00	4602.50	4579.25	4442.25	4267.50	4214.25	4298.25	4043.25	3932.50	4261.50	4383.50	4502.00	4611.75	4525.75	4463.50	4276.75	3893.50	3679.00	4225.75	4317.50	4409.00	4378.00	4450.00	4597.50	4599.25	4488.50	4505.25	4393.25	4293.75	4311.25	4417.00	4439.25	4401.25	4326.00	4223.50	4158.00	4031.25	3915.00	3993.75	3761.75	3696.75	3987.25	4110.00	3967.50	3949.75	3780.75	3841.25	3851.00	3562.75	3426.75	3734.00	4009.50	4304.25	4390.75	4404.25	4461.75	4502.00	4476.00	4365.75	4240.25	4193.25	4102.00	4242.75	3875.50	3546.00	3498.75	3707.50	3408.25	2860.50	2625.25	2650.50	3240.00	3270.00	3680.50	3744.00	3344.25	3480.25	3795.50	3587.25	3888.00	4185.75	4346.25	4253.25	4290.25	4384.00	4269.75	4161.25	4042.75	4191.75	4327.25	4330.25	4149.75	3627.50	3513.00	3414.75	3066.50	2415.75	2644.25	3211.50	3689.50	3679.00	3846.75	4062.25	4227.00	4267.50	4156.00	4250.00	4132.25	4076.50	4004.25	3957.75	3863.00	3860.00	4025.75	4017.00	3998.25	4087.00	4067.50	3932.25	3835.00	3778.00	3741.25	3621.25	3633.25	3629.00	3425.75	3561.75	3584.00	3601.00	3457.00	3358.75	2934.00	2641.25	2276.50	1915.75	1759.25	1578.50	1435.75	1288.50	1138.25	1047.75	1325.25	1556.50	1297.25	948.00	970.75	913.50	785.25	593.50	610.75	619.25	628.50	621.50	633.00	761.00	1233.50	1391.25	1503.25	1292.50	1489.75	1778.00	2121.00	2413.00	2720.00	2943.00	3043.50	3286.25	3369.25	3438.75	3495.75	3283.75	3153.50	2991.50	2855.25	2578.25	2743.00	2931.75	2727.25	2437.75	2154.50	1810.00	1767.50	1586.75	1459.50	1338.00	1354.50	1288.25	1305.50	1131.75	963.00	970.00	934.75	891.00	878.75	853.00	860.25	879.00	796.50	845.25	954.25	959.50	1127.00	1239.75	1186.75	1464.75	1413.50	1252.25
2854.75	3075.75	3672.00	3883.25	4147.50	4428.00	4438.50	4447.00	4538.00	4532.25	4593.25	4617.50	4677.75	4781.50	4586.00	4642.25	4357.75	4489.00	4603.50	4651.75	4702.25	4747.75	4798.50	4701.00	4656.50	4529.75	4473.75	4471.75	4621.50	4465.25	4393.50	4594.00	4731.00	4763.75	4708.00	4697.00	4634.00	4700.25	4778.25	4825.25	4725.00	4598.25	4611.75	4749.50	4819.75	4752.75	4762.75	4819.00	4856.75	4768.00	4672.00	4521.00	4238.50	3988.00	3983.50	3974.25	3929.50	4299.50	4488.00	4582.00	4632.50	4641.00	4600.00	4518.50	4509.75	4165.25	3852.75	4331.00	4378.00	4467.75	4543.50	4469.00	4590.75	4639.00	4575.75	4575.25	4344.75	4359.75	4554.50	4494.00	4422.50	4356.25	4295.50	4174.25	4151.50	4077.50	3959.00	3845.50	3796.25	3946.75	4165.00	4326.50	4146.00	4092.00	3975.75	3936.75	3902.75	3915.25	3518.50	3637.50	4002.75	4226.00	4312.25	4363.00	4427.50	4468.50	4470.50	4381.75	4298.50	4166.50	4126.00	4085.50	4165.00	4000.00	4126.00	4101.75	3602.75	3142.25	3167.25	2681.50	2799.25	3188.00	3251.00	3267.25	3109.50	3310.25	3339.75	3482.75	3905.00	4071.00	4169.75	4080.25	4331.25	4370.00	4226.50	4039.25	3976.00	4162.25	4325.75	4157.50	4212.00	3756.50	3574.50	3478.75	3291.00	2723.50	2393.00	2816.75	2958.00	3081.00	3578.00	3758.50	3940.00	4016.25	4047.25	4133.50	3985.50	4245.00	4137.75	4067.00	4061.50	4018.25	4033.25	4132.75	4124.00	4220.00	4093.75	3932.00	3944.75	3865.25	3839.00	3727.00	3855.00	3754.00	3683.00	3705.50	3776.00	3736.75	3314.00	3081.25	3249.50	2925.25	2503.75	2255.25	2115.50	1949.00	1720.75	1411.75	1137.00	1504.00	1739.50	1610.25	1320.50	1172.25	1183.25	1047.00	905.25	766.25	653.75	659.50	790.75	716.00	613.25	688.75	1161.50	1150.25	1130.00	1006.50	1450.50	1964.75	2193.00	2209.50	2210.25	2470.50	2412.50	2924.75	3129.00	3406.25	3501.50	3342.25	3138.00	3024.75	2781.25	2672.25	2893.00	2949.00	2804.50	2623.75	2286.00	2016.25	1955.50	1613.50	1386.00	1205.75	1183.50	1110.25	1130.50	1103.75	938.00	847.25	829.00	880.25	800.00	860.50	891.00	1057.25	1095.25	1062.00	1241.25	1124.50	1148.50	1553.00	1559.50	1572.25	1512.25	1438.50
2346.00	2598.25	2982.25	3239.25	3624.00	4092.50	4497.00	4681.75	4683.25	4675.00	4646.00	4683.50	4751.25	4754.75	4454.75	4451.75	4294.50	4537.75	4585.00	4695.75	4775.75	4773.00	4714.50	4650.00	4632.75	4533.00	4341.50	4471.25	4629.25	4364.50	4459.75	4532.00	4671.00	4680.50	4766.00	4779.75	4625.50	4653.50	4778.00	4785.00	4717.75	4656.50	4612.25	4632.75	4609.50	4575.00	4686.25	4594.00	4725.50	4685.00	4612.50	4425.00	4073.00	4257.00	4274.75	4152.50	4160.75	4462.25	4596.50	4655.25	4618.75	4540.25	4528.00	4392.50	4360.50	3906.00	3778.00	4366.50	4544.75	4614.50	4600.75	4534.75	4567.00	4684.25	4540.50	4472.25	4355.75	4513.25	4553.50	4480.00	4469.00	4452.75	4424.00	4339.00	4316.00	4104.25	3933.75	4134.75	4106.25	4130.25	4272.50	4368.50	4231.50	4144.50	3960.00	3901.75	3843.00	3926.25	3574.25	3479.00	3763.25	4109.00	4234.50	4343.25	4426.75	4479.25	4464.25	4418.25	4302.00	4200.25	4148.75	4004.00	4184.25	4164.00	4308.00	4238.25	3888.25	3640.00	3615.25	3022.00	2483.75	2705.25	2682.50	2742.25	2857.25	3235.75	3035.25	3413.00	3825.25	4023.00	4152.75	3907.75	4326.50	4302.00	4230.50	3977.00	3885.00	4086.75	4275.75	4236.00	4053.00	3642.75	3351.25	3075.50	2790.25	2507.50	2168.25	2332.50	2491.25	2799.00	3301.25	3345.00	3586.25	3612.75	3861.00	3844.75	4105.25	4342.75	4237.00	3973.00	4101.50	4091.00	4096.00	4149.50	4063.25	4181.75	3987.75	3891.75	3898.75	4043.75	3996.50	3794.75	3960.25	3991.00	3858.25	3859.50	3862.75	3721.00	3424.75	2820.00	2724.00	3020.75	2858.50	2201.50	1816.75	1637.25	1443.00	1278.00	1205.00	1650.00	1847.50	1615.00	1444.00	1403.75	1333.25	1104.50	1071.25	963.50	928.75	874.00	804.00	664.25	620.00	610.00	901.25	830.25	950.50	1187.00	1361.50	1869.00	1737.75	1594.75	1719.25	1951.00	2441.50	2878.25	3219.00	3435.00	3375.25	3280.00	3211.00	2948.50	2689.00	2781.75	2699.75	2679.50	2664.25	2721.50	2524.75	2199.50	1955.50	1647.00	1416.00	1342.50	1308.50	1175.00	941.50	904.75	832.75	921.25	1040.50	1141.75	1228.75	1200.50	851.25	997.00	1286.50	1386.00	1414.25	1306.75	1310.75	1762.75	1944.00	1898.25	1737.25	1540.75
2767.75	3000.50	3218.00	3426.50	3691.25	4175.00	4513.00	4584.75	4608.75	4732.50	4697.50	4575.25	4575.25	4671.25	4345.50	4252.25	4348.50	4458.75	4519.50	4622.75	4646.25	4639.75	4690.75	4631.50	4579.75	4432.25	4298.50	4354.75	4411.75	4417.00	4589.50	4611.00	4576.75	4641.75	4795.25	4844.75	4628.00	4647.00	4730.25	4738.50	4704.25	4679.75	4654.75	4611.25	4545.50	4596.25	4717.75	4501.00	4525.00	4610.75	4369.00	4217.00	4260.00	4521.00	4603.25	4408.75	4501.00	4568.50	4612.00	4703.50	4567.00	4327.00	4282.00	4129.75	4028.00	4030.00	4203.75	4398.25	4517.50	4646.75	4676.50	4642.25	4589.75	4728.25	4592.25	4491.50	4536.00	4607.75	4635.00	4558.50	4541.25	4471.25	4383.50	4254.00	4116.25	4034.25	4038.50	4232.00	4329.00	4294.00	4390.75	4384.00	4243.50	4130.75	3954.25	3868.25	3804.50	3787.50	3570.25	3340.00	3588.50	4019.75	4171.75	4355.75	4378.00	4432.25	4457.00	4410.50	4350.50	4270.25	4175.25	4183.00	4014.25	4140.00	4195.50	4317.75	4054.00	3658.00	3434.50	3076.00	2818.50	2729.25	2472.25	2765.50	3160.00	2900.25	3133.75	3502.75	3603.75	3771.00	3838.50	3708.00	4241.25	4180.50	4215.00	4028.50	3788.75	3848.00	3979.50	4037.25	3965.75	3827.00	3782.00	3490.25	2994.75	2534.50	2301.50	2722.00	2807.50	2797.00	2941.50	3131.50	3326.00	3354.00	3559.25	3832.50	4108.50	4189.25	4256.75	4085.25	3954.50	4018.50	4164.75	4072.00	4080.00	4177.50	3898.75	3850.75	3969.25	4118.25	4028.50	3947.25	3945.75	3831.50	3989.75	3912.50	3795.75	3591.00	3468.00	2942.50	2405.75	2485.75	2589.00	2299.25	1886.50	1710.25	1557.75	1288.75	1254.25	1591.50	1813.75	1869.50	1746.00	1434.25	1284.25	1127.75	1028.00	1017.75	933.75	803.25	709.75	660.75	635.25	627.75	659.75	798.50	1063.50	1217.50	1480.25	1529.00	1359.50	1392.50	1761.25	2196.25	2556.75	3030.00	3270.50	3292.50	3124.50	3007.50	2961.25	2871.25	2889.75	2932.00	2518.75	2239.50	2128.00	2293.00	2494.25	2189.00	1805.25	1541.75	1413.00	1335.25	1304.75	1129.00	889.00	958.00	1022.00	1143.25	1309.00	1456.00	1454.50	1226.50	903.00	931.25	1145.00	1418.00	1696.00	1622.50	1704.00	1722.25	1834.50	1707.50	1473.25	1248.25
3336.75	3576.75	3825.75	4051.50	4166.00	4393.25	4334.75	4194.00	4461.00	4688.25	4688.25	4420.75	4408.75	4508.75	4138.75	4383.75	4555.25	4548.75	4602.50	4610.75	4636.50	4669.50	4686.25	4638.50	4558.00	4422.75	4294.75	4481.25	4511.25	4593.50	4634.00	4754.25	4639.75	4639.25	4701.50	4744.25	4650.25	4658.50	4743.75	4716.00	4696.50	4679.25	4699.50	4613.00	4545.00	4587.50	4628.25	4659.25	4363.50	4372.00	4378.00	4357.25	4454.75	4585.25	4545.00	4507.25	4490.75	4646.00	4746.25	4676.50	4492.25	4172.75	4046.25	3990.50	4241.00	4420.25	4307.25	4365.25	4590.75	4661.25	4656.75	4644.00	4585.25	4674.50	4630.00	4625.00	4666.25	4668.50	4558.75	4518.00	4495.50	4474.75	4372.75	4143.50	3967.25	4257.75	4264.00	4281.25	4396.50	4406.50	4414.25	4342.00	4214.25	4107.25	3941.00	3883.75	3816.25	3819.25	3587.50	3361.00	3579.00	4041.75	4167.25	4337.00	4400.50	4415.50	4420.50	4402.25	4399.75	4347.25	4348.25	4323.75	4103.75	4025.25	4084.75	4133.75	4057.25	3634.25	3431.75	3452.75	3484.00	3021.50	2494.00	2580.75	2672.25	2820.25	3041.25	3232.50	3547.00	3825.50	3588.25	3525.50	4155.25	4122.00	4040.75	3966.75	3811.75	3628.00	3759.25	3828.75	3598.00	3517.50	3527.00	3273.75	2664.25	2205.00	2543.75	2982.50	3299.25	3336.75	3157.50	3274.00	3598.50	3619.75	3611.25	3650.50	4033.50	4370.00	4374.75	4174.50	4003.00	3936.25	4108.75	4014.00	4118.50	4011.25	4001.50	3669.75	4075.75	4240.25	3990.25	3875.00	4022.50	3775.00	3958.25	4038.50	3821.75	3502.25	3388.75	2898.25	2417.50	2112.75	2142.00	2414.00	1951.00	1649.50	1378.50	1236.75	1442.25	1516.75	1815.75	1984.75	1842.50	1537.50	1333.50	1116.00	1071.50	903.50	808.75	740.50	730.00	677.75	654.50	648.50	626.00	661.75	856.75	1023.00	1111.25	1243.50	1226.00	1620.50	1961.75	2261.50	2624.25	2894.50	3107.25	3231.00	3135.50	3043.75	2958.75	3064.00	3017.50	3088.25	2342.75	1994.00	1781.00	1916.50	2211.75	2121.00	1801.00	1649.25	1565.50	1251.75	1141.75	1006.25	982.75	1179.25	1249.50	1285.25	1641.75	1849.25	1411.50	1147.25	899.00	1046.25	1181.25	1341.00	1626.00	1917.00	1768.50	1432.50	1579.50	1502.75	1223.50	992.25
3201.00	3541.25	3877.50	3971.50	3872.00	4035.50	3725.50	3729.75	4100.50	4619.75	4708.50	4447.50	4245.75	4417.25	4005.25	4578.25	4659.25	4593.75	4741.75	4759.25	4662.75	4638.75	4629.25	4634.50	4578.25	4524.75	4347.25	4423.75	4596.75	4620.75	4501.75	4662.25	4679.75	4686.75	4688.00	4681.00	4659.00	4624.75	4727.00	4686.75	4684.25	4680.75	4643.25	4648.50	4558.75	4502.00	4523.25	4556.00	4478.25	4263.75	4315.00	4315.25	4324.25	4458.25	4511.75	4549.25	4588.75	4591.00	4691.25	4571.25	4311.00	4113.50	4344.50	4455.25	4572.75	4448.75	4147.50	4380.00	4494.75	4555.00	4603.00	4573.75	4502.00	4583.00	4700.25	4684.00	4655.50	4584.25	4478.75	4485.50	4412.75	4373.00	4256.00	4174.50	4127.50	4385.50	4440.50	4391.75	4431.25	4428.75	4397.00	4371.00	4234.50	4142.00	3975.75	3902.00	3872.25	3884.00	3592.00	3396.25	3649.00	3956.00	4084.00	4274.75	4341.00	4392.25	4368.00	4326.25	4322.50	4205.50	4281.75	4294.00	4143.00	3995.25	3937.50	3901.25	3936.25	3874.75	3928.25	3894.25	3837.75	3080.25	2813.25	2791.25	2546.75	2658.00	2859.50	3218.75	3675.25	3732.00	3332.00	3575.00	4002.50	4021.25	3907.00	3799.50	3829.50	3702.50	3578.25	3675.50	3672.00	3033.75	2888.75	2804.25	2468.00	2546.25	3049.25	3342.75	3665.00	3777.00	3530.00	3452.75	3784.75	4084.25	4130.75	4067.50	4139.75	4378.75	4367.75	4228.00	4097.25	3931.50	3869.25	3948.75	3989.75	4059.50	3933.00	3619.75	3784.25	4070.75	4049.75	3771.00	3979.75	3756.50	3723.25	3945.00	3831.00	3272.75	3022.25	2718.25	2465.25	2232.25	1855.50	2047.50	2206.25	1999.25	1374.00	1412.25	1906.00	1871.25	1986.75	1751.25	1591.00	1573.50	1365.00	1066.50	959.25	889.00	847.25	849.25	859.25	723.50	715.25	733.00	739.50	703.75	703.25	806.75	887.75	1063.50	1261.75	1489.50	1603.00	1906.75	2393.00	2707.00	2748.75	2916.50	2864.25	2939.00	2980.75	2677.25	2879.75	2826.25	2523.50	2131.75	1774.75	1589.50	1901.00	1981.00	1846.50	1510.75	1453.50	1207.00	1095.50	1099.25	1141.50	1318.75	1447.75	1432.00	1769.75	1647.50	1291.25	1090.75	900.25	1125.25	1433.50	1598.50	1655.00	1688.75	1548.25	1253.75	1272.50	1170.00	1099.75	1152.00
2821.25	3186.50	3333.50	3416.00	3368.25	3508.50	3228.00	3530.75	4223.25	4598.50	4579.00	4052.50	4038.50	4425.50	3876.50	4253.75	4348.25	4583.75	4684.75	4733.75	4540.75	4510.25	4524.50	4609.00	4588.75	4675.00	4477.50	4270.75	4411.75	4505.75	4400.25	4531.75	4778.00	4711.50	4680.50	4652.50	4635.75	4616.00	4668.00	4700.75	4667.75	4662.75	4627.75	4612.25	4573.50	4437.00	4402.00	4351.50	4349.25	4249.50	4249.00	4292.50	4261.25	4355.00	4493.75	4555.25	4610.25	4566.00	4607.50	4537.50	4232.00	4404.75	4560.00	4644.75	4560.75	4315.25	4116.50	4216.50	4509.00	4567.50	4487.75	4441.00	4508.50	4614.75	4695.50	4741.00	4563.25	4498.75	4445.50	4477.75	4400.50	4272.25	4329.25	4435.50	4357.75	4403.00	4453.25	4495.75	4424.50	4463.00	4446.50	4378.25	4258.75	4187.50	3992.50	3922.00	3850.75	3806.25	3717.50	3386.25	3660.50	3920.75	4022.25	4241.75	4382.50	4392.75	4370.75	4251.00	4179.00	4073.25	4147.25	4258.25	4236.25	4084.25	3948.50	3902.75	3869.50	3952.50	4119.25	4167.75	3904.75	3221.25	3240.00	3384.00	2893.25	2465.50	2565.25	3024.50	3611.75	3392.75	3293.25	3655.25	3548.50	3753.00	3859.50	3688.50	3780.25	3830.00	3603.75	3441.25	3716.50	3113.50	2613.25	2379.00	2201.75	2737.00	3462.25	3654.75	3461.50	3597.50	3883.50	3857.00	3831.00	4032.75	4180.00	4262.00	4329.25	4306.75	4249.50	4199.75	4196.50	4000.25	3839.00	3789.25	3819.75	3978.75	3840.25	3712.75	3525.25	3849.50	3927.75	3644.50	3814.75	3835.50	3466.25	3723.75	3751.00	3102.00	2611.75	2599.75	2195.75	2298.00	2010.75	1587.75	1798.50	1582.75	1299.75	1658.00	2074.00	2265.75	2132.50	1863.25	1650.25	1372.25	1355.75	1047.75	939.25	1008.25	960.00	948.75	800.00	753.75	830.25	893.25	901.50	830.50	635.25	758.50	999.25	1241.75	1560.25	1854.75	1961.75	2161.75	2339.50	2510.00	2197.25	2237.75	2292.50	2792.00	2792.75	2410.00	2241.25	2405.75	2375.50	2163.50	1849.00	1456.50	1623.50	1615.25	1715.50	1634.00	1469.50	1242.00	1083.25	1319.50	1331.25	1447.00	1637.00	1761.25	1677.50	1352.25	1028.50	924.75	888.75	1237.50	1566.50	1871.75	1655.75	1416.25	1327.00	1101.25	1177.25	1245.25	1411.75	1242.75
2740.00	2848.25	3066.25	3018.25	2808.00	2920.50	3003.25	3628.25	4184.25	4161.75	4097.00	3532.50	3783.25	4261.50	3817.00	4048.50	4403.25	4533.00	4594.50	4734.50	4473.00	4438.00	4574.75	4660.50	4654.75	4763.00	4649.75	4467.25	4209.25	4406.75	4275.00	4451.00	4671.75	4759.75	4686.25	4676.75	4638.75	4630.50	4635.00	4662.00	4668.25	4655.50	4618.75	4533.75	4477.25	4407.50	4345.00	4312.75	4316.50	4302.75	4338.25	4377.75	4298.50	4446.75	4549.75	4634.00	4616.75	4461.25	4448.00	4409.00	4271.00	4394.00	4474.25	4654.00	4647.75	4498.25	4211.00	4294.25	4361.50	4427.25	4513.00	4519.50	4572.75	4679.00	4750.00	4734.75	4670.50	4605.50	4618.25	4505.00	4530.75	4526.00	4507.00	4492.75	4438.25	4490.00	4460.50	4476.50	4410.50	4413.25	4467.50	4384.25	4231.50	4126.50	4008.00	3942.25	3863.00	3784.50	3621.75	3385.00	3670.00	3902.25	4009.25	4188.25	4314.25	4339.75	4286.00	4148.75	4017.50	4005.50	4067.00	4275.00	4085.00	3978.25	3906.25	3827.50	3799.00	3868.75	4005.25	4039.75	4005.00	3740.75	3667.25	3539.75	3000.00	2698.50	2425.50	2898.75	3367.25	3123.75	3353.50	3428.00	3254.75	3539.75	3713.75	3585.25	3620.00	3743.50	3625.25	3457.00	3369.25	3123.75	2898.75	2686.25	2237.00	2396.00	3156.75	3188.50	2883.25	3131.00	3670.00	3969.50	4014.00	4041.75	3966.00	4062.25	4252.75	4274.25	4105.50	4149.50	4177.50	3988.50	3865.75	3700.75	3698.75	3854.25	3641.25	3592.50	3269.50	3521.50	3793.50	3712.00	3594.75	3766.50	3502.50	3275.75	3494.25	2977.00	2499.50	2365.50	2039.25	1870.25	1810.00	1645.00	1497.25	1543.75	1504.50	1563.25	1876.75	2194.25	2157.75	1791.25	1606.25	1277.00	1213.00	1121.75	1059.25	1049.50	1060.50	1030.25	914.50	850.50	847.25	978.50	1018.75	858.75	671.50	666.25	863.75	1083.50	1360.50	1686.25	1908.25	1880.50	2151.25	2288.00	1917.00	2054.50	2341.25	2783.25	2852.25	2522.00	2069.75	1958.75	2109.00	2009.00	1785.25	1484.75	1499.25	1409.25	1370.25	1264.25	1176.25	1240.75	1061.00	1416.50	1572.00	1600.00	1819.75	1751.75	1444.25	1237.25	1126.50	1119.25	969.00	1173.75	1449.25	1816.75	1621.50	1228.75	1245.50	1512.75	1639.25	1538.00	1330.00	930.75
2533.25	2548.25	2946.75	2718.75	2412.75	2660.75	3093.50	3608.25	4148.00	3847.50	3693.00	3255.50	3671.00	3988.00	3650.25	3927.00	4289.00	4358.75	4647.25	4765.25	4450.25	4460.75	4616.50	4678.50	4741.75	4844.50	4750.50	4636.25	4266.25	4324.00	4186.75	4453.00	4581.75	4693.00	4720.25	4683.25	4660.75	4661.00	4665.75	4668.75	4634.75	4612.00	4574.00	4457.25	4393.75	4328.00	4354.00	4386.50	4421.00	4387.00	4361.75	4411.00	4314.25	4513.00	4632.50	4665.50	4609.00	4458.50	4361.75	4313.25	4244.75	4389.00	4469.25	4604.50	4684.75	4555.00	4236.50	4424.50	4421.75	4483.25	4645.25	4612.00	4594.25	4621.00	4726.50	4651.00	4680.50	4567.25	4596.00	4506.50	4571.25	4526.75	4509.75	4495.75	4414.25	4510.00	4435.00	4482.75	4383.75	4376.50	4441.50	4383.25	4240.50	4173.25	4013.25	3934.50	3870.00	3748.00	3575.50	3426.25	3770.50	3885.50	4005.00	4146.00	4294.50	4316.50	4205.00	4053.00	3966.00	3973.25	4007.25	4258.00	4056.00	4006.25	3900.50	3803.25	3771.50	3809.00	3936.75	3979.50	4059.50	4010.75	3969.50	3628.75	3211.00	2953.50	2451.75	2710.75	3092.50	2894.00	3357.50	3252.00	3136.25	3427.75	3634.50	3495.00	3572.00	3683.75	3632.75	3581.50	3376.00	3385.75	3341.50	2832.25	2409.25	2250.00	2821.25	2784.50	2597.00	2903.50	3540.50	3904.00	3966.50	4017.00	3912.50	4043.75	4174.00	4148.25	4011.75	4126.00	4144.00	3962.25	3835.00	3665.00	3492.50	3627.75	3432.00	3348.25	3100.50	3315.25	3662.00	3797.25	3498.00	3671.00	3612.50	3034.00	3226.25	2855.50	2388.50	2147.75	1899.25	1803.25	2007.75	1897.75	1705.00	1715.50	1557.25	1593.75	2052.25	2370.25	2197.25	1765.75	1649.75	1344.25	1187.25	1302.50	1140.75	1102.50	1118.00	1083.50	981.00	920.25	872.00	975.00	1020.25	801.50	689.00	631.00	801.75	1063.50	1306.75	1600.25	1765.50	1675.75	2003.75	2137.75	1820.25	2013.50	2151.75	2663.50	2923.00	2627.00	2152.75	1848.75	1921.75	1818.75	1691.75	1482.00	1415.75	1331.50	1221.00	1135.00	1239.50	1382.25	1089.00	1466.25	1688.50	1707.75	1878.50	1663.00	1278.00	1159.25	1308.50	1168.00	964.75	1361.00	1605.75	1859.00	1612.25	1216.75	1448.75	1837.75	1780.75	1546.75	1171.75	876.50
1996.25	2353.25	2482.50	2098.25	2564.00	3366.50	3454.50	3123.25	3221.50	3034.50	2753.00	3030.25	3166.50	3340.25	3679.00	4426.00	4492.75	4511.25	4589.50	4683.50	4341.25	4435.25	4572.25	4592.50	4724.50	4862.00	4721.25	4586.25	4425.00	4021.00	4136.00	4302.50	4483.25	4533.75	4671.00	4799.75	4755.50	4702.00	4701.50	4602.75	4570.00	4626.00	4558.50	4431.75	4436.00	4471.50	4519.00	4533.50	4594.25	4665.25	4546.00	4497.00	4371.25	4475.00	4605.00	4640.00	4583.75	4475.75	4331.50	4206.75	4327.25	4447.75	4566.75	4621.75	4688.75	4455.50	4416.25	4346.00	4405.25	4629.50	4715.00	4710.50	4714.50	4699.50	4707.75	4649.00	4555.75	4558.00	4575.75	4605.50	4548.50	4458.25	4294.00	4273.50	4427.25	4431.00	4400.50	4421.00	4192.75	4266.25	4285.75	4251.75	4101.75	4052.00	4083.75	4022.00	3866.50	3776.50	3565.00	3547.50	3776.50	3864.75	3936.25	4098.75	4279.50	4271.00	4047.75	3916.25	3945.00	3872.50	3910.25	4233.75	4028.00	3838.75	3767.75	3781.50	3735.00	3843.50	3854.00	3881.75	3903.25	4047.75	4196.00	4072.00	3816.75	3249.50	2594.75	2439.25	2671.00	2992.25	3121.25	2916.25	3275.25	3646.00	3500.00	3287.75	3459.50	3517.75	3408.25	3425.00	3268.25	3208.25	3290.75	3332.00	3088.50	2513.00	2270.25	2378.25	2188.50	2395.50	3128.75	3324.50	3376.50	3608.50	3707.50	3781.00	3864.75	4180.25	4283.00	4252.50	4139.75	4101.25	4041.50	4000.25	3916.75	3703.25	3859.00	3782.25	3503.00	3068.00	3128.25	3274.25	2993.25	3077.50	3297.00	3055.50	2782.75	2330.50	2189.75	2374.00	2557.75	2421.00	2350.00	2701.50	2234.00	2342.50	1735.25	1892.00	2335.75	2565.25	2450.50	2258.75	2098.75	1490.75	1324.75	1638.00	1248.75	1379.75	1535.75	1334.00	1208.00	1248.75	1212.75	1068.00	947.00	971.75	826.25	716.50	658.00	961.00	1244.00	1365.00	1506.50	1294.25	1730.75	1650.75	1477.25	1899.50	2163.75	2448.50	2749.75	2460.00	2043.50	1891.00	1610.75	1458.25	1505.50	1403.00	1376.50	1352.75	1380.00	1657.75	1532.75	1197.75	1256.00	1640.25	1803.75	1762.25	1598.75	1597.50	1535.50	1420.50	1155.50	976.75	1111.50	1395.75	1734.75	1758.25	1434.75	1353.00	1741.75	1880.00	1828.50	1359.75	903.75	933.75
2262.75	2288.50	1882.75	2022.25	2665.50	3148.50	3141.25	2563.00	2500.25	2423.25	2815.25	3518.00	3688.75	3854.75	4111.00	4678.50	4753.00	4668.50	4637.75	4664.00	4342.50	4599.00	4726.25	4763.25	4784.25	4728.75	4486.75	4342.25	4224.00	3962.25	4115.25	4138.25	4307.25	4403.50	4530.00	4689.00	4899.25	4802.25	4599.50	4579.75	4587.25	4668.75	4639.00	4479.25	4408.75	4505.00	4563.00	4665.25	4635.50	4723.50	4570.25	4597.00	4522.75	4386.25	4512.25	4574.00	4697.50	4393.75	4234.50	4293.25	4426.25	4523.00	4615.25	4686.00	4627.00	4453.50	4489.00	4554.75	4456.75	4447.00	4736.75	4668.00	4706.25	4731.25	4640.50	4687.00	4544.75	4442.25	4443.25	4535.75	4542.00	4472.50	4234.50	4252.50	4369.50	4306.00	4305.50	4379.50	4082.75	4224.25	4168.75	4181.50	3926.25	3926.75	4211.00	4022.00	3789.75	3697.50	3551.75	3417.50	3634.25	3878.50	3976.75	4073.75	4236.00	4170.50	3917.50	3861.00	3941.00	3891.75	3890.00	4206.00	3861.25	3699.00	3706.00	3711.00	3743.50	3860.75	3932.50	3852.50	3801.00	4049.25	4152.00	4148.50	3894.00	3200.75	2682.75	2431.25	2524.50	2781.25	2744.00	2871.00	3422.75	3739.50	3409.75	3131.25	3394.25	3565.50	3355.50	3022.75	2987.00	2855.25	2912.00	3152.00	3381.50	3154.75	2716.50	2958.75	2357.25	2190.50	2729.25	2836.75	3005.50	3420.00	3902.50	4027.50	4106.25	4197.50	4195.25	4092.00	4174.00	4101.00	3976.50	3934.75	3844.75	3907.25	4055.00	3846.50	3709.00	3334.00	3028.75	2935.00	2845.00	2604.25	2837.75	2587.00	2443.00	2416.50	2606.00	2828.00	3083.75	2671.25	2697.50	3102.25	2883.25	2626.00	1871.50	2083.00	2586.50	2293.75	2160.00	1837.25	1663.25	1702.50	1831.75	1760.50	1406.50	1397.25	1775.25	1571.75	1496.50	1519.50	1245.00	1031.00	1072.25	974.25	819.50	718.25	673.50	685.00	991.00	1354.50	1238.50	1347.75	1532.75	1252.25	1576.00	1859.00	1845.50	2016.00	2449.50	2648.75	2319.00	2273.75	1808.25	1768.25	1732.00	1773.25	1718.50	1619.00	1775.00	1586.50	1272.50	1204.00	1496.75	1805.00	1896.75	1664.50	1396.25	1286.75	1337.25	1253.25	988.50	1062.75	1268.25	1535.50	2010.00	1986.00	1694.50	1484.75	1784.25	1505.25	1560.25	1357.00	933.00	943.75
1843.75	1832.50	1589.00	1724.75	2194.50	2826.50	2854.75	2253.50	2103.50	2657.50	3194.50	3788.75	4170.75	4396.75	4518.25	4645.50	4543.25	4588.00	4525.75	4315.00	4432.00	4673.00	4708.50	4769.50	4623.75	4662.25	4562.25	4177.25	3954.75	4207.25	4359.25	4281.25	4326.25	4469.50	4500.50	4591.25	4737.75	4774.25	4658.50	4578.50	4581.50	4673.00	4648.75	4517.50	4405.75	4500.00	4608.25	4653.25	4706.50	4756.00	4629.00	4703.50	4525.00	4465.00	4524.50	4553.25	4624.25	4409.50	4244.25	4318.00	4444.00	4542.50	4620.50	4734.25	4668.75	4530.50	4514.25	4765.25	4677.75	4545.75	4533.50	4602.00	4655.50	4705.00	4628.50	4604.50	4584.75	4528.75	4394.25	4345.50	4441.00	4466.75	4294.75	3942.25	4057.00	4096.00	4199.75	4286.50	4027.50	4116.25	4074.25	3984.50	3758.75	3864.25	4161.00	3974.50	3694.25	3607.50	3510.25	3542.25	3733.75	3940.25	4010.25	4058.75	4190.00	4042.25	3868.25	3827.25	3842.25	3811.75	3786.75	4053.75	3876.75	3661.75	3659.50	3759.00	3809.25	3911.25	3924.00	3797.00	3789.75	3853.25	3965.00	4077.25	4028.25	3378.00	3112.25	2874.25	2451.25	2459.25	2467.00	2834.00	3425.75	3559.00	3191.50	3001.25	3371.00	3420.50	3300.50	3016.25	2782.75	2740.75	2776.75	2983.50	3383.00	3632.25	3498.50	3297.50	2649.50	2283.75	2423.25	2538.00	2953.75	3383.75	3783.25	3947.00	3966.75	3980.75	3853.50	4071.00	4126.50	4040.25	4016.25	3972.00	3988.50	3969.25	3915.50	3834.75	3678.75	3653.75	3337.75	3138.25	3014.00	2755.00	2569.00	2606.25	2754.50	2677.25	3023.50	3289.50	3287.25	2982.50	3303.50	3425.75	2761.75	2387.25	2174.50	2583.25	2751.00	2274.25	1944.50	1816.00	1900.50	2310.25	2350.00	1816.00	1424.25	1680.50	1912.75	1848.00	1694.25	1470.25	1228.75	1138.50	1160.25	994.25	786.50	736.00	714.00	680.25	786.75	1101.00	1056.50	1376.50	1247.25	1179.50	1421.00	1543.50	1618.50	1975.25	2401.75	2572.00	2616.50	2574.00	2217.50	2189.00	2000.75	1847.75	1756.75	1771.75	1857.25	1423.00	1169.50	1577.00	1704.50	1751.25	1681.75	1662.50	1506.50	1329.75	1139.75	1034.75	1053.25	1272.50	1487.75	1714.00	2086.00	1954.25	1723.25	1430.00	1713.00	1450.25	1268.50	1044.75	899.75	1080.50
1352.50	1373.50	1418.25	1516.75	1838.50	2740.50	2542.00	1942.75	2240.50	3104.00	3679.75	4087.25	4334.50	4494.25	4574.75	4444.25	4422.75	4371.00	4238.00	4018.75	4534.25	4547.75	4644.50	4679.25	4473.50	4512.25	4243.50	3925.25	4028.75	4471.25	4606.25	4495.25	4296.00	4376.00	4503.75	4544.50	4664.25	4612.75	4601.00	4584.00	4641.00	4647.75	4672.75	4562.00	4435.50	4482.00	4531.50	4549.75	4593.75	4715.50	4787.00	4707.75	4478.00	4601.75	4555.50	4678.50	4513.75	4455.50	4259.00	4343.25	4499.50	4628.00	4681.50	4824.00	4763.25	4662.50	4464.50	4864.75	4739.50	4683.25	4677.00	4536.25	4605.00	4637.00	4710.75	4651.00	4659.00	4646.00	4560.75	4330.25	4156.75	4213.50	3967.00	3785.75	3765.75	3755.75	3939.75	4026.75	3841.75	3906.00	3860.00	3724.00	3608.25	3742.25	3960.25	3771.50	3599.75	3511.50	3486.50	3692.75	3836.25	4001.25	4036.25	4149.00	4148.50	3916.50	3782.75	3750.75	3739.25	3729.25	3714.50	3746.00	3718.25	3562.50	3628.25	3757.75	3832.50	3978.25	3872.75	3697.00	3710.50	3844.50	3887.00	4001.25	3980.25	3758.25	3554.25	3154.75	2877.75	2789.75	2382.25	2776.50	3425.25	3472.25	2989.25	2847.50	3265.25	3181.25	3094.00	2935.25	2708.00	2674.00	2717.25	2815.75	3149.00	3470.50	3788.00	3514.50	2827.00	2446.75	2339.50	2644.50	2703.75	3139.25	3512.25	3605.25	3665.50	3584.00	3626.00	4056.25	3924.25	3979.00	4079.25	4080.75	3997.50	4030.50	3772.00	3680.75	3483.25	3391.50	3225.50	3182.50	3194.00	2908.25	2903.00	3187.50	2893.25	2963.00	2978.75	3440.75	3537.75	3451.00	3626.25	3479.50	2855.25	2376.00	2520.25	2984.00	2699.75	2152.00	2225.75	2131.25	2339.50	2532.50	2251.00	1788.75	1566.75	2055.75	2061.75	2141.25	1860.25	1546.25	1263.00	1415.50	1398.75	1127.00	879.25	813.75	782.75	719.50	696.00	911.50	1164.00	1118.75	1014.00	1209.75	1232.00	1308.50	1576.75	1878.50	2171.75	2096.75	2214.00	2448.75	2402.00	2287.50	1969.50	1695.50	1539.75	1589.50	1655.50	1473.25	1242.50	1744.00	1861.25	1647.50	1433.75	1448.00	1525.75	1380.00	1045.25	1174.50	1465.50	1363.00	1504.25	1944.75	2139.50	1965.00	1724.50	1470.75	1701.50	1414.25	1125.50	966.50	1049.25	1240.25
1834.00	1557.50	1285.00	1301.25	1560.25	2125.75	1914.00	1794.50	2240.50	3027.00	3648.00	4165.50	4356.75	4255.00	4071.50	4145.00	4110.25	3898.75	3930.00	4107.75	4651.25	4591.75	4344.50	4342.50	4242.75	4108.50	3930.00	4065.75	4386.00	4687.25	4697.75	4627.75	4512.75	4386.25	4438.25	4431.00	4531.75	4641.75	4697.00	4635.50	4687.25	4633.00	4619.75	4567.00	4457.75	4575.50	4619.25	4694.00	4701.00	4719.75	4821.00	4690.75	4595.25	4708.75	4643.50	4780.50	4626.50	4672.25	4341.25	4301.00	4436.75	4618.00	4733.75	4896.50	4822.75	4602.25	4514.25	4804.50	4739.25	4722.50	4698.25	4590.50	4658.00	4709.25	4736.25	4697.75	4662.50	4594.75	4525.75	4515.00	4305.50	3950.75	3847.00	4287.25	4255.00	3849.50	3783.00	3751.50	3786.50	3776.25	3688.00	3722.25	3668.75	3672.25	3720.50	3694.50	3624.75	3573.25	3655.50	3733.25	3902.50	4016.75	4110.25	4252.75	4196.50	3981.00	3831.00	3810.00	3776.25	3694.25	3746.25	3617.00	3571.00	3556.25	3621.75	3864.50	3841.25	3911.75	3858.50	3757.25	3716.00	3849.00	3889.25	3963.50	3852.25	3821.25	3820.25	3635.00	3394.75	3100.75	2378.75	2490.50	2864.50	3115.75	2929.75	2689.75	3014.50	2857.00	2920.00	2779.25	2564.25	2618.00	2636.75	2691.50	2924.50	3142.75	3557.25	3537.50	3022.75	2748.25	2320.25	2987.50	3078.75	2917.00	3166.25	3280.25	3397.25	3523.00	3585.50	3693.75	3722.25	3846.00	3998.50	4023.75	3913.75	3913.00	3786.25	3675.25	3696.75	3485.75	3670.25	3589.75	3386.00	3230.50	3451.25	3417.25	3013.75	3136.00	3369.25	3471.75	3721.75	3804.50	3667.25	3458.50	2805.50	2798.00	3158.25	3039.75	2524.25	2588.50	2691.50	2716.25	2839.00	2260.00	2045.50	1710.75	1768.25	2281.75	2425.00	2273.25	1749.00	1549.75	1595.25	1500.50	1571.75	1289.25	1013.50	941.75	880.50	772.75	664.00	784.25	1015.50	877.25	1134.00	1459.75	1634.00	1722.50	1583.00	1672.75	1764.75	1932.25	2285.25	2253.25	1940.50	1880.50	1690.75	1463.00	1379.50	1337.50	1352.75	1340.75	1287.00	1824.50	1868.50	1634.25	1423.50	1293.75	1279.50	1146.50	1243.50	1497.00	1721.25	1872.25	1893.50	2191.25	2119.25	1844.00	1568.75	1734.25	1944.25	1395.75	1102.25	978.00	1190.75	1404.25
2522.75	2067.75	1452.50	1317.75	1333.25	1467.50	1641.00	1935.00	2382.50	3121.75	3840.25	4175.25	4035.50	3717.75	3485.75	3777.00	3585.25	3736.25	4260.50	4212.25	4454.25	4176.75	3738.25	3727.75	3764.25	3791.75	4096.00	4503.25	4604.00	4666.75	4621.00	4571.00	4611.00	4535.75	4440.25	4457.75	4539.00	4646.75	4634.75	4697.75	4699.75	4680.25	4619.00	4508.50	4468.25	4630.00	4710.50	4759.75	4852.25	4868.25	4918.00	4707.00	4650.75	4754.75	4812.75	4850.25	4635.75	4597.00	4468.75	4347.75	4374.50	4620.25	4796.00	4969.75	4786.75	4546.50	4668.50	4797.75	4825.50	4733.25	4578.75	4656.00	4712.00	4798.50	4784.00	4620.75	4700.75	4625.25	4442.50	4424.00	4152.00	3838.50	4120.50	4465.25	4445.50	4032.75	3957.75	4007.75	4135.50	4050.00	3787.00	3861.50	3832.25	3847.75	3901.75	4033.50	3945.75	3801.75	3803.00	3772.75	3922.00	4055.50	4159.00	4270.25	4108.75	3896.25	3795.25	3795.75	3735.50	3661.75	3663.75	3586.25	3601.75	3596.75	3667.75	3978.25	3886.50	3872.75	3827.25	3705.25	3622.50	3729.25	3816.25	3842.75	3875.50	3658.50	3695.75	3653.25	3402.25	2959.25	2490.75	2562.00	2360.25	2569.00	2662.50	2457.25	2547.25	2615.75	2557.00	2598.75	2372.75	2419.00	2492.75	2619.00	2689.00	2879.75	3175.00	3318.75	2726.00	2449.00	2307.50	2960.00	3562.75	3370.50	3442.50	3605.50	3748.75	3969.50	3966.00	3704.25	3816.50	3981.00	3988.75	4101.75	3954.75	3858.50	3913.25	3918.75	3825.00	3694.75	3739.50	3851.50	3663.00	3326.25	3490.25	3463.00	3351.00	3077.50	3469.00	3716.50	3746.25	3864.00	3641.75	3239.25	3125.25	3390.75	3574.50	3246.00	2745.75	3112.50	3313.50	3427.50	3182.25	2475.50	1956.00	2047.50	2079.50	2200.75	2660.25	2284.25	1695.50	1911.75	2062.00	1765.50	1582.25	1409.50	1097.75	1130.25	945.75	865.50	682.25	689.00	747.75	1003.75	1132.75	1417.50	1646.50	1931.50	1961.50	1970.50	1864.25	1972.25	2195.00	2192.25	1760.00	1494.50	1428.50	1426.50	1459.50	1566.25	1579.00	1442.50	1305.50	1843.00	1870.50	1729.75	1504.75	1354.75	1142.50	1137.25	1519.75	1780.75	2009.25	2182.75	2362.25	2326.75	1846.50	1695.25	1677.25	2051.00	2151.25	1522.25	1166.25	1002.25	1261.75	1424.25
2397.75	1891.75	1509.00	1272.75	1331.25	1487.75	1887.50	2168.50	2624.00	3095.50	3464.00	3414.50	3269.75	3143.00	3039.25	3313.50	3655.50	3792.50	3861.75	3753.50	3911.75	3664.00	3400.00	3582.00	3805.25	4209.75	4418.25	4409.75	4440.75	4481.25	4476.50	4545.50	4582.75	4601.50	4624.25	4561.25	4514.50	4555.00	4554.25	4620.25	4604.00	4611.50	4580.75	4575.50	4612.75	4566.00	4612.25	4715.00	4835.25	4913.25	4898.00	4745.50	4722.00	4770.00	4861.75	4916.00	4716.25	4590.50	4472.75	4304.50	4396.75	4597.25	4679.00	4928.75	4948.00	4615.00	4726.75	4795.50	4810.50	4722.50	4694.50	4762.25	4779.00	4725.75	4691.50	4628.75	4588.25	4545.00	4361.00	4150.25	3969.75	4115.25	4353.50	4519.00	4399.25	4127.00	4123.25	4200.50	4281.25	4076.75	3918.00	3930.50	3971.75	3972.25	4178.00	4149.25	4113.25	3948.00	3953.25	3872.50	4016.50	4116.00	4168.00	4279.00	3990.00	3833.25	3741.25	3721.00	3730.25	3740.25	3722.25	3760.25	3754.75	3640.25	3634.00	3907.50	3916.50	3795.25	3683.00	3614.50	3452.00	3622.50	3784.00	3761.50	3803.75	3702.25	3551.75	3426.25	3295.50	2887.50	2784.50	3116.50	2893.50	2539.00	2394.00	2393.00	2467.25	2498.00	2330.75	2316.25	2252.50	2251.00	2381.75	2534.75	2552.75	2665.50	2916.00	3195.25	2533.25	2245.25	2581.25	3039.75	3388.25	3656.25	3873.75	4110.50	4126.00	4137.75	4204.75	4047.00	3927.25	4025.25	4144.50	4140.00	4038.75	4026.00	4008.50	4021.00	3893.25	3911.00	3889.50	3924.50	3713.25	3483.75	3653.75	3706.25	3537.25	3202.75	3460.75	3782.75	3926.50	3855.25	3636.25	3282.00	3493.25	3574.00	3693.25	3398.00	3090.25	3425.00	3576.25	3505.50	3177.75	2367.25	2349.50	2641.50	2557.75	2226.25	2694.25	2212.50	1987.25	2387.00	2244.75	2032.75	1560.75	1434.75	1283.25	1175.00	1138.25	922.75	789.25	673.50	689.75	978.25	1287.25	1549.00	1796.50	1985.25	2028.50	2133.00	2189.00	2221.50	1956.00	1792.75	1677.50	1574.75	1692.75	1795.50	1847.50	2021.50	1890.50	1514.75	1313.50	1598.00	1859.50	1906.25	1616.75	1448.75	1163.50	1246.00	1699.75	2079.50	2349.00	2382.50	2483.50	2177.75	1937.75	2034.75	2028.00	1962.50	1762.25	1389.00	1074.25	1121.50	1409.00	1518.25
1924.75	1359.25	1317.25	1423.50	1790.25	1895.00	1641.75	1657.25	1893.75	2587.50	2624.50	2635.25	2423.00	2389.00	2552.00	3134.25	3380.50	3049.75	3024.50	3083.75	3254.25	3310.00	3787.00	4000.00	3993.25	4169.25	4208.25	4354.00	4352.00	4323.50	4439.00	4519.00	4529.75	4583.00	4654.25	4689.25	4602.00	4554.75	4497.50	4549.50	4554.25	4573.50	4564.50	4651.25	4683.00	4643.00	4616.50	4695.00	4709.75	4728.00	4805.00	4827.50	4798.75	4879.00	4826.50	4894.50	4860.00	4703.50	4380.75	4327.50	4476.75	4657.75	4775.75	4870.25	4917.00	4843.50	4952.25	4827.50	4836.75	4866.25	4806.00	4673.50	4618.50	4553.75	4567.00	4563.00	4444.75	4457.25	4138.00	4005.50	4159.75	4458.50	4561.00	4470.75	4325.75	4339.25	4384.75	4365.75	4310.75	4199.00	4093.50	4100.75	4123.25	4103.75	4320.00	4260.75	4185.50	4120.00	4086.25	3957.00	4078.25	4266.00	4281.50	4323.00	4009.00	3857.00	3759.25	3799.50	3831.75	3840.50	4040.75	3993.00	3782.75	3655.75	3564.25	3742.50	3708.75	3588.25	3613.50	3621.00	3297.50	3561.75	3707.25	3744.75	3601.25	3656.75	3638.75	3546.50	3411.00	3004.00	3063.75	3389.50	3158.75	2897.00	2709.50	2783.75	2855.25	3101.00	2727.25	2405.75	2354.00	2213.50	2317.75	2378.25	2347.00	2441.25	2660.00	2876.00	2613.25	2267.75	2830.50	3406.00	3663.25	3535.75	3701.75	3980.75	4257.25	4271.25	4317.25	4195.00	4264.75	4138.25	4232.00	4239.00	4150.75	4123.50	4041.50	3931.25	3904.75	3974.25	3932.00	3936.00	3824.50	3821.25	3778.25	3689.50	3535.25	3510.00	3476.75	3700.25	3938.25	3829.00	3586.25	3577.00	3749.50	3701.25	3735.00	3465.75	3532.00	3679.75	3658.00	3474.25	3259.00	2932.00	3067.00	3208.00	3022.50	2807.25	2845.50	2217.25	2380.25	2707.25	2569.25	2496.50	1806.75	1699.75	1422.25	1377.50	1344.25	985.50	974.25	872.00	755.75	755.25	1222.25	1568.00	1746.00	1749.25	1748.00	1905.25	2017.50	2222.50	2246.25	2025.00	1691.25	1675.00	1852.25	2065.00	2285.00	2266.50	2094.25	1640.75	1344.00	1484.00	1724.00	1785.50	1521.50	1394.50	1584.00	1528.00	1627.50	1983.75	2101.50	2018.25	2324.25	2402.50	2333.50	2237.25	1924.75	1575.50	1404.00	1168.25	1111.75	1151.75	1443.75	1644.25
1283.25	1210.25	1823.00	2165.25	2402.25	2464.25	1960.50	1982.25	1917.75	1940.00	2022.50	2136.50	2233.75	2589.75	2616.00	2603.25	2699.00	2750.25	3182.50	3348.75	3746.25	3964.25	4386.75	4462.00	4248.50	4258.00	4329.75	4579.00	4592.00	4488.75	4522.50	4642.25	4599.00	4629.50	4606.75	4589.25	4631.50	4585.50	4503.75	4546.00	4520.75	4617.25	4621.00	4680.50	4765.75	4730.25	4654.25	4678.75	4664.75	4732.75	4812.25	4841.00	4797.50	4773.50	4709.25	4712.75	4737.75	4692.50	4357.75	4480.50	4545.50	4638.75	4792.25	4736.25	4725.75	4904.75	4879.25	4754.00	4787.00	4916.75	4824.25	4757.75	4782.50	4643.50	4517.00	4431.25	4231.25	4215.75	4226.00	4410.75	4479.50	4580.75	4614.25	4408.50	4458.00	4442.00	4416.25	4473.75	4399.00	4438.00	4377.25	4410.25	4317.75	4248.25	4354.75	4331.50	4328.25	4371.25	4161.50	4140.00	4233.75	4343.00	4373.00	4242.75	3973.25	3799.25	3834.75	3905.25	3853.00	4034.50	4117.00	4010.25	3804.75	3657.50	3566.75	3591.75	3553.50	3328.00	3329.50	3452.75	3259.50	3604.50	3697.75	3639.50	3487.00	3506.50	3659.75	3655.25	3553.00	3258.50	3350.50	3535.00	3301.75	3096.50	2849.25	3045.75	3130.75	3144.50	3197.75	2891.00	2643.75	2330.00	2226.75	2231.00	2182.25	2229.75	2273.50	2380.50	2352.50	2354.50	2677.50	3133.75	3771.00	3886.75	3774.25	4000.50	4278.50	4167.50	4116.75	4284.50	4329.50	4227.25	4305.75	4193.50	4089.00	4077.00	3986.50	4003.75	3813.50	3813.75	3860.75	3769.50	3880.75	4000.50	3824.75	3721.00	3758.75	3709.75	3758.50	3744.00	3970.25	3823.75	3669.50	3729.00	3921.25	3889.50	3756.50	3552.25	3634.25	3925.25	3782.50	3659.00	3529.50	3444.50	3616.50	3632.25	3500.00	3409.25	2934.50	2717.25	2816.75	3194.75	2862.00	2412.50	2114.75	1848.50	1512.75	1350.50	1348.25	1230.75	1069.50	912.00	775.75	658.50	999.50	1356.75	1345.75	1486.50	1366.00	1742.75	2128.25	2268.00	2374.00	2314.25	2167.75	1953.25	2016.00	2176.00	2089.75	1992.25	1910.00	1529.25	1418.00	1433.75	1420.00	1705.00	1588.00	1698.00	1949.50	1969.25	1559.00	1635.75	1701.50	1799.25	1951.25	2261.25	2535.50	2289.00	1987.50	1623.00	1352.25	1353.50	1398.25	1274.75	1200.75	1338.00
1200.00	1692.25	2123.25	2573.00	2879.75	2632.50	2275.25	2479.25	2533.50	2296.00	2585.00	2782.00	2828.00	3061.00	3294.00	2903.75	3029.75	3155.00	3669.50	3864.00	4259.00	4495.25	4560.25	4597.00	4535.25	4550.75	4480.50	4532.25	4650.00	4574.25	4578.50	4630.00	4667.75	4654.50	4588.25	4541.75	4679.00	4664.00	4483.00	4445.00	4482.00	4601.75	4687.25	4716.00	4748.50	4767.25	4702.50	4813.25	4753.50	4752.00	4838.25	4782.25	4757.00	4728.25	4721.75	4660.50	4620.25	4536.00	4405.50	4517.25	4625.75	4547.00	4627.25	4653.50	4742.00	4924.25	4757.75	4663.00	4813.50	4936.75	4963.75	4820.00	4686.00	4599.50	4466.75	4370.00	4139.25	4231.00	4359.00	4561.50	4610.00	4654.75	4714.00	4475.25	4582.75	4549.25	4491.00	4542.00	4512.00	4605.50	4509.25	4592.50	4403.50	4367.00	4435.75	4413.25	4416.50	4413.00	4258.25	4234.75	4340.75	4348.75	4341.00	4129.25	3902.00	3851.50	3907.50	3988.00	4023.25	4130.00	4160.25	3977.25	3683.75	3668.00	3645.00	3740.00	3783.75	3570.75	3276.75	3068.75	3157.25	3612.75	3668.50	3608.75	3451.50	3405.25	3479.25	3491.75	3526.00	3468.00	3827.25	3830.25	3559.25	3427.50	3015.50	3199.00	3420.75	3268.75	3301.25	3237.75	2877.25	2380.00	2332.50	2290.75	2220.25	2188.75	2272.00	2367.75	2715.75	2876.25	3174.75	3392.25	3880.75	4195.25	4024.50	4152.00	4216.25	4055.00	4130.50	4169.50	4304.50	4316.00	4362.75	4166.75	4231.75	4121.00	4149.25	4060.50	3832.00	3789.00	3672.25	3608.00	3858.00	3976.25	3869.00	3892.25	3889.25	3896.25	4007.25	3907.75	3899.50	3812.50	3833.25	3841.00	4003.25	3948.00	3690.75	3620.25	3673.25	3847.50	3938.75	3820.00	3737.00	3521.75	3749.50	3898.00	3876.25	3615.75	3295.75	3293.75	3241.50	3323.25	2961.00	2817.25	2296.75	2033.50	1664.00	1330.00	1141.25	1041.00	973.00	901.25	729.00	668.00	843.25	1127.50	1087.50	1173.50	1069.25	1568.50	2087.75	2284.50	2310.75	2302.00	2459.50	2319.25	2246.75	2235.25	2020.75	1783.25	1766.75	1800.75	1820.50	1659.00	1387.50	1657.50	1748.75	2063.75	2229.00	2052.50	1622.25	1745.75	1674.00	1809.00	2113.75	2344.75	2449.75	2221.25	2068.50	1702.50	1288.25	1667.00	1729.50	1580.25	1341.50	1263.00
1464.25	1789.25	2320.50	2606.50	2714.75	2916.00	2858.00	2939.75	3122.50	2958.75	3128.75	3425.00	3489.75	3658.50	3885.00	3434.75	3594.50	3631.50	3888.00	4239.75	4470.75	4520.50	4610.50	4686.00	4606.00	4575.50	4567.75	4610.50	4621.25	4657.25	4634.75	4666.00	4640.50	4586.50	4503.00	4532.50	4674.25	4614.50	4503.50	4393.25	4430.75	4511.00	4593.75	4673.75	4675.25	4815.00	4800.75	4924.50	4858.50	4778.25	4782.25	4763.50	4699.25	4642.50	4674.00	4547.50	4482.75	4490.75	4558.25	4549.25	4668.00	4732.75	4664.00	4682.25	4752.25	4983.75	4859.25	4656.00	4892.25	4818.00	4954.75	4787.25	4603.25	4507.50	4380.00	4263.25	4260.75	4440.00	4513.00	4490.75	4568.75	4652.25	4713.00	4623.25	4640.50	4585.75	4501.25	4557.75	4521.75	4451.75	4387.50	4455.50	4559.00	4450.50	4464.75	4445.50	4409.00	4335.00	4262.50	4274.00	4356.75	4290.25	4230.00	4028.25	3911.75	3961.25	4066.00	4113.25	4152.75	4149.75	3962.25	3832.75	3690.50	3697.75	3655.50	3788.25	3938.25	3541.75	3083.50	3324.00	3017.50	3569.50	3666.50	3596.75	3406.00	3318.25	3356.50	3400.00	3431.00	3490.00	3782.25	3736.00	3582.75	3477.00	3204.75	3329.25	3624.75	3493.75	3398.25	3389.00	2979.00	2668.25	2543.25	2371.50	2334.50	2242.50	2258.00	2358.25	2591.50	2754.00	3160.75	3441.00	3737.25	4021.50	4163.75	4055.25	4129.75	4095.75	4213.00	4282.00	4377.25	4387.25	4285.00	4211.00	4302.00	4184.75	4203.75	4048.25	4009.50	3921.00	3768.25	3645.50	3666.00	3830.25	3876.00	3946.25	3986.00	3747.75	3949.00	4026.75	3946.50	3973.75	3987.00	3918.50	4075.50	4075.00	3923.50	3753.25	3831.25	3745.75	3923.25	3843.50	3734.50	3706.25	3770.75	3856.50	3771.50	3652.75	3639.00	3681.50	3659.75	3620.25	3509.50	3319.75	2485.75	2071.50	1533.75	1402.00	1299.75	998.50	884.00	851.00	830.50	761.00	693.25	890.25	933.50	1087.75	1394.25	1720.00	2006.00	2005.75	1929.25	2008.75	2143.50	1944.75	2008.50	2182.50	2078.75	1945.00	2033.75	1953.00	1853.00	1563.00	1432.00	1733.75	2031.00	2313.50	2208.00	1872.00	1914.75	2148.25	1874.00	1866.75	2384.25	2591.00	2204.75	1841.50	1648.00	1483.00	1202.00	1845.25	2044.50	1654.75	1636.25	1644.25
1316.00	1351.25	1756.75	2058.00	2252.25	2660.50	2689.50	2707.50	3211.50	3379.75	3438.25	3714.00	3928.75	4115.25	4284.00	4129.50	4197.75	4337.25	4468.75	4482.25	4516.75	4617.50	4639.50	4638.00	4478.75	4561.25	4499.25	4511.50	4502.25	4642.50	4581.50	4602.50	4634.00	4530.75	4457.25	4514.25	4636.25	4558.00	4446.50	4356.00	4360.00	4522.00	4570.50	4575.75	4711.50	4655.25	4808.00	4981.75	4826.50	4777.25	4715.25	4760.25	4731.75	4653.75	4542.75	4440.75	4548.25	4726.00	4629.75	4619.25	4643.00	4719.50	4765.50	4698.75	4701.50	4908.00	4860.00	4617.25	4667.00	4817.00	4863.50	4802.50	4631.75	4480.25	4322.25	4274.00	4385.50	4600.50	4642.00	4584.25	4574.00	4623.00	4733.50	4689.75	4672.50	4547.75	4520.75	4631.25	4583.00	4507.75	4367.50	4421.75	4538.75	4426.50	4484.50	4491.25	4452.25	4361.50	4314.00	4309.25	4359.00	4261.75	4118.25	4069.25	4059.25	4032.50	4038.75	4083.75	4091.00	4063.00	3811.75	3873.75	3711.00	3675.75	3686.25	3845.50	3867.75	3311.00	3142.50	3487.75	3020.75	3329.25	3530.75	3497.00	3366.50	3234.25	3263.50	3375.25	3350.75	3392.75	3638.50	3624.25	3604.00	3661.00	3453.00	3542.25	3673.25	3699.50	3510.25	3228.25	2980.25	2881.75	2678.00	2457.25	2392.75	2236.00	2258.50	2321.00	2468.25	2586.00	2823.50	3117.50	3504.75	3885.25	4087.25	3855.25	3950.00	4243.75	4333.75	4199.50	4372.00	4527.25	4288.75	4361.00	4260.00	4149.75	4068.50	4153.00	4091.75	3978.75	3932.25	3843.75	3561.00	3656.50	3658.25	4068.25	3996.50	3644.75	3983.75	4008.00	3984.25	4110.00	3910.25	4049.00	4006.00	4116.00	4075.00	3894.25	3946.00	3848.50	3928.00	3977.50	3883.50	3842.75	3876.50	3999.75	3947.00	3877.75	3824.25	3853.25	3852.25	3831.75	3646.50	3345.25	2205.75	1778.00	1772.25	1795.75	1513.00	905.75	948.00	1130.00	1156.00	871.00	702.50	699.25	830.50	1072.50	1353.25	1559.25	1817.25	1707.50	1601.50	2023.25	1914.50	1733.25	2142.00	2237.75	1979.50	1837.00	1793.00	1690.00	1623.75	1405.00	1495.00	1756.75	2053.75	2352.00	2027.25	2027.00	2180.50	2395.25	1951.75	1924.00	2214.50	2451.75	2157.25	1906.00	1701.25	1359.00	1231.00	1871.50	2010.00	1919.50	1807.50	1934.50
1601.00	1929.50	1559.25	1641.00	1796.25	2094.75	2208.50	2469.75	2787.25	2970.75	3192.25	3472.00	3645.00	3871.00	4164.75	4266.75	4283.00	4416.75	4538.00	4588.75	4565.75	4621.75	4556.00	4443.50	4330.50	4387.50	4399.00	4463.00	4508.50	4565.25	4526.00	4515.00	4627.00	4512.25	4389.00	4452.75	4609.00	4537.00	4357.25	4315.50	4513.00	4699.50	4632.50	4466.00	4459.50	4585.75	4759.25	4953.00	4825.50	4781.00	4702.75	4687.75	4748.25	4744.25	4579.25	4546.75	4685.75	4833.25	4657.25	4633.00	4717.50	4694.00	4792.25	4763.25	4748.25	4757.00	4858.00	4501.75	4695.75	4857.25	4735.50	4580.25	4428.00	4371.25	4369.25	4318.25	4491.50	4761.50	4834.50	4777.00	4710.00	4699.25	4688.75	4608.00	4577.75	4521.25	4562.25	4604.50	4551.00	4484.50	4347.00	4450.25	4432.50	4441.50	4525.75	4481.25	4444.50	4387.50	4398.75	4380.00	4336.25	4174.75	4116.25	4094.25	4123.25	4186.50	4161.00	4129.25	4026.75	3960.75	3904.25	3812.00	3738.75	3652.50	3670.00	3892.75	3631.00	3193.00	3481.00	3676.75	3237.75	3048.00	3459.50	3438.50	3303.75	3198.25	3178.25	3157.75	3203.50	3309.75	3477.25	3505.00	3515.25	3604.25	3734.75	3851.50	3848.75	3673.75	3464.25	3204.75	3117.75	3099.75	2864.50	2554.50	2417.25	2317.75	2209.00	2296.75	2413.75	2501.75	2680.00	2947.25	3338.25	3708.00	3790.00	3774.00	3864.75	4061.75	4148.75	4410.75	4442.00	4481.75	4543.75	4405.75	4234.25	4230.00	4124.75	4139.00	4024.75	4016.25	4031.75	4019.75	3696.00	3407.50	3411.00	3860.00	3718.75	3724.75	4160.00	3928.75	4020.75	4065.00	3848.50	4028.25	4019.50	3939.50	4067.00	3993.75	3985.50	3978.50	3978.50	3950.00	3971.50	3915.25	3955.75	3946.00	3931.00	4006.75	3920.00	3880.50	3828.50	3744.50	3562.25	3125.75	2229.75	2104.25	2265.00	1818.00	1475.25	996.50	1097.25	1305.50	1343.00	1009.75	954.25	751.00	709.50	836.50	1057.50	1240.75	1459.25	1327.75	1662.50	1950.00	1750.00	1598.50	2043.00	2203.25	2006.50	1811.25	1705.00	1546.00	1514.00	1572.75	1716.50	2014.50	2267.00	2461.25	2222.25	2350.75	2627.50	2587.75	2012.25	2070.25	2555.00	2745.00	2535.75	2211.25	1928.25	1490.50	1268.50	1555.75	1660.25	1956.00	2145.25	2172.50
1658.00	2086.00	1922.50	1912.75	1963.25	1902.75	1940.50	2132.50	2225.25	2490.75	2802.75	3267.50	3457.75	3751.25	3901.75	4069.75	4357.25	4512.50	4593.50	4498.00	4615.00	4584.25	4387.00	4226.25	4293.25	4428.50	4577.50	4591.00	4596.25	4576.00	4499.00	4436.75	4581.50	4521.75	4321.00	4407.50	4575.00	4447.50	4293.50	4371.50	4567.25	4694.75	4611.50	4384.00	4282.50	4463.75	4716.50	4857.00	4805.75	4707.75	4645.25	4688.25	4829.75	4758.25	4578.00	4663.75	4786.00	4839.00	4706.75	4645.75	4758.00	4783.25	4857.75	4890.75	4816.75	4725.75	4741.75	4485.00	4527.25	4599.25	4465.00	4398.75	4409.50	4503.25	4545.00	4390.25	4589.25	4719.75	4753.75	4824.75	4700.00	4612.75	4534.50	4491.75	4482.75	4427.25	4451.75	4541.25	4504.75	4524.75	4374.50	4337.25	4375.50	4509.50	4541.50	4499.75	4486.50	4433.75	4415.25	4317.00	4252.25	4117.25	4126.00	4112.50	4187.50	4161.75	4159.00	4222.00	4096.25	3984.25	3813.00	3747.25	3721.25	3628.25	3663.00	3632.50	3292.25	3393.50	3852.00	3842.75	3423.50	2940.25	3349.75	3446.25	3321.75	3137.25	3020.00	3072.00	3218.75	3289.50	3314.75	3428.00	3401.50	3415.50	3590.25	3837.75	3816.50	3652.25	3542.75	3373.50	3305.75	3204.75	2947.00	2757.50	2501.25	2396.25	2223.25	2225.50	2368.25	2457.00	2563.75	2734.75	3086.50	3538.00	3559.75	3688.50	3675.75	3992.00	4207.00	4429.50	4390.25	4273.50	4323.50	4450.00	4416.00	4344.00	4173.50	3988.00	4009.25	3930.25	4042.00	4019.00	3991.25	3626.50	3291.00	3548.00	3418.50	3869.75	4131.00	3861.25	3830.25	3815.50	3790.25	3856.00	3938.25	4082.25	4020.25	3891.75	3888.75	3993.00	3908.25	3849.75	3783.25	4116.50	4121.50	4038.00	3829.25	3921.75	3973.00	3837.75	3929.75	3723.75	3371.75	2824.25	2734.75	2804.50	2278.25	1947.25	1779.50	1037.25	1072.75	1318.75	1478.00	1363.75	1196.50	917.75	900.75	744.00	761.25	1017.25	1002.00	1114.75	1669.25	1650.75	1598.75	1514.50	1946.50	2089.75	2154.00	1895.25	1821.25	1571.50	1611.00	1592.00	1729.75	2027.25	2515.50	2697.50	2563.75	2514.25	2979.50	2812.00	2264.50	2207.75	2693.50	2957.00	2638.75	2273.25	2004.25	1385.75	1365.50	1846.00	1756.00	1810.25	1982.25	2362.50
1870.00	2065.25	2317.25	2265.75	2199.75	2252.25	2273.25	2400.00	2500.25	2452.00	2887.00	3267.25	3376.00	3529.50	3735.75	4075.25	4284.50	4415.75	4495.50	4347.00	4521.75	4385.25	4176.25	4208.00	4443.75	4546.00	4537.50	4607.25	4638.75	4574.00	4517.00	4385.25	4537.25	4494.75	4287.75	4321.75	4270.25	4254.00	4299.50	4518.75	4602.75	4679.50	4557.25	4301.25	4414.50	4535.50	4677.50	4849.25	4793.50	4683.25	4611.75	4646.75	4760.50	4728.25	4622.25	4710.75	4825.75	4937.00	4716.50	4658.50	4769.50	4774.00	4758.00	4832.25	4823.75	4728.50	4699.50	4607.50	4503.00	4448.00	4512.00	4601.25	4683.25	4687.00	4494.00	4405.50	4550.75	4611.75	4776.50	4794.50	4665.00	4626.00	4611.00	4634.25	4584.25	4539.00	4482.00	4396.25	4355.75	4329.25	4300.00	4187.75	4371.00	4379.75	4504.50	4519.00	4515.75	4473.00	4376.00	4320.50	4239.00	4147.75	4172.25	4160.50	4132.00	4096.25	4168.50	4127.50	3950.75	3843.75	3808.00	3808.50	3669.00	3496.50	3376.75	3243.00	3464.25	3778.75	3948.25	3809.50	3576.00	3088.25	3031.00	3095.25	3251.50	2954.00	2834.00	2941.75	3257.50	3286.00	3181.25	3324.25	3270.00	3292.50	3457.50	3757.75	3639.50	3545.50	3508.75	3339.75	3305.50	2984.50	2819.25	2701.25	2513.75	2355.75	2215.75	2219.50	2349.00	2435.25	2550.75	2647.50	2893.75	3120.00	3269.25	3501.25	3694.00	4070.50	4297.75	4364.25	4272.50	4217.75	4376.50	4431.00	4412.50	4240.50	4170.50	4048.00	3876.75	3845.00	3925.25	3924.50	4035.00	3910.00	3629.25	3277.75	3272.50	3695.50	3849.25	3637.25	3617.50	3789.75	3957.50	4059.25	4165.75	4270.50	4088.50	3993.00	3913.75	3795.75	3692.00	3608.50	3591.75	3772.00	3939.00	3930.00	4006.00	3834.75	3766.25	3748.50	3846.50	3748.75	3426.00	3027.00	2902.75	2895.50	2474.25	2173.25	1550.75	1265.00	1177.25	1243.75	1325.25	1458.50	1249.75	1206.00	1076.50	946.75	746.75	789.00	1093.50	1376.25	1613.50	1430.75	1459.25	1503.00	1798.50	1838.75	2077.25	1887.25	1671.50	1783.25	1853.75	1749.25	1989.00	2187.50	2373.75	2723.75	3069.50	2797.50	3061.25	2768.50	2617.75	2600.50	2702.00	2530.25	2347.00	1914.75	1713.75	1385.50	1405.50	1867.00	1905.50	2053.50	2061.00	2439.00
2016.25	1960.75	2594.75	2835.25	2696.00	2630.25	2588.75	2742.75	3103.75	2677.00	2689.50	3299.75	3436.75	3487.75	3675.50	3986.00	4212.75	4287.25	4211.75	4261.25	4325.75	4019.25	4189.75	4340.75	4356.25	4386.00	4473.50	4586.25	4563.50	4501.50	4433.00	4311.25	4357.25	4369.00	4204.75	4100.00	4278.75	4358.00	4523.25	4710.50	4701.00	4682.25	4467.50	4282.75	4441.75	4639.00	4744.75	4744.75	4732.50	4566.50	4522.00	4638.00	4739.25	4763.00	4762.75	4755.25	4846.25	4959.00	4926.25	4760.50	4824.00	4771.50	4674.25	4673.75	4802.00	4766.50	4703.25	4638.25	4569.75	4567.25	4762.00	4815.75	4813.75	4698.50	4484.00	4422.50	4628.75	4726.50	4747.25	4805.50	4816.25	4928.00	4758.75	4725.25	4669.00	4648.50	4625.00	4485.75	4316.25	4325.50	4296.50	4254.00	4102.75	4257.00	4392.75	4464.25	4520.00	4477.25	4363.50	4267.00	4215.50	4197.75	4304.00	4201.25	4098.75	4094.25	4072.50	4027.50	3973.50	3887.25	3742.25	3696.75	3592.00	3425.50	3377.75	3700.75	3999.00	4078.50	4075.25	3786.75	3591.00	3386.75	3202.00	2952.00	2928.50	3106.75	3072.75	3042.50	2896.00	2904.00	2971.50	3073.25	3117.75	3274.75	3444.25	3754.50	3389.25	3376.75	3466.25	3216.25	3107.00	2931.00	2746.00	2514.75	2371.00	2289.25	2259.25	2262.75	2359.50	2446.75	2509.25	2563.50	2689.50	2960.75	3190.50	3471.00	3761.00	4017.25	4206.75	4154.50	4038.50	4255.50	4239.75	4340.75	4400.25	4294.25	4216.25	4112.75	3842.00	3678.00	3696.00	3754.00	3813.50	3817.25	3832.75	3469.00	3173.25	3401.75	3396.75	3502.75	3853.25	4128.00	4212.75	4221.75	4264.25	4230.25	4083.00	4023.25	4031.25	3870.75	3735.75	3614.75	3466.00	3366.25	3542.25	3521.00	3770.50	3963.25	3819.00	3553.50	3463.50	3340.50	3092.75	2791.50	2310.50	2449.50	2042.75	1889.50	1532.75	1623.00	1607.50	1187.00	1195.75	1553.50	1414.25	1261.75	1176.00	1098.50	903.50	775.50	997.00	1229.50	1394.75	1181.50	1242.00	1356.50	1561.75	1805.00	2020.50	1795.50	1810.00	2039.50	2130.25	2015.00	2017.00	2485.50	2871.50	2881.25	3275.00	3384.25	3329.25	3019.00	2905.50	2708.25	2537.50	2175.50	1934.50	1676.00	1544.50	1545.50	1650.50	1548.50	1778.25	2005.50	2260.00	2459.50
2383.50	2260.25	2422.50	2707.00	3007.75	3019.50	2759.00	2973.00	3343.00	2987.75	2699.25	2872.00	2972.00	3221.50	3529.25	3742.75	3809.75	3891.25	4136.00	4129.50	3910.25	3965.25	4127.00	4253.00	4413.50	4523.50	4520.00	4659.50	4606.00	4558.50	4424.25	4228.50	4171.00	4133.50	4015.25	4105.00	4477.00	4527.75	4642.00	4749.75	4699.00	4579.25	4366.75	4318.75	4519.00	4651.75	4719.50	4763.50	4628.00	4481.00	4546.50	4651.50	4724.50	4805.25	4891.75	4926.50	4900.00	4823.75	4952.25	4913.75	4828.25	4708.75	4670.00	4591.50	4581.25	4656.75	4710.75	4709.75	4641.50	4598.25	4660.75	4775.00	4806.50	4715.00	4613.50	4461.50	4517.25	4574.50	4707.00	4764.50	4921.25	4899.75	4698.75	4626.75	4570.00	4525.75	4498.50	4452.25	4529.00	4581.00	4564.50	4516.25	4249.75	4134.75	4308.00	4484.50	4536.00	4505.50	4409.25	4287.75	4228.25	4353.25	4331.00	4216.75	4137.00	4127.25	4153.75	4102.75	4066.75	3901.75	3786.50	3700.75	3538.75	3300.00	3631.50	4160.75	4293.25	4209.50	4036.25	3783.75	3599.25	3273.50	3270.50	3205.50	3129.50	3458.50	3483.00	3535.00	3182.75	2926.75	2727.50	2797.25	2931.50	3219.00	3442.50	3692.00	3235.50	3147.75	3404.50	3046.75	2820.00	2737.50	2590.00	2340.25	2401.25	2413.00	2298.50	2339.25	2336.25	2389.50	2436.50	2495.00	2606.75	2768.75	2989.25	3243.75	3548.75	3679.00	3937.50	3808.50	3959.50	4174.25	4276.25	4373.75	4355.50	4363.00	4214.25	4127.00	3912.50	3740.75	3537.25	3424.25	3347.25	3362.75	3475.25	3370.00	3175.50	3094.25	3258.75	3706.00	4025.50	4015.75	4139.00	4303.50	4219.00	4127.00	3930.50	4143.50	4065.75	4010.75	3964.75	3893.50	3727.00	3164.75	3085.50	3223.00	3207.00	3600.75	3583.50	3497.00	3360.75	3075.50	2912.50	2817.50	2139.25	2163.25	1638.00	1419.50	1455.25	1908.25	1964.25	1534.50	1225.25	1549.50	1460.75	1221.25	1059.25	949.25	791.50	781.00	986.75	1041.25	1032.25	1082.00	1252.75	1351.25	1611.00	1801.75	1923.00	1995.00	1838.25	1989.75	2039.50	2244.00	2430.75	2742.50	3131.50	3320.25	3435.25	3557.50	3138.50	2622.00	2434.75	2302.50	2135.25	1919.75	1729.00	1710.25	1797.50	1978.00	1818.75	1558.50	1821.25	2015.00	2295.00	2707.75
2759.25	2594.25	2679.25	2675.25	2869.50	3191.25	3023.25	2937.50	3219.00	3283.75	2948.00	3016.75	2917.25	2958.00	3301.00	3443.75	3656.75	3871.25	3888.25	3678.25	4106.50	4206.75	4290.50	4423.00	4472.75	4437.50	4381.75	4548.25	4602.50	4524.75	4393.00	4311.25	4275.00	4038.25	3951.75	4165.75	4445.00	4541.50	4541.00	4688.50	4658.00	4528.25	4311.50	4371.00	4458.50	4479.50	4579.50	4829.50	4513.00	4443.00	4608.75	4698.25	4784.00	4928.75	4981.25	5083.50	4935.75	4668.25	4728.50	4931.50	4880.00	4730.25	4657.75	4604.25	4499.75	4555.75	4647.25	4767.25	4697.25	4673.75	4796.50	4761.75	4852.75	4951.25	4770.50	4498.50	4496.25	4588.75	4632.50	4738.25	4859.75	4802.50	4766.00	4657.00	4715.75	4548.50	4552.50	4602.00	4609.50	4594.25	4579.75	4475.50	4442.75	4218.75	4362.25	4537.50	4489.75	4482.00	4418.75	4358.00	4333.00	4462.25	4397.25	4365.50	4272.50	4209.25	4171.00	4148.00	3994.75	3768.25	3625.50	3651.25	3253.25	3433.50	3885.50	4256.25	4335.25	4233.00	4109.75	3818.00	3617.00	3345.75	3586.00	3661.50	3714.75	3683.25	3679.50	3561.25	3290.00	3386.50	2715.75	2680.25	2611.75	2905.50	3251.75	3521.50	3234.75	2896.00	3161.25	2889.00	2617.75	2472.75	2361.25	2380.25	2566.00	2533.50	2277.75	2280.50	2275.75	2332.00	2399.25	2471.00	2582.75	2680.00	2804.75	3031.00	3201.50	3377.50	3566.00	3750.75	4042.50	4289.00	4406.25	4403.75	4211.75	4288.00	4220.25	4114.75	3930.50	3860.00	3715.25	3587.25	3416.50	3176.00	3254.25	3278.00	3218.75	3041.00	3200.25	3498.25	3652.00	4046.25	4210.75	4335.75	4207.75	4244.50	3887.75	4166.75	3956.50	3945.00	3747.75	3644.25	3571.00	3556.00	3254.50	2873.75	2897.75	3062.25	2988.75	2928.25	2980.75	2513.75	2259.75	2154.75	1740.25	1650.75	1659.00	1654.75	1975.75	2241.75	2083.25	1528.75	1347.25	1547.00	1484.50	1244.00	1108.00	927.75	699.00	759.00	782.50	742.25	942.50	1287.75	1513.75	1314.50	1386.50	1484.50	1713.75	2088.00	1926.75	2255.25	2210.00	2190.75	2323.75	2622.00	2871.00	3240.25	3548.00	3641.25	3011.25	2649.25	2425.25	2272.50	2206.00	1980.50	1988.50	2065.75	1978.25	2144.00	1858.25	1523.75	1679.50	1839.00	2078.75	2457.75
