1181.00	1165.75	1146.75	1133.25	1125.25	1120.50	1120.00	1114.25	1110.25	1110.50	1111.25	1112.75	1114.50	1117.25	1126.00	1156.75	1142.75	1126.25	1120.00	1145.75	1166.25	1190.00	1219.25	1200.50	1130.75	1123.75	1200.50	1122.50	1100.75	1103.00	1136.00	1130.50	1134.75	1109.00	1132.25	1148.75	1093.25	1100.00	1140.75	1118.75	1092.50	1086.25	1089.25	1089.25	1084.00	1099.00	1104.75	1123.50	1144.50	1163.50	1171.75	1165.25	1190.25	1195.00	1159.00	1181.25	1182.00	1157.25	1153.50	1133.50	1127.25	1129.00	1097.25	1095.25	1090.75	1085.00	1083.25	1075.50	1068.50	1141.25	1128.00	1076.25	1077.00	1104.75	1080.50	1060.00	1038.50	1023.50	1001.25	996.75	1052.00	1048.50	1034.50	1015.25	1008.50	1005.25	996.50	991.00	988.75	998.50	983.25	981.00	972.25	976.50	1000.00	970.50	953.25	947.00	939.75	932.00	930.25	928.00	924.00	919.25	914.25	915.25	913.50	906.00	905.75	884.00	886.50	896.00	895.00	889.25	883.75	878.75	870.75	858.00	832.75	827.75	816.00	801.50	796.25	801.75	802.25	797.00	796.00	789.25	788.00	794.50	803.00	810.25	802.50	777.75	750.50	743.50	742.75	744.50	737.00	722.75	710.50	705.25	703.50	702.25	701.75	698.25	696.25	695.50	692.75	691.50	690.00	688.25	686.75	685.75	684.50	681.75	678.75	677.50	676.50	674.25	672.50	671.25	670.50	667.75	667.50	667.00	664.25	664.75	662.75	662.25	661.50	660.75	658.50	657.25	657.00	656.00	656.25	653.50	652.00	650.75	650.00	648.50	647.75	647.50	646.50	647.00	645.25	644.75	643.75	643.00	641.50	641.50	641.75	640.25	638.00	637.50	637.50	636.50	637.00	637.00	632.50	634.75	634.25	634.50	634.00	633.50	632.50	632.50	633.25	633.25	631.75	631.00	630.25	630.50	628.50	628.25	628.00	627.75	627.25	626.25	625.75	624.25	623.00	622.25	623.00	622.50	621.75	621.50	621.00	621.25	621.50	619.75	619.25	619.75	619.00	619.00	619.50	620.00	618.50	618.00	617.50	617.50	617.75	617.25	616.00	616.50	614.75	615.00	613.75	614.00	613.25	614.25	612.75	613.00	612.50	611.50
1187.00	1166.75	1151.00	1138.50	1127.75	1123.50	1126.00	1120.75	1113.25	1111.50	1111.25	1112.00	1113.75	1118.25	1122.25	1140.50	1182.75	1147.50	1130.00	1128.00	1138.25	1190.50	1246.00	1213.00	1147.50	1152.50	1140.50	1134.25	1121.25	1099.00	1110.25	1126.50	1159.25	1142.75	1139.25	1149.00	1106.75	1103.75	1108.75	1102.25	1091.00	1085.25	1080.00	1076.25	1081.00	1081.50	1088.50	1103.75	1115.00	1148.25	1166.00	1138.25	1163.50	1173.75	1173.75	1179.00	1173.00	1172.75	1173.25	1162.50	1153.50	1147.00	1115.75	1100.75	1095.50	1089.25	1086.25	1081.00	1079.50	1091.50	1091.25	1081.25	1096.50	1091.25	1083.50	1066.50	1035.25	1026.50	1003.00	995.75	1024.50	1027.75	1023.50	1015.25	1016.75	1007.50	1000.00	992.00	986.25	974.50	969.25	961.50	956.50	956.25	952.50	947.00	944.00	939.50	933.50	927.50	926.75	925.50	920.75	919.75	921.50	927.00	925.00	915.25	903.75	887.75	890.75	897.50	895.50	891.75	887.00	880.00	872.25	861.50	839.00	827.25	808.75	798.50	798.25	806.00	806.75	805.00	803.25	797.00	789.25	789.50	808.50	800.75	792.50	773.25	743.50	731.00	725.75	727.25	719.75	709.00	705.75	704.25	702.50	700.75	699.00	697.75	696.50	694.50	693.00	691.50	690.25	688.50	686.50	685.25	682.50	682.75	680.25	677.75	675.75	675.50	673.75	672.00	669.75	668.75	667.50	665.50	664.50	664.00	662.75	662.00	661.50	660.50	659.50	657.75	657.00	655.25	654.25	652.25	649.25	650.50	649.00	649.50	648.50	646.25	647.50	646.50	646.00	644.75	642.50	643.75	641.50	641.25	641.25	640.25	638.75	639.25	637.50	637.00	638.00	635.50	631.75	634.75	634.50	634.75	633.50	633.75	633.50	632.00	632.25	633.50	631.50	631.00	631.00	630.25	630.00	628.75	628.75	627.75	628.00	626.25	625.75	623.75	622.00	622.25	622.00	622.75	622.25	622.00	621.75	621.50	620.50	619.50	620.25	620.00	620.25	620.25	618.75	619.25	619.50	618.75	617.75	617.75	616.75	616.50	615.50	616.25	615.25	615.00	615.75	613.75	613.75	613.75	614.00	612.75	613.25	612.00
1193.00	1174.25	1159.75	1139.00	1129.00	1125.25	1127.75	1124.50	1117.00	1114.00	1112.00	1113.00	1113.50	1117.75	1122.00	1133.25	1163.00	1163.00	1140.75	1129.75	1130.75	1164.25	1225.50	1254.25	1152.00	1177.50	1143.00	1144.00	1121.25	1101.75	1101.50	1108.75	1157.50	1138.00	1155.50	1148.00	1111.75	1101.75	1097.00	1093.25	1087.75	1083.50	1076.75	1074.75	1081.25	1082.50	1094.00	1092.50	1102.50	1141.50	1139.50	1129.25	1149.00	1154.75	1174.50	1162.25	1153.25	1168.75	1170.00	1166.75	1177.75	1172.25	1138.00	1118.75	1105.75	1096.00	1095.50	1094.75	1088.50	1074.25	1089.00	1087.50	1105.25	1090.25	1076.25	1057.50	1034.25	1027.00	1004.75	998.25	994.50	1006.50	1017.25	1016.75	1025.50	1014.00	996.50	990.75	989.25	976.00	968.00	958.00	954.25	952.25	946.25	943.25	938.50	936.00	930.75	928.25	927.75	926.50	922.00	919.75	920.25	928.50	926.75	906.50	898.00	887.75	892.25	896.25	895.50	891.25	888.50	882.25	873.75	867.75	842.50	833.50	809.00	797.75	800.25	812.25	813.75	813.25	808.75	796.00	793.00	785.25	800.75	781.25	772.25	763.25	740.50	728.25	718.75	718.25	711.50	705.00	706.00	706.75	704.00	701.75	698.75	696.75	695.25	694.25	692.75	691.75	690.50	688.50	687.00	684.25	682.75	682.25	680.50	678.25	676.25	675.50	673.50	672.50	670.50	668.75	667.25	664.75	665.00	664.00	662.25	662.25	662.00	661.25	659.50	657.75	656.00	654.25	654.50	652.00	649.50	650.50	650.25	648.50	649.00	647.00	646.75	647.50	646.50	645.50	641.00	643.25	641.50	641.00	641.00	639.75	638.50	638.75	638.00	638.75	637.25	634.25	632.75	635.75	636.25	635.00	634.75	634.00	633.50	631.75	633.00	633.25	631.50	630.50	630.75	630.75	629.50	628.75	628.00	627.75	628.00	626.25	625.25	623.50	622.00	622.75	622.00	623.00	622.25	621.75	620.75	621.00	620.50	619.50	620.75	620.50	620.50	620.50	618.50	619.25	619.25	618.50	618.25	617.25	617.50	617.00	616.00	615.50	615.50	614.75	615.75	614.00	614.25	614.00	613.75	613.00	612.75	612.50
1202.00	1178.75	1154.75	1142.50	1132.25	1128.75	1135.25	1130.75	1124.00	1118.25	1114.75	1115.00	1114.00	1117.00	1120.75	1126.25	1134.25	1186.75	1161.50	1150.00	1148.00	1165.00	1173.50	1239.50	1168.25	1178.50	1133.25	1148.75	1122.00	1113.25	1111.00	1104.50	1110.50	1114.00	1130.50	1132.50	1105.75	1109.00	1102.00	1096.00	1085.00	1083.00	1088.50	1077.75	1081.25	1084.50	1095.75	1095.25	1097.75	1110.25	1113.00	1122.00	1122.00	1130.50	1126.25	1132.00	1139.75	1136.50	1139.00	1151.00	1173.75	1180.50	1163.75	1154.50	1159.25	1117.25	1099.50	1100.75	1105.50	1082.00	1080.75	1103.75	1121.75	1099.50	1082.25	1053.00	1031.00	1035.75	1013.50	1002.75	992.00	990.75	1017.00	1000.00	1010.00	1014.25	1011.75	988.25	984.00	980.25	975.00	963.25	956.00	951.00	946.00	942.75	938.50	935.75	934.25	933.25	931.00	930.25	923.75	911.50	904.25	905.00	907.00	895.50	888.00	880.00	892.00	892.00	890.25	889.00	886.00	878.25	871.75	866.00	847.75	824.75	804.25	804.00	809.00	819.50	828.00	815.50	805.75	783.25	777.25	772.75	770.50	756.00	752.25	749.75	740.25	725.50	715.00	713.00	709.00	711.75	710.00	707.75	705.00	702.25	700.50	699.25	697.25	695.25	694.25	692.25	690.00	689.25	686.50	684.75	683.00	681.25	679.75	678.50	676.00	674.00	672.75	672.00	669.75	670.00	666.75	665.75	666.00	663.50	663.00	663.50	659.25	659.75	656.50	657.00	656.00	654.75	653.25	652.25	650.75	651.75	649.25	649.50	648.50	647.25	648.50	646.75	646.75	644.25	643.50	643.25	642.75	643.00	641.00	640.50	639.25	639.50	639.00	638.00	636.25	634.25	635.25	636.00	635.50	635.25	634.25	634.25	633.00	633.25	631.75	631.75	632.00	632.00	630.00	630.00	629.75	629.00	629.00	627.50	627.75	626.25	624.25	623.75	623.75	623.00	623.00	623.50	623.00	622.25	623.25	621.50	622.00	620.75	621.25	620.50	620.25	620.00	620.00	619.00	619.00	619.00	618.25	618.25	619.00	617.00	616.25	616.00	616.00	616.00	615.25	615.00	615.25	615.50	614.00	613.25	613.75	615.00
1187.25	1178.00	1167.75	1149.50	1140.00	1132.75	1152.50	1147.50	1132.50	1124.25	1120.25	1114.25	1114.50	1114.00	1122.25	1132.00	1139.25	1173.50	1183.25	1220.75	1168.00	1215.50	1209.75	1266.75	1171.00	1172.75	1141.25	1150.25	1128.50	1115.75	1115.25	1106.75	1108.50	1114.50	1117.50	1126.00	1092.25	1092.25	1091.75	1087.25	1083.75	1085.25	1107.75	1082.00	1076.00	1084.50	1093.25	1118.50	1106.00	1093.50	1093.00	1106.50	1107.75	1108.75	1113.75	1121.75	1121.50	1136.00	1155.50	1153.00	1181.00	1188.25	1173.75	1178.50	1184.25	1145.00	1133.50	1098.75	1096.25	1094.25	1094.50	1080.25	1097.75	1111.50	1079.75	1058.25	1034.00	1034.00	1024.00	1004.75	991.50	1012.75	1044.25	1024.50	1022.50	1029.25	1021.00	1005.50	984.00	975.75	971.50	966.25	958.75	952.00	946.25	943.50	942.25	941.00	940.00	935.75	933.50	935.75	928.25	914.00	908.25	906.25	898.75	889.00	881.50	889.50	894.25	889.25	885.25	883.75	881.75	871.50	857.50	843.75	814.25	809.00	814.00	817.00	821.50	824.00	823.00	804.25	800.00	789.75	786.50	769.75	754.75	741.50	737.00	738.25	731.75	717.00	713.50	712.50	714.50	713.00	709.00	707.25	705.00	701.75	701.25	699.25	697.00	695.25	693.25	690.75	689.50	687.75	685.25	684.75	682.75	680.75	680.00	677.50	676.00	674.00	672.00	671.50	669.75	667.75	666.00	666.25	665.75	663.50	663.50	661.75	661.25	659.75	657.00	656.75	654.25	654.25	654.25	653.00	651.75	650.25	649.50	647.75	647.25	648.25	648.00	647.00	645.25	644.50	645.75	644.75	643.25	642.00	642.25	640.75	639.25	639.25	638.75	637.25	636.75	634.00	637.50	635.75	636.00	635.25	636.00	634.25	632.75	632.25	631.00	631.75	631.50	631.50	630.75	630.25	630.25	628.25	628.50	628.25	626.25	625.25	623.25	624.50	624.25	623.50	624.00	624.00	623.25	623.00	623.00	622.00	621.50	621.75	622.25	620.75	621.75	620.50	620.00	619.25	619.50	619.25	619.00	618.25	617.25	617.25	617.00	617.00	615.25	615.50	616.50	616.75	615.50	614.00	613.75	614.50	614.25	613.75
1186.00	1178.25	1177.75	1169.25	1146.25	1135.25	1162.50	1149.50	1133.75	1126.75	1118.00	1118.50	1123.25	1115.50	1121.50	1137.75	1134.00	1138.75	1156.00	1180.75	1158.25	1158.25	1169.25	1186.00	1196.00	1175.75	1156.75	1144.50	1146.25	1125.25	1129.00	1119.00	1112.00	1110.75	1116.50	1123.00	1091.75	1089.25	1089.75	1090.25	1090.75	1093.25	1112.50	1115.50	1073.25	1079.00	1087.25	1100.50	1118.75	1106.50	1094.75	1107.50	1115.00	1129.25	1119.25	1117.25	1124.50	1137.50	1165.50	1174.50	1167.75	1169.25	1182.25	1183.00	1158.50	1147.50	1134.50	1104.00	1095.00	1104.75	1115.75	1096.75	1080.75	1097.25	1093.25	1065.25	1038.50	1036.25	1046.25	1018.75	993.50	1023.00	1034.25	1017.00	1029.25	1060.75	1035.00	1015.50	989.50	980.50	972.00	966.75	964.75	963.50	955.50	948.50	946.75	948.75	944.50	943.75	938.50	942.50	933.75	917.75	911.25	904.00	898.00	883.75	889.75	890.75	890.25	888.00	884.00	879.75	871.75	857.25	830.50	812.00	816.50	823.25	833.00	831.00	830.00	825.00	822.00	815.75	817.00	799.50	795.75	767.00	748.75	741.50	735.00	732.00	725.50	726.25	721.75	719.00	716.00	712.25	709.75	706.25	705.50	702.50	700.75	698.75	695.75	694.25	692.25	691.00	689.00	687.00	685.00	683.75	682.25	680.75	678.50	677.00	675.50	674.50	673.75	670.75	670.25	668.25	668.00	665.75	665.25	664.00	663.25	661.50	660.00	659.00	656.75	656.25	656.00	654.50	653.75	651.75	650.50	649.75	650.25	648.25	647.00	647.50	647.00	646.50	645.25	645.00	643.75	643.75	643.75	643.25	641.75	641.75	640.75	640.25	640.00	638.25	637.00	637.25	637.50	637.25	635.75	636.25	634.75	633.75	634.50	633.25	633.25	631.50	631.75	633.50	631.50	630.25	630.75	630.00	629.00	627.75	628.00	624.25	625.00	625.75	625.50	624.50	623.75	624.25	624.50	624.75	623.75	623.75	622.75	622.50	622.50	621.75	621.75	620.25	621.00	620.00	619.25	619.50	619.00	618.25	618.25	617.50	616.25	616.75	616.25	616.50	617.50	615.00	616.00	614.75	614.75	614.50	614.75	615.50
1201.00	1181.00	1186.00	1178.25	1152.75	1135.75	1138.00	1139.75	1138.25	1135.25	1118.25	1123.00	1130.25	1119.75	1112.25	1125.00	1123.75	1139.00	1153.75	1152.00	1147.75	1154.75	1163.50	1172.75	1182.00	1181.25	1171.50	1152.50	1168.25	1147.25	1133.75	1142.25	1117.00	1114.25	1129.00	1121.25	1109.75	1093.50	1090.00	1092.50	1092.50	1098.00	1146.50	1140.50	1080.50	1077.25	1080.00	1093.00	1103.75	1101.75	1092.50	1113.25	1136.00	1142.50	1137.25	1130.25	1121.00	1144.75	1168.00	1173.25	1149.00	1171.75	1155.50	1173.00	1153.00	1152.25	1123.50	1119.75	1116.50	1107.25	1102.75	1104.50	1107.75	1079.25	1066.75	1050.25	1046.25	1049.75	1089.50	1028.50	992.75	984.50	985.25	1005.25	1014.00	1020.00	995.25	997.00	991.00	973.25	967.50	976.25	969.00	965.75	956.25	951.00	959.00	956.25	949.75	949.25	942.25	937.75	930.25	917.50	911.75	902.75	896.50	892.00	892.75	891.75	888.25	884.00	882.00	872.00	860.00	847.50	825.75	812.75	828.00	838.50	841.50	835.50	824.25	817.00	815.25	807.25	807.50	782.75	772.50	758.75	752.25	748.75	742.50	738.25	731.25	727.25	722.00	719.00	715.75	712.75	711.00	706.25	705.00	703.50	701.00	698.00	694.75	694.00	690.75	689.75	688.25	686.75	684.25	683.25	682.25	680.25	678.75	676.00	674.25	673.00	670.75	670.50	669.50	668.25	667.50	665.75	664.50	663.00	661.00	660.25	659.25	659.00	656.75	658.00	656.25	655.75	653.75	651.75	650.25	651.75	651.50	648.00	648.25	647.25	646.25	645.75	644.00	643.00	644.50	644.75	643.25	642.75	642.50	641.75	640.50	639.25	639.25	637.50	637.25	638.00	637.25	636.25	636.25	636.00	634.50	633.75	634.75	633.75	632.75	632.00	630.75	631.50	632.25	631.75	630.50	629.75	627.50	628.75	628.50	625.25	625.75	625.75	624.50	625.50	624.50	624.50	624.00	624.00	624.00	623.25	623.00	623.00	622.25	622.25	621.50	621.00	621.00	619.75	619.50	619.00	619.50	619.25	618.25	617.50	617.75	616.50	616.50	617.00	617.00	618.00	616.25	615.50	616.00	615.75	615.75	615.50
1194.50	1189.50	1184.25	1171.00	1163.25	1147.75	1136.50	1141.25	1146.25	1132.00	1118.50	1123.50	1141.75	1117.00	1110.50	1117.50	1116.50	1126.00	1129.50	1131.50	1140.50	1138.00	1148.25	1151.00	1148.25	1155.00	1178.25	1176.25	1178.00	1172.25	1156.00	1142.00	1131.00	1119.00	1123.25	1114.00	1116.50	1098.00	1093.25	1087.50	1094.50	1109.00	1139.50	1151.50	1087.25	1082.50	1088.75	1099.25	1103.25	1112.75	1110.25	1098.25	1114.50	1143.75	1155.75	1150.25	1132.50	1126.25	1125.75	1123.75	1139.25	1155.75	1152.75	1148.75	1153.50	1153.25	1136.00	1145.00	1151.50	1141.75	1100.00	1081.75	1089.75	1100.50	1093.50	1071.25	1059.25	1058.50	1059.50	1041.75	1021.50	1035.75	990.00	965.50	962.50	958.50	956.00	964.00	974.00	958.00	954.50	949.75	940.00	950.00	956.00	955.00	957.00	953.00	952.75	949.50	939.25	930.50	918.50	913.50	908.25	905.00	906.00	901.75	897.50	888.25	885.75	883.50	875.25	864.75	850.25	830.50	820.25	819.00	829.25	836.50	831.25	818.50	807.25	800.00	795.75	786.25	786.75	773.25	766.75	761.00	755.00	749.75	744.25	740.50	732.75	726.50	722.25	718.75	716.00	713.00	709.00	706.25	705.00	702.00	700.25	698.00	695.25	692.75	690.25	689.25	688.50	686.25	684.50	683.75	680.75	681.00	677.00	675.50	674.75	672.25	672.25	670.25	669.75	667.50	667.00	664.50	665.00	662.50	661.50	660.50	659.75	658.75	658.25	656.25	655.25	655.00	653.75	651.75	651.00	650.50	650.75	648.75	648.50	646.50	646.25	645.75	644.75	643.50	644.00	642.50	642.75	642.25	641.50	641.50	640.75	640.50	638.25	637.75	638.75	638.50	637.00	637.00	637.25	636.00	635.50	634.75	634.00	633.25	632.25	632.75	630.75	629.50	631.75	631.00	629.75	629.25	628.50	628.25	627.25	626.75	626.25	626.50	627.25	626.00	625.25	626.00	625.00	625.00	625.25	624.00	623.50	623.75	623.50	622.75	622.25	621.50	621.25	621.25	619.50	619.75	620.25	619.50	618.00	618.00	617.75	617.75	617.25	616.00	617.75	616.75	616.75	616.00	616.00	615.75	615.75	616.75
1221.50	1200.75	1180.00	1159.75	1161.00	1154.25	1138.50	1139.00	1144.00	1134.25	1122.00	1137.25	1140.25	1112.25	1108.25	1116.75	1118.00	1114.75	1113.75	1115.00	1116.50	1123.00	1124.00	1123.00	1126.00	1139.75	1169.00	1169.50	1189.25	1201.00	1194.25	1179.50	1154.25	1125.25	1118.75	1108.75	1126.50	1102.75	1101.50	1101.00	1093.75	1097.50	1117.00	1147.50	1101.00	1089.00	1100.75	1131.25	1112.00	1118.50	1120.50	1104.00	1096.50	1120.75	1139.50	1156.00	1153.00	1125.75	1132.75	1131.50	1141.00	1144.50	1150.75	1139.50	1151.25	1164.25	1155.00	1132.75	1146.00	1167.75	1132.50	1072.00	1063.25	1072.00	1080.50	1075.00	1049.75	1056.50	1055.00	1051.25	1047.50	1055.75	1016.75	973.50	963.25	955.50	954.25	949.50	941.50	943.75	940.00	935.00	928.75	938.25	933.25	933.00	931.75	939.75	943.00	935.25	921.50	912.25	907.50	902.25	907.75	905.50	901.25	898.50	893.25	885.25	886.00	884.00	872.50	865.50	844.50	821.75	821.75	828.50	827.50	819.50	810.50	799.75	795.75	796.50	794.25	797.75	798.50	778.00	773.75	766.00	756.75	750.75	746.50	740.00	733.00	726.75	720.75	718.75	716.25	713.25	709.25	705.75	704.75	701.50	699.50	696.75	695.00	692.50	690.50	689.50	688.00	686.00	683.50	683.00	680.50	679.50	677.75	677.00	675.50	672.25	672.25	670.00	669.25	668.00	666.50	665.25	664.75	663.75	662.00	660.75	660.00	658.50	657.50	656.25	655.50	654.50	653.25	651.75	652.00	651.50	649.50	649.00	647.50	647.50	648.75	647.25	644.50	643.75	643.25	643.00	642.25	641.75	643.00	642.00	641.50	639.00	638.00	640.25	640.25	637.50	637.00	638.25	637.00	637.00	635.00	635.00	634.00	633.75	631.75	631.25	631.25	629.75	631.25	631.75	630.50	629.00	631.00	626.50	627.50	627.25	627.00	627.50	627.50	626.25	626.50	626.00	625.25	625.75	625.75	624.50	624.25	623.50	623.25	623.50	623.00	622.25	621.75	622.00	620.25	620.50	620.50	618.75	618.75	618.50	618.25	617.50	617.50	617.75	617.50	617.25	617.00	616.50	616.00	616.25	616.50	616.25
1226.00	1193.00	1160.00	1158.25	1151.50	1146.25	1134.50	1138.25	1143.75	1141.00	1139.50	1142.50	1123.75	1111.25	1119.25	1114.50	1117.75	1122.00	1114.50	1113.25	1114.75	1119.00	1126.75	1126.75	1134.00	1143.00	1156.50	1166.25	1184.00	1203.75	1197.25	1199.00	1178.00	1145.00	1133.25	1112.75	1102.75	1102.75	1109.75	1098.25	1102.25	1101.50	1112.75	1123.50	1103.00	1105.25	1125.25	1145.00	1123.25	1107.50	1103.00	1099.50	1099.25	1111.25	1120.50	1129.25	1131.00	1122.75	1136.25	1129.50	1129.75	1128.25	1126.50	1129.50	1142.25	1144.75	1151.25	1142.00	1147.75	1175.50	1164.75	1079.75	1056.75	1064.25	1064.50	1047.50	1033.00	1032.25	1036.50	1028.00	1010.75	1005.00	997.50	983.25	972.50	963.25	960.00	954.50	949.25	944.00	940.75	934.50	930.25	931.00	924.25	923.50	922.75	920.50	922.50	916.75	909.00	907.00	908.00	906.00	909.00	906.00	903.25	894.75	887.25	886.50	887.75	878.00	866.50	855.25	834.50	822.75	834.00	836.25	824.50	819.00	806.75	800.75	809.00	822.50	815.00	793.75	786.50	782.75	780.50	770.25	758.50	751.75	745.25	735.25	729.50	726.25	721.00	718.75	715.50	712.00	709.75	706.50	704.75	700.50	699.25	697.00	694.00	692.75	690.25	689.50	687.00	685.75	683.50	682.50	680.50	679.25	678.50	676.75	675.75	673.50	671.75	670.25	668.50	667.75	667.25	664.75	665.00	662.75	660.50	660.50	659.00	658.75	656.50	656.25	654.25	653.50	652.75	651.75	651.50	651.00	649.75	648.75	648.75	649.00	646.00	645.75	646.50	645.50	643.50	643.00	643.00	643.00	642.50	640.50	640.00	639.75	640.75	640.25	639.00	639.25	638.00	638.00	637.25	636.25	636.00	635.00	634.50	634.25	632.75	631.25	631.75	631.75	631.00	629.75	631.00	630.75	629.50	627.75	627.75	627.50	627.25	627.50	626.50	626.75	627.25	627.00	625.75	626.00	625.75	625.25	625.25	623.50	623.50	623.25	622.75	622.75	622.00	621.25	621.50	620.00	619.50	618.75	619.00	618.50	618.25	618.25	617.50	618.75	618.50	618.25	617.50	616.50	616.00	616.50	615.75	616.00
1259.50	1196.25	1167.50	1169.00	1159.00	1143.75	1133.00	1131.25	1135.50	1142.75	1151.75	1145.75	1117.75	1107.00	1110.75	1119.75	1118.50	1120.00	1113.25	1112.75	1115.00	1119.00	1120.50	1132.00	1137.75	1142.25	1155.00	1163.00	1173.25	1169.00	1160.25	1194.25	1199.50	1177.25	1167.50	1126.00	1108.50	1103.25	1108.25	1121.50	1123.00	1105.75	1111.50	1134.50	1122.50	1131.50	1160.25	1159.00	1140.25	1112.50	1103.50	1099.25	1101.75	1095.25	1119.25	1109.25	1099.75	1090.50	1100.00	1107.25	1116.75	1118.25	1116.00	1131.75	1141.25	1150.00	1144.75	1135.00	1158.75	1159.50	1163.50	1093.00	1069.00	1039.75	1035.25	1019.00	1004.00	1005.25	1023.50	1025.75	1041.50	1065.25	1016.25	985.00	976.50	969.00	963.25	958.25	952.25	942.75	938.75	928.75	926.25	926.00	919.50	916.00	914.75	925.75	915.50	911.50	898.75	905.50	910.50	912.25	910.50	907.50	906.00	901.00	890.75	873.00	867.50	861.25	850.50	842.75	833.50	829.00	848.00	845.50	830.50	820.50	813.75	808.25	822.50	815.50	807.00	793.25	791.50	787.25	778.75	768.75	760.00	752.50	742.75	733.75	727.50	724.00	720.25	719.25	716.25	712.25	710.00	705.25	702.75	700.50	698.00	695.50	693.75	691.50	689.75	688.25	687.75	685.00	682.75	681.75	680.75	680.00	678.00	677.00	675.25	674.00	671.75	671.00	668.50	666.75	666.00	664.75	664.75	662.75	662.25	661.25	658.75	659.75	656.00	655.00	654.75	653.25	652.75	652.00	651.25	651.25	650.50	650.00	648.00	645.25	647.75	647.00	646.50	646.00	644.75	646.25	642.25	642.75	640.75	641.75	641.75	640.75	641.00	641.00	640.00	640.00	638.25	638.75	636.75	636.50	636.50	635.00	634.50	633.25	633.00	633.25	632.00	631.00	630.00	630.75	630.75	630.00	627.50	629.25	630.00	628.25	629.00	628.50	627.50	627.00	627.75	626.50	626.25	626.50	626.00	625.50	624.50	624.00	624.25	623.75	622.50	622.25	621.25	620.75	621.25	620.50	620.50	620.25	620.25	619.25	619.50	618.50	618.75	618.50	618.50	617.50	617.50	617.00	617.00	616.50	616.00	616.25
1202.50	1179.00	1172.75	1163.00	1164.75	1141.25	1132.00	1130.50	1141.00	1135.00	1157.25	1131.75	1116.75	1125.00	1116.75	1118.75	1122.75	1132.50	1120.00	1116.25	1113.50	1120.75	1124.00	1120.75	1134.00	1152.00	1168.25	1163.00	1148.75	1137.75	1151.00	1173.50	1171.00	1144.50	1153.75	1148.50	1120.50	1112.00	1116.00	1137.25	1133.00	1110.25	1128.00	1161.75	1184.75	1172.50	1161.75	1137.75	1134.00	1133.75	1118.50	1100.50	1112.25	1099.75	1092.00	1086.75	1087.25	1093.00	1097.25	1102.25	1116.00	1115.75	1120.00	1132.25	1150.50	1163.50	1141.50	1117.75	1128.50	1118.75	1120.50	1091.00	1077.25	1035.00	1030.75	1010.50	1000.75	1002.00	1019.25	1018.25	1013.00	1008.25	995.00	983.50	974.75	967.50	963.75	957.25	950.75	938.25	934.00	927.00	922.00	923.25	924.50	923.00	923.50	922.75	915.25	907.25	913.25	915.75	908.25	905.75	909.00	909.25	907.75	900.75	892.00	880.50	876.00	871.50	862.75	855.75	842.50	840.75	853.00	855.25	836.75	828.00	822.50	815.25	815.50	812.50	808.50	798.25	794.25	781.75	774.50	766.25	754.50	742.50	738.00	737.00	726.50	723.50	719.50	718.50	715.25	712.25	707.25	703.50	701.50	699.75	698.25	694.75	692.75	691.25	689.25	687.75	685.75	684.75	682.50	682.00	680.25	680.25	679.00	676.25	675.25	672.25	671.50	670.50	669.00	666.00	666.25	664.75	664.00	662.50	662.00	660.00	658.50	658.00	656.00	655.25	653.00	653.25	653.00	652.25	650.75	651.00	649.75	648.00	648.00	647.50	647.75	646.25	646.00	646.00	644.50	644.50	644.00	641.75	642.25	642.00	642.00	641.75	641.25	640.50	640.75	640.00	639.25	638.50	637.75	637.50	636.75	636.50	635.50	634.00	633.75	633.00	632.00	632.75	630.75	631.75	630.00	628.50	629.25	630.00	630.75	629.25	628.75	628.75	628.75	627.50	626.75	627.50	627.00	625.75	625.50	626.00	624.75	624.75	623.75	623.25	623.00	622.00	622.50	622.25	620.75	621.25	621.25	620.75	620.00	620.00	620.50	619.25	618.75	618.25	618.50	618.50	617.50	617.00	617.00	617.25	616.25	615.25
1183.75	1170.25	1165.75	1160.50	1151.00	1142.75	1132.50	1128.00	1128.25	1137.75	1142.25	1125.50	1123.75	1139.25	1131.75	1136.00	1124.75	1131.25	1128.00	1127.75	1112.75	1119.75	1129.50	1119.75	1133.50	1140.75	1140.75	1141.50	1135.75	1136.25	1132.50	1140.50	1139.75	1133.50	1143.50	1158.50	1137.50	1116.25	1109.50	1117.25	1134.00	1121.25	1132.25	1183.50	1186.50	1164.00	1138.75	1138.50	1156.50	1136.00	1115.50	1092.50	1110.00	1100.25	1088.50	1084.50	1091.25	1108.25	1110.25	1110.50	1107.25	1114.25	1126.00	1129.50	1138.00	1124.50	1111.00	1107.50	1118.25	1150.50	1104.25	1087.75	1097.25	1043.75	1036.00	1004.50	995.75	995.75	993.50	1003.75	994.25	993.75	990.50	980.75	972.50	964.75	962.25	957.00	950.50	934.00	926.00	926.75	926.25	923.50	928.25	930.00	926.00	924.75	923.50	922.00	922.75	916.50	912.00	903.25	908.50	910.25	908.50	900.00	897.00	893.25	889.00	880.75	878.00	871.50	861.75	856.50	870.00	872.50	851.25	843.75	831.75	824.25	822.00	823.25	809.75	798.50	787.25	766.75	757.50	749.75	741.25	736.75	739.50	735.00	725.50	724.25	723.25	721.00	718.00	712.50	706.75	701.50	700.50	697.50	697.75	695.00	692.50	689.75	688.00	686.50	685.25	684.25	682.75	681.00	680.00	678.75	677.25	674.75	673.75	671.75	670.75	669.50	668.00	666.75	666.00	665.00	663.75	662.25	660.50	659.75	657.50	657.50	655.50	655.50	651.75	654.50	653.00	653.50	651.00	650.25	650.25	651.50	649.25	648.00	648.75	646.00	647.00	644.50	646.25	645.25	643.00	644.50	642.50	643.25	642.00	643.00	641.75	641.25	639.00	639.00	639.75	638.50	638.50	637.25	637.25	635.00	634.50	635.00	632.75	632.25	633.50	631.25	633.00	631.00	629.25	629.75	630.75	630.25	630.50	629.25	629.50	629.25	628.25	628.25	628.25	628.25	626.75	626.00	626.00	625.00	624.25	624.75	623.50	624.00	623.50	622.50	622.50	621.75	621.75	621.75	620.25	620.00	620.75	620.25	619.50	618.25	618.00	618.50	618.75	618.50	617.75	617.50	617.00	617.00	616.50	616.50
1177.00	1189.50	1173.00	1174.75	1155.25	1143.25	1133.00	1124.25	1120.25	1125.25	1132.00	1129.75	1134.00	1138.00	1134.50	1156.00	1131.00	1125.25	1117.00	1111.25	1116.50	1119.75	1128.50	1125.75	1126.00	1129.00	1132.25	1126.50	1137.75	1148.75	1130.00	1128.00	1128.00	1128.50	1130.25	1127.00	1134.50	1125.00	1129.50	1114.75	1129.75	1141.50	1145.00	1155.50	1123.25	1138.50	1154.25	1158.50	1137.25	1111.50	1100.75	1077.00	1088.75	1104.50	1099.50	1098.75	1107.50	1110.75	1110.25	1110.75	1116.50	1121.50	1135.00	1134.50	1128.25	1129.00	1132.50	1120.50	1123.25	1143.50	1127.75	1100.25	1092.75	1066.50	1033.50	1005.75	987.75	985.00	988.25	995.00	985.00	987.50	984.50	978.75	969.25	958.75	956.25	948.75	944.00	932.75	932.75	935.50	937.25	932.00	932.75	934.50	934.50	934.75	929.00	927.00	924.50	919.75	916.00	907.00	908.50	908.00	905.75	904.50	904.75	893.50	887.50	887.00	885.25	883.25	872.25	868.50	874.25	866.75	852.50	845.50	834.00	828.50	818.25	812.25	806.25	789.00	775.50	761.50	751.75	744.50	737.00	732.50	731.75	730.00	728.00	728.25	727.00	722.50	717.75	712.75	707.25	703.25	701.75	697.75	695.25	693.25	691.50	688.75	687.50	685.75	685.25	684.00	682.25	681.25	679.75	677.75	676.00	674.25	673.50	671.50	670.75	669.50	668.75	668.00	666.00	664.50	662.75	660.75	658.50	658.50	658.00	656.25	655.25	654.25	653.25	652.50	651.75	652.00	651.50	650.75	649.75	649.00	649.00	647.50	646.00	646.25	645.75	646.50	645.75	643.75	645.75	645.00	644.25	643.00	642.00	641.75	641.25	640.75	639.25	640.25	638.50	638.25	637.75	636.75	636.75	636.75	635.50	635.00	635.25	632.50	631.75	633.00	631.25	629.25	629.00	629.25	631.00	631.50	630.50	630.25	629.00	629.75	628.75	629.00	627.75	627.75	627.00	626.25	625.50	626.00	623.75	624.00	623.75	623.25	623.75	622.75	622.50	622.75	621.75	622.00	620.50	621.50	621.75	620.50	620.00	619.25	619.50	618.75	618.00	618.00	618.25	618.50	617.25	617.50	616.00	615.50
1163.00	1170.50	1179.25	1156.25	1148.25	1135.75	1125.25	1119.25	1117.25	1116.00	1134.00	1143.25	1151.25	1151.25	1135.75	1123.00	1132.50	1140.75	1135.75	1115.25	1122.00	1126.50	1133.75	1122.00	1139.25	1133.00	1130.25	1122.75	1124.00	1131.75	1134.25	1136.00	1138.50	1127.50	1123.50	1121.00	1120.50	1119.00	1120.50	1121.00	1119.00	1130.75	1128.75	1112.75	1111.25	1110.50	1118.25	1119.00	1095.75	1084.50	1077.00	1070.75	1064.75	1102.50	1114.00	1122.25	1135.00	1122.50	1120.75	1122.00	1119.50	1125.25	1130.75	1134.50	1128.75	1131.75	1125.50	1126.25	1120.25	1108.00	1121.00	1104.75	1117.75	1057.25	1037.25	1001.50	981.00	980.50	980.50	980.50	977.50	976.75	978.50	977.25	969.00	957.00	948.75	941.50	940.50	943.50	940.75	944.00	939.25	936.00	940.50	942.50	943.25	943.25	932.00	924.75	921.75	919.75	914.50	901.75	903.25	902.50	898.50	901.25	902.00	894.25	894.50	892.25	889.00	890.25	880.00	879.50	877.25	868.00	854.50	847.25	830.25	820.50	809.25	806.25	805.00	784.50	775.75	760.75	749.50	743.75	735.25	734.50	739.00	737.50	730.00	732.50	725.50	718.75	713.25	709.75	705.00	702.75	701.25	697.00	694.50	692.00	689.25	689.00	688.00	686.75	685.00	683.00	681.75	680.00	678.75	676.50	676.25	673.25	673.50	672.00	669.75	669.75	667.75	667.25	666.50	664.50	662.00	661.00	659.25	658.75	657.00	655.00	655.50	655.75	653.00	652.25	653.00	652.50	651.00	651.50	651.00	649.25	647.75	648.75	648.00	648.00	647.75	645.75	645.00	643.50	644.25	643.25	643.25	642.75	642.00	642.00	641.00	640.00	639.75	639.00	639.25	639.00	638.75	637.25	636.75	635.75	634.75	633.50	634.25	632.75	631.00	630.50	631.00	629.25	630.00	629.75	631.00	631.50	631.00	630.25	629.75	630.00	630.00	628.50	627.50	627.00	627.25	626.75	625.00	624.75	625.00	624.50	622.75	623.50	623.00	623.75	623.50	622.00	622.75	622.25	622.00	621.50	620.75	621.00	620.00	619.75	620.00	619.25	618.75	618.00	618.00	617.25	616.50	616.50	615.75	614.75
1155.75	1156.50	1164.00	1145.75	1139.75	1134.00	1131.00	1125.00	1114.00	1112.75	1130.50	1122.25	1133.00	1151.50	1129.00	1134.00	1132.50	1140.50	1129.50	1118.25	1121.75	1125.50	1123.50	1128.25	1125.50	1123.50	1126.00	1123.00	1128.00	1130.50	1134.75	1139.75	1136.75	1126.75	1125.50	1122.50	1121.00	1122.50	1133.25	1132.50	1130.50	1131.25	1122.00	1116.50	1112.50	1113.50	1115.25	1116.00	1110.25	1084.25	1078.00	1070.50	1058.25	1071.25	1086.00	1100.00	1118.50	1133.25	1130.00	1126.75	1131.75	1141.00	1144.25	1142.50	1134.25	1122.75	1120.25	1115.25	1115.00	1092.00	1084.00	1082.50	1085.25	1024.75	1006.50	1000.00	984.75	973.75	966.50	966.50	964.50	967.00	975.50	972.50	965.50	957.25	952.00	948.25	945.25	943.75	939.50	940.75	945.00	947.75	950.75	949.75	948.00	945.00	936.00	926.50	927.25	923.00	910.00	907.75	915.00	912.75	915.75	914.25	918.25	907.50	906.25	898.00	900.50	892.00	884.00	879.00	870.25	862.50	851.25	845.50	823.00	807.50	800.75	797.75	787.50	770.50	763.00	751.50	740.75	735.25	735.25	742.00	743.00	739.25	732.25	732.00	725.75	719.00	712.00	706.75	703.25	699.50	698.50	695.50	694.50	691.75	689.00	687.25	686.50	685.50	684.50	682.75	680.50	679.50	677.50	676.00	674.50	673.25	672.50	670.25	669.75	669.00	666.25	666.00	665.00	664.25	663.50	661.25	658.75	658.50	656.75	656.50	654.50	654.75	654.50	654.50	653.25	651.50	651.00	652.00	650.00	650.75	649.25	647.75	648.00	647.75	646.75	645.50	643.25	644.50	645.25	643.75	643.25	643.50	642.00	642.50	641.25	640.25	640.50	639.00	639.25	638.75	638.00	637.50	636.75	636.50	634.75	635.00	634.75	632.00	632.75	633.00	631.00	630.00	630.00	630.25	629.50	630.50	631.75	629.75	630.25	629.50	629.00	628.75	628.00	627.75	628.25	628.00	626.75	626.00	624.75	625.25	624.50	625.00	624.00	623.50	622.50	622.50	621.75	622.50	621.00	621.75	622.25	619.25	620.50	619.75	619.75	619.25	618.75	618.50	618.00	618.25	617.25	616.00	616.00	614.75
1157.75	1151.75	1144.75	1145.00	1149.00	1143.00	1140.00	1123.50	1109.75	1109.25	1111.25	1110.50	1118.00	1123.75	1118.50	1118.25	1139.75	1139.25	1128.50	1128.00	1128.00	1126.00	1124.25	1139.00	1118.75	1116.00	1121.00	1123.25	1125.25	1129.00	1132.50	1130.00	1130.75	1129.75	1130.25	1128.50	1126.25	1127.25	1132.75	1125.75	1128.75	1123.50	1122.25	1120.50	1124.25	1129.00	1125.75	1135.25	1122.50	1089.75	1071.00	1058.25	1058.50	1055.25	1058.75	1075.25	1114.50	1140.75	1130.75	1130.75	1132.25	1146.50	1154.00	1145.00	1144.50	1139.00	1118.25	1097.75	1088.00	1083.75	1071.75	1043.00	1039.00	1026.25	1052.25	1030.75	1001.50	974.25	956.25	953.50	952.00	960.00	969.75	968.50	961.75	956.75	950.00	944.75	944.25	943.50	938.25	950.25	979.25	963.75	954.25	953.75	949.75	949.50	939.50	929.25	928.50	924.50	923.25	925.00	921.75	925.25	929.75	923.25	923.50	910.25	902.50	901.75	901.25	894.25	879.25	868.25	861.00	852.50	842.75	822.25	802.50	796.25	787.50	776.25	768.25	756.00	748.25	740.50	734.75	733.25	737.00	745.25	742.00	736.75	731.25	725.50	718.50	714.50	709.00	705.00	701.75	699.00	697.50	695.50	693.25	691.50	687.75	686.75	686.25	684.00	683.50	682.25	680.00	678.25	677.25	675.50	673.75	672.75	671.50	670.75	669.00	668.25	666.25	665.25	664.50	663.50	662.50	660.25	658.75	658.50	657.25	657.00	656.50	656.75	654.50	653.75	654.00	652.75	651.25	652.75	650.50	649.25	648.50	648.00	646.75	647.50	645.75	645.75	645.25	644.50	645.00	644.00	644.50	643.25	642.25	643.00	642.50	640.75	641.50	640.50	641.00	638.00	636.75	637.25	636.50	635.25	635.75	636.25	633.25	633.75	633.00	630.75	630.25	630.75	630.75	631.25	630.00	631.50	632.00	630.25	629.50	629.75	629.00	629.50	628.50	628.25	628.75	627.00	626.25	626.75	625.00	624.50	625.75	625.25	624.75	624.25	624.25	623.00	623.00	622.25	621.75	621.75	621.25	621.50	620.75	618.75	619.00	619.25	618.25	617.50	616.50	617.50	616.50	616.00	614.25	614.75
1164.00	1158.25	1147.00	1153.25	1160.75	1157.75	1137.75	1125.75	1116.00	1108.25	1110.75	1107.75	1109.25	1117.25	1124.50	1122.25	1136.50	1141.25	1134.25	1131.00	1135.25	1134.75	1121.25	1127.75	1119.50	1119.00	1112.25	1113.50	1118.25	1122.75	1130.75	1133.75	1134.00	1131.25	1137.00	1131.25	1127.50	1128.00	1129.25	1132.25	1128.75	1134.25	1138.25	1137.00	1140.25	1138.00	1136.00	1132.00	1099.25	1076.00	1067.25	1061.50	1063.00	1055.25	1060.50	1075.50	1093.25	1120.50	1136.50	1142.25	1152.25	1151.00	1127.25	1109.25	1111.50	1104.00	1083.25	1079.00	1065.50	1069.75	1059.50	1032.75	1025.00	1027.50	1031.50	1015.50	991.00	972.25	951.75	948.00	945.25	953.00	959.75	963.75	961.00	955.00	949.25	944.50	950.00	948.75	953.25	955.50	968.75	958.00	953.00	947.50	942.50	943.00	934.50	932.00	937.00	935.25	930.25	923.75	917.50	915.25	913.25	923.75	921.50	901.75	897.25	905.50	903.00	889.50	880.50	866.75	852.75	837.75	813.25	801.75	791.00	789.00	778.50	768.00	760.75	752.00	746.25	738.75	736.75	735.50	737.50	736.00	730.75	726.25	721.25	717.75	715.00	713.75	708.75	704.25	701.50	698.00	696.00	694.00	692.25	690.50	689.00	686.50	684.25	683.50	682.75	681.00	679.00	678.00	677.25	676.75	673.50	673.25	671.50	670.50	668.75	667.50	665.75	664.50	664.00	662.00	661.00	659.50	660.00	657.50	658.50	659.50	657.00	656.50	656.25	655.75	654.50	652.25	652.00	650.75	650.50	649.00	649.50	648.25	648.50	647.75	647.75	646.75	645.50	645.75	644.25	644.25	644.00	643.25	643.00	643.00	642.00	642.25	641.25	641.00	639.75	639.25	639.50	638.75	636.00	636.00	636.75	635.50	633.25	634.25	631.25	630.75	630.50	631.50	631.75	632.00	630.75	630.25	631.50	631.00	631.00	630.75	630.00	630.00	628.50	628.00	627.75	627.50	626.75	625.25	625.50	625.75	625.00	626.25	625.00	623.50	624.25	622.75	622.50	623.00	621.75	621.25	621.50	620.50	619.25	619.50	619.00	617.75	617.75	617.75	617.50	616.00	615.75	616.50	616.75	616.75
1162.25	1150.50	1154.25	1159.00	1177.50	1161.50	1138.00	1132.75	1125.00	1108.00	1109.75	1114.50	1117.00	1130.00	1138.00	1132.50	1141.75	1144.75	1143.00	1133.50	1134.50	1138.50	1132.50	1131.00	1128.25	1124.00	1119.00	1115.00	1116.75	1121.25	1131.75	1142.25	1142.75	1136.25	1140.75	1133.25	1133.50	1130.00	1125.50	1130.00	1133.00	1152.00	1162.75	1158.50	1151.75	1150.00	1145.75	1121.50	1097.50	1084.75	1075.50	1060.75	1055.75	1055.50	1063.00	1072.25	1084.25	1104.25	1127.75	1143.75	1154.25	1146.75	1115.50	1108.75	1076.50	1076.50	1061.25	1062.75	1077.50	1069.50	1059.50	1023.50	1016.00	1006.25	997.25	988.50	981.00	976.00	949.75	946.50	940.00	945.50	955.50	954.50	952.00	950.50	948.25	951.50	948.75	950.00	949.75	943.75	948.00	940.25	937.00	932.25	931.25	937.75	939.75	938.00	937.00	933.00	929.25	932.00	918.25	903.25	907.25	917.75	920.50	901.00	909.75	900.75	890.75	878.00	868.50	861.75	844.00	841.50	823.50	806.25	788.75	779.00	775.00	765.75	758.25	750.00	746.00	740.25	736.75	733.50	729.00	727.00	726.25	726.50	720.25	716.75	713.25	710.25	706.25	704.50	700.75	698.00	696.25	694.00	692.00	691.25	689.25	686.00	683.75	683.00	681.00	679.25	677.75	677.25	676.50	674.75	673.75	671.50	670.50	669.75	669.00	666.75	665.75	663.75	662.50	662.00	660.75	661.00	659.50	658.00	658.50	657.50	657.25	657.50	655.50	654.75	655.50	653.75	650.75	652.25	650.75	650.75	650.25	648.00	649.75	648.50	648.25	646.50	645.00	645.75	644.75	645.25	645.00	643.75	643.00	643.00	643.00	642.00	641.50	640.75	639.50	641.00	639.75	639.00	638.25	637.75	636.75	638.50	634.00	633.75	631.75	633.50	632.00	632.25	633.00	630.75	630.25	631.00	630.75	631.50	630.75	630.50	630.25	629.50	629.00	628.75	628.50	627.75	628.00	627.25	626.75	626.25	625.75	625.00	625.00	624.75	623.50	622.75	623.50	623.25	621.75	621.50	621.00	620.25	619.00	619.75	618.50	619.50	618.25	618.00	617.50	617.75	617.50	617.75	618.00	617.50
1150.75	1153.00	1164.25	1170.75	1179.75	1156.50	1144.00	1139.00	1125.00	1105.75	1113.25	1125.50	1125.25	1132.75	1136.50	1131.75	1147.25	1164.75	1152.00	1145.00	1143.50	1144.00	1149.50	1149.50	1146.00	1134.50	1123.50	1120.50	1121.50	1124.50	1133.75	1144.25	1147.75	1146.00	1141.50	1136.25	1138.75	1134.25	1127.75	1135.75	1152.50	1160.75	1167.25	1164.75	1155.00	1139.75	1120.50	1116.50	1110.25	1093.25	1080.25	1064.00	1060.25	1056.75	1061.25	1078.75	1107.25	1113.75	1132.75	1134.75	1113.75	1115.75	1095.25	1094.00	1079.25	1058.25	1047.50	1041.00	1040.00	1030.25	1032.75	1023.00	1012.75	1023.50	1015.50	994.00	983.25	971.50	947.50	941.25	934.75	937.25	947.50	952.75	942.00	942.25	938.25	934.75	938.00	941.75	939.75	933.25	931.25	926.50	922.75	923.00	927.25	929.50	934.75	940.00	937.25	930.00	927.25	923.25	911.50	903.25	895.75	896.75	897.50	887.50	886.00	876.00	866.00	861.50	860.25	856.00	826.25	825.00	814.75	796.25	778.00	771.50	764.75	759.00	755.50	752.00	748.25	741.25	737.25	736.00	736.75	735.50	733.00	730.75	724.25	718.00	712.50	708.75	706.50	703.75	701.00	698.50	696.50	694.00	692.00	689.25	688.25	685.00	683.25	681.50	680.75	679.75	677.00	675.50	675.25	674.00	673.00	670.50	670.75	668.75	668.75	666.50	663.75	663.25	663.25	663.50	662.75	661.00	661.50	659.00	657.00	658.25	658.00	656.75	655.75	657.00	655.25	653.50	652.25	651.75	652.25	651.00	650.25	649.50	649.00	649.00	649.00	648.00	647.25	645.75	644.75	644.75	646.00	644.00	644.50	643.00	643.00	642.50	642.75	641.00	640.50	640.25	639.50	639.00	638.00	636.75	636.25	635.25	635.00	634.50	632.25	633.50	633.50	633.50	633.25	632.50	632.25	632.50	631.75	631.75	631.00	630.75	629.75	629.00	629.25	628.25	628.25	627.50	626.75	626.00	625.25	627.75	625.00	625.00	625.50	623.75	624.00	623.75	623.25	622.50	622.25	620.75	621.25	621.00	620.25	620.75	619.50	618.75	618.75	618.25	618.75	619.00	618.00	619.00	618.00	617.75
1140.50	1145.75	1167.00	1173.50	1192.50	1182.75	1147.50	1134.00	1114.25	1108.00	1112.50	1125.00	1131.50	1139.25	1141.75	1145.00	1142.50	1149.50	1149.00	1154.00	1153.25	1156.75	1161.50	1154.50	1149.50	1146.00	1132.00	1128.75	1127.50	1129.00	1135.50	1149.00	1150.25	1145.25	1144.50	1138.50	1136.00	1130.25	1126.25	1143.25	1172.75	1173.50	1168.00	1158.50	1139.00	1131.25	1108.75	1106.50	1105.00	1090.00	1077.75	1068.50	1066.50	1068.75	1066.00	1077.00	1094.25	1102.00	1117.00	1106.75	1086.75	1099.50	1085.00	1076.50	1066.75	1048.50	1029.75	1020.50	1014.00	1007.75	1011.25	1016.75	1004.50	1012.25	1008.00	1009.50	1002.75	986.25	946.75	938.00	932.75	933.50	942.25	960.25	946.00	927.25	924.75	923.00	928.75	927.75	925.75	920.00	917.75	915.50	915.50	918.50	918.75	918.50	927.25	928.75	923.50	916.75	914.50	911.50	898.50	891.00	891.25	892.25	890.00	880.00	875.25	869.25	868.75	868.50	860.75	834.75	808.00	799.00	792.50	787.75	779.50	773.75	765.50	763.75	762.50	756.75	750.75	744.00	747.75	750.50	743.75	739.50	734.75	730.25	723.25	720.25	712.75	709.50	705.50	703.00	700.50	697.75	696.00	692.75	690.25	689.25	686.25	685.00	682.75	681.00	680.00	679.00	677.25	675.75	674.25	673.50	670.75	669.75	669.00	668.50	666.50	665.50	663.75	663.75	662.50	662.75	661.50	661.25	660.25	660.25	660.00	659.75	657.00	657.25	654.75	654.50	654.25	653.50	652.75	653.00	652.75	651.75	651.25	650.00	648.75	647.75	648.25	647.50	647.25	647.25	646.25	646.00	644.50	644.75	644.00	643.25	643.00	643.00	641.50	642.00	640.25	640.25	639.25	638.00	637.75	637.00	635.00	634.25	635.50	634.25	635.25	634.00	634.25	633.00	632.50	633.25	633.25	632.75	633.00	632.00	631.25	631.25	631.50	630.50	630.00	628.50	628.25	627.50	626.50	627.25	625.75	626.75	625.75	625.25	624.25	624.75	623.75	623.75	623.25	622.50	622.50	622.00	620.75	620.25	620.00	619.50	620.00	619.75	619.75	619.50	619.25	620.75	619.50	619.25	619.75	618.50
1147.25	1149.25	1154.00	1158.75	1161.50	1152.00	1134.50	1120.25	1110.25	1113.75	1131.50	1140.00	1140.25	1149.25	1148.75	1155.25	1148.50	1157.75	1155.50	1168.00	1158.00	1162.75	1167.75	1163.00	1148.75	1150.25	1147.50	1140.00	1134.00	1134.00	1134.50	1143.75	1143.00	1137.25	1133.50	1117.25	1147.00	1143.25	1144.75	1149.75	1153.75	1175.50	1166.25	1154.50	1124.25	1129.25	1111.75	1094.00	1109.00	1102.00	1092.50	1102.00	1101.00	1100.00	1094.00	1067.25	1077.50	1091.50	1100.50	1081.00	1075.00	1085.50	1078.75	1072.50	1058.75	1045.75	1035.50	1023.25	1019.50	1008.75	1005.25	996.50	987.50	999.00	998.25	989.00	980.50	973.25	952.25	941.50	933.00	934.25	947.50	969.25	955.25	941.50	933.00	909.75	913.75	912.25	911.25	911.25	910.25	909.75	907.50	907.50	908.50	912.25	921.25	914.75	910.25	907.50	901.75	899.00	892.25	884.00	889.50	894.00	887.25	873.25	870.25	867.00	850.50	839.75	819.50	807.75	802.00	800.00	796.75	793.00	785.25	776.25	770.00	770.75	769.50	757.50	750.25	754.75	755.75	749.50	744.00	740.25	734.75	731.75	724.25	718.25	711.25	708.50	705.25	702.00	700.00	696.25	694.75	692.00	690.00	686.75	685.50	684.25	682.50	681.00	679.75	678.50	676.00	674.25	673.50	671.50	671.00	669.75	667.25	666.75	667.00	665.25	664.50	663.00	663.00	662.25	661.00	661.25	660.00	660.00	659.00	658.00	656.00	655.00	654.75	654.00	653.25	654.00	653.50	652.00	653.75	651.75	650.75	650.25	650.75	648.50	648.00	648.50	647.00	647.50	646.75	647.00	645.50	644.25	643.50	643.50	643.00	642.50	642.50	641.50	640.75	638.00	639.25	638.75	637.50	637.50	636.25	634.25	635.00	636.25	635.75	634.50	635.00	635.00	635.75	635.75	634.25	634.25	633.75	631.50	632.50	631.50	630.75	630.00	629.50	628.50	628.00	628.25	627.25	627.50	626.50	626.00	626.00	624.75	625.50	624.75	623.50	622.50	623.25	622.50	622.00	621.25	620.50	620.75	620.25	621.25	621.00	620.25	621.75	620.75	620.50	621.25	620.25	621.25	620.00	621.00
1151.75	1155.75	1156.00	1149.75	1146.25	1136.50	1117.75	1111.75	1111.00	1123.00	1141.00	1138.25	1135.25	1153.25	1152.00	1153.50	1153.25	1163.25	1164.50	1173.75	1165.00	1163.00	1171.75	1167.25	1151.25	1147.00	1152.75	1148.75	1137.25	1131.75	1131.00	1136.50	1140.50	1139.00	1134.25	1102.75	1145.00	1145.00	1145.00	1144.00	1133.75	1165.25	1161.25	1151.50	1117.25	1111.25	1105.25	1098.25	1119.00	1114.25	1112.25	1123.50	1117.00	1118.50	1107.00	1070.25	1071.25	1089.25	1094.25	1066.00	1077.25	1085.50	1073.50	1073.25	1061.00	1049.25	1041.50	1033.25	1037.75	1022.25	1010.50	989.00	980.25	978.75	985.75	969.00	961.75	974.50	960.75	949.50	932.00	933.50	951.25	971.75	968.50	945.25	933.25	909.00	911.25	906.25	904.50	906.00	906.75	904.50	903.00	902.50	901.00	902.75	920.25	905.50	902.50	903.50	899.25	898.25	890.75	881.25	886.75	892.25	882.75	869.00	868.00	858.75	833.75	824.50	816.75	808.25	804.50	804.75	797.50	788.75	779.25	773.75	772.50	773.75	773.00	753.75	755.25	764.25	755.50	749.00	745.00	742.00	736.25	734.00	725.50	717.75	711.25	708.00	705.00	701.75	699.25	695.25	694.50	692.25	689.50	686.75	684.75	683.75	682.50	681.50	679.75	678.50	675.75	674.00	673.50	671.75	671.00	668.25	667.25	667.00	667.00	665.50	664.75	664.00	664.00	662.25	661.75	661.50	660.50	659.75	657.75	657.25	655.75	655.75	654.50	654.75	654.50	653.50	654.25	652.75	653.25	652.25	651.50	650.00	651.50	649.25	648.75	648.25	646.75	647.00	647.75	647.25	645.75	643.75	644.00	643.75	643.75	643.00	641.50	641.50	639.25	638.25	638.75	638.50	638.50	636.75	635.50	634.50	634.75	635.25	635.00	635.75	636.00	635.25	634.75	634.25	634.25	634.00	633.75	632.25	632.25	631.25	631.00	630.00	630.00	629.75	627.75	628.75	627.25	627.50	626.25	626.50	625.75	625.25	625.25	624.50	624.50	623.50	622.75	622.25	622.00	621.25	620.50	621.25	621.50	621.50	621.75	621.50	621.75	622.00	621.50	622.00	621.25	621.75	620.25	621.25
1150.25	1154.50	1156.50	1148.25	1150.00	1141.75	1136.25	1125.00	1128.75	1148.75	1149.50	1142.50	1141.00	1147.50	1156.50	1165.75	1177.00	1166.25	1170.00	1178.75	1177.75	1164.25	1164.50	1159.50	1155.00	1152.00	1161.00	1146.00	1141.00	1129.00	1123.00	1127.00	1134.75	1154.00	1139.25	1101.75	1105.00	1117.50	1118.00	1120.25	1127.50	1151.00	1166.00	1157.50	1132.25	1131.50	1124.50	1124.25	1130.75	1135.50	1135.75	1119.75	1112.75	1102.50	1082.75	1064.25	1056.75	1068.50	1063.50	1074.75	1091.50	1081.50	1058.50	1060.25	1055.00	1042.75	1048.25	1053.00	1051.50	1027.25	1024.50	1018.50	1011.25	961.00	952.50	947.25	950.00	975.75	968.50	953.75	923.00	933.25	953.25	958.25	944.00	937.00	927.75	909.00	900.50	894.50	894.00	897.00	898.25	894.75	893.25	895.25	895.00	898.50	912.00	897.00	893.00	893.75	891.00	894.75	884.75	872.00	880.25	886.50	887.25	877.50	863.00	842.75	835.00	828.75	819.50	812.75	803.25	797.00	788.25	782.75	785.50	783.25	783.50	780.00	773.75	761.00	762.25	757.25	753.75	750.50	745.25	739.25	736.00	731.75	725.25	719.00	710.00	705.00	701.75	700.00	697.25	694.00	692.50	690.75	689.25	686.50	685.25	683.25	682.25	681.50	679.50	677.25	675.50	673.50	673.00	672.00	670.25	668.75	668.50	666.75	666.50	666.75	666.00	664.00	663.25	662.25	661.75	660.25	659.25	659.00	657.75	657.00	657.00	656.25	657.00	655.25	654.75	654.50	654.25	653.75	652.75	652.75	652.25	651.00	650.75	649.75	648.75	648.25	647.25	647.25	647.25	647.25	646.25	645.50	644.50	644.75	643.50	643.00	642.00	641.25	641.25	639.50	640.00	637.50	638.50	636.75	638.25	637.75	637.75	636.75	637.75	636.00	636.75	635.75	634.75	634.00	634.50	634.00	632.75	632.75	630.75	631.25	631.25	630.00	630.25	629.75	628.00	628.00	628.00	626.75	626.25	627.00	626.25	624.75	624.50	625.50	624.00	623.75	623.00	622.75	622.75	622.25	621.75	622.75	621.75	621.50	622.75	622.50	622.25	622.75	622.50	623.25	621.25	622.25	621.25	621.75
1143.25	1136.50	1130.25	1125.75	1159.00	1178.25	1175.50	1142.25	1141.00	1156.50	1160.50	1150.25	1148.50	1146.25	1152.00	1180.50	1177.75	1167.75	1170.50	1171.75	1168.50	1161.00	1155.25	1150.75	1150.25	1153.25	1144.25	1137.00	1132.00	1122.25	1104.75	1117.00	1136.75	1154.75	1145.50	1111.50	1091.25	1087.25	1088.50	1094.25	1113.00	1120.75	1165.50	1155.25	1154.25	1146.25	1139.75	1145.50	1131.75	1128.50	1108.50	1096.75	1101.75	1097.50	1077.25	1085.75	1081.00	1055.75	1057.00	1069.50	1063.75	1069.00	1075.50	1074.00	1069.25	1051.75	1020.25	1023.00	1039.50	1027.50	1029.00	1003.25	978.25	966.25	973.00	959.00	944.00	945.75	923.75	918.00	913.75	912.00	928.50	922.00	917.25	908.50	908.50	902.75	900.50	890.00	890.50	889.50	888.75	886.00	883.75	886.50	888.50	897.75	892.50	887.25	885.50	882.75	884.25	883.25	874.25	867.25	871.75	880.50	883.50	854.50	848.75	842.75	834.00	828.00	822.00	816.75	803.25	801.50	792.25	796.00	800.25	802.25	791.00	783.50	777.00	766.00	758.25	749.50	748.25	746.00	740.50	734.75	732.75	729.75	725.75	719.50	705.25	702.25	699.00	698.50	697.00	694.50	692.75	689.75	687.75	686.50	684.00	681.00	681.25	680.25	677.50	676.00	675.75	672.75	673.50	671.00	670.75	669.00	668.50	667.00	667.25	666.50	664.75	664.25	663.75	661.25	661.50	660.25	660.25	659.50	660.25	658.00	657.25	657.00	656.50	656.50	656.00	655.25	653.75	654.00	653.25	652.25	652.25	650.75	650.25	649.75	650.25	650.00	648.25	648.50	648.00	647.00	646.25	645.50	645.00	642.50	643.25	644.00	642.50	640.75	639.75	638.75	637.50	638.00	637.50	639.00	638.50	638.25	638.25	637.00	636.25	636.25	636.00	636.75	635.75	634.25	634.75	633.00	633.25	632.25	630.75	630.50	630.25	630.50	630.25	629.00	628.75	627.50	628.25	627.75	626.50	626.75	625.25	625.25	625.00	624.25	624.00	623.00	623.25	624.00	624.25	623.00	622.25	623.25	623.50	623.50	622.75	622.50	623.50	623.75	623.00	623.00	623.00	622.25	622.50	620.75
1147.25	1142.50	1131.50	1130.50	1166.00	1193.75	1179.75	1161.00	1153.25	1161.50	1177.00	1159.25	1149.50	1151.25	1154.25	1167.25	1164.25	1165.75	1172.75	1180.25	1174.75	1166.50	1148.75	1146.00	1145.50	1146.00	1130.75	1128.75	1118.50	1101.50	1086.25	1095.00	1106.75	1125.25	1132.25	1108.25	1098.50	1084.25	1084.25	1089.75	1092.50	1108.50	1135.00	1136.00	1154.75	1159.25	1143.00	1128.50	1111.25	1101.75	1103.00	1113.50	1118.25	1092.50	1087.00	1091.25	1077.75	1066.75	1051.00	1046.75	1043.75	1047.50	1053.75	1048.25	1024.50	1015.50	1009.50	999.00	1002.25	979.50	977.50	976.75	983.00	1014.50	1028.25	1004.25	974.75	948.50	928.00	943.75	912.50	906.50	909.25	909.50	902.50	894.50	889.75	895.50	894.00	886.50	883.75	882.50	881.00	878.75	876.00	879.50	885.25	884.25	887.50	875.50	877.75	874.75	877.50	874.00	866.00	861.75	863.25	870.00	856.50	845.50	838.50	835.00	832.25	823.75	817.50	817.50	820.75	813.75	808.50	809.50	806.75	796.25	781.00	775.75	771.00	763.00	756.75	750.50	744.50	739.75	734.75	731.00	725.25	721.00	718.75	711.25	702.50	700.00	698.00	696.50	695.50	692.75	692.00	688.75	688.00	685.25	683.25	681.00	679.25	679.00	678.25	677.25	673.50	673.25	672.75	672.00	669.50	668.00	669.00	667.25	666.00	665.75	665.00	664.75	663.50	661.50	660.50	661.50	661.00	660.00	660.00	659.00	658.00	657.00	656.75	656.25	656.00	656.00	654.00	654.25	653.50	652.75	652.25	651.00	650.50	650.50	650.00	649.25	649.25	648.50	648.00	647.25	647.25	645.75	645.50	645.00	644.00	642.75	642.25	642.00	640.25	638.25	639.50	639.75	638.75	639.75	638.25	638.25	639.00	639.00	637.50	636.50	637.25	637.50	635.25	634.25	634.75	632.75	633.25	632.00	631.50	630.25	629.75	631.00	631.00	631.75	628.75	628.25	627.75	626.75	627.00	625.75	626.25	626.25	625.00	625.25	625.00	624.25	624.75	623.75	624.50	624.75	624.50	624.00	624.50	624.75	624.25	624.25	624.00	625.00	624.00	624.00	623.25	622.00	622.25	621.50
1167.75	1165.75	1138.25	1144.75	1175.00	1183.25	1190.50	1161.75	1179.25	1177.00	1167.75	1158.75	1153.00	1152.00	1160.75	1157.75	1156.75	1170.50	1171.50	1178.75	1183.25	1161.25	1156.00	1142.50	1130.25	1137.25	1121.00	1114.00	1107.50	1095.75	1078.00	1082.00	1079.50	1089.25	1090.75	1089.25	1094.25	1093.00	1084.75	1078.50	1089.25	1111.25	1134.50	1130.75	1176.25	1160.00	1125.25	1121.00	1115.00	1103.00	1107.50	1119.75	1122.50	1088.25	1090.50	1100.25	1079.00	1065.75	1060.50	1045.75	1034.75	1029.50	1023.50	1018.25	1013.75	1006.50	998.00	989.25	995.00	1001.75	1026.50	1022.00	1020.00	1041.25	1022.25	982.75	947.75	953.75	952.25	923.25	911.75	908.25	900.50	900.25	897.75	892.00	887.00	888.50	887.00	884.25	878.50	877.75	876.50	874.50	870.25	873.00	878.50	867.50	875.50	865.75	863.50	869.75	877.50	866.75	860.00	858.25	858.25	857.25	849.50	839.75	834.00	834.75	831.75	821.25	811.00	812.50	818.75	817.50	814.75	806.00	795.25	789.25	784.50	776.00	772.25	762.50	757.00	753.50	747.50	735.75	731.75	724.50	713.25	709.00	708.00	707.75	698.75	697.50	697.00	696.25	693.75	691.75	691.00	688.25	686.25	685.75	682.00	681.00	680.25	677.75	673.50	676.25	671.25	673.00	671.75	670.75	670.75	669.75	667.75	666.00	665.50	666.00	664.25	663.75	662.00	663.25	663.25	661.75	659.75	659.75	659.25	658.25	657.75	657.75	657.25	655.75	656.00	655.50	654.25	655.25	654.25	653.00	652.25	652.00	651.25	650.25	651.50	649.75	650.25	648.50	648.00	648.75	647.25	645.75	645.50	645.25	643.75	642.00	642.25	642.75	640.50	640.25	641.25	640.25	641.25	640.00	639.00	640.00	638.25	638.75	638.50	637.25	637.25	637.25	635.25	635.00	633.75	632.25	633.00	633.25	631.00	631.00	629.50	631.00	630.50	629.00	628.50	628.25	626.75	628.00	626.75	626.50	625.50	625.75	625.25	624.75	625.25	625.50	625.25	625.00	626.00	625.25	624.75	625.75	625.25	624.75	626.25	625.75	625.00	624.50	624.25	623.50	622.75	621.75	622.00	621.50
1158.00	1170.25	1133.25	1145.50	1174.00	1182.50	1175.25	1159.75	1165.25	1165.75	1147.50	1160.50	1144.00	1154.50	1148.75	1151.25	1150.75	1162.25	1166.25	1174.00	1170.50	1152.50	1144.75	1145.50	1124.50	1118.75	1107.75	1100.75	1096.00	1082.00	1062.25	1064.75	1064.25	1087.25	1091.75	1085.25	1084.50	1094.25	1098.50	1091.25	1084.00	1094.50	1118.50	1124.75	1128.25	1107.50	1101.75	1107.50	1093.00	1091.75	1093.25	1104.00	1093.50	1098.00	1088.25	1087.25	1069.75	1063.75	1050.50	1043.00	1038.00	1041.50	1047.50	1026.25	1011.75	1005.75	1000.50	1009.75	1036.00	1024.75	1026.25	1025.00	1025.75	1029.00	982.50	966.50	964.00	993.25	926.25	921.00	921.75	917.50	904.50	892.25	892.00	890.00	887.00	884.25	882.25	877.50	872.75	866.00	864.50	864.75	863.75	866.75	874.00	866.50	861.00	861.50	854.00	862.00	867.25	861.00	857.50	856.00	856.75	852.25	848.50	839.25	834.75	834.75	831.75	823.25	811.25	805.75	805.50	805.25	802.75	802.00	788.75	786.25	783.75	776.00	770.00	761.25	760.50	746.50	741.00	737.50	729.50	715.00	710.25	705.75	703.50	700.50	697.25	696.50	695.50	694.25	692.00	691.00	688.75	686.50	685.50	684.00	682.25	679.25	678.25	676.25	674.00	673.25	673.00	673.25	670.75	671.50	670.00	668.25	668.25	667.50	665.75	666.00	664.75	663.50	663.50	663.00	662.00	662.25	660.50	660.50	659.25	659.75	657.50	657.25	656.25	656.00	655.50	655.50	654.75	653.50	653.00	652.75	651.25	651.50	651.75	650.75	650.50	650.25	648.50	647.75	647.00	646.50	648.00	645.75	645.25	644.50	644.50	644.25	643.75	641.25	641.25	642.25	640.50	640.00	640.50	641.00	640.00	639.75	640.25	639.00	638.50	636.75	636.75	636.75	634.75	633.75	633.75	632.50	633.00	632.25	631.50	630.50	631.25	630.25	629.50	630.50	629.75	628.75	628.25	627.50	626.75	626.00	625.75	626.25	626.25	625.50	625.50	625.75	625.25	626.50	625.75	625.50	626.50	627.25	626.25	625.75	627.00	626.00	626.00	625.50	624.25	623.75	623.00	622.50	622.50	622.25
1106.75	1157.75	1138.75	1134.50	1151.25	1142.25	1159.25	1145.00	1144.50	1145.75	1139.25	1157.25	1140.00	1148.00	1144.00	1135.75	1138.25	1146.75	1157.50	1161.00	1155.50	1144.75	1132.50	1126.00	1126.25	1114.25	1101.50	1095.25	1085.75	1064.00	1054.25	1050.50	1050.75	1051.00	1072.00	1081.25	1083.00	1077.00	1091.25	1096.75	1099.00	1088.75	1094.50	1108.00	1096.00	1089.75	1096.00	1096.00	1087.25	1087.00	1083.00	1081.75	1082.00	1087.50	1082.75	1078.75	1068.50	1062.00	1052.75	1047.25	1042.75	1052.75	1069.75	1042.75	1021.75	1014.00	1003.00	1007.50	1039.75	1019.25	1006.75	990.00	991.00	976.25	994.75	980.25	947.25	939.25	934.25	924.75	920.00	917.00	909.75	893.50	891.25	884.25	880.25	877.00	873.50	870.00	865.50	858.75	858.75	858.50	858.75	857.50	859.00	862.50	854.75	854.00	844.00	843.25	845.75	852.25	857.00	857.00	858.25	857.00	846.75	836.25	829.75	825.50	820.50	812.50	808.50	804.50	792.75	790.75	784.00	782.50	780.50	780.00	778.00	775.00	772.25	756.75	756.00	739.25	732.75	724.50	713.75	706.00	704.25	702.25	701.00	699.25	697.25	696.25	694.75	693.50	691.50	689.50	688.50	686.50	686.00	682.75	680.50	680.00	677.25	674.75	673.75	673.75	673.25	673.00	671.25	670.50	670.50	670.00	668.00	666.25	665.75	666.00	664.75	662.75	662.50	662.50	662.00	660.25	661.25	660.25	660.00	661.25	658.00	657.75	656.50	656.50	655.50	654.75	654.50	653.75	653.75	653.00	653.00	653.25	652.75	651.75	650.75	649.75	649.25	648.75	649.00	648.25	647.75	646.50	645.00	645.50	644.50	643.00	642.75	643.25	642.50	642.25	641.50	640.75	640.50	642.50	640.00	640.50	639.00	639.25	638.25	637.25	636.75	635.00	636.25	634.75	633.00	633.25	633.25	632.25	631.50	630.25	630.25	628.75	630.25	629.75	629.75	628.75	627.50	627.00	626.75	626.75	627.00	626.75	625.25	626.50	626.75	626.50	626.75	626.00	626.75	628.00	626.75	626.50	627.50	626.75	625.75	626.50	626.25	626.00	624.50	623.75	623.25	622.50	623.50	622.25
1082.25	1094.25	1123.25	1119.75	1143.50	1138.75	1122.00	1102.00	1114.75	1117.00	1135.25	1144.25	1136.50	1121.25	1129.50	1134.25	1135.75	1136.00	1144.75	1150.50	1141.25	1129.50	1121.25	1120.00	1116.50	1113.50	1101.25	1090.75	1078.75	1084.00	1078.75	1054.75	1037.50	1034.00	1039.25	1049.25	1075.25	1081.75	1088.00	1088.75	1093.25	1094.50	1085.00	1091.25	1093.00	1089.00	1089.00	1090.00	1083.50	1084.75	1082.00	1079.75	1075.50	1074.25	1074.50	1071.50	1069.00	1063.00	1057.50	1051.00	1041.75	1039.25	1039.25	1037.25	1033.75	1026.75	1008.50	1003.00	1025.50	1031.50	1032.75	1008.25	1006.75	1016.50	974.00	947.25	942.50	943.75	937.50	926.25	917.75	915.50	909.75	899.50	895.75	895.25	891.00	884.25	877.50	866.50	861.50	859.25	857.25	857.00	855.00	853.50	851.25	855.25	862.00	847.50	847.00	853.75	862.25	863.50	853.75	848.75	847.25	844.00	839.50	832.75	825.25	821.00	818.75	814.25	811.75	807.00	798.50	791.75	791.00	781.75	774.00	772.75	770.75	770.00	773.50	759.25	755.75	744.75	736.50	719.25	712.00	708.25	704.50	704.75	703.50	700.50	698.00	696.00	694.75	693.50	691.25	689.50	688.50	684.75	683.50	681.00	680.00	679.75	678.00	675.75	675.75	676.25	675.75	673.00	671.75	671.50	669.25	668.25	667.75	666.25	666.75	666.50	664.75	663.00	663.00	662.50	662.50	661.25	661.75	660.50	660.50	659.75	659.00	658.00	656.25	656.25	655.75	654.75	654.75	654.25	654.00	653.75	652.75	652.50	652.00	651.00	652.00	651.50	649.75	649.75	649.25	647.25	646.75	646.50	646.75	645.25	645.50	642.75	643.00	642.00	643.25	642.75	642.50	642.50	640.75	640.75	640.75	640.00	640.25	637.25	636.75	637.00	637.00	635.50	633.75	634.75	633.50	633.00	632.50	632.00	632.75	630.25	630.75	630.50	629.50	630.00	628.75	627.50	627.75	628.25	627.75	628.50	628.00	627.75	627.25	627.25	628.00	628.25	628.75	628.25	629.00	629.75	627.75	628.25	627.75	627.50	626.75	625.00	625.25	624.25	624.50	624.00	624.50	623.25	623.00	621.50
1082.50	1069.50	1106.75	1116.00	1106.00	1122.25	1142.50	1101.50	1120.25	1108.50	1123.00	1138.75	1122.75	1100.00	1105.00	1119.50	1118.50	1119.00	1132.75	1139.75	1137.50	1121.50	1114.25	1108.25	1111.00	1110.00	1098.25	1090.50	1093.75	1090.75	1093.75	1077.50	1045.25	1047.75	1043.25	1036.00	1043.25	1068.75	1079.50	1085.00	1095.50	1105.25	1093.00	1088.25	1089.75	1091.50	1089.50	1079.75	1082.75	1086.00	1082.50	1080.25	1078.75	1071.75	1068.75	1071.25	1070.75	1065.75	1061.75	1059.00	1048.75	1043.50	1034.25	1034.50	1037.25	1036.50	1014.00	1034.25	1121.00	1066.25	1045.25	1041.00	1015.00	963.00	953.25	960.25	956.75	954.00	948.00	937.75	920.25	916.50	911.50	905.00	897.50	894.00	890.00	884.50	877.50	866.50	862.00	858.00	858.50	856.75	854.25	852.00	851.75	854.50	867.00	866.75	861.75	863.00	863.25	857.00	848.75	839.50	837.75	838.75	837.25	832.25	823.50	817.75	815.75	814.75	815.00	812.50	803.25	798.50	794.00	784.25	777.50	771.50	767.25	762.50	763.00	756.50	746.00	734.00	728.00	723.00	715.00	707.75	704.50	704.00	696.00	692.50	694.00	696.25	695.50	691.50	690.75	689.00	687.00	685.75	683.25	681.00	681.00	679.50	678.00	676.75	676.00	674.50	672.50	672.25	671.75	670.25	669.25	669.00	667.50	666.75	666.00	666.50	665.25	662.75	663.25	662.75	663.00	662.00	661.50	660.50	659.75	658.50	658.50	658.50	656.75	656.25	656.75	656.25	656.75	656.00	656.25	652.75	653.50	653.50	652.75	652.00	651.00	650.50	649.75	648.00	649.25	648.75	647.25	647.25	646.75	644.50	644.25	642.75	643.25	643.75	643.75	643.00	643.25	642.50	642.75	641.25	641.00	639.50	640.00	639.25	637.75	636.75	636.50	636.75	634.25	635.00	633.75	633.50	632.75	632.50	631.25	629.50	630.75	629.50	628.75	629.25	628.00	628.75	629.00	629.75	629.00	628.75	629.00	628.25	628.25	629.75	629.00	628.50	628.50	629.25	629.00	628.75	629.00	628.00	628.75	628.00	627.00	626.00	626.00	624.75	624.50	624.50	624.00	623.25	622.50	623.00
1095.75	1077.00	1073.50	1080.50	1076.50	1104.75	1090.50	1072.00	1104.00	1119.25	1111.25	1127.75	1111.75	1107.75	1081.00	1069.75	1060.00	1067.75	1077.75	1117.75	1132.00	1126.75	1114.00	1105.50	1105.75	1107.50	1094.00	1099.75	1096.75	1095.25	1096.75	1078.25	1059.75	1050.25	1060.25	1056.25	1037.50	1040.75	1057.00	1081.50	1094.25	1096.50	1095.50	1086.50	1084.00	1087.75	1087.75	1084.25	1084.75	1085.75	1085.25	1081.25	1081.75	1075.00	1070.25	1074.75	1075.25	1069.25	1065.75	1063.50	1054.00	1047.75	1040.00	1040.25	1031.25	1039.25	1019.50	1024.00	1085.50	1051.50	1039.00	985.75	965.75	948.75	952.00	956.00	952.25	956.25	936.50	935.75	923.00	921.25	915.75	907.75	898.75	893.50	889.25	881.75	875.75	871.25	867.75	862.50	860.50	855.00	852.25	851.75	857.00	872.75	880.00	881.75	870.75	868.75	862.50	854.50	845.00	837.00	832.75	828.75	829.00	832.75	824.75	815.75	812.25	811.25	812.75	811.50	800.50	793.50	786.75	784.00	779.50	773.25	765.00	760.75	750.75	750.50	749.25	725.00	721.00	719.75	715.50	714.00	709.75	705.25	700.50	697.25	692.75	692.50	691.00	690.00	688.25	686.00	685.25	684.25	682.50	681.75	681.00	680.25	678.25	677.75	676.75	675.25	673.75	672.00	671.25	671.25	669.50	669.50	667.50	667.75	666.50	667.00	665.25	665.75	664.25	662.75	662.25	661.25	661.50	660.75	659.25	659.25	657.50	658.50	658.25	657.50	657.25	656.50	655.50	654.75	654.75	654.25	653.50	653.50	652.50	652.25	651.00	650.25	650.00	649.25	648.50	648.75	646.75	646.25	645.75	646.00	645.75	645.50	643.50	644.25	643.25	642.00	644.00	642.25	641.25	641.75	641.25	641.00	639.75	639.00	638.00	637.25	636.25	636.50	635.75	635.50	635.00	636.00	632.75	632.00	632.25	631.00	629.50	629.50	630.50	629.00	630.00	630.00	629.25	630.00	629.25	630.25	629.50	630.00	630.00	629.25	630.00	629.75	629.50	629.25	629.25	629.25	629.50	630.00	629.75	627.50	627.25	626.50	626.00	626.25	625.25	625.00	625.00	623.75	623.50	623.75
1072.00	1089.25	1085.50	1051.50	1060.25	1049.00	1045.50	1045.50	1079.25	1108.75	1117.75	1111.00	1121.75	1104.75	1093.75	1043.25	1042.25	1052.00	1073.50	1124.00	1131.75	1125.50	1112.25	1108.25	1101.25	1100.50	1099.75	1095.25	1093.50	1095.75	1091.50	1076.75	1068.75	1049.50	1066.50	1052.75	1053.25	1053.00	1051.50	1072.00	1090.00	1093.75	1092.00	1092.00	1081.50	1080.25	1088.00	1089.75	1086.75	1085.50	1085.00	1082.25	1078.75	1074.75	1075.50	1076.75	1077.75	1079.00	1077.00	1068.75	1058.75	1053.50	1050.00	1054.25	1040.25	1023.25	1014.25	1005.00	1014.75	978.25	968.25	967.75	960.25	947.50	939.50	937.00	937.50	937.00	930.50	928.50	924.25	919.75	917.25	909.75	902.75	896.75	890.75	883.50	875.75	865.75	863.50	859.25	856.75	851.75	854.25	864.75	874.00	877.50	877.25	871.50	873.50	865.25	859.50	852.50	844.00	836.50	835.50	822.75	816.25	822.75	818.00	815.50	812.75	807.50	803.25	798.25	794.75	792.50	786.75	783.50	778.50	775.75	767.25	757.50	751.50	741.50	739.75	732.75	728.00	724.75	718.50	711.75	706.00	702.75	701.00	699.50	695.75	695.50	693.50	692.50	689.75	687.00	684.50	683.00	682.75	681.00	681.50	679.75	679.25	678.00	676.75	674.75	674.25	672.00	671.25	671.00	670.25	669.25	667.75	667.00	667.00	667.00	666.50	663.50	663.25	662.50	662.00	662.00	661.75	661.50	660.50	660.25	659.00	659.00	658.50	658.25	658.00	656.25	655.50	655.50	655.25	654.75	654.00	652.25	653.25	652.00	651.50	650.75	650.75	649.75	647.25	648.00	646.75	646.00	646.75	646.75	646.50	646.00	646.00	644.00	644.00	644.50	644.00	643.25	642.50	641.75	641.00	639.50	640.25	637.50	638.25	636.75	636.50	637.25	635.50	634.50	634.50	634.00	633.75	631.25	631.50	630.75	628.00	629.75	628.50	628.25	628.50	629.75	630.50	629.75	631.00	631.25	631.50	630.75	630.50	629.75	630.25	630.25	631.00	630.50	630.50	629.75	629.00	628.25	628.25	626.75	626.75	627.75	626.50	626.00	626.25	627.00	625.75	625.50	625.25	624.00
1045.75	1093.25	1093.00	1075.75	1041.25	1040.75	1041.75	1053.50	1063.25	1086.25	1110.25	1110.75	1113.50	1088.75	1069.75	1043.75	1064.75	1079.00	1099.50	1121.25	1131.25	1117.50	1103.00	1106.75	1107.00	1100.25	1105.50	1095.50	1090.25	1091.25	1083.50	1075.75	1073.75	1053.50	1055.00	1065.00	1059.50	1063.25	1066.00	1070.75	1088.75	1090.25	1091.50	1087.50	1085.25	1088.25	1088.25	1089.00	1081.50	1079.50	1079.50	1078.00	1074.75	1072.25	1072.50	1074.00	1077.25	1080.75	1078.50	1067.25	1055.75	1054.25	1037.25	1039.75	1039.75	1021.00	998.75	988.25	978.25	980.00	976.00	976.75	968.75	951.25	945.75	936.25	929.25	929.25	925.75	921.00	916.50	917.75	916.25	910.00	905.00	900.25	892.50	880.50	872.75	862.50	862.25	861.50	861.75	859.75	860.50	865.50	870.00	869.50	865.50	866.50	864.00	866.50	857.50	846.25	838.00	832.50	829.00	821.75	814.25	810.50	807.50	811.25	810.00	805.00	797.00	792.50	784.50	780.00	778.25	775.75	773.00	770.75	771.50	762.75	757.75	746.00	739.50	737.75	732.25	725.50	718.00	707.75	704.50	702.50	699.75	697.75	696.25	695.50	693.75	692.00	689.50	688.00	687.75	684.00	683.75	681.25	680.25	679.00	678.75	676.50	675.50	675.75	673.00	674.00	672.00	670.25	670.25	668.25	668.75	668.00	666.50	666.25	664.75	664.50	664.25	663.00	663.50	662.50	662.50	662.00	661.50	661.00	660.25	660.00	659.50	658.75	659.00	657.50	656.25	655.00	655.50	655.00	654.00	654.00	653.00	652.25	651.50	651.00	650.50	649.75	648.25	648.25	647.50	648.00	646.75	647.25	646.75	646.25	646.50	645.25	643.50	643.25	643.00	643.75	641.75	640.75	641.50	641.25	640.00	638.75	637.50	637.75	637.75	637.50	635.50	633.25	633.25	633.50	632.75	632.00	632.00	630.75	630.25	630.50	629.50	629.75	630.25	629.00	631.75	631.75	632.50	631.50	631.75	632.50	631.75	631.75	631.00	631.25	632.00	630.00	631.00	630.00	629.00	628.75	628.25	628.00	627.25	627.75	628.00	627.25	627.50	626.50	625.75	625.00	624.50	624.50
1033.00	1075.25	1085.75	1068.75	1032.75	1019.75	1030.25	1050.50	1071.25	1094.00	1116.25	1124.75	1102.50	1081.75	1054.75	1065.75	1110.00	1101.25	1110.25	1122.25	1123.75	1121.75	1110.75	1107.75	1097.75	1093.00	1089.00	1091.00	1086.25	1077.00	1077.00	1070.25	1063.25	1061.00	1052.75	1066.00	1064.25	1072.75	1078.00	1083.25	1092.75	1100.00	1091.25	1082.25	1086.00	1087.50	1090.00	1086.50	1085.75	1083.00	1082.25	1074.75	1071.00	1069.75	1071.00	1071.00	1079.00	1076.00	1074.25	1076.50	1062.50	1047.50	1027.75	1018.00	1016.50	997.50	985.00	979.25	969.25	969.25	964.25	980.25	970.00	948.00	950.00	946.25	928.75	920.75	915.50	912.75	915.00	922.00	917.75	910.75	906.25	904.25	902.50	896.00	882.25	870.75	871.25	872.00	869.75	865.00	860.00	858.25	860.75	858.50	860.00	856.75	854.75	862.50	854.25	837.50	831.25	826.50	831.25	821.75	812.25	806.00	800.75	795.50	791.25	789.00	784.00	783.75	778.25	773.50	766.75	767.00	766.50	765.25	765.25	761.75	754.75	744.75	742.25	740.50	734.25	729.75	715.75	706.00	703.25	701.75	698.25	697.00	696.00	694.75	693.75	691.50	690.00	688.50	687.75	685.75	684.00	682.00	680.75	680.75	677.50	676.75	675.75	675.25	674.75	673.00	671.25	670.75	670.75	668.75	668.00	666.75	666.50	664.50	664.75	665.00	665.00	664.00	664.50	663.25	662.75	662.00	661.00	661.00	661.50	660.25	659.75	658.25	658.25	657.75	657.25	655.75	655.75	655.25	654.00	653.25	652.50	652.00	652.00	651.50	651.00	650.50	650.25	648.25	648.75	648.00	647.50	647.75	649.00	646.50	645.75	645.75	644.75	643.25	643.75	643.25	642.50	641.75	641.25	641.00	640.50	639.50	637.75	638.75	635.25	636.25	636.50	634.00	633.00	634.25	632.50	632.25	631.25	631.00	630.50	631.00	629.25	629.75	630.00	630.00	631.75	633.00	633.00	633.00	632.50	632.25	632.50	633.00	631.75	632.25	632.00	630.75	630.25	629.75	629.75	629.25	628.50	627.50	628.00	627.75	627.25	627.25	628.25	626.75	627.00	625.00	624.50	624.25
1041.75	1052.25	1052.50	1041.50	1029.25	1014.25	1034.00	1036.25	1059.00	1082.00	1106.75	1113.50	1108.00	1100.25	1052.25	1089.25	1119.50	1106.50	1115.00	1117.50	1122.50	1121.50	1125.00	1114.25	1108.50	1106.00	1089.50	1076.75	1075.00	1072.25	1066.00	1065.75	1066.75	1068.25	1066.25	1057.00	1068.25	1073.75	1087.50	1087.50	1089.50	1095.75	1093.75	1087.00	1083.75	1084.00	1087.00	1090.75	1091.75	1099.25	1089.75	1077.75	1074.50	1071.00	1068.00	1069.25	1076.50	1078.25	1072.50	1062.75	1055.75	1057.75	1033.25	1014.25	1002.00	989.25	986.00	976.00	963.25	955.25	949.25	943.75	945.50	938.50	927.25	926.50	919.50	916.50	914.00	911.00	916.00	917.50	907.50	902.50	901.25	899.00	901.50	904.50	900.50	880.00	881.25	867.25	863.50	862.75	853.75	846.00	845.00	850.75	860.75	846.50	844.00	847.75	847.75	833.75	824.75	820.50	829.50	818.25	806.25	801.00	802.75	795.75	788.50	783.50	778.75	773.75	768.50	762.50	755.25	755.50	762.75	765.25	761.50	756.75	753.75	746.75	744.25	737.75	733.00	726.00	711.00	705.00	703.00	702.00	698.50	697.75	695.75	695.75	694.50	691.75	689.50	688.25	686.25	683.75	682.75	681.50	680.00	678.25	677.25	676.00	676.25	672.50	673.75	673.00	672.75	673.00	669.50	668.00	667.75	667.50	667.25	666.25	665.25	664.75	665.00	663.75	663.25	663.25	661.00	661.50	661.50	661.00	660.50	660.00	659.25	658.75	658.50	657.50	656.25	655.50	656.00	654.25	653.75	653.50	653.75	652.00	652.25	651.75	650.50	651.00	650.00	649.50	649.25	648.00	648.50	647.25	646.00	647.00	646.50	645.25	645.25	644.25	642.50	643.00	642.25	641.25	641.25	639.75	639.50	639.25	637.75	637.00	637.50	636.75	635.25	634.00	634.00	631.75	632.50	632.50	633.00	630.75	631.25	631.75	631.00	630.75	630.25	630.25	633.00	634.00	633.75	634.50	633.50	633.25	632.50	631.75	632.75	631.50	631.00	630.00	630.25	630.00	629.00	628.75	629.00	628.00	628.00	627.75	628.25	628.50	627.50	626.25	626.75	625.75	624.75	624.75
1043.75	1011.00	1010.50	1006.25	1015.50	1006.75	1023.25	1040.50	1056.50	1062.75	1074.50	1066.50	1078.75	1077.00	1061.75	1093.75	1125.25	1113.25	1123.50	1114.50	1110.50	1114.50	1122.00	1114.25	1113.75	1109.00	1093.00	1074.25	1073.00	1068.25	1058.00	1044.25	1056.50	1064.75	1066.50	1050.50	1045.50	1054.25	1062.25	1067.75	1083.00	1090.25	1094.50	1087.50	1088.75	1092.75	1092.50	1097.75	1102.50	1102.50	1090.00	1082.00	1080.00	1075.25	1069.75	1066.50	1072.00	1078.00	1068.25	1054.75	1030.75	1036.75	1038.50	1009.25	996.50	1007.50	1002.75	986.75	973.50	955.25	950.00	944.25	938.50	931.50	924.50	918.50	914.25	911.00	903.25	901.25	907.00	904.75	895.75	892.00	895.00	891.75	891.50	893.25	896.50	881.00	882.50	860.00	862.25	866.75	851.75	841.00	842.75	851.25	848.00	837.50	832.25	841.25	835.00	832.50	821.00	820.00	825.75	815.75	810.75	806.25	801.75	796.25	788.50	778.50	773.25	768.75	767.25	763.50	752.00	753.75	748.75	752.00	752.75	742.25	749.25	748.75	746.50	737.00	728.00	720.00	710.25	704.75	702.50	701.75	699.00	698.50	698.75	699.25	698.25	694.00	689.25	686.50	685.25	682.25	681.75	680.50	679.00	677.75	675.50	676.75	675.50	674.50	674.25	673.75	670.25	669.25	669.75	669.00	668.50	666.75	666.50	666.25	666.00	665.75	664.50	664.00	664.50	663.00	661.00	661.50	661.50	660.25	660.25	659.50	659.00	658.25	657.00	657.25	657.00	655.50	656.50	654.75	655.25	654.25	653.50	652.75	652.50	651.75	650.50	651.00	650.25	649.75	649.50	648.75	648.25	648.25	648.00	646.00	646.75	646.25	644.25	644.75	644.00	644.25	644.00	642.25	641.25	639.50	640.00	639.50	637.75	637.50	637.50	635.50	636.00	634.25	633.25	634.75	633.75	634.25	633.50	632.50	632.00	631.25	633.00	632.75	632.25	632.25	633.75	630.75	634.75	634.25	634.50	634.75	634.00	633.00	631.50	632.75	630.75	630.00	630.25	630.00	629.00	629.00	629.75	628.75	628.50	629.25	629.75	628.50	628.00	627.25	625.75	626.25	625.75	624.00
1013.50	988.50	987.00	995.00	1013.00	1005.50	1012.50	1034.25	1065.00	1073.25	1059.75	1059.50	1070.75	1076.50	1082.50	1098.00	1119.50	1112.50	1111.75	1114.25	1102.25	1106.00	1111.75	1113.75	1108.50	1104.00	1085.25	1081.00	1075.00	1070.25	1063.25	1051.00	1043.75	1053.50	1059.25	1053.75	1040.75	1060.75	1078.75	1084.50	1072.50	1083.50	1091.50	1103.50	1099.75	1103.50	1114.00	1119.50	1108.75	1101.50	1102.00	1097.00	1092.25	1086.00	1078.00	1068.50	1072.50	1072.25	1060.25	1044.25	1025.00	1023.75	1016.25	1010.75	1006.25	1014.25	1006.50	992.25	976.00	964.50	963.50	952.25	946.25	937.00	931.50	927.75	922.00	915.75	901.00	902.00	902.50	895.25	887.75	884.75	886.25	885.00	884.00	884.25	888.50	887.25	865.50	857.50	879.75	867.50	857.25	836.75	826.00	838.50	840.00	831.50	826.75	829.25	829.25	832.00	817.50	812.75	811.75	810.50	811.50	806.75	800.75	800.50	796.00	786.75	771.00	763.25	760.75	754.75	744.00	739.50	737.00	739.75	737.00	737.50	747.50	748.00	743.75	732.75	729.75	724.00	711.75	705.50	702.75	701.75	702.25	703.50	703.00	703.00	699.50	694.00	689.50	686.25	684.00	681.75	680.50	679.50	677.75	677.00	676.50	675.00	675.00	675.75	673.25	672.25	671.75	670.50	670.25	669.25	668.75	667.50	667.50	666.75	666.50	666.00	665.50	664.50	663.75	663.25	662.50	662.50	661.25	661.25	660.50	660.75	660.00	658.50	657.75	657.00	656.00	655.50	655.50	655.25	654.00	653.50	652.75	652.50	652.50	652.00	651.25	652.50	650.50	650.25	650.25	649.75	648.75	647.50	646.75	646.75	646.50	644.50	644.25	643.25	643.00	642.50	643.50	640.50	640.00	641.00	639.25	638.75	638.25	638.75	637.00	636.50	637.25	634.25	634.25	633.75	633.50	633.75	633.00	633.50	631.75	632.75	632.25	632.50	633.50	633.50	633.25	633.75	636.00	635.25	635.50	636.00	634.25	632.00	632.50	631.75	632.00	631.00	631.25	630.00	629.50	629.75	629.25	629.00	629.00	629.75	629.25	628.50	627.25	627.75	627.50	626.50	625.25	624.25
1003.50	982.00	982.00	997.50	1015.75	1006.25	1006.25	1030.00	1056.75	1071.75	1073.50	1068.25	1080.00	1077.75	1080.00	1103.75	1123.75	1114.25	1111.75	1110.50	1100.25	1101.00	1106.50	1108.00	1103.75	1102.75	1081.50	1088.00	1076.25	1070.75	1067.75	1062.00	1043.25	1047.00	1054.00	1058.50	1037.75	1051.75	1072.25	1090.00	1088.75	1091.25	1086.75	1107.25	1113.75	1117.00	1129.25	1128.25	1110.50	1106.75	1114.00	1112.25	1100.75	1097.00	1085.75	1069.25	1078.25	1067.75	1057.75	1039.50	1023.00	1019.75	1022.25	1025.25	1014.75	1011.25	1004.25	992.50	973.50	977.50	977.75	957.25	950.75	941.50	935.75	930.25	924.75	917.50	899.00	896.75	893.50	889.00	883.50	881.50	883.00	881.25	879.00	877.25	881.25	879.25	857.50	852.25	880.50	864.50	843.75	823.00	824.75	836.25	834.25	828.75	825.25	827.50	831.25	830.25	811.25	803.75	803.75	803.50	807.50	805.25	798.00	798.00	795.75	786.75	774.25	767.00	762.00	755.00	742.25	736.25	735.50	738.00	734.50	731.00	741.75	743.75	742.00	733.00	730.50	723.50	713.00	707.50	704.50	704.75	706.00	706.25	704.50	703.00	698.75	693.50	689.00	685.25	683.75	681.75	680.50	679.00	678.25	676.00	676.50	676.50	673.25	674.25	671.50	671.25	672.25	670.75	669.50	669.00	669.25	667.00	668.25	666.75	666.50	666.25	665.50	664.00	663.75	663.50	663.50	663.75	662.00	661.25	662.25	662.25	660.75	659.50	658.50	656.75	656.75	656.25	656.00	655.50	655.50	653.75	653.50	652.50	652.25	652.50	651.25	653.50	651.25	650.25	649.25	648.75	648.00	647.25	647.25	646.50	645.75	644.50	643.25	643.75	644.50	641.75	643.25	640.25	639.75	640.50	639.25	638.25	637.50	638.50	638.25	637.50	637.25	635.25	635.00	634.50	632.75	634.00	633.75	634.00	633.50	634.75	633.75	633.50	634.25	633.50	633.75	635.00	635.50	635.75	635.75	634.75	634.25	631.75	632.50	632.50	631.75	631.50	631.75	631.00	630.00	630.00	630.00	629.75	629.50	629.50	629.00	629.00	628.00	627.75	627.50	625.75	624.50	624.75
991.75	974.50	978.75	992.25	1020.25	1011.25	1004.00	1020.50	1038.25	1036.75	1056.75	1066.25	1072.00	1079.75	1071.50	1091.75	1116.75	1108.75	1107.00	1110.00	1093.25	1086.50	1091.00	1085.25	1089.50	1090.25	1079.75	1075.25	1073.00	1069.50	1069.50	1070.25	1068.00	1051.75	1050.75	1064.50	1048.50	1053.50	1079.00	1096.50	1110.75	1122.25	1120.75	1124.00	1139.25	1143.00	1129.75	1116.75	1124.00	1122.50	1122.75	1122.75	1120.75	1115.00	1094.75	1063.75	1068.00	1062.50	1052.25	1040.75	1032.00	1029.50	1053.00	1034.50	1010.00	1007.25	995.75	995.75	995.75	997.75	992.00	967.75	958.00	945.00	936.25	929.50	923.00	917.50	902.00	890.75	883.25	881.75	878.25	876.00	876.25	874.75	871.25	867.50	865.50	866.00	840.75	822.00	848.00	836.25	813.00	812.00	825.25	834.50	829.50	825.50	819.25	816.00	820.00	815.25	804.50	794.25	785.50	782.75	792.75	794.75	790.50	781.50	778.50	774.50	769.75	761.00	751.00	745.75	741.75	741.50	741.00	742.00	734.75	727.25	724.25	735.25	732.25	728.25	723.75	721.75	714.50	710.00	708.75	707.75	708.50	709.25	705.50	702.50	695.50	690.50	686.75	683.75	682.75	680.75	679.75	679.75	676.50	677.75	677.00	674.25	674.75	674.25	675.00	672.00	671.50	671.75	670.75	668.50	668.00	668.50	667.50	667.75	667.25	666.25	666.00	665.50	664.25	664.25	664.75	663.25	661.50	662.00	661.00	660.25	660.50	658.75	658.50	658.00	657.50	657.50	656.75	656.00	655.50	654.00	655.00	653.75	653.00	654.75	652.25	652.75	652.00	650.25	650.25	649.75	648.75	647.50	645.50	645.25	646.00	646.00	644.75	644.25	643.50	643.25	642.75	641.00	641.00	640.50	639.50	638.50	639.00	640.00	636.75	637.25	636.50	635.00	636.50	634.75	634.75	634.25	634.25	634.75	634.75	635.75	634.50	634.00	634.75	633.75	635.00	634.25	635.00	635.25	635.00	635.00	633.25	633.00	633.25	632.00	632.75	631.75	631.75	631.50	631.00	631.25	631.00	630.00	629.75	630.75	630.00	630.50	628.50	627.75	626.75	625.25	624.50	625.00
988.00	969.75	980.25	987.75	1002.25	1018.50	1018.75	1007.25	1014.25	1024.00	1048.75	1047.50	1058.50	1083.50	1083.50	1093.25	1103.75	1100.00	1095.00	1096.50	1082.25	1087.75	1082.50	1079.25	1081.25	1090.00	1074.75	1060.50	1062.00	1066.25	1065.75	1068.75	1062.25	1061.50	1058.00	1058.25	1061.00	1056.00	1073.50	1093.25	1124.75	1127.25	1127.75	1144.75	1149.50	1132.75	1118.75	1120.00	1124.50	1129.00	1123.75	1121.00	1111.50	1109.25	1086.75	1064.50	1056.75	1047.00	1048.75	1050.00	1037.25	1032.50	1020.75	1007.75	996.75	988.25	988.25	989.75	1002.00	997.75	991.75	975.25	963.25	945.75	937.75	930.25	922.75	911.00	891.25	881.50	878.75	878.00	875.00	871.75	869.50	867.00	865.50	862.75	859.75	854.25	834.25	808.25	804.25	805.75	803.75	812.50	827.50	831.50	820.00	818.25	811.50	806.25	803.25	798.75	797.00	793.00	781.50	769.25	775.00	777.25	772.50	763.25	763.25	763.50	757.75	752.25	738.75	746.00	750.00	747.00	742.00	740.75	728.75	718.25	717.25	727.75	728.00	722.75	716.50	715.00	711.50	710.25	709.75	705.75	707.00	708.50	704.75	700.50	693.25	687.75	685.50	683.25	681.25	679.25	677.50	678.25	678.00	676.00	675.50	676.00	677.00	675.75	673.00	672.25	671.75	672.00	669.25	668.75	668.75	669.50	668.50	667.50	667.25	668.00	667.75	666.00	666.50	665.00	664.00	662.75	663.00	662.25	660.25	660.50	659.75	658.75	659.25	658.75	658.00	657.50	658.50	655.75	654.75	654.75	654.50	653.25	652.50	653.00	652.50	652.00	651.25	651.75	649.75	649.00	648.50	647.50	647.00	645.25	645.25	646.00	644.50	644.00	643.25	643.75	642.00	642.00	639.75	639.75	641.00	640.00	639.00	638.00	638.50	637.75	636.50	634.75	635.50	635.25	635.50	635.50	636.50	635.50	636.50	634.25	635.00	636.50	633.75	635.75	634.75	635.75	633.50	634.25	635.75	634.50	634.50	633.25	633.75	632.25	632.75	632.00	632.25	631.50	631.50	631.25	631.00	630.50	629.75	629.00	629.50	628.75	628.25	628.25	627.00	625.25	624.50	624.00
980.25	953.75	986.25	1009.00	1021.00	1046.25	1035.25	1028.25	1017.25	1020.25	1025.50	1034.50	1045.00	1082.00	1082.50	1097.75	1107.50	1098.25	1100.25	1100.00	1097.50	1099.75	1079.25	1074.00	1071.75	1074.50	1067.25	1058.25	1052.25	1048.00	1055.25	1065.00	1065.00	1067.00	1068.25	1058.50	1067.75	1065.00	1093.50	1123.00	1128.00	1134.75	1142.00	1141.25	1142.25	1129.75	1131.75	1137.50	1134.75	1137.75	1131.25	1121.75	1113.25	1093.75	1085.75	1072.25	1062.75	1050.75	1053.50	1052.00	1041.50	1038.25	1012.50	1005.75	1012.50	1016.50	990.50	977.25	980.00	981.00	980.00	970.75	960.75	949.75	942.25	933.00	919.75	903.00	884.25	880.00	875.75	875.00	872.00	867.00	863.00	862.00	859.50	854.50	849.50	854.75	857.75	808.00	798.50	799.00	802.50	804.75	810.50	818.25	815.75	809.25	802.50	796.25	790.25	790.75	787.50	782.25	777.50	762.75	762.75	755.25	756.75	752.00	754.00	756.50	757.75	757.00	749.00	747.50	745.50	744.25	741.00	735.75	724.50	717.00	714.00	717.50	718.75	720.25	712.25	711.50	710.25	706.75	708.00	703.25	705.50	704.50	698.25	694.00	689.25	686.00	684.25	682.00	680.75	679.00	678.50	677.75	676.75	676.75	676.25	675.25	674.25	673.00	673.50	672.25	671.00	670.25	670.50	670.00	669.50	669.75	669.00	668.50	668.50	668.50	666.25	666.50	664.25	665.00	663.50	663.00	662.75	662.50	661.50	661.00	659.75	659.50	659.50	659.50	658.25	657.75	656.75	657.25	656.75	655.00	655.25	654.50	653.75	654.00	652.00	652.50	651.50	649.75	650.00	649.50	648.50	648.50	647.75	646.25	646.50	645.50	645.50	645.25	645.25	642.25	642.50	641.25	640.50	640.50	640.50	640.50	637.75	640.00	638.25	637.25	637.00	637.00	636.50	637.00	637.50	637.25	635.25	635.50	637.75	635.75	635.00	636.50	636.75	635.25	633.50	634.75	633.50	633.25	633.00	635.50	634.75	634.25	634.50	633.75	633.50	633.50	632.75	632.25	632.50	632.00	631.00	631.25	631.25	631.00	630.75	629.75	629.00	629.25	627.00	627.00	624.75	624.75
835.00	944.00	1028.25	1025.00	1041.00	1070.50	1046.25	1056.25	1032.50	1013.75	1012.50	1013.75	1020.75	1041.00	1074.50	1078.25	1081.00	1086.75	1081.25	1092.50	1092.25	1094.50	1080.75	1075.50	1071.75	1070.25	1060.75	1058.00	1050.25	1040.50	1045.25	1056.50	1057.75	1062.25	1068.00	1072.00	1081.00	1065.50	1085.00	1127.25	1135.50	1132.25	1131.50	1123.75	1132.00	1130.00	1135.00	1137.75	1136.25	1139.50	1128.25	1127.00	1128.25	1108.25	1133.50	1089.00	1062.25	1056.50	1062.25	1074.25	1062.50	1055.00	1028.50	1049.75	1057.75	1049.00	1014.00	982.75	972.00	968.75	968.50	965.50	961.25	963.25	953.50	938.75	914.00	899.25	886.00	882.25	875.75	871.00	867.75	864.00	860.75	856.25	851.25	846.50	842.50	850.00	855.00	811.75	800.25	795.00	803.00	796.00	792.75	808.50	808.50	799.50	791.00	787.00	780.75	778.25	777.50	772.25	767.50	756.00	750.75	741.00	738.75	742.50	746.25	753.25	752.75	750.50	746.25	740.50	743.50	742.75	733.75	726.25	720.75	715.00	710.00	712.50	712.00	714.50	713.00	708.00	707.75	704.25	701.00	701.25	702.00	698.75	692.75	690.25	687.75	686.25	683.75	681.25	681.50	678.25	677.50	677.25	677.75	676.00	676.00	675.75	674.00	675.00	672.25	672.00	673.00	672.00	670.25	671.50	670.00	671.00	669.00	668.75	668.25	667.75	667.00	665.50	666.25	665.50	664.00	663.25	663.25	663.00	662.75	661.25	660.50	660.25	659.50	659.25	659.00	658.50	658.25	658.25	656.75	655.75	656.00	654.25	654.25	654.25	652.00	650.75	650.00	650.25	649.50	649.25	647.50	648.75	647.75	646.50	647.50	647.00	645.00	643.75	645.00	643.75	641.00	641.00	640.50	640.00	639.00	640.25	639.75	637.75	638.00	637.25	638.00	636.50	638.50	638.00	638.25	637.00	637.75	636.75	637.00	636.75	637.25	636.50	635.75	635.25	634.50	634.75	632.50	633.00	634.75	635.50	635.00	635.00	633.75	634.50	634.50	634.75	633.50	632.75	633.25	631.75	631.50	632.25	631.75	631.75	629.75	630.25	629.75	629.25	628.50	627.00	627.00	624.50
886.00	949.50	1029.75	1059.00	1047.25	1049.25	1066.25	1064.50	1054.25	1029.75	1041.25	1040.25	1021.50	1016.75	1026.25	1066.75	1079.00	1062.50	1070.75	1072.00	1060.75	1078.25	1070.00	1080.25	1057.25	1060.50	1054.25	1050.25	1046.00	1036.75	1040.00	1050.25	1052.50	1056.00	1058.75	1067.00	1065.00	1081.25	1077.25	1102.75	1112.75	1111.25	1113.25	1117.50	1117.50	1124.00	1132.25	1133.50	1125.50	1117.50	1110.50	1107.25	1118.50	1123.75	1094.50	1072.50	1067.75	1070.50	1067.25	1074.75	1079.50	1067.25	1061.25	1065.50	1049.25	1035.50	1003.75	984.50	978.50	973.00	968.00	968.00	965.00	960.75	952.25	934.00	911.75	896.25	888.25	880.75	874.75	874.00	871.00	866.75	858.25	855.00	844.75	840.75	836.00	849.25	862.00	815.50	800.50	796.50	803.25	796.50	798.50	798.25	791.75	787.75	781.50	777.00	765.75	760.75	763.50	758.00	754.00	746.50	742.50	732.25	728.50	742.75	745.50	744.00	739.25	733.25	731.75	728.25	731.75	734.50	730.75	722.00	717.00	713.25	710.75	708.75	709.50	709.75	714.50	706.25	699.25	698.25	697.25	697.25	697.00	694.00	690.25	689.00	685.50	682.50	682.00	681.00	680.00	679.50	679.75	678.00	677.50	676.25	675.25	675.00	674.75	675.00	674.25	673.00	672.25	671.50	671.75	671.25	671.25	670.25	669.25	669.25	667.25	667.50	666.75	665.25	665.25	664.25	664.50	663.50	663.00	662.25	662.25	662.00	661.00	660.00	660.50	660.25	659.50	658.75	659.00	658.00	657.00	656.50	656.25	654.75	654.50	652.75	653.50	653.25	650.75	650.75	650.25	649.00	649.00	649.50	647.50	647.00	647.50	646.75	645.00	643.75	643.50	643.75	642.50	641.75	640.75	641.00	639.75	639.50	640.00	638.50	639.00	638.00	638.75	638.50	638.75	639.25	638.25	637.50	639.00	636.25	638.25	637.00	634.50	636.00	635.00	636.50	634.25	635.25	634.00	634.50	635.00	635.00	635.25	636.00	635.00	635.25	635.50	634.00	633.50	633.75	634.25	632.50	633.50	633.50	631.50	631.25	630.75	630.25	629.50	627.75	627.50	626.00	625.00	622.25
941.50	945.75	987.75	1062.75	1041.50	1029.25	1047.75	1058.50	1067.50	1046.25	1064.75	1085.75	1063.75	1032.75	1012.25	1040.00	1061.25	1070.25	1067.25	1045.75	1033.25	1062.50	1054.00	1055.75	1036.00	1045.75	1049.25	1048.75	1043.00	1034.00	1033.00	1044.75	1049.75	1062.75	1058.25	1054.25	1062.75	1065.00	1066.50	1073.25	1088.50	1100.75	1123.25	1123.75	1116.50	1123.50	1126.00	1124.75	1119.75	1110.75	1102.75	1091.25	1094.75	1087.25	1081.50	1079.75	1087.75	1078.75	1070.75	1079.25	1103.25	1098.75	1070.00	1036.25	1017.50	1020.25	1000.25	987.75	991.75	976.75	972.50	979.50	979.50	961.25	940.50	915.25	901.50	895.75	884.75	880.25	878.00	876.75	874.00	865.75	860.50	848.50	843.00	834.00	828.50	840.25	852.25	818.00	801.50	798.50	800.25	776.25	800.00	784.25	778.50	780.25	766.00	761.50	750.25	741.00	737.50	732.75	729.00	721.50	723.75	730.00	730.75	758.50	763.50	734.75	728.50	726.75	729.00	726.75	731.75	736.00	726.25	719.50	714.50	709.25	708.25	707.25	705.25	706.25	705.00	699.00	693.00	693.00	694.50	694.50	690.75	689.00	686.25	683.75	683.00	682.00	680.75	680.00	679.50	679.25	679.75	678.50	678.50	677.00	677.00	675.75	676.50	675.50	675.00	675.25	673.00	673.75	672.50	671.50	671.25	669.75	668.00	667.75	668.00	666.75	666.75	665.75	665.50	664.75	664.75	663.50	663.00	662.50	663.00	663.00	662.75	661.00	661.50	660.00	660.50	659.50	658.75	658.25	658.25	656.00	654.50	654.00	654.00	653.00	653.25	653.00	652.50	650.75	650.25	649.50	650.00	649.50	647.75	647.50	646.00	646.00	646.75	645.50	644.25	643.75	643.25	640.75	641.75	639.75	640.75	639.00	640.00	640.25	641.00	640.25	639.25	639.00	638.25	639.50	640.00	637.75	637.75	638.50	636.25	637.25	635.50	637.00	637.00	636.75	636.00	633.75	634.00	635.50	634.25	635.75	635.50	635.00	636.50	635.75	635.25	634.50	635.00	634.00	634.75	634.50	634.00	633.75	632.00	631.50	630.75	631.00	630.00	628.75	627.25	625.50	624.75	620.25
958.75	959.00	988.75	1004.00	1020.25	1038.50	1055.75	1061.00	1064.75	1061.75	1078.75	1094.50	1077.00	1075.50	1037.00	1011.25	1016.25	1047.50	1067.50	1039.50	1021.75	1032.25	1038.00	1035.00	1028.00	1039.25	1040.25	1042.75	1044.00	1034.25	1033.00	1036.75	1038.50	1045.00	1051.75	1055.50	1071.25	1074.00	1076.25	1101.50	1100.50	1097.75	1109.50	1110.25	1117.50	1115.25	1120.50	1119.25	1110.50	1094.25	1086.75	1081.00	1085.50	1088.25	1093.50	1092.50	1096.25	1090.75	1085.75	1091.50	1104.75	1082.25	1051.50	1042.25	1054.00	1038.50	1009.00	993.75	986.75	986.50	977.75	989.00	974.75	942.25	921.50	907.25	901.50	895.75	887.00	889.50	894.50	889.50	880.75	865.75	859.75	849.25	841.75	828.50	824.25	831.75	834.75	820.25	805.75	795.25	781.25	762.25	775.50	782.50	773.00	765.25	759.00	754.00	745.25	729.25	723.25	724.75	722.25	719.75	723.50	716.25	716.00	731.50	750.00	749.00	749.75	751.00	749.50	735.50	730.75	725.25	721.25	720.25	713.25	708.00	705.50	705.25	705.00	707.25	704.00	693.50	691.75	692.00	692.50	690.50	688.00	686.75	684.00	683.50	683.00	683.00	683.00	681.25	681.00	679.50	679.25	678.50	677.50	676.25	676.75	677.75	675.50	675.75	676.00	674.75	673.75	673.75	673.25	671.00	669.50	670.00	669.75	669.25	668.25	667.25	667.00	666.00	665.75	664.75	665.50	665.25	664.50	663.75	662.50	662.50	661.75	661.50	661.50	660.50	660.25	659.25	659.00	657.50	658.00	655.75	655.75	655.00	653.00	653.25	653.50	652.75	651.50	652.25	651.25	650.00	648.50	649.50	648.75	648.00	646.50	647.00	646.25	645.25	645.50	643.50	644.25	642.75	641.25	641.50	641.00	640.50	640.50	640.25	642.25	641.25	639.75	640.25	641.00	640.00	639.50	640.25	639.75	638.50	638.25	638.00	637.75	637.50	636.50	636.75	635.75	636.25	637.75	637.25	636.25	637.25	637.25	635.50	636.25	635.25	634.75	636.50	636.25	635.50	635.75	634.75	633.50	633.50	632.25	631.75	631.25	630.25	630.00	628.25	627.25	626.00	623.75	620.75
964.00	975.00	998.50	998.75	1016.75	1041.50	1061.75	1058.00	1068.75	1072.50	1087.00	1098.25	1104.50	1106.25	1071.25	1041.50	1010.50	1000.75	1011.75	1020.00	1041.25	1019.00	1020.50	1016.50	1019.25	1027.25	1023.50	1022.75	1025.00	1026.75	1026.75	1026.25	1030.25	1034.25	1042.25	1065.50	1092.25	1098.25	1091.25	1108.75	1114.25	1090.00	1089.50	1108.00	1114.50	1111.00	1118.25	1123.75	1113.00	1084.50	1082.00	1090.00	1092.75	1093.25	1101.25	1095.50	1102.50	1114.75	1101.50	1097.25	1113.75	1097.50	1062.50	1070.00	1080.50	1047.25	1017.25	997.50	981.25	975.25	964.25	965.25	942.00	927.00	922.25	911.00	906.50	902.25	903.00	911.50	910.75	897.50	880.50	867.75	857.75	847.00	839.75	832.25	827.75	819.50	819.50	811.75	805.00	783.00	765.75	757.00	756.50	767.00	763.50	748.25	745.25	739.75	732.50	720.25	722.25	729.50	732.75	745.75	740.00	720.75	711.25	710.75	718.00	733.50	749.75	747.75	743.00	736.75	732.50	722.50	708.75	708.75	706.00	706.00	705.50	705.50	703.50	701.75	699.75	696.00	694.50	693.00	689.50	686.75	686.50	686.00	685.50	686.00	684.50	683.50	682.00	681.00	680.75	679.50	680.00	679.00	678.50	678.75	677.75	676.25	674.25	676.50	675.50	675.50	672.75	673.50	672.00	671.75	671.50	670.00	671.00	669.75	668.75	667.25	667.50	667.25	667.00	666.25	666.00	665.25	664.75	664.25	663.00	662.50	662.50	661.50	661.00	660.75	660.25	658.75	659.25	658.25	657.50	655.25	655.00	655.25	654.50	653.50	653.25	654.50	652.25	651.50	652.50	649.75	649.75	649.00	648.00	648.25	647.00	646.50	646.50	644.25	644.00	643.50	641.75	641.50	642.00	642.00	642.25	642.00	642.00	641.00	643.25	640.75	640.75	640.75	641.75	640.75	640.75	640.25	639.25	640.00	637.50	638.50	637.50	638.75	637.75	638.50	638.25	636.50	638.00	637.50	638.25	638.00	637.25	636.00	639.00	636.00	635.25	636.25	636.75	637.00	636.50	635.25	634.50	634.25	632.00	630.75	630.25	629.75	628.50	628.25	626.75	624.00	622.00	622.00
984.50	987.75	1006.00	1008.50	1045.75	1053.25	1074.75	1074.75	1069.00	1077.75	1084.00	1091.25	1103.00	1108.25	1092.75	1084.00	1060.50	1009.75	1001.75	1009.00	1031.75	1036.25	1019.50	1009.25	1005.25	1018.75	1012.50	1010.00	1006.75	1011.00	1016.00	1018.00	1022.50	1030.50	1052.50	1080.50	1096.50	1099.25	1092.25	1112.75	1106.50	1085.50	1065.75	1080.75	1097.00	1096.50	1085.50	1086.00	1102.00	1103.00	1093.25	1104.75	1116.50	1106.00	1108.75	1116.25	1128.00	1137.25	1119.00	1116.25	1122.00	1122.75	1096.00	1087.50	1087.25	1067.50	1012.25	989.50	974.25	966.50	960.25	954.75	945.00	930.75	921.75	914.75	910.25	912.50	921.75	918.50	908.50	900.75	885.50	866.25	858.25	852.25	847.50	840.75	834.50	826.25	801.25	793.50	798.75	781.00	758.25	752.00	749.75	755.00	747.75	735.50	726.75	724.50	722.75	718.50	721.75	726.00	723.75	721.75	720.25	730.00	726.00	708.75	704.00	702.50	705.75	709.25	701.25	699.75	706.50	706.75	700.75	703.50	705.00	703.25	702.25	705.50	703.25	701.25	700.00	694.50	688.50	689.75	687.25	685.25	688.25	687.00	686.50	686.50	683.50	682.50	683.25	681.25	681.50	679.75	680.00	679.25	680.75	679.00	678.25	677.50	677.25	678.00	676.25	675.50	674.25	674.50	673.00	672.00	671.50	670.25	670.00	668.75	668.75	667.75	667.50	668.25	667.25	666.75	666.75	666.25	665.00	664.75	662.75	663.50	662.50	662.00	661.50	661.50	659.75	659.50	657.75	658.75	657.50	655.75	656.25	654.25	655.75	654.00	654.75	654.00	652.25	652.50	651.00	650.50	650.25	649.50	649.00	647.75	647.50	646.50	646.50	645.25	643.75	644.50	644.00	643.25	643.50	643.50	643.00	643.50	643.50	642.75	643.50	642.25	642.00	641.75	643.00	641.25	640.75	641.00	638.75	639.75	639.25	639.75	638.75	639.25	640.00	638.75	640.25	640.25	639.75	640.50	640.00	639.50	639.75	638.75	638.50	636.50	637.50	637.75	638.00	637.50	638.00	635.00	635.00	634.00	632.50	631.25	629.75	629.25	629.50	627.25	624.50	623.25	622.25	621.25
998.00	1011.25	1043.00	1038.50	1066.00	1084.75	1079.25	1072.75	1098.50	1091.50	1081.75	1084.25	1096.00	1101.25	1092.50	1075.00	1075.50	1055.25	1026.50	1004.50	989.00	1007.50	1018.50	1021.00	1000.75	1006.75	1029.50	1017.00	1000.50	1006.25	1011.75	1014.00	1019.25	1031.50	1059.50	1070.50	1075.75	1072.25	1081.75	1104.75	1082.50	1081.25	1056.75	1075.50	1099.50	1066.50	1070.50	1088.75	1123.25	1119.00	1113.00	1099.75	1109.25	1099.25	1101.25	1108.50	1114.50	1151.00	1149.00	1128.25	1137.00	1142.75	1115.00	1103.25	1057.25	1017.75	998.25	1004.25	1008.75	989.00	985.75	973.75	961.00	949.25	926.50	920.50	924.75	926.75	926.25	913.00	909.00	907.50	885.50	865.25	859.75	856.75	854.75	846.25	839.50	823.25	807.50	801.25	787.25	779.75	771.75	767.25	756.25	750.75	741.75	738.00	730.50	724.00	720.50	718.25	718.50	715.25	711.75	716.25	716.00	709.25	709.00	700.25	699.50	695.00	695.25	691.75	690.00	691.75	692.50	693.00	695.75	695.25	693.25	693.00	692.25	695.25	695.75	693.25	691.75	687.75	686.75	686.75	685.50	686.75	687.25	685.25	684.75	684.50	684.25	684.00	683.25	684.00	682.00	681.75	682.25	680.25	680.25	679.25	677.50	677.25	677.25	677.75	676.75	676.00	674.50	673.75	674.00	673.00	671.50	671.25	671.25	669.75	669.75	667.75	668.25	667.75	667.50	667.00	666.00	665.25	665.00	664.50	664.00	663.25	662.50	662.00	661.25	661.75	660.25	660.25	658.75	658.50	657.00	656.75	656.75	656.25	656.25	656.00	654.00	653.00	653.25	653.50	653.50	652.25	650.75	650.50	649.00	648.75	648.00	647.00	645.25	644.25	644.00	646.25	644.50	644.75	644.75	644.25	643.25	642.50	644.50	644.50	643.75	642.25	642.75	642.25	643.00	640.00	640.00	640.50	639.50	641.50	641.25	641.25	640.75	641.50	641.25	641.75	641.50	640.50	640.25	640.25	640.50	640.50	640.25	641.25	637.25	638.50	639.50	638.50	638.75	638.50	636.75	636.25	634.25	633.75	631.75	631.00	630.25	630.00	628.00	626.75	624.25	624.25	623.00	622.00
988.25	990.75	995.75	1005.25	1032.50	1094.25	1125.50	1116.75	1106.25	1091.75	1089.00	1086.75	1093.50	1095.00	1083.00	1077.50	1073.25	1062.25	1058.25	1043.75	1017.50	1012.00	1014.25	1009.75	1007.50	998.25	1036.75	1023.25	1006.00	1001.25	1000.00	1014.00	1029.50	1059.75	1082.75	1071.75	1078.00	1054.00	1069.00	1078.75	1057.50	1047.75	1036.00	1051.75	1061.50	1087.00	1084.75	1074.25	1093.00	1110.00	1113.50	1096.75	1102.50	1081.75	1082.00	1091.50	1100.50	1133.25	1142.50	1112.25	1112.75	1134.25	1099.50	1077.75	1046.25	1020.00	1029.25	1028.75	1017.25	1006.00	1003.25	985.75	971.00	953.00	937.50	925.75	919.00	918.00	919.00	907.25	905.00	897.50	881.25	863.00	857.25	855.50	849.50	840.00	835.25	819.75	814.50	804.25	800.25	787.00	781.50	773.50	764.50	763.50	763.50	757.75	736.50	723.75	718.75	715.25	713.50	712.25	709.00	705.00	702.75	698.25	695.00	695.00	698.00	694.00	694.00	691.25	690.75	690.50	692.25	691.25	689.00	688.00	688.75	689.25	688.75	689.50	689.50	688.75	688.50	688.50	688.00	687.25	687.50	687.50	686.50	686.50	686.25	686.00	685.25	685.25	684.50	684.25	682.25	682.00	681.75	680.75	679.25	680.25	678.50	678.25	677.25	677.50	676.50	675.25	673.25	674.50	674.50	673.00	672.50	671.25	671.50	669.25	669.50	669.25	668.75	669.00	667.75	667.50	667.25	667.00	666.50	664.75	664.00	664.00	663.50	662.75	661.50	660.75	659.75	660.25	658.50	658.00	658.25	656.75	657.50	656.75	656.75	655.00	655.25	655.00	653.50	655.00	652.75	653.00	652.00	650.50	649.75	647.75	648.00	646.50	645.75	646.50	644.50	644.50	644.50	644.50	643.75	643.50	644.25	643.50	644.75	643.25	643.25	643.25	642.50	643.75	642.25	641.50	642.50	641.50	641.25	641.75	642.75	642.25	641.75	643.00	643.25	641.75	643.25	640.75	640.75	640.50	640.50	641.50	642.75	640.75	641.25	639.00	639.75	639.75	639.75	639.50	638.25	636.25	634.00	633.75	633.50	631.75	630.00	629.25	628.50	625.50	624.00	624.00	623.25	622.25
979.00	990.00	998.00	998.75	1025.75	1041.00	1089.50	1126.75	1113.00	1116.75	1103.50	1092.25	1099.50	1084.50	1085.00	1075.50	1071.00	1075.50	1063.25	1051.00	1039.25	1020.25	1006.00	1008.25	1037.50	1022.75	1003.25	1002.25	993.75	990.25	1005.50	1042.75	1052.25	1089.75	1099.00	1078.00	1051.50	1042.50	1055.25	1058.25	1042.25	1030.50	1024.50	1043.25	1108.00	1093.00	1077.25	1083.00	1093.75	1096.00	1083.25	1087.50	1099.25	1067.25	1075.75	1086.50	1091.50	1107.50	1110.00	1080.50	1110.00	1114.25	1068.50	1059.50	1063.50	1051.00	1055.50	1034.25	1020.75	1018.50	1008.00	992.25	974.25	949.75	943.25	929.50	913.25	906.75	910.25	900.25	895.50	887.00	877.50	858.75	851.25	846.00	843.50	835.00	825.75	815.75	813.00	808.50	801.25	788.75	777.00	773.75	780.25	775.00	762.25	756.75	734.75	726.00	717.25	710.50	706.75	703.75	701.25	698.75	696.75	696.00	695.75	694.50	695.50	696.50	692.75	691.25	690.75	690.25	688.50	688.25	689.00	688.75	689.50	689.75	689.75	690.75	689.25	690.00	689.75	690.25	691.00	689.75	688.25	688.25	687.75	686.75	687.75	686.00	684.75	684.50	684.75	683.25	683.25	681.75	681.75	680.75	681.00	680.00	678.75	677.75	678.00	678.00	676.25	676.25	677.00	675.50	672.75	673.00	673.25	672.50	671.75	671.25	670.25	669.25	669.50	668.25	668.25	668.00	667.75	667.50	665.75	666.25	664.00	663.75	663.75	662.75	662.25	660.75	661.00	660.50	658.75	660.25	659.50	658.50	658.50	658.75	656.50	655.00	655.50	655.00	654.50	654.75	653.25	651.75	651.75	651.00	649.50	649.75	649.50	646.25	646.50	646.75	646.50	645.75	646.00	645.50	645.00	644.00	645.25	644.50	644.25	643.50	644.00	644.75	645.75	643.50	645.00	640.75	643.00	641.50	643.00	644.00	642.50	644.75	643.50	645.50	645.25	644.75	643.50	641.75	641.25	642.50	642.50	642.75	642.75	642.00	642.75	641.25	640.50	640.25	640.00	638.50	637.50	635.50	633.75	634.50	632.75	631.75	630.00	630.25	630.50	626.00	625.00	624.00	622.75	623.00
