146.75	160.75	147.50	175.00	237.25	264.25	258.75	230.00	223.00	146.00	119.50	132.00	122.75	131.75	149.00	145.75	126.75	105.00	108.50	113.50	81.00	97.50	97.75	75.50	87.25	91.25	98.50	109.75	121.25	122.50	121.75	118.75	124.75	114.25	104.50	102.75	97.25	92.50	88.50	86.25	88.50	79.25	64.75	59.25	58.50	54.75	55.75	62.00	54.50	53.50	56.25	55.75	55.50	51.00	50.75	50.00	46.75	45.50	45.75	53.00	58.50	54.25	55.25	58.25	65.00	82.25	91.00	97.50	115.75	126.75	132.25	136.50	152.25	178.00	182.50	195.75	200.75	189.75	170.25	178.25	163.50	138.25	133.25	148.00	156.75	145.50	133.00	133.50	140.50	130.25	159.25	168.00	151.00	160.75	177.00	199.75	224.50	231.50	202.50	176.50	173.75	189.75	209.25	229.25	265.75	311.75	374.00	387.00	375.50	334.25	272.50	233.25	202.75	184.50	192.00	226.25	234.25	245.50	257.00	279.75	330.75	375.25	395.50	375.00	312.00	282.75	306.00	355.75	410.50	402.25	354.00	331.75	323.50	270.25	227.75	159.75	115.00	88.00	73.50	70.00	74.75	78.75	86.00	110.25	134.50	147.75	143.00	134.00	135.75	119.25	106.50	105.75	100.50	92.00	88.50	92.00	96.50	93.50	85.50	84.25	98.50	106.50	124.25	137.75	159.25	177.50	187.00	199.00	232.75	280.50	333.00	444.00	525.75	577.00	523.00	435.75	355.50	266.25	233.75	271.25	367.25	428.25	535.25	632.00	592.00	497.00	398.50	344.00	348.75	421.25	463.00	427.50	369.75	288.00	233.50	231.50	242.00	260.25	266.25	202.50	151.50	145.50	192.50	242.00	276.25	252.50	209.75	135.50	82.75	67.25	65.50	65.25	66.25	66.25	67.75	74.50	81.25	82.50	90.25	95.50	95.25	96.50	95.00	95.00	105.75	128.00	132.00	139.75	138.75	148.75	177.75	212.00	241.00	268.75	299.50	309.25	320.25	313.75	310.75	307.75	294.50	286.25	321.75	366.50	380.25	341.75	329.75	392.00	389.25	342.50	306.50	318.75	323.75	316.00	286.50	261.00
148.00	155.50	145.00	180.00	240.50	285.00	266.00	233.00	217.50	157.50	118.50	130.50	116.50	126.50	143.50	143.00	124.50	109.50	111.50	107.50	79.00	97.00	101.00	75.00	86.00	91.50	98.50	112.00	126.50	125.00	120.50	118.00	127.00	112.50	99.00	96.50	93.00	88.50	82.00	80.50	86.50	75.00	59.50	60.00	59.50	58.50	57.50	60.50	53.00	51.50	56.50	53.00	54.50	50.00	51.50	52.00	47.00	46.50	46.00	55.00	62.50	55.00	54.00	59.50	67.50	87.00	95.00	104.00	124.50	137.50	145.50	147.00	161.50	184.50	177.50	189.00	196.50	187.50	164.00	176.50	166.50	138.00	130.00	141.00	155.00	145.00	126.50	127.50	131.00	122.50	159.00	164.50	150.00	163.00	182.00	207.00	234.00	241.00	211.50	181.50	173.00	187.00	202.50	220.00	256.50	302.50	365.50	381.00	357.50	312.50	260.00	228.00	201.50	187.00	199.50	225.50	237.50	251.50	265.50	292.50	344.50	384.50	399.00	373.50	309.50	295.50	326.00	371.00	408.50	403.50	360.50	328.00	316.00	266.50	221.00	154.00	113.00	86.50	72.50	71.00	77.50	84.50	86.00	112.50	138.00	146.50	136.50	130.00	132.00	116.00	103.00	101.00	95.00	91.50	90.50	94.50	98.50	96.50	88.50	84.50	97.00	103.00	123.50	137.00	158.50	184.50	194.50	201.50	238.00	291.50	341.50	431.00	509.00	570.50	524.50	436.50	349.50	275.50	233.00	268.50	384.00	456.50	573.50	644.50	575.00	455.50	371.50	357.50	383.50	433.00	468.00	413.50	355.50	272.00	225.50	249.00	276.00	293.50	272.50	201.50	150.00	153.50	204.50	257.00	284.50	252.00	199.50	127.50	81.00	65.50	63.00	63.50	66.50	67.50	68.50	75.50	82.00	82.50	87.50	92.00	91.50	92.50	95.00	101.00	115.50	133.00	135.00	144.00	143.50	149.00	174.00	212.00	247.50	273.00	306.50	316.50	334.50	334.50	340.50	339.00	321.00	299.00	331.00	368.50	370.50	316.50	309.50	377.50	379.50	336.50	284.50	293.00	301.50	295.50	271.50	250.00
150.00	150.25	146.25	190.50	241.25	270.50	251.75	211.00	200.00	154.75	119.00	129.50	113.75	123.00	141.00	138.00	119.50	112.25	109.75	101.75	84.00	94.50	90.50	78.75	88.25	94.75	103.00	115.75	129.50	126.00	118.25	115.50	122.25	110.25	99.00	96.75	91.25	86.00	81.75	75.75	80.25	72.00	62.25	65.50	63.25	62.00	60.75	57.75	51.00	52.75	53.75	52.00	53.75	50.25	52.25	52.25	48.75	48.00	46.00	56.75	69.25	56.25	55.00	59.25	71.00	93.25	106.25	118.00	137.25	150.75	158.50	158.25	170.50	182.50	170.75	179.25	189.75	184.75	160.50	170.75	167.25	141.00	127.25	132.25	146.50	139.25	122.00	121.75	133.75	137.00	163.25	160.00	151.00	164.75	185.50	212.00	237.75	244.75	217.25	187.50	175.25	193.00	212.25	226.75	262.25	307.50	363.75	385.00	356.25	314.50	257.25	227.25	203.75	197.75	216.25	252.25	267.75	278.50	292.25	319.00	376.50	404.00	405.50	379.75	337.00	331.00	352.25	377.00	388.75	377.00	338.50	304.50	290.75	245.25	206.50	150.25	112.50	87.75	77.25	74.00	79.50	81.00	84.00	115.25	139.00	140.00	129.75	125.25	126.75	111.00	102.00	99.00	92.50	92.00	94.25	97.50	100.25	96.75	92.50	86.75	96.50	101.50	123.00	136.00	158.75	188.25	203.75	208.75	242.00	296.00	352.00	441.25	516.00	575.00	523.50	436.50	360.25	294.25	247.50	273.25	386.75	466.25	586.75	646.25	563.50	442.75	395.25	415.50	447.75	453.75	450.75	387.00	327.50	269.25	253.75	283.75	297.25	298.25	259.00	192.00	151.75	166.25	217.75	267.25	285.25	244.00	189.50	126.25	83.25	65.00	62.25	63.50	64.00	66.00	69.75	79.00	83.75	83.00	87.00	89.25	90.50	92.00	98.25	107.00	121.50	134.25	136.50	144.50	150.75	155.00	170.50	202.00	234.50	258.00	288.25	302.25	326.50	332.75	346.75	351.00	343.25	327.25	349.00	372.50	365.25	305.75	295.25	363.00	373.50	345.50	291.75	276.75	281.25	280.25	259.25	236.00
151.00	151.50	171.50	230.00	249.50	233.00	212.00	178.50	167.00	146.50	115.00	139.00	117.50	126.50	137.50	131.00	118.50	115.00	108.00	108.50	105.50	76.50	77.00	91.50	90.00	115.50	128.50	126.00	133.00	127.50	108.50	100.50	106.00	104.00	99.50	94.00	87.00	80.50	75.50	72.00	80.00	81.00	87.00	82.00	66.50	57.00	62.00	59.50	52.50	50.50	47.50	49.00	53.00	54.50	55.00	53.50	49.50	46.00	46.50	61.00	77.50	62.50	57.00	62.00	80.50	109.00	137.50	154.50	168.50	170.50	184.00	186.50	187.00	167.50	153.00	151.50	165.50	171.50	150.00	149.00	164.00	152.50	140.50	125.00	124.00	122.50	107.50	114.00	145.00	157.50	168.00	155.00	163.50	175.00	195.50	217.00	237.00	254.50	232.50	196.00	185.50	199.50	233.00	264.50	305.50	339.50	369.00	394.50	365.50	332.00	264.00	222.50	204.50	226.50	281.50	334.50	344.00	357.00	366.50	398.50	472.00	458.00	425.50	413.00	403.00	411.00	382.50	357.50	318.00	303.50	272.50	232.50	212.50	186.50	164.00	133.00	103.50	88.50	78.50	78.50	68.00	70.00	95.50	123.00	129.00	121.50	109.50	116.00	110.50	102.50	111.00	100.50	97.50	103.50	108.00	106.00	104.50	96.50	92.50	90.50	100.00	103.00	120.00	133.50	157.00	194.50	213.50	227.50	250.00	296.50	347.00	446.50	532.00	603.00	564.50	488.50	416.00	359.50	305.50	278.00	351.00	420.00	510.00	593.00	565.50	499.00	517.50	592.00	590.50	456.00	379.00	338.00	346.50	368.50	371.50	360.00	332.50	288.50	225.00	173.00	168.50	216.50	261.00	303.50	289.00	253.50	212.50	152.00	98.00	64.00	60.50	61.50	61.50	62.00	67.50	77.50	87.00	89.50	88.50	85.50	86.00	88.00	105.50	120.50	133.00	148.50	152.00	147.00	159.50	180.50	186.50	182.00	192.00	210.00	231.00	245.00	274.00	289.00	321.50	356.00	393.00	403.00	396.50	383.50	351.50	279.00	236.50	286.00	316.50	333.50	318.00	256.00	221.00	225.50	216.50	195.50
150.00	168.50	200.00	241.50	237.50	210.50	181.50	195.00	198.50	165.50	138.00	143.00	136.50	135.00	133.00	117.50	110.00	110.50	98.00	109.50	112.00	71.00	83.00	95.50	107.00	137.00	158.00	143.50	124.50	118.00	107.00	91.50	94.50	91.00	94.50	88.00	77.50	70.00	73.00	97.50	105.00	95.50	98.50	79.00	61.50	54.00	52.00	55.00	52.50	50.00	50.00	53.00	53.50	53.50	52.50	51.00	45.50	45.00	44.50	56.00	64.00	71.50	68.00	61.50	74.00	94.00	123.50	134.50	144.50	148.00	166.50	172.50	182.00	170.50	159.50	142.50	139.50	159.50	150.50	134.00	149.50	149.50	152.50	126.00	98.50	108.00	117.00	121.50	143.00	160.50	168.00	159.50	166.50	187.00	202.50	230.50	249.50	270.00	249.00	197.50	193.50	195.50	220.50	253.50	299.50	325.00	347.00	362.00	337.00	314.00	255.00	228.00	215.00	236.50	288.50	347.50	352.50	337.00	345.50	388.50	454.50	436.00	403.00	376.00	350.50	358.00	336.00	312.50	275.50	255.50	239.50	206.00	180.00	159.00	143.00	122.50	95.50	85.50	75.00	77.00	71.50	74.50	124.00	130.50	128.00	125.50	118.50	120.50	119.50	119.00	124.50	105.00	93.50	103.00	109.00	111.50	106.00	97.50	99.00	94.50	103.00	103.00	120.50	135.50	152.00	182.00	210.00	239.50	267.50	290.50	328.00	440.00	539.50	646.50	651.50	573.00	478.00	449.00	373.00	312.00	329.50	367.00	446.00	586.50	647.50	625.00	594.00	591.50	583.00	505.50	449.00	437.00	463.50	463.00	424.50	382.00	325.50	272.50	213.50	171.50	197.50	244.00	297.00	323.50	278.00	250.00	221.00	173.00	115.00	67.50	63.50	62.00	65.50	65.00	70.00	79.00	86.50	87.50	88.50	88.00	86.50	89.50	111.50	134.00	149.00	175.00	173.00	160.00	160.50	193.00	236.00	240.50	221.50	213.00	220.50	227.00	241.50	253.50	293.00	337.00	386.50	403.50	394.00	366.50	321.50	254.00	216.00	230.50	259.50	278.00	279.00	251.50	207.00	193.00	177.50	171.00
157.00	158.00	208.00	206.50	217.00	212.00	189.50	217.00	213.00	181.00	160.00	151.00	139.50	123.00	114.50	99.50	127.00	134.00	107.50	108.50	117.50	94.00	108.00	118.50	137.50	155.00	180.00	154.50	126.00	106.50	99.50	82.00	76.00	76.50	84.50	74.50	71.50	75.00	91.50	110.00	114.50	98.50	97.50	68.00	49.00	46.50	53.00	51.50	55.50	53.00	50.00	52.00	50.00	52.00	53.00	46.00	46.50	45.00	49.00	62.00	60.50	65.00	62.00	60.00	61.50	79.50	100.50	102.00	120.50	144.50	164.00	152.50	157.50	160.00	165.50	142.50	124.50	141.00	154.00	119.00	125.00	134.50	142.00	109.00	92.00	106.50	125.50	135.50	148.50	170.50	172.50	169.00	178.00	192.00	220.50	249.50	264.50	256.00	234.00	196.50	190.00	195.00	206.50	227.50	247.00	271.50	320.00	348.00	331.00	318.00	281.00	261.00	236.50	227.00	243.50	298.00	313.00	323.50	349.50	389.00	422.00	408.50	385.50	376.50	327.00	298.50	290.00	273.00	247.50	222.50	223.00	215.00	188.00	150.50	133.50	115.00	97.00	86.00	77.50	79.50	72.00	78.00	130.50	127.50	124.50	126.00	126.00	123.00	129.00	132.50	130.50	107.00	93.00	104.00	111.00	116.00	112.50	98.00	88.50	91.50	95.50	102.00	121.50	135.50	154.00	178.00	202.50	239.50	286.50	312.50	333.50	407.00	523.50	669.50	722.00	655.50	564.50	524.50	420.00	352.50	366.50	438.00	586.50	701.00	694.00	664.50	624.00	542.50	498.00	464.50	446.00	427.00	426.00	423.50	387.00	352.50	308.00	254.50	197.00	173.00	225.50	271.00	311.00	311.50	246.50	206.00	181.50	154.00	132.50	94.00	80.50	69.50	61.50	64.50	72.50	81.00	83.50	83.50	86.50	86.00	85.50	91.00	114.00	139.50	158.50	190.00	183.50	174.50	163.00	179.50	239.00	294.00	294.50	270.00	258.00	260.00	281.50	310.00	324.50	348.00	375.50	365.50	358.00	352.50	331.50	278.00	222.50	192.00	207.00	226.00	229.00	211.00	189.50	175.50	163.50	167.00
172.50	169.50	208.00	212.50	213.00	199.50	195.50	204.50	196.50	167.50	178.50	168.00	135.00	113.00	113.50	108.50	140.00	143.00	110.50	107.00	116.00	108.00	132.50	157.50	175.50	181.00	208.50	164.50	132.50	110.50	98.50	84.50	75.00	74.50	80.00	67.00	76.50	94.00	106.00	113.00	118.50	97.50	86.50	60.00	49.00	51.00	51.00	48.00	49.00	49.50	48.00	51.00	48.50	46.50	50.50	50.00	50.00	46.50	51.50	59.00	60.50	62.00	65.50	68.00	60.50	60.00	67.50	86.00	131.50	151.00	167.00	150.50	136.00	135.00	159.00	150.00	128.00	113.50	129.50	116.00	119.50	118.00	116.50	98.50	97.50	110.50	120.50	140.00	156.00	173.00	168.00	168.00	180.00	196.00	233.50	271.00	277.50	241.50	228.00	222.00	210.00	200.00	222.50	252.00	266.00	267.50	314.50	370.50	387.00	381.00	334.50	287.00	261.50	258.00	257.50	280.50	318.00	357.00	375.50	393.50	377.00	353.50	356.50	387.00	338.50	286.00	251.00	244.50	224.00	198.50	193.00	186.00	177.50	138.00	121.50	106.00	91.00	85.50	88.00	83.00	70.00	77.50	108.50	107.00	124.50	134.00	136.50	138.00	138.50	138.50	131.50	104.00	98.00	111.50	119.50	122.00	123.50	102.00	94.00	93.50	96.50	100.50	123.00	131.00	150.00	175.50	195.00	239.00	297.50	361.50	410.50	416.50	483.50	642.50	715.50	727.00	675.00	561.00	430.00	376.00	365.00	457.50	641.50	706.50	611.50	586.50	596.50	550.00	458.00	375.00	375.00	362.50	350.50	333.00	308.50	280.00	253.50	230.50	186.00	193.50	259.50	313.50	330.50	317.50	245.50	219.00	197.00	162.50	146.50	130.50	117.00	102.00	73.00	65.00	70.50	80.00	82.00	81.50	84.50	87.00	87.50	88.50	111.00	141.50	171.00	202.00	203.50	197.00	184.50	177.50	220.50	298.50	332.00	329.50	317.50	314.50	319.00	349.50	385.00	392.00	372.50	313.00	304.00	324.50	332.00	315.00	258.50	197.00	183.50	191.00	188.00	169.00	159.50	161.00	163.00	176.50
183.50	194.50	222.00	245.00	258.50	212.50	200.50	182.00	165.50	154.00	175.50	170.00	135.50	127.50	123.00	111.50	144.00	131.50	112.50	127.00	106.50	122.00	143.00	165.00	163.50	204.50	213.50	153.00	129.00	108.00	98.00	90.50	80.00	81.50	73.00	73.00	94.00	107.00	111.50	109.00	111.00	81.50	67.00	55.50	44.00	47.00	50.50	52.00	50.00	46.00	47.00	50.00	47.00	47.50	45.00	45.50	43.50	47.50	54.50	59.00	59.50	68.50	64.00	69.00	64.00	61.50	54.50	65.00	114.50	135.50	165.00	162.00	137.50	119.00	133.50	138.50	122.50	98.00	112.00	110.00	105.50	98.50	96.50	97.50	103.00	110.00	115.00	130.00	148.50	163.50	161.50	156.00	178.00	192.50	231.00	259.50	268.50	246.00	242.00	244.50	225.00	205.50	231.50	280.50	314.00	321.00	322.50	372.50	415.50	396.50	346.00	297.50	296.00	311.50	308.00	323.00	355.00	383.00	377.00	369.50	335.50	296.50	301.00	343.00	337.00	286.50	232.00	226.00	227.00	201.00	172.50	159.00	152.50	132.50	112.50	96.50	82.00	76.50	77.00	84.50	69.00	73.00	92.50	110.00	130.00	147.00	150.50	152.00	148.50	135.00	125.50	100.00	105.50	117.00	127.50	131.50	125.50	104.00	102.50	99.00	100.00	99.00	113.50	121.50	138.00	160.50	185.50	238.00	289.00	347.50	408.50	461.00	488.50	528.50	616.50	742.50	783.50	623.50	456.00	406.00	376.00	422.00	565.50	648.00	559.50	486.50	507.50	518.50	491.00	378.00	324.50	301.50	285.00	253.00	235.50	224.50	212.50	206.00	194.00	229.00	285.00	326.50	349.50	334.50	277.50	248.50	217.00	189.00	171.00	156.50	146.00	118.50	81.50	69.50	75.50	84.50	83.00	79.00	80.50	84.50	86.00	86.50	106.00	139.50	177.50	235.00	240.50	232.50	219.00	198.00	209.50	269.50	305.00	321.50	350.00	372.00	387.00	391.50	401.00	404.50	373.50	306.00	265.50	282.00	303.50	302.00	265.00	215.00	182.50	166.00	157.00	153.00	163.00	179.00	180.50	180.50
205.25	220.75	236.25	257.50	257.00	219.75	227.00	214.75	204.50	177.75	161.25	155.50	146.75	144.25	136.00	134.50	140.25	123.00	117.75	124.25	104.75	122.00	148.75	169.25	201.00	229.00	186.75	154.00	137.25	111.75	98.50	94.50	73.75	73.25	77.00	90.75	103.50	106.50	100.75	91.25	86.25	61.00	55.00	44.25	41.50	49.25	56.00	48.00	43.75	45.25	43.75	50.25	51.50	44.75	51.25	46.25	48.00	49.00	54.50	62.00	66.00	71.25	72.50	68.50	71.25	65.50	59.25	58.50	71.75	99.25	136.50	162.00	148.25	123.00	106.00	97.75	97.50	97.50	93.50	92.25	96.00	97.00	101.50	116.50	123.75	109.75	117.00	114.75	118.75	140.25	139.50	154.75	174.50	194.50	221.50	251.75	261.75	259.50	267.50	264.25	230.75	219.75	239.50	275.50	328.25	374.00	393.25	381.25	363.50	360.00	333.75	318.00	317.50	335.50	358.50	353.75	338.25	315.50	299.75	314.50	321.00	277.50	254.00	287.25	299.00	270.25	215.50	206.25	236.25	216.00	168.25	137.00	126.25	113.75	102.75	95.25	80.50	83.50	76.50	68.75	75.25	106.00	100.25	119.50	139.25	151.25	175.50	176.00	162.50	140.25	120.75	105.75	112.75	128.25	137.75	139.50	125.00	106.50	103.00	102.00	101.00	96.00	123.25	131.50	144.00	156.75	174.75	204.75	245.50	285.50	307.00	341.50	360.25	428.25	482.75	599.25	742.75	706.00	604.75	559.50	469.75	451.50	541.50	654.25	591.25	517.25	453.50	419.25	409.00	352.50	335.25	389.00	423.50	414.25	351.50	296.75	237.00	211.00	257.25	300.00	325.25	336.50	340.00	326.50	269.75	229.00	199.00	169.75	148.50	127.75	114.50	96.25	87.25	85.25	86.75	87.50	85.50	80.75	79.50	81.75	82.50	85.00	88.50	114.00	155.00	245.00	275.25	283.50	263.25	236.25	212.75	227.00	254.75	271.75	305.25	346.00	376.50	351.25	324.75	343.25	336.50	300.75	250.50	222.00	243.00	259.75	226.50	178.00	154.00	146.25	152.25	189.50	236.50	256.50	245.00	231.25
215.00	231.00	244.50	262.50	253.00	216.50	228.00	226.50	221.50	180.50	160.00	153.50	158.00	151.50	142.50	143.00	140.50	128.50	121.00	124.00	104.50	123.00	151.00	176.00	216.50	234.00	180.00	159.50	139.50	112.50	97.00	90.00	73.00	71.00	83.50	94.00	103.50	106.00	100.50	94.50	79.50	56.00	55.50	43.50	45.00	49.00	61.00	47.00	41.50	45.00	43.00	51.00	51.50	44.50	51.50	47.50	52.50	51.50	55.00	62.50	67.00	72.50	74.50	69.50	75.50	67.50	60.00	59.00	60.50	86.00	125.50	157.00	146.50	130.50	108.00	91.00	87.50	96.00	85.50	87.50	107.00	109.00	108.50	126.00	132.00	112.00	120.00	113.00	110.00	122.50	132.00	159.50	181.00	199.50	220.00	251.50	260.00	263.50	273.00	269.00	236.50	228.00	238.00	271.00	328.50	381.50	407.50	375.00	347.50	356.50	325.00	312.50	308.50	323.00	358.50	346.00	314.50	283.00	275.00	301.00	331.50	284.00	243.00	263.00	272.50	254.50	213.00	192.50	222.00	215.50	165.00	131.50	119.00	110.50	99.00	97.00	80.00	84.50	73.50	63.00	85.50	120.00	103.00	120.50	141.00	155.50	185.50	182.00	167.00	140.50	117.50	108.00	115.50	134.50	142.50	140.00	125.00	105.50	101.50	102.50	98.50	95.50	126.50	134.00	147.00	160.00	173.50	201.50	235.50	268.00	278.00	300.50	324.50	387.00	424.00	526.50	678.00	725.00	663.50	617.50	510.50	485.50	551.50	678.00	635.50	569.00	490.50	438.50	411.50	351.00	353.50	445.00	492.00	474.00	384.50	310.50	238.50	221.00	279.00	321.50	338.50	344.50	334.50	318.50	260.50	224.50	190.50	156.50	137.50	111.50	101.00	94.50	91.00	88.50	89.00	88.50	87.00	82.50	82.00	85.00	83.00	86.50	85.00	105.50	150.00	240.00	279.00	301.50	278.50	249.00	223.00	222.50	245.00	259.00	290.00	334.00	364.00	330.50	294.00	322.00	318.50	290.50	248.50	206.00	223.00	238.50	201.50	157.50	142.50	144.00	156.00	210.00	270.00	285.00	270.00	256.00
243.75	259.50	260.75	285.75	276.75	217.75	226.50	227.25	208.00	182.75	171.25	172.00	180.25	173.25	154.50	156.00	145.75	134.25	127.25	118.25	105.50	124.75	142.50	164.00	199.00	223.75	176.50	161.25	134.75	111.50	97.50	82.25	74.00	88.25	103.25	117.00	123.25	135.75	122.25	105.00	78.75	56.00	54.50	42.50	44.25	46.75	48.00	44.75	48.00	46.00	44.50	52.50	32.00	34.50	48.00	55.00	70.00	71.75	81.75	85.75	84.25	87.75	80.75	84.50	92.00	84.00	79.25	76.25	73.75	64.25	77.25	110.50	110.50	124.00	103.25	77.75	77.25	79.50	86.75	109.75	117.50	129.25	129.75	137.50	135.50	118.50	118.25	130.50	130.25	117.75	124.75	146.75	174.25	187.75	204.75	223.25	237.25	266.50	287.50	264.00	234.75	252.50	278.00	286.75	324.75	369.75	346.25	304.00	268.75	288.75	261.25	237.75	222.75	237.75	265.50	274.50	251.75	230.50	255.50	319.50	367.25	321.50	257.25	220.50	198.75	193.75	202.00	178.25	162.00	157.25	132.25	111.00	102.25	88.00	81.75	81.50	71.50	68.50	63.50	65.75	100.75	121.75	109.75	121.75	140.25	161.75	180.75	163.75	146.75	124.25	112.25	119.25	123.25	142.25	144.75	136.00	124.75	113.00	101.50	100.00	96.00	94.25	121.25	134.50	151.25	162.75	172.25	195.25	206.75	222.75	231.00	255.00	297.75	349.75	378.25	440.25	560.25	638.00	623.75	654.00	625.75	639.50	699.00	678.50	605.75	545.00	504.75	483.25	479.75	422.75	431.75	496.25	529.00	465.50	342.75	272.50	243.75	286.50	345.75	359.75	324.50	292.25	295.00	286.00	275.50	247.25	215.25	177.50	162.75	138.25	137.25	132.25	117.50	100.50	89.00	86.50	87.50	86.50	86.25	86.75	86.75	82.75	85.50	88.50	117.75	205.75	263.25	324.75	324.50	291.00	254.00	283.25	327.25	353.00	369.75	385.00	364.75	303.25	244.50	271.50	287.00	251.25	227.00	193.75	171.00	164.00	143.75	145.50	158.00	184.50	209.75	230.25	280.75	319.25	340.25	335.50
255.25	275.75	276.25	295.75	302.00	236.50	235.50	219.00	198.25	187.25	186.00	192.50	191.25	181.00	165.25	166.25	150.50	137.00	127.00	118.50	107.25	122.75	137.25	163.25	182.00	207.00	170.00	145.00	120.50	103.50	91.25	76.75	87.75	103.75	121.00	136.25	135.50	145.75	135.50	99.75	71.50	52.75	49.25	41.75	44.75	45.75	46.50	43.75	48.25	48.25	41.00	54.25	32.00	40.50	54.25	72.00	92.50	103.00	114.50	104.25	103.75	103.00	89.50	96.25	100.25	93.75	91.50	93.00	79.50	72.00	66.00	77.00	87.00	94.00	76.75	65.00	77.75	83.75	96.25	105.50	113.75	132.50	142.00	146.75	135.75	124.25	126.75	139.50	149.75	140.25	127.50	130.75	161.00	173.50	183.50	202.25	223.00	263.25	284.00	259.50	245.00	275.75	314.50	335.50	359.25	370.75	323.50	284.00	234.00	241.75	224.00	203.50	189.50	201.75	219.00	238.50	222.75	213.00	260.00	326.25	339.00	300.75	249.25	213.00	175.75	163.75	176.50	161.50	143.75	136.25	120.00	106.75	95.25	82.00	79.50	78.75	66.25	65.50	62.75	76.25	119.00	129.25	106.75	126.00	144.25	166.25	173.75	152.25	133.00	117.75	119.00	128.50	132.50	148.25	148.00	138.50	132.25	120.00	108.25	110.50	99.50	93.50	115.75	128.25	142.25	154.50	164.25	185.50	195.25	209.00	220.00	249.75	298.25	350.50	366.00	410.00	485.75	527.75	510.00	557.50	612.75	642.75	718.00	655.25	567.25	511.00	473.25	439.00	422.75	393.50	413.50	433.25	433.25	387.75	294.50	261.75	286.25	338.75	377.75	355.50	298.50	258.25	253.25	264.00	278.50	253.00	232.75	199.25	186.25	171.25	161.25	148.75	130.50	107.00	91.00	86.75	89.00	87.25	86.75	86.75	85.50	83.25	84.50	88.00	128.75	200.75	255.50	337.75	351.75	322.50	282.00	303.00	344.50	378.75	393.75	379.50	340.25	294.00	219.00	236.75	273.75	250.00	207.25	172.75	146.75	141.25	139.00	156.00	186.25	232.50	271.75	276.25	289.50	325.75	373.00	381.75
275.25	287.00	286.50	309.50	319.25	264.25	246.00	218.00	210.00	204.25	200.75	214.00	201.25	192.50	177.50	171.50	152.75	142.25	133.00	127.25	118.00	124.50	136.25	169.00	183.50	202.25	170.00	139.75	118.25	106.25	89.25	79.00	110.00	126.25	141.25	150.25	150.25	149.50	135.75	97.25	71.50	46.50	40.25	39.00	41.50	45.25	45.00	42.75	42.50	47.75	35.00	52.75	48.50	53.75	72.00	98.25	130.50	164.25	171.50	146.75	132.75	125.50	111.50	111.50	110.25	99.25	102.50	109.75	91.50	85.25	73.75	65.50	75.00	79.00	69.75	72.75	87.75	87.00	100.50	111.25	117.75	137.25	153.75	161.50	138.50	129.00	138.25	149.25	164.00	165.00	146.75	129.00	154.25	168.00	180.25	197.00	218.25	253.00	265.50	250.50	257.75	305.00	342.25	391.50	414.25	379.00	308.25	270.00	220.25	210.75	194.75	180.75	173.50	184.00	199.00	225.75	209.25	191.00	236.75	285.50	281.75	252.25	217.50	196.50	166.25	151.50	144.50	136.75	126.50	121.00	111.00	103.50	94.00	82.50	79.75	70.25	62.75	65.25	66.50	97.25	142.50	140.00	108.25	133.75	160.50	179.50	174.75	149.00	129.25	123.75	135.00	149.50	153.50	163.00	163.00	150.75	140.00	127.00	112.25	116.25	102.00	94.50	116.75	127.25	138.00	150.50	162.25	184.00	195.75	207.50	217.50	248.00	278.75	311.75	318.25	356.50	416.50	436.00	433.00	489.25	547.00	562.50	647.25	674.25	619.25	582.75	550.50	484.00	428.75	387.00	374.50	350.00	337.50	311.50	277.50	287.50	336.00	380.50	398.00	336.50	278.50	242.25	220.50	231.00	264.75	255.50	250.00	218.25	202.00	177.25	160.00	151.25	135.25	112.00	93.25	87.25	89.25	86.00	84.25	83.50	81.25	81.00	82.25	88.50	156.75	238.75	254.75	351.25	375.00	355.50	314.50	319.25	348.75	376.75	383.00	336.00	278.25	259.00	194.25	195.25	243.00	235.25	177.75	137.25	123.75	133.75	144.00	167.25	201.25	253.00	309.00	337.00	329.25	343.50	389.00	405.50
275.75	279.50	286.50	316.25	320.50	289.25	266.00	241.00	242.25	232.00	220.75	232.75	217.25	217.25	195.75	178.75	156.50	154.75	145.50	141.25	133.75	134.50	145.75	177.00	190.00	205.75	180.75	148.25	127.50	112.00	94.50	94.25	131.25	145.00	154.00	156.75	160.25	147.00	129.50	98.00	77.00	49.00	39.75	38.25	42.75	43.25	42.50	41.25	39.75	46.00	41.50	52.00	61.00	68.75	95.75	134.00	175.75	218.50	229.00	214.50	180.00	152.25	140.25	131.25	117.75	108.00	115.75	130.00	113.50	102.00	85.50	71.75	82.50	90.75	89.75	92.25	91.00	89.25	110.75	131.25	134.75	152.00	170.50	173.25	144.25	135.00	149.50	160.50	177.00	185.00	166.25	141.25	161.50	175.50	190.50	206.00	219.75	240.00	243.00	241.75	263.50	325.75	369.75	409.50	415.75	361.75	288.50	252.50	212.50	192.25	169.25	160.00	157.25	175.25	197.50	224.75	201.00	167.25	192.25	224.00	225.75	211.25	190.00	173.00	153.75	147.50	127.50	125.00	115.00	106.75	101.00	98.25	90.25	84.25	75.25	65.00	62.25	68.50	79.25	120.50	153.75	148.50	114.25	142.50	173.50	197.00	184.50	152.00	140.00	145.00	157.00	176.25	182.50	180.75	180.00	158.00	141.75	127.50	110.50	113.25	103.25	95.50	119.25	133.25	140.00	147.50	163.50	180.25	194.75	201.75	213.00	242.25	262.75	279.25	282.50	309.00	350.50	367.00	402.00	476.75	496.25	488.50	555.75	651.50	639.50	633.25	614.00	539.00	505.00	448.50	384.25	361.25	353.00	318.00	326.00	339.75	359.50	392.00	395.50	322.50	262.75	229.25	204.00	193.50	228.25	239.25	247.50	219.25	194.75	157.25	143.50	141.50	129.50	113.00	95.25	87.00	86.25	84.50	80.75	81.25	79.50	80.25	87.50	86.00	148.25	281.50	278.25	340.25	365.00	360.75	337.00	332.00	335.25	354.25	359.25	307.75	234.50	216.00	173.75	163.25	190.00	183.00	140.75	115.00	120.00	142.50	156.50	167.50	187.50	230.00	287.25	340.50	362.75	366.00	392.25	415.25
263.50	269.25	274.00	306.25	315.25	304.50	286.00	273.00	272.50	260.50	250.75	261.50	256.00	246.75	222.25	195.50	171.50	172.75	160.00	149.00	141.25	146.00	153.75	178.75	197.50	215.50	191.75	156.50	132.00	111.25	98.00	110.50	141.00	150.25	154.50	156.00	158.25	139.25	122.75	92.75	76.50	56.75	47.50	42.00	44.00	40.50	39.00	41.00	43.50	49.50	53.50	62.50	81.50	93.50	120.00	160.75	195.00	215.50	236.75	269.75	241.50	188.00	164.25	150.25	134.50	127.25	133.00	153.50	137.25	122.75	98.50	83.50	91.50	98.75	98.50	101.75	90.50	95.75	117.25	145.00	154.75	172.75	193.50	185.50	158.50	153.00	166.50	177.50	192.25	196.00	175.50	153.25	177.25	197.00	208.50	215.00	216.25	228.50	224.75	234.75	256.00	304.75	351.75	364.00	351.75	307.25	254.00	235.25	200.50	176.00	152.75	146.25	144.00	166.50	183.25	199.25	177.25	153.50	162.25	182.50	189.75	188.50	170.75	152.25	136.00	136.25	118.50	119.50	111.25	100.25	92.25	90.50	84.50	80.25	67.75	67.00	66.00	74.75	94.50	133.25	159.50	153.25	123.25	150.50	182.00	215.00	196.00	158.00	160.00	170.75	184.50	199.25	201.75	191.75	184.25	154.25	139.25	125.00	113.25	111.00	107.00	98.75	114.00	133.75	139.75	145.50	160.00	168.25	188.25	195.25	206.50	235.25	247.50	246.25	257.75	278.25	304.00	347.00	412.75	470.50	447.00	434.00	496.25	578.75	568.50	588.75	618.75	583.00	563.50	475.00	429.50	454.75	437.75	369.50	386.00	404.75	389.50	402.00	377.00	306.50	248.25	220.00	199.50	179.00	184.75	198.00	211.75	186.25	163.75	134.25	130.25	123.25	115.25	107.75	102.00	96.75	86.75	87.00	82.25	81.75	81.00	81.50	92.00	85.00	108.25	227.25	251.00	258.25	277.25	290.75	293.50	293.75	285.00	321.25	348.50	312.50	237.25	201.75	161.00	146.50	143.25	130.00	116.25	115.75	132.25	160.75	184.75	181.00	172.00	198.25	248.75	300.75	335.75	348.25	371.25	405.00
246.00	269.75	260.75	326.00	333.75	308.50	296.50	294.00	300.75	293.50	294.75	325.75	323.75	281.75	243.25	219.00	190.00	181.25	164.00	149.25	148.25	156.00	160.00	179.00	200.75	220.75	197.25	157.00	130.00	108.25	98.75	118.75	136.00	141.00	144.75	145.00	145.25	127.25	112.00	77.50	68.50	53.25	43.00	46.75	44.75	42.25	36.75	46.00	53.00	56.75	63.50	76.00	105.50	111.75	124.25	151.75	169.75	178.00	207.00	267.00	276.75	242.00	193.50	168.75	162.75	159.00	160.50	181.00	159.75	141.50	115.75	102.00	95.00	95.75	99.50	109.25	97.75	102.00	116.25	143.25	159.25	183.00	211.50	205.75	182.75	179.00	188.50	203.25	213.50	204.25	182.75	161.25	188.75	213.75	233.75	224.25	216.50	226.50	214.25	219.50	236.25	260.25	288.50	290.75	286.25	253.00	226.50	223.75	193.75	172.25	147.00	138.00	134.50	151.50	155.75	160.50	153.00	142.75	147.75	159.50	170.25	175.50	161.00	143.50	125.00	122.00	107.25	113.75	110.75	99.75	87.50	81.75	78.50	70.00	64.25	68.25	74.75	88.50	114.00	147.25	169.00	152.00	133.00	154.75	184.00	215.25	203.25	170.75	184.25	192.75	205.00	209.25	205.00	190.25	171.25	149.25	134.75	125.25	127.25	124.75	120.25	108.25	110.75	121.25	134.00	143.25	159.00	166.50	182.25	192.75	208.50	227.50	228.75	230.50	256.50	280.00	303.50	381.25	448.50	452.50	405.25	392.25	443.50	487.00	478.75	526.50	609.00	617.25	572.75	489.75	505.00	535.75	484.50	411.00	424.75	467.00	446.50	435.00	370.00	307.50	256.75	237.50	222.00	200.50	170.75	161.25	162.25	144.25	138.75	123.50	127.50	117.50	114.75	114.75	116.50	113.50	95.00	95.00	91.75	83.75	79.75	78.25	84.75	80.75	81.50	121.75	143.75	137.00	146.75	162.75	187.00	215.25	246.25	303.25	339.25	315.50	248.25	211.00	159.25	136.00	118.00	110.25	117.00	131.75	146.75	173.50	213.50	228.50	205.50	193.50	217.50	256.00	282.25	301.50	337.75	382.25
234.50	268.75	248.00	344.25	343.00	310.25	294.50	301.75	327.00	342.50	369.00	406.25	390.75	326.00	262.50	235.50	199.75	180.50	162.00	157.25	162.00	167.75	170.50	181.50	196.00	209.75	189.75	150.25	125.25	107.75	106.50	123.25	121.25	118.75	118.75	122.50	126.50	112.75	101.50	66.00	64.50	47.75	38.00	45.00	44.75	44.25	36.50	49.25	57.50	61.25	74.75	81.75	104.75	103.50	107.00	124.75	136.75	149.50	176.50	225.00	260.75	281.00	239.75	199.25	199.00	200.00	203.50	217.50	182.75	159.75	132.25	115.00	104.25	100.50	104.75	123.75	116.25	111.50	129.50	155.00	177.00	193.50	217.75	217.50	208.75	208.50	211.50	229.25	237.50	223.50	200.00	176.00	200.25	224.00	250.00	231.00	215.25	212.50	200.25	193.50	213.50	225.00	239.00	249.75	251.25	224.25	204.25	209.75	192.50	171.00	142.75	135.75	129.50	134.75	135.75	134.25	133.00	133.25	136.50	141.25	155.50	159.75	155.00	141.25	122.75	112.75	101.00	111.50	108.50	102.00	86.25	76.75	75.50	65.50	65.00	76.00	86.00	108.75	136.75	167.50	177.25	150.50	144.25	164.25	188.00	208.75	214.75	199.00	206.00	210.50	211.75	201.00	196.25	178.00	157.50	142.50	132.75	132.50	147.50	140.00	134.75	124.00	122.00	116.25	134.50	145.50	158.25	168.75	176.25	191.50	202.25	211.25	215.50	235.25	265.25	288.75	305.25	387.75	454.25	428.75	381.25	364.25	390.00	405.50	423.00	492.50	572.25	576.50	533.00	519.00	553.75	560.75	514.75	471.00	467.00	495.00	474.75	453.50	390.50	348.25	296.00	283.25	262.25	236.50	182.00	152.75	142.00	140.00	146.25	143.75	147.50	137.75	131.50	135.00	126.50	113.25	109.00	108.25	101.75	86.25	79.75	76.50	78.25	78.25	80.25	80.50	83.25	78.25	81.25	85.25	108.25	179.00	253.00	302.25	321.50	302.25	239.50	202.75	148.00	119.25	106.75	113.25	132.00	153.75	165.50	176.25	218.75	275.50	278.25	242.25	215.75	225.25	245.50	266.75	312.00	355.75
244.50	248.50	229.75	314.00	302.00	297.25	276.75	296.50	324.75	366.25	423.25	435.25	398.75	345.50	278.00	238.50	207.00	187.50	175.00	176.25	176.25	182.00	182.00	178.75	184.00	188.50	171.00	141.25	123.50	116.50	122.00	124.75	106.75	97.75	91.50	96.00	105.00	99.75	90.00	61.50	66.25	45.75	40.50	40.00	41.50	42.25	38.50	45.75	54.00	62.25	77.00	82.00	93.00	93.50	104.50	123.25	145.50	143.50	154.25	193.00	230.75	280.75	293.00	258.25	245.25	243.50	244.50	253.00	202.50	176.75	142.75	123.25	123.00	118.50	116.25	133.50	137.00	135.25	156.75	183.50	208.00	212.00	221.75	216.00	219.00	231.75	238.00	255.75	264.00	249.75	231.00	201.75	215.25	236.75	246.50	222.75	202.00	186.25	182.75	175.75	193.00	198.50	213.75	225.50	217.25	199.75	179.00	188.50	176.00	162.25	139.25	141.25	129.25	123.25	122.75	119.25	116.50	123.00	126.75	129.25	137.50	140.25	139.00	133.50	119.75	113.25	101.25	110.75	107.50	106.00	90.25	86.25	82.25	68.50	67.50	87.00	94.25	113.75	147.00	184.75	180.00	152.25	157.75	178.75	204.50	218.50	230.00	223.25	215.25	218.25	210.25	191.25	182.00	163.00	150.50	141.50	140.00	148.25	160.75	146.25	142.75	134.75	135.50	124.50	136.75	146.75	154.00	169.00	176.75	187.25	187.25	194.00	214.50	228.25	247.25	268.50	286.00	362.75	437.00	427.25	371.50	352.50	351.75	352.75	389.00	456.00	504.75	489.50	457.50	477.50	509.50	525.75	531.25	521.75	496.00	473.75	439.00	419.50	387.75	364.50	321.00	313.25	288.00	255.75	186.50	157.25	149.25	166.25	177.00	181.25	183.50	170.75	154.50	148.25	126.25	110.75	121.00	115.50	100.50	88.00	87.75	81.00	78.50	82.50	80.50	79.50	80.50	75.00	77.75	77.00	91.00	197.00	281.75	294.50	293.00	275.25	209.25	168.00	119.00	104.75	108.25	129.50	162.50	192.25	202.75	198.25	219.75	294.50	329.00	308.25	251.25	235.75	250.50	257.25	279.00	319.00
248.25	214.50	220.50	279.75	262.00	274.50	261.25	278.00	291.25	331.50	398.75	389.25	349.75	320.50	271.75	239.75	217.25	201.50	192.25	190.00	189.00	191.25	187.25	173.25	172.00	167.25	154.75	138.25	127.25	131.75	133.75	118.75	97.00	87.00	76.00	80.75	81.75	82.75	73.25	59.00	65.25	43.75	40.00	39.00	40.25	39.25	40.50	43.75	51.25	63.50	77.25	85.00	94.25	98.50	119.25	148.75	185.25	164.50	158.75	182.25	217.00	276.75	336.50	336.50	295.75	271.25	253.75	253.00	203.25	181.00	146.00	136.00	146.50	149.25	145.75	151.25	161.75	171.00	180.00	193.75	213.75	220.25	229.00	217.75	223.00	239.75	255.25	273.75	296.75	279.75	262.50	242.25	244.50	255.75	237.50	209.00	190.25	172.00	166.75	168.75	184.50	178.25	189.75	188.50	179.50	186.25	167.75	167.00	150.25	151.00	130.00	138.00	126.75	114.75	114.25	110.25	112.25	117.25	119.75	118.75	126.75	131.25	125.00	123.75	115.75	112.25	100.25	109.50	107.50	105.25	92.25	91.75	81.00	75.00	79.50	100.25	101.75	114.00	146.50	186.25	181.75	159.75	174.00	194.00	221.00	236.25	239.50	228.00	212.50	213.50	201.25	189.75	169.50	154.00	152.75	151.75	147.25	158.00	162.25	153.50	146.50	135.75	143.00	130.75	133.00	142.50	151.75	167.75	177.25	176.75	175.00	181.50	211.00	207.00	214.50	235.50	261.25	336.50	420.25	449.00	388.75	353.00	326.50	326.25	356.00	401.50	421.25	397.25	375.50	392.25	420.25	451.25	489.25	509.75	478.25	427.25	383.75	361.75	336.75	328.25	301.50	293.75	273.50	240.75	178.75	167.25	169.75	198.50	216.75	217.50	214.00	195.00	171.75	152.00	126.25	119.50	118.75	109.00	95.75	91.25	95.50	86.75	85.00	89.00	88.00	80.50	79.75	77.75	79.00	77.25	87.50	173.75	254.50	244.25	240.00	224.50	163.00	126.00	99.50	103.00	120.50	157.75	207.00	240.25	252.75	251.00	240.00	287.00	344.00	356.00	296.75	277.25	303.25	290.75	280.50	309.50
222.00	192.50	211.00	243.50	247.50	251.00	248.50	240.00	229.50	251.00	296.50	288.50	268.50	259.50	250.00	236.50	230.00	214.50	211.50	199.00	194.50	185.50	180.00	177.00	170.00	169.50	159.00	156.00	147.50	149.50	137.00	105.00	89.50	93.50	88.00	90.00	77.50	66.00	57.00	57.00	54.00	42.00	42.50	42.50	38.50	39.00	39.50	44.00	53.50	69.50	89.50	97.50	108.50	117.00	142.00	189.50	229.00	215.00	213.00	227.00	223.00	276.50	341.50	395.50	359.50	283.50	230.50	202.00	170.50	159.00	151.00	159.50	170.00	203.50	207.00	204.50	208.50	201.50	176.50	184.00	201.00	226.00	243.00	242.00	252.50	260.50	265.00	274.00	299.50	327.50	311.50	307.00	300.00	283.50	255.50	214.00	198.50	163.50	137.00	157.00	169.00	153.50	164.50	181.00	189.50	209.50	180.00	152.00	131.00	120.00	133.50	177.00	163.00	124.50	123.50	100.50	104.50	106.50	103.00	97.50	112.00	114.50	107.50	112.00	115.50	97.00	90.00	97.00	94.00	93.00	81.50	81.50	81.00	97.00	107.50	124.00	110.50	118.50	144.00	175.00	199.50	180.50	200.00	223.00	253.00	251.50	241.50	209.00	204.00	201.00	189.00	187.00	171.50	162.00	164.50	166.50	158.50	164.50	167.00	161.00	151.00	150.00	140.50	140.00	132.00	143.50	148.00	158.00	165.50	161.00	159.00	171.50	197.00	205.50	212.00	238.50	274.00	317.00	389.50	452.00	396.50	332.00	298.50	323.50	343.00	354.00	328.50	315.50	295.50	307.50	331.50	370.50	420.50	449.00	460.00	427.00	381.00	339.00	281.50	257.50	240.00	227.00	214.50	193.50	188.00	203.00	226.00	263.50	277.00	239.50	213.50	187.50	164.00	143.00	127.50	125.50	108.50	108.00	103.50	97.50	93.50	88.50	88.00	89.00	104.50	85.00	82.50	81.00	81.00	80.00	80.50	86.50	100.00	104.00	127.00	131.00	94.50	86.00	99.00	118.00	137.50	168.00	222.00	270.00	297.50	323.50	314.00	295.00	323.50	365.00	332.50	331.00	401.50	419.00	404.50	406.00
223.00	209.25	223.50	258.00	259.50	254.50	248.50	234.75	218.50	234.25	275.75	273.50	251.75	242.25	236.75	231.75	230.50	217.75	212.00	196.00	193.00	177.25	184.75	181.25	176.50	175.75	165.50	158.75	154.50	154.75	139.50	108.50	102.25	105.50	102.50	101.50	85.75	65.75	58.25	55.25	49.00	39.50	40.75	42.75	39.50	39.25	40.00	45.50	57.25	76.25	104.75	114.50	120.25	126.50	146.75	192.25	231.25	237.50	240.25	254.00	237.50	280.00	332.75	369.25	344.00	278.25	226.25	198.50	164.50	151.50	146.50	155.75	169.75	205.75	209.50	201.75	198.25	190.50	172.00	184.50	201.50	227.25	245.50	246.25	261.50	272.25	274.25	284.75	301.50	325.75	317.50	310.75	299.25	284.00	257.00	217.50	198.50	165.25	140.00	170.50	179.75	157.50	154.50	163.75	172.75	192.25	166.50	141.25	121.50	122.25	156.75	183.50	161.25	127.25	127.25	110.75	108.75	105.50	100.50	97.00	102.75	101.50	94.50	103.50	104.50	92.75	83.50	90.00	85.00	86.50	83.00	93.50	98.50	114.75	122.75	132.50	118.00	122.50	144.00	170.75	197.75	184.75	202.25	230.25	255.25	248.00	238.00	207.00	202.25	202.25	189.25	184.25	177.50	166.00	168.50	172.00	169.75	166.75	169.25	161.75	153.00	151.75	140.50	142.00	135.25	142.00	149.00	155.25	161.00	163.25	169.00	178.75	199.50	216.25	227.50	255.25	288.75	329.75	393.75	435.00	371.50	318.25	295.25	325.50	358.50	352.75	327.25	317.00	288.00	305.75	326.00	359.25	400.75	425.00	447.50	431.75	404.75	363.00	302.25	268.75	246.50	233.25	221.75	206.50	208.50	221.75	245.00	280.25	282.00	225.25	202.75	179.25	160.50	146.75	134.25	127.50	113.00	111.25	108.00	102.50	93.25	90.00	88.75	89.00	99.50	86.50	87.50	82.50	80.75	80.00	80.75	85.00	92.25	93.50	106.25	108.25	88.00	87.75	120.75	147.75	155.25	163.75	207.50	258.00	294.00	328.25	332.75	325.25	344.50	373.00	342.00	326.50	398.25	435.75	435.25	422.00
242.25	257.00	252.25	272.50	266.50	253.75	250.25	232.25	211.25	211.00	234.00	238.50	215.75	210.50	211.75	222.25	232.25	226.50	210.00	189.25	189.25	175.00	196.00	182.00	169.75	185.75	178.00	167.25	171.00	166.75	144.75	121.75	127.00	128.25	128.00	120.25	98.00	64.50	57.25	48.25	41.25	37.50	39.00	42.50	41.25	38.50	40.50	50.25	67.75	97.50	143.00	157.50	155.25	156.00	170.50	211.00	245.25	290.75	303.75	311.25	276.25	283.00	310.00	316.25	298.50	255.75	215.75	190.00	152.50	142.25	138.25	149.25	162.50	186.00	188.75	179.00	170.25	169.00	167.25	187.75	205.50	236.25	263.25	279.50	296.75	305.25	302.00	309.00	316.00	336.50	337.75	330.50	304.50	287.00	248.50	221.50	198.25	167.25	153.50	203.25	208.25	173.25	154.00	149.00	149.75	159.25	140.50	126.00	123.75	148.50	201.00	194.25	167.25	144.50	144.75	137.50	130.00	117.25	105.75	105.50	100.75	93.00	86.00	92.00	92.25	89.50	83.75	84.00	75.00	79.25	94.25	122.75	134.50	154.75	158.25	151.25	135.50	132.00	147.25	170.75	197.00	194.75	206.25	239.00	258.25	250.25	231.00	204.25	204.75	211.00	198.25	188.75	191.75	177.75	181.25	187.50	188.50	173.00	175.00	162.75	156.00	153.25	144.75	144.75	143.00	148.25	151.00	153.50	160.75	170.00	180.50	193.25	212.00	237.00	258.75	285.25	313.25	338.00	384.50	391.00	325.50	299.75	290.50	327.50	377.25	353.25	317.50	313.00	279.50	287.00	305.25	326.00	353.25	371.75	399.75	413.25	426.50	396.00	337.50	303.25	276.75	265.00	249.00	237.25	251.25	263.50	283.25	304.25	284.75	210.25	195.00	181.00	170.00	163.00	150.00	138.50	122.25	116.50	111.25	105.75	96.75	100.00	95.25	93.25	96.25	89.00	91.75	86.25	83.75	81.00	81.75	83.75	83.50	82.75	82.50	80.50	84.25	111.00	192.25	231.00	212.00	180.50	194.75	230.50	268.50	316.25	343.75	368.75	391.75	402.75	358.50	307.75	368.25	424.75	442.75	415.75
297.50	316.50	278.00	261.00	257.25	255.50	255.75	235.50	221.00	212.50	206.00	207.50	189.00	182.00	192.75	216.00	234.75	232.75	206.50	182.75	183.75	180.00	196.50	174.50	155.50	194.00	191.75	182.25	192.50	179.75	158.25	148.00	148.50	144.50	137.50	127.25	100.00	65.25	52.00	43.25	41.25	41.50	40.50	42.00	41.50	37.75	40.75	57.50	79.25	116.25	180.25	207.75	213.75	207.00	212.25	233.50	256.50	322.25	346.25	331.50	290.00	265.25	281.75	266.00	240.25	218.75	195.25	174.75	140.75	133.50	125.50	134.50	142.75	149.50	152.00	150.00	147.75	153.50	168.25	191.75	210.75	253.75	313.00	354.25	368.25	360.50	347.00	342.00	348.50	364.50	371.25	358.50	316.25	293.75	236.50	216.50	196.00	166.75	169.25	231.00	224.75	187.50	169.00	152.00	144.75	142.25	126.50	122.25	146.75	182.25	223.00	203.25	185.75	177.75	179.00	167.00	159.50	144.00	127.25	121.75	109.50	102.25	95.50	92.75	90.50	91.75	95.00	87.50	76.75	84.00	116.75	155.00	166.50	188.75	186.75	170.00	155.50	146.75	158.50	183.75	199.75	210.00	218.75	243.25	259.75	254.50	229.50	215.75	215.75	224.50	215.50	203.00	210.50	200.75	205.00	208.00	199.00	179.25	186.25	171.25	164.00	159.00	147.25	146.50	150.25	161.75	154.75	161.25	172.00	175.25	183.50	208.50	232.00	261.25	278.75	290.50	311.75	324.50	362.50	353.75	296.75	292.75	285.50	325.25	364.75	341.25	292.75	296.50	274.00	260.50	279.75	284.25	302.25	322.75	346.00	380.00	409.00	392.25	342.75	325.25	306.75	305.25	283.25	271.25	288.25	297.25	302.00	308.50	284.50	220.50	215.50	210.50	199.25	185.25	165.75	150.75	127.50	115.25	106.75	106.25	107.75	112.50	105.50	101.25	99.50	94.50	94.75	90.00	93.00	87.50	83.50	84.25	84.00	83.25	80.00	76.25	88.25	143.00	267.00	315.00	284.25	242.75	228.50	223.75	240.00	281.75	318.00	351.25	393.75	400.75	334.25	263.75	312.00	369.00	390.75	364.50
344.50	349.75	292.25	248.25	261.75	273.25	266.50	239.25	235.25	228.75	212.00	210.50	194.75	177.50	182.25	212.25	237.75	225.75	198.25	180.50	178.25	173.00	184.25	169.25	154.25	202.75	200.50	196.50	205.75	191.25	181.50	177.00	163.75	150.00	127.00	115.50	90.75	63.00	47.00	44.00	43.00	43.75	43.00	44.50	42.25	41.50	44.25	67.00	87.00	118.25	186.50	233.50	257.75	236.25	227.50	231.00	242.75	293.25	321.75	299.00	265.50	232.00	253.75	227.00	197.00	183.25	167.00	153.25	127.75	119.50	120.25	130.50	141.00	142.50	141.00	145.50	149.50	154.00	167.00	190.00	214.75	268.50	354.00	422.25	446.75	423.50	397.50	387.50	388.25	391.75	387.00	355.50	311.00	288.50	231.25	203.75	188.75	161.75	173.75	233.00	218.00	187.50	173.25	153.75	147.25	143.25	127.75	128.50	159.25	187.00	220.00	217.75	211.75	212.00	214.50	189.00	176.75	160.00	147.25	137.50	122.25	114.50	106.75	101.50	96.25	99.00	99.75	90.50	80.50	93.75	132.50	166.75	174.50	190.75	189.00	185.25	175.25	165.50	176.00	201.25	219.50	235.00	243.25	252.00	271.25	249.75	237.75	236.50	230.25	231.00	218.00	217.25	228.25	229.75	236.00	229.50	208.75	196.00	206.25	191.00	177.50	169.75	148.25	150.50	153.00	166.75	163.25	180.75	188.00	181.50	190.25	223.25	250.75	279.00	279.00	273.00	291.50	317.00	353.75	338.25	286.50	278.00	275.75	315.25	328.25	308.00	268.50	272.50	261.75	241.75	262.75	264.75	283.25	312.25	343.25	371.25	375.75	361.25	317.50	302.75	294.25	307.25	294.25	283.50	295.75	292.50	283.25	296.25	279.50	239.25	243.00	237.25	220.00	194.00	166.00	148.00	121.75	108.75	109.00	118.25	122.25	119.25	111.75	105.50	103.00	101.50	100.25	91.50	96.50	96.50	89.00	86.25	86.25	83.50	82.00	78.50	88.50	149.75	282.50	338.25	320.75	302.50	284.25	256.00	244.50	250.50	281.00	281.50	321.50	359.75	324.00	235.75	250.75	311.00	337.50	308.25
350.00	332.50	286.50	250.50	265.25	307.00	302.25	253.50	244.50	240.25	238.00	233.75	214.75	194.75	173.00	204.50	232.00	217.75	191.00	182.75	180.50	167.75	173.50	168.00	157.25	205.25	202.75	200.00	194.25	192.75	199.00	197.75	172.25	150.25	121.50	107.25	86.25	58.00	44.75	40.50	39.00	42.50	42.50	45.50	42.50	45.50	51.75	76.25	95.00	116.50	168.00	206.75	231.00	206.75	196.25	204.00	217.75	260.25	280.25	262.25	238.75	203.25	218.75	196.75	169.00	154.00	141.75	130.50	113.75	109.50	138.50	159.75	171.25	160.75	160.75	170.75	177.75	179.25	171.00	185.00	218.50	267.75	342.50	419.25	464.50	458.75	449.50	450.50	424.25	396.00	366.25	325.50	290.50	264.75	217.00	189.25	180.25	178.75	194.25	231.00	213.50	189.25	174.50	157.25	149.00	146.75	144.50	147.25	161.50	175.00	205.25	223.50	236.50	239.75	236.00	199.75	181.25	160.25	152.75	142.75	133.75	122.50	116.25	112.00	108.25	105.50	95.50	89.50	82.75	96.50	126.75	149.00	158.00	171.00	176.75	192.00	184.75	176.25	189.75	218.50	246.25	261.00	268.50	270.75	285.00	252.25	260.75	259.00	240.00	225.75	218.00	231.25	245.00	256.75	266.00	246.25	221.50	232.25	227.75	211.00	190.25	172.75	152.00	154.75	153.25	167.00	176.75	198.50	205.00	198.00	206.00	240.00	265.75	278.50	267.50	259.75	275.75	315.00	345.50	334.25	288.50	266.75	270.25	299.75	300.25	284.75	254.75	257.75	248.25	242.50	266.50	275.50	303.75	339.75	370.75	361.50	333.00	321.50	299.00	275.75	262.25	273.25	271.00	261.50	272.00	258.50	246.00	263.75	253.00	232.75	237.50	229.00	208.00	178.75	149.75	135.00	116.75	114.25	126.25	137.75	133.75	121.50	113.00	107.25	111.00	107.50	106.00	93.75	93.75	98.75	95.50	87.50	85.75	84.25	83.50	80.50	85.75	123.00	207.25	242.50	252.75	281.25	287.75	265.00	224.25	190.25	207.25	192.75	224.75	303.25	328.50	234.75	197.00	248.00	274.75	251.00
338.50	306.50	283.75	258.25	261.25	347.25	368.00	264.50	233.00	232.25	235.50	233.50	222.25	207.50	166.00	191.75	209.25	210.00	188.25	187.75	188.00	187.75	181.25	166.00	160.00	206.00	206.50	193.50	172.25	182.25	199.25	207.75	181.50	160.00	135.75	123.50	94.25	61.75	45.75	38.25	38.25	44.00	42.50	46.00	42.00	46.50	57.75	79.75	96.25	109.25	137.25	153.50	169.50	159.00	163.25	191.50	225.00	276.75	274.50	249.75	225.00	189.25	184.50	169.25	149.50	140.50	130.25	116.00	102.25	111.50	176.00	211.00	215.75	188.50	189.75	211.00	223.00	220.25	194.25	185.75	216.50	254.00	307.00	373.25	432.50	465.75	504.75	501.50	430.25	374.75	335.50	299.50	269.75	238.75	197.00	186.75	193.25	217.00	237.00	237.00	214.25	195.75	178.75	160.00	146.25	150.50	167.75	173.25	175.75	179.75	203.75	228.00	249.75	252.00	241.50	199.75	179.00	156.50	147.00	135.00	127.50	120.50	121.00	117.75	112.25	105.50	89.50	87.00	89.00	97.50	119.00	134.00	143.00	158.00	171.75	195.75	188.75	181.00	196.25	239.25	279.00	291.50	294.50	298.00	287.00	268.50	298.00	298.00	255.50	231.75	234.00	250.75	266.50	265.00	269.50	243.25	228.00	255.00	243.50	223.25	201.00	180.75	153.75	155.50	154.00	169.75	187.75	204.25	219.50	224.75	234.50	259.75	274.50	269.75	254.50	252.50	267.00	306.25	330.50	326.75	290.75	265.00	268.00	285.75	295.50	277.00	244.00	243.25	234.75	264.00	292.75	304.00	323.50	354.50	368.75	335.00	291.75	283.75	300.25	275.00	246.75	243.50	233.75	225.25	233.50	223.25	214.75	217.00	213.75	198.00	200.75	194.00	175.50	154.25	138.50	133.25	131.75	138.00	151.00	155.25	142.25	125.25	115.00	115.75	121.00	115.75	112.50	97.75	94.75	95.00	94.75	89.50	85.25	85.00	83.25	82.25	84.25	92.00	115.50	122.50	137.25	176.50	193.50	178.00	141.75	115.75	121.50	117.00	144.00	214.75	260.75	198.00	155.50	183.50	193.50	187.50
334.50	310.00	292.50	259.25	270.50	387.75	376.25	249.00	212.00	210.25	203.75	211.50	222.00	202.50	165.00	175.25	183.25	190.00	182.75	197.00	205.50	222.00	198.50	158.75	162.25	209.25	202.25	182.25	159.25	168.75	186.75	206.75	197.75	182.00	156.00	146.00	100.50	68.75	48.00	39.75	40.25	45.75	45.25	46.75	45.25	50.50	61.00	79.75	93.50	102.50	111.50	120.25	133.75	139.75	166.50	211.25	259.00	319.25	295.75	264.50	233.50	189.25	170.25	163.50	161.25	163.00	147.25	123.00	98.00	117.00	198.75	253.25	267.00	225.25	213.25	244.50	265.50	261.00	229.75	201.25	212.75	242.25	283.00	350.75	422.75	478.00	511.50	483.75	400.25	349.75	311.75	281.50	251.25	222.50	196.75	215.25	230.00	253.75	277.00	238.50	212.00	195.00	179.00	159.00	145.25	160.50	187.25	201.00	203.25	207.25	225.00	242.00	245.50	241.50	229.75	195.00	175.50	154.25	142.00	129.25	119.50	120.00	123.25	119.00	111.25	103.75	88.75	84.50	94.00	102.00	126.00	144.25	152.50	168.00	182.25	210.00	211.00	200.00	206.00	262.75	330.50	338.75	320.00	322.50	291.50	280.75	320.50	337.25	288.00	253.00	250.00	278.25	297.50	271.50	255.25	231.00	236.75	262.25	255.25	230.50	203.50	189.75	155.00	156.00	159.00	171.75	188.50	205.75	230.00	257.75	270.00	274.75	275.50	256.50	244.75	247.50	266.75	295.75	314.75	305.75	280.00	255.50	255.50	280.75	292.75	257.50	229.50	223.25	234.00	292.00	318.25	325.25	315.00	329.75	329.00	296.50	262.25	261.25	298.50	281.25	245.25	232.50	219.00	209.50	201.25	201.50	196.00	179.25	179.50	167.25	167.50	164.25	154.75	148.00	150.50	156.50	162.00	168.25	176.00	172.00	152.50	133.75	124.75	132.75	131.25	124.25	116.25	99.75	95.25	91.50	91.75	91.25	85.00	83.75	84.50	87.25	87.25	86.25	92.00	95.50	92.00	100.25	104.00	97.25	88.50	88.50	89.25	89.25	101.25	134.50	162.00	137.25	130.25	143.00	137.00	139.75
328.50	302.00	291.50	258.00	288.00	375.50	271.00	226.50	209.50	199.00	188.50	187.00	188.00	161.00	156.00	152.50	150.00	162.00	185.50	210.00	255.50	232.00	199.00	158.50	169.50	195.00	183.50	172.00	151.50	146.50	163.50	188.00	197.50	192.00	167.50	149.50	94.00	56.00	43.50	35.50	42.50	47.50	46.50	49.00	52.00	54.50	63.50	89.50	113.00	128.00	151.00	154.00	141.00	149.00	195.50	238.00	277.50	337.00	325.00	270.00	235.50	203.50	196.00	198.00	216.50	215.00	171.50	134.50	96.50	111.00	171.50	224.00	273.00	272.00	258.50	275.50	297.00	309.00	283.50	248.00	244.00	249.00	274.50	346.50	426.00	455.00	422.50	393.00	351.00	321.00	293.50	265.00	240.00	213.50	223.00	275.50	296.00	302.00	295.50	232.00	203.50	187.50	175.00	158.50	164.50	192.00	215.50	239.00	250.00	259.00	255.50	241.00	215.00	198.00	186.50	178.50	166.50	158.50	152.50	135.00	128.50	125.50	123.00	118.50	112.00	106.50	99.00	89.00	96.50	114.00	132.50	157.00	172.50	200.00	213.50	237.00	260.00	253.00	249.00	299.50	365.50	371.00	341.00	338.00	321.50	303.00	315.50	347.00	333.50	279.00	264.00	320.50	394.50	386.50	316.50	267.00	272.00	269.50	249.50	219.00	191.00	175.00	167.50	163.00	173.50	175.50	191.00	210.00	237.50	281.00	293.50	273.50	256.50	244.50	241.00	241.00	259.50	280.00	285.00	268.00	246.50	239.50	239.00	287.50	273.50	220.00	208.00	212.50	256.50	323.50	304.00	288.00	261.50	261.50	262.50	236.00	226.50	246.50	289.00	294.50	271.50	244.50	239.50	238.50	217.00	215.50	210.50	197.50	203.50	178.50	170.00	160.00	158.50	174.00	193.50	216.50	226.00	213.50	198.00	185.50	159.00	143.00	148.50	156.00	154.00	133.50	121.50	105.00	96.50	89.50	89.50	86.50	81.50	80.50	83.50	84.00	86.50	83.50	96.50	102.00	95.50	89.50	83.00	81.00	84.50	91.00	87.50	90.00	88.50	86.00	90.50	97.50	107.50	113.00	107.00	105.50
320.75	298.00	298.00	273.00	303.25	354.25	266.00	226.50	212.50	194.00	182.75	188.50	183.50	159.25	155.75	149.50	147.00	163.75	185.50	213.00	243.75	224.25	192.75	160.25	169.25	190.50	186.75	169.25	148.00	142.50	154.50	179.00	192.25	186.50	156.50	138.50	87.75	57.25	45.00	39.75	44.75	47.75	46.50	47.75	49.00	53.50	64.25	97.25	124.00	140.00	165.50	172.25	160.00	157.25	189.50	229.25	266.75	328.25	319.25	267.25	243.00	221.00	210.75	208.50	223.00	212.50	167.00	130.50	95.50	109.50	159.50	203.75	249.75	272.00	271.00	284.50	302.00	320.75	300.75	268.50	261.75	259.75	280.75	344.75	412.75	424.25	392.00	369.25	335.25	318.00	289.25	262.00	239.50	221.25	239.25	287.00	309.25	306.00	289.25	236.00	210.00	191.75	170.50	159.50	167.50	195.50	225.25	252.75	259.50	265.00	251.50	230.50	206.00	184.25	172.25	170.00	159.50	154.75	151.00	138.25	130.50	124.50	121.25	116.25	109.00	105.25	100.75	91.00	96.00	114.00	133.00	158.50	175.75	204.00	221.50	247.00	275.75	271.75	266.75	312.50	363.75	373.25	354.75	347.25	345.25	331.75	321.50	344.25	334.50	287.00	270.50	328.25	406.25	392.25	326.25	286.50	284.50	274.00	246.00	214.00	184.75	172.75	176.00	168.75	175.50	178.00	192.25	217.00	246.25	277.50	287.75	270.25	254.00	241.00	237.75	235.00	251.50	273.50	277.75	262.50	242.25	234.75	247.75	285.25	269.50	221.50	204.75	212.75	258.50	310.00	289.75	267.75	246.50	253.75	248.00	230.75	227.00	248.75	287.25	305.75	294.25	259.00	243.00	247.00	229.75	222.25	225.75	228.25	226.25	199.75	184.75	167.25	168.00	188.75	213.50	239.50	247.25	229.50	207.25	191.50	164.25	150.50	158.50	164.75	160.25	135.50	121.75	105.50	98.75	93.25	91.75	89.00	85.00	83.25	85.75	87.25	89.25	84.50	87.00	91.50	89.25	91.00	88.75	84.00	85.00	90.00	86.50	89.00	88.50	84.50	87.25	93.25	100.00	102.75	104.25	105.00
295.50	300.00	335.50	315.00	324.00	282.00	244.50	222.00	187.00	165.50	166.00	190.50	177.50	175.00	175.00	149.00	141.00	152.00	164.50	204.50	194.00	193.00	171.50	155.00	160.50	174.50	188.00	163.50	145.50	129.00	131.50	162.50	173.00	159.50	117.50	100.00	65.00	49.00	44.00	45.00	45.00	47.00	46.00	45.50	43.00	55.00	72.50	106.00	136.00	159.50	199.00	227.00	242.00	223.00	205.50	212.50	248.50	313.00	305.00	272.50	249.00	220.00	197.50	189.00	193.50	163.00	131.50	114.00	87.00	95.00	129.00	147.00	179.00	239.00	265.00	277.50	292.00	311.00	309.50	320.50	298.50	276.50	284.50	320.00	345.50	350.50	319.50	296.50	279.50	300.00	304.50	280.00	253.50	253.00	288.50	326.00	343.00	300.00	269.50	221.00	213.00	187.00	164.50	164.00	179.00	196.50	240.00	274.00	270.00	270.00	227.00	202.50	190.50	166.00	152.50	141.00	135.00	140.50	138.50	133.00	131.50	122.50	108.50	107.50	98.50	101.00	102.50	103.00	103.00	121.50	131.50	150.50	172.50	199.50	228.00	265.50	285.00	294.50	310.00	316.00	332.50	363.00	406.00	423.50	475.00	460.50	374.00	347.00	352.50	318.50	299.50	342.50	376.00	348.50	360.50	357.50	309.50	268.00	238.50	216.00	193.00	181.50	201.00	190.00	182.00	180.00	202.50	244.00	270.50	276.50	264.00	256.00	247.50	230.00	220.50	220.00	230.00	251.50	253.50	244.50	232.50	225.50	267.00	284.00	253.50	223.50	193.50	212.50	257.50	266.50	273.50	241.50	224.50	227.00	215.50	210.00	226.00	250.50	292.00	340.00	351.00	302.00	279.00	292.50	276.50	275.00	288.50	316.50	281.00	237.50	207.50	185.00	198.50	237.50	280.00	307.50	298.00	268.00	231.50	212.00	181.00	169.00	179.00	184.50	176.50	130.50	114.00	104.00	102.00	100.00	97.50	99.00	104.00	104.50	103.50	104.50	101.50	101.50	85.50	79.50	86.00	105.00	105.50	92.50	83.50	88.00	87.50	89.50	89.00	85.00	83.00	88.50	97.00	97.50	105.00	100.00
284.50	309.00	334.00	329.50	312.50	267.50	233.00	213.00	202.00	183.50	174.00	175.50	161.50	175.00	169.00	154.50	137.00	134.00	143.00	174.00	161.00	163.00	163.00	140.00	153.00	173.50	205.50	180.50	149.50	130.50	119.00	147.50	156.50	149.00	108.00	87.50	61.50	49.50	46.00	46.00	45.50	47.50	46.00	45.50	52.50	70.50	92.00	107.00	123.50	139.50	190.00	227.50	271.00	250.50	213.50	195.00	251.00	310.50	286.50	260.00	233.00	192.00	170.50	160.00	148.50	129.50	109.50	106.50	83.00	93.00	111.50	123.50	141.00	184.00	210.00	227.00	251.00	260.00	255.50	290.00	299.50	289.50	300.00	334.00	329.00	308.50	277.00	257.50	255.50	265.50	300.50	304.50	274.50	263.50	316.50	348.50	343.50	285.50	249.50	200.00	196.00	177.50	164.00	178.50	196.00	201.00	238.00	268.00	266.00	252.50	207.50	184.00	170.00	154.50	148.00	129.50	130.00	127.50	122.00	119.00	118.50	118.50	109.00	102.00	104.00	101.50	104.50	114.00	107.00	127.00	133.00	138.50	159.00	185.50	204.00	232.50	257.00	279.00	292.00	283.00	308.00	360.50	488.50	557.00	592.00	534.00	423.50	368.00	383.00	368.50	349.00	360.50	358.00	392.00	428.00	391.50	323.50	274.00	242.00	218.00	200.50	194.00	211.50	189.50	181.00	178.50	209.50	250.00	273.00	275.50	261.50	249.00	241.00	238.50	225.00	212.00	226.50	232.50	230.50	231.50	217.50	224.50	253.50	258.00	230.00	210.50	190.00	196.00	227.00	261.50	279.00	239.50	225.00	204.00	195.00	209.00	241.50	287.00	345.50	388.00	401.50	380.50	358.50	338.00	310.50	307.00	320.00	348.00	314.00	239.50	209.50	201.50	229.50	269.50	317.50	342.50	325.00	297.00	250.00	223.50	192.00	186.50	190.50	185.50	169.00	113.00	106.00	104.50	103.00	102.50	103.00	112.50	116.00	114.50	108.00	111.00	116.00	113.00	105.00	102.50	103.50	111.00	109.00	94.50	88.50	88.50	82.00	88.00	87.50	83.50	85.00	90.00	92.50	94.50	97.00	94.00
261.50	301.00	340.50	318.50	290.00	268.00	244.00	230.50	236.50	230.00	200.50	175.50	165.00	163.50	155.00	145.50	134.00	138.50	139.00	143.00	146.50	144.00	155.00	141.50	171.50	215.50	219.50	183.00	154.00	134.50	116.00	117.50	140.50	149.00	110.00	91.50	64.50	51.00	52.00	48.50	45.00	43.50	46.50	59.00	77.50	106.00	133.00	132.50	141.50	149.00	189.50	216.00	214.50	203.00	173.00	163.00	217.50	277.50	244.50	214.00	215.50	193.00	180.00	180.00	163.50	152.00	117.50	102.50	83.00	95.00	122.50	126.50	125.00	138.50	161.50	180.50	208.00	204.00	204.50	260.50	290.00	294.50	305.50	321.50	296.00	264.00	246.00	225.50	235.50	261.50	288.50	304.50	300.00	277.00	327.00	349.50	333.00	295.50	265.50	218.00	202.50	182.50	175.00	193.50	214.00	230.50	254.00	255.50	248.50	231.00	202.50	184.50	163.50	149.50	145.00	133.00	130.50	123.50	119.50	114.00	102.50	108.00	106.00	105.00	101.00	94.00	105.50	106.50	102.00	106.50	142.50	146.50	151.00	172.50	191.50	199.50	226.00	246.50	246.50	257.00	295.00	362.00	539.50	652.00	725.00	677.00	511.50	396.50	442.00	443.50	412.50	387.50	382.00	419.00	438.00	418.00	377.50	300.00	249.50	229.50	217.50	210.00	207.00	186.00	185.50	182.00	213.50	247.50	268.50	266.00	255.50	238.50	230.00	248.00	230.00	214.00	230.50	224.50	217.50	219.50	205.50	221.50	233.00	236.00	218.00	190.00	184.00	187.50	212.00	254.00	270.00	227.00	212.50	189.50	196.50	228.00	281.00	318.00	365.00	416.50	449.50	416.00	395.00	361.00	312.50	274.00	268.50	320.00	304.00	250.50	233.00	235.50	261.50	294.00	335.00	361.50	343.50	311.50	267.00	242.50	208.00	191.50	186.50	172.00	142.50	104.50	103.00	103.00	103.00	107.00	113.50	121.50	126.00	126.50	118.50	126.50	129.50	123.00	116.00	117.50	111.50	107.00	108.50	101.50	98.00	94.50	87.50	90.00	89.00	85.00	85.50	90.00	90.50	87.50	91.50	93.50
269.00	308.50	324.00	280.50	258.00	288.50	270.00	236.00	244.00	246.00	207.50	181.50	173.50	166.50	171.50	153.00	156.00	176.50	149.50	141.00	139.50	129.50	134.50	134.00	174.00	216.00	193.50	177.50	163.50	138.50	121.50	101.50	120.50	133.50	111.50	94.50	66.50	53.50	53.00	52.50	44.00	41.50	57.00	90.50	116.50	156.50	190.50	171.00	169.00	178.00	204.50	196.50	155.00	150.50	143.50	153.00	207.00	270.00	236.00	187.00	172.00	163.00	157.00	157.50	153.00	135.50	111.50	94.50	83.50	119.00	175.50	171.00	155.50	127.00	134.50	151.00	168.00	167.50	195.00	264.50	278.50	268.50	290.50	300.00	257.50	236.00	220.50	204.50	216.00	254.00	264.00	268.50	290.50	291.00	345.50	323.50	303.00	277.50	260.50	216.50	189.50	179.00	189.00	214.00	239.00	262.00	281.00	258.00	236.50	219.50	193.00	176.50	159.50	150.00	154.00	160.50	162.50	142.00	134.00	128.00	122.50	121.00	118.50	114.00	109.00	103.00	106.50	103.50	105.50	104.00	141.50	169.00	169.50	168.50	181.50	188.00	190.50	213.00	225.50	255.50	293.50	368.50	546.00	642.00	682.00	663.00	551.50	442.50	487.00	524.00	480.00	421.00	413.00	415.50	407.50	399.00	397.00	311.50	272.50	258.50	250.00	229.00	206.50	197.00	208.50	210.50	233.50	248.00	256.00	249.00	238.50	228.50	219.00	228.00	220.50	216.50	222.50	216.50	203.00	202.00	198.50	213.00	212.50	211.00	200.50	184.50	182.00	189.00	202.00	225.00	240.00	213.00	204.00	204.50	211.00	248.50	293.00	304.50	348.00	415.00	437.50	408.50	374.00	339.50	290.00	245.00	234.00	278.00	276.00	243.00	252.00	264.50	278.00	299.00	331.50	347.00	327.00	302.00	266.50	246.00	209.00	170.00	150.50	132.00	112.00	106.50	106.00	108.00	108.50	110.00	122.50	129.50	132.00	130.00	134.00	142.50	139.50	135.00	134.50	131.50	120.50	117.50	122.50	120.00	113.00	105.50	99.00	97.00	98.00	97.50	94.50	95.00	97.00	91.50	93.50	93.50
324.50	325.00	280.50	250.50	261.50	277.50	246.00	231.50	240.50	231.00	198.50	177.00	167.50	171.50	163.00	161.50	183.00	179.50	157.50	146.00	134.50	119.00	118.00	143.50	178.00	206.00	223.00	211.50	188.00	156.50	130.00	105.50	98.00	108.00	99.50	89.00	65.50	55.50	47.00	49.00	48.50	51.50	86.00	122.00	150.50	192.50	228.00	206.00	195.50	190.00	165.00	147.00	115.50	108.00	117.50	145.00	198.00	252.00	224.50	185.50	166.50	137.50	123.50	124.00	127.00	116.50	100.50	85.50	82.50	121.00	187.00	192.50	185.50	150.50	150.50	154.00	163.50	187.50	212.00	244.50	238.50	229.50	264.50	283.00	255.50	260.50	234.50	201.00	214.00	268.50	251.50	228.50	246.50	277.50	352.00	318.50	282.50	247.50	235.50	210.50	193.50	195.00	203.50	232.00	262.00	293.00	312.00	282.00	241.00	227.00	201.50	180.50	166.50	172.00	180.00	178.00	178.50	155.00	145.00	140.00	135.50	132.50	122.00	113.50	115.00	100.00	103.00	102.50	103.00	104.00	132.50	180.00	188.00	176.00	177.00	205.50	199.00	207.50	237.50	272.50	299.50	355.50	501.50	549.50	531.00	548.00	561.50	504.50	561.50	605.00	567.50	466.00	443.00	418.00	384.50	359.50	371.50	340.00	332.50	304.00	265.50	233.00	219.00	228.00	240.00	253.00	255.50	244.00	239.00	232.50	223.50	213.50	210.00	219.50	212.50	212.00	214.50	197.00	189.00	192.00	197.00	192.50	203.00	200.00	189.50	190.50	179.00	176.50	184.00	200.50	196.00	189.00	193.00	200.50	220.00	274.00	297.50	288.50	338.00	401.50	383.50	362.50	322.50	298.00	260.00	222.00	209.00	236.50	249.50	225.00	249.50	274.50	287.00	283.50	296.50	304.00	275.50	256.00	233.00	212.00	163.00	131.50	118.00	114.00	112.00	112.50	115.00	120.00	119.50	122.50	134.50	140.00	140.50	132.50	145.50	159.50	155.50	152.50	147.50	136.00	125.50	133.00	142.00	140.00	131.50	117.00	110.00	101.50	101.00	104.00	102.50	99.50	101.00	99.50	101.50	102.50
363.75	349.25	256.25	230.00	253.25	202.50	185.50	206.75	216.50	195.50	169.00	160.75	173.75	171.25	173.75	189.75	194.25	171.50	175.75	169.25	169.25	146.75	129.00	131.75	142.50	191.50	207.00	217.50	201.75	169.25	137.00	111.25	99.50	101.00	88.50	84.00	66.75	61.75	56.00	53.00	50.25	50.00	57.00	73.75	92.50	133.75	168.00	180.50	159.25	127.25	98.00	84.50	84.50	93.00	104.75	126.25	152.50	167.00	157.00	146.50	144.75	142.00	125.00	121.00	127.50	99.50	90.75	76.00	84.25	107.00	136.25	151.00	165.75	177.50	187.50	194.00	213.50	207.25	196.25	192.50	194.25	212.00	249.50	230.75	210.75	238.75	217.00	188.50	205.00	234.75	236.25	205.75	215.75	252.75	310.75	315.25	287.00	237.00	219.25	211.50	217.00	239.75	244.75	243.25	283.25	322.25	315.25	289.50	252.25	235.50	205.00	187.50	189.75	203.25	199.25	189.00	174.25	157.50	146.75	138.50	131.75	125.25	121.00	120.25	114.75	100.00	95.50	98.25	102.25	110.00	117.50	156.25	184.75	196.50	183.75	206.50	230.25	234.75	244.25	271.00	305.00	337.00	374.00	400.75	448.75	515.25	580.25	549.00	629.00	707.50	667.75	500.25	443.25	399.75	367.75	333.50	329.25	357.50	348.75	310.75	269.25	256.50	255.75	251.00	246.25	260.25	240.50	233.50	227.25	229.75	221.75	228.75	226.75	224.75	219.00	220.75	219.00	202.25	190.25	208.00	204.50	191.50	188.00	186.25	175.50	175.50	167.50	168.75	165.25	172.00	155.50	175.25	185.50	199.25	235.00	263.00	261.00	234.75	273.25	312.50	295.50	291.00	257.00	236.50	204.75	185.50	176.75	200.00	194.75	175.25	197.75	225.00	235.50	225.50	210.00	210.50	191.00	170.25	162.00	145.75	121.00	117.50	117.75	117.00	118.75	125.50	130.50	134.25	133.75	147.50	160.25	161.75	153.00	142.50	166.00	174.00	166.75	160.25	147.50	137.00	142.25	157.75	158.25	148.00	134.25	127.75	136.75	127.25	124.25	135.25	132.50	116.00	103.75	103.50	102.25	103.50
362.00	352.00	258.00	223.50	248.00	203.50	176.00	202.50	211.00	184.50	161.00	160.50	180.00	166.00	185.50	204.00	193.00	171.50	186.50	189.00	190.00	159.50	138.50	123.50	127.50	179.50	186.00	209.00	204.50	169.50	138.00	114.50	101.50	99.00	87.50	82.00	66.50	58.50	56.50	54.50	56.00	49.00	44.50	52.00	67.00	105.50	137.00	163.50	140.50	108.00	81.50	68.50	75.00	88.00	99.00	116.50	137.50	140.00	137.00	135.50	134.00	138.50	125.50	127.50	135.50	97.00	90.50	73.50	84.00	101.50	125.00	139.00	155.50	178.00	189.00	205.00	224.00	203.00	183.00	181.00	195.00	216.50	240.00	214.50	204.50	234.50	207.50	184.50	198.50	222.00	225.50	199.50	203.50	240.00	291.50	312.50	293.00	237.50	221.50	211.50	221.00	256.50	264.50	254.50	296.00	334.00	311.50	286.50	248.50	230.00	202.50	193.00	197.50	209.50	202.50	187.00	171.50	153.00	144.00	141.00	130.00	126.50	120.50	122.50	121.50	109.50	93.50	97.00	102.50	112.00	119.00	148.00	176.00	197.50	188.50	207.00	242.00	249.50	245.00	261.50	299.50	328.00	340.00	376.00	451.50	499.50	571.00	565.00	648.50	728.50	697.00	504.00	433.50	392.00	364.50	332.50	316.00	342.50	334.50	302.00	272.00	269.00	269.00	256.50	245.50	252.50	236.00	230.50	222.00	233.00	227.50	245.50	242.50	231.50	223.50	223.00	222.50	209.00	194.00	211.50	202.00	190.00	184.50	177.50	169.50	168.50	165.50	166.00	160.50	159.50	146.00	171.50	176.50	191.50	228.00	244.00	241.00	212.00	255.50	287.00	267.50	268.50	241.00	220.00	189.00	174.50	168.00	190.50	175.50	161.00	177.00	200.50	210.50	200.00	177.00	176.50	163.00	145.00	136.50	128.00	119.50	118.50	120.00	119.00	122.00	131.50	136.50	138.00	139.00	157.50	169.50	170.00	158.00	146.50	172.50	180.00	169.50	162.00	144.50	138.50	152.50	166.50	162.00	147.50	133.00	132.00	144.00	135.00	134.00	144.00	143.50	125.00	105.00	106.50	105.00	106.00
298.25	301.25	243.50	219.75	215.50	187.25	164.25	193.50	197.25	173.75	175.75	175.25	186.50	178.75	243.00	220.75	228.75	251.75	276.25	277.50	272.25	227.50	175.75	133.75	120.50	128.00	144.25	174.00	180.50	163.25	137.50	112.25	98.75	90.75	76.50	75.25	69.50	63.75	53.75	49.00	45.25	49.75	47.50	49.75	48.00	59.75	66.50	77.50	63.50	59.00	53.75	56.25	58.00	67.00	80.75	105.50	117.25	109.50	113.50	114.00	114.00	105.50	99.75	122.50	133.50	108.75	93.50	86.50	86.00	98.50	108.75	122.00	138.00	143.75	153.00	181.25	209.00	179.50	169.75	204.75	234.75	278.50	277.50	216.50	175.75	197.25	171.50	157.00	175.50	198.50	196.75	207.25	219.25	225.75	253.50	291.25	292.25	266.75	254.25	218.00	225.00	272.00	301.75	299.00	316.00	315.75	271.75	252.50	247.50	233.75	239.00	219.75	212.75	210.25	200.75	182.75	175.75	166.00	166.25	167.00	153.75	147.00	144.50	141.75	128.75	115.75	99.50	101.25	106.25	108.00	108.50	121.25	148.00	173.75	201.50	231.50	263.50	261.75	253.50	263.75	291.00	325.50	395.00	451.00	508.50	546.75	592.25	651.50	685.50	647.00	591.25	447.25	377.75	356.75	354.00	345.25	325.00	296.25	289.00	271.25	273.00	270.75	267.75	254.50	245.50	247.75	230.50	251.00	269.75	272.75	264.25	275.50	262.00	236.75	228.00	231.50	232.50	213.00	203.75	208.50	193.50	202.75	193.75	185.50	184.25	212.75	237.50	225.25	200.25	183.50	164.50	160.00	157.25	153.50	171.25	185.25	192.50	179.00	197.00	212.75	197.25	184.75	171.50	163.00	144.25	141.50	147.00	144.50	128.25	119.00	135.00	142.25	144.00	141.50	133.00	130.50	128.25	125.75	125.75	125.25	131.00	134.50	130.50	131.25	142.00	161.50	165.75	161.25	159.00	179.50	191.00	185.00	169.75	157.50	185.00	194.50	179.50	163.25	161.25	177.75	188.50	183.75	167.75	148.50	135.50	154.25	160.50	153.50	159.50	162.75	162.75	152.25	131.75	116.00	107.00	108.50
281.00	282.00	234.00	215.00	208.50	184.50	170.00	190.00	195.00	178.50	179.50	181.50	189.00	194.00	251.00	215.00	241.50	283.50	298.50	289.00	292.00	238.00	182.50	142.00	121.00	113.00	127.00	159.00	170.50	162.50	134.50	108.00	94.00	85.50	72.50	74.00	72.00	72.00	60.00	55.00	49.00	50.00	48.50	47.50	47.00	54.50	55.00	53.50	47.00	51.00	50.00	53.50	54.50	62.00	71.50	95.50	105.50	101.00	104.50	110.00	110.00	96.50	90.50	115.00	129.50	112.50	95.00	92.00	86.00	94.50	104.00	119.00	130.00	131.50	141.50	175.00	207.00	168.00	166.50	206.00	242.50	298.50	290.50	217.00	166.50	180.00	156.50	144.50	178.50	207.50	204.00	224.00	236.00	235.50	247.50	283.00	295.00	278.00	261.50	223.00	226.00	268.50	306.00	315.50	319.00	304.50	261.00	248.00	253.50	240.50	250.50	230.50	217.00	207.50	200.50	184.50	181.00	174.00	173.50	173.00	162.50	153.00	152.00	146.50	128.50	113.50	103.50	103.00	105.50	105.50	106.50	113.00	138.50	163.50	194.50	235.50	260.00	250.50	243.00	262.00	297.00	339.00	403.00	425.50	461.00	502.00	574.50	672.50	689.50	607.50	520.00	424.50	365.00	338.00	344.00	350.50	337.50	292.00	284.50	262.00	265.50	264.00	260.50	250.50	247.00	247.00	230.50	256.50	283.50	282.50	270.00	279.50	262.50	236.50	230.00	235.50	230.50	211.50	207.00	211.00	200.50	207.50	206.00	190.50	195.50	243.50	266.50	244.50	214.50	193.00	176.00	168.00	158.50	147.50	155.50	169.00	173.00	171.50	174.50	187.00	175.50	161.50	155.50	146.50	132.50	130.00	137.00	126.50	112.50	112.50	128.00	131.50	131.00	133.00	132.00	130.50	129.00	128.00	129.00	127.50	133.00	136.00	132.00	137.00	151.50	173.50	178.00	172.00	168.00	187.00	197.50	190.00	174.50	160.50	186.00	198.50	181.00	163.00	175.00	193.00	199.00	189.50	171.00	149.00	137.50	163.00	166.00	160.00	167.50	168.50	168.00	157.50	142.50	126.50	106.50	107.00
284.00	263.50	206.50	233.50	220.00	179.00	200.50	190.00	190.00	185.50	189.00	181.50	193.00	225.00	229.50	206.50	239.50	305.50	304.00	277.50	266.00	201.50	178.00	146.00	124.50	121.50	114.00	134.00	158.00	154.00	121.00	106.50	86.50	86.50	72.50	80.50	73.50	78.00	76.50	64.50	57.00	56.00	49.50	53.00	55.50	52.50	50.00	47.50	50.00	55.00	46.50	47.50	60.00	65.50	62.50	80.50	84.50	87.50	84.50	93.00	85.50	87.50	80.00	100.00	111.00	106.50	92.50	84.50	76.50	91.50	102.00	109.50	110.00	116.00	134.00	159.50	181.50	142.00	148.50	191.50	229.50	286.50	270.00	205.00	160.00	155.00	143.00	169.50	214.00	246.00	242.00	260.00	263.00	257.00	251.00	276.50	293.50	286.00	273.00	253.00	254.50	272.00	314.50	335.00	324.00	309.50	292.00	284.00	278.00	273.50	259.50	240.00	222.00	205.50	195.00	191.50	192.00	188.00	180.00	168.50	154.00	150.50	156.50	145.00	129.50	124.00	107.50	104.00	101.50	99.00	104.50	115.00	141.50	171.00	191.00	223.50	245.50	226.50	214.00	250.00	295.50	317.50	359.00	365.00	368.00	414.50	526.50	626.50	613.00	539.50	454.50	390.50	354.00	309.00	304.50	336.50	350.00	298.50	295.00	273.00	259.50	251.50	251.00	238.50	236.00	232.00	232.50	248.00	274.50	274.50	275.50	265.00	249.50	230.00	229.00	231.00	211.50	206.50	214.00	226.50	223.50	235.00	237.50	193.50	210.50	273.00	292.50	277.50	254.50	221.50	200.50	181.00	163.50	159.00	162.50	143.00	148.50	149.50	152.00	155.50	141.50	141.00	144.50	134.50	130.50	128.00	131.50	124.50	123.00	117.00	128.50	131.50	132.50	136.00	136.00	135.00	136.50	137.00	139.00	138.50	138.50	138.00	135.50	150.50	167.00	194.50	201.50	194.00	182.00	194.00	210.50	202.50	187.00	171.00	195.00	202.00	176.50	170.50	197.00	210.00	210.00	196.00	173.50	152.50	153.00	175.50	172.50	176.00	183.00	184.00	182.00	172.50	161.50	154.50	127.00	106.00
313.50	264.00	222.00	234.50	214.50	206.00	219.00	199.00	198.00	209.50	195.50	183.50	183.00	222.50	220.00	230.00	276.50	331.00	302.50	257.50	234.50	174.50	163.50	138.00	149.00	137.50	113.00	122.00	144.00	158.00	132.00	110.50	90.50	93.50	89.50	90.00	83.50	80.50	82.50	72.50	69.50	59.50	59.00	49.50	50.00	49.00	48.50	50.00	53.00	55.50	49.50	46.00	67.00	60.00	62.00	79.50	72.00	73.00	74.50	81.00	80.00	78.00	78.00	91.50	97.50	93.50	80.00	74.50	76.50	90.50	97.00	101.50	103.00	117.00	133.00	151.50	155.50	130.00	162.50	211.50	252.00	266.00	252.50	209.50	165.50	146.50	158.00	180.50	230.50	273.00	293.00	300.50	296.50	277.00	261.50	257.50	259.50	271.50	270.00	280.50	284.00	300.00	316.00	315.00	301.50	308.00	322.00	310.50	303.50	304.00	268.50	244.00	218.50	205.50	206.00	201.00	201.00	191.50	176.00	157.50	141.50	142.00	147.00	146.50	135.00	126.50	107.00	104.00	100.00	101.50	99.50	115.00	140.00	175.00	193.00	216.50	213.00	199.50	203.00	234.00	272.50	290.00	308.50	311.50	334.00	380.50	463.00	525.00	498.00	426.50	391.50	357.00	342.50	304.50	286.50	304.00	324.50	296.00	291.50	279.50	269.00	268.50	257.00	243.50	231.00	229.50	247.50	250.50	269.50	282.50	300.50	291.50	260.00	238.50	230.50	224.50	214.00	214.50	218.50	232.00	241.50	268.50	250.50	202.50	222.00	265.00	316.50	315.00	297.00	259.00	220.50	175.00	168.00	188.00	192.00	158.50	150.00	137.50	153.00	162.50	145.50	139.50	137.00	128.50	137.50	136.50	130.00	129.00	128.00	135.00	138.50	143.00	147.00	151.00	148.50	145.50	143.00	143.50	144.00	145.50	146.00	143.50	139.50	153.00	175.00	218.50	231.50	225.00	207.00	213.00	228.00	217.00	196.50	183.00	203.00	202.50	183.00	193.50	212.50	226.00	219.00	195.00	173.50	161.00	175.50	190.50	181.50	187.50	201.50	201.50	193.50	182.50	170.00	159.00	134.50	112.50
328.00	299.50	235.00	228.00	218.00	252.50	238.50	215.00	208.00	226.50	202.50	208.00	193.00	224.50	263.00	312.00	336.50	345.00	312.00	254.00	220.00	184.00	165.00	165.00	169.00	145.50	125.00	113.50	120.00	149.00	141.00	114.00	91.00	96.50	102.00	100.00	93.50	86.50	86.50	83.00	75.50	61.50	56.00	58.00	60.00	52.00	51.00	48.50	52.50	55.50	49.00	42.00	60.50	62.00	64.00	79.50	77.50	66.00	66.50	73.50	79.50	64.00	66.50	80.00	73.50	72.00	77.00	84.50	69.50	74.00	84.50	95.00	107.50	137.00	136.00	112.50	116.00	139.00	177.50	230.00	258.00	242.00	212.50	200.50	165.50	135.00	161.00	177.00	235.50	271.50	280.50	279.00	290.00	315.50	267.00	240.00	232.00	230.50	236.00	276.50	303.00	336.00	313.50	283.00	266.50	284.00	308.00	321.50	316.50	291.00	260.00	238.00	215.50	207.00	208.50	197.00	201.00	177.00	161.00	145.00	125.00	123.00	125.00	121.50	125.50	119.00	105.00	103.50	105.00	100.50	99.50	116.50	137.50	174.00	195.50	194.50	183.00	185.50	200.00	218.00	235.50	253.50	272.00	290.00	344.50	373.00	405.50	461.50	444.00	370.50	348.00	330.00	325.50	314.50	290.00	269.00	287.00	272.50	268.50	262.50	272.50	277.50	254.00	235.00	229.00	247.50	263.50	265.50	287.00	303.00	323.00	319.50	276.50	240.00	228.00	226.50	217.50	228.00	234.50	245.00	260.00	304.50	280.00	230.00	234.50	284.00	334.00	325.50	291.50	269.50	237.00	196.50	208.00	220.00	197.00	177.00	189.00	183.00	152.00	143.50	141.50	140.50	145.00	142.50	141.00	142.50	137.50	156.00	149.50	161.00	156.00	157.50	162.50	171.00	170.50	166.50	152.50	147.00	155.50	158.00	155.50	153.00	146.50	160.50	187.50	244.50	262.00	259.00	245.50	248.50	250.50	232.00	212.50	196.00	208.00	208.50	208.50	223.50	237.00	239.50	223.50	193.50	171.50	174.00	194.00	204.50	198.50	208.00	217.00	222.00	219.50	200.50	179.00	163.50	123.50	108.00
332.00	333.00	307.00	247.50	230.00	271.50	252.00	223.50	216.50	229.00	239.50	250.00	220.50	250.50	325.00	361.50	372.00	380.00	341.00	284.00	254.00	242.50	203.00	189.00	172.00	150.00	128.50	110.50	111.50	125.00	118.00	125.00	99.50	106.00	106.00	110.50	98.50	94.00	92.50	86.50	76.50	70.00	67.00	61.00	54.50	51.00	51.50	51.50	61.50	55.50	52.50	49.50	54.00	58.00	72.50	91.50	76.00	63.50	65.50	71.00	76.00	63.50	67.50	75.00	72.00	77.50	101.50	117.50	96.50	71.00	77.00	86.50	99.50	136.00	119.50	99.50	115.00	143.00	183.00	225.00	246.00	235.50	190.50	170.00	143.00	128.00	166.50	199.00	249.00	268.50	247.00	230.00	257.00	287.50	286.50	250.00	231.50	204.50	215.50	248.00	271.00	300.00	299.50	279.50	251.50	251.50	287.00	316.00	315.00	272.00	229.50	213.50	206.00	201.00	198.00	190.50	188.00	157.50	144.00	130.50	123.50	129.00	123.00	126.50	128.50	123.00	112.50	105.50	103.00	96.50	92.00	116.50	135.50	167.00	194.00	173.00	161.00	175.50	183.50	193.00	201.00	234.50	310.00	330.00	353.00	368.50	379.00	401.00	382.50	336.00	317.50	300.00	304.50	311.00	297.00	267.50	257.50	250.50	247.00	244.50	268.00	276.50	251.00	229.50	243.00	265.50	275.50	283.00	312.50	330.00	343.50	321.00	278.50	245.50	241.00	239.00	230.50	252.50	260.50	269.00	283.50	313.50	308.00	281.00	265.00	293.50	322.50	309.50	261.50	225.00	192.50	204.50	236.00	246.00	211.50	210.50	212.50	199.00	171.00	146.50	144.00	155.50	157.50	142.50	152.50	166.00	165.50	197.00	195.00	191.00	178.00	165.50	169.50	189.00	200.00	191.50	167.00	154.50	163.50	169.00	169.00	164.00	157.00	174.00	208.50	268.00	282.00	288.50	289.00	286.50	275.00	249.00	226.00	205.50	209.00	219.00	237.00	250.00	258.00	252.50	229.00	201.00	181.00	194.50	216.00	227.00	217.00	229.50	239.00	241.00	235.50	217.00	186.00	161.50	123.00	109.50
367.50	366.50	349.50	280.50	264.25	268.50	263.75	251.75	254.25	276.00	299.75	313.50	313.25	336.25	343.75	334.25	371.25	390.25	355.00	343.50	337.75	265.50	241.50	211.50	178.50	156.50	140.25	117.25	113.00	106.75	101.75	115.25	109.25	110.75	103.50	105.75	106.00	106.50	102.25	93.75	87.25	88.50	86.25	72.00	56.75	51.75	55.25	57.00	56.50	55.00	52.25	52.50	55.75	54.25	54.50	55.75	56.75	58.75	65.50	68.50	70.50	60.75	68.50	71.75	65.75	67.00	76.75	82.75	107.25	103.25	87.00	77.25	74.50	92.00	98.25	112.50	124.25	162.00	186.50	180.75	212.00	223.00	188.50	148.75	130.00	150.50	181.50	197.00	260.00	269.00	233.50	202.25	219.50	260.50	289.00	264.25	229.75	193.75	196.25	228.50	249.00	279.25	316.00	291.50	247.25	227.50	276.00	311.75	301.00	275.50	222.25	194.50	181.75	177.75	177.50	170.75	160.50	140.25	136.00	138.75	159.25	165.75	163.00	154.50	148.75	139.25	125.00	112.25	110.75	105.50	107.75	120.00	131.50	152.75	164.25	158.25	161.75	178.25	201.75	210.25	224.75	242.75	281.50	285.00	314.00	322.00	311.50	309.25	295.25	280.50	280.50	265.50	278.00	285.50	279.75	261.00	243.25	229.50	226.75	241.50	262.25	278.25	261.50	258.25	270.50	283.25	299.25	334.50	374.50	387.25	362.75	309.00	274.00	270.00	277.75	272.00	264.75	280.50	272.25	280.25	312.00	308.75	315.75	340.25	326.75	342.75	332.00	292.75	268.25	259.50	251.00	244.25	267.75	291.50	274.50	269.75	251.00	222.25	163.00	144.25	165.25	169.00	167.00	179.50	197.25	213.25	203.25	235.75	235.00	209.00	194.75	176.75	178.75	215.75	240.75	227.50	191.75	176.25	194.50	197.75	185.25	178.75	166.25	178.75	212.50	273.00	287.50	301.25	312.25	317.50	301.25	270.75	242.25	217.00	219.50	232.25	261.25	280.25	281.75	270.25	237.00	199.00	192.75	220.50	242.00	259.00	260.50	267.25	267.75	260.25	246.25	211.50	171.50	148.50	125.25	117.50
380.50	369.00	355.00	286.00	282.00	275.00	277.00	261.50	274.00	297.00	314.00	346.00	350.50	368.50	347.50	313.50	351.00	383.50	352.00	351.00	345.00	258.00	245.00	216.50	182.00	157.50	145.50	119.00	113.50	106.00	100.00	107.50	112.50	110.00	106.50	105.00	108.00	109.50	104.50	95.50	89.00	91.50	86.00	70.00	59.00	53.50	56.50	60.50	60.00	55.00	50.50	53.50	56.50	54.50	52.00	48.00	49.00	59.00	66.50	65.00	66.50	58.00	65.50	69.00	66.00	63.50	74.50	78.00	100.00	109.50	95.50	86.00	71.50	87.00	99.50	118.00	130.50	168.00	191.00	171.50	205.00	217.00	183.00	143.00	132.00	162.00	195.00	207.50	262.50	265.50	228.50	195.50	213.00	258.00	285.50	267.00	231.50	193.50	199.00	232.00	247.00	277.50	316.50	294.00	247.00	226.50	278.50	314.00	297.50	273.00	221.50	192.50	177.00	169.00	169.00	162.00	151.00	137.50	137.00	145.50	170.50	177.00	172.00	161.50	152.50	140.00	128.00	114.50	113.50	109.00	112.50	121.00	130.00	149.50	152.00	157.00	165.50	184.50	213.50	220.50	228.50	237.00	258.50	263.50	292.50	298.50	287.50	289.50	274.50	265.50	269.00	256.00	272.00	276.50	269.00	256.50	241.00	226.50	222.50	244.00	262.50	274.00	268.00	267.00	276.00	293.00	309.50	354.00	396.00	402.50	368.50	308.00	277.50	283.50	289.50	284.50	271.00	279.50	264.00	270.00	304.50	292.00	303.00	351.50	344.50	356.00	336.50	290.00	270.00	287.50	280.00	266.00	282.50	309.50	301.50	285.00	255.00	219.00	158.00	147.50	171.50	164.00	168.00	188.50	202.50	219.00	214.00	247.50	240.00	209.00	195.00	180.00	180.00	220.50	252.50	240.50	202.00	186.50	207.00	207.50	190.50	184.50	170.00	174.50	205.50	261.00	280.00	300.50	316.50	327.00	310.00	278.00	249.50	222.50	223.50	235.00	265.50	288.50	292.00	277.50	239.00	198.50	200.50	231.00	251.00	269.00	278.50	281.00	277.50	262.50	242.00	202.50	163.00	144.00	126.00	121.00
417.25	406.25	383.00	358.50	375.75	382.75	364.25	341.25	352.25	373.75	400.00	387.00	336.25	311.50	287.50	254.75	282.00	289.00	276.00	289.75	302.75	251.50	261.00	191.50	176.00	166.25	146.75	122.50	114.50	108.25	103.50	102.00	100.25	101.50	99.75	100.50	107.25	117.50	110.75	102.50	98.75	97.25	87.25	72.50	55.50	51.25	58.00	58.25	63.00	57.00	55.00	53.75	58.00	58.25	57.50	53.00	50.75	55.50	60.00	57.75	55.50	59.00	59.75	60.00	59.00	66.50	74.50	77.75	96.00	109.00	111.25	110.50	100.75	87.75	79.75	101.75	133.50	141.25	138.75	131.25	155.00	149.00	126.25	122.75	142.00	173.50	193.75	218.75	269.50	246.75	211.25	178.25	205.00	237.25	235.75	219.00	195.50	187.50	206.00	263.25	278.75	283.75	269.50	251.00	221.50	234.25	282.75	302.75	275.25	253.00	208.50	185.75	174.75	164.00	157.00	154.25	145.25	152.25	164.25	181.25	201.25	190.50	172.75	157.00	139.75	130.25	120.75	116.50	112.50	110.75	116.75	117.25	116.00	124.75	127.50	152.00	168.00	173.50	186.00	206.00	203.50	204.00	203.25	206.75	228.25	236.75	247.75	251.75	237.00	229.50	235.00	240.25	260.50	256.75	242.75	236.75	237.25	215.75	216.50	241.00	253.25	262.25	269.50	285.50	292.00	319.75	348.50	392.25	430.00	410.50	375.75	315.25	324.00	338.00	318.00	284.50	257.50	252.50	242.75	226.00	247.00	257.50	268.50	332.25	344.25	327.75	295.75	288.75	302.75	311.75	310.75	323.75	345.00	326.25	280.75	241.00	193.25	164.75	151.50	162.75	167.75	171.00	167.75	193.50	236.50	248.75	273.50	283.75	261.25	221.00	209.25	191.75	198.50	242.75	277.50	275.50	242.00	232.00	244.75	236.00	200.25	185.50	174.75	177.75	187.00	209.25	234.75	281.50	316.75	347.50	342.00	303.50	271.00	248.75	255.25	261.75	282.50	304.00	307.25	289.75	246.25	211.25	230.75	262.75	286.25	308.50	314.50	297.00	277.75	249.25	220.00	181.50	147.50	136.75	129.75	124.75
445.00	463.00	467.50	440.00	423.25	466.25	446.00	419.00	393.00	399.50	404.75	380.25	324.50	291.25	294.75	287.00	279.75	259.00	239.75	227.75	244.00	253.25	255.50	181.00	176.75	168.50	148.00	128.00	120.25	115.25	105.75	103.25	98.25	94.50	89.75	92.25	98.25	111.00	105.50	100.75	103.50	104.75	93.50	76.75	69.00	66.25	68.50	60.50	62.25	61.00	56.00	55.50	58.50	58.25	56.50	51.00	50.00	53.50	56.50	56.00	55.00	60.50	60.25	61.75	62.25	71.50	83.50	77.50	95.00	101.25	118.25	122.75	117.50	103.50	90.75	87.50	100.75	112.75	112.50	116.25	124.75	121.25	116.25	130.00	142.25	166.75	187.25	214.00	247.50	221.00	194.50	170.00	198.00	211.75	205.75	188.50	178.50	196.50	216.00	270.50	275.75	275.25	257.25	225.50	210.75	238.00	290.00	303.75	277.00	247.75	207.75	188.00	176.00	169.75	164.00	163.00	156.00	168.25	183.00	197.50	201.50	189.00	167.00	154.25	134.50	125.75	116.25	113.00	114.25	118.25	122.50	122.25	121.25	125.25	128.75	135.00	147.00	151.75	166.00	189.25	186.25	186.00	180.25	184.75	206.00	212.00	221.50	225.00	216.75	213.50	221.75	238.00	252.50	248.75	239.00	234.25	226.00	207.50	211.75	232.25	236.00	245.75	252.50	273.75	299.25	318.75	370.00	423.50	443.25	416.00	375.00	315.50	348.00	358.75	327.00	291.75	260.25	249.50	237.50	223.25	220.25	237.00	258.50	321.00	328.50	295.25	258.00	278.50	310.00	312.75	309.25	323.00	333.75	286.25	226.75	195.25	159.25	151.75	158.00	181.75	188.25	182.00	166.00	195.50	259.75	269.75	297.00	304.50	279.00	240.25	223.00	202.50	207.00	246.25	282.25	292.25	278.50	270.00	262.25	244.75	201.75	183.25	184.50	204.50	215.00	212.75	222.50	268.75	310.50	356.00	368.50	328.00	290.50	270.50	280.00	280.25	283.75	307.50	313.75	293.25	256.50	239.00	259.25	283.25	302.00	323.50	327.00	294.75	264.25	228.25	196.00	164.75	140.25	134.00	129.50	123.75
460.00	492.50	529.25	497.50	432.75	441.75	428.75	415.25	372.25	370.00	374.25	367.25	354.50	345.50	339.50	316.50	285.75	267.75	234.50	200.50	193.25	233.25	235.50	179.00	165.50	161.25	147.75	138.50	126.50	116.50	113.00	104.25	98.25	94.00	86.25	83.25	85.75	99.50	96.50	96.25	100.75	108.25	94.50	79.50	80.25	84.00	83.25	72.00	64.25	60.50	56.50	57.75	58.75	56.50	56.25	51.25	50.00	55.00	58.75	56.50	55.50	59.75	60.00	59.25	64.25	78.00	96.75	90.00	91.50	96.75	125.75	128.00	128.75	119.25	106.00	95.75	96.50	116.75	121.00	119.50	126.00	130.00	137.50	150.00	157.00	176.00	206.50	227.00	230.75	202.00	178.00	162.75	180.00	183.00	179.00	177.50	188.50	220.75	237.50	258.00	247.50	253.50	257.50	217.50	202.25	234.00	286.75	299.00	286.00	258.75	217.75	197.75	187.25	182.50	183.75	173.00	169.50	184.00	195.25	203.25	191.00	178.50	157.75	147.50	132.50	122.75	112.00	115.25	122.75	124.00	125.00	127.25	128.50	131.75	134.25	123.75	133.75	137.25	154.50	170.25	170.25	171.00	164.75	175.25	195.00	198.50	199.00	205.50	200.50	202.50	210.25	238.25	240.00	233.25	236.00	236.00	217.50	198.75	196.25	213.00	217.25	225.25	237.00	265.75	313.00	329.50	381.50	431.00	446.00	425.00	389.00	340.75	359.50	366.75	332.00	307.25	285.00	266.50	255.25	240.75	220.75	212.00	248.25	291.50	292.50	259.00	227.25	255.50	279.50	271.75	271.75	277.00	286.00	236.75	187.75	166.00	153.25	156.50	169.75	221.25	227.00	201.25	173.00	195.00	256.25	272.50	305.00	324.75	309.25	265.25	248.75	223.50	224.00	256.25	287.50	305.00	298.75	283.00	260.50	238.00	197.50	184.75	205.25	236.25	250.75	239.25	229.50	250.50	286.50	338.50	384.50	364.75	322.25	298.50	317.75	311.50	297.50	315.50	319.50	298.50	285.00	279.50	280.75	286.00	293.50	306.75	313.00	281.75	250.75	212.75	177.50	149.25	132.75	129.25	126.00	122.00
450.25	481.25	517.00	474.25	399.00	345.50	336.50	344.50	312.75	322.50	336.75	353.25	381.75	396.00	354.75	318.50	281.00	267.25	240.50	205.25	175.25	202.00	223.75	180.25	160.25	156.25	156.00	140.25	131.25	115.50	115.75	111.75	99.50	97.25	93.25	79.75	82.75	97.25	90.25	91.75	92.00	99.25	91.50	85.00	89.50	94.75	96.25	84.25	74.75	63.75	55.75	57.75	57.25	56.25	55.00	52.00	51.75	57.00	59.75	58.00	57.75	57.00	60.75	61.00	68.00	77.25	101.50	98.75	93.25	100.75	129.25	130.75	135.50	128.75	110.00	112.25	124.75	138.75	141.75	128.50	137.75	155.75	172.75	184.25	196.00	205.00	218.25	224.00	219.25	192.75	165.00	155.50	163.00	170.25	180.00	185.00	211.00	249.75	265.25	243.25	222.25	226.25	243.25	209.25	191.75	223.00	272.75	292.00	298.75	276.00	228.75	212.75	209.25	205.75	206.00	186.50	188.75	195.75	200.25	199.00	179.00	166.25	147.50	136.50	128.00	121.00	121.75	130.25	134.00	130.25	128.75	130.25	129.00	133.25	135.00	121.50	124.00	128.00	146.00	148.50	153.25	159.75	159.25	173.75	187.00	187.75	183.25	188.50	188.25	194.25	207.50	231.75	224.00	216.75	228.00	230.25	210.50	193.50	195.25	206.75	221.00	226.75	232.75	269.00	336.00	366.75	397.50	435.50	452.00	437.00	412.50	369.75	352.25	338.50	310.50	298.50	286.00	271.00	265.50	249.50	232.25	202.25	225.25	247.25	248.25	237.75	210.75	227.00	239.75	222.50	224.00	227.00	235.75	197.50	165.75	160.50	164.50	172.25	191.00	256.50	266.00	227.25	188.25	191.50	229.50	254.50	293.75	327.75	334.25	300.50	287.75	259.00	256.25	283.25	301.75	303.75	284.00	262.75	238.50	222.50	195.75	198.25	237.50	272.25	289.00	273.75	252.75	238.25	260.50	308.50	372.75	396.75	367.00	333.25	360.25	355.25	328.75	333.75	333.50	321.50	324.50	314.00	289.50	268.50	260.50	263.50	272.25	251.50	230.25	199.25	169.25	144.00	130.25	128.00	124.50	125.00
425.00	471.00	485.75	433.50	377.00	307.75	299.50	308.25	281.50	291.75	314.00	335.50	393.25	402.00	339.50	299.50	270.00	259.75	245.00	218.00	177.50	184.00	206.25	169.00	160.25	152.00	153.50	130.50	136.50	128.00	120.25	120.75	96.50	92.00	98.75	83.25	86.00	96.50	85.50	85.75	83.25	85.25	86.75	88.00	92.00	103.50	108.75	98.75	92.00	80.50	61.00	60.75	56.25	58.25	54.50	52.75	52.75	56.50	60.25	60.25	57.00	55.00	60.75	64.50	70.00	75.00	96.00	93.75	101.25	107.75	134.50	147.75	152.00	133.00	117.00	126.25	146.75	162.00	157.75	141.75	141.50	173.75	208.00	231.50	248.75	241.50	215.00	199.25	192.75	179.75	156.00	151.50	168.50	190.50	213.75	210.50	234.00	273.50	283.25	233.50	212.50	204.50	218.25	197.50	183.25	208.75	253.25	279.25	298.00	286.75	249.00	234.00	234.00	232.75	221.00	200.25	206.00	196.50	200.00	192.00	169.75	156.00	142.75	131.00	125.50	120.25	142.00	149.50	143.00	138.00	135.75	133.75	129.75	135.00	134.50	130.75	131.50	124.50	136.50	144.75	151.25	152.50	155.25	170.50	174.75	171.00	169.75	173.25	182.00	199.00	211.25	217.00	208.25	208.50	216.00	217.00	200.25	194.75	212.25	220.25	239.75	247.25	247.75	283.50	350.25	397.00	421.00	452.50	465.75	455.00	438.50	378.75	345.25	315.50	297.25	290.75	279.25	271.25	257.50	243.00	225.25	204.75	209.50	210.50	205.75	211.00	199.00	211.50	213.75	197.50	193.50	196.50	200.00	175.75	161.75	168.75	184.25	200.75	216.25	266.25	294.25	253.25	205.25	187.50	202.25	230.25	271.25	317.75	356.00	350.25	332.00	303.25	298.00	308.50	306.50	287.25	255.00	242.50	234.75	226.75	208.50	214.00	264.00	312.75	336.75	315.75	285.50	251.50	255.25	290.75	350.25	406.25	412.00	381.75	388.00	384.75	351.25	345.00	348.00	349.00	354.25	338.75	301.75	266.50	244.75	223.75	221.50	213.00	203.00	179.50	156.75	139.25	128.75	127.25	125.00	130.50
409.75	453.00	451.50	418.50	379.75	334.50	323.75	321.75	293.50	280.75	283.75	312.00	387.00	378.50	334.25	284.00	254.00	250.00	241.00	220.00	180.00	184.75	180.75	152.25	152.50	144.25	136.25	122.00	135.25	136.50	122.75	120.50	92.00	89.00	94.25	85.50	85.00	87.75	82.00	79.25	77.00	77.25	78.50	79.75	87.25	107.75	117.00	108.00	101.00	95.50	71.00	63.00	54.25	57.75	54.00	53.00	53.25	55.00	58.50	59.75	56.25	57.25	61.50	64.75	68.00	76.25	88.50	88.50	104.00	111.50	140.25	163.75	173.75	144.50	127.50	133.00	149.25	168.75	170.75	161.00	149.00	173.75	216.25	259.75	283.50	257.75	207.25	183.75	166.75	162.00	151.75	150.75	185.25	220.50	246.75	241.25	247.75	275.75	270.75	221.00	202.25	185.25	193.25	184.00	178.00	199.75	233.25	256.25	280.00	298.25	279.00	261.00	258.00	252.50	234.00	210.00	208.00	191.25	191.00	179.75	160.25	151.50	142.25	131.50	123.50	128.00	157.00	159.75	146.00	141.25	142.75	139.25	132.75	136.25	134.50	137.75	147.75	132.25	130.50	147.25	156.25	147.00	152.00	160.50	161.25	158.50	166.00	176.00	191.25	210.50	212.25	200.75	193.25	204.00	203.25	201.00	187.25	197.00	220.00	234.50	253.25	265.25	268.25	288.50	332.00	379.25	416.50	445.50	459.50	456.00	440.25	378.75	358.25	339.25	326.25	320.75	306.50	293.00	263.00	237.50	216.00	204.50	206.50	197.75	192.50	190.00	194.00	215.50	217.50	204.00	198.50	190.75	186.00	171.25	176.00	190.75	212.00	238.25	254.50	268.00	296.50	258.00	212.50	186.75	189.50	218.00	257.00	311.00	376.75	400.00	380.00	349.75	334.50	324.00	298.00	268.00	251.00	258.00	278.00	273.50	232.25	221.00	269.75	339.75	391.25	366.00	322.00	281.75	276.00	294.00	347.75	412.50	437.75	416.25	396.00	384.50	345.00	332.50	335.75	345.25	356.50	340.50	306.25	274.00	250.00	217.75	189.00	176.50	172.75	158.75	144.75	135.25	129.25	131.75	130.50	134.00
401.00	408.75	410.50	404.00	385.00	376.25	358.50	349.75	319.25	283.00	258.25	284.00	365.00	367.25	345.00	288.50	244.75	230.25	220.00	208.25	180.75	185.00	159.50	147.50	141.75	134.00	129.50	120.50	123.25	124.00	114.75	112.00	97.25	99.25	94.00	89.25	88.75	88.75	86.25	76.75	76.00	75.50	71.50	67.75	80.25	97.75	107.00	104.75	101.00	93.00	74.75	58.50	49.75	54.50	53.75	52.50	53.00	53.00	54.50	55.25	56.75	60.00	62.75	62.50	67.75	79.75	86.50	88.00	110.25	120.00	142.75	163.00	184.75	163.25	141.75	136.50	146.00	157.25	176.50	183.25	171.25	180.25	206.50	251.75	287.50	258.50	200.25	180.25	162.00	155.50	148.75	149.00	189.25	226.25	243.50	243.75	240.00	243.75	235.00	208.00	190.75	168.00	166.75	164.50	167.50	188.50	213.75	235.25	271.25	301.50	303.00	289.50	281.50	262.50	241.25	208.25	198.75	187.50	177.50	166.75	148.75	146.25	137.25	130.75	132.75	151.00	167.00	164.75	149.25	150.50	152.25	141.25	136.25	134.25	134.75	137.50	144.00	141.75	132.50	135.00	143.25	138.50	153.00	150.50	154.25	159.25	176.50	196.00	210.00	216.75	206.25	190.25	187.75	190.50	186.00	183.00	174.50	200.75	215.50	234.50	251.00	263.25	264.75	272.25	296.00	329.25	365.00	399.75	437.25	453.75	428.00	366.50	350.25	349.25	348.25	347.00	324.25	299.50	271.75	234.00	206.50	200.75	208.00	212.25	218.75	204.75	209.00	237.50	248.25	219.25	212.75	199.25	182.50	180.00	212.75	233.00	247.50	280.50	301.25	274.00	272.25	237.75	210.75	199.25	193.75	213.00	247.25	301.75	367.00	430.50	423.00	386.00	350.75	323.25	288.50	264.00	277.00	303.50	343.00	333.75	259.00	227.75	263.50	331.00	392.25	398.50	354.25	313.00	309.25	313.50	366.00	422.00	422.50	391.00	372.00	369.50	324.00	301.25	302.25	322.75	343.00	317.25	282.50	260.25	244.00	221.25	180.25	152.75	148.25	144.00	139.00	133.75	137.00	148.00	142.00	140.75
384.00	343.50	371.00	385.50	400.50	402.00	378.50	376.00	336.50	314.50	276.00	246.50	296.50	344.50	349.00	306.50	243.50	215.00	195.50	179.50	166.50	156.00	134.00	129.50	123.50	122.50	120.50	107.00	114.50	122.00	132.00	120.50	117.50	120.00	110.50	110.50	108.00	100.50	88.00	80.50	87.50	73.50	67.50	71.00	69.50	71.50	76.50	82.50	80.50	77.50	65.50	56.50	50.50	52.00	57.50	55.00	50.50	56.50	60.00	55.00	52.50	53.50	61.00	59.00	63.50	72.00	81.50	88.50	112.00	135.50	170.00	196.50	211.00	185.50	151.50	138.00	146.00	151.00	176.00	202.50	225.50	235.00	221.00	224.50	262.50	265.00	222.00	205.50	190.00	171.00	148.00	139.00	163.00	181.00	200.00	227.50	236.50	184.00	173.00	174.50	161.50	144.00	144.50	157.00	182.50	196.00	210.00	227.00	250.00	277.00	305.00	309.00	294.00	260.50	241.50	205.00	193.50	192.50	186.00	172.00	152.00	140.50	128.00	136.00	168.50	184.50	184.00	166.50	159.00	180.00	166.50	139.00	133.00	129.50	150.50	150.50	142.00	149.50	140.50	138.50	140.50	130.50	139.00	149.00	162.00	179.00	199.50	221.00	228.00	216.00	201.50	176.00	172.00	166.00	169.00	178.00	175.50	204.50	211.50	223.50	221.50	226.50	234.50	257.50	283.50	298.50	320.00	381.50	448.50	446.50	410.00	337.50	311.00	290.00	294.00	309.50	307.50	271.00	235.00	216.00	209.50	225.50	218.50	239.50	264.50	243.00	250.50	281.00	270.50	225.00	242.00	222.50	189.00	201.00	264.50	297.00	314.50	343.50	319.00	279.00	234.50	230.00	250.00	246.00	204.00	193.00	211.00	282.00	329.00	409.50	429.00	398.50	353.50	313.00	290.50	309.50	348.50	382.00	409.00	376.00	286.50	247.00	255.00	297.00	338.50	410.00	410.50	380.00	369.00	363.50	392.50	414.00	378.50	330.00	298.50	318.50	298.00	262.50	259.50	302.00	344.00	308.00	244.50	213.50	210.00	195.00	169.00	145.50	135.50	131.50	130.00	145.00	166.50	169.00	147.50	151.50
387.75	354.25	361.50	371.75	396.00	399.25	375.25	370.75	343.00	341.75	290.75	253.75	277.50	321.75	338.00	301.75	241.25	209.75	190.50	173.75	161.25	151.75	128.75	132.50	125.50	119.75	119.00	116.50	121.00	128.50	136.00	125.50	122.75	119.25	109.25	110.75	109.25	99.00	91.75	81.25	86.25	75.75	68.25	69.25	69.25	73.75	75.25	78.00	75.25	72.75	61.75	56.50	53.25	52.50	57.00	54.25	50.75	54.50	59.00	54.25	51.00	51.25	58.25	60.75	66.25	71.00	80.75	88.50	119.00	140.75	182.50	210.50	223.00	187.50	151.25	142.00	152.75	156.00	169.00	195.00	222.25	244.75	240.25	232.25	251.75	266.75	238.75	220.50	189.50	167.75	149.00	139.75	154.00	171.50	196.00	231.00	237.00	186.75	169.25	160.50	150.50	139.50	147.25	167.50	193.25	205.50	214.50	214.75	236.25	259.50	291.50	300.75	289.00	255.25	237.25	207.25	200.00	200.75	191.00	173.00	150.00	140.50	131.00	144.25	174.75	187.75	187.75	170.50	162.75	185.00	164.25	138.00	134.00	136.75	158.25	156.00	140.75	146.00	147.00	140.25	142.50	135.25	138.75	148.50	159.25	178.75	204.50	224.00	222.25	214.75	201.50	172.25	168.25	160.50	168.50	181.50	183.00	200.50	206.25	217.00	216.75	222.50	241.25	267.00	299.50	318.25	350.25	408.25	439.50	423.25	404.25	355.00	329.50	300.00	285.75	287.00	284.75	255.75	225.75	218.00	229.25	245.75	230.25	241.75	265.25	251.75	263.25	286.75	265.75	242.75	261.50	225.75	195.25	204.50	266.75	306.75	330.50	353.50	324.75	277.00	238.25	256.50	274.75	255.00	211.75	199.00	211.50	271.25	320.75	400.00	425.00	401.75	359.75	317.50	304.50	340.00	383.25	408.50	412.00	372.50	288.00	253.00	259.25	294.75	335.00	417.25	429.00	408.25	395.75	388.00	402.50	410.50	376.25	331.00	286.25	296.75	286.75	255.75	249.50	290.25	329.25	300.75	242.50	204.75	195.25	180.25	158.50	144.00	137.00	135.75	141.50	161.50	177.00	168.75	147.50	158.50
389.00	361.50	342.00	332.50	361.50	359.50	347.50	346.00	359.50	401.00	362.00	353.00	252.50	236.50	276.50	270.50	226.00	188.50	173.50	162.50	150.50	131.50	135.00	156.00	142.00	125.00	146.50	157.00	149.50	152.50	142.50	131.50	123.50	112.50	104.50	104.50	105.50	94.00	88.00	85.50	86.00	77.00	66.00	69.50	67.50	68.00	69.50	71.50	67.50	66.50	58.00	56.00	58.50	58.00	54.50	49.00	48.00	51.00	50.00	52.50	50.00	51.50	49.00	63.00	62.50	62.50	78.00	90.00	143.00	143.00	170.50	194.00	215.00	169.00	161.50	170.00	175.50	181.00	178.00	201.50	229.00	267.50	306.00	273.50	249.00	278.00	271.00	241.00	192.00	178.50	155.00	148.00	137.50	153.00	194.00	230.50	219.00	184.50	162.50	122.00	121.00	149.00	164.50	193.50	224.00	238.00	215.50	197.50	226.50	243.00	281.00	287.00	263.00	237.00	221.00	208.00	203.00	199.00	187.00	170.00	153.50	145.00	152.50	165.50	188.00	200.50	191.00	177.00	172.00	170.00	153.50	139.50	138.00	163.50	182.50	173.50	132.00	151.50	158.50	145.00	132.00	141.00	130.00	133.00	144.00	157.00	188.50	196.50	193.00	200.50	192.00	162.50	162.50	165.00	169.00	182.50	199.50	197.00	194.00	205.00	218.00	219.00	255.50	274.00	315.00	361.00	426.00	452.00	400.50	357.00	366.00	377.50	353.00	307.00	288.00	266.00	232.00	228.00	248.50	258.00	278.00	291.00	256.50	242.50	278.50	280.00	293.50	295.00	267.00	293.00	287.50	226.50	210.00	214.00	257.50	314.50	366.00	383.00	349.00	269.50	280.00	338.00	348.00	308.00	243.00	226.50	219.50	228.50	274.00	377.00	423.00	437.00	394.50	346.00	347.50	396.50	443.50	437.00	380.00	338.00	285.50	284.00	307.00	331.00	369.00	451.50	466.50	437.50	411.00	419.00	429.00	393.00	357.00	329.50	275.50	246.50	243.00	226.00	222.50	253.00	266.50	246.00	209.50	176.00	163.00	156.00	148.00	144.50	148.50	175.00	213.00	210.50	186.00	165.00	159.00	185.50
