102.25	101.75	101.75	101.25	102.00	101.00	100.25	100.00	99.50	99.75	101.50	99.75	100.25	101.50	100.25	101.00	99.50	99.00	101.25	100.25	100.00	100.75	101.50	101.50	101.50	101.00	97.50	98.50	98.50	97.50	97.50	96.50	97.25	100.25	99.00	97.50	96.00	96.00	96.25	96.50	99.00	97.75	97.00	97.25	96.75	98.50	99.25	99.00	98.50	98.25	98.75	97.50	93.50	95.50	96.00	96.50	96.75	96.50	97.00	95.75	95.50	94.75	95.00	94.25	94.25	93.25	92.50	92.00	92.75	89.50	90.50	90.00	90.00	91.50	90.50	90.75	90.25	89.50	88.75	88.50	89.75	90.00	86.50	89.75	89.25	89.00	88.50	86.50	85.50	85.50	84.25	83.75	84.25	83.50	83.00	83.75	82.75	83.00	83.25	82.25	82.75	83.00	82.25	83.00	82.50	82.50	81.75	84.75	91.50	77.25	78.00	78.00	80.00	80.50	83.50	85.50	85.25	86.00	87.25	85.50	86.50	85.00	85.00	86.50	87.00	88.25	90.50	91.00	91.75	93.75	97.75	97.25	100.25	102.00	101.00	95.50	95.00	95.50	96.50	101.25	117.25	134.75	113.50	108.50	111.00	117.25	123.50	129.00	131.00	125.25	120.50	123.25	130.25	134.25	133.00	136.00	148.25	172.25	211.50	437.50	525.00	472.25	648.25	556.00	484.50	494.50	435.25	344.75	431.00	361.25	229.00	186.00	161.50	152.25	166.75	201.00	267.50	201.50	177.00	188.00	196.75	205.50	183.75	183.75	205.50	224.25	205.25	217.50	203.00	198.25	196.00	199.75	211.50	233.00	241.00	280.75	415.75	372.75	391.25	523.75	571.50	570.75	562.25	568.00	593.50	601.25	623.50	643.25	643.75	602.50	602.50	605.25	628.25	675.25	684.50	660.75	659.00	664.50	655.25	635.25	612.75	552.75	502.00	505.50	525.00	517.50	495.50	516.25	542.75	490.75	444.00	399.00	408.50	365.50	312.50	285.00	275.50	279.00	272.75	262.25	249.25	254.75	272.50	274.75	285.50	266.25	235.50	228.50	232.75	228.50	213.50	233.25	232.50	231.00	231.25	249.75
103.25	102.00	102.00	102.00	101.00	100.50	100.00	99.75	100.75	100.25	100.75	100.50	99.50	101.00	101.25	99.75	98.75	99.50	99.50	100.00	100.50	100.75	101.00	101.50	101.75	101.00	97.00	97.25	97.00	96.50	96.50	96.00	96.75	100.25	99.25	98.50	98.25	98.25	99.50	99.00	99.25	99.50	99.25	98.50	100.00	99.50	99.00	98.25	99.00	99.00	98.25	97.50	97.25	97.25	93.75	96.25	96.75	96.50	94.75	95.00	94.75	95.75	94.75	95.00	93.75	93.50	90.25	91.00	90.25	91.25	92.50	92.00	88.25	88.25	88.50	88.75	88.75	88.25	87.25	87.50	88.50	90.75	90.50	89.00	89.50	90.00	88.50	87.00	85.50	85.25	84.75	84.25	84.00	83.50	85.00	84.50	84.75	85.00	83.75	83.00	83.25	83.50	83.25	83.25	83.25	82.00	81.00	98.25	89.25	78.00	77.50	78.75	80.25	83.00	85.25	84.50	85.25	86.50	89.00	88.00	89.00	85.25	84.75	86.00	86.50	88.25	90.00	91.00	92.25	92.50	94.00	99.00	101.50	102.50	103.00	98.75	98.50	99.00	96.75	103.00	110.00	162.25	120.25	114.00	115.75	122.75	133.75	137.25	134.50	129.50	127.25	129.00	133.25	140.75	143.75	140.50	146.00	159.50	176.75	316.00	364.00	351.25	639.25	604.25	504.75	449.75	430.00	360.75	412.25	333.25	259.00	207.50	174.75	153.50	166.00	209.75	279.75	219.75	194.75	201.75	202.50	203.25	174.75	180.25	198.75	206.75	217.50	218.50	216.25	215.25	216.25	196.25	216.50	218.00	219.00	238.25	300.00	302.75	368.50	427.25	546.25	571.25	564.75	560.50	577.25	588.50	626.25	653.50	650.00	608.25	592.75	587.50	604.50	683.50	687.50	678.25	649.75	651.50	649.75	623.00	604.00	563.00	481.00	480.75	511.00	521.25	495.00	520.50	547.75	498.75	439.00	407.75	373.75	345.25	316.50	296.25	300.25	315.25	280.25	283.50	263.50	248.75	249.75	265.25	272.00	274.00	244.00	238.75	247.75	239.75	217.00	208.00	210.25	208.75	210.00	221.25
103.00	102.25	102.00	102.00	101.50	100.50	100.00	101.00	101.50	101.75	100.75	100.75	100.25	100.25	100.75	100.00	99.50	100.50	100.25	100.50	100.00	100.25	100.25	99.75	100.00	100.50	97.25	97.25	96.50	97.25	97.25	98.25	97.75	99.75	99.50	98.50	98.25	99.00	99.25	98.50	99.00	99.00	99.75	100.00	99.50	99.00	99.00	98.50	96.00	96.25	95.50	95.25	95.75	96.25	93.00	92.75	94.50	93.50	92.00	93.50	92.75	92.75	92.50	93.00	92.25	94.25	91.50	91.75	92.50	93.50	93.00	92.25	89.75	90.50	89.50	88.00	89.50	89.75	90.00	89.50	86.75	88.50	87.75	87.75	88.00	87.75	85.75	84.25	84.50	84.25	84.75	86.00	86.25	85.75	84.00	84.75	83.50	84.50	84.75	83.75	84.50	83.75	83.00	83.25	82.75	82.25	81.50	81.50	77.75	77.00	77.50	79.00	79.75	83.75	85.00	84.75	84.50	85.00	86.50	86.25	88.75	90.00	88.75	88.50	87.00	88.50	89.75	91.25	93.50	93.00	94.25	96.00	96.50	99.00	100.50	104.25	103.00	103.50	99.50	104.00	112.50	182.25	147.00	119.75	117.25	123.50	132.75	136.00	132.00	131.50	132.00	131.25	139.75	147.50	154.75	152.25	155.25	159.25	167.25	199.25	219.50	244.00	362.00	485.75	615.75	499.75	414.00	428.50	452.00	361.75	276.50	220.75	182.25	158.75	165.75	187.00	238.50	232.00	205.25	205.00	205.25	194.25	181.75	185.25	192.50	192.25	195.25	207.50	235.00	228.50	221.00	202.25	238.25	269.25	221.25	254.75	299.75	347.50	370.75	371.00	475.00	567.00	564.50	556.00	565.25	580.00	652.50	675.25	647.00	625.25	592.25	580.75	605.75	673.25	679.75	666.00	636.50	626.25	640.25	631.50	603.75	556.75	505.25	459.50	493.25	545.25	465.50	448.75	476.75	477.50	441.25	410.25	365.00	339.75	337.00	314.00	309.25	341.75	295.75	284.25	272.50	243.50	247.50	244.50	261.75	252.00	240.75	234.25	227.75	230.00	211.75	218.50	215.75	214.00	201.25	203.75
102.75	102.00	103.25	101.75	101.50	101.50	99.75	101.25	102.50	103.00	101.75	101.00	101.00	100.25	100.00	99.75	100.00	99.50	99.50	100.00	100.50	100.25	100.50	100.50	100.50	100.25	97.00	96.75	96.25	98.50	97.00	98.25	100.00	100.25	99.75	99.25	99.25	100.00	100.25	99.75	99.50	99.50	99.25	98.25	98.75	99.00	99.00	97.75	97.00	94.50	93.75	92.50	93.00	93.50	93.75	93.00	93.00	92.25	91.00	92.00	91.00	90.50	91.50	91.75	90.25	91.00	90.50	90.50	91.25	92.75	91.00	89.50	92.25	91.50	87.00	87.75	91.50	91.50	89.50	90.00	88.50	89.00	89.00	88.25	87.25	89.50	84.75	86.00	85.00	84.75	84.00	88.25	87.75	87.25	84.00	81.75	81.00	87.00	87.75	87.25	85.75	84.00	83.25	82.75	82.50	82.50	83.00	82.00	77.25	76.25	77.00	78.50	80.25	83.50	85.75	86.00	85.00	83.75	84.00	84.50	83.75	85.00	86.25	92.00	89.75	89.25	91.00	91.75	92.50	92.50	94.25	96.50	96.50	97.25	97.50	98.50	99.25	103.00	100.75	105.25	110.50	145.50	130.75	119.75	116.50	123.25	125.50	128.50	129.50	133.75	135.50	136.75	148.00	157.25	167.50	167.00	170.00	170.50	169.00	173.50	184.75	193.50	223.25	316.75	503.25	440.25	362.00	520.75	464.25	344.75	250.25	240.25	198.25	171.25	166.25	186.50	222.00	251.50	233.75	205.50	193.75	183.75	184.75	201.50	201.75	207.50	194.00	191.00	223.25	227.75	236.25	218.00	222.75	249.75	234.25	239.75	246.25	276.25	288.25	429.50	544.75	565.00	561.00	552.50	550.50	566.25	620.75	645.75	625.00	620.50	597.00	571.00	602.75	664.25	660.25	646.00	626.75	611.50	627.25	642.75	621.25	573.25	566.25	446.50	443.25	490.25	439.25	417.50	448.75	492.75	440.25	406.75	368.00	351.25	334.75	303.25	294.50	286.25	295.25	265.25	258.75	268.00	269.75	241.00	232.00	233.00	233.50	234.50	220.00	222.00	230.75	246.00	229.50	213.75	211.50	217.50
102.50	102.25	103.50	102.50	101.75	102.00	101.25	102.00	103.75	103.00	102.75	101.50	102.25	102.25	101.25	100.75	101.50	101.25	100.25	100.50	100.25	100.25	100.00	100.25	100.00	99.25	98.00	97.00	96.00	96.75	97.00	98.50	100.00	100.25	98.25	98.25	98.75	98.50	97.00	96.25	98.00	97.25	97.00	97.75	97.00	96.25	96.50	97.25	95.50	94.25	94.25	93.25	93.00	93.25	93.25	93.00	92.00	91.25	92.50	92.00	91.00	90.75	90.75	90.75	90.75	90.50	90.75	93.25	93.00	91.25	90.25	90.25	93.25	92.50	89.50	89.75	91.75	90.00	90.25	89.50	90.50	89.75	90.25	87.75	87.50	90.25	89.75	88.00	87.00	84.25	86.00	84.75	84.00	84.00	84.75	85.75	86.00	87.50	86.25	87.00	85.50	83.50	83.25	82.75	83.00	82.50	82.50	80.50	77.00	75.75	76.50	80.25	85.25	86.50	84.25	83.00	83.25	84.25	84.75	85.25	85.75	86.25	87.25	89.50	89.75	90.25	91.00	91.00	92.50	93.50	94.75	96.75	96.75	98.25	98.75	99.50	99.75	105.00	103.75	106.00	108.75	114.75	113.75	113.25	116.50	122.25	125.00	132.25	132.75	133.50	138.25	147.50	159.50	174.50	187.50	197.25	188.50	183.50	177.00	170.00	176.25	179.50	189.50	220.75	286.75	347.75	322.75	414.75	444.25	338.75	257.75	226.00	203.00	181.00	170.25	180.50	200.50	245.25	234.00	205.00	198.50	205.00	193.75	199.00	210.75	215.50	219.75	197.75	200.00	217.75	235.25	232.25	222.00	233.75	235.75	252.25	265.00	303.25	297.00	341.75	390.25	532.50	560.75	548.75	540.50	547.50	561.50	572.50	603.50	594.75	583.50	563.00	613.25	648.25	649.50	625.00	609.25	613.00	607.75	610.75	604.25	594.75	570.50	458.75	416.25	517.75	451.50	396.75	429.00	451.50	428.50	401.25	375.50	339.00	333.25	319.00	317.25	322.75	333.25	284.00	282.75	297.75	273.50	263.00	232.00	228.00	219.75	222.25	226.25	232.25	254.25	247.00	237.00	224.25	219.25	217.00
102.00	102.50	103.25	102.50	102.00	101.75	101.75	103.50	104.00	103.75	102.75	101.50	102.25	102.25	101.75	101.75	101.75	101.25	102.00	101.75	100.75	99.50	99.75	100.00	99.75	99.50	98.00	96.75	96.00	97.00	96.75	98.00	99.75	99.75	97.00	96.25	97.00	97.00	96.00	97.50	97.50	97.00	97.50	98.75	97.75	96.75	96.75	95.50	94.00	94.50	94.50	93.75	93.00	93.75	93.50	93.75	92.00	91.00	93.25	93.75	91.25	90.50	91.50	91.25	91.25	91.00	90.50	95.00	93.25	92.25	91.00	92.00	92.25	92.75	89.00	91.00	91.75	90.50	91.00	89.25	89.50	88.00	89.75	89.25	88.25	90.25	89.75	87.00	87.50	84.50	85.75	85.50	83.25	85.00	86.75	87.75	87.75	87.00	84.75	87.00	86.25	84.75	83.75	83.00	82.75	82.50	82.00	78.25	77.00	76.00	76.25	82.00	87.00	87.00	84.00	83.25	83.75	84.00	84.75	85.75	87.00	87.50	87.75	87.75	88.50	91.00	90.75	91.50	92.50	94.25	94.50	96.50	97.00	98.25	99.00	99.25	100.50	105.75	104.00	108.25	111.25	113.75	112.75	113.75	115.00	120.25	126.00	134.50	137.00	135.75	141.00	153.00	168.50	181.00	196.75	193.25	186.25	177.00	169.25	164.50	168.75	172.50	183.25	192.25	213.00	275.25	291.75	390.25	475.50	352.50	261.75	236.25	204.25	182.00	169.50	178.75	195.25	233.50	246.25	211.50	210.75	211.25	204.00	199.50	207.00	220.50	225.25	204.50	203.25	220.50	234.75	241.75	229.50	218.00	230.25	244.75	258.50	297.50	326.75	341.75	427.25	541.50	557.25	545.00	534.50	533.00	543.00	550.75	586.75	575.75	577.75	563.75	618.00	633.75	641.50	619.50	593.75	602.50	594.00	579.25	587.00	592.75	558.50	448.50	411.50	515.00	433.75	387.75	422.25	436.75	420.75	396.00	379.75	332.00	320.25	322.50	327.00	343.25	348.25	296.00	291.75	305.00	268.75	258.50	231.25	234.50	219.25	225.50	240.25	245.25	263.00	243.00	236.25	232.75	221.25	211.75
102.75	102.00	103.00	102.50	102.25	104.00	103.75	103.75	104.25	102.75	102.50	101.25	103.00	102.50	102.75	102.00	101.00	101.50	102.00	101.50	101.50	99.75	99.50	99.75	97.75	97.00	97.50	97.00	95.25	94.75	94.75	98.50	98.00	97.50	97.25	97.50	98.00	98.00	97.50	97.25	97.25	96.75	97.50	97.50	98.00	97.00	97.75	93.75	94.00	94.00	94.25	94.50	92.50	93.00	92.75	93.25	92.25	92.50	90.75	92.75	91.75	91.75	91.25	91.25	91.00	92.00	91.75	93.75	94.25	94.75	94.25	94.25	92.50	92.75	91.00	90.75	92.25	91.25	91.00	89.25	88.25	88.50	88.50	87.50	88.00	88.00	88.25	86.50	84.50	83.50	84.00	85.75	87.75	88.50	87.25	87.00	85.75	85.00	83.50	86.00	86.25	85.50	83.25	83.25	83.25	83.00	78.75	76.25	76.75	77.75	77.25	81.75	83.00	85.00	84.00	83.25	83.75	83.75	85.00	86.00	86.75	88.25	88.50	88.75	89.75	92.25	92.50	91.25	92.50	94.00	95.75	97.00	97.75	98.50	100.00	101.00	102.00	104.50	111.25	117.25	120.75	117.25	119.50	120.25	119.75	126.00	134.50	140.75	139.00	141.00	148.75	153.75	160.00	171.25	182.50	177.00	183.50	175.75	170.25	162.00	162.00	168.50	173.25	182.00	198.75	226.25	328.25	486.75	378.75	379.25	300.00	247.75	211.75	184.00	169.00	178.00	189.75	216.50	232.25	231.75	228.00	220.00	221.25	214.00	201.50	209.75	224.00	218.75	225.00	215.50	230.25	239.75	249.75	243.00	237.25	251.75	273.75	295.00	344.25	475.75	600.75	572.00	554.00	553.75	534.75	529.25	526.50	526.75	553.50	552.75	547.75	573.25	608.50	615.00	616.00	632.50	611.75	588.00	567.50	541.75	536.00	565.75	554.75	478.00	408.50	417.75	388.75	372.75	404.50	429.50	413.50	400.25	374.25	332.25	313.25	311.75	314.50	337.50	362.00	298.00	316.00	318.75	261.75	240.75	236.25	236.50	230.75	232.00	239.75	242.75	258.75	248.00	236.50	245.75	240.75	220.50
101.50	101.25	102.50	103.25	104.25	104.00	104.25	104.50	102.50	104.25	102.50	103.00	104.00	103.75	103.75	102.50	101.25	101.75	102.00	101.50	100.25	100.50	99.50	97.75	96.50	96.75	97.00	96.25	94.75	97.00	97.00	99.25	99.75	99.00	98.00	96.75	95.50	96.00	95.50	95.25	95.75	95.25	94.50	94.75	94.75	95.75	94.00	95.00	95.25	94.75	93.25	95.75	93.75	93.75	92.50	93.00	92.00	92.25	92.75	92.00	92.50	91.00	92.00	91.75	93.00	92.00	92.50	92.50	92.25	93.50	93.00	93.00	91.75	92.00	93.00	91.00	90.75	89.00	90.25	87.75	88.00	87.25	87.25	85.50	86.00	89.25	88.00	85.00	85.75	86.50	87.75	87.50	86.50	88.25	86.00	83.75	83.00	83.50	83.00	85.25	85.00	83.50	82.25	82.25	82.25	79.25	77.75	76.50	76.75	76.50	80.50	83.50	83.50	83.75	83.75	83.25	86.75	86.50	87.50	88.50	88.00	88.50	89.50	89.75	92.50	96.50	97.25	92.00	93.00	94.00	95.75	97.50	98.75	99.25	100.50	101.75	103.50	108.00	114.75	124.00	127.50	125.75	125.50	125.50	124.25	132.00	145.00	143.00	145.25	156.75	156.00	161.75	164.25	165.25	167.75	173.50	176.00	173.50	173.25	160.00	157.25	162.00	160.75	171.50	184.50	219.50	418.00	579.25	376.00	300.50	302.00	294.50	224.00	183.00	177.75	176.25	187.75	203.50	206.00	262.75	281.25	248.50	236.00	229.25	211.25	222.75	214.00	226.75	245.75	239.50	237.00	250.00	262.25	263.00	229.00	246.75	271.00	307.75	333.75	484.75	616.00	583.00	562.50	596.00	543.50	536.50	529.50	523.00	524.75	531.25	530.50	576.25	599.50	590.50	604.25	598.50	607.75	601.75	573.50	553.00	539.75	499.00	541.75	488.75	477.00	400.50	384.25	366.50	380.75	422.25	409.00	402.25	366.50	335.00	315.50	294.75	302.50	320.25	339.00	311.00	344.00	313.25	274.50	251.50	246.25	260.25	241.50	242.50	232.50	226.25	243.25	247.75	226.50	234.00	231.25	213.25
102.00	102.25	102.25	104.00	104.50	105.00	104.50	103.75	104.00	104.00	103.25	103.25	104.00	103.50	103.00	101.50	102.00	102.00	102.00	101.25	100.25	99.75	99.00	98.25	97.25	98.50	98.00	97.00	98.00	97.00	96.25	96.25	96.00	96.25	96.00	96.00	95.75	95.25	95.00	94.75	95.00	95.00	94.50	94.75	93.50	94.25	93.75	94.50	94.75	93.75	92.75	92.50	92.50	93.50	94.25	94.00	93.50	94.00	93.50	93.25	92.25	92.00	92.75	93.00	92.75	90.75	90.50	90.25	89.50	91.50	90.75	89.50	89.00	89.75	90.50	92.50	92.50	92.00	90.25	89.75	88.25	87.00	88.00	88.75	88.00	87.00	87.00	86.50	87.25	87.25	86.50	85.50	85.75	86.75	85.25	83.50	84.00	83.00	83.00	83.75	84.00	84.25	84.00	82.50	82.25	76.75	77.75	77.00	77.75	77.75	83.50	82.50	84.00	84.75	83.75	84.00	89.50	90.75	90.00	92.25	95.25	93.00	92.25	92.00	97.25	99.75	95.00	93.00	93.50	94.00	95.75	97.25	98.75	100.00	101.50	103.00	104.50	111.25	115.25	122.25	151.00	168.50	137.25	135.75	133.50	136.75	171.25	161.25	152.75	164.75	182.50	207.50	203.50	194.75	173.00	178.75	179.00	169.25	183.50	161.50	155.50	156.50	154.50	161.00	171.50	197.00	352.50	461.00	423.75	281.00	311.75	296.00	235.50	184.00	197.50	194.75	188.25	204.75	217.75	246.75	295.25	316.50	303.25	245.25	225.25	233.25	222.50	221.25	251.75	257.50	243.75	257.50	283.00	275.50	241.50	259.00	259.50	304.75	365.50	545.75	605.00	594.50	573.25	589.00	568.75	544.75	537.75	534.50	531.00	520.50	522.00	542.75	551.00	550.25	567.25	582.50	600.00	611.25	592.50	586.00	581.50	508.50	454.00	436.00	498.75	415.50	384.00	367.00	365.25	402.00	414.00	394.75	377.75	331.50	312.00	289.50	287.75	316.50	308.75	292.75	334.00	303.25	263.50	244.50	273.75	268.25	247.75	240.25	234.75	226.50	223.75	229.75	226.75	213.00	214.00	202.25
104.00	104.50	102.50	104.75	104.50	104.50	104.00	103.25	104.25	104.50	104.50	104.25	104.25	103.75	103.25	103.00	101.75	100.75	99.25	98.75	97.50	97.50	97.25	98.00	98.00	99.50	99.50	98.25	99.25	96.25	96.25	95.25	96.00	95.75	95.25	96.25	96.00	95.75	95.25	96.75	94.75	95.00	94.00	93.75	92.75	92.50	93.50	95.25	94.00	92.75	92.25	92.00	92.00	92.50	92.50	92.50	92.75	94.50	95.50	93.75	93.75	92.75	92.25	93.00	92.25	89.25	89.00	89.75	89.00	89.00	89.50	89.75	89.00	89.00	89.00	91.00	91.75	91.00	90.50	89.25	87.00	87.00	87.50	87.50	89.75	90.00	88.75	87.00	86.25	85.50	87.00	87.00	87.00	86.50	83.50	83.25	81.25	83.25	83.50	84.75	84.00	83.75	83.50	82.00	82.25	80.25	77.50	76.00	75.75	77.75	81.50	82.50	83.50	84.25	84.00	84.75	86.00	89.00	92.50	88.25	94.75	95.00	96.75	94.00	93.00	98.25	98.25	94.25	94.50	95.25	97.25	98.25	104.00	103.00	102.00	102.75	105.25	110.00	114.50	115.75	125.75	215.50	209.50	174.75	176.50	141.50	166.00	172.50	174.25	187.75	252.50	214.25	241.00	212.50	177.25	165.00	174.75	170.00	228.50	170.25	152.00	149.25	153.50	157.25	162.50	174.25	207.50	274.00	319.50	269.75	266.25	276.00	236.25	201.50	203.00	209.25	210.50	222.50	241.00	234.00	239.00	293.50	322.25	267.25	255.25	247.50	242.50	245.75	244.50	276.50	279.75	261.50	285.00	302.50	258.25	293.25	309.50	296.25	357.25	496.00	590.00	613.25	589.00	592.25	572.50	559.25	548.50	544.75	562.00	549.50	538.50	555.50	522.50	562.50	569.25	593.50	616.00	615.00	611.75	607.25	584.75	542.25	442.50	431.25	497.75	433.75	401.50	374.25	364.25	368.00	422.75	406.25	399.50	329.25	304.25	285.75	278.00	314.50	295.25	292.00	319.25	292.75	258.50	262.00	306.75	279.00	253.25	241.50	253.50	232.50	232.50	216.00	214.50	228.75	214.00	205.00
105.00	105.00	103.25	104.25	105.50	105.25	104.50	104.25	104.75	104.50	103.75	103.00	103.25	103.50	103.00	102.25	99.50	98.50	99.00	99.25	97.75	98.25	98.25	98.50	99.25	99.50	99.25	99.25	98.75	97.50	97.50	96.25	96.00	96.25	96.75	95.75	95.50	96.50	97.00	97.00	96.25	95.00	93.50	93.50	94.50	93.75	93.50	94.50	94.50	92.50	92.00	91.75	92.00	91.50	91.00	91.25	91.25	91.00	91.50	91.25	92.75	94.50	92.00	92.25	92.00	89.75	89.75	90.00	89.25	89.00	89.25	89.00	89.25	88.75	89.00	89.50	90.25	91.75	89.75	88.50	87.75	87.00	87.50	86.75	87.50	88.25	86.75	88.75	88.50	87.50	87.75	86.25	85.25	85.00	85.00	84.25	82.50	83.75	85.00	84.50	83.25	83.25	82.50	82.75	82.25	82.00	81.25	80.25	78.00	78.00	82.00	82.50	84.25	84.75	85.25	88.75	90.00	89.50	91.75	90.25	91.75	93.75	95.25	98.00	99.25	97.25	97.75	97.75	96.25	96.50	98.25	99.00	104.50	108.50	105.50	103.50	105.00	107.50	109.00	117.00	119.50	186.50	196.75	201.00	209.50	168.75	146.75	169.75	181.25	170.75	168.50	187.50	189.50	182.50	184.50	155.50	168.00	201.75	177.50	212.00	167.25	144.75	150.50	158.00	161.25	166.50	177.50	210.75	216.50	209.50	232.00	305.50	226.50	198.00	190.75	200.25	204.75	218.75	226.00	210.75	222.75	242.75	292.25	282.25	259.75	277.25	285.75	293.50	277.00	260.75	277.50	283.00	289.00	301.00	329.50	353.50	357.25	341.50	386.25	489.00	580.50	612.25	614.25	624.75	585.25	579.75	560.25	561.25	585.75	575.00	550.50	545.75	519.00	539.50	564.00	596.00	597.50	587.00	587.25	596.50	591.75	537.00	437.00	394.00	451.00	408.00	416.75	380.50	356.75	362.00	400.75	388.25	362.25	328.75	313.00	294.00	283.00	282.25	271.50	273.75	302.00	289.75	258.50	267.50	312.50	297.25	263.75	253.00	261.50	252.00	233.75	226.50	225.50	214.25	212.75	218.25
105.50	105.75	103.00	105.25	105.25	106.25	105.75	105.75	104.50	104.00	103.50	103.00	102.75	102.50	101.50	99.50	97.00	100.50	102.00	101.75	100.75	100.50	100.75	99.75	97.50	98.50	100.00	99.75	97.25	96.50	96.75	98.25	98.75	98.75	99.00	99.25	96.00	97.50	98.00	97.50	96.75	94.50	97.50	98.50	98.50	95.75	95.50	95.75	94.75	93.25	93.00	92.25	91.75	91.50	91.00	91.00	91.25	91.00	90.50	91.25	92.25	93.50	93.50	91.00	93.50	90.50	90.00	90.00	90.00	90.00	89.25	89.00	88.50	89.75	88.50	88.00	87.50	87.75	87.00	86.00	85.75	85.75	85.75	86.25	88.25	89.00	86.75	86.50	87.75	88.50	87.75	85.25	86.50	86.75	85.00	84.25	83.25	83.75	84.00	85.25	85.00	83.75	83.00	82.00	81.50	81.00	80.00	78.50	79.50	80.25	82.75	83.00	83.75	84.00	86.00	90.00	91.00	92.50	91.75	90.25	92.00	92.25	92.75	94.00	95.50	97.00	96.50	98.25	99.50	98.00	99.50	100.75	101.25	102.50	103.50	104.50	106.25	108.25	112.50	119.25	120.25	126.25	128.00	144.25	164.50	200.50	141.25	138.25	140.50	143.50	149.00	165.75	202.75	165.00	179.50	154.75	150.50	158.50	148.50	223.00	174.50	147.25	150.50	152.50	156.00	167.00	200.00	196.75	200.50	199.50	204.25	249.25	203.75	181.00	178.75	193.25	185.50	198.75	204.75	215.25	236.00	247.25	274.00	285.75	251.00	259.75	272.50	299.25	305.25	291.25	278.75	268.50	289.50	310.00	351.50	354.25	336.75	377.50	359.25	432.00	536.75	571.75	624.50	640.75	608.50	610.75	571.50	569.00	594.75	596.50	573.00	551.00	516.50	510.00	535.50	585.75	603.50	595.25	581.75	575.00	585.75	586.75	468.25	378.00	395.75	397.25	451.75	393.50	350.75	344.00	371.25	373.50	361.75	330.75	318.50	299.75	293.75	294.00	279.75	268.00	277.25	289.00	259.25	283.75	319.75	311.50	285.75	278.00	262.00	246.50	238.00	230.50	236.50	222.00	220.50	228.50
106.25	106.25	104.00	105.50	106.50	106.50	106.00	105.50	104.25	104.50	104.00	104.00	102.50	100.50	99.75	100.50	101.25	101.75	101.50	100.50	100.50	100.50	100.25	99.00	98.00	100.25	99.00	98.25	96.25	97.75	99.50	100.25	99.75	99.00	98.75	99.00	98.75	97.25	96.25	97.25	96.50	97.00	98.00	97.25	98.25	96.75	94.75	95.50	96.00	95.25	94.75	94.00	92.75	92.00	91.00	91.00	91.00	90.50	90.25	91.00	91.75	92.50	92.50	91.50	91.00	90.00	90.00	90.25	89.75	89.25	89.75	89.50	88.75	89.50	88.00	87.75	87.75	87.25	87.00	87.75	86.50	86.25	86.00	85.50	88.25	86.00	87.00	87.50	85.25	86.75	86.50	86.50	86.75	86.75	84.25	83.25	84.25	84.25	83.75	86.00	83.00	84.25	83.75	81.75	81.50	79.50	78.25	78.50	78.50	81.00	83.50	83.50	84.00	84.25	85.25	85.50	89.25	91.25	92.00	91.50	91.25	91.75	93.50	92.75	93.50	94.75	96.75	97.25	98.75	98.75	99.50	100.75	102.75	102.75	103.75	105.50	107.25	108.75	113.25	117.50	116.25	117.25	119.50	126.75	144.00	188.25	134.50	132.75	136.50	140.25	144.25	171.75	153.00	146.00	144.25	138.00	142.25	177.75	147.75	157.75	163.00	149.75	152.25	152.50	152.25	158.25	225.75	195.00	160.50	170.75	199.50	203.25	178.75	170.25	173.25	175.25	175.25	196.00	206.25	207.50	240.25	245.50	243.75	277.00	253.00	244.75	282.50	252.75	299.00	295.25	268.75	267.50	312.00	362.75	346.75	323.75	330.50	347.00	369.00	415.50	480.00	559.50	610.25	641.50	618.75	626.00	578.00	582.25	603.50	604.25	584.25	551.25	533.25	529.25	518.25	553.25	594.75	598.50	580.25	570.75	562.50	543.50	461.25	419.75	375.25	365.25	447.50	400.00	358.75	340.75	363.50	357.00	353.50	324.00	305.00	289.25	286.50	281.25	271.25	268.50	300.00	309.25	264.75	269.25	312.00	318.50	294.25	283.75	272.00	262.75	256.75	235.00	243.50	231.00	236.75	231.00
107.50	107.00	106.00	105.75	106.00	105.75	105.50	105.00	104.75	104.75	104.75	103.75	102.00	100.75	100.25	101.00	102.00	101.00	101.25	100.00	99.75	100.50	99.75	98.25	97.50	99.25	97.50	97.00	96.25	99.75	99.75	99.25	99.25	98.75	99.50	99.25	97.75	96.50	97.75	98.00	97.50	97.25	96.75	96.50	97.25	95.25	94.25	96.00	98.00	98.00	97.50	97.25	95.25	94.75	92.00	91.00	91.00	90.50	90.25	90.50	91.25	92.00	91.50	91.00	90.00	89.75	89.25	89.75	89.50	88.50	88.75	89.50	89.50	89.00	88.00	88.00	90.25	89.25	87.00	88.00	87.00	86.00	88.50	89.00	90.25	88.00	89.50	87.00	84.75	87.50	87.00	87.25	86.50	85.00	83.00	83.00	84.50	84.50	83.25	84.00	84.00	84.00	81.50	81.75	81.50	78.00	78.25	78.25	80.00	79.00	84.25	84.75	83.75	84.75	85.50	85.50	89.50	93.00	92.25	93.50	94.75	92.50	94.50	94.50	94.75	96.50	99.00	100.00	100.75	100.00	100.00	101.50	102.00	103.00	104.50	106.00	109.75	109.25	110.75	121.75	113.25	115.50	117.00	119.75	130.00	153.75	128.25	127.25	131.75	131.50	141.50	191.25	136.75	132.50	134.25	137.25	139.75	167.50	143.25	141.00	143.75	147.50	150.50	150.25	148.25	148.25	157.00	162.50	156.75	158.25	161.75	164.00	167.25	168.25	169.25	171.75	174.25	190.00	196.50	205.25	221.50	213.75	225.75	254.00	230.50	240.75	277.75	248.25	270.50	262.00	251.75	273.50	301.25	359.25	317.00	320.75	355.00	500.25	476.50	528.75	515.50	557.50	622.50	651.50	628.75	627.25	591.00	602.25	627.25	610.75	577.75	553.00	541.75	548.50	522.75	544.50	569.75	591.00	584.25	546.75	542.25	492.00	484.75	499.75	407.75	356.75	392.75	375.75	369.75	332.50	348.00	356.25	340.75	319.25	301.25	288.00	282.50	277.50	271.50	281.25	306.25	307.00	267.50	276.25	301.00	320.75	309.25	301.00	277.75	254.50	245.00	246.75	246.00	241.25	245.25	224.00
107.25	106.25	105.75	105.50	105.75	105.00	105.25	105.75	105.25	104.75	103.25	102.25	100.00	100.25	102.25	100.75	100.75	99.50	100.00	98.75	98.75	99.75	98.75	98.00	98.25	98.50	97.25	97.00	97.00	97.50	98.00	97.25	97.50	98.25	99.50	98.75	96.75	97.00	98.00	97.50	97.25	97.00	96.25	96.00	95.25	93.00	93.00	94.00	97.25	97.25	96.75	96.75	96.00	96.25	94.25	91.50	91.25	90.50	90.00	89.75	90.50	90.50	90.00	90.00	90.00	90.00	90.00	89.00	88.50	89.25	88.50	89.00	87.00	88.25	88.50	88.25	88.50	88.75	87.50	88.00	89.75	89.50	89.50	89.75	88.50	89.00	85.00	87.50	87.25	87.00	85.75	84.75	83.75	83.50	83.00	85.00	85.25	83.50	85.50	86.00	84.00	82.00	82.50	81.75	79.75	78.75	79.25	79.25	79.50	78.25	80.50	84.50	84.00	84.00	84.75	85.75	86.50	91.25	92.75	92.25	94.50	99.00	99.00	100.75	100.50	101.50	99.75	100.25	100.75	102.00	100.25	101.75	102.75	103.50	105.00	105.75	109.50	110.25	109.50	133.25	115.25	118.50	118.50	120.50	124.00	124.75	123.50	126.75	127.00	129.00	136.25	156.75	133.75	135.75	132.75	132.25	141.25	137.50	139.75	139.00	140.50	145.25	149.25	147.75	148.25	149.00	152.25	170.00	159.75	159.00	159.25	161.50	164.25	167.25	170.00	176.25	177.50	180.25	181.50	201.00	208.75	213.75	223.25	234.75	215.75	229.25	228.50	232.25	255.75	243.50	256.25	284.75	344.00	314.75	312.25	362.00	401.00	542.25	579.00	636.25	583.75	565.75	617.25	645.25	613.50	606.75	603.25	613.00	630.00	592.50	568.75	560.25	552.75	545.25	523.25	550.00	572.00	574.00	576.25	553.75	520.50	446.25	412.75	424.50	392.75	358.25	373.50	360.25	348.25	330.00	332.25	325.50	316.25	313.00	303.75	292.75	284.75	282.25	279.50	301.00	317.75	296.00	267.50	287.75	310.00	298.00	308.75	298.50	273.50	246.25	237.00	256.00	251.00	252.75	246.00	231.75
107.00	106.25	106.00	106.00	105.50	105.00	104.25	105.00	104.75	101.75	101.00	101.50	99.75	101.25	102.50	99.75	99.00	99.50	98.75	99.00	98.75	98.75	98.50	98.50	98.25	98.00	98.75	100.00	98.75	99.00	99.00	98.75	99.00	98.75	98.50	97.75	97.50	98.00	98.00	97.50	97.00	96.75	95.75	95.50	94.50	92.50	93.75	93.25	92.50	94.50	94.25	94.75	95.25	93.25	91.00	91.50	91.50	91.50	90.25	90.00	89.50	89.50	89.50	90.25	89.50	90.75	89.00	89.00	88.25	88.75	88.25	87.00	87.00	87.25	87.50	87.00	89.25	89.75	88.50	86.00	89.00	88.75	87.75	87.50	89.00	88.25	87.75	84.75	84.25	84.50	84.50	83.75	83.50	83.75	84.25	85.50	86.25	85.50	87.50	85.75	82.75	82.25	82.50	82.00	79.25	79.75	79.50	79.25	79.50	79.75	79.25	84.00	84.75	83.50	84.50	85.50	86.75	88.75	93.75	94.50	97.00	99.25	100.75	101.75	102.25	102.50	103.25	104.00	105.50	106.25	102.75	103.00	102.75	103.25	104.75	109.00	109.50	109.50	112.00	154.25	114.25	115.50	117.75	119.75	120.75	124.75	123.75	125.50	128.50	131.50	132.00	136.25	133.25	135.50	134.25	133.75	137.00	137.50	139.75	143.75	144.75	147.00	150.00	151.00	158.75	157.50	154.75	182.00	169.25	157.25	158.25	160.25	167.50	172.25	175.25	177.25	178.75	186.75	186.25	205.75	208.75	210.75	209.25	209.50	212.25	207.50	219.00	250.25	230.75	238.75	243.50	271.25	327.50	302.25	336.00	442.25	487.00	536.25	604.25	650.25	651.25	590.25	600.50	620.00	615.25	605.25	605.75	610.00	610.25	586.00	581.25	559.50	557.25	556.25	527.75	546.75	562.50	573.00	579.50	573.50	564.00	499.75	420.25	433.50	367.50	355.50	355.75	366.00	382.50	332.25	333.75	312.25	312.00	306.25	307.25	295.75	286.25	292.75	287.00	309.75	306.00	286.25	270.75	281.75	308.00	286.25	279.00	280.50	267.00	240.25	249.75	262.00	260.00	262.00	261.25	247.50
106.50	106.00	106.00	105.00	105.25	105.00	104.25	103.50	103.00	101.75	102.50	102.50	100.75	102.00	101.50	100.25	99.25	99.50	99.00	99.25	99.50	99.25	98.25	99.00	98.25	97.75	98.75	99.50	99.75	99.50	98.75	99.25	98.50	98.50	97.50	97.50	98.00	98.25	97.25	97.50	97.25	96.50	96.00	95.25	95.50	95.75	96.00	91.75	91.75	92.00	91.75	91.25	90.75	90.50	90.50	91.50	91.25	92.00	90.50	89.75	89.25	89.50	89.75	90.00	90.25	89.50	88.75	89.50	87.50	87.75	87.25	87.25	88.00	87.75	87.25	87.75	87.50	86.25	89.25	88.75	88.25	87.50	87.25	85.25	86.00	85.75	86.50	84.50	84.50	84.25	85.00	84.00	84.00	84.50	86.25	86.50	84.75	86.50	86.50	83.25	82.00	82.00	82.00	82.00	79.50	79.00	78.00	77.75	77.00	77.50	81.25	84.25	85.50	83.50	85.00	86.00	87.50	88.50	93.50	96.50	98.25	99.50	101.00	99.25	98.50	98.75	100.00	100.75	100.50	102.00	107.50	108.00	107.50	105.25	107.25	113.00	113.50	109.00	110.50	114.00	114.00	119.25	121.00	120.00	120.75	122.00	123.00	124.75	127.00	128.25	127.75	132.00	131.50	132.50	134.00	135.25	146.25	138.50	141.25	141.25	143.50	146.75	148.75	153.25	160.50	175.25	165.25	157.25	160.25	161.25	161.50	162.50	163.50	167.50	172.75	177.00	179.75	184.00	184.25	193.50	195.00	198.00	203.75	205.75	221.50	251.00	251.75	250.25	248.00	267.25	255.00	288.25	293.00	306.25	385.25	505.50	519.25	553.25	595.75	652.75	627.75	586.25	541.50	559.00	617.00	599.75	600.50	606.50	592.25	562.00	571.25	563.25	562.25	546.25	513.00	555.00	576.00	579.75	587.50	568.75	537.50	471.00	428.50	411.75	376.75	364.25	376.50	413.00	418.50	357.50	340.50	316.75	320.75	312.25	302.25	294.00	291.00	301.75	299.00	316.75	309.00	286.25	278.50	288.00	308.00	291.50	284.75	270.75	256.50	245.50	267.00	264.50	255.00	255.75	254.00	251.00
106.75	105.50	105.25	106.00	105.00	103.50	103.50	102.75	103.75	105.25	104.50	103.25	103.00	103.50	102.25	100.25	99.00	99.00	98.75	100.25	100.50	100.75	101.25	100.75	100.75	99.50	99.75	99.25	100.00	98.00	97.00	98.75	98.75	98.00	96.50	98.50	98.75	98.50	97.50	97.50	97.00	96.75	96.00	96.00	96.25	96.50	97.00	91.50	91.75	92.00	91.75	91.25	90.75	90.50	90.00	91.00	91.00	91.25	90.50	90.75	90.25	93.25	92.75	92.25	92.50	90.00	89.50	88.75	88.00	88.00	88.00	87.25	88.50	87.50	87.00	87.25	89.25	88.75	89.25	89.50	88.50	87.75	86.00	85.50	88.50	87.00	85.25	86.00	84.25	84.50	85.50	87.00	84.75	86.00	88.00	88.00	85.50	83.75	85.25	81.50	81.75	82.00	82.00	81.50	81.00	78.50	78.25	79.00	80.75	77.25	81.75	83.75	86.25	84.25	85.25	86.00	87.00	92.00	96.00	96.50	97.75	97.50	98.50	95.50	94.50	96.25	96.50	97.50	99.50	101.50	107.00	109.25	106.50	104.25	108.50	113.00	112.00	109.75	110.00	112.00	114.00	119.50	122.00	119.50	121.25	122.25	123.00	123.25	125.25	125.75	127.75	129.00	130.00	132.50	139.25	148.25	156.50	141.25	142.00	144.00	146.25	149.00	152.25	154.75	163.50	186.00	177.00	161.75	161.00	163.25	167.50	168.00	167.00	166.75	171.50	172.50	174.50	178.75	181.50	203.00	216.25	219.50	230.25	227.50	350.25	400.75	275.00	276.00	284.75	297.75	265.25	268.75	270.75	314.25	335.00	487.00	450.00	491.50	576.75	589.25	518.50	550.75	509.00	505.00	601.00	592.75	602.50	609.00	584.25	541.50	548.25	568.25	559.25	539.50	524.25	562.50	578.50	595.75	581.50	554.25	508.00	440.75	396.75	399.00	381.75	367.00	376.00	416.00	435.00	379.50	340.25	320.50	311.50	301.75	299.50	300.00	304.75	313.00	316.00	333.00	318.00	296.25	287.25	293.75	315.50	303.25	301.00	280.75	256.25	259.75	275.75	257.00	239.00	237.75	230.00	246.75
105.75	105.50	106.50	106.50	107.25	106.75	105.50	104.00	105.00	105.50	103.00	103.75	104.00	102.25	101.75	100.25	99.25	99.75	100.25	100.00	100.25	99.75	99.75	99.50	99.75	100.75	100.50	99.75	98.00	96.75	97.25	99.00	98.25	97.25	96.75	98.00	98.00	98.00	97.75	98.00	97.50	97.00	97.25	96.00	95.50	95.00	95.25	93.75	94.00	93.25	92.75	93.50	93.50	91.75	90.25	90.75	90.50	90.00	90.25	92.25	93.75	93.25	92.50	92.00	90.25	90.00	88.25	89.00	89.50	88.50	88.50	87.50	87.00	87.25	86.50	87.00	88.75	89.25	88.00	87.50	86.25	87.25	88.75	87.00	87.00	86.25	85.00	85.50	85.00	84.25	86.75	85.25	84.00	86.25	86.75	85.00	83.50	82.50	82.50	80.75	81.75	82.25	81.75	81.25	82.00	81.00	80.75	80.25	80.50	77.75	82.25	83.25	85.25	85.00	87.00	87.75	88.50	94.50	95.75	96.00	94.75	91.50	92.50	93.50	94.75	95.75	96.75	98.00	99.25	102.25	107.75	109.75	112.00	109.00	111.00	114.25	113.25	112.75	115.75	114.00	115.00	119.50	120.00	120.50	120.50	121.50	125.00	123.25	122.75	126.75	131.25	130.75	137.75	140.75	184.75	189.50	139.50	140.75	143.75	147.50	149.25	153.75	157.75	159.00	164.00	175.50	180.75	173.50	166.25	163.75	167.75	167.00	168.75	171.75	170.00	173.75	173.50	182.75	182.75	193.75	216.75	241.75	246.50	243.50	370.50	404.00	326.00	341.50	312.00	296.75	287.25	273.50	274.00	289.50	302.25	407.75	425.75	490.75	560.00	543.75	478.50	530.50	503.25	486.25	583.50	594.50	612.50	623.25	600.75	553.50	541.50	545.50	561.75	561.50	533.25	556.25	565.25	603.25	558.25	533.75	464.75	395.50	377.75	383.25	372.75	350.25	356.00	406.50	441.00	389.50	336.25	315.75	307.25	304.75	306.00	307.75	315.25	328.75	341.25	343.00	327.50	308.00	300.25	306.00	318.75	300.75	288.50	270.50	267.25	277.25	275.75	261.50	252.50	231.25	220.75	230.75
107.50	108.00	108.25	108.00	108.75	108.50	105.75	105.00	106.50	105.00	102.75	104.00	103.75	102.50	100.50	100.25	100.50	100.75	100.50	99.50	99.75	98.25	99.25	98.50	98.50	99.25	100.00	98.25	98.50	99.75	99.00	97.75	96.50	96.75	98.00	98.25	98.00	97.75	97.75	97.50	97.50	97.50	95.75	94.75	95.75	95.75	95.25	95.00	95.50	93.00	92.25	92.25	93.50	94.50	90.75	90.25	90.00	89.50	91.00	93.50	93.25	94.25	90.75	89.00	90.00	92.00	89.00	88.00	90.25	89.50	92.00	89.25	87.00	86.50	86.00	87.00	88.00	87.25	87.00	86.00	86.75	86.00	87.00	85.75	86.50	85.75	87.75	84.50	85.75	84.75	85.75	85.50	84.75	87.25	86.50	86.25	82.25	82.00	80.75	79.75	81.25	82.00	82.25	81.50	81.75	80.75	80.50	80.00	78.25	80.50	84.25	84.50	86.25	84.25	85.50	86.25	87.25	88.75	92.00	93.50	90.25	91.50	92.50	93.25	94.00	95.75	96.75	98.00	99.75	103.25	107.50	107.50	110.75	112.75	112.75	112.50	112.75	114.25	114.50	115.50	117.00	117.50	120.25	120.25	119.25	123.50	125.50	125.25	124.50	125.75	131.50	135.00	140.50	141.50	144.75	138.75	137.25	141.25	145.75	149.75	152.50	155.75	160.75	165.00	165.75	177.25	186.75	180.25	176.75	168.75	171.25	172.25	170.25	177.00	181.75	175.00	177.25	186.75	185.50	193.75	212.50	239.75	235.75	227.00	273.75	314.25	310.00	351.25	332.25	309.25	315.25	283.50	308.00	323.00	339.00	389.25	448.00	554.00	632.00	524.50	412.25	478.00	455.00	492.25	573.75	598.50	618.50	616.00	605.50	594.50	556.00	532.25	548.00	575.00	541.25	544.00	571.50	595.00	551.00	488.25	411.00	370.00	360.50	364.25	357.50	342.75	346.50	359.75	452.25	382.25	325.25	314.75	310.00	312.25	314.25	314.25	323.75	335.75	345.00	337.00	323.00	318.25	321.75	316.25	314.50	305.50	299.50	280.25	279.50	283.25	269.50	247.25	238.50	221.25	211.00	208.25
109.75	108.50	109.50	109.25	108.75	107.00	105.25	102.50	103.75	105.75	104.50	104.00	103.25	102.00	101.75	100.50	99.00	99.25	98.25	99.75	99.25	98.75	100.50	101.00	101.25	100.50	99.00	99.00	100.00	99.50	97.25	97.25	98.25	98.75	98.25	98.25	98.00	97.00	98.00	97.75	98.00	98.00	97.75	98.00	97.25	97.00	96.25	94.50	93.25	94.00	94.00	95.50	95.50	95.50	92.00	91.00	90.50	89.50	90.25	91.50	93.50	92.00	90.50	89.25	90.50	89.50	88.00	88.00	88.25	87.75	87.50	87.00	87.00	86.75	86.00	88.25	90.50	88.25	88.00	89.25	86.75	86.50	86.25	88.50	89.50	87.50	88.50	86.00	88.75	87.25	87.25	87.50	89.25	87.50	85.75	86.25	83.25	82.25	81.50	80.75	81.00	81.75	81.75	81.25	80.50	78.75	78.75	76.50	78.00	82.00	82.75	85.25	86.50	83.75	85.50	86.00	87.00	87.75	89.00	89.75	90.25	91.25	92.00	93.00	94.00	96.00	97.50	98.50	99.25	103.75	108.50	106.75	110.00	110.50	109.50	112.25	114.75	115.00	116.75	118.25	121.25	118.25	122.25	121.00	119.50	123.50	126.00	126.50	129.75	128.75	132.00	136.50	154.75	138.75	138.50	135.25	138.00	141.75	144.50	149.50	152.00	157.75	162.75	167.75	169.25	174.00	189.50	194.75	188.25	179.00	192.25	184.00	173.75	179.50	187.75	190.00	189.00	196.50	192.50	191.75	202.75	204.50	210.50	206.50	221.25	238.25	259.75	328.75	383.25	379.50	343.00	312.00	369.50	475.00	504.25	457.75	472.00	547.25	543.50	453.00	362.75	404.75	407.25	486.75	577.50	607.75	620.25	606.00	596.50	575.25	563.00	547.50	525.50	561.75	534.75	533.50	565.00	578.50	553.00	507.75	409.75	362.75	362.50	364.50	369.75	354.50	338.75	335.75	389.50	346.50	319.50	313.50	313.75	324.00	318.50	322.25	323.00	329.75	331.75	325.50	309.25	311.50	323.25	312.75	297.00	291.00	287.00	278.25	271.75	277.75	266.75	251.25	243.00	219.50	211.75	224.50
109.75	107.00	105.75	105.50	106.50	105.75	104.25	102.75	103.00	106.25	105.50	104.75	103.75	102.25	102.00	100.50	99.25	99.50	99.50	99.50	98.50	98.00	98.25	99.00	100.25	99.25	99.75	100.00	100.00	98.50	96.75	98.75	98.25	98.25	98.50	98.50	98.00	98.50	98.00	97.00	97.50	99.00	98.00	97.50	96.75	97.25	97.75	94.25	92.25	93.75	96.25	95.50	95.75	93.50	90.50	90.00	90.50	89.00	89.75	91.00	91.75	92.00	89.50	89.25	89.00	88.50	88.00	88.00	87.50	87.75	87.00	87.00	87.00	86.75	86.50	86.50	86.75	87.25	86.50	86.25	85.50	85.75	86.00	90.50	90.00	87.00	89.25	89.50	89.25	88.00	89.00	89.25	85.50	86.75	85.25	84.75	82.50	82.25	81.75	81.00	81.75	81.00	81.25	80.75	79.00	75.75	74.75	78.00	80.50	83.25	83.75	83.25	89.50	84.00	86.25	86.50	87.25	87.75	88.25	91.00	91.00	91.75	93.00	93.75	94.50	96.00	98.00	98.50	99.00	103.75	104.50	106.50	110.25	110.50	106.25	110.00	114.00	113.25	117.00	119.75	121.50	120.75	123.00	120.25	119.00	123.00	125.00	124.00	126.00	126.75	130.75	131.50	134.25	133.75	137.75	134.25	138.75	141.25	143.50	147.50	149.25	161.50	167.25	169.75	176.25	176.25	182.50	195.50	200.50	188.00	202.50	182.75	182.75	184.75	190.75	202.50	212.75	208.25	208.25	195.50	194.25	202.75	197.25	209.25	240.50	264.75	306.75	355.25	326.25	336.25	313.00	372.75	445.50	519.25	454.75	519.75	495.00	467.75	437.50	387.50	341.00	444.00	556.50	535.25	574.00	596.50	608.75	591.75	568.50	547.75	550.00	541.25	512.50	537.00	557.25	504.50	554.00	554.75	536.25	455.25	373.50	380.00	386.00	381.50	389.50	360.50	340.75	331.25	328.25	323.50	318.50	314.50	327.50	327.25	320.00	324.25	325.50	332.00	336.50	332.00	305.50	294.00	314.50	320.75	308.50	292.25	268.75	256.00	250.75	264.00	264.25	241.25	229.00	213.75	215.50	236.75
109.50	108.00	105.25	104.00	104.50	105.25	105.75	104.75	104.50	107.25	105.50	104.25	102.50	102.75	101.75	101.00	99.75	100.25	100.50	103.50	99.50	99.75	100.00	99.50	99.00	98.50	98.50	99.25	99.00	98.00	96.75	98.50	98.75	99.00	98.75	99.00	99.00	98.25	98.25	97.75	98.00	97.75	97.75	97.50	96.25	96.50	95.50	95.00	93.25	94.25	95.75	94.00	92.75	91.50	91.50	91.25	91.25	89.50	89.50	92.00	91.75	90.00	89.25	89.00	89.00	88.75	88.25	87.50	87.75	87.50	87.00	87.25	86.50	86.75	86.75	86.75	86.00	86.00	85.25	85.00	85.50	85.25	85.25	90.50	89.50	88.75	87.75	88.75	87.75	86.75	88.00	87.75	88.00	87.50	85.00	84.50	82.75	82.00	81.75	80.25	81.00	80.75	80.75	79.50	77.00	76.50	79.75	80.75	80.25	83.75	82.25	83.25	84.75	83.75	85.25	87.00	87.25	88.00	90.00	95.25	92.00	92.75	93.25	94.00	94.25	96.75	100.00	100.75	101.00	102.75	104.00	107.25	108.75	107.50	109.00	107.75	112.50	111.25	114.75	118.50	120.25	120.75	124.00	121.50	118.00	121.75	122.25	122.00	123.00	123.25	127.75	130.75	134.25	135.50	137.00	134.75	137.25	140.75	144.25	148.75	151.25	156.25	161.75	166.50	174.00	185.75	187.50	201.75	215.25	206.75	208.75	194.00	181.00	187.50	199.00	203.50	224.75	219.50	216.00	218.50	224.00	218.75	202.25	260.50	320.75	270.25	407.00	447.75	346.25	279.50	284.00	352.50	416.50	443.50	395.00	388.50	423.25	379.25	347.75	346.75	362.00	455.25	522.00	540.50	556.25	571.50	605.75	587.25	571.75	541.00	535.50	521.00	510.00	516.75	560.00	505.75	526.75	527.25	509.50	402.00	385.75	398.25	399.75	393.00	386.50	370.00	356.25	338.25	334.25	331.75	318.00	320.25	337.75	323.25	315.25	321.25	326.75	328.50	327.75	325.00	301.25	286.50	307.75	317.25	303.50	289.50	280.50	274.25	259.50	244.75	248.75	238.00	228.75	229.75	234.75	244.00
109.25	108.50	104.75	105.50	105.25	106.00	106.00	105.50	105.00	107.50	105.75	103.00	102.25	102.00	102.00	100.50	100.50	101.25	102.00	101.50	100.75	100.50	100.75	100.25	99.50	99.25	100.00	99.75	98.50	97.50	97.50	99.00	98.50	99.00	99.25	100.25	99.50	98.50	98.50	98.50	98.25	98.25	97.25	98.25	97.50	96.50	96.00	96.75	95.75	95.50	95.25	93.00	92.25	93.25	94.00	94.50	94.50	89.50	88.75	93.25	91.00	89.25	89.25	89.00	89.00	88.75	88.25	88.50	88.00	87.75	87.00	88.50	88.00	86.75	86.25	86.00	86.00	86.25	86.25	85.50	85.50	86.50	89.25	88.50	89.50	88.00	87.25	84.50	86.75	87.50	86.00	86.00	86.25	86.75	87.25	85.50	83.75	81.50	81.25	80.25	81.00	81.00	81.00	78.25	76.50	78.25	80.25	80.00	79.25	84.50	83.75	84.75	85.25	85.25	85.50	86.75	87.25	87.00	90.00	93.25	96.00	94.50	93.25	93.50	94.00	96.50	104.00	104.50	102.00	104.00	102.25	106.00	108.50	107.75	110.50	109.00	114.00	111.25	112.50	120.25	120.50	118.50	122.00	119.25	117.50	119.50	121.00	125.00	126.25	130.25	132.25	130.75	131.75	133.75	136.00	135.50	139.50	143.00	147.25	155.50	158.50	160.75	169.00	174.00	185.25	197.75	199.75	197.25	215.00	220.50	217.75	201.50	183.75	195.25	210.00	213.75	218.00	223.00	225.25	255.50	279.00	234.75	206.50	233.50	223.25	237.00	377.75	414.00	267.00	254.50	289.25	333.00	403.25	393.75	400.25	340.25	346.75	334.50	325.50	352.25	372.25	427.50	442.25	519.50	542.00	572.00	602.50	594.25	591.00	561.25	549.25	526.75	536.00	492.75	544.25	488.50	511.00	539.50	506.25	400.50	398.00	403.50	387.00	383.00	382.25	386.00	361.25	346.00	337.50	327.50	324.00	339.25	347.75	323.25	313.00	309.75	312.75	317.00	312.50	310.25	304.75	283.00	300.25	306.00	295.50	294.50	283.00	266.50	252.00	240.50	232.00	223.25	235.75	254.00	249.00	260.75
108.75	108.25	106.50	106.00	105.25	105.75	105.25	105.25	106.50	107.00	106.75	103.75	102.50	102.00	102.50	101.25	100.75	101.25	101.00	100.00	100.00	100.25	98.75	100.25	99.75	99.50	99.25	98.25	98.25	98.25	96.25	98.25	98.75	99.50	99.25	99.25	99.00	99.50	99.25	98.75	98.75	98.25	98.75	98.25	97.25	96.00	96.25	95.25	96.00	95.75	94.75	91.50	94.25	93.50	93.75	94.25	94.75	93.00	91.00	89.75	89.25	89.25	90.50	89.00	89.00	88.75	88.75	89.25	88.00	89.00	92.25	93.75	91.75	89.75	87.50	86.50	86.50	86.00	85.00	85.00	85.25	88.50	90.00	87.25	86.75	87.25	87.75	86.50	84.50	86.50	85.00	83.75	83.50	84.50	85.75	86.25	85.00	81.00	80.50	80.50	80.25	80.50	80.25	80.25	77.50	79.00	80.25	80.00	79.00	82.25	85.75	85.00	86.75	84.50	87.00	86.75	88.75	89.25	90.75	92.00	94.25	96.50	95.25	98.00	94.25	95.50	96.50	99.75	103.75	104.75	103.50	103.75	104.00	105.75	108.50	109.75	115.50	119.00	115.25	119.25	121.25	115.50	114.00	114.75	116.00	118.50	119.25	122.25	123.50	125.50	130.00	130.25	132.75	135.25	137.50	138.75	142.50	147.00	153.25	162.00	166.25	174.75	208.50	250.00	297.00	295.50	226.75	208.00	227.25	236.50	212.75	198.75	189.75	194.75	209.50	218.00	224.75	234.50	234.25	317.00	276.00	226.25	232.00	250.00	207.75	219.50	243.25	243.50	245.00	262.50	285.25	295.00	315.00	334.25	336.50	325.75	322.75	314.00	328.50	351.50	420.00	402.50	454.75	524.25	480.75	559.75	597.50	586.50	577.75	554.75	550.00	561.00	546.75	524.75	513.75	534.00	555.50	518.50	441.50	399.25	410.00	409.25	392.25	390.50	365.50	359.25	357.75	347.50	336.50	325.50	331.50	349.75	345.00	321.50	312.25	301.25	301.25	294.50	300.00	307.25	311.75	299.00	278.75	275.25	278.25	276.00	272.00	277.25	268.75	259.25	248.50	227.75	247.75	267.25	256.75	254.00
107.75	107.25	107.00	107.75	106.50	106.25	105.25	106.75	107.75	106.50	106.00	104.75	103.25	102.75	102.75	101.75	100.75	100.75	100.50	100.25	99.00	99.25	99.00	100.25	99.25	99.75	100.25	98.50	98.50	98.50	96.75	98.25	99.50	99.75	99.50	99.75	99.00	98.75	99.00	99.00	99.25	99.00	99.00	98.00	96.75	97.00	95.00	96.00	96.00	95.50	93.00	91.50	93.50	92.75	92.25	94.25	94.25	94.00	92.75	90.00	89.25	88.75	89.75	89.00	89.00	88.75	88.50	88.75	88.00	90.75	93.75	94.75	93.25	91.25	89.75	88.50	88.75	86.25	86.00	86.25	87.50	87.50	88.25	86.50	85.00	85.25	86.25	86.50	83.75	86.75	87.00	83.25	83.75	83.25	83.25	85.25	85.00	81.25	80.75	80.75	80.50	80.00	80.75	81.25	78.00	78.25	79.75	79.00	78.25	80.50	85.75	85.25	89.25	84.50	88.75	86.25	87.75	89.00	90.50	92.25	96.00	94.75	93.25	96.75	93.75	94.50	99.25	102.50	104.25	101.50	105.50	105.25	103.25	106.50	107.00	109.75	117.25	123.50	113.75	119.50	121.25	113.75	112.50	115.75	115.25	122.00	117.75	124.00	121.25	123.50	127.00	129.25	132.75	135.00	138.25	140.25	144.50	148.75	153.00	162.50	172.25	188.50	294.50	333.25	351.50	318.25	240.75	214.50	224.25	236.00	207.25	195.75	189.75	193.25	197.75	207.50	217.75	242.75	234.75	313.75	292.00	242.50	276.75	254.50	215.75	211.75	223.25	224.50	235.50	269.25	287.00	298.25	299.00	318.75	309.75	303.75	311.00	320.00	345.00	352.75	400.75	407.00	474.00	467.00	454.75	551.75	595.00	574.25	570.75	551.25	535.00	566.75	546.75	547.25	518.75	539.00	552.00	513.25	406.75	405.00	413.25	412.00	394.00	395.25	357.00	348.25	347.75	340.25	331.00	325.50	335.50	351.75	336.50	319.25	310.75	299.00	297.50	287.50	285.00	288.00	298.25	294.50	267.50	261.75	268.75	258.75	260.00	273.25	267.50	257.75	247.00	230.75	253.50	267.50	254.25	248.50
109.50	109.75	109.50	109.75	108.00	106.25	107.00	107.50	106.50	105.75	104.50	103.00	104.00	103.00	102.25	102.25	101.00	101.25	100.25	100.75	99.50	99.00	99.50	99.75	98.75	99.00	100.00	99.25	98.50	97.50	98.25	99.00	100.00	99.50	100.00	100.25	99.50	99.75	99.50	99.75	99.25	99.25	98.25	97.00	96.50	95.75	97.25	96.25	95.25	93.75	91.75	92.00	92.75	93.25	94.50	95.50	94.75	94.75	92.25	90.50	90.00	91.25	88.75	90.00	91.75	90.50	89.75	90.50	92.25	93.75	95.00	93.25	92.00	92.75	91.75	91.75	92.00	91.00	89.75	90.75	90.50	89.75	90.25	89.25	89.25	88.25	89.25	84.75	84.50	84.75	86.25	86.50	84.50	83.25	82.50	82.50	81.75	80.75	80.25	80.50	80.50	80.50	81.00	80.50	80.75	76.50	77.25	76.00	75.75	80.25	83.00	86.50	84.25	83.50	86.50	85.50	90.00	87.75	90.50	92.75	92.00	93.75	94.50	92.75	93.25	94.25	101.50	101.50	100.75	101.75	106.00	104.50	100.25	104.00	106.50	112.25	115.00	127.50	117.25	119.25	122.00	118.75	113.50	114.50	118.50	123.25	125.25	126.75	128.25	132.50	130.00	131.25	136.25	137.75	142.75	144.25	147.50	152.50	157.50	171.00	192.00	243.75	493.50	415.75	325.50	268.75	237.00	231.25	228.75	235.00	211.75	200.25	200.50	198.25	199.00	220.50	234.75	267.25	255.00	261.00	271.25	297.75	313.00	229.25	227.50	237.50	252.75	261.25	243.50	252.75	285.50	335.25	321.25	329.25	296.25	305.00	316.75	339.25	358.00	373.25	368.50	404.00	424.25	414.50	524.25	567.50	585.50	569.75	573.75	571.25	557.75	527.25	539.75	560.50	537.25	489.00	494.25	460.50	417.00	419.75	410.00	397.25	391.25	400.00	350.50	346.50	338.00	333.50	331.25	333.25	343.00	342.50	330.75	314.50	309.00	297.50	292.00	286.00	281.25	284.25	283.25	280.75	283.00	273.25	274.50	267.25	250.00	248.75	245.00	236.50	236.00	242.25	258.50	249.50	236.50	236.25
111.00	109.25	109.50	109.25	108.25	105.75	108.50	107.50	106.50	106.00	106.50	105.50	104.25	103.25	102.50	102.00	101.25	101.50	101.00	100.50	99.25	100.25	100.75	99.50	100.75	100.00	99.25	98.25	98.50	97.25	98.25	99.50	100.25	100.00	100.00	101.00	100.25	98.50	100.25	100.00	99.75	98.75	97.25	96.00	93.50	93.25	93.25	94.00	92.25	92.50	91.75	91.75	92.75	94.25	95.75	96.00	94.75	94.00	90.00	90.50	91.25	93.25	91.50	94.00	94.00	93.75	93.25	94.25	95.25	94.00	92.75	92.50	91.50	89.50	93.25	92.75	91.50	92.00	92.00	91.00	90.50	89.50	88.00	91.00	91.25	90.00	89.00	87.00	86.75	86.00	83.50	84.25	83.00	82.75	83.00	82.75	81.75	81.25	80.00	80.00	80.50	81.00	80.25	80.00	80.00	80.50	79.75	78.00	76.25	76.75	81.75	82.00	83.00	83.50	84.25	85.75	88.00	87.00	88.25	89.50	93.00	94.00	94.50	91.50	93.00	95.00	102.75	103.00	103.50	105.75	102.00	102.00	99.25	99.25	106.50	117.75	107.50	117.25	113.50	113.00	114.25	115.75	113.50	112.75	116.50	118.75	129.25	129.75	129.50	139.75	135.25	135.50	138.50	141.00	147.25	151.00	155.50	160.50	166.00	180.75	207.75	313.75	472.50	421.25	313.75	284.25	249.25	242.75	236.25	240.75	210.75	215.00	213.50	198.50	199.25	213.25	225.50	262.00	277.00	247.75	270.50	279.00	290.00	241.00	241.75	256.00	275.00	279.75	266.75	268.50	340.00	344.00	297.00	290.25	289.00	318.75	340.75	324.75	332.50	339.00	359.00	370.00	398.75	471.25	605.25	577.00	579.00	579.25	569.00	567.25	554.25	525.50	523.00	533.25	532.50	512.75	469.50	425.75	427.50	415.50	398.00	382.75	374.25	367.50	352.50	362.00	348.75	341.50	336.25	339.00	345.00	337.00	326.00	314.00	312.25	298.50	293.00	286.50	294.25	309.75	305.50	309.50	294.50	299.25	288.75	274.00	254.50	240.50	242.00	249.75	251.50	253.25	258.50	248.75	244.00	227.75
110.75	110.75	109.75	109.00	107.75	107.25	107.25	107.25	105.75	105.50	106.25	104.00	104.25	103.50	101.75	102.25	102.25	101.75	100.75	101.25	100.00	100.25	98.75	99.25	99.50	98.75	100.00	99.50	99.50	99.00	100.50	100.25	99.75	100.50	100.25	100.50	99.25	100.00	99.50	99.50	97.00	97.50	95.25	94.00	94.75	94.00	93.75	93.75	93.50	92.75	92.00	93.75	95.25	96.25	95.75	94.75	94.00	93.25	91.00	93.75	92.50	93.00	92.00	91.50	95.50	94.75	95.00	93.50	90.75	89.50	88.50	90.75	90.50	89.00	91.75	92.00	90.25	89.75	91.75	90.25	88.50	88.50	86.25	90.75	89.50	89.00	86.50	89.25	89.00	88.00	84.00	85.00	84.50	84.75	82.00	81.25	83.00	81.75	81.50	80.00	80.00	80.25	80.25	80.00	80.25	79.75	80.50	80.75	80.25	77.00	82.50	83.50	85.00	85.50	85.00	85.25	86.00	86.50	88.00	89.75	90.25	93.25	92.25	92.00	92.50	95.50	98.25	98.50	100.50	99.75	99.25	99.50	101.00	102.25	108.25	118.00	106.50	110.00	110.25	112.50	111.00	113.75	114.50	116.75	115.75	117.50	128.75	130.75	131.00	137.00	150.00	141.00	140.75	140.25	146.25	151.00	157.25	167.75	177.25	195.25	226.25	412.00	468.25	433.00	370.25	289.50	266.25	253.75	258.75	256.75	231.75	224.25	219.75	204.50	204.75	207.25	211.25	259.25	293.75	274.75	284.25	272.00	260.50	244.00	245.75	247.50	243.00	255.00	278.50	272.50	291.25	309.50	293.50	320.25	314.25	297.00	309.50	320.00	340.00	370.50	387.50	388.75	395.25	425.00	615.75	559.25	557.25	569.25	564.00	559.00	541.75	503.25	545.25	516.75	527.00	462.75	501.25	420.75	423.50	396.00	379.00	375.25	366.00	364.25	367.00	376.25	366.25	353.00	341.00	344.50	344.00	331.75	321.50	313.50	312.50	296.50	293.50	295.50	304.50	324.75	326.75	331.75	308.50	307.50	279.25	268.00	264.25	256.75	266.75	268.75	263.75	256.00	256.50	258.75	247.50	239.50
108.75	107.75	108.50	108.25	107.75	108.25	107.25	108.00	107.25	107.00	104.75	103.75	105.00	103.75	102.50	103.75	102.00	101.50	101.50	102.75	101.75	100.75	100.75	99.75	100.25	99.50	101.50	101.25	100.75	99.25	100.75	101.00	99.75	99.75	99.50	98.75	98.50	98.50	99.25	96.75	96.75	95.25	94.75	94.00	94.00	94.00	93.50	92.75	92.50	94.50	94.50	94.00	92.75	95.00	93.25	91.75	96.00	95.50	93.25	95.00	95.25	96.50	94.75	94.25	96.00	93.50	93.00	91.50	89.25	90.50	92.00	92.75	90.75	88.00	88.00	89.75	88.50	87.50	90.50	89.25	87.25	85.00	86.50	88.00	89.00	87.00	85.50	88.25	89.00	87.25	85.75	86.00	86.25	83.25	81.75	81.00	82.00	84.50	84.25	80.25	79.50	80.00	79.50	80.00	79.50	79.25	79.50	81.00	79.25	79.25	80.00	81.25	83.00	85.00	85.00	85.00	85.75	86.75	89.75	89.75	90.25	91.25	91.50	92.25	93.00	92.75	94.25	95.25	96.75	97.25	98.25	99.25	100.00	101.50	103.75	106.75	106.50	105.75	107.25	113.25	113.50	116.25	118.25	119.50	116.75	117.75	122.50	122.75	126.75	135.25	152.25	142.50	140.75	141.50	147.50	153.50	160.75	173.25	184.25	207.75	229.00	364.25	480.75	448.00	368.00	315.25	285.00	278.00	290.00	296.75	261.25	255.75	230.00	210.25	213.25	247.75	238.50	235.75	276.25	299.25	294.75	300.00	280.75	255.00	246.00	271.25	240.50	245.75	259.00	275.50	300.75	283.75	344.25	369.50	344.00	301.75	329.50	336.00	355.00	392.50	408.50	426.00	437.25	411.25	575.00	576.50	534.75	577.00	557.75	549.75	514.00	514.50	545.50	507.75	479.50	525.50	481.50	411.25	415.25	383.75	370.75	366.50	371.25	377.00	388.00	377.00	374.25	368.50	351.50	353.75	342.50	328.25	318.75	313.00	310.00	300.75	307.00	311.00	315.25	334.00	338.25	336.75	314.00	301.75	293.25	293.00	274.25	261.00	264.00	263.50	261.25	240.50	242.75	255.00	249.00	221.75
107.00	106.25	106.50	105.50	107.00	107.00	106.75	106.75	106.25	105.75	104.00	103.75	103.75	104.00	104.50	103.25	102.00	103.00	103.25	102.75	101.50	100.50	100.50	101.50	101.50	101.50	101.50	102.25	102.00	101.25	101.00	100.50	99.50	99.00	98.50	98.00	97.00	97.25	96.50	94.75	95.00	95.25	94.75	94.50	94.50	95.25	95.50	94.50	93.50	96.25	96.25	94.50	91.75	93.25	96.00	94.75	95.75	95.75	95.25	95.50	94.75	94.00	94.50	94.25	94.25	94.00	93.50	93.00	93.00	93.50	91.75	91.75	92.75	90.25	91.00	90.50	87.25	87.75	87.00	85.50	86.50	88.50	87.00	85.50	85.25	85.75	85.25	85.50	87.50	86.50	86.75	87.00	85.25	82.00	83.50	81.75	82.25	82.50	81.75	80.00	79.50	79.50	79.25	79.75	79.50	79.25	79.50	79.50	79.25	80.00	82.25	82.50	83.75	86.00	88.50	88.25	88.25	89.50	89.50	89.50	89.50	90.50	91.50	92.25	93.00	94.25	95.00	96.00	96.75	97.50	98.50	99.50	100.50	101.00	102.25	103.50	107.25	107.75	110.75	114.00	115.25	113.75	116.75	117.25	118.25	118.75	121.50	123.25	126.75	129.50	144.50	137.00	136.00	143.50	153.50	160.00	166.50	173.50	183.75	209.50	269.50	334.00	388.00	463.50	418.00	367.75	376.75	406.50	391.25	424.25	308.75	254.75	223.50	218.75	235.25	290.75	256.25	242.75	255.25	265.00	274.00	290.25	262.00	260.75	253.50	255.75	265.50	271.00	302.50	376.75	349.25	342.00	427.00	392.75	347.00	305.25	333.50	335.50	355.25	389.25	436.25	447.25	475.75	456.75	552.25	577.00	522.25	556.75	542.25	527.25	490.75	514.25	522.50	471.75	473.50	550.25	442.50	407.25	402.00	378.00	370.25	368.50	376.00	378.75	380.25	363.00	354.25	358.00	354.50	351.25	339.00	329.50	318.75	313.75	311.75	325.50	341.00	338.00	337.25	348.25	345.00	335.75	317.00	305.00	290.25	283.25	262.00	243.25	241.50	240.75	241.25	225.75	228.75	228.75	229.00	222.00
108.00	108.25	107.50	107.50	106.75	105.75	105.50	105.00	104.50	104.25	104.00	104.25	104.75	104.50	104.50	104.00	102.25	102.75	102.75	102.25	100.25	101.50	101.75	103.00	102.75	101.50	102.75	102.50	101.00	100.25	100.50	99.75	100.00	99.25	98.50	96.75	95.75	95.25	95.25	94.50	94.50	94.75	94.75	94.25	94.50	96.50	96.75	97.00	97.00	97.50	95.25	94.50	96.25	96.50	96.00	95.00	96.00	93.25	92.50	93.75	92.50	93.50	92.50	92.00	94.00	91.50	92.75	92.00	91.75	89.50	88.75	89.50	92.50	90.75	90.50	89.25	91.00	88.50	87.00	87.50	86.75	86.75	88.50	87.00	86.50	86.00	84.75	85.00	86.25	85.50	86.75	87.00	83.25	83.50	81.75	83.75	81.25	81.00	80.25	79.75	79.50	79.00	79.00	79.25	79.00	79.50	79.25	79.75	76.50	81.00	84.00	82.50	83.25	87.25	90.50	91.25	89.50	87.75	88.00	89.25	91.00	90.50	91.25	92.50	95.00	95.00	95.25	96.25	96.50	97.75	98.50	99.00	100.25	101.25	103.00	104.00	106.25	111.75	110.00	113.50	110.25	114.00	117.75	120.00	117.00	119.50	120.50	123.00	125.00	126.00	130.50	128.75	139.75	150.75	163.00	173.25	185.50	167.25	175.50	225.00	397.00	356.00	548.25	530.00	435.00	442.00	515.25	467.25	498.50	509.75	316.00	251.00	232.75	220.75	239.25	267.75	269.50	240.25	266.75	270.75	294.75	296.75	277.00	266.25	256.75	260.00	272.75	305.25	398.25	459.00	375.00	449.00	433.50	355.00	353.00	319.00	340.25	356.00	383.50	418.75	428.50	460.50	486.00	514.00	580.25	576.50	508.50	533.00	530.75	499.75	485.00	466.25	480.50	472.50	516.25	530.25	412.25	397.75	386.75	379.00	372.75	368.75	368.25	368.00	362.00	351.75	347.25	348.50	345.00	342.00	332.00	326.75	321.00	315.75	318.00	357.25	391.50	362.50	355.25	361.75	345.25	332.75	308.75	290.00	270.25	266.75	256.75	244.50	232.75	241.25	251.50	225.50	222.25	225.25	218.50	214.50
106.75	106.75	106.75	106.00	105.50	105.25	106.00	105.00	104.75	105.00	105.25	103.50	103.25	103.25	102.50	102.00	101.25	101.75	102.25	102.00	101.00	102.00	103.00	102.75	103.25	102.25	101.75	101.00	101.00	100.25	100.00	100.75	99.25	98.75	97.25	96.25	95.50	95.00	95.50	95.25	95.00	94.00	94.00	94.00	97.25	96.50	96.00	95.50	96.00	92.75	94.75	95.50	96.75	95.25	94.75	94.75	94.25	92.00	93.75	92.25	91.25	90.50	89.00	91.25	91.00	89.00	89.25	89.50	89.50	89.00	89.00	89.00	89.00	90.25	89.50	88.50	88.75	89.25	87.75	87.25	88.75	87.50	87.25	86.75	87.50	86.75	84.00	84.25	84.75	84.75	86.75	87.50	86.00	84.25	81.00	80.75	80.50	80.50	80.00	79.50	79.25	79.00	79.00	79.00	78.75	79.00	78.25	77.00	83.00	88.00	85.25	82.25	83.75	85.00	88.00	87.25	86.50	87.00	88.25	88.75	89.75	91.00	91.25	91.50	92.50	94.00	95.00	95.50	96.50	97.00	98.25	99.00	100.00	102.25	102.50	102.50	106.75	111.50	107.75	114.25	113.75	118.75	121.00	118.75	115.25	116.75	119.50	121.50	124.00	126.25	127.75	134.00	136.50	150.00	152.50	157.50	165.75	163.75	179.00	224.75	361.25	444.25	642.75	544.50	532.25	468.75	573.75	554.25	489.00	375.25	284.50	266.25	245.75	232.50	238.75	266.00	283.75	245.25	268.00	287.75	321.75	310.75	294.75	267.75	269.75	289.75	275.75	293.25	405.50	415.25	395.75	440.75	427.50	388.50	375.50	345.75	355.00	395.00	431.00	424.25	425.50	446.00	458.00	521.75	570.75	564.50	509.00	475.50	478.75	520.00	518.25	477.25	434.00	519.75	541.50	460.50	410.25	409.25	402.00	383.75	371.00	365.50	360.50	357.50	353.75	349.00	345.00	342.25	339.75	337.75	332.00	326.50	325.50	325.50	332.25	346.75	371.00	356.50	345.50	344.75	328.25	321.75	306.00	297.75	280.50	270.75	248.75	245.50	249.75	247.50	252.25	222.25	225.00	240.00	231.50	226.25
106.75	106.50	105.75	105.75	104.75	105.25	105.00	104.75	105.00	104.50	103.75	104.75	105.25	104.75	102.25	102.75	101.50	102.50	103.00	102.75	101.50	102.75	104.00	103.00	102.75	102.75	101.50	101.00	100.50	99.25	99.50	98.00	98.25	97.50	96.00	97.50	95.25	96.50	96.50	96.25	96.75	96.25	95.50	94.50	95.75	97.25	98.00	96.00	96.50	96.00	97.50	98.00	96.25	94.00	93.75	94.00	90.75	91.25	91.50	88.75	90.00	89.25	89.00	89.00	88.25	87.75	88.75	87.75	88.25	89.75	91.00	91.00	89.25	87.75	89.00	87.75	85.25	86.75	87.50	88.25	89.50	88.50	87.25	85.50	86.25	85.00	83.00	87.00	85.00	85.25	84.00	87.00	85.75	83.00	81.75	80.75	80.00	80.00	80.25	80.00	78.75	79.00	79.00	78.75	79.00	78.75	75.50	80.00	82.75	86.25	83.50	83.25	83.25	84.75	84.75	84.75	85.75	86.50	87.25	87.50	89.00	89.75	90.00	90.50	92.00	92.75	94.25	95.25	95.75	97.00	98.00	99.25	100.75	102.25	102.25	103.00	110.50	107.25	107.25	114.75	112.75	119.25	120.25	116.50	118.50	119.00	119.25	122.75	128.50	129.50	131.00	135.25	136.25	141.50	145.00	149.00	152.75	167.25	185.50	228.25	325.25	473.25	534.00	599.25	625.00	572.50	575.75	629.50	419.25	343.75	302.75	283.00	253.25	255.75	240.25	267.00	291.00	247.25	256.50	291.00	307.25	327.75	308.75	271.25	284.75	320.50	305.50	288.75	387.00	362.00	438.50	495.00	461.00	439.75	364.50	389.25	413.75	441.50	432.75	398.00	416.25	448.50	507.00	553.50	577.75	556.50	517.00	501.25	477.25	500.50	477.50	438.25	475.75	541.00	504.50	417.50	428.25	418.75	404.00	379.75	372.75	365.50	359.75	356.00	351.25	346.75	342.00	339.50	338.00	335.25	337.75	340.25	343.00	348.25	352.25	349.00	355.25	342.00	326.25	317.25	310.00	302.50	289.50	291.50	291.50	273.50	254.25	265.50	262.50	253.25	251.50	225.50	228.75	253.50	241.25	232.75
107.25	107.50	107.00	106.25	105.25	106.50	107.00	105.50	104.75	104.25	104.00	104.00	104.50	103.75	102.50	102.25	102.25	103.75	104.00	103.00	103.75	103.75	103.50	102.50	101.75	101.75	101.75	100.75	100.25	98.75	98.50	97.50	97.75	97.75	97.00	96.50	96.75	95.75	99.00	98.00	97.00	97.00	95.75	97.25	98.75	98.25	98.75	98.50	99.00	99.50	98.50	98.25	98.00	95.50	94.75	94.25	93.75	92.25	90.25	92.25	92.25	91.75	91.00	91.25	88.25	89.50	89.00	88.00	90.25	90.25	91.50	91.50	90.50	87.75	86.00	86.25	88.00	88.00	88.75	89.50	89.50	90.00	89.00	89.00	87.25	83.50	82.25	84.25	85.75	85.50	82.50	83.50	83.00	83.50	81.50	81.25	83.00	80.50	80.25	79.50	79.50	79.25	79.50	78.75	78.75	74.50	78.00	81.75	85.25	84.75	82.00	82.75	83.50	83.50	84.75	85.50	86.25	86.00	87.25	88.00	88.75	89.00	89.75	91.25	92.00	92.50	94.00	95.25	96.25	97.00	98.00	99.50	102.50	102.25	102.00	105.00	109.75	107.00	109.00	113.00	114.50	119.75	118.50	118.50	119.75	120.50	122.25	125.50	127.00	132.25	131.75	136.50	137.50	139.00	143.25	145.75	152.00	166.75	184.75	245.25	348.75	462.00	423.25	563.50	639.25	610.50	542.50	614.00	446.00	354.25	297.25	282.25	261.75	252.75	252.25	293.25	296.00	262.25	255.75	268.25	283.75	318.50	331.75	283.75	277.25	303.00	330.75	329.50	470.50	432.25	470.00	557.50	505.75	436.50	402.75	430.75	432.25	416.00	409.00	384.25	408.25	437.00	516.50	565.50	571.25	548.50	558.75	520.00	494.50	456.25	445.00	437.25	494.75	489.50	450.25	429.75	427.25	406.50	399.00	380.25	371.50	368.50	358.00	354.25	348.75	343.50	338.75	338.50	333.50	324.25	330.25	348.75	365.75	371.75	363.25	331.75	330.75	319.50	320.00	309.00	300.00	296.50	277.00	272.25	274.25	276.00	265.00	273.50	264.50	252.00	246.75	224.75	223.25	249.00	246.00	242.00
108.50	107.00	107.75	106.50	106.00	105.00	106.25	106.25	106.00	106.00	106.50	105.25	104.75	105.00	104.00	103.25	103.75	103.75	105.25	104.50	103.75	103.50	103.25	102.50	101.75	101.75	101.25	100.75	100.25	99.00	99.00	99.75	98.25	97.00	97.00	96.75	96.00	96.50	99.75	98.00	98.50	98.00	98.00	98.25	98.25	96.00	98.00	97.00	96.75	97.75	97.75	97.75	96.75	95.50	95.75	94.50	91.25	92.50	91.25	91.50	90.75	89.75	89.50	89.75	89.25	89.25	87.00	86.25	86.50	86.75	89.00	90.75	90.50	89.75	86.50	89.50	91.00	91.00	90.75	90.25	87.50	89.25	89.50	89.75	84.00	82.00	82.50	83.25	84.75	85.00	85.00	86.50	86.75	86.25	81.50	81.25	81.50	81.00	80.50	79.75	80.75	85.25	79.75	79.00	77.00	76.00	80.00	81.50	82.75	81.50	82.25	82.25	83.25	87.00	86.00	86.75	86.00	86.75	86.50	88.00	89.00	89.75	89.75	91.25	92.50	94.25	95.00	95.25	96.00	96.75	98.00	99.75	102.00	101.75	102.75	109.00	110.00	107.75	108.50	111.50	116.00	120.75	118.25	119.75	121.00	123.25	122.50	124.00	128.50	130.00	133.75	134.75	139.50	139.25	140.50	143.00	150.25	170.25	210.25	222.00	260.00	353.50	298.75	395.25	539.25	608.25	588.25	569.75	507.75	359.75	297.50	273.25	269.75	261.00	267.75	316.50	287.00	263.50	263.25	266.75	281.75	325.00	347.25	296.75	284.00	312.75	324.50	331.75	494.00	486.75	510.75	530.75	458.75	428.75	437.50	417.25	404.25	402.50	377.00	393.25	437.50	472.75	519.75	550.25	559.00	535.25	533.50	509.50	499.25	466.75	450.00	460.50	448.50	450.50	460.25	437.50	413.50	431.25	420.50	386.50	368.50	362.25	359.25	354.25	341.50	334.00	331.25	330.25	322.50	310.75	312.25	336.00	355.50	383.50	354.50	311.00	299.50	290.50	310.75	309.00	303.00	295.25	277.75	267.25	254.25	259.25	269.00	263.25	269.50	256.00	242.75	223.75	225.00	245.00	248.75	253.75
108.00	108.00	106.00	106.00	106.00	106.75	105.50	105.75	105.50	104.25	105.25	104.50	104.25	104.50	103.75	104.25	104.75	104.75	104.50	104.00	103.50	103.25	103.00	103.00	103.00	102.50	101.50	100.50	100.00	99.50	99.00	98.75	98.50	96.75	97.00	98.00	98.00	99.50	99.00	98.25	99.00	97.00	97.50	97.75	97.75	98.50	97.25	97.00	96.25	97.00	98.25	97.50	95.75	95.75	93.75	94.00	94.25	91.75	91.25	91.25	91.00	89.75	89.50	90.50	90.25	88.00	87.25	89.75	90.75	89.50	87.50	87.50	88.25	89.75	90.75	91.00	91.50	91.25	90.25	88.75	85.50	84.50	84.50	86.00	83.25	82.25	82.25	84.25	84.00	86.50	85.75	86.25	86.50	85.75	84.50	82.75	81.50	81.00	80.75	80.00	80.00	80.00	79.50	78.50	75.00	78.25	80.75	81.00	83.25	83.00	82.25	82.00	83.00	83.75	89.00	88.25	85.75	86.50	87.25	87.75	89.00	89.25	90.75	94.00	93.50	94.00	93.25	95.00	96.00	97.00	101.50	103.00	101.75	102.00	102.75	107.00	106.25	107.00	108.75	111.00	112.00	114.75	118.25	119.25	122.00	121.00	121.00	124.75	131.00	131.50	131.00	132.50	138.75	140.75	143.50	145.50	148.50	162.75	196.25	193.50	208.25	233.25	254.75	301.75	382.50	542.75	598.50	498.75	451.50	341.25	359.75	289.75	284.75	269.00	291.50	319.50	287.25	269.25	281.50	286.75	298.75	327.25	330.50	296.25	304.25	319.25	347.25	360.75	636.00	578.25	504.25	471.25	428.50	408.75	428.50	391.75	389.50	404.00	370.00	393.00	428.25	467.75	509.00	536.25	537.75	523.00	520.75	505.75	477.75	436.00	487.00	485.00	470.25	463.50	454.50	440.50	424.00	450.50	415.75	380.00	365.00	361.50	358.50	346.00	334.50	328.50	322.75	316.50	303.50	296.25	297.50	314.50	336.75	388.50	367.50	333.25	308.00	277.75	287.50	297.25	293.50	281.50	262.75	248.75	240.75	240.75	242.75	236.75	240.25	243.00	236.50	225.75	227.25	250.50	263.50	255.25
108.25	107.50	106.25	106.00	107.00	108.00	105.75	106.00	106.25	105.50	103.75	104.00	103.00	103.00	104.50	105.25	105.00	104.50	104.00	104.00	102.75	102.25	100.75	102.00	101.75	102.25	101.25	100.75	100.50	98.25	98.25	97.75	97.25	97.00	99.25	100.25	100.50	99.50	99.25	99.75	98.25	98.75	99.00	99.75	100.25	99.25	99.00	97.25	96.75	98.00	97.25	95.75	93.50	95.00	95.00	94.75	94.50	91.50	92.00	94.25	93.00	92.50	92.00	92.50	92.00	90.00	90.25	92.00	92.00	91.50	88.75	86.75	87.25	89.00	91.00	91.00	91.50	91.50	91.50	90.75	90.00	88.25	85.00	82.75	83.75	86.25	85.00	84.00	84.25	84.00	83.25	82.75	84.50	86.25	85.50	85.25	81.25	81.00	80.00	80.50	80.00	80.25	79.75	78.75	75.75	79.50	82.00	82.75	90.00	102.25	82.50	82.50	81.50	88.25	86.50	86.75	85.75	86.50	88.75	92.25	91.75	94.00	96.75	92.00	92.00	92.00	93.00	94.50	96.50	99.25	107.25	107.75	107.00	103.75	103.50	104.50	108.25	107.75	108.00	111.00	111.75	114.50	121.25	123.25	125.25	123.25	124.00	128.00	132.25	135.00	134.50	133.75	139.50	143.25	147.25	148.00	151.25	152.25	161.25	179.00	186.75	208.50	233.50	268.75	339.50	479.50	536.25	472.00	399.25	352.75	375.50	306.25	290.25	275.75	320.25	335.75	303.50	283.00	320.75	299.00	314.75	349.75	342.00	297.00	323.50	312.00	340.50	369.00	637.50	630.75	528.50	474.25	429.50	388.50	404.50	372.25	380.25	396.25	369.75	400.00	420.75	455.00	495.25	513.50	499.25	512.75	470.75	497.50	469.00	422.75	482.75	494.00	459.50	438.75	444.25	428.00	440.00	436.25	397.00	371.75	364.00	358.75	346.75	334.75	328.75	320.50	314.50	310.00	299.50	291.25	285.75	287.25	316.00	365.50	339.00	312.00	287.50	274.25	277.50	280.25	270.50	252.25	241.75	242.00	240.00	240.75	236.00	239.25	239.50	228.00	235.50	234.50	238.50	250.25	264.75	261.50
106.25	106.50	107.25	107.50	107.25	107.00	104.75	104.75	105.00	103.00	103.00	103.00	103.25	103.00	104.25	104.50	103.25	102.75	102.50	101.75	100.25	100.50	99.75	100.50	99.75	100.25	101.50	100.75	100.75	99.00	97.75	99.00	98.50	100.50	101.50	100.75	100.75	101.00	101.50	100.50	99.75	100.75	100.25	100.75	100.00	98.25	98.50	97.25	97.75	97.75	98.75	96.00	93.75	94.75	94.50	94.50	92.50	91.75	94.25	93.75	93.00	91.50	91.50	92.25	92.00	90.75	90.50	90.50	91.00	89.50	87.00	86.75	88.50	88.25	89.50	90.00	90.50	91.50	91.75	91.00	91.50	91.00	90.25	88.75	90.50	90.25	85.00	84.75	84.00	83.75	83.25	82.75	84.00	87.25	86.25	83.75	82.25	82.75	82.75	80.50	80.50	80.25	78.50	78.25	77.00	84.00	128.50	105.50	115.50	131.25	82.25	83.75	82.75	84.00	85.75	84.50	85.25	86.50	89.25	93.00	95.50	94.50	95.50	91.25	91.00	91.50	92.75	96.25	99.75	103.00	106.25	107.00	110.00	107.75	107.00	109.00	108.00	109.50	111.75	109.75	111.75	122.50	140.00	180.75	171.25	135.25	133.50	199.50	360.25	384.00	358.75	268.50	135.75	140.25	147.75	152.00	154.25	156.75	159.75	169.50	179.50	198.25	227.00	268.75	311.75	342.25	465.00	468.00	417.25	370.75	355.50	323.75	315.00	302.75	331.25	344.75	305.75	301.50	333.75	343.00	337.75	372.00	347.50	303.50	311.00	325.50	373.25	396.00	521.00	560.00	526.75	448.75	418.25	387.75	377.25	389.00	351.00	384.75	361.75	403.50	408.00	450.75	463.50	474.25	455.50	495.00	437.25	430.50	423.75	442.50	485.25	458.75	471.50	443.00	460.00	430.50	435.50	413.75	381.50	367.00	360.00	361.75	347.50	330.00	322.25	316.75	313.50	313.00	300.75	290.25	283.75	279.50	282.75	301.25	305.50	279.00	262.50	263.75	262.00	258.25	247.50	250.75	265.00	269.75	267.50	265.00	252.00	253.25	237.25	230.25	244.25	265.50	273.25	254.50	267.25	265.00
107.25	108.50	107.00	106.50	106.50	105.00	104.25	103.75	103.50	102.25	102.00	103.25	104.75	103.00	102.75	103.75	104.50	100.50	101.00	101.00	100.00	99.25	99.75	99.00	98.75	99.75	100.25	101.00	101.00	100.50	97.50	101.25	102.00	101.75	101.75	101.25	101.50	102.25	100.00	102.75	102.75	102.00	101.50	101.00	99.50	99.50	99.25	98.25	98.25	98.50	97.00	94.75	93.50	95.25	93.25	93.25	95.50	94.00	94.00	93.25	93.00	91.25	91.50	92.00	92.00	90.25	89.25	88.00	87.00	86.50	86.50	91.00	89.25	88.25	88.25	89.75	90.25	88.75	91.75	92.00	91.25	91.75	91.50	90.25	90.50	89.50	84.00	83.50	83.00	82.50	82.25	82.50	83.00	88.25	86.50	81.25	82.50	85.75	84.75	81.00	81.25	80.00	78.00	75.00	77.25	125.50	341.50	176.00	141.75	138.50	83.25	82.00	83.50	82.50	85.25	87.25	90.00	93.75	96.00	97.25	96.50	93.75	89.75	89.75	90.00	92.00	93.75	95.50	96.00	97.25	103.75	105.25	107.25	108.25	110.25	106.50	112.75	112.00	112.50	112.75	118.25	153.00	259.25	332.25	354.75	183.25	153.00	344.75	512.50	537.75	422.75	367.25	140.25	143.50	145.75	149.75	156.25	184.75	168.25	165.75	170.50	194.50	210.50	234.50	279.25	358.25	404.50	501.50	562.50	427.75	417.00	351.25	345.50	329.00	351.00	351.75	301.25	331.75	353.25	372.25	366.00	371.25	337.00	313.25	307.75	312.25	358.50	369.25	442.00	437.50	488.50	473.25	432.25	388.00	366.25	388.00	333.75	368.50	353.00	383.50	358.75	419.50	462.75	430.50	435.25	421.50	413.00	435.00	424.50	446.75	447.00	467.75	485.25	472.75	484.75	451.75	449.00	391.50	387.75	366.50	358.00	350.25	338.75	330.00	324.75	320.25	324.25	317.25	301.00	293.50	286.00	280.50	285.50	278.75	268.00	258.75	261.25	265.25	257.50	268.00	263.50	271.00	294.00	296.25	289.00	280.50	243.75	232.50	228.50	228.75	239.25	280.00	285.25	254.00	285.25	284.75
109.75	107.50	106.25	105.50	105.50	104.00	103.00	102.50	102.75	102.75	103.25	103.00	103.50	103.50	104.00	103.25	102.25	102.25	100.50	101.25	102.00	100.50	99.75	99.25	98.75	98.25	98.50	99.75	99.00	97.50	97.00	99.50	102.00	101.25	101.25	99.25	100.25	101.50	103.75	102.00	100.75	101.00	100.75	99.75	99.25	99.25	98.50	97.00	97.25	97.00	95.00	93.75	93.50	94.50	93.50	94.00	95.25	94.75	94.75	93.50	92.00	92.00	90.25	89.50	89.00	90.00	91.25	91.50	89.75	88.75	88.75	91.00	91.75	92.00	91.75	91.00	91.00	91.00	90.25	89.75	90.75	89.75	91.00	89.25	89.00	89.00	85.00	84.75	84.50	83.50	82.25	82.25	82.75	89.25	85.25	82.50	86.00	86.25	84.00	80.50	81.00	81.25	82.25	85.00	96.50	100.25	154.25	138.00	227.00	132.00	82.00	82.00	83.50	82.75	88.75	92.50	92.50	93.75	94.25	95.25	92.00	89.00	88.00	89.25	90.00	93.25	97.00	97.25	96.50	98.25	102.00	101.75	106.25	106.25	108.50	109.50	112.00	117.25	115.25	118.25	126.75	211.00	365.25	372.75	286.00	183.25	155.25	232.50	266.25	248.25	201.00	178.75	139.75	141.00	144.50	148.25	172.00	274.50	235.25	173.50	171.00	178.50	193.75	223.25	296.50	494.25	495.75	576.50	609.25	442.25	391.25	345.25	327.00	333.50	345.50	358.25	318.75	361.50	392.50	399.75	409.75	386.25	358.75	328.00	318.25	327.25	336.00	340.00	375.25	391.50	445.50	461.50	410.00	388.75	361.50	376.75	349.00	332.25	351.25	352.25	323.50	353.75	396.25	437.50	410.50	395.25	403.00	460.75	455.00	510.00	509.75	499.50	511.25	485.50	456.50	424.25	407.75	388.50	382.00	368.75	363.00	352.00	339.50	336.50	333.50	333.25	326.50	314.50	304.50	299.50	290.00	290.00	298.50	284.50	277.00	279.50	296.00	285.00	276.50	291.75	297.75	298.50	305.25	301.50	281.25	264.50	235.75	231.75	241.50	233.75	251.50	273.75	287.00	266.50	291.25	302.00
108.25	107.00	104.25	104.25	104.50	103.75	103.00	103.00	104.00	104.50	103.75	104.75	105.50	103.75	103.00	101.25	102.00	102.75	102.25	102.50	101.50	101.00	99.50	99.25	99.00	98.00	98.75	99.50	99.00	96.75	98.00	102.00	101.50	102.50	102.75	100.00	101.75	100.50	101.25	102.00	101.25	100.00	99.75	99.50	99.25	99.25	98.25	97.50	97.50	96.75	96.25	96.00	96.25	94.50	93.75	95.00	94.00	95.50	94.00	92.75	93.00	92.00	92.25	90.75	88.25	88.75	89.00	91.75	91.75	91.25	91.75	92.00	92.00	91.50	91.25	91.00	90.75	90.75	91.75	90.50	90.75	90.75	88.75	88.00	86.00	87.50	87.25	87.25	88.00	86.25	84.50	82.75	82.00	87.50	88.75	84.50	86.50	84.25	81.25	82.25	81.50	81.75	81.00	77.50	107.75	84.75	91.75	103.50	187.75	118.25	82.75	81.50	83.00	82.75	89.50	91.00	91.00	94.50	93.75	91.25	86.25	87.25	88.75	88.75	91.75	95.00	100.75	97.25	96.50	99.00	102.25	102.50	109.75	110.75	109.75	110.50	112.50	114.75	119.50	121.25	129.50	211.50	244.25	268.00	215.00	190.75	155.75	151.75	151.50	148.00	138.75	136.00	138.75	142.25	147.25	153.50	193.50	249.00	367.00	206.25	182.75	192.25	191.50	207.75	243.50	361.50	478.25	515.25	560.25	431.00	325.00	353.00	319.50	331.75	318.75	330.75	350.25	366.25	376.25	395.75	405.75	392.25	375.75	338.25	339.50	362.50	350.00	342.25	386.00	401.00	442.25	440.00	433.00	418.50	365.00	326.50	315.25	322.25	348.50	315.00	299.50	300.75	309.25	324.25	408.00	396.25	420.00	467.50	498.00	519.50	518.00	520.25	500.50	460.25	426.75	395.75	396.00	381.25	377.50	369.75	358.00	347.75	342.75	348.00	345.00	340.50	322.25	312.75	307.00	300.75	298.75	311.75	315.50	302.25	295.75	303.75	313.75	299.25	302.25	316.50	316.00	303.75	288.75	279.25	266.00	263.25	235.50	244.00	251.50	243.50	260.75	275.25	300.00	278.25	290.75	297.50
106.50	106.50	104.50	105.00	105.00	105.25	105.50	106.50	106.00	104.50	105.25	104.00	104.75	104.50	104.00	103.25	104.00	103.00	103.75	102.50	103.00	101.00	100.50	100.50	100.25	100.00	99.75	100.50	100.25	100.50	102.50	100.50	101.75	102.75	102.25	101.25	101.25	100.50	98.75	101.75	101.25	100.75	100.25	99.25	99.50	99.75	98.50	97.75	97.50	98.00	97.00	97.25	96.00	94.50	95.25	96.25	94.25	94.00	93.25	92.50	92.50	91.50	93.25	93.25	92.25	89.75	90.00	90.75	90.00	89.00	89.00	89.25	88.75	90.00	91.25	90.75	91.75	92.00	91.00	91.00	91.00	90.75	89.50	90.00	89.50	89.00	88.50	89.00	89.75	88.75	86.75	84.75	83.00	86.50	88.75	85.75	85.00	81.25	82.25	82.25	82.25	80.75	80.50	85.25	103.00	88.50	85.50	90.25	123.00	92.50	81.75	82.00	82.75	82.50	84.25	89.25	87.25	91.25	88.25	85.25	86.50	87.50	87.75	89.50	90.00	92.75	96.25	95.25	97.50	100.00	104.25	106.75	111.25	113.00	114.25	115.25	115.75	115.50	118.00	122.50	130.75	146.25	160.50	179.00	178.75	180.50	162.00	149.25	144.75	143.00	139.50	138.75	139.75	144.00	151.00	157.75	172.00	201.00	281.75	213.00	209.75	216.00	225.00	233.75	235.25	281.75	321.50	335.50	372.00	352.50	299.50	323.25	304.75	304.50	308.50	319.50	333.50	351.75	360.75	403.50	381.00	388.50	361.50	327.50	358.75	380.00	378.25	388.75	420.50	453.75	454.25	417.50	387.25	358.00	348.50	347.75	303.00	343.25	339.75	305.75	298.00	321.25	323.25	310.50	350.50	352.75	435.25	464.50	497.50	504.00	504.00	522.50	497.00	452.75	419.50	398.75	383.25	377.25	374.00	367.75	358.25	357.75	363.00	363.75	356.00	335.50	321.75	314.50	308.00	309.00	319.75	325.25	330.25	325.25	321.00	327.50	320.50	310.75	312.25	316.00	318.25	302.75	290.75	290.75	280.25	263.50	237.50	233.50	261.00	260.50	262.25	290.25	308.00	292.75	281.25	281.00
106.00	106.25	105.00	104.75	105.50	106.25	107.50	107.00	106.00	106.50	107.50	107.00	105.25	104.25	104.50	103.75	104.75	103.50	102.25	101.50	101.50	102.75	102.25	102.25	102.25	102.00	101.50	103.00	100.50	100.50	101.25	101.50	99.75	100.75	101.75	102.50	101.75	101.50	98.50	101.00	100.25	99.50	100.50	100.75	100.25	100.00	100.00	98.75	98.50	97.50	97.25	97.50	97.25	95.75	96.75	95.75	95.75	95.00	94.00	93.75	94.25	93.50	94.00	93.75	93.00	92.75	91.00	90.50	89.00	87.75	87.75	87.00	86.00	89.75	91.25	91.00	92.00	92.25	91.50	90.50	89.25	89.25	90.00	89.75	89.50	90.00	89.00	91.25	90.50	89.75	90.25	87.50	83.50	84.75	87.25	87.00	83.25	81.50	82.00	83.50	83.25	81.25	76.75	81.75	103.00	113.75	82.75	83.75	82.50	82.25	81.00	81.00	81.50	82.00	82.50	83.75	84.75	85.50	85.50	84.25	86.50	86.75	87.75	88.50	89.50	92.50	95.25	98.25	100.75	105.75	107.00	106.50	113.25	113.25	117.75	120.25	117.00	116.75	119.75	125.00	129.50	144.25	149.00	161.50	155.75	175.00	173.25	157.50	146.75	141.25	138.50	139.75	142.00	145.75	152.25	161.00	169.50	177.50	186.75	212.50	235.75	265.50	384.25	382.00	327.75	459.00	343.50	263.00	280.00	303.75	283.25	287.00	279.75	291.25	301.00	331.50	323.50	358.75	379.50	385.00	355.25	375.75	350.75	358.25	371.00	377.75	390.00	410.50	448.75	435.00	463.75	461.50	410.50	350.75	305.75	326.75	298.25	340.00	307.75	289.75	299.75	338.50	351.25	336.50	329.75	391.25	481.25	536.75	528.75	508.00	513.25	502.00	494.75	445.75	436.50	397.25	389.25	382.00	376.75	374.75	370.25	373.50	377.75	366.50	348.00	334.50	324.25	317.50	310.75	319.50	339.25	339.25	345.25	342.75	348.00	334.50	318.75	313.50	327.00	333.25	323.25	303.75	311.25	295.50	267.00	242.25	240.75	241.50	252.75	280.75	265.50	277.50	299.50	301.25	290.25	288.50
106.50	106.00	106.00	106.00	107.50	107.50	106.50	106.00	107.50	109.00	109.00	107.00	105.25	104.75	103.50	104.50	104.00	103.25	102.75	101.00	101.50	102.00	103.50	103.25	102.50	101.25	103.00	102.00	102.00	102.25	101.75	99.25	100.75	100.75	100.50	102.75	101.75	101.00	99.75	100.00	102.25	101.75	101.00	101.50	101.50	100.50	100.75	99.75	99.50	98.75	98.00	99.25	96.00	94.75	98.25	100.00	100.25	96.00	93.50	93.00	94.25	94.50	94.25	94.50	94.25	93.50	93.00	91.50	90.50	91.25	90.00	89.50	89.50	90.50	90.50	90.75	90.25	90.25	89.75	89.75	89.75	90.25	90.25	90.00	89.50	90.25	90.50	90.25	91.00	90.75	87.25	83.75	82.75	82.25	86.50	85.50	82.50	82.75	81.00	82.75	82.25	76.75	77.00	87.75	83.00	85.00	97.25	100.75	84.00	83.75	80.75	80.75	81.25	81.75	82.50	82.75	82.75	83.75	84.50	85.25	85.75	86.25	89.50	88.75	89.25	93.00	97.25	100.75	104.00	107.00	113.25	112.75	115.25	122.50	126.50	127.50	126.25	120.50	122.25	149.75	133.25	155.25	153.25	150.00	147.25	172.50	180.75	167.25	146.25	143.00	144.75	145.25	147.50	150.50	155.00	167.50	185.25	192.75	209.25	270.50	301.25	385.50	536.00	412.75	342.75	517.75	488.00	369.75	262.50	260.75	264.00	284.50	305.75	317.75	324.75	315.75	325.50	332.25	341.50	343.25	359.75	389.25	390.75	386.00	444.50	458.25	498.00	485.25	465.00	425.50	411.00	398.50	371.25	336.50	294.00	287.00	299.00	332.75	290.75	313.50	336.25	363.75	382.50	379.25	392.25	403.25	481.00	554.00	539.75	518.75	516.25	493.50	482.00	455.50	432.00	403.50	400.25	398.25	401.00	397.25	380.25	382.25	380.75	365.00	350.00	340.75	331.75	325.75	319.50	326.00	341.75	342.00	340.50	343.00	348.25	326.25	319.50	330.00	347.25	338.00	319.00	314.00	307.25	288.75	254.75	248.50	255.00	245.25	248.50	262.75	279.00	282.00	301.00	314.00	314.00	305.25
108.00	106.50	106.75	106.75	107.00	106.00	106.25	107.25	110.50	110.75	109.25	107.00	105.50	104.75	103.75	104.75	104.50	104.25	102.00	100.75	102.25	100.50	102.75	103.50	102.50	100.50	103.25	99.75	102.50	102.50	102.75	99.75	101.75	102.00	100.75	102.25	100.75	100.50	101.25	101.25	102.25	101.25	100.75	101.25	101.50	100.75	100.50	100.25	99.75	98.50	98.50	99.50	95.50	96.25	100.50	103.00	100.75	95.75	93.50	92.75	94.25	95.00	94.25	94.50	95.00	94.25	93.00	90.75	92.75	94.50	92.00	91.50	91.25	89.50	90.25	90.50	89.75	90.00	89.25	90.75	90.00	90.75	91.00	90.00	90.00	90.50	91.00	91.00	90.75	90.75	88.00	83.75	82.25	82.75	86.50	86.00	83.00	83.00	81.75	82.75	78.50	74.75	79.50	86.50	82.25	90.00	140.75	107.25	83.00	82.50	80.75	80.50	81.00	81.75	82.00	81.75	82.00	83.25	85.00	87.00	86.00	86.25	89.00	91.00	89.25	92.75	98.00	101.75	106.25	108.50	116.25	117.00	121.00	141.75	143.25	135.00	147.50	128.00	122.50	135.50	127.00	150.50	143.25	142.50	142.50	166.00	177.00	170.50	146.50	145.25	148.25	148.25	150.25	153.75	158.00	175.00	206.50	206.50	225.50	346.75	393.25	417.50	570.00	391.75	336.50	460.75	512.75	385.00	288.25	268.75	266.50	303.50	325.25	328.50	350.25	323.50	347.50	339.25	335.75	345.00	353.25	375.75	401.50	421.00	493.00	491.00	514.75	524.50	483.25	448.75	422.25	396.75	359.75	324.25	292.75	280.00	309.75	318.25	285.75	322.00	348.25	379.25	374.00	393.00	465.50	445.50	506.00	574.00	542.00	519.25	513.25	477.00	473.75	454.25	426.75	411.75	408.50	407.50	410.75	398.00	383.75	389.25	382.50	366.75	356.00	346.50	336.75	334.00	328.00	334.50	343.25	343.50	341.25	337.50	335.75	325.50	328.25	343.25	353.00	333.50	316.75	318.00	298.50	282.00	254.00	248.00	266.50	243.00	250.25	257.00	263.75	283.00	291.00	321.75	331.75	312.50
107.75	108.50	107.75	107.50	107.00	108.75	108.00	110.25	110.00	109.25	110.25	108.25	105.75	104.50	103.75	103.75	104.00	103.50	101.25	101.25	101.00	102.25	102.75	103.50	101.00	101.50	101.50	101.50	102.75	103.25	102.00	100.25	101.00	102.75	102.75	102.50	102.75	103.50	102.50	103.25	102.50	101.25	101.75	102.00	101.25	100.50	100.00	100.25	99.75	101.25	101.50	101.50	101.25	101.00	102.50	102.50	97.50	95.75	94.50	92.75	93.75	93.75	94.00	94.25	94.75	93.25	91.25	93.00	95.00	93.50	92.50	91.25	90.50	90.50	90.00	90.00	90.50	91.25	90.00	90.50	90.75	91.75	91.25	90.50	90.25	91.00	90.00	90.50	87.75	84.00	83.75	82.75	82.75	84.75	86.25	86.00	84.50	84.00	83.25	79.00	77.00	79.75	80.75	81.00	81.75	100.25	134.75	84.00	82.25	81.50	81.50	80.00	82.25	81.00	81.50	81.75	82.25	83.00	84.25	89.00	89.00	88.50	89.25	90.25	89.50	92.75	97.75	102.75	109.50	113.75	121.25	124.75	147.75	231.00	202.50	175.50	231.50	234.25	171.50	127.75	127.75	132.50	134.25	143.25	148.25	156.75	168.50	168.00	148.00	152.50	150.50	149.00	153.75	158.75	166.00	193.75	262.50	249.50	245.75	474.25	591.25	473.25	604.50	493.25	394.50	378.75	449.50	392.50	312.50	291.75	276.00	288.00	306.75	347.75	358.75	342.00	368.00	372.50	374.25	360.25	359.50	371.00	387.75	438.25	456.00	477.00	500.00	506.25	452.25	454.00	414.25	387.75	345.75	338.50	323.75	280.50	283.75	279.50	300.00	306.00	321.75	354.00	352.75	405.75	480.00	457.75	520.00	554.75	538.75	506.25	513.00	492.00	454.25	441.75	432.75	422.00	419.25	422.00	418.00	402.50	400.75	407.00	388.75	375.50	369.25	359.00	358.75	356.50	353.50	357.25	365.75	363.75	353.25	345.00	339.00	342.00	341.50	347.25	339.25	322.50	309.75	293.25	267.25	259.50	252.25	252.00	274.00	245.50	259.00	251.00	251.75	273.50	286.75	312.00	313.00	303.50
108.25	106.75	106.25	105.75	106.25	108.75	109.75	110.75	109.00	107.00	108.50	107.50	105.25	102.75	104.50	102.00	102.75	103.25	102.00	100.00	102.25	100.25	101.50	104.00	104.25	101.00	101.75	103.75	104.00	103.00	102.25	103.50	101.00	101.75	104.75	104.25	102.25	105.00	103.75	103.50	103.00	102.75	102.75	102.00	101.00	100.00	102.00	100.25	101.00	102.75	100.75	102.00	103.25	102.75	98.50	102.50	100.75	98.00	94.50	93.00	92.00	95.25	94.75	94.25	95.25	92.75	95.75	93.25	93.75	92.75	92.00	92.50	91.50	91.25	91.25	91.50	90.75	91.25	91.75	90.75	91.75	91.75	91.50	91.25	91.00	90.75	90.25	91.00	83.00	80.00	79.75	80.00	81.50	83.25	84.50	84.00	82.75	82.00	81.50	75.75	79.50	80.50	80.50	81.25	87.25	82.50	81.75	81.50	80.75	82.00	81.75	81.25	81.50	81.00	81.75	83.25	82.50	82.50	83.75	84.50	86.50	88.00	88.50	94.25	91.00	93.50	98.50	106.00	113.25	118.50	125.25	130.75	158.75	213.75	242.25	178.25	289.75	352.25	278.25	138.25	131.00	140.75	148.50	165.50	164.75	170.25	170.00	160.25	151.50	159.00	150.25	150.75	161.25	166.50	174.00	199.25	299.75	310.50	263.75	487.75	583.75	527.00	627.25	627.25	520.00	411.50	438.75	363.75	305.00	303.25	302.25	294.25	309.50	340.00	326.25	335.00	375.75	388.75	405.00	372.75	406.25	413.00	421.75	418.25	444.50	481.00	458.00	444.00	398.25	374.25	386.50	366.00	314.75	322.50	336.75	275.50	259.00	280.25	296.25	324.25	313.75	329.75	368.50	427.00	421.25	464.50	493.75	522.50	517.75	508.25	504.00	466.75	460.50	447.00	446.00	439.00	430.50	424.00	412.00	411.75	422.25	415.50	390.25	391.25	382.75	374.50	378.50	374.00	375.75	373.25	380.00	376.50	362.25	361.25	369.50	348.50	341.25	341.25	343.75	319.75	286.00	284.00	250.25	275.00	264.00	263.00	281.25	251.75	268.25	273.25	255.50	280.00	291.50	307.00	279.50	284.25
106.50	106.50	110.25	109.25	109.50	108.75	110.50	110.75	109.75	105.75	103.50	107.50	107.00	104.75	105.25	103.75	102.50	102.75	103.75	103.75	101.75	101.75	102.25	104.25	103.25	101.25	103.50	102.50	102.50	103.50	103.75	102.25	101.25	102.75	104.75	105.00	103.75	104.50	102.75	104.25	101.00	101.50	102.75	101.00	101.50	99.00	100.25	102.50	102.50	101.50	97.25	97.75	100.50	101.00	99.75	100.50	100.25	98.50	91.75	91.25	93.00	95.25	92.25	89.75	91.75	95.25	91.00	92.00	92.75	93.50	93.25	92.50	92.50	89.50	91.50	91.25	91.25	92.00	93.25	90.50	91.75	91.25	91.25	91.25	90.50	89.00	88.25	89.75	82.75	80.25	80.25	79.50	80.00	79.75	81.50	81.50	83.75	82.50	79.75	75.75	79.75	80.25	80.50	88.25	114.00	83.50	81.25	81.50	80.50	81.75	81.25	81.50	82.00	81.75	82.50	83.00	83.25	83.25	84.00	84.75	87.00	88.75	90.25	96.25	92.50	94.50	101.25	108.50	115.25	118.00	133.50	144.00	177.25	183.50	231.00	234.75	238.00	312.50	246.25	146.75	158.50	138.00	148.25	171.00	226.00	190.75	162.75	161.25	160.50	161.50	153.75	153.75	160.75	167.25	180.25	194.75	241.25	311.25	335.75	429.50	560.25	604.25	664.75	609.75	523.50	443.25	498.50	396.00	312.25	313.00	321.25	302.50	307.75	323.00	340.25	347.75	355.25	378.25	400.00	383.00	394.25	425.00	463.75	437.25	442.25	455.50	435.25	419.25	402.25	381.00	348.25	334.25	307.75	274.25	276.00	251.75	261.00	284.50	310.50	357.00	395.75	425.25	394.75	410.25	434.50	466.25	468.00	477.25	499.25	515.75	491.00	478.00	469.75	459.75	453.75	441.75	432.25	421.50	418.25	428.75	428.00	415.25	412.00	417.25	403.50	392.50	388.25	375.50	374.75	372.00	377.50	385.75	380.25	376.00	369.00	351.75	344.75	334.25	328.25	326.75	289.00	256.25	276.75	293.00	270.50	263.50	283.75	259.00	262.00	282.75	272.50	285.00	315.25	306.75	287.25	266.75
106.00	106.25	111.50	111.75	110.50	111.00	110.50	109.50	109.00	106.00	104.50	107.00	107.25	106.00	106.25	106.50	104.25	104.25	104.25	104.50	104.25	103.75	104.50	105.25	104.25	102.25	101.50	102.00	103.75	101.50	105.75	98.50	97.25	103.00	105.00	106.00	106.00	105.00	103.50	103.75	102.00	102.75	102.75	103.75	101.50	101.50	102.50	103.50	102.00	101.25	100.25	95.50	94.25	98.50	101.25	99.75	98.50	98.50	98.50	98.75	95.75	91.00	90.25	88.75	91.50	93.50	90.75	93.50	92.75	94.00	93.75	94.25	93.25	91.50	92.50	92.25	92.00	92.25	92.50	92.75	92.00	90.25	89.25	88.50	85.75	83.00	82.75	84.75	82.25	80.75	80.00	80.00	80.50	80.00	80.25	80.50	82.25	83.50	81.50	75.25	79.00	79.50	80.50	80.25	80.00	82.00	81.50	81.00	80.00	81.50	80.75	81.00	82.00	83.50	83.00	83.00	85.50	85.75	84.75	84.25	86.25	89.50	91.25	94.75	96.75	96.75	103.75	110.25	117.50	116.25	154.75	197.25	157.75	165.50	211.25	259.00	275.00	347.00	262.50	157.00	169.75	179.50	150.25	145.75	182.50	166.50	151.50	154.00	161.75	164.00	162.25	157.25	163.25	170.75	182.75	197.75	220.00	275.75	320.00	439.75	597.75	585.50	654.00	576.75	523.00	527.00	529.00	411.50	329.25	319.50	332.25	325.75	327.75	368.75	366.25	385.00	378.00	367.50	357.00	329.00	329.75	404.00	511.00	436.25	385.25	387.75	424.75	443.50	411.00	384.00	344.00	324.00	293.75	248.75	242.50	271.75	280.00	327.00	338.75	406.50	483.25	472.75	422.50	436.00	423.00	431.25	435.50	469.25	530.75	515.25	497.50	486.00	471.75	466.50	457.25	441.75	433.50	426.50	427.00	435.50	436.50	433.25	439.00	440.50	422.00	403.75	403.25	386.75	378.75	381.00	395.50	395.00	385.00	380.25	365.50	346.75	331.75	312.25	295.00	292.25	275.25	271.00	306.00	316.00	281.75	259.75	275.00	253.75	270.75	302.50	294.00	275.50	293.75	301.50	280.00	278.00
109.50	110.50	109.75	109.00	109.00	109.50	108.50	108.75	108.50	108.75	108.00	106.00	106.75	108.25	108.50	107.75	107.00	106.50	105.75	106.50	105.25	105.00	105.75	105.75	106.00	105.25	103.00	99.50	102.75	104.50	105.00	103.25	104.75	105.50	106.00	105.00	104.75	103.00	103.75	104.75	105.00	102.75	103.50	103.50	101.50	102.25	102.50	102.75	103.25	102.00	100.75	99.75	98.25	98.00	100.50	101.50	99.00	98.50	99.75	99.50	97.75	95.50	94.75	92.75	94.25	89.75	90.75	91.25	94.75	94.75	95.00	94.50	94.50	93.25	93.50	95.75	93.25	90.75	93.00	92.50	92.25	91.00	89.00	88.50	88.00	86.75	83.25	81.75	82.50	86.00	86.25	85.00	86.25	87.00	86.75	88.50	82.00	81.75	81.75	76.50	77.50	78.25	79.00	79.50	78.25	81.50	81.25	80.75	80.75	81.25	81.00	82.00	81.75	82.75	82.50	83.50	84.50	86.00	90.75	87.75	85.75	89.00	94.00	96.25	96.50	98.50	105.75	109.25	112.75	115.25	136.50	200.25	180.75	171.50	193.75	267.75	279.00	308.00	305.25	172.00	162.75	279.75	207.25	163.00	169.75	157.50	154.00	151.00	162.00	167.75	165.00	158.00	165.75	172.25	187.25	195.75	236.00	323.00	270.25	412.50	532.75	577.50	623.00	540.25	619.75	591.00	586.50	422.75	339.50	333.75	348.50	326.25	332.25	357.00	372.50	403.00	379.00	314.75	308.25	303.00	340.75	399.00	419.50	414.00	377.25	342.75	358.25	386.00	393.25	344.50	312.50	294.25	270.50	252.25	242.50	268.00	290.25	349.75	383.50	466.75	470.50	443.00	459.75	475.25	462.25	451.50	460.00	480.50	528.00	509.75	489.00	479.50	474.00	462.50	452.00	439.50	435.00	428.50	426.75	433.25	440.50	441.50	436.00	430.25	405.75	386.50	405.50	392.25	380.25	392.75	406.50	397.00	381.00	380.75	371.00	346.75	332.50	321.50	307.00	289.25	267.00	274.00	310.25	315.25	277.00	288.25	269.75	257.50	259.25	277.50	293.50	290.25	286.75	286.50	276.50	298.25
111.50	110.00	106.25	109.25	109.50	108.50	109.00	109.25	108.75	108.00	105.00	104.25	103.50	106.75	106.50	105.50	107.00	107.75	107.75	107.75	107.75	105.50	105.75	105.00	104.75	104.25	105.25	103.25	104.50	106.25	105.25	105.50	106.50	106.50	104.00	102.75	103.50	102.25	101.75	104.25	105.50	103.25	102.00	104.25	103.50	102.75	102.50	100.75	103.50	100.75	95.50	97.00	97.50	98.75	102.00	100.50	100.25	99.00	98.50	99.00	97.75	96.50	95.75	95.00	90.25	88.75	89.00	91.00	94.25	95.00	95.25	94.00	94.50	93.25	94.50	94.00	94.50	94.50	91.50	93.25	93.00	91.50	90.00	90.75	91.25	90.25	86.25	89.00	87.00	88.25	90.25	90.00	90.00	90.50	90.00	89.75	82.25	81.25	80.75	81.00	77.25	77.00	78.00	77.50	77.50	81.75	81.00	80.25	81.50	80.75	81.25	81.75	86.00	86.50	85.00	85.75	85.25	87.25	95.00	90.25	87.75	89.75	97.50	93.50	97.00	101.25	103.50	107.25	110.75	113.00	128.75	177.00	188.00	195.50	192.00	202.00	262.25	298.75	392.25	209.50	177.00	321.50	287.75	214.25	180.25	175.00	167.75	155.25	158.75	165.50	167.50	163.25	165.25	166.50	184.75	204.25	283.50	412.75	307.75	328.50	403.25	547.75	521.50	506.00	617.25	586.00	499.00	411.00	354.00	353.25	338.75	322.00	320.50	314.00	327.50	363.00	328.50	277.50	274.75	302.25	365.75	356.75	364.50	378.50	381.00	362.50	317.75	335.50	395.50	348.75	322.75	273.50	247.25	240.50	266.75	292.00	300.50	369.25	389.75	429.50	410.50	412.75	464.75	502.75	495.50	467.25	488.00	505.75	524.50	505.25	486.25	470.75	464.25	453.00	444.75	435.75	434.00	429.25	428.00	434.00	437.50	424.75	422.50	418.75	378.00	356.75	380.50	373.25	373.50	392.25	399.75	387.00	372.25	368.50	356.00	336.00	331.00	312.50	307.50	293.25	266.25	294.25	305.75	308.00	296.50	301.50	294.50	267.00	261.50	267.75	280.25	309.00	294.75	278.00	294.75	310.75
108.75	107.25	108.75	109.00	107.25	107.25	107.50	107.50	106.50	105.00	104.00	105.50	107.25	108.75	107.50	105.25	105.00	105.50	106.75	106.75	106.75	106.00	106.00	104.00	104.25	103.75	105.25	106.50	105.25	106.00	104.75	103.50	104.50	104.50	105.50	103.50	104.00	103.25	101.75	102.50	104.25	104.00	102.75	103.00	102.00	100.75	99.25	97.00	98.00	98.00	97.25	95.75	101.25	99.50	99.50	99.25	98.75	98.75	97.50	96.75	97.75	98.50	97.50	97.00	92.75	92.75	92.50	93.50	94.50	94.75	91.50	91.00	91.00	91.75	92.00	91.00	90.75	92.25	91.75	93.00	90.25	88.00	88.25	87.75	88.00	88.25	89.25	91.00	90.75	90.25	90.25	90.50	91.50	91.25	91.00	89.00	80.25	80.25	81.00	79.75	78.50	77.50	76.25	75.25	76.25	81.25	82.75	80.75	80.75	81.25	81.75	83.50	87.25	83.75	86.00	85.00	85.75	87.50	94.50	91.50	89.75	91.00	92.00	94.50	94.75	97.25	101.00	105.50	111.25	114.75	142.25	186.50	217.50	193.50	216.75	233.50	280.75	306.25	379.25	267.50	194.50	275.25	414.75	341.25	207.00	201.25	177.75	164.75	166.75	161.00	171.00	168.75	178.25	178.75	181.50	198.25	238.75	274.75	322.75	399.25	443.50	420.50	396.50	513.75	573.75	564.00	453.75	393.25	370.00	356.00	339.00	327.50	303.75	274.00	312.25	317.25	284.50	266.00	261.75	355.75	416.25	340.25	338.75	365.50	372.50	377.00	347.50	311.75	351.50	366.00	330.50	300.50	258.75	240.00	274.75	306.75	307.75	326.75	355.00	379.00	420.25	483.00	488.25	491.00	473.00	457.50	467.25	487.75	513.50	498.75	486.50	469.00	455.50	442.50	437.25	434.50	432.75	430.00	429.75	432.00	423.00	406.50	401.00	393.00	378.75	338.25	378.00	362.25	367.50	378.75	374.50	371.00	364.50	354.25	336.50	311.50	330.00	323.00	291.25	277.25	268.25	277.75	287.25	307.00	315.50	304.25	289.50	271.75	273.00	270.75	276.00	288.75	299.75	297.75	305.25	330.25
106.50	106.00	109.75	110.00	108.25	106.00	108.25	108.75	108.00	107.25	106.50	109.75	109.75	107.25	107.00	105.25	105.00	106.00	105.50	105.25	105.25	104.75	105.50	104.75	102.75	102.50	103.50	105.75	106.25	106.25	105.75	103.25	104.25	102.50	104.00	105.25	104.00	101.25	101.75	101.50	104.00	100.75	98.00	97.75	97.00	96.75	95.75	94.50	94.75	100.75	96.00	95.50	98.25	96.75	99.00	100.00	98.75	97.75	96.50	96.00	99.50	99.50	98.25	98.50	97.50	97.75	97.00	96.25	94.00	94.00	88.25	87.50	87.25	88.25	88.75	89.50	88.50	90.00	93.25	93.00	91.25	87.50	86.25	86.00	85.75	88.00	90.75	91.00	91.00	91.00	90.50	90.00	89.25	88.75	88.00	81.75	83.00	82.25	81.25	79.25	79.75	80.00	77.75	77.50	76.25	82.50	82.00	80.50	80.75	81.25	83.00	84.75	88.50	88.25	85.50	85.50	90.75	91.50	96.50	92.75	90.50	91.75	92.75	95.00	96.50	98.00	102.25	107.00	113.50	118.25	131.50	143.50	163.25	168.75	209.75	260.50	225.75	280.50	344.00	262.50	185.00	224.25	335.00	304.50	269.25	231.75	182.50	180.25	196.75	167.75	178.00	174.50	188.00	195.50	195.00	199.75	222.00	309.75	287.25	445.25	515.75	388.25	360.50	529.00	556.50	540.00	495.75	422.25	406.00	364.25	335.50	308.50	285.75	261.00	278.00	276.00	253.75	249.50	262.75	355.75	351.25	318.00	324.25	353.00	307.00	317.00	305.50	276.00	284.75	322.50	339.25	290.75	253.25	250.75	278.00	270.25	274.00	312.50	352.75	416.75	463.50	528.50	534.75	516.25	450.50	436.00	456.50	489.25	501.75	488.75	472.25	454.50	443.25	433.00	428.00	430.50	431.00	430.50	426.00	423.00	408.25	389.00	377.25	360.25	336.75	327.50	351.25	336.75	361.00	356.00	364.00	357.00	341.00	334.50	315.50	292.25	298.50	317.00	278.25	280.00	273.25	297.25	277.75	285.75	311.00	306.25	308.75	284.25	284.25	276.75	277.25	290.75	300.25	307.25	319.50	337.25
106.25	106.50	108.00	111.25	111.25	110.75	111.25	111.00	111.25	109.75	109.00	108.75	108.75	107.75	106.25	105.75	105.00	104.75	104.00	104.25	103.75	104.50	104.75	104.00	102.50	102.25	102.00	102.75	103.50	104.00	104.25	103.25	102.75	102.00	102.00	104.50	102.50	101.75	101.00	101.00	102.50	99.50	95.25	95.75	97.00	97.50	97.75	96.00	96.75	95.25	95.25	97.50	97.75	98.25	98.25	100.50	99.75	99.75	97.25	98.50	99.50	97.75	96.25	98.00	97.50	95.50	96.00	93.00	96.00	89.75	88.75	88.00	88.00	89.00	88.25	89.25	90.50	92.75	92.25	93.00	92.00	88.00	86.75	86.25	86.00	88.25	91.50	90.50	89.50	90.25	91.25	90.25	90.25	89.25	82.25	81.50	86.00	83.25	82.50	79.75	79.75	79.75	78.00	78.25	78.50	86.00	81.25	81.00	80.50	83.50	88.75	88.75	90.25	88.75	85.75	87.00	88.50	90.25	94.75	95.00	90.75	92.50	93.50	95.25	96.50	98.75	102.50	106.75	112.50	116.25	130.50	142.00	152.00	179.50	191.00	189.75	239.25	235.50	220.75	224.75	197.75	181.50	246.00	304.00	384.00	302.25	197.00	189.75	201.75	172.00	181.00	168.50	169.75	181.00	186.00	189.75	208.50	251.25	261.75	304.50	383.75	310.75	326.00	479.50	537.75	489.00	459.50	445.50	394.00	359.75	313.50	298.75	275.50	250.00	254.75	258.75	241.75	244.25	283.50	283.50	272.50	288.00	314.25	337.25	310.00	260.25	270.75	291.75	267.25	286.00	284.75	263.75	238.25	247.50	265.25	287.50	323.75	372.00	381.50	417.00	478.75	507.25	493.50	470.50	456.25	429.00	456.75	474.50	475.25	477.00	457.50	440.50	433.25	425.25	422.25	426.00	427.75	428.25	422.25	413.25	394.00	373.75	353.75	357.00	330.25	321.00	322.25	330.50	342.75	345.75	353.50	342.75	329.25	326.00	311.50	292.25	278.75	286.00	281.50	287.75	294.50	309.50	302.75	295.50	312.50	326.25	316.75	295.50	292.75	279.25	278.00	290.50	308.50	338.50	346.25	347.25
110.00	107.25	109.50	112.25	110.00	108.75	108.50	107.25	109.50	110.75	109.25	109.75	109.50	109.75	107.50	106.50	105.25	104.50	104.50	104.50	103.25	103.75	104.75	104.00	102.50	102.50	101.25	100.75	100.75	102.75	102.50	103.50	104.25	103.75	103.50	103.50	102.75	103.75	103.50	104.50	102.75	101.50	99.75	99.50	101.50	97.75	96.25	95.50	96.00	95.50	98.50	98.75	96.50	99.50	101.00	98.00	100.50	100.50	100.25	101.50	99.75	96.25	95.25	96.00	94.75	92.75	93.00	92.50	92.75	91.00	92.00	90.75	89.25	89.75	88.25	87.75	88.00	92.00	91.75	92.50	92.00	89.00	86.75	86.00	86.50	88.25	91.25	89.75	89.25	89.75	91.25	91.00	90.25	89.00	84.25	85.00	85.50	84.00	85.25	85.50	83.50	82.25	78.25	76.75	87.25	86.50	81.50	81.50	82.25	86.25	89.00	92.00	87.00	84.75	86.25	87.50	88.25	89.00	90.50	95.50	91.75	92.75	94.00	94.25	96.00	99.00	102.50	106.00	109.00	111.50	125.50	135.75	164.00	178.50	169.25	179.75	242.75	189.25	159.75	190.00	195.75	155.25	182.75	262.50	327.75	315.00	192.25	174.50	159.50	157.75	178.00	156.50	162.50	165.75	187.00	194.50	206.75	213.00	219.75	237.50	296.25	269.00	321.25	442.75	414.75	400.00	395.25	417.25	390.00	375.00	340.25	310.75	270.25	234.25	234.00	233.25	242.00	247.25	279.75	255.00	247.75	294.75	296.50	307.00	287.25	252.00	241.75	275.50	235.00	236.75	273.75	260.25	234.75	283.00	346.25	319.00	339.75	394.75	432.25	465.75	485.50	485.50	447.00	444.50	432.75	424.50	430.50	439.00	467.00	462.75	441.75	427.50	422.75	418.25	417.25	422.00	424.50	423.25	418.00	406.50	386.25	364.25	344.75	337.75	323.75	312.25	294.50	307.50	327.00	353.00	356.25	348.25	321.25	310.00	297.25	307.00	288.00	290.50	301.00	302.75	297.00	322.25	329.75	313.75	334.25	338.75	325.75	301.75	295.00	296.00	288.25	296.75	310.75	348.25	352.50	342.50
