530.50	523.25	498.00	485.75	474.75	475.00	513.25	513.25	484.25	497.75	460.75	468.00	480.00	507.00	529.00	549.25	544.25	563.00	527.50	512.75	511.00	484.25	496.50	512.00	542.00	520.00	518.75	527.00	476.00	446.00	485.00	519.00	558.50	536.00	510.00	488.25	478.00	503.00	525.75	530.75	521.75	490.25	526.25	523.75	493.50	463.25	471.25	515.25	532.50	519.50	490.75	484.75	483.75	507.25	501.75	476.00	502.50	491.25	473.00	485.00	486.25	504.75	477.50	448.25	477.25	495.00	464.00	498.75	484.75	516.75	539.50	478.50	524.00	539.75	501.25	513.50	549.00	549.75	502.50	478.50	476.50	487.25	463.50	444.00	439.25	433.00	435.50	450.75	449.50	442.50	436.75	439.25	442.50	462.75	472.25	469.25	506.00	476.50	460.50	462.25	473.50	477.75	467.75	471.25	452.00	481.75	475.00	461.75	447.25	471.50	477.00	490.25	491.75	501.00	497.25	494.00	506.50	511.50	522.25	522.75	552.50	568.50	560.75	562.75	569.00	562.75	566.00	559.00	565.25	562.25	591.50	580.50	570.25	555.25	553.25	540.75	521.50	527.50	516.00	529.25	533.00	530.25	525.25	513.50	504.75	504.75	500.75	493.50	485.25	490.50	492.50	496.75	508.50	503.75	506.50	507.00	496.50	483.75	489.75	490.00	492.00	518.25	526.00	519.75	519.25	557.75	550.50	522.00	541.25	553.75	535.25	517.50	517.50	519.50	529.00	531.50	536.75	539.50	553.00	539.25	555.25	560.00	579.75	569.50	555.00	549.50	565.50	591.25	599.00	561.25	572.00	557.50	541.75	535.25	539.25	550.50	538.25	530.50	520.25	511.50	503.50	496.25	495.75	486.50	482.50	482.25	473.25	467.25	469.25	483.25	491.75	487.75	493.75	497.25	496.00	495.25	495.25	494.50	494.75	484.00	482.25	480.75	486.00	484.50	480.75	478.75	485.75	483.25	482.75	483.50	480.50	480.25	482.25	484.00	485.25	489.00	488.75	488.25	488.00	495.50	497.00	488.75	486.50	485.50	485.25	485.75	494.75	490.00	486.75	497.25	504.00	506.25	503.50	502.50	497.75	496.75
546.25	541.25	496.75	517.25	473.00	482.00	514.75	501.00	487.75	520.50	464.25	486.50	491.50	516.75	508.00	508.50	512.75	571.00	560.00	570.00	513.00	495.75	535.25	578.25	550.25	525.25	516.25	528.00	466.25	476.00	478.00	495.75	567.00	555.50	555.25	490.50	459.75	509.00	541.50	537.75	531.00	529.75	535.75	528.00	483.75	484.50	484.00	536.50	537.00	519.50	486.75	495.00	499.50	528.00	515.25	486.25	522.75	506.25	498.00	506.00	493.75	502.75	500.25	463.75	474.50	503.00	480.00	523.00	504.75	504.75	551.25	499.00	519.50	566.50	540.50	516.75	541.50	553.00	489.00	489.00	497.50	478.25	462.50	472.75	472.25	435.50	434.00	431.75	428.00	428.00	434.75	438.25	430.00	427.00	438.50	447.25	477.25	481.00	435.50	468.50	459.75	468.00	458.00	474.25	447.00	462.00	453.50	439.00	440.00	469.75	483.00	491.75	498.75	497.25	488.75	512.75	538.75	545.00	535.00	551.50	543.00	570.25	592.75	589.75	583.50	540.25	557.00	549.00	531.25	557.50	578.50	553.50	565.75	582.50	568.75	549.25	538.00	526.75	510.50	512.50	519.25	517.50	515.50	505.50	503.75	504.00	501.25	501.00	487.00	474.50	493.50	495.50	501.75	502.25	494.25	498.00	499.00	489.25	482.50	494.25	514.75	499.25	508.75	522.00	537.25	535.50	564.75	526.25	521.00	533.50	523.00	512.75	520.75	535.25	550.50	549.50	562.00	568.25	576.50	547.25	574.25	567.50	587.75	592.50	561.00	556.50	589.00	580.50	573.25	570.75	545.00	534.75	528.50	527.50	520.00	530.00	533.50	523.00	530.25	510.00	507.75	497.75	493.75	478.00	478.75	484.75	482.75	471.25	466.50	498.75	491.75	484.50	493.75	501.25	499.25	492.00	492.75	494.75	485.25	484.25	484.25	484.00	484.00	485.50	484.25	479.75	488.50	483.00	483.25	483.25	482.75	484.00	484.25	486.25	487.50	488.75	489.00	489.50	488.75	493.00	488.00	488.00	487.75	487.50	490.75	495.75	488.00	489.75	494.75	499.25	505.50	498.25	498.00	505.00	495.00	502.00
529.25	550.25	524.00	501.25	479.25	462.50	525.25	507.00	506.75	492.00	464.50	466.50	479.25	491.50	487.50	502.75	523.75	536.00	545.25	557.50	504.00	521.25	553.25	568.00	512.75	488.00	474.50	483.25	450.50	462.75	502.25	547.25	559.25	530.00	504.50	511.25	494.00	470.75	493.50	520.00	546.00	548.50	534.75	499.50	483.75	519.25	491.00	537.75	535.50	494.00	515.50	492.75	513.00	548.75	522.75	488.75	522.00	521.75	505.00	521.25	531.50	517.25	509.75	473.25	474.75	495.25	502.50	523.75	509.25	487.50	531.50	541.25	498.50	525.25	553.75	533.25	552.75	550.25	493.50	505.50	485.50	480.25	472.75	485.25	479.50	453.50	476.00	459.75	455.25	459.50	463.00	439.25	452.75	448.25	425.50	429.50	436.50	440.25	444.50	462.25	447.75	450.25	466.25	476.50	455.75	440.00	437.25	441.50	456.00	477.00	488.75	500.50	499.50	486.75	494.00	502.50	549.25	563.50	542.00	570.25	567.75	562.75	564.75	579.25	542.00	570.25	535.50	532.25	542.50	569.75	587.25	538.50	542.50	542.75	574.50	552.50	525.25	518.25	519.50	497.50	516.50	516.50	514.00	505.00	500.25	505.75	505.25	506.00	491.25	474.25	476.00	494.25	498.50	496.75	497.50	494.50	488.25	482.50	495.00	513.50	523.00	532.50	505.50	535.50	539.50	547.00	563.75	536.00	516.25	519.50	517.75	517.00	533.50	543.50	548.00	568.75	581.00	593.00	589.50	559.75	575.50	599.50	603.50	607.50	582.00	551.75	554.75	550.00	546.25	545.00	558.00	547.25	548.25	538.50	524.25	509.25	511.50	521.50	515.50	505.25	499.00	494.00	481.25	479.00	488.00	486.75	478.50	465.25	466.25	477.00	494.25	495.75	494.25	505.75	498.50	494.00	493.00	489.00	484.75	485.75	485.75	486.00	484.75	486.75	493.25	481.00	486.25	488.00	484.75	485.25	487.50	486.50	486.50	489.00	489.75	491.75	490.00	489.25	489.50	490.25	491.50	491.25	490.25	489.25	489.00	488.50	500.50	510.75	512.25	506.50	500.50	507.50	506.75	502.25	501.50	511.25
525.75	516.25	490.50	499.75	500.75	471.00	532.00	550.50	530.25	473.75	471.25	455.00	475.00	524.75	544.00	542.50	563.50	538.75	566.50	574.50	533.75	566.75	590.25	585.00	553.25	527.00	493.25	482.50	461.50	474.00	490.75	513.00	554.25	547.50	525.00	545.00	532.00	480.75	470.25	538.75	557.50	560.50	514.50	481.00	537.75	533.25	502.75	541.25	532.00	497.50	527.00	508.00	504.00	558.75	526.25	492.25	531.25	547.50	519.25	523.75	539.00	528.00	517.75	482.50	476.25	507.75	509.75	550.00	560.50	493.00	522.00	554.00	514.25	531.00	536.50	556.00	558.25	529.25	502.50	488.25	492.25	502.75	476.75	495.00	467.75	464.25	487.50	487.00	474.75	487.75	451.75	437.00	465.75	462.50	448.75	438.75	422.25	418.25	420.25	440.00	439.50	436.00	455.50	461.75	452.50	425.75	433.75	467.75	484.00	495.75	499.00	492.25	476.00	483.25	506.00	501.00	520.25	541.25	559.00	558.50	529.25	544.00	561.25	553.50	538.00	550.25	545.25	523.75	545.00	576.00	580.75	546.50	519.50	545.50	553.25	562.25	544.75	521.00	506.25	494.25	511.25	511.50	508.50	507.25	505.75	501.25	505.50	503.75	500.75	486.50	475.25	481.00	492.00	487.50	490.50	482.00	485.00	500.75	515.25	518.75	535.00	544.75	516.50	549.00	539.75	564.25	551.25	536.00	514.50	516.50	514.75	536.75	569.50	549.00	558.25	567.50	594.00	624.75	594.50	583.50	596.00	590.25	614.75	616.50	604.25	575.50	575.50	565.25	581.25	562.75	537.75	540.75	531.50	538.75	526.75	514.75	505.75	511.50	508.50	502.50	492.25	485.75	477.50	482.50	491.75	484.00	473.25	470.50	470.50	475.50	471.50	491.50	497.50	502.25	498.50	497.75	494.75	488.75	490.50	490.00	487.25	486.75	488.25	486.50	488.00	482.00	485.75	486.25	488.50	488.00	490.00	491.00	489.50	487.50	491.25	489.50	490.75	489.75	491.25	496.50	495.75	494.50	493.00	493.50	490.75	490.25	517.00	510.50	503.00	490.25	489.50	517.25	511.00	511.75	515.25	524.25
562.25	528.25	503.75	533.00	510.50	475.00	513.75	556.50	546.75	508.50	491.00	484.50	458.25	502.25	497.00	550.50	591.25	589.75	577.75	603.00	590.75	586.75	567.25	543.50	529.75	507.00	498.00	473.50	456.25	487.25	494.00	494.00	509.25	555.50	541.00	548.75	533.75	507.50	477.75	495.00	538.50	552.00	491.00	535.50	547.50	516.00	482.50	512.00	516.50	509.75	550.75	536.75	538.75	531.00	502.75	498.00	528.50	558.00	558.25	530.00	502.75	500.25	496.50	510.25	481.00	506.75	513.75	529.25	546.50	525.50	513.25	549.00	536.00	556.00	534.75	561.00	552.00	512.50	521.50	521.25	510.00	511.50	493.50	485.25	473.75	464.00	483.75	481.00	480.00	480.00	450.25	470.25	458.00	456.00	468.75	454.75	438.75	437.50	422.75	423.50	427.50	427.25	431.25	444.00	440.00	446.50	456.25	481.00	490.75	493.25	484.25	471.50	482.25	492.25	537.25	530.50	525.25	546.50	541.75	532.50	530.50	566.00	538.00	536.25	560.75	528.75	526.50	540.00	577.25	570.75	556.75	577.75	527.50	519.50	559.25	551.00	525.25	529.00	522.50	510.25	500.50	512.50	509.25	506.25	500.00	505.25	506.75	501.75	498.00	495.00	478.25	475.75	483.50	478.75	470.75	481.00	495.25	505.75	518.50	514.50	534.50	550.00	532.50	540.50	560.25	568.25	553.50	527.00	518.75	515.00	531.75	561.50	571.00	571.25	572.00	567.50	593.50	601.75	591.00	573.50	570.25	593.25	610.00	614.00	611.50	602.00	603.75	593.25	570.50	564.50	561.50	559.50	530.00	527.25	511.50	517.25	514.25	502.75	501.75	495.25	489.75	482.00	479.50	480.50	482.00	476.25	467.75	468.00	461.25	468.50	467.50	483.25	498.50	494.50	494.50	497.50	498.25	491.00	496.75	490.75	488.00	488.75	487.75	487.50	488.75	485.00	486.50	496.00	491.25	490.75	492.00	491.50	492.25	494.00	489.75	490.25	490.50	492.00	494.50	499.25	497.50	497.50	494.25	493.50	493.25	492.25	512.50	518.00	498.50	500.50	510.25	517.50	520.25	516.25	516.25	519.25
570.25	548.25	533.50	552.00	523.50	486.00	508.25	562.50	586.75	582.50	513.75	479.50	478.75	465.50	474.25	516.75	588.50	638.00	600.50	646.00	600.75	549.75	516.50	500.00	528.00	524.00	475.75	461.25	455.50	469.00	505.50	515.50	500.75	514.50	538.25	520.50	503.50	507.50	489.25	486.75	525.50	541.50	534.00	568.50	501.25	491.25	469.25	464.50	499.25	509.50	538.50	582.25	571.50	506.25	535.75	524.25	509.75	557.50	574.00	525.50	509.25	512.00	533.25	545.25	500.00	470.00	479.00	492.25	502.00	518.75	525.00	572.50	577.25	577.00	576.00	579.50	548.50	545.25	554.50	545.75	527.25	498.25	496.25	481.75	484.50	480.75	486.75	484.25	475.75	473.25	451.75	499.25	484.00	469.50	481.25	463.75	458.50	444.25	439.75	423.25	422.25	421.25	427.25	434.25	431.00	435.00	443.50	456.00	464.25	464.50	461.75	491.25	490.00	508.75	528.50	549.00	526.50	557.50	535.00	511.00	535.75	551.75	531.00	549.50	552.75	546.25	533.75	548.75	561.25	578.00	547.75	568.75	535.25	505.00	552.75	552.00	514.00	505.50	512.25	517.50	497.50	515.00	504.50	509.00	507.50	502.50	502.00	502.25	494.75	496.75	490.75	478.75	478.25	472.75	511.00	515.75	528.25	519.00	510.50	540.50	539.00	535.25	549.50	542.75	538.75	554.25	561.00	526.75	522.00	515.50	549.75	562.00	563.50	553.50	547.75	558.25	580.75	582.25	574.25	565.50	555.50	606.25	602.25	601.75	594.00	576.75	589.25	575.75	559.25	549.00	577.25	559.75	542.50	525.00	512.25	505.25	508.00	512.75	495.50	488.50	485.75	482.00	487.25	480.00	474.50	473.50	463.75	461.75	459.50	462.75	470.25	476.25	495.50	492.00	493.25	499.75	502.50	497.00	489.75	497.00	489.00	489.00	486.75	485.50	488.25	494.75	484.75	490.25	497.75	489.75	493.00	492.25	492.00	498.50	491.75	491.25	493.00	495.50	497.25	497.75	498.50	497.25	498.25	498.50	501.00	514.75	523.75	528.25	499.75	524.25	527.75	510.00	514.50	520.50	517.25	516.25
594.00	566.00	591.50	593.50	518.25	474.00	528.75	558.25	602.25	592.50	527.25	495.25	484.25	481.00	499.75	540.25	549.00	591.75	611.00	630.00	591.75	553.50	508.25	502.50	482.25	480.25	479.25	510.00	468.50	474.00	495.75	499.25	521.75	517.00	547.00	548.00	538.00	525.25	489.50	482.75	527.75	544.00	559.25	553.25	516.25	499.75	490.75	473.75	472.75	503.00	502.75	547.25	576.00	537.50	533.25	575.25	550.25	560.00	601.75	547.50	550.25	533.00	507.25	493.25	501.00	484.00	523.50	532.25	532.00	525.50	558.50	576.00	626.75	677.50	633.75	579.00	549.00	530.75	513.25	515.50	481.25	510.75	511.75	517.00	502.25	521.75	513.25	499.00	491.75	475.50	455.50	503.25	505.50	495.75	494.50	457.25	481.00	474.50	456.25	447.00	444.50	451.25	452.00	442.25	468.75	464.75	459.75	477.00	478.25	496.00	482.75	496.00	521.50	516.25	540.00	575.50	542.50	534.75	509.50	495.50	515.25	541.25	529.50	513.25	552.50	523.75	533.00	517.75	552.50	533.25	533.75	541.00	503.75	522.25	550.50	557.75	553.00	538.75	506.75	497.50	498.50	518.25	510.75	500.75	495.00	507.00	504.50	494.75	498.00	491.00	485.00	477.00	486.00	494.75	512.25	514.25	510.25	518.50	531.75	528.75	518.00	512.50	521.50	523.50	521.50	522.75	543.50	529.00	516.50	516.75	541.75	534.00	538.75	536.75	556.75	561.00	553.00	550.50	564.00	547.00	554.50	580.00	581.50	574.25	569.25	547.75	567.25	564.50	554.25	545.75	535.75	539.75	534.25	517.75	513.25	511.00	500.25	493.75	489.25	485.75	482.25	494.00	490.00	472.50	465.50	465.50	466.50	460.25	462.25	462.00	472.00	469.00	491.50	491.25	493.75	499.75	493.50	493.50	498.00	492.50	492.00	493.25	495.25	495.75	496.75	506.50	500.50	491.25	498.00	497.50	494.50	495.75	496.25	496.75	497.75	498.25	500.50	499.00	496.50	499.75	503.75	503.75	502.25	510.25	513.00	510.50	519.75	514.50	525.00	523.75	516.50	520.00	523.75	514.50	513.75	520.25
570.00	580.25	584.75	559.50	505.50	487.00	538.75	571.25	591.75	565.25	501.75	514.75	493.75	470.00	493.00	521.50	521.25	527.50	544.25	591.75	557.00	548.25	502.00	511.50	489.50	481.00	509.75	521.00	480.00	444.50	480.00	497.25	496.25	495.25	509.50	544.25	562.00	536.25	499.75	498.75	502.50	549.25	550.75	515.75	482.50	496.00	486.25	497.25	475.50	509.25	516.25	515.50	537.25	562.25	534.50	544.75	583.75	584.25	589.25	559.75	517.25	510.50	493.50	518.00	528.75	479.25	533.50	530.00	524.25	550.25	541.25	560.25	592.75	644.00	622.25	570.50	537.00	526.50	505.50	504.00	503.25	530.50	506.50	540.00	529.25	535.50	512.50	532.75	508.50	484.25	452.50	487.75	496.00	507.00	475.50	477.25	485.50	488.50	451.50	457.75	472.25	466.25	457.75	442.00	455.50	462.00	486.75	460.50	476.25	501.75	501.50	501.25	500.25	511.00	541.25	539.50	516.50	522.25	549.00	517.50	498.00	527.75	511.75	507.25	539.25	523.00	533.50	495.25	521.75	517.25	531.25	521.75	494.25	514.00	523.75	511.75	533.25	532.50	512.75	501.50	495.50	511.00	499.50	484.50	496.25	504.50	496.50	495.00	497.00	488.50	479.50	473.50	499.75	487.75	496.25	497.50	517.75	537.25	536.75	528.50	507.00	521.00	514.25	516.00	518.75	525.75	543.00	515.75	512.25	519.75	533.50	526.50	535.00	540.50	536.75	536.00	541.75	539.50	542.25	536.75	551.50	562.25	550.75	548.25	541.00	570.00	590.50	587.75	554.50	567.25	544.00	524.50	525.00	506.75	518.50	531.50	513.00	505.00	495.25	486.00	482.00	494.25	483.25	466.50	462.50	461.25	463.00	459.75	461.25	463.25	471.00	466.50	482.25	491.25	494.00	497.25	493.75	491.75	498.50	505.25	507.25	496.75	497.75	504.25	499.00	497.75	510.50	499.00	488.25	491.25	494.25	494.25	497.00	498.75	498.75	503.50	502.75	502.50	499.75	503.00	505.75	508.50	508.75	512.50	514.75	513.50	518.00	513.50	520.00	515.25	515.00	517.75	514.25	518.50	508.75	510.75
542.50	563.50	552.00	533.75	509.00	485.00	535.75	550.00	578.00	577.50	533.75	512.00	496.00	468.75	485.25	496.00	505.50	533.75	577.00	580.25	540.50	530.75	511.75	510.50	493.75	489.50	499.25	491.75	505.00	472.50	462.50	470.00	476.00	487.00	496.50	518.75	549.25	523.75	496.50	507.00	520.75	559.25	559.00	540.75	515.25	545.00	514.00	504.25	478.00	488.75	480.75	499.00	510.50	565.00	553.00	566.50	565.75	619.50	568.50	546.75	520.75	512.75	507.50	543.00	525.50	477.00	495.25	504.25	505.50	520.00	518.75	556.75	558.25	573.00	556.00	533.50	531.25	518.25	508.50	514.50	521.25	523.25	512.50	547.50	563.50	560.50	555.75	544.25	512.25	477.25	455.00	479.25	507.75	494.50	490.25	487.75	495.50	483.75	454.25	473.25	470.25	483.25	473.25	457.50	443.00	442.50	457.00	472.50	479.25	482.00	507.50	531.75	540.50	537.75	539.00	538.50	528.75	514.25	535.50	522.75	488.75	505.75	496.50	507.00	516.50	528.75	533.25	520.25	490.00	507.75	524.50	516.25	491.25	515.75	502.00	499.25	503.75	514.00	519.50	491.50	494.75	504.00	500.75	492.50	503.75	500.50	490.25	488.50	488.75	482.50	477.00	465.75	488.75	480.25	504.50	510.25	535.75	536.50	524.50	509.25	507.25	529.50	515.50	509.75	513.00	519.50	533.75	512.00	509.50	516.25	522.00	522.25	542.00	551.25	531.00	532.75	532.75	531.50	530.25	529.75	532.00	534.00	535.75	541.00	546.50	579.75	597.25	600.25	552.75	545.50	533.50	524.00	516.00	522.25	525.50	516.25	501.75	495.00	488.75	483.50	488.75	484.50	475.25	466.00	461.50	468.00	466.00	460.25	463.75	465.50	471.25	466.50	482.75	492.75	496.00	501.25	496.00	495.00	498.25	499.00	512.00	507.25	509.00	525.50	519.25	507.00	500.50	499.25	495.75	493.50	490.25	494.00	496.75	499.00	504.25	507.00	506.00	507.25	503.75	504.50	507.00	509.25	512.25	514.50	517.50	515.50	519.00	518.25	520.50	517.00	515.75	516.25	514.50	516.50	518.50	515.50
535.00	557.75	552.25	561.25	524.00	490.50	566.75	553.50	583.75	573.00	528.25	510.75	497.50	475.75	493.00	522.25	529.25	580.75	598.00	576.75	507.25	509.00	518.25	499.75	476.25	488.50	555.75	519.75	501.75	506.00	483.50	474.00	499.75	496.00	502.00	510.25	551.50	537.25	495.50	501.50	498.25	538.25	576.50	533.00	550.00	557.00	515.75	488.50	478.50	498.00	512.00	527.25	534.00	535.00	559.75	580.00	595.75	612.50	563.50	539.50	518.50	502.75	505.50	539.25	535.25	483.75	514.00	509.50	534.50	515.75	515.00	524.50	550.25	546.00	533.00	548.75	564.75	533.50	533.75	528.50	532.50	531.00	521.25	546.75	558.75	579.50	581.50	561.50	531.00	474.00	456.25	498.50	507.00	500.25	498.00	487.00	493.25	468.75	466.50	500.25	491.00	492.75	476.75	466.50	459.75	447.00	433.25	460.75	481.00	495.50	521.75	553.00	561.25	550.75	544.25	553.75	527.75	500.25	507.00	496.75	481.25	490.50	490.00	512.25	503.50	522.50	523.50	526.25	488.25	499.75	503.00	509.00	486.75	516.00	513.50	492.25	498.25	512.50	520.50	490.00	486.75	497.50	481.75	501.50	499.75	493.50	494.25	482.00	483.50	483.50	469.75	468.25	493.00	495.00	532.75	529.75	544.00	525.50	513.50	504.75	505.00	526.50	521.00	509.50	505.25	509.75	520.50	509.00	509.00	511.25	525.25	523.25	544.00	551.00	527.25	530.75	530.25	530.75	530.25	528.25	529.00	536.75	547.00	551.00	561.75	561.25	572.75	567.25	571.75	565.25	546.50	559.00	535.00	534.50	511.75	501.75	497.75	491.75	487.75	481.50	495.75	471.25	471.00	466.25	467.00	466.50	462.75	462.50	463.00	467.75	480.00	470.25	479.75	501.75	496.75	502.25	500.25	494.75	500.00	501.00	517.75	514.00	525.00	538.75	527.75	512.00	501.50	501.50	506.00	503.00	495.75	492.00	499.25	506.50	506.25	506.50	507.00	504.00	506.25	505.50	511.00	513.25	514.00	521.50	520.00	518.00	525.75	521.50	522.25	516.75	514.50	515.75	513.75	515.50	515.50	515.25
535.50	566.00	583.00	552.25	516.25	499.25	552.00	570.25	599.50	610.25	553.00	503.50	514.00	489.25	490.50	521.25	522.50	561.00	595.75	590.00	560.50	529.00	508.25	474.25	505.75	509.00	562.00	559.75	507.50	525.75	503.50	464.25	494.25	539.00	535.50	564.50	528.00	513.75	494.75	531.50	545.00	531.25	592.75	579.50	562.50	539.75	525.50	507.25	474.75	494.25	504.75	503.25	513.50	523.75	543.00	573.75	579.75	574.25	528.50	530.25	510.00	522.50	531.25	544.50	535.00	499.00	517.25	527.50	528.50	531.50	536.25	531.25	541.00	572.75	574.75	564.75	528.00	517.75	545.75	543.75	562.00	540.75	526.50	557.25	533.50	545.25	545.25	543.75	516.50	472.00	450.75	478.00	497.50	501.50	497.25	494.25	502.75	488.25	470.50	496.25	477.00	488.00	481.00	470.50	459.75	449.50	442.50	471.50	490.00	522.75	522.00	507.75	531.00	539.25	523.75	529.75	503.00	494.25	492.75	493.75	484.00	489.75	480.75	505.75	494.75	513.25	514.00	515.00	481.00	501.50	496.25	501.50	484.25	503.00	509.50	493.25	509.75	509.75	508.75	487.75	483.00	496.75	474.25	494.25	491.25	482.50	482.00	478.75	483.75	478.75	468.75	469.75	484.25	502.25	533.50	548.00	534.75	510.75	498.75	502.25	508.50	523.25	519.00	502.75	506.25	509.00	517.25	506.00	507.75	516.00	526.75	532.25	545.75	540.50	529.75	535.25	532.75	527.75	522.75	521.50	525.25	548.00	558.75	567.50	593.25	579.25	572.00	550.50	561.25	567.25	569.50	554.25	536.25	534.50	515.25	504.25	497.50	488.50	484.50	488.50	482.00	471.25	471.00	468.75	464.75	465.50	466.25	463.75	463.00	468.50	474.75	470.25	479.00	502.50	500.75	503.00	499.75	501.75	504.25	506.75	509.75	509.50	520.25	543.25	545.50	528.00	532.50	522.25	522.75	537.00	537.75	503.50	497.25	506.00	508.50	509.50	507.50	507.25	509.75	514.00	513.00	514.50	513.50	516.00	523.75	517.00	522.00	519.50	512.25	522.75	517.75	515.75	514.25	514.75	513.00	514.25
565.25	591.50	584.00	552.00	548.00	533.50	519.25	548.25	584.50	583.00	529.00	505.25	513.75	495.00	495.50	529.00	556.25	573.50	600.25	563.25	532.75	528.25	479.00	514.25	537.25	512.75	565.25	572.75	539.50	530.00	501.75	460.75	493.50	494.75	505.25	530.75	540.00	502.00	494.75	523.25	535.25	574.25	603.00	580.25	540.75	547.00	516.00	486.25	484.25	505.00	508.75	512.50	520.00	509.00	522.75	533.00	554.50	570.75	556.75	558.25	549.00	542.00	522.00	506.00	503.25	504.00	507.00	527.75	514.75	511.25	538.00	533.75	544.25	603.25	567.00	531.50	535.25	552.50	534.25	560.25	574.75	557.75	556.25	585.50	550.50	528.75	509.75	487.25	497.50	457.75	477.50	504.25	476.00	492.25	497.00	506.50	495.25	491.75	491.00	520.25	497.50	500.50	497.00	469.50	474.75	454.25	441.75	473.25	490.25	477.00	473.50	484.50	491.50	509.50	502.25	490.50	482.50	476.25	469.00	484.00	479.25	483.00	470.25	482.50	482.75	483.75	497.00	490.75	480.75	496.25	492.75	496.25	476.75	492.00	489.75	485.50	486.75	489.75	489.75	480.25	478.25	471.00	465.00	465.50	465.25	463.50	461.75	461.25	467.75	470.50	479.25	498.25	497.75	486.00	496.50	517.50	506.75	492.00	521.25	524.00	506.75	502.50	510.00	505.25	506.00	510.75	513.25	504.50	508.25	512.50	519.00	534.25	534.25	527.75	522.75	526.00	515.75	514.00	525.00	539.75	556.25	581.75	597.25	599.75	595.00	562.75	562.25	560.00	543.75	559.50	559.50	540.75	517.00	517.00	514.00	505.75	498.25	485.50	489.75	494.75	493.50	482.00	476.00	472.75	464.50	463.25	465.00	464.25	461.00	471.00	474.50	469.00	485.50	506.50	505.25	503.75	505.50	508.00	511.50	505.75	510.25	513.25	507.75	516.00	526.25	525.25	558.75	568.25	567.25	571.50	541.25	516.00	503.75	507.50	506.75	511.75	511.25	511.75	514.50	512.50	513.00	514.50	516.50	522.00	520.25	527.25	516.75	516.00	514.25	514.25	515.75	515.00	515.00	514.00	515.00	516.00
542.25	566.50	580.00	568.50	568.75	528.00	532.75	557.50	585.00	567.50	545.75	564.00	536.25	489.25	525.25	523.00	536.25	592.75	591.25	573.75	505.50	503.25	511.00	504.00	554.75	529.50	559.25	574.00	529.75	495.75	500.00	470.25	478.25	498.50	509.50	560.00	543.50	515.25	529.50	533.00	536.50	548.50	594.50	560.75	530.75	508.75	495.75	509.75	486.00	492.75	517.25	523.00	548.50	535.50	570.25	564.50	547.50	581.00	591.25	577.00	539.00	528.75	528.75	520.00	508.75	501.00	502.75	540.50	534.25	546.00	537.25	566.00	546.75	596.75	582.75	561.25	563.00	580.50	563.25	541.75	545.50	548.25	583.75	566.75	560.50	563.25	547.50	501.00	484.50	453.25	478.25	509.75	506.00	507.25	503.25	527.00	504.25	515.50	494.75	536.50	515.25	504.25	481.75	486.25	478.00	456.75	448.50	444.50	457.50	472.50	470.25	485.50	499.75	493.00	485.50	485.25	477.25	479.50	469.75	468.00	454.25	454.00	459.00	461.75	461.50	476.50	472.75	468.00	476.00	479.50	483.75	486.25	478.75	474.00	472.50	475.75	475.75	475.25	482.50	474.25	467.75	461.75	461.00	459.50	460.25	460.75	467.50	470.00	475.00	493.25	501.50	499.00	502.25	499.50	492.00	482.50	498.75	531.00	537.00	518.00	504.25	504.50	510.50	512.00	513.25	512.25	509.00	509.25	505.25	516.00	519.25	519.50	522.50	532.00	520.75	518.50	526.25	528.50	534.00	533.50	548.75	572.50	576.00	583.75	571.00	557.00	554.25	549.50	536.75	553.00	581.25	553.50	519.25	510.75	510.75	505.50	497.75	483.00	491.00	500.00	498.75	490.50	483.00	478.25	465.00	465.00	468.00	465.00	462.50	474.75	474.25	472.75	487.50	504.50	502.75	506.50	509.50	527.50	540.25	519.25	508.25	510.75	516.50	509.50	527.75	544.50	571.25	583.00	584.25	574.00	524.75	504.00	501.75	509.75	511.50	512.50	512.50	512.50	513.00	512.50	514.25	514.75	520.75	517.75	521.75	528.75	521.00	521.50	514.75	516.00	515.25	515.00	517.25	516.25	516.00	516.25
502.25	535.25	558.50	569.50	568.75	524.50	565.25	550.50	607.00	594.75	584.75	565.25	527.00	495.25	525.00	570.50	560.25	574.25	557.25	549.00	502.00	511.50	524.75	527.75	528.75	550.75	589.50	563.50	519.75	519.75	526.50	484.25	479.00	520.25	526.00	588.75	522.00	514.75	510.25	532.25	542.25	565.25	587.00	546.25	520.25	503.25	514.50	516.50	489.75	473.75	500.25	517.25	549.00	558.25	583.75	577.75	573.75	593.00	579.50	550.00	555.50	538.75	541.75	538.75	517.75	500.50	496.00	506.25	524.00	540.00	543.75	583.50	569.25	565.00	570.50	555.50	559.25	563.75	568.25	554.00	525.00	536.50	560.25	562.25	548.25	542.25	529.00	493.50	462.25	474.75	468.00	514.25	516.50	506.75	510.75	536.00	506.50	533.75	524.00	552.50	519.25	493.50	492.25	497.25	485.00	457.00	463.25	459.00	444.50	483.50	502.75	490.50	493.50	491.00	479.00	475.75	475.50	470.50	463.25	448.50	457.50	454.50	487.50	467.50	462.75	448.00	450.00	458.50	457.50	463.25	476.75	465.75	457.25	460.50	457.00	456.25	458.75	455.25	455.00	456.75	457.25	460.50	460.50	473.00	477.50	489.25	497.25	478.00	489.50	506.25	506.00	499.50	503.00	504.00	503.25	484.75	523.75	544.25	528.00	510.00	508.50	510.25	511.25	511.50	510.75	511.50	508.00	506.25	506.50	515.00	515.00	514.00	525.00	529.25	510.50	523.50	542.25	549.50	538.25	540.50	537.00	552.25	557.75	581.50	587.75	568.00	549.50	539.50	528.00	558.75	565.00	538.75	525.50	516.75	504.00	498.75	492.50	482.25	498.00	502.50	497.50	480.75	479.25	473.00	467.00	464.25	461.50	463.00	463.75	466.75	472.50	477.25	503.00	505.75	505.50	507.50	515.75	525.75	528.25	531.25	512.75	509.25	510.75	510.50	538.25	569.50	583.00	579.00	569.50	552.00	509.50	501.25	507.00	512.00	511.25	512.25	511.25	513.00	514.00	514.25	515.25	516.75	521.00	515.75	518.75	518.00	527.25	518.50	517.50	520.50	515.50	515.75	515.50	516.00	516.00	516.50
551.75	531.50	539.75	554.00	567.75	535.25	590.25	586.25	620.00	597.50	557.25	532.50	517.00	500.50	518.50	577.00	588.50	579.00	532.00	518.25	543.25	548.25	537.25	536.25	528.25	541.00	597.75	559.75	525.25	518.25	514.25	493.25	480.25	503.00	516.75	556.75	536.00	520.50	515.75	515.00	539.50	560.25	585.50	549.25	516.25	539.75	536.50	498.00	511.75	489.25	483.75	512.00	523.50	558.75	553.25	545.75	583.50	583.50	560.75	559.75	556.50	542.25	520.00	520.75	503.50	496.25	527.50	529.50	506.25	518.75	516.00	536.00	536.75	565.00	594.50	574.50	554.00	542.25	546.75	548.50	522.00	524.75	524.75	552.75	531.75	520.00	519.75	472.00	472.25	499.50	478.25	502.00	501.25	523.75	529.50	529.50	535.50	548.50	537.00	514.25	513.25	497.75	504.25	480.50	469.00	486.00	472.75	462.50	451.75	478.25	489.00	499.75	504.00	490.25	477.25	464.75	462.25	459.25	458.25	453.75	477.50	454.25	483.25	480.00	497.25	505.25	475.50	474.75	455.50	466.25	470.75	475.00	465.75	470.50	488.50	469.50	467.50	469.25	466.25	477.50	476.75	480.00	493.75	481.75	494.50	511.00	496.75	490.25	479.25	494.50	504.50	505.50	503.75	509.50	495.75	493.00	515.00	525.75	515.00	508.25	508.25	506.75	507.25	507.50	507.75	506.00	508.00	502.00	504.25	517.25	523.00	514.75	523.75	516.00	512.00	522.00	531.25	539.50	547.00	557.00	559.00	559.25	574.50	580.75	578.25	561.25	576.50	561.25	528.00	542.25	550.75	545.25	533.25	515.75	515.50	505.75	486.00	482.75	490.75	499.00	494.25	475.25	475.50	470.75	467.50	467.75	463.00	464.75	463.25	466.75	473.75	482.75	500.50	505.25	509.75	514.00	519.50	525.00	518.25	525.00	525.50	516.00	513.75	511.75	534.50	565.50	579.00	575.25	546.75	530.75	506.25	501.00	503.25	509.00	507.25	511.00	512.25	512.25	513.75	515.25	524.00	521.75	522.50	527.50	532.25	532.00	527.00	519.50	517.75	519.25	515.75	516.50	516.75	514.75	515.25	524.25
590.25	570.75	583.75	572.25	582.25	576.25	612.00	649.50	632.00	575.50	556.75	534.00	518.75	512.50	521.25	573.25	625.50	568.25	559.75	539.25	528.00	594.75	580.50	527.75	554.75	565.50	607.75	552.00	538.75	560.25	532.00	499.00	474.25	500.75	508.75	517.75	533.50	552.00	552.50	516.75	534.50	549.00	557.00	530.25	544.50	563.00	540.50	503.25	534.00	530.00	487.25	513.00	520.75	534.75	522.00	552.00	575.00	571.50	563.00	553.25	544.00	539.00	546.75	525.25	510.50	505.75	515.00	536.00	519.50	527.00	531.00	531.75	532.50	544.00	585.75	567.25	540.75	542.25	522.75	512.00	504.75	497.25	495.75	515.50	523.50	507.50	482.75	462.75	494.25	510.25	483.25	535.75	501.00	518.00	543.25	541.25	558.00	580.50	552.00	524.50	530.50	518.50	498.50	472.00	488.75	495.75	487.25	465.50	454.25	466.25	474.25	504.50	497.25	484.50	465.50	446.50	446.50	448.00	458.00	477.25	489.75	456.75	473.00	490.50	483.00	517.00	482.00	481.75	465.00	476.00	479.25	493.75	504.50	480.00	513.25	509.75	500.25	499.00	487.00	512.00	514.75	518.75	504.75	488.00	514.50	515.50	489.50	508.00	489.75	496.00	498.75	509.75	504.75	508.75	493.50	509.75	506.50	513.50	510.00	508.75	508.25	508.25	509.25	507.25	506.00	505.75	507.00	500.50	501.50	514.75	517.75	515.00	510.50	509.75	538.75	538.00	552.00	553.50	558.75	575.50	560.25	576.75	576.75	569.75	575.75	546.00	549.75	559.00	538.00	525.75	535.75	554.75	527.25	518.50	509.00	508.00	493.75	484.75	497.50	495.00	494.00	477.75	474.25	470.25	470.75	466.00	462.50	465.25	468.75	467.25	474.00	489.25	505.50	507.25	515.25	524.75	535.00	543.75	540.75	522.50	521.50	514.75	518.75	510.75	521.00	545.50	570.25	560.00	530.75	516.00	500.50	506.00	511.50	514.00	511.75	514.75	508.00	511.75	511.50	513.50	516.00	516.25	521.75	529.25	545.75	532.50	519.00	514.75	517.00	517.50	517.25	517.50	517.00	517.00	516.00	520.75
560.25	574.75	587.25	608.25	633.75	630.25	644.25	659.00	618.75	588.25	534.25	531.25	509.75	533.25	547.00	556.50	596.75	588.50	569.00	528.00	545.00	590.25	609.25	581.25	596.00	591.25	592.50	561.75	529.50	521.75	522.00	495.00	481.00	496.25	500.25	526.25	546.00	558.25	535.00	521.50	532.75	545.75	552.50	555.75	563.00	546.00	531.25	528.25	535.00	528.25	494.75	507.25	522.00	529.25	537.75	541.25	551.75	556.00	556.00	547.00	538.50	535.50	531.75	508.00	527.25	548.50	530.75	528.75	545.00	535.25	537.00	547.50	558.00	585.25	579.75	551.25	552.50	577.50	540.75	546.00	531.25	517.50	504.50	495.50	494.25	485.00	479.50	474.75	508.75	512.25	489.25	533.00	541.25	523.00	545.25	550.50	578.00	591.00	577.00	552.25	529.00	508.00	495.50	504.50	499.25	500.25	484.75	471.25	475.25	450.75	482.75	488.75	475.50	476.00	453.00	446.00	448.75	467.00	468.00	487.00	493.25	466.75	467.25	470.50	469.00	502.50	492.50	503.75	474.00	486.75	493.25	496.50	511.50	494.50	510.25	512.00	516.00	489.25	499.75	519.75	522.25	508.25	496.50	534.00	532.00	510.75	511.00	510.50	495.00	511.75	500.50	506.00	508.25	509.75	508.75	512.50	510.25	511.25	511.75	512.25	513.00	512.00	506.75	509.75	505.75	506.00	505.75	508.00	502.50	512.00	518.25	520.75	524.75	540.00	550.50	551.50	543.25	561.00	563.50	576.50	549.75	554.00	552.75	575.75	556.75	557.00	546.00	547.00	530.25	521.00	520.75	542.50	523.75	516.75	504.75	491.00	488.25	485.75	486.50	493.75	491.00	476.00	473.75	472.00	468.25	463.75	464.00	464.25	465.00	467.75	477.75	492.25	511.25	524.50	531.75	537.25	532.75	538.75	537.00	540.25	541.00	549.25	530.75	514.75	515.00	522.50	540.75	536.50	517.50	508.75	504.00	508.50	511.50	513.25	515.25	518.25	512.25	517.00	517.75	521.00	518.00	519.50	520.25	530.00	530.00	524.25	522.25	513.00	517.50	518.75	515.75	517.75	517.75	517.00	515.50	515.75
520.25	557.00	584.00	620.00	654.25	657.50	659.25	641.75	589.00	566.00	533.75	551.25	514.25	543.25	562.25	567.50	591.75	564.25	538.75	526.25	559.25	583.00	627.25	607.50	617.00	579.25	560.25	552.00	518.50	491.00	529.00	499.00	480.50	515.00	517.00	523.75	560.75	565.00	528.50	525.75	515.00	541.00	559.50	571.00	551.50	542.00	531.75	541.50	526.00	505.25	503.00	497.50	534.25	533.25	525.75	529.75	549.25	562.25	557.25	550.50	530.00	530.50	523.50	520.50	528.25	552.75	542.75	524.25	545.25	551.00	529.75	545.50	560.00	615.00	594.00	547.25	561.00	574.75	526.50	541.25	516.75	525.50	512.25	494.50	466.75	474.00	488.00	470.75	512.25	511.75	486.75	515.00	535.75	546.50	564.00	547.00	590.75	590.50	586.50	563.50	561.00	532.50	518.50	510.75	500.00	490.75	469.75	488.25	480.50	441.00	454.00	465.75	452.75	457.75	443.75	446.50	459.50	488.00	479.75	476.50	504.75	477.75	483.50	466.50	455.00	491.25	494.00	507.50	478.00	492.50	499.50	493.25	509.25	507.00	522.50	514.25	518.00	487.75	513.75	527.00	525.25	493.00	512.25	550.50	547.25	505.25	526.00	513.25	502.00	515.25	513.00	502.75	510.75	511.00	512.00	513.50	507.75	507.00	511.00	513.75	514.25	510.00	510.75	511.00	506.00	506.00	505.50	509.25	503.25	511.00	510.50	515.00	536.50	553.50	554.25	535.00	529.50	554.00	554.75	574.25	556.50	541.75	548.75	576.50	564.25	556.25	557.25	542.75	537.75	530.00	508.25	531.00	524.50	506.25	499.00	490.50	483.75	483.00	484.25	492.25	489.00	475.00	475.00	473.25	466.50	464.00	463.75	464.00	465.75	471.75	479.50	497.25	522.25	532.00	525.00	534.75	528.00	535.25	530.50	543.25	552.50	564.50	542.75	517.75	515.25	513.50	526.00	519.75	516.50	512.25	503.25	508.50	513.50	515.00	516.00	518.25	516.00	517.50	521.00	531.25	524.50	522.00	524.50	526.25	519.00	515.50	521.50	514.25	520.50	518.75	516.25	517.50	517.75	520.00	519.50	516.25
518.25	538.50	580.75	635.00	649.25	650.50	656.00	614.25	561.75	546.25	557.75	546.25	518.75	560.25	580.00	611.75	597.75	583.75	546.50	546.00	537.25	585.50	618.75	642.50	604.00	569.75	551.00	534.00	507.50	515.25	539.75	513.50	480.50	507.25	528.50	537.50	564.75	546.00	540.25	539.75	533.50	527.75	543.50	562.50	557.00	543.50	534.50	533.75	513.00	513.00	532.00	502.25	521.50	528.00	533.75	556.75	542.75	577.75	551.50	544.00	525.00	518.00	529.75	544.75	526.25	533.25	549.25	524.50	540.50	565.00	545.50	547.75	565.50	593.25	580.00	555.50	537.50	543.25	516.00	508.00	503.00	518.75	501.50	478.00	491.00	481.25	512.00	474.75	515.50	526.00	491.50	511.75	520.75	549.00	573.75	579.75	560.50	567.75	559.75	537.00	532.00	513.25	502.50	504.75	491.00	470.00	499.25	493.00	476.25	460.50	445.00	450.75	452.25	459.00	454.00	478.25	496.25	494.00	502.25	493.25	498.25	492.00	500.75	483.50	475.25	459.75	480.25	504.25	492.00	498.00	501.50	509.75	512.00	516.25	535.00	536.25	512.25	497.50	518.50	535.25	518.50	518.00	506.75	552.00	547.75	528.00	542.25	538.50	525.50	523.50	516.00	509.75	512.75	518.75	504.50	514.25	509.50	513.25	513.00	514.25	509.75	514.00	538.75	519.25	509.00	504.75	504.75	508.25	510.25	507.25	517.50	520.00	513.75	525.50	529.00	530.25	535.25	541.25	537.50	540.50	546.00	534.00	546.75	566.25	562.25	543.25	556.00	545.25	524.25	523.75	508.50	505.00	522.25	508.00	493.25	476.00	474.50	479.75	485.50	492.50	492.25	475.75	475.00	474.00	466.75	465.00	466.75	467.25	468.25	471.25	480.75	505.75	533.00	535.25	522.75	531.50	530.50	529.50	529.50	538.00	550.75	561.00	554.00	523.25	514.50	515.50	515.00	514.75	513.50	516.25	509.75	516.50	513.00	519.25	515.75	517.50	515.00	517.00	525.25	549.25	541.75	536.50	550.25	538.75	520.25	517.25	515.75	522.00	519.50	518.75	517.00	516.75	517.25	516.50	516.75	517.75
558.25	534.25	578.50	612.75	596.50	638.50	643.75	602.75	571.75	586.00	556.00	553.75	522.25	580.75	572.50	644.50	623.50	583.00	534.25	573.25	540.50	562.00	599.00	642.25	593.75	557.25	532.00	521.25	515.25	543.00	543.25	519.25	482.25	508.25	512.00	521.25	571.75	556.50	546.00	564.75	562.75	534.50	562.25	549.50	575.00	552.50	555.75	532.50	523.25	537.25	526.00	507.00	517.50	531.25	528.75	572.50	562.75	579.75	560.25	548.00	534.00	544.00	563.25	552.75	532.00	542.50	541.25	556.25	527.25	540.00	563.00	570.25	565.25	569.50	549.25	538.75	527.50	525.75	517.75	513.75	504.50	498.75	479.75	500.00	515.75	494.50	526.25	486.75	504.75	518.25	498.25	535.50	538.25	566.75	564.50	580.00	567.25	542.00	528.00	510.75	512.25	543.00	512.75	486.00	487.25	494.00	505.75	497.50	483.50	486.75	456.00	477.25	483.25	488.50	475.75	465.00	481.25	496.00	504.75	505.00	500.25	505.25	507.00	503.50	476.50	457.75	469.75	508.25	509.00	510.75	506.25	511.50	524.75	528.50	547.75	554.50	525.50	514.00	518.25	539.25	523.50	546.50	522.75	565.00	540.25	548.25	564.75	567.00	563.00	540.25	508.75	514.75	519.75	518.75	502.25	517.00	512.50	513.25	515.00	516.00	518.50	533.75	556.00	533.75	511.00	505.00	508.75	507.50	504.00	497.75	513.50	511.00	501.75	521.75	529.50	533.25	521.00	532.00	521.75	530.75	539.50	537.00	517.75	546.50	563.75	533.75	542.25	541.75	526.50	510.75	518.50	504.75	495.75	497.00	489.00	475.75	476.00	477.50	483.75	493.75	489.25	475.75	473.25	474.75	476.50	467.75	467.75	467.75	468.75	471.00	480.00	504.25	522.25	541.00	522.00	523.25	534.00	527.50	527.00	537.00	552.75	560.50	554.00	524.50	518.00	513.75	514.75	515.00	514.75	516.25	514.25	514.50	517.25	517.50	518.50	517.50	517.00	520.25	524.00	550.50	558.75	550.00	548.00	540.75	529.25	519.25	516.75	513.50	516.75	516.50	516.50	518.50	516.50	514.50	515.50	523.50
570.25	541.50	557.50	571.25	577.00	617.00	655.25	642.00	629.50	610.00	599.50	573.25	537.00	572.25	606.50	655.00	617.75	563.50	556.75	585.00	569.00	570.00	601.75	616.50	575.75	551.50	533.75	523.75	551.75	547.75	517.25	508.50	490.75	506.25	514.00	527.75	553.25	572.75	565.75	583.50	564.50	535.50	548.75	568.00	580.00	574.00	554.50	548.50	534.75	530.25	538.75	508.25	525.25	543.25	535.75	555.25	586.75	581.00	553.50	531.25	557.00	539.00	580.75	568.75	541.75	543.00	562.75	554.75	544.75	543.25	571.00	560.50	543.00	536.00	529.75	552.50	559.25	549.00	527.25	525.75	511.00	490.00	489.00	502.25	534.00	518.50	510.50	488.50	505.75	539.75	504.50	536.00	554.50	571.50	586.50	597.25	571.25	545.00	529.50	559.00	556.50	558.00	535.25	494.75	506.75	503.75	501.00	488.00	476.25	476.75	455.25	485.75	502.00	504.00	500.00	483.25	467.25	463.25	489.00	501.25	511.00	513.25	509.00	493.50	493.25	474.50	456.00	506.50	503.00	508.25	510.50	509.50	522.75	525.75	546.25	565.00	538.25	537.25	533.75	537.50	537.25	568.50	540.25	558.50	547.50	546.50	587.25	570.75	550.25	526.00	517.25	525.75	525.00	523.25	509.50	520.75	517.50	513.00	520.50	515.00	526.50	554.75	562.50	530.50	513.25	505.75	506.25	501.00	500.25	496.75	496.75	503.50	508.25	521.25	533.00	533.00	514.00	530.50	521.75	513.75	521.25	533.75	514.50	529.25	551.25	530.25	524.25	529.25	515.75	500.75	506.00	504.50	497.75	485.00	478.00	476.25	480.00	480.75	486.00	489.00	491.25	487.25	482.75	477.25	481.00	471.25	467.00	467.25	470.75	477.50	483.50	503.25	507.00	522.00	519.50	531.00	541.50	528.50	523.00	528.50	537.75	541.00	538.00	520.75	514.25	514.00	515.50	515.50	520.25	512.25	515.00	514.25	518.50	516.50	517.25	516.00	519.25	533.75	531.00	543.75	552.50	534.50	527.25	524.00	520.00	518.25	517.75	515.75	516.50	516.75	517.50	518.75	519.25	517.25	516.50	517.50
572.50	549.00	589.50	599.75	608.00	646.50	663.25	669.75	663.00	644.75	625.50	587.50	548.50	563.75	592.50	656.75	624.50	575.00	582.50	629.25	593.50	564.75	606.50	595.50	557.75	539.00	524.75	539.75	563.00	559.25	525.50	502.50	489.00	516.25	543.50	526.75	569.00	602.25	610.75	610.00	579.75	554.75	554.00	552.50	584.00	588.75	563.75	549.00	539.75	535.50	547.00	505.25	535.75	536.50	529.75	549.75	591.25	587.75	553.25	550.00	585.75	547.25	571.75	558.00	545.00	547.50	573.75	568.00	553.25	556.75	582.75	576.00	554.75	525.00	520.75	542.00	561.75	568.00	517.75	507.00	491.50	475.50	514.75	503.50	508.25	522.25	503.75	499.25	526.00	563.75	521.25	521.75	517.75	522.25	556.75	564.50	538.75	541.75	540.25	581.50	577.25	562.75	528.50	523.25	511.00	493.00	496.25	475.00	482.50	477.25	458.25	487.50	504.25	513.75	514.25	505.25	502.75	481.75	466.50	497.00	513.00	510.25	505.25	506.50	501.25	475.00	474.75	478.00	511.25	513.75	508.75	520.75	539.00	541.75	555.50	571.75	574.50	558.25	539.75	547.25	542.75	575.25	566.25	578.25	545.00	569.75	599.75	547.75	518.50	530.00	527.50	536.25	530.50	527.25	510.00	523.75	518.25	518.50	522.00	515.00	543.75	569.00	566.25	531.50	517.50	514.75	514.50	500.00	498.50	494.75	489.00	497.75	501.75	524.25	528.00	531.50	515.75	525.00	526.75	505.50	526.75	541.50	519.75	538.50	529.75	535.75	522.50	512.00	505.75	497.25	502.00	508.75	498.00	493.50	478.75	477.50	484.25	492.75	494.50	494.25	491.00	493.25	491.75	479.00	485.25	468.25	465.75	469.00	472.75	475.50	479.75	496.50	507.50	510.50	511.50	540.25	536.50	530.25	535.00	529.75	531.50	524.75	519.50	516.50	517.50	518.25	515.00	516.50	523.50	510.00	517.75	515.50	518.00	520.75	518.25	518.50	537.00	570.50	555.75	527.75	532.75	528.00	522.00	522.75	522.00	521.25	518.00	516.50	516.75	516.50	520.75	516.00	519.00	520.75	516.25	514.75
591.75	558.75	561.50	590.00	620.00	601.50	614.75	643.00	663.25	660.50	625.00	589.25	593.75	610.00	620.50	611.25	579.50	587.50	599.75	620.50	584.75	591.50	619.00	615.50	572.50	550.25	557.50	547.25	540.00	526.75	510.50	527.00	504.25	508.00	534.00	536.00	574.00	607.25	609.75	582.75	573.75	554.00	565.50	582.00	607.75	592.00	559.75	546.00	543.75	543.25	529.25	524.00	522.75	540.00	548.50	556.00	590.25	590.00	561.00	562.50	576.25	586.50	573.00	584.50	561.75	572.50	587.50	603.75	586.25	577.00	567.00	560.25	561.50	544.25	524.50	522.75	526.00	530.75	530.00	519.75	488.50	503.00	515.25	516.00	526.50	544.50	524.75	506.50	523.50	562.50	549.25	531.00	542.50	551.00	559.00	572.50	562.00	577.50	554.25	587.50	567.50	548.25	543.25	541.25	523.00	515.50	502.75	510.50	501.75	460.75	482.25	503.50	490.25	490.50	504.75	507.50	508.25	504.25	494.75	481.75	514.75	510.75	507.25	496.50	497.25	494.50	480.00	472.00	505.00	525.75	541.00	551.75	555.25	545.75	567.50	576.75	568.00	546.75	551.25	558.50	550.50	577.75	597.25	581.50	554.25	579.25	590.25	555.50	529.50	555.50	555.75	555.00	533.75	522.50	528.75	531.25	523.25	524.75	522.75	515.75	531.00	564.25	566.50	537.50	517.00	508.25	506.25	506.25	497.25	500.25	498.50	498.00	493.00	499.25	503.50	514.75	513.00	518.50	522.75	514.50	520.25	536.00	524.50	528.25	515.50	523.25	528.25	518.75	519.75	510.75	504.75	503.00	495.00	489.25	490.25	497.50	503.75	519.00	511.75	510.75	502.00	499.75	498.25	492.50	473.25	467.00	470.00	470.25	477.25	476.50	479.25	490.25	508.00	513.75	516.50	527.50	523.50	521.00	530.50	546.50	550.00	551.25	547.00	533.25	519.00	519.75	518.50	519.00	523.25	516.75	516.50	515.75	523.50	518.75	526.75	527.25	537.25	565.75	576.00	541.25	526.75	520.50	520.75	519.75	522.75	519.50	519.75	521.75	519.25	522.50	518.00	515.50	517.75	519.50	515.75	516.50
582.75	573.50	552.50	575.25	615.00	583.00	554.75	610.00	601.50	610.75	604.00	570.00	602.50	590.75	615.75	579.25	569.50	548.25	594.75	599.75	564.75	570.00	615.50	628.75	600.50	594.50	560.75	538.00	540.50	531.25	531.25	538.75	512.50	517.75	524.75	567.25	576.00	605.75	577.00	573.00	557.25	579.00	588.25	587.50	597.00	578.50	552.75	536.00	540.75	544.50	519.00	535.25	551.00	550.00	541.00	560.50	600.50	562.50	586.25	601.25	559.00	590.50	625.50	610.00	604.00	618.00	618.25	630.25	599.00	594.75	571.25	535.50	542.50	542.75	545.00	520.50	523.50	503.25	518.00	497.75	492.75	503.50	532.25	502.00	519.75	525.25	552.50	530.50	526.75	561.50	566.50	527.00	520.25	562.00	600.25	603.00	593.75	564.75	581.25	577.25	558.75	564.50	552.50	542.00	527.00	515.25	492.25	512.00	501.00	454.25	465.00	487.75	510.00	488.75	490.00	507.75	518.00	520.00	507.00	476.75	520.75	514.00	507.50	492.25	505.75	499.00	488.75	478.25	492.50	533.25	555.00	569.75	551.75	517.00	554.75	548.50	560.75	568.75	582.50	560.25	552.75	552.75	567.50	612.25	569.25	573.00	545.75	543.00	546.25	580.75	592.00	585.25	529.50	527.75	542.50	539.00	529.50	529.00	524.75	536.00	533.25	564.25	580.50	541.50	521.50	508.00	512.25	508.50	497.00	500.75	500.00	498.00	486.50	484.75	497.50	501.75	502.75	511.00	506.50	515.25	503.50	524.25	520.75	521.25	517.00	511.75	516.50	511.00	502.25	489.25	489.75	486.50	490.50	490.50	512.25	514.00	517.25	520.00	519.00	523.25	502.75	502.00	502.00	487.25	469.50	471.50	476.50	474.50	477.25	486.00	482.00	484.00	491.00	507.75	512.00	512.25	514.25	517.25	532.00	541.00	551.25	564.75	566.00	552.50	524.25	517.25	525.50	520.25	514.75	520.00	515.75	520.50	519.75	523.50	543.50	556.50	549.50	543.00	563.25	544.75	525.00	519.25	519.25	518.50	519.75	521.25	522.00	522.50	518.75	516.50	519.00	520.00	516.25	517.00	520.00	522.50
601.75	582.75	576.75	572.00	560.50	556.00	562.50	603.50	561.50	584.50	556.00	546.00	570.75	548.25	601.75	578.00	548.75	527.50	571.00	583.00	542.00	566.25	607.25	597.00	596.25	591.75	557.25	574.25	561.00	547.75	535.75	526.75	517.50	510.75	539.75	559.00	550.75	559.25	573.00	570.50	564.00	562.25	605.25	621.50	605.50	578.75	576.00	573.25	552.75	538.00	520.75	538.25	558.25	544.00	555.00	583.75	607.25	584.00	612.00	587.50	567.75	565.25	639.00	607.75	603.50	610.75	594.25	581.75	569.25	586.00	563.50	545.25	530.75	531.25	530.25	519.00	514.50	511.75	498.00	492.75	514.50	507.25	547.25	516.50	511.50	514.75	544.25	566.75	544.75	551.25	548.75	537.25	525.25	547.75	558.50	579.25	597.00	561.50	558.50	594.75	595.00	586.75	551.50	530.50	520.00	506.75	507.50	507.75	494.50	454.25	468.50	503.25	509.50	501.25	494.50	504.25	516.50	526.25	496.25	491.25	516.50	517.25	514.25	497.75	509.75	511.00	496.25	476.00	472.00	497.00	532.25	531.00	518.50	513.75	540.00	551.25	541.25	543.00	583.75	586.75	571.75	566.00	567.00	573.50	574.00	552.00	560.00	569.50	558.25	592.50	580.00	563.00	543.75	549.50	560.25	556.50	545.50	538.25	527.75	544.50	560.25	577.75	573.00	533.00	516.00	513.50	515.00	507.25	503.75	513.50	508.50	504.75	497.50	492.50	493.25	495.75	497.50	498.75	496.25	496.75	501.50	506.50	511.00	506.00	505.50	513.00	503.25	499.75	491.50	486.00	484.25	498.00	517.75	505.75	510.75	509.25	520.00	519.75	521.75	506.00	499.25	499.50	493.75	484.00	472.75	470.75	475.25	476.00	477.50	480.25	477.50	479.50	489.25	509.25	509.75	509.00	506.25	517.50	524.25	530.25	546.00	557.50	562.75	555.00	526.75	517.00	518.00	521.75	519.50	520.00	516.00	517.25	523.50	530.25	543.50	570.25	580.00	564.00	549.00	530.00	521.00	518.75	525.50	523.25	522.00	519.75	522.75	519.00	521.00	520.50	524.50	518.00	518.25	524.00	514.00	521.25
581.75	556.00	565.75	586.00	546.00	512.50	560.50	569.25	537.75	587.00	573.00	523.00	537.50	533.75	581.50	564.25	542.75	525.25	548.25	584.75	528.25	572.75	584.25	552.25	565.00	589.50	607.25	616.75	566.25	527.25	551.50	535.50	525.75	520.25	528.50	532.75	548.75	546.75	565.50	574.75	598.25	566.50	579.75	603.00	625.00	607.50	570.25	566.25	545.50	532.00	546.00	531.25	552.75	554.75	574.00	599.50	600.25	609.50	619.25	625.75	596.75	599.25	627.25	597.50	577.75	583.50	571.25	560.25	579.00	547.25	548.50	541.75	525.25	514.75	534.75	534.25	556.25	571.00	496.75	498.50	518.75	508.25	529.75	532.25	527.75	512.00	534.25	566.00	580.00	554.75	556.75	535.75	532.75	553.50	566.00	592.25	594.25	555.75	549.00	597.75	604.00	580.75	557.00	542.50	519.25	510.50	515.75	502.00	485.75	454.00	464.25	502.75	513.75	507.75	503.75	514.25	516.00	536.25	508.00	495.00	513.25	521.50	522.00	506.00	514.00	505.25	504.75	484.25	483.25	472.50	503.00	509.50	508.00	547.75	575.50	556.75	523.00	548.25	587.75	611.50	568.25	576.50	573.25	553.25	578.25	574.00	586.25	603.50	589.00	590.00	580.00	547.00	573.75	575.75	567.50	585.00	564.25	535.00	531.00	529.00	569.75	573.25	536.75	522.50	520.00	518.00	511.50	511.00	514.25	518.75	515.00	501.75	501.75	505.00	503.50	490.25	488.50	485.50	486.00	492.00	491.25	489.00	497.75	493.00	495.75	498.25	497.50	490.50	482.00	483.75	488.75	514.75	518.75	507.50	515.00	508.75	515.00	513.75	517.00	503.25	500.50	497.25	501.50	474.50	474.50	475.00	477.00	476.50	479.25	477.50	477.25	479.00	490.00	507.50	508.00	507.25	521.25	512.00	518.25	529.50	542.75	549.25	545.50	533.50	523.25	519.50	521.75	520.50	522.50	525.50	522.50	525.50	548.00	558.75	558.50	569.75	586.50	578.75	550.00	526.50	521.75	521.50	527.50	530.25	524.25	520.25	525.75	522.25	522.75	518.75	522.00	526.50	519.50	514.00	514.25	518.00
557.25	528.00	578.00	591.00	565.50	531.75	509.25	516.50	544.50	568.00	543.25	525.25	518.75	536.25	555.25	519.25	528.50	506.25	522.50	544.25	528.25	538.75	540.50	542.25	561.25	587.00	623.50	593.25	545.25	535.25	573.00	548.25	537.50	529.00	533.75	563.25	537.00	562.75	574.25	601.75	604.75	575.25	595.50	592.25	612.75	595.50	567.75	533.75	538.75	546.25	569.75	551.25	552.00	541.75	552.75	561.50	582.75	606.00	622.25	605.00	602.75	618.00	590.25	596.00	578.25	583.50	556.50	549.00	548.25	534.00	543.50	534.50	542.25	527.00	551.25	534.50	551.00	560.75	492.50	504.00	537.25	524.25	540.25	562.75	537.00	522.25	528.25	541.00	567.00	575.00	561.50	543.00	545.50	572.25	600.50	580.00	569.75	582.75	544.50	572.75	578.50	541.50	533.00	527.25	519.75	510.25	496.25	493.50	483.00	465.00	464.50	492.25	517.00	515.75	506.00	505.50	530.00	525.50	515.50	501.50	506.50	528.25	526.25	509.00	521.25	519.50	512.75	514.50	507.25	486.25	479.50	501.50	525.50	541.75	568.75	538.50	533.25	541.75	558.25	579.50	559.50	577.25	562.50	558.75	588.75	563.75	565.50	602.00	624.50	605.75	579.00	564.25	591.75	597.50	571.25	601.00	571.75	541.25	539.00	532.25	572.50	564.00	556.25	534.75	523.25	519.50	510.25	524.25	520.75	521.50	515.00	506.25	506.25	508.00	503.00	504.25	501.50	492.00	492.00	496.50	500.50	488.25	486.25	489.75	488.00	486.25	487.75	486.25	496.25	494.75	487.50	511.75	515.75	507.75	512.25	513.50	514.50	515.50	516.00	506.25	501.25	500.75	500.75	482.00	474.75	473.25	477.75	477.00	480.75	477.25	478.00	481.25	489.50	502.25	501.75	509.50	513.25	519.25	519.50	538.25	551.50	543.00	538.75	523.00	521.75	523.00	525.75	523.00	520.75	524.00	528.50	538.50	558.50	577.00	567.00	579.25	581.50	578.50	547.75	524.75	526.00	521.50	524.25	527.25	521.75	524.25	519.00	527.25	520.25	521.00	520.75	514.75	514.00	516.00	520.50	519.50
515.25	511.25	550.00	571.50	512.25	515.75	499.75	515.00	516.75	523.75	519.50	535.00	507.50	517.25	522.00	511.50	501.75	513.50	517.75	523.50	526.25	534.25	524.00	535.25	540.25	557.75	586.00	577.25	557.00	548.00	587.25	599.75	572.00	538.00	529.50	549.00	551.50	573.75	595.75	604.00	585.25	589.50	623.75	635.50	591.50	570.50	562.00	552.25	566.00	563.50	573.25	564.75	572.50	579.00	583.25	578.25	560.50	562.25	579.25	552.75	559.00	595.75	593.00	608.75	609.25	582.00	560.75	560.50	550.25	557.50	536.25	544.25	559.25	542.25	554.00	548.25	558.75	543.00	503.75	524.75	545.50	553.00	560.00	565.75	546.75	548.75	519.25	531.50	551.50	552.75	570.50	579.25	589.75	590.25	569.50	563.75	553.00	587.50	554.00	566.75	582.75	568.50	557.25	567.50	536.50	509.50	501.50	480.25	465.50	492.50	502.00	481.75	519.75	520.50	512.25	505.25	532.75	522.50	526.00	507.50	499.50	531.25	533.00	528.75	526.75	519.00	504.00	527.75	524.50	525.00	491.75	479.75	494.25	510.75	534.25	521.75	562.50	572.25	565.50	547.75	545.00	572.50	532.50	567.75	567.75	548.75	554.25	597.25	628.00	604.00	568.00	568.00	613.50	615.25	598.75	604.50	580.50	550.25	537.50	542.25	578.75	593.00	576.00	542.75	531.00	516.25	516.25	521.50	521.00	523.00	510.00	513.00	507.50	505.25	508.00	509.00	505.25	498.25	496.50	505.00	505.00	504.25	491.00	505.75	501.75	498.75	505.75	504.00	512.25	514.25	491.75	507.50	515.00	514.00	509.50	507.25	513.25	513.00	507.50	501.00	494.50	495.50	492.50	477.25	472.25	473.75	472.50	476.75	480.00	478.50	478.25	479.75	497.75	496.75	502.75	517.00	536.75	554.25	541.75	550.50	562.00	559.50	549.25	530.00	524.50	528.50	517.00	518.00	514.25	518.00	530.00	543.75	565.75	589.25	589.00	571.25	554.50	555.00	538.00	522.75	524.75	520.50	518.50	519.75	519.25	523.75	524.00	523.00	516.25	517.50	516.75	517.75	515.25	517.00	515.75	516.75
497.50	518.00	558.75	562.00	514.25	507.25	492.75	491.50	492.25	507.25	492.75	505.50	502.50	506.25	501.00	500.75	490.50	502.00	502.25	516.00	503.00	513.75	519.00	525.50	528.50	544.00	587.00	618.25	574.00	576.25	595.25	615.75	589.50	547.75	546.00	543.75	554.25	594.50	607.25	607.75	612.75	593.75	613.50	608.25	586.50	575.75	584.75	578.00	588.25	582.50	563.25	558.75	559.00	576.25	594.50	584.00	542.00	547.25	539.00	536.50	563.50	566.25	632.00	636.25	603.25	575.00	573.00	555.50	571.75	546.25	551.50	558.75	558.00	572.75	557.50	558.00	545.75	536.75	510.25	526.75	530.00	531.75	538.00	573.25	568.50	541.50	532.25	534.25	532.75	550.00	576.00	597.75	592.25	581.00	555.25	551.50	536.25	554.50	535.00	550.00	552.50	547.75	545.50	528.25	516.00	499.25	491.75	490.25	494.50	513.25	511.25	487.25	494.00	524.00	521.75	509.50	527.00	532.75	529.00	514.25	499.00	527.50	544.00	552.25	548.25	524.75	517.75	532.25	532.25	526.50	507.50	504.00	478.75	482.25	492.25	525.75	535.25	554.25	559.75	526.75	542.50	554.00	523.75	540.00	530.25	575.75	558.50	591.75	625.75	607.75	600.00	599.50	608.25	596.50	592.00	581.25	563.50	547.50	540.50	553.25	585.00	597.50	571.25	535.25	531.25	510.00	526.00	528.25	527.00	519.00	518.50	517.50	508.25	513.50	513.25	513.50	509.00	496.50	504.00	508.50	501.50	510.50	505.00	502.50	510.75	498.00	511.25	508.75	512.00	510.75	502.75	498.00	513.00	517.00	514.75	512.00	510.50	515.25	513.75	511.25	504.50	502.25	503.25	482.25	468.75	468.75	468.50	468.25	479.50	479.25	479.00	479.25	493.00	509.75	509.75	522.75	546.00	555.25	554.00	561.75	569.75	566.25	548.25	527.50	524.50	527.25	515.75	515.75	514.50	516.25	538.25	552.25	567.25	584.00	570.00	549.00	532.25	535.00	525.00	521.50	519.00	523.00	519.25	518.25	514.25	516.75	517.75	516.50	514.50	517.75	519.00	514.75	515.50	515.00	516.50	519.50
503.00	519.50	549.25	524.00	497.75	494.25	499.00	490.50	479.50	501.25	481.25	494.25	484.50	504.50	479.50	495.00	500.00	515.50	513.75	526.75	508.75	529.25	537.75	538.75	545.75	539.50	598.75	635.00	601.25	613.25	615.25	605.25	569.50	553.25	550.25	562.00	581.50	602.25	623.00	615.75	596.75	578.75	585.25	573.00	555.50	559.00	565.75	580.00	591.50	558.75	544.25	538.00	541.25	541.25	569.25	557.25	546.75	541.00	530.75	549.75	553.00	548.25	632.75	644.50	590.25	591.25	615.50	584.25	566.50	552.75	559.00	561.25	596.75	580.00	548.25	543.75	538.25	518.25	514.00	527.25	540.00	544.00	550.75	555.75	570.75	556.25	541.00	567.00	544.25	564.00	581.25	583.75	575.00	560.00	545.75	546.75	539.00	526.75	519.50	526.00	564.00	524.50	536.00	543.00	512.25	487.75	487.75	511.25	517.75	527.00	521.50	501.25	482.25	497.00	522.50	525.50	527.25	535.75	532.50	520.75	511.75	502.75	519.00	528.25	558.25	520.25	519.50	527.75	537.00	516.00	515.00	522.00	508.00	491.75	475.50	495.75	517.75	537.75	545.25	519.00	545.50	536.75	512.75	524.00	566.75	581.00	546.25	575.00	605.50	571.00	588.75	608.25	596.50	580.25	565.00	554.75	560.75	560.00	549.75	561.25	569.75	571.75	546.00	544.00	542.00	516.25	535.25	534.00	541.00	523.25	521.50	521.50	512.75	518.50	515.00	515.25	510.50	494.75	505.75	511.75	503.75	508.75	505.50	513.00	508.50	503.00	500.00	512.00	514.00	513.25	516.00	495.50	514.50	517.25	512.75	513.25	514.00	512.50	516.50	514.50	515.25	508.50	494.50	479.00	470.25	468.50	467.00	468.00	472.75	479.75	480.25	480.00	487.50	512.50	513.75	531.25	548.25	553.25	557.50	563.75	569.75	559.00	538.50	524.25	530.25	526.75	516.75	516.75	514.50	517.00	553.25	573.75	579.25	583.50	565.50	526.25	530.25	523.25	522.25	518.50	519.50	519.75	521.25	518.50	521.50	520.50	518.25	519.50	513.00	514.50	513.75	513.75	513.50	515.25	522.50	521.75
517.50	495.50	520.25	501.50	491.75	487.50	485.25	488.00	485.75	494.00	494.75	499.50	476.50	487.50	494.75	495.25	498.25	542.00	526.75	564.25	528.75	530.00	571.00	562.00	582.75	551.50	621.75	643.00	654.00	663.75	652.75	646.25	602.00	589.50	603.00	579.50	614.00	584.00	594.00	581.75	554.75	556.75	565.50	550.25	552.75	550.00	557.00	573.25	573.50	560.75	540.50	524.50	534.50	546.75	547.75	546.25	548.25	522.25	526.25	540.00	543.75	565.25	627.75	647.75	621.75	618.50	606.25	591.75	561.00	574.25	568.75	591.00	589.75	554.00	546.75	527.75	526.25	538.75	517.25	525.25	543.75	543.00	552.25	553.50	580.25	568.50	540.25	573.75	553.25	556.00	576.25	579.50	570.75	574.50	581.50	575.00	563.25	563.00	530.00	518.25	544.50	534.75	516.75	515.50	501.00	484.25	499.00	503.75	518.50	541.75	534.50	501.25	500.75	514.25	535.75	552.25	543.00	545.25	539.75	528.25	523.50	543.25	530.00	522.50	540.50	550.25	533.25	540.25	534.25	516.00	530.50	516.50	505.25	488.25	491.00	490.25	497.25	495.50	515.00	509.75	520.00	511.50	526.75	552.75	580.25	585.00	536.75	564.00	593.00	559.75	566.50	574.00	599.25	601.00	594.75	581.75	588.50	566.00	555.00	586.00	594.25	571.00	573.00	562.25	535.25	542.50	555.50	555.25	547.75	522.75	522.75	520.75	519.50	520.25	517.25	516.25	505.25	503.50	504.00	512.50	513.00	513.00	515.25	519.25	514.25	515.00	496.75	507.75	515.50	515.25	512.75	514.00	508.75	515.25	514.00	507.75	513.75	515.75	515.75	516.50	511.00	515.25	491.50	474.75	471.25	470.50	469.00	468.75	472.00	478.75	481.25	480.50	493.25	508.25	511.25	531.00	543.25	546.50	556.75	559.25	552.75	543.50	525.75	518.00	530.75	533.25	519.75	515.50	515.25	525.75	555.50	569.00	564.75	564.75	561.25	529.25	521.50	521.25	520.00	519.50	519.00	521.50	520.75	521.00	521.50	521.75	523.50	519.75	512.75	515.25	513.25	511.75	512.25	512.00	519.25	512.50
494.75	488.25	494.50	498.00	486.50	487.00	484.25	475.00	484.00	494.25	471.25	475.75	483.00	501.00	493.75	501.25	504.50	510.25	526.75	555.00	545.25	539.75	571.75	611.25	577.00	557.50	613.00	610.00	662.50	685.50	687.00	688.00	669.50	627.25	632.25	570.50	598.75	572.75	553.00	556.25	544.00	547.00	550.25	559.25	556.00	538.00	533.25	555.75	554.00	549.25	552.75	531.50	531.00	551.50	543.50	533.50	547.25	524.25	542.75	546.00	564.75	578.25	600.00	603.75	649.50	610.25	575.50	573.00	582.75	579.75	602.00	579.75	571.25	536.75	530.50	547.50	551.25	531.00	522.75	506.25	515.50	520.00	535.25	547.25	555.50	582.25	549.25	591.50	578.75	544.50	586.00	594.75	598.25	583.75	575.25	557.25	537.00	539.25	519.25	517.00	506.00	527.50	519.50	513.00	497.50	503.25	506.50	508.50	527.50	567.00	540.50	500.75	498.00	503.50	550.50	557.00	571.00	562.50	544.25	538.00	514.75	549.75	577.50	557.25	561.75	546.50	561.25	524.25	515.25	521.00	529.00	512.00	492.75	489.25	508.25	528.00	514.50	502.00	490.25	490.25	491.75	520.00	543.75	538.50	574.75	576.00	534.25	571.25	573.25	555.25	576.00	562.50	557.50	580.75	609.25	613.75	601.75	572.00	564.25	597.25	603.50	598.75	586.50	542.00	538.00	554.75	578.50	563.00	539.50	525.75	525.25	523.00	520.00	518.25	515.50	506.25	497.75	509.50	510.50	512.50	517.50	515.75	515.50	521.50	519.75	519.50	495.75	504.00	517.50	517.00	518.75	515.50	517.75	508.00	516.50	512.00	511.75	515.50	515.75	516.25	512.25	510.50	500.25	481.00	473.50	471.25	471.00	471.50	468.25	470.50	476.75	478.25	481.50	492.25	510.75	518.00	523.75	534.25	541.25	542.50	527.00	517.75	516.75	528.25	525.75	533.00	529.25	520.75	525.25	531.00	531.25	533.25	533.50	541.75	549.75	526.00	520.25	517.50	522.75	516.25	520.00	521.25	514.25	513.25	516.25	519.75	511.50	516.25	516.50	512.00	513.50	511.00	512.00	511.75	516.25	509.25
474.25	480.75	482.75	506.75	483.25	472.75	487.25	489.00	479.25	478.25	487.50	506.25	499.50	495.50	509.00	511.75	513.50	524.25	516.25	530.75	573.00	565.00	567.25	620.25	606.50	586.50	587.75	629.25	648.00	627.75	617.75	652.00	649.75	606.50	583.75	572.25	549.75	540.25	551.75	553.50	524.50	535.75	542.50	554.50	563.75	541.25	537.25	540.75	535.50	542.00	530.00	517.50	521.75	539.50	521.25	518.75	516.25	520.75	528.00	534.25	551.00	553.25	586.75	584.75	608.75	572.50	558.25	560.00	561.25	601.50	622.00	586.50	563.25	545.50	553.25	563.75	560.75	548.50	527.25	518.00	531.50	542.00	538.00	530.75	547.25	570.50	563.00	587.75	579.25	571.25	579.75	591.50	594.25	579.50	545.50	545.25	540.00	546.75	537.25	533.25	498.00	509.00	515.00	509.00	497.25	503.50	524.00	510.50	504.25	543.25	532.25	508.25	513.00	518.25	539.25	540.50	582.75	586.75	548.25	517.50	523.75	552.25	578.75	570.00	570.25	592.50	572.00	546.25	525.25	528.50	521.25	502.50	508.00	508.75	514.75	525.75	542.75	541.00	525.25	525.00	507.75	498.25	508.50	510.75	523.50	560.50	525.00	550.00	536.00	552.50	563.00	551.50	549.25	554.50	575.00	600.50	586.00	569.50	569.75	598.00	592.50	578.75	553.50	557.00	570.50	573.75	585.75	563.50	540.25	529.00	525.75	520.00	520.00	519.75	507.50	505.50	505.75	513.75	515.25	515.75	520.75	519.75	519.75	517.75	511.25	509.50	504.50	513.50	518.25	519.00	518.25	517.75	520.25	506.00	513.25	516.00	514.25	516.25	514.75	513.50	512.25	512.75	510.50	494.50	486.75	475.25	474.75	477.50	474.50	473.50	470.00	470.50	480.75	484.50	498.50	513.25	515.50	524.50	536.50	529.25	521.75	518.25	521.00	524.25	520.50	520.50	528.50	523.75	525.00	523.00	524.00	520.00	521.00	529.00	532.00	522.00	521.25	526.75	528.25	521.25	518.50	517.00	513.75	514.25	517.25	516.75	512.50	509.75	511.75	511.50	513.50	511.00	515.00	523.25	518.50	515.00
467.50	468.00	482.25	494.50	486.75	467.50	488.75	480.50	472.50	485.00	488.25	520.25	509.00	489.75	515.50	526.00	514.75	541.50	530.25	526.00	578.75	575.00	581.00	627.75	608.25	609.00	592.25	617.25	638.00	583.75	571.25	611.25	606.75	569.50	564.00	568.25	534.50	523.00	552.25	552.50	524.50	531.75	538.25	560.50	553.00	538.25	534.75	523.25	520.50	532.75	524.00	513.50	517.25	529.00	515.50	504.75	507.75	525.00	536.50	540.50	552.75	571.75	598.25	591.75	574.00	552.50	548.25	539.50	559.50	608.75	622.50	584.75	559.50	550.25	565.75	567.75	572.00	565.25	524.25	529.25	538.75	568.50	564.50	534.25	552.50	569.75	578.50	563.75	578.25	598.25	597.25	567.25	567.25	569.00	552.00	552.50	564.25	579.25	536.75	517.00	498.75	518.25	518.00	506.00	499.25	510.25	527.25	518.25	506.75	539.00	533.25	513.00	508.50	521.50	542.00	568.25	593.75	595.75	561.75	529.00	525.50	553.00	559.50	546.25	558.25	617.50	592.00	569.25	530.25	533.50	517.50	502.75	533.25	513.75	519.00	532.50	534.00	550.75	547.75	548.50	530.00	513.25	503.00	494.00	501.75	536.25	522.75	543.50	524.25	552.25	544.25	547.50	541.50	548.25	571.50	591.50	576.75	586.50	576.50	602.25	585.50	576.25	548.25	583.75	591.00	590.00	576.75	555.75	533.50	525.00	523.75	513.50	528.25	535.25	516.00	516.25	512.00	516.00	513.00	517.50	521.50	523.50	524.00	511.25	508.25	510.25	518.50	515.75	516.50	518.75	517.50	518.00	515.75	510.25	514.25	517.50	516.50	516.25	512.75	509.25	509.00	514.75	509.75	503.25	499.75	478.25	480.25	478.25	481.75	476.75	473.00	473.00	480.00	482.25	491.50	512.50	514.25	517.25	521.75	521.75	520.25	520.50	521.50	517.50	521.00	523.00	529.75	524.75	531.00	529.00	528.75	522.50	520.75	521.75	524.75	523.00	523.25	532.75	530.50	521.50	515.50	512.50	516.25	519.75	521.75	511.00	517.50	514.00	517.50	517.25	513.75	512.00	517.00	525.00	517.00	517.75
468.00	467.00	493.00	491.25	479.00	474.00	467.25	466.00	479.25	478.75	498.75	501.00	522.00	496.75	504.75	549.75	544.00	553.50	538.75	550.50	546.00	569.25	607.75	639.75	633.50	608.00	563.25	585.75	626.75	578.25	560.75	575.50	557.50	590.50	549.75	536.75	547.75	528.50	528.25	532.75	519.25	530.75	550.00	569.00	589.00	559.25	544.25	533.75	515.00	510.50	516.50	511.00	507.75	521.75	514.75	508.25	525.75	536.75	548.00	559.25	590.75	573.50	565.00	584.25	556.75	570.25	546.00	533.75	552.00	574.50	578.00	593.75	593.75	570.75	570.75	579.50	555.50	548.75	534.50	550.75	545.00	574.50	580.25	565.25	559.75	575.00	593.50	602.50	601.50	606.50	597.75	564.25	547.50	558.50	589.25	591.75	590.25	583.00	533.50	533.00	523.00	519.00	513.25	496.75	511.00	515.25	520.50	519.50	537.00	551.50	527.75	518.50	525.25	529.00	534.00	554.75	585.50	582.50	563.50	539.00	531.75	534.75	545.00	577.50	576.00	607.25	583.50	553.50	541.75	523.50	510.25	520.50	535.50	524.25	537.00	530.00	515.25	543.00	554.50	552.75	540.25	521.00	509.50	499.25	501.25	502.50	513.75	509.00	514.00	523.00	533.50	536.75	552.00	569.75	580.25	598.25	590.25	610.00	589.50	605.25	603.00	569.75	581.25	601.00	577.25	556.50	545.00	545.75	535.00	521.25	524.75	526.25	538.25	540.00	530.50	526.75	519.50	525.00	519.25	527.75	531.00	527.50	519.25	511.75	518.50	514.75	521.00	523.25	524.50	519.25	519.25	519.00	509.75	517.25	510.75	517.50	518.00	515.25	510.75	511.00	504.75	506.50	503.00	500.25	503.75	488.00	487.50	488.50	489.00	477.25	480.25	477.25	480.75	482.75	489.50	501.50	504.50	514.75	516.25	516.25	514.75	517.00	520.25	519.25	519.75	520.25	519.25	525.00	529.75	526.75	524.75	522.00	521.75	522.25	524.50	522.75	522.50	522.75	521.25	517.25	516.25	519.50	518.75	522.00	516.75	517.75	517.50	520.75	516.50	519.00	516.25	516.00	521.25	515.25	520.75	519.25
472.00	469.25	493.50	488.00	466.00	454.50	480.75	484.25	493.00	490.75	498.50	500.75	524.25	515.25	526.00	548.75	582.75	587.00	573.00	564.25	570.75	615.50	648.75	671.25	626.50	572.00	548.00	565.25	602.75	558.50	541.75	536.50	558.00	578.00	557.75	522.50	544.00	532.50	514.25	527.75	521.75	542.25	543.50	554.00	591.50	604.25	576.75	541.25	527.50	518.25	503.50	512.25	504.25	497.25	493.75	507.50	518.25	552.75	552.25	578.00	601.75	568.00	574.50	599.25	554.75	557.25	533.00	544.75	560.50	555.25	565.25	562.25	581.25	586.50	584.25	554.00	541.75	545.50	565.50	557.50	533.75	548.00	555.50	568.00	581.25	591.25	589.50	621.00	584.75	597.00	614.50	581.75	572.50	552.25	561.25	597.50	591.25	575.75	534.00	518.50	528.00	530.00	510.00	509.75	529.75	545.25	540.50	528.00	550.50	511.75	505.50	526.25	544.25	549.50	553.50	540.00	553.50	553.50	543.00	534.50	550.50	571.50	551.50	562.50	576.50	561.50	560.75	545.00	521.25	522.00	522.00	539.50	544.50	528.00	541.00	538.25	545.00	519.25	555.25	557.50	543.75	523.75	507.00	512.75	513.00	521.50	538.25	511.25	501.25	521.50	557.25	560.50	574.25	577.25	602.75	591.25	590.00	622.75	606.25	605.00	569.75	567.25	592.00	601.75	598.75	577.50	569.75	538.25	518.25	526.50	539.00	550.50	539.25	533.75	532.50	523.25	529.50	539.50	523.25	534.25	539.75	519.25	530.00	524.00	531.00	516.50	526.00	525.25	521.75	522.50	523.25	519.00	510.00	518.75	518.75	517.25	515.75	512.00	515.25	508.25	507.00	506.00	515.25	516.50	492.75	484.25	497.75	521.50	522.25	476.75	483.75	484.00	483.25	481.50	483.50	485.50	505.25	515.75	518.00	518.50	522.25	521.50	519.75	520.25	520.50	520.00	517.25	519.25	520.25	519.75	518.75	521.00	521.75	522.75	523.75	527.25	524.50	521.50	523.25	523.75	524.25	520.75	521.50	522.00	518.25	520.00	518.75	519.00	518.00	519.50	518.75	516.00	521.25	517.25	520.00	521.50
466.00	466.75	478.50	474.75	465.25	482.00	473.75	478.75	492.25	500.25	510.25	514.00	524.50	555.50	580.25	590.50	615.25	628.75	632.25	607.75	617.75	605.25	622.50	649.75	625.00	573.25	539.50	566.25	584.00	589.75	550.50	543.00	537.25	586.00	580.25	536.50	526.25	521.00	508.25	520.00	537.50	539.75	522.50	531.50	565.00	584.75	576.00	562.50	522.50	511.75	510.25	515.00	497.25	497.50	520.50	515.50	518.50	537.75	562.50	578.75	561.25	564.00	552.25	572.25	570.50	533.00	526.00	545.75	547.75	542.75	530.50	558.25	586.75	620.25	592.75	561.50	545.25	568.75	571.25	542.00	555.75	550.50	558.50	574.00	608.50	621.25	622.50	600.50	575.50	602.25	614.25	587.00	587.00	546.25	550.00	582.00	574.50	553.50	569.75	549.00	544.75	521.00	512.00	535.75	536.50	530.25	548.00	543.25	573.50	541.50	530.25	533.00	530.75	540.25	553.25	565.75	559.00	551.00	562.50	544.00	548.75	570.75	561.75	548.50	569.75	567.00	556.50	517.75	540.25	531.00	551.25	555.75	561.75	533.75	559.00	552.25	570.00	537.50	551.00	565.25	544.25	519.75	501.25	523.00	515.25	525.00	537.25	549.00	527.50	510.25	539.75	558.50	566.50	576.00	594.50	564.50	577.25	590.75	596.25	615.50	610.25	603.00	582.25	600.75	602.25	563.75	557.75	524.00	541.50	555.75	536.75	556.00	535.75	531.75	530.50	535.25	531.50	542.00	527.25	545.25	547.75	523.50	546.00	544.00	532.50	526.25	517.25	529.50	529.00	530.50	524.00	521.25	516.50	523.00	527.00	523.00	523.75	523.00	521.25	523.00	524.00	518.25	520.00	509.50	497.00	498.25	513.25	546.25	558.50	493.75	483.25	483.00	489.25	486.75	483.75	491.50	514.75	515.25	517.00	516.25	518.25	519.25	520.75	521.00	520.75	520.00	518.00	518.75	520.00	519.00	520.75	521.25	521.25	524.75	526.75	530.25	528.75	523.75	523.50	520.00	519.25	520.00	523.25	522.75	519.00	518.25	519.50	520.25	519.25	523.75	522.75	518.50	522.00	518.75	520.75	527.50
468.75	464.50	461.25	452.25	474.50	477.50	488.25	492.00	502.25	510.75	505.75	499.75	521.75	569.25	594.50	617.50	627.00	629.00	640.75	607.50	605.00	566.75	593.50	599.25	625.50	591.75	531.75	538.50	573.75	551.75	530.00	522.75	543.50	569.75	580.25	533.75	510.75	538.50	507.75	530.50	525.50	517.50	523.25	544.00	567.25	596.25	559.25	558.50	551.25	539.00	530.75	502.00	484.50	509.50	505.00	513.00	551.50	558.75	579.25	569.25	549.00	541.50	543.00	575.50	554.50	546.00	524.75	547.00	531.00	524.00	525.50	539.50	574.50	621.50	597.50	564.50	553.50	569.25	576.00	550.50	569.00	563.00	592.00	572.50	608.75	594.25	598.50	581.75	566.75	594.50	601.50	584.25	569.25	558.50	522.00	537.50	557.50	535.50	566.00	564.50	538.50	507.50	520.50	543.25	562.25	537.50	540.00	538.25	565.50	560.00	543.00	536.00	537.75	535.75	537.75	538.25	553.50	573.00	583.50	548.00	538.75	551.00	579.00	567.00	584.75	564.00	543.25	530.50	540.25	543.50	560.00	575.25	577.25	544.25	587.75	551.25	565.00	555.75	558.00	569.75	543.25	507.75	513.25	525.50	519.50	561.00	532.75	560.25	550.25	521.75	512.50	538.50	569.75	544.75	574.25	547.50	564.50	560.50	593.00	624.75	622.75	606.50	591.00	555.75	555.75	548.25	531.75	537.50	554.25	564.75	561.00	561.25	539.75	544.75	542.50	538.50	534.25	533.50	545.75	566.00	555.25	517.75	532.25	564.50	551.75	535.50	530.75	527.75	534.50	528.75	526.50	525.50	516.75	524.75	527.00	522.00	520.50	526.25	522.00	516.75	525.50	519.00	516.75	504.25	493.25	519.25	514.00	543.75	579.50	536.50	506.00	491.25	486.00	490.75	486.50	521.00	515.50	517.25	519.50	514.50	514.25	516.25	519.00	520.75	522.75	520.25	519.75	521.00	520.25	520.75	520.50	521.75	522.75	524.50	524.25	523.50	523.25	522.75	521.00	521.25	520.75	522.00	528.25	521.50	520.25	521.50	524.75	525.00	521.00	523.75	519.50	522.25	520.25	526.00	532.75	530.25
450.25	454.50	460.75	470.25	492.75	488.50	504.75	502.50	498.50	518.00	537.25	528.25	524.75	567.00	569.25	568.50	583.00	570.25	578.50	556.75	566.75	560.50	547.50	550.75	594.25	574.00	552.75	526.00	559.00	534.25	527.00	524.00	565.00	540.50	532.25	542.50	501.75	523.25	496.50	515.00	506.25	503.75	524.00	521.25	540.00	572.00	553.75	537.25	530.25	538.75	521.50	500.25	478.50	513.50	523.00	537.00	545.75	566.00	558.25	562.00	544.00	523.25	552.25	546.00	540.00	533.50	526.00	519.75	515.50	521.25	536.50	539.00	547.50	587.25	589.00	562.50	581.25	604.25	583.25	564.50	581.00	592.75	582.75	561.00	554.50	552.75	551.00	596.75	588.75	564.00	560.50	561.50	555.00	556.50	541.00	527.50	557.50	549.00	545.50	534.50	519.50	515.50	532.25	532.75	541.50	545.50	558.00	571.00	582.50	546.50	550.50	535.50	531.50	540.50	537.50	543.25	579.25	594.75	568.50	542.25	544.50	550.25	557.50	582.25	598.50	566.25	559.75	539.25	555.50	541.50	547.00	548.50	561.25	564.25	595.75	580.50	566.00	561.25	569.00	567.00	533.25	528.75	542.00	529.50	547.00	552.50	551.00	561.00	554.50	527.50	509.50	531.00	534.50	524.75	543.00	534.75	545.50	558.50	574.00	609.50	615.75	593.50	583.25	554.00	545.75	558.00	548.25	551.50	543.25	569.75	576.00	555.00	560.75	555.50	547.50	552.75	548.25	539.25	557.00	573.25	534.00	526.50	525.25	557.00	567.00	556.25	551.00	537.00	538.50	534.25	527.50	519.50	524.25	526.25	522.25	518.75	511.75	528.25	521.25	523.25	516.00	512.25	505.50	500.25	512.00	544.50	529.00	538.50	578.50	533.75	547.00	535.00	503.50	492.75	490.75	507.50	504.75	503.75	517.25	512.25	515.75	515.00	520.25	523.75	523.50	525.25	529.00	529.25	527.50	525.75	527.00	525.00	526.00	527.00	527.50	528.25	527.75	526.00	524.00	524.75	525.75	526.75	526.00	530.50	526.00	525.50	528.00	529.50	526.25	526.00	525.00	535.25	527.50	528.00	528.75	528.00
454.75	470.25	496.00	471.50	503.25	510.75	506.25	518.00	525.75	514.75	548.25	564.50	592.50	583.25	562.50	519.00	537.00	523.50	536.25	536.75	536.50	543.25	523.00	520.50	568.50	534.75	548.25	537.00	527.50	528.25	534.25	550.25	542.50	520.75	522.50	550.00	512.25	496.00	503.75	505.00	495.50	507.75	540.00	537.75	550.00	550.00	519.00	524.75	523.00	512.25	502.75	494.50	486.25	513.00	551.75	546.75	532.00	544.50	518.25	521.50	554.25	530.00	554.50	534.75	525.50	512.75	499.75	503.25	508.75	509.75	510.50	535.00	551.50	563.50	557.25	543.00	574.50	581.00	578.75	582.50	596.50	606.25	577.00	535.50	527.75	540.00	555.50	578.50	593.25	577.50	574.75	535.00	531.50	531.75	537.25	524.50	530.50	537.25	519.25	519.00	521.25	547.00	535.50	544.75	531.25	539.00	558.25	583.75	567.50	543.25	548.75	524.00	527.25	537.75	555.00	537.75	579.25	579.50	559.25	555.25	566.50	580.50	594.00	601.75	576.75	570.25	562.75	550.25	556.00	542.50	555.25	564.75	594.00	578.25	600.50	602.25	589.25	558.75	552.00	546.50	526.50	549.25	556.00	536.50	566.00	528.25	571.75	570.75	530.75	531.00	516.25	545.00	558.75	535.00	518.00	521.50	557.00	585.75	562.75	583.00	606.25	609.50	561.75	558.50	562.75	588.00	561.25	557.75	558.75	561.75	593.25	553.75	579.00	548.50	567.75	570.00	560.50	548.75	569.25	560.25	524.25	528.50	532.00	536.25	540.75	544.75	538.75	547.50	534.00	528.50	520.50	519.50	529.75	523.50	523.50	529.50	520.75	513.00	507.75	504.50	503.25	524.50	512.00	507.00	511.00	540.50	553.00	531.00	574.75	586.75	566.75	546.75	535.50	523.50	494.00	504.50	496.75	487.75	498.75	509.50	520.00	511.00	508.75	516.25	526.75	527.50	529.25	532.25	530.75	529.25	528.00	528.50	529.00	527.75	529.75	528.00	529.00	526.75	526.25	530.25	533.00	533.25	527.75	531.75	526.50	527.00	528.50	528.75	528.00	527.75	530.00	525.25	528.75	522.50	525.25	525.25
470.75	477.25	490.00	483.50	495.00	512.25	506.75	506.50	534.00	538.75	549.25	544.50	561.25	537.50	520.25	499.50	501.50	536.00	509.00	524.00	508.50	539.00	509.75	531.25	543.75	579.50	528.50	523.75	518.75	536.50	510.00	549.00	532.75	514.00	520.00	546.25	525.50	498.00	502.50	506.75	493.75	513.25	519.25	568.75	562.75	527.75	513.75	512.00	535.25	516.50	524.25	490.75	486.00	507.00	526.75	521.00	511.50	521.25	522.25	518.75	565.25	525.50	531.50	510.00	509.75	499.75	508.25	520.25	522.25	526.75	535.25	572.00	562.50	577.00	555.75	537.75	566.75	551.25	599.25	592.75	577.75	577.50	550.75	547.50	531.00	542.25	556.75	561.00	591.25	560.50	558.25	542.25	537.00	536.50	526.00	528.25	526.00	529.25	557.50	531.00	532.75	545.00	555.50	548.00	543.00	540.25	555.25	557.00	576.50	558.75	544.75	526.25	529.75	553.75	585.75	568.00	588.25	584.00	594.50	574.50	560.75	574.75	573.75	585.25	599.50	573.75	573.75	549.00	556.25	549.75	549.75	560.00	581.50	589.75	576.50	581.50	567.75	562.50	567.50	542.50	532.50	575.75	571.75	549.25	580.25	549.50	569.50	570.50	538.75	555.00	529.25	539.00	567.00	558.00	550.00	542.50	566.00	598.75	591.25	594.25	604.75	608.75	573.00	583.50	574.00	592.25	594.50	584.00	574.50	585.25	587.00	575.50	584.00	585.50	568.50	550.75	550.25	555.75	569.00	532.50	522.75	529.00	535.75	542.00	543.00	550.75	565.75	554.75	530.75	525.25	528.75	525.75	529.25	524.25	529.50	522.25	522.75	521.75	509.00	521.50	522.75	520.50	511.25	512.75	525.25	537.75	564.50	533.75	575.75	597.75	564.00	547.50	520.25	525.75	497.00	486.25	484.75	489.50	490.25	517.00	517.50	512.50	514.50	520.50	528.75	528.25	529.25	525.50	530.50	530.00	528.25	529.25	529.25	530.25	530.00	528.25	530.50	527.25	527.00	530.00	530.00	531.25	531.25	525.75	528.75	528.50	529.00	528.25	533.25	531.00	528.50	526.25	527.75	526.00	526.50	525.25
480.25	484.00	513.50	510.00	535.75	510.50	517.00	530.25	546.25	581.75	544.75	507.25	516.00	517.50	497.50	489.00	520.75	536.00	518.00	506.00	501.25	516.25	502.75	517.50	553.25	545.50	530.25	525.75	518.25	505.25	512.75	533.25	529.75	505.50	502.75	502.75	532.25	502.50	489.75	499.00	497.25	519.50	540.25	566.75	574.50	533.25	509.00	511.25	525.00	547.25	528.00	510.25	470.75	499.00	527.75	510.00	527.25	513.00	517.50	556.50	551.75	522.25	509.25	509.00	499.25	513.00	507.25	533.25	552.75	536.75	571.25	545.75	567.50	592.50	556.00	533.00	534.75	541.00	611.50	572.00	555.75	571.50	556.25	538.75	536.25	551.25	547.25	552.00	577.75	550.75	560.00	552.50	564.75	557.00	552.25	551.25	536.00	574.75	551.50	555.75	542.25	533.00	546.75	563.50	559.00	561.75	555.75	548.25	585.00	552.50	542.25	537.50	538.25	546.25	554.75	568.75	607.50	611.25	586.75	570.50	557.25	586.50	587.25	609.00	608.75	607.75	582.25	564.25	564.50	549.50	561.25	560.75	568.50	570.75	562.50	560.75	550.00	541.00	562.25	533.00	554.75	580.00	586.00	573.50	591.75	574.00	556.50	570.00	549.50	573.00	544.00	527.50	573.25	563.25	559.00	546.75	569.25	577.75	616.00	611.75	596.50	613.50	601.25	589.75	565.50	582.50	600.75	603.00	576.00	596.00	600.25	596.25	580.00	599.50	556.00	551.25	565.00	547.25	553.25	525.75	526.25	535.50	533.50	545.50	546.00	562.75	575.75	557.00	528.50	540.25	542.75	533.75	530.75	527.75	526.75	529.50	525.75	507.50	522.25	527.75	522.75	515.75	501.25	502.75	524.00	545.25	563.25	555.25	555.75	588.25	539.25	548.75	543.75	510.75	498.25	491.75	477.00	484.75	491.25	519.75	525.00	516.75	511.50	515.50	524.00	529.00	529.25	523.25	524.00	528.75	527.25	528.75	530.00	531.75	530.25	528.75	530.25	525.75	526.00	528.25	528.75	528.25	526.75	528.25	528.50	530.00	527.75	528.75	532.25	526.00	525.75	526.50	527.50	526.00	525.75	529.75
488.00	512.75	574.25	645.00	601.50	559.00	550.75	539.00	499.50	544.75	517.00	500.00	517.50	519.75	484.00	524.75	511.25	542.25	529.25	503.50	496.00	509.50	532.50	543.75	551.00	542.50	528.50	513.75	514.00	495.00	499.50	507.00	512.00	488.75	503.75	517.75	535.00	517.00	499.50	492.25	505.00	507.00	522.00	544.25	559.50	538.00	514.25	497.00	513.00	525.25	522.25	492.75	476.75	500.75	507.00	503.50	516.00	514.25	541.00	563.25	541.00	533.00	494.00	498.75	500.50	514.00	524.75	520.00	530.00	558.25	566.50	545.50	581.00	555.25	523.75	519.25	528.75	552.50	572.50	568.50	535.75	551.25	558.50	537.00	531.50	536.50	532.75	565.50	567.00	532.00	554.50	546.00	561.25	572.00	561.00	555.50	546.25	582.25	558.25	565.00	532.75	562.00	555.50	544.75	567.00	585.50	576.50	561.75	575.25	542.00	558.75	552.75	554.25	565.25	556.00	571.25	592.25	604.00	587.50	572.50	570.50	593.50	575.25	570.25	568.00	596.50	579.75	575.00	557.75	552.75	547.50	554.50	560.25	580.25	581.75	556.00	555.75	548.50	539.50	538.25	550.75	574.25	601.00	585.75	605.25	579.75	548.25	569.25	554.00	583.50	562.25	535.25	577.25	575.50	557.50	535.50	573.25	596.50	609.75	593.25	582.00	599.75	589.50	579.75	566.75	559.50	586.00	585.50	561.00	582.50	565.50	587.25	585.25	586.25	569.75	558.75	553.75	531.00	532.50	531.50	528.50	539.50	545.00	554.00	567.25	589.00	573.25	553.50	536.50	552.75	558.00	539.75	527.50	529.50	531.75	520.25	513.25	520.25	529.00	515.50	519.25	528.00	504.50	496.75	526.50	529.75	543.75	564.50	562.00	578.00	564.00	548.50	529.25	511.50	495.25	498.00	489.00	484.75	481.50	494.25	499.50	505.75	503.50	510.75	516.75	517.00	521.75	518.75	529.00	526.25	528.50	528.50	530.00	534.75	531.50	527.25	529.75	527.75	530.25	528.00	529.00	529.00	528.25	528.50	528.50	528.75	528.50	532.00	529.00	526.00	528.00	528.00	528.00	529.00	526.75	527.00
482.50	518.50	590.75	612.50	678.00	662.00	564.75	516.25	493.25	533.50	487.75	497.25	509.50	498.75	479.50	527.00	500.75	551.50	527.25	503.00	503.00	513.50	548.00	581.25	533.50	515.25	518.25	507.50	496.50	491.75	478.50	503.25	512.00	489.75	502.25	506.75	518.50	515.50	497.75	510.25	496.75	507.75	526.50	537.25	542.75	510.25	511.75	512.75	492.25	522.50	526.25	495.50	467.00	488.50	510.00	496.50	486.50	505.50	512.25	535.25	526.25	523.75	488.25	493.25	508.75	505.25	502.25	512.75	534.50	536.00	537.00	532.50	555.25	537.00	518.75	519.25	543.50	566.75	565.00	539.50	536.75	528.50	542.75	545.25	521.25	527.25	536.00	562.75	556.50	522.50	523.75	523.75	558.00	571.00	562.00	573.25	571.00	597.50	566.00	575.25	541.00	578.00	590.25	571.75	553.75	570.25	578.00	585.50	581.00	554.00	556.00	565.50	554.75	600.00	575.00	568.25	562.50	603.50	603.00	586.50	565.00	559.75	548.50	555.00	550.00	598.00	594.00	564.50	560.50	559.75	556.50	564.75	558.50	586.25	565.50	562.50	563.75	568.75	553.00	541.75	550.50	559.00	569.75	589.00	584.75	584.75	562.75	571.25	561.50	589.00	570.75	542.00	588.25	582.50	545.25	550.00	554.75	588.75	599.50	582.50	565.25	562.75	572.25	563.75	555.50	542.50	559.00	566.00	551.75	557.00	557.75	562.50	572.50	574.25	542.25	539.50	527.25	522.00	526.00	533.25	533.25	558.50	591.25	593.50	579.00	575.50	565.50	546.50	555.50	564.75	564.50	552.75	528.75	519.25	516.25	509.75	528.00	529.00	521.00	521.75	530.75	524.75	510.75	498.75	507.00	515.25	519.25	560.75	552.25	551.50	569.50	532.25	537.75	520.00	499.25	503.75	500.00	488.25	480.50	488.75	489.75	487.50	491.00	495.00	497.00	510.25	528.75	523.25	518.75	523.00	528.00	528.00	529.75	529.50	530.00	528.75	527.50	528.25	534.75	529.00	527.75	528.25	529.25	528.25	528.75	532.75	532.75	533.75	528.25	527.50	529.50	529.00	527.75	527.25	526.25	536.50
534.50	500.00	504.75	502.25	611.25	631.25	524.75	496.75	492.00	496.50	492.50	506.75	505.25	464.00	504.00	504.75	526.50	516.75	494.75	504.50	494.75	508.25	527.00	530.25	510.75	497.50	528.25	515.25	503.00	493.50	479.25	474.50	475.00	492.00	498.75	504.00	525.25	529.50	502.50	483.25	491.00	500.50	500.75	513.25	524.75	514.50	502.50	492.50	507.75	514.25	504.75	496.75	473.00	480.00	480.75	492.50	509.00	514.75	519.25	530.50	507.75	496.00	478.50	480.25	483.50	488.00	507.25	531.00	528.75	512.50	532.25	563.25	549.25	552.25	512.25	515.75	531.50	545.50	537.25	550.75	534.00	513.00	539.25	514.75	526.00	532.50	532.75	547.00	554.75	533.50	517.75	533.75	547.00	542.00	545.00	574.50	571.00	565.75	556.50	570.50	554.25	566.50	564.50	561.25	567.75	571.75	571.00	568.50	563.75	570.50	603.25	589.00	567.50	586.00	593.25	589.50	586.75	588.25	573.75	564.00	556.50	554.00	542.75	552.00	537.00	569.50	589.50	569.00	568.75	559.75	564.00	573.25	583.00	582.25	582.75	568.00	582.25	571.75	557.25	547.25	552.50	559.50	571.75	590.50	588.50	585.75	612.00	581.75	581.50	597.50	569.50	545.00	593.50	582.00	579.50	576.00	565.00	589.00	586.75	586.50	572.00	558.25	566.75	561.75	568.50	557.25	548.50	548.75	538.75	534.25	536.50	533.75	539.00	541.25	529.00	533.00	528.75	525.75	523.00	528.25	539.50	559.25	576.00	559.50	563.50	553.00	545.75	550.75	552.00	541.25	547.50	541.00	524.25	525.25	526.00	530.75	524.50	528.00	525.50	524.50	523.50	520.75	530.75	515.50	496.25	498.75	504.75	504.75	518.50	541.00	568.75	551.00	535.00	522.00	519.50	509.00	503.25	506.25	491.00	484.75	487.25	487.50	487.25	489.00	489.75	495.75	521.75	530.75	530.00	529.25	529.75	531.25	530.25	530.00	530.75	531.00	533.75	530.75	533.50	529.25	529.75	531.75	528.50	529.00	528.75	528.25	531.50	527.75	529.25	529.00	530.00	529.50	528.75	526.75	526.75	529.50
513.25	476.25	479.50	477.50	514.75	554.25	502.50	480.50	490.50	478.50	486.25	489.50	490.00	464.25	474.00	520.75	569.50	529.75	487.25	476.25	502.00	540.00	540.50	496.75	494.00	527.50	498.00	542.00	533.75	499.25	489.25	487.50	472.00	496.75	514.75	488.25	516.75	511.25	519.25	485.25	491.00	493.75	509.00	512.00	517.75	519.00	509.50	495.50	502.75	500.00	504.75	486.25	464.25	468.25	489.75	497.25	480.00	494.50	502.75	543.25	484.00	484.00	491.75	484.75	503.25	497.75	523.25	513.25	511.75	513.75	538.25	552.00	528.25	537.50	522.00	502.50	513.50	543.00	525.00	547.25	532.00	532.50	531.75	509.75	527.00	517.75	530.00	539.75	541.75	523.00	516.50	532.50	516.25	531.25	556.75	567.25	543.25	550.25	532.50	555.25	565.25	556.50	544.50	545.00	551.00	551.25	550.75	547.75	554.25	566.00	595.25	601.25	614.00	598.50	619.50	585.25	557.50	552.50	564.25	552.50	550.75	545.00	551.50	536.75	531.25	552.75	571.25	591.50	605.50	574.50	577.75	578.00	593.50	596.25	564.50	560.75	563.50	563.00	562.00	555.25	546.25	549.25	560.00	581.75	595.00	609.00	604.50	599.00	606.75	603.50	592.25	555.50	588.00	565.25	593.00	592.50	576.50	588.00	575.75	570.25	561.50	573.25	583.00	577.25	569.50	557.00	570.50	550.00	560.50	561.50	555.25	535.50	523.00	520.75	520.25	527.75	539.25	532.25	525.00	529.00	537.25	543.75	552.50	542.25	551.25	555.00	549.25	543.25	531.25	530.00	527.00	521.50	534.75	530.25	531.00	529.50	526.00	531.75	530.00	529.50	520.50	529.00	534.25	523.50	495.00	497.00	499.00	524.00	523.75	522.25	536.75	526.50	517.25	514.75	508.00	502.00	507.25	520.25	484.75	487.75	485.00	487.25	488.25	487.25	489.25	489.25	507.50	531.25	532.50	530.75	529.75	532.00	532.00	531.75	530.25	531.00	532.50	530.50	530.75	530.00	530.00	531.00	531.25	530.00	529.50	529.75	529.25	529.25	530.50	530.25	530.25	529.75	528.25	526.25	527.75	526.25
494.75	477.50	469.75	464.50	488.25	544.75	476.00	471.00	490.25	466.75	480.75	509.50	481.75	465.75	486.50	510.00	538.00	503.75	491.50	490.25	487.75	498.25	502.00	489.25	508.75	515.25	512.75	545.50	513.50	494.50	484.50	477.75	467.75	507.25	486.50	513.75	515.00	498.00	509.25	488.75	491.25	487.75	502.25	501.50	502.00	514.25	506.00	504.75	501.00	491.75	502.00	513.00	459.50	491.75	502.50	511.25	509.50	505.25	529.75	515.50	489.25	493.00	472.25	483.75	496.25	515.00	515.00	503.25	497.75	528.25	539.00	536.25	516.25	543.75	525.00	507.50	515.25	545.75	515.00	539.75	518.25	519.75	517.00	506.00	513.75	524.25	530.25	531.50	542.50	521.50	509.25	520.75	516.25	531.00	558.00	554.25	534.75	534.00	531.75	537.25	564.00	550.50	538.75	535.00	545.50	540.75	535.50	543.00	549.25	574.75	580.25	588.50	598.75	589.75	601.00	589.00	563.25	558.00	564.00	564.00	544.50	543.25	541.00	527.75	531.75	558.25	564.25	579.75	578.00	566.75	575.25	589.00	590.00	592.75	581.75	561.75	580.75	569.25	578.00	558.25	554.00	561.25	567.50	576.25	591.50	623.50	620.00	619.50	621.00	601.50	581.75	557.75	589.50	562.50	599.00	592.25	577.00	592.75	591.75	586.75	571.00	586.25	582.25	568.75	565.75	566.25	564.50	559.50	566.25	555.50	549.75	548.25	535.50	544.25	542.00	530.25	529.00	527.25	523.25	527.75	540.75	535.50	545.00	534.75	557.75	551.50	540.00	541.25	542.75	538.50	530.75	532.25	536.50	533.00	528.75	530.50	528.75	532.75	532.00	525.50	526.50	527.75	531.00	514.75	492.75	510.00	520.25	529.00	531.75	534.25	525.50	527.50	533.75	536.00	524.75	513.00	512.00	516.75	503.00	484.75	491.00	485.00	485.50	486.75	488.25	491.50	499.75	523.75	534.75	523.50	530.25	528.75	532.50	531.50	530.00	532.25	535.75	529.50	528.25	530.00	529.25	529.25	530.00	531.75	531.00	530.25	530.00	529.75	529.50	530.25	530.00	530.25	530.50	528.75	528.00	527.25
467.00	469.50	493.00	450.50	453.00	501.25	481.25	465.25	479.00	468.00	461.50	480.00	492.75	476.75	472.75	487.50	502.75	495.50	485.50	487.50	493.25	514.25	496.75	480.00	494.75	485.25	514.00	521.25	503.50	481.00	470.00	483.00	491.50	476.50	487.50	492.50	509.00	494.75	496.00	489.50	491.75	507.25	524.25	517.75	515.50	509.25	494.00	480.00	506.75	478.25	527.75	496.75	459.50	491.50	482.75	495.50	505.50	520.50	535.25	505.00	492.50	501.00	464.75	490.75	501.00	494.50	483.25	504.25	504.50	535.50	530.50	521.25	503.50	549.75	521.75	503.00	531.75	549.75	509.75	547.50	540.00	522.50	514.75	500.25	519.25	512.50	514.75	525.00	528.75	517.75	513.75	522.50	509.25	532.25	551.50	533.75	521.75	527.75	525.50	540.75	557.75	534.75	535.25	534.00	530.00	524.00	530.00	550.00	559.75	575.25	566.75	578.75	567.25	560.25	575.00	580.75	581.00	558.00	549.50	558.00	542.75	538.50	530.50	532.25	535.00	559.25	556.75	563.75	575.25	569.75	593.50	596.75	571.75	569.00	582.25	564.25	583.00	570.25	572.50	557.75	562.00	572.50	580.25	587.75	592.00	638.25	602.50	606.25	602.75	602.75	582.75	568.75	602.25	571.25	604.75	595.50	579.75	599.00	596.50	579.50	572.75	588.00	581.50	570.25	578.25	572.75	570.00	570.50	565.75	554.00	566.00	563.50	553.50	558.25	543.50	549.25	555.50	548.75	527.25	515.00	528.00	531.75	552.50	539.25	538.00	545.50	551.00	546.75	531.25	530.00	538.50	538.00	527.00	528.25	524.50	528.75	526.00	532.50	527.00	516.25	527.50	527.00	523.25	495.75	492.00	502.75	523.50	532.25	521.50	540.75	534.75	526.50	549.75	531.25	524.25	526.75	519.00	512.75	517.50	489.25	482.25	482.75	487.50	485.50	490.00	493.00	501.75	531.00	518.25	527.50	526.25	528.00	531.00	531.50	531.25	532.75	533.00	528.75	529.00	533.00	532.00	531.50	530.25	530.50	531.50	530.25	530.00	530.25	529.50	529.75	530.25	528.00	527.50	527.75	528.00	528.75
427.50	452.25	467.75	451.75	473.25	470.00	464.25	449.50	467.50	459.25	461.00	486.25	459.00	462.50	488.75	532.75	501.00	483.50	484.00	476.25	499.00	508.75	501.50	483.75	481.25	485.00	500.25	495.75	495.50	471.50	474.50	476.50	486.25	487.75	494.25	507.75	492.25	494.25	470.50	486.25	497.00	504.00	536.50	531.25	517.00	509.00	500.75	489.75	477.25	477.50	493.25	475.25	483.25	486.75	489.00	491.25	492.25	544.25	528.75	500.50	502.50	489.00	483.75	509.00	496.00	494.50	514.00	515.00	548.75	535.00	531.75	504.25	522.00	518.00	500.25	511.75	530.50	523.25	522.00	545.25	550.50	531.25	521.75	516.00	507.25	509.75	522.25	515.75	530.00	509.25	501.75	516.75	512.00	524.25	523.50	523.75	519.50	519.25	523.00	531.00	546.00	527.00	530.25	519.00	527.50	532.00	551.00	552.00	544.00	577.75	554.75	556.25	551.75	557.50	569.25	558.75	576.25	575.00	548.50	559.00	546.25	532.25	527.75	536.25	547.25	549.25	557.25	562.75	568.25	577.00	589.50	589.00	569.75	558.50	573.00	581.25	584.75	569.00	567.00	562.25	560.00	565.25	577.00	585.25	590.75	615.00	593.75	601.00	590.25	586.25	573.75	570.25	605.25	577.25	606.50	606.00	599.00	602.50	586.00	578.50	586.25	591.75	573.00	583.50	579.75	577.50	576.25	568.00	559.25	565.25	567.25	564.50	562.00	556.00	558.25	559.50	555.75	547.75	545.75	539.75	536.50	519.50	518.25	540.25	522.25	534.00	536.75	538.75	527.75	524.25	537.25	529.25	531.00	524.00	527.00	519.50	521.00	518.75	527.00	516.50	516.75	506.50	500.50	494.25	489.75	503.00	531.25	531.25	530.75	532.50	537.00	532.50	546.75	526.25	530.50	533.50	519.75	523.00	522.75	505.25	488.00	483.50	490.00	486.00	488.25	492.75	504.25	525.25	519.75	521.00	529.00	531.25	531.75	530.75	531.75	532.25	532.50	529.25	529.75	532.25	533.50	532.25	532.00	531.25	531.00	531.75	530.50	532.25	529.50	529.25	531.00	530.75	527.75	528.50	528.25	530.25
393.50	395.00	398.50	395.25	399.50	407.50	407.25	414.50	425.00	425.75	468.50	499.50	459.75	498.75	475.25	484.75	503.50	473.25	495.75	476.25	496.75	493.25	477.75	480.75	489.50	483.75	505.00	469.75	482.25	464.00	479.25	479.00	465.00	475.75	488.75	516.75	486.75	474.75	488.25	506.00	514.50	509.75	513.00	500.75	519.25	524.75	495.50	474.00	461.75	459.00	461.50	484.50	462.75	473.25	517.75	512.50	535.00	542.75	524.50	513.25	500.25	510.50	507.25	503.75	503.25	486.25	502.25	512.25	528.75	498.00	511.50	499.00	515.50	538.00	509.50	498.50	504.75	525.25	507.00	511.75	520.50	533.75	512.00	509.25	517.00	491.00	505.50	524.25	541.00	516.25	517.75	492.75	519.00	503.50	517.50	512.75	511.75	512.25	538.25	531.50	536.50	529.75	516.25	520.75	509.25	522.00	535.00	535.50	540.50	538.00	541.25	539.00	555.50	559.00	553.00	542.00	566.00	570.50	545.00	533.75	535.00	524.50	537.00	546.50	542.75	541.25	552.75	567.00	561.50	564.75	567.25	566.25	583.00	587.75	558.75	558.25	579.75	562.50	566.25	573.00	575.00	570.00	572.75	581.75	574.00	570.00	564.00	597.50	592.25	582.25	569.75	584.00	619.25	593.75	595.00	617.75	606.50	581.00	598.75	601.00	598.00	594.50	588.25	587.50	584.50	574.50	567.50	572.75	569.25	563.25	555.25	547.50	542.50	542.75	546.50	540.75	541.75	547.50	540.75	541.75	540.00	527.50	524.00	507.50	504.25	505.25	508.75	506.75	513.00	518.25	522.00	514.25	515.75	521.75	510.75	503.00	500.25	496.00	495.50	494.25	492.75	497.75	514.50	513.75	493.00	512.75	522.75	521.75	533.00	534.25	543.25	546.75	555.25	540.75	538.50	530.75	523.50	522.50	517.50	516.25	507.25	497.50	482.75	483.75	485.00	485.50	488.00	500.25	530.25	534.75	526.00	528.50	531.00	531.00	530.25	530.00	536.00	531.00	530.00	532.25	533.50	534.50	531.00	531.25	531.75	534.00	530.25	530.50	532.75	532.25	531.50	534.25	528.25	532.00	531.75	537.50
448.00	428.50	420.75	412.00	402.50	401.00	405.75	410.50	405.75	406.75	426.00	448.75	457.00	459.75	466.50	472.50	496.25	465.00	486.00	487.00	486.75	474.00	476.75	466.00	488.75	485.00	485.00	478.25	468.75	467.00	481.00	478.00	451.50	474.25	493.25	482.00	464.00	478.00	503.50	499.50	518.25	507.50	503.75	514.50	515.50	493.50	486.50	477.25	471.75	490.25	487.00	498.25	492.25	510.25	503.75	505.00	523.75	531.75	514.00	554.25	519.25	491.75	481.50	480.75	489.25	512.25	508.75	508.25	534.50	508.75	486.00	508.50	514.50	538.50	520.50	492.50	493.00	498.50	498.25	515.50	531.25	554.75	535.00	530.50	508.75	492.25	518.25	517.50	546.75	532.00	509.00	498.50	489.50	506.50	523.50	500.50	507.75	523.25	531.75	537.50	523.25	529.25	511.50	508.50	511.75	526.25	532.00	526.00	526.50	534.25	548.50	539.75	554.00	545.75	557.75	543.25	552.25	552.25	548.00	537.00	526.75	524.75	535.50	533.75	531.25	543.75	546.75	546.75	560.75	549.25	551.25	567.50	557.75	558.25	553.25	547.00	572.75	571.75	560.75	553.25	559.25	562.75	561.75	570.75	562.75	566.00	557.25	581.50	610.25	596.25	574.50	588.75	601.00	589.00	615.25	608.75	593.25	603.75	608.50	606.75	602.50	596.50	591.50	588.25	581.00	581.50	574.75	560.25	543.25	543.50	540.25	532.75	527.50	524.75	527.00	522.50	521.75	524.50	528.50	527.00	518.75	510.25	509.00	506.00	506.50	508.25	511.00	511.75	503.25	501.75	507.50	506.00	502.00	504.50	495.75	493.25	493.50	502.00	501.00	504.75	506.50	512.25	517.50	522.50	500.50	518.25	526.75	535.50	532.00	538.75	536.00	552.50	561.50	552.00	532.00	526.50	526.25	527.75	524.00	519.50	514.75	506.75	499.00	496.50	502.75	505.00	485.75	493.25	514.00	531.00	531.50	533.25	530.25	529.25	530.00	532.00	532.00	530.50	531.75	532.00	532.00	531.00	531.75	533.00	532.50	531.00	532.50	529.50	529.00	532.50	531.75	535.00	528.25	527.25	532.50	534.75
462.50	450.00	434.75	450.50	437.50	443.00	439.75	451.50	453.75	451.50	431.00	409.75	401.50	439.50	471.75	465.00	457.75	470.50	482.00	469.25	481.00	473.75	466.00	452.50	469.00	467.50	469.25	455.75	453.25	464.25	485.25	476.75	444.25	466.50	484.25	484.25	478.25	487.25	530.25	527.75	526.25	517.50	495.50	531.50	491.00	483.00	490.00	464.50	447.75	495.50	502.50	525.50	504.00	512.25	478.00	496.75	517.25	515.50	502.50	531.75	481.00	481.50	472.75	491.00	504.00	512.50	529.75	519.00	515.50	499.50	488.50	508.00	511.50	515.75	526.25	488.50	497.25	497.75	532.50	554.75	522.00	563.50	515.50	506.50	510.50	492.50	504.50	520.75	549.00	509.25	502.00	490.25	489.25	493.25	504.75	499.50	523.75	531.25	524.00	537.00	513.50	507.50	504.50	502.50	511.00	527.25	527.00	522.25	516.00	539.25	533.75	532.00	536.50	536.75	536.25	539.00	553.75	540.50	537.75	534.00	519.00	521.75	535.75	530.00	523.00	535.50	534.25	542.75	568.75	550.75	543.75	542.75	543.50	535.50	539.25	546.50	575.00	547.50	548.75	550.00	546.50	553.50	556.00	560.50	560.00	547.00	572.75	572.50	590.25	584.25	599.00	598.00	621.75	628.75	608.75	610.25	613.75	614.50	617.00	607.00	575.50	569.75	566.00	559.00	553.00	553.50	548.75	548.00	535.75	530.50	525.00	521.75	529.00	532.75	529.00	538.25	538.00	543.75	558.25	564.00	535.00	512.25	517.25	518.25	514.50	530.25	531.75	531.50	523.50	525.50	510.00	500.25	491.00	492.00	494.00	494.25	508.25	522.00	518.50	527.75	524.25	521.50	524.50	514.25	502.00	519.00	525.00	516.25	529.75	533.00	540.25	540.25	543.25	531.75	526.00	532.00	527.00	528.50	521.75	522.75	519.75	512.50	503.00	509.75	512.50	513.75	489.50	495.00	497.75	503.00	527.00	527.00	531.00	529.75	530.50	532.75	531.00	533.50	531.00	532.00	533.25	532.25	531.75	536.50	540.75	539.25	534.25	533.50	529.00	533.25	531.00	525.25	526.75	528.25	528.25	525.25
472.75	471.50	450.00	481.25	445.50	470.25	447.50	477.75	468.00	471.50	456.50	458.50	446.50	407.00	439.75	471.00	444.75	457.50	467.00	460.00	470.75	454.25	455.75	460.75	460.00	462.50	473.75	475.50	451.50	459.25	467.25	468.00	452.50	463.75	476.00	491.50	478.00	507.75	510.75	513.00	495.75	507.25	479.00	494.75	498.50	481.25	457.75	441.00	463.00	514.00	466.25	482.50	483.25	463.75	480.25	510.50	533.75	507.00	479.25	511.00	470.00	469.75	498.50	501.25	509.50	498.75	529.75	522.50	506.00	500.75	488.00	492.75	509.50	504.75	510.75	483.75	494.00	516.75	538.50	515.50	509.75	551.50	520.50	514.25	497.25	488.50	496.00	506.00	511.50	515.25	507.50	504.50	490.50	484.50	490.75	502.00	514.00	519.25	534.25	558.25	512.00	502.50	496.75	503.75	519.00	521.00	514.50	536.75	532.00	546.50	537.25	527.00	525.25	533.25	531.75	545.00	548.00	545.25	531.00	536.00	529.50	527.75	529.00	527.50	522.00	529.00	541.25	555.75	566.25	557.50	540.00	534.25	551.50	547.50	536.75	548.50	558.00	543.50	535.50	544.75	550.25	559.75	543.25	557.25	556.50	559.00	563.50	565.75	576.25	583.50	603.00	613.00	605.50	614.00	612.00	611.50	623.50	625.25	605.75	592.00	596.25	596.75	590.00	585.00	577.00	557.75	549.25	536.00	531.00	533.00	540.75	529.25	563.50	563.00	539.75	556.50	555.25	558.00	554.00	530.75	526.50	531.25	539.75	540.25	529.75	536.75	534.25	531.00	530.25	519.50	509.75	505.50	517.25	517.50	518.50	518.00	527.00	515.00	525.75	519.75	520.50	514.75	506.00	502.00	495.00	511.00	529.75	538.00	521.25	526.25	534.75	537.25	536.75	537.00	528.75	530.50	527.50	526.50	524.00	522.75	511.00	507.75	515.50	512.75	515.00	517.00	490.50	492.75	512.25	518.75	531.75	533.00	532.75	529.50	530.25	531.50	533.75	531.25	532.00	533.00	534.00	532.75	533.00	545.25	542.00	540.50	534.50	533.00	535.75	530.75	529.75	529.50	528.75	530.75	530.50	531.50
