1743.50	1741.50	1740.50	1739.50	1737.00	1736.00	1734.00	1733.00	1731.50	1730.50	1729.00	1726.50	1725.00	1723.00	1722.00	1719.50	1718.50	1716.00	1714.50	1713.50	1711.00	1711.00	1710.00	1710.00	1709.50	1709.00	1708.00	1707.00	1706.50	1705.00	1703.50	1702.00	1700.50	1698.50	1697.50	1697.00	1696.00	1694.50	1694.00	1692.50	1691.50	1691.00	1690.00	1687.50	1686.00	1685.00	1682.50	1681.50	1678.50	1677.00	1676.00	1676.00	1676.00	1676.00	1677.00	1678.50	1679.50	1680.50	1683.00	1685.00	1688.00	1690.00	1693.00	1695.00	1699.00	1701.00	1703.00	1705.00	1706.00	1707.00	1708.00	1708.00	1708.00	1708.00	1708.00	1708.00	1716.00	1723.00	1734.00	1741.50	1752.00	1755.50	1759.00	1765.00	1765.00	1754.00	1743.00	1735.50	1727.50	1712.00	1694.50	1678.00	1667.00	1637.00	1615.50	1583.00	1550.00	1527.00	1491.00	1467.00	1431.50	1399.00	1375.00	1358.50	1342.00	1311.50	1301.00	1286.00	1276.00	1261.50	1254.00	1241.00	1235.00	1229.00	1221.00	1216.00	1207.00	1203.00	1196.00	1191.50	1187.00	1178.00	1174.00	1170.00	1168.00	1164.00	1162.00	1158.00	1155.50	1153.00	1150.00	1149.00	1149.00	1149.00	1149.00	1149.50	1152.00	1154.50	1156.00	1159.00	1159.00	1159.50	1160.00	1160.50	1160.50	1160.00	1160.00	1160.00	1171.00	1192.00	1206.00	1219.50	1238.00	1261.50	1284.00	1299.00	1321.00	1336.50	1360.00	1384.00	1400.00	1420.00	1431.00	1449.00	1467.00	1488.00	1504.50	1521.50	1557.00	1567.50	1563.00	1557.00	1544.50	1535.50	1555.00	1571.00	1587.00	1611.00	1636.50	1663.00	1681.00	1708.00	1730.50	1773.00	1817.00	1846.50	1889.00	1925.50	1950.00	1974.00	2021.50	2041.00	2068.00	2087.00	2114.00	2134.00	2150.50	2161.50	2172.00	2184.00	2181.00	2179.00	2178.00	2174.00	2169.50	2162.00	2155.00	2150.50	2140.00	2133.00	2121.50	2110.00	2099.00	2090.50	2082.00	2069.00	2060.00	2058.00	2058.00	2059.00	2057.50	2039.50	2015.00	1998.50	1972.00	1953.00	1914.00	1894.00	1863.00	1860.00	1883.00	1909.50	1928.00	1953.00	1968.00	1978.00	1988.00	2002.00	1998.50	1990.00	1985.00	1976.00	1964.00	1951.50	1942.00	1932.50	1911.00	1877.50	1843.00	1821.00	1783.50	1754.00	1709.50	1665.50	1635.50	1589.00
1745.00	1743.50	1742.75	1742.00	1740.00	1739.00	1737.00	1736.00	1733.75	1732.50	1731.00	1727.75	1726.25	1724.00	1722.50	1720.25	1718.75	1716.25	1714.75	1713.50	1711.50	1711.00	1710.50	1710.00	1709.50	1708.75	1707.00	1705.00	1704.00	1702.00	1699.25	1697.50	1695.75	1692.50	1690.25	1687.00	1684.50	1681.00	1679.00	1677.50	1676.25	1675.25	1673.50	1671.50	1669.50	1668.50	1666.50	1665.50	1662.50	1661.25	1660.50	1660.50	1661.00	1661.50	1662.50	1664.75	1666.50	1668.25	1671.75	1674.25	1678.00	1680.50	1684.25	1686.50	1691.00	1693.25	1695.75	1698.50	1700.00	1702.50	1704.00	1705.50	1706.25	1706.75	1708.25	1709.00	1716.50	1723.50	1734.75	1742.00	1753.75	1757.75	1761.50	1767.50	1769.25	1761.00	1751.75	1745.75	1739.75	1726.50	1710.50	1695.50	1685.50	1658.75	1637.75	1606.50	1575.00	1552.75	1517.50	1494.00	1459.00	1425.50	1399.25	1381.50	1363.75	1330.50	1319.00	1303.50	1293.50	1278.00	1269.25	1254.00	1246.75	1239.00	1228.00	1221.50	1208.50	1202.00	1192.25	1186.75	1181.50	1170.75	1165.50	1160.50	1158.00	1153.50	1150.75	1146.00	1143.50	1141.00	1138.00	1136.25	1137.00	1137.50	1138.50	1139.50	1141.00	1142.25	1143.25	1145.00	1146.75	1148.25	1149.75	1152.75	1153.50	1153.50	1154.00	1154.50	1160.00	1169.50	1175.50	1181.00	1188.00	1205.25	1224.00	1236.00	1253.50	1268.75	1295.25	1322.00	1340.00	1363.00	1374.50	1391.75	1409.00	1426.25	1436.25	1445.50	1463.75	1468.75	1468.00	1466.50	1463.75	1462.25	1486.00	1504.00	1522.25	1549.50	1579.50	1613.00	1635.50	1670.00	1695.25	1737.00	1778.75	1806.75	1848.00	1886.00	1911.75	1937.25	1987.75	2008.50	2036.00	2055.00	2082.75	2105.50	2122.50	2133.75	2145.00	2160.00	2161.50	2163.00	2164.00	2164.50	2162.25	2156.75	2151.50	2148.25	2140.00	2132.50	2121.00	2109.50	2097.50	2087.50	2077.50	2062.00	2050.75	2054.00	2059.50	2068.50	2073.75	2066.25	2051.25	2040.75	2025.00	2015.00	2001.50	1995.00	1986.00	1987.75	1998.00	2007.50	2013.75	2020.50	2032.25	2040.50	2048.00	2057.75	2053.00	2041.00	2033.00	2020.25	2004.00	1984.25	1970.50	1956.50	1932.00	1896.00	1859.50	1836.00	1797.25	1767.75	1721.75	1675.75	1644.75	1597.00
1746.50	1745.50	1745.00	1744.50	1743.00	1742.00	1740.00	1739.00	1736.00	1734.50	1733.00	1729.00	1727.50	1725.00	1723.00	1721.00	1719.00	1716.50	1715.00	1713.50	1712.00	1711.00	1711.00	1710.00	1709.50	1708.50	1706.00	1703.00	1701.50	1699.00	1695.00	1693.00	1691.00	1686.50	1683.00	1677.00	1673.00	1667.50	1664.00	1662.50	1661.00	1659.50	1657.00	1655.50	1653.00	1652.00	1650.50	1649.50	1646.50	1645.50	1645.00	1645.00	1646.00	1647.00	1648.00	1651.00	1653.50	1656.00	1660.50	1663.50	1668.00	1671.00	1675.50	1678.00	1683.00	1685.50	1688.50	1692.00	1694.00	1698.00	1700.00	1703.00	1704.50	1705.50	1708.50	1710.00	1717.00	1724.00	1735.50	1742.50	1755.50	1760.00	1764.00	1770.00	1773.50	1768.00	1760.50	1756.00	1752.00	1741.00	1726.50	1713.00	1704.00	1680.50	1660.00	1630.00	1600.00	1578.50	1544.00	1521.00	1486.50	1452.00	1423.50	1404.50	1385.50	1349.50	1337.00	1321.00	1311.00	1294.50	1284.50	1267.00	1258.50	1249.00	1235.00	1227.00	1210.00	1201.00	1188.50	1182.00	1176.00	1163.50	1157.00	1151.00	1148.00	1143.00	1139.50	1134.00	1131.50	1129.00	1126.00	1123.50	1125.00	1126.00	1128.00	1129.50	1130.00	1130.00	1130.50	1131.00	1134.50	1137.00	1139.50	1145.00	1146.50	1147.00	1148.00	1149.00	1149.00	1147.00	1145.00	1142.50	1138.00	1149.00	1164.00	1173.00	1186.00	1201.00	1230.50	1260.00	1280.00	1306.00	1318.00	1334.50	1351.00	1364.50	1368.00	1369.50	1370.50	1370.00	1373.00	1376.00	1383.00	1389.00	1417.00	1437.00	1457.50	1488.00	1522.50	1563.00	1590.00	1632.00	1660.00	1701.00	1740.50	1767.00	1807.00	1846.50	1873.50	1900.50	1954.00	1976.00	2004.00	2023.00	2051.50	2077.00	2094.50	2106.00	2118.00	2136.00	2142.00	2147.00	2150.00	2155.00	2155.00	2151.50	2148.00	2146.00	2140.00	2132.00	2120.50	2109.00	2096.00	2084.50	2073.00	2055.00	2041.50	2050.00	2061.00	2078.00	2090.00	2093.00	2087.50	2083.00	2078.00	2077.00	2089.00	2096.00	2109.00	2115.50	2113.00	2105.50	2099.50	2088.00	2096.50	2103.00	2108.00	2113.50	2107.50	2092.00	2081.00	2064.50	2044.00	2017.00	1999.00	1980.50	1953.00	1914.50	1876.00	1851.00	1811.00	1781.50	1734.00	1686.00	1654.00	1605.00
1746.50	1745.50	1745.00	1744.50	1743.00	1742.00	1740.00	1739.00	1736.00	1734.50	1733.00	1729.00	1727.50	1725.00	1723.00	1721.00	1719.00	1716.50	1715.00	1713.50	1712.00	1711.00	1711.00	1710.00	1709.50	1708.50	1706.00	1703.00	1701.50	1699.00	1695.00	1693.00	1691.00	1686.50	1683.00	1677.00	1673.00	1667.50	1664.00	1662.50	1661.00	1659.50	1657.00	1655.50	1653.00	1652.00	1650.50	1649.50	1646.50	1645.50	1645.00	1645.00	1646.00	1647.00	1648.00	1651.00	1653.50	1656.00	1660.50	1663.50	1668.00	1671.00	1675.50	1678.00	1683.00	1685.50	1688.50	1692.00	1694.00	1698.00	1700.00	1703.00	1704.50	1705.50	1708.50	1710.00	1717.00	1724.00	1735.50	1742.50	1755.50	1760.00	1764.00	1770.00	1773.50	1768.00	1760.50	1756.00	1752.00	1741.00	1726.50	1713.00	1704.00	1680.50	1660.00	1630.00	1600.00	1578.50	1544.00	1521.00	1486.50	1452.00	1423.50	1404.50	1385.50	1349.50	1337.00	1321.00	1311.00	1294.50	1284.50	1267.00	1258.50	1249.00	1235.00	1227.00	1210.00	1201.00	1188.50	1182.00	1176.00	1163.50	1157.00	1151.00	1148.00	1143.00	1139.50	1134.00	1131.50	1129.00	1126.00	1123.50	1125.00	1126.00	1128.00	1129.50	1130.00	1130.00	1130.50	1131.00	1134.50	1137.00	1139.50	1145.00	1146.50	1147.00	1148.00	1149.00	1149.00	1147.00	1145.00	1142.50	1138.00	1149.00	1164.00	1173.00	1186.00	1201.00	1230.50	1260.00	1280.00	1306.00	1318.00	1334.50	1351.00	1364.50	1368.00	1369.50	1370.50	1370.00	1373.00	1376.00	1383.00	1389.00	1417.00	1437.00	1457.50	1488.00	1522.50	1563.00	1590.00	1632.00	1660.00	1701.00	1740.50	1767.00	1807.00	1846.50	1873.50	1900.50	1954.00	1976.00	2004.00	2023.00	2051.50	2077.00	2094.50	2106.00	2118.00	2136.00	2142.00	2147.00	2150.00	2155.00	2155.00	2151.50	2148.00	2146.00	2140.00	2132.00	2120.50	2109.00	2096.00	2084.50	2073.00	2055.00	2041.50	2050.00	2061.00	2078.00	2090.00	2093.00	2087.50	2083.00	2078.00	2077.00	2089.00	2096.00	2109.00	2115.50	2113.00	2105.50	2099.50	2088.00	2096.50	2103.00	2108.00	2113.50	2107.50	2092.00	2081.00	2064.50	2044.00	2017.00	1999.00	1980.50	1953.00	1914.50	1876.00	1851.00	1811.00	1781.50	1734.00	1686.00	1654.00	1605.00
1746.50	1745.50	1745.00	1744.50	1743.00	1742.00	1740.00	1739.00	1736.00	1734.50	1733.00	1729.00	1727.50	1725.00	1723.00	1721.00	1719.00	1716.50	1715.00	1713.50	1712.00	1711.00	1711.00	1710.00	1709.50	1708.50	1706.00	1703.00	1701.50	1699.00	1695.00	1693.00	1691.00	1686.50	1683.00	1677.00	1673.00	1667.50	1664.00	1662.50	1661.00	1659.50	1657.00	1655.50	1653.00	1652.00	1650.50	1649.50	1646.50	1645.50	1645.00	1645.00	1646.00	1647.00	1648.00	1651.00	1653.50	1656.00	1660.50	1663.50	1668.00	1671.00	1675.50	1678.00	1683.00	1685.50	1688.50	1692.00	1694.00	1698.00	1700.00	1703.00	1704.50	1705.50	1708.50	1710.00	1717.00	1724.00	1735.50	1742.50	1755.50	1760.00	1764.00	1770.00	1773.50	1768.00	1760.50	1756.00	1752.00	1741.00	1726.50	1713.00	1704.00	1680.50	1660.00	1630.00	1600.00	1578.50	1544.00	1521.00	1486.50	1452.00	1423.50	1404.50	1385.50	1349.50	1337.00	1321.00	1311.00	1294.50	1284.50	1267.00	1258.50	1249.00	1235.00	1227.00	1210.00	1201.00	1188.50	1182.00	1176.00	1163.50	1157.00	1151.00	1148.00	1143.00	1139.50	1134.00	1131.50	1129.00	1126.00	1123.50	1125.00	1126.00	1128.00	1129.50	1130.00	1130.00	1130.50	1131.00	1134.50	1137.00	1139.50	1145.00	1146.50	1147.00	1148.00	1149.00	1149.00	1147.00	1145.00	1142.50	1138.00	1149.00	1164.00	1173.00	1186.00	1201.00	1230.50	1260.00	1280.00	1306.00	1318.00	1334.50	1351.00	1364.50	1368.00	1369.50	1370.50	1370.00	1373.00	1376.00	1383.00	1389.00	1417.00	1437.00	1457.50	1488.00	1522.50	1563.00	1590.00	1632.00	1660.00	1701.00	1740.50	1767.00	1807.00	1846.50	1873.50	1900.50	1954.00	1976.00	2004.00	2023.00	2051.50	2077.00	2094.50	2106.00	2118.00	2136.00	2142.00	2147.00	2150.00	2155.00	2155.00	2151.50	2148.00	2146.00	2140.00	2132.00	2120.50	2109.00	2096.00	2084.50	2073.00	2055.00	2041.50	2050.00	2061.00	2078.00	2090.00	2093.00	2087.50	2083.00	2078.00	2077.00	2089.00	2096.00	2109.00	2115.50	2113.00	2105.50	2099.50	2088.00	2096.50	2103.00	2108.00	2113.50	2107.50	2092.00	2081.00	2064.50	2044.00	2017.00	1999.00	1980.50	1953.00	1914.50	1876.00	1851.00	1811.00	1781.50	1734.00	1686.00	1654.00	1605.00
1748.25	1747.00	1746.50	1746.00	1744.50	1743.50	1741.00	1740.00	1737.25	1735.75	1734.00	1730.25	1728.75	1726.00	1724.50	1722.25	1720.50	1718.50	1717.25	1716.00	1714.50	1713.25	1712.50	1711.50	1710.50	1709.00	1705.50	1701.25	1699.00	1695.50	1691.00	1688.25	1685.50	1679.25	1674.25	1666.50	1661.00	1653.00	1648.50	1645.75	1643.75	1641.75	1639.00	1637.50	1636.00	1635.00	1633.75	1633.00	1630.50	1629.50	1629.00	1629.50	1630.50	1631.50	1632.50	1636.00	1639.00	1641.75	1647.00	1650.25	1655.50	1659.00	1663.75	1667.00	1672.75	1675.75	1679.00	1683.00	1686.00	1691.50	1694.50	1698.50	1701.00	1703.00	1707.25	1709.25	1716.50	1724.00	1735.75	1743.25	1755.25	1757.25	1758.75	1761.00	1762.25	1759.50	1756.25	1754.00	1752.00	1744.00	1731.00	1718.50	1710.00	1690.50	1671.75	1644.00	1616.50	1596.75	1562.50	1539.50	1504.25	1469.50	1441.25	1423.00	1404.75	1369.75	1356.75	1341.00	1330.50	1314.75	1304.25	1284.00	1273.75	1262.75	1246.50	1237.50	1219.00	1209.50	1195.50	1188.25	1181.75	1168.50	1161.75	1154.00	1150.00	1143.50	1139.00	1131.25	1128.25	1125.00	1120.50	1116.75	1116.50	1116.00	1116.25	1116.50	1117.00	1118.00	1119.25	1121.00	1124.00	1126.00	1128.00	1131.75	1133.00	1134.00	1135.00	1136.25	1137.00	1129.00	1123.25	1117.25	1108.00	1111.00	1120.00	1125.50	1133.00	1144.25	1171.25	1199.25	1217.75	1243.50	1254.50	1270.50	1286.50	1299.00	1299.75	1296.75	1290.00	1286.25	1291.50	1300.00	1314.00	1323.75	1354.25	1375.50	1397.00	1429.00	1464.00	1506.00	1535.00	1578.50	1607.75	1649.50	1689.25	1715.75	1756.00	1797.00	1825.00	1853.00	1908.75	1933.00	1963.50	1983.50	2013.75	2042.50	2061.25	2074.00	2087.00	2107.00	2117.25	2125.00	2130.00	2138.00	2140.50	2139.75	2138.75	2138.25	2136.00	2129.50	2121.00	2112.50	2103.25	2094.50	2085.50	2072.00	2061.00	2070.00	2082.00	2100.25	2112.50	2121.25	2124.25	2125.00	2127.50	2130.50	2141.50	2147.50	2157.00	2162.25	2162.00	2158.50	2156.00	2151.00	2149.25	2144.25	2138.00	2122.50	2111.75	2096.00	2085.00	2068.25	2048.50	2017.00	1995.75	1974.25	1942.50	1903.25	1863.00	1836.50	1795.75	1765.75	1716.75	1667.75	1635.00	1585.50
1750.00	1748.50	1748.00	1747.50	1746.00	1745.00	1742.00	1741.00	1738.50	1737.00	1735.00	1731.50	1730.00	1727.00	1726.00	1723.50	1722.00	1720.50	1719.50	1718.50	1717.00	1715.50	1714.00	1713.00	1711.50	1709.50	1705.00	1699.50	1696.50	1692.00	1687.00	1683.50	1680.00	1672.00	1665.50	1656.00	1649.00	1638.50	1633.00	1629.00	1626.50	1624.00	1621.00	1619.50	1619.00	1618.00	1617.00	1616.50	1614.50	1613.50	1613.00	1614.00	1615.00	1616.00	1617.00	1621.00	1624.50	1627.50	1633.50	1637.00	1643.00	1647.00	1652.00	1656.00	1662.50	1666.00	1669.50	1674.00	1678.00	1685.00	1689.00	1694.00	1697.50	1700.50	1706.00	1708.50	1716.00	1724.00	1736.00	1744.00	1755.00	1754.50	1753.50	1752.00	1751.00	1751.00	1752.00	1752.00	1752.00	1747.00	1735.50	1724.00	1716.00	1700.50	1683.50	1658.00	1633.00	1615.00	1581.00	1558.00	1522.00	1487.00	1459.00	1441.50	1424.00	1390.00	1376.50	1361.00	1350.00	1335.00	1324.00	1301.00	1289.00	1276.50	1258.00	1248.00	1228.00	1218.00	1202.50	1194.50	1187.50	1173.50	1166.50	1157.00	1152.00	1144.00	1138.50	1128.50	1125.00	1121.00	1115.00	1110.00	1108.00	1106.00	1104.50	1103.50	1104.00	1106.00	1108.00	1111.00	1113.50	1115.00	1116.50	1118.50	1119.50	1121.00	1122.00	1123.50	1125.00	1111.00	1101.50	1092.00	1078.00	1073.00	1076.00	1078.00	1080.00	1087.50	1112.00	1138.50	1155.50	1181.00	1191.00	1206.50	1222.00	1233.50	1231.50	1224.00	1209.50	1202.50	1210.00	1224.00	1245.00	1258.50	1291.50	1314.00	1336.50	1370.00	1405.50	1449.00	1480.00	1525.00	1555.50	1598.00	1638.00	1664.50	1705.00	1747.50	1776.50	1805.50	1863.50	1890.00	1923.00	1944.00	1976.00	2008.00	2028.00	2042.00	2056.00	2078.00	2092.50	2103.00	2110.00	2121.00	2126.00	2128.00	2129.50	2130.50	2132.00	2127.00	2121.50	2116.00	2110.50	2104.50	2098.00	2089.00	2080.50	2090.00	2103.00	2122.50	2135.00	2149.50	2161.00	2167.00	2177.00	2184.00	2194.00	2199.00	2205.00	2209.00	2211.00	2211.50	2212.50	2214.00	2202.00	2185.50	2168.00	2131.50	2116.00	2100.00	2089.00	2072.00	2053.00	2017.00	1992.50	1968.00	1932.00	1892.00	1850.00	1822.00	1780.50	1750.00	1699.50	1649.50	1616.00	1566.00
1750.00	1748.50	1748.00	1747.50	1746.00	1745.00	1742.00	1741.00	1738.50	1737.00	1735.00	1731.50	1730.00	1727.00	1726.00	1723.50	1722.00	1720.50	1719.50	1718.50	1717.00	1715.50	1714.00	1713.00	1711.50	1709.50	1705.00	1699.50	1696.50	1692.00	1687.00	1683.50	1680.00	1672.00	1665.50	1656.00	1649.00	1638.50	1633.00	1629.00	1626.50	1624.00	1621.00	1619.50	1619.00	1618.00	1617.00	1616.50	1614.50	1613.50	1613.00	1614.00	1615.00	1616.00	1617.00	1621.00	1624.50	1627.50	1633.50	1637.00	1643.00	1647.00	1652.00	1656.00	1662.50	1666.00	1669.50	1674.00	1678.00	1685.00	1689.00	1694.00	1697.50	1700.50	1706.00	1708.50	1716.00	1724.00	1736.00	1744.00	1755.00	1754.50	1753.50	1752.00	1751.00	1751.00	1752.00	1752.00	1752.00	1747.00	1735.50	1724.00	1716.00	1700.50	1683.50	1658.00	1633.00	1615.00	1581.00	1558.00	1522.00	1487.00	1459.00	1441.50	1424.00	1390.00	1376.50	1361.00	1350.00	1335.00	1324.00	1301.00	1289.00	1276.50	1258.00	1248.00	1228.00	1218.00	1202.50	1194.50	1187.50	1173.50	1166.50	1157.00	1152.00	1144.00	1138.50	1128.50	1125.00	1121.00	1115.00	1110.00	1108.00	1106.00	1104.50	1103.50	1104.00	1106.00	1108.00	1111.00	1113.50	1115.00	1116.50	1118.50	1119.50	1121.00	1122.00	1123.50	1125.00	1111.00	1101.50	1092.00	1078.00	1073.00	1076.00	1078.00	1080.00	1087.50	1112.00	1138.50	1155.50	1181.00	1191.00	1206.50	1222.00	1233.50	1231.50	1224.00	1209.50	1202.50	1210.00	1224.00	1245.00	1258.50	1291.50	1314.00	1336.50	1370.00	1405.50	1449.00	1480.00	1525.00	1555.50	1598.00	1638.00	1664.50	1705.00	1747.50	1776.50	1805.50	1863.50	1890.00	1923.00	1944.00	1976.00	2008.00	2028.00	2042.00	2056.00	2078.00	2092.50	2103.00	2110.00	2121.00	2126.00	2128.00	2129.50	2130.50	2132.00	2127.00	2121.50	2116.00	2110.50	2104.50	2098.00	2089.00	2080.50	2090.00	2103.00	2122.50	2135.00	2149.50	2161.00	2167.00	2177.00	2184.00	2194.00	2199.00	2205.00	2209.00	2211.00	2211.50	2212.50	2214.00	2202.00	2185.50	2168.00	2131.50	2116.00	2100.00	2089.00	2072.00	2053.00	2017.00	1992.50	1968.00	1932.00	1892.00	1850.00	1822.00	1780.50	1750.00	1699.50	1649.50	1616.00	1566.00
1750.00	1748.50	1748.00	1747.50	1746.00	1745.00	1742.00	1741.00	1738.50	1737.00	1735.00	1731.50	1730.00	1727.00	1726.00	1723.50	1722.00	1720.50	1719.50	1718.50	1717.00	1715.50	1714.00	1713.00	1711.50	1709.50	1705.00	1699.50	1696.50	1692.00	1687.00	1683.50	1680.00	1672.00	1665.50	1656.00	1649.00	1638.50	1633.00	1629.00	1626.50	1624.00	1621.00	1619.50	1619.00	1618.00	1617.00	1616.50	1614.50	1613.50	1613.00	1614.00	1615.00	1616.00	1617.00	1621.00	1624.50	1627.50	1633.50	1637.00	1643.00	1647.00	1652.00	1656.00	1662.50	1666.00	1669.50	1674.00	1678.00	1685.00	1689.00	1694.00	1697.50	1700.50	1706.00	1708.50	1716.00	1724.00	1736.00	1744.00	1755.00	1754.50	1753.50	1752.00	1751.00	1751.00	1752.00	1752.00	1752.00	1747.00	1735.50	1724.00	1716.00	1700.50	1683.50	1658.00	1633.00	1615.00	1581.00	1558.00	1522.00	1487.00	1459.00	1441.50	1424.00	1390.00	1376.50	1361.00	1350.00	1335.00	1324.00	1301.00	1289.00	1276.50	1258.00	1248.00	1228.00	1218.00	1202.50	1194.50	1187.50	1173.50	1166.50	1157.00	1152.00	1144.00	1138.50	1128.50	1125.00	1121.00	1115.00	1110.00	1108.00	1106.00	1104.50	1103.50	1104.00	1106.00	1108.00	1111.00	1113.50	1115.00	1116.50	1118.50	1119.50	1121.00	1122.00	1123.50	1125.00	1111.00	1101.50	1092.00	1078.00	1073.00	1076.00	1078.00	1080.00	1087.50	1112.00	1138.50	1155.50	1181.00	1191.00	1206.50	1222.00	1233.50	1231.50	1224.00	1209.50	1202.50	1210.00	1224.00	1245.00	1258.50	1291.50	1314.00	1336.50	1370.00	1405.50	1449.00	1480.00	1525.00	1555.50	1598.00	1638.00	1664.50	1705.00	1747.50	1776.50	1805.50	1863.50	1890.00	1923.00	1944.00	1976.00	2008.00	2028.00	2042.00	2056.00	2078.00	2092.50	2103.00	2110.00	2121.00	2126.00	2128.00	2129.50	2130.50	2132.00	2127.00	2121.50	2116.00	2110.50	2104.50	2098.00	2089.00	2080.50	2090.00	2103.00	2122.50	2135.00	2149.50	2161.00	2167.00	2177.00	2184.00	2194.00	2199.00	2205.00	2209.00	2211.00	2211.50	2212.50	2214.00	2202.00	2185.50	2168.00	2131.50	2116.00	2100.00	2089.00	2072.00	2053.00	2017.00	1992.50	1968.00	1932.00	1892.00	1850.00	1822.00	1780.50	1750.00	1699.50	1649.50	1616.00	1566.00
1749.75	1748.50	1748.00	1747.50	1746.00	1745.00	1742.00	1740.50	1738.50	1737.00	1735.25	1732.00	1730.75	1728.00	1727.00	1725.00	1723.75	1722.25	1721.50	1720.75	1719.50	1718.00	1716.50	1715.50	1714.00	1712.00	1707.50	1702.50	1699.50	1694.50	1687.50	1682.75	1678.00	1667.75	1661.00	1651.00	1643.50	1632.75	1626.00	1621.00	1617.75	1614.50	1610.00	1608.25	1607.00	1605.50	1603.75	1603.00	1601.25	1600.50	1599.75	1600.50	1601.50	1603.00	1604.00	1607.25	1610.50	1613.50	1619.50	1623.00	1629.00	1633.00	1638.50	1642.50	1649.75	1653.25	1656.75	1662.00	1666.00	1673.50	1678.00	1683.50	1687.25	1690.75	1697.00	1700.00	1706.50	1712.00	1719.75	1725.00	1733.00	1734.75	1736.25	1739.00	1742.25	1742.00	1739.50	1737.75	1736.00	1730.50	1722.25	1714.00	1708.50	1696.50	1682.25	1659.25	1636.75	1621.00	1590.00	1568.00	1534.25	1501.00	1474.00	1457.25	1440.75	1408.25	1395.00	1379.00	1368.50	1353.25	1342.50	1318.75	1306.25	1293.75	1275.00	1264.50	1245.00	1235.50	1220.75	1212.25	1204.75	1189.25	1181.50	1170.50	1163.50	1153.50	1146.50	1133.00	1128.00	1122.75	1114.50	1107.25	1102.50	1099.50	1095.75	1093.25	1091.50	1092.25	1093.00	1094.00	1094.75	1095.50	1096.25	1097.25	1097.75	1099.00	1100.50	1102.00	1103.50	1092.75	1084.25	1075.75	1063.00	1056.50	1057.00	1057.50	1057.75	1061.50	1078.00	1097.25	1109.50	1127.50	1137.00	1152.75	1168.00	1181.00	1182.00	1177.75	1169.50	1165.50	1171.50	1184.00	1202.75	1215.00	1244.75	1266.50	1289.00	1323.00	1357.75	1399.50	1429.00	1472.75	1502.00	1545.00	1587.75	1616.50	1660.00	1704.00	1732.75	1761.25	1818.75	1845.75	1881.00	1904.00	1938.00	1972.50	1997.00	2012.75	2028.25	2052.50	2071.25	2085.00	2095.00	2110.25	2118.50	2124.50	2128.75	2131.50	2135.50	2134.00	2132.00	2130.00	2128.00	2125.25	2122.00	2117.50	2113.25	2120.00	2130.50	2146.00	2156.00	2168.25	2178.00	2182.75	2190.00	2195.00	2200.00	2202.00	2204.25	2205.50	2204.50	2201.00	2199.00	2195.50	2183.50	2168.25	2152.75	2121.50	2106.50	2083.00	2065.00	2038.25	2009.50	1972.00	1946.75	1921.25	1883.00	1842.50	1800.50	1772.50	1731.00	1701.75	1653.50	1605.00	1572.75	1525.00
1749.50	1748.50	1748.00	1747.50	1746.00	1745.00	1742.00	1740.00	1738.50	1737.00	1735.50	1732.50	1731.50	1729.00	1728.00	1726.50	1725.50	1724.00	1723.50	1723.00	1722.00	1720.50	1719.00	1718.00	1716.50	1714.50	1710.00	1705.50	1702.50	1697.00	1688.00	1682.00	1676.00	1663.50	1656.50	1646.00	1638.00	1627.00	1619.00	1613.00	1609.00	1605.00	1599.00	1597.00	1595.00	1593.00	1590.50	1589.50	1588.00	1587.50	1586.50	1587.00	1588.00	1590.00	1591.00	1593.50	1596.50	1599.50	1605.50	1609.00	1615.00	1619.00	1625.00	1629.00	1637.00	1640.50	1644.00	1650.00	1654.00	1662.00	1667.00	1673.00	1677.00	1681.00	1688.00	1691.50	1697.00	1700.00	1703.50	1706.00	1711.00	1715.00	1719.00	1726.00	1733.50	1733.00	1727.00	1723.50	1720.00	1714.00	1709.00	1704.00	1701.00	1692.50	1681.00	1660.50	1640.50	1627.00	1599.00	1578.00	1546.50	1515.00	1489.00	1473.00	1457.50	1426.50	1413.50	1397.00	1387.00	1371.50	1361.00	1336.50	1323.50	1311.00	1292.00	1281.00	1262.00	1253.00	1239.00	1230.00	1222.00	1205.00	1196.50	1184.00	1175.00	1163.00	1154.50	1137.50	1131.00	1124.50	1114.00	1104.50	1097.00	1093.00	1087.00	1083.00	1079.00	1078.50	1078.00	1077.00	1076.00	1076.00	1076.00	1076.00	1076.00	1077.00	1079.00	1080.50	1082.00	1074.50	1067.00	1059.50	1048.00	1040.00	1038.00	1037.00	1035.50	1035.50	1044.00	1056.00	1063.50	1074.00	1083.00	1099.00	1114.00	1128.50	1132.50	1131.50	1129.50	1128.50	1133.00	1144.00	1160.50	1171.50	1198.00	1219.00	1241.50	1276.00	1310.00	1350.00	1378.00	1420.50	1448.50	1492.00	1537.50	1568.50	1615.00	1660.50	1689.00	1717.00	1774.00	1801.50	1839.00	1864.00	1900.00	1937.00	1966.00	1983.50	2000.50	2027.00	2050.00	2067.00	2080.00	2099.50	2111.00	2121.00	2128.00	2132.50	2139.00	2141.00	2142.50	2144.00	2145.50	2146.00	2146.00	2146.00	2146.00	2150.00	2158.00	2169.50	2177.00	2187.00	2195.00	2198.50	2203.00	2206.00	2206.00	2205.00	2203.50	2202.00	2198.00	2190.50	2185.50	2177.00	2165.00	2151.00	2137.50	2111.50	2097.00	2066.00	2041.00	2004.50	1966.00	1927.00	1901.00	1874.50	1834.00	1793.00	1751.00	1723.00	1681.50	1653.50	1607.50	1560.50	1529.50	1484.00
1749.50	1748.50	1748.00	1747.50	1746.00	1745.00	1742.00	1740.00	1738.50	1737.00	1735.50	1732.50	1731.50	1729.00	1728.00	1726.50	1725.50	1724.00	1723.50	1723.00	1722.00	1720.50	1719.00	1718.00	1716.50	1714.50	1710.00	1705.50	1702.50	1697.00	1688.00	1682.00	1676.00	1663.50	1656.50	1646.00	1638.00	1627.00	1619.00	1613.00	1609.00	1605.00	1599.00	1597.00	1595.00	1593.00	1590.50	1589.50	1588.00	1587.50	1586.50	1587.00	1588.00	1590.00	1591.00	1593.50	1596.50	1599.50	1605.50	1609.00	1615.00	1619.00	1625.00	1629.00	1637.00	1640.50	1644.00	1650.00	1654.00	1662.00	1667.00	1673.00	1677.00	1681.00	1688.00	1691.50	1697.00	1700.00	1703.50	1706.00	1711.00	1715.00	1719.00	1726.00	1733.50	1733.00	1727.00	1723.50	1720.00	1714.00	1709.00	1704.00	1701.00	1692.50	1681.00	1660.50	1640.50	1627.00	1599.00	1578.00	1546.50	1515.00	1489.00	1473.00	1457.50	1426.50	1413.50	1397.00	1387.00	1371.50	1361.00	1336.50	1323.50	1311.00	1292.00	1281.00	1262.00	1253.00	1239.00	1230.00	1222.00	1205.00	1196.50	1184.00	1175.00	1163.00	1154.50	1137.50	1131.00	1124.50	1114.00	1104.50	1097.00	1093.00	1087.00	1083.00	1079.00	1078.50	1078.00	1077.00	1076.00	1076.00	1076.00	1076.00	1076.00	1077.00	1079.00	1080.50	1082.00	1074.50	1067.00	1059.50	1048.00	1040.00	1038.00	1037.00	1035.50	1035.50	1044.00	1056.00	1063.50	1074.00	1083.00	1099.00	1114.00	1128.50	1132.50	1131.50	1129.50	1128.50	1133.00	1144.00	1160.50	1171.50	1198.00	1219.00	1241.50	1276.00	1310.00	1350.00	1378.00	1420.50	1448.50	1492.00	1537.50	1568.50	1615.00	1660.50	1689.00	1717.00	1774.00	1801.50	1839.00	1864.00	1900.00	1937.00	1966.00	1983.50	2000.50	2027.00	2050.00	2067.00	2080.00	2099.50	2111.00	2121.00	2128.00	2132.50	2139.00	2141.00	2142.50	2144.00	2145.50	2146.00	2146.00	2146.00	2146.00	2150.00	2158.00	2169.50	2177.00	2187.00	2195.00	2198.50	2203.00	2206.00	2206.00	2205.00	2203.50	2202.00	2198.00	2190.50	2185.50	2177.00	2165.00	2151.00	2137.50	2111.50	2097.00	2066.00	2041.00	2004.50	1966.00	1927.00	1901.00	1874.50	1834.00	1793.00	1751.00	1723.00	1681.50	1653.50	1607.50	1560.50	1529.50	1484.00
1749.50	1748.50	1748.00	1747.50	1746.00	1745.00	1742.00	1740.00	1738.50	1737.00	1735.50	1732.50	1731.50	1729.00	1728.00	1726.50	1725.50	1724.00	1723.50	1723.00	1722.00	1720.50	1719.00	1718.00	1716.50	1714.50	1710.00	1705.50	1702.50	1697.00	1688.00	1682.00	1676.00	1663.50	1656.50	1646.00	1638.00	1627.00	1619.00	1613.00	1609.00	1605.00	1599.00	1597.00	1595.00	1593.00	1590.50	1589.50	1588.00	1587.50	1586.50	1587.00	1588.00	1590.00	1591.00	1593.50	1596.50	1599.50	1605.50	1609.00	1615.00	1619.00	1625.00	1629.00	1637.00	1640.50	1644.00	1650.00	1654.00	1662.00	1667.00	1673.00	1677.00	1681.00	1688.00	1691.50	1697.00	1700.00	1703.50	1706.00	1711.00	1715.00	1719.00	1726.00	1733.50	1733.00	1727.00	1723.50	1720.00	1714.00	1709.00	1704.00	1701.00	1692.50	1681.00	1660.50	1640.50	1627.00	1599.00	1578.00	1546.50	1515.00	1489.00	1473.00	1457.50	1426.50	1413.50	1397.00	1387.00	1371.50	1361.00	1336.50	1323.50	1311.00	1292.00	1281.00	1262.00	1253.00	1239.00	1230.00	1222.00	1205.00	1196.50	1184.00	1175.00	1163.00	1154.50	1137.50	1131.00	1124.50	1114.00	1104.50	1097.00	1093.00	1087.00	1083.00	1079.00	1078.50	1078.00	1077.00	1076.00	1076.00	1076.00	1076.00	1076.00	1077.00	1079.00	1080.50	1082.00	1074.50	1067.00	1059.50	1048.00	1040.00	1038.00	1037.00	1035.50	1035.50	1044.00	1056.00	1063.50	1074.00	1083.00	1099.00	1114.00	1128.50	1132.50	1131.50	1129.50	1128.50	1133.00	1144.00	1160.50	1171.50	1198.00	1219.00	1241.50	1276.00	1310.00	1350.00	1378.00	1420.50	1448.50	1492.00	1537.50	1568.50	1615.00	1660.50	1689.00	1717.00	1774.00	1801.50	1839.00	1864.00	1900.00	1937.00	1966.00	1983.50	2000.50	2027.00	2050.00	2067.00	2080.00	2099.50	2111.00	2121.00	2128.00	2132.50	2139.00	2141.00	2142.50	2144.00	2145.50	2146.00	2146.00	2146.00	2146.00	2150.00	2158.00	2169.50	2177.00	2187.00	2195.00	2198.50	2203.00	2206.00	2206.00	2205.00	2203.50	2202.00	2198.00	2190.50	2185.50	2177.00	2165.00	2151.00	2137.50	2111.50	2097.00	2066.00	2041.00	2004.50	1966.00	1927.00	1901.00	1874.50	1834.00	1793.00	1751.00	1723.00	1681.50	1653.50	1607.50	1560.50	1529.50	1484.00
1747.75	1746.75	1746.25	1745.75	1744.50	1743.50	1741.00	1739.50	1737.75	1736.00	1734.50	1731.50	1730.25	1728.50	1727.50	1726.25	1725.50	1724.50	1724.25	1724.00	1723.50	1722.50	1720.50	1719.50	1717.75	1716.00	1712.00	1707.75	1705.00	1700.50	1692.75	1687.50	1682.25	1671.50	1664.50	1652.50	1644.50	1632.25	1622.00	1615.00	1610.00	1605.00	1597.50	1593.25	1589.50	1586.50	1582.25	1580.50	1578.50	1577.50	1576.50	1576.00	1577.00	1578.50	1579.50	1581.25	1583.75	1586.25	1591.25	1594.25	1599.50	1603.50	1609.00	1612.75	1620.25	1623.75	1627.25	1633.00	1637.00	1645.00	1649.50	1656.00	1660.00	1663.75	1671.00	1674.50	1680.00	1682.50	1686.00	1688.50	1693.00	1695.50	1697.75	1701.50	1705.50	1704.50	1698.75	1695.50	1692.25	1687.00	1684.50	1682.50	1681.50	1677.00	1667.75	1649.25	1631.00	1618.75	1595.50	1577.50	1551.25	1525.00	1501.75	1487.25	1473.25	1445.25	1432.75	1416.00	1405.50	1389.00	1378.00	1354.00	1341.75	1329.50	1311.00	1300.00	1281.50	1272.50	1259.25	1250.25	1241.75	1224.25	1215.75	1203.00	1193.00	1179.25	1169.75	1150.75	1142.75	1135.00	1123.00	1111.25	1101.00	1095.00	1086.00	1080.00	1071.50	1069.50	1067.75	1065.00	1062.25	1061.25	1060.75	1059.50	1058.75	1059.00	1060.50	1062.00	1063.50	1058.50	1052.25	1046.00	1036.50	1029.00	1026.00	1024.00	1021.00	1019.75	1023.50	1029.50	1033.25	1039.00	1044.50	1057.75	1070.50	1083.00	1088.00	1089.75	1092.75	1094.25	1099.50	1109.50	1124.50	1134.50	1158.00	1178.00	1201.50	1237.50	1273.25	1312.50	1339.50	1379.75	1406.75	1448.00	1492.50	1522.50	1567.50	1611.50	1640.50	1669.75	1728.75	1757.75	1798.00	1824.00	1862.25	1901.50	1932.75	1949.75	1966.25	1991.50	2016.75	2043.50	2063.50	2093.50	2112.75	2127.50	2135.25	2140.00	2147.00	2150.00	2153.00	2156.00	2158.75	2159.75	2159.75	2159.00	2158.75	2160.00	2165.50	2172.75	2177.50	2183.50	2187.00	2186.75	2186.50	2186.00	2181.00	2177.00	2170.75	2166.25	2158.50	2144.25	2134.50	2119.00	2101.25	2084.75	2067.50	2033.25	2015.00	1983.50	1960.50	1926.75	1892.50	1855.00	1827.75	1800.25	1758.50	1716.75	1675.50	1648.50	1608.00	1580.75	1538.00	1494.50	1465.75	1424.00
1746.00	1745.00	1744.50	1744.00	1743.00	1742.00	1740.00	1739.00	1737.00	1735.00	1733.50	1730.50	1729.00	1728.00	1727.00	1726.00	1725.50	1725.00	1725.00	1725.00	1725.00	1724.50	1722.00	1721.00	1719.00	1717.50	1714.00	1710.00	1707.50	1704.00	1697.50	1693.00	1688.50	1679.50	1672.50	1659.00	1651.00	1637.50	1625.00	1617.00	1611.00	1605.00	1596.00	1589.50	1584.00	1580.00	1574.00	1571.50	1569.00	1567.50	1566.50	1565.00	1566.00	1567.00	1568.00	1569.00	1571.00	1573.00	1577.00	1579.50	1584.00	1588.00	1593.00	1596.50	1603.50	1607.00	1610.50	1616.00	1620.00	1628.00	1632.00	1639.00	1643.00	1646.50	1654.00	1657.50	1663.00	1665.00	1668.50	1671.00	1675.00	1676.00	1676.50	1677.00	1677.50	1676.00	1670.50	1667.50	1664.50	1660.00	1660.00	1661.00	1662.00	1661.50	1654.50	1638.00	1621.50	1610.50	1592.00	1577.00	1556.00	1535.00	1514.50	1501.50	1489.00	1464.00	1452.00	1435.00	1424.00	1406.50	1395.00	1371.50	1360.00	1348.00	1330.00	1319.00	1301.00	1292.00	1279.50	1270.50	1261.50	1243.50	1235.00	1222.00	1211.00	1195.50	1185.00	1164.00	1154.50	1145.50	1132.00	1118.00	1105.00	1097.00	1085.00	1077.00	1064.00	1060.50	1057.50	1053.00	1048.50	1046.50	1045.50	1043.00	1041.50	1041.00	1042.00	1043.50	1045.00	1042.50	1037.50	1032.50	1025.00	1018.00	1014.00	1011.00	1006.50	1004.00	1003.00	1003.00	1003.00	1004.00	1006.00	1016.50	1027.00	1037.50	1043.50	1048.00	1056.00	1060.00	1066.00	1075.00	1088.50	1097.50	1118.00	1137.00	1161.50	1199.00	1236.50	1275.00	1301.00	1339.00	1365.00	1404.00	1447.50	1476.50	1520.00	1562.50	1592.00	1622.50	1683.50	1714.00	1757.00	1784.00	1824.50	1866.00	1899.50	1916.00	1932.00	1956.00	1983.50	2020.00	2047.00	2087.50	2114.50	2134.00	2142.50	2147.50	2155.00	2159.00	2163.50	2168.00	2172.00	2173.50	2173.50	2172.00	2171.50	2170.00	2173.00	2176.00	2178.00	2180.00	2179.00	2175.00	2170.00	2166.00	2156.00	2149.00	2138.00	2130.50	2119.00	2098.00	2083.50	2061.00	2037.50	2018.50	1997.50	1955.00	1933.00	1901.00	1880.00	1849.00	1819.00	1783.00	1754.50	1726.00	1683.00	1640.50	1600.00	1574.00	1534.50	1508.00	1468.50	1428.50	1402.00	1364.00
1746.00	1745.00	1744.50	1744.00	1743.00	1742.00	1740.00	1739.00	1737.00	1735.00	1733.50	1730.50	1729.00	1728.00	1727.00	1726.00	1725.50	1725.00	1725.00	1725.00	1725.00	1724.50	1722.00	1721.00	1719.00	1717.50	1714.00	1710.00	1707.50	1704.00	1697.50	1693.00	1688.50	1679.50	1672.50	1659.00	1651.00	1637.50	1625.00	1617.00	1611.00	1605.00	1596.00	1589.50	1584.00	1580.00	1574.00	1571.50	1569.00	1567.50	1566.50	1565.00	1566.00	1567.00	1568.00	1569.00	1571.00	1573.00	1577.00	1579.50	1584.00	1588.00	1593.00	1596.50	1603.50	1607.00	1610.50	1616.00	1620.00	1628.00	1632.00	1639.00	1643.00	1646.50	1654.00	1657.50	1663.00	1665.00	1668.50	1671.00	1675.00	1676.00	1676.50	1677.00	1677.50	1676.00	1670.50	1667.50	1664.50	1660.00	1660.00	1661.00	1662.00	1661.50	1654.50	1638.00	1621.50	1610.50	1592.00	1577.00	1556.00	1535.00	1514.50	1501.50	1489.00	1464.00	1452.00	1435.00	1424.00	1406.50	1395.00	1371.50	1360.00	1348.00	1330.00	1319.00	1301.00	1292.00	1279.50	1270.50	1261.50	1243.50	1235.00	1222.00	1211.00	1195.50	1185.00	1164.00	1154.50	1145.50	1132.00	1118.00	1105.00	1097.00	1085.00	1077.00	1064.00	1060.50	1057.50	1053.00	1048.50	1046.50	1045.50	1043.00	1041.50	1041.00	1042.00	1043.50	1045.00	1042.50	1037.50	1032.50	1025.00	1018.00	1014.00	1011.00	1006.50	1004.00	1003.00	1003.00	1003.00	1004.00	1006.00	1016.50	1027.00	1037.50	1043.50	1048.00	1056.00	1060.00	1066.00	1075.00	1088.50	1097.50	1118.00	1137.00	1161.50	1199.00	1236.50	1275.00	1301.00	1339.00	1365.00	1404.00	1447.50	1476.50	1520.00	1562.50	1592.00	1622.50	1683.50	1714.00	1757.00	1784.00	1824.50	1866.00	1899.50	1916.00	1932.00	1956.00	1983.50	2020.00	2047.00	2087.50	2114.50	2134.00	2142.50	2147.50	2155.00	2159.00	2163.50	2168.00	2172.00	2173.50	2173.50	2172.00	2171.50	2170.00	2173.00	2176.00	2178.00	2180.00	2179.00	2175.00	2170.00	2166.00	2156.00	2149.00	2138.00	2130.50	2119.00	2098.00	2083.50	2061.00	2037.50	2018.50	1997.50	1955.00	1933.00	1901.00	1880.00	1849.00	1819.00	1783.00	1754.50	1726.00	1683.00	1640.50	1600.00	1574.00	1534.50	1508.00	1468.50	1428.50	1402.00	1364.00
1746.00	1745.00	1744.50	1744.00	1743.00	1742.00	1740.00	1739.00	1737.00	1735.00	1733.50	1730.50	1729.00	1728.00	1727.00	1726.00	1725.50	1725.00	1725.00	1725.00	1725.00	1724.50	1722.00	1721.00	1719.00	1717.50	1714.00	1710.00	1707.50	1704.00	1697.50	1693.00	1688.50	1679.50	1672.50	1659.00	1651.00	1637.50	1625.00	1617.00	1611.00	1605.00	1596.00	1589.50	1584.00	1580.00	1574.00	1571.50	1569.00	1567.50	1566.50	1565.00	1566.00	1567.00	1568.00	1569.00	1571.00	1573.00	1577.00	1579.50	1584.00	1588.00	1593.00	1596.50	1603.50	1607.00	1610.50	1616.00	1620.00	1628.00	1632.00	1639.00	1643.00	1646.50	1654.00	1657.50	1663.00	1665.00	1668.50	1671.00	1675.00	1676.00	1676.50	1677.00	1677.50	1676.00	1670.50	1667.50	1664.50	1660.00	1660.00	1661.00	1662.00	1661.50	1654.50	1638.00	1621.50	1610.50	1592.00	1577.00	1556.00	1535.00	1514.50	1501.50	1489.00	1464.00	1452.00	1435.00	1424.00	1406.50	1395.00	1371.50	1360.00	1348.00	1330.00	1319.00	1301.00	1292.00	1279.50	1270.50	1261.50	1243.50	1235.00	1222.00	1211.00	1195.50	1185.00	1164.00	1154.50	1145.50	1132.00	1118.00	1105.00	1097.00	1085.00	1077.00	1064.00	1060.50	1057.50	1053.00	1048.50	1046.50	1045.50	1043.00	1041.50	1041.00	1042.00	1043.50	1045.00	1042.50	1037.50	1032.50	1025.00	1018.00	1014.00	1011.00	1006.50	1004.00	1003.00	1003.00	1003.00	1004.00	1006.00	1016.50	1027.00	1037.50	1043.50	1048.00	1056.00	1060.00	1066.00	1075.00	1088.50	1097.50	1118.00	1137.00	1161.50	1199.00	1236.50	1275.00	1301.00	1339.00	1365.00	1404.00	1447.50	1476.50	1520.00	1562.50	1592.00	1622.50	1683.50	1714.00	1757.00	1784.00	1824.50	1866.00	1899.50	1916.00	1932.00	1956.00	1983.50	2020.00	2047.00	2087.50	2114.50	2134.00	2142.50	2147.50	2155.00	2159.00	2163.50	2168.00	2172.00	2173.50	2173.50	2172.00	2171.50	2170.00	2173.00	2176.00	2178.00	2180.00	2179.00	2175.00	2170.00	2166.00	2156.00	2149.00	2138.00	2130.50	2119.00	2098.00	2083.50	2061.00	2037.50	2018.50	1997.50	1955.00	1933.00	1901.00	1880.00	1849.00	1819.00	1783.00	1754.50	1726.00	1683.00	1640.50	1600.00	1574.00	1534.50	1508.00	1468.50	1428.50	1402.00	1364.00
1743.25	1742.25	1741.50	1740.75	1739.50	1738.50	1737.00	1736.00	1734.25	1732.75	1731.50	1729.00	1727.75	1726.50	1725.50	1724.75	1724.25	1723.75	1724.00	1724.00	1724.50	1724.25	1722.50	1722.00	1720.25	1719.25	1716.50	1713.00	1710.50	1707.00	1701.25	1696.75	1692.25	1683.50	1677.00	1664.00	1655.50	1642.50	1630.00	1620.50	1613.50	1606.50	1596.50	1588.50	1582.00	1577.50	1570.50	1567.00	1563.25	1561.25	1559.50	1557.00	1557.50	1557.50	1557.50	1558.00	1559.25	1560.75	1563.25	1564.75	1568.00	1571.00	1575.00	1577.75	1584.00	1587.25	1590.50	1596.00	1599.50	1607.00	1611.00	1617.50	1621.50	1625.00	1631.75	1635.25	1640.50	1642.50	1646.25	1648.50	1652.50	1653.50	1653.25	1652.50	1651.25	1650.00	1650.50	1651.50	1652.50	1654.00	1653.25	1651.00	1650.00	1647.00	1640.50	1625.75	1611.00	1601.25	1585.50	1573.50	1556.25	1539.00	1522.25	1511.50	1501.00	1480.50	1470.50	1454.50	1443.00	1426.00	1414.75	1392.00	1380.75	1369.25	1352.00	1341.00	1323.50	1315.00	1302.75	1294.25	1285.25	1267.00	1258.25	1244.50	1234.00	1217.25	1206.00	1183.00	1172.25	1161.50	1145.50	1128.75	1113.00	1103.50	1089.25	1079.75	1065.00	1058.25	1054.00	1048.00	1041.75	1038.50	1036.50	1032.25	1030.00	1028.00	1028.00	1028.50	1029.00	1026.75	1022.25	1017.75	1011.00	1004.00	999.50	997.00	992.50	990.00	988.75	988.75	989.25	990.00	991.50	997.75	1005.00	1011.75	1015.75	1019.50	1027.00	1031.00	1036.50	1044.50	1057.75	1066.50	1085.75	1104.00	1129.75	1169.50	1208.75	1248.00	1272.50	1308.25	1332.50	1368.50	1409.25	1436.75	1478.00	1518.75	1546.75	1575.25	1631.75	1660.00	1701.00	1729.00	1770.50	1813.00	1850.25	1870.50	1890.25	1920.00	1952.50	1995.00	2026.00	2073.50	2105.25	2131.00	2143.25	2147.75	2154.50	2159.00	2163.25	2167.50	2171.00	2172.75	2172.50	2169.50	2166.50	2163.00	2162.00	2158.75	2156.50	2152.50	2146.00	2139.25	2129.50	2122.50	2107.00	2096.00	2079.50	2068.25	2051.00	2024.50	2005.25	1975.50	1945.25	1923.00	1899.75	1853.00	1829.00	1794.00	1772.00	1739.00	1706.50	1670.25	1643.25	1616.00	1575.50	1535.00	1497.00	1473.00	1436.25	1412.00	1378.25	1345.75	1324.50	1293.50
1740.50	1739.50	1738.50	1737.50	1736.00	1735.00	1734.00	1733.00	1731.50	1730.50	1729.50	1727.50	1726.50	1725.00	1724.00	1723.50	1723.00	1722.50	1723.00	1723.00	1724.00	1724.00	1723.00	1723.00	1721.50	1721.00	1719.00	1716.00	1713.50	1710.00	1705.00	1700.50	1696.00	1687.50	1681.50	1669.00	1660.00	1647.50	1635.00	1624.00	1616.00	1608.00	1597.00	1587.50	1580.00	1575.00	1567.00	1562.50	1557.50	1555.00	1552.50	1549.00	1549.00	1548.00	1547.00	1547.00	1547.50	1548.50	1549.50	1550.00	1552.00	1554.00	1557.00	1559.00	1564.50	1567.50	1570.50	1576.00	1579.00	1586.00	1590.00	1596.00	1600.00	1603.50	1609.50	1613.00	1618.00	1620.00	1624.00	1626.00	1630.00	1631.00	1630.00	1628.00	1625.00	1624.00	1630.50	1635.50	1640.50	1648.00	1646.50	1641.00	1638.00	1632.50	1626.50	1613.50	1600.50	1592.00	1579.00	1570.00	1556.50	1543.00	1530.00	1521.50	1513.00	1497.00	1489.00	1474.00	1462.00	1445.50	1434.50	1412.50	1401.50	1390.50	1374.00	1363.00	1346.00	1338.00	1326.00	1318.00	1309.00	1290.50	1281.50	1267.00	1257.00	1239.00	1227.00	1202.00	1190.00	1177.50	1159.00	1139.50	1121.00	1110.00	1093.50	1082.50	1066.00	1056.00	1050.50	1043.00	1035.00	1030.50	1027.50	1021.50	1018.50	1015.00	1014.00	1013.50	1013.00	1011.00	1007.00	1003.00	997.00	990.00	985.00	983.00	978.50	976.00	974.50	974.50	975.50	976.00	977.00	979.00	983.00	986.00	988.00	991.00	998.00	1002.00	1007.00	1014.00	1027.00	1035.50	1053.50	1071.00	1098.00	1140.00	1181.00	1221.00	1244.00	1277.50	1300.00	1333.00	1371.00	1397.00	1436.00	1475.00	1501.50	1528.00	1580.00	1606.00	1645.00	1674.00	1716.50	1760.00	1801.00	1825.00	1848.50	1884.00	1921.50	1970.00	2005.00	2059.50	2096.00	2128.00	2144.00	2148.00	2154.00	2159.00	2163.00	2167.00	2170.00	2172.00	2171.50	2167.00	2161.50	2156.00	2151.00	2141.50	2135.00	2125.00	2113.00	2103.50	2089.00	2079.00	2058.00	2043.00	2021.00	2006.00	1983.00	1951.00	1927.00	1890.00	1853.00	1827.50	1802.00	1751.00	1725.00	1687.00	1664.00	1629.00	1594.00	1557.50	1532.00	1506.00	1468.00	1429.50	1394.00	1372.00	1338.00	1316.00	1288.00	1263.00	1247.00	1223.00
1740.50	1739.50	1738.50	1737.50	1736.00	1735.00	1734.00	1733.00	1731.50	1730.50	1729.50	1727.50	1726.50	1725.00	1724.00	1723.50	1723.00	1722.50	1723.00	1723.00	1724.00	1724.00	1723.00	1723.00	1721.50	1721.00	1719.00	1716.00	1713.50	1710.00	1705.00	1700.50	1696.00	1687.50	1681.50	1669.00	1660.00	1647.50	1635.00	1624.00	1616.00	1608.00	1597.00	1587.50	1580.00	1575.00	1567.00	1562.50	1557.50	1555.00	1552.50	1549.00	1549.00	1548.00	1547.00	1547.00	1547.50	1548.50	1549.50	1550.00	1552.00	1554.00	1557.00	1559.00	1564.50	1567.50	1570.50	1576.00	1579.00	1586.00	1590.00	1596.00	1600.00	1603.50	1609.50	1613.00	1618.00	1620.00	1624.00	1626.00	1630.00	1631.00	1630.00	1628.00	1625.00	1624.00	1630.50	1635.50	1640.50	1648.00	1646.50	1641.00	1638.00	1632.50	1626.50	1613.50	1600.50	1592.00	1579.00	1570.00	1556.50	1543.00	1530.00	1521.50	1513.00	1497.00	1489.00	1474.00	1462.00	1445.50	1434.50	1412.50	1401.50	1390.50	1374.00	1363.00	1346.00	1338.00	1326.00	1318.00	1309.00	1290.50	1281.50	1267.00	1257.00	1239.00	1227.00	1202.00	1190.00	1177.50	1159.00	1139.50	1121.00	1110.00	1093.50	1082.50	1066.00	1056.00	1050.50	1043.00	1035.00	1030.50	1027.50	1021.50	1018.50	1015.00	1014.00	1013.50	1013.00	1011.00	1007.00	1003.00	997.00	990.00	985.00	983.00	978.50	976.00	974.50	974.50	975.50	976.00	977.00	979.00	983.00	986.00	988.00	991.00	998.00	1002.00	1007.00	1014.00	1027.00	1035.50	1053.50	1071.00	1098.00	1140.00	1181.00	1221.00	1244.00	1277.50	1300.00	1333.00	1371.00	1397.00	1436.00	1475.00	1501.50	1528.00	1580.00	1606.00	1645.00	1674.00	1716.50	1760.00	1801.00	1825.00	1848.50	1884.00	1921.50	1970.00	2005.00	2059.50	2096.00	2128.00	2144.00	2148.00	2154.00	2159.00	2163.00	2167.00	2170.00	2172.00	2171.50	2167.00	2161.50	2156.00	2151.00	2141.50	2135.00	2125.00	2113.00	2103.50	2089.00	2079.00	2058.00	2043.00	2021.00	2006.00	1983.00	1951.00	1927.00	1890.00	1853.00	1827.50	1802.00	1751.00	1725.00	1687.00	1664.00	1629.00	1594.00	1557.50	1532.00	1506.00	1468.00	1429.50	1394.00	1372.00	1338.00	1316.00	1288.00	1263.00	1247.00	1223.00
1740.50	1739.50	1738.50	1737.50	1736.00	1735.00	1734.00	1733.00	1731.50	1730.50	1729.50	1727.50	1726.50	1725.00	1724.00	1723.50	1723.00	1722.50	1723.00	1723.00	1724.00	1724.00	1723.00	1723.00	1721.50	1721.00	1719.00	1716.00	1713.50	1710.00	1705.00	1700.50	1696.00	1687.50	1681.50	1669.00	1660.00	1647.50	1635.00	1624.00	1616.00	1608.00	1597.00	1587.50	1580.00	1575.00	1567.00	1562.50	1557.50	1555.00	1552.50	1549.00	1549.00	1548.00	1547.00	1547.00	1547.50	1548.50	1549.50	1550.00	1552.00	1554.00	1557.00	1559.00	1564.50	1567.50	1570.50	1576.00	1579.00	1586.00	1590.00	1596.00	1600.00	1603.50	1609.50	1613.00	1618.00	1620.00	1624.00	1626.00	1630.00	1631.00	1630.00	1628.00	1625.00	1624.00	1630.50	1635.50	1640.50	1648.00	1646.50	1641.00	1638.00	1632.50	1626.50	1613.50	1600.50	1592.00	1579.00	1570.00	1556.50	1543.00	1530.00	1521.50	1513.00	1497.00	1489.00	1474.00	1462.00	1445.50	1434.50	1412.50	1401.50	1390.50	1374.00	1363.00	1346.00	1338.00	1326.00	1318.00	1309.00	1290.50	1281.50	1267.00	1257.00	1239.00	1227.00	1202.00	1190.00	1177.50	1159.00	1139.50	1121.00	1110.00	1093.50	1082.50	1066.00	1056.00	1050.50	1043.00	1035.00	1030.50	1027.50	1021.50	1018.50	1015.00	1014.00	1013.50	1013.00	1011.00	1007.00	1003.00	997.00	990.00	985.00	983.00	978.50	976.00	974.50	974.50	975.50	976.00	977.00	979.00	983.00	986.00	988.00	991.00	998.00	1002.00	1007.00	1014.00	1027.00	1035.50	1053.50	1071.00	1098.00	1140.00	1181.00	1221.00	1244.00	1277.50	1300.00	1333.00	1371.00	1397.00	1436.00	1475.00	1501.50	1528.00	1580.00	1606.00	1645.00	1674.00	1716.50	1760.00	1801.00	1825.00	1848.50	1884.00	1921.50	1970.00	2005.00	2059.50	2096.00	2128.00	2144.00	2148.00	2154.00	2159.00	2163.00	2167.00	2170.00	2172.00	2171.50	2167.00	2161.50	2156.00	2151.00	2141.50	2135.00	2125.00	2113.00	2103.50	2089.00	2079.00	2058.00	2043.00	2021.00	2006.00	1983.00	1951.00	1927.00	1890.00	1853.00	1827.50	1802.00	1751.00	1725.00	1687.00	1664.00	1629.00	1594.00	1557.50	1532.00	1506.00	1468.00	1429.50	1394.00	1372.00	1338.00	1316.00	1288.00	1263.00	1247.00	1223.00
1737.00	1735.50	1734.50	1733.50	1732.00	1731.00	1730.00	1729.00	1727.50	1726.50	1725.50	1724.00	1723.00	1722.00	1721.50	1721.25	1721.00	1720.75	1721.25	1721.50	1722.50	1722.50	1722.00	1721.50	1720.50	1719.75	1718.00	1715.00	1712.75	1710.00	1705.50	1701.25	1697.00	1688.75	1683.50	1672.50	1664.50	1653.50	1642.00	1630.50	1622.50	1614.25	1602.50	1592.25	1583.50	1577.50	1568.75	1563.50	1557.25	1554.00	1551.00	1546.50	1545.50	1542.50	1541.00	1539.00	1538.50	1538.50	1537.50	1537.00	1537.50	1538.50	1539.50	1540.25	1543.50	1546.50	1549.50	1554.50	1557.00	1564.00	1567.50	1572.75	1576.25	1579.50	1585.50	1588.75	1593.00	1595.50	1599.00	1600.75	1604.50	1606.00	1606.75	1608.00	1608.75	1611.00	1616.50	1620.25	1624.00	1629.50	1629.00	1624.50	1622.00	1617.75	1613.00	1602.00	1590.50	1583.00	1571.50	1563.50	1551.75	1540.00	1528.75	1522.50	1517.00	1506.50	1501.25	1490.00	1480.00	1466.00	1456.75	1437.75	1427.50	1417.50	1402.00	1392.50	1376.00	1368.50	1356.75	1349.25	1340.25	1320.00	1309.75	1294.00	1283.00	1264.00	1251.25	1225.50	1212.25	1198.25	1177.00	1154.75	1133.00	1121.50	1104.75	1093.50	1076.50	1064.25	1057.25	1047.00	1036.75	1030.50	1026.00	1017.75	1013.50	1008.00	1006.50	1004.75	1003.00	1000.50	997.25	994.00	989.00	983.25	979.00	977.50	974.00	972.00	970.25	969.50	969.75	969.50	969.50	970.75	973.50	975.50	976.75	979.00	984.50	987.50	991.50	996.50	1008.75	1016.50	1032.50	1046.75	1070.00	1108.50	1146.50	1183.50	1207.00	1242.00	1265.75	1301.50	1339.50	1364.50	1402.00	1439.50	1464.50	1488.75	1535.75	1559.25	1594.00	1622.00	1664.00	1706.50	1747.50	1774.00	1801.00	1842.00	1884.00	1934.50	1972.00	2030.00	2068.75	2106.50	2127.25	2131.75	2139.00	2144.00	2148.25	2151.00	2153.25	2154.50	2152.75	2144.50	2135.00	2125.00	2118.00	2103.50	2093.75	2079.00	2062.75	2050.25	2031.00	2018.00	1991.00	1973.00	1944.75	1925.75	1896.50	1861.25	1835.00	1795.50	1756.00	1729.50	1703.75	1653.50	1628.25	1590.50	1567.00	1531.00	1495.00	1458.25	1434.25	1410.75	1376.00	1341.25	1310.00	1293.00	1266.50	1249.75	1226.00	1201.75	1184.50	1158.50
1733.50	1731.50	1730.50	1729.50	1728.00	1727.00	1726.00	1725.00	1723.50	1722.50	1721.50	1720.50	1719.50	1719.00	1719.00	1719.00	1719.00	1719.00	1719.50	1720.00	1721.00	1721.00	1721.00	1720.00	1719.50	1718.50	1717.00	1714.00	1712.00	1710.00	1706.00	1702.00	1698.00	1690.00	1685.50	1676.00	1669.00	1659.50	1649.00	1637.00	1629.00	1620.50	1608.00	1597.00	1587.00	1580.00	1570.50	1564.50	1557.00	1553.00	1549.50	1544.00	1542.00	1537.00	1535.00	1531.00	1529.50	1528.50	1525.50	1524.00	1523.00	1523.00	1522.00	1521.50	1522.50	1525.50	1528.50	1533.00	1535.00	1542.00	1545.00	1549.50	1552.50	1555.50	1561.50	1564.50	1568.00	1571.00	1574.00	1575.50	1579.00	1581.00	1583.50	1588.00	1592.50	1598.00	1602.50	1605.00	1607.50	1611.00	1611.50	1608.00	1606.00	1603.00	1599.50	1590.50	1580.50	1574.00	1564.00	1557.00	1547.00	1537.00	1527.50	1523.50	1521.00	1516.00	1513.50	1506.00	1498.00	1486.50	1479.00	1463.00	1453.50	1444.50	1430.00	1422.00	1406.00	1399.00	1387.50	1380.50	1371.50	1349.50	1338.00	1321.00	1309.00	1289.00	1275.50	1249.00	1234.50	1219.00	1195.00	1170.00	1145.00	1133.00	1116.00	1104.50	1087.00	1072.50	1064.00	1051.00	1038.50	1030.50	1024.50	1014.00	1008.50	1001.00	999.00	996.00	993.00	990.00	987.50	985.00	981.00	976.50	973.00	972.00	969.50	968.00	966.00	964.50	964.00	963.00	962.00	962.50	964.00	965.00	965.50	967.00	971.00	973.00	976.00	979.00	990.50	997.50	1011.50	1022.50	1042.00	1077.00	1112.00	1146.00	1170.00	1206.50	1231.50	1270.00	1308.00	1332.00	1368.00	1404.00	1427.50	1449.50	1491.50	1512.50	1543.00	1570.00	1611.50	1653.00	1694.00	1723.00	1753.50	1800.00	1846.50	1899.00	1939.00	2000.50	2041.50	2085.00	2110.50	2115.50	2124.00	2129.00	2133.50	2135.00	2136.50	2137.00	2134.00	2122.00	2108.50	2094.00	2085.00	2065.50	2052.50	2033.00	2012.50	1997.00	1973.00	1957.00	1924.00	1903.00	1868.50	1845.50	1810.00	1771.50	1743.00	1701.00	1659.00	1631.50	1605.50	1556.00	1531.50	1494.00	1470.00	1433.00	1396.00	1359.00	1336.50	1315.50	1284.00	1253.00	1226.00	1214.00	1195.00	1183.50	1164.00	1140.50	1122.00	1094.00
1733.50	1731.50	1730.50	1729.50	1728.00	1727.00	1726.00	1725.00	1723.50	1722.50	1721.50	1720.50	1719.50	1719.00	1719.00	1719.00	1719.00	1719.00	1719.50	1720.00	1721.00	1721.00	1721.00	1720.00	1719.50	1718.50	1717.00	1714.00	1712.00	1710.00	1706.00	1702.00	1698.00	1690.00	1685.50	1676.00	1669.00	1659.50	1649.00	1637.00	1629.00	1620.50	1608.00	1597.00	1587.00	1580.00	1570.50	1564.50	1557.00	1553.00	1549.50	1544.00	1542.00	1537.00	1535.00	1531.00	1529.50	1528.50	1525.50	1524.00	1523.00	1523.00	1522.00	1521.50	1522.50	1525.50	1528.50	1533.00	1535.00	1542.00	1545.00	1549.50	1552.50	1555.50	1561.50	1564.50	1568.00	1571.00	1574.00	1575.50	1579.00	1581.00	1583.50	1588.00	1592.50	1598.00	1602.50	1605.00	1607.50	1611.00	1611.50	1608.00	1606.00	1603.00	1599.50	1590.50	1580.50	1574.00	1564.00	1557.00	1547.00	1537.00	1527.50	1523.50	1521.00	1516.00	1513.50	1506.00	1498.00	1486.50	1479.00	1463.00	1453.50	1444.50	1430.00	1422.00	1406.00	1399.00	1387.50	1380.50	1371.50	1349.50	1338.00	1321.00	1309.00	1289.00	1275.50	1249.00	1234.50	1219.00	1195.00	1170.00	1145.00	1133.00	1116.00	1104.50	1087.00	1072.50	1064.00	1051.00	1038.50	1030.50	1024.50	1014.00	1008.50	1001.00	999.00	996.00	993.00	990.00	987.50	985.00	981.00	976.50	973.00	972.00	969.50	968.00	966.00	964.50	964.00	963.00	962.00	962.50	964.00	965.00	965.50	967.00	971.00	973.00	976.00	979.00	990.50	997.50	1011.50	1022.50	1042.00	1077.00	1112.00	1146.00	1170.00	1206.50	1231.50	1270.00	1308.00	1332.00	1368.00	1404.00	1427.50	1449.50	1491.50	1512.50	1543.00	1570.00	1611.50	1653.00	1694.00	1723.00	1753.50	1800.00	1846.50	1899.00	1939.00	2000.50	2041.50	2085.00	2110.50	2115.50	2124.00	2129.00	2133.50	2135.00	2136.50	2137.00	2134.00	2122.00	2108.50	2094.00	2085.00	2065.50	2052.50	2033.00	2012.50	1997.00	1973.00	1957.00	1924.00	1903.00	1868.50	1845.50	1810.00	1771.50	1743.00	1701.00	1659.00	1631.50	1605.50	1556.00	1531.50	1494.00	1470.00	1433.00	1396.00	1359.00	1336.50	1315.50	1284.00	1253.00	1226.00	1214.00	1195.00	1183.50	1164.00	1140.50	1122.00	1094.00
1733.50	1731.50	1730.50	1729.50	1728.00	1727.00	1726.00	1725.00	1723.50	1722.50	1721.50	1720.50	1719.50	1719.00	1719.00	1719.00	1719.00	1719.00	1719.50	1720.00	1721.00	1721.00	1721.00	1720.00	1719.50	1718.50	1717.00	1714.00	1712.00	1710.00	1706.00	1702.00	1698.00	1690.00	1685.50	1676.00	1669.00	1659.50	1649.00	1637.00	1629.00	1620.50	1608.00	1597.00	1587.00	1580.00	1570.50	1564.50	1557.00	1553.00	1549.50	1544.00	1542.00	1537.00	1535.00	1531.00	1529.50	1528.50	1525.50	1524.00	1523.00	1523.00	1522.00	1521.50	1522.50	1525.50	1528.50	1533.00	1535.00	1542.00	1545.00	1549.50	1552.50	1555.50	1561.50	1564.50	1568.00	1571.00	1574.00	1575.50	1579.00	1581.00	1583.50	1588.00	1592.50	1598.00	1602.50	1605.00	1607.50	1611.00	1611.50	1608.00	1606.00	1603.00	1599.50	1590.50	1580.50	1574.00	1564.00	1557.00	1547.00	1537.00	1527.50	1523.50	1521.00	1516.00	1513.50	1506.00	1498.00	1486.50	1479.00	1463.00	1453.50	1444.50	1430.00	1422.00	1406.00	1399.00	1387.50	1380.50	1371.50	1349.50	1338.00	1321.00	1309.00	1289.00	1275.50	1249.00	1234.50	1219.00	1195.00	1170.00	1145.00	1133.00	1116.00	1104.50	1087.00	1072.50	1064.00	1051.00	1038.50	1030.50	1024.50	1014.00	1008.50	1001.00	999.00	996.00	993.00	990.00	987.50	985.00	981.00	976.50	973.00	972.00	969.50	968.00	966.00	964.50	964.00	963.00	962.00	962.50	964.00	965.00	965.50	967.00	971.00	973.00	976.00	979.00	990.50	997.50	1011.50	1022.50	1042.00	1077.00	1112.00	1146.00	1170.00	1206.50	1231.50	1270.00	1308.00	1332.00	1368.00	1404.00	1427.50	1449.50	1491.50	1512.50	1543.00	1570.00	1611.50	1653.00	1694.00	1723.00	1753.50	1800.00	1846.50	1899.00	1939.00	2000.50	2041.50	2085.00	2110.50	2115.50	2124.00	2129.00	2133.50	2135.00	2136.50	2137.00	2134.00	2122.00	2108.50	2094.00	2085.00	2065.50	2052.50	2033.00	2012.50	1997.00	1973.00	1957.00	1924.00	1903.00	1868.50	1845.50	1810.00	1771.50	1743.00	1701.00	1659.00	1631.50	1605.50	1556.00	1531.50	1494.00	1470.00	1433.00	1396.00	1359.00	1336.50	1315.50	1284.00	1253.00	1226.00	1214.00	1195.00	1183.50	1164.00	1140.50	1122.00	1094.00
1726.50	1724.50	1723.50	1722.50	1721.00	1720.00	1718.00	1717.00	1715.50	1714.50	1713.50	1713.00	1712.50	1712.00	1712.00	1712.00	1712.00	1712.50	1713.50	1714.50	1715.00	1716.50	1717.00	1717.00	1717.00	1717.00	1716.00	1714.00	1712.00	1709.00	1705.50	1702.50	1699.00	1692.50	1689.00	1680.00	1674.00	1664.50	1655.00	1644.50	1637.50	1630.00	1619.00	1608.50	1598.00	1591.00	1580.50	1574.00	1564.50	1559.50	1555.00	1548.00	1544.00	1535.00	1531.00	1524.50	1520.50	1517.50	1510.50	1507.00	1502.00	1499.00	1495.50	1492.50	1489.00	1490.50	1493.00	1496.00	1498.00	1501.00	1503.00	1506.00	1507.50	1509.00	1514.00	1516.50	1520.00	1523.00	1525.50	1527.00	1530.00	1532.00	1535.50	1543.00	1549.50	1557.00	1559.50	1560.50	1561.00	1562.00	1563.00	1562.00	1562.00	1561.50	1560.50	1556.50	1551.00	1547.00	1542.00	1538.00	1530.50	1523.00	1516.50	1514.00	1514.50	1515.50	1516.50	1516.00	1512.00	1507.00	1503.50	1497.50	1493.00	1488.50	1481.00	1477.00	1465.00	1457.00	1446.00	1438.50	1430.00	1406.50	1394.00	1375.00	1363.00	1340.50	1325.50	1295.00	1279.00	1262.00	1235.00	1209.00	1182.00	1167.00	1147.00	1133.50	1114.00	1095.00	1083.50	1067.00	1050.50	1039.50	1030.50	1016.50	1009.50	999.00	994.00	988.50	983.00	976.50	973.50	972.00	970.00	967.50	965.00	964.00	962.50	961.00	959.00	958.00	957.50	956.00	956.00	955.00	956.00	956.00	956.00	956.50	957.00	957.50	958.00	959.00	960.50	962.00	964.50	966.00	974.00	995.00	1014.00	1032.00	1054.00	1106.50	1141.50	1195.00	1243.50	1266.50	1299.00	1330.50	1351.50	1372.50	1415.00	1436.50	1469.00	1495.00	1542.00	1590.00	1638.50	1669.50	1697.50	1738.00	1778.50	1821.00	1862.00	1923.50	1964.50	2016.00	2049.00	2053.00	2060.00	2064.00	2067.50	2065.00	2062.00	2060.00	2056.50	2042.00	2024.00	2006.00	1994.00	1970.00	1952.00	1925.00	1898.00	1878.50	1848.00	1827.00	1786.00	1763.00	1719.50	1690.50	1646.00	1603.00	1575.50	1536.00	1495.50	1468.50	1443.50	1396.50	1373.50	1338.00	1315.00	1283.50	1253.00	1222.00	1203.50	1188.00	1166.00	1145.00	1125.00	1116.00	1104.00	1096.00	1083.00	1067.50	1054.50	1035.00
1726.50	1724.50	1723.50	1722.50	1721.00	1720.00	1718.00	1717.00	1715.50	1714.50	1713.50	1713.00	1712.50	1712.00	1712.00	1712.00	1712.00	1712.50	1713.50	1714.50	1715.00	1716.50	1717.00	1717.00	1717.00	1717.00	1716.00	1714.00	1712.00	1709.00	1705.50	1702.50	1699.00	1692.50	1689.00	1680.00	1674.00	1664.50	1655.00	1644.50	1637.50	1630.00	1619.00	1608.50	1598.00	1591.00	1580.50	1574.00	1564.50	1559.50	1555.00	1548.00	1544.00	1535.00	1531.00	1524.50	1520.50	1517.50	1510.50	1507.00	1502.00	1499.00	1495.50	1492.50	1489.00	1490.50	1493.00	1496.00	1498.00	1501.00	1503.00	1506.00	1507.50	1509.00	1514.00	1516.50	1520.00	1523.00	1525.50	1527.00	1530.00	1532.00	1535.50	1543.00	1549.50	1557.00	1559.50	1560.50	1561.00	1562.00	1563.00	1562.00	1562.00	1561.50	1560.50	1556.50	1551.00	1547.00	1542.00	1538.00	1530.50	1523.00	1516.50	1514.00	1514.50	1515.50	1516.50	1516.00	1512.00	1507.00	1503.50	1497.50	1493.00	1488.50	1481.00	1477.00	1465.00	1457.00	1446.00	1438.50	1430.00	1406.50	1394.00	1375.00	1363.00	1340.50	1325.50	1295.00	1279.00	1262.00	1235.00	1209.00	1182.00	1167.00	1147.00	1133.50	1114.00	1095.00	1083.50	1067.00	1050.50	1039.50	1030.50	1016.50	1009.50	999.00	994.00	988.50	983.00	976.50	973.50	972.00	970.00	967.50	965.00	964.00	962.50	961.00	959.00	958.00	957.50	956.00	956.00	955.00	956.00	956.00	956.00	956.50	957.00	957.50	958.00	959.00	960.50	962.00	964.50	966.00	974.00	995.00	1014.00	1032.00	1054.00	1106.50	1141.50	1195.00	1243.50	1266.50	1299.00	1330.50	1351.50	1372.50	1415.00	1436.50	1469.00	1495.00	1542.00	1590.00	1638.50	1669.50	1697.50	1738.00	1778.50	1821.00	1862.00	1923.50	1964.50	2016.00	2049.00	2053.00	2060.00	2064.00	2067.50	2065.00	2062.00	2060.00	2056.50	2042.00	2024.00	2006.00	1994.00	1970.00	1952.00	1925.00	1898.00	1878.50	1848.00	1827.00	1786.00	1763.00	1719.50	1690.50	1646.00	1603.00	1575.50	1536.00	1495.50	1468.50	1443.50	1396.50	1373.50	1338.00	1315.00	1283.50	1253.00	1222.00	1203.50	1188.00	1166.00	1145.00	1125.00	1116.00	1104.00	1096.00	1083.00	1067.50	1054.50	1035.00
1726.50	1724.50	1723.50	1722.50	1721.00	1720.00	1718.00	1717.00	1715.50	1714.50	1713.50	1713.00	1712.50	1712.00	1712.00	1712.00	1712.00	1712.50	1713.50	1714.50	1715.00	1716.50	1717.00	1717.00	1717.00	1717.00	1716.00	1714.00	1712.00	1709.00	1705.50	1702.50	1699.00	1692.50	1689.00	1680.00	1674.00	1664.50	1655.00	1644.50	1637.50	1630.00	1619.00	1608.50	1598.00	1591.00	1580.50	1574.00	1564.50	1559.50	1555.00	1548.00	1544.00	1535.00	1531.00	1524.50	1520.50	1517.50	1510.50	1507.00	1502.00	1499.00	1495.50	1492.50	1489.00	1490.50	1493.00	1496.00	1498.00	1501.00	1503.00	1506.00	1507.50	1509.00	1514.00	1516.50	1520.00	1523.00	1525.50	1527.00	1530.00	1532.00	1535.50	1543.00	1549.50	1557.00	1559.50	1560.50	1561.00	1562.00	1563.00	1562.00	1562.00	1561.50	1560.50	1556.50	1551.00	1547.00	1542.00	1538.00	1530.50	1523.00	1516.50	1514.00	1514.50	1515.50	1516.50	1516.00	1512.00	1507.00	1503.50	1497.50	1493.00	1488.50	1481.00	1477.00	1465.00	1457.00	1446.00	1438.50	1430.00	1406.50	1394.00	1375.00	1363.00	1340.50	1325.50	1295.00	1279.00	1262.00	1235.00	1209.00	1182.00	1167.00	1147.00	1133.50	1114.00	1095.00	1083.50	1067.00	1050.50	1039.50	1030.50	1016.50	1009.50	999.00	994.00	988.50	983.00	976.50	973.50	972.00	970.00	967.50	965.00	964.00	962.50	961.00	959.00	958.00	957.50	956.00	956.00	955.00	956.00	956.00	956.00	956.50	957.00	957.50	958.00	959.00	960.50	962.00	964.50	966.00	974.00	995.00	1014.00	1032.00	1054.00	1106.50	1141.50	1195.00	1243.50	1266.50	1299.00	1330.50	1351.50	1372.50	1415.00	1436.50	1469.00	1495.00	1542.00	1590.00	1638.50	1669.50	1697.50	1738.00	1778.50	1821.00	1862.00	1923.50	1964.50	2016.00	2049.00	2053.00	2060.00	2064.00	2067.50	2065.00	2062.00	2060.00	2056.50	2042.00	2024.00	2006.00	1994.00	1970.00	1952.00	1925.00	1898.00	1878.50	1848.00	1827.00	1786.00	1763.00	1719.50	1690.50	1646.00	1603.00	1575.50	1536.00	1495.50	1468.50	1443.50	1396.50	1373.50	1338.00	1315.00	1283.50	1253.00	1222.00	1203.50	1188.00	1166.00	1145.00	1125.00	1116.00	1104.00	1096.00	1083.00	1067.50	1054.50	1035.00
1726.50	1724.50	1723.50	1722.50	1721.00	1720.00	1718.00	1717.00	1715.50	1714.50	1713.50	1713.00	1712.50	1712.00	1712.00	1712.00	1712.00	1712.50	1713.50	1714.50	1715.00	1716.50	1717.00	1717.00	1717.00	1717.00	1716.00	1714.00	1712.00	1709.00	1705.50	1702.50	1699.00	1692.50	1689.00	1680.00	1674.00	1664.50	1655.00	1644.50	1637.50	1630.00	1619.00	1608.50	1598.00	1591.00	1580.50	1574.00	1564.50	1559.50	1555.00	1548.00	1544.00	1535.00	1531.00	1524.50	1520.50	1517.50	1510.50	1507.00	1502.00	1499.00	1495.50	1492.50	1489.00	1490.50	1493.00	1496.00	1498.00	1501.00	1503.00	1506.00	1507.50	1509.00	1514.00	1516.50	1520.00	1523.00	1525.50	1527.00	1530.00	1532.00	1535.50	1543.00	1549.50	1557.00	1559.50	1560.50	1561.00	1562.00	1563.00	1562.00	1562.00	1561.50	1560.50	1556.50	1551.00	1547.00	1542.00	1538.00	1530.50	1523.00	1516.50	1514.00	1514.50	1515.50	1516.50	1516.00	1512.00	1507.00	1503.50	1497.50	1493.00	1488.50	1481.00	1477.00	1465.00	1457.00	1446.00	1438.50	1430.00	1406.50	1394.00	1375.00	1363.00	1340.50	1325.50	1295.00	1279.00	1262.00	1235.00	1209.00	1182.00	1167.00	1147.00	1133.50	1114.00	1095.00	1083.50	1067.00	1050.50	1039.50	1030.50	1016.50	1009.50	999.00	994.00	988.50	983.00	976.50	973.50	972.00	970.00	967.50	965.00	964.00	962.50	961.00	959.00	958.00	957.50	956.00	956.00	955.00	956.00	956.00	956.00	956.50	957.00	957.50	958.00	959.00	960.50	962.00	964.50	966.00	974.00	995.00	1014.00	1032.00	1054.00	1106.50	1141.50	1195.00	1243.50	1266.50	1299.00	1330.50	1351.50	1372.50	1415.00	1436.50	1469.00	1495.00	1542.00	1590.00	1638.50	1669.50	1697.50	1738.00	1778.50	1821.00	1862.00	1923.50	1964.50	2016.00	2049.00	2053.00	2060.00	2064.00	2067.50	2065.00	2062.00	2060.00	2056.50	2042.00	2024.00	2006.00	1994.00	1970.00	1952.00	1925.00	1898.00	1878.50	1848.00	1827.00	1786.00	1763.00	1719.50	1690.50	1646.00	1603.00	1575.50	1536.00	1495.50	1468.50	1443.50	1396.50	1373.50	1338.00	1315.00	1283.50	1253.00	1222.00	1203.50	1188.00	1166.00	1145.00	1125.00	1116.00	1104.00	1096.00	1083.00	1067.50	1054.50	1035.00
1722.00	1719.50	1718.00	1716.50	1715.00	1713.00	1711.00	1710.00	1707.50	1706.50	1706.00	1705.00	1704.50	1704.00	1704.00	1705.50	1706.00	1707.50	1708.50	1709.00	1710.00	1711.50	1712.00	1712.00	1713.00	1713.00	1713.00	1711.50	1710.50	1709.00	1706.00	1703.50	1700.00	1693.50	1690.00	1683.00	1677.00	1669.00	1661.00	1652.00	1645.50	1639.00	1630.00	1620.50	1611.00	1604.00	1594.50	1587.50	1575.00	1569.00	1563.00	1554.00	1548.00	1537.00	1532.00	1523.50	1518.50	1513.50	1503.50	1498.50	1491.00	1487.00	1482.00	1478.00	1470.50	1469.50	1470.00	1470.00	1470.00	1470.00	1470.00	1470.00	1470.00	1470.00	1473.00	1475.00	1477.00	1479.00	1482.00	1483.50	1487.00	1489.00	1492.00	1498.00	1505.50	1512.00	1516.50	1517.50	1519.00	1521.00	1522.50	1524.00	1524.00	1525.50	1526.00	1525.00	1523.50	1522.50	1521.00	1520.00	1515.50	1511.00	1506.50	1504.00	1503.00	1502.00	1501.50	1501.00	1504.00	1510.00	1514.00	1522.00	1521.50	1519.00	1515.00	1512.00	1504.00	1497.00	1486.50	1479.50	1472.50	1451.00	1439.00	1421.00	1409.00	1386.00	1368.50	1333.50	1316.00	1298.00	1272.00	1245.00	1218.00	1200.00	1177.50	1162.00	1139.00	1116.50	1102.50	1083.00	1062.50	1049.00	1037.50	1022.00	1014.00	1001.00	994.00	986.50	979.00	971.50	967.00	964.50	962.00	960.00	958.00	956.00	954.50	953.50	952.00	950.50	949.50	948.00	947.00	946.00	947.00	947.00	947.50	948.00	948.50	949.00	949.00	949.00	949.00	949.00	949.00	948.50	948.50	951.00	952.50	954.00	956.00	1013.00	1051.00	1107.00	1160.50	1187.00	1220.00	1254.00	1276.50	1298.00	1336.00	1354.00	1380.00	1398.00	1455.50	1515.00	1574.00	1610.50	1637.00	1667.00	1697.00	1727.00	1760.00	1816.50	1854.00	1909.50	1947.00	1949.00	1952.00	1954.00	1956.00	1951.00	1944.00	1939.50	1934.50	1923.00	1906.50	1890.00	1879.00	1857.00	1837.00	1807.50	1778.00	1758.00	1727.00	1705.00	1663.00	1642.00	1601.00	1573.00	1531.00	1489.50	1464.00	1427.00	1391.00	1367.00	1343.50	1301.00	1280.50	1249.00	1229.00	1205.00	1182.00	1159.50	1145.00	1134.00	1122.00	1110.00	1098.00	1092.00	1083.00	1077.00	1068.50	1064.00	1067.00	1073.00
1722.00	1719.50	1718.00	1716.50	1715.00	1713.00	1711.00	1710.00	1707.50	1706.50	1706.00	1705.00	1704.50	1704.00	1704.00	1705.50	1706.00	1707.50	1708.50	1709.00	1710.00	1711.50	1712.00	1712.00	1713.00	1713.00	1713.00	1711.50	1710.50	1709.00	1706.00	1703.50	1700.00	1693.50	1690.00	1683.00	1677.00	1669.00	1661.00	1652.00	1645.50	1639.00	1630.00	1620.50	1611.00	1604.00	1594.50	1587.50	1575.00	1569.00	1563.00	1554.00	1548.00	1537.00	1532.00	1523.50	1518.50	1513.50	1503.50	1498.50	1491.00	1487.00	1482.00	1478.00	1470.50	1469.50	1470.00	1470.00	1470.00	1470.00	1470.00	1470.00	1470.00	1470.00	1473.00	1475.00	1477.00	1479.00	1482.00	1483.50	1487.00	1489.00	1492.00	1498.00	1505.50	1512.00	1516.50	1517.50	1519.00	1521.00	1522.50	1524.00	1524.00	1525.50	1526.00	1525.00	1523.50	1522.50	1521.00	1520.00	1515.50	1511.00	1506.50	1504.00	1503.00	1502.00	1501.50	1501.00	1504.00	1510.00	1514.00	1522.00	1521.50	1519.00	1515.00	1512.00	1504.00	1497.00	1486.50	1479.50	1472.50	1451.00	1439.00	1421.00	1409.00	1386.00	1368.50	1333.50	1316.00	1298.00	1272.00	1245.00	1218.00	1200.00	1177.50	1162.00	1139.00	1116.50	1102.50	1083.00	1062.50	1049.00	1037.50	1022.00	1014.00	1001.00	994.00	986.50	979.00	971.50	967.00	964.50	962.00	960.00	958.00	956.00	954.50	953.50	952.00	950.50	949.50	948.00	947.00	946.00	947.00	947.00	947.50	948.00	948.50	949.00	949.00	949.00	949.00	949.00	949.00	948.50	948.50	951.00	952.50	954.00	956.00	1013.00	1051.00	1107.00	1160.50	1187.00	1220.00	1254.00	1276.50	1298.00	1336.00	1354.00	1380.00	1398.00	1455.50	1515.00	1574.00	1610.50	1637.00	1667.00	1697.00	1727.00	1760.00	1816.50	1854.00	1909.50	1947.00	1949.00	1952.00	1954.00	1956.00	1951.00	1944.00	1939.50	1934.50	1923.00	1906.50	1890.00	1879.00	1857.00	1837.00	1807.50	1778.00	1758.00	1727.00	1705.00	1663.00	1642.00	1601.00	1573.00	1531.00	1489.50	1464.00	1427.00	1391.00	1367.00	1343.50	1301.00	1280.50	1249.00	1229.00	1205.00	1182.00	1159.50	1145.00	1134.00	1122.00	1110.00	1098.00	1092.00	1083.00	1077.00	1068.50	1064.00	1067.00	1073.00
1722.00	1719.50	1718.00	1716.50	1715.00	1713.00	1711.00	1710.00	1707.50	1706.50	1706.00	1705.00	1704.50	1704.00	1704.00	1705.50	1706.00	1707.50	1708.50	1709.00	1710.00	1711.50	1712.00	1712.00	1713.00	1713.00	1713.00	1711.50	1710.50	1709.00	1706.00	1703.50	1700.00	1693.50	1690.00	1683.00	1677.00	1669.00	1661.00	1652.00	1645.50	1639.00	1630.00	1620.50	1611.00	1604.00	1594.50	1587.50	1575.00	1569.00	1563.00	1554.00	1548.00	1537.00	1532.00	1523.50	1518.50	1513.50	1503.50	1498.50	1491.00	1487.00	1482.00	1478.00	1470.50	1469.50	1470.00	1470.00	1470.00	1470.00	1470.00	1470.00	1470.00	1470.00	1473.00	1475.00	1477.00	1479.00	1482.00	1483.50	1487.00	1489.00	1492.00	1498.00	1505.50	1512.00	1516.50	1517.50	1519.00	1521.00	1522.50	1524.00	1524.00	1525.50	1526.00	1525.00	1523.50	1522.50	1521.00	1520.00	1515.50	1511.00	1506.50	1504.00	1503.00	1502.00	1501.50	1501.00	1504.00	1510.00	1514.00	1522.00	1521.50	1519.00	1515.00	1512.00	1504.00	1497.00	1486.50	1479.50	1472.50	1451.00	1439.00	1421.00	1409.00	1386.00	1368.50	1333.50	1316.00	1298.00	1272.00	1245.00	1218.00	1200.00	1177.50	1162.00	1139.00	1116.50	1102.50	1083.00	1062.50	1049.00	1037.50	1022.00	1014.00	1001.00	994.00	986.50	979.00	971.50	967.00	964.50	962.00	960.00	958.00	956.00	954.50	953.50	952.00	950.50	949.50	948.00	947.00	946.00	947.00	947.00	947.50	948.00	948.50	949.00	949.00	949.00	949.00	949.00	949.00	948.50	948.50	951.00	952.50	954.00	956.00	1013.00	1051.00	1107.00	1160.50	1187.00	1220.00	1254.00	1276.50	1298.00	1336.00	1354.00	1380.00	1398.00	1455.50	1515.00	1574.00	1610.50	1637.00	1667.00	1697.00	1727.00	1760.00	1816.50	1854.00	1909.50	1947.00	1949.00	1952.00	1954.00	1956.00	1951.00	1944.00	1939.50	1934.50	1923.00	1906.50	1890.00	1879.00	1857.00	1837.00	1807.50	1778.00	1758.00	1727.00	1705.00	1663.00	1642.00	1601.00	1573.00	1531.00	1489.50	1464.00	1427.00	1391.00	1367.00	1343.50	1301.00	1280.50	1249.00	1229.00	1205.00	1182.00	1159.50	1145.00	1134.00	1122.00	1110.00	1098.00	1092.00	1083.00	1077.00	1068.50	1064.00	1067.00	1073.00
1720.75	1717.75	1716.25	1714.75	1712.50	1710.50	1708.00	1707.00	1704.75	1703.50	1702.75	1701.50	1701.00	1700.00	1700.50	1701.75	1702.25	1704.00	1705.00	1705.50	1706.50	1708.00	1708.50	1709.00	1709.75	1710.25	1710.50	1709.00	1708.00	1706.50	1704.25	1702.00	1698.75	1692.00	1688.75	1682.50	1677.00	1669.75	1662.00	1654.00	1648.00	1642.25	1633.50	1624.75	1615.50	1609.00	1599.75	1593.25	1581.00	1574.75	1568.50	1559.50	1553.50	1540.00	1533.50	1523.50	1517.50	1512.25	1502.75	1498.00	1490.50	1485.50	1478.50	1473.50	1464.25	1462.00	1461.75	1461.00	1460.00	1459.00	1458.00	1457.00	1456.25	1455.50	1456.75	1458.25	1460.00	1461.00	1463.50	1465.25	1468.50	1470.25	1473.00	1479.50	1487.00	1494.00	1499.25	1500.75	1502.50	1505.00	1507.25	1509.00	1510.00	1511.50	1512.50	1512.50	1511.75	1511.25	1510.50	1510.00	1507.25	1504.50	1501.75	1500.50	1500.25	1501.25	1501.75	1502.50	1506.00	1512.50	1516.75	1525.75	1526.75	1525.25	1522.50	1521.00	1515.50	1508.50	1498.00	1490.75	1483.50	1463.25	1451.75	1434.50	1423.50	1401.75	1384.50	1349.50	1332.00	1314.00	1286.50	1258.00	1229.50	1210.50	1187.75	1172.75	1150.50	1128.75	1114.00	1091.50	1068.50	1053.25	1040.00	1022.50	1014.50	1002.00	994.00	986.00	978.00	970.25	965.25	962.25	959.00	956.50	954.00	952.00	949.75	948.50	946.50	944.50	943.50	941.50	940.50	939.25	939.50	939.00	939.00	939.00	939.50	940.00	940.50	941.00	941.75	942.25	942.75	943.00	943.25	945.00	946.75	948.50	950.00	993.00	1026.00	1075.00	1122.25	1148.50	1183.00	1217.00	1239.25	1260.50	1294.50	1310.50	1334.00	1350.00	1404.00	1464.00	1523.50	1561.50	1587.25	1609.00	1629.25	1649.00	1672.00	1726.25	1762.25	1815.75	1855.50	1861.25	1865.00	1867.50	1871.50	1868.50	1863.50	1860.00	1856.25	1848.50	1834.50	1821.00	1812.00	1794.25	1776.75	1749.50	1722.50	1704.50	1675.00	1653.50	1613.00	1592.50	1557.00	1533.25	1498.00	1463.25	1441.00	1407.00	1373.25	1350.75	1328.50	1288.50	1269.50	1240.50	1222.00	1198.75	1177.50	1157.00	1143.50	1132.75	1121.00	1110.25	1099.00	1092.50	1085.75	1081.25	1075.00	1070.75	1070.50	1069.50
1719.50	1716.00	1714.50	1713.00	1710.00	1708.00	1705.00	1704.00	1702.00	1700.50	1699.50	1698.00	1697.50	1696.00	1697.00	1698.00	1698.50	1700.50	1701.50	1702.00	1703.00	1704.50	1705.00	1706.00	1706.50	1707.50	1708.00	1706.50	1705.50	1704.00	1702.50	1700.50	1697.50	1690.50	1687.50	1682.00	1677.00	1670.50	1663.00	1656.00	1650.50	1645.50	1637.00	1629.00	1620.00	1614.00	1605.00	1599.00	1587.00	1580.50	1574.00	1565.00	1559.00	1543.00	1535.00	1523.50	1516.50	1511.00	1502.00	1497.50	1490.00	1484.00	1475.00	1469.00	1458.00	1454.50	1453.50	1452.00	1450.00	1448.00	1446.00	1444.00	1442.50	1441.00	1440.50	1441.50	1443.00	1443.00	1445.00	1447.00	1450.00	1451.50	1454.00	1461.00	1468.50	1476.00	1482.00	1484.00	1486.00	1489.00	1492.00	1494.00	1496.00	1497.50	1499.00	1500.00	1500.00	1500.00	1500.00	1500.00	1499.00	1498.00	1497.00	1497.00	1497.50	1500.50	1502.00	1504.00	1508.00	1515.00	1519.50	1529.50	1532.00	1531.50	1530.00	1530.00	1527.00	1520.00	1509.50	1502.00	1494.50	1475.50	1464.50	1448.00	1438.00	1417.50	1400.50	1365.50	1348.00	1330.00	1301.00	1271.00	1241.00	1221.00	1198.00	1183.50	1162.00	1141.00	1125.50	1100.00	1074.50	1057.50	1042.50	1023.00	1015.00	1003.00	994.00	985.50	977.00	969.00	963.50	960.00	956.00	953.00	950.00	948.00	945.00	943.50	941.00	938.50	937.50	935.00	934.00	932.50	932.00	931.00	930.50	930.00	930.50	931.00	932.00	933.00	934.50	935.50	936.50	937.50	938.00	939.00	941.00	943.00	944.00	973.00	1001.00	1043.00	1084.00	1110.00	1146.00	1180.00	1202.00	1223.00	1253.00	1267.00	1288.00	1302.00	1352.50	1413.00	1473.00	1512.50	1537.50	1551.00	1561.50	1571.00	1584.00	1636.00	1670.50	1722.00	1764.00	1773.50	1778.00	1781.00	1787.00	1786.00	1783.00	1780.50	1778.00	1774.00	1762.50	1752.00	1745.00	1731.50	1716.50	1691.50	1667.00	1651.00	1623.00	1602.00	1563.00	1543.00	1513.00	1493.50	1465.00	1437.00	1418.00	1387.00	1355.50	1334.50	1313.50	1276.00	1258.50	1232.00	1215.00	1192.50	1173.00	1154.50	1142.00	1131.50	1120.00	1110.50	1100.00	1093.00	1088.50	1085.50	1081.50	1077.50	1074.00	1066.00
1718.00	1714.50	1713.00	1711.50	1708.50	1707.00	1703.50	1702.00	1700.00	1698.25	1697.00	1695.25	1694.50	1693.00	1693.50	1694.50	1694.75	1696.25	1697.00	1697.75	1699.00	1701.00	1702.00	1702.50	1703.25	1704.00	1704.50	1703.50	1702.50	1701.00	1699.50	1697.75	1695.00	1689.25	1686.50	1681.50	1677.50	1671.25	1665.00	1658.50	1653.75	1649.00	1641.50	1634.50	1626.50	1621.00	1612.75	1607.25	1596.00	1589.75	1583.50	1574.50	1568.50	1553.00	1545.00	1533.25	1526.00	1519.50	1507.00	1500.75	1491.00	1484.50	1476.25	1470.50	1459.50	1455.25	1453.00	1449.50	1446.50	1442.00	1439.50	1436.25	1433.75	1431.25	1429.75	1430.50	1431.50	1432.00	1433.25	1434.75	1437.00	1438.00	1440.00	1446.50	1454.00	1461.50	1468.00	1470.50	1472.75	1476.00	1479.50	1482.00	1483.50	1485.50	1487.00	1488.50	1489.25	1489.50	1490.00	1490.50	1490.50	1490.50	1490.25	1490.50	1491.25	1494.50	1496.00	1498.50	1501.50	1508.50	1512.75	1522.00	1525.00	1525.25	1525.00	1525.50	1524.50	1518.00	1507.75	1500.75	1493.75	1476.25	1465.50	1449.50	1439.50	1420.00	1403.25	1368.25	1350.50	1332.75	1304.00	1274.00	1244.00	1224.50	1201.75	1189.00	1170.00	1150.75	1136.00	1109.00	1081.00	1062.25	1044.75	1024.00	1016.00	1004.50	996.00	986.25	977.50	968.50	962.50	958.00	953.50	949.75	945.50	943.00	940.00	938.50	936.00	933.50	932.50	930.50	929.50	928.00	927.50	926.50	926.00	925.50	925.75	926.00	926.50	927.00	928.00	928.75	929.25	929.75	930.00	931.00	932.25	933.50	934.50	957.00	983.50	1022.50	1060.50	1083.50	1112.00	1139.00	1157.00	1174.75	1207.50	1224.25	1249.00	1265.50	1311.25	1370.50	1430.00	1469.50	1495.75	1500.50	1496.00	1490.00	1489.00	1533.50	1565.50	1613.00	1655.00	1667.75	1674.00	1678.50	1686.00	1689.00	1689.00	1688.75	1688.50	1688.50	1682.25	1676.50	1673.00	1666.00	1655.50	1634.75	1614.25	1601.00	1578.50	1560.50	1527.50	1511.00	1487.75	1475.00	1456.50	1439.00	1426.50	1398.00	1365.00	1343.00	1321.00	1281.25	1263.00	1235.50	1217.50	1193.00	1174.00	1156.25	1144.00	1133.25	1121.50	1111.50	1101.00	1094.00	1088.00	1084.25	1078.75	1073.00	1067.50	1055.00
1716.50	1713.00	1711.50	1710.00	1707.00	1706.00	1702.00	1700.00	1698.00	1696.00	1694.50	1692.50	1691.50	1690.00	1690.00	1691.00	1691.00	1692.00	1692.50	1693.50	1695.00	1697.50	1699.00	1699.00	1700.00	1700.50	1701.00	1700.50	1699.50	1698.00	1696.50	1695.00	1692.50	1688.00	1685.50	1681.00	1678.00	1672.00	1667.00	1661.00	1657.00	1652.50	1646.00	1640.00	1633.00	1628.00	1620.50	1615.50	1605.00	1599.00	1593.00	1584.00	1578.00	1563.00	1555.00	1543.00	1535.50	1528.00	1512.00	1504.00	1492.00	1485.00	1477.50	1472.00	1461.00	1456.00	1452.50	1447.00	1443.00	1436.00	1433.00	1428.50	1425.00	1421.50	1419.00	1419.50	1420.00	1421.00	1421.50	1422.50	1424.00	1424.50	1426.00	1432.00	1439.50	1447.00	1454.00	1457.00	1459.50	1463.00	1467.00	1470.00	1471.00	1473.50	1475.00	1477.00	1478.50	1479.00	1480.00	1481.00	1482.00	1483.00	1483.50	1484.00	1485.00	1488.50	1490.00	1493.00	1495.00	1502.00	1506.00	1514.50	1518.00	1519.00	1520.00	1521.00	1522.00	1516.00	1506.00	1499.50	1493.00	1477.00	1466.50	1451.00	1441.00	1422.50	1406.00	1371.00	1353.00	1335.50	1307.00	1277.00	1247.00	1228.00	1205.50	1194.50	1178.00	1160.50	1146.50	1118.00	1087.50	1067.00	1047.00	1025.00	1017.00	1006.00	998.00	987.00	978.00	968.00	961.50	956.00	951.00	946.50	941.00	938.00	935.00	933.50	931.00	928.50	927.50	926.00	925.00	923.50	923.00	922.00	921.50	921.00	921.00	921.00	921.00	921.00	921.50	922.00	922.00	922.00	922.00	923.00	923.50	924.00	925.00	941.00	966.00	1002.00	1037.00	1057.00	1078.00	1098.00	1112.00	1126.50	1162.00	1181.50	1210.00	1229.00	1270.00	1328.00	1387.00	1426.50	1454.00	1450.00	1430.50	1409.00	1394.00	1431.00	1460.50	1504.00	1546.00	1562.00	1570.00	1576.00	1585.00	1592.00	1595.00	1597.00	1599.00	1603.00	1602.00	1601.00	1601.00	1600.50	1594.50	1578.00	1561.50	1551.00	1534.00	1519.00	1492.00	1479.00	1462.50	1456.50	1448.00	1441.00	1435.00	1409.00	1374.50	1351.50	1328.50	1286.50	1267.50	1239.00	1220.00	1193.50	1175.00	1158.00	1146.00	1135.00	1123.00	1112.50	1102.00	1095.00	1087.50	1083.00	1076.00	1068.50	1061.00	1044.00
1716.50	1713.00	1711.50	1710.00	1707.00	1706.00	1702.00	1700.00	1698.00	1696.00	1694.50	1692.50	1691.50	1690.00	1690.00	1691.00	1691.00	1692.00	1692.50	1693.50	1695.00	1697.50	1699.00	1699.00	1700.00	1700.50	1701.00	1700.50	1699.50	1698.00	1696.50	1695.00	1692.50	1688.00	1685.50	1681.00	1678.00	1672.00	1667.00	1661.00	1657.00	1652.50	1646.00	1640.00	1633.00	1628.00	1620.50	1615.50	1605.00	1599.00	1593.00	1584.00	1578.00	1563.00	1555.00	1543.00	1535.50	1528.00	1512.00	1504.00	1492.00	1485.00	1477.50	1472.00	1461.00	1456.00	1452.50	1447.00	1443.00	1436.00	1433.00	1428.50	1425.00	1421.50	1419.00	1419.50	1420.00	1421.00	1421.50	1422.50	1424.00	1424.50	1426.00	1432.00	1439.50	1447.00	1454.00	1457.00	1459.50	1463.00	1467.00	1470.00	1471.00	1473.50	1475.00	1477.00	1478.50	1479.00	1480.00	1481.00	1482.00	1483.00	1483.50	1484.00	1485.00	1488.50	1490.00	1493.00	1495.00	1502.00	1506.00	1514.50	1518.00	1519.00	1520.00	1521.00	1522.00	1516.00	1506.00	1499.50	1493.00	1477.00	1466.50	1451.00	1441.00	1422.50	1406.00	1371.00	1353.00	1335.50	1307.00	1277.00	1247.00	1228.00	1205.50	1194.50	1178.00	1160.50	1146.50	1118.00	1087.50	1067.00	1047.00	1025.00	1017.00	1006.00	998.00	987.00	978.00	968.00	961.50	956.00	951.00	946.50	941.00	938.00	935.00	933.50	931.00	928.50	927.50	926.00	925.00	923.50	923.00	922.00	921.50	921.00	921.00	921.00	921.00	921.00	921.50	922.00	922.00	922.00	922.00	923.00	923.50	924.00	925.00	941.00	966.00	1002.00	1037.00	1057.00	1078.00	1098.00	1112.00	1126.50	1162.00	1181.50	1210.00	1229.00	1270.00	1328.00	1387.00	1426.50	1454.00	1450.00	1430.50	1409.00	1394.00	1431.00	1460.50	1504.00	1546.00	1562.00	1570.00	1576.00	1585.00	1592.00	1595.00	1597.00	1599.00	1603.00	1602.00	1601.00	1601.00	1600.50	1594.50	1578.00	1561.50	1551.00	1534.00	1519.00	1492.00	1479.00	1462.50	1456.50	1448.00	1441.00	1435.00	1409.00	1374.50	1351.50	1328.50	1286.50	1267.50	1239.00	1220.00	1193.50	1175.00	1158.00	1146.00	1135.00	1123.00	1112.50	1102.00	1095.00	1087.50	1083.00	1076.00	1068.50	1061.00	1044.00
1716.50	1713.00	1711.50	1710.00	1707.00	1706.00	1702.00	1700.00	1698.00	1696.00	1694.50	1692.50	1691.50	1690.00	1690.00	1691.00	1691.00	1692.00	1692.50	1693.50	1695.00	1697.50	1699.00	1699.00	1700.00	1700.50	1701.00	1700.50	1699.50	1698.00	1696.50	1695.00	1692.50	1688.00	1685.50	1681.00	1678.00	1672.00	1667.00	1661.00	1657.00	1652.50	1646.00	1640.00	1633.00	1628.00	1620.50	1615.50	1605.00	1599.00	1593.00	1584.00	1578.00	1563.00	1555.00	1543.00	1535.50	1528.00	1512.00	1504.00	1492.00	1485.00	1477.50	1472.00	1461.00	1456.00	1452.50	1447.00	1443.00	1436.00	1433.00	1428.50	1425.00	1421.50	1419.00	1419.50	1420.00	1421.00	1421.50	1422.50	1424.00	1424.50	1426.00	1432.00	1439.50	1447.00	1454.00	1457.00	1459.50	1463.00	1467.00	1470.00	1471.00	1473.50	1475.00	1477.00	1478.50	1479.00	1480.00	1481.00	1482.00	1483.00	1483.50	1484.00	1485.00	1488.50	1490.00	1493.00	1495.00	1502.00	1506.00	1514.50	1518.00	1519.00	1520.00	1521.00	1522.00	1516.00	1506.00	1499.50	1493.00	1477.00	1466.50	1451.00	1441.00	1422.50	1406.00	1371.00	1353.00	1335.50	1307.00	1277.00	1247.00	1228.00	1205.50	1194.50	1178.00	1160.50	1146.50	1118.00	1087.50	1067.00	1047.00	1025.00	1017.00	1006.00	998.00	987.00	978.00	968.00	961.50	956.00	951.00	946.50	941.00	938.00	935.00	933.50	931.00	928.50	927.50	926.00	925.00	923.50	923.00	922.00	921.50	921.00	921.00	921.00	921.00	921.00	921.50	922.00	922.00	922.00	922.00	923.00	923.50	924.00	925.00	941.00	966.00	1002.00	1037.00	1057.00	1078.00	1098.00	1112.00	1126.50	1162.00	1181.50	1210.00	1229.00	1270.00	1328.00	1387.00	1426.50	1454.00	1450.00	1430.50	1409.00	1394.00	1431.00	1460.50	1504.00	1546.00	1562.00	1570.00	1576.00	1585.00	1592.00	1595.00	1597.00	1599.00	1603.00	1602.00	1601.00	1601.00	1600.50	1594.50	1578.00	1561.50	1551.00	1534.00	1519.00	1492.00	1479.00	1462.50	1456.50	1448.00	1441.00	1435.00	1409.00	1374.50	1351.50	1328.50	1286.50	1267.50	1239.00	1220.00	1193.50	1175.00	1158.00	1146.00	1135.00	1123.00	1112.50	1102.00	1095.00	1087.50	1083.00	1076.00	1068.50	1061.00	1044.00
1716.50	1713.00	1711.50	1710.00	1707.00	1706.00	1702.00	1700.00	1698.00	1696.00	1694.50	1692.50	1691.50	1690.00	1690.00	1691.00	1691.00	1692.00	1692.50	1693.50	1695.00	1697.50	1699.00	1699.00	1700.00	1700.50	1701.00	1700.50	1699.50	1698.00	1696.50	1695.00	1692.50	1688.00	1685.50	1681.00	1678.00	1672.00	1667.00	1661.00	1657.00	1652.50	1646.00	1640.00	1633.00	1628.00	1620.50	1615.50	1605.00	1599.00	1593.00	1584.00	1578.00	1563.00	1555.00	1543.00	1535.50	1528.00	1512.00	1504.00	1492.00	1485.00	1477.50	1472.00	1461.00	1456.00	1452.50	1447.00	1443.00	1436.00	1433.00	1428.50	1425.00	1421.50	1419.00	1419.50	1420.00	1421.00	1421.50	1422.50	1424.00	1424.50	1426.00	1432.00	1439.50	1447.00	1454.00	1457.00	1459.50	1463.00	1467.00	1470.00	1471.00	1473.50	1475.00	1477.00	1478.50	1479.00	1480.00	1481.00	1482.00	1483.00	1483.50	1484.00	1485.00	1488.50	1490.00	1493.00	1495.00	1502.00	1506.00	1514.50	1518.00	1519.00	1520.00	1521.00	1522.00	1516.00	1506.00	1499.50	1493.00	1477.00	1466.50	1451.00	1441.00	1422.50	1406.00	1371.00	1353.00	1335.50	1307.00	1277.00	1247.00	1228.00	1205.50	1194.50	1178.00	1160.50	1146.50	1118.00	1087.50	1067.00	1047.00	1025.00	1017.00	1006.00	998.00	987.00	978.00	968.00	961.50	956.00	951.00	946.50	941.00	938.00	935.00	933.50	931.00	928.50	927.50	926.00	925.00	923.50	923.00	922.00	921.50	921.00	921.00	921.00	921.00	921.00	921.50	922.00	922.00	922.00	922.00	923.00	923.50	924.00	925.00	941.00	966.00	1002.00	1037.00	1057.00	1078.00	1098.00	1112.00	1126.50	1162.00	1181.50	1210.00	1229.00	1270.00	1328.00	1387.00	1426.50	1454.00	1450.00	1430.50	1409.00	1394.00	1431.00	1460.50	1504.00	1546.00	1562.00	1570.00	1576.00	1585.00	1592.00	1595.00	1597.00	1599.00	1603.00	1602.00	1601.00	1601.00	1600.50	1594.50	1578.00	1561.50	1551.00	1534.00	1519.00	1492.00	1479.00	1462.50	1456.50	1448.00	1441.00	1435.00	1409.00	1374.50	1351.50	1328.50	1286.50	1267.50	1239.00	1220.00	1193.50	1175.00	1158.00	1146.00	1135.00	1123.00	1112.50	1102.00	1095.00	1087.50	1083.00	1076.00	1068.50	1061.00	1044.00
1709.00	1706.50	1705.50	1704.50	1703.00	1702.00	1699.00	1697.00	1695.00	1693.00	1691.50	1689.50	1688.50	1687.00	1686.00	1686.00	1686.00	1686.00	1686.50	1687.50	1689.00	1690.50	1692.00	1692.00	1692.50	1693.00	1693.00	1693.00	1692.50	1692.00	1690.50	1689.50	1688.00	1684.50	1683.00	1680.00	1677.00	1673.50	1669.00	1665.50	1662.00	1658.50	1654.00	1648.50	1643.00	1640.00	1634.00	1630.00	1622.00	1618.00	1614.00	1607.00	1603.00	1591.00	1584.00	1574.00	1567.50	1559.50	1542.50	1534.00	1521.00	1513.00	1501.00	1493.50	1478.00	1470.50	1464.50	1456.00	1450.00	1438.00	1433.00	1427.00	1422.50	1418.00	1411.50	1411.00	1411.00	1410.00	1410.00	1410.00	1410.00	1410.50	1411.00	1414.00	1420.00	1425.00	1431.00	1434.00	1436.00	1439.00	1442.00	1445.00	1447.00	1448.50	1450.00	1452.00	1454.00	1455.50	1457.00	1459.00	1460.50	1461.00	1462.50	1463.00	1463.50	1466.50	1468.00	1470.00	1472.00	1477.50	1481.00	1489.00	1492.50	1494.00	1495.00	1496.00	1497.00	1493.00	1481.50	1474.50	1467.50	1453.00	1445.00	1433.00	1426.00	1413.50	1401.00	1370.50	1355.50	1340.00	1315.00	1287.50	1261.00	1244.00	1221.00	1209.50	1193.00	1176.50	1164.00	1136.00	1104.50	1083.50	1062.50	1035.00	1027.00	1015.00	1006.00	994.00	983.00	971.00	963.00	956.00	948.00	941.00	934.00	929.00	926.00	924.00	921.50	919.00	917.50	917.00	917.00	916.00	916.00	915.00	915.00	914.50	914.00	914.00	913.00	913.00	913.00	912.50	911.00	910.50	909.50	909.00	909.00	910.00	910.00	911.00	912.50	914.00	915.50	917.00	946.00	989.50	1018.50	1047.50	1096.00	1114.00	1141.00	1159.00	1192.50	1244.00	1297.50	1332.00	1364.50	1359.00	1329.50	1302.00	1285.00	1291.00	1308.50	1333.50	1357.50	1370.50	1386.00	1396.00	1412.00	1428.00	1433.00	1437.00	1441.00	1447.00	1453.00	1459.00	1463.00	1469.50	1471.00	1465.00	1458.00	1454.00	1448.00	1446.00	1443.00	1442.00	1442.00	1444.50	1450.00	1455.00	1457.00	1436.00	1388.00	1356.00	1324.00	1264.00	1240.00	1204.00	1181.00	1149.00	1130.00	1115.50	1106.50	1097.50	1087.00	1080.00	1073.00	1069.00	1062.00	1055.50	1046.00	1037.00	1030.00	1013.00
1709.00	1706.50	1705.50	1704.50	1703.00	1702.00	1699.00	1697.00	1695.00	1693.00	1691.50	1689.50	1688.50	1687.00	1686.00	1686.00	1686.00	1686.00	1686.50	1687.50	1689.00	1690.50	1692.00	1692.00	1692.50	1693.00	1693.00	1693.00	1692.50	1692.00	1690.50	1689.50	1688.00	1684.50	1683.00	1680.00	1677.00	1673.50	1669.00	1665.50	1662.00	1658.50	1654.00	1648.50	1643.00	1640.00	1634.00	1630.00	1622.00	1618.00	1614.00	1607.00	1603.00	1591.00	1584.00	1574.00	1567.50	1559.50	1542.50	1534.00	1521.00	1513.00	1501.00	1493.50	1478.00	1470.50	1464.50	1456.00	1450.00	1438.00	1433.00	1427.00	1422.50	1418.00	1411.50	1411.00	1411.00	1410.00	1410.00	1410.00	1410.00	1410.50	1411.00	1414.00	1420.00	1425.00	1431.00	1434.00	1436.00	1439.00	1442.00	1445.00	1447.00	1448.50	1450.00	1452.00	1454.00	1455.50	1457.00	1459.00	1460.50	1461.00	1462.50	1463.00	1463.50	1466.50	1468.00	1470.00	1472.00	1477.50	1481.00	1489.00	1492.50	1494.00	1495.00	1496.00	1497.00	1493.00	1481.50	1474.50	1467.50	1453.00	1445.00	1433.00	1426.00	1413.50	1401.00	1370.50	1355.50	1340.00	1315.00	1287.50	1261.00	1244.00	1221.00	1209.50	1193.00	1176.50	1164.00	1136.00	1104.50	1083.50	1062.50	1035.00	1027.00	1015.00	1006.00	994.00	983.00	971.00	963.00	956.00	948.00	941.00	934.00	929.00	926.00	924.00	921.50	919.00	917.50	917.00	917.00	916.00	916.00	915.00	915.00	914.50	914.00	914.00	913.00	913.00	913.00	912.50	911.00	910.50	909.50	909.00	909.00	910.00	910.00	911.00	912.50	914.00	915.50	917.00	946.00	989.50	1018.50	1047.50	1096.00	1114.00	1141.00	1159.00	1192.50	1244.00	1297.50	1332.00	1364.50	1359.00	1329.50	1302.00	1285.00	1291.00	1308.50	1333.50	1357.50	1370.50	1386.00	1396.00	1412.00	1428.00	1433.00	1437.00	1441.00	1447.00	1453.00	1459.00	1463.00	1469.50	1471.00	1465.00	1458.00	1454.00	1448.00	1446.00	1443.00	1442.00	1442.00	1444.50	1450.00	1455.00	1457.00	1436.00	1388.00	1356.00	1324.00	1264.00	1240.00	1204.00	1181.00	1149.00	1130.00	1115.50	1106.50	1097.50	1087.00	1080.00	1073.00	1069.00	1062.00	1055.50	1046.00	1037.00	1030.00	1013.00
1709.00	1706.50	1705.50	1704.50	1703.00	1702.00	1699.00	1697.00	1695.00	1693.00	1691.50	1689.50	1688.50	1687.00	1686.00	1686.00	1686.00	1686.00	1686.50	1687.50	1689.00	1690.50	1692.00	1692.00	1692.50	1693.00	1693.00	1693.00	1692.50	1692.00	1690.50	1689.50	1688.00	1684.50	1683.00	1680.00	1677.00	1673.50	1669.00	1665.50	1662.00	1658.50	1654.00	1648.50	1643.00	1640.00	1634.00	1630.00	1622.00	1618.00	1614.00	1607.00	1603.00	1591.00	1584.00	1574.00	1567.50	1559.50	1542.50	1534.00	1521.00	1513.00	1501.00	1493.50	1478.00	1470.50	1464.50	1456.00	1450.00	1438.00	1433.00	1427.00	1422.50	1418.00	1411.50	1411.00	1411.00	1410.00	1410.00	1410.00	1410.00	1410.50	1411.00	1414.00	1420.00	1425.00	1431.00	1434.00	1436.00	1439.00	1442.00	1445.00	1447.00	1448.50	1450.00	1452.00	1454.00	1455.50	1457.00	1459.00	1460.50	1461.00	1462.50	1463.00	1463.50	1466.50	1468.00	1470.00	1472.00	1477.50	1481.00	1489.00	1492.50	1494.00	1495.00	1496.00	1497.00	1493.00	1481.50	1474.50	1467.50	1453.00	1445.00	1433.00	1426.00	1413.50	1401.00	1370.50	1355.50	1340.00	1315.00	1287.50	1261.00	1244.00	1221.00	1209.50	1193.00	1176.50	1164.00	1136.00	1104.50	1083.50	1062.50	1035.00	1027.00	1015.00	1006.00	994.00	983.00	971.00	963.00	956.00	948.00	941.00	934.00	929.00	926.00	924.00	921.50	919.00	917.50	917.00	917.00	916.00	916.00	915.00	915.00	914.50	914.00	914.00	913.00	913.00	913.00	912.50	911.00	910.50	909.50	909.00	909.00	910.00	910.00	911.00	912.50	914.00	915.50	917.00	946.00	989.50	1018.50	1047.50	1096.00	1114.00	1141.00	1159.00	1192.50	1244.00	1297.50	1332.00	1364.50	1359.00	1329.50	1302.00	1285.00	1291.00	1308.50	1333.50	1357.50	1370.50	1386.00	1396.00	1412.00	1428.00	1433.00	1437.00	1441.00	1447.00	1453.00	1459.00	1463.00	1469.50	1471.00	1465.00	1458.00	1454.00	1448.00	1446.00	1443.00	1442.00	1442.00	1444.50	1450.00	1455.00	1457.00	1436.00	1388.00	1356.00	1324.00	1264.00	1240.00	1204.00	1181.00	1149.00	1130.00	1115.50	1106.50	1097.50	1087.00	1080.00	1073.00	1069.00	1062.00	1055.50	1046.00	1037.00	1030.00	1013.00
1704.50	1702.00	1701.25	1700.50	1699.00	1698.00	1695.50	1694.50	1692.75	1691.25	1690.00	1688.00	1687.00	1685.50	1684.50	1684.50	1684.50	1684.00	1684.25	1685.00	1686.50	1687.50	1688.50	1689.00	1689.25	1689.50	1689.50	1689.50	1689.00	1688.50	1687.75	1687.00	1685.75	1682.50	1681.25	1678.50	1676.00	1672.75	1669.00	1665.75	1663.00	1660.25	1656.00	1651.75	1647.50	1644.50	1639.75	1636.50	1629.75	1626.25	1622.50	1616.50	1612.50	1602.50	1596.50	1587.75	1582.25	1575.75	1560.25	1552.25	1540.50	1532.50	1518.75	1509.50	1490.50	1481.00	1473.25	1463.00	1456.00	1442.00	1435.50	1426.75	1420.75	1414.75	1405.75	1405.75	1406.00	1406.00	1406.50	1406.25	1405.25	1405.00	1404.75	1406.50	1411.00	1415.00	1419.50	1422.00	1424.00	1427.00	1430.00	1433.00	1434.50	1436.00	1437.50	1439.50	1441.50	1443.00	1444.50	1446.00	1447.75	1448.50	1450.00	1450.75	1451.75	1454.50	1455.75	1457.50	1459.00	1463.50	1466.50	1473.00	1475.75	1477.00	1476.50	1476.50	1476.00	1472.50	1461.50	1454.50	1447.50	1433.25	1425.50	1414.00	1407.00	1395.00	1383.75	1355.25	1341.00	1326.75	1305.00	1286.50	1268.50	1257.00	1240.50	1229.25	1211.50	1194.25	1181.75	1154.50	1122.25	1101.00	1079.75	1048.75	1039.50	1025.50	1015.50	1001.50	989.00	976.25	967.50	959.25	950.00	941.50	933.50	927.50	923.00	920.75	917.50	914.50	913.00	912.00	912.00	911.00	911.00	910.50	910.50	910.25	910.00	910.00	909.00	909.00	908.50	908.25	907.00	906.75	906.25	906.00	906.00	906.50	907.00	907.50	908.25	908.50	909.25	910.00	932.50	976.50	1005.50	1034.50	1083.75	1098.75	1121.00	1135.50	1160.50	1196.00	1233.25	1257.50	1280.75	1285.00	1270.75	1257.00	1248.50	1251.75	1262.00	1277.00	1291.25	1299.75	1317.00	1330.00	1350.00	1370.50	1378.50	1382.25	1386.00	1392.00	1397.25	1402.50	1406.00	1411.50	1413.50	1410.50	1406.25	1404.00	1400.50	1399.00	1395.50	1394.00	1392.50	1392.25	1391.00	1389.50	1387.50	1369.50	1320.50	1288.00	1255.75	1195.75	1174.25	1145.50	1127.00	1101.25	1086.50	1077.75	1072.25	1067.00	1061.00	1056.00	1051.00	1048.00	1042.00	1036.25	1027.25	1018.50	1011.75	996.50
1700.00	1697.50	1697.00	1696.50	1695.00	1694.00	1692.00	1692.00	1690.50	1689.50	1688.50	1686.50	1685.50	1684.00	1683.00	1683.00	1683.00	1682.00	1682.00	1682.50	1684.00	1684.50	1685.00	1686.00	1686.00	1686.00	1686.00	1686.00	1685.50	1685.00	1685.00	1684.50	1683.50	1680.50	1679.50	1677.00	1675.00	1672.00	1669.00	1666.00	1664.00	1662.00	1658.00	1655.00	1652.00	1649.00	1645.50	1643.00	1637.50	1634.50	1631.00	1626.00	1622.00	1614.00	1609.00	1601.50	1597.00	1592.00	1578.00	1570.50	1560.00	1552.00	1536.50	1525.50	1503.00	1491.50	1482.00	1470.00	1462.00	1446.00	1438.00	1426.50	1419.00	1411.50	1400.00	1400.50	1401.00	1402.00	1403.00	1402.50	1400.50	1399.50	1398.50	1399.00	1402.00	1405.00	1408.00	1410.00	1412.00	1415.00	1418.00	1421.00	1422.00	1423.50	1425.00	1427.00	1429.00	1430.50	1432.00	1433.00	1435.00	1436.00	1437.50	1438.50	1440.00	1442.50	1443.50	1445.00	1446.00	1449.50	1452.00	1457.00	1459.00	1460.00	1458.00	1457.00	1455.00	1452.00	1441.50	1434.50	1427.50	1413.50	1406.00	1395.00	1388.00	1376.50	1366.50	1340.00	1326.50	1313.50	1295.00	1285.50	1276.00	1270.00	1260.00	1249.00	1230.00	1212.00	1199.50	1173.00	1140.00	1118.50	1097.00	1062.50	1052.00	1036.00	1025.00	1009.00	995.00	981.50	972.00	962.50	952.00	942.00	933.00	926.00	920.00	917.50	913.50	910.00	908.50	907.00	907.00	906.00	906.00	906.00	906.00	906.00	906.00	906.00	905.00	905.00	904.00	904.00	903.00	903.00	903.00	903.00	903.00	903.00	904.00	904.00	904.00	903.00	903.00	903.00	919.00	963.50	992.50	1021.50	1071.50	1083.50	1101.00	1112.00	1128.50	1148.00	1169.00	1183.00	1197.00	1211.00	1212.00	1212.00	1212.00	1212.50	1215.50	1220.50	1225.00	1229.00	1248.00	1264.00	1288.00	1313.00	1324.00	1327.50	1331.00	1337.00	1341.50	1346.00	1349.00	1353.50	1356.00	1356.00	1354.50	1354.00	1353.00	1352.00	1348.00	1346.00	1343.00	1340.00	1332.00	1324.00	1318.00	1303.00	1253.00	1220.00	1187.50	1127.50	1108.50	1087.00	1073.00	1053.50	1043.00	1040.00	1038.00	1036.50	1035.00	1032.00	1029.00	1027.00	1022.00	1017.00	1008.50	1000.00	993.50	980.00
1700.00	1697.50	1697.00	1696.50	1695.00	1694.00	1692.00	1692.00	1690.50	1689.50	1688.50	1686.50	1685.50	1684.00	1683.00	1683.00	1683.00	1682.00	1682.00	1682.50	1684.00	1684.50	1685.00	1686.00	1686.00	1686.00	1686.00	1686.00	1685.50	1685.00	1685.00	1684.50	1683.50	1680.50	1679.50	1677.00	1675.00	1672.00	1669.00	1666.00	1664.00	1662.00	1658.00	1655.00	1652.00	1649.00	1645.50	1643.00	1637.50	1634.50	1631.00	1626.00	1622.00	1614.00	1609.00	1601.50	1597.00	1592.00	1578.00	1570.50	1560.00	1552.00	1536.50	1525.50	1503.00	1491.50	1482.00	1470.00	1462.00	1446.00	1438.00	1426.50	1419.00	1411.50	1400.00	1400.50	1401.00	1402.00	1403.00	1402.50	1400.50	1399.50	1398.50	1399.00	1402.00	1405.00	1408.00	1410.00	1412.00	1415.00	1418.00	1421.00	1422.00	1423.50	1425.00	1427.00	1429.00	1430.50	1432.00	1433.00	1435.00	1436.00	1437.50	1438.50	1440.00	1442.50	1443.50	1445.00	1446.00	1449.50	1452.00	1457.00	1459.00	1460.00	1458.00	1457.00	1455.00	1452.00	1441.50	1434.50	1427.50	1413.50	1406.00	1395.00	1388.00	1376.50	1366.50	1340.00	1326.50	1313.50	1295.00	1285.50	1276.00	1270.00	1260.00	1249.00	1230.00	1212.00	1199.50	1173.00	1140.00	1118.50	1097.00	1062.50	1052.00	1036.00	1025.00	1009.00	995.00	981.50	972.00	962.50	952.00	942.00	933.00	926.00	920.00	917.50	913.50	910.00	908.50	907.00	907.00	906.00	906.00	906.00	906.00	906.00	906.00	906.00	905.00	905.00	904.00	904.00	903.00	903.00	903.00	903.00	903.00	903.00	904.00	904.00	904.00	903.00	903.00	903.00	919.00	963.50	992.50	1021.50	1071.50	1083.50	1101.00	1112.00	1128.50	1148.00	1169.00	1183.00	1197.00	1211.00	1212.00	1212.00	1212.00	1212.50	1215.50	1220.50	1225.00	1229.00	1248.00	1264.00	1288.00	1313.00	1324.00	1327.50	1331.00	1337.00	1341.50	1346.00	1349.00	1353.50	1356.00	1356.00	1354.50	1354.00	1353.00	1352.00	1348.00	1346.00	1343.00	1340.00	1332.00	1324.00	1318.00	1303.00	1253.00	1220.00	1187.50	1127.50	1108.50	1087.00	1073.00	1053.50	1043.00	1040.00	1038.00	1036.50	1035.00	1032.00	1029.00	1027.00	1022.00	1017.00	1008.50	1000.00	993.50	980.00
1700.00	1697.50	1697.00	1696.50	1695.00	1694.00	1692.00	1692.00	1690.50	1689.50	1688.50	1686.50	1685.50	1684.00	1683.00	1683.00	1683.00	1682.00	1682.00	1682.50	1684.00	1684.50	1685.00	1686.00	1686.00	1686.00	1686.00	1686.00	1685.50	1685.00	1685.00	1684.50	1683.50	1680.50	1679.50	1677.00	1675.00	1672.00	1669.00	1666.00	1664.00	1662.00	1658.00	1655.00	1652.00	1649.00	1645.50	1643.00	1637.50	1634.50	1631.00	1626.00	1622.00	1614.00	1609.00	1601.50	1597.00	1592.00	1578.00	1570.50	1560.00	1552.00	1536.50	1525.50	1503.00	1491.50	1482.00	1470.00	1462.00	1446.00	1438.00	1426.50	1419.00	1411.50	1400.00	1400.50	1401.00	1402.00	1403.00	1402.50	1400.50	1399.50	1398.50	1399.00	1402.00	1405.00	1408.00	1410.00	1412.00	1415.00	1418.00	1421.00	1422.00	1423.50	1425.00	1427.00	1429.00	1430.50	1432.00	1433.00	1435.00	1436.00	1437.50	1438.50	1440.00	1442.50	1443.50	1445.00	1446.00	1449.50	1452.00	1457.00	1459.00	1460.00	1458.00	1457.00	1455.00	1452.00	1441.50	1434.50	1427.50	1413.50	1406.00	1395.00	1388.00	1376.50	1366.50	1340.00	1326.50	1313.50	1295.00	1285.50	1276.00	1270.00	1260.00	1249.00	1230.00	1212.00	1199.50	1173.00	1140.00	1118.50	1097.00	1062.50	1052.00	1036.00	1025.00	1009.00	995.00	981.50	972.00	962.50	952.00	942.00	933.00	926.00	920.00	917.50	913.50	910.00	908.50	907.00	907.00	906.00	906.00	906.00	906.00	906.00	906.00	906.00	905.00	905.00	904.00	904.00	903.00	903.00	903.00	903.00	903.00	903.00	904.00	904.00	904.00	903.00	903.00	903.00	919.00	963.50	992.50	1021.50	1071.50	1083.50	1101.00	1112.00	1128.50	1148.00	1169.00	1183.00	1197.00	1211.00	1212.00	1212.00	1212.00	1212.50	1215.50	1220.50	1225.00	1229.00	1248.00	1264.00	1288.00	1313.00	1324.00	1327.50	1331.00	1337.00	1341.50	1346.00	1349.00	1353.50	1356.00	1356.00	1354.50	1354.00	1353.00	1352.00	1348.00	1346.00	1343.00	1340.00	1332.00	1324.00	1318.00	1303.00	1253.00	1220.00	1187.50	1127.50	1108.50	1087.00	1073.00	1053.50	1043.00	1040.00	1038.00	1036.50	1035.00	1032.00	1029.00	1027.00	1022.00	1017.00	1008.50	1000.00	993.50	980.00
1696.00	1693.00	1692.50	1692.00	1690.50	1689.50	1688.00	1688.00	1686.75	1686.25	1685.50	1684.00	1683.25	1682.00	1681.50	1681.25	1681.00	1680.50	1680.50	1681.00	1682.00	1682.75	1683.50	1684.00	1683.50	1683.50	1683.00	1683.00	1682.50	1682.00	1681.50	1681.00	1680.00	1677.50	1676.50	1675.00	1673.00	1670.50	1668.00	1665.25	1663.50	1661.75	1659.00	1656.25	1653.50	1651.50	1648.50	1646.75	1642.25	1639.75	1636.75	1632.00	1629.00	1621.50	1616.50	1609.00	1604.25	1599.25	1586.50	1579.75	1570.00	1563.50	1549.00	1538.25	1516.75	1505.75	1496.00	1482.50	1473.00	1454.50	1445.50	1434.50	1427.50	1420.50	1408.25	1406.50	1404.50	1403.50	1401.50	1399.50	1395.50	1393.50	1391.50	1390.00	1392.25	1394.50	1396.75	1398.50	1400.25	1403.00	1406.00	1408.50	1410.00	1411.75	1413.25	1415.25	1417.25	1418.50	1419.50	1420.50	1422.25	1423.50	1425.25	1426.50	1427.75	1430.00	1431.00	1432.50	1434.00	1436.75	1439.00	1443.50	1445.50	1446.25	1444.00	1442.00	1437.50	1434.50	1424.50	1417.75	1411.00	1397.75	1392.00	1385.50	1381.50	1374.75	1368.50	1348.75	1338.50	1328.50	1314.00	1302.50	1291.00	1283.50	1271.25	1260.50	1242.50	1225.25	1213.50	1190.50	1161.50	1142.50	1123.50	1089.75	1076.50	1056.50	1043.00	1023.25	1007.00	992.00	981.75	971.25	958.00	947.25	936.50	929.00	920.75	917.25	912.25	907.50	904.75	902.50	902.00	900.75	900.00	899.75	900.00	900.00	900.50	900.50	900.00	900.00	899.50	899.50	899.00	898.75	898.50	898.50	898.25	898.50	899.00	899.00	899.00	898.50	898.25	898.00	907.50	947.75	974.00	1000.00	1046.25	1058.25	1072.50	1081.50	1095.50	1115.00	1139.75	1156.25	1173.00	1193.00	1188.50	1183.50	1181.00	1178.25	1181.25	1188.75	1196.50	1202.50	1221.00	1236.50	1259.00	1281.50	1292.50	1294.25	1295.75	1298.50	1300.25	1302.50	1304.50	1307.00	1308.50	1308.00	1306.25	1305.25	1303.50	1302.00	1299.00	1297.00	1294.75	1292.25	1284.00	1275.25	1268.75	1256.00	1210.25	1177.25	1144.50	1082.25	1064.25	1052.50	1045.50	1035.75	1031.50	1033.25	1034.25	1035.25	1037.00	1031.00	1023.50	1018.50	1010.50	1004.00	993.50	983.00	975.75	963.50
