92.75	92.75	93.75	94.25	107.00	112.25	111.25	113.50	118.00	121.75	128.50	119.75	108.00	93.75	90.25	87.25	87.25	85.00	82.75	83.75	82.00	80.25	81.75	80.25	80.50	84.25	84.25	83.50	78.00	73.75	73.25	70.00	69.50	67.00	60.00	54.25	55.00	59.50	70.00	77.50	84.50	86.25	88.75	88.75	84.50	79.75	81.50	82.50	78.25	76.50	80.75	67.75	73.00	77.50	78.50	86.50	84.50	79.75	82.75	85.50	85.75	86.75	82.50	83.25	92.75	88.50	85.25	83.50	79.75	84.00	86.75	82.25	74.00	71.25	69.25	74.00	81.50	85.50	99.50	102.25	101.00	102.25	108.50	117.50	113.75	109.50	101.50	87.75	77.00	76.25	75.50	74.75	72.50	70.25	68.25	63.50	70.00	72.25	72.25	74.75	80.75	90.25	83.25	89.50	108.25	91.50	86.75	71.75	65.50	63.50	64.50	61.00	63.00	61.00	64.00	64.75	64.25	64.25	61.75	61.25	63.00	65.00	66.50	64.00	63.25	67.00	69.00	71.75	71.50	70.25	70.00	73.75	71.50	73.00	74.50	79.25	89.50	91.50	89.25	89.25	88.00	85.75	86.00	87.00	86.50	76.25	76.50	81.00	89.50	84.50	69.50	58.00	74.75	80.00	77.75	78.50	68.75	73.25	77.00	74.25	76.75	66.25	64.50	62.75	60.50	60.50	55.25	55.00	53.75	49.75	51.00	51.75	48.75	44.50	45.00	48.50	50.50	50.25	48.50	48.25	48.00	49.25	46.75	51.50	59.25	57.25	52.50	50.00	45.50	41.00	41.25	43.25	43.00	20.00	24.00	38.00	49.00	42.50	35.25	31.75	43.00	52.25	60.00	59.50	56.25	48.25	46.00	44.50	47.00	47.25	49.25	48.75	53.50	47.25	38.00	35.00	34.50	30.75	19.75	32.25	33.25	23.50	12.25	13.00	13.00	12.50	12.75	15.75	12.75	12.50	14.50	13.75	21.25	27.25	19.75	14.75	15.50	13.75	13.50	12.25	13.50	14.50	14.25	13.25	14.25	14.00	15.00	14.50	14.00	15.25	14.50	14.50	16.00	22.75	31.50	39.50
95.75	97.00	98.25	99.50	114.00	119.75	117.50	114.50	111.25	114.25	121.00	117.25	106.50	93.50	90.75	89.50	90.50	88.75	86.75	86.00	81.50	77.75	80.00	81.50	85.25	87.75	86.50	84.00	79.50	77.75	76.00	78.25	79.50	73.25	65.50	60.50	62.00	65.25	73.00	80.50	82.25	80.50	81.00	81.00	80.75	79.75	80.50	79.75	77.00	73.50	78.00	65.50	72.00	75.00	76.25	83.00	84.25	82.75	86.00	87.25	87.50	88.50	88.25	94.75	96.75	90.00	88.50	85.75	85.25	90.50	92.25	86.50	77.00	76.75	72.75	75.25	81.75	88.50	102.00	107.25	107.00	108.00	107.50	119.00	112.75	110.50	103.00	88.25	77.75	78.75	78.25	75.75	73.75	68.50	67.00	65.25	73.75	77.50	72.50	77.25	83.25	89.00	86.75	91.00	108.75	92.50	91.50	77.75	70.25	66.25	66.00	63.00	66.50	64.75	64.00	66.00	66.25	66.00	63.25	62.50	60.25	62.50	64.00	66.25	67.25	70.25	72.00	72.75	73.50	72.50	71.75	74.75	75.25	76.50	73.50	76.75	86.75	88.00	86.00	87.25	89.25	86.50	86.00	87.50	88.25	81.25	78.50	80.00	85.25	87.75	76.00	69.50	82.50	83.00	84.25	83.75	71.50	71.75	77.50	77.00	76.00	62.50	62.50	58.50	58.75	58.00	55.00	52.50	51.00	47.00	46.25	48.25	45.25	41.75	40.50	43.25	45.00	45.75	44.25	43.50	46.50	48.75	46.25	47.00	51.50	55.50	50.00	52.50	48.00	46.50	48.25	41.75	47.00	38.00	28.25	26.00	29.75	29.25	35.00	48.75	48.25	46.75	55.50	58.50	58.25	53.00	48.00	47.75	54.50	55.50	57.00	51.75	54.75	52.75	43.25	36.50	35.75	34.00	23.50	29.50	32.50	22.50	12.50	12.75	12.75	13.00	12.75	13.00	11.75	12.75	14.00	14.25	23.00	33.75	25.50	15.75	15.00	14.25	13.00	12.75	13.50	13.50	14.25	13.75	14.25	14.00	15.25	14.50	14.25	13.50	14.25	16.50	19.75	26.75	31.75	39.50
102.00	102.75	107.00	110.50	118.50	121.75	121.25	116.75	108.25	107.25	111.00	111.75	103.00	93.00	87.25	87.00	91.25	94.25	90.75	87.25	81.50	78.00	83.75	87.00	88.75	90.25	88.50	85.25	82.25	80.75	78.50	80.00	81.00	78.00	73.00	61.25	58.00	67.25	76.75	85.00	85.50	82.50	77.00	75.75	76.25	76.25	77.25	76.50	75.00	71.75	74.00	64.25	67.25	71.50	73.50	76.75	73.50	76.25	92.25	94.25	92.25	89.75	88.00	97.50	95.50	92.25	91.75	88.75	90.00	91.50	89.25	85.50	77.50	80.25	78.25	81.00	85.00	91.25	105.00	112.25	112.75	110.25	116.25	121.25	112.00	109.75	102.50	87.75	80.50	81.00	82.75	79.25	77.75	68.25	68.00	69.50	74.25	79.00	75.50	79.00	84.50	87.50	91.50	95.25	109.25	93.25	90.75	85.00	74.75	70.00	70.50	66.75	68.50	70.00	65.75	67.75	67.75	66.75	65.25	64.75	60.25	61.25	62.25	65.50	67.25	71.50	72.50	73.75	75.75	76.25	75.25	78.25	79.00	77.75	73.75	76.00	82.50	84.50	86.75	87.75	88.25	87.00	86.50	86.75	87.50	83.50	81.00	81.50	79.75	84.00	86.00	80.00	80.00	83.00	90.75	86.00	73.50	69.00	71.00	72.50	71.00	61.25	60.75	61.00	58.00	57.75	51.50	46.75	49.75	48.00	42.75	43.00	44.00	43.00	42.25	39.75	39.25	39.50	39.75	37.25	39.00	44.25	42.75	39.75	44.75	54.00	52.25	55.25	55.00	57.00	60.50	52.00	45.00	48.50	46.50	32.50	22.25	22.75	36.00	49.75	47.50	44.00	47.50	55.25	61.50	63.50	55.25	50.75	53.25	53.50	54.25	51.00	58.00	57.50	52.25	40.25	38.50	36.50	33.25	25.75	24.75	19.50	12.50	12.25	12.50	14.25	19.50	17.00	12.00	12.50	15.25	22.00	28.50	31.00	24.00	15.00	13.75	13.00	12.25	13.25	15.00	15.25	15.00	13.50	14.25	13.50	14.50	14.25	15.50	15.75	17.50	22.25	27.00	30.50	35.50	40.25
105.00	107.00	118.00	124.50	124.50	119.50	116.50	111.50	111.50	106.00	108.50	115.00	104.50	91.00	85.50	82.00	86.50	90.50	89.00	88.00	86.00	83.50	88.50	92.50	91.00	92.00	90.00	88.00	88.50	85.50	83.00	82.50	82.00	81.50	77.50	64.50	56.00	65.00	74.50	85.00	88.00	85.00	79.50	77.50	74.50	73.50	74.50	73.00	72.50	67.00	71.00	70.50	65.00	73.50	72.00	66.00	70.50	63.50	77.00	87.50	101.50	97.00	90.00	90.00	93.00	95.50	95.50	91.50	90.00	88.50	86.00	82.50	80.00	82.50	83.00	84.50	88.00	94.00	106.00	113.00	114.50	113.00	123.50	112.50	109.00	103.50	94.50	86.00	82.50	79.00	81.50	79.50	77.50	75.50	80.50	86.00	82.00	83.00	77.50	81.50	87.00	88.00	89.00	97.50	103.00	94.50	86.00	86.50	79.50	73.00	72.00	71.00	70.00	69.50	72.50	71.50	71.00	70.50	70.50	67.50	65.00	60.50	64.50	63.00	67.00	69.50	72.00	76.50	79.50	80.00	78.50	79.50	76.00	75.50	77.00	74.50	79.00	82.50	82.50	83.50	89.00	89.50	86.00	86.00	86.00	81.50	82.50	81.50	74.50	76.50	95.50	89.50	86.00	88.50	82.50	81.50	74.50	64.50	62.50	65.00	67.00	65.00	64.00	71.50	59.50	53.00	44.00	47.00	46.00	41.50	43.00	42.50	41.00	41.00	40.50	39.00	38.50	36.50	33.50	35.50	35.50	27.50	30.50	38.50	43.00	48.00	53.00	50.00	49.50	50.50	47.00	53.00	50.00	52.50	52.00	43.50	36.00	35.00	33.50	30.50	44.50	39.50	40.00	46.50	54.50	64.00	69.00	68.50	50.50	50.50	39.50	36.00	52.00	63.00	59.50	48.00	39.00	37.50	37.50	40.00	39.00	23.00	12.00	12.50	13.00	13.00	17.50	21.00	15.00	13.00	14.00	23.50	27.00	18.00	15.50	14.00	14.00	13.50	12.00	14.50	17.50	19.00	19.50	17.00	14.00	14.00	14.00	14.00	15.50	17.00	25.00	33.50	36.00	38.00	41.50	44.00
108.75	108.00	117.25	119.25	120.75	123.75	116.50	110.00	109.25	108.00	105.00	103.75	98.00	90.00	87.50	82.50	87.75	85.25	81.25	86.00	89.25	87.25	90.75	92.50	94.50	95.00	94.75	93.25	91.25	88.00	86.00	84.00	84.25	83.00	81.25	75.50	69.75	73.75	83.00	91.50	95.50	89.75	82.50	79.50	78.50	79.00	77.25	73.50	73.50	75.00	77.25	74.25	69.50	70.25	71.25	69.25	68.25	72.00	69.75	70.25	73.50	78.00	87.00	86.25	79.25	83.25	93.75	95.00	92.00	86.75	84.75	82.50	81.50	81.50	81.25	82.50	83.00	88.00	98.00	102.75	107.75	114.50	116.25	105.50	99.75	101.25	97.75	89.00	82.25	77.25	78.75	77.25	75.25	74.50	75.25	79.25	86.00	87.50	83.75	84.50	88.75	90.75	90.00	88.50	85.25	88.50	92.00	87.50	85.50	79.25	76.00	75.75	73.25	72.25	74.50	75.25	77.25	76.25	75.75	71.75	66.50	63.50	64.50	66.00	69.50	76.25	76.00	77.75	79.00	79.25	77.75	78.50	81.00	78.00	80.00	76.25	78.00	79.75	80.00	81.50	88.25	87.50	82.25	77.50	76.75	80.00	82.25	81.00	82.00	80.50	82.75	75.25	80.25	85.75	80.75	76.50	73.00	66.50	69.50	65.25	64.50	62.50	59.00	64.00	53.25	48.00	46.75	45.75	45.75	47.75	46.25	41.50	39.00	39.25	39.50	38.50	37.50	37.00	37.00	31.25	28.50	29.50	27.25	32.75	34.00	35.75	38.00	44.50	46.25	44.25	45.50	43.75	41.50	37.75	34.00	36.00	35.50	31.25	25.75	33.75	47.25	39.75	37.25	38.25	40.00	41.25	59.75	65.50	46.50	39.50	28.00	28.00	33.50	58.00	59.75	59.00	49.50	39.00	39.00	38.75	39.50	25.75	12.00	12.25	12.50	12.75	13.00	13.50	14.50	13.25	12.50	14.25	14.00	14.00	14.50	14.25	15.00	16.00	14.75	15.75	18.50	17.50	16.50	17.25	14.00	13.50	14.00	15.00	18.00	21.00	23.50	31.00	36.00	38.50	43.75	48.75
109.00	109.00	116.25	116.25	115.00	117.75	119.25	117.50	111.25	103.00	104.00	103.00	100.00	91.75	89.75	87.50	89.00	83.50	81.50	87.00	89.00	88.75	92.25	91.00	94.25	95.50	96.00	94.00	91.50	88.25	87.50	85.25	85.75	84.50	82.50	79.50	76.75	80.50	89.75	96.25	100.75	96.25	86.50	82.25	80.25	81.50	80.00	78.25	76.75	78.25	78.75	76.25	72.25	70.50	75.00	72.00	68.25	71.00	69.00	68.25	65.50	72.75	82.25	84.75	73.75	72.00	85.00	93.50	94.00	89.50	86.00	85.25	83.00	82.00	80.75	83.50	78.00	83.25	93.00	96.00	104.00	112.50	107.00	97.00	96.50	99.50	97.00	87.75	81.25	75.25	78.25	76.50	75.50	79.25	77.00	78.00	89.25	89.50	86.00	87.75	90.75	92.00	92.75	88.00	85.25	93.50	94.00	91.25	90.75	82.00	78.75	76.50	74.00	74.50	74.50	79.00	80.50	79.75	77.00	73.25	68.75	68.00	67.75	69.50	70.00	78.50	78.75	78.25	78.75	77.00	72.00	79.50	80.75	79.25	81.75	76.75	77.50	79.00	79.25	81.00	88.25	85.50	80.50	78.50	78.75	79.75	78.75	78.00	81.00	82.00	76.75	69.75	76.25	83.00	82.75	75.75	72.00	66.00	72.25	73.50	68.50	61.50	58.75	58.75	50.50	48.75	44.25	43.00	44.00	45.25	45.50	43.00	36.25	38.50	39.00	36.75	34.75	33.00	32.25	29.50	28.00	33.75	26.50	29.25	27.50	31.75	36.00	38.00	42.00	40.00	40.75	35.75	32.25	30.50	30.00	36.00	36.25	27.00	31.75	38.50	38.75	36.50	35.00	36.00	37.00	36.50	49.00	58.00	46.00	40.00	30.00	28.00	30.75	52.00	55.25	52.25	46.75	39.25	38.25	38.25	39.00	25.50	12.25	13.00	14.00	13.00	12.50	12.25	12.50	13.00	13.00	14.50	13.50	14.25	15.25	15.25	15.50	15.50	14.75	14.75	17.00	15.50	14.50	15.50	17.25	13.50	13.75	15.00	18.75	21.75	23.75	30.50	36.50	41.25	43.50	51.25
111.25	110.25	114.25	113.00	110.50	112.75	122.00	121.75	110.00	100.75	103.25	107.25	103.50	95.25	92.50	89.25	90.50	86.75	86.50	90.25	90.25	91.75	95.00	93.25	96.00	96.50	97.00	94.00	90.50	88.00	87.75	87.25	87.25	86.25	85.25	81.50	79.25	84.50	92.75	98.25	101.75	97.50	94.25	87.25	80.50	81.00	80.25	80.00	80.25	80.50	78.75	76.75	74.00	71.25	74.00	73.50	69.50	69.00	71.50	68.00	65.50	72.50	78.25	83.25	78.25	71.75	74.25	88.50	91.50	93.75	91.75	87.50	87.00	82.00	78.25	81.00	74.75	75.75	83.00	88.50	99.00	102.00	96.25	92.50	93.50	95.00	90.50	85.50	82.75	75.25	75.75	75.50	78.00	83.00	80.25	84.00	95.25	92.75	87.00	88.00	90.25	89.00	93.00	94.25	94.00	98.25	95.75	97.50	98.25	87.75	82.75	79.75	75.50	74.75	76.50	82.25	81.50	79.75	79.25	76.00	72.00	73.00	71.25	74.50	73.00	82.50	82.25	78.25	77.25	74.75	64.75	81.50	82.75	81.50	80.25	77.50	77.25	77.75	78.75	81.25	88.00	83.50	79.25	77.75	77.75	78.25	76.25	74.25	76.00	80.75	75.50	67.75	68.75	76.25	79.50	73.25	67.50	67.50	74.50	81.25	73.50	58.50	57.25	54.50	49.25	51.00	46.25	43.75	46.25	46.25	43.75	44.50	39.50	39.00	39.25	34.75	36.50	34.00	30.50	26.25	26.75	37.75	23.00	22.75	23.50	27.00	28.00	30.50	34.75	34.25	33.00	31.50	31.25	29.00	26.25	27.75	27.00	26.50	39.75	33.75	31.25	32.00	32.25	35.75	37.75	38.25	45.00	51.00	46.25	43.25	35.75	30.75	33.25	50.50	54.00	43.50	37.50	34.50	36.25	38.50	38.75	25.75	13.75	15.75	15.50	14.75	12.25	12.00	12.00	13.00	13.25	14.25	13.75	14.25	14.25	14.75	14.75	14.00	14.00	14.00	16.75	15.00	14.25	16.00	20.00	14.00	14.25	15.50	18.50	22.25	25.25	29.75	33.50	40.25	41.25	50.25
113.25	111.75	112.25	112.25	111.50	114.75	121.00	119.50	108.00	103.50	103.00	108.00	101.75	94.25	93.00	88.00	92.00	89.75	89.50	92.00	93.25	93.75	97.25	96.25	98.25	98.25	97.75	94.25	92.00	90.00	87.75	87.50	88.00	87.25	86.75	82.75	80.75	86.25	93.50	99.00	100.25	96.75	97.00	92.50	86.00	85.50	80.75	79.25	81.50	82.00	78.25	76.75	76.75	75.00	72.50	73.00	70.50	69.50	71.50	69.25	72.25	76.75	82.25	88.00	83.75	79.00	75.00	80.00	83.75	92.00	96.25	90.00	89.25	82.75	79.25	77.00	80.50	75.75	78.00	87.25	94.50	84.75	86.50	89.25	92.25	92.75	85.25	84.50	84.50	77.50	78.75	76.50	77.50	81.75	83.00	91.75	101.25	97.75	88.25	86.25	89.25	85.75	89.50	93.50	97.50	101.50	99.75	102.25	101.50	93.75	85.25	81.50	75.75	73.75	78.25	82.00	78.50	69.75	80.00	79.75	77.00	76.50	75.00	78.50	77.50	81.75	82.75	78.00	77.00	77.50	70.75	83.50	84.50	83.75	80.50	78.75	78.00	78.50	79.50	80.25	87.25	84.25	80.75	76.75	76.25	75.75	72.00	70.50	75.00	78.50	71.50	66.50	62.75	70.75	67.75	64.25	64.00	68.00	74.75	81.50	75.00	58.00	56.25	55.25	53.75	49.75	49.75	45.25	48.50	47.50	41.50	43.25	42.50	41.50	37.50	33.75	37.75	37.50	35.50	24.75	24.25	38.25	21.25	21.75	22.50	23.25	23.75	27.25	37.25	35.00	30.75	31.00	30.75	27.50	23.00	22.25	16.25	26.50	31.25	29.00	29.75	29.50	29.25	34.75	39.75	40.00	41.50	45.50	46.25	44.25	40.25	37.00	38.50	51.25	53.25	40.25	33.00	28.00	30.50	38.25	38.00	25.75	14.75	17.75	16.00	15.25	12.25	12.00	12.50	13.00	12.75	14.00	14.00	14.00	13.75	14.50	15.25	14.00	14.00	14.25	16.25	15.50	15.50	16.00	17.75	14.25	15.75	16.00	18.00	22.25	25.75	27.50	29.50	36.75	39.00	48.25
110.75	110.50	110.00	111.00	111.50	114.00	116.00	115.75	109.75	103.50	100.25	99.25	100.50	100.50	96.75	89.25	94.25	94.00	93.00	94.75	96.25	95.00	100.00	98.75	98.50	99.25	98.50	95.50	94.00	92.50	89.25	88.25	88.50	87.00	85.50	82.50	81.25	87.00	94.50	99.75	99.25	97.25	97.25	97.00	94.25	92.00	85.25	81.25	81.25	82.50	79.25	77.25	79.00	77.75	75.00	73.00	72.25	71.50	69.50	71.50	79.00	85.25	87.25	93.75	87.75	87.00	83.50	73.25	75.75	87.75	93.50	90.50	89.25	83.25	83.00	81.25	82.50	83.25	83.25	89.75	86.00	73.00	76.75	79.50	89.50	92.00	89.25	87.75	85.75	82.25	85.00	80.50	78.00	83.25	86.00	93.50	101.25	99.75	90.25	87.25	90.75	94.25	95.00	91.75	97.50	101.50	102.00	101.50	98.50	93.00	85.00	82.25	79.75	75.50	78.25	74.75	75.25	68.25	80.00	81.00	80.25	79.00	77.00	80.00	81.50	78.25	80.75	78.00	73.25	78.50	79.00	86.00	85.75	84.75	83.00	82.50	82.00	81.75	84.50	82.75	86.00	85.25	82.25	77.50	77.25	73.75	70.50	69.50	76.00	79.00	66.50	67.00	60.75	66.00	59.50	56.75	62.00	67.25	69.75	71.00	70.75	60.00	55.75	56.50	57.75	47.25	50.75	46.75	48.25	48.25	43.50	43.50	42.00	42.25	40.25	39.25	37.75	38.00	39.00	27.00	24.00	34.50	21.50	22.75	22.75	22.00	22.25	29.75	44.00	39.00	30.75	35.75	28.50	23.00	24.25	28.75	23.75	23.50	22.50	22.50	25.00	29.50	30.50	31.25	37.25	36.75	36.00	39.50	43.50	41.25	38.50	37.00	38.50	45.00	45.50	43.00	34.00	25.00	26.25	36.25	36.50	24.75	14.00	16.50	15.75	14.25	12.25	12.00	12.75	12.50	12.50	14.00	14.00	14.25	14.25	15.50	16.00	14.00	14.00	14.50	14.75	15.00	15.75	15.50	16.00	14.50	17.00	17.00	18.00	21.50	23.75	25.00	29.25	37.00	40.75	47.75
110.00	110.50	108.00	108.50	105.50	107.00	110.50	113.00	113.50	106.50	106.50	106.00	102.00	105.50	102.50	98.50	97.00	101.00	101.00	102.50	101.00	101.00	104.50	102.50	99.50	98.00	96.50	95.50	93.50	93.50	91.50	92.50	91.50	89.00	87.50	84.00	81.50	87.00	91.00	96.50	103.50	105.00	103.00	101.00	97.50	97.50	96.00	89.00	85.00	84.00	81.50	80.00	79.00	80.50	75.50	74.00	74.00	75.00	72.50	77.00	100.50	106.00	93.00	101.00	101.00	89.00	88.50	71.00	71.00	75.50	88.00	87.00	85.50	83.00	83.00	83.50	81.00	86.00	71.50	71.00	71.00	71.00	71.00	71.00	76.50	89.00	95.00	96.00	90.50	88.00	90.50	85.50	82.00	85.50	89.50	92.50	97.50	99.00	95.50	95.00	102.00	115.50	92.00	91.50	99.00	99.00	101.50	98.50	96.00	91.00	86.50	83.00	82.50	80.00	71.00	62.50	74.50	79.50	80.50	80.50	79.50	79.00	76.50	78.50	82.50	81.50	76.00	77.50	60.50	68.50	79.50	83.50	86.00	85.50	85.00	88.50	90.50	90.00	89.50	86.50	86.00	80.00	78.50	77.50	77.00	74.50	74.00	73.00	72.00	76.00	66.50	64.00	61.50	55.00	65.00	59.00	57.00	61.00	61.00	55.00	61.00	44.00	44.50	50.00	50.50	46.50	48.50	52.50	53.50	51.00	46.50	46.50	44.00	41.50	45.00	45.50	46.50	39.50	47.50	43.00	30.50	33.00	26.50	24.00	23.00	25.00	28.50	27.50	30.00	27.00	19.00	27.00	25.00	20.00	26.00	31.00	39.00	37.50	34.00	32.50	30.50	22.50	33.00	33.00	30.50	30.00	27.50	31.00	33.50	29.00	26.50	29.00	30.00	33.50	46.00	48.00	35.50	26.50	30.50	37.00	37.00	24.50	12.00	14.00	14.00	14.00	12.00	12.00	13.00	13.50	15.00	19.50	26.00	29.00	26.00	17.50	15.50	14.00	13.00	16.00	17.00	19.50	17.50	18.00	18.50	17.00	16.00	17.00	16.50	20.50	25.50	24.50	34.50	44.00	45.50	48.50
115.75	115.00	110.00	115.25	107.75	105.25	107.75	109.75	109.50	111.50	108.25	103.25	103.00	103.50	101.50	99.00	95.25	97.25	98.00	103.50	103.50	102.75	108.25	109.25	108.00	104.75	101.00	97.50	95.25	93.50	92.50	94.00	92.50	90.50	87.75	84.75	82.50	89.75	95.75	101.25	106.00	104.75	104.75	103.00	100.75	99.75	100.25	95.25	90.75	87.00	81.50	79.00	78.75	79.00	78.00	77.00	75.50	75.25	79.00	79.25	96.50	85.00	86.75	91.50	95.25	96.50	100.25	88.75	87.50	86.75	90.75	94.00	93.50	90.50	91.00	89.25	82.50	81.25	71.50	71.25	79.50	86.25	81.50	77.50	79.50	90.75	98.00	101.25	94.00	90.00	93.00	90.75	84.50	86.75	87.00	92.50	94.00	95.25	90.75	86.00	94.00	102.25	86.75	94.75	99.25	99.00	98.25	95.25	92.00	90.00	87.75	84.50	82.25	79.50	83.25	81.50	83.00	72.75	69.50	69.25	76.50	76.25	77.50	79.50	80.25	78.75	82.50	84.75	82.75	76.75	81.50	86.75	87.00	89.50	90.00	91.00	88.25	86.00	84.50	82.50	80.25	76.25	75.50	74.25	72.25	72.25	73.75	74.25	74.00	70.50	66.75	57.75	58.25	58.00	62.75	60.75	58.25	56.25	57.25	52.00	46.25	45.75	44.00	43.00	42.00	41.25	47.75	53.00	54.00	51.25	47.00	47.00	47.75	42.75	44.75	47.25	42.25	35.00	46.25	51.75	34.25	28.25	27.50	26.25	26.25	31.25	31.75	29.75	32.75	31.50	29.75	28.75	23.25	19.00	22.50	29.75	33.00	33.75	25.75	25.00	28.75	31.75	23.50	24.75	26.75	24.25	22.50	22.75	24.50	28.75	27.25	25.50	26.00	28.25	35.25	31.50	28.50	29.75	30.75	32.50	32.50	23.50	14.00	14.25	14.75	12.50	12.00	13.25	17.25	21.25	31.00	42.50	49.75	49.75	41.25	29.25	25.00	23.75	24.50	24.00	19.75	18.75	18.25	19.00	21.25	24.00	24.50	25.00	26.50	31.00	33.50	30.75	36.25	44.75	44.25	42.75
117.00	114.75	112.00	114.25	105.50	105.50	107.50	110.25	108.75	106.00	103.00	100.50	101.00	99.75	100.75	101.75	94.75	94.25	97.75	102.50	102.50	103.75	114.25	115.00	112.75	108.25	104.50	100.00	97.25	95.25	94.25	95.25	93.50	90.25	87.00	84.75	83.50	90.00	97.50	103.75	107.75	107.00	106.00	105.00	103.00	101.50	100.50	99.25	96.00	90.25	82.25	77.00	77.50	79.75	80.75	78.25	79.00	79.00	78.25	79.25	96.25	78.50	72.25	75.75	79.75	91.75	99.50	107.25	106.75	98.00	99.25	99.75	100.75	98.00	94.25	89.75	87.00	78.50	77.25	78.25	83.75	88.25	87.50	84.25	86.00	89.00	95.75	99.25	95.50	92.50	94.75	92.75	85.75	89.00	90.50	92.50	92.75	93.00	83.00	81.00	86.25	90.25	92.00	98.75	99.75	99.50	96.50	93.50	90.25	90.25	89.50	86.25	83.00	81.25	86.25	85.75	82.50	75.00	64.75	67.00	79.50	80.00	81.25	81.25	81.50	80.00	82.50	86.00	87.50	83.50	83.00	87.50	89.50	92.50	91.75	89.00	85.50	82.75	81.75	80.50	79.25	77.25	76.25	72.25	70.75	70.50	73.25	72.50	72.75	71.75	70.50	60.00	55.25	56.75	56.75	60.25	58.75	56.75	58.25	51.25	42.50	51.50	48.25	41.75	41.25	43.00	48.50	48.25	46.75	44.50	43.25	43.00	45.50	41.75	38.75	37.75	39.25	38.75	39.50	52.50	37.25	26.75	26.25	26.50	31.75	37.25	33.75	28.50	33.00	38.75	34.75	30.25	27.25	22.50	21.00	26.50	34.25	30.00	24.00	23.75	24.25	28.00	28.75	23.25	23.00	21.00	25.25	27.75	19.25	29.00	26.75	27.50	25.50	25.75	26.00	26.75	27.00	28.00	27.50	29.50	30.25	22.75	14.50	15.00	14.75	12.25	12.00	13.75	20.50	30.00	43.25	49.75	52.00	48.50	39.00	31.25	28.75	26.25	25.25	24.75	21.50	20.00	20.50	21.50	26.00	27.75	28.75	29.50	34.25	39.25	41.50	37.50	38.00	42.25	40.75	41.25
124.25	121.50	118.75	117.25	110.25	113.00	115.25	115.50	113.75	108.75	104.00	105.25	105.00	97.75	98.25	100.25	96.75	98.25	100.75	103.00	103.75	104.75	119.50	120.25	117.50	114.00	110.25	106.25	101.00	97.75	96.00	95.50	94.75	91.00	88.75	85.00	86.00	92.25	99.00	105.75	109.00	109.00	107.25	105.75	104.25	102.50	100.75	101.75	100.25	92.75	85.50	77.25	76.25	80.75	82.75	79.00	79.25	81.75	79.25	79.75	95.00	83.00	74.75	77.25	74.00	79.25	87.50	112.75	116.00	107.75	106.50	106.25	106.00	104.25	98.25	87.75	92.25	74.00	81.25	84.00	87.75	88.75	83.25	77.75	84.25	85.00	91.50	97.00	96.75	95.50	97.50	91.25	86.00	91.00	93.75	92.75	90.25	87.00	81.00	81.00	87.00	83.00	97.75	100.50	100.00	98.75	96.25	93.00	89.75	89.75	89.25	87.00	84.75	84.75	87.75	87.25	84.00	82.00	69.75	68.25	81.25	82.75	84.00	83.75	84.00	82.50	83.25	84.75	84.75	84.25	84.00	89.25	89.25	90.75	92.25	86.50	82.75	81.25	81.00	80.00	79.25	76.75	76.75	73.75	71.75	70.00	73.25	73.00	71.00	73.75	73.75	59.75	56.25	58.00	55.25	61.50	54.50	55.00	53.00	49.50	45.00	56.25	48.00	44.25	43.25	46.00	44.25	42.25	41.00	41.00	40.75	42.00	42.50	37.75	35.75	36.25	42.75	49.50	41.00	45.25	37.75	26.25	33.50	31.50	33.00	36.00	36.25	31.75	34.25	40.00	41.75	30.00	28.25	31.00	26.75	24.50	33.00	28.75	25.50	24.00	24.50	22.50	25.75	25.50	22.25	23.25	25.75	27.50	15.75	26.75	27.50	30.25	25.00	24.25	25.00	26.75	26.50	26.25	25.50	27.75	28.25	18.75	14.75	16.25	15.00	12.75	13.00	16.50	25.25	40.50	49.75	50.75	49.00	42.75	35.50	31.50	28.75	23.25	22.00	23.25	22.00	21.50	22.50	25.00	29.00	30.50	32.50	33.75	41.00	46.25	48.00	44.00	40.75	38.75	37.50	39.75
142.50	138.50	134.50	129.50	126.00	151.50	168.00	164.50	151.00	129.50	123.50	119.50	121.00	112.50	104.50	99.50	103.00	106.50	110.00	115.00	115.00	113.00	120.50	127.50	126.50	122.50	120.00	117.00	113.00	107.50	104.00	98.00	95.50	92.50	89.50	88.00	91.50	97.00	100.50	107.00	108.50	108.50	107.50	107.00	105.00	105.00	103.00	101.00	103.00	98.00	91.00	82.00	77.50	81.00	81.50	79.50	77.50	84.00	87.00	86.00	94.00	96.00	90.00	89.50	79.50	82.00	81.00	86.00	90.00	95.00	100.50	98.00	92.50	93.50	91.50	84.50	89.50	86.50	71.00	71.50	84.50	91.00	80.00	75.50	84.50	85.00	89.00	95.00	96.50	98.50	95.00	90.50	85.50	93.50	91.50	89.00	82.50	81.00	93.50	95.00	101.00	92.50	96.00	99.00	100.00	98.00	95.50	93.00	92.00	92.00	89.00	87.00	86.50	87.00	87.00	89.00	85.00	85.00	82.00	82.50	83.00	84.50	85.00	84.00	85.50	85.00	84.50	84.50	84.50	83.00	84.00	90.50	90.00	89.00	87.50	83.50	82.50	83.00	78.50	79.00	76.00	77.50	77.50	77.00	72.00	72.50	76.00	76.00	75.50	73.50	71.50	62.50	56.50	62.00	64.00	62.00	56.50	51.50	49.50	54.00	54.00	56.50	49.50	39.50	40.50	45.50	39.50	38.50	42.00	38.50	35.50	41.50	40.00	43.00	44.00	42.00	44.50	47.50	46.50	38.50	27.50	37.00	46.50	31.50	28.00	30.00	38.50	39.00	35.00	39.00	40.50	34.50	36.50	42.50	33.50	34.00	27.50	27.50	21.00	29.00	31.00	27.50	23.50	19.50	18.50	21.00	20.50	20.00	17.50	23.50	24.50	23.00	23.00	24.50	25.00	25.00	24.00	26.00	27.00	26.50	25.50	15.50	14.00	14.00	14.00	12.50	17.00	24.00	36.00	50.50	50.00	45.00	42.00	37.00	34.00	29.50	27.50	23.00	21.50	20.00	19.50	20.50	24.50	29.00	31.50	36.00	38.50	39.00	47.00	53.50	53.50	49.00	40.50	38.00	40.00	41.50
178.50	156.00	138.00	133.25	130.00	161.00	198.75	216.25	224.50	176.75	157.75	147.75	145.75	130.00	120.50	119.75	118.25	117.50	114.00	117.25	117.50	117.25	121.00	128.50	129.50	129.00	129.00	126.25	123.00	119.00	112.25	105.50	101.00	95.50	92.25	91.50	93.00	95.50	99.50	103.25	106.00	106.50	106.75	106.25	106.00	105.50	103.00	102.75	102.25	93.25	90.25	86.50	80.50	82.00	84.00	83.25	81.50	83.25	92.00	90.00	93.25	95.00	92.25	86.50	78.00	78.25	77.00	81.75	78.50	90.25	89.00	87.50	88.75	90.50	85.25	83.00	81.50	81.50	74.50	75.25	86.75	89.25	83.75	88.00	87.00	84.25	86.00	92.00	95.75	99.75	95.00	85.75	84.75	90.50	91.00	91.50	89.00	89.50	91.75	82.50	85.25	85.75	90.00	93.25	96.25	97.00	96.25	95.25	94.25	92.75	92.25	91.50	88.50	88.50	87.75	88.75	88.75	86.00	84.50	81.25	75.75	87.25	86.50	85.75	84.75	84.25	82.25	83.25	84.75	84.75	86.25	91.00	88.25	87.00	85.50	83.50	81.50	79.50	80.00	82.25	78.50	77.00	77.00	79.00	76.25	74.00	72.50	72.50	79.75	71.00	62.25	59.25	55.25	66.00	58.50	56.50	60.50	50.25	48.75	47.75	51.50	43.50	38.50	41.50	47.00	45.75	39.00	40.00	39.50	38.00	38.75	41.25	38.50	37.25	38.25	38.75	41.25	42.75	41.25	33.00	25.50	49.00	35.25	27.50	27.75	29.50	35.75	34.00	31.25	41.00	39.25	37.50	33.50	35.25	36.25	39.50	39.25	26.50	23.75	25.50	33.50	29.00	24.50	23.25	23.50	22.75	22.25	24.50	27.75	19.50	19.50	21.50	24.75	27.50	26.25	26.25	24.75	23.75	23.25	17.00	19.50	16.75	14.00	14.00	16.75	21.00	29.00	33.75	40.75	44.00	45.25	44.50	42.25	37.75	34.00	30.00	28.50	28.50	27.75	24.50	21.25	20.50	25.00	29.25	34.50	38.75	40.50	41.50	49.00	52.50	51.50	47.75	41.75	41.75	44.75	48.50
195.50	177.25	152.50	149.50	142.25	153.75	187.00	213.25	235.75	211.25	188.00	168.00	159.00	135.25	126.25	129.25	128.25	125.25	122.00	123.25	120.50	118.75	126.00	128.25	127.75	127.00	129.00	129.00	128.00	126.00	118.75	114.50	108.25	100.50	96.50	93.50	95.50	98.50	101.75	104.50	106.25	106.00	105.50	105.50	105.50	104.75	103.25	102.25	100.75	95.50	91.50	83.50	80.75	80.75	83.75	84.50	83.75	82.00	86.50	85.25	90.75	94.50	90.75	84.75	79.75	88.00	87.75	90.75	87.50	87.50	84.50	82.50	85.25	85.50	81.75	81.25	79.00	84.50	83.50	85.50	89.25	89.00	89.50	90.00	85.75	82.75	83.00	90.50	92.00	96.50	92.50	85.25	85.50	90.50	93.50	93.50	90.00	97.00	83.00	83.50	84.25	88.25	90.00	93.00	94.25	96.50	97.25	97.25	95.50	92.25	92.50	92.75	90.25	90.25	87.25	88.25	90.75	90.00	86.75	83.50	77.75	87.25	86.25	87.25	87.25	86.75	84.50	84.25	84.50	84.25	85.00	90.25	89.25	88.50	86.75	82.75	81.25	80.50	80.50	83.25	82.50	80.75	81.25	82.25	83.00	77.25	72.00	74.25	81.50	71.25	61.75	56.25	61.00	63.50	54.00	51.25	57.25	48.75	48.00	49.25	50.00	39.50	36.25	43.50	45.00	41.25	40.50	41.50	40.25	39.50	38.50	38.75	37.25	36.75	38.00	38.75	42.75	44.00	41.50	30.50	30.75	52.75	34.50	26.00	25.25	29.00	36.50	32.00	27.25	35.00	37.75	37.75	32.00	33.25	35.75	43.50	40.25	33.75	28.25	38.75	36.50	29.50	26.75	25.75	25.00	23.75	22.50	23.25	27.75	26.50	23.25	19.00	20.00	22.75	22.25	22.25	21.50	20.50	20.00	20.75	18.75	16.25	14.00	14.25	20.00	25.00	31.50	36.75	42.75	47.00	49.25	47.50	43.25	39.25	36.50	32.50	31.50	30.50	30.50	27.25	22.75	22.50	26.00	32.75	38.25	43.25	44.00	45.00	50.75	53.50	51.50	49.50	45.50	46.25	50.75	54.25
202.25	192.50	166.25	172.50	159.50	153.25	166.25	194.50	221.00	225.50	211.75	187.75	175.25	143.75	136.50	144.50	146.75	140.75	135.00	132.00	126.75	123.25	129.25	130.75	128.00	125.50	125.50	128.00	129.00	128.50	123.75	123.50	117.75	108.00	102.75	98.00	98.25	101.50	104.50	107.50	107.50	107.00	106.25	106.25	105.75	104.75	102.25	100.50	98.50	96.00	92.00	85.25	85.50	83.00	91.00	87.50	86.25	84.00	87.00	87.75	87.25	95.75	93.50	86.25	82.50	88.75	91.75	89.25	87.25	84.50	82.25	80.75	81.25	83.00	82.00	81.25	81.75	86.25	90.25	93.50	93.25	89.00	91.00	89.50	85.00	83.00	82.25	88.00	87.75	92.00	89.25	86.25	88.50	94.00	95.75	94.50	84.50	96.75	94.00	87.00	86.25	89.25	90.25	92.00	93.00	95.75	96.00	98.00	96.25	92.25	92.00	91.75	90.75	90.75	87.00	87.00	92.00	93.00	90.00	89.25	88.25	88.25	87.00	89.75	90.25	89.25	88.25	86.75	85.75	84.75	85.25	90.50	89.75	88.25	86.75	83.00	81.50	81.00	81.50	85.25	80.75	80.75	80.00	82.50	84.25	83.25	75.25	75.50	80.00	70.25	62.00	56.75	63.00	58.50	55.00	53.00	54.00	47.25	48.50	54.50	50.00	39.25	37.75	44.00	40.50	38.00	40.50	41.00	42.00	42.00	39.50	39.75	37.75	37.50	37.50	38.50	42.50	42.00	41.50	28.75	34.50	55.75	41.25	31.50	27.00	35.75	30.00	25.25	22.00	26.75	36.00	36.25	32.50	32.75	36.50	42.50	40.00	35.25	32.25	44.50	38.75	30.75	29.25	26.50	25.75	25.25	24.75	25.00	24.50	26.25	28.75	25.00	21.75	24.75	25.25	22.75	25.00	24.50	24.75	26.00	21.00	14.75	14.25	15.25	20.00	22.50	31.25	38.50	45.50	49.25	50.50	48.25	44.75	42.00	40.50	38.25	37.25	34.25	34.00	29.75	24.75	24.50	28.00	36.00	42.00	45.50	47.25	49.50	52.00	54.75	52.50	50.25	47.75	50.25	55.00	61.00
209.50	197.00	177.75	191.50	174.50	165.00	161.50	175.00	203.00	223.25	226.75	209.50	194.75	162.00	169.00	181.25	192.00	181.25	163.25	150.50	138.75	131.75	129.00	133.75	130.50	127.75	126.00	126.00	128.00	128.00	126.00	127.00	124.25	117.25	111.00	104.50	102.25	103.75	107.25	109.75	109.75	108.75	107.25	107.75	106.50	105.50	102.75	99.75	98.00	95.00	92.25	88.50	85.75	90.25	103.75	95.75	91.25	95.25	90.50	90.25	86.25	92.25	90.50	79.75	78.50	84.25	89.00	86.50	84.25	81.50	80.50	79.25	81.50	85.50	86.50	84.25	87.25	92.00	91.50	92.25	92.00	88.75	90.25	89.75	86.00	84.00	82.75	85.75	88.00	89.00	87.75	88.50	92.25	98.00	94.00	94.75	90.50	97.00	100.50	90.75	88.25	91.00	91.25	91.25	91.50	94.75	94.50	96.00	96.00	94.00	91.75	92.75	91.50	90.25	87.50	87.50	91.25	91.75	91.50	90.75	90.50	89.75	89.50	92.50	91.75	89.75	88.75	86.75	86.00	84.50	85.75	90.50	90.50	89.00	86.00	82.00	82.25	82.00	80.50	84.00	79.50	76.00	78.75	80.75	78.00	84.50	79.75	76.50	77.00	70.50	63.00	60.00	63.75	60.75	57.75	55.25	51.50	46.75	48.50	55.50	45.25	42.50	40.75	46.75	40.75	36.50	39.25	39.50	40.25	40.50	39.50	40.25	39.25	38.75	37.00	40.50	42.25	37.50	37.50	29.25	36.25	51.25	42.25	39.25	32.00	36.25	24.75	22.00	21.25	24.25	28.00	29.00	31.25	29.00	29.50	31.25	34.50	32.75	31.25	43.00	44.00	31.25	29.25	26.00	25.75	26.25	27.25	27.00	24.75	25.00	28.00	33.75	30.00	33.00	34.25	27.75	29.25	30.00	31.00	28.75	24.25	15.00	15.75	18.00	20.75	20.75	31.75	39.75	48.00	49.50	48.50	47.75	46.25	45.50	43.00	40.50	40.00	39.50	40.00	34.75	29.25	27.75	33.00	38.50	44.00	46.00	50.00	53.25	55.00	56.25	52.50	49.00	49.25	53.50	56.75	63.25
214.00	202.00	186.25	198.25	187.25	179.25	169.75	169.75	186.50	211.75	218.50	216.50	206.25	187.75	215.00	225.00	235.25	225.50	198.00	175.25	153.50	141.25	134.75	138.00	133.75	131.25	129.50	125.75	125.00	125.75	127.00	126.50	127.00	127.75	121.75	111.00	105.75	106.25	109.75	111.50	112.25	110.50	108.75	108.75	106.75	105.25	103.00	99.75	98.00	95.25	94.25	90.25	86.50	99.75	106.50	98.25	104.00	107.25	89.00	88.50	88.50	87.75	84.50	72.75	72.25	83.00	89.00	86.00	83.75	80.25	79.25	78.75	83.25	86.00	88.00	88.00	91.00	94.00	89.50	89.25	89.25	89.50	91.50	91.50	89.50	86.25	83.75	86.75	90.00	88.00	89.25	91.25	94.75	91.25	86.50	90.75	101.00	98.50	93.50	90.25	89.25	93.00	93.75	93.00	91.50	94.00	94.00	93.50	94.75	95.50	94.00	95.75	93.75	91.00	89.00	89.25	88.75	89.00	91.75	91.25	91.00	90.50	91.50	92.25	91.00	88.75	86.50	85.00	85.25	83.75	85.50	91.00	90.00	88.25	84.75	82.25	81.00	80.50	81.00	79.50	79.75	73.50	79.75	75.50	74.50	79.00	75.75	73.25	74.25	69.50	65.25	59.50	65.75	66.25	57.25	54.25	53.50	51.25	49.50	51.00	40.25	45.75	44.25	48.50	44.00	39.00	40.25	39.75	39.75	39.50	39.25	39.50	38.75	39.00	37.75	41.75	44.00	36.50	32.50	29.25	34.25	40.00	38.00	37.25	34.50	31.75	26.75	25.25	24.75	28.50	24.75	24.50	25.75	23.00	22.00	23.75	27.00	29.00	31.00	34.50	48.50	36.00	28.25	28.25	28.50	28.50	28.00	27.50	27.50	27.00	29.50	36.00	35.25	35.50	31.75	25.75	26.50	29.00	30.50	28.00	20.00	16.75	18.50	20.75	23.00	23.25	32.00	39.75	47.75	50.50	48.00	46.75	47.75	46.75	43.75	40.50	40.25	41.50	43.50	38.75	33.25	33.25	38.75	43.00	47.75	49.50	53.25	56.25	59.00	58.00	50.75	48.25	52.25	55.75	56.25	58.25
216.00	210.50	193.75	205.50	202.75	194.75	183.50	175.75	176.75	197.25	201.50	216.75	216.00	203.50	235.75	260.25	264.25	251.50	226.75	203.75	173.75	155.00	147.50	144.50	137.00	133.50	131.00	128.25	125.75	124.25	124.25	124.00	127.25	134.25	131.75	120.25	109.75	108.25	110.50	111.75	112.50	111.25	110.50	110.00	108.00	105.75	102.00	100.50	98.50	96.75	96.25	93.75	95.75	106.75	105.25	99.25	109.75	105.25	87.75	89.25	90.50	88.75	85.25	81.25	81.50	87.00	90.50	85.75	83.75	79.50	78.25	78.25	82.00	85.00	87.75	91.00	92.25	90.50	85.25	86.00	86.00	88.50	92.50	92.25	92.00	87.50	84.50	90.50	93.75	92.50	92.75	92.50	95.25	83.50	81.25	86.00	98.75	96.50	90.25	90.00	89.75	92.75	95.00	94.25	91.25	90.00	88.75	92.50	94.25	96.75	96.75	97.50	96.50	93.75	90.75	90.75	89.75	90.00	92.75	91.50	92.00	89.50	91.50	91.00	88.50	85.75	83.75	83.00	82.75	82.00	83.50	88.75	87.25	86.00	82.25	83.50	81.00	80.50	82.25	78.25	79.75	76.75	74.25	71.75	72.00	74.25	69.75	66.75	68.50	66.75	64.00	57.50	65.00	65.25	56.25	54.25	56.75	54.75	54.25	50.00	40.25	46.75	46.50	46.75	47.25	42.75	43.50	42.75	42.50	42.00	41.50	41.00	39.25	39.00	38.50	40.00	44.00	38.00	30.00	28.25	30.25	37.50	39.50	34.75	34.25	32.25	29.75	30.00	30.00	37.25	31.00	26.75	22.50	22.50	19.75	23.75	24.75	28.75	31.25	25.50	42.50	47.25	38.25	32.00	31.25	30.75	29.00	29.00	29.50	28.75	31.75	38.25	38.00	35.00	28.50	25.50	25.25	27.00	29.00	23.25	19.00	21.25	21.25	22.50	24.50	26.50	31.50	38.50	47.25	50.75	46.75	44.00	46.50	45.25	42.00	41.00	40.75	41.75	45.00	40.50	36.75	38.00	42.75	46.75	53.50	53.75	55.25	59.00	61.00	58.75	50.50	49.50	53.25	55.50	55.00	54.75
225.00	218.00	199.75	217.75	219.75	211.50	200.50	187.50	178.00	184.25	193.75	218.00	221.75	207.25	228.50	272.25	280.50	265.50	251.00	234.25	203.00	176.00	158.00	152.25	141.75	136.00	131.75	130.25	129.00	125.50	123.25	121.00	122.75	130.25	131.50	126.25	115.00	110.75	111.00	112.50	112.50	111.25	110.75	110.50	108.75	106.75	102.00	101.50	100.50	99.75	98.00	96.75	99.50	106.50	108.50	106.00	106.25	102.00	90.25	91.25	92.75	89.25	87.75	88.75	89.25	87.50	87.25	83.75	82.00	78.50	78.00	77.50	79.50	85.25	88.50	92.50	91.75	87.75	83.75	84.00	80.25	83.25	90.50	91.00	94.00	89.00	85.50	91.50	97.00	96.00	95.25	92.25	95.25	90.50	91.00	95.00	94.25	95.75	91.75	91.75	90.75	92.50	95.00	93.00	85.75	83.50	82.50	92.50	95.00	98.00	98.25	98.00	97.75	96.00	93.50	92.75	93.75	92.75	93.25	93.50	93.75	88.75	89.00	88.25	86.00	82.25	81.50	80.00	80.00	79.50	80.50	86.25	83.75	83.25	82.75	82.00	81.25	82.50	82.00	79.75	78.75	77.25	70.75	74.50	72.00	71.75	67.50	64.75	67.25	68.00	64.00	57.50	60.75	58.50	55.25	55.50	55.75	53.25	56.25	53.50	46.25	46.75	48.50	46.75	49.25	45.75	45.25	46.00	45.50	45.00	44.50	43.00	40.75	40.25	38.25	42.00	43.75	35.75	29.00	30.00	29.25	38.50	42.25	38.50	33.25	32.00	33.75	35.75	33.50	37.25	34.75	32.50	23.50	22.75	22.00	23.25	24.75	28.00	25.75	21.25	28.50	41.75	40.25	35.75	30.75	29.75	30.50	31.25	30.00	29.50	31.25	34.25	33.00	30.50	29.50	28.25	27.00	25.50	27.75	20.50	26.25	23.50	22.25	23.00	24.50	28.25	31.50	35.50	44.00	45.75	43.00	42.50	43.75	42.25	39.75	41.75	41.00	42.75	45.75	42.75	40.75	41.00	46.50	49.25	55.25	56.25	56.00	59.50	60.75	59.75	53.75	51.25	54.25	58.00	58.25	57.75
228.50	223.50	207.00	219.00	226.00	223.50	228.00	216.00	195.00	177.00	187.00	196.00	216.50	209.00	213.00	235.50	246.50	263.00	271.50	266.50	244.50	217.00	185.00	170.00	153.50	147.00	140.00	133.50	131.00	128.50	125.00	122.00	120.50	118.00	122.50	123.00	119.50	116.00	116.50	116.50	115.00	113.00	111.50	110.00	110.00	107.50	105.00	103.00	102.00	101.00	102.00	102.50	101.00	103.00	107.50	109.00	109.00	102.50	100.00	102.50	101.50	95.00	90.00	89.00	85.50	80.00	80.00	79.50	79.00	79.00	79.50	78.00	79.00	83.50	88.00	90.00	89.00	87.00	84.00	84.00	86.00	72.00	83.00	95.00	95.50	88.50	89.50	90.50	94.00	94.00	89.50	90.50	96.50	89.50	97.00	105.50	93.50	93.00	93.00	92.00	94.50	95.50	95.00	90.00	81.00	85.50	86.00	95.00	97.00	97.00	95.50	96.00	95.00	94.00	92.50	93.50	96.00	91.50	84.50	91.00	90.50	88.50	87.50	84.50	82.00	79.00	78.50	77.50	73.50	74.00	75.00	80.50	83.50	81.00	81.50	79.50	83.50	82.50	79.00	78.00	76.00	73.50	71.00	76.50	70.00	67.00	66.50	69.50	69.50	65.00	64.00	55.50	54.50	52.00	52.50	56.00	57.50	51.00	50.50	48.50	51.00	43.00	50.50	50.00	47.50	47.00	46.50	47.00	46.50	46.00	44.50	43.50	41.50	40.50	37.50	44.50	41.50	30.50	30.50	30.00	30.00	34.50	39.50	37.50	28.50	31.50	38.00	41.00	43.50	44.00	32.00	32.00	23.50	19.00	29.50	27.50	26.00	25.50	23.00	34.50	17.50	16.50	18.50	29.50	24.00	24.50	26.50	26.50	29.50	31.50	31.50	29.50	30.50	31.00	31.50	28.00	28.00	28.50	28.50	24.00	32.00	23.00	16.50	17.50	26.50	30.00	35.00	34.50	35.50	37.50	38.50	40.00	42.00	41.50	39.50	42.00	42.00	43.50	45.50	46.00	47.00	50.00	54.50	53.00	53.50	57.00	61.00	62.50	62.00	62.00	58.50	52.50	56.50	65.00	66.50	65.00
217.50	215.75	216.75	212.50	211.25	206.50	204.25	207.25	202.00	187.75	193.25	195.75	196.25	213.50	222.25	221.75	223.00	235.50	250.50	270.50	263.00	244.00	221.00	205.25	186.25	170.75	152.75	142.75	135.50	130.25	126.50	123.00	121.50	115.50	113.00	117.25	120.00	120.00	121.50	120.75	117.25	114.75	112.75	111.50	111.00	108.75	106.00	105.25	104.25	103.75	104.50	105.25	104.75	105.75	107.25	112.75	107.25	103.75	104.25	103.75	102.75	100.75	97.50	95.00	90.50	88.50	90.50	84.75	82.25	80.00	80.25	79.00	79.50	83.25	93.75	93.25	90.50	89.00	87.50	87.75	91.50	90.25	83.00	89.50	89.50	92.00	94.75	94.75	96.25	97.75	94.00	91.00	96.75	101.00	104.25	94.75	96.00	94.00	95.00	96.25	96.50	97.00	94.75	93.75	94.00	95.50	96.00	94.75	94.75	93.75	93.00	94.00	88.50	75.25	91.50	94.50	92.75	79.00	79.75	89.25	85.50	84.25	84.50	83.75	81.00	78.25	75.50	74.75	74.75	75.25	75.00	82.25	80.25	80.00	82.50	81.25	81.50	81.75	78.75	73.00	73.75	74.50	73.50	72.75	75.50	71.75	68.00	68.50	67.25	66.25	61.25	53.50	55.75	53.00	51.00	53.00	55.50	52.50	49.25	48.75	48.00	41.00	43.50	45.25	48.00	48.75	48.25	46.25	45.50	45.00	43.50	43.75	44.00	44.50	44.50	44.25	45.75	41.75	39.00	29.50	25.25	33.00	38.75	37.25	35.75	33.25	39.75	40.00	41.50	41.25	36.00	26.25	24.25	22.50	24.50	29.25	21.75	23.75	27.50	23.25	16.25	13.00	14.25	27.50	31.50	27.75	22.25	21.50	23.00	23.25	24.25	26.00	28.00	29.50	29.00	30.50	30.00	29.50	29.75	21.50	26.75	26.50	16.25	17.25	25.75	30.75	34.25	33.75	33.25	36.25	37.00	37.75	39.75	40.50	41.25	42.00	42.00	46.00	48.25	47.50	48.25	51.75	54.25	57.75	58.50	56.75	60.75	61.00	63.25	65.25	61.25	56.25	54.75	58.75	60.00	66.00
217.75	219.25	222.50	219.25	213.50	207.50	205.00	201.50	200.75	189.75	190.25	193.00	188.25	205.25	221.25	225.00	224.25	225.75	239.00	259.50	260.75	247.50	237.25	223.00	202.25	188.50	160.50	145.75	140.75	135.25	131.00	126.75	125.25	119.75	117.00	116.00	117.50	121.50	123.50	124.50	121.50	117.50	114.75	113.50	111.75	109.25	107.00	106.25	105.25	105.00	105.50	107.50	107.50	108.50	110.25	113.00	107.50	104.75	105.50	105.00	103.75	101.50	97.75	96.75	90.75	95.50	103.50	92.00	85.50	79.25	80.25	79.25	79.75	82.50	89.00	90.00	91.25	90.00	92.00	90.50	89.25	87.25	84.25	91.75	93.50	94.75	96.25	95.50	96.50	98.75	96.00	91.50	96.00	105.25	101.25	97.00	97.75	95.25	96.50	97.50	97.00	96.50	91.75	91.00	95.00	94.50	94.00	92.25	92.75	91.75	90.50	91.75	82.00	73.00	89.25	93.00	92.25	84.75	86.75	87.25	83.00	82.00	82.50	81.25	80.00	78.50	75.00	76.75	76.00	74.75	76.00	82.75	83.25	83.50	82.00	81.75	82.25	82.00	79.50	72.50	75.50	77.50	74.00	73.25	76.50	73.00	70.50	67.50	67.75	65.75	60.50	49.00	57.00	58.50	54.25	51.50	54.50	52.50	48.50	49.00	49.50	38.50	39.25	41.50	45.25	46.75	49.25	49.50	48.00	48.25	43.75	42.75	44.00	46.50	46.50	43.25	44.75	42.25	40.00	33.25	26.25	35.25	42.25	38.50	41.00	37.25	41.25	43.25	38.25	42.25	40.25	29.50	25.50	27.00	27.25	25.00	23.75	25.00	23.00	18.25	14.25	13.00	13.00	25.75	33.00	34.00	34.00	32.75	24.25	25.25	25.75	23.75	24.00	24.75	26.75	28.25	28.00	27.25	28.25	25.75	18.00	23.25	15.00	16.75	24.75	30.75	35.75	36.00	36.50	38.75	40.00	40.00	39.25	38.75	41.25	42.50	44.75	48.50	50.25	51.00	52.75	53.75	55.00	59.25	60.25	57.50	59.50	60.00	62.25	64.25	62.25	58.50	55.75	56.75	57.75	63.50
235.75	243.00	239.50	234.25	226.00	216.00	210.00	203.25	196.00	189.75	191.25	185.25	189.00	195.25	212.25	213.00	218.50	217.50	224.25	242.75	246.75	236.00	239.50	229.75	212.25	197.50	164.00	149.50	152.25	146.50	137.25	129.25	127.25	123.50	120.75	117.25	114.75	120.00	122.75	124.50	124.50	122.25	118.75	115.75	113.25	111.00	109.25	107.25	106.50	106.75	106.75	110.75	111.75	112.50	112.50	110.75	107.00	103.25	104.50	104.75	103.25	99.50	95.00	94.25	91.50	96.25	104.50	96.75	91.25	82.00	82.75	82.50	83.25	83.50	85.75	89.75	90.75	91.50	93.50	92.75	91.25	88.25	84.50	93.00	95.50	95.75	96.50	96.75	99.00	99.50	97.75	94.25	94.75	101.75	99.75	100.50	99.50	97.50	96.50	94.50	94.75	95.50	92.25	93.00	95.25	93.00	88.50	89.75	92.25	91.25	89.25	87.50	76.50	75.00	80.50	89.50	90.25	89.25	87.00	83.00	82.00	83.00	82.50	80.75	81.75	79.50	75.00	77.50	76.00	74.25	77.75	82.75	85.75	85.75	83.00	83.25	81.75	81.00	82.75	75.00	75.00	78.00	71.75	72.00	74.00	70.50	71.75	68.75	69.50	68.75	60.00	46.50	57.50	61.50	58.00	51.50	57.00	52.25	48.25	50.00	47.75	35.25	35.25	37.75	40.00	44.00	53.25	53.25	49.00	49.25	46.00	43.75	44.00	43.50	44.25	44.50	42.75	38.50	38.75	33.50	27.75	35.75	46.50	38.75	44.00	41.50	45.50	45.75	40.75	43.50	41.00	37.50	30.50	31.75	28.25	23.00	22.75	25.25	24.25	20.00	17.50	15.50	14.75	22.50	26.50	31.25	36.00	42.00	34.50	34.00	31.75	22.50	21.75	22.75	24.75	24.00	24.50	25.25	26.25	27.25	15.75	18.50	16.00	17.50	24.75	29.00	35.75	38.50	39.75	39.00	41.75	43.50	43.50	41.75	44.25	48.25	53.00	55.00	52.50	51.75	55.00	56.50	58.50	62.25	63.25	60.25	61.00	61.75	63.00	63.50	62.25	61.25	59.75	57.75	59.00	65.75
275.00	282.50	278.00	271.50	253.50	250.00	245.50	232.00	206.50	192.50	188.00	183.50	185.50	206.50	201.50	201.50	206.50	197.00	204.50	220.50	220.50	227.00	227.00	226.50	202.00	184.50	167.50	176.50	181.50	174.00	151.00	137.50	131.00	126.00	123.00	120.00	116.00	115.50	116.00	117.50	120.50	123.00	121.00	118.00	115.00	114.50	113.50	112.00	112.50	112.00	113.00	115.50	114.00	111.50	109.50	107.50	104.50	103.00	98.50	98.50	97.00	95.00	97.00	97.50	97.00	97.50	97.50	96.50	95.50	94.50	97.00	94.00	92.50	90.00	90.00	93.50	90.00	93.50	95.50	94.00	92.50	93.50	91.50	89.00	98.50	99.00	101.00	99.50	102.00	100.00	100.00	98.50	92.50	93.00	94.00	98.50	100.00	100.00	92.50	89.00	95.50	96.00	97.00	96.00	93.00	91.50	91.00	95.50	94.00	92.50	91.50	81.00	74.00	82.00	72.00	88.00	87.50	88.00	85.50	85.00	84.00	84.50	85.00	83.00	84.00	79.00	79.50	77.00	75.50	74.50	77.00	82.50	86.00	85.00	82.50	85.50	79.50	73.00	79.00	79.50	73.50	75.50	71.50	69.50	69.00	71.50	71.50	69.50	66.50	67.00	61.50	48.50	63.50	65.50	61.50	55.50	62.00	57.50	49.50	48.00	41.50	40.50	40.00	39.50	41.00	48.50	68.50	60.50	48.50	46.50	49.50	44.00	42.00	41.00	47.50	47.50	42.50	42.00	38.00	28.00	30.00	44.00	46.50	38.50	44.50	38.00	43.00	42.00	46.00	45.00	39.50	43.00	32.50	32.00	32.00	29.00	29.00	23.50	25.00	26.50	23.50	27.00	22.50	21.50	27.50	26.50	33.00	30.00	45.00	42.50	40.00	26.50	23.00	22.00	21.00	21.50	23.00	24.00	23.00	20.50	16.00	16.00	16.00	21.00	29.50	28.00	31.50	37.00	39.50	40.00	40.00	41.00	44.00	47.50	50.50	56.50	59.00	59.50	57.50	55.00	56.00	60.50	63.00	61.00	61.50	60.50	65.00	69.50	71.50	68.50	66.00	65.00	67.50	65.00	63.50	74.00
269.00	280.50	288.50	286.50	271.00	268.50	265.50	252.50	222.00	207.00	197.00	186.50	189.00	191.50	195.50	192.50	197.50	198.50	195.50	208.00	210.00	220.50	217.00	212.00	189.50	182.00	184.00	198.50	202.00	192.50	169.00	143.00	135.00	131.50	127.50	123.00	123.00	124.50	126.50	128.50	127.00	121.00	120.00	122.00	119.00	117.00	116.50	116.00	116.50	117.50	119.50	118.00	113.00	109.50	108.00	106.50	102.50	99.00	98.50	99.00	101.00	98.50	98.00	98.00	98.50	99.00	99.50	99.50	97.50	98.50	102.00	98.50	94.50	93.50	92.00	95.00	95.50	96.00	95.00	92.00	91.00	94.50	93.50	99.00	99.50	100.50	101.00	101.50	100.50	100.50	100.50	97.00	90.00	100.00	89.50	92.50	94.50	97.50	87.50	93.00	97.50	99.00	97.50	96.00	96.00	92.00	94.00	94.50	95.50	93.00	90.00	88.50	88.50	88.50	79.50	89.50	89.50	88.00	85.00	86.50	85.50	85.00	86.00	84.00	84.00	81.00	82.00	78.50	77.00	75.50	77.50	85.50	83.50	82.50	83.50	85.50	77.00	70.50	76.00	73.50	69.50	76.00	76.50	70.00	70.50	75.00	72.50	67.50	70.00	68.00	56.00	45.00	62.50	74.00	73.50	72.00	67.50	61.00	52.00	47.50	45.00	40.50	42.00	44.50	45.00	53.50	84.50	67.00	49.00	44.50	46.50	42.00	48.50	45.00	41.00	42.50	43.00	39.50	33.00	29.50	34.50	50.50	43.00	41.00	41.00	33.50	34.00	35.50	39.50	44.00	37.50	34.50	28.50	36.00	30.00	27.00	31.50	30.00	22.50	25.00	27.00	28.00	26.50	21.00	25.50	33.00	22.00	25.00	40.00	45.00	39.00	38.00	25.00	23.00	22.50	23.00	24.00	21.50	22.00	24.00	14.50	15.50	17.50	29.50	35.00	31.00	30.50	33.00	39.00	43.00	41.00	39.00	40.50	44.50	47.50	54.50	59.00	63.00	63.50	61.00	65.00	67.50	68.50	66.50	61.00	60.50	66.00	69.00	71.00	69.00	68.00	70.50	70.50	66.50	66.50	71.00
258.00	267.50	287.00	287.00	294.00	287.50	285.50	274.00	234.50	213.50	210.50	201.50	189.00	188.50	196.00	202.00	200.50	196.50	200.50	209.00	206.00	207.50	202.00	204.50	201.50	206.00	210.50	223.50	219.50	203.50	170.50	151.00	141.50	134.00	131.00	126.00	125.50	126.50	129.00	129.00	128.50	126.50	117.00	120.00	123.50	122.50	121.00	119.00	119.50	115.50	116.00	109.50	108.00	108.50	106.50	103.50	99.50	98.50	100.00	100.00	101.00	98.50	99.50	101.00	101.50	101.00	101.00	101.00	100.00	103.50	105.00	104.00	97.50	98.00	97.00	96.00	97.00	97.00	97.50	94.00	93.00	95.00	91.50	100.00	100.50	102.50	102.00	103.50	102.50	101.50	100.50	96.50	91.50	94.50	94.50	87.00	93.50	91.00	99.50	98.50	100.00	99.00	98.00	97.50	96.00	93.00	92.00	84.50	91.50	93.00	93.50	92.50	92.00	84.50	89.00	91.00	89.50	86.00	88.00	87.00	86.00	86.00	85.50	87.50	83.50	83.50	82.50	80.50	77.50	76.50	76.00	84.50	86.00	86.00	83.00	83.50	78.50	81.50	81.50	75.00	71.50	72.50	75.50	68.50	70.50	74.50	72.50	66.00	66.50	69.00	53.00	49.00	66.00	71.50	70.50	77.00	66.50	58.00	54.00	44.50	45.00	44.50	37.00	41.50	46.00	57.00	72.50	61.00	48.00	45.50	45.00	41.50	40.00	40.00	34.00	44.00	42.00	35.00	24.00	27.00	37.00	47.00	50.50	48.50	45.50	41.50	39.00	31.00	30.50	32.50	30.50	33.50	32.00	34.00	32.00	38.00	39.00	32.00	29.50	33.50	32.50	31.50	28.50	23.50	20.00	29.00	23.50	25.00	34.50	40.00	41.50	42.50	32.50	22.50	23.00	23.00	23.00	23.00	24.00	23.50	17.00	13.50	16.50	35.00	41.50	34.00	29.00	32.00	38.50	44.50	41.50	41.00	43.50	46.50	48.50	52.00	55.50	60.50	62.50	62.50	67.00	71.00	72.50	71.50	64.00	63.00	69.00	70.00	71.50	69.50	68.00	69.50	68.50	63.50	63.00	68.50
234.00	247.75	271.75	294.25	298.75	297.50	298.00	287.25	262.75	234.25	222.50	217.00	197.00	192.75	192.25	190.75	197.00	199.25	199.75	207.00	208.50	208.50	209.50	205.50	207.25	216.75	224.50	236.50	231.25	213.50	196.50	183.00	170.00	155.25	144.75	135.50	128.75	128.75	128.50	127.25	123.00	119.50	116.25	116.50	115.25	114.75	113.50	111.00	109.50	109.25	106.50	105.00	104.75	104.50	102.50	102.50	103.75	101.50	103.00	103.75	100.50	98.25	98.50	100.00	102.50	103.25	103.50	103.25	104.25	105.75	106.75	106.50	102.25	100.00	99.50	97.25	94.75	95.50	97.25	93.75	93.75	95.00	95.50	100.50	101.25	104.00	104.50	103.25	102.25	100.25	99.75	98.75	96.75	92.75	94.25	95.50	87.25	88.25	98.75	101.75	100.75	98.75	98.25	97.75	97.75	94.50	95.25	84.50	96.00	97.25	96.50	95.00	93.25	89.25	92.25	89.75	77.00	86.25	88.50	89.00	88.25	87.50	87.00	86.75	84.75	86.50	85.00	81.50	80.25	81.50	81.00	84.50	87.25	87.75	87.50	86.50	87.00	84.25	83.25	79.25	76.00	70.25	75.50	73.00	72.50	75.25	75.75	70.25	66.25	64.25	54.75	61.75	64.75	64.25	70.25	74.50	67.75	62.00	64.25	59.75	48.50	46.00	41.50	38.50	42.75	58.25	64.25	51.75	45.25	43.25	43.50	41.25	39.25	40.00	37.75	42.25	40.50	32.00	22.75	26.50	40.75	45.00	44.75	45.50	46.75	41.00	41.50	34.00	35.25	34.00	30.25	28.00	28.25	30.00	36.00	42.00	42.25	35.00	36.75	30.00	32.75	33.50	35.00	29.75	23.75	29.00	25.25	21.25	30.75	26.75	27.00	37.25	42.50	31.00	23.75	24.00	24.00	22.50	22.75	23.75	23.75	17.00	15.25	23.75	36.00	36.00	30.25	30.50	36.50	44.25	43.25	42.00	43.75	47.25	52.00	57.25	57.00	56.50	58.00	62.75	68.75	77.00	77.00	71.25	62.75	61.25	67.75	72.00	71.75	71.50	72.75	71.75	70.75	72.50	71.00	72.25
225.50	231.75	256.50	280.00	296.25	302.00	295.25	287.25	271.00	252.25	241.00	223.00	206.00	198.50	196.00	187.50	190.50	193.50	195.50	209.50	213.75	214.50	219.00	210.50	207.75	215.00	224.75	241.25	240.00	229.75	214.00	202.75	192.50	181.75	167.50	148.25	133.50	132.25	129.75	127.25	123.00	121.50	120.25	121.00	120.50	120.00	118.75	114.00	112.75	113.75	112.50	108.50	108.50	105.50	102.25	103.50	105.25	103.25	102.75	104.50	101.75	100.25	99.75	100.25	102.50	103.75	104.25	104.25	104.50	105.00	105.25	105.00	103.00	101.75	99.00	96.75	95.75	97.00	98.50	97.00	97.25	96.75	97.00	101.50	103.00	105.25	105.75	104.25	102.50	101.00	100.00	99.75	99.25	93.50	98.75	102.25	88.75	86.00	96.00	101.25	101.00	100.75	99.00	98.25	98.50	96.50	96.25	91.25	97.00	91.50	96.50	95.75	93.25	92.75	91.75	88.75	65.25	86.75	88.75	88.75	89.00	88.75	87.25	88.50	86.75	88.25	86.25	84.25	82.75	83.50	82.50	87.25	87.00	88.50	88.25	85.75	88.50	87.00	84.25	77.50	77.50	70.75	72.50	71.00	71.75	75.00	71.00	69.50	67.50	58.00	63.25	64.50	65.00	64.25	64.75	71.50	69.75	66.00	66.50	64.00	53.25	45.25	41.25	37.50	40.25	52.00	56.00	47.75	44.50	42.25	41.00	40.50	38.00	39.25	38.75	40.00	38.50	31.25	22.75	27.25	39.50	43.00	41.00	39.00	44.00	39.00	39.25	32.75	31.75	31.50	27.50	28.00	31.25	35.25	32.75	37.50	33.00	30.50	32.50	27.75	32.25	34.75	36.75	32.25	24.50	23.75	25.75	19.25	21.00	15.50	13.50	23.25	42.75	35.75	22.00	21.75	23.25	24.00	23.75	23.00	22.75	18.75	15.25	17.25	28.50	29.75	31.50	31.25	35.50	43.00	42.75	44.50	47.00	48.50	54.25	58.50	59.50	57.50	58.50	62.75	68.75	76.25	75.50	70.00	63.00	60.50	64.75	70.00	68.25	67.00	71.00	72.50	71.75	77.00	75.00	76.50
224.00	221.75	243.50	259.25	277.00	293.75	292.00	284.00	270.00	260.75	250.50	224.00	210.50	202.25	199.75	195.50	193.50	190.00	195.75	213.75	222.50	221.00	224.75	215.50	211.00	210.75	218.25	232.25	236.50	241.00	222.75	210.00	204.50	200.50	196.75	168.25	140.25	136.25	132.00	128.00	133.75	130.50	130.00	129.25	128.50	128.25	125.25	119.75	120.25	120.25	119.50	115.50	113.75	110.00	106.75	108.00	108.25	106.50	102.75	103.75	102.50	102.00	101.00	100.50	102.00	103.75	104.50	105.25	105.50	105.25	104.25	103.50	102.50	102.00	99.00	97.50	99.25	99.50	100.00	99.25	100.00	99.50	100.50	104.50	106.50	107.00	107.25	104.75	102.25	101.00	100.00	99.75	96.00	92.25	102.25	105.00	90.50	86.00	95.50	100.25	100.75	101.50	100.00	101.00	99.50	98.75	97.25	97.00	97.00	83.00	95.75	96.50	94.00	92.75	90.75	89.75	62.75	84.25	88.75	88.00	88.50	88.50	88.00	89.00	88.25	89.50	87.50	86.75	84.00	84.25	81.75	89.75	88.50	87.75	88.75	81.75	84.00	86.75	84.00	75.00	74.00	71.00	71.00	72.25	74.75	73.00	65.25	69.50	69.00	58.00	69.75	63.50	68.75	68.50	61.75	65.75	67.50	65.50	67.00	67.75	59.00	46.50	43.75	37.75	38.50	43.50	45.75	43.75	44.75	44.50	42.50	40.25	41.50	43.00	37.75	34.50	32.75	27.50	22.75	32.00	38.00	38.50	37.00	37.75	43.50	39.25	31.00	28.50	29.75	28.50	27.50	28.00	33.00	37.50	29.25	33.75	30.50	28.75	29.00	26.50	28.75	31.50	32.25	26.00	20.75	25.75	33.00	25.00	13.00	13.00	13.00	18.25	41.50	40.75	28.50	25.75	23.50	22.75	23.00	25.75	21.75	17.50	15.50	14.50	19.25	23.75	30.25	30.50	35.00	41.25	42.75	46.50	48.75	50.50	55.25	59.00	60.00	59.00	61.00	64.75	69.75	73.75	73.50	69.75	64.50	59.50	63.50	67.50	63.75	61.75	67.25	70.25	69.75	74.00	72.50	76.00
241.50	232.50	223.50	235.00	250.00	267.00	275.50	281.50	273.50	261.50	245.00	218.00	212.00	204.00	210.50	205.50	202.50	204.00	213.00	224.00	228.50	225.50	224.00	223.00	219.00	216.00	213.00	214.00	220.00	224.50	213.00	207.00	202.50	194.50	198.50	177.50	149.00	143.00	139.50	138.50	143.00	142.00	148.00	145.00	137.50	136.00	128.00	129.50	130.50	133.00	129.00	118.00	119.00	114.50	115.50	117.50	121.00	118.50	112.50	110.00	106.00	103.50	102.50	101.50	101.00	102.00	103.50	105.50	106.50	106.00	105.00	103.00	100.50	99.50	99.50	98.00	99.50	102.50	103.50	103.00	103.00	101.50	102.50	108.50	111.50	111.00	110.00	106.00	102.50	101.00	100.00	90.00	88.00	100.00	92.00	99.50	86.00	86.00	97.00	99.00	102.00	102.00	100.50	100.00	99.50	101.50	101.50	101.00	101.50	98.50	98.00	95.00	91.00	91.00	86.00	88.50	61.50	80.00	88.00	88.00	87.50	88.50	90.00	85.50	88.00	88.50	89.00	87.00	86.50	86.00	85.00	90.50	90.50	90.50	88.00	77.00	77.50	78.50	80.50	78.50	74.00	66.00	68.50	68.50	71.50	74.50	71.00	70.50	65.00	56.00	71.00	66.00	77.50	66.50	59.50	53.50	66.00	62.00	63.00	67.50	65.00	49.50	49.50	42.50	42.00	41.50	43.00	41.50	43.00	43.50	42.00	44.50	46.00	44.50	36.00	34.00	32.00	26.00	26.00	35.50	40.50	32.50	37.50	40.50	40.50	38.50	33.50	31.50	32.50	28.00	29.50	25.50	26.00	32.00	30.50	26.00	27.50	24.00	30.50	27.50	29.00	32.00	29.50	28.00	25.00	31.00	27.00	35.50	29.50	18.50	24.50	33.50	33.00	29.50	29.00	37.00	26.00	36.50	31.50	24.00	22.00	17.50	15.50	14.50	17.50	24.00	26.50	28.50	38.50	39.50	42.50	47.50	49.50	49.50	51.50	57.50	56.50	60.00	61.50	66.00	73.00	73.00	73.00	70.00	66.00	62.00	64.00	63.00	61.50	65.00	70.00	68.00	68.00	67.00	66.00	77.50
214.50	222.75	216.25	209.25	223.00	234.25	248.50	264.00	257.75	260.75	250.25	227.25	220.00	207.25	207.50	221.00	228.75	233.25	239.00	235.00	231.75	231.75	226.75	226.50	223.50	223.75	217.00	208.75	201.75	198.50	196.00	193.00	190.75	181.25	175.00	168.75	152.75	144.00	135.25	139.00	147.00	155.75	156.75	155.00	151.25	148.75	141.50	139.50	139.25	135.75	130.75	127.75	129.50	133.50	134.50	138.50	141.75	135.75	127.25	124.25	116.25	112.00	107.75	105.00	104.00	103.25	104.50	104.75	105.75	104.25	104.50	103.75	103.50	103.25	101.75	101.50	102.00	103.00	104.25	105.00	105.00	104.25	103.75	106.25	111.25	111.00	110.75	107.00	104.25	101.25	100.25	92.75	104.50	104.75	102.00	99.25	91.25	96.25	100.75	99.50	100.75	102.75	104.25	101.50	98.25	101.50	101.50	100.75	97.25	96.00	94.75	92.25	94.75	90.75	80.25	66.75	61.00	62.25	76.75	89.50	89.25	88.50	89.25	94.25	92.25	91.00	89.75	88.25	87.00	86.00	85.00	92.00	92.50	91.75	84.50	74.25	76.00	80.25	83.25	77.00	67.00	64.75	66.25	67.75	70.50	70.50	72.50	70.50	60.00	59.00	68.25	63.50	67.00	66.50	67.00	62.75	59.75	64.00	60.75	64.75	66.75	58.25	54.25	52.75	55.75	49.00	43.75	43.25	44.50	44.75	41.50	40.50	39.50	45.25	43.25	35.00	27.75	30.25	36.50	28.00	29.00	29.25	34.75	36.00	35.25	38.25	35.50	33.25	34.25	30.00	28.75	29.50	28.00	29.50	29.25	25.00	23.00	22.75	23.50	22.00	24.75	24.00	28.25	26.25	24.50	31.00	25.75	24.75	30.75	40.50	46.00	45.00	41.50	24.75	21.25	29.25	29.00	26.00	24.75	19.00	32.00	27.00	19.25	17.00	15.75	20.75	29.00	31.25	38.50	44.75	50.50	50.75	50.25	51.50	53.00	57.75	57.50	61.00	64.00	65.25	66.75	68.25	66.00	64.75	63.50	62.75	66.00	63.25	62.25	68.00	70.00	66.75	65.00	67.00	67.75	77.75
208.00	209.00	208.75	204.50	207.25	214.25	228.25	240.75	241.00	258.00	248.25	223.50	211.75	208.75	208.00	218.75	234.00	242.75	244.00	229.25	228.00	230.50	230.75	229.25	227.00	226.25	220.25	211.25	200.50	193.25	191.25	187.75	186.25	173.50	164.00	156.75	148.50	145.00	139.25	145.25	155.00	160.25	158.50	156.25	152.00	147.75	143.75	146.75	144.75	138.75	137.50	135.00	135.00	143.00	145.25	148.25	148.25	141.00	136.75	135.00	127.00	121.00	115.00	111.50	108.25	106.25	106.50	107.25	106.75	104.25	104.25	105.25	104.00	104.75	104.50	103.25	103.75	98.75	102.00	105.75	106.50	107.25	104.00	103.00	107.75	109.25	111.25	108.25	106.00	102.75	101.00	97.00	109.00	105.25	107.50	103.50	99.75	102.00	103.50	102.00	102.75	103.50	106.25	102.75	101.50	103.75	102.00	97.50	89.50	92.75	95.75	94.75	93.00	86.75	73.25	61.25	61.00	71.50	81.50	92.00	91.75	90.50	90.50	97.50	96.50	95.00	92.75	90.00	88.50	86.00	85.75	92.00	93.25	93.50	85.00	75.25	76.25	81.00	82.75	77.25	68.00	67.50	64.50	64.50	67.50	69.75	68.00	66.75	57.00	64.00	63.75	61.50	61.75	63.00	67.50	68.75	59.75	65.75	62.00	62.25	63.75	59.50	52.50	59.00	61.75	48.75	44.75	45.50	44.50	44.00	42.50	40.50	41.00	47.00	44.75	36.25	29.25	32.25	37.25	34.00	25.75	27.00	30.25	35.00	36.75	40.50	34.50	32.75	34.50	37.25	28.75	31.00	32.25	32.50	27.75	22.25	21.25	22.00	22.75	23.50	25.00	24.75	25.50	28.50	25.00	28.00	29.75	28.75	35.00	40.25	44.75	44.50	45.00	31.50	19.00	30.25	32.50	20.00	15.75	16.50	24.75	29.50	21.75	21.50	15.00	18.50	31.25	35.50	40.25	44.75	50.50	50.50	51.00	52.50	53.25	60.00	62.75	63.00	62.00	61.50	62.00	62.50	61.50	59.75	59.75	59.75	64.75	62.50	62.00	68.25	67.50	65.00	65.75	68.00	69.75	79.50
201.50	202.25	200.25	200.75	201.25	204.75	213.25	221.00	225.75	241.25	230.00	211.25	209.50	220.25	210.00	217.50	238.75	249.00	236.50	223.50	226.00	231.75	235.00	234.50	232.75	228.75	223.25	216.50	209.25	204.75	199.75	188.75	183.50	173.00	166.25	154.00	148.00	152.50	150.50	155.25	161.75	162.00	163.00	159.75	149.25	142.75	148.50	150.75	146.50	143.75	146.25	140.50	142.25	152.75	157.25	158.75	156.50	153.75	147.50	146.50	138.25	130.00	125.00	122.25	116.75	111.75	109.00	109.25	108.00	105.75	106.25	106.75	104.75	107.00	106.75	104.50	104.75	92.75	94.75	104.75	107.50	109.75	107.00	107.25	106.75	108.25	110.50	108.75	109.00	106.00	98.50	101.75	103.75	104.75	108.25	104.50	105.50	104.25	106.25	105.50	105.50	105.25	106.25	103.25	103.25	103.00	99.75	92.75	84.50	95.75	97.75	94.75	84.75	71.75	65.00	61.00	64.75	83.25	87.25	96.50	95.50	95.75	96.25	97.00	97.25	96.25	93.75	91.00	89.75	86.75	86.75	92.75	94.25	95.00	87.25	80.50	78.00	81.50	80.50	76.25	69.75	71.50	65.75	62.75	64.00	65.75	62.25	65.00	57.50	66.00	63.00	60.75	61.50	62.50	64.00	67.75	62.50	65.50	64.75	62.75	61.50	58.75	52.00	63.50	61.75	50.00	42.75	44.50	44.25	44.00	43.25	41.75	42.25	48.50	42.75	33.25	32.50	37.25	37.75	37.00	30.25	28.50	29.75	37.25	41.00	39.50	32.75	31.25	34.50	43.25	36.50	38.75	37.00	30.50	25.00	21.50	23.75	20.75	19.25	22.25	24.75	24.25	23.25	27.50	30.25	32.00	38.75	39.50	41.75	41.00	43.00	47.00	50.00	43.75	37.25	36.00	33.75	24.25	13.50	13.75	16.00	27.75	23.50	25.50	17.00	17.50	28.00	35.25	39.75	43.00	45.50	47.75	50.25	51.25	51.50	57.25	63.00	64.50	60.00	57.75	58.50	60.00	60.00	57.75	56.25	55.25	61.25	59.25	58.75	64.00	62.25	63.25	66.00	69.75	73.25	82.25
191.00	192.50	200.50	199.50	194.00	194.50	196.50	199.50	199.50	197.50	195.00	202.00	215.00	227.00	209.50	221.50	235.50	239.00	242.00	243.00	250.00	263.00	265.00	255.00	255.00	243.00	234.50	230.00	223.00	220.00	219.50	205.00	189.00	177.00	168.00	160.00	160.00	169.00	170.00	173.00	176.00	174.00	168.50	160.00	153.00	150.50	152.00	157.00	152.00	150.50	152.50	144.00	142.50	163.00	167.00	166.50	166.50	165.00	156.50	159.50	157.50	147.00	147.50	140.50	129.00	123.00	119.00	115.50	112.00	111.00	109.50	107.50	106.50	110.50	110.50	106.50	106.00	105.00	88.00	93.00	107.50	110.00	110.00	112.50	112.50	108.50	110.00	110.00	106.00	94.00	97.00	109.50	92.00	105.50	105.00	107.00	110.00	109.50	110.50	110.00	108.00	110.00	108.00	105.00	103.00	95.50	87.00	80.00	85.00	100.00	98.50	91.00	67.00	61.00	61.00	61.00	80.50	84.00	88.00	97.00	97.50	99.00	99.50	98.00	99.00	96.00	95.50	93.50	94.50	90.50	88.50	96.00	96.00	94.50	88.00	85.00	83.00	81.50	80.50	71.00	74.00	69.00	70.50	72.50	63.00	62.00	66.00	70.00	64.00	62.00	59.00	58.00	58.00	59.00	59.50	64.50	58.50	59.50	61.00	62.00	56.50	60.00	57.50	63.00	60.50	56.50	49.50	46.00	44.50	44.50	43.50	42.50	48.00	55.50	43.00	34.50	35.50	41.00	46.00	40.50	31.00	28.50	33.00	44.50	41.50	32.00	31.00	32.00	43.00	48.00	41.50	44.00	42.50	30.00	32.50	32.00	25.00	24.50	24.00	20.50	19.50	22.50	25.00	24.00	21.50	27.50	40.50	44.50	43.50	40.50	38.00	48.00	51.00	52.00	57.50	45.00	37.00	30.50	16.50	13.00	18.00	30.00	24.50	25.50	23.00	18.50	28.50	33.00	36.50	40.50	38.50	35.50	36.00	40.00	43.50	53.50	55.50	58.50	56.50	54.00	56.00	61.00	60.50	61.00	61.50	60.50	62.50	57.00	55.00	62.00	59.00	62.00	66.50	66.00	75.50	86.00
187.50	191.50	200.50	206.50	197.00	195.00	196.50	195.50	193.50	196.50	194.50	208.50	209.00	216.00	216.00	221.50	231.00	232.50	244.00	257.00	276.50	293.50	288.00	272.00	259.00	263.00	249.50	241.50	243.00	245.00	238.00	221.50	201.00	177.50	169.00	165.50	169.50	174.00	175.50	177.00	172.50	170.50	164.00	160.50	154.00	156.00	158.50	159.00	158.50	160.00	159.00	154.50	143.00	160.50	167.50	173.50	174.00	168.50	163.00	167.50	153.50	152.50	156.00	148.50	135.50	134.00	130.00	122.50	118.50	117.50	114.00	110.00	107.00	108.50	110.00	110.50	109.00	106.50	98.50	100.50	106.50	108.50	110.50	112.00	115.50	110.50	108.00	106.00	98.50	108.50	113.00	105.50	87.00	97.00	106.50	107.00	109.50	112.50	111.50	112.50	111.00	111.00	109.00	106.50	102.50	87.00	77.50	89.50	97.00	97.00	95.50	88.50	76.50	69.50	67.50	72.50	90.00	88.00	91.00	95.00	99.00	100.50	99.50	100.00	100.50	98.00	98.00	96.00	95.00	92.50	92.50	99.50	97.00	97.50	94.00	85.00	82.50	81.50	75.50	79.00	75.00	71.00	66.50	73.50	66.50	61.50	63.00	66.00	63.00	60.50	58.00	59.00	58.50	58.50	58.50	57.00	60.00	61.50	57.50	59.50	53.00	46.50	53.00	54.00	59.00	59.50	51.00	47.50	46.00	45.50	42.50	42.00	46.00	50.50	39.50	32.50	36.00	36.50	44.50	42.00	34.00	27.50	28.50	40.00	39.50	34.50	30.50	31.50	47.00	50.50	45.50	45.50	40.00	31.50	31.50	35.50	23.00	19.50	21.00	18.00	19.50	21.00	21.50	23.00	24.50	28.00	38.50	46.50	38.00	43.00	34.00	48.00	53.00	53.00	49.50	44.00	44.50	32.00	31.00	13.00	17.00	29.50	27.00	25.50	23.00	15.50	24.50	30.50	37.00	47.50	40.00	36.50	33.50	32.50	37.50	50.00	51.50	56.50	55.00	52.50	56.00	59.50	60.00	59.50	60.50	63.00	63.50	62.50	58.50	61.00	62.50	62.50	64.50	69.50	75.00	88.50
183.00	184.00	195.00	201.00	192.00	192.00	195.00	195.00	191.50	199.50	206.50	211.00	213.50	218.00	229.50	229.50	235.00	234.00	244.00	256.50	272.00	275.00	294.00	288.00	266.00	262.50	259.50	251.50	250.00	237.50	234.50	222.00	203.00	177.00	170.50	176.50	184.50	186.50	186.00	183.50	177.00	169.50	164.50	162.00	162.00	166.50	167.00	168.50	166.00	165.50	167.00	157.50	147.50	164.50	173.50	177.00	180.00	178.00	174.50	175.00	170.00	158.00	151.00	148.00	148.50	149.50	145.50	129.50	124.50	125.00	122.00	113.50	112.00	113.00	112.00	111.50	111.00	111.50	94.50	94.00	98.50	106.00	110.00	112.00	114.50	109.00	107.50	100.50	106.00	116.00	115.50	97.50	87.00	103.50	108.00	109.00	110.50	110.00	111.50	113.00	111.50	110.50	108.50	107.00	91.00	76.00	85.00	100.00	100.00	93.00	85.50	83.50	77.00	79.50	82.50	91.00	97.00	90.50	93.50	94.50	97.00	99.00	100.00	101.50	101.50	97.50	96.00	96.50	95.00	93.00	94.50	102.50	103.00	102.50	101.00	99.50	95.00	88.50	78.50	79.50	79.50	73.00	72.50	72.00	71.50	65.50	63.00	65.50	65.00	59.50	58.00	56.50	56.50	58.00	57.00	55.50	59.00	56.50	55.00	58.00	54.50	48.50	52.00	54.50	56.00	53.50	48.50	49.00	44.00	44.50	41.50	42.00	53.00	49.50	39.50	31.00	38.50	32.50	39.50	41.00	34.50	29.50	31.50	35.50	40.00	33.50	31.00	33.50	37.00	48.00	50.50	47.50	39.50	26.50	30.50	38.50	23.50	18.00	18.00	17.50	18.00	19.50	20.00	18.50	20.50	23.50	33.50	42.50	34.00	41.00	30.50	43.50	54.50	51.50	46.50	44.00	44.50	38.50	37.50	21.00	28.00	26.00	25.00	25.00	21.50	16.50	18.50	27.50	37.50	44.50	40.00	35.50	32.50	26.00	32.00	43.00	48.00	51.50	50.50	53.50	59.00	62.00	61.00	57.50	60.50	62.50	64.00	65.00	58.50	59.50	64.50	69.00	74.00	77.50	81.00	90.00
183.00	179.00	181.50	183.75	186.25	188.00	189.25	187.25	194.50	199.00	200.00	206.75	204.25	211.00	220.75	230.25	245.50	258.25	260.25	265.75	272.75	288.75	332.00	338.25	304.75	283.25	272.50	261.25	253.00	249.00	229.50	198.00	190.50	186.00	184.50	189.50	194.75	205.25	210.25	207.00	191.75	180.25	175.25	174.25	174.25	177.75	178.50	177.50	174.25	172.25	175.25	168.75	159.25	163.75	174.75	180.75	181.00	174.50	171.50	179.00	171.75	160.25	160.00	160.00	161.25	163.00	157.50	142.75	137.00	129.25	118.50	123.25	123.75	122.00	119.50	116.75	114.25	111.75	104.50	101.00	93.75	97.50	109.25	111.25	112.50	111.00	103.75	112.25	118.50	125.50	117.75	105.50	102.25	112.00	111.75	111.75	112.25	113.25	113.00	113.00	112.00	110.00	100.75	83.00	78.50	89.75	95.75	93.50	90.00	88.50	87.00	85.75	87.50	86.50	82.75	89.00	92.50	90.25	91.25	95.00	97.00	99.75	101.25	101.75	101.00	99.50	98.75	98.00	95.25	93.50	95.50	105.75	105.50	107.75	105.00	100.75	97.25	92.75	93.75	91.25	90.50	82.50	90.50	83.50	77.50	70.25	65.75	68.75	67.25	66.25	58.25	57.50	56.00	56.00	54.50	54.50	55.50	54.00	56.00	54.00	52.00	50.00	57.75	55.00	52.00	54.50	51.50	47.75	47.50	50.00	47.75	49.25	48.25	42.25	36.50	42.50	46.00	40.00	37.00	45.25	38.75	24.75	33.50	33.75	32.00	29.50	35.50	34.50	33.75	32.75	38.25	44.00	33.00	28.00	50.75	46.00	33.75	19.50	18.00	18.00	18.00	18.25	18.75	20.50	21.00	21.75	26.25	31.50	34.75	37.50	33.00	38.75	51.00	49.75	50.75	46.00	37.25	46.00	45.25	34.25	38.00	27.25	17.75	19.00	21.75	18.25	17.00	19.00	33.25	35.00	32.75	30.75	30.25	27.00	27.75	36.75	41.50	45.50	47.50	52.00	58.00	58.50	58.50	57.50	58.50	60.00	60.75	58.50	52.50	58.00	65.50	72.00	77.75	84.00	86.75	84.75
182.50	178.50	179.00	181.00	187.00	189.50	188.00	186.50	196.50	199.00	199.50	204.50	199.50	207.00	219.00	234.00	254.50	267.50	264.00	267.00	270.00	290.00	338.50	348.00	321.50	296.50	279.50	263.50	255.50	253.50	235.00	195.00	190.50	192.00	189.50	192.00	198.00	209.50	216.50	214.50	199.00	185.50	180.00	179.00	179.00	182.00	182.50	180.00	177.50	175.00	177.00	172.00	164.00	164.50	174.50	180.00	177.00	172.00	169.00	177.50	169.50	161.50	161.50	162.00	162.00	162.50	156.50	145.50	140.00	130.00	119.50	130.50	130.50	128.50	125.00	119.50	116.00	113.00	111.50	112.00	100.50	95.50	108.50	110.50	113.50	114.00	108.50	116.50	122.50	127.00	118.00	110.00	106.50	113.50	112.00	113.00	113.00	114.00	112.50	113.00	112.00	110.50	94.50	76.00	80.00	99.50	98.00	89.50	84.50	87.00	89.50	90.50	91.50	92.00	84.50	89.00	92.00	90.00	88.50	94.00	97.00	99.00	101.50	101.50	101.00	98.50	99.00	98.00	95.00	94.00	95.50	105.00	106.50	109.50	106.00	100.50	96.00	94.00	97.00	90.00	93.50	85.50	94.50	91.00	81.00	73.00	69.50	69.50	66.50	65.00	58.50	57.00	56.00	56.00	54.50	54.50	54.00	53.50	57.50	52.00	53.00	50.50	58.50	57.00	51.50	53.50	50.50	47.00	49.00	49.50	50.00	50.00	43.00	38.00	34.50	45.00	45.50	42.00	38.50	47.00	42.00	26.50	35.50	33.00	28.00	29.50	37.50	34.50	33.00	31.50	33.00	41.50	26.50	25.00	51.50	48.00	38.50	20.00	18.00	18.50	18.00	18.50	18.00	18.50	19.50	22.00	23.50	27.50	36.50	39.50	34.00	36.00	48.50	51.00	54.00	44.50	31.50	46.00	47.00	38.50	42.00	30.00	18.50	16.50	21.00	17.50	18.00	19.00	32.00	33.50	33.00	28.50	27.00	27.50	27.00	35.50	39.50	44.50	47.00	52.00	57.00	57.50	58.00	57.00	58.00	59.00	59.50	56.50	51.00	58.00	66.50	73.50	79.50	85.50	87.00	83.00
177.00	176.25	180.50	181.00	172.50	177.25	184.75	183.50	183.25	208.25	223.25	213.50	206.75	233.25	252.50	258.50	246.75	248.75	256.75	271.75	272.50	269.75	303.00	329.25	341.50	332.00	299.75	281.00	263.75	255.75	234.75	212.50	213.50	217.00	214.25	213.00	216.75	219.00	222.75	225.75	224.75	217.75	207.25	197.50	198.75	202.75	195.75	188.75	187.25	185.75	187.50	176.00	176.50	184.25	177.50	184.00	189.75	188.25	183.00	175.75	176.00	179.50	177.50	176.75	170.25	166.75	162.75	152.25	148.00	133.75	131.00	147.50	148.50	145.50	141.00	138.50	131.25	122.50	120.00	117.50	118.50	114.50	107.25	108.00	114.00	112.75	117.00	129.25	130.75	124.50	116.75	112.00	111.50	111.75	112.25	113.25	114.50	116.75	114.25	113.75	109.75	104.50	79.00	89.00	98.75	95.00	89.00	86.75	88.25	99.50	99.25	99.25	98.50	93.50	91.00	94.25	95.25	95.25	95.25	91.00	93.00	97.25	98.25	101.50	101.50	100.50	100.75	97.75	95.25	94.75	94.75	105.50	107.25	106.25	105.00	105.75	103.00	98.75	97.00	96.25	97.25	83.50	82.75	86.75	85.25	81.50	81.50	81.75	73.25	76.25	66.25	62.25	59.25	56.50	54.25	55.25	55.75	53.00	57.75	54.00	52.25	54.00	56.25	53.50	53.00	53.00	53.25	51.50	53.75	54.75	47.25	40.75	37.50	34.50	32.25	39.25	40.00	35.75	34.25	37.50	33.75	33.00	30.50	33.75	27.75	28.00	31.25	29.00	27.00	27.25	27.75	30.50	22.25	13.00	19.25	41.50	38.00	27.50	22.75	20.50	19.50	19.75	18.50	21.00	21.00	18.75	25.25	26.25	28.50	32.25	33.00	30.50	38.25	47.25	49.75	48.00	37.25	43.25	48.75	45.00	47.00	35.00	25.75	21.75	17.25	16.25	20.25	24.50	38.75	33.50	28.25	26.25	24.00	22.25	26.25	36.25	40.75	43.50	44.00	49.50	54.00	54.50	54.25	53.75	54.25	54.00	53.25	53.50	54.75	58.25	66.50	72.75	78.50	86.00	87.75	84.75
179.50	175.00	176.25	177.25	171.75	176.00	181.50	178.00	185.00	202.75	223.25	217.75	205.75	228.00	248.25	258.00	248.25	247.25	255.25	273.50	285.50	273.75	278.25	293.25	323.00	334.00	312.50	294.25	272.50	263.00	246.00	225.00	224.50	233.25	232.75	226.75	227.75	227.00	229.25	232.25	231.75	229.50	222.25	216.50	216.50	219.00	211.00	199.25	194.00	193.00	192.75	182.00	185.00	193.75	186.75	190.25	193.50	190.25	187.75	185.25	187.00	187.75	186.75	186.00	179.00	175.50	168.75	159.75	154.00	137.00	135.25	154.75	157.75	153.50	146.25	145.50	136.25	126.25	125.25	121.50	117.25	119.00	112.50	106.50	110.25	114.25	127.50	136.75	132.50	126.75	119.00	117.75	114.50	112.75	111.00	113.25	115.50	116.50	113.00	113.25	108.50	104.25	82.00	92.50	96.25	89.25	87.25	88.50	92.00	101.25	102.50	102.50	100.75	97.00	91.00	96.25	96.25	96.75	96.75	94.75	92.50	97.50	97.50	101.25	101.00	100.00	99.50	97.75	96.00	94.75	95.00	105.75	107.25	106.75	102.00	107.00	102.00	96.25	96.50	98.00	99.25	85.75	85.00	86.50	82.25	79.75	80.25	81.00	76.00	80.75	72.50	70.00	68.00	64.50	59.50	61.25	58.00	52.50	56.50	54.75	50.25	55.00	54.50	52.50	53.25	53.75	52.50	50.50	55.50	53.50	42.25	39.00	37.50	34.00	30.25	38.75	39.00	33.25	32.00	40.50	32.00	35.50	25.75	30.25	31.25	28.25	27.00	27.50	28.50	27.00	26.75	27.75	21.75	13.00	13.25	32.50	38.50	28.25	26.00	22.25	22.00	18.75	18.00	21.25	22.00	21.25	24.50	25.50	23.00	23.25	24.50	25.00	32.00	42.00	45.75	46.25	37.75	34.75	44.25	42.50	45.75	34.50	26.75	23.25	15.50	15.25	22.25	29.00	43.00	33.75	28.25	24.00	22.25	22.00	28.00	37.50	41.25	42.50	41.50	48.00	52.25	53.50	53.75	53.25	51.25	51.00	55.00	58.25	60.75	63.00	70.00	73.00	77.00	82.50	83.00	79.75
184.75	180.75	175.00	176.25	175.00	182.25	179.00	175.25	186.00	198.75	220.00	217.25	201.50	207.25	225.50	243.25	250.00	249.50	258.75	274.00	290.00	280.25	271.25	270.00	295.25	310.75	305.75	299.50	280.50	268.75	257.75	236.00	239.00	246.00	245.75	236.25	231.00	232.50	237.00	246.50	241.75	237.00	233.00	232.50	230.50	229.50	223.25	213.00	206.25	201.50	197.75	192.75	194.00	196.25	191.75	194.50	197.00	194.25	190.00	189.50	191.75	191.50	190.00	188.00	185.25	185.00	176.00	165.25	159.00	139.00	140.25	165.25	169.25	163.00	152.00	146.75	129.75	125.00	122.50	122.00	119.75	123.00	117.50	111.75	110.25	124.25	133.75	136.50	127.50	125.25	123.00	124.50	119.00	113.75	112.50	113.75	114.50	115.25	109.00	110.00	106.25	107.25	93.75	91.50	92.25	89.75	90.25	92.50	93.00	98.50	101.00	101.25	102.25	100.75	92.75	97.25	97.75	97.75	97.25	98.00	93.75	96.00	97.75	100.00	99.50	98.50	97.75	97.00	94.25	93.00	94.00	106.25	109.25	109.50	101.25	104.25	99.25	93.25	93.25	93.25	97.25	86.25	87.75	87.50	83.00	81.50	81.25	79.25	77.00	76.50	75.25	76.00	76.75	72.25	67.00	69.25	63.00	57.50	58.00	55.75	53.00	56.50	53.25	53.25	55.75	55.75	51.75	50.75	55.00	51.00	42.75	41.50	40.00	36.00	31.00	38.75	38.50	33.00	35.00	43.50	33.75	34.00	29.75	27.50	28.25	26.50	24.50	25.25	26.75	24.75	25.50	26.00	24.25	15.75	14.25	27.00	31.00	24.25	26.00	23.75	24.50	19.75	19.25	21.50	22.50	25.00	27.00	25.00	22.75	21.25	20.50	21.75	25.75	36.25	43.25	45.50	41.00	30.25	35.50	40.75	42.00	33.00	26.00	23.25	15.25	15.75	21.00	28.00	40.25	34.25	28.00	22.00	21.75	23.75	28.75	37.50	41.75	43.00	40.50	46.75	49.75	50.00	49.25	49.00	48.25	55.00	61.50	59.75	64.00	68.75	72.25	73.00	75.00	77.75	75.50	72.00
183.50	182.50	179.00	186.00	183.50	184.50	176.00	173.50	180.50	200.00	199.00	200.50	211.00	191.50	195.50	211.00	227.00	231.50	244.00	262.50	286.00	306.00	285.00	271.00	274.00	287.50	275.00	279.00	287.00	272.00	254.50	253.00	255.00	255.50	257.50	257.00	249.50	237.00	236.00	249.00	252.00	248.50	246.50	245.50	243.00	239.00	234.50	228.00	223.00	210.50	208.00	206.00	203.00	204.50	201.00	205.50	207.50	208.00	202.00	201.50	205.00	204.50	200.50	193.00	189.00	187.00	186.00	161.50	153.00	141.50	157.50	168.00	180.00	167.50	144.50	136.00	131.50	128.00	121.50	120.50	125.00	127.00	119.00	118.00	118.00	127.50	129.50	128.50	123.50	123.50	123.50	120.50	117.50	116.50	115.50	114.00	113.50	110.00	104.50	106.00	107.50	111.50	101.50	98.00	98.50	95.50	94.50	96.50	98.00	101.50	101.50	103.50	106.00	102.00	93.00	95.00	99.00	99.50	99.00	98.50	95.50	94.50	96.00	97.50	97.00	98.00	96.50	95.50	93.00	90.00	89.00	111.00	112.00	104.50	98.00	101.00	101.00	97.50	95.50	94.50	101.00	88.50	86.50	86.50	84.00	83.50	84.00	83.50	82.50	78.00	90.00	97.00	89.00	80.00	76.00	71.50	69.00	70.50	74.50	69.00	72.00	62.50	56.50	55.00	55.00	53.50	55.00	50.50	50.50	57.00	50.50	44.50	36.50	33.00	33.50	37.50	39.00	33.00	33.00	38.00	32.50	31.00	36.50	31.50	22.00	24.00	26.50	25.00	24.00	25.50	26.50	26.50	33.00	32.50	24.00	23.00	23.50	22.50	24.50	22.50	20.00	20.50	23.00	26.00	29.00	33.50	35.50	29.50	20.00	20.50	20.50	21.50	23.50	29.50	35.50	41.00	38.50	35.50	26.50	33.50	37.50	30.00	26.00	25.50	18.00	16.00	18.00	23.50	31.50	30.50	25.00	22.00	22.00	25.50	28.50	35.00	38.50	41.00	42.50	42.50	41.00	49.00	54.00	56.50	56.50	60.00	61.00	63.50	65.50	68.50	71.00	72.00	74.00	72.00	70.00	79.50
184.00	184.50	189.75	188.00	183.75	182.25	177.75	184.25	180.00	181.50	180.50	198.25	207.75	206.25	196.75	198.50	207.50	212.75	221.00	232.00	241.00	249.75	253.50	258.75	266.25	266.75	262.25	266.25	271.25	274.25	269.25	258.00	261.00	267.50	266.25	264.75	262.50	257.25	259.25	264.00	259.50	254.50	250.00	252.25	253.25	251.00	247.50	240.25	233.00	226.75	222.50	219.00	216.25	216.00	220.00	222.00	220.50	217.25	215.00	213.75	216.50	214.25	205.75	199.50	189.50	179.50	177.00	162.75	153.25	159.00	170.00	172.00	168.75	166.00	165.00	160.25	154.50	149.25	138.25	143.00	140.00	133.00	121.75	105.00	123.50	122.50	125.25	127.25	124.00	123.50	122.50	121.00	118.50	114.75	111.75	111.75	109.75	109.75	105.50	103.00	106.75	101.25	95.75	100.75	102.25	101.25	102.25	96.00	97.00	102.00	107.00	105.50	104.75	104.50	102.75	102.00	100.25	101.00	100.25	97.50	97.50	97.50	98.00	96.50	95.25	93.25	94.25	91.75	90.75	90.75	93.25	111.00	109.25	109.75	113.75	109.75	101.50	93.25	92.50	94.25	97.75	92.50	92.25	91.75	89.00	89.25	86.25	79.75	79.50	81.75	89.50	88.25	80.25	81.00	82.00	80.25	70.75	67.25	69.75	70.00	78.75	72.00	67.75	65.25	64.25	65.00	60.00	53.25	55.75	54.75	48.50	43.75	43.00	43.50	37.75	31.75	36.00	34.00	31.50	35.75	31.00	32.00	32.00	36.50	34.00	22.75	28.75	26.50	25.50	28.25	26.50	23.75	27.00	26.00	23.50	24.50	27.00	24.25	23.50	25.50	26.00	25.00	24.25	26.50	27.25	29.75	33.25	28.75	23.25	22.75	23.50	23.50	22.00	23.25	27.00	33.25	39.25	41.00	37.00	34.25	38.25	31.50	27.50	24.25	17.50	16.50	17.50	20.75	26.75	27.75	26.25	23.25	22.75	27.50	32.00	36.25	36.00	37.25	36.25	41.00	46.50	51.25	56.50	61.25	59.00	54.00	55.50	58.50	63.50	68.25	70.75	70.25	69.00	72.75	70.75	79.25
184.25	186.25	191.50	187.25	187.50	184.50	181.00	187.25	184.75	178.50	186.50	202.50	204.50	205.00	199.00	195.00	197.50	206.75	214.25	219.00	223.75	230.00	242.00	250.00	259.75	261.50	254.75	256.25	260.25	269.25	281.25	261.00	266.75	271.25	273.00	270.50	270.75	275.75	277.25	279.25	268.50	260.25	257.00	257.50	258.50	256.75	255.75	247.00	242.00	238.00	234.75	228.25	225.25	227.25	232.00	232.75	230.00	226.00	224.00	222.50	223.00	217.75	209.25	206.75	198.50	189.00	183.50	161.00	159.50	174.50	178.50	176.25	175.50	176.25	172.25	168.00	161.75	156.50	147.75	153.25	148.50	138.00	122.50	113.75	127.00	121.50	123.25	126.50	127.00	125.25	124.75	122.75	119.00	112.50	110.00	107.75	108.75	109.00	103.75	103.00	103.75	97.75	97.75	104.75	107.00	109.25	111.00	101.00	100.00	102.50	108.25	105.50	105.25	107.50	106.25	104.50	103.50	103.00	101.50	99.75	97.50	97.50	97.50	95.50	93.25	93.00	94.00	91.75	91.00	91.50	93.75	105.50	105.75	107.25	110.00	104.50	100.25	94.25	94.25	93.75	95.25	88.00	90.25	85.25	84.50	88.00	88.75	83.50	81.00	81.00	82.50	81.75	77.00	78.25	86.50	85.00	72.75	67.25	67.50	67.25	73.00	68.75	68.50	68.00	68.50	68.75	65.50	60.25	61.25	60.25	53.50	48.75	42.75	43.00	37.75	30.25	36.00	36.25	32.50	31.25	31.75	30.25	28.75	32.25	34.00	23.00	25.00	30.25	26.00	28.00	31.25	25.25	21.75	26.00	26.25	25.00	30.00	25.25	25.75	25.00	25.00	26.00	28.50	25.00	23.00	24.25	28.25	27.25	25.75	24.75	24.00	23.75	24.50	22.25	23.25	27.25	31.50	38.50	40.75	40.00	38.00	34.00	32.00	26.25	18.25	18.00	18.00	19.25	23.25	25.50	27.75	25.50	24.25	29.75	33.25	35.00	35.75	38.00	38.00	44.00	49.00	50.00	51.50	57.75	56.75	51.50	52.00	55.75	64.00	69.25	68.00	69.00	71.25	73.50	72.75	78.25
186.50	187.75	192.50	184.50	185.75	183.25	182.00	185.75	192.75	184.50	195.75	204.75	199.50	199.75	202.25	202.75	193.75	202.25	215.75	225.75	230.50	230.50	242.50	250.75	263.75	273.75	260.75	250.75	256.25	265.25	275.25	267.75	270.50	270.00	271.00	271.50	274.00	285.50	290.00	290.75	278.50	271.25	268.25	265.75	264.00	262.00	259.00	253.75	251.00	247.00	244.50	237.75	235.50	240.25	243.75	243.00	238.50	235.00	231.75	231.75	230.75	226.25	219.75	217.50	210.00	194.75	183.00	158.75	173.50	188.25	189.25	185.75	183.25	180.50	175.50	174.00	167.50	165.00	157.00	160.50	157.75	144.25	133.00	125.25	135.25	125.50	120.00	126.50	129.75	129.00	128.00	123.50	118.75	112.00	112.00	108.00	106.00	104.75	101.00	103.75	104.25	102.50	104.25	112.50	113.00	119.00	121.50	110.50	108.25	108.50	111.00	107.50	106.75	108.25	106.50	105.75	105.50	103.75	102.25	101.50	99.50	99.00	97.25	95.25	93.75	95.00	95.00	93.50	92.25	90.75	92.75	101.75	102.00	101.75	102.00	99.00	98.75	96.25	95.75	94.50	93.25	86.75	88.00	83.25	83.25	87.00	84.25	81.25	81.00	80.50	79.50	79.00	77.75	78.25	85.00	85.25	74.75	69.00	70.00	68.75	65.75	71.00	70.50	69.75	70.50	68.75	65.25	63.50	62.75	62.00	61.25	57.25	50.25	47.75	39.75	32.00	35.00	38.75	34.25	31.50	35.50	31.25	27.50	30.75	32.25	23.50	21.25	30.50	26.00	25.00	33.50	28.25	22.75	31.50	29.00	27.00	27.25	27.75	29.50	24.75	25.00	26.25	33.25	25.75	26.25	27.75	31.25	32.00	25.25	27.50	30.25	25.75	25.25	22.50	23.00	25.50	27.50	38.75	41.00	40.50	38.00	32.50	33.00	28.25	18.50	17.00	19.50	20.75	21.50	26.25	28.25	26.25	24.25	28.75	31.75	35.00	36.75	39.25	41.75	46.25	49.50	50.25	50.00	55.25	52.75	53.75	52.50	53.75	61.25	63.50	64.50	69.50	73.50	76.75	77.50	81.25
190.50	191.50	186.00	181.00	178.50	176.50	187.50	180.00	194.50	189.00	195.50	190.00	193.00	199.50	204.50	210.50	206.00	206.00	216.50	229.50	256.50	266.00	249.00	247.00	264.00	279.50	276.00	260.00	263.00	268.00	271.00	287.50	274.50	260.50	262.50	276.00	293.50	295.50	295.50	305.50	297.00	290.50	284.50	278.00	285.50	280.00	275.50	271.00	264.50	258.00	255.50	253.50	252.50	257.50	259.50	253.00	251.50	247.00	246.50	245.50	241.00	238.50	228.50	220.50	208.50	195.50	183.50	169.00	194.00	213.00	216.00	207.50	190.50	192.00	185.50	179.00	178.50	174.50	167.00	170.00	168.50	153.50	154.50	142.00	145.50	151.00	124.00	124.50	133.50	128.50	124.00	116.50	120.50	115.50	113.50	107.00	103.00	101.50	100.00	101.50	106.00	109.50	113.50	123.00	123.50	129.00	132.00	129.50	125.50	127.00	124.50	117.00	112.50	109.00	111.00	109.50	107.00	105.50	105.00	103.00	101.50	100.00	98.00	96.00	97.00	99.00	97.50	95.50	94.00	91.00	94.00	106.50	101.50	100.50	107.00	102.00	97.50	96.00	93.50	93.50	89.00	88.00	88.00	83.50	88.00	88.50	81.00	79.50	79.00	79.00	77.00	76.50	80.00	81.50	83.00	83.00	77.00	74.00	72.50	68.00	60.50	73.00	74.00	77.00	80.00	76.50	64.50	68.00	69.50	63.00	62.00	58.00	52.00	51.50	46.50	43.50	41.00	42.50	38.00	37.00	36.50	32.00	33.50	31.50	31.00	25.00	20.50	28.00	23.00	23.00	30.00	26.50	29.00	34.50	33.00	27.50	24.00	15.00	14.00	20.50	22.50	27.00	29.50	25.00	26.00	34.00	38.50	34.50	30.00	42.50	40.00	32.50	27.50	23.00	19.50	19.00	20.50	32.50	39.50	33.50	31.00	34.50	35.00	29.00	20.00	15.50	19.00	20.50	16.50	23.50	24.00	23.00	28.50	31.00	31.00	33.50	32.50	36.50	39.00	43.50	48.00	52.50	54.50	50.00	53.50	59.00	60.50	59.50	56.50	59.50	67.00	75.50	76.50	80.50	85.00	88.50
190.00	199.50	189.00	184.00	180.50	188.00	193.50	185.50	184.00	180.50	186.00	184.00	188.50	195.50	199.50	199.00	203.00	208.00	215.50	220.50	240.00	257.50	258.50	247.00	254.50	269.50	279.50	281.00	263.00	261.00	270.50	276.50	270.00	250.50	253.50	276.50	305.50	308.00	309.50	310.50	306.00	299.00	291.50	290.50	305.00	299.00	290.50	292.00	283.50	273.50	273.50	261.00	260.00	263.00	264.50	259.50	257.00	254.00	251.50	254.50	263.00	253.50	238.00	232.00	223.50	217.00	203.50	175.50	190.50	213.50	218.50	212.00	197.50	198.50	197.50	196.00	186.50	173.50	175.50	174.50	166.50	157.50	168.50	158.00	151.50	151.00	146.00	124.00	124.00	125.50	134.00	130.50	122.50	116.50	113.00	112.50	107.50	107.50	108.50	111.00	110.00	111.00	113.00	125.00	132.00	134.00	135.00	134.50	136.00	138.50	134.00	128.50	123.50	115.50	118.00	116.00	108.50	107.50	105.50	102.50	103.00	100.50	96.50	94.50	96.00	98.50	98.00	98.00	94.50	92.00	94.00	106.50	100.00	103.00	108.50	104.00	101.50	95.00	92.50	90.00	89.50	90.50	93.00	86.00	87.50	86.00	87.50	88.00	82.50	79.50	77.00	76.50	75.50	76.00	77.00	86.00	81.00	78.00	75.00	69.00	67.00	72.00	68.00	71.00	75.00	76.50	74.50	77.50	72.50	69.00	65.00	64.00	62.00	56.50	54.50	56.50	48.50	45.00	44.50	46.50	43.50	34.50	31.50	30.50	32.00	27.00	20.00	23.50	23.00	27.00	25.50	26.00	32.00	36.50	29.00	23.00	17.50	14.00	14.00	21.50	26.50	27.00	26.50	25.50	27.00	30.00	34.50	36.00	30.00	37.50	40.00	31.50	30.00	28.50	24.00	21.00	18.50	27.50	33.00	32.00	26.00	31.50	34.00	29.50	20.50	18.00	19.50	25.00	16.00	17.00	18.50	24.50	28.00	32.00	34.50	30.50	33.00	33.50	37.00	42.00	48.50	52.00	50.00	51.50	59.00	61.00	59.50	59.50	60.50	61.50	68.50	78.50	81.00	84.00	87.00	92.00
197.00	207.50	194.00	179.50	179.50	191.50	193.50	189.50	182.00	179.00	185.00	184.50	186.50	189.50	197.00	192.00	196.00	204.00	213.00	222.00	227.50	245.50	260.50	255.00	244.00	251.00	264.00	261.00	254.00	259.00	256.50	263.50	264.50	255.00	254.00	265.00	291.50	310.50	333.50	317.50	318.00	312.00	299.50	305.50	315.00	313.00	312.50	323.50	302.00	286.50	279.00	268.00	268.00	271.00	267.00	264.00	264.50	267.50	269.50	290.50	301.50	275.50	255.00	254.50	240.50	227.00	211.50	189.50	200.00	211.00	211.50	209.50	206.50	208.50	208.00	204.00	193.00	175.00	167.00	163.00	159.50	162.50	172.00	160.50	156.50	147.00	140.00	140.00	131.00	142.50	132.00	132.50	133.00	133.50	128.50	124.50	118.50	119.50	117.00	118.50	118.50	117.00	122.00	134.00	141.50	139.50	143.50	143.00	144.50	141.50	139.00	137.50	135.50	131.00	125.50	121.00	110.00	108.00	104.50	100.00	100.50	96.50	95.00	93.00	95.00	99.00	99.00	98.50	94.50	93.50	97.50	107.50	105.00	104.00	102.50	90.50	89.00	92.00	92.00	86.50	87.50	90.00	90.00	85.50	86.50	83.50	81.00	82.50	81.00	78.50	77.50	76.50	73.50	74.00	77.00	78.00	78.50	77.00	73.00	70.50	70.00	70.00	68.00	69.50	69.00	71.50	80.50	79.50	74.00	74.00	73.00	72.00	69.50	60.00	54.00	50.00	51.50	52.00	46.00	42.00	42.00	42.50	39.00	39.50	38.50	28.50	19.50	21.00	24.00	24.50	24.50	34.50	34.00	33.00	27.00	25.50	15.50	14.00	14.00	28.50	27.50	25.00	24.50	28.00	30.50	29.50	37.00	37.00	25.50	32.50	34.50	29.50	27.50	27.00	25.00	26.00	19.50	25.50	29.00	24.00	20.50	31.00	33.50	27.50	18.50	17.00	22.00	24.50	23.00	17.00	18.00	24.50	26.00	30.00	32.00	29.50	29.00	32.00	37.50	38.50	40.50	44.00	47.50	55.00	59.00	59.00	53.00	57.00	59.00	63.00	70.50	76.50	83.00	89.50	92.00	95.00
202.50	200.00	190.75	173.50	166.25	172.00	193.25	190.50	184.50	182.75	186.25	189.75	190.25	191.75	196.75	195.00	190.75	191.50	197.25	210.50	223.75	234.50	256.75	263.75	257.25	245.00	252.25	268.00	272.25	262.75	250.50	256.75	256.75	255.50	255.25	252.75	254.75	281.50	301.25	312.50	337.50	325.50	311.50	307.50	318.00	326.25	330.50	330.00	317.75	299.50	289.00	280.50	278.00	276.50	274.00	271.00	273.00	278.25	287.00	297.50	295.75	286.25	288.50	292.00	263.00	234.75	217.25	203.50	228.50	225.50	222.25	221.50	221.75	217.50	218.75	216.75	203.75	182.75	188.50	184.50	182.00	177.25	176.25	176.00	171.75	158.25	143.50	139.25	140.50	158.75	158.00	158.75	157.00	154.75	154.75	142.75	138.75	137.00	130.25	129.50	134.50	139.25	144.00	145.25	152.25	155.50	155.25	157.75	157.00	157.50	155.00	153.50	147.25	149.75	147.00	139.25	123.50	118.50	112.50	103.50	100.75	96.75	95.50	93.00	94.75	97.50	97.50	92.25	84.00	86.75	92.50	107.50	106.75	107.50	109.25	100.25	93.25	96.25	90.50	89.25	90.00	87.50	86.50	89.50	88.50	85.25	82.50	84.75	84.00	77.25	74.00	73.00	73.25	73.50	76.25	77.00	77.75	76.25	73.50	71.00	70.25	78.00	74.75	72.50	74.25	78.25	76.75	73.00	74.75	73.50	67.50	72.00	72.50	70.50	56.00	51.50	55.00	53.50	45.75	42.75	42.00	41.50	39.50	39.75	45.00	44.00	34.75	25.75	25.25	26.00	24.75	24.00	27.25	28.25	26.75	23.75	23.00	22.50	20.50	28.25	25.50	25.75	25.00	23.50	26.00	26.75	30.75	32.50	26.50	32.50	31.75	23.50	21.75	22.75	21.00	22.25	20.25	27.75	28.50	20.50	19.25	26.75	31.50	26.50	18.75	17.50	16.00	17.00	17.25	17.25	17.25	18.50	23.50	30.25	34.25	36.00	37.25	40.75	45.00	47.00	45.50	46.25	50.75	53.75	56.75	58.25	57.25	61.00	63.50	66.00	73.25	80.00	82.00	87.25	91.75	99.50
198.25	193.50	181.50	169.25	166.00	168.00	198.25	195.25	184.50	183.25	182.25	185.50	187.50	192.50	195.50	204.50	197.00	191.25	194.25	204.50	217.50	227.75	250.75	254.25	262.75	257.75	253.50	254.50	264.75	263.75	246.75	258.25	259.25	256.25	249.00	246.50	244.50	262.50	281.00	296.00	314.75	311.75	303.25	300.25	318.75	341.75	344.50	337.00	327.75	311.75	301.25	290.75	286.75	283.75	279.50	278.75	282.50	288.25	302.00	305.75	309.00	303.50	316.50	306.50	272.50	241.00	223.50	205.00	232.25	224.75	225.50	223.00	223.00	218.00	216.00	212.50	206.25	191.50	201.75	206.00	200.75	193.25	191.25	195.50	189.75	182.75	164.25	142.75	157.50	169.75	164.50	166.75	165.75	164.00	163.25	156.00	152.50	146.75	138.50	142.00	148.25	156.75	157.25	149.00	152.00	157.75	157.50	160.75	164.50	164.00	161.75	158.75	155.50	159.75	154.00	149.25	132.00	130.00	123.00	110.25	105.75	103.00	100.00	95.25	95.25	97.25	96.25	88.00	78.00	85.25	91.25	102.50	104.25	106.50	108.25	99.25	94.00	94.25	90.00	91.75	90.25	88.00	88.00	90.75	88.00	84.75	82.25	91.00	89.50	78.50	74.25	73.50	73.50	72.50	79.25	77.75	76.75	75.75	71.75	74.00	80.25	78.50	78.50	78.50	76.75	75.75	74.25	72.25	73.00	75.25	67.00	71.25	71.75	70.25	57.75	55.75	58.25	56.00	52.75	47.25	43.50	43.25	39.50	40.00	45.50	47.25	38.00	30.25	26.50	27.50	28.25	28.50	33.25	38.25	31.00	23.25	23.50	31.75	25.50	29.25	27.25	26.75	24.50	23.75	25.50	27.00	26.50	28.25	24.50	31.75	30.25	21.75	21.25	24.00	21.25	19.50	19.50	23.25	24.50	21.00	20.50	25.00	29.00	27.00	21.50	17.00	15.75	15.00	15.75	17.00	16.75	17.00	23.50	31.25	34.00	36.25	37.25	42.00	44.00	46.25	46.50	46.25	49.75	51.75	56.50	58.00	57.25	61.00	62.75	66.50	74.00	80.50	84.50	93.00	94.00	99.75
191.50	191.50	172.00	166.25	166.00	168.75	203.75	202.50	187.00	183.25	180.75	184.75	187.50	191.50	192.75	202.25	199.25	196.50	195.25	202.00	208.50	221.50	241.00	242.00	255.00	262.25	257.00	250.25	251.50	254.75	246.00	257.75	261.00	263.00	254.25	249.50	248.75	253.00	264.75	277.00	285.00	287.25	288.75	293.75	311.00	340.75	353.00	346.00	342.50	332.75	319.75	304.50	297.50	291.25	286.75	288.00	298.00	304.25	319.75	321.50	326.75	322.25	329.00	309.50	276.75	244.50	225.25	203.75	228.75	227.25	231.75	227.75	224.50	219.25	217.25	214.00	213.25	203.50	214.75	221.75	216.00	207.00	201.50	206.00	200.75	196.50	179.25	154.25	174.25	174.00	166.50	172.00	171.75	167.75	166.50	162.75	162.75	158.00	152.00	156.50	159.25	166.50	164.00	151.00	149.50	156.00	157.75	164.25	172.00	171.00	168.75	167.25	165.00	166.75	156.75	155.00	143.75	143.25	134.75	119.25	112.75	108.75	105.50	99.50	96.25	97.00	97.25	93.75	87.75	89.50	95.75	107.50	103.25	105.50	104.00	99.75	96.25	94.25	89.75	85.00	89.25	94.25	92.75	88.25	84.75	85.00	82.75	93.50	88.00	77.25	75.25	74.75	73.50	72.25	81.50	77.75	74.50	71.75	66.75	72.00	81.75	76.00	76.75	79.00	76.00	71.50	73.50	74.00	73.25	73.25	66.25	70.00	72.75	69.25	60.75	61.00	59.50	57.75	56.50	51.75	48.25	46.75	42.25	41.25	46.75	49.50	37.00	31.75	30.00	29.50	27.75	30.50	36.50	44.00	41.25	31.50	27.50	32.25	24.75	30.75	29.50	28.25	25.50	24.75	25.25	27.75	25.75	26.00	24.50	28.50	26.00	20.25	20.00	24.00	21.00	19.00	19.75	20.50	21.50	24.25	23.50	26.75	30.50	28.50	24.50	20.50	18.25	15.75	16.75	16.75	16.00	17.00	21.75	29.50	32.75	35.25	36.25	40.50	41.50	44.00	46.25	46.50	49.25	49.50	52.50	57.25	55.25	59.25	62.00	68.25	73.75	80.00	85.50	94.25	93.50	98.00
192.50	201.50	187.00	178.50	169.50	188.50	206.50	194.00	187.00	182.00	181.00	183.00	186.00	189.50	186.50	186.00	198.50	201.00	201.50	201.00	196.00	205.00	215.00	219.00	239.00	242.00	248.00	245.50	242.50	245.00	243.50	251.50	261.50	263.50	261.00	254.00	259.50	264.50	263.50	268.50	276.00	280.50	282.50	287.00	295.00	305.50	324.50	328.50	332.50	348.50	350.50	340.50	321.50	303.50	301.50	309.50	326.00	333.50	346.50	341.50	334.00	333.50	318.00	295.00	269.00	250.50	233.00	206.50	223.50	233.00	239.00	229.00	221.50	221.50	221.00	218.00	216.50	218.50	227.50	228.00	224.50	221.00	216.50	212.00	201.00	178.00	172.00	153.00	172.00	177.50	173.00	183.00	182.00	175.50	175.50	167.00	172.50	172.00	163.00	170.00	173.50	171.00	160.00	155.50	157.00	156.50	159.50	166.50	171.50	174.50	181.50	183.00	178.50	175.50	167.00	160.50	152.00	150.50	148.50	140.00	130.50	121.00	115.00	107.50	101.00	94.50	96.00	98.00	98.00	93.50	103.50	119.50	108.00	107.00	102.50	99.00	98.50	95.00	96.50	86.50	93.50	92.00	87.50	87.00	83.00	83.00	85.50	95.00	86.00	78.00	78.00	75.50	74.50	76.00	84.00	81.00	74.50	70.00	68.50	77.00	76.00	81.50	81.00	79.50	76.00	79.00	79.00	75.50	80.00	79.50	72.50	68.00	72.50	67.50	68.00	66.50	65.00	60.00	56.00	53.00	50.00	50.50	45.00	44.50	49.00	55.50	44.00	38.00	37.50	37.00	32.50	26.50	29.50	32.00	36.50	39.50	42.50	41.00	34.50	30.50	27.00	27.00	26.00	32.50	30.00	35.50	30.00	30.50	25.00	30.50	24.00	20.00	19.50	21.00	19.00	19.00	19.00	18.50	20.50	24.00	27.50	30.00	33.00	33.00	26.50	23.50	20.00	18.50	20.50	21.00	17.50	15.50	21.00	26.50	30.00	32.50	32.00	38.50	40.50	42.50	44.50	45.50	46.50	49.00	47.50	58.00	55.50	56.00	59.50	64.50	72.00	78.50	85.00	90.50	95.50	96.00
205.75	194.75	188.50	189.00	184.25	187.75	196.50	189.00	191.75	183.50	182.00	181.25	186.50	189.25	197.75	193.25	196.75	201.75	205.25	200.75	192.50	198.25	196.75	200.75	213.25	222.75	228.00	228.25	237.00	253.25	254.75	246.50	244.25	255.50	261.75	261.75	258.25	270.25	282.75	275.75	271.50	275.75	282.00	285.25	292.00	295.25	301.00	300.25	302.25	312.50	316.50	321.50	314.25	303.25	303.75	318.25	332.75	337.25	347.50	342.50	319.25	308.50	314.00	312.75	278.25	254.50	239.00	209.75	219.00	229.50	228.75	228.00	229.25	226.50	224.50	218.00	222.75	226.00	229.25	228.25	225.00	220.75	220.75	214.50	198.75	185.75	181.00	168.00	150.75	178.75	184.00	194.00	191.25	182.25	185.50	185.00	185.00	181.50	172.50	177.00	178.50	169.00	166.25	171.75	175.25	171.00	166.25	165.50	169.75	172.50	178.25	183.75	187.75	184.75	173.75	164.00	154.50	149.25	147.00	145.00	141.00	140.50	136.75	119.50	112.00	104.25	100.75	101.00	97.75	98.00	100.25	113.75	106.75	105.50	106.25	104.50	103.00	101.25	96.75	93.50	84.00	88.00	85.00	84.25	85.75	87.75	85.75	87.00	81.25	79.75	78.75	78.75	79.00	83.50	82.00	78.75	72.50	67.75	74.25	79.50	84.50	77.75	76.50	76.50	82.75	87.00	78.25	77.75	75.75	74.25	72.75	78.50	78.75	73.00	76.50	75.50	66.25	55.50	54.50	54.50	56.50	52.00	49.25	48.50	47.50	51.00	48.50	45.25	40.00	40.50	45.50	43.00	34.00	32.00	32.00	34.00	34.75	37.00	37.50	38.50	39.00	36.50	29.75	33.50	33.25	34.25	29.25	29.00	26.75	33.50	30.00	24.25	23.75	21.25	20.75	19.00	19.00	19.00	19.00	19.25	20.75	22.50	23.25	28.75	28.25	23.00	19.50	18.75	20.00	20.75	16.75	16.75	20.50	25.50	28.50	31.75	33.00	39.75	47.50	46.25	42.50	43.75	44.75	46.00	46.25	52.25	55.75	56.25	58.75	61.00	65.75	73.75	83.75	87.25	90.75	93.75
206.50	197.00	192.50	189.50	181.50	181.50	191.00	190.00	193.00	182.50	180.00	180.00	185.50	190.50	199.50	191.50	192.00	199.00	205.00	203.50	195.00	200.50	194.00	200.50	209.50	212.00	222.50	222.50	235.00	254.50	256.50	246.50	243.00	252.00	260.00	262.00	262.00	273.50	285.00	278.00	271.00	274.50	282.50	286.00	290.50	294.50	299.50	297.50	297.50	300.50	302.00	306.00	306.00	300.00	302.50	316.00	326.00	329.50	340.00	340.50	318.50	300.00	303.50	305.00	275.00	250.50	240.50	211.00	219.50	228.50	227.50	230.00	231.00	225.50	222.00	218.00	227.50	229.00	234.00	231.50	226.50	218.50	220.00	212.50	198.50	194.00	191.50	178.50	153.50	177.00	187.50	197.00	193.00	184.50	190.50	191.50	189.50	184.00	178.50	180.00	179.50	164.50	169.00	175.50	181.00	175.50	168.00	164.00	168.50	171.50	179.00	184.50	185.50	184.00	174.00	165.50	156.00	150.00	147.00	143.50	140.00	139.50	139.50	123.00	120.00	111.50	103.00	102.50	98.50	101.00	101.00	111.00	106.50	105.00	106.00	104.00	103.50	104.50	98.00	95.00	83.50	88.00	86.00	84.50	86.00	90.00	86.00	85.50	81.00	79.50	78.50	80.00	80.50	85.00	82.00	79.00	71.50	68.00	77.00	83.00	85.00	78.50	77.00	78.50	85.00	87.50	77.00	78.50	75.50	73.50	71.00	80.00	80.00	77.50	80.00	79.50	67.00	55.00	54.00	54.00	57.50	50.50	50.50	52.00	49.50	51.50	50.00	46.00	40.00	41.50	50.50	49.00	39.00	34.50	35.00	33.50	33.00	36.00	38.00	37.00	38.00	38.00	33.50	39.00	38.00	35.00	27.50	24.50	25.50	32.50	29.50	26.00	27.50	23.00	22.50	19.00	19.00	19.00	19.00	18.50	19.00	21.00	21.00	26.00	28.00	23.00	19.00	18.00	18.00	20.50	17.00	16.50	20.50	25.50	27.50	29.50	32.00	39.50	50.00	49.00	44.50	44.50	45.00	46.50	47.50	50.50	54.50	55.50	57.50	60.00	63.00	71.00	81.00	84.00	87.00	90.50
187.50	189.75	188.50	182.25	185.25	188.00	190.00	188.00	184.00	181.75	181.25	184.00	184.00	191.50	195.25	189.00	194.00	203.75	203.25	207.00	196.00	200.00	204.50	200.50	212.00	222.50	225.75	222.25	216.00	225.00	248.50	257.75	254.25	250.00	247.75	255.75	265.50	262.25	258.00	262.75	270.00	277.00	285.00	290.00	293.00	296.75	298.50	298.00	299.25	297.00	294.00	295.00	296.00	290.50	287.50	288.75	289.25	285.25	286.75	289.50	287.25	279.00	272.50	267.75	252.25	241.00	228.00	216.50	221.75	232.75	233.25	236.75	240.50	234.75	233.00	239.25	243.25	240.75	243.50	239.25	232.50	223.25	222.25	216.75	208.75	210.50	209.75	178.50	165.00	190.75	201.50	206.75	204.50	199.00	209.00	209.50	206.25	199.75	186.75	179.25	169.25	172.75	179.00	180.75	191.00	183.50	173.75	165.25	165.75	168.50	174.75	177.50	177.25	174.75	173.50	169.50	166.00	160.75	154.00	144.50	140.75	137.25	137.75	134.00	137.75	126.50	115.50	107.50	103.25	100.25	102.25	110.25	106.50	104.75	104.25	103.25	99.75	99.50	94.75	92.25	87.25	98.00	90.75	86.50	89.75	90.25	87.50	82.50	80.25	79.25	79.00	78.75	78.25	80.00	81.75	80.25	74.25	79.25	82.75	80.50	84.75	79.75	79.75	81.25	85.00	87.75	78.75	79.75	78.25	72.75	79.25	77.00	75.25	77.50	80.25	82.75	70.25	61.00	60.00	61.00	58.00	54.50	53.25	50.50	48.25	47.75	49.00	46.75	44.25	43.75	47.00	44.75	41.00	39.50	39.75	37.50	34.25	31.25	31.25	32.50	35.75	37.75	35.75	36.00	38.50	39.75	38.75	41.00	29.00	28.00	28.25	25.25	24.75	23.00	21.25	22.50	20.75	20.25	19.50	19.50	19.25	19.00	18.25	20.00	22.00	23.50	20.25	18.75	18.75	18.25	18.00	16.50	19.50	25.25	29.00	32.25	36.75	37.75	40.25	45.75	43.50	43.00	43.00	42.00	45.50	49.00	52.75	49.75	55.00	59.25	61.75	68.50	75.50	81.25	84.75	89.00
184.75	186.00	187.50	181.75	187.50	187.75	189.00	188.50	185.00	181.75	182.00	182.25	182.25	187.25	193.50	187.50	190.25	201.50	207.25	214.00	204.50	208.25	208.75	207.00	217.50	223.50	228.25	229.00	216.00	217.75	225.00	241.50	250.75	254.25	254.00	252.25	253.50	251.25	252.50	260.50	274.25	281.75	287.00	289.50	293.75	301.00	304.00	302.00	303.75	300.75	297.00	291.25	291.50	288.00	281.50	282.25	281.00	276.00	274.00	273.25	271.75	267.00	263.25	257.25	247.75	239.00	227.50	221.50	222.50	234.00	239.25	242.75	246.25	242.00	246.25	252.75	254.50	249.00	253.50	245.25	241.25	234.25	227.50	222.75	218.25	220.00	212.00	183.00	181.00	209.00	212.50	212.75	212.00	205.25	216.75	219.75	215.50	209.50	191.25	180.75	176.50	181.75	182.50	184.00	191.00	189.00	183.50	173.25	168.25	167.75	169.75	172.00	171.75	167.75	164.00	166.00	164.50	161.75	158.00	150.75	143.75	137.00	140.00	138.00	134.75	126.50	118.50	115.00	114.25	108.50	106.00	112.50	108.50	105.50	105.00	102.50	101.25	98.75	96.50	95.00	89.50	93.75	87.75	84.75	86.25	87.00	89.50	85.25	81.00	79.50	79.75	79.25	79.75	80.50	76.25	75.50	82.25	88.75	85.50	84.00	83.75	80.50	80.75	80.50	82.75	86.00	78.75	79.50	75.25	73.25	81.75	76.75	76.50	80.50	78.00	79.50	71.75	63.25	64.25	64.00	57.25	53.00	52.25	50.75	48.50	46.25	46.75	43.50	42.25	41.50	44.50	46.00	40.25	39.50	39.25	40.75	39.00	33.50	30.75	29.75	31.25	31.75	31.00	32.25	35.00	38.00	41.75	43.50	31.00	29.25	31.25	30.00	29.50	27.00	23.25	22.00	20.50	20.25	20.00	20.00	19.50	18.25	18.50	19.00	19.50	22.00	22.50	21.75	20.50	18.00	16.50	16.25	17.25	19.75	23.75	30.50	33.75	32.75	34.75	40.00	41.50	42.75	42.00	42.25	45.25	48.25	49.50	50.75	55.00	60.00	62.75	69.75	73.25	77.75	82.50	87.75
184.25	184.00	185.50	184.75	187.50	186.50	188.50	188.00	191.25	184.50	182.50	183.50	183.25	182.00	187.75	185.00	185.50	197.00	209.25	214.25	213.25	216.00	213.00	216.25	220.50	214.50	224.00	230.75	219.50	217.50	216.00	223.75	237.50	249.50	248.75	247.50	246.25	252.25	259.50	267.50	281.50	287.50	288.25	290.25	295.75	301.75	307.50	306.75	311.75	308.25	304.00	294.00	290.00	284.75	279.25	276.00	272.00	270.75	268.75	265.00	261.25	259.25	257.50	252.25	247.00	239.00	231.75	228.00	224.75	237.50	242.50	243.25	246.00	248.00	259.25	264.25	264.00	255.75	258.25	249.25	247.50	250.00	235.75	230.25	229.00	230.25	225.25	197.75	192.25	220.50	222.00	220.50	218.25	212.50	217.75	224.00	221.00	216.00	195.00	186.75	186.25	189.00	186.75	189.00	196.25	205.50	206.50	189.00	178.50	172.25	171.25	170.50	167.25	158.25	158.25	161.25	160.25	159.75	158.00	155.00	144.75	140.25	140.25	138.25	134.25	125.25	117.75	122.75	129.00	124.00	117.00	121.00	115.00	108.50	107.75	103.50	102.75	100.00	96.50	93.75	92.75	90.00	87.00	83.75	83.50	88.00	95.25	90.00	84.25	81.50	79.00	80.25	83.25	80.75	75.00	82.00	85.75	85.75	84.00	83.50	81.75	81.50	79.75	79.50	81.50	83.25	80.75	79.50	78.25	80.25	81.50	79.50	84.25	87.00	86.25	87.25	77.50	68.00	70.25	65.75	59.50	55.00	53.50	52.00	50.50	48.75	47.50	43.75	41.25	38.75	39.25	46.25	41.50	42.50	39.50	44.00	41.50	37.25	35.00	32.00	30.75	28.75	27.75	29.50	31.50	36.00	41.25	39.00	27.00	28.25	30.75	33.50	32.25	30.25	28.75	26.50	23.75	21.50	20.25	20.00	19.75	17.50	18.75	19.00	20.50	22.50	25.00	26.00	19.50	18.75	16.50	17.50	20.75	18.25	20.25	28.00	28.75	28.50	33.00	37.25	39.50	42.50	42.50	43.00	43.75	46.50	50.50	54.00	55.50	58.75	62.75	70.75	73.50	76.25	82.00	87.50
