553.25	551.50	549.50	551.00	550.25	551.00	551.25	551.25	551.00	550.75	551.50	551.50	553.50	553.50	555.25	552.25	553.25	552.75	552.25	549.75	546.25	545.50	544.25	545.50	542.50	543.25	542.50	545.00	542.25	541.50	539.75	538.50	536.25	535.00	537.25	541.00	540.00	540.25	543.25	545.50	549.75	553.50	558.75	559.75	558.75	550.00	548.25	549.25	544.00	544.00	544.00	544.00	544.25	549.00	560.75	592.25	613.50	626.25	634.25	634.25	637.50	638.50	640.50	647.50	657.25	652.00	646.00	636.50	631.25	638.00	636.50	640.75	637.00	635.75	635.25	636.00	635.00	633.50	643.75	642.00	640.75	636.50	637.25	641.25	638.00	636.50	640.25	634.75	637.25	636.50	637.00	640.75	640.00	629.50	630.00	621.50	590.00	574.50	624.75	641.75	647.00	648.50	641.00	629.50	624.50	625.00	632.75	632.75	624.25	611.00	602.00	591.75	583.50	579.50	573.00	564.00	560.75	563.50	565.25	566.50	562.25	569.50	568.25	569.25	569.25	570.50	571.00	565.00	514.75	557.75	572.50	577.50	577.75	581.50	588.00	598.50	606.50	609.75	604.75	604.50	600.75	603.75	609.25	603.50	601.25	598.75	594.00	587.50	582.75	585.00	582.50	582.25	581.75	580.50	575.00	571.75	568.25	565.25	558.00	547.75	545.00	540.75	541.25	539.00	539.75	539.00	538.75	532.50	527.25	527.00	479.00	456.50	504.25	518.25	530.00	531.75	534.25	534.75	539.25	546.00	550.50	557.25	572.50	582.25	591.50	589.25	594.25	594.25	602.25	601.00	601.00	603.75	606.75	608.50	608.00	608.50	610.00	612.00	614.75	620.50	620.50	622.50	625.75	626.50	631.25	635.00	634.50	633.25	630.25	627.75	622.00	612.50	606.50	602.00	602.75	606.75	606.00	606.00	602.50	606.50	602.00	597.75	597.25	598.25	600.25	608.50	619.75	625.25	626.25	629.75	630.50	627.00	622.25	625.00	627.50	629.00	632.25	623.50	624.00	637.50	633.50	634.75	638.75	628.00	609.25	608.25	604.50	608.25	584.50	562.00	548.75	527.50	508.00	495.00	476.75	442.50
552.50	551.00	549.50	550.50	551.00	550.50	551.50	551.50	549.50	552.00	550.50	552.00	553.00	554.50	556.00	552.00	553.00	552.50	552.50	550.50	548.00	546.50	544.00	543.50	543.50	543.00	544.00	543.00	542.50	542.00	541.00	540.50	537.50	536.50	540.50	541.00	545.00	541.50	542.50	543.00	545.00	550.00	553.00	557.00	555.00	550.00	548.00	548.50	544.00	544.00	544.00	544.00	544.00	547.50	559.50	595.00	610.00	618.50	624.50	626.00	634.50	638.50	643.00	653.00	653.50	645.50	640.50	631.50	629.00	640.00	644.50	642.50	640.50	640.50	640.50	642.50	636.50	639.00	642.00	641.50	643.50	640.00	633.50	638.00	635.50	631.50	634.00	640.00	632.50	637.50	633.50	639.00	641.50	631.00	628.50	621.50	602.50	582.50	605.50	636.00	645.50	651.00	643.00	630.00	627.00	626.50	632.00	633.50	626.00	614.50	604.50	592.50	583.00	579.50	570.50	567.00	561.00	567.00	566.50	563.00	569.50	570.00	572.00	572.50	571.00	573.50	568.00	535.50	521.50	573.00	578.50	576.50	578.00	581.00	588.00	596.50	607.00	608.50	606.50	604.00	605.00	599.50	607.50	604.00	600.00	594.00	592.00	585.00	582.00	581.00	580.50	580.50	581.00	579.00	576.00	573.50	568.00	561.50	556.00	547.00	544.50	540.00	538.50	535.00	537.50	538.50	537.00	533.00	525.50	523.00	474.00	457.00	504.50	518.50	528.00	530.00	532.00	535.00	536.00	546.00	550.00	560.00	560.50	570.00	578.50	583.50	593.00	596.50	600.50	602.50	602.00	604.50	608.50	609.00	610.50	610.00	611.00	612.50	613.50	616.50	620.00	622.00	624.50	628.50	631.50	634.00	636.50	635.00	630.50	628.50	620.00	608.50	604.00	602.50	598.50	600.00	602.50	599.00	591.00	593.00	595.50	605.00	605.00	606.00	608.00	615.00	633.50	639.50	638.50	640.00	632.00	625.00	623.00	628.50	626.00	624.50	622.00	624.00	630.50	645.50	631.00	622.00	619.50	612.00	606.50	606.00	599.50	592.50	570.00	547.50	530.50	513.00	495.00	464.00	441.00	414.00
552.50	551.50	550.00	549.25	550.00	550.25	550.25	550.75	549.00	550.75	550.75	552.75	552.50	555.00	553.75	554.50	552.50	553.00	552.50	551.25	548.75	547.25	544.75	543.50	544.00	544.25	544.75	544.00	544.50	544.25	544.00	541.25	538.75	538.50	541.00	543.50	540.25	540.50	541.25	546.00	546.00	547.75	550.50	549.50	550.00	549.25	547.50	546.25	546.00	545.25	544.75	544.00	544.00	547.25	558.25	591.00	616.00	619.50	627.00	633.25	634.50	640.00	643.00	645.25	640.50	633.75	635.75	630.25	632.50	639.00	646.00	642.25	642.50	644.50	645.75	642.75	637.25	639.75	642.50	647.25	643.75	641.25	637.00	636.25	639.25	635.50	630.50	634.25	643.50	639.50	632.25	637.50	639.50	630.25	624.50	624.25	605.50	595.50	614.75	630.50	645.00	647.00	641.25	627.75	623.50	625.50	632.00	633.00	624.50	614.50	607.50	594.50	584.50	579.50	573.25	568.00	567.00	569.00	564.50	567.50	570.25	575.75	573.75	575.25	572.50	576.00	578.75	551.00	526.00	576.00	579.50	576.00	580.50	583.25	589.75	595.00	606.00	605.25	605.50	603.50	604.00	601.50	604.25	602.25	593.00	586.25	584.75	581.25	581.25	578.50	578.75	579.00	580.75	580.50	573.25	572.25	566.75	559.25	552.75	545.75	541.50	538.50	535.50	535.25	535.25	533.00	530.25	527.25	524.50	520.75	470.50	453.75	508.50	518.50	528.25	531.50	530.50	531.25	538.75	545.75	547.75	558.00	561.75	568.50	573.75	584.25	592.75	597.25	600.50	601.25	604.25	605.25	606.00	608.00	609.75	610.25	609.50	611.75	614.25	615.75	621.25	622.75	624.75	629.00	632.75	639.00	643.75	648.00	640.25	639.50	625.25	613.25	607.00	600.75	598.75	594.50	599.75	591.25	586.75	608.25	617.00	618.75	615.00	613.75	623.25	630.25	634.00	634.25	637.25	639.75	636.50	634.25	630.00	624.50	623.25	629.25	624.75	624.00	634.25	638.75	625.50	616.50	607.75	603.75	598.75	583.00	589.25	568.00	551.75	530.75	510.50	497.25	468.25	428.25	409.50	393.50
552.25	551.75	552.00	548.00	551.25	550.25	549.25	552.25	549.00	551.00	550.75	552.50	552.75	554.25	554.00	554.75	552.00	553.00	552.25	552.00	549.75	548.00	546.50	545.25	544.50	544.75	545.25	546.00	545.50	544.75	544.00	541.75	540.75	540.25	540.50	546.00	547.25	543.50	541.50	547.25	548.25	549.00	549.25	548.25	548.25	548.25	548.50	547.75	549.00	548.75	547.00	548.00	548.50	551.50	559.25	597.75	615.00	621.25	627.25	630.75	634.75	634.75	633.75	632.25	633.50	631.25	632.25	629.25	631.00	639.50	642.50	642.75	642.25	644.00	642.25	641.75	639.50	642.75	640.50	644.50	643.25	648.75	645.50	634.75	635.25	637.00	636.00	632.00	636.25	647.00	634.25	636.50	638.25	632.50	631.75	623.25	612.50	615.25	603.25	622.00	642.25	641.25	637.00	626.75	624.00	627.00	628.50	630.75	622.75	614.25	608.50	598.75	587.25	583.00	574.25	573.75	567.00	566.75	567.75	567.75	569.75	579.25	574.75	575.50	573.50	578.25	579.75	558.00	522.50	571.00	580.25	577.00	582.25	587.00	591.50	592.50	605.00	605.50	606.00	604.50	605.00	598.00	598.00	596.75	593.00	585.50	584.25	581.25	577.75	576.50	576.00	576.00	576.50	577.00	575.25	571.50	564.50	555.00	550.25	548.75	543.00	533.00	532.25	531.75	534.50	531.00	530.00	525.75	521.50	521.00	461.75	454.75	480.00	490.00	505.00	523.50	530.75	537.00	538.75	545.25	547.50	557.50	562.75	566.50	572.25	588.25	593.00	597.75	602.50	602.50	605.50	604.00	607.25	606.75	607.75	609.00	608.00	614.25	616.00	618.25	621.50	623.75	625.25	630.50	635.00	644.50	656.50	656.25	652.00	645.75	631.50	617.25	608.75	599.00	596.75	589.50	582.50	579.50	587.25	613.25	612.25	620.00	620.75	628.25	635.50	629.25	628.00	629.00	633.25	632.00	631.75	630.75	622.50	614.75	623.75	624.75	618.75	621.75	624.75	623.75	617.00	600.25	596.25	568.75	570.00	568.75	551.75	542.00	523.00	510.75	480.75	446.25	427.00	406.25	390.25	363.75
552.75	550.50	550.50	548.75	551.25	550.25	550.75	551.00	549.00	550.25	550.75	552.00	553.25	553.00	554.25	554.25	553.25	552.75	552.75	553.50	550.75	549.00	547.75	546.25	545.00	546.75	547.50	546.50	545.00	544.00	543.75	541.00	540.00	540.25	539.75	543.00	546.50	546.50	545.25	547.75	548.75	550.00	554.25	552.75	553.75	550.00	550.25	551.50	555.50	549.25	549.75	550.00	550.50	554.25	562.75	606.75	620.00	619.25	621.25	623.00	625.25	627.00	629.00	630.75	634.75	636.50	635.00	633.25	637.00	641.25	641.25	644.50	645.75	648.50	643.75	647.00	643.75	646.00	642.00	641.75	642.75	644.50	643.50	634.75	637.00	634.50	636.00	635.25	635.25	637.75	635.00	635.75	639.50	637.25	634.75	627.25	621.00	622.25	612.50	616.25	638.50	643.25	638.25	623.00	617.75	621.50	621.25	622.75	621.75	615.75	608.75	599.00	588.50	582.25	577.25	574.75	572.75	570.50	572.75	569.75	573.25	577.00	581.75	575.00	577.00	577.50	582.25	545.25	561.25	581.25	583.25	578.75	584.00	586.00	591.00	592.25	601.50	604.50	606.50	605.00	600.50	596.75	597.00	597.50	594.25	587.75	584.75	580.25	577.25	576.00	575.00	574.50	575.25	574.50	575.25	568.75	565.75	555.75	547.75	546.00	539.50	531.25	531.50	529.25	533.25	531.25	529.50	524.75	521.25	515.50	456.25	460.50	484.25	497.75	512.75	522.00	531.25	535.50	540.25	544.00	550.00	560.25	564.75	571.25	582.75	590.25	595.00	598.75	601.75	601.25	602.00	603.75	605.75	605.50	605.50	608.25	608.50	612.75	615.50	619.25	622.75	626.00	630.25	636.50	642.00	652.75	659.50	655.25	648.50	641.25	632.25	619.00	608.50	599.00	593.00	584.00	578.25	576.75	593.00	604.00	607.25	617.00	620.00	625.25	627.00	623.75	620.75	624.25	626.50	625.25	623.25	626.75	625.75	616.75	618.50	618.75	609.00	614.50	618.00	611.75	605.25	586.50	559.50	550.75	552.50	531.50	512.00	507.50	489.00	466.25	438.75	417.75	407.25	382.00	370.50	351.50
552.75	550.25	550.00	549.50	550.25	550.25	551.75	549.75	548.75	548.50	550.50	551.75	554.00	553.25	554.00	553.25	553.25	552.25	553.25	553.75	552.75	550.00	549.00	547.25	546.00	548.25	548.25	546.25	544.50	543.50	542.75	541.50	539.00	539.50	540.00	539.50	544.25	547.75	548.00	548.00	550.00	550.75	558.25	560.25	562.50	555.25	553.00	554.50	565.50	550.50	552.00	552.00	552.75	556.75	567.75	610.00	618.00	614.50	613.75	615.75	618.25	620.75	623.25	628.75	633.50	638.00	635.00	637.25	640.25	642.25	641.00	644.00	646.25	652.75	646.75	651.50	648.75	645.50	643.00	640.50	642.75	640.25	641.25	634.50	637.25	633.50	633.50	632.25	629.75	630.00	639.00	640.00	639.75	640.25	637.25	629.25	630.00	623.75	620.75	619.25	636.25	642.25	638.75	624.25	615.75	614.50	619.50	615.50	618.50	615.50	610.00	599.25	589.00	581.50	580.50	575.50	576.25	574.50	577.00	572.00	576.00	577.50	586.75	576.25	581.25	579.75	586.25	543.50	588.75	586.75	583.00	580.50	584.25	584.50	589.50	593.00	597.75	603.50	607.50	603.25	597.00	597.00	596.50	597.00	596.25	590.00	585.25	581.25	575.50	575.00	574.25	574.25	573.75	572.75	574.50	567.50	564.75	555.25	546.00	542.00	536.50	530.00	534.00	530.25	530.25	528.75	530.25	525.25	522.25	513.00	455.75	468.25	488.50	514.25	528.25	528.50	530.75	534.00	539.75	545.25	555.00	568.75	577.25	593.25	597.75	593.50	596.50	598.00	601.00	600.50	601.00	604.00	605.00	604.75	604.50	607.50	609.25	613.00	615.25	621.25	627.00	631.25	638.25	644.75	652.00	659.00	659.50	654.25	640.75	634.75	626.25	617.50	607.50	598.00	590.25	579.50	573.00	580.00	589.50	596.50	599.50	608.50	613.25	615.25	620.25	618.00	614.50	619.00	620.50	621.25	616.75	625.00	624.50	618.25	608.75	610.50	607.25	604.75	607.75	600.00	595.50	562.75	524.75	541.75	512.75	488.75	468.00	461.25	446.75	424.50	403.50	395.00	387.00	359.50	353.00	341.00
552.75	550.50	549.75	549.25	548.50	551.50	549.50	548.75	548.00	548.75	550.00	551.00	553.50	555.00	553.75	553.75	553.75	552.50	552.50	552.75	555.00	552.50	549.25	548.25	546.25	546.50	546.75	545.00	544.25	543.25	543.00	543.00	540.00	538.75	539.00	539.00	541.00	545.50	549.75	551.75	551.25	553.75	555.75	558.00	561.50	565.00	566.50	565.75	565.00	560.75	558.75	558.00	558.50	563.25	573.25	610.50	614.00	611.75	611.50	612.50	614.00	616.50	618.00	625.25	629.00	631.00	634.50	637.25	639.00	645.25	648.50	650.50	653.75	657.50	654.75	651.75	648.50	648.25	645.75	647.75	644.25	641.50	641.00	643.25	641.50	635.75	629.25	620.00	620.50	630.50	636.00	644.75	646.25	637.00	641.00	634.25	629.25	622.75	614.00	630.50	641.75	640.50	635.25	627.75	622.00	623.75	623.75	617.25	611.50	611.00	613.25	602.50	591.25	581.50	582.25	579.50	575.25	583.25	576.75	577.25	573.75	586.00	582.50	580.00	584.75	587.50	587.00	545.75	560.00	586.75	585.75	583.50	584.25	583.75	591.25	597.00	598.50	601.00	603.75	600.75	597.75	596.25	595.75	596.00	592.75	587.25	585.00	579.75	576.50	574.50	573.00	573.50	571.00	571.00	573.50	567.25	561.50	552.75	542.00	536.50	534.50	530.25	526.25	528.50	530.75	529.25	525.25	522.00	522.00	514.50	457.25	468.75	487.50	514.75	525.75	528.25	531.75	534.75	537.25	554.00	568.25	585.00	609.50	627.00	605.50	594.50	592.25	596.50	600.50	601.50	603.25	604.75	606.00	607.00	607.25	608.75	611.50	616.00	618.50	625.50	634.75	639.00	644.00	650.25	659.25	658.50	654.50	644.50	631.50	627.75	612.00	602.00	594.75	587.25	582.25	578.00	568.00	573.50	574.75	582.25	583.50	587.75	592.75	595.25	600.00	601.50	607.00	604.75	605.00	595.00	599.00	602.50	600.75	585.00	569.50	588.00	591.50	570.50	573.25	564.50	551.75	518.00	479.50	479.25	454.75	436.00	430.50	419.50	407.50	393.00	384.00	374.00	360.00	348.25	339.25	329.75
553.00	550.00	550.00	549.00	547.00	550.00	548.00	548.50	548.00	548.00	549.00	550.50	553.50	557.50	558.50	554.00	553.50	552.50	552.50	552.50	555.50	554.00	549.00	549.00	546.50	547.00	547.00	546.00	544.50	543.50	543.50	543.00	540.50	539.50	539.00	539.50	539.50	544.00	549.00	552.50	554.00	555.50	558.50	560.50	564.00	572.50	574.50	577.50	571.00	565.50	566.00	563.50	564.00	568.50	574.50	603.50	608.50	607.00	607.50	610.50	611.00	614.50	615.50	620.00	626.00	633.00	634.50	638.50	639.00	646.50	646.00	646.50	651.50	655.00	654.00	655.00	648.50	647.00	653.00	652.00	646.50	646.50	648.00	647.50	650.00	647.00	646.00	636.50	628.00	625.50	636.50	638.50	647.50	643.50	639.50	639.50	628.50	619.00	611.50	630.00	638.50	638.50	635.00	621.00	624.00	620.50	624.00	617.50	608.50	607.50	608.00	603.00	595.00	586.50	582.00	580.00	580.50	579.00	577.50	574.00	573.00	584.50	585.00	580.00	580.00	586.50	584.50	552.00	555.00	585.50	588.00	586.00	585.50	583.00	588.00	595.50	596.50	596.00	601.50	600.50	597.00	595.50	594.00	591.00	588.50	584.50	580.00	577.50	577.50	572.00	571.50	570.00	572.00	571.00	566.50	562.00	559.00	553.50	541.00	535.50	533.50	531.00	528.00	524.00	530.00	525.00	522.50	520.00	518.50	493.00	454.00	465.00	493.00	515.50	524.00	528.00	532.00	536.00	540.50	562.50	569.50	587.50	596.50	601.50	602.50	598.00	594.00	595.50	598.50	601.00	605.00	605.00	605.00	607.50	609.00	610.00	611.50	616.50	618.00	627.00	637.50	645.00	644.00	647.50	654.50	651.00	639.00	633.50	627.00	617.00	601.50	591.50	583.00	575.00	570.50	568.00	560.50	568.00	568.00	574.50	574.00	574.00	578.50	583.00	588.00	589.00	591.50	590.00	599.00	587.50	585.00	579.50	572.50	560.50	538.50	542.50	551.00	537.00	531.00	521.00	504.00	481.00	453.50	448.50	434.50	422.00	415.50	403.00	390.00	379.50	371.00	359.00	349.00	338.50	330.50	325.00
552.50	550.50	549.25	548.00	547.25	548.50	547.25	548.25	548.00	548.75	549.25	550.00	553.00	557.00	557.75	554.25	553.50	552.25	551.50	552.00	552.75	552.25	551.00	549.50	547.75	546.75	547.00	546.25	544.25	544.25	544.25	543.00	541.00	539.50	539.50	540.00	539.50	543.50	548.00	551.25	557.00	558.50	560.75	562.75	566.50	577.25	581.00	578.00	581.50	573.00	571.00	574.75	569.25	573.00	576.00	593.00	606.25	607.00	608.50	609.50	611.00	613.00	615.50	620.25	622.75	628.50	629.00	633.25	637.25	644.25	642.00	644.50	646.25	652.75	650.25	651.00	650.50	654.00	652.50	651.25	647.25	648.00	646.50	642.25	647.00	647.00	643.75	636.75	631.25	629.75	629.75	637.00	641.00	645.25	640.50	638.50	633.75	624.75	615.50	630.75	633.75	637.25	635.00	627.25	625.50	618.00	619.75	622.50	618.50	607.25	607.75	603.25	598.25	587.25	580.50	578.50	581.25	577.50	578.25	571.50	577.50	581.00	582.50	581.25	581.00	584.25	583.25	555.25	582.75	588.50	586.75	585.75	583.75	582.75	591.50	595.25	592.75	593.25	597.25	599.00	596.00	594.75	594.00	592.00	589.00	581.75	577.75	573.00	569.75	571.00	570.50	567.75	571.25	569.50	568.50	564.00	556.75	550.25	540.50	534.25	532.75	531.75	531.25	530.75	524.25	528.50	524.50	522.75	516.75	506.75	460.50	457.25	502.25	515.25	524.50	528.00	533.75	540.00	545.00	558.25	576.25	587.00	587.50	598.75	608.00	599.25	597.75	598.25	599.25	600.50	603.25	605.25	606.50	606.50	608.25	609.00	612.75	618.75	623.25	634.00	636.25	643.25	652.50	652.50	650.75	639.25	633.25	634.00	619.00	611.50	593.25	582.75	572.75	566.25	559.75	560.00	547.75	558.75	561.50	561.75	562.25	569.25	569.75	574.25	578.25	578.00	577.50	580.75	573.50	567.50	564.00	555.00	539.50	522.25	503.75	500.75	497.75	496.25	483.50	469.50	461.50	453.75	438.00	426.50	416.00	413.25	399.25	386.50	376.50	367.75	358.00	347.75	339.50	330.25	326.25	320.25
552.00	551.25	550.50	548.50	549.50	549.25	548.25	547.50	547.50	549.75	550.00	551.00	551.75	555.25	556.75	554.75	553.00	552.50	551.75	551.75	552.25	553.00	550.75	549.00	548.50	547.25	547.00	547.00	546.00	544.00	544.00	543.50	542.25	539.25	539.25	540.25	540.00	543.25	546.75	548.75	556.00	560.50	565.25	566.50	569.00	577.25	581.00	580.75	591.25	591.00	582.50	575.50	577.50	588.25	592.25	592.75	606.50	603.00	607.25	610.25	613.00	614.00	614.75	617.50	621.00	624.00	624.50	631.00	631.00	634.75	638.00	641.50	643.50	647.50	649.00	648.75	647.50	648.50	651.75	654.75	651.75	650.25	652.00	644.50	644.50	639.50	637.75	633.00	626.00	629.00	620.25	622.75	627.00	636.00	637.75	634.50	627.25	620.25	614.25	620.25	628.00	632.25	631.50	618.25	621.00	621.50	623.50	617.50	615.00	612.00	604.75	603.75	599.25	586.50	583.50	580.00	583.50	578.50	580.50	572.25	578.00	580.75	585.00	583.25	582.75	586.00	582.75	557.00	562.75	590.00	589.50	586.50	581.00	581.50	590.00	589.25	591.50	592.75	596.25	597.25	595.00	594.25	594.00	592.25	589.50	584.00	579.00	573.75	569.50	566.75	568.00	567.00	568.50	568.50	569.00	565.25	556.50	550.50	542.00	534.50	531.00	531.75	525.25	526.50	527.75	531.75	525.25	524.00	520.50	511.25	462.75	451.75	507.50	514.50	523.75	528.50	536.00	544.50	549.00	564.50	575.25	585.25	589.75	594.50	602.25	601.75	601.25	601.00	600.75	601.75	603.25	606.25	607.50	609.00	610.50	613.25	615.25	624.00	627.50	636.00	651.50	650.00	649.25	652.50	646.50	632.75	628.75	622.25	608.50	598.25	583.00	572.00	560.25	552.75	551.25	547.75	546.50	548.50	550.75	550.25	551.25	553.25	558.75	559.50	559.25	561.00	556.50	552.00	543.50	536.00	526.00	509.25	493.50	489.75	486.75	477.50	470.00	456.50	450.50	445.00	440.75	433.25	426.25	418.25	404.50	400.25	380.50	367.75	358.25	349.50	342.00	336.00	330.25	325.25	321.50	317.25
552.25	551.50	550.75	549.00	550.00	549.25	549.00	547.50	548.25	549.25	549.75	551.00	551.00	555.00	556.00	554.75	552.75	551.75	552.50	551.75	552.75	553.25	551.50	549.00	548.50	548.00	547.00	546.75	546.75	545.75	544.75	543.50	542.50	540.00	539.50	540.00	540.25	542.00	545.50	547.50	554.25	560.25	566.50	566.75	569.75	575.25	578.00	581.25	595.50	599.25	593.00	581.00	579.00	585.75	595.00	595.25	603.25	603.75	605.75	610.50	612.00	613.25	614.25	617.00	622.25	625.50	625.25	631.50	631.75	635.50	637.25	643.00	644.00	645.75	648.75	646.00	642.00	645.50	652.75	652.00	653.25	651.50	649.25	644.00	641.75	637.00	635.25	631.50	625.75	627.25	619.25	619.00	616.25	627.25	635.25	634.75	628.25	619.75	618.00	622.50	626.75	629.75	627.75	619.25	617.50	620.75	618.75	616.75	613.00	611.50	602.50	600.75	597.00	585.50	583.00	580.25	581.75	579.25	581.25	573.50	575.75	581.75	583.25	582.25	580.25	584.00	580.50	567.25	541.75	583.75	584.50	581.50	580.75	581.75	589.50	586.50	591.25	593.50	596.00	596.00	595.00	593.50	593.00	589.75	588.75	584.00	579.75	573.50	571.75	567.75	566.25	566.00	567.50	567.50	568.50	565.25	557.75	552.25	541.50	535.00	529.25	529.00	524.50	528.00	530.75	532.00	526.75	524.00	520.75	515.25	469.50	449.25	504.50	515.50	524.00	528.50	535.25	544.50	549.25	564.50	572.25	581.50	593.25	597.50	599.25	602.25	603.00	602.75	600.75	602.00	603.50	604.75	606.00	607.75	610.50	614.75	617.50	623.50	625.25	634.50	651.25	650.50	653.25	651.25	644.00	629.00	619.25	614.25	600.00	588.00	575.50	567.00	557.00	546.75	544.75	544.50	542.25	542.75	547.25	545.50	544.50	549.00	553.00	552.50	552.50	553.00	543.00	533.50	520.00	512.25	507.25	498.50	489.00	487.50	483.25	477.00	464.75	447.00	443.25	434.25	428.00	419.75	410.75	409.75	405.25	399.50	373.00	357.50	351.25	344.25	338.00	332.00	328.00	323.75	320.25	316.25
552.75	551.50	551.00	549.75	549.50	549.00	549.00	549.00	548.75	548.75	548.50	550.00	551.00	555.00	556.00	555.50	554.25	552.50	552.25	551.50	552.50	552.75	551.00	550.50	549.25	548.50	548.00	547.25	547.25	546.50	545.25	544.25	542.00	542.00	540.75	540.75	541.50	541.75	542.75	545.25	550.00	555.50	567.50	569.75	572.00	573.75	573.50	580.50	592.00	606.25	611.75	598.00	593.25	589.00	586.00	589.00	595.75	603.00	603.25	605.50	608.25	611.00	613.00	616.25	619.00	623.00	630.25	633.00	634.00	636.25	636.50	640.75	643.50	638.75	639.50	641.25	645.00	644.50	644.25	647.00	652.50	654.75	651.00	646.00	644.75	641.50	640.75	632.00	630.00	624.75	625.25	622.75	609.25	610.50	623.25	625.00	624.75	619.00	618.75	628.25	626.00	621.50	626.00	621.50	613.75	615.25	618.25	613.00	615.75	608.00	604.75	598.00	595.75	590.50	583.25	581.25	579.00	579.50	581.50	575.00	575.50	579.75	580.00	580.25	579.50	585.50	577.25	562.25	532.75	556.00	555.75	560.25	580.75	579.25	577.25	580.75	584.25	590.25	592.75	593.75	592.50	592.75	590.25	590.25	586.25	578.50	574.25	569.75	567.50	566.75	566.00	564.25	564.50	567.00	567.00	563.75	556.25	550.25	541.75	535.25	528.75	533.25	527.50	530.25	531.50	528.75	530.50	525.25	523.50	519.75	482.00	448.50	500.25	516.75	523.50	527.25	533.00	540.25	552.00	566.00	570.50	584.50	593.75	602.50	599.25	602.00	605.00	607.00	601.25	602.25	603.50	603.75	605.75	608.00	611.00	616.50	620.75	621.00	624.25	641.50	652.25	650.25	651.50	645.75	636.50	620.75	606.25	598.25	590.75	581.25	561.50	552.75	545.00	538.50	538.00	542.00	535.00	517.00	526.25	530.75	523.75	538.75	540.75	537.75	532.00	524.25	515.75	507.00	497.00	488.75	496.50	499.00	494.75	491.25	474.50	459.50	450.00	436.00	433.25	419.25	411.25	403.75	392.75	389.25	386.00	376.00	355.25	347.75	342.75	337.50	332.75	328.25	324.50	321.25	319.75	315.25
553.00	551.50	551.00	551.25	549.75	549.25	548.75	549.00	549.00	548.50	548.50	550.00	550.75	554.75	556.00	555.75	554.50	552.75	552.50	551.75	552.00	552.50	551.50	551.00	549.75	548.75	548.50	548.00	548.00	546.50	545.75	544.50	542.00	542.25	541.25	540.75	541.50	541.75	542.00	544.25	548.00	552.00	564.50	571.25	574.25	573.50	573.50	578.00	587.50	600.00	609.50	610.75	606.75	601.75	597.00	596.75	604.50	615.00	608.00	606.75	607.00	608.50	610.25	614.25	618.00	624.50	632.00	632.75	635.50	640.25	640.25	643.75	645.50	640.75	638.50	641.00	642.75	647.00	644.75	645.25	651.75	652.50	651.25	647.50	646.75	641.75	639.00	633.75	632.00	623.00	623.25	620.50	610.50	612.00	615.25	615.50	619.00	620.00	610.00	625.25	625.50	623.25	626.00	617.25	615.75	612.25	615.75	611.75	611.25	607.50	606.75	600.00	591.50	591.00	585.75	582.00	579.50	580.00	580.50	576.50	577.50	578.00	579.25	577.00	577.00	575.75	563.75	546.00	528.75	544.50	549.25	555.25	576.25	575.50	575.50	578.75	585.00	588.00	591.00	593.00	591.00	590.25	588.50	589.00	583.75	576.50	575.75	573.00	567.25	566.25	565.50	565.25	563.25	566.75	566.50	561.75	554.50	548.50	541.75	535.50	531.00	529.75	527.25	524.75	530.00	528.00	527.75	523.50	513.00	508.75	475.00	446.75	495.00	517.50	521.50	526.25	533.50	539.00	549.75	566.25	569.75	579.75	588.50	596.25	600.25	606.50	607.75	608.00	604.00	604.25	604.50	604.75	606.25	607.50	610.50	617.50	620.00	620.25	627.50	643.50	651.50	648.50	643.00	635.25	629.00	617.25	601.25	591.25	582.25	574.25	558.50	548.00	536.25	528.50	529.75	534.00	531.25	517.00	510.75	514.50	517.00	526.50	528.75	525.50	520.75	514.75	514.00	507.50	497.75	485.75	491.50	490.25	478.50	467.75	453.25	437.00	429.00	423.75	419.00	407.25	399.25	391.00	380.75	372.50	363.00	357.75	347.25	343.75	339.50	334.75	330.25	327.00	322.75	320.50	318.75	315.25
553.00	552.25	551.25	552.00	551.25	550.50	548.75	549.00	549.50	549.25	549.00	549.75	550.75	553.75	555.75	555.75	554.25	552.50	552.50	552.25	552.00	552.00	551.50	550.75	549.75	549.25	549.25	548.25	548.75	547.00	546.00	544.25	541.75	541.25	541.75	540.75	540.50	542.00	542.25	542.75	546.00	549.50	559.75	570.25	575.25	574.50	572.50	576.00	583.25	594.25	606.75	619.75	617.25	613.50	609.50	607.75	619.50	627.75	615.50	612.00	610.50	609.75	610.25	613.25	617.00	623.25	628.50	628.50	634.75	642.50	643.25	648.75	648.50	645.00	641.50	642.75	642.50	650.25	650.25	645.00	648.50	647.50	649.75	646.75	646.50	642.75	637.50	637.50	634.00	623.75	620.00	615.50	614.75	614.25	608.25	603.50	612.50	619.25	602.75	617.25	621.50	624.00	623.75	615.50	614.50	611.25	613.50	612.25	607.75	606.75	604.50	600.00	586.50	590.00	588.00	582.25	580.00	580.25	579.00	576.00	577.75	576.50	579.50	573.50	573.00	567.75	555.25	541.50	528.00	539.25	546.00	554.25	570.25	572.75	575.25	577.50	585.00	586.00	589.50	592.00	590.50	588.25	585.75	584.50	582.50	573.50	574.25	574.00	568.75	565.50	566.00	566.00	562.75	565.75	566.75	558.75	551.25	544.00	542.25	539.50	534.50	528.00	530.50	520.50	526.25	529.00	527.25	524.00	507.75	502.25	474.00	446.75	496.25	517.00	520.75	525.25	535.00	538.00	543.25	562.50	570.00	576.50	583.75	589.75	600.25	609.25	610.50	609.75	608.25	606.00	605.50	605.75	608.25	607.50	610.50	617.50	618.00	619.75	631.50	645.75	647.00	640.50	636.75	628.00	622.50	613.00	596.00	585.25	575.25	567.25	554.50	543.50	533.75	528.00	519.25	525.75	526.00	520.75	505.50	503.75	503.00	513.25	512.75	509.75	508.75	510.25	509.50	505.00	496.50	486.75	482.25	476.75	450.50	437.00	426.75	418.00	413.50	411.00	405.50	395.00	387.50	377.75	366.50	356.75	350.00	347.25	343.75	340.00	336.50	332.75	328.25	325.75	322.25	319.50	318.00	315.75
552.25	551.50	550.50	550.75	552.50	552.50	551.00	548.25	548.75	549.25	549.00	549.00	550.75	553.75	554.75	556.00	555.50	553.75	552.25	552.25	552.25	552.25	550.50	551.50	550.00	549.25	549.75	549.25	549.50	548.75	546.50	545.25	542.25	541.25	540.50	540.25	540.00	542.25	543.25	542.75	543.75	548.00	554.00	562.25	576.00	576.50	571.50	574.75	578.00	588.00	596.50	618.25	619.75	619.75	620.00	627.25	640.00	631.25	632.25	625.00	622.75	625.00	623.00	619.75	619.00	618.00	616.00	619.75	628.75	632.25	639.00	647.25	645.75	646.00	648.00	642.50	642.25	646.75	648.00	646.25	641.50	645.25	644.50	642.00	640.75	636.75	631.25	631.50	630.00	622.00	616.25	615.00	607.50	602.25	600.25	597.25	599.50	613.00	612.00	599.75	615.50	620.25	619.25	612.50	608.00	607.50	608.75	607.25	606.00	602.75	601.75	598.00	584.50	586.75	589.00	582.75	579.25	582.00	579.75	573.50	576.75	577.00	579.50	573.00	571.25	570.50	563.50	543.00	526.75	533.50	541.25	550.75	562.50	569.75	576.50	577.75	581.75	586.25	589.25	589.25	587.50	586.00	582.75	578.50	578.00	578.75	574.75	568.75	567.50	564.25	563.25	562.25	562.25	562.00	560.00	553.50	552.50	549.00	540.50	537.75	535.25	533.25	531.75	520.75	527.50	528.50	531.00	527.25	523.75	523.50	491.00	454.50	487.75	508.00	520.25	524.00	530.25	535.50	540.00	559.75	569.75	575.25	581.00	590.00	598.50	606.50	607.75	609.25	610.00	608.50	608.50	609.25	610.50	613.00	613.00	614.25	616.50	620.50	631.75	646.50	637.75	640.00	635.25	622.50	612.25	600.00	583.25	572.75	561.50	555.50	543.25	540.50	536.25	525.25	509.50	508.50	513.00	507.00	498.25	479.50	477.75	485.75	482.75	477.50	474.25	477.75	481.00	476.00	464.25	457.25	448.00	436.75	422.75	415.50	410.75	405.50	403.00	397.25	391.75	381.75	374.25	363.00	351.50	348.50	346.00	342.50	339.75	336.50	333.00	333.00	327.75	325.75	322.75	319.75	317.00	315.50
552.00	551.00	550.50	551.00	552.00	553.50	550.50	548.00	550.00	550.00	550.00	549.50	551.00	553.50	555.00	556.50	555.50	554.50	554.00	552.50	552.00	552.00	550.00	552.00	551.00	550.00	549.50	550.00	550.50	551.00	547.00	545.00	541.00	541.00	539.00	539.50	540.50	542.00	542.50	543.50	543.00	546.50	551.00	556.50	568.00	575.00	578.50	576.50	574.50	580.00	586.50	605.00	614.00	621.50	622.50	632.00	634.00	639.50	634.50	631.00	629.00	627.50	626.50	622.00	625.00	626.00	621.50	617.50	620.50	623.00	629.50	639.00	642.50	641.00	646.00	639.50	635.50	632.50	636.50	634.50	640.00	636.00	637.50	639.50	635.00	629.00	626.50	626.00	623.00	623.00	618.00	616.00	611.50	597.00	591.00	588.00	584.50	589.00	607.00	601.00	600.50	615.50	616.00	607.50	606.50	605.00	602.00	602.00	601.50	599.50	600.50	595.00	584.00	581.00	581.50	582.50	578.50	581.50	580.00	577.00	575.00	579.50	579.50	572.00	570.00	563.50	561.00	541.00	527.50	533.50	542.00	550.50	563.50	569.00	578.50	580.00	583.00	590.50	590.00	587.50	585.00	582.50	579.00	579.00	583.50	583.00	576.00	568.00	563.00	565.50	561.00	561.50	565.00	563.00	557.00	553.50	553.00	549.00	538.50	537.50	536.50	529.50	528.00	526.50	532.50	530.00	531.00	530.50	526.50	527.50	496.00	458.50	484.00	516.50	521.00	523.00	528.50	534.50	539.00	557.50	568.50	577.00	578.50	584.00	597.50	604.50	605.00	605.50	607.00	608.00	614.00	610.00	611.00	613.00	612.50	616.50	621.50	619.50	625.50	644.00	640.00	633.00	629.00	614.00	609.50	594.50	572.00	571.50	556.50	549.00	540.00	533.50	527.50	517.50	510.00	498.50	501.00	495.00	486.00	474.00	484.00	466.00	467.00	462.50	457.00	456.00	451.50	446.50	438.50	434.50	431.50	423.50	416.00	408.00	405.50	403.50	402.00	387.50	379.50	372.50	365.50	355.50	348.50	347.50	344.00	342.00	338.00	335.00	331.50	332.00	328.50	325.00	322.00	320.00	318.00	317.00
551.75	551.25	550.50	550.00	550.75	553.50	550.25	549.50	549.75	550.50	550.25	549.25	551.00	553.50	555.25	556.00	555.50	555.25	554.50	553.00	550.75	553.00	551.50	552.00	551.50	549.75	549.50	549.25	551.00	551.00	549.00	544.50	542.00	541.25	540.00	539.50	541.00	541.75	542.50	544.50	544.00	545.25	549.50	555.25	562.50	576.00	582.00	579.50	577.00	576.50	578.75	589.75	601.25	614.75	615.25	632.25	631.75	634.25	630.25	629.25	631.75	630.00	632.75	630.75	626.75	628.00	625.50	624.00	622.50	624.00	622.25	624.50	625.25	624.75	630.00	629.75	629.75	629.00	628.25	625.75	630.00	626.25	622.50	624.00	628.75	625.75	623.00	619.75	620.00	626.00	618.25	616.75	612.00	597.00	587.00	584.50	582.00	579.25	596.25	601.75	598.75	609.50	610.50	607.75	607.75	601.75	605.00	600.25	599.75	599.75	598.75	593.00	580.25	578.00	581.75	580.25	578.50	579.00	579.75	575.00	575.75	578.75	577.00	571.00	568.00	562.00	555.00	536.25	525.25	531.50	541.75	549.75	560.50	568.75	577.75	577.50	584.25	587.75	588.50	587.75	585.00	582.50	578.50	579.25	578.75	580.50	575.25	568.50	564.25	562.50	560.25	559.50	563.00	561.50	558.50	555.25	550.25	549.75	540.75	542.00	539.50	531.00	535.75	530.50	530.75	527.75	530.50	530.00	526.00	525.00	501.50	459.00	473.75	512.50	521.25	523.25	528.50	535.00	537.00	552.50	564.50	575.00	578.00	584.00	595.00	599.00	607.75	605.25	606.00	608.25	610.00	609.75	612.75	614.25	612.75	614.50	620.00	618.50	625.00	640.25	640.00	632.00	619.75	608.50	600.50	586.50	566.25	558.00	549.25	541.75	532.25	524.50	517.50	509.50	502.75	493.75	492.50	486.50	480.25	466.25	482.25	464.75	458.75	455.75	450.25	446.75	440.50	435.50	429.00	425.75	421.00	416.50	411.00	406.25	402.75	404.50	407.75	379.00	371.00	364.75	358.25	353.25	349.25	349.50	342.75	340.00	336.25	333.25	331.75	330.00	327.50	325.50	323.25	321.75	320.00	317.75
550.75	550.75	550.25	550.00	551.00	553.25	549.25	549.75	550.00	550.50	551.00	549.25	550.50	553.00	555.00	555.75	556.50	556.25	555.50	553.00	550.75	552.50	552.25	552.00	551.50	550.25	549.25	549.50	550.50	550.25	549.50	544.75	542.00	542.00	540.50	540.00	541.00	541.50	542.50	544.25	544.50	544.00	549.00	555.50	562.00	570.50	580.00	583.50	579.50	576.00	576.50	581.25	589.75	604.50	610.25	630.25	630.00	629.25	628.25	626.25	634.50	632.75	634.00	633.25	629.75	631.25	630.00	629.75	628.50	623.75	620.75	620.25	619.00	621.50	625.50	626.25	625.50	626.00	625.00	625.25	627.50	624.50	620.00	618.25	626.00	624.75	621.75	621.00	620.00	624.75	616.50	615.75	611.75	596.75	584.25	583.25	582.75	579.00	592.25	598.50	595.00	604.75	605.75	605.00	603.75	598.00	602.25	598.75	598.50	599.50	599.50	593.50	582.25	575.75	577.00	577.50	578.50	577.50	579.50	575.75	575.00	576.50	575.25	570.50	566.25	556.00	550.50	533.75	524.00	532.50	543.50	548.00	560.75	569.50	576.75	577.75	584.75	586.25	587.50	588.25	586.00	583.75	579.50	577.75	579.25	578.50	576.00	568.25	564.00	561.75	558.75	557.75	562.50	561.75	560.00	556.50	549.25	548.00	539.25	541.50	537.00	528.25	534.00	531.00	529.75	523.75	527.75	531.00	527.50	527.75	504.75	461.50	471.00	512.50	521.50	523.25	527.50	533.25	538.00	550.50	560.75	567.50	572.75	582.75	594.75	595.25	604.75	604.25	605.75	607.25	607.75	608.75	610.00	614.50	614.50	613.00	614.50	617.25	627.25	639.25	636.25	627.75	613.50	605.50	597.25	578.00	558.75	553.75	545.00	537.25	525.75	518.50	510.75	504.25	499.00	492.00	485.00	481.00	475.75	462.25	468.75	461.00	453.75	450.50	446.50	443.00	436.25	431.50	424.50	421.25	416.50	413.00	409.50	404.00	398.25	393.75	391.25	374.00	367.50	362.50	358.00	353.75	350.25	349.75	340.25	337.75	335.25	332.00	331.00	329.50	328.00	326.00	325.00	322.75	320.75	317.00
550.75	550.50	549.25	549.75	550.75	552.00	550.75	548.75	550.75	551.25	551.25	549.25	550.00	552.75	554.50	556.00	557.75	557.25	555.00	553.00	552.25	550.50	551.25	552.25	551.00	549.75	548.00	548.75	549.50	549.75	549.50	546.75	543.50	541.00	541.50	540.00	541.25	541.00	543.25	543.75	544.25	545.50	552.75	552.00	555.50	563.75	572.00	583.25	585.50	579.25	576.25	576.75	578.00	585.00	598.25	610.75	619.75	622.75	624.75	626.75	634.25	632.75	635.25	637.75	641.50	639.50	638.25	638.75	639.00	634.50	632.00	627.25	629.50	630.50	627.00	629.50	627.75	626.50	627.25	629.00	627.00	629.75	628.50	627.00	628.50	627.00	622.50	619.25	619.00	614.75	614.25	613.50	606.25	595.25	582.50	584.50	590.25	590.25	588.50	585.00	586.75	591.50	596.75	597.50	597.00	596.25	592.25	592.00	593.50	592.00	590.25	587.75	582.75	577.00	574.00	575.00	576.00	577.50	574.00	572.75	573.25	570.75	574.00	569.00	563.75	554.25	548.50	533.50	528.75	539.75	549.25	554.00	569.00	573.75	576.00	576.00	581.75	581.75	585.25	583.75	581.75	580.25	578.00	576.00	577.50	576.25	573.25	569.50	566.00	562.75	560.50	557.25	557.25	558.00	554.50	557.25	548.75	545.00	541.25	544.25	539.00	526.25	530.50	529.75	531.50	532.25	534.25	532.25	532.50	528.00	517.00	474.00	457.50	505.50	520.50	522.75	525.50	529.50	534.75	544.25	550.50	560.00	563.50	577.25	594.50	592.75	599.50	602.50	604.00	607.25	608.25	607.75	607.50	607.50	614.25	614.50	609.50	622.75	628.25	636.00	629.75	619.00	605.00	598.25	582.75	567.50	553.75	549.25	532.75	518.50	513.50	508.00	502.25	496.25	492.25	486.25	480.25	467.75	466.00	461.75	453.00	451.75	450.00	443.25	438.00	437.25	432.25	427.00	421.50	417.50	410.75	404.00	399.00	391.50	384.50	376.50	372.50	366.00	361.25	358.00	354.25	353.75	349.50	345.25	338.25	336.50	334.75	332.50	331.25	330.75	329.00	328.00	324.50	321.00	321.25	320.75
551.00	550.00	549.50	550.00	550.50	552.00	551.00	548.00	551.50	550.50	550.50	550.50	550.00	552.50	555.50	555.50	558.00	556.50	555.00	553.00	552.00	549.50	551.50	551.00	550.50	550.00	548.00	548.00	549.00	550.00	549.00	547.50	544.50	542.00	540.00	540.50	541.00	540.50	541.00	542.00	544.50	546.50	551.00	550.50	555.50	561.00	569.50	579.00	587.50	584.50	581.00	578.50	577.00	580.50	588.00	595.50	602.50	610.50	621.00	623.50	629.50	630.00	630.00	638.50	644.00	644.50	643.50	642.50	641.00	640.00	636.50	629.50	632.00	631.00	632.00	630.50	628.00	627.50	634.00	630.00	623.50	628.00	629.00	622.50	621.50	623.00	623.00	619.50	620.50	615.50	614.00	611.50	607.50	596.50	583.50	586.00	592.50	596.50	586.50	584.00	588.50	578.00	586.00	591.50	599.00	588.00	588.00	592.00	589.50	589.50	591.00	586.50	579.00	576.50	573.00	575.50	572.50	572.50	569.50	570.00	571.50	572.00	574.50	565.50	561.50	550.50	544.50	533.00	530.50	546.50	555.50	560.50	568.00	572.00	578.00	577.50	576.00	579.50	582.50	585.50	580.50	580.50	579.50	574.00	577.50	574.00	571.00	566.00	562.50	561.50	559.00	560.00	559.00	561.50	554.00	559.00	550.50	548.50	542.50	541.50	540.00	527.00	534.50	525.00	534.00	530.50	533.00	531.50	532.00	532.50	518.00	486.00	450.50	487.00	522.00	521.00	523.00	526.00	530.00	539.00	544.00	557.00	560.50	578.50	595.50	595.00	593.50	596.00	605.50	607.00	615.00	611.50	610.00	603.00	606.50	610.50	612.50	626.50	636.00	635.00	629.50	611.00	598.50	582.50	572.50	562.00	556.50	542.50	525.00	512.00	502.00	501.00	495.50	490.50	485.00	477.50	474.50	465.00	462.00	455.50	453.50	444.50	444.50	444.00	442.50	435.50	431.50	421.50	414.50	408.00	402.00	394.00	388.00	381.50	377.00	371.00	368.00	358.50	358.50	353.50	353.50	352.00	345.50	342.00	336.50	336.00	337.50	336.50	332.50	332.00	327.00	323.50	325.50	326.50	325.00	322.50
549.75	549.50	549.00	548.75	550.00	550.50	549.75	551.25	551.75	551.25	550.75	550.50	550.00	552.25	555.00	556.00	557.50	556.50	554.00	553.50	551.50	550.75	552.50	550.75	551.25	551.25	549.25	548.25	549.50	549.50	550.00	548.00	545.50	543.50	541.25	540.25	540.25	540.50	541.25	540.25	543.25	546.75	551.25	551.50	555.50	563.00	569.50	576.75	585.50	592.75	588.25	580.75	578.00	579.00	581.00	585.00	588.50	594.00	608.50	616.00	621.25	623.25	626.75	632.25	638.25	639.75	641.50	641.75	638.75	636.25	637.00	636.50	636.25	634.25	632.00	630.50	629.75	629.75	627.00	629.75	627.75	628.25	625.50	623.75	620.75	620.25	620.25	621.75	619.50	615.25	612.25	610.75	605.75	596.00	586.50	585.75	592.25	596.25	590.75	581.00	581.50	579.75	576.50	581.50	587.50	589.00	587.50	593.75	591.75	588.50	587.75	584.25	576.75	574.00	576.50	576.00	572.75	570.00	566.75	569.00	571.75	572.75	573.25	568.25	564.00	554.25	548.75	537.75	527.50	546.00	552.00	554.00	567.00	576.00	571.75	572.50	577.75	576.25	577.75	581.00	581.25	579.50	579.00	574.50	574.00	574.50	573.25	565.00	562.25	562.00	565.50	565.75	562.75	556.75	552.25	552.00	548.00	545.75	540.50	540.50	536.25	536.00	531.75	523.75	527.50	532.50	534.50	532.75	533.75	531.75	523.25	486.50	444.25	479.50	517.25	519.75	521.75	525.25	528.00	535.75	539.50	548.75	558.50	567.50	573.00	577.25	582.75	589.25	596.75	601.00	607.75	613.00	606.75	604.50	605.75	605.75	610.75	623.25	631.75	627.50	615.75	606.25	592.50	575.00	568.50	558.75	548.50	534.50	519.25	505.50	494.50	488.75	491.50	485.00	477.75	472.00	469.00	458.50	455.50	451.75	448.00	443.00	435.75	438.50	439.25	437.25	426.25	419.25	407.00	400.75	395.50	388.75	381.50	376.00	371.75	367.75	363.25	351.00	349.75	350.75	352.50	348.00	341.50	340.25	336.25	335.75	335.25	334.25	333.25	330.50	330.50	332.00	330.50	331.50	328.75	324.25
548.50	549.00	549.00	548.75	549.75	550.25	548.75	550.75	550.75	550.00	550.00	550.50	550.50	551.00	554.00	556.00	557.00	555.75	554.50	554.25	553.00	553.25	552.25	551.75	552.00	551.00	550.75	548.50	548.25	548.25	547.75	549.00	547.75	544.50	542.00	541.25	540.75	540.25	541.50	540.25	542.25	546.50	550.00	553.50	558.50	567.50	573.00	581.75	589.25	596.00	592.50	589.00	585.50	581.00	580.50	580.00	580.50	582.25	590.00	593.25	602.00	607.75	614.00	622.25	627.00	627.50	630.25	630.75	634.50	633.25	634.75	634.00	633.25	631.25	632.00	630.50	632.00	631.00	625.50	627.25	627.50	625.75	625.50	623.50	621.25	621.00	619.50	618.50	617.25	613.75	616.50	612.25	609.75	595.00	582.50	584.00	587.50	592.00	587.50	584.75	579.75	579.00	581.25	573.75	574.75	590.25	591.25	585.00	588.00	587.50	586.50	581.00	577.00	575.50	575.50	575.25	572.25	569.00	566.50	566.75	573.00	571.75	571.00	568.00	565.25	553.00	544.50	535.25	525.25	540.00	551.50	554.00	565.25	571.50	571.25	574.00	573.50	571.50	574.75	578.00	579.00	580.50	578.25	573.50	573.00	572.25	573.50	568.00	567.00	570.00	572.00	569.00	565.25	561.25	555.00	549.25	546.00	548.75	538.75	536.25	538.75	533.25	524.50	527.25	528.75	527.25	530.00	531.00	530.50	530.00	520.75	498.50	443.25	462.50	516.50	522.50	524.75	526.00	525.75	531.25	534.75	542.25	548.50	555.25	561.75	571.25	590.75	597.50	604.00	601.25	605.00	606.50	607.50	607.50	605.50	611.50	620.50	627.00	632.00	621.00	606.75	600.25	577.00	567.50	560.50	551.25	542.25	528.50	512.25	505.75	488.75	486.00	479.75	473.25	472.50	466.25	457.00	452.25	449.25	446.50	444.50	437.75	435.50	433.25	436.00	428.75	422.50	411.50	402.00	396.75	389.50	382.00	375.50	370.50	366.75	360.75	358.00	348.00	347.25	349.75	347.00	344.50	342.00	339.00	337.75	337.25	335.50	334.25	333.00	334.50	339.75	342.75	340.25	341.50	338.00	326.50
548.50	548.75	549.00	548.75	549.50	549.75	549.50	550.50	550.75	550.25	550.00	550.25	549.75	550.75	552.75	555.75	556.75	556.25	554.75	554.75	553.75	554.00	553.00	552.75	552.25	550.50	550.00	549.00	548.00	548.25	548.75	549.00	549.50	545.50	543.25	541.75	541.00	540.25	540.50	540.25	543.50	547.00	549.50	553.50	562.50	574.50	576.75	578.25	590.50	597.00	593.00	590.50	589.25	585.75	582.25	580.75	579.25	579.75	582.50	585.25	591.00	595.75	600.75	610.25	618.25	619.50	621.50	623.50	626.00	628.25	630.25	630.50	631.50	632.25	631.50	631.25	631.25	631.75	627.00	627.00	625.00	624.75	623.25	621.75	620.50	618.00	614.25	615.50	613.25	614.00	613.50	610.00	607.50	596.50	582.00	579.25	583.75	586.75	585.75	582.50	578.75	577.25	580.50	580.50	570.50	584.50	590.50	586.25	584.75	584.75	583.25	579.00	575.75	574.00	574.50	574.75	571.00	568.00	565.75	566.25	572.25	572.00	570.25	564.75	561.75	548.50	541.25	533.25	523.50	536.75	547.50	554.25	566.00	568.50	569.75	570.50	570.25	572.75	576.75	578.50	578.50	579.25	576.00	573.50	571.50	570.25	572.25	569.00	570.50	574.75	573.25	572.25	565.25	559.00	553.50	547.75	546.50	542.50	536.50	533.00	536.25	529.25	525.75	530.25	531.00	528.25	529.25	528.75	529.50	530.00	524.75	502.25	444.00	465.25	519.25	523.00	524.00	523.75	525.75	529.75	533.50	536.25	541.75	551.50	559.25	568.25	585.25	597.75	601.50	602.00	607.50	609.75	612.25	607.75	607.00	614.00	619.25	629.00	632.50	610.00	604.25	594.50	572.00	565.75	556.25	545.50	536.75	524.25	511.25	503.00	488.75	485.00	477.50	474.00	471.75	462.00	453.50	448.25	445.75	442.75	440.50	433.25	428.75	429.25	433.50	426.75	417.50	412.75	400.25	393.75	386.50	379.00	372.25	367.50	363.50	358.75	356.25	347.00	347.25	347.25	342.75	340.75	341.25	337.75	336.75	336.75	335.50	337.75	338.75	342.00	347.00	349.75	345.00	344.00	338.75	327.25
548.25	548.00	548.75	548.75	549.00	549.00	549.75	550.50	550.00	550.50	550.00	550.00	549.75	550.00	551.75	555.00	555.75	556.50	555.25	554.25	554.00	554.00	552.75	553.50	551.75	550.50	549.25	549.25	548.50	549.50	549.25	549.00	550.25	546.75	544.75	543.00	541.25	540.50	540.25	540.00	544.50	546.25	549.50	554.00	564.25	575.00	579.25	579.00	587.25	593.25	592.75	592.00	590.75	589.00	585.50	582.75	579.75	579.00	579.00	580.75	583.75	587.50	590.00	598.25	608.50	610.75	613.25	616.75	618.50	624.00	626.25	627.50	631.25	632.50	631.75	631.00	630.50	631.50	627.25	628.25	625.25	625.75	621.25	619.25	617.75	615.75	612.75	613.25	612.75	614.75	613.75	610.75	607.00	601.00	585.50	575.75	579.50	578.75	581.50	577.75	578.00	579.75	578.00	577.75	578.75	579.75	586.50	588.75	583.50	581.75	581.25	575.25	573.00	571.75	574.25	573.50	569.75	567.75	564.25	568.50	570.50	573.75	569.50	560.25	558.00	544.00	537.50	532.25	524.00	535.00	545.00	552.75	566.25	565.50	567.75	568.75	568.75	573.75	577.25	578.50	577.50	578.75	575.00	572.75	568.50	569.50	570.00	569.25	574.50	578.00	573.75	571.50	564.25	554.75	550.50	548.25	546.00	539.00	536.00	532.00	535.25	531.75	528.50	533.25	534.25	530.50	528.00	526.25	526.25	528.00	527.75	511.50	446.75	466.50	520.00	519.00	520.00	522.25	524.25	529.75	531.50	531.50	536.75	547.00	558.25	565.75	578.75	597.50	597.75	600.00	609.25	611.75	610.75	608.50	609.25	612.50	615.50	626.75	627.00	602.50	603.50	589.50	570.25	564.50	553.50	541.50	535.25	522.25	511.50	502.75	488.75	483.00	476.50	473.75	467.75	457.25	450.25	445.75	443.50	439.25	437.00	430.75	421.00	426.00	429.75	425.50	410.75	413.50	399.50	392.25	384.00	376.00	369.75	365.50	362.00	360.00	356.25	346.25	346.75	345.25	340.25	338.50	339.00	336.75	336.50	337.00	337.75	342.25	346.00	351.50	353.00	352.50	348.25	343.50	335.50	327.50
547.25	547.75	548.00	548.25	548.25	548.75	549.50	549.25	549.75	550.50	550.00	549.75	549.00	548.75	550.50	555.00	555.50	556.25	558.00	556.00	554.25	553.75	552.00	552.00	552.00	551.25	550.75	549.25	549.00	549.00	549.00	549.50	549.00	548.75	546.50	544.75	542.50	541.25	541.25	541.00	542.75	543.50	546.50	552.25	560.50	565.50	580.00	588.50	596.00	588.75	587.75	591.25	593.00	591.75	590.25	587.75	584.75	583.00	580.00	579.75	581.25	584.00	585.75	589.25	594.00	599.25	610.00	619.00	616.75	621.00	621.50	627.50	627.50	629.25	629.00	626.50	624.50	625.00	625.50	624.00	624.50	622.25	620.50	620.25	620.50	621.25	620.75	619.75	617.75	616.25	616.00	614.25	610.50	607.50	595.25	573.25	570.25	571.25	575.50	576.75	575.00	571.00	574.00	572.25	579.00	577.25	578.50	588.75	585.50	579.25	577.25	572.00	569.75	569.50	566.75	568.25	566.25	567.25	568.25	565.50	569.25	570.00	566.75	558.25	552.50	542.75	536.00	533.50	523.50	534.75	545.25	550.00	566.00	567.50	566.25	567.75	572.00	570.50	572.75	572.50	572.50	572.75	573.75	566.50	564.50	569.75	565.75	567.00	570.75	572.50	574.75	571.50	562.25	551.50	550.25	548.75	542.75	538.75	536.25	533.00	533.50	535.25	533.75	532.00	530.25	527.75	528.50	525.75	523.00	524.00	525.00	518.00	457.75	457.50	514.00	519.00	517.75	519.00	521.50	527.25	531.00	530.00	533.75	545.25	556.25	561.75	575.25	590.50	596.00	597.00	603.25	602.75	606.50	608.25	614.75	618.50	626.50	626.50	626.75	600.25	596.25	576.00	565.75	555.50	549.00	541.25	535.00	522.75	510.25	498.50	488.75	479.50	472.25	469.50	462.50	452.50	447.00	442.50	440.50	436.75	434.00	428.50	422.25	418.00	419.00	421.50	410.25	404.50	405.25	395.75	385.50	374.00	369.00	365.50	362.25	356.25	352.50	346.00	345.50	343.25	340.25	340.00	339.25	339.00	340.75	340.75	344.00	351.25	356.00	359.50	360.50	354.75	348.00	342.75	335.75	328.25
547.50	547.00	548.50	548.00	547.00	549.00	549.00	548.50	549.50	550.50	552.00	549.50	549.00	548.00	550.00	553.00	555.50	556.00	557.00	555.00	554.50	553.50	551.50	550.50	552.00	552.00	551.50	553.50	550.00	549.00	549.00	549.00	549.50	549.00	548.50	545.50	544.00	542.00	541.50	542.00	542.50	543.50	547.00	549.00	555.50	562.00	572.00	587.50	602.00	592.50	588.00	588.50	591.50	593.50	593.00	591.50	590.00	588.00	584.00	581.50	583.00	582.00	581.50	584.00	588.50	592.00	602.00	615.00	616.50	621.00	620.00	624.50	622.50	625.00	624.50	623.00	623.50	624.00	624.50	623.50	623.50	622.50	623.00	624.00	622.50	624.00	622.50	619.00	619.00	617.00	614.00	613.00	610.50	606.50	602.50	577.00	574.00	571.50	571.50	569.50	570.00	571.00	566.50	575.00	570.00	574.00	570.50	585.50	585.00	584.00	580.50	568.00	562.50	561.50	562.50	563.00	568.00	572.00	569.00	563.50	569.50	571.50	568.50	554.50	552.50	542.50	536.00	532.50	521.00	532.00	546.00	550.00	566.50	566.50	563.50	566.50	568.00	570.50	573.00	574.00	575.00	573.00	571.00	565.50	564.50	567.00	562.00	564.00	567.50	571.50	572.50	571.50	557.00	553.50	548.00	546.50	541.00	536.00	536.00	534.50	532.00	531.00	533.50	528.50	529.00	530.50	529.50	529.00	523.00	519.50	516.50	504.50	456.50	452.50	508.50	524.00	519.50	514.50	516.00	527.00	531.00	531.00	532.50	539.50	552.50	563.00	575.00	590.50	593.50	590.50	596.50	603.00	610.50	616.50	622.00	625.00	629.00	634.50	630.50	600.50	589.50	571.00	560.50	555.00	542.00	543.00	534.50	519.50	504.50	497.50	482.50	471.50	467.00	462.50	457.00	452.00	447.00	442.50	439.50	434.50	433.00	427.00	423.50	420.50	413.00	416.00	414.50	403.00	405.00	398.50	391.00	375.00	367.00	362.00	358.00	352.50	350.00	346.50	344.00	343.00	342.00	341.50	340.50	340.50	342.50	344.00	350.00	356.50	357.50	361.50	363.50	356.00	348.50	343.00	336.00	331.00
545.75	546.75	547.25	546.75	547.50	548.00	548.00	548.50	548.75	549.75	550.75	550.00	548.50	545.25	546.25	552.50	554.50	555.75	556.25	554.75	554.25	553.75	553.00	552.00	552.00	552.00	552.00	552.25	550.50	549.00	549.00	549.75	550.00	549.75	549.25	547.25	545.75	544.00	542.25	542.75	543.50	544.00	549.00	549.00	553.50	560.00	569.00	573.25	587.75	596.75	597.25	591.25	589.25	591.75	594.25	594.50	593.25	591.50	588.25	585.50	584.00	583.50	583.50	584.00	585.75	588.75	593.00	599.75	605.75	617.75	619.00	624.00	625.50	627.25	628.75	627.50	626.50	626.50	631.75	627.50	630.00	628.50	629.75	627.50	624.75	624.75	624.00	621.75	619.75	617.75	616.25	614.00	611.50	609.50	603.75	582.50	576.00	573.25	571.00	568.00	572.00	574.50	575.75	565.00	569.50	574.00	570.75	576.75	580.00	581.25	579.00	566.75	562.75	559.50	557.50	558.75	559.75	562.50	567.25	562.50	566.00	569.50	564.25	558.50	551.75	540.25	534.00	524.00	524.00	536.50	549.50	552.75	564.50	562.75	560.25	563.50	566.25	568.50	569.50	571.50	573.25	572.00	570.50	565.75	562.00	560.75	564.00	564.00	570.00	573.50	571.50	570.50	559.00	554.00	553.50	547.75	543.00	537.25	537.25	534.25	533.75	530.75	530.00	529.00	528.75	529.75	531.50	531.75	527.25	525.00	528.25	517.00	468.00	449.50	505.00	518.00	514.25	512.50	515.00	524.50	528.00	528.75	537.25	539.75	552.00	566.00	579.75	589.75	591.75	593.50	597.25	601.00	611.25	618.25	623.50	640.50	641.75	639.00	631.50	596.25	590.25	566.25	558.00	547.75	538.25	540.75	527.25	516.25	503.00	496.75	479.50	466.75	462.75	458.00	455.00	449.50	445.50	442.00	438.50	434.00	431.25	426.50	421.50	420.50	413.00	412.75	414.25	404.75	400.50	398.75	392.75	379.00	368.00	361.50	359.75	353.00	352.75	347.75	346.50	345.50	343.75	342.75	341.75	343.25	346.00	347.50	351.25	356.50	357.50	358.50	360.50	356.25	349.00	340.00	336.25	330.00
545.50	545.50	547.00	546.25	547.25	548.25	546.25	548.25	547.75	549.00	549.75	549.75	546.50	545.50	547.25	551.25	554.25	555.50	556.50	555.75	552.75	552.75	553.75	551.75	552.50	552.00	552.00	551.25	550.25	548.75	549.00	549.25	549.75	550.75	550.75	549.50	547.75	546.00	544.50	544.25	544.50	545.75	549.75	553.75	553.25	557.50	562.50	566.75	572.00	585.25	592.75	601.50	601.25	592.75	590.50	594.50	596.25	596.25	594.00	592.00	589.25	589.00	586.75	584.75	585.50	586.75	588.00	590.00	592.00	598.50	604.50	617.00	622.25	625.75	629.25	631.00	632.00	631.25	634.50	633.50	635.75	633.00	634.25	632.75	631.75	629.25	628.75	625.75	624.25	622.25	619.00	617.00	615.75	612.00	606.75	583.75	577.75	574.00	573.25	574.25	575.25	573.25	573.50	574.25	560.25	572.50	572.25	569.75	575.50	573.75	574.25	565.25	558.75	555.25	554.50	558.75	553.25	554.25	560.50	561.75	563.00	561.50	554.50	552.75	547.75	539.25	532.00	523.25	530.50	543.00	554.50	555.25	559.25	561.25	561.25	562.25	563.00	565.75	567.00	567.00	567.25	567.25	569.50	564.75	563.00	560.25	557.50	562.75	567.75	570.25	570.50	567.00	560.25	552.25	549.75	548.25	543.50	544.00	540.50	536.00	536.50	531.25	530.25	530.75	530.50	531.25	531.75	531.00	529.50	530.00	529.75	529.00	489.00	454.25	493.00	513.25	507.50	511.00	514.50	523.75	525.00	532.25	535.75	540.50	556.75	571.25	578.50	588.50	589.25	597.25	598.25	602.25	615.25	623.50	632.25	643.25	647.25	635.25	619.75	586.00	586.50	564.75	547.75	538.25	535.50	530.00	520.25	507.75	492.00	485.25	472.50	465.00	459.50	454.75	450.50	446.75	444.00	440.00	437.50	433.00	429.75	424.00	419.25	417.50	413.00	409.50	411.00	403.25	396.50	399.50	390.00	383.75	373.75	363.00	360.50	353.00	351.00	349.00	348.50	347.25	346.75	346.25	345.75	346.75	348.25	350.50	353.75	355.25	354.75	355.75	357.50	352.00	343.75	334.25	333.50	331.25
544.75	544.50	546.75	546.75	546.25	548.75	546.25	547.25	547.25	548.00	548.75	549.50	546.50	546.25	547.00	550.00	554.00	555.50	556.00	554.75	552.25	553.00	554.25	551.50	552.50	552.00	551.75	552.25	550.50	549.75	549.00	550.00	549.75	550.75	551.75	550.00	549.25	547.75	546.50	546.50	545.75	546.00	549.25	552.75	554.75	557.75	559.75	563.75	568.75	578.50	583.00	594.00	599.25	598.00	595.50	595.50	594.50	594.25	596.00	595.75	593.50	593.50	590.25	587.25	587.00	586.75	587.75	590.00	591.25	593.25	596.75	605.00	610.75	616.00	623.00	625.50	627.50	628.50	631.50	632.00	634.00	633.75	635.75	634.00	635.50	631.75	631.75	628.50	627.25	625.00	621.75	619.00	617.25	614.25	611.00	592.25	577.50	576.25	574.50	574.50	575.75	574.75	574.00	573.50	567.00	566.50	569.75	568.75	572.25	570.25	571.25	565.00	556.50	554.75	554.00	557.75	552.75	555.00	559.00	561.50	561.50	557.75	555.25	548.75	543.25	537.00	528.75	523.50	532.25	545.00	556.25	556.50	557.75	560.25	560.25	560.50	562.00	564.25	564.75	564.75	565.00	565.00	565.75	562.50	562.25	558.50	558.00	563.75	566.00	567.25	568.25	565.00	557.50	552.50	549.75	549.50	546.75	542.75	539.75	538.75	537.50	533.50	531.25	531.75	532.50	532.75	533.25	532.25	532.00	531.50	529.75	528.50	499.50	463.50	473.25	502.50	502.00	509.00	513.50	522.25	523.25	531.25	536.00	542.75	554.00	571.50	579.50	585.25	589.50	595.50	593.75	598.50	612.50	620.50	634.25	642.50	647.25	633.50	615.25	583.25	576.00	557.00	544.25	535.50	532.75	523.50	512.00	502.25	489.25	481.75	471.50	464.75	459.00	454.25	450.00	446.00	442.50	438.75	437.75	433.50	430.00	424.00	419.25	415.75	412.50	408.50	404.00	403.50	399.00	398.00	392.25	383.75	371.50	363.00	360.25	355.00	353.25	350.25	349.75	348.75	349.25	349.00	348.75	348.50	351.50	353.50	354.00	354.00	354.75	357.25	353.00	345.00	339.75	335.00	334.50	332.00
543.50	543.75	546.00	546.25	545.25	549.25	546.75	546.50	546.25	547.00	547.75	549.00	547.75	546.25	547.50	548.50	553.00	554.75	555.25	554.25	552.75	552.50	553.00	551.75	552.50	552.00	552.00	552.50	551.75	550.25	550.00	550.25	550.00	552.50	552.25	550.75	550.25	549.75	548.25	548.50	547.75	546.25	549.25	551.75	555.75	556.75	558.50	562.00	566.75	574.50	576.50	584.75	590.50	598.75	603.00	600.00	593.75	591.75	597.00	597.50	597.00	597.75	594.25	590.75	590.00	588.75	588.50	590.25	591.50	592.00	592.75	595.50	599.25	603.25	611.25	617.00	622.00	625.50	628.00	632.25	630.50	632.50	634.50	635.25	636.25	633.75	633.25	630.25	628.25	626.75	623.75	620.50	619.75	616.00	614.00	600.25	582.00	579.00	574.00	573.75	574.25	572.50	571.75	573.50	574.75	563.25	569.75	566.50	565.25	566.50	566.50	565.50	557.00	554.00	554.25	555.75	552.75	555.00	560.00	562.25	559.00	555.00	556.00	545.50	538.25	534.25	526.75	529.50	535.50	548.00	556.25	556.00	556.25	558.75	558.25	558.75	560.00	560.50	560.50	561.75	562.50	561.75	563.00	561.00	558.50	556.00	557.75	563.00	565.00	565.50	566.50	561.25	555.75	552.75	550.00	549.00	545.50	540.25	540.00	540.75	538.25	534.75	532.00	533.00	534.25	535.75	534.25	533.25	533.25	532.00	529.00	525.50	509.75	475.25	454.00	488.00	495.50	513.25	516.00	520.75	521.50	526.75	533.25	543.50	548.75	567.25	577.50	583.25	591.50	596.75	593.75	595.50	608.25	623.25	641.25	652.25	642.75	628.50	609.75	577.25	572.25	553.25	537.25	531.75	526.00	514.50	503.00	495.75	489.25	480.75	470.50	464.25	458.75	454.00	449.50	446.00	442.50	439.25	438.00	433.25	430.00	424.00	418.75	414.50	412.00	410.00	402.50	404.75	404.25	399.00	396.75	386.75	370.00	363.00	360.50	357.00	354.50	351.50	351.00	350.50	351.00	350.25	352.00	351.75	355.50	356.00	353.75	355.25	356.00	354.50	345.50	340.50	338.25	335.50	335.50	331.75
541.75	542.50	545.00	546.00	544.50	548.00	546.75	547.00	545.50	545.00	546.25	548.75	548.25	546.50	546.00	547.75	551.25	553.25	554.75	554.25	553.50	551.50	551.50	552.00	552.25	552.50	552.75	553.75	553.00	551.00	552.75	552.75	550.75	552.75	552.50	552.25	552.00	551.00	551.25	549.50	549.00	548.25	548.00	550.75	553.50	555.25	558.75	563.50	565.25	569.25	573.75	578.75	580.50	588.25	597.00	598.75	599.00	603.00	599.50	597.75	601.00	600.50	599.00	596.50	595.00	593.00	591.75	591.25	591.50	594.00	595.25	595.25	596.25	598.75	601.00	603.75	606.25	609.50	614.25	618.50	623.50	625.00	627.00	630.50	633.25	632.25	632.50	630.75	630.50	627.00	625.25	623.50	620.75	618.00	611.00	606.00	594.00	586.25	580.50	576.25	572.75	570.00	567.00	571.00	573.50	569.25	557.75	551.25	548.75	548.75	556.50	563.25	557.50	555.75	554.50	552.00	549.25	550.50	559.50	559.25	556.50	552.50	552.25	543.00	536.25	527.50	525.00	537.00	546.75	551.00	552.75	553.00	554.25	558.25	555.25	554.75	555.25	555.25	556.00	557.25	558.75	558.75	560.25	558.50	554.00	554.00	555.75	560.50	563.75	562.50	563.00	561.50	555.75	553.00	549.50	546.50	544.25	541.75	540.25	538.50	538.00	534.50	536.75	533.00	534.25	536.00	535.00	533.50	532.50	531.00	530.75	527.00	521.00	494.75	439.00	453.50	491.75	513.25	517.25	518.25	518.25	524.25	531.00	538.75	548.50	560.00	569.00	575.00	585.50	589.50	600.50	596.25	606.25	624.75	639.50	644.25	633.50	614.50	596.50	567.00	567.00	548.25	530.25	525.25	514.50	505.75	497.00	489.75	484.00	478.50	469.00	463.25	458.00	453.75	450.75	446.25	443.00	439.50	436.75	432.75	428.50	422.75	419.75	416.75	414.75	414.50	409.25	407.50	400.75	397.00	393.00	385.50	371.50	363.50	360.25	356.00	356.75	355.00	352.25	351.50	350.75	352.25	354.25	355.00	354.50	354.50	356.00	355.50	349.25	343.25	341.25	339.75	338.00	336.50	336.00	331.00
541.50	542.00	543.50	544.50	543.50	547.50	547.50	548.00	545.50	544.00	544.50	548.50	548.00	545.50	545.00	546.00	550.50	553.00	554.00	553.50	553.00	551.50	552.00	551.00	552.00	553.00	553.00	553.00	553.50	552.50	553.00	553.00	552.00	550.00	551.00	551.50	553.00	552.50	552.50	552.50	551.50	551.00	550.50	551.00	552.50	553.50	559.00	564.50	566.50	566.50	569.50	575.50	578.50	583.00	588.50	593.50	601.00	604.50	606.00	603.00	603.00	600.50	600.50	599.00	598.50	598.00	595.50	594.50	594.00	595.50	596.50	597.00	597.50	599.00	601.50	602.00	603.00	604.00	606.50	609.00	613.00	615.50	618.50	623.50	625.00	628.50	628.50	630.00	627.50	624.50	625.50	625.00	623.50	615.00	607.00	608.00	601.50	592.00	581.50	578.50	574.50	572.50	567.50	563.50	564.50	567.00	559.00	548.50	545.00	542.50	548.00	560.00	564.00	562.00	556.50	552.00	548.00	552.00	558.50	558.00	554.00	553.50	552.00	543.00	534.00	520.50	529.50	541.00	547.50	548.50	549.50	549.50	552.50	556.00	553.50	553.00	553.00	552.50	553.50	554.50	556.00	557.00	557.00	555.50	552.50	552.50	554.50	559.00	565.00	561.00	559.00	557.50	554.00	555.00	550.00	546.00	544.50	542.00	542.00	538.50	537.00	534.50	534.50	534.50	536.00	536.00	536.00	534.50	533.00	531.50	528.50	527.00	521.50	506.00	442.00	437.00	478.50	505.00	510.00	521.00	522.00	525.50	530.50	536.50	550.00	560.00	565.00	570.00	574.00	581.50	594.00	596.50	603.00	623.50	635.50	630.00	618.50	606.50	585.00	562.50	549.50	535.00	535.00	523.50	510.50	502.50	497.00	490.00	483.00	478.00	469.50	463.50	458.00	453.50	450.50	447.00	444.50	440.00	437.00	432.00	428.00	424.00	422.00	419.00	415.50	416.00	409.50	407.00	401.00	396.50	391.00	380.50	366.50	361.50	359.00	356.00	355.00	356.00	353.50	352.00	353.00	355.00	355.00	355.00	355.50	357.50	356.00	348.00	346.00	342.50	341.50	340.50	339.00	338.00	333.00	336.50
541.25	542.00	542.75	543.25	543.75	548.00	547.00	545.50	543.25	542.00	544.50	547.00	547.75	546.25	545.50	546.75	549.75	552.00	553.00	553.25	552.75	551.75	551.00	551.25	552.25	552.25	552.50	553.50	553.50	554.75	554.50	554.25	554.75	552.25	553.00	552.25	552.75	552.50	552.75	551.75	552.00	552.50	555.00	555.25	553.75	554.50	556.75	562.25	565.50	565.75	567.00	571.75	576.00	579.25	582.25	586.50	593.25	598.25	604.50	607.50	606.25	604.00	602.50	600.75	599.50	599.00	598.00	598.00	596.75	597.25	597.25	597.00	596.75	597.75	599.25	601.50	603.25	603.75	606.00	607.00	609.75	611.75	614.75	617.00	618.50	620.25	620.50	623.00	622.50	622.00	622.00	621.50	618.50	615.50	608.25	608.50	605.00	599.25	585.50	581.00	575.50	572.00	568.25	561.00	557.00	558.25	560.00	556.00	554.00	551.25	541.75	562.75	569.50	563.00	553.75	548.00	549.50	552.50	553.50	556.75	553.00	551.50	549.00	540.25	531.75	516.50	532.50	542.50	548.00	547.75	548.50	548.00	550.00	552.25	552.75	551.50	550.50	550.75	551.25	552.75	553.25	554.00	554.25	553.75	551.00	549.25	551.75	556.75	562.00	559.50	557.25	556.00	556.00	554.50	548.50	548.25	544.50	541.75	539.75	539.00	537.75	537.50	536.75	537.25	538.75	539.25	537.50	536.25	534.00	529.75	527.25	520.75	519.75	509.50	457.25	431.25	452.00	489.50	514.50	520.75	522.25	525.00	530.50	536.25	547.00	561.50	567.25	569.00	575.00	578.25	584.00	598.50	609.50	610.25	622.25	615.50	607.50	582.50	563.50	545.25	523.75	529.25	535.00	518.00	509.25	501.50	495.75	490.50	484.50	479.00	470.00	463.25	458.75	455.25	451.50	447.75	444.50	440.50	438.75	433.75	430.75	425.25	422.00	418.50	417.25	415.75	406.75	399.50	393.00	389.00	381.75	371.50	365.25	362.25	358.50	357.25	355.50	356.75	353.25	353.75	355.25	356.50	354.75	354.50	355.75	355.00	352.75	346.50	345.25	342.75	342.50	342.50	340.75	337.25	337.75	338.00
540.00	541.50	542.00	543.50	543.00	546.00	545.75	542.50	543.50	541.50	542.75	546.25	546.75	547.75	546.00	545.00	548.25	549.75	551.75	552.75	552.50	551.50	550.25	551.25	551.00	551.00	551.75	553.50	553.50	553.50	554.50	555.50	555.50	554.75	553.75	554.00	554.00	553.75	553.25	553.25	553.25	553.25	554.50	556.50	555.50	554.50	555.75	559.00	564.00	567.75	569.00	570.00	571.25	576.75	581.50	585.50	588.50	592.25	595.50	599.75	604.00	605.50	605.75	604.50	602.75	600.25	599.00	599.00	598.50	599.25	599.25	599.25	599.75	601.25	601.50	602.75	602.50	603.00	606.25	607.50	608.25	610.25	612.25	614.00	615.50	615.75	616.50	619.50	621.50	618.75	619.25	619.00	617.50	613.25	610.75	608.75	605.25	600.75	592.75	585.00	578.00	574.00	570.50	564.25	557.50	554.75	557.75	556.00	554.00	550.75	542.25	541.75	543.50	549.75	548.50	546.25	548.75	546.75	548.50	551.00	550.50	550.50	547.50	536.25	530.00	515.25	528.50	540.25	539.50	542.75	548.25	547.25	551.50	552.50	550.25	548.75	547.50	546.50	547.50	549.00	549.25	549.00	550.50	553.25	551.00	546.00	551.50	555.25	555.75	556.00	555.00	555.50	553.50	551.50	551.25	549.50	546.00	543.25	540.75	540.00	538.00	539.25	539.25	539.00	540.00	542.00	542.75	542.00	535.00	532.00	527.25	522.75	519.75	510.75	482.50	447.00	437.75	473.00	506.50	519.75	520.75	525.50	531.75	536.25	546.50	559.25	565.50	567.25	572.25	577.25	586.25	594.75	614.25	609.25	597.25	588.75	573.50	545.50	528.50	521.75	516.00	530.75	530.25	515.50	508.75	500.75	495.25	493.00	486.25	479.75	469.50	462.25	458.50	453.75	449.75	446.00	444.00	441.50	440.00	434.75	430.50	424.25	421.25	420.50	419.00	417.00	415.50	396.25	374.75	369.25	367.25	368.00	365.50	362.50	359.75	356.25	353.75	354.50	355.50	357.00	358.50	358.25	355.50	353.75	351.00	350.25	347.75	345.00	344.75	345.00	344.50	343.00	340.00	341.75	340.25	338.00
539.25	541.25	541.50	541.75	542.50	545.25	545.50	542.50	544.00	542.00	542.50	546.00	546.25	547.75	546.25	545.00	547.00	549.75	551.25	552.50	551.50	551.50	549.75	550.50	550.25	551.00	552.00	553.25	553.25	552.75	554.00	554.75	554.25	555.50	555.50	555.75	555.75	554.00	553.50	553.50	553.50	554.00	554.50	556.25	556.00	555.75	556.00	559.00	562.00	568.50	569.50	570.00	572.00	576.00	580.25	584.75	587.25	590.50	593.50	596.25	599.75	602.75	605.00	606.50	605.50	602.25	600.25	599.75	598.75	599.50	599.25	600.00	600.50	601.25	601.25	603.25	603.25	603.75	608.00	610.50	609.00	611.50	613.75	615.50	616.00	616.25	617.00	620.50	620.75	617.25	618.25	618.00	617.00	612.75	613.50	607.25	605.25	600.50	592.75	584.75	580.00	576.25	568.75	564.50	558.25	553.25	555.00	554.75	552.75	549.00	541.75	537.00	537.00	542.75	546.50	544.25	546.75	545.75	546.75	548.75	549.00	550.25	550.25	537.25	529.00	515.75	531.50	539.50	539.50	543.00	548.50	547.75	551.00	551.50	548.75	547.75	546.25	545.75	546.50	547.75	547.00	547.00	549.00	552.25	549.25	546.00	550.50	554.50	554.75	555.25	554.25	553.25	553.75	551.75	549.75	548.00	545.50	544.00	541.50	539.50	539.25	538.75	539.50	539.50	540.00	544.25	545.25	543.25	536.75	535.00	530.00	525.25	519.75	510.50	488.75	464.00	438.00	467.00	503.75	516.75	520.75	526.00	531.50	534.75	547.00	557.00	564.25	566.75	572.50	577.00	587.00	593.25	608.00	605.00	585.50	570.00	560.25	532.75	521.25	514.00	518.75	532.25	530.00	515.25	507.25	499.50	494.25	493.00	486.75	479.00	468.00	462.25	457.75	453.00	450.25	446.75	444.50	441.25	441.00	438.00	432.50	424.00	420.75	421.25	418.00	413.00	400.75	385.00	368.25	368.75	366.50	365.50	363.25	360.00	357.75	354.25	353.75	356.50	358.00	359.25	360.50	359.00	354.75	352.00	349.00	348.25	347.25	345.00	346.25	346.50	345.50	341.50	340.75	341.50	339.75	337.50
538.00	539.50	539.75	541.25	542.25	543.50	545.75	543.00	543.75	542.25	542.25	545.00	546.00	547.00	546.50	545.00	545.50	548.50	549.50	550.50	551.00	550.00	549.75	550.00	550.50	550.75	551.00	551.75	553.50	553.00	553.50	553.75	554.75	556.50	558.50	558.25	557.75	555.25	554.50	556.25	554.75	554.75	555.00	555.50	556.25	557.50	559.25	560.25	560.00	565.50	569.75	572.75	573.75	576.00	579.25	582.00	585.50	587.25	590.50	593.25	595.00	597.25	599.25	603.00	604.50	605.75	604.25	603.25	603.25	600.75	600.00	600.00	600.75	601.25	603.00	604.50	605.75	606.25	608.25	611.00	614.50	616.75	617.50	618.00	616.75	617.25	618.25	620.75	620.25	619.25	619.00	617.50	616.75	615.00	614.25	605.75	604.25	601.00	592.50	584.00	582.75	574.00	566.75	561.00	557.75	550.50	546.75	553.00	552.00	547.25	541.50	534.00	532.75	531.25	536.75	538.75	542.75	543.25	545.75	545.75	547.00	547.00	546.25	538.75	529.50	514.75	525.00	529.25	530.50	539.00	543.75	547.25	549.25	548.50	546.75	548.00	545.25	543.50	543.00	543.25	543.50	542.75	547.00	547.25	549.25	548.75	549.75	552.25	554.50	553.75	552.00	552.50	553.25	550.75	547.25	546.00	544.50	545.25	541.75	539.75	540.50	539.00	537.75	540.25	540.25	542.75	545.50	545.25	541.25	536.00	531.75	528.50	520.75	512.50	494.25	479.50	442.75	460.00	497.50	519.75	523.50	527.25	528.75	533.75	547.50	555.00	561.25	567.25	571.50	575.50	586.25	586.75	580.25	578.75	562.75	555.00	539.50	517.00	511.25	510.75	520.00	529.25	528.50	515.50	504.75	499.50	495.50	492.00	482.50	475.75	465.75	460.25	456.00	452.75	450.00	447.00	447.25	443.25	438.75	434.50	432.75	421.75	414.25	404.50	389.50	379.00	372.25	374.25	386.00	380.75	367.25	360.50	358.75	358.00	357.50	357.00	359.25	362.25	363.75	363.75	361.25	355.50	350.25	348.75	348.00	348.00	348.50	346.25	345.50	344.00	342.25	341.75	341.75	340.25	339.25	338.00
536.00	538.50	539.50	540.50	541.00	542.50	545.75	543.50	543.25	542.50	541.50	544.75	545.75	546.50	546.50	544.75	544.75	548.00	548.50	549.75	550.50	549.25	550.50	550.50	549.75	550.25	550.25	551.50	553.75	553.50	553.25	553.00	554.75	557.00	559.25	558.75	558.50	556.50	555.00	556.75	555.75	556.00	555.75	555.75	557.25	558.50	564.75	566.75	566.00	565.75	568.25	573.00	575.25	577.75	579.25	581.00	585.00	587.25	589.75	592.25	593.25	595.25	596.25	598.50	600.50	602.50	604.00	604.25	604.00	603.50	603.50	603.75	603.75	603.50	605.25	605.25	606.00	607.50	610.50	611.50	614.75	616.75	618.75	621.75	620.00	619.75	622.25	623.75	623.25	621.75	623.00	620.00	618.50	616.00	614.75	610.00	606.00	603.00	594.75	586.25	583.25	576.50	570.25	563.25	557.75	550.25	546.50	547.75	547.00	545.50	543.50	535.50	530.25	530.75	533.25	535.00	539.50	540.00	542.50	544.25	546.00	546.50	546.00	542.00	528.75	518.25	517.00	522.25	527.75	536.75	542.75	545.00	547.75	547.00	546.00	547.50	544.25	542.50	542.00	541.00	541.50	540.75	542.75	543.75	548.25	550.00	550.00	551.50	552.75	552.00	549.75	551.50	552.00	549.25	548.00	547.00	545.75	546.50	543.50	541.25	540.75	540.25	538.25	541.25	542.00	544.00	545.25	546.00	543.25	537.00	531.75	526.75	521.50	515.25	495.50	476.50	440.00	453.00	488.25	519.00	522.25	527.00	527.75	532.50	545.50	553.75	559.75	566.25	568.75	575.00	578.50	572.50	561.50	558.25	546.50	532.50	519.25	508.50	507.50	510.25	517.25	525.75	530.00	519.50	506.75	500.00	497.00	494.25	484.50	476.00	464.25	459.00	454.50	452.25	450.00	446.25	445.00	439.75	436.75	430.25	425.25	412.00	399.75	388.75	382.50	380.00	387.50	390.25	396.75	384.50	369.00	361.00	358.75	359.50	358.75	361.50	363.75	365.25	364.50	362.00	358.25	353.25	350.00	349.00	348.75	348.50	347.25	346.25	344.75	343.25	342.75	342.25	341.75	340.25	339.50	339.50
534.50	538.00	539.50	540.00	540.00	542.00	545.50	543.50	542.50	542.50	541.00	544.50	545.50	546.00	546.50	544.50	544.00	547.50	548.00	549.00	550.00	549.00	550.50	551.00	549.50	550.00	550.00	551.50	553.50	554.00	553.00	552.50	554.50	557.00	559.00	559.00	559.50	557.50	555.50	556.50	556.50	557.00	556.00	556.50	557.50	559.50	568.00	571.00	571.50	569.00	567.50	573.00	576.00	579.50	579.50	580.50	585.00	588.00	589.50	592.00	592.00	593.00	595.00	597.00	598.00	599.50	603.00	603.50	604.00	605.50	605.00	607.50	606.50	605.50	607.00	606.00	606.00	608.00	611.50	612.50	615.50	616.50	618.50	623.00	622.00	621.50	625.50	625.50	626.50	624.50	625.50	622.00	620.00	617.50	615.00	612.50	607.50	604.50	595.50	587.50	583.00	577.00	573.00	565.00	558.50	550.50	547.50	544.50	543.50	543.50	545.00	537.00	529.00	530.00	532.00	532.50	538.50	538.00	540.00	543.00	545.00	547.00	546.50	543.00	528.00	521.50	513.00	517.50	525.50	535.50	541.50	544.00	546.50	545.50	545.50	546.50	543.50	542.00	542.00	540.00	540.50	539.50	539.50	541.00	546.50	551.00	550.00	551.00	552.00	550.00	548.50	551.00	550.00	548.00	547.50	548.00	547.00	546.00	545.00	543.00	540.50	540.00	539.00	542.50	543.50	545.50	545.50	546.00	543.50	538.00	532.50	526.50	521.00	517.00	496.00	474.00	435.50	447.00	480.00	519.00	522.00	526.00	527.00	531.50	542.50	554.50	559.00	564.50	566.00	574.00	573.50	560.50	551.00	547.00	535.00	513.50	509.00	504.00	505.50	509.50	515.00	523.50	532.00	523.00	508.50	501.50	499.00	496.50	486.00	476.00	462.50	458.00	453.50	452.00	450.00	446.00	443.00	437.50	435.00	428.00	421.00	404.00	389.00	381.00	384.50	386.50	400.50	401.50	398.50	390.50	372.00	361.50	359.50	359.50	360.50	364.50	367.00	366.50	363.50	359.50	356.00	351.50	350.00	349.50	349.50	349.00	347.50	346.00	345.00	343.50	343.00	342.00	342.00	341.00	340.00	340.00
533.00	536.75	537.50	538.25	538.75	541.50	544.00	543.00	542.25	541.75	541.25	542.50	543.75	544.75	544.75	543.50	543.75	545.50	546.75	547.75	548.50	548.00	550.25	551.00	550.25	550.25	550.25	550.75	552.00	553.00	552.50	553.25	554.75	556.25	558.75	559.00	559.25	557.75	556.75	557.00	557.00	556.00	556.50	557.75	559.25	561.50	564.25	568.25	571.00	573.75	573.50	571.75	574.75	579.50	583.75	584.00	585.25	585.75	589.00	590.25	590.50	591.75	593.50	595.00	596.25	597.25	598.25	599.75	602.25	605.50	605.50	606.75	606.75	608.00	610.25	610.00	611.00	609.25	610.50	612.25	613.75	616.50	617.75	619.50	622.50	624.25	623.75	626.75	626.75	627.75	627.00	627.25	623.00	619.75	616.25	614.25	610.00	606.25	597.00	588.00	584.75	582.50	574.75	567.00	562.25	553.25	549.50	543.00	540.75	543.00	543.50	540.25	531.00	529.25	534.00	531.75	538.00	536.25	535.00	536.75	539.50	540.75	540.75	538.50	528.75	519.75	517.25	514.25	517.75	529.50	537.50	541.50	543.75	542.75	541.50	542.25	541.75	539.25	538.25	540.25	538.50	538.75	537.50	541.00	545.75	549.50	548.50	548.75	547.25	548.50	549.50	549.00	549.50	547.25	544.50	546.25	545.00	544.25	543.75	543.50	543.50	540.25	541.50	544.75	547.00	548.75	547.25	544.00	540.25	537.25	533.25	529.25	519.50	515.25	493.25	468.00	435.50	459.00	498.50	518.75	522.50	527.50	531.25	532.75	540.50	550.25	559.50	562.00	560.75	563.75	550.50	545.75	544.00	532.25	517.00	508.25	507.50	503.25	503.75	508.25	509.75	514.75	524.00	529.00	525.00	519.00	509.00	502.50	489.00	476.75	461.75	455.00	451.00	448.50	447.50	443.75	439.75	435.00	431.00	421.00	413.50	394.75	385.75	390.00	397.00	401.75	411.75	410.25	392.25	376.25	366.50	362.00	363.75	365.00	367.00	367.75	368.00	364.25	361.25	357.25	356.00	351.25	350.00	350.25	349.75	348.25	347.00	345.25	345.00	345.00	344.00	344.00	342.75	343.00	342.00	340.75
533.25	535.75	536.50	536.75	537.25	538.75	543.50	542.25	541.25	541.25	540.25	541.50	542.50	544.50	543.75	544.25	543.75	545.00	545.75	546.50	546.75	547.75	549.50	550.25	549.75	549.25	549.00	549.50	550.75	552.75	553.50	553.25	554.50	554.50	556.25	558.25	558.50	559.25	558.00	556.75	557.25	557.25	556.25	557.75	559.50	564.00	566.25	568.25	569.25	579.00	577.50	580.75	581.50	577.75	579.00	585.00	589.25	589.00	592.25	590.50	590.75	590.50	592.00	593.50	595.25	596.00	597.00	598.25	599.25	603.00	604.00	605.00	606.25	608.25	611.25	612.75	613.50	614.25	611.50	614.00	615.75	614.25	617.00	618.50	621.25	624.00	623.75	627.50	627.25	627.75	629.00	629.00	627.25	626.50	624.25	616.50	612.25	605.50	596.50	585.00	585.00	583.25	577.75	573.00	566.25	558.50	552.50	543.50	541.50	543.75	545.00	540.50	537.25	529.75	528.00	523.50	534.00	535.75	533.25	534.00	537.25	537.00	536.50	534.00	532.75	519.50	524.50	515.75	509.75	521.00	531.25	534.50	539.00	536.75	536.75	537.75	538.00	534.25	532.75	534.75	535.75	536.50	534.00	538.50	543.75	546.00	546.25	546.25	546.75	550.25	551.75	549.00	545.75	545.25	543.25	543.00	543.75	543.50	541.75	542.75	542.25	544.75	546.50	549.25	551.50	552.00	550.75	544.75	538.75	536.00	536.50	531.25	521.75	517.50	485.25	451.50	436.50	472.50	511.00	521.75	523.75	527.75	531.00	536.25	545.25	548.00	551.00	559.25	557.75	549.75	534.00	541.75	534.50	525.25	513.50	503.50	501.25	500.25	502.00	508.75	515.75	517.75	521.75	522.75	526.75	537.25	523.50	511.75	489.00	476.50	460.25	452.75	448.75	447.75	445.50	439.25	433.50	425.75	418.50	407.75	402.25	392.75	399.75	402.50	404.25	404.25	405.75	406.00	389.00	378.50	371.50	372.75	377.00	379.50	373.00	367.75	365.25	360.25	356.50	354.00	351.75	351.75	348.25	348.00	348.00	346.75	345.75	347.25	345.50	345.00	344.75	344.50	344.75	345.50	344.25	342.50
533.25	535.00	535.50	535.25	535.75	537.75	542.00	541.25	540.25	540.50	539.75	540.50	541.75	543.75	543.00	543.00	543.50	544.25	545.00	545.25	546.25	547.25	548.00	548.75	550.75	549.75	549.00	549.00	550.25	551.75	553.25	553.25	553.75	554.25	555.25	556.75	557.75	558.25	557.50	556.75	557.50	557.25	557.25	557.50	559.75	562.50	566.00	568.00	569.50	573.75	577.00	583.75	585.00	581.00	579.25	584.75	587.00	589.50	593.50	592.50	591.75	591.50	592.50	593.50	593.75	595.00	597.25	599.00	599.75	602.25	603.50	604.75	606.50	610.50	614.00	613.75	614.50	613.75	613.25	615.25	617.25	616.75	618.25	618.50	620.00	622.50	624.50	626.25	626.25	626.75	626.75	626.75	626.00	625.75	624.50	619.25	606.75	601.25	595.25	588.25	586.00	584.50	578.25	573.75	569.50	563.00	557.50	544.25	541.75	543.00	542.25	540.00	539.25	533.25	527.25	522.00	528.75	531.25	530.00	531.25	535.25	536.25	535.25	533.50	534.25	525.00	524.00	516.00	508.75	517.00	527.75	530.00	535.50	533.75	532.50	534.00	533.75	532.25	532.00	532.50	533.25	533.50	531.50	535.50	541.75	544.25	544.50	544.50	545.75	548.50	551.00	548.75	545.00	543.75	542.25	541.75	541.00	540.25	540.50	541.75	542.25	546.25	546.75	551.00	552.25	552.50	551.75	545.00	539.25	537.75	536.00	530.50	523.25	519.25	490.00	451.75	436.50	478.00	511.50	521.25	523.00	526.25	530.25	536.25	545.50	546.00	546.50	550.50	549.00	540.50	532.50	536.00	526.00	519.00	510.50	503.00	500.00	498.00	500.25	507.50	509.75	511.00	514.50	516.50	521.00	532.25	527.00	513.50	493.50	480.25	459.25	451.00	448.00	445.50	441.25	434.25	427.25	417.75	410.50	400.00	399.75	396.50	402.75	403.00	402.25	400.50	398.75	394.75	384.50	378.50	379.00	380.75	381.25	378.50	371.50	364.00	361.75	357.50	355.50	353.50	350.00	352.50	350.00	348.75	349.00	347.50	347.50	347.75	346.00	345.75	345.50	345.50	347.00	347.75	345.50	344.25
532.75	534.25	534.75	534.25	535.00	536.50	540.50	541.25	540.25	539.25	538.75	539.75	540.50	543.75	542.75	541.75	542.75	544.00	544.75	544.75	545.75	547.25	547.50	548.25	551.00	550.50	549.00	549.00	549.50	551.25	552.75	553.25	553.75	554.25	554.25	555.25	557.00	557.25	556.75	557.00	557.25	557.00	558.50	557.25	559.50	561.75	564.75	567.25	572.00	571.75	577.00	582.50	585.25	586.00	582.75	588.25	588.00	593.50	592.25	592.00	593.50	593.75	593.75	594.25	594.00	594.75	598.75	602.50	602.00	604.25	603.50	604.75	607.00	611.00	615.75	615.00	615.75	614.00	616.50	615.75	618.00	618.00	619.00	619.50	620.00	622.25	625.75	624.75	625.50	626.50	627.50	626.25	625.50	624.75	624.00	616.75	601.25	597.50	593.25	591.50	587.50	586.00	580.00	576.50	573.25	569.75	563.50	547.75	543.00	541.75	539.25	538.25	538.00	537.25	526.75	523.50	524.75	524.50	525.75	528.50	532.75	535.00	535.25	532.25	533.00	531.50	526.50	516.75	508.75	512.75	524.25	526.25	532.50	531.75	529.75	530.50	531.00	531.50	532.00	530.50	531.00	531.75	530.25	533.00	539.00	542.25	542.00	542.75	543.50	546.75	549.25	548.00	544.75	543.50	542.00	539.50	537.00	536.00	539.00	541.50	542.25	544.75	545.00	550.00	551.25	551.25	551.00	545.00	539.25	538.25	534.00	531.00	525.25	521.00	499.75	450.75	436.00	477.00	510.00	520.25	522.50	523.75	528.50	534.75	542.00	541.50	542.00	540.25	540.00	530.75	531.75	528.25	517.75	511.50	507.75	502.25	499.75	497.00	498.25	504.25	503.00	504.25	508.25	514.00	521.50	529.00	526.50	513.75	497.25	485.50	459.50	451.50	447.25	441.50	436.50	430.50	420.25	406.75	401.75	397.00	400.25	401.75	405.00	404.75	401.25	401.25	395.75	390.00	381.75	380.75	385.25	384.75	381.50	375.00	371.25	360.75	359.00	356.25	355.00	351.25	349.00	351.50	351.75	350.75	350.25	349.25	348.25	348.50	346.75	346.50	346.75	347.25	349.00	349.25	346.75	346.25
531.50	532.50	533.50	533.50	533.75	535.00	539.25	540.25	539.00	537.25	537.00	538.50	539.00	541.00	541.50	541.50	542.50	543.25	544.00	544.25	545.00	545.50	547.50	548.00	549.00	549.75	550.25	549.00	548.50	550.75	551.50	553.25	553.75	553.25	554.25	555.50	557.00	557.00	557.25	557.00	556.50	557.00	558.75	558.00	557.75	559.00	561.75	562.00	569.00	576.00	577.50	583.00	588.50	588.25	593.25	592.00	593.00	594.25	592.00	593.25	596.25	596.25	598.00	599.00	597.50	597.25	598.00	599.50	601.25	605.00	605.75	608.25	609.00	610.25	614.25	615.75	616.75	618.75	619.75	619.00	620.00	618.25	619.25	619.75	619.75	622.50	622.75	624.75	624.75	623.25	626.75	626.00	624.25	622.25	618.75	604.75	603.50	602.50	596.50	593.25	591.75	588.50	585.00	579.50	579.00	575.50	566.00	554.50	544.75	540.25	539.00	536.25	532.50	535.25	530.25	527.50	516.25	520.50	522.75	524.75	529.25	531.75	531.50	532.25	531.00	533.00	528.25	520.50	510.75	510.75	520.75	522.25	525.50	525.75	529.00	528.00	529.25	529.50	528.75	528.00	527.50	528.75	528.50	530.25	535.50	538.25	539.50	540.50	540.00	542.50	544.00	544.75	542.25	540.00	537.75	536.25	536.25	536.75	538.50	540.50	540.75	542.50	545.00	546.25	548.50	549.25	547.50	543.50	537.75	536.75	533.25	530.50	525.50	522.50	504.75	466.75	440.75	472.75	502.75	520.25	516.75	522.00	524.75	529.75	530.75	529.75	529.75	526.00	524.75	523.75	526.50	518.50	508.75	509.25	507.25	497.50	495.75	495.25	495.00	497.00	498.25	502.50	508.50	515.25	524.00	527.00	525.75	515.50	490.00	480.75	461.25	451.25	443.75	437.75	431.50	418.25	407.25	406.75	408.75	407.75	408.25	411.25	417.50	421.75	430.75	427.00	391.25	384.00	379.00	381.25	381.50	380.25	376.25	368.00	364.00	360.50	357.75	352.50	352.75	352.50	352.50	352.50	354.00	353.75	351.00	350.50	349.50	349.00	348.00	348.25	349.00	350.50	352.00	350.50	348.50	349.75
530.00	531.50	532.00	532.00	532.00	533.00	536.50	538.00	537.50	536.00	535.50	537.50	538.50	539.50	540.50	541.00	543.00	543.00	543.50	544.00	544.00	545.00	546.00	547.50	548.00	549.50	549.00	549.00	549.00	549.00	551.00	552.50	554.00	554.00	554.50	554.50	556.00	557.50	557.00	556.50	557.00	558.00	557.50	557.00	558.50	558.00	561.00	563.00	564.50	571.00	575.50	584.00	586.00	591.00	595.00	594.50	595.00	595.00	594.50	593.50	596.00	598.00	600.00	601.50	598.50	598.00	598.00	601.50	603.50	604.00	605.00	610.50	614.00	612.50	612.00	613.50	613.50	615.00	620.50	619.00	619.00	619.50	620.00	620.00	622.00	621.50	621.00	620.00	621.00	621.00	624.50	625.50	625.00	621.50	613.50	611.00	609.50	611.00	602.00	596.50	593.50	590.50	587.00	582.00	580.50	577.00	568.00	561.00	550.50	542.50	539.50	538.00	538.00	526.50	533.50	529.00	518.00	520.00	522.00	524.00	527.50	528.50	530.50	529.00	529.00	531.00	529.00	521.00	512.50	508.00	512.50	517.50	524.00	525.00	528.00	527.50	528.00	530.50	526.50	526.00	526.00	527.50	527.00	529.50	533.50	536.50	538.50	539.00	537.00	538.00	541.00	542.50	542.00	538.50	536.50	536.00	538.50	539.00	541.00	541.50	541.00	541.50	545.50	545.00	546.50	547.50	546.50	543.50	537.50	533.50	531.00	529.50	527.00	522.00	513.50	485.50	445.00	456.50	484.00	504.00	517.00	523.00	524.50	525.00	523.50	520.00	517.50	514.00	514.00	517.50	521.50	514.50	508.50	504.00	505.50	500.00	496.50	492.50	492.00	496.50	497.50	501.50	507.50	515.50	523.50	521.50	521.00	507.50	483.50	477.50	458.50	446.00	442.00	438.00	425.00	409.50	410.50	415.50	415.00	415.50	417.50	432.00	457.50	470.00	461.00	433.50	382.00	375.00	372.50	373.50	374.00	373.00	369.00	363.50	358.00	354.50	353.00	358.00	358.50	358.50	356.00	354.50	353.00	353.50	353.50	351.50	350.50	350.50	350.00	349.50	349.50	351.00	354.00	351.50	350.00	355.00
529.75	530.50	530.50	531.25	530.50	531.75	534.75	537.00	536.50	534.75	535.75	536.75	537.00	538.50	540.25	541.00	543.25	544.25	543.75	544.00	544.25	544.50	545.25	546.25	547.25	548.75	549.75	549.50	549.25	549.75	551.50	552.75	555.25	555.50	554.25	553.50	554.75	555.50	557.00	556.50	558.75	560.50	557.25	557.50	558.25	558.75	560.25	561.75	563.25	566.75	572.25	580.00	581.50	591.25	592.25	598.25	597.75	600.25	597.00	593.25	596.00	598.75	601.50	602.00	601.25	601.75	601.00	600.75	600.00	605.50	606.00	610.00	612.25	613.25	615.75	615.25	615.50	616.50	619.25	619.00	621.00	620.75	623.00	622.75	622.25	620.25	619.00	619.75	618.00	619.00	622.50	623.00	622.75	619.75	614.00	618.50	617.25	614.50	607.25	601.00	594.25	590.50	588.25	585.25	583.75	580.25	574.75	567.25	557.75	548.00	538.25	536.50	532.75	528.00	529.25	532.50	517.75	516.75	519.25	522.50	525.25	525.50	527.00	528.25	526.50	526.50	525.25	522.50	515.50	509.50	509.50	510.00	519.75	522.00	525.75	524.75	526.00	525.50	524.75	524.25	524.75	525.75	528.50	530.00	530.25	532.50	535.25	536.50	536.75	536.25	539.00	541.25	541.00	538.50	535.50	537.00	538.25	538.75	540.25	540.00	540.25	541.25	543.00	544.00	546.75	547.50	545.75	543.25	537.25	532.50	527.25	525.00	522.00	518.25	515.00	502.25	464.00	435.75	460.00	511.00	521.25	523.25	521.75	520.25	516.00	512.75	510.75	509.50	510.50	515.50	515.50	511.25	506.50	504.75	501.75	497.00	496.00	493.75	494.25	495.75	497.25	503.00	506.75	511.00	508.50	508.75	503.25	492.00	480.25	472.25	456.50	445.75	437.25	426.25	415.00	412.50	419.25	420.25	423.50	440.75	461.00	519.25	551.00	537.25	492.00	441.00	379.50	373.00	370.25	370.50	372.25	370.75	366.00	360.50	355.75	362.00	362.25	362.25	360.75	360.25	356.50	356.00	356.00	355.75	358.25	358.50	352.75	353.75	352.00	352.00	351.75	352.75	354.50	356.00	360.25	368.00
529.00	530.00	530.00	529.50	530.00	530.50	532.25	534.75	534.25	534.00	534.00	534.75	536.00	536.75	539.50	541.25	543.50	545.50	544.00	543.50	543.75	545.00	546.25	546.50	546.75	547.75	549.50	550.50	549.75	549.25	550.00	552.75	555.50	556.25	554.25	553.25	554.25	555.00	555.50	558.00	558.00	557.00	557.75	557.00	558.25	557.75	557.75	559.75	561.50	564.50	565.25	570.50	574.50	587.75	593.75	596.50	597.25	602.75	601.50	599.50	598.00	595.50	596.25	601.75	602.25	602.25	602.25	602.75	604.00	604.75	605.00	607.50	610.50	611.50	613.25	614.50	615.75	616.75	618.50	619.00	619.00	619.25	621.75	624.00	622.25	621.00	620.50	617.50	617.00	618.25	617.50	619.75	620.25	620.50	620.50	617.75	614.50	614.00	612.00	605.50	598.00	592.00	589.50	586.25	587.50	585.25	582.25	571.00	564.75	555.75	542.75	533.50	528.50	526.50	523.75	521.75	521.25	519.00	516.75	520.50	520.75	523.25	524.25	524.50	524.75	523.25	523.50	520.25	515.50	515.50	511.50	504.50	522.50	523.00	524.50	524.75	525.25	525.50	525.25	525.00	523.75	525.75	530.25	530.00	528.25	528.25	531.50	534.25	533.50	533.25	535.00	537.50	539.00	536.75	536.50	536.75	537.00	537.75	537.25	538.25	539.00	538.50	540.75	545.00	546.75	547.00	544.75	541.50	537.75	533.00	525.75	523.75	521.25	517.75	516.50	514.25	493.50	454.00	435.25	484.75	512.00	520.50	521.25	518.25	512.50	509.50	507.50	509.00	511.25	514.00	512.00	508.50	504.50	502.50	501.75	499.75	497.00	491.00	495.00	497.25	499.50	500.25	498.50	498.25	499.50	501.00	492.75	484.75	476.00	467.25	450.00	440.50	427.75	416.50	417.00	422.50	425.50	440.25	477.00	527.25	530.00	543.50	566.00	553.00	504.75	455.75	384.25	379.75	374.25	371.50	368.50	367.75	363.50	363.50	361.00	369.00	369.75	366.25	365.00	363.50	359.50	361.75	367.75	364.50	362.50	363.25	362.25	362.25	361.00	357.25	358.25	362.75	364.00	363.00	368.75	378.50
528.50	529.50	529.75	528.50	529.00	529.50	530.75	533.00	532.75	533.25	533.75	534.00	534.25	535.25	539.25	541.25	542.75	545.50	544.75	544.25	544.00	544.00	546.50	546.75	546.75	548.25	550.50	550.75	551.00	549.75	550.00	551.75	554.25	555.50	555.25	554.25	554.25	555.50	556.00	557.50	557.00	556.50	557.75	557.00	557.50	557.25	557.00	558.75	560.25	562.00	562.50	566.25	571.00	580.50	588.25	592.25	595.50	598.75	602.00	602.75	600.25	597.75	597.25	598.25	600.50	602.00	603.25	603.75	604.00	609.00	607.75	607.25	607.75	610.00	612.75	614.00	616.00	616.25	618.25	619.50	619.00	619.50	621.25	621.75	620.75	620.75	622.50	620.00	618.00	618.75	617.25	618.00	619.25	617.50	618.50	616.50	613.75	613.00	611.00	605.50	599.75	593.25	591.25	589.25	587.50	586.50	584.75	574.75	569.50	560.50	551.75	535.50	531.00	525.75	522.75	520.00	515.75	520.25	515.50	517.50	517.50	520.75	522.75	523.00	522.25	522.50	522.00	519.75	518.50	517.00	517.75	510.75	514.00	522.25	524.00	525.75	524.50	525.25	526.25	527.75	524.75	527.75	531.75	530.75	529.00	526.75	527.75	529.50	530.50	532.00	532.25	535.00	537.50	535.75	536.00	534.00	535.00	534.75	535.75	536.75	538.25	538.75	539.00	545.50	547.00	546.50	544.00	541.00	536.00	534.00	526.00	524.00	523.00	519.75	514.50	512.75	505.50	484.75	455.75	452.75	483.75	514.50	519.50	516.00	510.75	507.50	506.25	505.00	510.75	511.25	510.50	507.00	504.75	504.50	501.75	500.50	496.00	490.00	494.75	497.75	497.75	498.50	498.75	500.75	500.75	496.25	486.75	479.75	468.50	459.25	445.75	437.00	425.75	420.50	427.50	431.50	440.25	488.50	514.75	535.00	531.75	528.25	536.50	515.50	474.25	438.50	396.00	389.50	382.25	378.50	375.25	372.50	367.25	367.50	361.75	370.25	375.75	372.75	373.75	372.00	366.50	363.75	369.00	368.75	370.25	371.75	372.50	369.50	370.75	366.25	368.00	371.25	374.00	372.25	374.00	382.75
527.75	529.00	529.00	528.00	528.00	528.50	529.75	531.50	531.75	532.00	532.75	532.75	532.75	534.25	538.25	540.75	541.75	544.25	544.75	545.50	545.50	545.00	546.25	547.25	547.00	548.75	550.50	550.50	551.25	550.25	550.00	551.25	552.75	555.25	556.75	555.50	554.25	555.50	556.50	557.25	556.25	556.50	557.00	557.25	557.00	556.75	556.00	558.25	559.00	560.00	561.50	563.75	567.50	573.25	581.50	588.25	592.50	594.50	600.75	604.00	603.25	602.75	600.50	599.00	599.25	601.75	604.75	605.50	606.00	610.00	607.25	607.00	605.50	606.75	610.00	611.25	613.25	614.25	617.75	618.50	618.50	619.25	620.50	619.50	619.50	619.75	621.75	621.00	619.25	618.25	617.00	616.50	617.25	615.25	616.00	615.50	613.25	612.25	610.00	604.50	600.25	594.25	593.75	591.25	586.25	587.25	583.50	576.75	574.75	565.25	559.75	540.00	536.25	526.50	522.25	519.75	511.75	516.00	516.00	513.75	514.75	517.25	520.25	521.25	521.25	520.50	520.50	519.50	519.75	518.00	518.75	518.75	506.50	521.00	522.50	525.50	524.75	526.00	527.00	529.50	526.50	530.50	533.75	532.50	530.50	528.00	525.50	526.00	527.25	529.50	529.75	532.50	536.25	534.25	533.25	530.75	532.75	532.00	534.25	535.75	537.00	539.00	538.00	545.25	546.50	545.00	542.25	539.75	534.00	533.00	526.75	525.00	523.75	522.25	513.25	509.75	511.75	511.50	483.75	434.75	453.25	499.75	514.50	513.50	507.25	504.50	504.25	501.75	508.00	508.75	507.25	505.25	504.50	504.00	500.25	496.25	493.50	491.50	492.50	496.00	496.25	496.50	501.25	502.75	497.25	490.50	481.75	473.50	461.50	455.50	440.50	428.50	424.75	431.00	436.75	440.00	457.50	516.25	511.00	510.75	504.50	486.00	476.50	454.75	428.00	410.25	403.50	397.50	389.25	386.75	383.50	379.00	372.75	374.25	370.50	364.75	376.25	379.75	380.25	375.50	370.50	367.25	370.25	372.50	374.25	378.75	382.50	379.50	380.00	376.00	378.50	379.50	381.00	381.25	383.25	388.50
524.25	527.75	528.00	527.25	526.75	526.50	528.00	529.00	529.50	530.00	530.00	530.75	532.00	532.75	534.75	539.50	541.25	542.75	544.75	545.75	545.50	546.25	544.25	546.50	547.75	548.00	549.75	549.75	551.50	551.25	550.00	550.50	551.75	554.25	557.25	556.75	554.50	554.25	555.75	556.75	558.75	556.50	556.00	556.00	556.75	556.00	557.00	556.75	558.00	559.00	560.00	563.25	565.00	568.50	573.25	579.50	585.50	587.00	594.75	598.25	603.00	602.75	603.50	602.25	601.25	601.00	604.00	605.50	607.75	607.50	606.50	605.75	605.75	606.25	607.00	607.25	609.25	610.25	613.00	615.00	617.00	619.00	618.75	617.50	617.00	618.75	618.50	619.00	617.00	616.75	616.00	614.50	613.75	611.25	613.00	612.50	613.50	612.50	609.00	606.25	599.50	591.25	590.50	589.25	584.75	585.00	584.00	578.00	577.25	567.75	554.00	550.75	545.75	536.25	523.75	521.50	516.00	510.00	515.50	516.75	516.25	514.25	516.50	520.75	519.00	517.00	518.25	518.50	518.50	517.50	517.00	516.25	504.50	514.50	521.25	521.50	524.00	527.50	528.50	529.50	527.75	532.75	536.00	534.25	532.75	529.75	527.75	526.75	524.00	524.25	526.00	529.00	532.50	530.00	530.00	529.00	531.00	531.00	533.75	535.50	538.00	538.75	538.00	542.25	544.50	541.50	536.50	535.75	534.00	529.50	528.25	525.50	522.25	521.00	510.25	506.00	511.25	513.50	509.75	460.00	432.75	450.50	478.50	501.50	505.75	501.75	498.75	498.25	503.00	505.25	500.50	499.25	498.25	496.50	492.25	489.50	491.00	492.25	491.50	495.00	493.75	493.25	499.25	493.50	486.50	481.50	473.50	464.25	458.25	443.50	440.25	434.50	444.25	444.25	444.00	450.50	455.50	453.25	446.50	439.00	432.75	420.75	415.25	412.25	414.50	412.00	403.00	402.50	401.25	395.75	391.25	385.50	383.50	386.00	388.50	368.25	371.50	387.25	387.00	377.00	380.50	373.75	378.00	377.00	382.50	387.25	389.00	388.50	388.75	390.25	391.50	393.00	393.00	394.50	395.75	399.00
518.00	525.50	527.00	527.00	526.00	526.00	526.50	527.50	528.00	528.00	529.00	530.00	531.50	532.50	533.00	538.00	539.50	541.00	544.00	544.50	545.00	545.50	545.50	543.50	547.00	548.00	549.00	549.00	550.00	550.00	550.00	550.50	551.50	552.50	555.50	557.00	556.00	554.00	555.00	555.00	557.50	557.50	556.50	556.50	556.00	556.50	555.50	555.50	557.00	558.00	558.50	564.00	565.00	567.50	570.50	574.00	581.00	583.50	591.50	594.00	602.00	602.00	602.50	603.50	603.50	602.00	605.00	603.00	605.00	606.00	605.00	605.50	606.00	606.00	607.50	608.00	607.50	608.00	609.50	611.50	614.00	614.50	616.00	617.00	616.50	617.50	616.50	616.50	617.50	615.50	614.50	614.00	611.00	611.50	611.50	608.50	607.50	608.50	605.00	605.00	598.00	590.00	589.50	587.50	586.00	582.50	584.50	579.50	577.00	562.50	555.50	557.00	553.00	548.50	530.00	523.50	512.00	508.00	515.50	518.00	517.00	514.00	511.00	516.50	519.00	517.00	518.00	515.00	518.00	516.00	515.50	514.50	509.50	513.00	520.00	520.50	523.50	528.50	529.50	530.00	530.00	534.50	536.00	533.00	530.50	530.50	529.50	527.00	523.00	526.50	525.50	527.50	531.50	529.00	527.50	532.00	531.00	532.50	532.50	533.00	534.50	539.50	537.00	541.00	540.50	538.50	535.00	535.50	536.00	530.00	525.50	524.00	521.50	519.50	508.00	505.00	507.00	508.50	508.00	492.00	455.00	423.50	440.50	479.00	502.50	498.50	499.50	496.00	496.50	499.00	500.00	499.50	499.00	496.00	487.50	487.50	488.00	483.00	490.00	488.50	488.00	490.00	491.00	486.00	485.50	474.50	463.50	455.00	440.00	432.50	445.50	446.50	449.50	448.00	449.50	450.50	443.00	433.50	429.50	422.50	418.00	416.50	416.50	420.00	420.50	412.00	408.50	412.00	410.50	404.50	396.50	390.00	390.00	391.50	386.50	371.50	382.50	392.50	387.50	374.00	383.00	377.50	380.50	385.00	388.50	389.50	392.50	394.00	398.50	401.50	402.00	402.50	404.50	408.50	409.50	411.50
517.25	525.00	525.75	525.25	523.75	524.50	525.50	525.75	526.50	527.00	528.50	531.00	531.75	531.75	533.25	536.00	538.25	539.50	541.75	543.75	544.75	544.75	545.75	543.00	546.75	548.00	549.00	549.25	548.75	549.00	550.00	551.50	551.00	550.75	552.75	555.25	556.50	555.50	553.50	553.50	555.25	557.00	556.00	555.75	556.50	556.25	555.50	554.75	556.25	557.00	558.75	564.25	564.25	566.50	570.00	573.00	575.75	578.00	584.50	587.75	593.75	596.75	600.25	602.25	604.00	604.50	605.75	601.25	602.50	603.50	604.25	604.75	606.00	605.75	606.50	606.00	607.00	607.00	607.25	608.75	609.75	611.00	613.00	614.25	614.75	617.25	617.50	618.25	617.50	614.75	614.25	613.25	612.75	611.50	608.50	608.25	605.50	604.50	604.50	603.50	596.25	591.25	591.75	590.75	586.25	581.75	578.50	571.25	567.75	564.00	566.50	561.75	558.25	550.00	540.75	529.75	517.25	510.25	509.25	511.25	512.50	512.50	509.00	511.75	514.00	517.25	517.50	516.00	516.75	516.50	513.75	513.00	507.25	514.00	515.75	517.25	524.75	527.50	529.50	530.25	530.00	533.25	533.75	534.00	532.50	532.25	530.75	527.50	522.50	525.25	525.00	525.75	527.25	528.00	526.50	531.00	531.00	530.25	531.75	532.00	534.00	537.50	537.50	538.50	538.25	534.25	532.50	530.50	531.50	529.50	524.75	523.00	522.50	519.00	510.00	506.25	505.00	507.75	508.00	502.25	471.00	435.00	423.50	443.00	490.50	499.50	497.75	496.75	496.25	497.75	498.75	498.50	498.75	493.50	487.00	483.75	483.00	477.50	481.75	483.75	490.50	487.50	484.00	479.50	470.75	457.75	446.50	445.00	444.75	453.75	450.00	450.25	451.00	451.00	449.50	444.50	437.00	429.50	425.75	419.75	419.00	419.00	417.75	422.75	420.75	416.50	415.00	411.50	401.25	396.50	398.75	400.75	394.75	382.75	378.00	388.25	395.50	392.25	379.50	381.50	386.00	385.00	385.25	388.50	391.50	394.00	398.75	405.25	409.00	412.75	414.25	414.50	416.75	423.25	421.75	417.00
520.00	523.25	524.25	524.25	523.00	522.50	523.25	523.75	523.00	525.25	527.00	530.00	530.50	530.00	531.00	532.50	535.75	538.25	539.75	541.00	542.25	542.75	544.50	545.25	546.50	549.00	549.25	549.25	548.25	547.50	548.50	550.50	550.75	551.50	551.25	553.00	555.50	555.25	554.50	553.00	553.50	554.50	555.75	555.50	556.75	557.00	556.00	555.50	555.00	556.25	558.25	559.75	562.25	566.25	570.25	572.50	572.25	575.25	577.25	582.00	585.75	589.75	592.50	597.75	601.50	603.25	603.50	603.50	603.00	600.50	601.25	603.25	604.00	604.50	605.25	604.25	605.00	605.50	606.00	606.50	606.75	606.75	609.25	610.50	611.75	614.00	616.75	615.25	616.50	615.00	613.50	612.75	611.25	610.75	607.00	605.00	607.25	602.75	600.50	601.75	593.75	590.75	590.50	590.75	586.75	581.50	579.50	574.50	571.00	572.50	569.00	560.75	556.75	552.00	547.00	541.25	529.25	520.75	514.00	507.75	506.00	506.75	511.75	513.50	516.00	510.25	515.25	517.00	516.00	515.50	512.25	513.00	505.00	513.75	514.75	514.75	518.50	525.50	528.75	532.25	526.75	531.25	532.25	532.25	532.50	532.00	530.25	528.50	523.25	521.25	522.25	522.75	524.25	525.75	524.25	525.50	526.50	525.75	529.25	529.75	531.25	533.75	534.00	533.75	531.50	525.50	525.25	528.00	528.50	528.50	524.50	521.75	521.50	517.75	508.25	504.75	503.50	504.50	503.50	493.00	479.00	484.00	449.50	425.25	447.75	485.00	497.25	496.50	499.00	496.25	493.50	492.75	494.75	494.25	489.00	483.25	473.00	473.00	476.50	485.25	487.25	480.75	475.75	462.75	453.50	449.75	451.25	453.00	454.50	457.25	454.75	453.50	450.50	447.50	444.00	436.75	431.75	427.50	424.50	422.00	424.00	417.25	419.50	420.75	420.00	418.75	416.25	409.00	412.25	412.50	404.75	384.50	378.75	380.00	387.00	392.00	400.50	391.25	387.25	388.75	391.00	392.00	392.75	395.00	398.00	400.00	406.50	413.75	416.75	419.75	420.75	419.50	417.25	415.75	409.00	400.00
519.00	521.75	523.00	521.75	521.75	521.75	522.00	522.50	522.00	524.25	525.50	528.25	529.00	529.25	529.50	530.50	533.75	536.75	537.75	539.25	541.00	542.25	543.50	544.25	546.00	547.50	549.00	548.50	547.50	547.00	547.75	549.25	550.50	551.25	551.25	551.25	553.75	554.50	555.00	553.25	553.50	554.25	555.00	555.25	556.00	555.75	556.00	556.00	554.75	556.25	557.00	559.25	561.00	563.25	568.75	571.00	570.50	572.50	573.50	577.25	581.00	584.25	587.00	591.75	597.00	600.25	601.50	602.25	603.25	601.50	601.25	601.50	601.75	602.50	604.00	604.00	604.25	604.50	604.75	605.00	605.25	605.50	607.50	607.25	608.75	611.00	612.75	614.50	615.75	614.50	613.75	612.00	610.25	609.00	606.00	603.25	603.00	596.50	595.25	598.00	591.75	590.25	588.00	588.00	586.25	582.00	580.50	576.50	573.50	572.75	569.00	562.75	558.00	554.50	549.00	545.25	534.50	527.50	521.75	514.50	511.00	509.00	511.50	512.25	515.50	513.75	513.00	512.50	515.75	515.25	512.25	511.50	504.50	509.50	513.75	515.00	514.50	523.25	527.25	530.00	526.50	530.50	531.00	529.50	532.25	532.00	530.25	527.25	521.75	519.25	518.75	519.50	523.00	522.00	520.00	521.25	522.50	523.00	525.50	528.50	528.50	529.00	530.50	532.00	530.25	524.25	521.25	526.50	527.00	527.50	523.25	520.50	517.75	517.00	511.00	504.75	503.50	505.25	502.50	496.50	490.00	499.00	481.25	447.50	428.25	455.25	484.25	495.50	497.25	492.00	489.25	490.00	490.25	489.00	485.25	474.25	469.50	477.25	481.50	487.50	483.25	477.00	469.75	462.50	458.00	454.50	456.75	456.75	456.50	458.25	454.75	453.25	449.00	447.00	444.00	436.75	431.75	428.00	425.50	422.00	422.00	416.25	418.25	418.75	418.25	408.50	403.25	407.00	407.75	401.50	394.75	388.50	389.75	394.50	401.00	402.25	405.25	397.25	387.00	395.25	393.25	396.75	397.25	398.75	401.50	404.00	409.50	414.50	416.25	418.00	417.75	416.50	415.50	413.25	409.50	401.50
