2271.00	2272.00	2272.50	2273.00	2274.00	2275.00	2275.50	2276.50	2277.00	2277.50	2278.00	2278.00	2279.00	2280.00	2280.00	2280.00	2280.50	2281.00	2281.00	2282.00	2282.00	2282.00	2282.00	2282.00	2281.50	2281.00	2281.00	2281.00	2281.00	2280.00	2279.50	2278.50	2278.00	2277.00	2276.50	2276.00	2274.50	2274.00	2273.50	2272.50	2271.50	2271.00	2270.00	2269.50	2269.00	2268.00	2267.50	2267.00	2266.00	2266.00	2266.00	2266.00	2266.00	2266.00	2266.00	2266.00	2266.00	2266.00	2267.00	2267.00	2268.00	2268.00	2268.50	2269.00	2269.50	2270.50	2271.00	2272.00	2272.50	2273.00	2274.50	2275.00	2275.50	2277.00	2277.50	2279.00	2279.00	2280.50	2281.00	2282.00	2283.50	2284.50	2285.00	2286.50	2287.50	2288.50	2289.50	2290.50	2292.00	2292.00	2293.50	2294.00	2295.50	2296.50	2297.50	2298.00	2299.50	2301.00	2302.00	2302.50	2303.00	2304.00	2305.00	2305.50	2306.00	2307.00	2307.50	2308.00	2308.00	2308.00	2308.00	2308.00	2308.00	2308.00	2308.00	2308.00	2308.00	2308.00	2308.00	2308.00	2308.00	2308.00	2308.00	2308.00	2308.00	2308.00	2308.00	2307.50	2308.00	2308.00	2308.00	2308.00	2308.00	2308.00	2308.00	2309.00	2309.00	2309.50	2310.00	2311.00	2311.00	2311.50	2312.00	2312.50	2313.00	2313.00	2313.50	2314.00	2314.00	2314.00	2314.00	2313.00	2313.00	2312.00	2312.00	2311.00	2310.50	2310.00	2309.00	2308.00	2307.00	2306.00	2305.50	2304.50	2304.00	2303.50	2303.00	2302.00	2302.00	2301.50	2301.00	2300.00	2300.00	2300.00	2299.00	2299.00	2299.00	2298.00	2298.50	2299.00	2299.00	2299.00	2299.00	2300.00	2300.00	2301.00	2302.00	2303.00	2303.50	2305.00	2306.50	2307.00	2308.00	2309.50	2310.50	2312.00	2313.50	2314.50	2316.00	2317.00	2318.00	2319.00	2320.50	2321.50	2322.50	2324.00	2324.50	2326.00	2327.00	2327.50	2328.50	2329.50	2330.50	2331.50	2332.00	2332.00	2333.00	2334.00	2334.50	2335.00	2335.00	2335.00	2335.00	2334.00	2334.00	2334.00	2334.00	2333.50	2333.00	2332.50	2332.00	2331.00	2330.50	2330.00	2328.50	2327.50	2327.00	2325.50	2324.50	2323.00	2321.50	2320.50	2320.00	2319.00	2318.50	2318.00	2317.00	2316.50	2316.00	2314.50	2313.50	2312.50	2311.00	2310.50	2309.00	2308.00
2272.50	2273.00	2273.50	2274.00	2274.00	2275.00	2275.00	2275.50	2276.00	2276.00	2277.00	2277.00	2278.00	2278.00	2278.00	2278.50	2279.00	2279.00	2279.50	2280.00	2280.00	2280.00	2280.00	2280.00	2280.00	2280.00	2279.00	2279.00	2279.00	2278.00	2277.50	2277.00	2276.00	2275.00	2274.50	2274.00	2273.50	2273.00	2273.00	2272.00	2271.50	2271.00	2271.00	2270.00	2270.00	2269.00	2269.00	2268.50	2268.00	2268.00	2268.00	2268.00	2268.00	2268.00	2268.00	2268.00	2268.00	2269.00	2269.00	2270.00	2270.00	2270.00	2270.50	2271.00	2271.50	2272.00	2273.00	2273.00	2273.50	2274.00	2275.00	2275.50	2276.00	2277.00	2277.50	2279.00	2279.00	2280.00	2280.50	2282.00	2283.50	2284.50	2285.00	2286.50	2287.50	2288.50	2290.50	2291.50	2293.00	2294.00	2295.50	2297.00	2298.50	2299.50	2300.50	2302.00	2302.50	2304.00	2305.00	2306.50	2307.50	2308.50	2309.50	2310.00	2311.00	2312.00	2312.50	2313.00	2313.00	2313.00	2313.50	2314.00	2314.00	2314.00	2314.00	2314.00	2314.00	2314.00	2313.50	2313.00	2313.00	2313.00	2313.00	2313.00	2313.00	2313.00	2313.00	2313.00	2313.00	2313.00	2313.00	2312.50	2312.00	2312.00	2312.00	2312.00	2312.00	2312.50	2313.00	2313.00	2313.00	2313.00	2313.00	2313.00	2313.00	2313.00	2313.00	2313.00	2313.00	2312.50	2312.00	2311.00	2311.00	2309.50	2309.00	2308.00	2307.50	2306.50	2305.00	2303.50	2302.00	2302.00	2300.50	2299.50	2298.50	2298.00	2298.00	2297.00	2297.00	2296.00	2296.00	2295.00	2295.00	2295.00	2294.50	2294.00	2294.00	2294.00	2294.50	2295.00	2296.00	2296.50	2297.00	2298.00	2298.50	2300.00	2301.00	2302.50	2303.50	2306.00	2307.50	2308.50	2310.00	2312.00	2313.50	2315.00	2317.00	2318.50	2320.00	2321.00	2322.50	2323.00	2324.50	2325.50	2326.50	2328.00	2328.50	2330.00	2331.00	2331.50	2332.50	2333.50	2334.50	2335.00	2336.00	2336.00	2337.00	2337.00	2338.00	2338.00	2338.00	2338.00	2337.00	2336.00	2335.00	2334.50	2334.00	2333.00	2332.50	2332.00	2331.00	2331.00	2330.50	2330.00	2329.00	2328.50	2327.00	2326.00	2325.50	2324.00	2323.00	2322.50	2321.50	2320.50	2320.00	2319.00	2319.00	2318.00	2317.00	2316.00	2315.50	2314.50	2313.00	2311.50	2310.00	2310.00
2272.50	2273.00	2273.50	2274.00	2274.00	2275.00	2275.00	2275.50	2276.00	2276.00	2277.00	2277.00	2278.00	2278.00	2278.00	2278.50	2279.00	2279.00	2279.50	2280.00	2280.00	2280.00	2280.00	2280.00	2280.00	2280.00	2279.00	2279.00	2279.00	2278.00	2277.50	2277.00	2276.00	2275.00	2274.50	2274.00	2273.50	2273.00	2273.00	2272.00	2271.50	2271.00	2271.00	2270.00	2270.00	2269.00	2269.00	2268.50	2268.00	2268.00	2268.00	2268.00	2268.00	2268.00	2268.00	2268.00	2268.00	2269.00	2269.00	2270.00	2270.00	2270.00	2270.50	2271.00	2271.50	2272.00	2273.00	2273.00	2273.50	2274.00	2275.00	2275.50	2276.00	2277.00	2277.50	2279.00	2279.00	2280.00	2280.50	2282.00	2283.50	2284.50	2285.00	2286.50	2287.50	2288.50	2290.50	2291.50	2293.00	2294.00	2295.50	2297.00	2298.50	2299.50	2300.50	2302.00	2302.50	2304.00	2305.00	2306.50	2307.50	2308.50	2309.50	2310.00	2311.00	2312.00	2312.50	2313.00	2313.00	2313.00	2313.50	2314.00	2314.00	2314.00	2314.00	2314.00	2314.00	2314.00	2313.50	2313.00	2313.00	2313.00	2313.00	2313.00	2313.00	2313.00	2313.00	2313.00	2313.00	2313.00	2313.00	2312.50	2312.00	2312.00	2312.00	2312.00	2312.00	2312.50	2313.00	2313.00	2313.00	2313.00	2313.00	2313.00	2313.00	2313.00	2313.00	2313.00	2313.00	2312.50	2312.00	2311.00	2311.00	2309.50	2309.00	2308.00	2307.50	2306.50	2305.00	2303.50	2302.00	2302.00	2300.50	2299.50	2298.50	2298.00	2298.00	2297.00	2297.00	2296.00	2296.00	2295.00	2295.00	2295.00	2294.50	2294.00	2294.00	2294.00	2294.50	2295.00	2296.00	2296.50	2297.00	2298.00	2298.50	2300.00	2301.00	2302.50	2303.50	2306.00	2307.50	2308.50	2310.00	2312.00	2313.50	2315.00	2317.00	2318.50	2320.00	2321.00	2322.50	2323.00	2324.50	2325.50	2326.50	2328.00	2328.50	2330.00	2331.00	2331.50	2332.50	2333.50	2334.50	2335.00	2336.00	2336.00	2337.00	2337.00	2338.00	2338.00	2338.00	2338.00	2337.00	2336.00	2335.00	2334.50	2334.00	2333.00	2332.50	2332.00	2331.00	2331.00	2330.50	2330.00	2329.00	2328.50	2327.00	2326.00	2325.50	2324.00	2323.00	2322.50	2321.50	2320.50	2320.00	2319.00	2319.00	2318.00	2317.00	2316.00	2315.50	2314.50	2313.00	2311.50	2310.00	2310.00
2272.50	2273.00	2273.50	2274.00	2274.00	2275.00	2275.00	2275.50	2276.00	2276.00	2277.00	2277.00	2278.00	2278.00	2278.00	2278.50	2279.00	2279.00	2279.50	2280.00	2280.00	2280.00	2280.00	2280.00	2280.00	2280.00	2279.00	2279.00	2279.00	2278.00	2277.50	2277.00	2276.00	2275.00	2274.50	2274.00	2273.50	2273.00	2273.00	2272.00	2271.50	2271.00	2271.00	2270.00	2270.00	2269.00	2269.00	2268.50	2268.00	2268.00	2268.00	2268.00	2268.00	2268.00	2268.00	2268.00	2268.00	2269.00	2269.00	2270.00	2270.00	2270.00	2270.50	2271.00	2271.50	2272.00	2273.00	2273.00	2273.50	2274.00	2275.00	2275.50	2276.00	2277.00	2277.50	2279.00	2279.00	2280.00	2280.50	2282.00	2283.50	2284.50	2285.00	2286.50	2287.50	2288.50	2290.50	2291.50	2293.00	2294.00	2295.50	2297.00	2298.50	2299.50	2300.50	2302.00	2302.50	2304.00	2305.00	2306.50	2307.50	2308.50	2309.50	2310.00	2311.00	2312.00	2312.50	2313.00	2313.00	2313.00	2313.50	2314.00	2314.00	2314.00	2314.00	2314.00	2314.00	2314.00	2313.50	2313.00	2313.00	2313.00	2313.00	2313.00	2313.00	2313.00	2313.00	2313.00	2313.00	2313.00	2313.00	2312.50	2312.00	2312.00	2312.00	2312.00	2312.00	2312.50	2313.00	2313.00	2313.00	2313.00	2313.00	2313.00	2313.00	2313.00	2313.00	2313.00	2313.00	2312.50	2312.00	2311.00	2311.00	2309.50	2309.00	2308.00	2307.50	2306.50	2305.00	2303.50	2302.00	2302.00	2300.50	2299.50	2298.50	2298.00	2298.00	2297.00	2297.00	2296.00	2296.00	2295.00	2295.00	2295.00	2294.50	2294.00	2294.00	2294.00	2294.50	2295.00	2296.00	2296.50	2297.00	2298.00	2298.50	2300.00	2301.00	2302.50	2303.50	2306.00	2307.50	2308.50	2310.00	2312.00	2313.50	2315.00	2317.00	2318.50	2320.00	2321.00	2322.50	2323.00	2324.50	2325.50	2326.50	2328.00	2328.50	2330.00	2331.00	2331.50	2332.50	2333.50	2334.50	2335.00	2336.00	2336.00	2337.00	2337.00	2338.00	2338.00	2338.00	2338.00	2337.00	2336.00	2335.00	2334.50	2334.00	2333.00	2332.50	2332.00	2331.00	2331.00	2330.50	2330.00	2329.00	2328.50	2327.00	2326.00	2325.50	2324.00	2323.00	2322.50	2321.50	2320.50	2320.00	2319.00	2319.00	2318.00	2317.00	2316.00	2315.50	2314.50	2313.00	2311.50	2310.00	2310.00
2272.50	2273.00	2273.50	2274.00	2274.00	2275.00	2275.00	2275.50	2276.00	2276.00	2277.00	2277.00	2278.00	2278.00	2278.00	2278.50	2279.00	2279.00	2279.50	2280.00	2280.00	2280.00	2280.00	2280.00	2280.00	2280.00	2279.00	2279.00	2279.00	2278.00	2277.50	2277.00	2276.00	2275.00	2274.50	2274.00	2273.50	2273.00	2273.00	2272.00	2271.50	2271.00	2271.00	2270.00	2270.00	2269.00	2269.00	2268.50	2268.00	2268.00	2268.00	2268.00	2268.00	2268.00	2268.00	2268.00	2268.00	2269.00	2269.00	2270.00	2270.00	2270.00	2270.50	2271.00	2271.50	2272.00	2273.00	2273.00	2273.50	2274.00	2275.00	2275.50	2276.00	2277.00	2277.50	2279.00	2279.00	2280.00	2280.50	2282.00	2283.50	2284.50	2285.00	2286.50	2287.50	2288.50	2290.50	2291.50	2293.00	2294.00	2295.50	2297.00	2298.50	2299.50	2300.50	2302.00	2302.50	2304.00	2305.00	2306.50	2307.50	2308.50	2309.50	2310.00	2311.00	2312.00	2312.50	2313.00	2313.00	2313.00	2313.50	2314.00	2314.00	2314.00	2314.00	2314.00	2314.00	2314.00	2313.50	2313.00	2313.00	2313.00	2313.00	2313.00	2313.00	2313.00	2313.00	2313.00	2313.00	2313.00	2313.00	2312.50	2312.00	2312.00	2312.00	2312.00	2312.00	2312.50	2313.00	2313.00	2313.00	2313.00	2313.00	2313.00	2313.00	2313.00	2313.00	2313.00	2313.00	2312.50	2312.00	2311.00	2311.00	2309.50	2309.00	2308.00	2307.50	2306.50	2305.00	2303.50	2302.00	2302.00	2300.50	2299.50	2298.50	2298.00	2298.00	2297.00	2297.00	2296.00	2296.00	2295.00	2295.00	2295.00	2294.50	2294.00	2294.00	2294.00	2294.50	2295.00	2296.00	2296.50	2297.00	2298.00	2298.50	2300.00	2301.00	2302.50	2303.50	2306.00	2307.50	2308.50	2310.00	2312.00	2313.50	2315.00	2317.00	2318.50	2320.00	2321.00	2322.50	2323.00	2324.50	2325.50	2326.50	2328.00	2328.50	2330.00	2331.00	2331.50	2332.50	2333.50	2334.50	2335.00	2336.00	2336.00	2337.00	2337.00	2338.00	2338.00	2338.00	2338.00	2337.00	2336.00	2335.00	2334.50	2334.00	2333.00	2332.50	2332.00	2331.00	2331.00	2330.50	2330.00	2329.00	2328.50	2327.00	2326.00	2325.50	2324.00	2323.00	2322.50	2321.50	2320.50	2320.00	2319.00	2319.00	2318.00	2317.00	2316.00	2315.50	2314.50	2313.00	2311.50	2310.00	2310.00
2272.50	2273.00	2273.50	2274.00	2274.00	2275.00	2275.00	2275.50	2276.00	2276.00	2277.00	2277.00	2278.00	2278.00	2278.00	2278.50	2279.00	2279.00	2279.50	2280.00	2280.00	2280.00	2280.00	2280.00	2280.00	2280.00	2279.00	2279.00	2279.00	2278.00	2277.50	2277.00	2276.00	2275.00	2274.50	2274.00	2273.50	2273.00	2273.00	2272.00	2271.50	2271.00	2271.00	2270.00	2270.00	2269.00	2269.00	2268.50	2268.00	2268.00	2268.00	2268.00	2268.00	2268.00	2268.00	2268.00	2268.00	2269.00	2269.00	2270.00	2270.00	2270.00	2270.50	2271.00	2271.50	2272.00	2273.00	2273.00	2273.50	2274.00	2275.00	2275.50	2276.00	2277.00	2277.50	2279.00	2279.00	2280.00	2280.50	2282.00	2283.50	2284.50	2285.00	2286.50	2287.50	2288.50	2290.50	2291.50	2293.00	2294.00	2295.50	2297.00	2298.50	2299.50	2300.50	2302.00	2302.50	2304.00	2305.00	2306.50	2307.50	2308.50	2309.50	2310.00	2311.00	2312.00	2312.50	2313.00	2313.00	2313.00	2313.50	2314.00	2314.00	2314.00	2314.00	2314.00	2314.00	2314.00	2313.50	2313.00	2313.00	2313.00	2313.00	2313.00	2313.00	2313.00	2313.00	2313.00	2313.00	2313.00	2313.00	2312.50	2312.00	2312.00	2312.00	2312.00	2312.00	2312.50	2313.00	2313.00	2313.00	2313.00	2313.00	2313.00	2313.00	2313.00	2313.00	2313.00	2313.00	2312.50	2312.00	2311.00	2311.00	2309.50	2309.00	2308.00	2307.50	2306.50	2305.00	2303.50	2302.00	2302.00	2300.50	2299.50	2298.50	2298.00	2298.00	2297.00	2297.00	2296.00	2296.00	2295.00	2295.00	2295.00	2294.50	2294.00	2294.00	2294.00	2294.50	2295.00	2296.00	2296.50	2297.00	2298.00	2298.50	2300.00	2301.00	2302.50	2303.50	2306.00	2307.50	2308.50	2310.00	2312.00	2313.50	2315.00	2317.00	2318.50	2320.00	2321.00	2322.50	2323.00	2324.50	2325.50	2326.50	2328.00	2328.50	2330.00	2331.00	2331.50	2332.50	2333.50	2334.50	2335.00	2336.00	2336.00	2337.00	2337.00	2338.00	2338.00	2338.00	2338.00	2337.00	2336.00	2335.00	2334.50	2334.00	2333.00	2332.50	2332.00	2331.00	2331.00	2330.50	2330.00	2329.00	2328.50	2327.00	2326.00	2325.50	2324.00	2323.00	2322.50	2321.50	2320.50	2320.00	2319.00	2319.00	2318.00	2317.00	2316.00	2315.50	2314.50	2313.00	2311.50	2310.00	2310.00
2272.50	2273.00	2273.50	2274.00	2274.00	2275.00	2275.00	2275.50	2276.00	2276.00	2277.00	2277.00	2278.00	2278.00	2278.00	2278.50	2279.00	2279.00	2279.50	2280.00	2280.00	2280.00	2280.00	2280.00	2280.00	2280.00	2279.00	2279.00	2279.00	2278.00	2277.50	2277.00	2276.00	2275.00	2274.50	2274.00	2273.50	2273.00	2273.00	2272.00	2271.50	2271.00	2271.00	2270.00	2270.00	2269.00	2269.00	2268.50	2268.00	2268.00	2268.00	2268.00	2268.00	2268.00	2268.00	2268.00	2268.00	2269.00	2269.00	2270.00	2270.00	2270.00	2270.50	2271.00	2271.50	2272.00	2273.00	2273.00	2273.50	2274.00	2275.00	2275.50	2276.00	2277.00	2277.50	2279.00	2279.00	2280.00	2280.50	2282.00	2283.50	2284.50	2285.00	2286.50	2287.50	2288.50	2290.50	2291.50	2293.00	2294.00	2295.50	2297.00	2298.50	2299.50	2300.50	2302.00	2302.50	2304.00	2305.00	2306.50	2307.50	2308.50	2309.50	2310.00	2311.00	2312.00	2312.50	2313.00	2313.00	2313.00	2313.50	2314.00	2314.00	2314.00	2314.00	2314.00	2314.00	2314.00	2313.50	2313.00	2313.00	2313.00	2313.00	2313.00	2313.00	2313.00	2313.00	2313.00	2313.00	2313.00	2313.00	2312.50	2312.00	2312.00	2312.00	2312.00	2312.00	2312.50	2313.00	2313.00	2313.00	2313.00	2313.00	2313.00	2313.00	2313.00	2313.00	2313.00	2313.00	2312.50	2312.00	2311.00	2311.00	2309.50	2309.00	2308.00	2307.50	2306.50	2305.00	2303.50	2302.00	2302.00	2300.50	2299.50	2298.50	2298.00	2298.00	2297.00	2297.00	2296.00	2296.00	2295.00	2295.00	2295.00	2294.50	2294.00	2294.00	2294.00	2294.50	2295.00	2296.00	2296.50	2297.00	2298.00	2298.50	2300.00	2301.00	2302.50	2303.50	2306.00	2307.50	2308.50	2310.00	2312.00	2313.50	2315.00	2317.00	2318.50	2320.00	2321.00	2322.50	2323.00	2324.50	2325.50	2326.50	2328.00	2328.50	2330.00	2331.00	2331.50	2332.50	2333.50	2334.50	2335.00	2336.00	2336.00	2337.00	2337.00	2338.00	2338.00	2338.00	2338.00	2337.00	2336.00	2335.00	2334.50	2334.00	2333.00	2332.50	2332.00	2331.00	2331.00	2330.50	2330.00	2329.00	2328.50	2327.00	2326.00	2325.50	2324.00	2323.00	2322.50	2321.50	2320.50	2320.00	2319.00	2319.00	2318.00	2317.00	2316.00	2315.50	2314.50	2313.00	2311.50	2310.00	2310.00
2273.75	2274.00	2274.25	2275.00	2275.00	2275.50	2275.50	2276.00	2276.50	2276.50	2277.00	2277.00	2278.00	2278.00	2278.00	2278.25	2278.50	2278.50	2278.75	2279.00	2279.00	2279.00	2279.00	2278.75	2278.50	2278.50	2278.00	2277.75	2277.50	2276.50	2276.25	2275.75	2275.00	2274.00	2273.50	2273.00	2272.75	2272.50	2272.25	2271.50	2271.25	2270.50	2270.50	2270.00	2270.00	2269.50	2269.50	2269.25	2268.50	2268.75	2269.00	2269.00	2269.25	2269.50	2269.50	2269.75	2270.00	2270.50	2270.50	2271.50	2271.50	2272.00	2272.25	2272.75	2273.25	2273.50	2274.50	2274.50	2275.00	2275.50	2276.25	2276.75	2277.00	2278.00	2278.50	2279.50	2280.00	2280.75	2281.25	2282.50	2284.00	2285.00	2286.00	2287.25	2288.00	2289.00	2291.50	2292.50	2294.00	2295.00	2296.75	2298.50	2300.00	2301.00	2302.00	2303.50	2304.50	2306.00	2307.00	2308.25	2309.00	2310.00	2311.00	2311.50	2312.50	2313.50	2314.00	2314.50	2314.50	2314.50	2315.00	2315.50	2315.50	2315.50	2315.50	2315.50	2315.50	2315.50	2315.25	2314.75	2314.50	2314.50	2314.50	2314.50	2314.50	2314.50	2314.50	2314.50	2314.50	2314.50	2314.00	2313.75	2313.50	2313.25	2313.00	2313.00	2313.00	2313.25	2313.00	2313.00	2313.00	2313.00	2312.50	2312.50	2312.50	2312.00	2312.00	2311.75	2311.50	2311.00	2310.25	2309.50	2309.00	2307.75	2307.00	2305.75	2305.25	2304.50	2303.00	2301.50	2300.00	2299.50	2298.00	2297.25	2296.50	2296.00	2295.75	2295.00	2294.50	2294.00	2293.50	2293.00	2293.00	2293.00	2292.75	2292.50	2292.50	2292.50	2293.50	2294.25	2295.75	2296.50	2297.25	2298.50	2299.50	2301.00	2302.00	2304.00	2305.25	2307.50	2309.25	2310.50	2312.00	2314.25	2315.50	2317.25	2319.50	2321.00	2322.50	2323.50	2325.00	2326.00	2327.25	2328.00	2329.00	2330.50	2331.25	2332.50	2333.50	2334.00	2335.00	2336.00	2337.00	2337.50	2338.00	2338.00	2338.50	2338.50	2339.25	2339.50	2339.25	2339.00	2337.75	2336.50	2335.50	2334.75	2334.25	2333.00	2332.50	2332.00	2331.50	2331.00	2330.75	2330.00	2329.50	2329.25	2328.00	2327.50	2327.00	2326.00	2325.25	2324.75	2324.00	2322.50	2321.75	2320.50	2320.00	2318.75	2317.50	2316.50	2316.00	2315.00	2313.50	2312.00	2310.50	2310.50
2275.00	2275.00	2275.00	2276.00	2276.00	2276.00	2276.00	2276.50	2277.00	2277.00	2277.00	2277.00	2278.00	2278.00	2278.00	2278.00	2278.00	2278.00	2278.00	2278.00	2278.00	2278.00	2278.00	2277.50	2277.00	2277.00	2277.00	2276.50	2276.00	2275.00	2275.00	2274.50	2274.00	2273.00	2272.50	2272.00	2272.00	2272.00	2271.50	2271.00	2271.00	2270.00	2270.00	2270.00	2270.00	2270.00	2270.00	2270.00	2269.00	2269.50	2270.00	2270.00	2270.50	2271.00	2271.00	2271.50	2272.00	2272.00	2272.00	2273.00	2273.00	2274.00	2274.00	2274.50	2275.00	2275.00	2276.00	2276.00	2276.50	2277.00	2277.50	2278.00	2278.00	2279.00	2279.50	2280.00	2281.00	2281.50	2282.00	2283.00	2284.50	2285.50	2287.00	2288.00	2288.50	2289.50	2292.50	2293.50	2295.00	2296.00	2298.00	2300.00	2301.50	2302.50	2303.50	2305.00	2306.50	2308.00	2309.00	2310.00	2310.50	2311.50	2312.50	2313.00	2314.00	2315.00	2315.50	2316.00	2316.00	2316.00	2316.50	2317.00	2317.00	2317.00	2317.00	2317.00	2317.00	2317.00	2317.00	2316.50	2316.00	2316.00	2316.00	2316.00	2316.00	2316.00	2316.00	2316.00	2316.00	2316.00	2315.00	2315.00	2315.00	2314.50	2314.00	2314.00	2314.00	2314.00	2313.00	2313.00	2313.00	2313.00	2312.00	2312.00	2312.00	2311.00	2311.00	2310.50	2310.00	2309.50	2308.50	2308.00	2307.00	2306.00	2305.00	2303.50	2303.00	2302.50	2301.00	2299.50	2298.00	2297.00	2295.50	2295.00	2294.50	2294.00	2293.50	2293.00	2292.00	2292.00	2291.00	2291.00	2291.00	2291.00	2291.00	2291.00	2291.00	2291.00	2292.50	2293.50	2295.50	2296.50	2297.50	2299.00	2300.50	2302.00	2303.00	2305.50	2307.00	2309.00	2311.00	2312.50	2314.00	2316.50	2317.50	2319.50	2322.00	2323.50	2325.00	2326.00	2327.50	2329.00	2330.00	2330.50	2331.50	2333.00	2334.00	2335.00	2336.00	2336.50	2337.50	2338.50	2339.50	2340.00	2340.00	2340.00	2340.00	2340.00	2340.50	2341.00	2340.50	2340.00	2338.50	2337.00	2336.00	2335.00	2334.50	2333.00	2332.50	2332.00	2332.00	2331.00	2331.00	2330.00	2330.00	2330.00	2329.00	2329.00	2328.50	2328.00	2327.50	2327.00	2326.50	2324.50	2323.50	2322.00	2321.00	2319.50	2318.00	2317.00	2316.50	2315.50	2314.00	2312.50	2311.00	2311.00
2275.00	2275.00	2275.00	2276.00	2276.00	2276.00	2276.00	2276.50	2277.00	2277.00	2277.00	2277.00	2278.00	2278.00	2278.00	2278.00	2278.00	2278.00	2278.00	2278.00	2278.00	2278.00	2278.00	2277.50	2277.00	2277.00	2277.00	2276.50	2276.00	2275.00	2275.00	2274.50	2274.00	2273.00	2272.50	2272.00	2272.00	2272.00	2271.50	2271.00	2271.00	2270.00	2270.00	2270.00	2270.00	2270.00	2270.00	2270.00	2269.00	2269.50	2270.00	2270.00	2270.50	2271.00	2271.00	2271.50	2272.00	2272.00	2272.00	2273.00	2273.00	2274.00	2274.00	2274.50	2275.00	2275.00	2276.00	2276.00	2276.50	2277.00	2277.50	2278.00	2278.00	2279.00	2279.50	2280.00	2281.00	2281.50	2282.00	2283.00	2284.50	2285.50	2287.00	2288.00	2288.50	2289.50	2292.50	2293.50	2295.00	2296.00	2298.00	2300.00	2301.50	2302.50	2303.50	2305.00	2306.50	2308.00	2309.00	2310.00	2310.50	2311.50	2312.50	2313.00	2314.00	2315.00	2315.50	2316.00	2316.00	2316.00	2316.50	2317.00	2317.00	2317.00	2317.00	2317.00	2317.00	2317.00	2317.00	2316.50	2316.00	2316.00	2316.00	2316.00	2316.00	2316.00	2316.00	2316.00	2316.00	2316.00	2315.00	2315.00	2315.00	2314.50	2314.00	2314.00	2314.00	2314.00	2313.00	2313.00	2313.00	2313.00	2312.00	2312.00	2312.00	2311.00	2311.00	2310.50	2310.00	2309.50	2308.50	2308.00	2307.00	2306.00	2305.00	2303.50	2303.00	2302.50	2301.00	2299.50	2298.00	2297.00	2295.50	2295.00	2294.50	2294.00	2293.50	2293.00	2292.00	2292.00	2291.00	2291.00	2291.00	2291.00	2291.00	2291.00	2291.00	2291.00	2292.50	2293.50	2295.50	2296.50	2297.50	2299.00	2300.50	2302.00	2303.00	2305.50	2307.00	2309.00	2311.00	2312.50	2314.00	2316.50	2317.50	2319.50	2322.00	2323.50	2325.00	2326.00	2327.50	2329.00	2330.00	2330.50	2331.50	2333.00	2334.00	2335.00	2336.00	2336.50	2337.50	2338.50	2339.50	2340.00	2340.00	2340.00	2340.00	2340.00	2340.50	2341.00	2340.50	2340.00	2338.50	2337.00	2336.00	2335.00	2334.50	2333.00	2332.50	2332.00	2332.00	2331.00	2331.00	2330.00	2330.00	2330.00	2329.00	2329.00	2328.50	2328.00	2327.50	2327.00	2326.50	2324.50	2323.50	2322.00	2321.00	2319.50	2318.00	2317.00	2316.50	2315.50	2314.00	2312.50	2311.00	2311.00
2275.00	2275.00	2275.00	2276.00	2276.00	2276.00	2276.00	2276.50	2277.00	2277.00	2277.00	2277.00	2278.00	2278.00	2278.00	2278.00	2278.00	2278.00	2278.00	2278.00	2278.00	2278.00	2278.00	2277.50	2277.00	2277.00	2277.00	2276.50	2276.00	2275.00	2275.00	2274.50	2274.00	2273.00	2272.50	2272.00	2272.00	2272.00	2271.50	2271.00	2271.00	2270.00	2270.00	2270.00	2270.00	2270.00	2270.00	2270.00	2269.00	2269.50	2270.00	2270.00	2270.50	2271.00	2271.00	2271.50	2272.00	2272.00	2272.00	2273.00	2273.00	2274.00	2274.00	2274.50	2275.00	2275.00	2276.00	2276.00	2276.50	2277.00	2277.50	2278.00	2278.00	2279.00	2279.50	2280.00	2281.00	2281.50	2282.00	2283.00	2284.50	2285.50	2287.00	2288.00	2288.50	2289.50	2292.50	2293.50	2295.00	2296.00	2298.00	2300.00	2301.50	2302.50	2303.50	2305.00	2306.50	2308.00	2309.00	2310.00	2310.50	2311.50	2312.50	2313.00	2314.00	2315.00	2315.50	2316.00	2316.00	2316.00	2316.50	2317.00	2317.00	2317.00	2317.00	2317.00	2317.00	2317.00	2317.00	2316.50	2316.00	2316.00	2316.00	2316.00	2316.00	2316.00	2316.00	2316.00	2316.00	2316.00	2315.00	2315.00	2315.00	2314.50	2314.00	2314.00	2314.00	2314.00	2313.00	2313.00	2313.00	2313.00	2312.00	2312.00	2312.00	2311.00	2311.00	2310.50	2310.00	2309.50	2308.50	2308.00	2307.00	2306.00	2305.00	2303.50	2303.00	2302.50	2301.00	2299.50	2298.00	2297.00	2295.50	2295.00	2294.50	2294.00	2293.50	2293.00	2292.00	2292.00	2291.00	2291.00	2291.00	2291.00	2291.00	2291.00	2291.00	2291.00	2292.50	2293.50	2295.50	2296.50	2297.50	2299.00	2300.50	2302.00	2303.00	2305.50	2307.00	2309.00	2311.00	2312.50	2314.00	2316.50	2317.50	2319.50	2322.00	2323.50	2325.00	2326.00	2327.50	2329.00	2330.00	2330.50	2331.50	2333.00	2334.00	2335.00	2336.00	2336.50	2337.50	2338.50	2339.50	2340.00	2340.00	2340.00	2340.00	2340.00	2340.50	2341.00	2340.50	2340.00	2338.50	2337.00	2336.00	2335.00	2334.50	2333.00	2332.50	2332.00	2332.00	2331.00	2331.00	2330.00	2330.00	2330.00	2329.00	2329.00	2328.50	2328.00	2327.50	2327.00	2326.50	2324.50	2323.50	2322.00	2321.00	2319.50	2318.00	2317.00	2316.50	2315.50	2314.00	2312.50	2311.00	2311.00
2275.00	2275.00	2275.00	2276.00	2276.00	2276.00	2276.00	2276.50	2277.00	2277.00	2277.00	2277.00	2278.00	2278.00	2278.00	2278.00	2278.00	2278.00	2278.00	2278.00	2278.00	2278.00	2278.00	2277.50	2277.00	2277.00	2277.00	2276.50	2276.00	2275.00	2275.00	2274.50	2274.00	2273.00	2272.50	2272.00	2272.00	2272.00	2271.50	2271.00	2271.00	2270.00	2270.00	2270.00	2270.00	2270.00	2270.00	2270.00	2269.00	2269.50	2270.00	2270.00	2270.50	2271.00	2271.00	2271.50	2272.00	2272.00	2272.00	2273.00	2273.00	2274.00	2274.00	2274.50	2275.00	2275.00	2276.00	2276.00	2276.50	2277.00	2277.50	2278.00	2278.00	2279.00	2279.50	2280.00	2281.00	2281.50	2282.00	2283.00	2284.50	2285.50	2287.00	2288.00	2288.50	2289.50	2292.50	2293.50	2295.00	2296.00	2298.00	2300.00	2301.50	2302.50	2303.50	2305.00	2306.50	2308.00	2309.00	2310.00	2310.50	2311.50	2312.50	2313.00	2314.00	2315.00	2315.50	2316.00	2316.00	2316.00	2316.50	2317.00	2317.00	2317.00	2317.00	2317.00	2317.00	2317.00	2317.00	2316.50	2316.00	2316.00	2316.00	2316.00	2316.00	2316.00	2316.00	2316.00	2316.00	2316.00	2315.00	2315.00	2315.00	2314.50	2314.00	2314.00	2314.00	2314.00	2313.00	2313.00	2313.00	2313.00	2312.00	2312.00	2312.00	2311.00	2311.00	2310.50	2310.00	2309.50	2308.50	2308.00	2307.00	2306.00	2305.00	2303.50	2303.00	2302.50	2301.00	2299.50	2298.00	2297.00	2295.50	2295.00	2294.50	2294.00	2293.50	2293.00	2292.00	2292.00	2291.00	2291.00	2291.00	2291.00	2291.00	2291.00	2291.00	2291.00	2292.50	2293.50	2295.50	2296.50	2297.50	2299.00	2300.50	2302.00	2303.00	2305.50	2307.00	2309.00	2311.00	2312.50	2314.00	2316.50	2317.50	2319.50	2322.00	2323.50	2325.00	2326.00	2327.50	2329.00	2330.00	2330.50	2331.50	2333.00	2334.00	2335.00	2336.00	2336.50	2337.50	2338.50	2339.50	2340.00	2340.00	2340.00	2340.00	2340.00	2340.50	2341.00	2340.50	2340.00	2338.50	2337.00	2336.00	2335.00	2334.50	2333.00	2332.50	2332.00	2332.00	2331.00	2331.00	2330.00	2330.00	2330.00	2329.00	2329.00	2328.50	2328.00	2327.50	2327.00	2326.50	2324.50	2323.50	2322.00	2321.00	2319.50	2318.00	2317.00	2316.50	2315.50	2314.00	2312.50	2311.00	2311.00
2275.00	2275.00	2275.00	2276.00	2276.00	2276.00	2276.00	2276.50	2277.00	2277.00	2277.00	2277.00	2278.00	2278.00	2278.00	2278.00	2278.00	2278.00	2278.00	2278.00	2278.00	2278.00	2278.00	2277.50	2277.00	2277.00	2277.00	2276.50	2276.00	2275.00	2275.00	2274.50	2274.00	2273.00	2272.50	2272.00	2272.00	2272.00	2271.50	2271.00	2271.00	2270.00	2270.00	2270.00	2270.00	2270.00	2270.00	2270.00	2269.00	2269.50	2270.00	2270.00	2270.50	2271.00	2271.00	2271.50	2272.00	2272.00	2272.00	2273.00	2273.00	2274.00	2274.00	2274.50	2275.00	2275.00	2276.00	2276.00	2276.50	2277.00	2277.50	2278.00	2278.00	2279.00	2279.50	2280.00	2281.00	2281.50	2282.00	2283.00	2284.50	2285.50	2287.00	2288.00	2288.50	2289.50	2292.50	2293.50	2295.00	2296.00	2298.00	2300.00	2301.50	2302.50	2303.50	2305.00	2306.50	2308.00	2309.00	2310.00	2310.50	2311.50	2312.50	2313.00	2314.00	2315.00	2315.50	2316.00	2316.00	2316.00	2316.50	2317.00	2317.00	2317.00	2317.00	2317.00	2317.00	2317.00	2317.00	2316.50	2316.00	2316.00	2316.00	2316.00	2316.00	2316.00	2316.00	2316.00	2316.00	2316.00	2315.00	2315.00	2315.00	2314.50	2314.00	2314.00	2314.00	2314.00	2313.00	2313.00	2313.00	2313.00	2312.00	2312.00	2312.00	2311.00	2311.00	2310.50	2310.00	2309.50	2308.50	2308.00	2307.00	2306.00	2305.00	2303.50	2303.00	2302.50	2301.00	2299.50	2298.00	2297.00	2295.50	2295.00	2294.50	2294.00	2293.50	2293.00	2292.00	2292.00	2291.00	2291.00	2291.00	2291.00	2291.00	2291.00	2291.00	2291.00	2292.50	2293.50	2295.50	2296.50	2297.50	2299.00	2300.50	2302.00	2303.00	2305.50	2307.00	2309.00	2311.00	2312.50	2314.00	2316.50	2317.50	2319.50	2322.00	2323.50	2325.00	2326.00	2327.50	2329.00	2330.00	2330.50	2331.50	2333.00	2334.00	2335.00	2336.00	2336.50	2337.50	2338.50	2339.50	2340.00	2340.00	2340.00	2340.00	2340.00	2340.50	2341.00	2340.50	2340.00	2338.50	2337.00	2336.00	2335.00	2334.50	2333.00	2332.50	2332.00	2332.00	2331.00	2331.00	2330.00	2330.00	2330.00	2329.00	2329.00	2328.50	2328.00	2327.50	2327.00	2326.50	2324.50	2323.50	2322.00	2321.00	2319.50	2318.00	2317.00	2316.50	2315.50	2314.00	2312.50	2311.00	2311.00
2275.00	2275.00	2275.00	2276.00	2276.00	2276.00	2276.00	2276.50	2277.00	2277.00	2277.00	2277.00	2278.00	2278.00	2278.00	2278.00	2278.00	2278.00	2278.00	2278.00	2278.00	2278.00	2278.00	2277.50	2277.00	2277.00	2277.00	2276.50	2276.00	2275.00	2275.00	2274.50	2274.00	2273.00	2272.50	2272.00	2272.00	2272.00	2271.50	2271.00	2271.00	2270.00	2270.00	2270.00	2270.00	2270.00	2270.00	2270.00	2269.00	2269.50	2270.00	2270.00	2270.50	2271.00	2271.00	2271.50	2272.00	2272.00	2272.00	2273.00	2273.00	2274.00	2274.00	2274.50	2275.00	2275.00	2276.00	2276.00	2276.50	2277.00	2277.50	2278.00	2278.00	2279.00	2279.50	2280.00	2281.00	2281.50	2282.00	2283.00	2284.50	2285.50	2287.00	2288.00	2288.50	2289.50	2292.50	2293.50	2295.00	2296.00	2298.00	2300.00	2301.50	2302.50	2303.50	2305.00	2306.50	2308.00	2309.00	2310.00	2310.50	2311.50	2312.50	2313.00	2314.00	2315.00	2315.50	2316.00	2316.00	2316.00	2316.50	2317.00	2317.00	2317.00	2317.00	2317.00	2317.00	2317.00	2317.00	2316.50	2316.00	2316.00	2316.00	2316.00	2316.00	2316.00	2316.00	2316.00	2316.00	2316.00	2315.00	2315.00	2315.00	2314.50	2314.00	2314.00	2314.00	2314.00	2313.00	2313.00	2313.00	2313.00	2312.00	2312.00	2312.00	2311.00	2311.00	2310.50	2310.00	2309.50	2308.50	2308.00	2307.00	2306.00	2305.00	2303.50	2303.00	2302.50	2301.00	2299.50	2298.00	2297.00	2295.50	2295.00	2294.50	2294.00	2293.50	2293.00	2292.00	2292.00	2291.00	2291.00	2291.00	2291.00	2291.00	2291.00	2291.00	2291.00	2292.50	2293.50	2295.50	2296.50	2297.50	2299.00	2300.50	2302.00	2303.00	2305.50	2307.00	2309.00	2311.00	2312.50	2314.00	2316.50	2317.50	2319.50	2322.00	2323.50	2325.00	2326.00	2327.50	2329.00	2330.00	2330.50	2331.50	2333.00	2334.00	2335.00	2336.00	2336.50	2337.50	2338.50	2339.50	2340.00	2340.00	2340.00	2340.00	2340.00	2340.50	2341.00	2340.50	2340.00	2338.50	2337.00	2336.00	2335.00	2334.50	2333.00	2332.50	2332.00	2332.00	2331.00	2331.00	2330.00	2330.00	2330.00	2329.00	2329.00	2328.50	2328.00	2327.50	2327.00	2326.50	2324.50	2323.50	2322.00	2321.00	2319.50	2318.00	2317.00	2316.50	2315.50	2314.00	2312.50	2311.00	2311.00
2277.00	2277.00	2277.00	2277.00	2277.00	2277.00	2277.00	2277.00	2277.00	2277.00	2277.00	2277.00	2277.00	2277.00	2277.00	2277.00	2276.50	2276.00	2276.00	2276.00	2276.00	2275.00	2275.00	2274.50	2274.00	2274.00	2273.00	2273.00	2273.00	2272.00	2272.00	2271.50	2271.00	2270.50	2270.00	2270.00	2270.00	2270.00	2270.00	2270.00	2269.50	2269.00	2270.00	2270.00	2270.00	2270.00	2270.00	2270.00	2271.00	2271.00	2272.00	2272.00	2273.00	2273.50	2274.50	2275.00	2275.50	2276.00	2277.00	2277.00	2278.00	2278.50	2279.00	2279.00	2280.00	2280.00	2280.00	2281.00	2281.00	2281.50	2282.00	2282.50	2283.00	2283.00	2284.00	2284.00	2285.00	2285.50	2286.00	2287.00	2288.50	2289.00	2290.00	2291.50	2292.50	2293.50	2295.50	2296.50	2298.00	2299.00	2300.50	2302.00	2303.50	2304.50	2305.50	2307.00	2308.50	2310.00	2311.00	2311.50	2312.00	2312.50	2313.50	2314.00	2315.00	2315.00	2316.00	2316.00	2316.00	2316.50	2317.00	2317.00	2317.00	2317.00	2317.00	2317.00	2317.00	2317.00	2317.00	2317.00	2317.00	2317.00	2317.00	2317.00	2317.00	2317.00	2317.00	2317.00	2316.50	2316.00	2316.00	2316.00	2315.50	2315.00	2315.00	2314.00	2314.00	2313.50	2313.00	2312.50	2312.00	2312.00	2311.00	2310.50	2310.00	2309.00	2308.00	2307.50	2306.50	2305.50	2304.50	2304.00	2303.00	2301.50	2300.00	2298.50	2298.00	2297.50	2296.00	2295.50	2294.00	2293.00	2292.50	2292.00	2291.50	2291.00	2291.00	2290.00	2290.00	2289.50	2290.00	2290.00	2290.50	2291.00	2292.00	2292.50	2293.00	2294.00	2295.50	2297.00	2299.50	2300.50	2302.00	2304.00	2305.50	2308.00	2309.00	2311.00	2312.50	2314.00	2316.00	2317.50	2319.00	2321.50	2322.50	2324.50	2326.50	2328.00	2330.00	2331.00	2332.00	2333.00	2334.50	2335.00	2335.50	2337.00	2337.50	2339.00	2340.00	2340.50	2341.50	2342.50	2343.50	2343.50	2343.00	2342.00	2341.50	2341.00	2340.00	2339.50	2339.00	2338.00	2337.00	2336.00	2335.00	2334.50	2334.00	2333.00	2333.00	2332.50	2332.00	2332.00	2331.50	2331.00	2331.00	2330.50	2330.00	2329.00	2329.00	2328.00	2327.50	2327.00	2326.50	2325.00	2324.50	2323.00	2322.00	2321.50	2320.00	2318.50	2318.00	2317.50	2316.00	2314.50	2313.00	2312.00
2277.00	2277.00	2277.00	2277.00	2277.00	2277.00	2277.00	2277.00	2277.00	2277.00	2277.00	2277.00	2277.00	2277.00	2277.00	2277.00	2276.50	2276.00	2276.00	2276.00	2276.00	2275.00	2275.00	2274.50	2274.00	2274.00	2273.00	2273.00	2273.00	2272.00	2272.00	2271.50	2271.00	2270.50	2270.00	2270.00	2270.00	2270.00	2270.00	2270.00	2269.50	2269.00	2270.00	2270.00	2270.00	2270.00	2270.00	2270.00	2271.00	2271.00	2272.00	2272.00	2273.00	2273.50	2274.50	2275.00	2275.50	2276.00	2277.00	2277.00	2278.00	2278.50	2279.00	2279.00	2280.00	2280.00	2280.00	2281.00	2281.00	2281.50	2282.00	2282.50	2283.00	2283.00	2284.00	2284.00	2285.00	2285.50	2286.00	2287.00	2288.50	2289.00	2290.00	2291.50	2292.50	2293.50	2295.50	2296.50	2298.00	2299.00	2300.50	2302.00	2303.50	2304.50	2305.50	2307.00	2308.50	2310.00	2311.00	2311.50	2312.00	2312.50	2313.50	2314.00	2315.00	2315.00	2316.00	2316.00	2316.00	2316.50	2317.00	2317.00	2317.00	2317.00	2317.00	2317.00	2317.00	2317.00	2317.00	2317.00	2317.00	2317.00	2317.00	2317.00	2317.00	2317.00	2317.00	2317.00	2316.50	2316.00	2316.00	2316.00	2315.50	2315.00	2315.00	2314.00	2314.00	2313.50	2313.00	2312.50	2312.00	2312.00	2311.00	2310.50	2310.00	2309.00	2308.00	2307.50	2306.50	2305.50	2304.50	2304.00	2303.00	2301.50	2300.00	2298.50	2298.00	2297.50	2296.00	2295.50	2294.00	2293.00	2292.50	2292.00	2291.50	2291.00	2291.00	2290.00	2290.00	2289.50	2290.00	2290.00	2290.50	2291.00	2292.00	2292.50	2293.00	2294.00	2295.50	2297.00	2299.50	2300.50	2302.00	2304.00	2305.50	2308.00	2309.00	2311.00	2312.50	2314.00	2316.00	2317.50	2319.00	2321.50	2322.50	2324.50	2326.50	2328.00	2330.00	2331.00	2332.00	2333.00	2334.50	2335.00	2335.50	2337.00	2337.50	2339.00	2340.00	2340.50	2341.50	2342.50	2343.50	2343.50	2343.00	2342.00	2341.50	2341.00	2340.00	2339.50	2339.00	2338.00	2337.00	2336.00	2335.00	2334.50	2334.00	2333.00	2333.00	2332.50	2332.00	2332.00	2331.50	2331.00	2331.00	2330.50	2330.00	2329.00	2329.00	2328.00	2327.50	2327.00	2326.50	2325.00	2324.50	2323.00	2322.00	2321.50	2320.00	2318.50	2318.00	2317.50	2316.00	2314.50	2313.00	2312.00
2277.00	2277.00	2277.00	2277.00	2277.00	2277.00	2277.00	2277.00	2277.00	2277.00	2277.00	2277.00	2277.00	2277.00	2277.00	2277.00	2276.50	2276.00	2276.00	2276.00	2276.00	2275.00	2275.00	2274.50	2274.00	2274.00	2273.00	2273.00	2273.00	2272.00	2272.00	2271.50	2271.00	2270.50	2270.00	2270.00	2270.00	2270.00	2270.00	2270.00	2269.50	2269.00	2270.00	2270.00	2270.00	2270.00	2270.00	2270.00	2271.00	2271.00	2272.00	2272.00	2273.00	2273.50	2274.50	2275.00	2275.50	2276.00	2277.00	2277.00	2278.00	2278.50	2279.00	2279.00	2280.00	2280.00	2280.00	2281.00	2281.00	2281.50	2282.00	2282.50	2283.00	2283.00	2284.00	2284.00	2285.00	2285.50	2286.00	2287.00	2288.50	2289.00	2290.00	2291.50	2292.50	2293.50	2295.50	2296.50	2298.00	2299.00	2300.50	2302.00	2303.50	2304.50	2305.50	2307.00	2308.50	2310.00	2311.00	2311.50	2312.00	2312.50	2313.50	2314.00	2315.00	2315.00	2316.00	2316.00	2316.00	2316.50	2317.00	2317.00	2317.00	2317.00	2317.00	2317.00	2317.00	2317.00	2317.00	2317.00	2317.00	2317.00	2317.00	2317.00	2317.00	2317.00	2317.00	2317.00	2316.50	2316.00	2316.00	2316.00	2315.50	2315.00	2315.00	2314.00	2314.00	2313.50	2313.00	2312.50	2312.00	2312.00	2311.00	2310.50	2310.00	2309.00	2308.00	2307.50	2306.50	2305.50	2304.50	2304.00	2303.00	2301.50	2300.00	2298.50	2298.00	2297.50	2296.00	2295.50	2294.00	2293.00	2292.50	2292.00	2291.50	2291.00	2291.00	2290.00	2290.00	2289.50	2290.00	2290.00	2290.50	2291.00	2292.00	2292.50	2293.00	2294.00	2295.50	2297.00	2299.50	2300.50	2302.00	2304.00	2305.50	2308.00	2309.00	2311.00	2312.50	2314.00	2316.00	2317.50	2319.00	2321.50	2322.50	2324.50	2326.50	2328.00	2330.00	2331.00	2332.00	2333.00	2334.50	2335.00	2335.50	2337.00	2337.50	2339.00	2340.00	2340.50	2341.50	2342.50	2343.50	2343.50	2343.00	2342.00	2341.50	2341.00	2340.00	2339.50	2339.00	2338.00	2337.00	2336.00	2335.00	2334.50	2334.00	2333.00	2333.00	2332.50	2332.00	2332.00	2331.50	2331.00	2331.00	2330.50	2330.00	2329.00	2329.00	2328.00	2327.50	2327.00	2326.50	2325.00	2324.50	2323.00	2322.00	2321.50	2320.00	2318.50	2318.00	2317.50	2316.00	2314.50	2313.00	2312.00
2277.00	2277.00	2277.00	2277.00	2277.00	2277.00	2277.00	2277.00	2277.00	2277.00	2277.00	2277.00	2277.00	2277.00	2277.00	2277.00	2276.50	2276.00	2276.00	2276.00	2276.00	2275.00	2275.00	2274.50	2274.00	2274.00	2273.00	2273.00	2273.00	2272.00	2272.00	2271.50	2271.00	2270.50	2270.00	2270.00	2270.00	2270.00	2270.00	2270.00	2269.50	2269.00	2270.00	2270.00	2270.00	2270.00	2270.00	2270.00	2271.00	2271.00	2272.00	2272.00	2273.00	2273.50	2274.50	2275.00	2275.50	2276.00	2277.00	2277.00	2278.00	2278.50	2279.00	2279.00	2280.00	2280.00	2280.00	2281.00	2281.00	2281.50	2282.00	2282.50	2283.00	2283.00	2284.00	2284.00	2285.00	2285.50	2286.00	2287.00	2288.50	2289.00	2290.00	2291.50	2292.50	2293.50	2295.50	2296.50	2298.00	2299.00	2300.50	2302.00	2303.50	2304.50	2305.50	2307.00	2308.50	2310.00	2311.00	2311.50	2312.00	2312.50	2313.50	2314.00	2315.00	2315.00	2316.00	2316.00	2316.00	2316.50	2317.00	2317.00	2317.00	2317.00	2317.00	2317.00	2317.00	2317.00	2317.00	2317.00	2317.00	2317.00	2317.00	2317.00	2317.00	2317.00	2317.00	2317.00	2316.50	2316.00	2316.00	2316.00	2315.50	2315.00	2315.00	2314.00	2314.00	2313.50	2313.00	2312.50	2312.00	2312.00	2311.00	2310.50	2310.00	2309.00	2308.00	2307.50	2306.50	2305.50	2304.50	2304.00	2303.00	2301.50	2300.00	2298.50	2298.00	2297.50	2296.00	2295.50	2294.00	2293.00	2292.50	2292.00	2291.50	2291.00	2291.00	2290.00	2290.00	2289.50	2290.00	2290.00	2290.50	2291.00	2292.00	2292.50	2293.00	2294.00	2295.50	2297.00	2299.50	2300.50	2302.00	2304.00	2305.50	2308.00	2309.00	2311.00	2312.50	2314.00	2316.00	2317.50	2319.00	2321.50	2322.50	2324.50	2326.50	2328.00	2330.00	2331.00	2332.00	2333.00	2334.50	2335.00	2335.50	2337.00	2337.50	2339.00	2340.00	2340.50	2341.50	2342.50	2343.50	2343.50	2343.00	2342.00	2341.50	2341.00	2340.00	2339.50	2339.00	2338.00	2337.00	2336.00	2335.00	2334.50	2334.00	2333.00	2333.00	2332.50	2332.00	2332.00	2331.50	2331.00	2331.00	2330.50	2330.00	2329.00	2329.00	2328.00	2327.50	2327.00	2326.50	2325.00	2324.50	2323.00	2322.00	2321.50	2320.00	2318.50	2318.00	2317.50	2316.00	2314.50	2313.00	2312.00
2277.00	2277.00	2277.00	2277.00	2277.00	2277.00	2277.00	2277.00	2277.00	2277.00	2277.00	2277.00	2277.00	2277.00	2277.00	2277.00	2276.50	2276.00	2276.00	2276.00	2276.00	2275.00	2275.00	2274.50	2274.00	2274.00	2273.00	2273.00	2273.00	2272.00	2272.00	2271.50	2271.00	2270.50	2270.00	2270.00	2270.00	2270.00	2270.00	2270.00	2269.50	2269.00	2270.00	2270.00	2270.00	2270.00	2270.00	2270.00	2271.00	2271.00	2272.00	2272.00	2273.00	2273.50	2274.50	2275.00	2275.50	2276.00	2277.00	2277.00	2278.00	2278.50	2279.00	2279.00	2280.00	2280.00	2280.00	2281.00	2281.00	2281.50	2282.00	2282.50	2283.00	2283.00	2284.00	2284.00	2285.00	2285.50	2286.00	2287.00	2288.50	2289.00	2290.00	2291.50	2292.50	2293.50	2295.50	2296.50	2298.00	2299.00	2300.50	2302.00	2303.50	2304.50	2305.50	2307.00	2308.50	2310.00	2311.00	2311.50	2312.00	2312.50	2313.50	2314.00	2315.00	2315.00	2316.00	2316.00	2316.00	2316.50	2317.00	2317.00	2317.00	2317.00	2317.00	2317.00	2317.00	2317.00	2317.00	2317.00	2317.00	2317.00	2317.00	2317.00	2317.00	2317.00	2317.00	2317.00	2316.50	2316.00	2316.00	2316.00	2315.50	2315.00	2315.00	2314.00	2314.00	2313.50	2313.00	2312.50	2312.00	2312.00	2311.00	2310.50	2310.00	2309.00	2308.00	2307.50	2306.50	2305.50	2304.50	2304.00	2303.00	2301.50	2300.00	2298.50	2298.00	2297.50	2296.00	2295.50	2294.00	2293.00	2292.50	2292.00	2291.50	2291.00	2291.00	2290.00	2290.00	2289.50	2290.00	2290.00	2290.50	2291.00	2292.00	2292.50	2293.00	2294.00	2295.50	2297.00	2299.50	2300.50	2302.00	2304.00	2305.50	2308.00	2309.00	2311.00	2312.50	2314.00	2316.00	2317.50	2319.00	2321.50	2322.50	2324.50	2326.50	2328.00	2330.00	2331.00	2332.00	2333.00	2334.50	2335.00	2335.50	2337.00	2337.50	2339.00	2340.00	2340.50	2341.50	2342.50	2343.50	2343.50	2343.00	2342.00	2341.50	2341.00	2340.00	2339.50	2339.00	2338.00	2337.00	2336.00	2335.00	2334.50	2334.00	2333.00	2333.00	2332.50	2332.00	2332.00	2331.50	2331.00	2331.00	2330.50	2330.00	2329.00	2329.00	2328.00	2327.50	2327.00	2326.50	2325.00	2324.50	2323.00	2322.00	2321.50	2320.00	2318.50	2318.00	2317.50	2316.00	2314.50	2313.00	2312.00
2277.00	2277.00	2277.00	2277.00	2277.00	2277.00	2277.00	2277.00	2277.00	2277.00	2277.00	2277.00	2277.00	2277.00	2277.00	2277.00	2276.50	2276.00	2276.00	2276.00	2276.00	2275.00	2275.00	2274.50	2274.00	2274.00	2273.00	2273.00	2273.00	2272.00	2272.00	2271.50	2271.00	2270.50	2270.00	2270.00	2270.00	2270.00	2270.00	2270.00	2269.50	2269.00	2270.00	2270.00	2270.00	2270.00	2270.00	2270.00	2271.00	2271.00	2272.00	2272.00	2273.00	2273.50	2274.50	2275.00	2275.50	2276.00	2277.00	2277.00	2278.00	2278.50	2279.00	2279.00	2280.00	2280.00	2280.00	2281.00	2281.00	2281.50	2282.00	2282.50	2283.00	2283.00	2284.00	2284.00	2285.00	2285.50	2286.00	2287.00	2288.50	2289.00	2290.00	2291.50	2292.50	2293.50	2295.50	2296.50	2298.00	2299.00	2300.50	2302.00	2303.50	2304.50	2305.50	2307.00	2308.50	2310.00	2311.00	2311.50	2312.00	2312.50	2313.50	2314.00	2315.00	2315.00	2316.00	2316.00	2316.00	2316.50	2317.00	2317.00	2317.00	2317.00	2317.00	2317.00	2317.00	2317.00	2317.00	2317.00	2317.00	2317.00	2317.00	2317.00	2317.00	2317.00	2317.00	2317.00	2316.50	2316.00	2316.00	2316.00	2315.50	2315.00	2315.00	2314.00	2314.00	2313.50	2313.00	2312.50	2312.00	2312.00	2311.00	2310.50	2310.00	2309.00	2308.00	2307.50	2306.50	2305.50	2304.50	2304.00	2303.00	2301.50	2300.00	2298.50	2298.00	2297.50	2296.00	2295.50	2294.00	2293.00	2292.50	2292.00	2291.50	2291.00	2291.00	2290.00	2290.00	2289.50	2290.00	2290.00	2290.50	2291.00	2292.00	2292.50	2293.00	2294.00	2295.50	2297.00	2299.50	2300.50	2302.00	2304.00	2305.50	2308.00	2309.00	2311.00	2312.50	2314.00	2316.00	2317.50	2319.00	2321.50	2322.50	2324.50	2326.50	2328.00	2330.00	2331.00	2332.00	2333.00	2334.50	2335.00	2335.50	2337.00	2337.50	2339.00	2340.00	2340.50	2341.50	2342.50	2343.50	2343.50	2343.00	2342.00	2341.50	2341.00	2340.00	2339.50	2339.00	2338.00	2337.00	2336.00	2335.00	2334.50	2334.00	2333.00	2333.00	2332.50	2332.00	2332.00	2331.50	2331.00	2331.00	2330.50	2330.00	2329.00	2329.00	2328.00	2327.50	2327.00	2326.50	2325.00	2324.50	2323.00	2322.00	2321.50	2320.00	2318.50	2318.00	2317.50	2316.00	2314.50	2313.00	2312.00
2277.50	2277.00	2277.00	2277.00	2277.00	2277.00	2277.00	2276.75	2276.50	2276.50	2276.50	2276.50	2276.50	2276.00	2276.00	2276.00	2275.75	2275.00	2275.00	2275.00	2274.50	2274.00	2274.00	2273.25	2273.00	2272.75	2272.00	2271.75	2271.50	2271.00	2270.50	2270.25	2270.00	2269.25	2269.00	2269.00	2269.00	2269.00	2269.00	2269.00	2268.75	2268.50	2269.50	2269.50	2270.00	2270.00	2270.25	2270.50	2271.00	2271.75	2273.00	2273.00	2274.25	2274.75	2275.75	2276.50	2277.00	2277.50	2278.50	2279.00	2280.00	2280.50	2281.00	2281.25	2282.00	2282.25	2282.50	2283.50	2283.50	2284.00	2284.75	2285.25	2285.75	2286.00	2286.75	2287.00	2288.00	2288.50	2289.00	2290.00	2291.25	2291.75	2292.50	2293.75	2294.50	2295.50	2297.50	2298.50	2300.00	2301.00	2302.00	2303.50	2304.75	2305.50	2306.50	2307.50	2309.00	2310.00	2311.00	2311.50	2312.00	2312.50	2313.25	2313.50	2314.50	2314.50	2315.00	2315.00	2315.00	2315.25	2315.50	2315.50	2315.50	2315.50	2315.50	2315.50	2315.50	2315.75	2316.00	2316.00	2316.00	2316.00	2316.00	2316.00	2316.00	2316.25	2316.50	2316.50	2316.25	2316.00	2315.50	2315.50	2315.25	2315.00	2315.00	2314.00	2314.00	2313.25	2313.00	2312.25	2311.75	2311.50	2310.50	2309.75	2309.00	2308.50	2307.25	2306.75	2305.75	2304.50	2303.50	2303.00	2302.00	2300.50	2299.00	2297.75	2297.25	2296.50	2295.50	2294.75	2293.50	2292.50	2292.00	2291.50	2291.25	2291.25	2291.50	2291.00	2291.00	2290.75	2291.50	2292.25	2293.00	2293.50	2294.75	2295.50	2296.50	2297.50	2299.50	2300.75	2303.50	2304.50	2306.00	2308.00	2310.00	2312.00	2313.00	2315.25	2316.50	2318.00	2320.25	2321.50	2323.00	2325.25	2326.50	2328.25	2330.00	2331.25	2333.50	2334.00	2335.00	2335.50	2336.75	2337.25	2337.75	2339.00	2339.25	2340.50	2341.00	2341.50	2342.25	2343.00	2343.75	2343.50	2342.50	2342.00	2341.00	2340.50	2339.25	2338.50	2338.00	2337.50	2336.50	2336.00	2335.00	2334.75	2334.25	2333.25	2333.00	2332.50	2332.00	2331.50	2331.00	2330.50	2330.00	2329.50	2329.00	2328.25	2328.00	2327.00	2326.50	2326.00	2325.50	2324.25	2323.50	2322.50	2321.50	2320.75	2319.50	2318.25	2317.75	2317.25	2316.00	2314.75	2313.50	2312.50
2278.00	2277.00	2277.00	2277.00	2277.00	2277.00	2277.00	2276.50	2276.00	2276.00	2276.00	2276.00	2276.00	2275.00	2275.00	2275.00	2275.00	2274.00	2274.00	2274.00	2273.00	2273.00	2273.00	2272.00	2272.00	2271.50	2271.00	2270.50	2270.00	2270.00	2269.00	2269.00	2269.00	2268.00	2268.00	2268.00	2268.00	2268.00	2268.00	2268.00	2268.00	2268.00	2269.00	2269.00	2270.00	2270.00	2270.50	2271.00	2271.00	2272.50	2274.00	2274.00	2275.50	2276.00	2277.00	2278.00	2278.50	2279.00	2280.00	2281.00	2282.00	2282.50	2283.00	2283.50	2284.00	2284.50	2285.00	2286.00	2286.00	2286.50	2287.50	2288.00	2288.50	2289.00	2289.50	2290.00	2291.00	2291.50	2292.00	2293.00	2294.00	2294.50	2295.00	2296.00	2296.50	2297.50	2299.50	2300.50	2302.00	2303.00	2303.50	2305.00	2306.00	2306.50	2307.50	2308.00	2309.50	2310.00	2311.00	2311.50	2312.00	2312.50	2313.00	2313.00	2314.00	2314.00	2314.00	2314.00	2314.00	2314.00	2314.00	2314.00	2314.00	2314.00	2314.00	2314.00	2314.00	2314.50	2315.00	2315.00	2315.00	2315.00	2315.00	2315.00	2315.00	2315.50	2316.00	2316.00	2316.00	2316.00	2315.00	2315.00	2315.00	2315.00	2315.00	2314.00	2314.00	2313.00	2313.00	2312.00	2311.50	2311.00	2310.00	2309.00	2308.00	2308.00	2306.50	2306.00	2305.00	2303.50	2302.50	2302.00	2301.00	2299.50	2298.00	2297.00	2296.50	2295.50	2295.00	2294.00	2293.00	2292.00	2291.50	2291.00	2291.00	2291.50	2292.00	2292.00	2292.00	2292.00	2293.00	2294.50	2295.50	2296.00	2297.50	2298.50	2300.00	2301.00	2303.50	2304.50	2307.50	2308.50	2310.00	2312.00	2314.50	2316.00	2317.00	2319.50	2320.50	2322.00	2324.50	2325.50	2327.00	2329.00	2330.50	2332.00	2333.50	2334.50	2337.00	2337.00	2338.00	2338.00	2339.00	2339.50	2340.00	2341.00	2341.00	2342.00	2342.00	2342.50	2343.00	2343.50	2344.00	2343.50	2342.00	2342.00	2340.50	2340.00	2338.50	2337.50	2337.00	2337.00	2336.00	2336.00	2335.00	2335.00	2334.50	2333.50	2333.00	2332.50	2332.00	2331.00	2330.50	2330.00	2329.00	2328.50	2328.00	2327.50	2327.00	2326.00	2325.50	2325.00	2324.50	2323.50	2322.50	2322.00	2321.00	2320.00	2319.00	2318.00	2317.50	2317.00	2316.00	2315.00	2314.00	2313.00
2278.00	2277.00	2277.00	2277.00	2277.00	2277.00	2277.00	2276.50	2276.00	2276.00	2276.00	2276.00	2276.00	2275.00	2275.00	2275.00	2275.00	2274.00	2274.00	2274.00	2273.00	2273.00	2273.00	2272.00	2272.00	2271.50	2271.00	2270.50	2270.00	2270.00	2269.00	2269.00	2269.00	2268.00	2268.00	2268.00	2268.00	2268.00	2268.00	2268.00	2268.00	2268.00	2269.00	2269.00	2270.00	2270.00	2270.50	2271.00	2271.00	2272.50	2274.00	2274.00	2275.50	2276.00	2277.00	2278.00	2278.50	2279.00	2280.00	2281.00	2282.00	2282.50	2283.00	2283.50	2284.00	2284.50	2285.00	2286.00	2286.00	2286.50	2287.50	2288.00	2288.50	2289.00	2289.50	2290.00	2291.00	2291.50	2292.00	2293.00	2294.00	2294.50	2295.00	2296.00	2296.50	2297.50	2299.50	2300.50	2302.00	2303.00	2303.50	2305.00	2306.00	2306.50	2307.50	2308.00	2309.50	2310.00	2311.00	2311.50	2312.00	2312.50	2313.00	2313.00	2314.00	2314.00	2314.00	2314.00	2314.00	2314.00	2314.00	2314.00	2314.00	2314.00	2314.00	2314.00	2314.00	2314.50	2315.00	2315.00	2315.00	2315.00	2315.00	2315.00	2315.00	2315.50	2316.00	2316.00	2316.00	2316.00	2315.00	2315.00	2315.00	2315.00	2315.00	2314.00	2314.00	2313.00	2313.00	2312.00	2311.50	2311.00	2310.00	2309.00	2308.00	2308.00	2306.50	2306.00	2305.00	2303.50	2302.50	2302.00	2301.00	2299.50	2298.00	2297.00	2296.50	2295.50	2295.00	2294.00	2293.00	2292.00	2291.50	2291.00	2291.00	2291.50	2292.00	2292.00	2292.00	2292.00	2293.00	2294.50	2295.50	2296.00	2297.50	2298.50	2300.00	2301.00	2303.50	2304.50	2307.50	2308.50	2310.00	2312.00	2314.50	2316.00	2317.00	2319.50	2320.50	2322.00	2324.50	2325.50	2327.00	2329.00	2330.50	2332.00	2333.50	2334.50	2337.00	2337.00	2338.00	2338.00	2339.00	2339.50	2340.00	2341.00	2341.00	2342.00	2342.00	2342.50	2343.00	2343.50	2344.00	2343.50	2342.00	2342.00	2340.50	2340.00	2338.50	2337.50	2337.00	2337.00	2336.00	2336.00	2335.00	2335.00	2334.50	2333.50	2333.00	2332.50	2332.00	2331.00	2330.50	2330.00	2329.00	2328.50	2328.00	2327.50	2327.00	2326.00	2325.50	2325.00	2324.50	2323.50	2322.50	2322.00	2321.00	2320.00	2319.00	2318.00	2317.50	2317.00	2316.00	2315.00	2314.00	2313.00
2278.00	2277.00	2277.00	2277.00	2277.00	2277.00	2277.00	2276.50	2276.00	2276.00	2276.00	2276.00	2276.00	2275.00	2275.00	2275.00	2275.00	2274.00	2274.00	2274.00	2273.00	2273.00	2273.00	2272.00	2272.00	2271.50	2271.00	2270.50	2270.00	2270.00	2269.00	2269.00	2269.00	2268.00	2268.00	2268.00	2268.00	2268.00	2268.00	2268.00	2268.00	2268.00	2269.00	2269.00	2270.00	2270.00	2270.50	2271.00	2271.00	2272.50	2274.00	2274.00	2275.50	2276.00	2277.00	2278.00	2278.50	2279.00	2280.00	2281.00	2282.00	2282.50	2283.00	2283.50	2284.00	2284.50	2285.00	2286.00	2286.00	2286.50	2287.50	2288.00	2288.50	2289.00	2289.50	2290.00	2291.00	2291.50	2292.00	2293.00	2294.00	2294.50	2295.00	2296.00	2296.50	2297.50	2299.50	2300.50	2302.00	2303.00	2303.50	2305.00	2306.00	2306.50	2307.50	2308.00	2309.50	2310.00	2311.00	2311.50	2312.00	2312.50	2313.00	2313.00	2314.00	2314.00	2314.00	2314.00	2314.00	2314.00	2314.00	2314.00	2314.00	2314.00	2314.00	2314.00	2314.00	2314.50	2315.00	2315.00	2315.00	2315.00	2315.00	2315.00	2315.00	2315.50	2316.00	2316.00	2316.00	2316.00	2315.00	2315.00	2315.00	2315.00	2315.00	2314.00	2314.00	2313.00	2313.00	2312.00	2311.50	2311.00	2310.00	2309.00	2308.00	2308.00	2306.50	2306.00	2305.00	2303.50	2302.50	2302.00	2301.00	2299.50	2298.00	2297.00	2296.50	2295.50	2295.00	2294.00	2293.00	2292.00	2291.50	2291.00	2291.00	2291.50	2292.00	2292.00	2292.00	2292.00	2293.00	2294.50	2295.50	2296.00	2297.50	2298.50	2300.00	2301.00	2303.50	2304.50	2307.50	2308.50	2310.00	2312.00	2314.50	2316.00	2317.00	2319.50	2320.50	2322.00	2324.50	2325.50	2327.00	2329.00	2330.50	2332.00	2333.50	2334.50	2337.00	2337.00	2338.00	2338.00	2339.00	2339.50	2340.00	2341.00	2341.00	2342.00	2342.00	2342.50	2343.00	2343.50	2344.00	2343.50	2342.00	2342.00	2340.50	2340.00	2338.50	2337.50	2337.00	2337.00	2336.00	2336.00	2335.00	2335.00	2334.50	2333.50	2333.00	2332.50	2332.00	2331.00	2330.50	2330.00	2329.00	2328.50	2328.00	2327.50	2327.00	2326.00	2325.50	2325.00	2324.50	2323.50	2322.50	2322.00	2321.00	2320.00	2319.00	2318.00	2317.50	2317.00	2316.00	2315.00	2314.00	2313.00
2278.00	2277.00	2277.00	2277.00	2277.00	2277.00	2277.00	2276.50	2276.00	2276.00	2276.00	2276.00	2276.00	2275.00	2275.00	2275.00	2275.00	2274.00	2274.00	2274.00	2273.00	2273.00	2273.00	2272.00	2272.00	2271.50	2271.00	2270.50	2270.00	2270.00	2269.00	2269.00	2269.00	2268.00	2268.00	2268.00	2268.00	2268.00	2268.00	2268.00	2268.00	2268.00	2269.00	2269.00	2270.00	2270.00	2270.50	2271.00	2271.00	2272.50	2274.00	2274.00	2275.50	2276.00	2277.00	2278.00	2278.50	2279.00	2280.00	2281.00	2282.00	2282.50	2283.00	2283.50	2284.00	2284.50	2285.00	2286.00	2286.00	2286.50	2287.50	2288.00	2288.50	2289.00	2289.50	2290.00	2291.00	2291.50	2292.00	2293.00	2294.00	2294.50	2295.00	2296.00	2296.50	2297.50	2299.50	2300.50	2302.00	2303.00	2303.50	2305.00	2306.00	2306.50	2307.50	2308.00	2309.50	2310.00	2311.00	2311.50	2312.00	2312.50	2313.00	2313.00	2314.00	2314.00	2314.00	2314.00	2314.00	2314.00	2314.00	2314.00	2314.00	2314.00	2314.00	2314.00	2314.00	2314.50	2315.00	2315.00	2315.00	2315.00	2315.00	2315.00	2315.00	2315.50	2316.00	2316.00	2316.00	2316.00	2315.00	2315.00	2315.00	2315.00	2315.00	2314.00	2314.00	2313.00	2313.00	2312.00	2311.50	2311.00	2310.00	2309.00	2308.00	2308.00	2306.50	2306.00	2305.00	2303.50	2302.50	2302.00	2301.00	2299.50	2298.00	2297.00	2296.50	2295.50	2295.00	2294.00	2293.00	2292.00	2291.50	2291.00	2291.00	2291.50	2292.00	2292.00	2292.00	2292.00	2293.00	2294.50	2295.50	2296.00	2297.50	2298.50	2300.00	2301.00	2303.50	2304.50	2307.50	2308.50	2310.00	2312.00	2314.50	2316.00	2317.00	2319.50	2320.50	2322.00	2324.50	2325.50	2327.00	2329.00	2330.50	2332.00	2333.50	2334.50	2337.00	2337.00	2338.00	2338.00	2339.00	2339.50	2340.00	2341.00	2341.00	2342.00	2342.00	2342.50	2343.00	2343.50	2344.00	2343.50	2342.00	2342.00	2340.50	2340.00	2338.50	2337.50	2337.00	2337.00	2336.00	2336.00	2335.00	2335.00	2334.50	2333.50	2333.00	2332.50	2332.00	2331.00	2330.50	2330.00	2329.00	2328.50	2328.00	2327.50	2327.00	2326.00	2325.50	2325.00	2324.50	2323.50	2322.50	2322.00	2321.00	2320.00	2319.00	2318.00	2317.50	2317.00	2316.00	2315.00	2314.00	2313.00
2278.00	2277.00	2277.00	2277.00	2277.00	2277.00	2277.00	2276.50	2276.00	2276.00	2276.00	2276.00	2276.00	2275.00	2275.00	2275.00	2275.00	2274.00	2274.00	2274.00	2273.00	2273.00	2273.00	2272.00	2272.00	2271.50	2271.00	2270.50	2270.00	2270.00	2269.00	2269.00	2269.00	2268.00	2268.00	2268.00	2268.00	2268.00	2268.00	2268.00	2268.00	2268.00	2269.00	2269.00	2270.00	2270.00	2270.50	2271.00	2271.00	2272.50	2274.00	2274.00	2275.50	2276.00	2277.00	2278.00	2278.50	2279.00	2280.00	2281.00	2282.00	2282.50	2283.00	2283.50	2284.00	2284.50	2285.00	2286.00	2286.00	2286.50	2287.50	2288.00	2288.50	2289.00	2289.50	2290.00	2291.00	2291.50	2292.00	2293.00	2294.00	2294.50	2295.00	2296.00	2296.50	2297.50	2299.50	2300.50	2302.00	2303.00	2303.50	2305.00	2306.00	2306.50	2307.50	2308.00	2309.50	2310.00	2311.00	2311.50	2312.00	2312.50	2313.00	2313.00	2314.00	2314.00	2314.00	2314.00	2314.00	2314.00	2314.00	2314.00	2314.00	2314.00	2314.00	2314.00	2314.00	2314.50	2315.00	2315.00	2315.00	2315.00	2315.00	2315.00	2315.00	2315.50	2316.00	2316.00	2316.00	2316.00	2315.00	2315.00	2315.00	2315.00	2315.00	2314.00	2314.00	2313.00	2313.00	2312.00	2311.50	2311.00	2310.00	2309.00	2308.00	2308.00	2306.50	2306.00	2305.00	2303.50	2302.50	2302.00	2301.00	2299.50	2298.00	2297.00	2296.50	2295.50	2295.00	2294.00	2293.00	2292.00	2291.50	2291.00	2291.00	2291.50	2292.00	2292.00	2292.00	2292.00	2293.00	2294.50	2295.50	2296.00	2297.50	2298.50	2300.00	2301.00	2303.50	2304.50	2307.50	2308.50	2310.00	2312.00	2314.50	2316.00	2317.00	2319.50	2320.50	2322.00	2324.50	2325.50	2327.00	2329.00	2330.50	2332.00	2333.50	2334.50	2337.00	2337.00	2338.00	2338.00	2339.00	2339.50	2340.00	2341.00	2341.00	2342.00	2342.00	2342.50	2343.00	2343.50	2344.00	2343.50	2342.00	2342.00	2340.50	2340.00	2338.50	2337.50	2337.00	2337.00	2336.00	2336.00	2335.00	2335.00	2334.50	2333.50	2333.00	2332.50	2332.00	2331.00	2330.50	2330.00	2329.00	2328.50	2328.00	2327.50	2327.00	2326.00	2325.50	2325.00	2324.50	2323.50	2322.50	2322.00	2321.00	2320.00	2319.00	2318.00	2317.50	2317.00	2316.00	2315.00	2314.00	2313.00
2278.00	2277.00	2277.00	2277.00	2277.00	2277.00	2277.00	2276.50	2276.00	2276.00	2276.00	2276.00	2276.00	2275.00	2275.00	2275.00	2275.00	2274.00	2274.00	2274.00	2273.00	2273.00	2273.00	2272.00	2272.00	2271.50	2271.00	2270.50	2270.00	2270.00	2269.00	2269.00	2269.00	2268.00	2268.00	2268.00	2268.00	2268.00	2268.00	2268.00	2268.00	2268.00	2269.00	2269.00	2270.00	2270.00	2270.50	2271.00	2271.00	2272.50	2274.00	2274.00	2275.50	2276.00	2277.00	2278.00	2278.50	2279.00	2280.00	2281.00	2282.00	2282.50	2283.00	2283.50	2284.00	2284.50	2285.00	2286.00	2286.00	2286.50	2287.50	2288.00	2288.50	2289.00	2289.50	2290.00	2291.00	2291.50	2292.00	2293.00	2294.00	2294.50	2295.00	2296.00	2296.50	2297.50	2299.50	2300.50	2302.00	2303.00	2303.50	2305.00	2306.00	2306.50	2307.50	2308.00	2309.50	2310.00	2311.00	2311.50	2312.00	2312.50	2313.00	2313.00	2314.00	2314.00	2314.00	2314.00	2314.00	2314.00	2314.00	2314.00	2314.00	2314.00	2314.00	2314.00	2314.00	2314.50	2315.00	2315.00	2315.00	2315.00	2315.00	2315.00	2315.00	2315.50	2316.00	2316.00	2316.00	2316.00	2315.00	2315.00	2315.00	2315.00	2315.00	2314.00	2314.00	2313.00	2313.00	2312.00	2311.50	2311.00	2310.00	2309.00	2308.00	2308.00	2306.50	2306.00	2305.00	2303.50	2302.50	2302.00	2301.00	2299.50	2298.00	2297.00	2296.50	2295.50	2295.00	2294.00	2293.00	2292.00	2291.50	2291.00	2291.00	2291.50	2292.00	2292.00	2292.00	2292.00	2293.00	2294.50	2295.50	2296.00	2297.50	2298.50	2300.00	2301.00	2303.50	2304.50	2307.50	2308.50	2310.00	2312.00	2314.50	2316.00	2317.00	2319.50	2320.50	2322.00	2324.50	2325.50	2327.00	2329.00	2330.50	2332.00	2333.50	2334.50	2337.00	2337.00	2338.00	2338.00	2339.00	2339.50	2340.00	2341.00	2341.00	2342.00	2342.00	2342.50	2343.00	2343.50	2344.00	2343.50	2342.00	2342.00	2340.50	2340.00	2338.50	2337.50	2337.00	2337.00	2336.00	2336.00	2335.00	2335.00	2334.50	2333.50	2333.00	2332.50	2332.00	2331.00	2330.50	2330.00	2329.00	2328.50	2328.00	2327.50	2327.00	2326.00	2325.50	2325.00	2324.50	2323.50	2322.50	2322.00	2321.00	2320.00	2319.00	2318.00	2317.50	2317.00	2316.00	2315.00	2314.00	2313.00
2278.00	2277.50	2277.50	2277.00	2277.00	2277.00	2277.00	2276.25	2276.00	2276.00	2276.00	2275.50	2275.50	2275.00	2274.50	2274.50	2274.25	2273.50	2273.50	2273.00	2272.50	2272.25	2272.00	2271.50	2271.25	2270.75	2270.50	2269.75	2269.50	2269.00	2268.50	2268.25	2268.00	2267.50	2267.50	2267.50	2267.50	2267.50	2267.50	2267.50	2267.50	2267.50	2268.50	2268.75	2269.50	2270.00	2270.50	2271.00	2271.50	2272.75	2274.00	2274.50	2275.75	2276.25	2277.50	2278.50	2279.00	2280.00	2280.50	2281.50	2282.50	2283.25	2283.75	2284.50	2285.25	2285.75	2286.50	2287.50	2287.75	2288.25	2289.25	2289.75	2290.50	2291.00	2291.75	2292.50	2293.00	2293.75	2294.25	2295.00	2296.25	2296.75	2297.50	2298.25	2298.75	2299.50	2301.50	2302.25	2303.50	2304.50	2305.00	2306.50	2307.00	2307.50	2308.25	2309.00	2309.75	2310.50	2311.00	2311.25	2311.50	2312.00	2312.50	2312.50	2313.00	2313.00	2313.00	2313.00	2313.00	2313.00	2313.00	2313.00	2313.00	2313.00	2313.00	2313.00	2313.00	2313.25	2313.50	2313.50	2313.50	2314.00	2314.00	2314.50	2314.50	2315.00	2315.50	2315.50	2315.50	2315.50	2315.00	2315.00	2315.00	2315.00	2315.00	2314.00	2314.00	2313.00	2312.50	2312.00	2311.50	2311.00	2310.00	2308.75	2308.00	2307.50	2306.00	2305.50	2304.50	2303.25	2302.50	2301.50	2301.00	2299.50	2298.50	2297.50	2297.25	2296.50	2296.00	2295.50	2294.50	2294.00	2293.75	2293.50	2293.75	2294.50	2295.00	2295.50	2295.50	2296.00	2297.00	2298.50	2299.75	2300.75	2302.50	2303.50	2305.00	2306.00	2308.50	2309.50	2312.50	2313.75	2315.25	2317.00	2319.50	2321.00	2322.00	2324.00	2325.00	2326.50	2328.50	2329.50	2331.00	2332.75	2333.75	2335.00	2336.50	2337.50	2339.00	2339.00	2339.50	2340.00	2340.50	2340.75	2341.00	2341.50	2341.25	2341.50	2341.50	2341.25	2341.50	2341.50	2341.50	2341.00	2340.00	2339.50	2338.75	2338.00	2337.00	2336.25	2335.75	2335.50	2334.50	2334.50	2333.50	2333.25	2332.75	2332.00	2331.50	2331.00	2330.50	2329.50	2329.00	2328.50	2327.75	2327.25	2326.50	2326.00	2325.50	2325.00	2324.25	2323.75	2323.25	2322.50	2321.75	2321.50	2320.50	2319.75	2319.00	2318.25	2317.75	2317.25	2316.50	2315.50	2314.50	2314.00
2278.00	2278.00	2278.00	2277.00	2277.00	2277.00	2277.00	2276.00	2276.00	2276.00	2276.00	2275.00	2275.00	2275.00	2274.00	2274.00	2273.50	2273.00	2273.00	2272.00	2272.00	2271.50	2271.00	2271.00	2270.50	2270.00	2270.00	2269.00	2269.00	2268.00	2268.00	2267.50	2267.00	2267.00	2267.00	2267.00	2267.00	2267.00	2267.00	2267.00	2267.00	2267.00	2268.00	2268.50	2269.00	2270.00	2270.50	2271.00	2272.00	2273.00	2274.00	2275.00	2276.00	2276.50	2278.00	2279.00	2279.50	2281.00	2281.00	2282.00	2283.00	2284.00	2284.50	2285.50	2286.50	2287.00	2288.00	2289.00	2289.50	2290.00	2291.00	2291.50	2292.50	2293.00	2294.00	2295.00	2295.00	2296.00	2296.50	2297.00	2298.50	2299.00	2300.00	2300.50	2301.00	2301.50	2303.50	2304.00	2305.00	2306.00	2306.50	2308.00	2308.00	2308.50	2309.00	2310.00	2310.00	2311.00	2311.00	2311.00	2311.00	2311.50	2312.00	2312.00	2312.00	2312.00	2312.00	2312.00	2312.00	2312.00	2312.00	2312.00	2312.00	2312.00	2312.00	2312.00	2312.00	2312.00	2312.00	2312.00	2312.00	2313.00	2313.00	2314.00	2314.00	2314.50	2315.00	2315.00	2315.00	2315.00	2315.00	2315.00	2315.00	2315.00	2315.00	2314.00	2314.00	2313.00	2312.00	2312.00	2311.50	2311.00	2310.00	2308.50	2308.00	2307.00	2305.50	2305.00	2304.00	2303.00	2302.50	2301.00	2301.00	2299.50	2299.00	2298.00	2298.00	2297.50	2297.00	2297.00	2296.00	2296.00	2296.00	2296.00	2296.50	2297.50	2298.00	2299.00	2299.00	2300.00	2301.00	2302.50	2304.00	2305.50	2307.50	2308.50	2310.00	2311.00	2313.50	2314.50	2317.50	2319.00	2320.50	2322.00	2324.50	2326.00	2327.00	2328.50	2329.50	2331.00	2332.50	2333.50	2335.00	2336.50	2337.00	2338.00	2339.50	2340.50	2341.00	2341.00	2341.00	2342.00	2342.00	2342.00	2342.00	2342.00	2341.50	2341.00	2341.00	2340.00	2340.00	2339.50	2339.00	2338.50	2338.00	2337.00	2337.00	2336.00	2335.50	2335.00	2334.50	2334.00	2333.00	2333.00	2332.00	2331.50	2331.00	2330.50	2330.00	2329.50	2329.00	2328.00	2327.50	2327.00	2326.50	2326.00	2325.00	2324.50	2324.00	2324.00	2323.00	2322.50	2322.00	2321.50	2321.00	2321.00	2320.00	2319.50	2319.00	2318.50	2318.00	2317.50	2317.00	2316.00	2315.00	2315.00
2278.00	2278.00	2278.00	2277.00	2277.00	2277.00	2277.00	2276.00	2276.00	2276.00	2276.00	2275.00	2275.00	2275.00	2274.00	2274.00	2273.50	2273.00	2273.00	2272.00	2272.00	2271.50	2271.00	2271.00	2270.50	2270.00	2270.00	2269.00	2269.00	2268.00	2268.00	2267.50	2267.00	2267.00	2267.00	2267.00	2267.00	2267.00	2267.00	2267.00	2267.00	2267.00	2268.00	2268.50	2269.00	2270.00	2270.50	2271.00	2272.00	2273.00	2274.00	2275.00	2276.00	2276.50	2278.00	2279.00	2279.50	2281.00	2281.00	2282.00	2283.00	2284.00	2284.50	2285.50	2286.50	2287.00	2288.00	2289.00	2289.50	2290.00	2291.00	2291.50	2292.50	2293.00	2294.00	2295.00	2295.00	2296.00	2296.50	2297.00	2298.50	2299.00	2300.00	2300.50	2301.00	2301.50	2303.50	2304.00	2305.00	2306.00	2306.50	2308.00	2308.00	2308.50	2309.00	2310.00	2310.00	2311.00	2311.00	2311.00	2311.00	2311.50	2312.00	2312.00	2312.00	2312.00	2312.00	2312.00	2312.00	2312.00	2312.00	2312.00	2312.00	2312.00	2312.00	2312.00	2312.00	2312.00	2312.00	2312.00	2312.00	2313.00	2313.00	2314.00	2314.00	2314.50	2315.00	2315.00	2315.00	2315.00	2315.00	2315.00	2315.00	2315.00	2315.00	2314.00	2314.00	2313.00	2312.00	2312.00	2311.50	2311.00	2310.00	2308.50	2308.00	2307.00	2305.50	2305.00	2304.00	2303.00	2302.50	2301.00	2301.00	2299.50	2299.00	2298.00	2298.00	2297.50	2297.00	2297.00	2296.00	2296.00	2296.00	2296.00	2296.50	2297.50	2298.00	2299.00	2299.00	2300.00	2301.00	2302.50	2304.00	2305.50	2307.50	2308.50	2310.00	2311.00	2313.50	2314.50	2317.50	2319.00	2320.50	2322.00	2324.50	2326.00	2327.00	2328.50	2329.50	2331.00	2332.50	2333.50	2335.00	2336.50	2337.00	2338.00	2339.50	2340.50	2341.00	2341.00	2341.00	2342.00	2342.00	2342.00	2342.00	2342.00	2341.50	2341.00	2341.00	2340.00	2340.00	2339.50	2339.00	2338.50	2338.00	2337.00	2337.00	2336.00	2335.50	2335.00	2334.50	2334.00	2333.00	2333.00	2332.00	2331.50	2331.00	2330.50	2330.00	2329.50	2329.00	2328.00	2327.50	2327.00	2326.50	2326.00	2325.00	2324.50	2324.00	2324.00	2323.00	2322.50	2322.00	2321.50	2321.00	2321.00	2320.00	2319.50	2319.00	2318.50	2318.00	2317.50	2317.00	2316.00	2315.00	2315.00
2278.00	2278.00	2278.00	2277.00	2277.00	2277.00	2277.00	2276.00	2276.00	2276.00	2276.00	2275.00	2275.00	2275.00	2274.00	2274.00	2273.50	2273.00	2273.00	2272.00	2272.00	2271.50	2271.00	2271.00	2270.50	2270.00	2270.00	2269.00	2269.00	2268.00	2268.00	2267.50	2267.00	2267.00	2267.00	2267.00	2267.00	2267.00	2267.00	2267.00	2267.00	2267.00	2268.00	2268.50	2269.00	2270.00	2270.50	2271.00	2272.00	2273.00	2274.00	2275.00	2276.00	2276.50	2278.00	2279.00	2279.50	2281.00	2281.00	2282.00	2283.00	2284.00	2284.50	2285.50	2286.50	2287.00	2288.00	2289.00	2289.50	2290.00	2291.00	2291.50	2292.50	2293.00	2294.00	2295.00	2295.00	2296.00	2296.50	2297.00	2298.50	2299.00	2300.00	2300.50	2301.00	2301.50	2303.50	2304.00	2305.00	2306.00	2306.50	2308.00	2308.00	2308.50	2309.00	2310.00	2310.00	2311.00	2311.00	2311.00	2311.00	2311.50	2312.00	2312.00	2312.00	2312.00	2312.00	2312.00	2312.00	2312.00	2312.00	2312.00	2312.00	2312.00	2312.00	2312.00	2312.00	2312.00	2312.00	2312.00	2312.00	2313.00	2313.00	2314.00	2314.00	2314.50	2315.00	2315.00	2315.00	2315.00	2315.00	2315.00	2315.00	2315.00	2315.00	2314.00	2314.00	2313.00	2312.00	2312.00	2311.50	2311.00	2310.00	2308.50	2308.00	2307.00	2305.50	2305.00	2304.00	2303.00	2302.50	2301.00	2301.00	2299.50	2299.00	2298.00	2298.00	2297.50	2297.00	2297.00	2296.00	2296.00	2296.00	2296.00	2296.50	2297.50	2298.00	2299.00	2299.00	2300.00	2301.00	2302.50	2304.00	2305.50	2307.50	2308.50	2310.00	2311.00	2313.50	2314.50	2317.50	2319.00	2320.50	2322.00	2324.50	2326.00	2327.00	2328.50	2329.50	2331.00	2332.50	2333.50	2335.00	2336.50	2337.00	2338.00	2339.50	2340.50	2341.00	2341.00	2341.00	2342.00	2342.00	2342.00	2342.00	2342.00	2341.50	2341.00	2341.00	2340.00	2340.00	2339.50	2339.00	2338.50	2338.00	2337.00	2337.00	2336.00	2335.50	2335.00	2334.50	2334.00	2333.00	2333.00	2332.00	2331.50	2331.00	2330.50	2330.00	2329.50	2329.00	2328.00	2327.50	2327.00	2326.50	2326.00	2325.00	2324.50	2324.00	2324.00	2323.00	2322.50	2322.00	2321.50	2321.00	2321.00	2320.00	2319.50	2319.00	2318.50	2318.00	2317.50	2317.00	2316.00	2315.00	2315.00
2278.00	2278.00	2278.00	2277.00	2277.00	2277.00	2277.00	2276.00	2276.00	2276.00	2276.00	2275.00	2275.00	2275.00	2274.00	2274.00	2273.50	2273.00	2273.00	2272.00	2272.00	2271.50	2271.00	2271.00	2270.50	2270.00	2270.00	2269.00	2269.00	2268.00	2268.00	2267.50	2267.00	2267.00	2267.00	2267.00	2267.00	2267.00	2267.00	2267.00	2267.00	2267.00	2268.00	2268.50	2269.00	2270.00	2270.50	2271.00	2272.00	2273.00	2274.00	2275.00	2276.00	2276.50	2278.00	2279.00	2279.50	2281.00	2281.00	2282.00	2283.00	2284.00	2284.50	2285.50	2286.50	2287.00	2288.00	2289.00	2289.50	2290.00	2291.00	2291.50	2292.50	2293.00	2294.00	2295.00	2295.00	2296.00	2296.50	2297.00	2298.50	2299.00	2300.00	2300.50	2301.00	2301.50	2303.50	2304.00	2305.00	2306.00	2306.50	2308.00	2308.00	2308.50	2309.00	2310.00	2310.00	2311.00	2311.00	2311.00	2311.00	2311.50	2312.00	2312.00	2312.00	2312.00	2312.00	2312.00	2312.00	2312.00	2312.00	2312.00	2312.00	2312.00	2312.00	2312.00	2312.00	2312.00	2312.00	2312.00	2312.00	2313.00	2313.00	2314.00	2314.00	2314.50	2315.00	2315.00	2315.00	2315.00	2315.00	2315.00	2315.00	2315.00	2315.00	2314.00	2314.00	2313.00	2312.00	2312.00	2311.50	2311.00	2310.00	2308.50	2308.00	2307.00	2305.50	2305.00	2304.00	2303.00	2302.50	2301.00	2301.00	2299.50	2299.00	2298.00	2298.00	2297.50	2297.00	2297.00	2296.00	2296.00	2296.00	2296.00	2296.50	2297.50	2298.00	2299.00	2299.00	2300.00	2301.00	2302.50	2304.00	2305.50	2307.50	2308.50	2310.00	2311.00	2313.50	2314.50	2317.50	2319.00	2320.50	2322.00	2324.50	2326.00	2327.00	2328.50	2329.50	2331.00	2332.50	2333.50	2335.00	2336.50	2337.00	2338.00	2339.50	2340.50	2341.00	2341.00	2341.00	2342.00	2342.00	2342.00	2342.00	2342.00	2341.50	2341.00	2341.00	2340.00	2340.00	2339.50	2339.00	2338.50	2338.00	2337.00	2337.00	2336.00	2335.50	2335.00	2334.50	2334.00	2333.00	2333.00	2332.00	2331.50	2331.00	2330.50	2330.00	2329.50	2329.00	2328.00	2327.50	2327.00	2326.50	2326.00	2325.00	2324.50	2324.00	2324.00	2323.00	2322.50	2322.00	2321.50	2321.00	2321.00	2320.00	2319.50	2319.00	2318.50	2318.00	2317.50	2317.00	2316.00	2315.00	2315.00
2278.00	2278.00	2278.00	2277.00	2277.00	2277.00	2277.00	2276.00	2276.00	2276.00	2276.00	2275.00	2275.00	2275.00	2274.00	2274.00	2273.50	2273.00	2273.00	2272.00	2272.00	2271.50	2271.00	2271.00	2270.50	2270.00	2270.00	2269.00	2269.00	2268.00	2268.00	2267.50	2267.00	2267.00	2267.00	2267.00	2267.00	2267.00	2267.00	2267.00	2267.00	2267.00	2268.00	2268.50	2269.00	2270.00	2270.50	2271.00	2272.00	2273.00	2274.00	2275.00	2276.00	2276.50	2278.00	2279.00	2279.50	2281.00	2281.00	2282.00	2283.00	2284.00	2284.50	2285.50	2286.50	2287.00	2288.00	2289.00	2289.50	2290.00	2291.00	2291.50	2292.50	2293.00	2294.00	2295.00	2295.00	2296.00	2296.50	2297.00	2298.50	2299.00	2300.00	2300.50	2301.00	2301.50	2303.50	2304.00	2305.00	2306.00	2306.50	2308.00	2308.00	2308.50	2309.00	2310.00	2310.00	2311.00	2311.00	2311.00	2311.00	2311.50	2312.00	2312.00	2312.00	2312.00	2312.00	2312.00	2312.00	2312.00	2312.00	2312.00	2312.00	2312.00	2312.00	2312.00	2312.00	2312.00	2312.00	2312.00	2312.00	2313.00	2313.00	2314.00	2314.00	2314.50	2315.00	2315.00	2315.00	2315.00	2315.00	2315.00	2315.00	2315.00	2315.00	2314.00	2314.00	2313.00	2312.00	2312.00	2311.50	2311.00	2310.00	2308.50	2308.00	2307.00	2305.50	2305.00	2304.00	2303.00	2302.50	2301.00	2301.00	2299.50	2299.00	2298.00	2298.00	2297.50	2297.00	2297.00	2296.00	2296.00	2296.00	2296.00	2296.50	2297.50	2298.00	2299.00	2299.00	2300.00	2301.00	2302.50	2304.00	2305.50	2307.50	2308.50	2310.00	2311.00	2313.50	2314.50	2317.50	2319.00	2320.50	2322.00	2324.50	2326.00	2327.00	2328.50	2329.50	2331.00	2332.50	2333.50	2335.00	2336.50	2337.00	2338.00	2339.50	2340.50	2341.00	2341.00	2341.00	2342.00	2342.00	2342.00	2342.00	2342.00	2341.50	2341.00	2341.00	2340.00	2340.00	2339.50	2339.00	2338.50	2338.00	2337.00	2337.00	2336.00	2335.50	2335.00	2334.50	2334.00	2333.00	2333.00	2332.00	2331.50	2331.00	2330.50	2330.00	2329.50	2329.00	2328.00	2327.50	2327.00	2326.50	2326.00	2325.00	2324.50	2324.00	2324.00	2323.00	2322.50	2322.00	2321.50	2321.00	2321.00	2320.00	2319.50	2319.00	2318.50	2318.00	2317.50	2317.00	2316.00	2315.00	2315.00
2278.00	2278.00	2278.00	2277.00	2277.00	2277.00	2276.75	2276.00	2276.00	2276.00	2275.50	2275.00	2275.00	2274.50	2274.00	2274.00	2273.50	2273.00	2273.00	2272.00	2272.00	2271.50	2271.00	2270.50	2270.25	2269.75	2269.50	2268.75	2268.50	2268.00	2267.75	2267.25	2267.00	2266.50	2266.50	2266.50	2266.50	2266.50	2266.50	2266.50	2266.50	2267.00	2267.50	2268.25	2269.00	2269.50	2270.00	2270.50	2271.50	2272.25	2273.50	2274.00	2275.25	2275.75	2277.00	2278.25	2278.75	2280.00	2280.50	2281.50	2282.50	2283.25	2284.00	2284.75	2286.00	2286.75	2288.00	2288.50	2289.50	2290.25	2291.25	2292.00	2292.75	2293.50	2294.50	2295.50	2296.00	2296.75	2297.50	2298.00	2299.50	2300.00	2301.00	2301.75	2302.25	2303.00	2304.50	2305.25	2306.00	2307.00	2307.75	2308.50	2309.00	2309.25	2309.75	2310.50	2310.75	2311.50	2311.50	2311.50	2311.50	2311.50	2311.50	2311.50	2311.50	2311.50	2311.50	2311.00	2311.00	2311.00	2311.00	2310.50	2310.50	2310.50	2311.00	2311.00	2311.00	2311.25	2311.50	2311.50	2311.50	2312.50	2313.00	2313.50	2314.00	2314.25	2315.00	2315.00	2315.00	2315.00	2315.25	2315.50	2315.50	2315.50	2315.50	2314.50	2314.50	2313.75	2313.00	2312.75	2312.25	2311.75	2311.00	2309.75	2309.00	2308.50	2307.00	2306.50	2305.75	2304.75	2304.25	2303.50	2303.00	2302.00	2301.50	2300.50	2300.50	2300.50	2300.50	2300.50	2300.00	2300.00	2300.25	2300.50	2301.00	2302.00	2302.75	2303.50	2304.00	2304.75	2306.00	2308.00	2309.25	2310.75	2313.00	2314.25	2316.00	2317.00	2319.00	2320.00	2322.75	2324.25	2325.50	2327.00	2329.00	2330.00	2331.00	2332.50	2333.25	2334.50	2335.75	2336.50	2337.50	2338.50	2339.00	2339.50	2340.50	2341.25	2341.50	2341.50	2341.00	2341.50	2341.50	2341.25	2341.00	2341.00	2340.25	2339.50	2339.50	2338.25	2338.00	2337.50	2336.75	2336.25	2335.50	2335.00	2334.75	2334.00	2333.50	2333.00	2332.75	2332.00	2331.25	2331.00	2330.50	2329.75	2329.25	2328.75	2328.25	2327.75	2327.50	2326.50	2326.25	2325.50	2325.25	2324.75	2324.00	2323.75	2323.25	2323.00	2322.25	2321.75	2321.50	2321.00	2320.50	2320.50	2320.00	2319.25	2319.00	2318.75	2318.25	2317.75	2317.50	2317.00	2316.00	2316.00
2278.00	2278.00	2278.00	2277.00	2277.00	2277.00	2276.50	2276.00	2276.00	2276.00	2275.00	2275.00	2275.00	2274.00	2274.00	2274.00	2273.50	2273.00	2273.00	2272.00	2272.00	2271.50	2271.00	2270.00	2270.00	2269.50	2269.00	2268.50	2268.00	2268.00	2267.50	2267.00	2267.00	2266.00	2266.00	2266.00	2266.00	2266.00	2266.00	2266.00	2266.00	2267.00	2267.00	2268.00	2269.00	2269.00	2269.50	2270.00	2271.00	2271.50	2273.00	2273.00	2274.50	2275.00	2276.00	2277.50	2278.00	2279.00	2280.00	2281.00	2282.00	2282.50	2283.50	2284.00	2285.50	2286.50	2288.00	2288.00	2289.50	2290.50	2291.50	2292.50	2293.00	2294.00	2295.00	2296.00	2297.00	2297.50	2298.50	2299.00	2300.50	2301.00	2302.00	2303.00	2303.50	2304.50	2305.50	2306.50	2307.00	2308.00	2309.00	2309.00	2310.00	2310.00	2310.50	2311.00	2311.50	2312.00	2312.00	2312.00	2312.00	2311.50	2311.00	2311.00	2311.00	2311.00	2311.00	2310.00	2310.00	2310.00	2310.00	2309.00	2309.00	2309.00	2310.00	2310.00	2310.00	2310.50	2311.00	2311.00	2311.00	2312.00	2313.00	2313.00	2314.00	2314.00	2315.00	2315.00	2315.00	2315.00	2315.50	2316.00	2316.00	2316.00	2316.00	2315.00	2315.00	2314.50	2314.00	2313.50	2313.00	2312.50	2312.00	2311.00	2310.00	2310.00	2308.50	2308.00	2307.50	2306.50	2306.00	2306.00	2305.00	2304.50	2304.00	2303.00	2303.00	2303.50	2304.00	2304.00	2304.00	2304.00	2304.50	2305.00	2305.50	2306.50	2307.50	2308.00	2309.00	2309.50	2311.00	2313.50	2314.50	2316.00	2318.50	2320.00	2322.00	2323.00	2324.50	2325.50	2328.00	2329.50	2330.50	2332.00	2333.50	2334.00	2335.00	2336.50	2337.00	2338.00	2339.00	2339.50	2340.00	2340.50	2341.00	2341.00	2341.50	2342.00	2342.00	2342.00	2341.00	2341.00	2341.00	2340.50	2340.00	2340.00	2339.00	2338.00	2338.00	2336.50	2336.00	2335.50	2334.50	2334.00	2333.00	2333.00	2332.50	2332.00	2331.50	2331.00	2331.00	2330.00	2329.50	2329.00	2329.00	2328.00	2327.50	2327.00	2326.50	2326.00	2326.00	2325.00	2325.00	2324.00	2324.00	2323.50	2323.00	2323.00	2322.50	2322.00	2321.50	2321.00	2321.00	2320.50	2320.00	2320.00	2320.00	2319.00	2319.00	2319.00	2318.50	2318.00	2318.00	2318.00	2317.00	2317.00
2278.00	2278.00	2278.00	2277.00	2277.00	2277.00	2276.50	2276.00	2276.00	2276.00	2275.00	2275.00	2275.00	2274.00	2274.00	2274.00	2273.50	2273.00	2273.00	2272.00	2272.00	2271.50	2271.00	2270.00	2270.00	2269.50	2269.00	2268.50	2268.00	2268.00	2267.50	2267.00	2267.00	2266.00	2266.00	2266.00	2266.00	2266.00	2266.00	2266.00	2266.00	2267.00	2267.00	2268.00	2269.00	2269.00	2269.50	2270.00	2271.00	2271.50	2273.00	2273.00	2274.50	2275.00	2276.00	2277.50	2278.00	2279.00	2280.00	2281.00	2282.00	2282.50	2283.50	2284.00	2285.50	2286.50	2288.00	2288.00	2289.50	2290.50	2291.50	2292.50	2293.00	2294.00	2295.00	2296.00	2297.00	2297.50	2298.50	2299.00	2300.50	2301.00	2302.00	2303.00	2303.50	2304.50	2305.50	2306.50	2307.00	2308.00	2309.00	2309.00	2310.00	2310.00	2310.50	2311.00	2311.50	2312.00	2312.00	2312.00	2312.00	2311.50	2311.00	2311.00	2311.00	2311.00	2311.00	2310.00	2310.00	2310.00	2310.00	2309.00	2309.00	2309.00	2310.00	2310.00	2310.00	2310.50	2311.00	2311.00	2311.00	2312.00	2313.00	2313.00	2314.00	2314.00	2315.00	2315.00	2315.00	2315.00	2315.50	2316.00	2316.00	2316.00	2316.00	2315.00	2315.00	2314.50	2314.00	2313.50	2313.00	2312.50	2312.00	2311.00	2310.00	2310.00	2308.50	2308.00	2307.50	2306.50	2306.00	2306.00	2305.00	2304.50	2304.00	2303.00	2303.00	2303.50	2304.00	2304.00	2304.00	2304.00	2304.50	2305.00	2305.50	2306.50	2307.50	2308.00	2309.00	2309.50	2311.00	2313.50	2314.50	2316.00	2318.50	2320.00	2322.00	2323.00	2324.50	2325.50	2328.00	2329.50	2330.50	2332.00	2333.50	2334.00	2335.00	2336.50	2337.00	2338.00	2339.00	2339.50	2340.00	2340.50	2341.00	2341.00	2341.50	2342.00	2342.00	2342.00	2341.00	2341.00	2341.00	2340.50	2340.00	2340.00	2339.00	2338.00	2338.00	2336.50	2336.00	2335.50	2334.50	2334.00	2333.00	2333.00	2332.50	2332.00	2331.50	2331.00	2331.00	2330.00	2329.50	2329.00	2329.00	2328.00	2327.50	2327.00	2326.50	2326.00	2326.00	2325.00	2325.00	2324.00	2324.00	2323.50	2323.00	2323.00	2322.50	2322.00	2321.50	2321.00	2321.00	2320.50	2320.00	2320.00	2320.00	2319.00	2319.00	2319.00	2318.50	2318.00	2318.00	2318.00	2317.00	2317.00
2278.00	2278.00	2278.00	2277.00	2277.00	2277.00	2276.50	2276.00	2276.00	2276.00	2275.00	2275.00	2275.00	2274.00	2274.00	2274.00	2273.50	2273.00	2273.00	2272.00	2272.00	2271.50	2271.00	2270.00	2270.00	2269.50	2269.00	2268.50	2268.00	2268.00	2267.50	2267.00	2267.00	2266.00	2266.00	2266.00	2266.00	2266.00	2266.00	2266.00	2266.00	2267.00	2267.00	2268.00	2269.00	2269.00	2269.50	2270.00	2271.00	2271.50	2273.00	2273.00	2274.50	2275.00	2276.00	2277.50	2278.00	2279.00	2280.00	2281.00	2282.00	2282.50	2283.50	2284.00	2285.50	2286.50	2288.00	2288.00	2289.50	2290.50	2291.50	2292.50	2293.00	2294.00	2295.00	2296.00	2297.00	2297.50	2298.50	2299.00	2300.50	2301.00	2302.00	2303.00	2303.50	2304.50	2305.50	2306.50	2307.00	2308.00	2309.00	2309.00	2310.00	2310.00	2310.50	2311.00	2311.50	2312.00	2312.00	2312.00	2312.00	2311.50	2311.00	2311.00	2311.00	2311.00	2311.00	2310.00	2310.00	2310.00	2310.00	2309.00	2309.00	2309.00	2310.00	2310.00	2310.00	2310.50	2311.00	2311.00	2311.00	2312.00	2313.00	2313.00	2314.00	2314.00	2315.00	2315.00	2315.00	2315.00	2315.50	2316.00	2316.00	2316.00	2316.00	2315.00	2315.00	2314.50	2314.00	2313.50	2313.00	2312.50	2312.00	2311.00	2310.00	2310.00	2308.50	2308.00	2307.50	2306.50	2306.00	2306.00	2305.00	2304.50	2304.00	2303.00	2303.00	2303.50	2304.00	2304.00	2304.00	2304.00	2304.50	2305.00	2305.50	2306.50	2307.50	2308.00	2309.00	2309.50	2311.00	2313.50	2314.50	2316.00	2318.50	2320.00	2322.00	2323.00	2324.50	2325.50	2328.00	2329.50	2330.50	2332.00	2333.50	2334.00	2335.00	2336.50	2337.00	2338.00	2339.00	2339.50	2340.00	2340.50	2341.00	2341.00	2341.50	2342.00	2342.00	2342.00	2341.00	2341.00	2341.00	2340.50	2340.00	2340.00	2339.00	2338.00	2338.00	2336.50	2336.00	2335.50	2334.50	2334.00	2333.00	2333.00	2332.50	2332.00	2331.50	2331.00	2331.00	2330.00	2329.50	2329.00	2329.00	2328.00	2327.50	2327.00	2326.50	2326.00	2326.00	2325.00	2325.00	2324.00	2324.00	2323.50	2323.00	2323.00	2322.50	2322.00	2321.50	2321.00	2321.00	2320.50	2320.00	2320.00	2320.00	2319.00	2319.00	2319.00	2318.50	2318.00	2318.00	2318.00	2317.00	2317.00
2278.00	2278.00	2278.00	2277.00	2277.00	2277.00	2276.50	2276.00	2276.00	2276.00	2275.00	2275.00	2275.00	2274.00	2274.00	2274.00	2273.50	2273.00	2273.00	2272.00	2272.00	2271.50	2271.00	2270.00	2270.00	2269.50	2269.00	2268.50	2268.00	2268.00	2267.50	2267.00	2267.00	2266.00	2266.00	2266.00	2266.00	2266.00	2266.00	2266.00	2266.00	2267.00	2267.00	2268.00	2269.00	2269.00	2269.50	2270.00	2271.00	2271.50	2273.00	2273.00	2274.50	2275.00	2276.00	2277.50	2278.00	2279.00	2280.00	2281.00	2282.00	2282.50	2283.50	2284.00	2285.50	2286.50	2288.00	2288.00	2289.50	2290.50	2291.50	2292.50	2293.00	2294.00	2295.00	2296.00	2297.00	2297.50	2298.50	2299.00	2300.50	2301.00	2302.00	2303.00	2303.50	2304.50	2305.50	2306.50	2307.00	2308.00	2309.00	2309.00	2310.00	2310.00	2310.50	2311.00	2311.50	2312.00	2312.00	2312.00	2312.00	2311.50	2311.00	2311.00	2311.00	2311.00	2311.00	2310.00	2310.00	2310.00	2310.00	2309.00	2309.00	2309.00	2310.00	2310.00	2310.00	2310.50	2311.00	2311.00	2311.00	2312.00	2313.00	2313.00	2314.00	2314.00	2315.00	2315.00	2315.00	2315.00	2315.50	2316.00	2316.00	2316.00	2316.00	2315.00	2315.00	2314.50	2314.00	2313.50	2313.00	2312.50	2312.00	2311.00	2310.00	2310.00	2308.50	2308.00	2307.50	2306.50	2306.00	2306.00	2305.00	2304.50	2304.00	2303.00	2303.00	2303.50	2304.00	2304.00	2304.00	2304.00	2304.50	2305.00	2305.50	2306.50	2307.50	2308.00	2309.00	2309.50	2311.00	2313.50	2314.50	2316.00	2318.50	2320.00	2322.00	2323.00	2324.50	2325.50	2328.00	2329.50	2330.50	2332.00	2333.50	2334.00	2335.00	2336.50	2337.00	2338.00	2339.00	2339.50	2340.00	2340.50	2341.00	2341.00	2341.50	2342.00	2342.00	2342.00	2341.00	2341.00	2341.00	2340.50	2340.00	2340.00	2339.00	2338.00	2338.00	2336.50	2336.00	2335.50	2334.50	2334.00	2333.00	2333.00	2332.50	2332.00	2331.50	2331.00	2331.00	2330.00	2329.50	2329.00	2329.00	2328.00	2327.50	2327.00	2326.50	2326.00	2326.00	2325.00	2325.00	2324.00	2324.00	2323.50	2323.00	2323.00	2322.50	2322.00	2321.50	2321.00	2321.00	2320.50	2320.00	2320.00	2320.00	2319.00	2319.00	2319.00	2318.50	2318.00	2318.00	2318.00	2317.00	2317.00
2278.00	2278.00	2278.00	2277.00	2277.00	2277.00	2276.50	2276.00	2276.00	2276.00	2275.00	2275.00	2275.00	2274.00	2274.00	2274.00	2273.50	2273.00	2273.00	2272.00	2272.00	2271.50	2271.00	2270.00	2270.00	2269.50	2269.00	2268.50	2268.00	2268.00	2267.50	2267.00	2267.00	2266.00	2266.00	2266.00	2266.00	2266.00	2266.00	2266.00	2266.00	2267.00	2267.00	2268.00	2269.00	2269.00	2269.50	2270.00	2271.00	2271.50	2273.00	2273.00	2274.50	2275.00	2276.00	2277.50	2278.00	2279.00	2280.00	2281.00	2282.00	2282.50	2283.50	2284.00	2285.50	2286.50	2288.00	2288.00	2289.50	2290.50	2291.50	2292.50	2293.00	2294.00	2295.00	2296.00	2297.00	2297.50	2298.50	2299.00	2300.50	2301.00	2302.00	2303.00	2303.50	2304.50	2305.50	2306.50	2307.00	2308.00	2309.00	2309.00	2310.00	2310.00	2310.50	2311.00	2311.50	2312.00	2312.00	2312.00	2312.00	2311.50	2311.00	2311.00	2311.00	2311.00	2311.00	2310.00	2310.00	2310.00	2310.00	2309.00	2309.00	2309.00	2310.00	2310.00	2310.00	2310.50	2311.00	2311.00	2311.00	2312.00	2313.00	2313.00	2314.00	2314.00	2315.00	2315.00	2315.00	2315.00	2315.50	2316.00	2316.00	2316.00	2316.00	2315.00	2315.00	2314.50	2314.00	2313.50	2313.00	2312.50	2312.00	2311.00	2310.00	2310.00	2308.50	2308.00	2307.50	2306.50	2306.00	2306.00	2305.00	2304.50	2304.00	2303.00	2303.00	2303.50	2304.00	2304.00	2304.00	2304.00	2304.50	2305.00	2305.50	2306.50	2307.50	2308.00	2309.00	2309.50	2311.00	2313.50	2314.50	2316.00	2318.50	2320.00	2322.00	2323.00	2324.50	2325.50	2328.00	2329.50	2330.50	2332.00	2333.50	2334.00	2335.00	2336.50	2337.00	2338.00	2339.00	2339.50	2340.00	2340.50	2341.00	2341.00	2341.50	2342.00	2342.00	2342.00	2341.00	2341.00	2341.00	2340.50	2340.00	2340.00	2339.00	2338.00	2338.00	2336.50	2336.00	2335.50	2334.50	2334.00	2333.00	2333.00	2332.50	2332.00	2331.50	2331.00	2331.00	2330.00	2329.50	2329.00	2329.00	2328.00	2327.50	2327.00	2326.50	2326.00	2326.00	2325.00	2325.00	2324.00	2324.00	2323.50	2323.00	2323.00	2322.50	2322.00	2321.50	2321.00	2321.00	2320.50	2320.00	2320.00	2320.00	2319.00	2319.00	2319.00	2318.50	2318.00	2318.00	2318.00	2317.00	2317.00
2278.00	2278.00	2278.00	2277.00	2277.00	2277.00	2276.50	2276.00	2276.00	2276.00	2275.00	2275.00	2275.00	2274.00	2274.00	2274.00	2273.50	2273.00	2273.00	2272.00	2272.00	2271.50	2271.00	2270.00	2270.00	2269.50	2269.00	2268.50	2268.00	2268.00	2267.50	2267.00	2267.00	2266.00	2266.00	2266.00	2266.00	2266.00	2266.00	2266.00	2266.00	2267.00	2267.00	2268.00	2269.00	2269.00	2269.50	2270.00	2271.00	2271.50	2273.00	2273.00	2274.50	2275.00	2276.00	2277.50	2278.00	2279.00	2280.00	2281.00	2282.00	2282.50	2283.50	2284.00	2285.50	2286.50	2288.00	2288.00	2289.50	2290.50	2291.50	2292.50	2293.00	2294.00	2295.00	2296.00	2297.00	2297.50	2298.50	2299.00	2300.50	2301.00	2302.00	2303.00	2303.50	2304.50	2305.50	2306.50	2307.00	2308.00	2309.00	2309.00	2310.00	2310.00	2310.50	2311.00	2311.50	2312.00	2312.00	2312.00	2312.00	2311.50	2311.00	2311.00	2311.00	2311.00	2311.00	2310.00	2310.00	2310.00	2310.00	2309.00	2309.00	2309.00	2310.00	2310.00	2310.00	2310.50	2311.00	2311.00	2311.00	2312.00	2313.00	2313.00	2314.00	2314.00	2315.00	2315.00	2315.00	2315.00	2315.50	2316.00	2316.00	2316.00	2316.00	2315.00	2315.00	2314.50	2314.00	2313.50	2313.00	2312.50	2312.00	2311.00	2310.00	2310.00	2308.50	2308.00	2307.50	2306.50	2306.00	2306.00	2305.00	2304.50	2304.00	2303.00	2303.00	2303.50	2304.00	2304.00	2304.00	2304.00	2304.50	2305.00	2305.50	2306.50	2307.50	2308.00	2309.00	2309.50	2311.00	2313.50	2314.50	2316.00	2318.50	2320.00	2322.00	2323.00	2324.50	2325.50	2328.00	2329.50	2330.50	2332.00	2333.50	2334.00	2335.00	2336.50	2337.00	2338.00	2339.00	2339.50	2340.00	2340.50	2341.00	2341.00	2341.50	2342.00	2342.00	2342.00	2341.00	2341.00	2341.00	2340.50	2340.00	2340.00	2339.00	2338.00	2338.00	2336.50	2336.00	2335.50	2334.50	2334.00	2333.00	2333.00	2332.50	2332.00	2331.50	2331.00	2331.00	2330.00	2329.50	2329.00	2329.00	2328.00	2327.50	2327.00	2326.50	2326.00	2326.00	2325.00	2325.00	2324.00	2324.00	2323.50	2323.00	2323.00	2322.50	2322.00	2321.50	2321.00	2321.00	2320.50	2320.00	2320.00	2320.00	2319.00	2319.00	2319.00	2318.50	2318.00	2318.00	2318.00	2317.00	2317.00
2278.00	2277.50	2277.00	2277.00	2277.00	2277.00	2276.50	2276.00	2276.00	2276.00	2275.00	2275.00	2275.00	2274.00	2274.00	2274.00	2274.00	2273.00	2273.00	2273.00	2272.00	2272.00	2271.50	2271.00	2270.50	2270.00	2270.00	2269.00	2269.00	2269.00	2268.50	2268.00	2268.00	2268.00	2268.00	2268.00	2268.00	2268.00	2268.00	2268.00	2268.00	2268.00	2268.00	2268.00	2268.00	2268.50	2269.00	2269.00	2269.00	2270.00	2271.00	2271.00	2272.00	2272.50	2273.50	2274.00	2274.50	2276.00	2276.00	2278.00	2278.00	2279.50	2280.50	2281.00	2282.50	2283.50	2285.00	2286.00	2287.00	2287.50	2289.50	2290.50	2291.50	2293.00	2293.50	2295.00	2296.00	2297.50	2298.50	2300.00	2300.50	2301.50	2303.00	2304.50	2305.00	2305.50	2307.00	2307.50	2309.00	2310.00	2310.50	2311.00	2311.50	2312.00	2312.00	2312.00	2312.50	2313.00	2313.00	2312.50	2312.00	2312.00	2312.00	2311.50	2311.00	2311.00	2310.50	2310.00	2309.50	2309.00	2309.00	2308.00	2308.00	2309.00	2309.00	2310.00	2310.50	2311.50	2312.00	2312.50	2313.00	2314.00	2315.00	2315.00	2315.50	2316.00	2317.00	2317.00	2317.50	2318.00	2319.00	2319.00	2319.50	2320.00	2320.00	2319.00	2319.00	2318.50	2318.00	2317.50	2317.00	2317.00	2316.00	2315.50	2315.00	2314.00	2313.50	2313.00	2312.50	2312.00	2312.00	2312.00	2312.00	2311.50	2311.00	2311.00	2311.00	2311.50	2312.00	2312.50	2313.00	2313.00	2313.50	2314.50	2315.50	2316.50	2317.50	2319.00	2319.00	2320.50	2322.00	2324.00	2325.50	2326.50	2328.50	2330.00	2332.00	2333.00	2334.00	2334.50	2336.50	2337.50	2338.00	2339.00	2340.00	2340.00	2341.00	2341.00	2341.50	2342.00	2342.00	2342.00	2342.00	2342.00	2342.00	2341.50	2341.00	2341.00	2341.00	2340.00	2339.50	2339.00	2338.00	2337.50	2337.00	2336.00	2335.50	2335.00	2334.00	2333.00	2332.50	2331.50	2330.50	2330.00	2329.00	2329.00	2328.50	2328.00	2327.50	2327.00	2326.50	2326.00	2325.50	2325.00	2325.00	2324.00	2324.00	2323.00	2323.00	2323.00	2323.00	2322.00	2322.00	2322.00	2322.00	2322.00	2321.00	2321.00	2321.00	2321.00	2321.00	2321.00	2321.00	2321.00	2321.00	2321.00	2321.00	2320.00	2320.00	2320.50	2321.00	2321.00	2321.00	2321.00	2322.00	2322.00
2278.00	2277.50	2277.00	2277.00	2277.00	2277.00	2276.50	2276.00	2276.00	2276.00	2275.00	2275.00	2275.00	2274.00	2274.00	2274.00	2274.00	2273.00	2273.00	2273.00	2272.00	2272.00	2271.50	2271.00	2270.50	2270.00	2270.00	2269.00	2269.00	2269.00	2268.50	2268.00	2268.00	2268.00	2268.00	2268.00	2268.00	2268.00	2268.00	2268.00	2268.00	2268.00	2268.00	2268.00	2268.00	2268.50	2269.00	2269.00	2269.00	2270.00	2271.00	2271.00	2272.00	2272.50	2273.50	2274.00	2274.50	2276.00	2276.00	2278.00	2278.00	2279.50	2280.50	2281.00	2282.50	2283.50	2285.00	2286.00	2287.00	2287.50	2289.50	2290.50	2291.50	2293.00	2293.50	2295.00	2296.00	2297.50	2298.50	2300.00	2300.50	2301.50	2303.00	2304.50	2305.00	2305.50	2307.00	2307.50	2309.00	2310.00	2310.50	2311.00	2311.50	2312.00	2312.00	2312.00	2312.50	2313.00	2313.00	2312.50	2312.00	2312.00	2312.00	2311.50	2311.00	2311.00	2310.50	2310.00	2309.50	2309.00	2309.00	2308.00	2308.00	2309.00	2309.00	2310.00	2310.50	2311.50	2312.00	2312.50	2313.00	2314.00	2315.00	2315.00	2315.50	2316.00	2317.00	2317.00	2317.50	2318.00	2319.00	2319.00	2319.50	2320.00	2320.00	2319.00	2319.00	2318.50	2318.00	2317.50	2317.00	2317.00	2316.00	2315.50	2315.00	2314.00	2313.50	2313.00	2312.50	2312.00	2312.00	2312.00	2312.00	2311.50	2311.00	2311.00	2311.00	2311.50	2312.00	2312.50	2313.00	2313.00	2313.50	2314.50	2315.50	2316.50	2317.50	2319.00	2319.00	2320.50	2322.00	2324.00	2325.50	2326.50	2328.50	2330.00	2332.00	2333.00	2334.00	2334.50	2336.50	2337.50	2338.00	2339.00	2340.00	2340.00	2341.00	2341.00	2341.50	2342.00	2342.00	2342.00	2342.00	2342.00	2342.00	2341.50	2341.00	2341.00	2341.00	2340.00	2339.50	2339.00	2338.00	2337.50	2337.00	2336.00	2335.50	2335.00	2334.00	2333.00	2332.50	2331.50	2330.50	2330.00	2329.00	2329.00	2328.50	2328.00	2327.50	2327.00	2326.50	2326.00	2325.50	2325.00	2325.00	2324.00	2324.00	2323.00	2323.00	2323.00	2323.00	2322.00	2322.00	2322.00	2322.00	2322.00	2321.00	2321.00	2321.00	2321.00	2321.00	2321.00	2321.00	2321.00	2321.00	2321.00	2321.00	2320.00	2320.00	2320.50	2321.00	2321.00	2321.00	2321.00	2322.00	2322.00
2278.00	2277.50	2277.00	2277.00	2277.00	2277.00	2276.50	2276.00	2276.00	2276.00	2275.00	2275.00	2275.00	2274.00	2274.00	2274.00	2274.00	2273.00	2273.00	2273.00	2272.00	2272.00	2271.50	2271.00	2270.50	2270.00	2270.00	2269.00	2269.00	2269.00	2268.50	2268.00	2268.00	2268.00	2268.00	2268.00	2268.00	2268.00	2268.00	2268.00	2268.00	2268.00	2268.00	2268.00	2268.00	2268.50	2269.00	2269.00	2269.00	2270.00	2271.00	2271.00	2272.00	2272.50	2273.50	2274.00	2274.50	2276.00	2276.00	2278.00	2278.00	2279.50	2280.50	2281.00	2282.50	2283.50	2285.00	2286.00	2287.00	2287.50	2289.50	2290.50	2291.50	2293.00	2293.50	2295.00	2296.00	2297.50	2298.50	2300.00	2300.50	2301.50	2303.00	2304.50	2305.00	2305.50	2307.00	2307.50	2309.00	2310.00	2310.50	2311.00	2311.50	2312.00	2312.00	2312.00	2312.50	2313.00	2313.00	2312.50	2312.00	2312.00	2312.00	2311.50	2311.00	2311.00	2310.50	2310.00	2309.50	2309.00	2309.00	2308.00	2308.00	2309.00	2309.00	2310.00	2310.50	2311.50	2312.00	2312.50	2313.00	2314.00	2315.00	2315.00	2315.50	2316.00	2317.00	2317.00	2317.50	2318.00	2319.00	2319.00	2319.50	2320.00	2320.00	2319.00	2319.00	2318.50	2318.00	2317.50	2317.00	2317.00	2316.00	2315.50	2315.00	2314.00	2313.50	2313.00	2312.50	2312.00	2312.00	2312.00	2312.00	2311.50	2311.00	2311.00	2311.00	2311.50	2312.00	2312.50	2313.00	2313.00	2313.50	2314.50	2315.50	2316.50	2317.50	2319.00	2319.00	2320.50	2322.00	2324.00	2325.50	2326.50	2328.50	2330.00	2332.00	2333.00	2334.00	2334.50	2336.50	2337.50	2338.00	2339.00	2340.00	2340.00	2341.00	2341.00	2341.50	2342.00	2342.00	2342.00	2342.00	2342.00	2342.00	2341.50	2341.00	2341.00	2341.00	2340.00	2339.50	2339.00	2338.00	2337.50	2337.00	2336.00	2335.50	2335.00	2334.00	2333.00	2332.50	2331.50	2330.50	2330.00	2329.00	2329.00	2328.50	2328.00	2327.50	2327.00	2326.50	2326.00	2325.50	2325.00	2325.00	2324.00	2324.00	2323.00	2323.00	2323.00	2323.00	2322.00	2322.00	2322.00	2322.00	2322.00	2321.00	2321.00	2321.00	2321.00	2321.00	2321.00	2321.00	2321.00	2321.00	2321.00	2321.00	2320.00	2320.00	2320.50	2321.00	2321.00	2321.00	2321.00	2322.00	2322.00
2277.50	2277.25	2277.00	2277.00	2277.00	2276.50	2276.25	2276.00	2276.00	2275.75	2275.00	2275.00	2275.00	2274.50	2274.00	2274.00	2274.00	2273.25	2273.00	2273.00	2272.50	2272.50	2272.00	2271.50	2271.25	2271.00	2271.00	2270.25	2270.00	2270.00	2269.75	2269.50	2269.50	2269.50	2269.25	2269.00	2269.00	2269.00	2269.00	2269.00	2269.00	2269.00	2268.50	2268.50	2268.50	2268.75	2268.75	2268.75	2269.00	2270.00	2271.00	2271.50	2272.25	2272.75	2273.50	2274.25	2274.75	2275.50	2276.00	2277.00	2277.00	2278.25	2279.00	2279.75	2281.50	2282.50	2283.50	2284.50	2285.75	2286.50	2288.50	2289.50	2290.50	2292.00	2293.00	2294.50	2296.00	2297.50	2298.50	2300.00	2301.00	2302.00	2303.50	2305.00	2305.50	2306.00	2307.75	2308.25	2309.50	2310.50	2311.25	2311.50	2312.25	2312.50	2312.75	2313.00	2313.25	2314.00	2314.00	2313.25	2313.00	2312.75	2312.50	2312.25	2312.00	2312.00	2311.25	2311.00	2310.50	2310.00	2310.00	2309.50	2309.25	2310.50	2310.50	2311.50	2312.00	2313.00	2313.50	2314.00	2314.50	2315.00	2316.00	2316.00	2316.75	2317.00	2318.00	2318.25	2318.75	2319.50	2320.25	2320.75	2321.25	2322.00	2322.00	2321.50	2321.00	2320.75	2320.50	2320.00	2319.50	2319.50	2319.00	2318.25	2317.50	2317.00	2316.50	2316.00	2315.75	2315.50	2315.50	2315.50	2315.50	2315.25	2315.00	2315.25	2315.50	2315.75	2316.50	2316.75	2317.50	2317.50	2318.00	2319.00	2320.00	2321.00	2322.00	2323.50	2323.50	2325.00	2326.50	2328.00	2329.00	2330.00	2332.00	2333.00	2334.50	2335.50	2336.25	2336.75	2338.25	2339.00	2339.50	2340.50	2341.00	2341.00	2341.50	2341.50	2341.75	2342.00	2342.00	2342.00	2341.50	2341.25	2341.00	2340.50	2339.75	2339.25	2339.00	2338.00	2337.50	2337.00	2335.75	2335.25	2334.75	2334.00	2333.00	2332.50	2331.50	2330.50	2330.00	2329.00	2328.00	2327.50	2327.00	2326.50	2326.25	2325.50	2325.25	2324.75	2324.25	2324.00	2323.50	2323.00	2323.00	2322.50	2322.25	2321.50	2321.50	2321.50	2321.50	2321.00	2321.00	2321.00	2321.25	2321.50	2321.00	2321.00	2321.00	2321.00	2321.00	2321.25	2321.50	2321.50	2321.50	2321.50	2322.00	2321.50	2321.50	2322.25	2322.50	2322.75	2323.00	2323.25	2324.00	2324.50
2277.00	2277.00	2277.00	2277.00	2277.00	2276.00	2276.00	2276.00	2276.00	2275.50	2275.00	2275.00	2275.00	2275.00	2274.00	2274.00	2274.00	2273.50	2273.00	2273.00	2273.00	2273.00	2272.50	2272.00	2272.00	2272.00	2272.00	2271.50	2271.00	2271.00	2271.00	2271.00	2271.00	2271.00	2270.50	2270.00	2270.00	2270.00	2270.00	2270.00	2270.00	2270.00	2269.00	2269.00	2269.00	2269.00	2268.50	2268.50	2269.00	2270.00	2271.00	2272.00	2272.50	2273.00	2273.50	2274.50	2275.00	2275.00	2276.00	2276.00	2276.00	2277.00	2277.50	2278.50	2280.50	2281.50	2282.00	2283.00	2284.50	2285.50	2287.50	2288.50	2289.50	2291.00	2292.50	2294.00	2296.00	2297.50	2298.50	2300.00	2301.50	2302.50	2304.00	2305.50	2306.00	2306.50	2308.50	2309.00	2310.00	2311.00	2312.00	2312.00	2313.00	2313.00	2313.50	2314.00	2314.00	2315.00	2315.00	2314.00	2314.00	2313.50	2313.00	2313.00	2313.00	2313.00	2312.00	2312.00	2311.50	2311.00	2311.00	2311.00	2310.50	2312.00	2312.00	2313.00	2313.50	2314.50	2315.00	2315.50	2316.00	2316.00	2317.00	2317.00	2318.00	2318.00	2319.00	2319.50	2320.00	2321.00	2321.50	2322.50	2323.00	2324.00	2324.00	2324.00	2323.00	2323.00	2323.00	2322.50	2322.00	2322.00	2322.00	2321.00	2320.00	2320.00	2319.50	2319.00	2319.00	2319.00	2319.00	2319.00	2319.00	2319.00	2319.00	2319.50	2320.00	2320.00	2321.00	2321.00	2322.00	2322.00	2322.50	2323.50	2324.50	2325.50	2326.50	2328.00	2328.00	2329.50	2331.00	2332.00	2332.50	2333.50	2335.50	2336.00	2337.00	2338.00	2338.50	2339.00	2340.00	2340.50	2341.00	2342.00	2342.00	2342.00	2342.00	2342.00	2342.00	2342.00	2342.00	2342.00	2341.00	2340.50	2340.00	2339.50	2338.50	2337.50	2337.00	2336.00	2335.50	2335.00	2333.50	2333.00	2332.50	2332.00	2330.50	2330.00	2329.00	2328.00	2327.50	2326.50	2325.50	2325.00	2325.00	2324.00	2324.00	2323.00	2323.00	2322.50	2322.00	2322.00	2321.50	2321.00	2321.00	2321.00	2320.50	2320.00	2320.00	2320.00	2320.00	2320.00	2320.00	2320.00	2320.50	2321.00	2321.00	2321.00	2321.00	2321.00	2321.00	2321.50	2322.00	2322.00	2322.00	2322.00	2323.00	2323.00	2323.00	2324.00	2324.00	2324.50	2325.00	2325.50	2326.00	2327.00
2277.00	2277.00	2277.00	2277.00	2277.00	2276.00	2276.00	2276.00	2276.00	2275.50	2275.00	2275.00	2275.00	2275.00	2274.00	2274.00	2274.00	2273.50	2273.00	2273.00	2273.00	2273.00	2272.50	2272.00	2272.00	2272.00	2272.00	2271.50	2271.00	2271.00	2271.00	2271.00	2271.00	2271.00	2270.50	2270.00	2270.00	2270.00	2270.00	2270.00	2270.00	2270.00	2269.00	2269.00	2269.00	2269.00	2268.50	2268.50	2269.00	2270.00	2271.00	2272.00	2272.50	2273.00	2273.50	2274.50	2275.00	2275.00	2276.00	2276.00	2276.00	2277.00	2277.50	2278.50	2280.50	2281.50	2282.00	2283.00	2284.50	2285.50	2287.50	2288.50	2289.50	2291.00	2292.50	2294.00	2296.00	2297.50	2298.50	2300.00	2301.50	2302.50	2304.00	2305.50	2306.00	2306.50	2308.50	2309.00	2310.00	2311.00	2312.00	2312.00	2313.00	2313.00	2313.50	2314.00	2314.00	2315.00	2315.00	2314.00	2314.00	2313.50	2313.00	2313.00	2313.00	2313.00	2312.00	2312.00	2311.50	2311.00	2311.00	2311.00	2310.50	2312.00	2312.00	2313.00	2313.50	2314.50	2315.00	2315.50	2316.00	2316.00	2317.00	2317.00	2318.00	2318.00	2319.00	2319.50	2320.00	2321.00	2321.50	2322.50	2323.00	2324.00	2324.00	2324.00	2323.00	2323.00	2323.00	2322.50	2322.00	2322.00	2322.00	2321.00	2320.00	2320.00	2319.50	2319.00	2319.00	2319.00	2319.00	2319.00	2319.00	2319.00	2319.00	2319.50	2320.00	2320.00	2321.00	2321.00	2322.00	2322.00	2322.50	2323.50	2324.50	2325.50	2326.50	2328.00	2328.00	2329.50	2331.00	2332.00	2332.50	2333.50	2335.50	2336.00	2337.00	2338.00	2338.50	2339.00	2340.00	2340.50	2341.00	2342.00	2342.00	2342.00	2342.00	2342.00	2342.00	2342.00	2342.00	2342.00	2341.00	2340.50	2340.00	2339.50	2338.50	2337.50	2337.00	2336.00	2335.50	2335.00	2333.50	2333.00	2332.50	2332.00	2330.50	2330.00	2329.00	2328.00	2327.50	2326.50	2325.50	2325.00	2325.00	2324.00	2324.00	2323.00	2323.00	2322.50	2322.00	2322.00	2321.50	2321.00	2321.00	2321.00	2320.50	2320.00	2320.00	2320.00	2320.00	2320.00	2320.00	2320.00	2320.50	2321.00	2321.00	2321.00	2321.00	2321.00	2321.00	2321.50	2322.00	2322.00	2322.00	2322.00	2323.00	2323.00	2323.00	2324.00	2324.00	2324.50	2325.00	2325.50	2326.00	2327.00
