997.75	995.25	993.00	991.00	990.00	987.50	985.50	983.75	982.75	981.75	980.25	979.00	977.00	973.00	974.25	986.75	975.75	971.00	961.00	957.25	958.00	958.00	960.00	962.50	963.25	962.00	959.50	954.50	946.50	940.25	934.25	925.25	912.50	908.00	906.50	905.75	903.50	904.25	901.00	899.50	898.75	896.75	894.50	892.50	891.00	889.25	888.00	886.00	884.00	881.00	879.75	878.00	876.50	875.75	874.75	872.75	871.50	871.50	869.25	867.50	866.25	877.25	891.75	882.25	860.75	855.75	855.25	853.25	859.25	856.50	848.25	849.50	856.75	860.50	858.50	854.00	853.25	855.50	859.00	865.50	854.75	849.00	849.75	843.25	842.25	834.25	832.00	836.50	813.50	816.25	823.50	807.00	801.50	805.00	798.25	804.25	798.00	816.00	811.25	807.25	811.75	788.75	801.75	801.25	787.00	784.25	782.75	779.25	782.25	788.50	783.00	774.25	777.00	777.75	770.75	768.50	766.00	770.25	756.00	769.75	762.00	762.25	755.00	756.00	766.00	743.50	748.00	758.25	733.50	739.25	758.00	736.75	735.50	745.75	737.75	737.25	741.00	726.25	729.00	729.00	724.50	725.00	721.00	709.00	731.75	702.75	714.25	721.75	707.75	709.50	709.00	692.25	691.75	703.25	701.50	686.00	692.75	690.50	685.00	685.50	681.25	679.50	675.50	678.50	667.00	666.50	674.25	674.25	665.75	666.00	675.50	683.75	666.25	670.25	686.75	667.00	666.25	677.75	670.25	664.00	682.75	658.00	651.50	674.00	671.00	643.75	658.50	678.00	674.00	651.25	668.25	641.75	667.00	665.50	650.25	655.75	647.00	644.50	670.00	653.50	637.00	652.50	662.75	659.25	645.25	651.75	653.25	654.25	648.75	657.25	642.50	643.75	667.75	643.25	622.50	640.00	665.00	648.00	628.00	648.25	661.25	633.75	644.25	664.25	653.75	624.50	637.50	659.25	634.00	628.50	637.25	642.00	650.00	635.25	627.50	646.50	650.50	633.00	623.50	630.75	651.75	641.75	624.75	639.50	648.00	627.75	610.00	632.50	640.75	617.50	610.25	636.00	615.75	621.50	649.25	619.50
999.50	995.75	994.75	992.25	992.00	989.25	988.75	985.50	984.75	988.00	985.00	984.75	979.25	977.75	986.25	980.75	974.75	962.75	957.50	955.75	955.25	955.00	955.75	958.00	956.25	957.50	952.50	951.00	947.75	937.50	931.75	927.75	919.25	914.75	909.75	907.75	906.75	905.75	903.50	901.00	901.00	898.25	897.00	894.25	892.00	890.25	888.50	887.25	885.75	883.25	881.75	879.75	877.25	876.25	874.50	873.25	871.25	870.50	871.50	867.25	866.50	866.25	873.50	872.75	858.00	858.75	857.50	859.50	859.50	859.75	853.00	856.00	864.50	860.25	854.00	856.50	854.50	851.75	857.50	865.25	861.50	858.75	854.75	845.75	842.25	833.50	834.75	816.25	816.50	817.00	812.75	803.50	805.00	803.75	803.75	811.25	815.25	807.50	809.00	801.50	796.25	804.00	802.25	791.50	796.00	789.75	784.50	784.75	786.50	788.75	777.50	775.25	777.50	772.75	771.00	773.25	770.00	768.00	765.25	767.75	764.75	759.50	756.25	752.25	750.50	757.50	756.25	737.00	748.25	758.50	742.75	746.50	744.75	738.75	741.25	735.50	727.00	730.25	732.75	727.25	728.75	723.75	723.75	721.25	710.25	720.50	715.50	709.50	711.50	709.00	701.75	698.50	708.75	695.25	688.50	693.50	691.25	688.50	690.25	683.25	678.50	677.75	679.75	677.00	670.50	681.00	670.00	663.75	672.00	683.25	679.50	670.00	679.00	675.25	668.75	677.50	677.50	671.75	674.25	672.50	656.25	667.75	675.00	669.75	664.75	665.75	670.50	675.75	658.50	668.75	656.75	674.00	655.75	652.00	669.25	656.00	664.25	659.25	648.00	660.00	655.25	657.00	653.75	647.50	663.75	648.25	655.75	651.00	650.50	651.50	644.25	654.50	654.00	643.25	650.50	652.25	649.00	643.50	650.25	653.00	647.50	647.50	647.50	649.00	647.50	649.75	645.75	647.50	649.25	644.25	645.75	651.25	642.50	644.25	642.00	648.00	639.75	633.00	642.75	650.75	641.25	631.50	636.25	641.75	640.00	631.50	632.75	634.50	635.00	629.50	624.75	626.50	632.25	625.50	611.50	622.50
999.75	997.00	996.50	994.25	992.50	991.25	990.75	992.75	994.75	999.00	990.75	989.75	981.50	985.75	977.50	981.75	971.50	960.00	960.50	956.75	955.75	956.25	954.75	952.50	950.00	951.50	947.75	948.75	945.00	937.00	932.75	930.75	925.25	914.50	913.75	911.25	910.00	908.50	904.00	904.00	903.00	900.00	899.25	895.00	894.50	892.00	889.50	888.50	886.00	885.00	882.50	882.00	879.75	877.50	875.75	874.25	871.75	869.50	868.50	867.00	865.50	863.25	862.75	870.25	862.00	862.75	861.25	861.25	862.00	859.00	855.50	859.25	854.00	854.25	853.50	847.75	851.00	859.25	857.25	863.75	866.75	861.75	853.50	847.25	832.50	838.25	820.75	818.75	821.00	807.50	805.25	805.75	810.50	817.25	810.00	815.25	802.00	811.50	804.25	795.75	813.25	796.00	798.75	790.00	786.00	798.00	781.25	795.25	785.75	769.50	787.00	774.25	775.25	770.00	772.50	765.00	776.50	760.75	771.25	768.75	757.25	763.00	749.00	743.25	765.75	755.00	741.50	756.00	754.75	732.50	753.75	743.25	733.75	754.00	740.00	730.25	741.75	734.50	732.50	725.50	722.25	715.75	720.50	708.25	730.25	709.25	710.50	722.00	712.75	694.75	699.00	712.75	705.50	692.75	701.75	691.00	693.50	696.00	681.00	677.25	682.50	690.50	669.00	670.25	693.50	675.00	668.00	674.50	685.25	666.50	668.75	687.50	670.75	672.25	688.75	671.25	670.50	680.00	668.25	665.50	688.00	682.00	653.00	674.75	672.75	664.50	675.25	658.00	663.00	665.25	669.00	645.75	650.75	676.00	648.75	654.50	649.75	652.25	669.00	651.00	653.75	671.25	651.50	661.75	643.00	657.75	662.00	639.75	657.50	652.50	655.00	650.25	652.75	652.50	645.00	658.25	645.75	636.50	661.75	661.50	640.50	640.75	664.75	652.25	633.00	645.00	663.00	647.75	633.00	644.75	661.75	648.75	633.50	645.50	667.00	648.50	630.00	651.00	661.75	646.00	625.50	632.25	654.25	648.75	624.25	623.25	644.00	646.50	618.25	623.25	642.00	634.25	606.50	618.75	652.00	625.50
1001.25	998.25	998.50	995.25	995.00	996.00	998.00	1000.25	1001.25	994.75	987.50	988.50	990.75	985.50	977.75	975.50	967.00	967.00	964.50	958.25	956.25	958.25	958.00	951.25	950.00	950.50	947.25	944.00	944.25	940.00	938.50	935.75	922.75	915.75	916.75	914.75	913.50	911.00	908.50	904.25	902.25	901.25	900.00	896.75	894.25	893.25	891.50	890.00	887.25	886.00	883.50	886.50	882.00	879.00	877.50	873.75	872.00	870.50	869.50	868.25	866.00	864.25	862.00	861.75	863.75	865.00	862.50	864.75	860.00	854.75	857.25	852.75	850.25	850.25	849.75	848.50	850.25	853.50	852.00	854.25	862.25	861.00	855.50	845.50	840.50	830.50	818.00	814.25	808.75	806.75	807.25	815.00	821.75	813.00	816.50	813.25	812.25	804.25	801.50	801.75	798.25	803.75	795.25	799.50	793.50	783.00	792.50	785.75	782.25	783.25	779.25	781.75	775.00	772.75	772.00	775.00	768.00	771.00	762.75	767.50	767.25	756.00	753.50	761.50	754.75	751.75	758.25	754.00	750.75	754.75	745.75	744.50	748.00	735.75	736.25	735.00	734.75	731.50	728.50	721.50	725.25	724.25	716.50	725.75	713.75	720.00	716.00	714.75	702.50	707.00	714.75	702.25	692.00	703.00	695.25	696.75	696.50	688.25	683.75	688.00	684.00	672.75	678.25	688.25	674.50	671.25	677.75	681.00	672.75	679.50	679.00	670.75	684.50	682.75	676.50	674.75	675.50	674.75	673.50	673.50	675.00	672.50	673.75	676.75	669.00	670.50	669.25	663.00	656.25	662.00	663.00	657.50	673.50	659.25	655.25	661.75	657.00	668.50	653.75	649.50	666.75	646.75	655.50	655.00	653.00	658.25	658.50	648.00	642.50	664.00	660.75	652.25	661.00	657.50	649.50	650.25	651.75	652.75	648.75	652.25	653.25	653.50	650.00	649.75	652.75	655.00	658.75	645.75	650.50	657.25	652.00	646.75	652.50	649.75	649.00	642.25	648.00	644.75	643.25	645.75	649.25	640.25	638.00	643.00	639.00	640.00	631.25	635.75	631.75	629.50	622.00	631.00	631.00	631.00	604.50	607.50
1001.75	999.00	998.75	996.75	997.75	999.25	1001.00	1000.00	995.25	990.25	990.50	988.75	992.25	981.25	973.50	972.50	967.25	970.25	965.00	959.75	957.75	958.25	958.25	951.00	947.00	947.50	940.75	939.50	937.75	934.25	936.75	926.75	922.00	917.25	914.75	916.75	913.00	910.25	908.00	905.25	902.75	901.50	900.25	896.50	895.00	894.00	892.50	890.25	888.25	886.50	885.00	891.50	884.25	879.50	879.00	875.25	872.50	871.25	869.00	868.00	865.75	864.00	862.50	861.25	866.75	864.75	864.50	864.25	857.75	855.50	856.50	852.50	854.25	850.25	849.75	848.75	848.25	850.75	851.25	850.75	854.00	856.75	852.25	850.50	838.75	830.50	818.75	812.25	808.75	810.25	813.25	824.50	825.25	824.75	813.75	817.75	807.00	804.75	820.25	792.75	806.50	802.25	794.00	805.00	781.50	788.00	790.00	778.00	795.50	777.25	777.00	781.75	772.25	771.00	784.50	762.50	772.50	760.00	764.00	776.25	753.50	755.75	761.00	763.00	756.00	758.50	765.50	738.75	758.50	750.00	739.75	754.25	739.75	735.00	749.75	729.00	739.25	734.75	723.75	724.25	730.50	711.25	729.25	717.00	720.00	725.25	717.75	713.00	702.75	721.50	710.75	692.50	698.75	694.00	697.00	702.25	687.75	689.75	688.25	692.00	671.25	672.00	691.00	688.00	672.25	682.00	677.25	668.00	676.00	678.75	668.00	683.25	693.00	669.50	687.25	674.25	671.75	684.50	669.25	666.00	683.00	677.25	669.50	674.75	665.00	672.00	677.75	644.00	649.75	675.50	667.75	656.00	660.00	660.25	664.75	663.75	652.50	659.50	662.75	659.50	657.50	643.25	659.00	664.75	647.75	665.50	664.75	637.25	650.25	673.75	660.75	648.25	667.25	658.25	643.25	658.50	646.75	641.50	662.75	665.75	646.25	649.75	660.50	656.50	640.75	657.00	668.25	641.25	648.75	663.50	663.25	645.75	643.25	653.25	661.00	644.25	630.00	657.50	665.50	651.50	624.50	626.75	653.50	661.75	633.50	615.25	634.00	649.00	619.75	616.25	648.25	652.00	629.25	602.75	611.25	634.00
1003.25	1001.50	1000.50	1001.25	1001.75	1004.75	1001.00	998.25	992.25	992.25	992.25	987.00	987.75	980.25	974.50	972.25	972.25	971.75	965.50	963.50	961.75	958.00	948.75	945.00	943.50	942.75	941.00	935.00	933.50	931.25	930.75	927.25	921.25	920.50	917.25	916.00	914.25	915.25	908.25	907.00	909.50	902.75	902.50	897.25	896.50	895.50	893.25	891.50	889.25	887.75	889.50	888.00	882.25	883.50	883.75	879.25	874.50	872.75	871.75	869.75	867.75	866.00	862.25	863.25	865.25	861.50	863.25	859.25	856.00	856.25	858.50	859.50	849.50	852.25	852.00	848.00	845.50	848.75	849.25	846.50	847.25	847.75	850.00	848.50	840.50	831.00	818.75	821.25	829.25	824.75	825.75	820.00	824.00	823.75	822.75	815.00	814.50	811.00	801.25	812.25	802.50	801.50	803.25	787.00	794.25	791.00	786.75	792.75	776.75	779.50	782.50	775.50	778.50	774.50	769.50	775.75	769.00	772.50	771.25	764.00	760.25	764.00	758.25	755.00	758.25	754.00	747.75	755.50	751.50	748.25	748.00	739.00	740.50	739.00	737.50	737.00	733.25	727.25	726.25	725.75	717.75	729.00	720.25	723.50	720.50	717.25	712.75	702.75	713.50	702.75	693.75	708.00	704.25	707.50	697.75	692.25	700.50	691.00	687.00	676.75	679.50	690.00	680.50	675.75	678.00	674.25	668.75	678.75	679.00	682.25	687.75	683.75	685.25	681.25	673.50	681.00	681.50	671.25	680.25	685.50	680.25	673.00	667.75	671.00	675.50	673.00	669.25	670.75	673.00	666.75	658.50	667.00	667.25	663.75	658.50	658.25	663.75	656.50	657.75	659.00	651.25	659.75	667.75	652.75	657.50	661.00	661.50	657.75	660.50	657.00	656.00	667.25	664.00	652.00	661.00	664.50	652.50	660.50	658.00	651.00	656.25	665.75	653.25	648.75	657.50	660.25	650.25	654.25	657.00	658.75	651.25	648.50	653.00	658.00	654.25	651.75	651.75	645.00	651.00	649.75	648.50	652.50	642.00	644.50	637.75	641.00	639.00	642.00	642.00	645.25	629.75	616.75	620.00	634.00	632.50	624.50
1005.50	1003.75	1003.50	1004.75	1007.50	1005.00	1003.75	1001.50	995.00	992.75	992.50	993.75	981.50	978.00	976.50	978.50	977.25	971.00	967.25	967.75	967.50	950.50	947.50	943.50	941.75	939.75	939.50	936.00	935.00	938.00	931.50	934.25	923.25	920.75	920.00	916.25	919.00	914.75	910.25	911.50	910.00	904.25	902.75	899.50	897.00	896.00	894.00	892.75	890.25	889.25	890.00	885.50	885.75	886.25	881.50	880.75	879.50	875.25	877.25	874.00	871.50	877.25	871.50	868.00	863.75	863.50	862.75	857.75	856.50	858.50	855.75	854.50	851.75	855.00	849.75	845.50	845.00	848.75	843.50	844.00	843.75	844.50	847.50	841.00	831.00	827.25	833.00	837.75	828.00	831.75	828.25	826.25	824.50	829.00	810.50	824.75	818.25	803.50	821.25	796.25	797.75	798.25	789.25	803.75	792.00	775.75	798.00	782.25	791.75	784.75	771.00	786.75	772.25	773.25	787.25	763.50	776.00	764.50	767.50	767.25	767.75	766.75	759.75	766.75	745.25	744.75	764.25	744.00	755.50	740.75	744.00	745.00	735.75	745.25	735.25	744.75	723.25	727.75	719.00	724.25	736.50	721.50	728.25	718.75	728.50	703.50	706.75	723.50	699.75	698.25	713.75	696.00	702.25	696.75	692.50	704.50	692.75	689.00	681.00	685.75	696.25	679.75	678.50	684.25	674.50	680.25	682.25	677.25	689.00	689.75	676.25	693.75	681.25	673.50	695.00	675.50	665.25	695.25	683.00	671.75	679.00	670.75	691.25	680.25	671.75	692.75	662.25	660.50	674.50	673.75	659.25	676.00	647.25	648.25	671.00	667.25	666.75	661.00	655.75	660.75	663.75	680.75	654.25	650.00	676.25	662.75	645.00	660.00	673.75	657.50	658.75	668.75	652.00	662.00	665.50	656.50	674.00	662.50	649.00	663.75	672.50	652.50	656.75	666.75	665.50	654.75	650.25	669.75	669.50	653.50	642.25	651.00	674.00	665.00	642.00	630.50	657.50	672.00	652.00	634.00	630.25	656.50	660.50	646.00	628.75	640.25	666.00	642.25	616.75	613.25	627.75	646.00	647.00	627.75	605.50	619.25
1009.00	1010.75	1009.75	1010.00	1009.00	1004.50	1002.00	999.50	997.25	1001.00	995.75	995.00	983.75	982.00	979.50	979.00	976.25	972.50	963.75	962.75	955.75	949.75	947.00	943.00	942.00	938.75	937.50	936.75	930.50	928.25	926.00	924.25	925.00	922.50	919.50	921.00	917.50	913.75	912.25	913.50	907.00	906.25	904.00	902.00	900.25	898.25	896.00	895.25	892.25	893.50	890.75	890.75	886.25	884.25	880.25	882.25	879.00	879.50	876.25	880.25	878.00	871.75	870.50	871.25	871.75	871.25	866.00	858.00	863.50	857.50	857.50	855.00	854.75	854.50	850.25	846.00	845.75	844.25	843.00	841.50	843.00	841.75	842.25	840.00	842.00	843.50	840.00	839.50	831.50	834.25	831.25	820.25	824.00	820.50	817.50	819.25	810.25	814.50	809.50	797.75	805.50	799.00	793.00	793.00	791.75	792.25	786.50	780.50	785.75	782.25	779.25	782.75	775.00	777.25	777.50	768.00	772.50	763.25	776.00	763.50	766.75	760.50	756.50	760.75	750.75	764.00	750.50	751.50	753.75	742.75	749.50	743.25	744.00	734.75	734.00	734.50	724.75	730.75	732.75	728.00	727.50	721.75	727.00	713.50	710.00	719.25	710.50	711.50	709.75	709.00	709.50	700.50	705.25	697.75	702.00	703.00	686.75	690.75	688.25	694.50	684.25	684.50	686.00	683.00	683.25	686.00	686.50	689.00	693.25	680.75	687.75	689.75	681.50	681.75	688.75	679.25	681.75	690.75	676.00	678.75	680.25	681.00	679.75	657.00	677.25	672.00	660.75	679.25	679.75	650.75	691.00	655.00	648.00	680.25	672.25	660.75	671.25	667.25	651.75	653.50	674.50	663.25	652.50	669.25	669.75	650.00	660.00	682.25	664.75	661.00	664.75	667.00	673.00	662.75	666.25	672.25	650.50	651.75	680.00	677.25	655.25	658.00	677.50	661.25	649.50	655.75	666.50	667.00	654.25	647.00	657.00	666.00	662.25	652.00	644.25	653.75	664.75	661.25	643.00	637.75	649.50	660.75	652.00	634.25	642.25	649.50	642.75	641.25	633.25	635.50	642.50	640.00	640.75	633.50	631.75	635.50
1013.50	1017.50	1013.50	1009.00	1007.25	1004.00	1004.25	1002.75	1010.50	996.25	993.50	989.50	987.00	983.75	982.50	982.50	978.00	970.50	960.25	956.25	953.25	950.00	950.25	944.50	944.00	940.50	939.50	938.25	934.00	932.00	929.25	928.00	928.50	923.75	917.75	919.50	916.75	915.50	913.50	910.25	909.50	906.50	908.75	904.50	902.75	900.75	899.50	896.50	894.50	894.00	894.00	890.00	884.75	883.75	885.00	882.75	882.00	879.00	879.75	883.50	871.00	867.50	877.00	873.75	878.00	869.00	863.75	865.50	865.75	861.00	864.00	854.50	856.25	850.75	847.50	849.00	845.00	848.50	844.50	842.25	839.75	841.25	839.25	838.50	845.50	850.00	843.00	842.50	833.25	834.50	827.75	818.50	830.75	817.75	812.25	820.25	803.50	816.75	816.50	795.75	801.00	789.50	781.50	807.50	789.75	789.75	780.25	781.75	800.25	772.50	780.50	784.25	773.50	783.50	779.75	777.25	767.25	772.75	773.75	763.75	775.75	762.00	763.50	763.50	760.25	755.00	745.75	766.50	748.25	754.75	746.25	735.00	747.75	724.75	740.50	725.75	723.25	736.25	719.75	732.50	734.75	715.50	719.50	709.75	729.00	714.25	702.50	719.50	706.50	707.25	714.25	701.50	710.50	695.25	706.50	695.75	689.75	694.25	688.25	695.50	692.50	687.75	684.25	680.25	692.75	698.00	691.75	691.00	691.50	688.75	694.50	683.00	674.75	699.50	689.25	676.25	699.25	686.00	675.50	677.25	689.25	690.00	657.00	668.50	683.00	654.00	678.00	674.25	656.00	688.25	652.00	666.50	676.00	669.25	673.50	671.00	663.00	653.25	649.00	666.50	673.25	645.25	654.75	673.25	662.25	657.75	680.00	667.00	651.00	666.25	689.50	666.50	666.25	672.75	661.50	650.00	678.00	674.00	657.25	656.00	659.25	672.75	660.75	648.50	661.00	676.00	668.50	655.50	649.50	662.25	678.75	673.50	651.25	649.25	658.50	666.75	671.00	654.00	634.75	648.50	664.00	667.75	639.50	638.25	653.75	667.50	666.50	641.25	626.25	641.50	653.00	647.00	643.00	624.75	619.00	634.25
1017.25	1013.25	1011.75	1010.25	1010.00	1007.00	1003.50	1003.50	1001.75	996.50	995.75	993.75	986.75	987.25	983.00	980.00	975.75	965.50	959.75	957.25	955.50	952.50	952.50	948.00	946.75	943.00	941.25	938.50	935.25	932.75	931.00	930.25	927.75	925.50	923.50	920.50	918.75	919.25	916.25	911.75	910.50	912.25	909.75	907.75	905.00	902.50	900.75	897.00	896.50	895.75	891.50	887.25	886.25	887.00	884.25	885.00	884.75	887.00	893.75	875.00	871.75	875.50	877.25	877.50	870.75	867.25	866.00	868.75	863.00	859.00	854.25	859.25	855.50	855.00	852.50	851.25	847.75	846.50	846.25	845.50	842.25	841.50	837.75	839.50	835.50	842.25	848.50	844.75	845.75	840.75	835.75	836.50	828.50	821.50	823.75	812.50	818.00	813.25	806.75	811.00	796.50	791.75	806.00	800.00	793.00	787.75	792.25	786.25	779.00	788.50	780.25	775.50	781.25	783.25	774.00	765.00	770.25	771.75	766.50	766.25	762.50	765.25	758.75	762.25	750.75	755.25	759.50	752.00	752.00	742.75	747.00	746.00	742.00	740.00	733.50	734.75	742.00	731.75	735.50	728.25	726.75	726.00	715.75	724.75	714.50	709.75	717.75	713.50	713.00	714.25	712.25	708.75	700.25	707.00	698.00	690.50	692.50	694.25	699.25	693.00	687.50	687.50	688.75	698.00	691.50	689.50	692.00	696.50	695.25	690.75	682.00	696.50	698.00	694.00	688.75	688.75	689.00	683.25	683.25	685.75	675.75	679.00	674.25	682.00	679.25	680.00	678.75	662.75	674.75	676.00	662.75	671.25	675.50	667.75	662.25	659.75	672.25	671.00	668.75	668.75	658.00	662.25	669.75	672.00	667.75	668.75	661.50	672.25	679.25	683.75	668.75	663.25	667.00	666.25	667.50	669.75	666.00	665.75	664.50	665.25	671.75	667.25	662.25	665.00	668.25	672.75	668.00	666.00	669.25	665.25	661.75	662.00	662.00	664.00	662.25	663.00	661.50	659.25	657.00	655.25	654.00	652.50	654.25	658.00	651.75	653.75	645.25	642.75	646.00	647.75	647.00	640.75	633.50	639.75	646.50	639.00
1018.75	1016.25	1015.75	1015.50	1012.00	1006.75	1008.75	999.50	996.75	998.00	994.75	990.00	988.00	985.50	980.00	972.75	973.00	964.50	962.75	961.50	957.50	956.00	952.25	948.25	947.25	944.50	940.75	938.75	935.50	933.75	932.75	935.75	927.75	927.25	923.50	921.25	922.00	921.50	916.50	912.50	913.50	911.75	908.50	907.00	907.50	904.00	901.50	900.00	899.00	896.00	889.00	888.00	887.75	887.25	887.50	889.25	890.00	892.25	883.75	876.00	875.50	882.25	882.50	870.00	865.25	868.25	866.00	867.50	862.00	851.50	861.25	859.75	848.50	852.75	857.25	853.25	849.75	849.25	852.75	840.00	850.50	839.75	843.25	836.25	835.50	834.50	848.25	850.75	845.50	838.50	836.50	829.25	829.25	828.50	813.75	819.75	820.00	815.00	820.00	790.25	798.00	802.75	793.00	797.50	780.75	795.00	788.50	780.75	791.50	779.50	775.75	779.75	783.25	773.75	762.00	781.00	767.50	770.25	762.50	765.75	774.50	765.00	772.00	748.75	765.50	770.50	747.25	756.25	740.00	750.25	745.25	735.00	745.50	726.00	735.75	745.25	722.50	735.00	726.25	730.75	723.25	711.50	726.50	714.75	716.75	723.75	718.75	712.25	715.50	711.00	702.50	710.00	718.50	695.75	694.25	691.25	697.75	708.75	689.50	690.00	687.25	695.50	704.50	694.25	698.50	699.50	695.00	707.25	688.75	700.25	704.00	689.25	684.50	699.75	675.25	694.25	687.25	681.50	696.00	666.75	701.25	681.75	678.00	695.75	677.25	663.75	669.25	679.75	686.25	657.00	670.00	688.50	658.25	650.50	673.75	686.00	663.75	652.25	666.00	667.25	666.00	677.25	679.75	662.25	654.50	669.50	689.50	682.75	670.25	656.25	653.00	675.00	681.25	672.50	668.25	672.25	669.25	663.75	662.25	673.25	676.50	663.25	663.25	678.75	682.75	664.50	663.00	660.25	665.75	676.25	672.75	657.25	663.75	672.50	678.00	669.75	652.50	647.75	663.50	676.00	676.75	661.50	646.25	653.75	668.50	645.00	644.75	653.50	652.75	652.25	635.00	634.00	650.75	651.25	621.00	622.25
1022.00	1019.25	1018.00	1016.50	1010.00	1006.50	1000.50	1000.25	997.75	994.25	992.00	988.50	990.25	983.00	977.25	973.75	971.00	967.00	967.00	962.50	959.00	958.75	954.00	950.25	948.25	947.00	943.25	940.00	938.25	935.50	934.50	932.75	929.25	928.25	925.25	923.75	920.75	921.00	915.75	915.00	915.50	912.75	916.00	907.75	904.25	904.00	901.00	902.00	899.75	896.00	895.50	891.75	891.00	897.25	892.50	887.75	884.50	881.00	879.75	879.75	879.50	882.25	873.00	868.00	869.75	871.00	870.75	865.50	855.00	861.00	858.00	850.75	856.75	857.25	852.25	846.75	854.00	846.75	848.75	847.00	837.75	839.00	839.25	840.50	837.50	830.50	842.00	839.00	833.00	834.50	834.75	833.25	828.50	820.75	822.75	820.50	816.25	810.00	797.75	805.00	804.75	805.75	799.25	797.50	794.25	794.50	791.50	789.00	781.75	782.25	782.75	786.00	772.75	772.25	774.75	775.75	765.75	767.25	773.50	767.50	761.50	766.00	757.50	766.25	758.50	754.75	753.75	743.25	751.50	746.00	744.00	743.75	736.75	746.00	740.00	729.75	739.75	728.50	731.50	722.00	718.75	730.75	715.50	719.50	723.75	721.50	712.75	717.00	711.25	709.00	716.50	712.50	701.50	696.25	699.75	707.75	704.50	693.75	695.75	699.25	701.75	698.00	691.25	695.00	702.25	696.00	696.50	700.50	698.00	695.75	696.00	695.00	698.50	687.00	691.50	691.25	680.50	686.75	678.75	686.25	684.00	678.50	690.75	668.75	678.25	676.00	675.75	669.25	671.75	672.50	669.75	670.50	674.25	673.75	681.25	673.00	664.25	669.50	674.50	677.50	675.00	666.75	657.25	665.75	676.00	674.50	667.25	672.75	671.00	668.00	676.00	678.50	669.00	669.00	669.75	673.25	671.75	672.75	682.00	680.25	671.00	671.25	673.50	674.25	671.50	672.00	671.75	668.25	672.00	673.00	669.25	669.50	666.25	668.00	667.75	669.25	666.75	668.75	662.00	663.50	661.75	656.25	659.25	656.25	656.00	655.25	652.75	652.00	653.75	653.50	653.25	654.50	642.75	647.00	642.00	644.00
1026.50	1021.50	1016.50	1013.00	1008.50	1005.50	1001.00	999.50	996.00	995.50	988.00	988.25	982.50	976.25	976.00	974.75	970.50	969.50	966.00	962.50	965.25	959.75	959.00	949.50	946.00	947.00	943.50	939.25	938.75	938.00	934.50	932.50	930.75	928.00	927.00	927.25	922.50	924.50	918.00	919.75	915.75	919.25	918.00	907.00	905.75	904.00	905.50	903.50	900.75	900.75	895.00	894.00	903.00	894.75	890.00	888.00	884.00	881.75	879.50	884.00	883.75	871.50	870.50	871.25	866.00	870.50	864.25	854.50	863.75	862.00	850.00	862.50	863.00	847.25	851.00	860.25	841.25	842.75	849.75	831.75	844.50	845.50	842.25	828.50	832.25	836.25	833.75	822.75	821.50	820.00	825.50	831.50	827.75	824.75	828.25	823.75	818.50	805.50	817.50	802.00	809.00	797.00	790.50	798.00	790.50	790.25	786.00	789.00	780.50	781.00	790.25	768.75	777.50	777.50	783.25	770.50	772.50	780.00	759.75	766.50	766.50	762.50	772.00	746.75	765.50	760.00	744.25	761.25	739.25	754.50	741.75	738.00	747.50	740.75	728.00	744.50	725.75	731.25	720.50	726.25	731.00	718.50	720.00	729.25	713.00	722.00	717.25	718.50	720.75	727.00	707.00	699.00	698.50	712.75	725.00	699.25	691.00	704.75	708.25	695.50	689.75	688.75	708.00	715.00	687.50	689.50	709.75	702.50	693.25	702.50	694.25	697.50	698.25	680.50	704.75	678.50	690.50	692.00	673.75	684.00	696.25	680.75	676.25	694.75	677.50	665.00	685.50	701.50	681.25	647.25	679.75	680.25	658.25	678.00	691.25	662.25	670.00	690.25	684.00	663.00	657.25	665.75	689.75	689.50	667.75	667.25	688.00	676.25	674.00	692.00	683.50	667.25	662.75	674.25	683.50	676.25	675.50	685.75	674.50	665.25	669.50	676.00	678.75	679.25	670.25	665.50	676.25	683.75	683.50	669.00	660.50	667.00	684.50	680.00	671.25	658.75	655.50	678.50	681.25	672.50	656.50	647.50	660.00	667.00	652.00	648.50	662.00	676.00	661.00	641.50	628.00	647.25	663.00	647.00	627.75	628.50
1025.50	1016.00	1019.25	1014.00	1007.50	1003.00	1005.50	1003.50	996.75	992.75	990.50	987.50	980.25	977.00	979.00	975.25	972.75	971.50	963.75	968.75	966.75	963.00	957.25	953.25	950.50	948.25	945.25	948.25	946.75	944.25	935.50	935.00	932.00	932.25	929.75	928.50	927.00	923.00	922.00	922.50	922.25	916.25	911.00	912.50	911.75	906.50	907.00	906.00	901.00	899.25	904.25	903.25	894.50	895.00	892.00	886.00	886.25	883.00	882.75	883.75	876.50	873.00	869.50	872.75	873.75	866.00	858.50	864.00	860.25	856.50	861.50	860.75	849.50	849.25	852.50	845.75	846.00	845.25	840.50	840.75	845.75	844.00	828.00	824.25	828.00	830.75	828.75	827.50	820.25	817.00	820.25	817.75	825.25	826.50	823.25	822.25	812.00	813.00	807.75	813.00	808.00	801.00	802.00	797.50	800.50	796.75	784.00	779.75	790.50	787.25	780.75	777.75	783.75	781.25	777.25	776.25	769.00	765.50	767.50	760.75	759.50	763.00	752.75	762.25	754.75	752.50	755.50	744.00	750.50	745.75	746.00	749.50	742.25	737.25	740.50	730.25	737.00	725.75	729.50	727.50	721.50	720.75	725.25	717.50	720.25	726.50	724.00	720.75	719.50	710.50	702.00	704.00	713.25	710.75	694.75	701.75	707.00	705.25	700.25	701.50	701.25	712.00	705.00	693.75	709.25	712.00	705.75	692.75	701.75	702.50	697.00	693.25	699.25	695.25	689.00	689.25	690.50	691.50	692.75	681.75	684.75	683.75	678.25	668.75	678.50	682.00	673.00	664.75	669.00	675.25	679.25	678.25	676.50	674.25	666.50	682.50	683.00	671.50	658.00	667.75	679.50	680.75	670.25	663.50	671.50	679.50	681.25	676.00	678.50	666.75	670.00	683.25	687.00	680.75	675.25	672.50	674.50	675.50	682.00	684.25	682.25	677.50	679.50	675.25	673.75	679.50	675.75	677.25	673.75	675.00	676.25	674.75	668.00	674.25	674.75	673.50	672.25	664.75	656.50	663.00	668.75	667.75	661.00	662.00	660.75	662.00	655.25	644.00	649.25	655.50	657.50	649.25	641.25	650.00	652.00	650.00
1025.25	1023.50	1022.50	1009.00	1009.25	1009.50	1007.75	1003.00	991.50	992.00	988.50	987.25	983.75	980.75	982.75	978.00	973.25	967.75	968.00	970.00	964.75	958.75	957.75	954.25	954.25	947.00	947.50	950.50	942.00	942.50	939.00	934.25	936.25	937.25	934.50	930.75	930.00	928.50	927.75	925.00	915.25	913.75	913.25	918.25	908.50	912.00	910.75	904.50	901.50	909.75	902.50	894.75	898.25	897.00	885.75	890.25	886.25	888.25	890.75	875.25	880.25	868.25	875.25	874.25	863.00	861.00	867.25	868.00	854.00	856.75	853.25	848.50	849.50	854.25	851.00	855.00	851.50	839.50	837.25	849.50	844.75	831.75	825.25	829.50	824.50	821.00	835.25	831.50	830.75	822.00	811.75	814.75	820.25	812.00	820.50	819.75	821.25	808.75	820.25	803.75	813.25	806.25	792.75	805.75	794.00	800.25	785.75	793.50	787.75	785.25	783.75	784.50	774.00	776.50	790.25	765.50	768.25	781.50	756.50	766.75	768.75	761.00	770.75	747.50	763.25	760.25	744.25	758.75	740.50	755.00	748.75	746.00	737.00	741.50	728.50	745.75	727.00	734.25	736.50	720.00	728.25	728.75	722.50	723.75	725.50	722.75	718.50	726.75	704.00	703.75	705.00	727.25	715.75	698.25	714.50	715.00	696.25	704.00	713.00	703.00	720.00	700.50	695.25	715.50	712.25	707.50	696.25	706.25	713.75	683.00	691.00	716.25	689.50	695.00	694.50	684.00	712.00	682.75	663.50	691.00	683.50	661.25	684.25	707.25	674.75	671.00	684.00	679.50	680.50	684.75	690.00	658.75	660.75	682.75	698.25	672.75	657.50	660.00	677.75	679.75	663.25	664.50	672.00	684.25	691.25	688.50	675.25	666.00	673.75	697.25	700.50	683.00	668.75	670.25	680.75	686.25	694.50	696.25	674.00	671.75	687.75	690.25	677.50	669.75	675.25	679.25	692.50	681.75	676.25	665.50	666.00	680.25	694.50	679.50	667.00	659.75	652.75	675.50	687.50	672.50	655.00	658.25	674.00	659.25	644.50	655.50	670.50	668.00	663.75	647.50	640.25	656.50	674.00	651.25	628.00	629.75
1025.50	1021.50	1012.00	1013.00	1011.50	1010.25	1001.75	999.00	996.75	993.25	991.50	988.75	986.00	987.75	980.50	977.50	972.50	973.75	970.50	965.75	962.75	959.75	961.50	955.50	953.25	949.75	953.00	950.50	944.25	943.50	937.75	937.25	939.75	936.25	936.50	934.25	931.75	924.00	924.75	917.50	917.25	919.50	918.75	909.75	915.50	910.75	904.75	908.00	909.50	907.75	896.00	901.25	898.00	888.25	888.00	887.75	892.75	890.25	880.50	878.50	872.00	874.00	879.00	871.50	870.50	868.50	864.50	859.25	857.25	858.75	852.00	855.50	851.75	848.00	855.00	850.75	843.50	840.75	852.00	843.00	831.00	829.75	833.25	830.00	831.50	829.25	822.00	827.75	816.50	818.25	822.75	818.50	808.75	812.00	812.75	819.75	821.50	819.50	813.00	813.00	810.00	803.75	804.00	802.50	795.25	792.50	789.75	795.00	788.50	789.50	785.00	778.50	779.00	777.50	770.25	775.75	774.00	762.25	774.00	764.50	762.25	760.75	752.50	763.25	754.25	750.25	754.00	741.75	752.00	751.50	741.75	742.25	743.00	736.00	740.00	727.75	730.75	733.25	723.25	725.00	722.00	722.75	726.50	726.50	725.50	727.75	719.50	708.50	711.25	721.00	714.25	704.50	700.50	720.75	712.25	700.00	712.00	712.50	711.75	710.50	699.75	707.25	720.00	715.25	704.75	706.00	716.50	704.25	697.75	699.25	702.75	696.00	695.75	705.50	690.75	693.50	691.50	688.75	685.50	689.75	687.50	685.50	690.75	683.00	685.75	685.75	686.00	686.50	683.25	669.75	663.25	681.75	685.00	683.25	667.75	663.00	665.75	670.25	666.50	666.00	684.25	690.25	689.75	685.75	673.50	673.25	679.00	687.00	685.75	677.50	673.00	679.75	686.00	690.25	686.00	686.75	683.50	675.75	680.00	686.00	683.00	679.75	682.75	686.75	684.75	684.00	683.50	678.75	676.25	678.75	678.75	675.75	664.25	670.75	673.00	675.25	674.75	674.25	667.00	671.25	673.00	673.25	664.50	661.25	664.75	664.25	659.75	664.75	665.25	659.50	663.50	657.25	645.50	649.75	657.25	660.75
1024.75	1014.00	1016.75	1012.25	1016.00	1003.75	1004.00	1000.25	992.75	996.00	990.75	991.75	990.00	985.50	977.25	975.00	977.75	976.00	969.75	965.75	962.25	965.75	961.75	956.25	954.25	953.00	951.50	945.75	952.75	940.50	941.75	944.25	940.00	943.00	935.50	932.75	925.00	935.75	921.50	920.00	923.25	917.00	912.00	922.25	909.00	908.00	911.50	911.25	902.25	898.75	902.00	902.25	892.75	894.50	892.50	889.75	890.50	878.50	883.50	871.75	871.25	872.75	863.00	867.75	871.00	864.25	854.50	856.25	857.25	855.00	860.25	853.25	847.50	856.50	852.75	840.50	838.50	855.50	844.25	832.75	830.75	836.25	827.75	828.75	825.00	839.50	825.25	814.75	821.25	834.00	816.25	807.50	808.75	805.25	806.25	813.50	820.25	818.00	823.00	815.25	807.50	809.50	797.50	800.00	798.50	800.00	790.00	808.00	781.75	790.25	776.50	780.25	784.75	770.75	779.00	776.50	761.75	771.00	757.50	767.00	760.75	755.00	767.50	750.75	758.25	762.00	746.00	757.75	752.50	741.00	746.25	743.75	736.50	743.00	727.25	739.50	739.50	729.25	730.25	722.75	731.00	731.50	730.25	721.00	732.25	714.50	707.75	717.00	724.50	707.50	700.75	711.50	727.25	703.25	700.50	718.75	716.25	714.00	706.25	702.75	727.25	718.75	701.75	697.00	727.25	720.75	695.75	706.75	713.00	690.25	709.00	694.00	703.25	691.50	677.00	711.25	696.00	674.50	692.50	700.50	670.00	676.50	707.50	680.00	675.75	702.50	690.75	661.75	665.50	672.50	691.50	669.25	671.25	669.25	664.50	665.75	667.25	667.75	683.75	694.25	688.25	671.75	667.00	669.25	674.00	678.50	678.00	672.50	674.00	679.50	685.75	683.75	677.50	684.00	697.50	698.75	682.00	684.00	686.75	687.00	686.25	683.50	681.75	680.50	681.25	686.00	682.00	686.25	686.50	674.75	664.50	672.75	690.75	687.50	678.00	667.75	674.75	683.25	680.00	668.00	659.00	666.25	676.25	670.50	656.75	662.25	680.75	675.75	655.00	643.00	646.75	658.00	669.50	663.00	643.75	641.50
1021.00	1018.75	1015.00	1010.75	1007.00	1007.75	1002.50	996.75	996.25	997.25	995.50	994.00	983.75	980.25	978.25	978.00	977.50	970.00	970.50	964.50	965.50	962.50	957.00	958.25	952.00	951.50	952.00	951.50	944.00	944.50	947.00	948.00	943.25	942.00	935.75	927.00	929.25	929.50	922.00	925.00	923.00	915.25	916.00	911.00	911.25	914.75	914.50	907.00	904.00	903.00	901.00	898.50	903.25	892.50	892.25	888.50	882.00	883.00	882.00	878.00	876.25	867.00	868.25	868.50	861.25	859.00	860.75	858.00	858.75	866.00	851.25	848.50	858.25	858.00	842.75	841.00	848.00	841.75	836.00	835.00	839.75	836.00	830.50	837.00	843.75	832.25	821.25	830.50	822.75	814.00	812.00	816.00	816.75	811.50	804.75	807.75	816.25	822.25	819.75	812.25	808.75	804.00	802.00	798.25	791.25	791.75	795.25	789.50	788.25	778.00	783.00	788.50	778.50	776.00	781.50	768.50	776.00	765.25	768.50	762.25	757.25	764.75	755.25	759.75	757.50	751.50	757.00	746.50	746.50	750.50	741.75	741.50	741.75	734.00	739.25	734.00	731.25	733.75	723.75	732.50	736.25	727.75	728.75	722.50	708.25	714.00	724.25	728.25	712.75	709.50	719.50	725.00	715.00	721.25	726.00	717.75	709.25	711.25	717.50	720.00	707.25	700.50	711.50	719.75	707.75	704.00	706.50	713.00	704.00	708.50	709.25	701.00	700.50	700.25	701.75	696.50	695.25	692.50	694.50	690.75	691.50	694.00	682.75	681.50	687.50	675.25	681.75	686.50	681.00	683.75	678.75	678.50	672.75	669.25	674.50	682.75	688.50	688.50	683.00	677.25	669.75	671.25	678.00	687.25	685.50	676.75	674.25	676.50	679.00	684.00	688.25	689.25	690.50	691.50	687.50	682.00	682.75	683.75	682.25	685.25	690.50	693.25	687.00	685.75	690.00	688.25	686.50	684.75	683.50	688.75	689.75	685.75	683.00	684.00	684.25	684.00	676.75	667.75	670.25	670.25	672.50	675.75	674.00	671.25	672.00	667.50	658.75	653.25	661.25	669.00	674.00	671.25	662.50	651.75	656.25	659.75
1025.75	1017.25	1015.75	1009.25	1013.25	1005.00	999.25	997.75	997.00	1000.25	996.75	987.75	983.25	987.50	982.75	980.00	974.75	972.25	967.75	965.50	967.75	959.25	958.50	955.25	953.50	956.50	959.25	946.75	949.25	950.50	946.25	944.75	943.50	930.25	929.50	932.25	933.50	924.50	927.50	924.00	917.75	916.25	920.00	912.75	920.75	916.00	907.50	910.50	907.75	899.50	906.50	907.00	890.75	892.75	893.25	887.75	890.25	880.25	874.00	881.75	872.50	874.00	868.25	863.50	862.00	863.25	858.50	858.25	875.50	858.75	856.25	860.75	861.75	849.00	845.75	854.50	842.25	836.50	843.75	842.50	841.50	842.75	842.75	847.50	840.50	823.75	839.00	829.50	815.00	815.75	818.50	829.75	809.75	805.75	811.50	810.50	812.50	816.50	819.50	808.50	810.00	808.25	800.00	789.50	798.00	806.50	792.50	795.25	776.00	782.00	792.25	780.25	779.75	768.25	768.50	780.00	768.00	774.00	757.50	762.50	771.00	760.25	768.50	751.25	759.25	763.25	745.00	744.25	749.50	737.25	747.75	744.00	736.50	739.75	729.50	739.00	745.00	733.50	740.25	734.75	732.25	730.75	714.50	708.00	730.25	739.00	721.75	722.75	712.75	731.00	732.75	702.25	718.75	725.00	705.75	703.25	713.75	732.50	712.75	701.25	704.25	722.00	723.50	696.75	710.75	704.25	714.75	710.50	700.00	713.75	705.25	706.25	724.50	681.00	710.25	702.50	675.25	695.50	715.25	690.00	681.00	685.75	696.75	690.00	680.25	700.00	687.25	666.00	671.25	699.75	684.50	665.25	672.00	688.75	698.25	694.00	677.75	670.75	670.00	671.25	681.50	696.75	703.25	693.75	682.25	680.75	685.25	695.50	705.50	703.50	692.50	687.00	680.50	680.00	680.50	680.25	684.00	694.00	709.75	708.25	698.25	689.75	687.75	693.75	690.25	680.75	685.00	704.00	701.00	688.50	677.75	687.25	704.25	692.75	671.00	663.75	671.75	684.50	677.00	675.25	682.25	690.00	674.25	656.00	654.00	663.25	678.00	689.50	683.75	671.75	664.25	658.50	652.50	651.50	650.25	663.75
1022.50	1015.75	1013.00	1015.50	1008.25	1000.50	1000.50	1001.25	1002.00	995.25	988.50	987.00	989.00	987.00	981.75	978.50	976.25	970.25	968.00	967.50	962.50	960.00	960.00	957.50	956.25	957.00	949.50	951.25	954.25	947.50	948.75	945.50	942.00	931.25	931.50	932.75	926.50	924.50	926.75	919.25	917.50	918.25	913.75	921.50	915.75	911.00	915.75	911.25	902.75	907.25	916.00	897.75	896.25	895.75	891.50	893.75	883.50	880.50	884.25	876.00	874.75	870.75	866.25	865.25	866.50	861.25	868.00	870.25	862.50	860.25	871.75	861.75	857.75	853.00	853.25	840.00	838.25	849.25	845.00	839.00	842.00	837.75	846.00	835.00	829.00	832.00	824.00	815.75	820.00	818.50	821.50	809.50	809.25	812.75	816.25	810.25	812.50	811.25	807.75	810.75	809.50	801.50	794.00	802.50	799.50	790.75	791.75	781.00	788.25	790.50	780.50	779.75	771.50	775.75	773.25	769.75	770.25	758.50	766.50	768.50	759.75	760.50	752.00	757.00	759.50	747.00	750.50	749.00	746.75	746.75	742.50	740.00	740.75	735.25	748.25	741.25	730.50	740.00	736.25	732.50	721.25	721.50	722.50	731.75	731.50	724.00	722.75	718.75	728.00	721.50	710.75	726.50	723.25	705.75	717.00	723.25	725.75	714.00	710.50	716.75	717.25	717.75	709.75	709.50	717.75	714.00	710.50	706.75	707.50	709.25	698.25	703.75	704.25	699.25	697.75	689.75	698.00	707.50	684.00	686.75	699.00	690.00	689.25	691.25	689.25	678.75	684.50	696.50	693.25	672.00	678.25	690.50	700.00	694.25	683.00	676.75	670.25	676.50	690.50	694.50	696.00	690.00	683.00	682.25	692.00	696.50	696.25	696.50	688.75	681.75	680.50	684.00	688.75	692.25	693.75	697.75	704.50	700.00	693.75	687.25	687.75	697.00	699.25	693.50	689.75	695.25	694.75	686.25	689.50	693.00	692.25	686.00	674.00	677.00	686.75	692.25	694.25	680.75	682.75	685.00	680.75	671.00	676.25	682.50	683.50	684.25	678.25	665.00	657.00	663.25	671.50	669.50	669.25	665.50	665.00	659.75
1018.25	1014.00	1015.25	1010.25	1005.25	1002.00	1003.00	1004.00	1000.00	991.75	988.25	989.25	985.75	981.75	981.00	978.00	975.75	971.50	969.00	966.00	963.00	961.00	962.75	960.00	957.50	952.00	947.25	953.50	952.00	947.00	955.00	944.25	940.25	932.75	933.50	929.00	926.25	924.50	923.00	918.50	918.25	920.50	919.25	915.25	907.75	912.50	919.75	905.50	907.00	917.25	907.00	890.75	898.50	896.00	894.25	887.50	882.25	887.00	884.00	879.25	874.50	867.50	865.75	869.75	865.00	862.00	877.75	864.50	858.25	873.50	875.00	858.00	854.25	863.75	851.00	836.25	847.75	849.25	841.25	846.00	834.50	842.25	842.75	828.50	836.25	828.50	813.75	820.50	820.00	825.25	817.75	808.00	816.00	823.50	820.00	812.75	809.75	803.00	809.25	811.50	808.00	798.00	803.75	802.75	789.75	799.25	782.50	784.50	789.50	778.00	779.50	778.00	773.50	775.00	766.00	777.00	766.00	764.00	773.00	762.00	763.75	759.25	753.50	762.00	751.75	745.75	758.25	743.50	751.50	742.50	741.50	747.75	735.00	749.25	755.25	728.00	731.50	747.25	733.50	726.00	713.50	718.25	738.25	728.50	730.00	731.25	719.25	733.00	720.75	709.25	734.75	722.00	708.00	724.50	735.00	720.00	708.50	711.50	722.50	730.00	705.75	706.75	717.75	709.50	721.75	696.75	712.25	710.75	709.50	704.75	686.75	713.00	725.25	684.00	689.00	702.50	702.50	697.75	682.50	694.75	710.00	677.50	694.25	701.25	678.25	677.00	707.25	699.50	669.50	671.00	700.50	696.75	694.75	681.50	670.75	672.50	676.75	691.50	705.75	696.50	680.25	677.75	683.75	695.75	704.50	698.25	690.00	682.25	680.50	681.50	683.00	692.75	702.00	703.75	703.50	706.25	694.50	685.25	685.25	690.00	701.00	710.25	701.25	689.75	686.25	688.00	686.00	692.25	701.25	695.00	678.50	670.25	684.25	698.75	705.50	701.00	691.00	682.50	681.00	674.25	671.50	682.50	693.75	687.00	681.50	667.50	659.25	661.75	670.75	681.75	688.75	681.50	668.00	656.00	652.50	661.50
1017.00	1015.00	1013.75	1009.00	1007.50	1007.50	1005.25	998.75	994.00	992.50	993.00	992.75	985.75	983.00	981.25	980.00	980.25	972.50	970.25	968.50	968.25	966.50	964.00	960.00	956.00	951.25	958.00	954.50	947.00	953.50	947.50	943.50	935.25	934.25	930.50	930.00	930.25	932.00	923.00	921.25	928.25	925.75	923.25	918.00	919.75	920.75	910.00	911.25	920.00	909.25	894.00	899.50	903.00	902.00	891.00	886.75	892.75	884.75	884.25	875.25	868.50	871.50	876.25	872.25	866.50	870.75	861.50	860.00	876.50	903.75	857.50	855.50	858.25	859.00	844.25	850.50	856.00	848.00	850.75	839.50	847.50	838.00	837.75	836.00	828.25	825.25	824.75	831.75	826.50	812.50	812.50	819.75	825.50	821.25	810.25	809.75	811.75	815.50	819.50	800.75	805.25	806.50	803.00	794.25	796.25	791.00	790.75	790.50	778.25	778.00	777.50	778.00	774.00	773.25	775.50	767.75	767.25	766.75	762.75	763.25	763.00	758.25	764.50	758.00	754.00	752.25	748.25	751.25	749.00	752.75	749.25	739.00	749.75	742.75	735.00	748.50	744.50	733.75	723.25	728.75	735.25	731.50	736.50	731.25	729.50	731.50	731.75	724.50	726.00	731.25	722.75	723.25	728.25	727.25	715.75	712.00	722.25	720.25	718.75	716.25	714.75	724.75	711.75	726.50	707.25	713.25	717.50	705.50	710.75	710.75	709.50	701.25	689.00	705.25	710.75	697.50	694.00	694.50	694.75	702.25	696.50	690.25	686.00	691.00	692.50	695.50	680.50	674.50	683.00	695.00	698.25	686.00	677.25	675.00	684.25	689.25	693.00	693.25	682.50	686.25	690.50	690.25	693.00	692.75	687.75	684.00	684.75	690.25	694.00	700.75	703.25	702.50	700.50	695.75	695.50	693.75	695.75	700.75	705.75	705.50	701.00	693.50	697.25	701.75	702.75	697.75	694.25	690.00	684.25	684.50	692.75	699.75	699.25	693.00	682.50	679.25	685.50	685.75	683.50	682.75	684.50	685.50	677.25	676.50	680.00	677.75	680.75	682.25	675.75	670.00	664.25	667.25	670.75	668.00	670.25	668.50
1017.50	1012.75	1013.25	1014.25	1009.50	1009.25	1000.00	997.75	995.75	994.00	991.50	999.00	983.25	986.00	984.75	982.25	974.50	971.00	977.00	973.50	968.00	970.50	960.25	956.00	954.25	956.75	957.00	951.00	952.50	948.50	940.75	938.00	936.25	937.50	931.50	935.50	938.00	929.75	922.00	932.75	931.50	918.50	915.50	926.50	916.25	909.00	914.75	926.75	907.00	897.25	907.00	916.00	901.50	897.25	889.75	897.25	885.50	882.25	878.50	870.00	870.75	881.75	876.25	867.75	880.00	861.25	862.25	863.75	910.50	891.25	853.50	860.00	862.50	854.75	854.00	851.25	844.25	852.50	834.25	848.75	838.00	837.75	847.00	827.25	831.25	841.50	832.50	831.75	816.25	817.50	828.00	833.25	817.50	814.00	811.75	817.50	822.50	817.00	800.25	799.00	807.50	806.50	803.00	805.25	788.25	789.50	783.25	777.00	782.25	774.25	781.00	770.75	776.50	777.50	766.00	771.75	772.25	761.75	768.00	759.50	755.75	763.25	752.50	754.00	751.25	749.00	756.75	745.75	763.75	753.25	745.00	763.75	744.25	738.00	756.75	742.50	725.50	731.50	741.25	743.00	733.00	743.25	732.75	721.75	750.50	730.25	715.00	739.25	723.75	715.75	732.00	723.00	713.00	716.75	721.25	729.50	721.00	723.25	730.50	722.00	725.25	718.50	730.25	720.25	713.50	723.50	709.75	703.50	727.50	681.00	679.50	728.00	732.75	707.25	681.75	704.50	722.50	690.75	701.25	707.25	676.25	689.00	715.50	703.75	680.50	670.75	683.75	696.00	691.75	707.75	686.50	674.00	683.50	692.75	690.00	683.00	684.75	696.25	700.00	694.50	684.50	686.00	684.50	683.50	687.25	698.00	703.50	703.75	706.00	699.00	694.25	689.75	692.50	699.75	711.25	714.00	703.25	700.75	693.50	692.25	697.75	711.75	713.50	701.75	693.50	688.00	688.50	696.25	703.00	707.25	702.75	688.00	682.25	689.75	700.25	706.25	701.75	687.25	680.50	676.00	673.00	681.25	696.50	694.50	687.75	679.25	669.50	669.50	678.50	681.00	684.00	679.00	663.00	659.25	655.50	657.50
1021.25	1018.00	1017.75	1015.00	1008.50	1004.00	1001.25	999.25	996.25	996.00	995.50	986.25	987.25	985.25	986.25	979.75	975.25	977.00	972.75	969.50	967.75	963.75	961.75	958.75	961.50	960.00	957.75	952.75	945.50	944.50	940.75	941.75	938.25	937.00	940.25	940.50	934.00	926.25	930.50	929.00	923.50	923.25	921.00	913.75	915.25	921.00	920.50	908.50	903.50	913.00	912.00	908.00	898.00	897.25	894.00	891.25	886.00	886.75	874.25	881.25	876.25	877.50	878.75	874.25	866.75	869.25	869.00	863.00	861.50	854.50	862.50	859.25	866.75	874.50	859.25	845.00	849.00	840.00	846.75	841.75	837.50	832.75	831.75	835.75	834.25	831.75	830.00	827.75	826.75	831.00	829.25	827.00	823.00	822.75	822.00	822.25	817.50	803.75	805.50	801.50	806.50	803.00	803.25	795.25	792.75	788.75	782.25	785.50	776.25	770.75	776.25	770.75	775.75	771.75	771.00	776.00	768.75	767.25	767.50	764.00	757.75	759.25	752.00	756.00	750.00	756.00	762.75	753.75	764.75	751.00	752.25	750.50	747.75	745.25	742.00	736.25	748.25	744.50	745.00	734.75	747.75	747.75	731.00	743.75	728.75	724.75	730.25	738.75	724.75	731.75	725.25	727.00	728.75	721.50	733.00	732.75	718.75	725.50	727.50	728.00	715.25	720.00	725.50	702.75	728.75	711.50	699.50	719.75	716.25	702.50	708.50	709.50	707.25	691.25	705.00	717.50	699.00	693.00	713.50	698.50	691.25	700.75	691.50	682.50	690.25	700.00	690.00	686.75	694.50	685.25	679.75	687.75	693.50	694.50	693.50	690.00	694.75	693.00	692.25	693.75	690.75	696.50	700.25	699.25	700.50	700.75	698.25	697.25	699.00	699.75	699.75	702.50	704.75	705.75	703.50	699.25	698.50	701.75	703.75	702.75	704.75	704.00	697.00	695.25	699.00	700.00	702.75	701.00	701.25	696.25	694.75	697.25	697.75	698.50	697.50	695.00	693.75	691.75	687.50	688.50	692.00	693.75	687.75	683.25	684.50	682.25	676.00	683.50	682.25	684.75	682.25	671.00	669.50	678.75	668.75	669.25
1024.50	1014.50	1020.50	1011.50	1006.25	1005.25	1006.00	1003.00	999.75	996.25	989.50	987.75	990.00	982.00	978.75	977.25	981.25	970.75	973.75	971.75	966.75	963.75	967.25	964.00	969.25	954.00	955.00	948.25	946.75	944.75	943.50	946.25	936.00	947.75	940.75	928.50	927.25	939.25	928.25	925.00	936.25	920.25	921.50	919.75	933.25	922.00	907.25	904.50	915.75	919.25	904.50	906.75	896.00	898.00	892.00	887.00	892.50	877.50	882.75	880.50	878.75	885.00	878.00	864.25	874.50	880.00	872.50	855.75	849.50	855.25	859.75	848.50	861.00	878.00	863.75	848.75	847.00	853.25	843.25	848.25	833.50	836.50	843.50	830.25	833.00	828.50	833.50	837.00	828.75	832.75	826.25	831.00	826.50	827.25	829.00	811.00	799.75	814.50	814.25	796.50	801.25	795.25	794.50	799.00	793.00	793.00	788.25	787.25	773.00	779.25	780.50	775.50	779.00	777.50	768.25	786.25	763.50	768.50	775.50	764.00	764.75	761.00	758.50	755.50	760.75	777.50	754.75	766.25	765.00	749.50	755.00	774.50	753.25	727.50	741.50	765.25	754.25	732.75	738.00	752.25	749.25	730.50	739.00	737.75	727.75	726.25	737.50	737.00	717.75	726.25	740.50	732.00	724.00	737.25	745.50	719.75	719.75	743.50	728.00	712.00	731.50	725.00	710.00	716.00	716.25	687.00	708.50	738.75	730.50	686.50	704.00	736.00	717.25	699.25	718.50	712.25	682.00	707.00	720.50	687.25	703.75	709.00	689.00	693.75	709.25	683.25	678.75	684.25	688.00	684.00	685.75	705.00	710.00	701.50	685.75	684.75	697.50	705.50	703.50	697.00	705.50	709.00	701.00	694.50	692.75	696.25	704.25	712.50	710.25	704.75	701.00	699.25	697.00	699.75	704.00	709.00	709.25	707.75	701.00	698.50	699.25	699.00	702.25	706.50	706.00	702.00	699.25	702.25	704.50	703.50	700.00	696.50	692.75	697.50	703.75	704.75	697.50	690.25	687.25	684.50	683.50	688.50	698.50	697.25	689.00	677.00	676.75	684.25	694.25	690.00	676.25	671.00	683.50	674.75	666.25	677.50
1019.75	1017.00	1012.25	1011.25	1008.25	1012.50	1006.00	1004.00	1000.50	992.50	989.00	989.25	984.25	983.00	980.75	981.50	978.25	976.50	974.75	969.25	968.50	968.50	970.50	968.50	956.50	954.75	951.25	949.75	949.25	950.75	945.75	940.25	944.25	941.00	928.75	929.25	936.50	933.25	929.00	933.75	926.75	923.25	922.75	928.00	922.50	914.50	907.25	916.50	917.25	907.50	909.25	902.00	899.25	894.00	893.50	899.25	884.00	883.00	893.75	882.00	883.50	878.75	866.25	870.25	883.75	874.50	859.50	854.50	864.75	868.75	851.75	855.00	847.50	838.25	842.25	849.25	851.25	846.50	844.75	836.50	839.25	839.25	834.00	837.50	839.00	829.75	834.25	835.25	827.00	819.00	827.75	827.75	825.50	827.00	810.75	808.50	819.00	809.75	800.25	800.50	802.25	804.25	798.50	794.50	802.00	797.00	788.00	786.00	785.75	782.50	785.75	785.25	780.00	784.50	783.00	772.75	773.00	774.75	764.50	772.50	769.50	763.50	769.50	776.00	764.25	759.25	772.75	762.75	753.75	766.75	761.50	746.25	737.50	761.75	764.50	740.75	734.75	748.50	756.00	741.25	739.25	747.00	740.00	730.50	742.25	737.75	726.00	721.75	739.00	736.75	729.50	741.25	739.00	731.50	719.00	733.50	736.00	727.00	727.00	726.50	724.25	720.50	722.00	718.00	724.50	727.50	721.75	712.50	712.25	715.50	710.25	719.00	708.75	701.75	708.75	709.25	712.25	705.00	700.50	701.75	699.50	699.50	701.00	702.25	692.25	694.25	692.00	691.25	692.75	700.25	702.50	696.00	686.25	688.00	699.00	703.00	703.50	701.25	698.50	699.50	697.75	694.50	695.25	699.75	703.25	706.00	706.75	701.50	699.00	699.50	700.25	704.00	708.75	712.50	713.25	710.00	702.25	702.25	702.00	703.50	706.75	708.75	707.50	706.75	705.25	702.25	702.50	703.25	702.25	702.25	700.25	698.25	701.00	700.75	696.00	695.75	698.50	697.00	693.75	693.00	694.75	695.25	689.50	685.00	687.75	691.50	691.00	685.75	680.00	681.25	683.75	684.00	677.75	675.25	682.25	677.00
1022.00	1014.75	1015.25	1012.25	1013.00	1006.00	1007.25	1003.75	995.50	991.75	990.25	990.00	985.25	985.25	987.50	978.50	976.50	976.50	972.00	972.50	977.75	968.50	969.75	957.50	954.50	954.25	952.75	952.25	957.75	950.25	941.00	941.50	945.25	932.50	932.50	943.50	935.00	926.25	936.25	928.00	921.75	920.00	924.50	924.50	920.75	913.25	921.00	919.00	907.00	915.00	899.25	903.25	899.25	892.75	898.50	893.00	882.50	897.25	887.75	885.75	882.25	868.75	872.75	883.00	874.75	862.00	854.75	868.50	872.00	858.50	858.25	862.00	847.00	839.75	847.00	853.50	839.50	849.50	841.50	835.00	843.00	836.50	838.25	841.50	832.25	834.50	836.00	835.75	819.50	832.50	830.75	834.00	820.50	810.25	812.00	824.75	807.75	804.00	808.25	810.75	817.00	799.25	798.75	809.00	793.25	785.00	799.00	796.00	780.50	790.00	794.00	779.00	787.75	779.50	786.00	782.75	780.00	773.00	784.50	772.00	768.00	775.75	781.75	760.00	762.25	785.75	757.25	751.50	775.75	764.50	738.00	744.75	769.50	755.00	727.25	748.50	759.50	754.25	728.50	756.50	752.75	731.75	740.00	743.50	723.50	719.50	735.00	755.75	728.25	732.00	752.00	729.75	716.00	731.00	751.00	726.75	715.50	738.75	724.50	726.50	736.00	704.50	699.00	730.00	718.50	693.25	706.75	738.25	724.00	704.25	735.50	695.25	688.50	721.00	728.50	698.50	698.25	714.00	700.25	692.75	721.25	700.00	680.75	697.75	704.00	691.00	693.25	713.75	713.00	691.00	684.75	686.75	698.75	712.25	702.50	691.00	696.75	700.25	696.75	694.75	695.50	700.50	703.25	703.25	700.50	698.00	698.75	701.00	702.25	706.50	710.00	713.75	710.00	703.25	703.00	705.00	708.00	708.50	706.75	706.75	707.25	705.75	705.00	705.50	706.75	711.00	711.25	709.00	709.25	703.50	700.50	699.75	696.75	700.25	709.25	712.00	704.00	693.50	694.00	696.50	697.25	694.50	692.75	697.25	694.00	682.25	681.75	692.00	697.50	689.00	676.50	676.75	687.50	684.75	670.00	671.00
1020.00	1016.25	1014.25	1013.50	1012.00	1005.75	1003.00	997.25	995.75	995.00	991.75	989.00	985.50	987.25	980.50	978.50	979.00	976.00	978.75	978.00	968.75	970.50	967.75	959.00	957.50	956.00	954.50	955.25	952.75	943.50	946.00	951.75	936.00	935.00	943.00	940.25	930.50	934.25	927.75	924.25	926.50	924.50	926.75	919.50	915.50	918.75	922.75	911.25	914.75	910.00	909.75	907.50	896.00	898.50	901.50	886.50	893.25	887.00	889.75	882.25	875.50	881.50	882.75	877.25	876.50	863.75	868.75	873.25	866.00	855.75	861.00	853.75	846.50	848.75	852.50	845.75	849.00	837.50	836.75	845.75	838.00	843.00	839.25	840.50	839.25	830.50	839.75	832.75	830.50	831.00	833.75	826.25	818.50	821.25	824.75	817.00	820.50	807.00	819.50	819.50	805.75	810.00	810.75	795.25	791.75	804.00	796.50	788.25	799.50	800.75	787.50	789.50	792.75	791.50	786.00	779.25	783.00	780.25	775.75	779.50	773.75	772.25	760.50	775.00	778.75	759.75	765.50	772.00	754.00	741.00	757.25	769.25	750.50	747.50	754.00	756.00	752.00	749.75	752.00	746.75	738.75	742.25	741.00	737.25	734.25	742.75	744.00	731.50	741.25	741.25	731.00	726.25	735.25	737.50	729.00	732.00	731.75	735.50	728.25	724.50	718.75	724.50	729.75	727.75	723.25	721.25	720.75	723.25	719.75	719.75	710.00	720.75	718.25	711.00	712.25	702.00	701.50	709.75	707.75	704.75	692.25	706.75	709.00	702.75	702.00	704.50	704.25	694.75	685.50	691.25	704.75	706.00	703.50	696.00	692.75	695.75	697.50	695.75	695.75	697.25	700.50	701.25	700.75	701.50	702.25	706.25	710.75	712.25	712.50	710.00	708.50	706.50	709.50	711.00	714.00	712.50	710.25	708.50	708.50	708.00	708.75	711.50	714.25	715.00	713.25	709.50	708.50	708.50	708.50	707.50	705.75	705.25	706.50	707.50	704.25	699.75	701.00	707.50	708.25	705.25	701.25	696.50	692.25	690.75	690.00	692.50	694.25	692.00	687.50	687.25	691.00	691.50	684.50	673.50	675.00	681.50
1019.50	1014.00	1013.00	1008.25	1007.50	1003.75	1000.75	999.00	1000.25	996.25	992.00	991.00	985.25	982.00	981.25	981.00	978.75	981.75	979.50	969.25	972.50	968.75	963.25	961.00	959.75	957.75	957.25	953.50	946.50	950.00	953.75	943.00	936.50	946.00	935.00	931.50	933.25	929.50	927.25	929.25	931.75	925.25	925.25	916.25	918.25	924.75	906.00	912.75	910.25	901.50	908.00	896.75	901.00	906.00	892.25	897.00	891.00	884.75	887.75	867.50	880.50	884.00	868.75	882.50	864.75	868.50	874.00	868.00	857.25	861.00	852.25	845.75	854.00	858.75	846.25	850.25	842.00	835.00	846.50	843.50	853.25	846.25	843.25	841.50	839.75	834.50	838.75	833.00	833.25	831.50	826.75	824.25	821.00	836.25	814.50	822.00	813.25	823.50	830.00	796.75	802.50	813.50	792.25	798.25	818.75	815.50	789.75	803.75	805.75	789.75	787.50	790.75	801.00	779.00	778.75	790.75	789.75	776.50	788.75	767.75	766.50	772.75	791.50	774.25	754.00	774.75	778.50	746.50	754.75	768.25	766.00	739.50	750.50	772.00	750.75	732.50	753.50	756.75	734.25	744.75	743.00	753.00	728.25	738.50	759.25	752.50	737.25	747.75	730.75	733.25	744.25	743.25	734.00	745.75	734.75	732.50	751.50	727.75	710.50	743.25	740.25	718.25	719.25	735.75	715.25	714.50	737.50	720.75	698.50	732.25	739.50	697.25	694.50	733.25	693.00	697.00	729.75	711.75	683.00	702.25	731.25	706.25	690.75	714.75	709.50	690.00	685.75	689.50	705.75	720.50	698.00	688.50	691.25	696.00	696.25	700.00	700.25	698.25	697.75	698.00	700.00	702.50	707.50	710.00	711.50	712.50	707.50	704.25	704.25	710.00	713.75	722.50	723.00	717.00	712.50	709.25	711.75	710.50	710.75	714.00	720.00	720.75	714.50	709.75	710.50	712.75	714.00	711.25	709.25	709.75	710.50	710.25	705.75	704.00	706.50	709.75	718.00	708.50	698.50	696.75	697.50	695.00	694.75	696.50	695.75	692.75	692.75	697.50	695.25	690.25	683.50	681.75	681.75	695.00	701.00	697.00
1021.50	1016.75	1013.25	1009.00	1008.25	1005.00	1002.75	1001.00	1000.00	996.25	997.25	991.50	986.75	984.75	983.50	983.25	984.00	980.25	971.75	971.50	971.75	966.25	964.25	962.50	961.75	960.75	957.50	951.75	955.50	955.50	944.00	940.75	943.00	939.75	933.75	933.25	932.25	929.50	935.50	935.50	932.00	922.00	919.25	923.25	923.50	912.50	916.50	915.25	913.25	908.50	901.75	903.00	907.00	896.75	896.00	895.50	887.50	886.75	881.00	884.00	886.50	873.00	883.25	879.50	867.75	875.25	865.25	857.75	865.25	857.50	852.00	853.50	863.00	848.75	846.25	839.75	839.75	846.00	849.75	851.50	845.50	842.75	844.25	839.75	838.25	842.25	834.75	837.50	834.00	834.00	829.75	823.50	830.75	821.00	820.50	817.75	821.00	820.25	805.50	810.75	822.00	807.00	803.50	818.75	808.50	792.50	812.75	808.00	788.50	787.75	799.50	800.50	782.00	785.25	797.50	788.00	784.75	781.00	777.50	773.50	776.50	780.25	764.25	763.50	778.50	770.25	763.00	759.00	763.50	765.25	759.00	762.00	766.50	747.75	745.75	763.25	753.75	741.75	757.25	749.75	748.00	732.75	751.50	757.50	745.50	743.75	743.50	740.00	747.50	745.00	736.50	743.25	737.25	736.25	742.50	736.00	723.00	731.00	741.75	730.00	725.25	727.75	729.25	725.75	720.25	721.25	721.75	727.00	722.50	716.00	714.00	718.75	717.50	702.50	718.25	717.50	700.25	709.25	722.25	717.00	702.00	708.50	712.75	701.50	690.00	695.75	708.75	712.50	707.75	692.25	692.75	695.75	699.75	707.50	707.50	700.25	696.75	701.00	704.00	704.00	706.25	707.25	709.25	708.50	707.25	709.75	711.75	716.50	717.75	717.25	716.50	714.25	712.75	713.50	714.50	714.75	718.00	721.00	720.75	722.00	718.75	715.75	717.00	718.75	718.50	716.00	713.50	711.25	711.50	712.50	710.75	710.50	710.75	711.00	710.25	709.50	703.50	700.75	701.00	702.00	702.75	703.25	706.00	703.50	700.75	698.25	696.25	692.50	691.00	695.25	697.00	697.75	695.00	691.25	680.75	679.25
1026.00	1016.75	1013.00	1010.25	1009.00	1005.00	1003.50	1000.75	999.25	998.75	998.00	991.50	988.50	987.25	984.25	984.50	981.00	975.25	975.25	972.75	969.75	967.50	965.50	964.75	966.75	955.25	956.75	957.50	960.25	947.00	943.00	942.50	941.75	937.00	935.75	939.00	936.25	942.25	935.25	932.75	926.25	918.00	919.25	925.00	912.00	915.25	918.50	914.50	909.00	903.75	904.50	901.25	898.00	891.25	903.00	883.50	891.25	881.25	879.00	887.50	867.25	884.00	881.25	865.25	877.00	868.00	853.50	867.75	866.25	852.00	862.75	854.75	854.75	857.00	844.75	854.50	852.25	845.00	854.00	845.00	850.00	841.25	845.75	842.00	847.00	833.25	845.00	830.50	843.00	828.50	826.50	840.50	822.00	828.00	818.50	827.00	829.75	809.25	822.00	821.00	824.25	804.75	826.00	816.25	796.00	807.50	811.50	785.25	794.25	813.75	806.50	780.75	792.75	808.50	787.50	793.25	781.00	792.50	780.00	779.25	788.00	772.75	778.25	787.00	756.00	776.00	762.50	765.25	761.00	776.50	754.75	764.50	763.50	752.00	771.50	733.25	736.50	768.00	751.50	731.25	743.25	756.50	755.25	736.75	748.50	736.25	744.75	771.00	733.25	740.75	765.50	732.25	735.75	741.75	718.00	731.25	759.75	738.25	723.50	746.75	726.00	715.25	745.25	737.50	710.50	741.75	738.25	711.75	710.25	740.50	717.75	696.00	711.25	733.50	697.50	705.75	737.75	721.25	695.00	708.25	727.25	702.75	687.25	692.25	710.00	725.25	706.00	693.75	695.50	696.25	704.75	719.50	720.50	708.25	695.75	703.75	716.25	713.50	707.25	705.75	706.25	706.00	706.25	709.50	712.50	715.75	714.50	712.00	712.75	714.25	716.50	717.50	717.00	716.75	717.00	717.25	720.75	717.00	715.50	713.75	717.00	723.00	723.50	720.25	716.50	714.75	716.00	718.50	717.25	714.00	713.25	713.75	711.00	710.50	707.25	706.00	706.00	706.50	707.75	710.25	712.50	712.50	705.50	698.25	696.00	697.00	696.75	701.75	707.50	701.25	689.25	683.75	681.75	682.50	694.50	699.25
1021.50	1016.50	1015.75	1016.50	1013.50	1007.25	1006.25	1003.25	1001.00	998.50	994.50	992.75	990.00	990.25	987.50	985.00	979.50	977.00	975.75	972.50	970.25	968.00	970.00	967.75	962.00	959.75	958.50	956.50	948.75	945.25	945.75	944.50	940.00	939.25	943.50	943.00	942.75	934.25	933.50	925.25	921.50	921.00	929.50	912.25	916.00	920.00	918.50	911.75	908.00	905.25	908.00	905.25	895.75	900.25	889.75	893.25	889.50	883.75	884.50	874.75	883.25	876.00	860.75	875.75	871.75	859.75	867.25	871.75	855.25	862.75	861.00	856.25	851.25	846.25	852.50	856.50	848.50	858.00	848.00	853.75	845.50	843.00	844.00	843.75	835.75	845.50	833.75	839.50	829.50	827.25	837.00	824.50	819.50	821.00	826.50	825.00	811.75	814.75	819.50	815.00	800.50	822.50	817.75	811.25	812.25	819.25	791.50	803.00	808.75	795.75	782.00	795.25	794.50	792.75	787.25	788.50	788.75	774.25	773.25	787.50	781.50	771.75	773.50	771.75	771.25	769.25	770.25	764.75	769.00	761.50	765.75	767.75	762.25	758.75	747.00	765.50	765.75	749.25	738.25	757.25	763.75	755.75	745.75	743.75	742.75	757.00	752.25	738.00	751.00	751.50	742.25	745.25	743.25	744.00	746.25	741.00	736.25	733.00	730.25	731.00	729.00	736.00	730.50	733.50	727.75	724.75	725.50	724.75	723.25	708.25	720.00	716.50	719.25	706.25	724.00	722.75	707.50	713.00	715.50	711.00	693.50	700.00	715.00	714.00	710.25	697.25	699.50	704.75	707.75	712.50	713.75	704.75	697.75	701.00	707.25	708.25	704.50	704.25	708.00	709.50	710.00	710.00	710.75	712.50	714.25	715.75	718.00	722.75	721.25	721.50	721.00	719.25	719.50	718.00	717.50	717.75	715.50	718.00	724.00	725.50	724.25	723.00	720.00	719.25	720.50	723.75	721.00	716.50	716.25	716.25	715.25	714.25	712.50	711.75	711.25	711.00	711.75	716.50	714.50	712.50	709.75	704.75	703.25	705.75	706.00	705.00	704.00	700.25	695.25	693.00	697.00	698.25	699.25	698.50	690.75	686.25
1020.75	1017.00	1016.75	1013.00	1011.25	1008.25	1007.75	1003.50	1001.25	998.00	995.00	993.75	992.00	991.25	985.25	982.75	980.50	978.00	975.75	972.00	970.75	968.25	970.00	962.25	959.50	957.00	958.75	953.75	948.50	947.00	945.25	943.25	941.50	946.75	940.25	945.25	939.50	933.50	925.25	922.25	921.25	935.75	931.25	917.00	918.25	918.25	910.50	912.50	904.50	906.25	908.50	901.00	907.25	888.75	889.00	894.00	877.25	890.00	870.00	883.75	883.00	859.75	871.25	879.50	858.25	867.00	878.50	858.25	867.50	864.50	861.25	849.75	848.25	862.75	859.00	853.75	856.25	858.25	857.00	849.25	845.50	847.25	843.00	838.00	850.50	832.00	847.50	828.75	836.75	839.75	831.00	824.00	820.50	837.75	829.25	821.25	818.00	824.50	824.00	803.50	824.25	818.00	808.25	819.00	812.25	799.00	815.75	813.00	785.00	787.00	801.25	796.50	793.50	785.00	785.75	796.75	773.50	782.75	792.50	789.00	764.75	771.50	788.75	778.50	770.00	786.75	753.00	777.75	771.50	768.50	763.00	780.00	752.50	755.75	771.75	761.25	734.75	747.00	769.00	764.25	743.50	751.75	745.75	745.00	762.00	739.75	744.00	763.75	738.75	750.75	753.00	726.75	749.25	737.50	723.75	741.50	754.00	719.75	743.50	737.75	723.50	745.00	728.75	712.25	745.50	748.50	711.25	707.25	726.25	735.25	709.75	705.50	730.00	742.75	700.25	709.50	735.50	720.25	693.25	699.00	724.75	727.25	706.25	699.00	704.50	716.75	712.75	713.50	714.75	703.50	695.00	697.50	705.50	703.75	701.00	705.00	711.50	712.75	715.75	714.00	712.50	713.50	715.25	720.25	724.25	723.75	722.50	719.00	717.75	717.50	718.25	720.50	720.00	719.50	720.25	721.00	732.00	734.75	728.50	723.50	721.00	722.50	727.25	729.75	726.00	719.75	717.25	720.25	720.25	718.00	716.50	717.25	717.75	716.75	715.75	716.50	717.00	713.50	710.50	709.25	708.00	710.25	710.75	709.25	705.00	701.00	699.00	699.00	704.00	708.75	708.00	699.00	689.00	686.00	697.50	701.00
1022.25	1020.50	1017.50	1014.75	1011.25	1009.75	1006.75	1004.75	1001.25	998.75	996.00	994.25	991.50	989.50	986.25	983.75	981.25	978.00	975.25	971.50	970.25	969.50	966.25	961.25	960.50	956.50	954.75	951.25	948.75	948.00	945.50	944.25	949.50	945.25	941.25	941.25	934.25	934.50	923.50	927.50	932.25	929.50	918.50	922.75	922.75	917.25	916.50	913.50	912.25	912.25	908.25	907.50	896.00	897.50	896.00	882.00	885.75	879.25	881.00	881.50	865.75	873.00	883.50	862.50	872.75	875.00	861.00	858.75	871.75	862.25	850.50	857.75	865.00	862.75	858.50	864.75	864.50	857.75	855.75	850.50	848.25	841.50	844.00	848.50	845.25	842.50	829.25	835.75	843.25	832.50	826.00	821.50	833.50	833.75	818.75	817.50	826.50	818.75	805.75	825.00	816.25	813.75	816.50	810.75	805.75	806.75	802.50	799.75	809.00	803.25	804.25	794.75	792.00	796.00	792.25	785.75	787.25	790.25	787.25	777.50	785.75	784.25	779.50	772.00	772.25	769.50	778.75	766.00	766.75	774.00	765.50	757.25	762.25	759.50	756.50	740.50	754.50	765.00	757.00	753.75	760.25	755.25	750.75	751.50	746.75	755.00	752.75	749.00	750.25	745.25	748.25	752.00	746.50	746.00	743.00	734.75	732.75	739.50	747.00	730.50	734.50	729.75	733.25	731.50	720.75	724.50	732.50	725.00	722.75	721.00	725.25	731.25	723.50	713.25	725.25	723.25	708.00	710.50	718.25	719.00	718.75	714.50	705.75	708.25	717.00	716.00	710.25	707.25	701.50	701.75	711.50	709.00	705.00	704.75	707.75	711.50	712.75	713.00	716.75	719.25	721.25	720.75	721.00	721.25	718.00	718.25	717.50	719.50	719.50	721.00	724.75	728.75	729.75	731.75	734.75	735.50	731.50	726.50	724.00	725.50	728.25	728.00	725.75	723.00	722.75	725.75	726.25	723.75	722.00	721.00	720.75	720.00	717.75	717.75	717.50	716.75	714.25	712.25	712.25	713.25	715.25	715.25	711.25	706.00	706.00	708.00	708.50	707.25	706.25	701.00	696.25	697.50	701.25	703.75	697.25	691.25
1024.25	1021.00	1018.50	1014.50	1012.25	1010.50	1007.25	1004.50	1002.00	1000.00	996.50	995.00	990.75	988.75	986.00	984.25	981.50	979.00	974.50	972.50	971.75	971.00	964.50	965.75	963.50	957.75	955.00	952.75	950.25	948.00	946.75	947.00	945.25	940.50	940.00	934.00	936.25	931.50	930.00	943.50	933.25	918.00	920.25	921.50	914.25	917.00	909.00	912.00	913.00	912.00	905.00	896.50	902.50	903.25	889.75	891.50	880.75	882.00	892.00	866.25	867.00	884.25	870.00	860.75	882.50	861.75	859.75	873.75	866.00	854.75	867.50	880.50	862.25	868.75	866.00	860.75	854.75	863.25	853.75	850.25	844.75	850.25	854.25	848.25	847.00	829.00	843.75	841.25	827.50	828.25	830.50	835.00	835.75	821.50	816.50	829.00	811.00	817.50	829.75	806.75	810.00	817.75	811.25	811.00	809.00	795.25	819.00	815.00	796.75	808.25	797.25	794.75	804.00	778.50	793.00	798.75	783.50	790.50	783.75	788.00	772.00	780.00	772.00	775.50	783.25	785.75	757.25	781.25	777.25	751.25	765.25	787.25	754.75	745.25	746.75	768.25	779.25	755.00	758.75	770.75	746.50	756.50	743.75	754.50	754.25	738.25	755.75	757.50	749.75	766.25	744.00	744.75	767.75	723.50	717.25	744.50	751.25	751.00	722.75	715.00	756.00	757.50	713.50	704.50	759.50	742.25	706.00	708.50	736.50	737.25	717.25	706.50	726.00	741.25	702.75	710.25	739.50	723.75	702.50	717.75	727.75	708.00	721.00	731.50	715.75	707.25	702.25	703.25	708.75	724.25	716.00	705.50	711.50	710.75	709.00	711.00	715.75	717.50	719.00	721.25	718.25	716.50	716.25	718.75	721.00	722.75	726.50	730.75	732.50	737.00	738.25	736.75	736.25	734.25	729.75	726.00	725.75	726.50	729.00	728.75	725.00	725.00	727.00	728.00	729.75	727.75	725.50	723.00	722.75	724.25	722.50	721.25	721.00	719.50	716.75	716.75	716.00	716.50	718.25	716.50	714.50	712.25	710.75	713.50	715.75	710.50	707.75	702.75	701.00	703.75	713.25	713.00	704.50	692.75	692.25	699.75
1024.25	1019.75	1018.25	1016.00	1013.75	1010.25	1008.00	1005.25	1002.75	1000.50	997.75	996.00	991.50	989.50	985.75	984.00	981.75	977.75	975.25	975.00	974.75	967.50	966.75	965.00	960.50	956.50	955.25	952.50	951.00	950.75	955.25	952.50	947.25	945.75	938.50	939.75	938.75	929.75	939.00	930.00	920.00	921.75	929.50	918.50	919.50	913.25	911.25	914.50	914.25	913.00	896.00	899.75	908.00	892.50	895.75	881.25	885.50	886.25	874.50	872.25	882.50	866.75	858.50	876.25	863.75	862.50	874.50	869.25	859.25	868.00	878.25	860.75	868.25	872.50	865.75	866.25	862.25	859.50	850.25	851.50	850.00	851.50	847.25	841.75	831.50	845.25	841.25	833.00	837.75	834.50	838.50	839.50	821.75	819.00	828.50	817.00	822.50	823.00	813.75	820.25	821.25	810.50	816.25	802.00	802.25	815.75	804.25	805.75	804.75	794.50	799.00	804.75	800.25	803.25	794.75	795.75	799.00	782.00	791.50	787.00	777.25	787.25	780.25	767.25	775.50	778.75	783.25	764.75	763.25	776.75	774.50	751.75	745.50	761.75	772.75	766.50	754.25	764.50	765.75	746.25	744.50	748.25	761.75	754.50	756.75	754.50	758.75	754.25	755.75	754.75	751.00	746.50	731.25	752.50	758.00	742.75	739.25	734.00	743.00	741.50	723.25	721.25	740.50	737.25	717.50	719.00	735.00	734.25	729.00	729.50	725.25	728.25	728.00	716.25	722.25	729.25	716.50	715.50	724.00	722.75	717.25	719.75	719.50	712.00	707.75	711.75	724.25	724.75	722.75	714.00	708.00	712.00	710.00	712.25	713.50	713.25	714.75	714.75	716.50	719.75	722.00	723.25	723.50	724.75	727.75	733.00	736.00	736.00	734.50	732.50	733.50	729.50	728.00	727.25	726.50	728.25	728.50	728.00	728.25	727.50	728.25	730.50	730.25	730.75	728.00	726.50	726.75	726.00	725.75	725.50	725.25	724.50	721.00	720.75	720.75	720.75	721.00	719.50	718.25	716.50	715.00	714.25	714.50	714.00	712.25	709.75	709.00	710.00	711.50	710.50	707.50	699.25	696.00	697.00	697.75	695.75
1025.50	1021.50	1017.75	1015.75	1013.75	1011.00	1008.25	1005.25	1003.25	1001.00	998.50	996.25	992.00	990.00	985.50	983.25	982.00	978.25	977.00	973.75	969.75	968.25	966.00	962.00	960.25	956.75	955.25	955.25	954.25	954.25	954.25	945.50	944.50	937.50	944.75	939.00	934.00	936.00	928.25	921.50	922.00	928.75	923.00	924.75	912.25	910.75	915.50	914.00	910.00	899.25	899.75	910.25	890.00	894.25	885.75	881.50	893.75	875.00	863.75	897.00	875.50	859.00	877.50	877.75	860.75	874.25	864.50	869.25	874.00	886.75	858.50	871.25	869.00	865.00	867.50	858.00	862.50	846.75	849.75	855.50	851.75	855.50	843.50	835.00	855.00	840.25	827.00	841.00	837.00	826.50	840.75	817.00	825.25	836.75	816.50	828.75	829.50	812.25	827.50	814.75	807.75	820.50	797.75	808.50	827.00	798.25	819.50	806.50	795.75	816.75	806.25	804.25	808.50	784.50	796.25	804.00	780.75	800.50	788.25	775.25	784.50	785.75	756.50	775.00	802.00	776.00	753.50	774.75	790.75	760.75	751.25	751.25	764.50	781.00	757.25	763.75	775.75	760.50	741.75	744.75	765.00	777.75	749.00	771.50	749.25	756.25	760.50	744.00	760.50	732.50	720.25	761.00	776.25	736.00	722.75	743.25	773.25	747.00	715.00	722.25	761.25	762.00	716.00	710.75	758.25	753.00	720.50	717.50	746.75	715.75	707.25	729.75	727.25	731.00	724.75	711.25	718.25	721.25	719.75	724.25	707.50	708.00	719.50	713.00	724.50	741.25	727.00	709.25	704.25	709.75	710.75	717.50	720.00	713.00	710.75	711.00	712.75	717.25	719.25	721.50	724.25	726.00	728.00	730.25	733.75	738.00	737.00	732.25	730.75	730.75	729.25	729.50	730.50	731.75	731.75	731.25	730.75	730.75	731.25	733.25	734.75	734.00	731.75	731.75	730.00	729.75	729.00	729.75	729.75	728.50	725.75	725.00	727.00	726.75	727.25	724.75	720.75	719.75	718.50	718.25	718.00	716.50	715.50	715.00	713.50	714.25	717.00	713.25	707.75	703.25	701.75	702.75	708.50	703.50	693.50	693.25
1027.25	1022.00	1018.25	1016.25	1014.00	1012.25	1008.50	1005.75	1002.25	1000.50	997.50	995.75	991.25	989.50	986.25	984.50	982.00	978.75	975.00	971.00	970.00	968.25	966.50	962.50	961.00	958.00	955.75	952.75	953.00	954.00	950.00	942.75	939.75	943.00	937.00	935.25	939.50	943.00	924.50	923.25	927.75	925.25	920.75	912.00	909.50	917.50	916.75	912.75	906.25	899.50	907.00	899.75	902.25	897.00	892.50	898.00	886.25	872.75	876.50	882.00	866.00	887.50	882.75	867.25	878.25	862.50	874.75	881.25	887.00	875.00	870.00	871.25	865.00	869.75	866.00	862.75	855.75	861.00	858.25	848.00	859.75	845.50	843.25	852.75	842.50	836.00	849.50	843.00	838.75	843.50	830.00	835.25	832.75	821.00	829.25	825.50	814.75	833.00	825.25	812.50	818.50	810.00	817.75	816.25	804.25	809.50	804.75	807.50	803.50	800.75	803.75	804.00	799.50	808.00	802.25	787.00	801.25	785.50	782.00	796.75	790.50	782.50	795.50	788.50	764.00	767.00	785.25	781.75	761.25	753.00	755.50	772.25	779.75	762.50	770.00	773.50	759.25	749.50	759.00	770.75	764.75	757.25	760.25	757.00	754.50	765.50	755.75	757.75	738.25	759.50	759.00	749.50	738.00	752.75	746.50	736.25	734.00	739.75	748.00	744.75	738.00	731.50	740.75	738.25	734.25	735.75	730.50	732.25	726.50	734.50	734.25	728.50	722.00	722.00	722.75	735.25	729.25	717.25	716.50	719.25	722.00	723.50	725.75	730.50	728.75	716.25	710.50	711.00	718.00	718.50	719.25	714.75	713.25	710.50	712.00	712.25	715.00	718.00	720.50	722.00	727.50	728.00	729.50	730.75	731.75	729.75	730.00	731.50	732.50	732.50	732.75	735.75	737.75	739.50	741.75	741.00	738.50	739.50	738.50	736.00	735.00	733.50	734.50	732.75	732.50	733.25	733.25	731.25	729.25	728.25	729.50	730.25	728.75	728.25	725.75	725.00	723.75	722.50	721.75	720.75	719.25	718.25	717.25	715.75	715.25	714.00	714.00	710.00	707.75	708.75	709.50	709.00	706.25	699.75	699.50	702.00
1029.25	1023.25	1019.75	1017.50	1014.75	1012.50	1008.75	1005.50	1002.25	1000.25	996.75	994.00	991.25	989.25	988.25	983.25	979.25	976.25	973.50	970.75	969.75	966.75	965.00	961.75	963.25	967.75	955.50	954.75	958.00	951.00	941.25	939.75	943.75	942.50	933.25	942.50	936.00	924.75	924.75	932.25	929.75	922.00	917.00	913.75	922.50	917.00	904.50	900.50	906.00	910.25	896.75	905.00	900.00	899.00	901.75	884.75	881.25	896.00	890.75	876.25	888.75	867.00	866.75	881.25	863.75	883.25	879.50	887.25	876.00	878.25	867.75	877.25	867.00	867.50	862.25	864.00	867.00	845.25	852.25	867.50	837.50	859.25	858.25	838.75	844.50	856.25	837.25	851.50	830.25	838.75	844.00	822.75	823.75	829.00	829.25	829.50	839.50	815.50	820.00	811.50	807.25	816.25	805.00	821.25	799.00	799.00	813.75	795.50	802.25	821.00	794.75	805.50	800.50	787.50	807.75	791.00	793.00	802.25	787.75	770.50	795.75	788.50	762.25	777.50	797.25	767.75	770.00	762.25	759.75	767.00	787.25	767.00	772.25	778.25	756.25	749.75	752.50	770.00	752.25	753.00	768.75	775.50	758.50	770.25	761.50	737.25	741.00	768.75	760.00	736.50	757.75	774.25	752.75	724.50	751.50	768.00	739.00	728.75	748.25	754.50	731.75	729.50	744.50	752.25	717.50	716.75	734.50	763.00	738.00	716.25	728.00	726.75	738.50	760.75	725.50	705.75	712.50	732.25	736.50	728.75	729.00	729.75	724.25	711.50	716.25	726.25	726.75	722.50	712.00	710.25	714.75	709.25	711.00	713.50	715.50	714.25	717.25	720.75	722.50	727.25	735.75	738.00	739.00	737.25	736.75	739.25	741.25	743.25	747.00	751.50	750.25	741.50	739.25	739.75	741.75	743.00	740.00	736.75	736.50	737.00	737.25	737.50	738.25	736.75	736.00	734.00	733.25	737.00	737.75	736.50	733.00	730.50	730.50	730.00	728.75	728.00	726.75	725.75	724.25	723.75	723.25	722.00	720.75	719.25	717.75	716.25	715.50	714.25	713.25	711.00	709.25	707.75	707.00	709.25	706.75	700.00
1027.50	1023.50	1021.75	1020.00	1016.75	1013.00	1011.00	1005.50	1003.00	999.00	996.25	994.25	990.25	987.00	986.50	982.25	980.50	977.75	974.50	971.75	971.25	966.75	966.25	969.25	967.00	958.50	956.75	961.25	956.00	945.75	943.75	945.50	947.50	942.75	940.00	938.00	929.25	924.75	931.75	930.25	921.00	917.75	916.75	925.75	920.50	914.75	909.75	907.50	908.00	903.00	905.00	904.25	904.00	901.25	891.50	882.00	892.25	886.50	882.25	892.00	874.50	879.75	883.00	879.00	883.00	883.50	881.50	881.25	877.75	872.25	876.50	870.50	865.00	866.75	864.25	866.25	855.00	865.00	864.75	846.50	861.25	855.75	844.25	850.25	860.75	840.00	843.50	838.00	847.25	852.00	837.50	832.25	837.50	832.75	832.25	835.50	823.50	815.75	824.25	820.00	818.50	817.50	816.25	807.00	816.75	813.25	806.50	807.75	813.50	798.50	801.00	799.75	797.25	801.75	794.00	805.25	794.75	780.50	787.75	795.25	790.50	783.50	789.50	789.00	772.75	787.50	774.25	762.75	776.25	784.00	771.00	779.50	779.00	753.25	752.50	763.00	767.75	768.25	772.25	774.50	763.75	761.75	764.75	754.00	749.50	761.00	769.00	767.00	754.75	752.50	750.00	743.25	757.50	755.75	749.50	744.75	752.75	746.75	738.75	742.50	741.75	739.50	733.25	733.25	745.75	742.75	737.25	725.00	737.50	738.75	733.75	735.75	735.75	719.00	722.00	736.00	740.75	734.00	729.75	729.25	720.00	718.00	729.50	724.25	724.75	718.25	714.50	712.75	712.50	712.25	713.50	714.75	716.50	718.00	717.75	716.25	718.50	720.25	724.50	729.00	736.50	743.25	740.00	740.50	743.00	743.75	743.75	744.50	745.00	742.75	742.00	740.75	743.50	743.50	743.00	742.50	744.50	745.25	743.00	741.75	741.25	739.75	739.50	741.00	741.50	741.50	741.50	739.00	737.00	734.25	733.50	733.00	732.25	731.50	732.00	731.00	730.25	728.25	727.25	726.50	725.50	724.25	722.50	721.50	720.25	719.75	718.00	716.50	716.00	713.75	714.25	715.75	713.50	706.75	703.25	702.50
1027.00	1024.50	1023.75	1021.25	1018.50	1015.50	1010.75	1006.00	1001.75	997.50	996.25	993.50	989.00	987.00	984.00	981.50	981.00	978.25	975.25	971.25	970.00	967.00	968.00	972.00	961.50	955.25	963.75	960.75	950.00	946.75	946.25	949.00	949.25	940.00	942.00	933.50	929.50	927.25	932.75	920.75	921.00	916.75	922.50	927.00	913.00	916.25	907.75	911.75	905.75	907.00	905.75	903.00	908.25	898.25	886.25	885.00	892.25	887.75	890.50	880.75	870.25	894.00	878.50	878.50	893.00	876.00	877.75	890.25	866.75	875.25	875.50	870.75	868.25	859.25	866.75	853.75	867.00	872.75	850.75	851.75	863.00	847.75	852.00	856.75	851.25	846.75	834.00	852.75	848.50	851.00	841.75	847.50	842.25	829.25	837.50	833.50	822.00	815.75	830.00	820.00	805.50	827.50	796.75	811.75	825.25	799.50	809.75	815.25	797.75	794.50	808.00	792.50	804.25	783.75	794.50	814.00	780.25	793.75	808.00	790.75	768.75	795.50	785.50	763.50	797.00	796.50	754.50	767.50	787.75	767.00	773.25	788.25	760.75	754.75	759.50	772.00	764.75	775.50	790.00	761.25	755.75	768.25	750.50	750.00	772.50	767.50	770.75	762.75	755.25	731.00	745.75	775.50	774.00	727.50	736.50	771.25	758.50	727.75	740.75	768.25	731.00	716.50	742.75	763.50	742.50	726.25	719.75	743.25	756.50	725.50	717.50	726.50	724.50	718.50	748.75	751.75	735.25	726.00	733.75	729.25	715.50	729.75	738.75	722.25	718.75	715.75	715.25	716.50	714.00	714.00	720.25	719.75	721.00	721.00	717.25	717.25	719.25	720.75	725.00	727.75	739.75	745.50	742.75	741.75	742.50	740.25	740.50	742.00	742.25	742.00	741.50	743.25	746.50	748.25	748.25	748.00	746.00	745.25	744.25	743.00	742.50	741.25	743.25	747.75	749.00	746.00	742.50	737.25	737.00	736.00	736.25	735.00	733.50	733.25	734.00	733.75	731.50	729.50	729.25	728.75	727.75	726.00	724.25	723.00	721.75	720.25	720.25	718.75	718.25	716.50	717.50	717.50	711.50	706.25	706.25	708.00
1030.25	1028.50	1026.00	1022.75	1021.25	1014.00	1009.25	1006.00	1001.00	998.25	996.25	993.75	990.25	988.25	983.50	983.00	981.75	981.25	979.00	973.50	973.75	972.00	974.00	966.25	963.75	965.50	969.75	957.25	950.00	950.25	954.50	950.25	940.25	943.75	932.75	931.25	931.75	936.00	927.00	921.50	918.50	927.50	929.50	920.50	916.25	915.25	915.00	909.00	911.25	912.25	901.25	906.50	897.00	888.25	892.50	898.00	893.00	901.50	896.50	883.50	892.50	882.25	888.00	887.50	875.50	881.25	888.25	879.00	874.25	878.00	876.25	878.25	866.50	874.50	866.50	865.50	870.25	851.75	852.50	861.75	849.75	857.50	848.75	854.75	849.75	840.50	852.25	852.25	840.50	848.25	851.25	841.00	839.00	839.75	840.25	824.50	825.25	831.00	812.50	820.50	823.50	809.25	821.25	816.25	811.50	812.75	811.25	806.25	811.00	807.25	805.50	804.25	794.50	808.25	803.50	789.25	795.75	789.00	779.75	789.50	799.75	785.50	777.00	794.25	777.50	760.50	773.00	779.00	773.00	780.00	772.00	758.25	757.75	776.75	784.75	777.00	780.50	779.75	755.50	757.75	773.75	763.25	759.75	773.75	771.75	760.25	752.75	747.75	761.25	764.25	763.50	738.50	749.00	753.75	758.75	749.00	751.50	742.75	745.25	730.75	749.50	755.25	751.00	734.75	733.50	746.25	750.25	740.00	734.00	740.50	738.50	732.00	733.75	741.50	737.00	735.25	736.50	739.50	730.00	725.75	733.25	729.00	719.75	718.50	719.75	718.25	718.00	723.50	728.75	726.25	720.75	718.75	720.00	720.25	719.50	723.25	725.00	726.50	730.00	730.50	740.50	745.75	745.75	748.25	747.00	743.50	748.00	750.75	751.75	751.00	753.50	755.50	756.25	755.00	755.25	752.25	747.75	746.50	746.75	748.75	750.00	751.00	748.50	747.00	744.75	742.25	741.25	740.00	739.50	740.00	739.00	738.25	737.50	737.00	735.50	734.50	734.25	733.00	730.50	730.25	729.25	728.00	726.50	725.50	724.25	723.00	722.00	720.50	719.00	718.25	716.25	714.00	713.00	713.75	712.50	709.00
1036.25	1026.25	1024.25	1024.25	1019.25	1010.75	1010.00	1006.25	1004.50	998.00	995.50	994.25	990.75	986.00	984.75	987.25	984.50	985.50	977.50	975.00	974.25	978.25	969.25	961.25	960.25	970.25	957.50	953.25	950.75	954.75	954.00	951.50	941.00	937.25	932.50	932.75	942.75	929.75	925.00	923.00	926.25	940.25	923.00	920.00	912.00	919.25	911.00	908.75	917.00	910.25	910.25	896.50	890.25	899.00	904.00	899.50	897.00	897.50	876.75	897.50	875.75	899.00	901.00	880.00	889.25	882.25	873.25	887.75	879.25	873.25	880.50	869.25	882.25	873.75	865.50	864.75	869.75	855.50	868.75	853.00	863.00	849.50	866.25	855.50	846.50	854.50	850.00	845.25	829.00	861.25	853.00	851.00	848.25	844.25	833.25	827.75	842.00	805.25	820.50	830.75	803.75	826.00	809.00	820.50	814.75	817.25	797.50	818.75	797.50	806.75	805.50	795.25	810.00	794.00	791.50	806.00	798.75	778.25	802.25	803.75	768.50	787.25	808.00	766.00	765.75	773.75	794.50	767.50	785.50	765.00	759.50	765.25	784.25	791.50	766.00	786.25	784.75	761.50	761.00	780.25	767.00	759.00	783.75	777.75	739.50	746.00	769.50	791.50	742.50	741.25	756.75	784.50	757.75	742.50	766.00	762.00	727.25	728.75	763.50	769.50	744.25	723.25	733.50	757.25	765.25	737.75	722.50	752.50	761.75	720.25	722.75	751.00	743.75	735.50	753.50	754.50	740.25	724.50	723.00	725.25	729.25	724.75	718.75	727.00	727.25	724.50	734.75	739.50	721.50	725.00	722.00	725.25	727.00	724.50	722.00	722.25	724.75	728.50	731.00	734.75	747.75	752.50	753.25	752.75	753.75	753.50	756.25	756.25	755.75	754.50	754.75	750.75	750.00	748.75	747.75	746.50	749.25	751.75	757.25	754.75	751.25	747.00	743.75	743.00	743.25	743.50	744.00	743.50	742.75	742.00	741.25	740.50	738.75	738.00	736.75	736.75	734.50	734.25	733.00	731.50	731.25	730.25	728.75	728.00	726.75	724.75	722.75	722.50	720.00	719.00	717.50	718.00	719.75	714.00	708.25	707.00
1035.75	1029.25	1026.25	1019.50	1017.25	1014.25	1011.00	1005.25	1000.50	998.00	996.50	994.00	989.25	988.75	990.25	987.50	986.00	979.50	978.25	978.75	978.75	974.50	969.50	965.00	967.00	958.25	956.50	954.50	956.75	956.75	950.75	945.50	941.50	938.00	939.75	950.50	938.75	927.75	931.00	931.75	938.75	933.00	922.50	918.00	926.00	917.75	912.00	919.50	919.50	913.75	894.50	895.25	908.50	908.50	903.25	900.25	892.25	890.50	893.00	887.00	901.50	887.50	884.50	888.50	882.25	884.25	887.00	874.75	880.25	878.50	871.50	875.00	876.75	863.50	868.25	867.50	861.00	863.75	860.25	859.50	855.00	858.25	858.25	850.50	844.25	851.25	842.00	828.75	846.75	860.25	857.50	850.75	846.00	842.00	838.75	834.25	821.50	831.25	828.25	818.75	825.00	822.75	818.25	819.00	810.75	809.75	813.00	807.00	810.50	811.75	799.50	805.00	798.25	804.25	802.00	789.75	791.75	800.00	792.00	775.00	796.25	790.75	765.50	768.75	790.25	785.25	779.75	781.25	766.75	761.75	782.25	788.75	782.00	783.00	781.50	773.50	759.00	768.25	779.50	776.75	777.25	773.75	765.75	766.50	775.25	767.00	762.00	765.75	763.25	755.50	757.75	761.75	758.25	751.00	741.00	746.00	761.00	760.75	745.50	737.50	750.00	748.50	757.00	750.25	734.50	747.25	753.25	744.25	737.25	746.75	749.75	740.00	748.25	754.75	735.50	723.25	718.50	729.00	734.25	730.25	730.00	734.00	735.00	729.00	734.25	736.50	729.25	721.00	721.00	724.50	727.25	726.50	723.75	719.00	719.00	722.00	726.50	730.00	734.25	738.25	748.25	751.50	756.25	754.50	751.25	752.00	751.25	749.75	751.75	751.75	750.25	751.50	753.00	753.50	752.50	755.00	756.50	754.25	753.00	750.75	750.00	749.75	750.50	750.25	751.00	749.75	748.25	745.75	745.00	744.50	744.50	743.25	743.25	741.75	739.75	738.75	737.50	736.25	735.25	734.50	734.00	733.00	730.75	727.75	727.25	726.50	725.75	723.00	722.00	720.75	719.50	717.50	715.50	713.25	711.50	711.50
1039.75	1032.00	1020.50	1024.75	1028.00	1020.00	1008.75	1006.50	1004.25	1002.75	999.75	996.25	993.00	992.00	993.00	988.00	984.25	981.50	980.50	981.50	984.75	971.75	967.25	972.25	963.75	959.25	958.25	959.00	964.00	952.25	945.75	944.75	942.00	944.25	954.50	943.50	931.75	930.75	937.75	938.25	937.75	925.50	918.50	933.00	926.25	914.75	921.25	922.25	914.00	899.25	901.00	911.50	911.75	903.25	902.75	891.50	902.00	898.00	885.25	906.50	878.25	891.25	905.00	877.00	890.00	886.50	861.25	883.25	882.00	876.50	875.75	881.00	865.75	873.00	869.50	867.75	864.50	869.00	862.25	857.50	862.25	862.25	848.75	845.25	858.25	838.75	832.50	832.75	829.25	832.25	852.75	852.00	851.50	840.25	839.75	825.75	838.50	820.00	818.75	833.25	814.00	825.50	821.00	814.25	811.00	823.50	804.25	819.25	804.50	802.25	814.75	799.00	809.75	809.75	783.25	800.25	810.25	773.50	779.25	803.75	797.00	771.25	781.75	804.25	768.25	775.50	789.00	758.75	769.25	798.50	792.00	768.00	792.75	781.50	762.00	769.00	777.50	770.00	784.00	777.50	756.50	761.00	792.50	755.50	738.50	757.25	790.75	763.50	737.00	765.50	785.50	749.75	730.75	758.25	780.50	772.75	736.50	728.50	759.50	773.00	745.50	740.50	754.25	743.25	757.25	740.50	737.75	754.00	758.50	733.00	740.75	767.50	753.75	727.50	715.25	730.25	749.75	747.00	727.50	734.75	748.50	731.25	726.25	743.75	734.25	718.75	722.00	721.50	722.25	730.00	728.75	723.75	719.25	715.75	717.25	723.50	731.25	733.75	739.75	742.00	748.00	755.75	758.25	759.75	756.75	752.00	753.25	754.75	756.00	757.75	758.50	762.00	764.50	767.50	767.00	762.50	755.50	753.00	753.25	753.00	752.75	755.00	758.00	759.25	756.00	749.50	748.50	747.50	747.25	748.50	747.75	746.75	743.00	741.75	740.75	740.25	739.75	739.50	738.00	736.75	735.25	733.00	732.00	730.25	729.50	729.00	726.75	725.50	725.00	722.50	720.75	719.00	718.75	717.00	714.75	711.50
1041.75	1030.25	1038.00	1034.00	1027.00	1016.50	1013.75	1010.50	1009.50	1006.50	1001.50	998.75	994.50	996.00	990.25	988.00	984.50	982.75	984.00	983.75	976.25	970.25	970.50	966.75	962.75	964.25	962.50	961.75	956.00	949.75	948.25	947.25	949.50	954.25	941.75	935.50	934.50	940.50	945.75	939.75	927.50	919.75	929.00	926.00	919.50	925.75	930.25	919.00	906.50	908.50	912.00	912.75	908.25	900.75	903.25	907.75	894.25	899.75	902.00	886.25	896.00	894.50	876.50	885.75	886.25	876.50	888.50	882.00	878.50	884.25	869.50	872.75	875.50	875.00	866.75	863.50	866.00	865.00	857.25	862.00	861.75	852.75	851.25	856.00	845.00	837.25	844.00	839.25	834.00	835.75	835.50	844.00	845.50	837.75	834.50	838.00	833.00	826.00	831.50	823.75	827.75	824.75	815.25	818.00	824.75	814.25	814.75	803.75	815.25	810.75	804.75	808.50	797.00	795.50	809.25	802.75	789.50	801.00	800.50	788.50	779.50	789.50	794.25	777.75	791.75	791.50	768.00	785.50	793.00	783.75	783.75	789.00	781.00	765.00	767.50	787.75	781.75	776.75	766.00	776.00	773.50	773.75	766.75	771.50	771.25	769.50	756.25	765.50	763.50	759.25	738.25	762.50	769.50	756.25	742.25	750.00	759.00	758.75	752.50	759.00	756.50	758.00	737.50	737.00	753.25	754.00	747.25	742.75	752.25	758.75	754.50	730.00	722.00	742.00	751.50	748.25	737.50	738.00	742.75	739.00	728.00	731.25	735.25	731.00	726.75	724.75	728.00	733.00	732.25	727.25	724.25	721.50	720.00	718.25	721.25	725.25	733.00	736.25	744.00	746.50	750.50	755.25	758.50	760.50	759.75	759.25	761.00	763.00	766.50	765.75	764.25	764.00	763.25	761.50	760.00	758.25	759.00	760.00	759.50	762.00	759.75	758.75	757.25	754.50	753.50	753.50	755.25	754.25	752.00	750.25	748.25	746.50	744.75	744.00	744.25	743.25	741.75	741.50	739.50	738.00	736.25	736.00	734.50	733.25	732.25	730.00	729.00	727.50	726.00	724.50	724.00	723.25	721.00	717.75	715.00	714.00
1041.25	1043.00	1035.75	1024.25	1022.00	1020.00	1016.50	1018.00	1013.75	1004.50	1002.75	999.75	997.75	995.25	991.50	990.50	987.75	986.00	985.50	976.75	974.00	970.00	971.00	969.75	967.25	965.75	967.75	961.25	951.50	951.50	950.00	948.50	961.00	951.25	938.50	935.25	942.25	949.00	935.00	922.75	923.00	937.25	941.50	920.25	931.00	938.25	924.50	911.75	915.75	911.75	919.25	914.00	899.00	912.50	903.75	888.00	908.75	905.75	884.25	912.75	886.50	879.75	893.00	896.00	880.50	893.50	876.25	876.75	897.00	875.50	870.00	885.75	871.75	878.25	870.25	871.50	862.00	863.50	856.00	869.25	848.75	858.00	866.50	847.75	846.25	853.25	842.50	850.75	844.00	840.75	836.00	828.50	834.25	838.75	844.00	834.50	829.00	828.25	832.25	822.00	835.00	813.00	829.25	825.25	810.00	820.50	801.25	817.25	803.75	801.50	818.75	791.25	804.75	813.00	795.25	785.50	807.00	797.00	776.25	793.50	801.00	784.75	778.50	799.00	784.25	765.50	784.75	790.50	777.25	801.25	786.75	765.25	765.75	785.75	804.25	780.50	760.50	770.75	795.75	771.25	753.25	786.75	782.25	745.00	747.00	777.25	790.75	755.75	743.00	769.25	794.00	771.25	737.25	760.75	784.75	766.75	741.00	749.25	779.00	761.75	729.00	736.75	753.25	773.25	747.50	729.75	746.25	775.75	760.75	727.25	724.50	746.75	768.00	761.00	730.75	737.00	761.25	747.75	724.50	727.75	734.50	729.00	731.00	736.00	730.75	740.50	740.75	728.25	724.25	723.75	722.25	720.00	718.00	719.50	727.25	730.25	734.00	738.75	746.50	750.00	753.25	756.75	759.00	759.75	758.25	759.75	759.25	760.25	761.25	761.25	759.75	761.25	764.00	763.25	763.50	764.00	765.00	764.50	762.25	759.75	758.50	758.50	759.50	761.75	763.25	760.50	758.50	754.25	752.75	751.75	749.75	748.75	749.25	748.00	746.75	746.50	744.75	742.75	741.25	740.50	739.75	739.75	739.25	735.50	734.25	733.50	731.75	730.00	728.25	727.75	726.00	725.00	721.75	720.50	719.00	718.25
1043.75	1035.25	1030.25	1027.25	1026.00	1023.00	1022.50	1016.50	1010.50	1007.00	1004.50	1003.00	998.75	998.50	996.50	992.25	992.00	988.75	982.25	976.50	973.25	971.75	973.00	972.75	972.75	969.25	967.00	957.25	953.50	954.00	956.25	958.50	957.50	944.00	939.50	943.75	950.50	943.75	932.25	928.25	938.00	940.75	925.50	936.25	929.25	922.75	912.75	922.00	921.25	922.50	910.50	902.50	913.00	905.50	905.00	912.25	899.75	893.75	904.75	890.25	889.75	891.75	888.50	883.75	889.25	885.00	889.75	891.25	873.50	875.75	874.75	875.50	878.00	868.00	870.50	872.00	868.00	867.50	867.00	856.25	862.00	861.00	847.50	847.75	854.25	852.75	854.00	852.50	852.50	845.75	842.25	837.75	843.75	841.50	840.00	836.75	835.50	832.00	828.50	826.50	819.75	832.25	820.25	818.75	820.50	812.00	816.50	810.50	815.25	815.00	796.25	805.00	801.00	786.25	792.25	809.75	791.00	793.75	807.75	796.75	780.75	789.50	804.25	792.25	773.50	782.25	790.25	793.75	796.50	777.25	768.75	776.75	792.75	789.00	768.75	770.25	781.25	775.50	779.00	780.25	779.00	770.25	768.25	774.75	772.75	766.00	759.00	768.75	773.25	765.00	750.50	763.75	770.75	766.25	749.50	759.25	760.00	764.50	745.25	754.75	767.25	765.25	762.75	752.50	758.75	765.75	760.50	742.50	738.50	759.00	759.25	753.75	744.50	748.75	751.25	748.25	733.25	732.00	738.25	737.75	741.50	740.25	732.50	732.75	736.25	733.00	726.00	723.75	725.25	728.75	726.00	718.25	720.00	720.25	724.00	732.50	737.75	742.25	747.75	751.75	756.75	760.25	761.75	763.25	763.50	762.75	762.75	765.00	765.25	767.75	767.50	769.00	769.50	769.00	768.25	766.50	763.50	763.75	762.25	762.25	762.25	764.50	764.00	762.50	761.25	759.25	758.00	756.00	755.25	753.50	753.25	753.50	753.50	751.00	749.00	748.00	747.50	746.00	746.00	745.00	744.25	742.50	739.75	737.50	737.50	735.75	733.50	732.75	730.75	730.00	727.75	726.00	724.75	724.25	723.25	721.75
1038.75	1031.50	1031.75	1028.75	1027.00	1030.00	1021.00	1014.25	1010.50	1009.50	1008.25	1003.75	1005.00	1001.75	993.75	992.50	992.00	983.25	979.75	976.75	975.25	975.75	976.75	980.25	976.75	964.25	959.25	957.50	959.00	958.25	962.75	959.25	948.50	943.00	945.75	955.00	941.75	939.00	932.75	943.75	941.00	925.00	938.50	924.00	930.00	924.00	921.00	922.75	926.25	914.75	904.75	922.25	898.50	903.75	914.00	890.25	899.00	906.50	892.75	906.25	896.25	881.00	882.25	891.75	884.25	891.25	876.50	869.25	895.00	875.00	876.75	880.50	872.50	864.50	870.50	864.00	869.75	868.50	849.75	863.50	858.50	851.75	849.75	853.00	847.00	861.50	855.50	857.50	836.75	852.25	853.75	854.25	849.00	832.50	841.50	832.75	844.75	823.00	837.75	815.00	834.25	824.75	817.25	827.00	805.50	821.50	799.75	820.75	804.50	792.25	811.50	806.75	793.50	808.75	819.25	782.75	796.25	811.00	782.25	777.00	784.75	796.75	777.00	775.75	789.25	780.00	800.25	787.50	769.50	775.50	796.75	808.75	769.25	773.25	783.75	782.00	768.50	793.25	781.25	753.25	768.25	796.25	773.75	743.25	767.25	791.00	795.25	757.00	736.75	763.50	796.50	781.75	750.25	769.75	798.25	771.75	739.75	746.00	779.75	770.75	742.50	740.00	761.75	779.25	752.75	739.50	738.50	762.00	776.00	747.50	730.50	745.00	765.75	761.00	728.75	728.75	749.25	750.50	730.75	740.00	738.00	727.75	739.25	744.00	731.50	725.00	725.75	730.50	729.25	727.00	722.75	720.75	724.25	724.25	726.00	733.50	741.00	743.50	750.00	754.50	761.25	761.50	766.00	769.00	769.00	767.25	767.25	767.25	768.50	769.75	769.25	770.75	770.75	770.00	768.00	767.25	767.75	768.00	767.00	765.50	764.50	764.25	763.75	762.25	762.50	760.00	760.50	758.25	758.50	759.25	758.25	757.50	754.50	752.50	750.75	750.00	750.50	749.25	748.75	747.00	745.50	743.75	742.50	741.50	738.50	737.75	736.25	734.75	733.00	731.50	731.75	729.75	728.25	726.50	722.75	720.50
1041.50	1035.75	1034.75	1035.50	1034.75	1026.00	1018.00	1015.50	1012.50	1011.00	1007.50	1007.00	1004.00	1000.00	1000.50	999.25	991.00	985.50	981.75	982.00	980.25	979.25	979.75	980.00	968.75	962.25	960.25	961.00	964.00	966.00	964.25	956.00	947.00	949.00	951.25	948.25	943.75	937.75	944.25	946.50	938.00	938.50	938.75	931.75	928.50	923.50	925.50	931.25	920.75	921.00	914.75	904.25	912.25	911.00	897.75	904.00	904.25	899.00	900.50	890.75	887.00	897.00	892.50	892.00	892.00	881.75	889.75	883.75	872.75	878.50	885.75	877.75	871.75	874.75	869.25	875.50	869.75	860.25	864.00	865.50	857.00	864.00	861.25	857.00	857.00	861.25	851.75	847.50	860.50	850.50	849.75	853.50	843.00	849.75	838.25	843.50	842.00	830.25	818.00	839.50	835.50	823.75	825.75	818.75	819.00	817.75	815.75	811.75	803.50	815.50	805.75	800.50	810.00	804.75	799.00	803.25	808.25	777.75	780.50	792.75	805.00	787.75	776.25	781.75	793.50	795.75	785.75	773.75	785.00	788.75	781.25	776.25	780.00	791.25	802.00	778.25	779.25	776.25	786.25	779.25	782.25	766.00	779.25	783.25	775.00	766.75	754.50	772.50	782.00	777.25	760.75	769.75	774.25	768.50	748.75	759.00	763.75	769.75	763.00	763.50	767.00	764.00	763.00	748.75	755.75	765.50	768.25	758.50	745.75	757.25	760.75	758.25	744.75	737.75	748.75	748.00	741.75	744.75	745.25	740.50	735.75	737.25	734.75	730.50	732.25	734.00	732.00	727.50	726.50	724.25	721.75	721.00	724.25	727.25	731.75	737.00	742.00	745.75	753.25	758.75	763.75	765.75	772.75	771.75	770.25	770.00	770.25	771.75	772.00	772.50	773.00	772.50	774.25	772.00	770.75	772.00	773.50	773.50	770.50	768.75	768.25	766.75	766.75	766.25	766.75	766.25	765.00	764.00	762.00	762.25	761.00	759.50	758.50	757.25	755.00	754.00	752.75	751.25	748.50	748.00	748.50	748.50	745.25	742.50	741.25	739.75	737.75	736.00	734.75	734.25	732.25	730.75	729.50	726.75	725.00	725.50
1042.25	1037.75	1047.75	1042.75	1032.50	1023.00	1020.50	1016.50	1014.50	1013.75	1008.75	1007.50	1001.25	1001.75	1000.00	994.75	988.75	987.50	986.00	986.50	981.25	982.25	983.75	971.50	970.75	970.25	962.00	968.00	979.25	964.25	957.50	959.00	953.00	956.00	949.00	950.75	945.00	943.25	950.50	938.75	938.75	942.25	942.75	924.50	931.25	931.25	928.75	927.00	922.25	920.50	904.25	918.00	912.25	905.50	913.25	900.75	902.50	908.00	904.75	893.50	907.75	893.25	891.25	894.00	882.25	898.25	898.25	874.75	889.50	882.00	878.00	869.75	883.25	862.50	873.75	857.75	862.75	871.00	868.50	859.25	868.50	860.00	854.50	861.00	870.75	847.00	851.00	864.75	837.25	843.00	851.75	834.25	854.75	833.00	844.75	843.50	835.50	823.00	846.00	828.00	826.75	826.25	812.50	825.00	811.00	826.50	801.25	808.25	819.50	797.75	801.75	816.00	796.75	814.50	817.75	795.00	783.00	783.75	794.75	798.25	781.50	779.00	783.25	801.00	792.50	775.00	774.50	787.50	777.25	766.00	778.75	785.25	798.25	801.50	777.00	754.25	780.00	798.50	766.75	756.75	786.50	810.25	769.25	746.00	767.25	788.75	805.25	782.50	751.25	768.50	798.25	780.00	745.25	764.25	785.25	771.25	752.25	772.25	787.25	768.50	745.50	746.00	761.25	776.25	774.25	752.75	738.25	757.75	779.50	761.00	740.25	734.25	754.75	770.50	735.50	733.50	753.00	748.50	732.50	739.00	736.75	733.25	728.25	729.25	734.75	731.25	729.00	727.50	729.25	728.00	722.75	723.00	723.25	726.75	734.00	740.50	744.75	748.00	756.00	759.75	767.25	770.00	777.00	772.00	771.50	771.75	771.00	772.25	773.50	773.75	774.75	778.25	777.25	777.50	775.75	778.25	777.75	773.50	771.50	771.25	771.00	770.00	770.25	769.50	769.00	768.75	768.25	766.00	765.00	765.75	763.75	760.50	761.00	761.75	759.25	756.75	754.75	752.25	751.25	750.25	750.50	749.25	746.75	744.75	743.25	741.75	740.25	739.25	738.25	736.75	735.00	733.25	731.75	729.75	729.25	728.50
1043.75	1049.00	1046.50	1035.25	1031.00	1027.00	1022.75	1020.00	1017.25	1012.75	1011.00	1008.00	1006.25	1004.75	997.50	995.00	993.00	991.25	996.00	988.00	986.25	990.00	981.00	977.50	982.50	969.75	967.25	973.00	966.50	965.25	960.00	955.75	957.75	956.25	954.00	949.50	950.75	955.50	947.50	946.75	941.75	937.00	931.75	936.00	936.50	929.00	926.75	930.25	919.75	910.00	919.75	917.00	913.00	911.25	904.00	907.50	904.50	899.25	904.25	900.75	894.50	900.50	901.00	888.75	898.00	896.50	883.25	891.00	883.50	884.25	881.75	882.50	871.75	877.00	868.25	870.75	875.25	864.50	864.25	863.50	859.00	862.50	865.50	862.00	849.00	858.50	858.25	845.75	856.50	861.75	844.50	853.75	842.50	849.00	845.25	833.50	824.50	845.75	836.25	837.00	835.75	823.25	824.50	822.00	821.75	812.00	818.75	812.25	801.00	809.75	816.50	809.25	810.75	811.00	804.75	796.25	785.75	801.75	799.50	785.00	782.50	797.00	796.25	783.75	775.75	776.00	778.25	781.25	782.25	793.75	805.50	791.25	786.00	770.75	791.25	789.50	793.25	779.00	793.50	786.25	781.00	767.50	784.75	784.25	784.50	780.75	769.50	782.50	780.75	777.00	758.75	765.25	772.25	784.00	777.25	768.00	773.25	766.50	754.50	766.75	774.00	774.25	769.25	759.00	760.50	766.00	774.25	767.75	751.25	752.25	760.50	766.25	752.75	745.75	750.75	750.25	741.75	739.25	742.25	738.25	734.50	739.25	733.50	732.75	730.00	728.50	727.50	727.00	726.75	725.75	726.00	724.50	724.75	727.50	731.75	742.00	748.50	752.75	760.75	763.25	770.00	772.25	778.00	780.75	774.00	774.00	774.25	775.75	777.25	779.00	779.25	781.50	780.25	779.25	778.75	780.50	778.75	778.00	776.25	775.25	775.50	774.25	771.00	771.25	770.50	771.00	770.75	770.25	767.75	766.00	765.25	764.00	762.75	762.00	758.75	757.50	756.25	755.75	754.50	753.50	752.25	750.50	748.25	746.75	745.50	744.25	744.00	742.25	740.25	738.50	736.25	734.50	733.25	731.75	730.75	727.75
