902.50	901.00	900.00	898.00	898.00	896.50	895.50	894.50	892.50	891.50	891.00	890.00	888.50	887.00	886.00	885.50	884.50	883.00	882.00	881.00	880.00	879.00	878.50	876.50	875.50	874.50	873.00	872.00	871.50	870.00	868.50	867.50	866.00	865.00	863.50	863.00	861.50	860.50	859.50	857.50	856.50	855.00	855.00	853.50	852.50	850.50	850.00	849.50	848.00	847.00	846.00	845.00	843.50	842.50	841.50	840.50	839.50	838.00	837.00	835.50	835.00	833.50	832.50	831.50	830.00	829.00	827.00	826.00	824.50	823.00	820.50	819.50	818.00	816.00	813.50	812.00	809.00	806.50	805.00	802.00	800.00	797.00	793.00	790.00	788.00	786.00	783.00	781.00	778.00	776.00	773.50	772.00	769.00	767.50	766.00	764.00	762.00	760.00	758.00	756.00	754.50	753.00	751.00	751.00	750.00	750.00	749.00	749.00	749.00	749.00	749.00	750.00	750.00	750.00	750.00	750.00	750.00	750.00	750.00	749.50	749.00	749.00	749.00	749.00	748.00	748.00	747.50	747.00	746.00	745.00	745.00	743.50	743.00	741.50	741.00	740.50	739.00	737.50	736.50	735.00	733.50	732.50	731.00	730.00	728.00	727.00	725.50	724.50	723.50	720.50	719.50	718.00	717.00	715.50	714.00	711.50	710.00	708.50	707.00	706.00	703.00	702.00	700.00	698.50	697.50	695.50	694.50	693.00	692.00	689.50	688.50	686.50	685.50	684.50	683.00	681.50	680.00	679.00	677.50	676.50	676.00	673.50	672.50	671.00	669.50	668.50	667.50	664.50	663.50	662.00	661.00	659.50	658.00	656.50	655.50	654.50	652.50	651.50	650.00	648.00	646.50	645.50	643.50	642.00	640.50	639.00	637.00	635.00	633.00	631.50	630.00	628.50	625.50	624.00	622.00	620.00	618.00	616.00	613.00	611.50	610.00	607.00	605.00	602.00	600.00	598.00	596.50	595.00	592.50	591.50	589.00	587.50	587.00	586.50	584.50	584.00	583.00	582.00	581.00	580.00	579.50	579.00	578.50	577.00	576.50	576.00	575.00	574.00	573.50	571.50	570.50	570.00	569.00	568.00	566.00	565.00
902.50	901.00	900.00	898.00	898.00	896.50	895.50	894.50	892.50	891.50	891.00	890.00	888.50	887.00	886.00	885.50	884.50	883.00	882.00	881.00	880.00	879.00	878.50	876.50	875.50	874.50	873.00	872.00	871.50	870.00	868.50	867.50	866.00	865.00	863.50	863.00	861.50	860.50	859.50	857.50	856.50	855.00	855.00	853.50	852.50	850.50	850.00	849.50	848.00	847.00	846.00	845.00	843.50	842.50	841.50	840.50	839.50	838.00	837.00	835.50	835.00	833.50	832.50	831.50	830.00	829.00	827.00	826.00	824.50	823.00	820.50	819.50	818.00	816.00	813.50	812.00	809.00	806.50	805.00	802.00	800.00	797.00	793.00	790.00	788.00	786.00	783.00	781.00	778.00	776.00	773.50	772.00	769.00	767.50	766.00	764.00	762.00	760.00	758.00	756.00	754.50	753.00	751.00	751.00	750.00	750.00	749.00	749.00	749.00	749.00	749.00	750.00	750.00	750.00	750.00	750.00	750.00	750.00	750.00	749.50	749.00	749.00	749.00	749.00	748.00	748.00	747.50	747.00	746.00	745.00	745.00	743.50	743.00	741.50	741.00	740.50	739.00	737.50	736.50	735.00	733.50	732.50	731.00	730.00	728.00	727.00	725.50	724.50	723.50	720.50	719.50	718.00	717.00	715.50	714.00	711.50	710.00	708.50	707.00	706.00	703.00	702.00	700.00	698.50	697.50	695.50	694.50	693.00	692.00	689.50	688.50	686.50	685.50	684.50	683.00	681.50	680.00	679.00	677.50	676.50	676.00	673.50	672.50	671.00	669.50	668.50	667.50	664.50	663.50	662.00	661.00	659.50	658.00	656.50	655.50	654.50	652.50	651.50	650.00	648.00	646.50	645.50	643.50	642.00	640.50	639.00	637.00	635.00	633.00	631.50	630.00	628.50	625.50	624.00	622.00	620.00	618.00	616.00	613.00	611.50	610.00	607.00	605.00	602.00	600.00	598.00	596.50	595.00	592.50	591.50	589.00	587.50	587.00	586.50	584.50	584.00	583.00	582.00	581.00	580.00	579.50	579.00	578.50	577.00	576.50	576.00	575.00	574.00	573.50	571.50	570.50	570.00	569.00	568.00	566.00	565.00
902.50	901.00	900.00	898.00	898.00	896.50	895.50	894.50	892.50	891.50	891.00	890.00	888.50	887.00	886.00	885.50	884.50	883.00	882.00	881.00	880.00	879.00	878.50	876.50	875.50	874.50	873.00	872.00	871.50	870.00	868.50	867.50	866.00	865.00	863.50	863.00	861.50	860.50	859.50	857.50	856.50	855.00	855.00	853.50	852.50	850.50	850.00	849.50	848.00	847.00	846.00	845.00	843.50	842.50	841.50	840.50	839.50	838.00	837.00	835.50	835.00	833.50	832.50	831.50	830.00	829.00	827.00	826.00	824.50	823.00	820.50	819.50	818.00	816.00	813.50	812.00	809.00	806.50	805.00	802.00	800.00	797.00	793.00	790.00	788.00	786.00	783.00	781.00	778.00	776.00	773.50	772.00	769.00	767.50	766.00	764.00	762.00	760.00	758.00	756.00	754.50	753.00	751.00	751.00	750.00	750.00	749.00	749.00	749.00	749.00	749.00	750.00	750.00	750.00	750.00	750.00	750.00	750.00	750.00	749.50	749.00	749.00	749.00	749.00	748.00	748.00	747.50	747.00	746.00	745.00	745.00	743.50	743.00	741.50	741.00	740.50	739.00	737.50	736.50	735.00	733.50	732.50	731.00	730.00	728.00	727.00	725.50	724.50	723.50	720.50	719.50	718.00	717.00	715.50	714.00	711.50	710.00	708.50	707.00	706.00	703.00	702.00	700.00	698.50	697.50	695.50	694.50	693.00	692.00	689.50	688.50	686.50	685.50	684.50	683.00	681.50	680.00	679.00	677.50	676.50	676.00	673.50	672.50	671.00	669.50	668.50	667.50	664.50	663.50	662.00	661.00	659.50	658.00	656.50	655.50	654.50	652.50	651.50	650.00	648.00	646.50	645.50	643.50	642.00	640.50	639.00	637.00	635.00	633.00	631.50	630.00	628.50	625.50	624.00	622.00	620.00	618.00	616.00	613.00	611.50	610.00	607.00	605.00	602.00	600.00	598.00	596.50	595.00	592.50	591.50	589.00	587.50	587.00	586.50	584.50	584.00	583.00	582.00	581.00	580.00	579.50	579.00	578.50	577.00	576.50	576.00	575.00	574.00	573.50	571.50	570.50	570.00	569.00	568.00	566.00	565.00
902.50	901.00	900.00	898.00	898.00	896.50	895.50	894.50	892.50	891.50	891.00	890.00	888.50	887.00	886.00	885.50	884.50	883.00	882.00	881.00	880.00	879.00	878.50	876.50	875.50	874.50	873.00	872.00	871.50	870.00	868.50	867.50	866.00	865.00	863.50	863.00	861.50	860.50	859.50	857.50	856.50	855.00	855.00	853.50	852.50	850.50	850.00	849.50	848.00	847.00	846.00	845.00	843.50	842.50	841.50	840.50	839.50	838.00	837.00	835.50	835.00	833.50	832.50	831.50	830.00	829.00	827.00	826.00	824.50	823.00	820.50	819.50	818.00	816.00	813.50	812.00	809.00	806.50	805.00	802.00	800.00	797.00	793.00	790.00	788.00	786.00	783.00	781.00	778.00	776.00	773.50	772.00	769.00	767.50	766.00	764.00	762.00	760.00	758.00	756.00	754.50	753.00	751.00	751.00	750.00	750.00	749.00	749.00	749.00	749.00	749.00	750.00	750.00	750.00	750.00	750.00	750.00	750.00	750.00	749.50	749.00	749.00	749.00	749.00	748.00	748.00	747.50	747.00	746.00	745.00	745.00	743.50	743.00	741.50	741.00	740.50	739.00	737.50	736.50	735.00	733.50	732.50	731.00	730.00	728.00	727.00	725.50	724.50	723.50	720.50	719.50	718.00	717.00	715.50	714.00	711.50	710.00	708.50	707.00	706.00	703.00	702.00	700.00	698.50	697.50	695.50	694.50	693.00	692.00	689.50	688.50	686.50	685.50	684.50	683.00	681.50	680.00	679.00	677.50	676.50	676.00	673.50	672.50	671.00	669.50	668.50	667.50	664.50	663.50	662.00	661.00	659.50	658.00	656.50	655.50	654.50	652.50	651.50	650.00	648.00	646.50	645.50	643.50	642.00	640.50	639.00	637.00	635.00	633.00	631.50	630.00	628.50	625.50	624.00	622.00	620.00	618.00	616.00	613.00	611.50	610.00	607.00	605.00	602.00	600.00	598.00	596.50	595.00	592.50	591.50	589.00	587.50	587.00	586.50	584.50	584.00	583.00	582.00	581.00	580.00	579.50	579.00	578.50	577.00	576.50	576.00	575.00	574.00	573.50	571.50	570.50	570.00	569.00	568.00	566.00	565.00
902.50	901.00	900.00	898.00	898.00	896.50	895.50	894.50	892.50	891.50	891.00	890.00	888.50	887.00	886.00	885.50	884.50	883.00	882.00	881.00	880.00	879.00	878.50	876.50	875.50	874.50	873.00	872.00	871.50	870.00	868.50	867.50	866.00	865.00	863.50	863.00	861.50	860.50	859.50	857.50	856.50	855.00	855.00	853.50	852.50	850.50	850.00	849.50	848.00	847.00	846.00	845.00	843.50	842.50	841.50	840.50	839.50	838.00	837.00	835.50	835.00	833.50	832.50	831.50	830.00	829.00	827.00	826.00	824.50	823.00	820.50	819.50	818.00	816.00	813.50	812.00	809.00	806.50	805.00	802.00	800.00	797.00	793.00	790.00	788.00	786.00	783.00	781.00	778.00	776.00	773.50	772.00	769.00	767.50	766.00	764.00	762.00	760.00	758.00	756.00	754.50	753.00	751.00	751.00	750.00	750.00	749.00	749.00	749.00	749.00	749.00	750.00	750.00	750.00	750.00	750.00	750.00	750.00	750.00	749.50	749.00	749.00	749.00	749.00	748.00	748.00	747.50	747.00	746.00	745.00	745.00	743.50	743.00	741.50	741.00	740.50	739.00	737.50	736.50	735.00	733.50	732.50	731.00	730.00	728.00	727.00	725.50	724.50	723.50	720.50	719.50	718.00	717.00	715.50	714.00	711.50	710.00	708.50	707.00	706.00	703.00	702.00	700.00	698.50	697.50	695.50	694.50	693.00	692.00	689.50	688.50	686.50	685.50	684.50	683.00	681.50	680.00	679.00	677.50	676.50	676.00	673.50	672.50	671.00	669.50	668.50	667.50	664.50	663.50	662.00	661.00	659.50	658.00	656.50	655.50	654.50	652.50	651.50	650.00	648.00	646.50	645.50	643.50	642.00	640.50	639.00	637.00	635.00	633.00	631.50	630.00	628.50	625.50	624.00	622.00	620.00	618.00	616.00	613.00	611.50	610.00	607.00	605.00	602.00	600.00	598.00	596.50	595.00	592.50	591.50	589.00	587.50	587.00	586.50	584.50	584.00	583.00	582.00	581.00	580.00	579.50	579.00	578.50	577.00	576.50	576.00	575.00	574.00	573.50	571.50	570.50	570.00	569.00	568.00	566.00	565.00
904.50	903.00	902.00	901.00	900.00	898.50	897.50	897.00	895.50	894.50	894.00	893.00	891.50	891.00	889.50	888.50	887.50	886.00	885.00	884.00	883.00	882.00	881.50	879.50	879.00	878.50	877.00	875.50	874.50	873.00	871.50	870.50	869.00	868.00	866.50	865.00	863.50	862.50	861.50	859.50	858.50	857.00	856.00	854.50	853.50	851.50	850.50	849.50	848.00	847.00	845.00	844.00	842.50	842.00	841.50	839.50	838.50	837.00	836.00	834.50	833.50	831.50	830.50	829.50	828.00	826.00	824.00	823.00	820.50	819.50	816.50	815.50	814.00	812.00	810.00	808.00	805.00	802.50	801.00	798.00	796.00	793.00	790.00	787.00	785.00	783.00	779.00	777.50	775.00	773.00	770.00	768.00	765.50	764.50	763.00	761.00	760.00	758.00	756.00	754.50	753.50	752.50	750.50	750.00	749.00	749.00	749.00	748.50	748.00	748.00	748.50	749.00	749.00	749.00	749.00	749.00	749.00	749.50	750.00	750.00	749.00	749.00	749.00	749.00	748.00	748.00	747.50	747.00	746.00	745.00	745.00	743.50	743.00	741.50	741.00	740.50	739.00	737.50	737.00	736.00	734.50	733.50	732.00	731.00	729.00	728.00	726.50	725.50	724.50	722.50	721.00	719.00	718.00	716.50	715.00	712.50	711.00	709.50	707.00	706.00	703.00	702.00	700.00	698.50	697.50	695.00	693.50	692.00	691.00	689.50	688.50	686.50	685.50	684.50	683.00	681.50	680.00	679.00	677.50	676.50	675.00	673.50	672.50	671.00	668.50	667.50	666.50	664.00	662.50	661.00	660.00	657.50	656.00	654.50	653.00	651.50	649.50	648.50	647.00	646.00	643.50	642.50	640.50	639.50	638.50	636.00	635.00	632.00	631.00	629.50	628.00	626.50	623.50	622.00	620.00	619.00	616.50	615.00	611.50	610.00	608.50	606.00	604.00	601.00	600.00	597.50	596.50	594.00	592.50	591.50	590.00	588.50	587.50	586.50	585.50	585.00	584.00	584.00	583.00	582.00	581.50	581.00	580.50	580.00	579.00	578.00	578.00	577.00	576.50	575.50	574.50	573.50	572.00	571.00	570.00	569.00
904.50	903.00	902.00	901.00	900.00	898.50	897.50	897.00	895.50	894.50	894.00	893.00	891.50	891.00	889.50	888.50	887.50	886.00	885.00	884.00	883.00	882.00	881.50	879.50	879.00	878.50	877.00	875.50	874.50	873.00	871.50	870.50	869.00	868.00	866.50	865.00	863.50	862.50	861.50	859.50	858.50	857.00	856.00	854.50	853.50	851.50	850.50	849.50	848.00	847.00	845.00	844.00	842.50	842.00	841.50	839.50	838.50	837.00	836.00	834.50	833.50	831.50	830.50	829.50	828.00	826.00	824.00	823.00	820.50	819.50	816.50	815.50	814.00	812.00	810.00	808.00	805.00	802.50	801.00	798.00	796.00	793.00	790.00	787.00	785.00	783.00	779.00	777.50	775.00	773.00	770.00	768.00	765.50	764.50	763.00	761.00	760.00	758.00	756.00	754.50	753.50	752.50	750.50	750.00	749.00	749.00	749.00	748.50	748.00	748.00	748.50	749.00	749.00	749.00	749.00	749.00	749.00	749.50	750.00	750.00	749.00	749.00	749.00	749.00	748.00	748.00	747.50	747.00	746.00	745.00	745.00	743.50	743.00	741.50	741.00	740.50	739.00	737.50	737.00	736.00	734.50	733.50	732.00	731.00	729.00	728.00	726.50	725.50	724.50	722.50	721.00	719.00	718.00	716.50	715.00	712.50	711.00	709.50	707.00	706.00	703.00	702.00	700.00	698.50	697.50	695.00	693.50	692.00	691.00	689.50	688.50	686.50	685.50	684.50	683.00	681.50	680.00	679.00	677.50	676.50	675.00	673.50	672.50	671.00	668.50	667.50	666.50	664.00	662.50	661.00	660.00	657.50	656.00	654.50	653.00	651.50	649.50	648.50	647.00	646.00	643.50	642.50	640.50	639.50	638.50	636.00	635.00	632.00	631.00	629.50	628.00	626.50	623.50	622.00	620.00	619.00	616.50	615.00	611.50	610.00	608.50	606.00	604.00	601.00	600.00	597.50	596.50	594.00	592.50	591.50	590.00	588.50	587.50	586.50	585.50	585.00	584.00	584.00	583.00	582.00	581.50	581.00	580.50	580.00	579.00	578.00	578.00	577.00	576.50	575.50	574.50	573.50	572.00	571.00	570.00	569.00
904.50	903.00	902.00	901.00	900.00	898.50	897.50	897.00	895.50	894.50	894.00	893.00	891.50	891.00	889.50	888.50	887.50	886.00	885.00	884.00	883.00	882.00	881.50	879.50	879.00	878.50	877.00	875.50	874.50	873.00	871.50	870.50	869.00	868.00	866.50	865.00	863.50	862.50	861.50	859.50	858.50	857.00	856.00	854.50	853.50	851.50	850.50	849.50	848.00	847.00	845.00	844.00	842.50	842.00	841.50	839.50	838.50	837.00	836.00	834.50	833.50	831.50	830.50	829.50	828.00	826.00	824.00	823.00	820.50	819.50	816.50	815.50	814.00	812.00	810.00	808.00	805.00	802.50	801.00	798.00	796.00	793.00	790.00	787.00	785.00	783.00	779.00	777.50	775.00	773.00	770.00	768.00	765.50	764.50	763.00	761.00	760.00	758.00	756.00	754.50	753.50	752.50	750.50	750.00	749.00	749.00	749.00	748.50	748.00	748.00	748.50	749.00	749.00	749.00	749.00	749.00	749.00	749.50	750.00	750.00	749.00	749.00	749.00	749.00	748.00	748.00	747.50	747.00	746.00	745.00	745.00	743.50	743.00	741.50	741.00	740.50	739.00	737.50	737.00	736.00	734.50	733.50	732.00	731.00	729.00	728.00	726.50	725.50	724.50	722.50	721.00	719.00	718.00	716.50	715.00	712.50	711.00	709.50	707.00	706.00	703.00	702.00	700.00	698.50	697.50	695.00	693.50	692.00	691.00	689.50	688.50	686.50	685.50	684.50	683.00	681.50	680.00	679.00	677.50	676.50	675.00	673.50	672.50	671.00	668.50	667.50	666.50	664.00	662.50	661.00	660.00	657.50	656.00	654.50	653.00	651.50	649.50	648.50	647.00	646.00	643.50	642.50	640.50	639.50	638.50	636.00	635.00	632.00	631.00	629.50	628.00	626.50	623.50	622.00	620.00	619.00	616.50	615.00	611.50	610.00	608.50	606.00	604.00	601.00	600.00	597.50	596.50	594.00	592.50	591.50	590.00	588.50	587.50	586.50	585.50	585.00	584.00	584.00	583.00	582.00	581.50	581.00	580.50	580.00	579.00	578.00	578.00	577.00	576.50	575.50	574.50	573.50	572.00	571.00	570.00	569.00
904.50	903.00	902.00	901.00	900.00	898.50	897.50	897.00	895.50	894.50	894.00	893.00	891.50	891.00	889.50	888.50	887.50	886.00	885.00	884.00	883.00	882.00	881.50	879.50	879.00	878.50	877.00	875.50	874.50	873.00	871.50	870.50	869.00	868.00	866.50	865.00	863.50	862.50	861.50	859.50	858.50	857.00	856.00	854.50	853.50	851.50	850.50	849.50	848.00	847.00	845.00	844.00	842.50	842.00	841.50	839.50	838.50	837.00	836.00	834.50	833.50	831.50	830.50	829.50	828.00	826.00	824.00	823.00	820.50	819.50	816.50	815.50	814.00	812.00	810.00	808.00	805.00	802.50	801.00	798.00	796.00	793.00	790.00	787.00	785.00	783.00	779.00	777.50	775.00	773.00	770.00	768.00	765.50	764.50	763.00	761.00	760.00	758.00	756.00	754.50	753.50	752.50	750.50	750.00	749.00	749.00	749.00	748.50	748.00	748.00	748.50	749.00	749.00	749.00	749.00	749.00	749.00	749.50	750.00	750.00	749.00	749.00	749.00	749.00	748.00	748.00	747.50	747.00	746.00	745.00	745.00	743.50	743.00	741.50	741.00	740.50	739.00	737.50	737.00	736.00	734.50	733.50	732.00	731.00	729.00	728.00	726.50	725.50	724.50	722.50	721.00	719.00	718.00	716.50	715.00	712.50	711.00	709.50	707.00	706.00	703.00	702.00	700.00	698.50	697.50	695.00	693.50	692.00	691.00	689.50	688.50	686.50	685.50	684.50	683.00	681.50	680.00	679.00	677.50	676.50	675.00	673.50	672.50	671.00	668.50	667.50	666.50	664.00	662.50	661.00	660.00	657.50	656.00	654.50	653.00	651.50	649.50	648.50	647.00	646.00	643.50	642.50	640.50	639.50	638.50	636.00	635.00	632.00	631.00	629.50	628.00	626.50	623.50	622.00	620.00	619.00	616.50	615.00	611.50	610.00	608.50	606.00	604.00	601.00	600.00	597.50	596.50	594.00	592.50	591.50	590.00	588.50	587.50	586.50	585.50	585.00	584.00	584.00	583.00	582.00	581.50	581.00	580.50	580.00	579.00	578.00	578.00	577.00	576.50	575.50	574.50	573.50	572.00	571.00	570.00	569.00
904.50	903.00	902.00	901.00	900.00	898.50	897.50	897.00	895.50	894.50	894.00	893.00	891.50	891.00	889.50	888.50	887.50	886.00	885.00	884.00	883.00	882.00	881.50	879.50	879.00	878.50	877.00	875.50	874.50	873.00	871.50	870.50	869.00	868.00	866.50	865.00	863.50	862.50	861.50	859.50	858.50	857.00	856.00	854.50	853.50	851.50	850.50	849.50	848.00	847.00	845.00	844.00	842.50	842.00	841.50	839.50	838.50	837.00	836.00	834.50	833.50	831.50	830.50	829.50	828.00	826.00	824.00	823.00	820.50	819.50	816.50	815.50	814.00	812.00	810.00	808.00	805.00	802.50	801.00	798.00	796.00	793.00	790.00	787.00	785.00	783.00	779.00	777.50	775.00	773.00	770.00	768.00	765.50	764.50	763.00	761.00	760.00	758.00	756.00	754.50	753.50	752.50	750.50	750.00	749.00	749.00	749.00	748.50	748.00	748.00	748.50	749.00	749.00	749.00	749.00	749.00	749.00	749.50	750.00	750.00	749.00	749.00	749.00	749.00	748.00	748.00	747.50	747.00	746.00	745.00	745.00	743.50	743.00	741.50	741.00	740.50	739.00	737.50	737.00	736.00	734.50	733.50	732.00	731.00	729.00	728.00	726.50	725.50	724.50	722.50	721.00	719.00	718.00	716.50	715.00	712.50	711.00	709.50	707.00	706.00	703.00	702.00	700.00	698.50	697.50	695.00	693.50	692.00	691.00	689.50	688.50	686.50	685.50	684.50	683.00	681.50	680.00	679.00	677.50	676.50	675.00	673.50	672.50	671.00	668.50	667.50	666.50	664.00	662.50	661.00	660.00	657.50	656.00	654.50	653.00	651.50	649.50	648.50	647.00	646.00	643.50	642.50	640.50	639.50	638.50	636.00	635.00	632.00	631.00	629.50	628.00	626.50	623.50	622.00	620.00	619.00	616.50	615.00	611.50	610.00	608.50	606.00	604.00	601.00	600.00	597.50	596.50	594.00	592.50	591.50	590.00	588.50	587.50	586.50	585.50	585.00	584.00	584.00	583.00	582.00	581.50	581.00	580.50	580.00	579.00	578.00	578.00	577.00	576.50	575.50	574.50	573.50	572.00	571.00	570.00	569.00
905.50	905.00	904.00	902.00	902.00	900.50	899.50	898.50	897.50	897.00	896.00	895.00	894.50	893.00	892.50	891.50	890.50	890.00	888.50	887.00	887.00	885.50	884.50	883.50	882.50	881.50	880.00	878.50	877.50	876.00	874.50	873.50	872.00	871.00	869.50	868.00	866.50	865.50	864.50	861.50	860.50	859.00	858.00	856.50	855.50	852.50	851.50	850.50	849.00	848.00	845.00	844.00	842.50	841.50	840.50	838.00	836.50	835.00	834.00	832.00	830.50	828.00	826.50	825.50	823.00	822.00	819.00	817.00	814.50	813.00	810.00	808.50	807.00	805.00	802.50	801.00	799.00	796.50	795.00	793.00	791.00	789.00	786.00	783.00	781.50	780.00	776.00	774.50	772.00	770.00	767.50	766.00	762.50	761.50	760.50	759.00	758.00	757.00	756.00	754.50	753.50	753.00	751.50	751.00	751.00	750.00	750.00	750.00	750.00	750.00	750.00	750.00	751.00	751.00	751.00	752.00	752.00	752.00	752.00	752.00	752.00	752.00	751.00	751.00	750.00	749.50	749.00	748.00	747.50	747.00	746.00	745.50	744.50	743.00	742.50	741.50	740.00	738.50	738.00	737.00	735.50	734.50	734.00	733.00	730.00	729.00	727.50	726.50	725.50	723.50	722.00	720.00	719.00	717.00	715.50	713.00	711.50	710.50	708.00	707.00	704.00	703.00	700.50	699.50	698.00	695.50	694.50	692.00	691.00	689.50	688.50	686.50	685.50	684.50	683.00	681.00	679.00	678.00	676.50	675.50	674.00	672.50	671.50	670.00	667.50	666.50	665.50	662.50	661.50	659.00	658.00	656.00	654.00	652.00	650.50	649.50	646.50	645.50	644.00	642.00	640.50	639.50	637.00	635.50	634.50	633.00	631.00	629.00	628.00	626.50	625.50	624.00	621.50	620.00	618.00	617.00	615.00	613.50	610.50	609.00	607.50	605.00	603.50	601.00	600.00	598.00	596.50	595.00	593.50	592.50	591.00	589.50	589.00	588.50	587.00	586.50	586.00	585.00	584.50	584.00	583.50	583.00	583.00	582.00	582.00	581.00	581.00	580.00	579.50	579.00	578.50	577.50	576.00	575.00	574.00	573.00
905.50	905.00	904.00	902.00	902.00	900.50	899.50	898.50	897.50	897.00	896.00	895.00	894.50	893.00	892.50	891.50	890.50	890.00	888.50	887.00	887.00	885.50	884.50	883.50	882.50	881.50	880.00	878.50	877.50	876.00	874.50	873.50	872.00	871.00	869.50	868.00	866.50	865.50	864.50	861.50	860.50	859.00	858.00	856.50	855.50	852.50	851.50	850.50	849.00	848.00	845.00	844.00	842.50	841.50	840.50	838.00	836.50	835.00	834.00	832.00	830.50	828.00	826.50	825.50	823.00	822.00	819.00	817.00	814.50	813.00	810.00	808.50	807.00	805.00	802.50	801.00	799.00	796.50	795.00	793.00	791.00	789.00	786.00	783.00	781.50	780.00	776.00	774.50	772.00	770.00	767.50	766.00	762.50	761.50	760.50	759.00	758.00	757.00	756.00	754.50	753.50	753.00	751.50	751.00	751.00	750.00	750.00	750.00	750.00	750.00	750.00	750.00	751.00	751.00	751.00	752.00	752.00	752.00	752.00	752.00	752.00	752.00	751.00	751.00	750.00	749.50	749.00	748.00	747.50	747.00	746.00	745.50	744.50	743.00	742.50	741.50	740.00	738.50	738.00	737.00	735.50	734.50	734.00	733.00	730.00	729.00	727.50	726.50	725.50	723.50	722.00	720.00	719.00	717.00	715.50	713.00	711.50	710.50	708.00	707.00	704.00	703.00	700.50	699.50	698.00	695.50	694.50	692.00	691.00	689.50	688.50	686.50	685.50	684.50	683.00	681.00	679.00	678.00	676.50	675.50	674.00	672.50	671.50	670.00	667.50	666.50	665.50	662.50	661.50	659.00	658.00	656.00	654.00	652.00	650.50	649.50	646.50	645.50	644.00	642.00	640.50	639.50	637.00	635.50	634.50	633.00	631.00	629.00	628.00	626.50	625.50	624.00	621.50	620.00	618.00	617.00	615.00	613.50	610.50	609.00	607.50	605.00	603.50	601.00	600.00	598.00	596.50	595.00	593.50	592.50	591.00	589.50	589.00	588.50	587.00	586.50	586.00	585.00	584.50	584.00	583.50	583.00	583.00	582.00	582.00	581.00	581.00	580.00	579.50	579.00	578.50	577.50	576.00	575.00	574.00	573.00
905.50	905.00	904.00	902.00	902.00	900.50	899.50	898.50	897.50	897.00	896.00	895.00	894.50	893.00	892.50	891.50	890.50	890.00	888.50	887.00	887.00	885.50	884.50	883.50	882.50	881.50	880.00	878.50	877.50	876.00	874.50	873.50	872.00	871.00	869.50	868.00	866.50	865.50	864.50	861.50	860.50	859.00	858.00	856.50	855.50	852.50	851.50	850.50	849.00	848.00	845.00	844.00	842.50	841.50	840.50	838.00	836.50	835.00	834.00	832.00	830.50	828.00	826.50	825.50	823.00	822.00	819.00	817.00	814.50	813.00	810.00	808.50	807.00	805.00	802.50	801.00	799.00	796.50	795.00	793.00	791.00	789.00	786.00	783.00	781.50	780.00	776.00	774.50	772.00	770.00	767.50	766.00	762.50	761.50	760.50	759.00	758.00	757.00	756.00	754.50	753.50	753.00	751.50	751.00	751.00	750.00	750.00	750.00	750.00	750.00	750.00	750.00	751.00	751.00	751.00	752.00	752.00	752.00	752.00	752.00	752.00	752.00	751.00	751.00	750.00	749.50	749.00	748.00	747.50	747.00	746.00	745.50	744.50	743.00	742.50	741.50	740.00	738.50	738.00	737.00	735.50	734.50	734.00	733.00	730.00	729.00	727.50	726.50	725.50	723.50	722.00	720.00	719.00	717.00	715.50	713.00	711.50	710.50	708.00	707.00	704.00	703.00	700.50	699.50	698.00	695.50	694.50	692.00	691.00	689.50	688.50	686.50	685.50	684.50	683.00	681.00	679.00	678.00	676.50	675.50	674.00	672.50	671.50	670.00	667.50	666.50	665.50	662.50	661.50	659.00	658.00	656.00	654.00	652.00	650.50	649.50	646.50	645.50	644.00	642.00	640.50	639.50	637.00	635.50	634.50	633.00	631.00	629.00	628.00	626.50	625.50	624.00	621.50	620.00	618.00	617.00	615.00	613.50	610.50	609.00	607.50	605.00	603.50	601.00	600.00	598.00	596.50	595.00	593.50	592.50	591.00	589.50	589.00	588.50	587.00	586.50	586.00	585.00	584.50	584.00	583.50	583.00	583.00	582.00	582.00	581.00	581.00	580.00	579.50	579.00	578.50	577.50	576.00	575.00	574.00	573.00
905.50	905.00	904.00	902.00	902.00	900.50	899.50	898.50	897.50	897.00	896.00	895.00	894.50	893.00	892.50	891.50	890.50	890.00	888.50	887.00	887.00	885.50	884.50	883.50	882.50	881.50	880.00	878.50	877.50	876.00	874.50	873.50	872.00	871.00	869.50	868.00	866.50	865.50	864.50	861.50	860.50	859.00	858.00	856.50	855.50	852.50	851.50	850.50	849.00	848.00	845.00	844.00	842.50	841.50	840.50	838.00	836.50	835.00	834.00	832.00	830.50	828.00	826.50	825.50	823.00	822.00	819.00	817.00	814.50	813.00	810.00	808.50	807.00	805.00	802.50	801.00	799.00	796.50	795.00	793.00	791.00	789.00	786.00	783.00	781.50	780.00	776.00	774.50	772.00	770.00	767.50	766.00	762.50	761.50	760.50	759.00	758.00	757.00	756.00	754.50	753.50	753.00	751.50	751.00	751.00	750.00	750.00	750.00	750.00	750.00	750.00	750.00	751.00	751.00	751.00	752.00	752.00	752.00	752.00	752.00	752.00	752.00	751.00	751.00	750.00	749.50	749.00	748.00	747.50	747.00	746.00	745.50	744.50	743.00	742.50	741.50	740.00	738.50	738.00	737.00	735.50	734.50	734.00	733.00	730.00	729.00	727.50	726.50	725.50	723.50	722.00	720.00	719.00	717.00	715.50	713.00	711.50	710.50	708.00	707.00	704.00	703.00	700.50	699.50	698.00	695.50	694.50	692.00	691.00	689.50	688.50	686.50	685.50	684.50	683.00	681.00	679.00	678.00	676.50	675.50	674.00	672.50	671.50	670.00	667.50	666.50	665.50	662.50	661.50	659.00	658.00	656.00	654.00	652.00	650.50	649.50	646.50	645.50	644.00	642.00	640.50	639.50	637.00	635.50	634.50	633.00	631.00	629.00	628.00	626.50	625.50	624.00	621.50	620.00	618.00	617.00	615.00	613.50	610.50	609.00	607.50	605.00	603.50	601.00	600.00	598.00	596.50	595.00	593.50	592.50	591.00	589.50	589.00	588.50	587.00	586.50	586.00	585.00	584.50	584.00	583.50	583.00	583.00	582.00	582.00	581.00	581.00	580.00	579.50	579.00	578.50	577.50	576.00	575.00	574.00	573.00
905.50	905.00	904.00	902.00	902.00	900.50	899.50	898.50	897.50	897.00	896.00	895.00	894.50	893.00	892.50	891.50	890.50	890.00	888.50	887.00	887.00	885.50	884.50	883.50	882.50	881.50	880.00	878.50	877.50	876.00	874.50	873.50	872.00	871.00	869.50	868.00	866.50	865.50	864.50	861.50	860.50	859.00	858.00	856.50	855.50	852.50	851.50	850.50	849.00	848.00	845.00	844.00	842.50	841.50	840.50	838.00	836.50	835.00	834.00	832.00	830.50	828.00	826.50	825.50	823.00	822.00	819.00	817.00	814.50	813.00	810.00	808.50	807.00	805.00	802.50	801.00	799.00	796.50	795.00	793.00	791.00	789.00	786.00	783.00	781.50	780.00	776.00	774.50	772.00	770.00	767.50	766.00	762.50	761.50	760.50	759.00	758.00	757.00	756.00	754.50	753.50	753.00	751.50	751.00	751.00	750.00	750.00	750.00	750.00	750.00	750.00	750.00	751.00	751.00	751.00	752.00	752.00	752.00	752.00	752.00	752.00	752.00	751.00	751.00	750.00	749.50	749.00	748.00	747.50	747.00	746.00	745.50	744.50	743.00	742.50	741.50	740.00	738.50	738.00	737.00	735.50	734.50	734.00	733.00	730.00	729.00	727.50	726.50	725.50	723.50	722.00	720.00	719.00	717.00	715.50	713.00	711.50	710.50	708.00	707.00	704.00	703.00	700.50	699.50	698.00	695.50	694.50	692.00	691.00	689.50	688.50	686.50	685.50	684.50	683.00	681.00	679.00	678.00	676.50	675.50	674.00	672.50	671.50	670.00	667.50	666.50	665.50	662.50	661.50	659.00	658.00	656.00	654.00	652.00	650.50	649.50	646.50	645.50	644.00	642.00	640.50	639.50	637.00	635.50	634.50	633.00	631.00	629.00	628.00	626.50	625.50	624.00	621.50	620.00	618.00	617.00	615.00	613.50	610.50	609.00	607.50	605.00	603.50	601.00	600.00	598.00	596.50	595.00	593.50	592.50	591.00	589.50	589.00	588.50	587.00	586.50	586.00	585.00	584.50	584.00	583.50	583.00	583.00	582.00	582.00	581.00	581.00	580.00	579.50	579.00	578.50	577.50	576.00	575.00	574.00	573.00
907.00	906.00	905.00	904.00	904.00	903.00	902.50	902.00	901.00	900.50	899.00	899.00	897.50	897.00	895.50	895.00	894.50	893.00	892.00	891.00	890.00	889.00	888.50	886.50	885.50	885.00	883.00	881.50	880.50	879.00	877.50	876.50	875.00	874.00	871.50	870.00	868.00	866.50	865.50	863.50	862.00	860.00	859.00	857.50	856.00	853.50	852.50	851.00	849.00	848.00	845.00	843.00	841.00	839.50	838.50	835.50	834.00	832.00	830.00	828.00	826.50	823.00	821.50	820.00	817.00	815.00	812.00	810.00	807.00	805.50	802.00	800.00	798.50	796.00	793.50	792.00	789.00	787.50	786.00	784.00	783.00	780.50	779.00	776.50	775.50	774.50	772.50	771.00	769.00	768.00	765.50	764.50	761.50	761.00	760.50	759.00	758.00	757.00	757.00	756.00	756.00	756.00	755.00	755.00	755.00	755.00	755.00	755.00	756.00	756.00	756.00	756.00	756.00	757.00	757.00	757.00	757.00	757.00	756.50	756.00	756.00	756.00	755.00	755.00	754.00	753.50	753.00	752.00	751.00	750.00	749.00	748.00	747.50	745.50	744.50	743.50	742.00	741.50	740.50	739.00	737.50	736.50	735.00	734.00	732.00	731.00	729.00	727.50	726.50	724.50	723.00	721.00	720.00	717.50	716.50	713.50	712.00	710.50	709.00	707.00	704.00	703.00	701.00	699.50	698.00	695.50	694.00	692.00	691.00	689.50	688.50	686.50	685.00	683.50	682.00	681.00	680.00	679.00	676.50	675.50	674.00	671.50	670.50	669.00	667.00	665.50	664.50	661.50	660.50	659.00	657.00	655.00	653.00	651.00	649.50	648.50	645.50	644.00	642.00	641.00	638.50	637.50	635.50	634.50	633.00	631.00	630.00	628.00	627.00	625.00	623.50	622.50	620.50	619.50	618.00	616.00	614.50	613.50	610.50	609.50	608.00	606.00	604.00	602.00	601.00	599.50	598.50	597.00	594.50	594.00	593.00	591.50	591.00	590.50	588.50	588.00	587.00	587.00	586.00	585.00	585.00	585.00	584.50	584.00	584.00	583.00	583.00	582.50	582.00	581.00	580.50	580.00	579.00	578.00	577.00	576.00
907.00	906.00	905.00	904.00	904.00	903.00	902.50	902.00	901.00	900.50	899.00	899.00	897.50	897.00	895.50	895.00	894.50	893.00	892.00	891.00	890.00	889.00	888.50	886.50	885.50	885.00	883.00	881.50	880.50	879.00	877.50	876.50	875.00	874.00	871.50	870.00	868.00	866.50	865.50	863.50	862.00	860.00	859.00	857.50	856.00	853.50	852.50	851.00	849.00	848.00	845.00	843.00	841.00	839.50	838.50	835.50	834.00	832.00	830.00	828.00	826.50	823.00	821.50	820.00	817.00	815.00	812.00	810.00	807.00	805.50	802.00	800.00	798.50	796.00	793.50	792.00	789.00	787.50	786.00	784.00	783.00	780.50	779.00	776.50	775.50	774.50	772.50	771.00	769.00	768.00	765.50	764.50	761.50	761.00	760.50	759.00	758.00	757.00	757.00	756.00	756.00	756.00	755.00	755.00	755.00	755.00	755.00	755.00	756.00	756.00	756.00	756.00	756.00	757.00	757.00	757.00	757.00	757.00	756.50	756.00	756.00	756.00	755.00	755.00	754.00	753.50	753.00	752.00	751.00	750.00	749.00	748.00	747.50	745.50	744.50	743.50	742.00	741.50	740.50	739.00	737.50	736.50	735.00	734.00	732.00	731.00	729.00	727.50	726.50	724.50	723.00	721.00	720.00	717.50	716.50	713.50	712.00	710.50	709.00	707.00	704.00	703.00	701.00	699.50	698.00	695.50	694.00	692.00	691.00	689.50	688.50	686.50	685.00	683.50	682.00	681.00	680.00	679.00	676.50	675.50	674.00	671.50	670.50	669.00	667.00	665.50	664.50	661.50	660.50	659.00	657.00	655.00	653.00	651.00	649.50	648.50	645.50	644.00	642.00	641.00	638.50	637.50	635.50	634.50	633.00	631.00	630.00	628.00	627.00	625.00	623.50	622.50	620.50	619.50	618.00	616.00	614.50	613.50	610.50	609.50	608.00	606.00	604.00	602.00	601.00	599.50	598.50	597.00	594.50	594.00	593.00	591.50	591.00	590.50	588.50	588.00	587.00	587.00	586.00	585.00	585.00	585.00	584.50	584.00	584.00	583.00	583.00	582.50	582.00	581.00	580.50	580.00	579.00	578.00	577.00	576.00
907.00	906.00	905.00	904.00	904.00	903.00	902.50	902.00	901.00	900.50	899.00	899.00	897.50	897.00	895.50	895.00	894.50	893.00	892.00	891.00	890.00	889.00	888.50	886.50	885.50	885.00	883.00	881.50	880.50	879.00	877.50	876.50	875.00	874.00	871.50	870.00	868.00	866.50	865.50	863.50	862.00	860.00	859.00	857.50	856.00	853.50	852.50	851.00	849.00	848.00	845.00	843.00	841.00	839.50	838.50	835.50	834.00	832.00	830.00	828.00	826.50	823.00	821.50	820.00	817.00	815.00	812.00	810.00	807.00	805.50	802.00	800.00	798.50	796.00	793.50	792.00	789.00	787.50	786.00	784.00	783.00	780.50	779.00	776.50	775.50	774.50	772.50	771.00	769.00	768.00	765.50	764.50	761.50	761.00	760.50	759.00	758.00	757.00	757.00	756.00	756.00	756.00	755.00	755.00	755.00	755.00	755.00	755.00	756.00	756.00	756.00	756.00	756.00	757.00	757.00	757.00	757.00	757.00	756.50	756.00	756.00	756.00	755.00	755.00	754.00	753.50	753.00	752.00	751.00	750.00	749.00	748.00	747.50	745.50	744.50	743.50	742.00	741.50	740.50	739.00	737.50	736.50	735.00	734.00	732.00	731.00	729.00	727.50	726.50	724.50	723.00	721.00	720.00	717.50	716.50	713.50	712.00	710.50	709.00	707.00	704.00	703.00	701.00	699.50	698.00	695.50	694.00	692.00	691.00	689.50	688.50	686.50	685.00	683.50	682.00	681.00	680.00	679.00	676.50	675.50	674.00	671.50	670.50	669.00	667.00	665.50	664.50	661.50	660.50	659.00	657.00	655.00	653.00	651.00	649.50	648.50	645.50	644.00	642.00	641.00	638.50	637.50	635.50	634.50	633.00	631.00	630.00	628.00	627.00	625.00	623.50	622.50	620.50	619.50	618.00	616.00	614.50	613.50	610.50	609.50	608.00	606.00	604.00	602.00	601.00	599.50	598.50	597.00	594.50	594.00	593.00	591.50	591.00	590.50	588.50	588.00	587.00	587.00	586.00	585.00	585.00	585.00	584.50	584.00	584.00	583.00	583.00	582.50	582.00	581.00	580.50	580.00	579.00	578.00	577.00	576.00
907.00	906.00	905.00	904.00	904.00	903.00	902.50	902.00	901.00	900.50	899.00	899.00	897.50	897.00	895.50	895.00	894.50	893.00	892.00	891.00	890.00	889.00	888.50	886.50	885.50	885.00	883.00	881.50	880.50	879.00	877.50	876.50	875.00	874.00	871.50	870.00	868.00	866.50	865.50	863.50	862.00	860.00	859.00	857.50	856.00	853.50	852.50	851.00	849.00	848.00	845.00	843.00	841.00	839.50	838.50	835.50	834.00	832.00	830.00	828.00	826.50	823.00	821.50	820.00	817.00	815.00	812.00	810.00	807.00	805.50	802.00	800.00	798.50	796.00	793.50	792.00	789.00	787.50	786.00	784.00	783.00	780.50	779.00	776.50	775.50	774.50	772.50	771.00	769.00	768.00	765.50	764.50	761.50	761.00	760.50	759.00	758.00	757.00	757.00	756.00	756.00	756.00	755.00	755.00	755.00	755.00	755.00	755.00	756.00	756.00	756.00	756.00	756.00	757.00	757.00	757.00	757.00	757.00	756.50	756.00	756.00	756.00	755.00	755.00	754.00	753.50	753.00	752.00	751.00	750.00	749.00	748.00	747.50	745.50	744.50	743.50	742.00	741.50	740.50	739.00	737.50	736.50	735.00	734.00	732.00	731.00	729.00	727.50	726.50	724.50	723.00	721.00	720.00	717.50	716.50	713.50	712.00	710.50	709.00	707.00	704.00	703.00	701.00	699.50	698.00	695.50	694.00	692.00	691.00	689.50	688.50	686.50	685.00	683.50	682.00	681.00	680.00	679.00	676.50	675.50	674.00	671.50	670.50	669.00	667.00	665.50	664.50	661.50	660.50	659.00	657.00	655.00	653.00	651.00	649.50	648.50	645.50	644.00	642.00	641.00	638.50	637.50	635.50	634.50	633.00	631.00	630.00	628.00	627.00	625.00	623.50	622.50	620.50	619.50	618.00	616.00	614.50	613.50	610.50	609.50	608.00	606.00	604.00	602.00	601.00	599.50	598.50	597.00	594.50	594.00	593.00	591.50	591.00	590.50	588.50	588.00	587.00	587.00	586.00	585.00	585.00	585.00	584.50	584.00	584.00	583.00	583.00	582.50	582.00	581.00	580.50	580.00	579.00	578.00	577.00	576.00
907.00	906.00	905.00	904.00	904.00	903.00	902.50	902.00	901.00	900.50	899.00	899.00	897.50	897.00	895.50	895.00	894.50	893.00	892.00	891.00	890.00	889.00	888.50	886.50	885.50	885.00	883.00	881.50	880.50	879.00	877.50	876.50	875.00	874.00	871.50	870.00	868.00	866.50	865.50	863.50	862.00	860.00	859.00	857.50	856.00	853.50	852.50	851.00	849.00	848.00	845.00	843.00	841.00	839.50	838.50	835.50	834.00	832.00	830.00	828.00	826.50	823.00	821.50	820.00	817.00	815.00	812.00	810.00	807.00	805.50	802.00	800.00	798.50	796.00	793.50	792.00	789.00	787.50	786.00	784.00	783.00	780.50	779.00	776.50	775.50	774.50	772.50	771.00	769.00	768.00	765.50	764.50	761.50	761.00	760.50	759.00	758.00	757.00	757.00	756.00	756.00	756.00	755.00	755.00	755.00	755.00	755.00	755.00	756.00	756.00	756.00	756.00	756.00	757.00	757.00	757.00	757.00	757.00	756.50	756.00	756.00	756.00	755.00	755.00	754.00	753.50	753.00	752.00	751.00	750.00	749.00	748.00	747.50	745.50	744.50	743.50	742.00	741.50	740.50	739.00	737.50	736.50	735.00	734.00	732.00	731.00	729.00	727.50	726.50	724.50	723.00	721.00	720.00	717.50	716.50	713.50	712.00	710.50	709.00	707.00	704.00	703.00	701.00	699.50	698.00	695.50	694.00	692.00	691.00	689.50	688.50	686.50	685.00	683.50	682.00	681.00	680.00	679.00	676.50	675.50	674.00	671.50	670.50	669.00	667.00	665.50	664.50	661.50	660.50	659.00	657.00	655.00	653.00	651.00	649.50	648.50	645.50	644.00	642.00	641.00	638.50	637.50	635.50	634.50	633.00	631.00	630.00	628.00	627.00	625.00	623.50	622.50	620.50	619.50	618.00	616.00	614.50	613.50	610.50	609.50	608.00	606.00	604.00	602.00	601.00	599.50	598.50	597.00	594.50	594.00	593.00	591.50	591.00	590.50	588.50	588.00	587.00	587.00	586.00	585.00	585.00	585.00	584.50	584.00	584.00	583.00	583.00	582.50	582.00	581.00	580.50	580.00	579.00	578.00	577.00	576.00
910.00	909.00	909.00	908.00	907.00	906.50	906.00	905.50	904.00	903.50	903.00	902.00	901.00	900.00	899.50	898.50	897.50	897.00	895.50	894.00	894.00	892.50	891.50	889.50	888.50	887.50	886.00	884.50	883.50	882.00	880.50	879.50	877.00	876.00	873.50	872.00	869.50	868.00	866.50	864.00	862.50	860.00	859.00	856.50	855.50	852.50	851.50	850.00	848.00	846.00	843.00	842.00	839.50	838.00	836.00	833.00	831.00	828.00	827.00	824.00	822.00	818.00	816.00	814.00	811.00	809.00	805.00	803.00	799.50	797.00	793.00	791.00	789.50	787.00	785.00	783.00	781.00	778.50	777.50	776.00	774.00	772.50	771.00	770.00	769.50	768.50	767.50	767.00	766.00	765.00	764.00	763.50	761.50	760.50	760.00	760.00	760.00	760.00	760.00	760.00	760.00	760.00	760.00	760.00	760.00	761.00	761.00	761.00	761.00	761.00	761.50	762.00	762.00	762.00	762.00	762.00	762.50	762.50	762.00	761.50	761.00	761.00	760.00	759.50	758.50	757.50	757.00	756.00	754.50	753.00	752.00	750.50	749.50	748.50	747.50	746.50	745.00	743.50	742.50	740.00	738.50	737.50	736.00	735.00	732.00	731.00	729.50	728.00	726.50	724.50	723.00	721.00	719.00	717.50	716.00	713.00	711.50	710.50	708.00	707.00	704.00	702.00	700.50	699.00	697.50	694.50	693.50	691.00	690.00	688.50	687.50	685.50	684.50	683.50	682.00	680.50	679.00	678.00	676.50	675.50	674.00	672.00	670.50	669.00	667.50	666.00	664.50	662.00	660.50	659.00	657.00	655.50	653.00	651.00	649.50	648.50	645.50	644.50	643.00	641.00	639.50	638.50	636.00	634.50	633.50	632.00	631.00	629.00	628.00	626.50	625.50	624.50	622.00	620.50	619.00	618.00	616.50	615.50	612.50	611.50	610.50	608.00	606.50	604.00	603.00	601.50	600.50	599.00	597.50	596.50	595.00	594.50	593.50	592.50	591.50	590.50	590.00	589.00	588.50	588.00	587.00	587.00	586.50	586.00	586.00	585.00	585.00	584.00	583.50	582.00	581.50	580.50	580.00	579.00	577.00	577.00
910.00	909.00	909.00	908.00	907.00	906.50	906.00	905.50	904.00	903.50	903.00	902.00	901.00	900.00	899.50	898.50	897.50	897.00	895.50	894.00	894.00	892.50	891.50	889.50	888.50	887.50	886.00	884.50	883.50	882.00	880.50	879.50	877.00	876.00	873.50	872.00	869.50	868.00	866.50	864.00	862.50	860.00	859.00	856.50	855.50	852.50	851.50	850.00	848.00	846.00	843.00	842.00	839.50	838.00	836.00	833.00	831.00	828.00	827.00	824.00	822.00	818.00	816.00	814.00	811.00	809.00	805.00	803.00	799.50	797.00	793.00	791.00	789.50	787.00	785.00	783.00	781.00	778.50	777.50	776.00	774.00	772.50	771.00	770.00	769.50	768.50	767.50	767.00	766.00	765.00	764.00	763.50	761.50	760.50	760.00	760.00	760.00	760.00	760.00	760.00	760.00	760.00	760.00	760.00	760.00	761.00	761.00	761.00	761.00	761.00	761.50	762.00	762.00	762.00	762.00	762.00	762.50	762.50	762.00	761.50	761.00	761.00	760.00	759.50	758.50	757.50	757.00	756.00	754.50	753.00	752.00	750.50	749.50	748.50	747.50	746.50	745.00	743.50	742.50	740.00	738.50	737.50	736.00	735.00	732.00	731.00	729.50	728.00	726.50	724.50	723.00	721.00	719.00	717.50	716.00	713.00	711.50	710.50	708.00	707.00	704.00	702.00	700.50	699.00	697.50	694.50	693.50	691.00	690.00	688.50	687.50	685.50	684.50	683.50	682.00	680.50	679.00	678.00	676.50	675.50	674.00	672.00	670.50	669.00	667.50	666.00	664.50	662.00	660.50	659.00	657.00	655.50	653.00	651.00	649.50	648.50	645.50	644.50	643.00	641.00	639.50	638.50	636.00	634.50	633.50	632.00	631.00	629.00	628.00	626.50	625.50	624.50	622.00	620.50	619.00	618.00	616.50	615.50	612.50	611.50	610.50	608.00	606.50	604.00	603.00	601.50	600.50	599.00	597.50	596.50	595.00	594.50	593.50	592.50	591.50	590.50	590.00	589.00	588.50	588.00	587.00	587.00	586.50	586.00	586.00	585.00	585.00	584.00	583.50	582.00	581.50	580.50	580.00	579.00	577.00	577.00
910.00	909.00	909.00	908.00	907.00	906.50	906.00	905.50	904.00	903.50	903.00	902.00	901.00	900.00	899.50	898.50	897.50	897.00	895.50	894.00	894.00	892.50	891.50	889.50	888.50	887.50	886.00	884.50	883.50	882.00	880.50	879.50	877.00	876.00	873.50	872.00	869.50	868.00	866.50	864.00	862.50	860.00	859.00	856.50	855.50	852.50	851.50	850.00	848.00	846.00	843.00	842.00	839.50	838.00	836.00	833.00	831.00	828.00	827.00	824.00	822.00	818.00	816.00	814.00	811.00	809.00	805.00	803.00	799.50	797.00	793.00	791.00	789.50	787.00	785.00	783.00	781.00	778.50	777.50	776.00	774.00	772.50	771.00	770.00	769.50	768.50	767.50	767.00	766.00	765.00	764.00	763.50	761.50	760.50	760.00	760.00	760.00	760.00	760.00	760.00	760.00	760.00	760.00	760.00	760.00	761.00	761.00	761.00	761.00	761.00	761.50	762.00	762.00	762.00	762.00	762.00	762.50	762.50	762.00	761.50	761.00	761.00	760.00	759.50	758.50	757.50	757.00	756.00	754.50	753.00	752.00	750.50	749.50	748.50	747.50	746.50	745.00	743.50	742.50	740.00	738.50	737.50	736.00	735.00	732.00	731.00	729.50	728.00	726.50	724.50	723.00	721.00	719.00	717.50	716.00	713.00	711.50	710.50	708.00	707.00	704.00	702.00	700.50	699.00	697.50	694.50	693.50	691.00	690.00	688.50	687.50	685.50	684.50	683.50	682.00	680.50	679.00	678.00	676.50	675.50	674.00	672.00	670.50	669.00	667.50	666.00	664.50	662.00	660.50	659.00	657.00	655.50	653.00	651.00	649.50	648.50	645.50	644.50	643.00	641.00	639.50	638.50	636.00	634.50	633.50	632.00	631.00	629.00	628.00	626.50	625.50	624.50	622.00	620.50	619.00	618.00	616.50	615.50	612.50	611.50	610.50	608.00	606.50	604.00	603.00	601.50	600.50	599.00	597.50	596.50	595.00	594.50	593.50	592.50	591.50	590.50	590.00	589.00	588.50	588.00	587.00	587.00	586.50	586.00	586.00	585.00	585.00	584.00	583.50	582.00	581.50	580.50	580.00	579.00	577.00	577.00
910.00	909.00	909.00	908.00	907.00	906.50	906.00	905.50	904.00	903.50	903.00	902.00	901.00	900.00	899.50	898.50	897.50	897.00	895.50	894.00	894.00	892.50	891.50	889.50	888.50	887.50	886.00	884.50	883.50	882.00	880.50	879.50	877.00	876.00	873.50	872.00	869.50	868.00	866.50	864.00	862.50	860.00	859.00	856.50	855.50	852.50	851.50	850.00	848.00	846.00	843.00	842.00	839.50	838.00	836.00	833.00	831.00	828.00	827.00	824.00	822.00	818.00	816.00	814.00	811.00	809.00	805.00	803.00	799.50	797.00	793.00	791.00	789.50	787.00	785.00	783.00	781.00	778.50	777.50	776.00	774.00	772.50	771.00	770.00	769.50	768.50	767.50	767.00	766.00	765.00	764.00	763.50	761.50	760.50	760.00	760.00	760.00	760.00	760.00	760.00	760.00	760.00	760.00	760.00	760.00	761.00	761.00	761.00	761.00	761.00	761.50	762.00	762.00	762.00	762.00	762.00	762.50	762.50	762.00	761.50	761.00	761.00	760.00	759.50	758.50	757.50	757.00	756.00	754.50	753.00	752.00	750.50	749.50	748.50	747.50	746.50	745.00	743.50	742.50	740.00	738.50	737.50	736.00	735.00	732.00	731.00	729.50	728.00	726.50	724.50	723.00	721.00	719.00	717.50	716.00	713.00	711.50	710.50	708.00	707.00	704.00	702.00	700.50	699.00	697.50	694.50	693.50	691.00	690.00	688.50	687.50	685.50	684.50	683.50	682.00	680.50	679.00	678.00	676.50	675.50	674.00	672.00	670.50	669.00	667.50	666.00	664.50	662.00	660.50	659.00	657.00	655.50	653.00	651.00	649.50	648.50	645.50	644.50	643.00	641.00	639.50	638.50	636.00	634.50	633.50	632.00	631.00	629.00	628.00	626.50	625.50	624.50	622.00	620.50	619.00	618.00	616.50	615.50	612.50	611.50	610.50	608.00	606.50	604.00	603.00	601.50	600.50	599.00	597.50	596.50	595.00	594.50	593.50	592.50	591.50	590.50	590.00	589.00	588.50	588.00	587.00	587.00	586.50	586.00	586.00	585.00	585.00	584.00	583.50	582.00	581.50	580.50	580.00	579.00	577.00	577.00
910.00	909.00	909.00	908.00	907.00	906.50	906.00	905.50	904.00	903.50	903.00	902.00	901.00	900.00	899.50	898.50	897.50	897.00	895.50	894.00	894.00	892.50	891.50	889.50	888.50	887.50	886.00	884.50	883.50	882.00	880.50	879.50	877.00	876.00	873.50	872.00	869.50	868.00	866.50	864.00	862.50	860.00	859.00	856.50	855.50	852.50	851.50	850.00	848.00	846.00	843.00	842.00	839.50	838.00	836.00	833.00	831.00	828.00	827.00	824.00	822.00	818.00	816.00	814.00	811.00	809.00	805.00	803.00	799.50	797.00	793.00	791.00	789.50	787.00	785.00	783.00	781.00	778.50	777.50	776.00	774.00	772.50	771.00	770.00	769.50	768.50	767.50	767.00	766.00	765.00	764.00	763.50	761.50	760.50	760.00	760.00	760.00	760.00	760.00	760.00	760.00	760.00	760.00	760.00	760.00	761.00	761.00	761.00	761.00	761.00	761.50	762.00	762.00	762.00	762.00	762.00	762.50	762.50	762.00	761.50	761.00	761.00	760.00	759.50	758.50	757.50	757.00	756.00	754.50	753.00	752.00	750.50	749.50	748.50	747.50	746.50	745.00	743.50	742.50	740.00	738.50	737.50	736.00	735.00	732.00	731.00	729.50	728.00	726.50	724.50	723.00	721.00	719.00	717.50	716.00	713.00	711.50	710.50	708.00	707.00	704.00	702.00	700.50	699.00	697.50	694.50	693.50	691.00	690.00	688.50	687.50	685.50	684.50	683.50	682.00	680.50	679.00	678.00	676.50	675.50	674.00	672.00	670.50	669.00	667.50	666.00	664.50	662.00	660.50	659.00	657.00	655.50	653.00	651.00	649.50	648.50	645.50	644.50	643.00	641.00	639.50	638.50	636.00	634.50	633.50	632.00	631.00	629.00	628.00	626.50	625.50	624.50	622.00	620.50	619.00	618.00	616.50	615.50	612.50	611.50	610.50	608.00	606.50	604.00	603.00	601.50	600.50	599.00	597.50	596.50	595.00	594.50	593.50	592.50	591.50	590.50	590.00	589.00	588.50	588.00	587.00	587.00	586.50	586.00	586.00	585.00	585.00	584.00	583.50	582.00	581.50	580.50	580.00	579.00	577.00	577.00
912.00	911.00	911.00	910.00	909.00	908.25	907.75	907.00	905.75	905.25	904.50	903.50	902.75	902.00	901.00	900.25	899.50	898.50	897.50	896.00	895.50	894.00	893.00	891.00	890.00	889.00	887.50	886.00	885.00	883.00	881.50	880.50	878.00	877.00	874.50	872.50	870.25	868.75	867.25	864.50	863.00	860.50	859.50	856.75	855.50	852.50	851.25	849.75	847.50	846.00	843.00	841.50	838.75	837.00	835.25	832.00	830.00	827.00	825.50	822.50	820.50	816.25	814.00	812.00	808.50	806.50	802.00	800.00	796.50	794.00	790.00	787.75	786.00	783.50	781.50	779.75	777.50	775.25	774.00	772.50	771.50	770.00	768.50	767.50	767.25	766.50	765.75	765.50	765.00	764.50	763.75	763.25	762.25	761.75	761.50	761.50	761.50	762.00	762.00	762.25	762.50	762.50	762.50	762.50	763.00	763.50	763.50	763.50	763.50	763.50	763.75	764.00	764.00	764.00	764.00	764.00	764.25	764.25	763.50	763.25	762.50	762.50	761.75	761.00	760.00	759.00	758.25	757.00	755.75	754.00	753.00	751.50	750.50	749.00	747.75	746.50	745.00	743.50	742.25	740.00	738.50	737.25	735.50	734.50	731.50	730.50	728.75	727.25	726.00	723.50	722.00	720.00	718.50	716.50	715.25	712.25	711.00	709.75	707.50	706.50	703.50	701.50	699.75	698.25	697.00	694.00	693.00	690.50	689.50	688.00	687.00	685.00	684.00	683.00	681.50	680.00	678.50	677.50	676.00	675.00	673.50	671.25	670.00	668.50	667.00	665.75	664.50	662.25	660.75	659.00	657.50	655.75	653.50	651.50	650.00	649.00	646.00	645.00	643.50	642.00	640.50	639.50	636.75	635.50	634.50	633.00	632.00	630.00	629.00	627.50	626.50	625.50	623.25	622.00	620.50	619.50	618.00	617.00	614.50	613.25	612.00	610.00	608.50	606.00	605.00	603.50	602.50	601.00	599.50	598.50	597.00	596.25	595.50	594.50	593.25	592.50	591.50	590.50	590.00	589.50	588.50	588.25	587.50	587.00	586.25	585.50	585.00	584.00	583.50	581.75	581.25	580.50	579.50	578.50	577.00	576.50
914.00	913.00	913.00	912.00	911.00	910.00	909.50	908.50	907.50	907.00	906.00	905.00	904.50	904.00	902.50	902.00	901.50	900.00	899.50	898.00	897.00	895.50	894.50	892.50	891.50	890.50	889.00	887.50	886.50	884.00	882.50	881.50	879.00	878.00	875.50	873.00	871.00	869.50	868.00	865.00	863.50	861.00	860.00	857.00	855.50	852.50	851.00	849.50	847.00	846.00	843.00	841.00	838.00	836.00	834.50	831.00	829.00	826.00	824.00	821.00	819.00	814.50	812.00	810.00	806.00	804.00	799.00	797.00	793.50	791.00	787.00	784.50	782.50	780.00	778.00	776.50	774.00	772.00	770.50	769.00	769.00	767.50	766.00	765.00	765.00	764.50	764.00	764.00	764.00	764.00	763.50	763.00	763.00	763.00	763.00	763.00	763.00	764.00	764.00	764.50	765.00	765.00	765.00	765.00	766.00	766.00	766.00	766.00	766.00	766.00	766.00	766.00	766.00	766.00	766.00	766.00	766.00	766.00	765.00	765.00	764.00	764.00	763.50	762.50	761.50	760.50	759.50	758.00	757.00	755.00	754.00	752.50	751.50	749.50	748.00	746.50	745.00	743.50	742.00	740.00	738.50	737.00	735.00	734.00	731.00	730.00	728.00	726.50	725.50	722.50	721.00	719.00	718.00	715.50	714.50	711.50	710.50	709.00	707.00	706.00	703.00	701.00	699.00	697.50	696.50	693.50	692.50	690.00	689.00	687.50	686.50	684.50	683.50	682.50	681.00	679.50	678.00	677.00	675.50	674.50	673.00	670.50	669.50	668.00	666.50	665.50	664.50	662.50	661.00	659.00	658.00	656.00	654.00	652.00	650.50	649.50	646.50	645.50	644.00	643.00	641.50	640.50	637.50	636.50	635.50	634.00	633.00	631.00	630.00	628.50	627.50	626.50	624.50	623.50	622.00	621.00	619.50	618.50	616.50	615.00	613.50	612.00	610.50	608.00	607.00	605.50	604.50	603.00	601.50	600.50	599.00	598.00	597.50	596.50	595.00	594.50	593.00	592.00	591.50	591.00	590.00	589.50	588.50	588.00	586.50	586.00	585.00	584.00	583.50	581.50	581.00	580.50	579.00	578.00	577.00	576.00
914.00	913.00	913.00	912.00	911.00	910.00	909.50	908.50	907.50	907.00	906.00	905.00	904.50	904.00	902.50	902.00	901.50	900.00	899.50	898.00	897.00	895.50	894.50	892.50	891.50	890.50	889.00	887.50	886.50	884.00	882.50	881.50	879.00	878.00	875.50	873.00	871.00	869.50	868.00	865.00	863.50	861.00	860.00	857.00	855.50	852.50	851.00	849.50	847.00	846.00	843.00	841.00	838.00	836.00	834.50	831.00	829.00	826.00	824.00	821.00	819.00	814.50	812.00	810.00	806.00	804.00	799.00	797.00	793.50	791.00	787.00	784.50	782.50	780.00	778.00	776.50	774.00	772.00	770.50	769.00	769.00	767.50	766.00	765.00	765.00	764.50	764.00	764.00	764.00	764.00	763.50	763.00	763.00	763.00	763.00	763.00	763.00	764.00	764.00	764.50	765.00	765.00	765.00	765.00	766.00	766.00	766.00	766.00	766.00	766.00	766.00	766.00	766.00	766.00	766.00	766.00	766.00	766.00	765.00	765.00	764.00	764.00	763.50	762.50	761.50	760.50	759.50	758.00	757.00	755.00	754.00	752.50	751.50	749.50	748.00	746.50	745.00	743.50	742.00	740.00	738.50	737.00	735.00	734.00	731.00	730.00	728.00	726.50	725.50	722.50	721.00	719.00	718.00	715.50	714.50	711.50	710.50	709.00	707.00	706.00	703.00	701.00	699.00	697.50	696.50	693.50	692.50	690.00	689.00	687.50	686.50	684.50	683.50	682.50	681.00	679.50	678.00	677.00	675.50	674.50	673.00	670.50	669.50	668.00	666.50	665.50	664.50	662.50	661.00	659.00	658.00	656.00	654.00	652.00	650.50	649.50	646.50	645.50	644.00	643.00	641.50	640.50	637.50	636.50	635.50	634.00	633.00	631.00	630.00	628.50	627.50	626.50	624.50	623.50	622.00	621.00	619.50	618.50	616.50	615.00	613.50	612.00	610.50	608.00	607.00	605.50	604.50	603.00	601.50	600.50	599.00	598.00	597.50	596.50	595.00	594.50	593.00	592.00	591.50	591.00	590.00	589.50	588.50	588.00	586.50	586.00	585.00	584.00	583.50	581.50	581.00	580.50	579.00	578.00	577.00	576.00
914.00	913.00	913.00	912.00	911.00	910.00	909.50	908.50	907.50	907.00	906.00	905.00	904.50	904.00	902.50	902.00	901.50	900.00	899.50	898.00	897.00	895.50	894.50	892.50	891.50	890.50	889.00	887.50	886.50	884.00	882.50	881.50	879.00	878.00	875.50	873.00	871.00	869.50	868.00	865.00	863.50	861.00	860.00	857.00	855.50	852.50	851.00	849.50	847.00	846.00	843.00	841.00	838.00	836.00	834.50	831.00	829.00	826.00	824.00	821.00	819.00	814.50	812.00	810.00	806.00	804.00	799.00	797.00	793.50	791.00	787.00	784.50	782.50	780.00	778.00	776.50	774.00	772.00	770.50	769.00	769.00	767.50	766.00	765.00	765.00	764.50	764.00	764.00	764.00	764.00	763.50	763.00	763.00	763.00	763.00	763.00	763.00	764.00	764.00	764.50	765.00	765.00	765.00	765.00	766.00	766.00	766.00	766.00	766.00	766.00	766.00	766.00	766.00	766.00	766.00	766.00	766.00	766.00	765.00	765.00	764.00	764.00	763.50	762.50	761.50	760.50	759.50	758.00	757.00	755.00	754.00	752.50	751.50	749.50	748.00	746.50	745.00	743.50	742.00	740.00	738.50	737.00	735.00	734.00	731.00	730.00	728.00	726.50	725.50	722.50	721.00	719.00	718.00	715.50	714.50	711.50	710.50	709.00	707.00	706.00	703.00	701.00	699.00	697.50	696.50	693.50	692.50	690.00	689.00	687.50	686.50	684.50	683.50	682.50	681.00	679.50	678.00	677.00	675.50	674.50	673.00	670.50	669.50	668.00	666.50	665.50	664.50	662.50	661.00	659.00	658.00	656.00	654.00	652.00	650.50	649.50	646.50	645.50	644.00	643.00	641.50	640.50	637.50	636.50	635.50	634.00	633.00	631.00	630.00	628.50	627.50	626.50	624.50	623.50	622.00	621.00	619.50	618.50	616.50	615.00	613.50	612.00	610.50	608.00	607.00	605.50	604.50	603.00	601.50	600.50	599.00	598.00	597.50	596.50	595.00	594.50	593.00	592.00	591.50	591.00	590.00	589.50	588.50	588.00	586.50	586.00	585.00	584.00	583.50	581.50	581.00	580.50	579.00	578.00	577.00	576.00
914.00	913.00	913.00	912.00	911.00	910.00	909.50	908.50	907.50	907.00	906.00	905.00	904.50	904.00	902.50	902.00	901.50	900.00	899.50	898.00	897.00	895.50	894.50	892.50	891.50	890.50	889.00	887.50	886.50	884.00	882.50	881.50	879.00	878.00	875.50	873.00	871.00	869.50	868.00	865.00	863.50	861.00	860.00	857.00	855.50	852.50	851.00	849.50	847.00	846.00	843.00	841.00	838.00	836.00	834.50	831.00	829.00	826.00	824.00	821.00	819.00	814.50	812.00	810.00	806.00	804.00	799.00	797.00	793.50	791.00	787.00	784.50	782.50	780.00	778.00	776.50	774.00	772.00	770.50	769.00	769.00	767.50	766.00	765.00	765.00	764.50	764.00	764.00	764.00	764.00	763.50	763.00	763.00	763.00	763.00	763.00	763.00	764.00	764.00	764.50	765.00	765.00	765.00	765.00	766.00	766.00	766.00	766.00	766.00	766.00	766.00	766.00	766.00	766.00	766.00	766.00	766.00	766.00	765.00	765.00	764.00	764.00	763.50	762.50	761.50	760.50	759.50	758.00	757.00	755.00	754.00	752.50	751.50	749.50	748.00	746.50	745.00	743.50	742.00	740.00	738.50	737.00	735.00	734.00	731.00	730.00	728.00	726.50	725.50	722.50	721.00	719.00	718.00	715.50	714.50	711.50	710.50	709.00	707.00	706.00	703.00	701.00	699.00	697.50	696.50	693.50	692.50	690.00	689.00	687.50	686.50	684.50	683.50	682.50	681.00	679.50	678.00	677.00	675.50	674.50	673.00	670.50	669.50	668.00	666.50	665.50	664.50	662.50	661.00	659.00	658.00	656.00	654.00	652.00	650.50	649.50	646.50	645.50	644.00	643.00	641.50	640.50	637.50	636.50	635.50	634.00	633.00	631.00	630.00	628.50	627.50	626.50	624.50	623.50	622.00	621.00	619.50	618.50	616.50	615.00	613.50	612.00	610.50	608.00	607.00	605.50	604.50	603.00	601.50	600.50	599.00	598.00	597.50	596.50	595.00	594.50	593.00	592.00	591.50	591.00	590.00	589.50	588.50	588.00	586.50	586.00	585.00	584.00	583.50	581.50	581.00	580.50	579.00	578.00	577.00	576.00
917.50	917.00	916.00	915.00	914.00	913.50	913.00	912.50	911.50	911.00	910.00	909.00	908.50	907.00	906.50	905.50	905.00	904.00	902.50	901.00	900.00	898.50	897.50	895.50	894.50	893.50	892.00	890.50	889.00	887.00	884.50	883.50	881.00	880.00	877.50	875.00	873.00	871.50	870.00	866.50	865.00	862.00	861.00	858.00	856.50	853.50	852.00	850.50	848.00	847.00	843.00	841.00	839.00	837.00	835.00	831.00	829.00	825.00	823.00	819.50	817.00	812.50	810.00	807.50	804.00	801.00	796.00	794.00	790.00	788.00	783.50	781.00	779.00	776.00	774.00	772.50	771.00	768.50	767.00	766.00	765.00	764.50	764.00	763.00	763.00	763.00	763.00	763.00	764.00	764.00	764.00	764.50	765.00	765.50	766.00	766.00	767.00	767.00	768.00	768.00	768.50	769.00	769.00	769.00	769.00	770.00	770.00	770.00	769.50	769.00	769.00	769.00	769.00	768.00	768.00	768.00	767.50	767.00	766.50	766.00	765.00	764.00	763.50	762.50	761.50	760.50	759.50	758.00	756.50	755.00	754.00	752.50	751.00	748.50	747.50	746.00	744.00	742.00	740.50	739.00	736.50	735.50	733.00	732.00	729.00	728.00	725.50	724.00	722.50	720.00	718.50	717.00	715.00	713.50	712.50	709.50	708.50	707.00	705.00	704.00	701.00	699.00	697.50	696.00	694.50	692.50	691.00	689.00	688.00	686.50	685.50	682.50	681.50	680.50	679.00	677.50	676.00	675.00	673.50	672.50	671.00	669.50	668.50	667.00	665.50	664.50	663.50	661.50	660.00	658.00	657.00	655.50	654.00	652.50	651.50	650.50	648.50	647.50	646.00	645.00	643.50	642.50	640.50	639.50	638.50	636.00	635.00	633.00	632.00	630.50	629.50	628.50	627.50	626.50	625.00	624.00	622.50	621.50	619.50	618.50	617.50	616.00	614.50	613.00	612.00	610.50	609.50	608.00	606.50	605.50	604.00	602.50	601.50	600.50	599.00	598.50	597.00	596.00	594.50	593.00	591.50	591.00	590.50	589.00	587.50	586.00	585.00	584.50	583.50	581.50	580.50	579.50	578.00	577.00	575.00	574.00
917.50	917.00	916.00	915.00	914.00	913.50	913.00	912.50	911.50	911.00	910.00	909.00	908.50	907.00	906.50	905.50	905.00	904.00	902.50	901.00	900.00	898.50	897.50	895.50	894.50	893.50	892.00	890.50	889.00	887.00	884.50	883.50	881.00	880.00	877.50	875.00	873.00	871.50	870.00	866.50	865.00	862.00	861.00	858.00	856.50	853.50	852.00	850.50	848.00	847.00	843.00	841.00	839.00	837.00	835.00	831.00	829.00	825.00	823.00	819.50	817.00	812.50	810.00	807.50	804.00	801.00	796.00	794.00	790.00	788.00	783.50	781.00	779.00	776.00	774.00	772.50	771.00	768.50	767.00	766.00	765.00	764.50	764.00	763.00	763.00	763.00	763.00	763.00	764.00	764.00	764.00	764.50	765.00	765.50	766.00	766.00	767.00	767.00	768.00	768.00	768.50	769.00	769.00	769.00	769.00	770.00	770.00	770.00	769.50	769.00	769.00	769.00	769.00	768.00	768.00	768.00	767.50	767.00	766.50	766.00	765.00	764.00	763.50	762.50	761.50	760.50	759.50	758.00	756.50	755.00	754.00	752.50	751.00	748.50	747.50	746.00	744.00	742.00	740.50	739.00	736.50	735.50	733.00	732.00	729.00	728.00	725.50	724.00	722.50	720.00	718.50	717.00	715.00	713.50	712.50	709.50	708.50	707.00	705.00	704.00	701.00	699.00	697.50	696.00	694.50	692.50	691.00	689.00	688.00	686.50	685.50	682.50	681.50	680.50	679.00	677.50	676.00	675.00	673.50	672.50	671.00	669.50	668.50	667.00	665.50	664.50	663.50	661.50	660.00	658.00	657.00	655.50	654.00	652.50	651.50	650.50	648.50	647.50	646.00	645.00	643.50	642.50	640.50	639.50	638.50	636.00	635.00	633.00	632.00	630.50	629.50	628.50	627.50	626.50	625.00	624.00	622.50	621.50	619.50	618.50	617.50	616.00	614.50	613.00	612.00	610.50	609.50	608.00	606.50	605.50	604.00	602.50	601.50	600.50	599.00	598.50	597.00	596.00	594.50	593.00	591.50	591.00	590.50	589.00	587.50	586.00	585.00	584.50	583.50	581.50	580.50	579.50	578.00	577.00	575.00	574.00
917.50	917.00	916.00	915.00	914.00	913.50	913.00	912.50	911.50	911.00	910.00	909.00	908.50	907.00	906.50	905.50	905.00	904.00	902.50	901.00	900.00	898.50	897.50	895.50	894.50	893.50	892.00	890.50	889.00	887.00	884.50	883.50	881.00	880.00	877.50	875.00	873.00	871.50	870.00	866.50	865.00	862.00	861.00	858.00	856.50	853.50	852.00	850.50	848.00	847.00	843.00	841.00	839.00	837.00	835.00	831.00	829.00	825.00	823.00	819.50	817.00	812.50	810.00	807.50	804.00	801.00	796.00	794.00	790.00	788.00	783.50	781.00	779.00	776.00	774.00	772.50	771.00	768.50	767.00	766.00	765.00	764.50	764.00	763.00	763.00	763.00	763.00	763.00	764.00	764.00	764.00	764.50	765.00	765.50	766.00	766.00	767.00	767.00	768.00	768.00	768.50	769.00	769.00	769.00	769.00	770.00	770.00	770.00	769.50	769.00	769.00	769.00	769.00	768.00	768.00	768.00	767.50	767.00	766.50	766.00	765.00	764.00	763.50	762.50	761.50	760.50	759.50	758.00	756.50	755.00	754.00	752.50	751.00	748.50	747.50	746.00	744.00	742.00	740.50	739.00	736.50	735.50	733.00	732.00	729.00	728.00	725.50	724.00	722.50	720.00	718.50	717.00	715.00	713.50	712.50	709.50	708.50	707.00	705.00	704.00	701.00	699.00	697.50	696.00	694.50	692.50	691.00	689.00	688.00	686.50	685.50	682.50	681.50	680.50	679.00	677.50	676.00	675.00	673.50	672.50	671.00	669.50	668.50	667.00	665.50	664.50	663.50	661.50	660.00	658.00	657.00	655.50	654.00	652.50	651.50	650.50	648.50	647.50	646.00	645.00	643.50	642.50	640.50	639.50	638.50	636.00	635.00	633.00	632.00	630.50	629.50	628.50	627.50	626.50	625.00	624.00	622.50	621.50	619.50	618.50	617.50	616.00	614.50	613.00	612.00	610.50	609.50	608.00	606.50	605.50	604.00	602.50	601.50	600.50	599.00	598.50	597.00	596.00	594.50	593.00	591.50	591.00	590.50	589.00	587.50	586.00	585.00	584.50	583.50	581.50	580.50	579.50	578.00	577.00	575.00	574.00
917.50	917.00	916.00	915.00	914.00	913.50	913.00	912.50	911.50	911.00	910.00	909.00	908.50	907.00	906.50	905.50	905.00	904.00	902.50	901.00	900.00	898.50	897.50	895.50	894.50	893.50	892.00	890.50	889.00	887.00	884.50	883.50	881.00	880.00	877.50	875.00	873.00	871.50	870.00	866.50	865.00	862.00	861.00	858.00	856.50	853.50	852.00	850.50	848.00	847.00	843.00	841.00	839.00	837.00	835.00	831.00	829.00	825.00	823.00	819.50	817.00	812.50	810.00	807.50	804.00	801.00	796.00	794.00	790.00	788.00	783.50	781.00	779.00	776.00	774.00	772.50	771.00	768.50	767.00	766.00	765.00	764.50	764.00	763.00	763.00	763.00	763.00	763.00	764.00	764.00	764.00	764.50	765.00	765.50	766.00	766.00	767.00	767.00	768.00	768.00	768.50	769.00	769.00	769.00	769.00	770.00	770.00	770.00	769.50	769.00	769.00	769.00	769.00	768.00	768.00	768.00	767.50	767.00	766.50	766.00	765.00	764.00	763.50	762.50	761.50	760.50	759.50	758.00	756.50	755.00	754.00	752.50	751.00	748.50	747.50	746.00	744.00	742.00	740.50	739.00	736.50	735.50	733.00	732.00	729.00	728.00	725.50	724.00	722.50	720.00	718.50	717.00	715.00	713.50	712.50	709.50	708.50	707.00	705.00	704.00	701.00	699.00	697.50	696.00	694.50	692.50	691.00	689.00	688.00	686.50	685.50	682.50	681.50	680.50	679.00	677.50	676.00	675.00	673.50	672.50	671.00	669.50	668.50	667.00	665.50	664.50	663.50	661.50	660.00	658.00	657.00	655.50	654.00	652.50	651.50	650.50	648.50	647.50	646.00	645.00	643.50	642.50	640.50	639.50	638.50	636.00	635.00	633.00	632.00	630.50	629.50	628.50	627.50	626.50	625.00	624.00	622.50	621.50	619.50	618.50	617.50	616.00	614.50	613.00	612.00	610.50	609.50	608.00	606.50	605.50	604.00	602.50	601.50	600.50	599.00	598.50	597.00	596.00	594.50	593.00	591.50	591.00	590.50	589.00	587.50	586.00	585.00	584.50	583.50	581.50	580.50	579.50	578.00	577.00	575.00	574.00
917.50	917.00	916.00	915.00	914.00	913.50	913.00	912.50	911.50	911.00	910.00	909.00	908.50	907.00	906.50	905.50	905.00	904.00	902.50	901.00	900.00	898.50	897.50	895.50	894.50	893.50	892.00	890.50	889.00	887.00	884.50	883.50	881.00	880.00	877.50	875.00	873.00	871.50	870.00	866.50	865.00	862.00	861.00	858.00	856.50	853.50	852.00	850.50	848.00	847.00	843.00	841.00	839.00	837.00	835.00	831.00	829.00	825.00	823.00	819.50	817.00	812.50	810.00	807.50	804.00	801.00	796.00	794.00	790.00	788.00	783.50	781.00	779.00	776.00	774.00	772.50	771.00	768.50	767.00	766.00	765.00	764.50	764.00	763.00	763.00	763.00	763.00	763.00	764.00	764.00	764.00	764.50	765.00	765.50	766.00	766.00	767.00	767.00	768.00	768.00	768.50	769.00	769.00	769.00	769.00	770.00	770.00	770.00	769.50	769.00	769.00	769.00	769.00	768.00	768.00	768.00	767.50	767.00	766.50	766.00	765.00	764.00	763.50	762.50	761.50	760.50	759.50	758.00	756.50	755.00	754.00	752.50	751.00	748.50	747.50	746.00	744.00	742.00	740.50	739.00	736.50	735.50	733.00	732.00	729.00	728.00	725.50	724.00	722.50	720.00	718.50	717.00	715.00	713.50	712.50	709.50	708.50	707.00	705.00	704.00	701.00	699.00	697.50	696.00	694.50	692.50	691.00	689.00	688.00	686.50	685.50	682.50	681.50	680.50	679.00	677.50	676.00	675.00	673.50	672.50	671.00	669.50	668.50	667.00	665.50	664.50	663.50	661.50	660.00	658.00	657.00	655.50	654.00	652.50	651.50	650.50	648.50	647.50	646.00	645.00	643.50	642.50	640.50	639.50	638.50	636.00	635.00	633.00	632.00	630.50	629.50	628.50	627.50	626.50	625.00	624.00	622.50	621.50	619.50	618.50	617.50	616.00	614.50	613.00	612.00	610.50	609.50	608.00	606.50	605.50	604.00	602.50	601.50	600.50	599.00	598.50	597.00	596.00	594.50	593.00	591.50	591.00	590.50	589.00	587.50	586.00	585.00	584.50	583.50	581.50	580.50	579.50	578.00	577.00	575.00	574.00
919.00	918.50	917.50	916.50	916.00	915.00	914.50	914.00	913.00	912.50	911.50	911.00	910.00	908.50	908.00	907.00	906.25	905.00	903.50	902.00	901.00	899.50	898.50	896.50	895.50	894.50	893.00	891.50	890.25	888.00	885.75	884.50	882.00	881.00	878.75	876.00	874.00	872.50	871.00	867.75	866.00	863.00	862.00	859.00	857.50	854.25	852.75	851.25	849.00	847.50	844.00	842.00	839.50	837.50	835.50	831.50	829.25	825.50	823.50	819.75	817.25	812.50	810.00	807.50	804.00	801.00	796.00	793.50	790.00	787.75	783.25	781.00	779.00	776.00	773.75	772.25	770.50	768.50	767.25	765.50	765.00	764.75	764.00	763.50	763.25	763.25	763.75	764.00	765.00	765.00	765.50	766.00	766.75	767.25	767.50	768.00	768.50	768.50	769.00	769.50	769.75	770.00	770.00	770.00	770.00	770.50	770.50	770.50	769.75	769.50	769.25	769.00	769.00	768.00	767.50	767.50	767.00	766.50	765.75	765.25	764.50	763.50	762.50	761.75	760.50	759.50	758.50	757.00	755.50	754.00	753.00	751.50	750.00	747.50	746.50	745.25	743.00	741.00	739.50	737.50	735.50	734.25	732.00	730.50	727.50	726.50	724.00	722.75	721.25	718.75	717.25	715.50	714.00	712.00	711.00	708.25	707.00	705.75	704.00	703.00	700.00	698.50	696.50	695.25	694.00	691.50	690.25	688.50	687.00	685.50	684.50	682.00	681.00	680.00	678.50	677.00	675.50	674.50	672.50	671.50	670.00	668.50	667.50	666.00	664.50	663.50	662.50	660.50	659.50	658.00	657.00	655.50	654.00	652.50	651.50	650.75	649.00	648.00	646.50	645.50	644.00	643.00	641.00	640.00	639.00	637.00	636.00	634.00	633.00	631.50	630.50	629.50	628.00	627.00	625.50	624.50	623.25	622.50	620.50	619.50	618.75	617.50	616.00	614.50	613.50	612.00	611.00	609.50	608.00	607.00	605.50	604.00	603.00	602.00	600.25	599.50	598.00	597.00	595.50	594.00	592.25	591.25	590.50	589.00	587.50	586.00	585.00	584.00	583.00	580.75	579.50	578.50	577.00	576.00	574.00	572.50
920.50	920.00	919.00	918.00	918.00	916.50	916.00	915.50	914.50	914.00	913.00	913.00	911.50	910.00	909.50	908.50	907.50	906.00	904.50	903.00	902.00	900.50	899.50	897.50	896.50	895.50	894.00	892.50	891.50	889.00	887.00	885.50	883.00	882.00	880.00	877.00	875.00	873.50	872.00	869.00	867.00	864.00	863.00	860.00	858.50	855.00	853.50	852.00	850.00	848.00	845.00	843.00	840.00	838.00	836.00	832.00	829.50	826.00	824.00	820.00	817.50	812.50	810.00	807.50	804.00	801.00	796.00	793.00	790.00	787.50	783.00	781.00	779.00	776.00	773.50	772.00	770.00	768.50	767.50	765.00	765.00	765.00	764.00	764.00	763.50	763.50	764.50	765.00	766.00	766.00	767.00	767.50	768.50	769.00	769.00	770.00	770.00	770.00	770.00	771.00	771.00	771.00	771.00	771.00	771.00	771.00	771.00	771.00	770.00	770.00	769.50	769.00	769.00	768.00	767.00	767.00	766.50	766.00	765.00	764.50	764.00	763.00	761.50	761.00	759.50	758.50	757.50	756.00	754.50	753.00	752.00	750.50	749.00	746.50	745.50	744.50	742.00	740.00	738.50	736.00	734.50	733.00	731.00	729.00	726.00	725.00	722.50	721.50	720.00	717.50	716.00	714.00	713.00	710.50	709.50	707.00	705.50	704.50	703.00	702.00	699.00	698.00	695.50	694.50	693.50	690.50	689.50	688.00	686.00	684.50	683.50	681.50	680.50	679.50	678.00	676.50	675.00	674.00	671.50	670.50	669.00	667.50	666.50	665.00	663.50	662.50	661.50	659.50	659.00	658.00	657.00	655.50	654.00	652.50	651.50	651.00	649.50	648.50	647.00	646.00	644.50	643.50	641.50	640.50	639.50	638.00	637.00	635.00	634.00	632.50	631.50	630.50	628.50	627.50	626.00	625.00	624.00	623.50	621.50	620.50	620.00	619.00	617.50	616.00	615.00	613.50	612.50	611.00	609.50	608.50	607.00	605.50	604.50	603.50	601.50	600.50	599.00	598.00	596.50	595.00	593.00	591.50	590.50	589.00	587.50	586.00	585.00	583.50	582.50	580.00	578.50	577.50	576.00	575.00	573.00	571.00
920.50	920.00	919.00	918.00	918.00	916.50	916.00	915.50	914.50	914.00	913.00	913.00	911.50	910.00	909.50	908.50	907.50	906.00	904.50	903.00	902.00	900.50	899.50	897.50	896.50	895.50	894.00	892.50	891.50	889.00	887.00	885.50	883.00	882.00	880.00	877.00	875.00	873.50	872.00	869.00	867.00	864.00	863.00	860.00	858.50	855.00	853.50	852.00	850.00	848.00	845.00	843.00	840.00	838.00	836.00	832.00	829.50	826.00	824.00	820.00	817.50	812.50	810.00	807.50	804.00	801.00	796.00	793.00	790.00	787.50	783.00	781.00	779.00	776.00	773.50	772.00	770.00	768.50	767.50	765.00	765.00	765.00	764.00	764.00	763.50	763.50	764.50	765.00	766.00	766.00	767.00	767.50	768.50	769.00	769.00	770.00	770.00	770.00	770.00	771.00	771.00	771.00	771.00	771.00	771.00	771.00	771.00	771.00	770.00	770.00	769.50	769.00	769.00	768.00	767.00	767.00	766.50	766.00	765.00	764.50	764.00	763.00	761.50	761.00	759.50	758.50	757.50	756.00	754.50	753.00	752.00	750.50	749.00	746.50	745.50	744.50	742.00	740.00	738.50	736.00	734.50	733.00	731.00	729.00	726.00	725.00	722.50	721.50	720.00	717.50	716.00	714.00	713.00	710.50	709.50	707.00	705.50	704.50	703.00	702.00	699.00	698.00	695.50	694.50	693.50	690.50	689.50	688.00	686.00	684.50	683.50	681.50	680.50	679.50	678.00	676.50	675.00	674.00	671.50	670.50	669.00	667.50	666.50	665.00	663.50	662.50	661.50	659.50	659.00	658.00	657.00	655.50	654.00	652.50	651.50	651.00	649.50	648.50	647.00	646.00	644.50	643.50	641.50	640.50	639.50	638.00	637.00	635.00	634.00	632.50	631.50	630.50	628.50	627.50	626.00	625.00	624.00	623.50	621.50	620.50	620.00	619.00	617.50	616.00	615.00	613.50	612.50	611.00	609.50	608.50	607.00	605.50	604.50	603.50	601.50	600.50	599.00	598.00	596.50	595.00	593.00	591.50	590.50	589.00	587.50	586.00	585.00	583.50	582.50	580.00	578.50	577.50	576.00	575.00	573.00	571.00
922.50	922.00	921.00	920.00	920.00	919.00	918.50	918.00	916.50	916.00	915.00	915.00	913.50	912.00	911.50	910.50	909.50	908.00	907.50	906.00	904.00	902.50	901.50	899.50	898.50	897.50	896.00	893.50	892.50	891.00	888.50	887.50	885.00	884.00	882.50	880.00	877.50	876.00	874.50	871.50	870.00	867.00	865.00	863.00	861.00	857.00	855.50	854.00	852.00	850.00	847.00	845.00	842.00	840.00	838.00	833.00	831.00	828.00	825.00	821.50	819.00	814.00	811.50	809.00	805.00	803.00	798.00	795.00	791.50	789.00	785.00	783.00	781.00	778.00	775.00	773.50	772.00	770.50	769.50	768.00	766.00	766.00	766.00	766.00	765.50	765.00	766.00	766.50	767.00	768.00	768.50	769.50	770.00	770.50	771.00	771.00	771.00	772.00	772.00	772.00	772.00	772.00	772.00	772.00	771.00	771.00	770.50	770.00	769.50	769.00	768.50	768.00	767.00	766.00	766.00	765.50	764.50	764.00	763.00	762.50	762.00	761.00	759.50	758.50	756.50	756.00	755.50	754.00	752.00	750.00	749.00	747.50	746.50	744.00	742.50	741.50	739.00	737.00	735.50	734.00	731.50	730.00	728.00	727.00	724.00	722.00	720.00	718.50	717.50	714.50	713.50	712.00	711.00	708.50	707.50	705.50	704.00	702.50	701.00	699.00	697.00	696.00	694.50	693.00	691.50	689.50	688.50	686.00	685.00	683.50	682.00	679.50	678.50	677.50	676.00	674.50	673.00	672.00	670.50	669.50	668.00	666.50	665.50	664.00	662.50	662.00	661.50	659.50	659.00	658.00	657.00	655.50	654.00	653.50	652.50	651.50	649.50	648.50	647.00	646.00	644.00	642.50	640.50	639.50	638.50	637.00	636.00	634.00	633.00	631.50	630.50	629.50	627.50	626.50	625.00	624.00	623.00	622.50	620.50	620.00	619.50	618.00	617.00	616.00	615.00	614.00	613.50	612.00	610.50	609.50	608.00	606.50	605.50	604.50	602.50	601.50	599.00	598.00	596.00	594.00	592.50	591.50	590.50	588.00	586.50	585.00	584.00	582.50	581.00	578.50	577.50	576.50	575.00	574.00	571.00	570.00
922.50	922.00	921.00	920.00	920.00	919.00	918.50	918.00	916.50	916.00	915.00	915.00	913.50	912.00	911.50	910.50	909.50	908.00	907.50	906.00	904.00	902.50	901.50	899.50	898.50	897.50	896.00	893.50	892.50	891.00	888.50	887.50	885.00	884.00	882.50	880.00	877.50	876.00	874.50	871.50	870.00	867.00	865.00	863.00	861.00	857.00	855.50	854.00	852.00	850.00	847.00	845.00	842.00	840.00	838.00	833.00	831.00	828.00	825.00	821.50	819.00	814.00	811.50	809.00	805.00	803.00	798.00	795.00	791.50	789.00	785.00	783.00	781.00	778.00	775.00	773.50	772.00	770.50	769.50	768.00	766.00	766.00	766.00	766.00	765.50	765.00	766.00	766.50	767.00	768.00	768.50	769.50	770.00	770.50	771.00	771.00	771.00	772.00	772.00	772.00	772.00	772.00	772.00	772.00	771.00	771.00	770.50	770.00	769.50	769.00	768.50	768.00	767.00	766.00	766.00	765.50	764.50	764.00	763.00	762.50	762.00	761.00	759.50	758.50	756.50	756.00	755.50	754.00	752.00	750.00	749.00	747.50	746.50	744.00	742.50	741.50	739.00	737.00	735.50	734.00	731.50	730.00	728.00	727.00	724.00	722.00	720.00	718.50	717.50	714.50	713.50	712.00	711.00	708.50	707.50	705.50	704.00	702.50	701.00	699.00	697.00	696.00	694.50	693.00	691.50	689.50	688.50	686.00	685.00	683.50	682.00	679.50	678.50	677.50	676.00	674.50	673.00	672.00	670.50	669.50	668.00	666.50	665.50	664.00	662.50	662.00	661.50	659.50	659.00	658.00	657.00	655.50	654.00	653.50	652.50	651.50	649.50	648.50	647.00	646.00	644.00	642.50	640.50	639.50	638.50	637.00	636.00	634.00	633.00	631.50	630.50	629.50	627.50	626.50	625.00	624.00	623.00	622.50	620.50	620.00	619.50	618.00	617.00	616.00	615.00	614.00	613.50	612.00	610.50	609.50	608.00	606.50	605.50	604.50	602.50	601.50	599.00	598.00	596.00	594.00	592.50	591.50	590.50	588.00	586.50	585.00	584.00	582.50	581.00	578.50	577.50	576.50	575.00	574.00	571.00	570.00
922.50	922.00	921.00	920.00	920.00	919.00	918.50	918.00	916.50	916.00	915.00	915.00	913.50	912.00	911.50	910.50	909.50	908.00	907.50	906.00	904.00	902.50	901.50	899.50	898.50	897.50	896.00	893.50	892.50	891.00	888.50	887.50	885.00	884.00	882.50	880.00	877.50	876.00	874.50	871.50	870.00	867.00	865.00	863.00	861.00	857.00	855.50	854.00	852.00	850.00	847.00	845.00	842.00	840.00	838.00	833.00	831.00	828.00	825.00	821.50	819.00	814.00	811.50	809.00	805.00	803.00	798.00	795.00	791.50	789.00	785.00	783.00	781.00	778.00	775.00	773.50	772.00	770.50	769.50	768.00	766.00	766.00	766.00	766.00	765.50	765.00	766.00	766.50	767.00	768.00	768.50	769.50	770.00	770.50	771.00	771.00	771.00	772.00	772.00	772.00	772.00	772.00	772.00	772.00	771.00	771.00	770.50	770.00	769.50	769.00	768.50	768.00	767.00	766.00	766.00	765.50	764.50	764.00	763.00	762.50	762.00	761.00	759.50	758.50	756.50	756.00	755.50	754.00	752.00	750.00	749.00	747.50	746.50	744.00	742.50	741.50	739.00	737.00	735.50	734.00	731.50	730.00	728.00	727.00	724.00	722.00	720.00	718.50	717.50	714.50	713.50	712.00	711.00	708.50	707.50	705.50	704.00	702.50	701.00	699.00	697.00	696.00	694.50	693.00	691.50	689.50	688.50	686.00	685.00	683.50	682.00	679.50	678.50	677.50	676.00	674.50	673.00	672.00	670.50	669.50	668.00	666.50	665.50	664.00	662.50	662.00	661.50	659.50	659.00	658.00	657.00	655.50	654.00	653.50	652.50	651.50	649.50	648.50	647.00	646.00	644.00	642.50	640.50	639.50	638.50	637.00	636.00	634.00	633.00	631.50	630.50	629.50	627.50	626.50	625.00	624.00	623.00	622.50	620.50	620.00	619.50	618.00	617.00	616.00	615.00	614.00	613.50	612.00	610.50	609.50	608.00	606.50	605.50	604.50	602.50	601.50	599.00	598.00	596.00	594.00	592.50	591.50	590.50	588.00	586.50	585.00	584.00	582.50	581.00	578.50	577.50	576.50	575.00	574.00	571.00	570.00
922.50	922.00	921.00	920.00	920.00	919.00	918.50	918.00	916.50	916.00	915.00	915.00	913.50	912.00	911.50	910.50	909.50	908.00	907.50	906.00	904.00	902.50	901.50	899.50	898.50	897.50	896.00	893.50	892.50	891.00	888.50	887.50	885.00	884.00	882.50	880.00	877.50	876.00	874.50	871.50	870.00	867.00	865.00	863.00	861.00	857.00	855.50	854.00	852.00	850.00	847.00	845.00	842.00	840.00	838.00	833.00	831.00	828.00	825.00	821.50	819.00	814.00	811.50	809.00	805.00	803.00	798.00	795.00	791.50	789.00	785.00	783.00	781.00	778.00	775.00	773.50	772.00	770.50	769.50	768.00	766.00	766.00	766.00	766.00	765.50	765.00	766.00	766.50	767.00	768.00	768.50	769.50	770.00	770.50	771.00	771.00	771.00	772.00	772.00	772.00	772.00	772.00	772.00	772.00	771.00	771.00	770.50	770.00	769.50	769.00	768.50	768.00	767.00	766.00	766.00	765.50	764.50	764.00	763.00	762.50	762.00	761.00	759.50	758.50	756.50	756.00	755.50	754.00	752.00	750.00	749.00	747.50	746.50	744.00	742.50	741.50	739.00	737.00	735.50	734.00	731.50	730.00	728.00	727.00	724.00	722.00	720.00	718.50	717.50	714.50	713.50	712.00	711.00	708.50	707.50	705.50	704.00	702.50	701.00	699.00	697.00	696.00	694.50	693.00	691.50	689.50	688.50	686.00	685.00	683.50	682.00	679.50	678.50	677.50	676.00	674.50	673.00	672.00	670.50	669.50	668.00	666.50	665.50	664.00	662.50	662.00	661.50	659.50	659.00	658.00	657.00	655.50	654.00	653.50	652.50	651.50	649.50	648.50	647.00	646.00	644.00	642.50	640.50	639.50	638.50	637.00	636.00	634.00	633.00	631.50	630.50	629.50	627.50	626.50	625.00	624.00	623.00	622.50	620.50	620.00	619.50	618.00	617.00	616.00	615.00	614.00	613.50	612.00	610.50	609.50	608.00	606.50	605.50	604.50	602.50	601.50	599.00	598.00	596.00	594.00	592.50	591.50	590.50	588.00	586.50	585.00	584.00	582.50	581.00	578.50	577.50	576.50	575.00	574.00	571.00	570.00
922.50	922.00	921.00	920.00	920.00	919.00	918.50	918.00	916.50	916.00	915.00	915.00	913.50	912.00	911.50	910.50	909.50	908.00	907.50	906.00	904.00	902.50	901.50	899.50	898.50	897.50	896.00	893.50	892.50	891.00	888.50	887.50	885.00	884.00	882.50	880.00	877.50	876.00	874.50	871.50	870.00	867.00	865.00	863.00	861.00	857.00	855.50	854.00	852.00	850.00	847.00	845.00	842.00	840.00	838.00	833.00	831.00	828.00	825.00	821.50	819.00	814.00	811.50	809.00	805.00	803.00	798.00	795.00	791.50	789.00	785.00	783.00	781.00	778.00	775.00	773.50	772.00	770.50	769.50	768.00	766.00	766.00	766.00	766.00	765.50	765.00	766.00	766.50	767.00	768.00	768.50	769.50	770.00	770.50	771.00	771.00	771.00	772.00	772.00	772.00	772.00	772.00	772.00	772.00	771.00	771.00	770.50	770.00	769.50	769.00	768.50	768.00	767.00	766.00	766.00	765.50	764.50	764.00	763.00	762.50	762.00	761.00	759.50	758.50	756.50	756.00	755.50	754.00	752.00	750.00	749.00	747.50	746.50	744.00	742.50	741.50	739.00	737.00	735.50	734.00	731.50	730.00	728.00	727.00	724.00	722.00	720.00	718.50	717.50	714.50	713.50	712.00	711.00	708.50	707.50	705.50	704.00	702.50	701.00	699.00	697.00	696.00	694.50	693.00	691.50	689.50	688.50	686.00	685.00	683.50	682.00	679.50	678.50	677.50	676.00	674.50	673.00	672.00	670.50	669.50	668.00	666.50	665.50	664.00	662.50	662.00	661.50	659.50	659.00	658.00	657.00	655.50	654.00	653.50	652.50	651.50	649.50	648.50	647.00	646.00	644.00	642.50	640.50	639.50	638.50	637.00	636.00	634.00	633.00	631.50	630.50	629.50	627.50	626.50	625.00	624.00	623.00	622.50	620.50	620.00	619.50	618.00	617.00	616.00	615.00	614.00	613.50	612.00	610.50	609.50	608.00	606.50	605.50	604.50	602.50	601.50	599.00	598.00	596.00	594.00	592.50	591.50	590.50	588.00	586.50	585.00	584.00	582.50	581.00	578.50	577.50	576.50	575.00	574.00	571.00	570.00
922.50	922.00	922.00	921.00	920.00	920.00	919.50	919.00	917.50	917.00	916.00	916.00	914.50	914.00	912.50	911.50	910.50	909.00	907.50	906.00	905.00	903.50	902.50	900.50	899.50	898.50	897.00	895.00	893.50	892.00	890.50	889.00	887.00	886.00	884.50	882.00	880.00	878.50	877.00	874.00	872.00	870.00	868.00	865.00	863.00	860.00	858.00	856.00	854.00	852.00	849.00	847.00	844.00	842.00	840.00	836.00	834.00	830.00	828.00	824.50	822.00	817.50	815.00	813.00	809.00	807.00	802.00	799.00	795.00	793.00	789.00	787.00	785.00	782.00	779.00	777.00	775.00	773.50	772.50	771.00	770.00	768.50	768.00	768.00	768.00	768.00	768.00	768.00	769.00	769.00	770.00	770.00	771.00	771.00	771.50	772.00	772.00	773.00	773.00	772.50	772.00	772.00	771.50	771.00	770.00	770.00	769.50	769.00	768.00	767.50	767.00	766.00	766.00	765.00	765.00	764.00	763.50	762.50	761.50	760.50	760.00	759.00	757.50	756.50	755.00	754.50	753.50	752.00	749.50	748.00	747.00	744.50	743.50	740.50	739.50	738.50	736.00	734.50	733.00	731.00	729.50	728.00	726.00	725.00	722.00	721.00	718.50	717.50	716.00	713.50	712.50	711.00	710.00	707.50	706.50	704.50	703.50	702.00	700.00	699.00	696.00	695.00	693.50	692.00	690.50	688.50	687.00	685.00	684.00	682.50	681.50	679.00	677.50	676.50	675.00	673.50	672.00	670.00	668.50	668.00	667.00	665.50	664.50	663.00	661.50	661.00	660.50	659.00	658.50	657.00	656.00	654.50	653.00	651.50	650.50	649.50	647.50	646.50	645.00	644.00	642.50	641.50	638.50	637.50	636.50	634.00	633.00	631.00	630.00	628.50	627.00	625.50	623.50	622.50	621.00	620.00	618.50	618.00	616.50	616.00	615.50	614.00	613.50	612.00	612.00	610.50	610.00	609.00	608.50	607.50	606.00	604.50	603.50	602.50	600.50	599.50	597.00	596.00	594.50	593.00	590.50	589.50	588.50	587.00	585.00	583.00	582.00	580.50	579.50	576.50	575.50	574.50	573.00	572.00	570.00	569.00
922.50	922.00	922.00	921.00	920.00	920.00	919.50	919.00	917.50	917.00	916.00	916.00	914.50	914.00	912.50	911.50	910.50	909.00	907.50	906.00	905.00	903.50	902.50	900.50	899.50	898.50	897.00	895.00	893.50	892.00	890.50	889.00	887.00	886.00	884.50	882.00	880.00	878.50	877.00	874.00	872.00	870.00	868.00	865.00	863.00	860.00	858.00	856.00	854.00	852.00	849.00	847.00	844.00	842.00	840.00	836.00	834.00	830.00	828.00	824.50	822.00	817.50	815.00	813.00	809.00	807.00	802.00	799.00	795.00	793.00	789.00	787.00	785.00	782.00	779.00	777.00	775.00	773.50	772.50	771.00	770.00	768.50	768.00	768.00	768.00	768.00	768.00	768.00	769.00	769.00	770.00	770.00	771.00	771.00	771.50	772.00	772.00	773.00	773.00	772.50	772.00	772.00	771.50	771.00	770.00	770.00	769.50	769.00	768.00	767.50	767.00	766.00	766.00	765.00	765.00	764.00	763.50	762.50	761.50	760.50	760.00	759.00	757.50	756.50	755.00	754.50	753.50	752.00	749.50	748.00	747.00	744.50	743.50	740.50	739.50	738.50	736.00	734.50	733.00	731.00	729.50	728.00	726.00	725.00	722.00	721.00	718.50	717.50	716.00	713.50	712.50	711.00	710.00	707.50	706.50	704.50	703.50	702.00	700.00	699.00	696.00	695.00	693.50	692.00	690.50	688.50	687.00	685.00	684.00	682.50	681.50	679.00	677.50	676.50	675.00	673.50	672.00	670.00	668.50	668.00	667.00	665.50	664.50	663.00	661.50	661.00	660.50	659.00	658.50	657.00	656.00	654.50	653.00	651.50	650.50	649.50	647.50	646.50	645.00	644.00	642.50	641.50	638.50	637.50	636.50	634.00	633.00	631.00	630.00	628.50	627.00	625.50	623.50	622.50	621.00	620.00	618.50	618.00	616.50	616.00	615.50	614.00	613.50	612.00	612.00	610.50	610.00	609.00	608.50	607.50	606.00	604.50	603.50	602.50	600.50	599.50	597.00	596.00	594.50	593.00	590.50	589.50	588.50	587.00	585.00	583.00	582.00	580.50	579.50	576.50	575.50	574.50	573.00	572.00	570.00	569.00
922.50	922.00	922.00	921.00	920.00	920.00	919.50	919.00	917.50	917.00	916.00	916.00	914.50	914.00	912.50	911.50	910.50	909.00	907.50	906.00	905.00	903.50	902.50	900.50	899.50	898.50	897.00	895.00	893.50	892.00	890.50	889.00	887.00	886.00	884.50	882.00	880.00	878.50	877.00	874.00	872.00	870.00	868.00	865.00	863.00	860.00	858.00	856.00	854.00	852.00	849.00	847.00	844.00	842.00	840.00	836.00	834.00	830.00	828.00	824.50	822.00	817.50	815.00	813.00	809.00	807.00	802.00	799.00	795.00	793.00	789.00	787.00	785.00	782.00	779.00	777.00	775.00	773.50	772.50	771.00	770.00	768.50	768.00	768.00	768.00	768.00	768.00	768.00	769.00	769.00	770.00	770.00	771.00	771.00	771.50	772.00	772.00	773.00	773.00	772.50	772.00	772.00	771.50	771.00	770.00	770.00	769.50	769.00	768.00	767.50	767.00	766.00	766.00	765.00	765.00	764.00	763.50	762.50	761.50	760.50	760.00	759.00	757.50	756.50	755.00	754.50	753.50	752.00	749.50	748.00	747.00	744.50	743.50	740.50	739.50	738.50	736.00	734.50	733.00	731.00	729.50	728.00	726.00	725.00	722.00	721.00	718.50	717.50	716.00	713.50	712.50	711.00	710.00	707.50	706.50	704.50	703.50	702.00	700.00	699.00	696.00	695.00	693.50	692.00	690.50	688.50	687.00	685.00	684.00	682.50	681.50	679.00	677.50	676.50	675.00	673.50	672.00	670.00	668.50	668.00	667.00	665.50	664.50	663.00	661.50	661.00	660.50	659.00	658.50	657.00	656.00	654.50	653.00	651.50	650.50	649.50	647.50	646.50	645.00	644.00	642.50	641.50	638.50	637.50	636.50	634.00	633.00	631.00	630.00	628.50	627.00	625.50	623.50	622.50	621.00	620.00	618.50	618.00	616.50	616.00	615.50	614.00	613.50	612.00	612.00	610.50	610.00	609.00	608.50	607.50	606.00	604.50	603.50	602.50	600.50	599.50	597.00	596.00	594.50	593.00	590.50	589.50	588.50	587.00	585.00	583.00	582.00	580.50	579.50	576.50	575.50	574.50	573.00	572.00	570.00	569.00
922.50	922.00	922.00	921.00	920.00	920.00	919.50	919.00	917.50	917.00	916.00	916.00	914.50	914.00	912.50	911.50	910.50	909.00	907.50	906.00	905.00	903.50	902.50	900.50	899.50	898.50	897.00	895.00	893.50	892.00	890.50	889.00	887.00	886.00	884.50	882.00	880.00	878.50	877.00	874.00	872.00	870.00	868.00	865.00	863.00	860.00	858.00	856.00	854.00	852.00	849.00	847.00	844.00	842.00	840.00	836.00	834.00	830.00	828.00	824.50	822.00	817.50	815.00	813.00	809.00	807.00	802.00	799.00	795.00	793.00	789.00	787.00	785.00	782.00	779.00	777.00	775.00	773.50	772.50	771.00	770.00	768.50	768.00	768.00	768.00	768.00	768.00	768.00	769.00	769.00	770.00	770.00	771.00	771.00	771.50	772.00	772.00	773.00	773.00	772.50	772.00	772.00	771.50	771.00	770.00	770.00	769.50	769.00	768.00	767.50	767.00	766.00	766.00	765.00	765.00	764.00	763.50	762.50	761.50	760.50	760.00	759.00	757.50	756.50	755.00	754.50	753.50	752.00	749.50	748.00	747.00	744.50	743.50	740.50	739.50	738.50	736.00	734.50	733.00	731.00	729.50	728.00	726.00	725.00	722.00	721.00	718.50	717.50	716.00	713.50	712.50	711.00	710.00	707.50	706.50	704.50	703.50	702.00	700.00	699.00	696.00	695.00	693.50	692.00	690.50	688.50	687.00	685.00	684.00	682.50	681.50	679.00	677.50	676.50	675.00	673.50	672.00	670.00	668.50	668.00	667.00	665.50	664.50	663.00	661.50	661.00	660.50	659.00	658.50	657.00	656.00	654.50	653.00	651.50	650.50	649.50	647.50	646.50	645.00	644.00	642.50	641.50	638.50	637.50	636.50	634.00	633.00	631.00	630.00	628.50	627.00	625.50	623.50	622.50	621.00	620.00	618.50	618.00	616.50	616.00	615.50	614.00	613.50	612.00	612.00	610.50	610.00	609.00	608.50	607.50	606.00	604.50	603.50	602.50	600.50	599.50	597.00	596.00	594.50	593.00	590.50	589.50	588.50	587.00	585.00	583.00	582.00	580.50	579.50	576.50	575.50	574.50	573.00	572.00	570.00	569.00
922.50	922.00	922.00	921.00	920.00	920.00	919.50	919.00	917.50	917.00	916.00	916.00	914.50	914.00	912.50	911.50	910.50	909.00	907.50	906.00	905.00	903.50	902.50	900.50	899.50	898.50	897.00	895.00	893.50	892.00	890.50	889.00	887.00	886.00	884.50	882.00	880.00	878.50	877.00	874.00	872.00	870.00	868.00	865.00	863.00	860.00	858.00	856.00	854.00	852.00	849.00	847.00	844.00	842.00	840.00	836.00	834.00	830.00	828.00	824.50	822.00	817.50	815.00	813.00	809.00	807.00	802.00	799.00	795.00	793.00	789.00	787.00	785.00	782.00	779.00	777.00	775.00	773.50	772.50	771.00	770.00	768.50	768.00	768.00	768.00	768.00	768.00	768.00	769.00	769.00	770.00	770.00	771.00	771.00	771.50	772.00	772.00	773.00	773.00	772.50	772.00	772.00	771.50	771.00	770.00	770.00	769.50	769.00	768.00	767.50	767.00	766.00	766.00	765.00	765.00	764.00	763.50	762.50	761.50	760.50	760.00	759.00	757.50	756.50	755.00	754.50	753.50	752.00	749.50	748.00	747.00	744.50	743.50	740.50	739.50	738.50	736.00	734.50	733.00	731.00	729.50	728.00	726.00	725.00	722.00	721.00	718.50	717.50	716.00	713.50	712.50	711.00	710.00	707.50	706.50	704.50	703.50	702.00	700.00	699.00	696.00	695.00	693.50	692.00	690.50	688.50	687.00	685.00	684.00	682.50	681.50	679.00	677.50	676.50	675.00	673.50	672.00	670.00	668.50	668.00	667.00	665.50	664.50	663.00	661.50	661.00	660.50	659.00	658.50	657.00	656.00	654.50	653.00	651.50	650.50	649.50	647.50	646.50	645.00	644.00	642.50	641.50	638.50	637.50	636.50	634.00	633.00	631.00	630.00	628.50	627.00	625.50	623.50	622.50	621.00	620.00	618.50	618.00	616.50	616.00	615.50	614.00	613.50	612.00	612.00	610.50	610.00	609.00	608.50	607.50	606.00	604.50	603.50	602.50	600.50	599.50	597.00	596.00	594.50	593.00	590.50	589.50	588.50	587.00	585.00	583.00	582.00	580.50	579.50	576.50	575.50	574.50	573.00	572.00	570.00	569.00
922.00	921.00	921.00	920.00	920.00	919.00	918.50	918.00	917.50	916.50	916.00	915.00	914.50	913.00	912.50	911.50	910.50	909.00	907.50	906.00	905.00	904.00	903.50	901.50	900.50	899.50	897.00	895.50	894.50	892.00	890.50	889.50	888.00	887.00	885.50	883.00	881.50	880.50	879.00	876.00	874.50	872.00	871.00	868.00	866.00	862.00	860.00	858.50	856.00	854.00	851.00	849.00	846.00	844.50	843.00	838.00	836.00	833.00	831.00	828.00	826.00	821.00	819.00	817.00	813.00	811.00	807.00	804.00	801.00	799.00	794.00	792.50	791.00	788.00	785.00	783.00	781.00	779.00	777.50	776.00	775.00	773.50	772.00	772.00	771.50	771.00	771.00	770.50	771.00	771.00	771.00	771.00	771.50	772.00	772.00	772.00	772.00	772.00	771.00	771.00	771.00	770.50	770.00	769.50	769.00	769.00	768.00	767.50	766.50	766.00	766.00	765.00	765.00	764.00	763.00	762.00	761.50	760.50	759.50	758.50	757.00	757.00	755.50	754.50	752.50	751.00	749.50	748.00	746.50	745.00	744.00	742.00	740.50	738.50	737.50	736.50	735.00	732.50	731.50	730.00	728.00	726.50	725.00	724.00	721.00	720.00	718.00	716.50	715.50	713.50	712.50	711.00	710.00	707.50	706.50	704.50	703.50	702.00	700.00	699.00	696.00	695.00	692.50	691.50	690.50	687.50	686.50	685.00	684.00	681.50	680.50	678.00	676.50	675.50	674.00	672.00	670.00	669.00	667.50	666.50	665.00	663.50	663.00	662.00	660.50	659.50	659.00	657.50	656.50	656.00	655.00	653.50	651.00	649.50	648.50	647.50	645.00	643.50	642.00	641.00	638.50	637.50	634.50	633.50	632.00	630.00	629.00	626.00	625.00	623.00	621.50	620.50	618.50	617.50	616.00	615.00	613.50	612.50	610.50	609.50	609.00	608.00	607.50	606.00	606.00	605.00	604.50	603.00	602.50	602.00	601.00	599.50	598.50	597.50	596.00	595.50	594.00	593.00	590.50	589.00	587.50	586.50	585.50	584.00	581.50	580.00	579.00	577.50	576.50	574.50	573.50	572.50	571.00	570.00	569.00	568.00
922.00	921.00	921.00	920.00	920.00	919.00	918.50	918.00	917.50	916.50	916.00	915.00	914.50	913.00	912.50	911.50	910.50	909.00	907.50	906.00	905.00	904.00	903.50	901.50	900.50	899.50	897.00	895.50	894.50	892.00	890.50	889.50	888.00	887.00	885.50	883.00	881.50	880.50	879.00	876.00	874.50	872.00	871.00	868.00	866.00	862.00	860.00	858.50	856.00	854.00	851.00	849.00	846.00	844.50	843.00	838.00	836.00	833.00	831.00	828.00	826.00	821.00	819.00	817.00	813.00	811.00	807.00	804.00	801.00	799.00	794.00	792.50	791.00	788.00	785.00	783.00	781.00	779.00	777.50	776.00	775.00	773.50	772.00	772.00	771.50	771.00	771.00	770.50	771.00	771.00	771.00	771.00	771.50	772.00	772.00	772.00	772.00	772.00	771.00	771.00	771.00	770.50	770.00	769.50	769.00	769.00	768.00	767.50	766.50	766.00	766.00	765.00	765.00	764.00	763.00	762.00	761.50	760.50	759.50	758.50	757.00	757.00	755.50	754.50	752.50	751.00	749.50	748.00	746.50	745.00	744.00	742.00	740.50	738.50	737.50	736.50	735.00	732.50	731.50	730.00	728.00	726.50	725.00	724.00	721.00	720.00	718.00	716.50	715.50	713.50	712.50	711.00	710.00	707.50	706.50	704.50	703.50	702.00	700.00	699.00	696.00	695.00	692.50	691.50	690.50	687.50	686.50	685.00	684.00	681.50	680.50	678.00	676.50	675.50	674.00	672.00	670.00	669.00	667.50	666.50	665.00	663.50	663.00	662.00	660.50	659.50	659.00	657.50	656.50	656.00	655.00	653.50	651.00	649.50	648.50	647.50	645.00	643.50	642.00	641.00	638.50	637.50	634.50	633.50	632.00	630.00	629.00	626.00	625.00	623.00	621.50	620.50	618.50	617.50	616.00	615.00	613.50	612.50	610.50	609.50	609.00	608.00	607.50	606.00	606.00	605.00	604.50	603.00	602.50	602.00	601.00	599.50	598.50	597.50	596.00	595.50	594.00	593.00	590.50	589.00	587.50	586.50	585.50	584.00	581.50	580.00	579.00	577.50	576.50	574.50	573.50	572.50	571.00	570.00	569.00	568.00
922.00	921.00	921.00	920.00	920.00	919.00	918.50	918.00	917.50	916.50	916.00	915.00	914.50	913.00	912.50	911.50	910.50	909.00	907.50	906.00	905.00	904.00	903.50	901.50	900.50	899.50	897.00	895.50	894.50	892.00	890.50	889.50	888.00	887.00	885.50	883.00	881.50	880.50	879.00	876.00	874.50	872.00	871.00	868.00	866.00	862.00	860.00	858.50	856.00	854.00	851.00	849.00	846.00	844.50	843.00	838.00	836.00	833.00	831.00	828.00	826.00	821.00	819.00	817.00	813.00	811.00	807.00	804.00	801.00	799.00	794.00	792.50	791.00	788.00	785.00	783.00	781.00	779.00	777.50	776.00	775.00	773.50	772.00	772.00	771.50	771.00	771.00	770.50	771.00	771.00	771.00	771.00	771.50	772.00	772.00	772.00	772.00	772.00	771.00	771.00	771.00	770.50	770.00	769.50	769.00	769.00	768.00	767.50	766.50	766.00	766.00	765.00	765.00	764.00	763.00	762.00	761.50	760.50	759.50	758.50	757.00	757.00	755.50	754.50	752.50	751.00	749.50	748.00	746.50	745.00	744.00	742.00	740.50	738.50	737.50	736.50	735.00	732.50	731.50	730.00	728.00	726.50	725.00	724.00	721.00	720.00	718.00	716.50	715.50	713.50	712.50	711.00	710.00	707.50	706.50	704.50	703.50	702.00	700.00	699.00	696.00	695.00	692.50	691.50	690.50	687.50	686.50	685.00	684.00	681.50	680.50	678.00	676.50	675.50	674.00	672.00	670.00	669.00	667.50	666.50	665.00	663.50	663.00	662.00	660.50	659.50	659.00	657.50	656.50	656.00	655.00	653.50	651.00	649.50	648.50	647.50	645.00	643.50	642.00	641.00	638.50	637.50	634.50	633.50	632.00	630.00	629.00	626.00	625.00	623.00	621.50	620.50	618.50	617.50	616.00	615.00	613.50	612.50	610.50	609.50	609.00	608.00	607.50	606.00	606.00	605.00	604.50	603.00	602.50	602.00	601.00	599.50	598.50	597.50	596.00	595.50	594.00	593.00	590.50	589.00	587.50	586.50	585.50	584.00	581.50	580.00	579.00	577.50	576.50	574.50	573.50	572.50	571.00	570.00	569.00	568.00
922.00	921.00	921.00	920.00	920.00	919.00	918.50	918.00	917.50	916.50	916.00	915.00	914.50	913.00	912.50	911.50	910.50	909.00	907.50	906.00	905.00	904.00	903.50	901.50	900.50	899.50	897.00	895.50	894.50	892.00	890.50	889.50	888.00	887.00	885.50	883.00	881.50	880.50	879.00	876.00	874.50	872.00	871.00	868.00	866.00	862.00	860.00	858.50	856.00	854.00	851.00	849.00	846.00	844.50	843.00	838.00	836.00	833.00	831.00	828.00	826.00	821.00	819.00	817.00	813.00	811.00	807.00	804.00	801.00	799.00	794.00	792.50	791.00	788.00	785.00	783.00	781.00	779.00	777.50	776.00	775.00	773.50	772.00	772.00	771.50	771.00	771.00	770.50	771.00	771.00	771.00	771.00	771.50	772.00	772.00	772.00	772.00	772.00	771.00	771.00	771.00	770.50	770.00	769.50	769.00	769.00	768.00	767.50	766.50	766.00	766.00	765.00	765.00	764.00	763.00	762.00	761.50	760.50	759.50	758.50	757.00	757.00	755.50	754.50	752.50	751.00	749.50	748.00	746.50	745.00	744.00	742.00	740.50	738.50	737.50	736.50	735.00	732.50	731.50	730.00	728.00	726.50	725.00	724.00	721.00	720.00	718.00	716.50	715.50	713.50	712.50	711.00	710.00	707.50	706.50	704.50	703.50	702.00	700.00	699.00	696.00	695.00	692.50	691.50	690.50	687.50	686.50	685.00	684.00	681.50	680.50	678.00	676.50	675.50	674.00	672.00	670.00	669.00	667.50	666.50	665.00	663.50	663.00	662.00	660.50	659.50	659.00	657.50	656.50	656.00	655.00	653.50	651.00	649.50	648.50	647.50	645.00	643.50	642.00	641.00	638.50	637.50	634.50	633.50	632.00	630.00	629.00	626.00	625.00	623.00	621.50	620.50	618.50	617.50	616.00	615.00	613.50	612.50	610.50	609.50	609.00	608.00	607.50	606.00	606.00	605.00	604.50	603.00	602.50	602.00	601.00	599.50	598.50	597.50	596.00	595.50	594.00	593.00	590.50	589.00	587.50	586.50	585.50	584.00	581.50	580.00	579.00	577.50	576.50	574.50	573.50	572.50	571.00	570.00	569.00	568.00
922.00	921.00	921.00	920.00	920.00	919.00	918.50	918.00	917.50	916.50	916.00	915.00	914.50	913.00	912.50	911.50	910.50	909.00	907.50	906.00	905.00	904.00	903.50	901.50	900.50	899.50	897.00	895.50	894.50	892.00	890.50	889.50	888.00	887.00	885.50	883.00	881.50	880.50	879.00	876.00	874.50	872.00	871.00	868.00	866.00	862.00	860.00	858.50	856.00	854.00	851.00	849.00	846.00	844.50	843.00	838.00	836.00	833.00	831.00	828.00	826.00	821.00	819.00	817.00	813.00	811.00	807.00	804.00	801.00	799.00	794.00	792.50	791.00	788.00	785.00	783.00	781.00	779.00	777.50	776.00	775.00	773.50	772.00	772.00	771.50	771.00	771.00	770.50	771.00	771.00	771.00	771.00	771.50	772.00	772.00	772.00	772.00	772.00	771.00	771.00	771.00	770.50	770.00	769.50	769.00	769.00	768.00	767.50	766.50	766.00	766.00	765.00	765.00	764.00	763.00	762.00	761.50	760.50	759.50	758.50	757.00	757.00	755.50	754.50	752.50	751.00	749.50	748.00	746.50	745.00	744.00	742.00	740.50	738.50	737.50	736.50	735.00	732.50	731.50	730.00	728.00	726.50	725.00	724.00	721.00	720.00	718.00	716.50	715.50	713.50	712.50	711.00	710.00	707.50	706.50	704.50	703.50	702.00	700.00	699.00	696.00	695.00	692.50	691.50	690.50	687.50	686.50	685.00	684.00	681.50	680.50	678.00	676.50	675.50	674.00	672.00	670.00	669.00	667.50	666.50	665.00	663.50	663.00	662.00	660.50	659.50	659.00	657.50	656.50	656.00	655.00	653.50	651.00	649.50	648.50	647.50	645.00	643.50	642.00	641.00	638.50	637.50	634.50	633.50	632.00	630.00	629.00	626.00	625.00	623.00	621.50	620.50	618.50	617.50	616.00	615.00	613.50	612.50	610.50	609.50	609.00	608.00	607.50	606.00	606.00	605.00	604.50	603.00	602.50	602.00	601.00	599.50	598.50	597.50	596.00	595.50	594.00	593.00	590.50	589.00	587.50	586.50	585.50	584.00	581.50	580.00	579.00	577.50	576.50	574.50	573.50	572.50	571.00	570.00	569.00	568.00
