742.50	742.00	741.50	739.50	738.50	737.00	735.00	733.00	731.00	727.00	725.00	723.00	719.00	717.00	712.00	709.00	704.00	700.50	697.00	689.50	686.50	682.00	681.00	679.50	678.00	675.00	673.50	672.00	669.00	666.50	666.00	665.00	663.50	662.50	660.00	657.50	656.50	656.00	656.00	656.00	656.00	656.00	656.00	656.00	656.00	656.00	656.00	656.00	657.00	657.00	656.50	655.50	654.50	653.00	651.50	650.50	649.00	648.50	648.00	647.00	647.00	647.00	647.00	647.00	647.00	647.00	647.00	647.00	647.00	647.00	646.00	646.00	646.00	646.00	646.00	646.00	646.00	645.00	645.00	645.50	646.50	647.00	648.00	648.50	649.00	650.00	650.00	650.00	650.00	650.00	650.50	651.00	651.00	651.00	651.00	652.00	652.50	654.50	656.00	657.50	659.00	661.50	662.50	664.00	667.00	668.50	671.00	673.00	674.50	676.00	678.00	679.00	679.50	681.50	682.50	683.00	684.00	684.50	685.50	686.50	687.00	687.50	688.00	689.00	690.00	690.00	691.50	692.50	693.00	694.50	695.00	696.00	697.00	698.50	699.50	701.00	701.00	701.50	702.00	704.50	709.00	713.00	718.00	723.00	735.50	742.00	748.00	757.00	764.50	769.50	775.00	779.50	783.00	788.00	790.00	794.50	799.00	801.50	803.00	805.00	808.50	809.50	811.00	812.00	812.00	812.00	812.00	811.50	810.50	810.00	809.00	807.00	807.00	806.00	805.50	804.00	799.00	796.50	790.00	785.00	776.00	770.50	766.00	765.50	764.50	763.00	759.00	751.00	747.00	743.00	741.00	739.00	734.50	731.50	727.00	721.50	719.00	717.00	713.00	711.50	710.00	710.00	708.50	708.00	708.00	708.00	707.50	706.50	705.50	704.00	703.00	699.50	697.00	693.00	690.50	688.00	685.00	683.00	678.00	675.00	671.50	671.00	671.00	670.00	669.50	668.00	667.00	666.00	665.50	663.50	663.00	663.00	663.00	663.00	663.00	663.00	661.50	660.50	659.00	655.00	653.00	651.00	648.00	645.50	644.00	642.00	642.00	642.00	642.00	643.50	645.00	647.00	650.00	652.50	656.00	659.00
742.50	742.00	741.50	739.50	738.50	737.00	735.00	733.00	731.00	727.00	725.00	723.00	719.00	717.00	712.00	709.00	704.00	700.50	697.00	689.50	686.50	682.00	681.00	679.50	678.00	675.00	673.50	672.00	669.00	666.50	666.00	665.00	663.50	662.50	660.00	657.50	656.50	656.00	656.00	656.00	656.00	656.00	656.00	656.00	656.00	656.00	656.00	656.00	657.00	657.00	656.50	655.50	654.50	653.00	651.50	650.50	649.00	648.50	648.00	647.00	647.00	647.00	647.00	647.00	647.00	647.00	647.00	647.00	647.00	647.00	646.00	646.00	646.00	646.00	646.00	646.00	646.00	645.00	645.00	645.50	646.50	647.00	648.00	648.50	649.00	650.00	650.00	650.00	650.00	650.00	650.50	651.00	651.00	651.00	651.00	652.00	652.50	654.50	656.00	657.50	659.00	661.50	662.50	664.00	667.00	668.50	671.00	673.00	674.50	676.00	678.00	679.00	679.50	681.50	682.50	683.00	684.00	684.50	685.50	686.50	687.00	687.50	688.00	689.00	690.00	690.00	691.50	692.50	693.00	694.50	695.00	696.00	697.00	698.50	699.50	701.00	701.00	701.50	702.00	704.50	709.00	713.00	718.00	723.00	735.50	742.00	748.00	757.00	764.50	769.50	775.00	779.50	783.00	788.00	790.00	794.50	799.00	801.50	803.00	805.00	808.50	809.50	811.00	812.00	812.00	812.00	812.00	811.50	810.50	810.00	809.00	807.00	807.00	806.00	805.50	804.00	799.00	796.50	790.00	785.00	776.00	770.50	766.00	765.50	764.50	763.00	759.00	751.00	747.00	743.00	741.00	739.00	734.50	731.50	727.00	721.50	719.00	717.00	713.00	711.50	710.00	710.00	708.50	708.00	708.00	708.00	707.50	706.50	705.50	704.00	703.00	699.50	697.00	693.00	690.50	688.00	685.00	683.00	678.00	675.00	671.50	671.00	671.00	670.00	669.50	668.00	667.00	666.00	665.50	663.50	663.00	663.00	663.00	663.00	663.00	663.00	661.50	660.50	659.00	655.00	653.00	651.00	648.00	645.50	644.00	642.00	642.00	642.00	642.00	643.50	645.00	647.00	650.00	652.50	656.00	659.00
758.50	759.00	759.00	756.50	755.00	753.00	752.00	749.00	747.00	742.50	739.00	735.50	731.00	727.00	721.00	717.00	712.00	708.50	705.00	697.50	694.50	690.00	688.00	686.50	686.00	686.50	687.00	687.00	685.00	682.50	680.00	679.00	675.00	673.00	670.50	668.50	667.50	667.00	666.00	665.00	664.00	663.00	662.50	662.00	662.00	662.00	662.00	663.00	663.00	663.00	663.00	662.50	662.00	661.00	659.00	657.50	655.00	653.50	652.50	651.00	651.00	649.00	648.00	648.00	648.00	647.50	647.00	647.00	646.00	645.00	644.00	644.00	643.00	643.00	643.50	644.00	645.00	646.00	646.00	646.50	647.00	647.50	649.50	650.50	652.00	653.00	653.50	654.00	654.50	655.00	655.00	655.00	656.00	657.00	657.00	657.50	658.00	658.50	659.50	660.50	661.00	662.50	663.50	666.00	668.00	669.50	672.00	673.00	675.00	677.00	678.50	679.50	680.50	682.00	682.50	683.00	684.00	684.50	685.50	686.50	687.50	688.00	689.00	689.00	691.00	692.00	693.50	694.50	695.50	698.00	699.50	701.00	702.00	704.00	705.50	707.00	707.50	708.00	710.00	713.50	717.00	720.00	725.00	729.00	738.50	743.50	749.00	758.00	765.50	769.50	774.00	779.00	782.00	785.00	786.00	790.00	792.00	794.00	795.50	796.50	798.50	799.00	800.00	801.00	801.50	802.00	802.50	802.00	801.50	800.00	799.00	796.00	795.00	794.00	793.50	792.50	790.00	787.00	780.00	774.00	767.00	764.50	763.50	762.50	761.50	758.00	756.00	750.00	748.00	743.50	740.50	738.00	734.00	732.00	728.00	725.50	724.00	722.00	719.50	719.00	719.00	719.00	719.00	719.00	719.00	719.00	719.00	719.00	718.50	717.00	715.00	712.00	710.00	705.00	702.50	700.00	697.00	694.00	690.00	688.00	685.50	684.00	682.50	681.00	680.50	680.00	679.00	678.00	677.50	676.50	675.50	674.50	673.00	672.00	671.00	670.00	669.50	668.00	666.00	662.00	659.50	655.00	652.00	648.50	645.50	641.00	639.00	637.00	635.00	634.00	634.00	635.00	638.00	640.00	644.00	646.50
758.50	759.00	759.00	756.50	755.00	753.00	752.00	749.00	747.00	742.50	739.00	735.50	731.00	727.00	721.00	717.00	712.00	708.50	705.00	697.50	694.50	690.00	688.00	686.50	686.00	686.50	687.00	687.00	685.00	682.50	680.00	679.00	675.00	673.00	670.50	668.50	667.50	667.00	666.00	665.00	664.00	663.00	662.50	662.00	662.00	662.00	662.00	663.00	663.00	663.00	663.00	662.50	662.00	661.00	659.00	657.50	655.00	653.50	652.50	651.00	651.00	649.00	648.00	648.00	648.00	647.50	647.00	647.00	646.00	645.00	644.00	644.00	643.00	643.00	643.50	644.00	645.00	646.00	646.00	646.50	647.00	647.50	649.50	650.50	652.00	653.00	653.50	654.00	654.50	655.00	655.00	655.00	656.00	657.00	657.00	657.50	658.00	658.50	659.50	660.50	661.00	662.50	663.50	666.00	668.00	669.50	672.00	673.00	675.00	677.00	678.50	679.50	680.50	682.00	682.50	683.00	684.00	684.50	685.50	686.50	687.50	688.00	689.00	689.00	691.00	692.00	693.50	694.50	695.50	698.00	699.50	701.00	702.00	704.00	705.50	707.00	707.50	708.00	710.00	713.50	717.00	720.00	725.00	729.00	738.50	743.50	749.00	758.00	765.50	769.50	774.00	779.00	782.00	785.00	786.00	790.00	792.00	794.00	795.50	796.50	798.50	799.00	800.00	801.00	801.50	802.00	802.50	802.00	801.50	800.00	799.00	796.00	795.00	794.00	793.50	792.50	790.00	787.00	780.00	774.00	767.00	764.50	763.50	762.50	761.50	758.00	756.00	750.00	748.00	743.50	740.50	738.00	734.00	732.00	728.00	725.50	724.00	722.00	719.50	719.00	719.00	719.00	719.00	719.00	719.00	719.00	719.00	719.00	718.50	717.00	715.00	712.00	710.00	705.00	702.50	700.00	697.00	694.00	690.00	688.00	685.50	684.00	682.50	681.00	680.50	680.00	679.00	678.00	677.50	676.50	675.50	674.50	673.00	672.00	671.00	670.00	669.50	668.00	666.00	662.00	659.50	655.00	652.00	648.50	645.50	641.00	639.00	637.00	635.00	634.00	634.00	635.00	638.00	640.00	644.00	646.50
758.50	759.00	759.00	756.50	755.00	753.00	752.00	749.00	747.00	742.50	739.00	735.50	731.00	727.00	721.00	717.00	712.00	708.50	705.00	697.50	694.50	690.00	688.00	686.50	686.00	686.50	687.00	687.00	685.00	682.50	680.00	679.00	675.00	673.00	670.50	668.50	667.50	667.00	666.00	665.00	664.00	663.00	662.50	662.00	662.00	662.00	662.00	663.00	663.00	663.00	663.00	662.50	662.00	661.00	659.00	657.50	655.00	653.50	652.50	651.00	651.00	649.00	648.00	648.00	648.00	647.50	647.00	647.00	646.00	645.00	644.00	644.00	643.00	643.00	643.50	644.00	645.00	646.00	646.00	646.50	647.00	647.50	649.50	650.50	652.00	653.00	653.50	654.00	654.50	655.00	655.00	655.00	656.00	657.00	657.00	657.50	658.00	658.50	659.50	660.50	661.00	662.50	663.50	666.00	668.00	669.50	672.00	673.00	675.00	677.00	678.50	679.50	680.50	682.00	682.50	683.00	684.00	684.50	685.50	686.50	687.50	688.00	689.00	689.00	691.00	692.00	693.50	694.50	695.50	698.00	699.50	701.00	702.00	704.00	705.50	707.00	707.50	708.00	710.00	713.50	717.00	720.00	725.00	729.00	738.50	743.50	749.00	758.00	765.50	769.50	774.00	779.00	782.00	785.00	786.00	790.00	792.00	794.00	795.50	796.50	798.50	799.00	800.00	801.00	801.50	802.00	802.50	802.00	801.50	800.00	799.00	796.00	795.00	794.00	793.50	792.50	790.00	787.00	780.00	774.00	767.00	764.50	763.50	762.50	761.50	758.00	756.00	750.00	748.00	743.50	740.50	738.00	734.00	732.00	728.00	725.50	724.00	722.00	719.50	719.00	719.00	719.00	719.00	719.00	719.00	719.00	719.00	719.00	718.50	717.00	715.00	712.00	710.00	705.00	702.50	700.00	697.00	694.00	690.00	688.00	685.50	684.00	682.50	681.00	680.50	680.00	679.00	678.00	677.50	676.50	675.50	674.50	673.00	672.00	671.00	670.00	669.50	668.00	666.00	662.00	659.50	655.00	652.00	648.50	645.50	641.00	639.00	637.00	635.00	634.00	634.00	635.00	638.00	640.00	644.00	646.50
771.50	772.00	771.50	769.50	769.00	767.00	765.00	762.00	759.50	753.00	749.00	745.50	741.00	737.00	730.00	727.00	722.00	718.00	714.00	706.00	702.00	696.00	693.00	691.00	691.00	692.00	692.50	693.00	693.00	692.50	690.00	687.00	684.00	681.50	679.00	677.50	676.50	676.00	675.00	673.50	672.00	671.50	671.00	670.50	670.00	669.00	669.00	668.00	668.00	668.00	667.50	667.00	666.50	665.00	663.50	662.50	659.50	658.00	656.50	654.00	653.00	651.00	650.00	649.50	648.50	648.00	647.00	646.50	645.00	644.00	644.00	643.50	643.00	643.00	643.50	644.00	644.00	645.00	646.00	646.50	647.50	648.50	650.50	651.50	654.00	655.00	656.50	658.00	659.00	659.00	659.50	661.00	661.50	663.00	663.00	663.00	662.50	663.00	663.50	664.00	665.00	665.50	666.50	668.00	669.50	670.50	673.00	674.00	676.00	678.00	679.50	680.50	681.50	682.50	683.00	684.00	685.00	685.50	686.50	687.50	688.50	689.00	690.00	691.00	693.00	694.00	695.50	697.00	698.50	700.50	702.00	704.00	706.00	708.00	709.50	712.50	713.50	715.00	718.00	721.00	724.00	727.00	730.50	733.50	741.50	746.00	750.50	758.00	764.00	768.00	773.00	777.00	779.00	782.00	784.00	785.50	787.00	788.50	789.00	789.50	790.50	791.50	792.00	792.00	793.00	793.00	793.00	793.00	793.00	793.00	792.00	789.00	788.00	787.00	787.00	786.50	782.50	779.00	774.00	770.00	767.00	765.00	762.50	761.00	759.00	757.00	755.00	750.00	748.00	744.50	742.00	740.00	735.50	733.50	731.00	729.50	728.50	727.50	727.00	727.00	727.00	727.00	727.50	728.00	729.00	729.00	729.50	729.50	729.00	728.00	727.00	724.50	722.00	717.50	715.00	713.00	710.00	708.00	703.00	702.00	699.00	697.00	695.50	693.50	692.50	691.00	690.00	688.00	686.50	684.50	683.50	682.50	681.00	680.00	679.00	678.00	676.00	674.00	672.00	667.50	664.50	660.00	656.00	651.50	648.00	642.00	639.50	637.00	634.00	631.00	628.00	627.00	626.00	626.00	628.00	631.00
771.50	772.00	771.50	769.50	769.00	767.00	765.00	762.00	759.50	753.00	749.00	745.50	741.00	737.00	730.00	727.00	722.00	718.00	714.00	706.00	702.00	696.00	693.00	691.00	691.00	692.00	692.50	693.00	693.00	692.50	690.00	687.00	684.00	681.50	679.00	677.50	676.50	676.00	675.00	673.50	672.00	671.50	671.00	670.50	670.00	669.00	669.00	668.00	668.00	668.00	667.50	667.00	666.50	665.00	663.50	662.50	659.50	658.00	656.50	654.00	653.00	651.00	650.00	649.50	648.50	648.00	647.00	646.50	645.00	644.00	644.00	643.50	643.00	643.00	643.50	644.00	644.00	645.00	646.00	646.50	647.50	648.50	650.50	651.50	654.00	655.00	656.50	658.00	659.00	659.00	659.50	661.00	661.50	663.00	663.00	663.00	662.50	663.00	663.50	664.00	665.00	665.50	666.50	668.00	669.50	670.50	673.00	674.00	676.00	678.00	679.50	680.50	681.50	682.50	683.00	684.00	685.00	685.50	686.50	687.50	688.50	689.00	690.00	691.00	693.00	694.00	695.50	697.00	698.50	700.50	702.00	704.00	706.00	708.00	709.50	712.50	713.50	715.00	718.00	721.00	724.00	727.00	730.50	733.50	741.50	746.00	750.50	758.00	764.00	768.00	773.00	777.00	779.00	782.00	784.00	785.50	787.00	788.50	789.00	789.50	790.50	791.50	792.00	792.00	793.00	793.00	793.00	793.00	793.00	793.00	792.00	789.00	788.00	787.00	787.00	786.50	782.50	779.00	774.00	770.00	767.00	765.00	762.50	761.00	759.00	757.00	755.00	750.00	748.00	744.50	742.00	740.00	735.50	733.50	731.00	729.50	728.50	727.50	727.00	727.00	727.00	727.00	727.50	728.00	729.00	729.00	729.50	729.50	729.00	728.00	727.00	724.50	722.00	717.50	715.00	713.00	710.00	708.00	703.00	702.00	699.00	697.00	695.50	693.50	692.50	691.00	690.00	688.00	686.50	684.50	683.50	682.50	681.00	680.00	679.00	678.00	676.00	674.00	672.00	667.50	664.50	660.00	656.00	651.50	648.00	642.00	639.50	637.00	634.00	631.00	628.00	627.00	626.00	626.00	628.00	631.00
771.50	772.00	771.50	769.50	769.00	767.00	765.00	762.00	759.50	753.00	749.00	745.50	741.00	737.00	730.00	727.00	722.00	718.00	714.00	706.00	702.00	696.00	693.00	691.00	691.00	692.00	692.50	693.00	693.00	692.50	690.00	687.00	684.00	681.50	679.00	677.50	676.50	676.00	675.00	673.50	672.00	671.50	671.00	670.50	670.00	669.00	669.00	668.00	668.00	668.00	667.50	667.00	666.50	665.00	663.50	662.50	659.50	658.00	656.50	654.00	653.00	651.00	650.00	649.50	648.50	648.00	647.00	646.50	645.00	644.00	644.00	643.50	643.00	643.00	643.50	644.00	644.00	645.00	646.00	646.50	647.50	648.50	650.50	651.50	654.00	655.00	656.50	658.00	659.00	659.00	659.50	661.00	661.50	663.00	663.00	663.00	662.50	663.00	663.50	664.00	665.00	665.50	666.50	668.00	669.50	670.50	673.00	674.00	676.00	678.00	679.50	680.50	681.50	682.50	683.00	684.00	685.00	685.50	686.50	687.50	688.50	689.00	690.00	691.00	693.00	694.00	695.50	697.00	698.50	700.50	702.00	704.00	706.00	708.00	709.50	712.50	713.50	715.00	718.00	721.00	724.00	727.00	730.50	733.50	741.50	746.00	750.50	758.00	764.00	768.00	773.00	777.00	779.00	782.00	784.00	785.50	787.00	788.50	789.00	789.50	790.50	791.50	792.00	792.00	793.00	793.00	793.00	793.00	793.00	793.00	792.00	789.00	788.00	787.00	787.00	786.50	782.50	779.00	774.00	770.00	767.00	765.00	762.50	761.00	759.00	757.00	755.00	750.00	748.00	744.50	742.00	740.00	735.50	733.50	731.00	729.50	728.50	727.50	727.00	727.00	727.00	727.00	727.50	728.00	729.00	729.00	729.50	729.50	729.00	728.00	727.00	724.50	722.00	717.50	715.00	713.00	710.00	708.00	703.00	702.00	699.00	697.00	695.50	693.50	692.50	691.00	690.00	688.00	686.50	684.50	683.50	682.50	681.00	680.00	679.00	678.00	676.00	674.00	672.00	667.50	664.50	660.00	656.00	651.50	648.00	642.00	639.50	637.00	634.00	631.00	628.00	627.00	626.00	626.00	628.00	631.00
782.00	781.50	781.00	779.50	778.00	776.00	774.00	770.50	767.50	761.50	758.00	754.00	749.00	745.00	737.00	734.00	729.50	726.00	722.00	713.50	708.50	701.00	699.00	697.50	697.00	699.00	701.00	702.50	705.00	702.50	698.00	695.00	689.50	687.50	686.00	684.50	683.50	682.00	682.00	680.50	680.00	678.50	678.00	677.50	676.00	675.50	674.00	674.00	673.00	673.00	672.00	671.50	670.50	670.00	668.50	667.50	665.50	664.00	662.50	660.00	659.00	657.00	656.00	654.50	653.00	652.00	650.50	649.50	648.00	647.00	646.50	646.00	646.00	646.00	646.00	647.00	647.00	648.00	648.00	649.50	650.50	651.00	652.50	653.50	655.00	656.00	658.00	661.00	663.00	664.50	666.00	668.00	670.50	671.00	670.00	669.00	668.50	668.00	668.00	668.50	669.00	669.00	669.00	670.00	671.50	672.50	675.00	676.00	677.50	679.00	681.50	682.00	682.50	684.50	685.00	686.00	686.00	687.00	687.50	689.00	689.50	690.00	691.00	692.00	694.00	695.00	697.50	698.50	700.00	703.00	704.50	707.00	708.00	711.00	713.00	717.00	718.50	720.00	723.00	726.00	729.00	732.00	735.00	738.00	744.50	748.00	752.00	758.00	763.50	767.50	772.00	775.00	777.00	780.00	781.00	782.00	783.00	784.00	784.00	784.00	784.50	785.00	785.00	786.00	786.00	785.50	785.00	785.00	784.50	783.00	782.00	781.00	781.00	781.00	781.00	780.00	775.50	773.00	770.00	768.00	766.50	765.00	762.50	761.00	759.50	757.00	755.00	751.00	749.00	746.00	744.00	742.00	738.50	737.50	736.00	733.50	733.00	733.00	734.00	734.00	734.00	735.00	735.50	736.00	737.00	737.50	738.00	738.00	737.50	737.00	736.00	733.00	731.50	728.00	726.00	724.00	721.00	719.00	716.00	714.00	711.00	709.00	707.00	703.00	701.00	698.00	696.00	693.50	692.50	690.00	688.50	687.50	686.00	685.00	684.00	683.00	680.50	679.00	677.00	671.50	668.50	664.00	660.00	654.00	649.50	641.50	639.00	636.50	633.00	629.50	626.00	624.00	620.50	620.50	621.00	622.50
782.00	781.50	781.00	779.50	778.00	776.00	774.00	770.50	767.50	761.50	758.00	754.00	749.00	745.00	737.00	734.00	729.50	726.00	722.00	713.50	708.50	701.00	699.00	697.50	697.00	699.00	701.00	702.50	705.00	702.50	698.00	695.00	689.50	687.50	686.00	684.50	683.50	682.00	682.00	680.50	680.00	678.50	678.00	677.50	676.00	675.50	674.00	674.00	673.00	673.00	672.00	671.50	670.50	670.00	668.50	667.50	665.50	664.00	662.50	660.00	659.00	657.00	656.00	654.50	653.00	652.00	650.50	649.50	648.00	647.00	646.50	646.00	646.00	646.00	646.00	647.00	647.00	648.00	648.00	649.50	650.50	651.00	652.50	653.50	655.00	656.00	658.00	661.00	663.00	664.50	666.00	668.00	670.50	671.00	670.00	669.00	668.50	668.00	668.00	668.50	669.00	669.00	669.00	670.00	671.50	672.50	675.00	676.00	677.50	679.00	681.50	682.00	682.50	684.50	685.00	686.00	686.00	687.00	687.50	689.00	689.50	690.00	691.00	692.00	694.00	695.00	697.50	698.50	700.00	703.00	704.50	707.00	708.00	711.00	713.00	717.00	718.50	720.00	723.00	726.00	729.00	732.00	735.00	738.00	744.50	748.00	752.00	758.00	763.50	767.50	772.00	775.00	777.00	780.00	781.00	782.00	783.00	784.00	784.00	784.00	784.50	785.00	785.00	786.00	786.00	785.50	785.00	785.00	784.50	783.00	782.00	781.00	781.00	781.00	781.00	780.00	775.50	773.00	770.00	768.00	766.50	765.00	762.50	761.00	759.50	757.00	755.00	751.00	749.00	746.00	744.00	742.00	738.50	737.50	736.00	733.50	733.00	733.00	734.00	734.00	734.00	735.00	735.50	736.00	737.00	737.50	738.00	738.00	737.50	737.00	736.00	733.00	731.50	728.00	726.00	724.00	721.00	719.00	716.00	714.00	711.00	709.00	707.00	703.00	701.00	698.00	696.00	693.50	692.50	690.00	688.50	687.50	686.00	685.00	684.00	683.00	680.50	679.00	677.00	671.50	668.50	664.00	660.00	654.00	649.50	641.50	639.00	636.50	633.00	629.50	626.00	624.00	620.50	620.50	621.00	622.50
782.00	781.50	781.00	779.50	778.00	776.00	774.00	770.50	767.50	761.50	758.00	754.00	749.00	745.00	737.00	734.00	729.50	726.00	722.00	713.50	708.50	701.00	699.00	697.50	697.00	699.00	701.00	702.50	705.00	702.50	698.00	695.00	689.50	687.50	686.00	684.50	683.50	682.00	682.00	680.50	680.00	678.50	678.00	677.50	676.00	675.50	674.00	674.00	673.00	673.00	672.00	671.50	670.50	670.00	668.50	667.50	665.50	664.00	662.50	660.00	659.00	657.00	656.00	654.50	653.00	652.00	650.50	649.50	648.00	647.00	646.50	646.00	646.00	646.00	646.00	647.00	647.00	648.00	648.00	649.50	650.50	651.00	652.50	653.50	655.00	656.00	658.00	661.00	663.00	664.50	666.00	668.00	670.50	671.00	670.00	669.00	668.50	668.00	668.00	668.50	669.00	669.00	669.00	670.00	671.50	672.50	675.00	676.00	677.50	679.00	681.50	682.00	682.50	684.50	685.00	686.00	686.00	687.00	687.50	689.00	689.50	690.00	691.00	692.00	694.00	695.00	697.50	698.50	700.00	703.00	704.50	707.00	708.00	711.00	713.00	717.00	718.50	720.00	723.00	726.00	729.00	732.00	735.00	738.00	744.50	748.00	752.00	758.00	763.50	767.50	772.00	775.00	777.00	780.00	781.00	782.00	783.00	784.00	784.00	784.00	784.50	785.00	785.00	786.00	786.00	785.50	785.00	785.00	784.50	783.00	782.00	781.00	781.00	781.00	781.00	780.00	775.50	773.00	770.00	768.00	766.50	765.00	762.50	761.00	759.50	757.00	755.00	751.00	749.00	746.00	744.00	742.00	738.50	737.50	736.00	733.50	733.00	733.00	734.00	734.00	734.00	735.00	735.50	736.00	737.00	737.50	738.00	738.00	737.50	737.00	736.00	733.00	731.50	728.00	726.00	724.00	721.00	719.00	716.00	714.00	711.00	709.00	707.00	703.00	701.00	698.00	696.00	693.50	692.50	690.00	688.50	687.50	686.00	685.00	684.00	683.00	680.50	679.00	677.00	671.50	668.50	664.00	660.00	654.00	649.50	641.50	639.00	636.50	633.00	629.50	626.00	624.00	620.50	620.50	621.00	622.50
785.50	785.25	784.75	782.75	781.25	779.00	777.00	773.75	771.00	765.50	762.25	758.50	753.50	749.50	742.50	739.00	734.50	731.00	727.00	718.75	714.25	707.50	704.50	701.25	701.25	706.00	708.75	711.00	712.50	710.50	707.50	705.00	700.25	698.00	695.00	692.25	690.50	688.00	687.50	685.25	684.00	682.50	682.00	681.50	680.00	679.00	678.00	677.50	676.25	676.00	675.25	674.75	674.25	673.50	672.50	671.50	669.50	668.25	667.00	665.00	664.00	661.50	660.50	658.50	657.25	656.25	654.00	653.00	651.50	650.50	650.00	649.25	648.50	648.50	648.50	649.50	650.00	651.00	651.00	652.00	652.75	653.00	654.50	655.25	656.50	658.00	660.50	663.00	665.75	667.75	669.75	672.50	674.25	674.00	673.00	671.75	671.25	670.50	670.25	670.25	670.50	670.00	670.00	671.00	672.50	673.50	676.00	677.00	679.00	680.50	682.50	683.25	684.00	686.00	686.50	687.50	687.50	688.50	689.00	690.50	691.00	691.50	692.50	693.50	695.50	696.50	699.00	700.00	701.50	704.50	706.00	708.50	710.00	713.00	715.00	719.00	720.75	722.50	725.50	728.25	731.00	733.50	737.00	739.75	746.00	749.25	752.75	758.00	763.25	766.75	771.00	774.50	776.50	779.00	780.00	780.75	782.00	782.75	783.00	783.00	783.25	783.50	783.00	783.50	783.25	782.75	782.25	781.75	781.25	780.00	779.50	779.00	779.00	778.75	778.25	777.00	773.25	771.25	769.00	767.50	766.00	765.00	762.75	761.25	760.00	758.00	756.00	752.50	750.50	747.75	746.00	744.00	741.00	740.00	738.50	736.75	736.50	736.50	737.00	737.25	737.50	738.50	739.25	739.50	740.25	740.75	740.75	740.25	739.75	739.00	738.00	735.75	734.50	731.25	729.50	727.50	724.50	723.00	720.00	718.00	715.25	713.50	711.50	707.50	705.50	702.50	700.00	697.25	695.75	693.00	691.50	690.50	689.00	688.00	686.00	685.00	683.00	681.50	679.25	673.50	670.50	666.00	662.00	656.00	651.75	644.25	641.25	638.25	634.50	631.25	627.50	625.50	622.25	621.25	620.50	620.75
789.00	789.00	788.50	786.00	784.50	782.00	780.00	777.00	774.50	769.50	766.50	763.00	758.00	754.00	748.00	744.00	739.50	736.00	732.00	724.00	720.00	714.00	710.00	705.00	705.50	713.00	716.50	719.50	720.00	718.50	717.00	715.00	711.00	708.50	704.00	700.00	697.50	694.00	693.00	690.00	688.00	686.50	686.00	685.50	684.00	682.50	682.00	681.00	679.50	679.00	678.50	678.00	678.00	677.00	676.50	675.50	673.50	672.50	671.50	670.00	669.00	666.00	665.00	662.50	661.50	660.50	657.50	656.50	655.00	654.00	653.50	652.50	651.00	651.00	651.00	652.00	653.00	654.00	654.00	654.50	655.00	655.00	656.50	657.00	658.00	660.00	663.00	665.00	668.50	671.00	673.50	677.00	678.00	677.00	676.00	674.50	674.00	673.00	672.50	672.00	672.00	671.00	671.00	672.00	673.50	674.50	677.00	678.00	680.50	682.00	683.50	684.50	685.50	687.50	688.00	689.00	689.00	690.00	690.50	692.00	692.50	693.00	694.00	695.00	697.00	698.00	700.50	701.50	703.00	706.00	707.50	710.00	712.00	715.00	717.00	721.00	723.00	725.00	728.00	730.50	733.00	735.00	739.00	741.50	747.50	750.50	753.50	758.00	763.00	766.00	770.00	774.00	776.00	778.00	779.00	779.50	781.00	781.50	782.00	782.00	782.00	782.00	781.00	781.00	780.50	780.00	779.50	778.50	778.00	777.00	777.00	777.00	777.00	776.50	775.50	774.00	771.00	769.50	768.00	767.00	765.50	765.00	763.00	761.50	760.50	759.00	757.00	754.00	752.00	749.50	748.00	746.00	743.50	742.50	741.00	740.00	740.00	740.00	740.00	740.50	741.00	742.00	743.00	743.00	743.50	744.00	743.50	742.50	742.00	741.00	740.00	738.50	737.50	734.50	733.00	731.00	728.00	727.00	724.00	722.00	719.50	718.00	716.00	712.00	710.00	707.00	704.00	701.00	699.00	696.00	694.50	693.50	692.00	691.00	688.00	687.00	685.50	684.00	681.50	675.50	672.50	668.00	664.00	658.00	654.00	647.00	643.50	640.00	636.00	633.00	629.00	627.00	624.00	622.00	620.00	619.00
789.00	789.00	788.50	786.00	784.50	782.00	780.00	777.00	774.50	769.50	766.50	763.00	758.00	754.00	748.00	744.00	739.50	736.00	732.00	724.00	720.00	714.00	710.00	705.00	705.50	713.00	716.50	719.50	720.00	718.50	717.00	715.00	711.00	708.50	704.00	700.00	697.50	694.00	693.00	690.00	688.00	686.50	686.00	685.50	684.00	682.50	682.00	681.00	679.50	679.00	678.50	678.00	678.00	677.00	676.50	675.50	673.50	672.50	671.50	670.00	669.00	666.00	665.00	662.50	661.50	660.50	657.50	656.50	655.00	654.00	653.50	652.50	651.00	651.00	651.00	652.00	653.00	654.00	654.00	654.50	655.00	655.00	656.50	657.00	658.00	660.00	663.00	665.00	668.50	671.00	673.50	677.00	678.00	677.00	676.00	674.50	674.00	673.00	672.50	672.00	672.00	671.00	671.00	672.00	673.50	674.50	677.00	678.00	680.50	682.00	683.50	684.50	685.50	687.50	688.00	689.00	689.00	690.00	690.50	692.00	692.50	693.00	694.00	695.00	697.00	698.00	700.50	701.50	703.00	706.00	707.50	710.00	712.00	715.00	717.00	721.00	723.00	725.00	728.00	730.50	733.00	735.00	739.00	741.50	747.50	750.50	753.50	758.00	763.00	766.00	770.00	774.00	776.00	778.00	779.00	779.50	781.00	781.50	782.00	782.00	782.00	782.00	781.00	781.00	780.50	780.00	779.50	778.50	778.00	777.00	777.00	777.00	777.00	776.50	775.50	774.00	771.00	769.50	768.00	767.00	765.50	765.00	763.00	761.50	760.50	759.00	757.00	754.00	752.00	749.50	748.00	746.00	743.50	742.50	741.00	740.00	740.00	740.00	740.00	740.50	741.00	742.00	743.00	743.00	743.50	744.00	743.50	742.50	742.00	741.00	740.00	738.50	737.50	734.50	733.00	731.00	728.00	727.00	724.00	722.00	719.50	718.00	716.00	712.00	710.00	707.00	704.00	701.00	699.00	696.00	694.50	693.50	692.00	691.00	688.00	687.00	685.50	684.00	681.50	675.50	672.50	668.00	664.00	658.00	654.00	647.00	643.50	640.00	636.00	633.00	629.00	627.00	624.00	622.00	620.00	619.00
796.00	795.50	794.50	791.50	790.00	787.00	785.00	783.00	781.00	777.00	774.50	772.00	768.00	765.00	759.00	756.00	750.50	747.00	743.50	735.50	730.50	723.00	718.00	720.50	725.50	734.00	736.50	736.50	735.00	734.50	732.00	729.00	725.00	723.00	719.50	716.00	713.50	710.00	708.00	705.00	702.00	699.50	698.00	696.50	695.00	693.50	692.00	691.00	690.00	690.00	689.00	689.00	689.00	688.00	687.50	687.00	685.50	685.00	684.50	682.00	681.00	678.00	677.00	674.00	672.50	671.00	668.00	666.50	664.00	663.00	661.50	660.50	659.00	658.50	658.00	658.00	659.00	660.00	661.00	661.00	661.00	661.50	662.50	663.50	665.00	667.00	669.00	672.00	675.00	677.00	679.00	681.00	681.50	682.00	682.00	680.50	679.50	677.50	676.50	676.00	675.00	675.50	676.50	678.00	679.00	680.00	682.00	684.00	685.50	687.00	688.00	688.50	689.50	691.00	691.50	692.00	693.00	694.00	694.50	696.00	696.50	697.00	698.00	699.00	701.00	702.00	704.50	706.00	708.00	711.50	713.00	716.00	717.00	720.00	721.50	724.50	726.00	728.00	731.00	733.50	736.00	738.00	741.00	743.50	748.50	751.00	753.50	757.00	761.50	764.00	768.00	772.00	773.50	776.00	777.00	778.50	780.00	780.50	781.00	780.50	780.00	779.50	779.00	778.00	777.50	777.00	776.00	775.50	775.00	774.00	774.00	774.00	774.00	772.50	771.50	770.50	768.50	768.00	767.00	766.00	765.50	765.00	763.50	763.00	762.50	761.00	760.00	758.00	756.00	754.00	752.50	752.00	750.50	749.50	749.00	748.00	747.50	747.00	747.50	748.00	748.00	748.00	748.00	748.00	748.00	747.50	746.50	745.50	744.50	743.00	742.00	740.50	739.50	737.50	736.00	734.50	733.00	731.00	729.00	727.00	724.50	723.00	721.00	717.00	715.00	711.00	710.00	707.00	705.00	701.50	700.50	699.00	697.00	696.00	694.00	693.00	691.00	689.00	687.00	682.50	679.50	675.00	672.00	667.00	663.50	656.00	652.50	649.50	646.00	642.50	639.00	638.00	635.50	634.00	632.00	631.50
796.00	795.50	794.50	791.50	790.00	787.00	785.00	783.00	781.00	777.00	774.50	772.00	768.00	765.00	759.00	756.00	750.50	747.00	743.50	735.50	730.50	723.00	718.00	720.50	725.50	734.00	736.50	736.50	735.00	734.50	732.00	729.00	725.00	723.00	719.50	716.00	713.50	710.00	708.00	705.00	702.00	699.50	698.00	696.50	695.00	693.50	692.00	691.00	690.00	690.00	689.00	689.00	689.00	688.00	687.50	687.00	685.50	685.00	684.50	682.00	681.00	678.00	677.00	674.00	672.50	671.00	668.00	666.50	664.00	663.00	661.50	660.50	659.00	658.50	658.00	658.00	659.00	660.00	661.00	661.00	661.00	661.50	662.50	663.50	665.00	667.00	669.00	672.00	675.00	677.00	679.00	681.00	681.50	682.00	682.00	680.50	679.50	677.50	676.50	676.00	675.00	675.50	676.50	678.00	679.00	680.00	682.00	684.00	685.50	687.00	688.00	688.50	689.50	691.00	691.50	692.00	693.00	694.00	694.50	696.00	696.50	697.00	698.00	699.00	701.00	702.00	704.50	706.00	708.00	711.50	713.00	716.00	717.00	720.00	721.50	724.50	726.00	728.00	731.00	733.50	736.00	738.00	741.00	743.50	748.50	751.00	753.50	757.00	761.50	764.00	768.00	772.00	773.50	776.00	777.00	778.50	780.00	780.50	781.00	780.50	780.00	779.50	779.00	778.00	777.50	777.00	776.00	775.50	775.00	774.00	774.00	774.00	774.00	772.50	771.50	770.50	768.50	768.00	767.00	766.00	765.50	765.00	763.50	763.00	762.50	761.00	760.00	758.00	756.00	754.00	752.50	752.00	750.50	749.50	749.00	748.00	747.50	747.00	747.50	748.00	748.00	748.00	748.00	748.00	748.00	747.50	746.50	745.50	744.50	743.00	742.00	740.50	739.50	737.50	736.00	734.50	733.00	731.00	729.00	727.00	724.50	723.00	721.00	717.00	715.00	711.00	710.00	707.00	705.00	701.50	700.50	699.00	697.00	696.00	694.00	693.00	691.00	689.00	687.00	682.50	679.50	675.00	672.00	667.00	663.50	656.00	652.50	649.50	646.00	642.50	639.00	638.00	635.50	634.00	632.00	631.50
796.00	795.50	794.50	791.50	790.00	787.00	785.00	783.00	781.00	777.00	774.50	772.00	768.00	765.00	759.00	756.00	750.50	747.00	743.50	735.50	730.50	723.00	718.00	720.50	725.50	734.00	736.50	736.50	735.00	734.50	732.00	729.00	725.00	723.00	719.50	716.00	713.50	710.00	708.00	705.00	702.00	699.50	698.00	696.50	695.00	693.50	692.00	691.00	690.00	690.00	689.00	689.00	689.00	688.00	687.50	687.00	685.50	685.00	684.50	682.00	681.00	678.00	677.00	674.00	672.50	671.00	668.00	666.50	664.00	663.00	661.50	660.50	659.00	658.50	658.00	658.00	659.00	660.00	661.00	661.00	661.00	661.50	662.50	663.50	665.00	667.00	669.00	672.00	675.00	677.00	679.00	681.00	681.50	682.00	682.00	680.50	679.50	677.50	676.50	676.00	675.00	675.50	676.50	678.00	679.00	680.00	682.00	684.00	685.50	687.00	688.00	688.50	689.50	691.00	691.50	692.00	693.00	694.00	694.50	696.00	696.50	697.00	698.00	699.00	701.00	702.00	704.50	706.00	708.00	711.50	713.00	716.00	717.00	720.00	721.50	724.50	726.00	728.00	731.00	733.50	736.00	738.00	741.00	743.50	748.50	751.00	753.50	757.00	761.50	764.00	768.00	772.00	773.50	776.00	777.00	778.50	780.00	780.50	781.00	780.50	780.00	779.50	779.00	778.00	777.50	777.00	776.00	775.50	775.00	774.00	774.00	774.00	774.00	772.50	771.50	770.50	768.50	768.00	767.00	766.00	765.50	765.00	763.50	763.00	762.50	761.00	760.00	758.00	756.00	754.00	752.50	752.00	750.50	749.50	749.00	748.00	747.50	747.00	747.50	748.00	748.00	748.00	748.00	748.00	748.00	747.50	746.50	745.50	744.50	743.00	742.00	740.50	739.50	737.50	736.00	734.50	733.00	731.00	729.00	727.00	724.50	723.00	721.00	717.00	715.00	711.00	710.00	707.00	705.00	701.50	700.50	699.00	697.00	696.00	694.00	693.00	691.00	689.00	687.00	682.50	679.50	675.00	672.00	667.00	663.50	656.00	652.50	649.50	646.00	642.50	639.00	638.00	635.50	634.00	632.00	631.50
799.00	798.00	797.00	794.50	793.00	790.00	788.50	786.00	784.25	780.75	778.75	776.50	773.00	770.00	764.50	761.50	756.00	752.75	749.00	740.25	735.00	728.50	727.00	730.75	735.00	741.50	742.50	742.25	741.00	739.50	736.50	733.50	730.00	728.00	724.75	721.75	719.75	716.50	714.50	711.00	708.00	705.25	703.75	702.50	701.00	699.75	698.50	698.00	697.50	697.25	696.50	696.50	696.50	696.00	695.25	694.75	693.25	692.50	691.25	689.00	687.50	684.50	683.50	680.75	679.25	677.50	674.25	672.75	670.00	669.00	667.50	666.50	665.00	664.75	664.50	664.50	665.00	666.50	667.00	666.75	666.25	665.75	665.25	666.50	668.50	670.50	672.25	675.00	677.50	679.25	680.50	681.50	681.75	682.50	682.50	681.75	681.25	679.50	678.50	677.75	676.50	677.50	678.50	680.00	682.00	683.50	686.00	687.50	689.75	691.50	693.25	693.75	694.25	695.00	695.25	695.00	695.50	696.25	697.00	699.00	700.00	700.75	701.50	702.00	703.50	704.50	707.00	708.50	710.50	713.75	715.50	718.50	719.50	722.00	723.50	726.25	727.75	729.50	732.00	734.50	736.50	738.50	741.00	743.00	747.50	750.00	752.25	755.50	759.75	762.25	766.50	770.25	772.25	775.00	776.00	778.00	779.50	780.00	780.50	780.25	780.00	779.50	779.00	778.00	777.25	776.75	775.75	775.25	774.75	774.00	773.50	773.00	772.50	770.50	769.50	768.75	767.75	767.25	766.50	766.00	765.75	765.25	764.25	763.75	763.25	762.50	761.50	759.50	758.00	756.50	755.50	755.00	753.50	752.75	752.00	751.25	750.75	750.50	751.00	751.50	751.00	751.00	751.00	751.00	750.25	749.50	748.50	747.00	746.00	744.50	743.50	741.75	740.50	738.50	737.25	736.00	734.50	733.00	730.50	728.50	726.50	725.00	723.00	719.00	717.00	713.50	712.50	709.50	707.50	704.50	703.25	701.75	700.00	699.00	697.00	696.00	694.00	692.25	690.50	686.25	683.75	680.00	677.00	672.75	669.50	662.75	659.50	656.75	653.00	649.75	646.50	645.50	643.00	642.00	641.00	640.25
802.00	800.50	799.50	797.50	796.00	793.00	792.00	789.00	787.50	784.50	783.00	781.00	778.00	775.00	770.00	767.00	761.50	758.50	754.50	745.00	739.50	734.00	736.00	741.00	744.50	749.00	748.50	748.00	747.00	744.50	741.00	738.00	735.00	733.00	730.00	727.50	726.00	723.00	721.00	717.00	714.00	711.00	709.50	708.50	707.00	706.00	705.00	705.00	705.00	704.50	704.00	704.00	704.00	704.00	703.00	702.50	701.00	700.00	698.00	696.00	694.00	691.00	690.00	687.50	686.00	684.00	680.50	679.00	676.00	675.00	673.50	672.50	671.00	671.00	671.00	671.00	671.00	673.00	673.00	672.50	671.50	670.00	668.00	669.50	672.00	674.00	675.50	678.00	680.00	681.50	682.00	682.00	682.00	683.00	683.00	683.00	683.00	681.50	680.50	679.50	678.00	679.50	680.50	682.00	685.00	687.00	690.00	691.00	694.00	696.00	698.50	699.00	699.00	699.00	699.00	698.00	698.00	698.50	699.50	702.00	703.50	704.50	705.00	705.00	706.00	707.00	709.50	711.00	713.00	716.00	718.00	721.00	722.00	724.00	725.50	728.00	729.50	731.00	733.00	735.50	737.00	739.00	741.00	742.50	746.50	749.00	751.00	754.00	758.00	760.50	765.00	768.50	771.00	774.00	775.00	777.50	779.00	779.50	780.00	780.00	780.00	779.50	779.00	778.00	777.00	776.50	775.50	775.00	774.50	774.00	773.00	772.00	771.00	768.50	767.50	767.00	767.00	766.50	766.00	766.00	766.00	765.50	765.00	764.50	764.00	764.00	763.00	761.00	760.00	759.00	758.50	758.00	756.50	756.00	755.00	754.50	754.00	754.00	754.50	755.00	754.00	754.00	754.00	754.00	752.50	751.50	750.50	748.50	747.50	746.00	745.00	743.00	741.50	739.50	738.50	737.50	736.00	735.00	732.00	730.00	728.50	727.00	725.00	721.00	719.00	716.00	715.00	712.00	710.00	707.50	706.00	704.50	703.00	702.00	700.00	699.00	697.00	695.50	694.00	690.00	688.00	685.00	682.00	678.50	675.50	669.50	666.50	664.00	660.00	657.00	654.00	653.00	650.50	650.00	650.00	649.00
802.00	800.50	799.50	797.50	796.00	793.00	792.00	789.00	787.50	784.50	783.00	781.00	778.00	775.00	770.00	767.00	761.50	758.50	754.50	745.00	739.50	734.00	736.00	741.00	744.50	749.00	748.50	748.00	747.00	744.50	741.00	738.00	735.00	733.00	730.00	727.50	726.00	723.00	721.00	717.00	714.00	711.00	709.50	708.50	707.00	706.00	705.00	705.00	705.00	704.50	704.00	704.00	704.00	704.00	703.00	702.50	701.00	700.00	698.00	696.00	694.00	691.00	690.00	687.50	686.00	684.00	680.50	679.00	676.00	675.00	673.50	672.50	671.00	671.00	671.00	671.00	671.00	673.00	673.00	672.50	671.50	670.00	668.00	669.50	672.00	674.00	675.50	678.00	680.00	681.50	682.00	682.00	682.00	683.00	683.00	683.00	683.00	681.50	680.50	679.50	678.00	679.50	680.50	682.00	685.00	687.00	690.00	691.00	694.00	696.00	698.50	699.00	699.00	699.00	699.00	698.00	698.00	698.50	699.50	702.00	703.50	704.50	705.00	705.00	706.00	707.00	709.50	711.00	713.00	716.00	718.00	721.00	722.00	724.00	725.50	728.00	729.50	731.00	733.00	735.50	737.00	739.00	741.00	742.50	746.50	749.00	751.00	754.00	758.00	760.50	765.00	768.50	771.00	774.00	775.00	777.50	779.00	779.50	780.00	780.00	780.00	779.50	779.00	778.00	777.00	776.50	775.50	775.00	774.50	774.00	773.00	772.00	771.00	768.50	767.50	767.00	767.00	766.50	766.00	766.00	766.00	765.50	765.00	764.50	764.00	764.00	763.00	761.00	760.00	759.00	758.50	758.00	756.50	756.00	755.00	754.50	754.00	754.00	754.50	755.00	754.00	754.00	754.00	754.00	752.50	751.50	750.50	748.50	747.50	746.00	745.00	743.00	741.50	739.50	738.50	737.50	736.00	735.00	732.00	730.00	728.50	727.00	725.00	721.00	719.00	716.00	715.00	712.00	710.00	707.50	706.00	704.50	703.00	702.00	700.00	699.00	697.00	695.50	694.00	690.00	688.00	685.00	682.00	678.50	675.50	669.50	666.50	664.00	660.00	657.00	654.00	653.00	650.50	650.00	650.00	649.00
809.50	808.50	807.00	804.00	802.50	800.00	799.00	796.50	795.00	792.00	790.50	789.00	786.00	784.00	780.00	777.00	772.50	769.50	766.50	759.00	756.50	756.00	756.00	757.50	757.50	757.00	756.50	756.00	753.00	750.00	747.00	745.00	742.00	740.00	737.00	734.00	732.50	730.00	728.00	725.00	722.00	719.50	719.00	718.50	718.00	717.00	718.00	719.00	719.00	719.50	721.00	721.50	722.00	721.00	720.00	719.50	716.00	714.00	712.00	709.00	707.00	703.00	701.00	699.00	697.00	695.00	691.50	690.00	688.00	687.00	685.00	685.00	685.00	685.00	685.00	685.00	686.00	687.00	690.00	693.00	695.00	696.00	693.50	692.50	691.00	690.00	688.50	687.00	686.00	685.50	685.00	686.00	686.00	686.00	686.00	686.50	687.50	687.50	686.50	686.50	687.00	688.00	688.50	690.00	692.00	694.00	697.00	698.00	701.00	704.00	706.50	707.50	708.50	709.00	709.00	708.00	707.00	708.50	711.50	717.50	718.50	717.00	715.00	713.00	713.00	713.00	714.00	714.50	716.00	719.50	721.00	723.00	725.00	726.50	728.00	731.00	732.50	733.50	735.00	736.00	737.00	738.00	740.00	741.50	745.00	747.00	749.50	753.00	757.00	759.50	764.00	768.50	771.50	775.00	777.00	780.00	782.00	783.00	783.50	784.00	783.00	782.50	781.00	780.00	780.00	779.50	778.50	777.50	776.50	775.00	774.00	772.00	771.00	769.50	768.50	768.00	767.00	766.50	766.00	766.00	766.00	766.00	766.00	766.00	766.00	765.00	765.00	764.00	764.00	763.00	763.00	762.50	762.00	762.00	761.00	761.00	761.00	761.00	761.00	760.50	760.00	759.00	758.50	757.00	756.00	755.50	754.00	751.50	750.50	748.00	747.00	745.50	744.50	742.50	741.50	740.50	739.00	737.00	735.00	733.00	731.50	730.00	728.50	725.50	724.00	721.00	720.00	717.00	715.50	712.50	711.50	710.50	709.00	708.00	706.00	704.00	702.50	701.50	700.50	698.00	696.50	694.00	692.00	689.00	687.00	683.00	681.00	679.00	676.00	673.50	672.00	670.00	668.50	668.00	667.00	667.00
809.50	808.50	807.00	804.00	802.50	800.00	799.00	796.50	795.00	792.00	790.50	789.00	786.00	784.00	780.00	777.00	772.50	769.50	766.50	759.00	756.50	756.00	756.00	757.50	757.50	757.00	756.50	756.00	753.00	750.00	747.00	745.00	742.00	740.00	737.00	734.00	732.50	730.00	728.00	725.00	722.00	719.50	719.00	718.50	718.00	717.00	718.00	719.00	719.00	719.50	721.00	721.50	722.00	721.00	720.00	719.50	716.00	714.00	712.00	709.00	707.00	703.00	701.00	699.00	697.00	695.00	691.50	690.00	688.00	687.00	685.00	685.00	685.00	685.00	685.00	685.00	686.00	687.00	690.00	693.00	695.00	696.00	693.50	692.50	691.00	690.00	688.50	687.00	686.00	685.50	685.00	686.00	686.00	686.00	686.00	686.50	687.50	687.50	686.50	686.50	687.00	688.00	688.50	690.00	692.00	694.00	697.00	698.00	701.00	704.00	706.50	707.50	708.50	709.00	709.00	708.00	707.00	708.50	711.50	717.50	718.50	717.00	715.00	713.00	713.00	713.00	714.00	714.50	716.00	719.50	721.00	723.00	725.00	726.50	728.00	731.00	732.50	733.50	735.00	736.00	737.00	738.00	740.00	741.50	745.00	747.00	749.50	753.00	757.00	759.50	764.00	768.50	771.50	775.00	777.00	780.00	782.00	783.00	783.50	784.00	783.00	782.50	781.00	780.00	780.00	779.50	778.50	777.50	776.50	775.00	774.00	772.00	771.00	769.50	768.50	768.00	767.00	766.50	766.00	766.00	766.00	766.00	766.00	766.00	766.00	765.00	765.00	764.00	764.00	763.00	763.00	762.50	762.00	762.00	761.00	761.00	761.00	761.00	761.00	760.50	760.00	759.00	758.50	757.00	756.00	755.50	754.00	751.50	750.50	748.00	747.00	745.50	744.50	742.50	741.50	740.50	739.00	737.00	735.00	733.00	731.50	730.00	728.50	725.50	724.00	721.00	720.00	717.00	715.50	712.50	711.50	710.50	709.00	708.00	706.00	704.00	702.50	701.50	700.50	698.00	696.50	694.00	692.00	689.00	687.00	683.00	681.00	679.00	676.00	673.50	672.00	670.00	668.50	668.00	667.00	667.00
809.50	808.50	807.00	804.00	802.50	800.00	799.00	796.50	795.00	792.00	790.50	789.00	786.00	784.00	780.00	777.00	772.50	769.50	766.50	759.00	756.50	756.00	756.00	757.50	757.50	757.00	756.50	756.00	753.00	750.00	747.00	745.00	742.00	740.00	737.00	734.00	732.50	730.00	728.00	725.00	722.00	719.50	719.00	718.50	718.00	717.00	718.00	719.00	719.00	719.50	721.00	721.50	722.00	721.00	720.00	719.50	716.00	714.00	712.00	709.00	707.00	703.00	701.00	699.00	697.00	695.00	691.50	690.00	688.00	687.00	685.00	685.00	685.00	685.00	685.00	685.00	686.00	687.00	690.00	693.00	695.00	696.00	693.50	692.50	691.00	690.00	688.50	687.00	686.00	685.50	685.00	686.00	686.00	686.00	686.00	686.50	687.50	687.50	686.50	686.50	687.00	688.00	688.50	690.00	692.00	694.00	697.00	698.00	701.00	704.00	706.50	707.50	708.50	709.00	709.00	708.00	707.00	708.50	711.50	717.50	718.50	717.00	715.00	713.00	713.00	713.00	714.00	714.50	716.00	719.50	721.00	723.00	725.00	726.50	728.00	731.00	732.50	733.50	735.00	736.00	737.00	738.00	740.00	741.50	745.00	747.00	749.50	753.00	757.00	759.50	764.00	768.50	771.50	775.00	777.00	780.00	782.00	783.00	783.50	784.00	783.00	782.50	781.00	780.00	780.00	779.50	778.50	777.50	776.50	775.00	774.00	772.00	771.00	769.50	768.50	768.00	767.00	766.50	766.00	766.00	766.00	766.00	766.00	766.00	766.00	765.00	765.00	764.00	764.00	763.00	763.00	762.50	762.00	762.00	761.00	761.00	761.00	761.00	761.00	760.50	760.00	759.00	758.50	757.00	756.00	755.50	754.00	751.50	750.50	748.00	747.00	745.50	744.50	742.50	741.50	740.50	739.00	737.00	735.00	733.00	731.50	730.00	728.50	725.50	724.00	721.00	720.00	717.00	715.50	712.50	711.50	710.50	709.00	708.00	706.00	704.00	702.50	701.50	700.50	698.00	696.50	694.00	692.00	689.00	687.00	683.00	681.00	679.00	676.00	673.50	672.00	670.00	668.50	668.00	667.00	667.00
814.25	813.00	811.50	808.00	806.50	804.00	802.50	799.75	798.25	795.00	793.50	792.00	789.50	788.00	785.00	782.50	779.25	777.00	774.50	768.75	766.75	765.50	765.00	764.75	764.00	762.25	761.25	760.00	757.00	754.00	750.50	748.50	745.50	743.25	739.75	736.50	734.75	732.00	730.50	727.50	725.00	723.00	722.50	722.00	721.50	722.25	723.50	724.50	725.25	726.25	728.25	729.00	729.50	728.50	727.75	726.75	722.75	720.50	718.50	715.00	713.00	708.50	706.50	703.50	701.50	699.25	695.50	694.00	692.00	691.00	689.75	689.50	689.50	689.50	689.75	690.00	691.00	693.50	696.50	699.75	702.00	703.25	702.75	702.25	700.50	699.50	698.00	696.50	695.75	694.75	693.75	693.00	691.50	690.00	689.50	691.00	692.50	694.50	694.00	693.50	693.00	693.25	693.00	693.50	694.50	696.00	699.00	700.00	703.00	706.00	709.00	710.75	712.25	715.25	716.50	718.00	717.50	718.25	719.75	722.75	722.50	721.00	719.00	717.50	717.00	716.50	717.25	718.00	719.25	722.00	723.00	724.50	726.00	727.50	728.50	730.75	732.00	733.00	734.00	735.25	736.00	737.50	740.00	741.50	745.50	748.00	750.50	754.50	759.00	762.00	766.50	771.50	774.50	778.50	781.00	784.00	786.00	787.00	787.25	787.50	786.50	786.00	784.50	783.50	783.25	782.50	781.00	780.00	778.75	777.00	775.50	772.50	771.50	770.00	769.00	768.50	767.25	766.75	766.00	766.00	766.00	765.75	765.50	765.50	765.75	765.50	765.50	765.00	765.00	764.50	764.50	764.25	764.00	764.00	763.50	763.00	763.00	763.00	763.00	762.50	762.00	761.00	760.50	759.00	757.75	757.00	755.75	753.00	752.00	750.00	748.50	747.00	746.00	744.00	743.00	742.00	740.50	739.00	737.00	735.00	733.50	732.00	730.50	727.50	726.25	723.50	722.50	719.75	718.25	715.50	714.50	713.25	711.50	710.50	708.50	707.00	705.50	704.50	703.50	701.25	700.00	698.00	696.50	693.75	692.25	689.00	687.25	685.75	683.50	681.50	679.50	678.00	676.25	675.50	674.50	674.00
819.00	817.50	816.00	812.00	810.50	808.00	806.00	803.00	801.50	798.00	796.50	795.00	793.00	792.00	790.00	788.00	786.00	784.50	782.50	778.50	777.00	775.00	774.00	772.00	770.50	767.50	766.00	764.00	761.00	758.00	754.00	752.00	749.00	746.50	742.50	739.00	737.00	734.00	733.00	730.00	728.00	726.50	726.00	725.50	725.00	727.50	729.00	730.00	731.50	733.00	735.50	736.50	737.00	736.00	735.50	734.00	729.50	727.00	725.00	721.00	719.00	714.00	712.00	708.00	706.00	703.50	699.50	698.00	696.00	695.00	694.50	694.00	694.00	694.00	694.50	695.00	696.00	700.00	703.00	706.50	709.00	710.50	712.00	712.00	710.00	709.00	707.50	706.00	705.50	704.00	702.50	700.00	697.00	694.00	693.00	695.50	697.50	701.50	701.50	700.50	699.00	698.50	697.50	697.00	697.00	698.00	701.00	702.00	705.00	708.00	711.50	714.00	716.00	721.50	724.00	728.00	728.00	728.00	728.00	728.00	726.50	725.00	723.00	722.00	721.00	720.00	720.50	721.50	722.50	724.50	725.00	726.00	727.00	728.50	729.00	730.50	731.50	732.50	733.00	734.50	735.00	737.00	740.00	741.50	746.00	749.00	751.50	756.00	761.00	764.50	769.00	774.50	777.50	782.00	785.00	788.00	790.00	791.00	791.00	791.00	790.00	789.50	788.00	787.00	786.50	785.50	783.50	782.50	781.00	779.00	777.00	773.00	772.00	770.50	769.50	769.00	767.50	767.00	766.00	766.00	766.00	765.50	765.00	765.00	765.50	766.00	766.00	766.00	766.00	766.00	766.00	766.00	766.00	766.00	766.00	765.00	765.00	765.00	765.00	764.50	764.00	763.00	762.50	761.00	759.50	758.50	757.50	754.50	753.50	752.00	750.00	748.50	747.50	745.50	744.50	743.50	742.00	741.00	739.00	737.00	735.50	734.00	732.50	729.50	728.50	726.00	725.00	722.50	721.00	718.50	717.50	716.00	714.00	713.00	711.00	710.00	708.50	707.50	706.50	704.50	703.50	702.00	701.00	698.50	697.50	695.00	693.50	692.50	691.00	689.50	687.00	686.00	684.00	683.00	682.00	681.00
819.00	817.50	816.00	812.00	810.50	808.00	806.00	803.00	801.50	798.00	796.50	795.00	793.00	792.00	790.00	788.00	786.00	784.50	782.50	778.50	777.00	775.00	774.00	772.00	770.50	767.50	766.00	764.00	761.00	758.00	754.00	752.00	749.00	746.50	742.50	739.00	737.00	734.00	733.00	730.00	728.00	726.50	726.00	725.50	725.00	727.50	729.00	730.00	731.50	733.00	735.50	736.50	737.00	736.00	735.50	734.00	729.50	727.00	725.00	721.00	719.00	714.00	712.00	708.00	706.00	703.50	699.50	698.00	696.00	695.00	694.50	694.00	694.00	694.00	694.50	695.00	696.00	700.00	703.00	706.50	709.00	710.50	712.00	712.00	710.00	709.00	707.50	706.00	705.50	704.00	702.50	700.00	697.00	694.00	693.00	695.50	697.50	701.50	701.50	700.50	699.00	698.50	697.50	697.00	697.00	698.00	701.00	702.00	705.00	708.00	711.50	714.00	716.00	721.50	724.00	728.00	728.00	728.00	728.00	728.00	726.50	725.00	723.00	722.00	721.00	720.00	720.50	721.50	722.50	724.50	725.00	726.00	727.00	728.50	729.00	730.50	731.50	732.50	733.00	734.50	735.00	737.00	740.00	741.50	746.00	749.00	751.50	756.00	761.00	764.50	769.00	774.50	777.50	782.00	785.00	788.00	790.00	791.00	791.00	791.00	790.00	789.50	788.00	787.00	786.50	785.50	783.50	782.50	781.00	779.00	777.00	773.00	772.00	770.50	769.50	769.00	767.50	767.00	766.00	766.00	766.00	765.50	765.00	765.00	765.50	766.00	766.00	766.00	766.00	766.00	766.00	766.00	766.00	766.00	766.00	765.00	765.00	765.00	765.00	764.50	764.00	763.00	762.50	761.00	759.50	758.50	757.50	754.50	753.50	752.00	750.00	748.50	747.50	745.50	744.50	743.50	742.00	741.00	739.00	737.00	735.50	734.00	732.50	729.50	728.50	726.00	725.00	722.50	721.00	718.50	717.50	716.00	714.00	713.00	711.00	710.00	708.50	707.50	706.50	704.50	703.50	702.00	701.00	698.50	697.50	695.00	693.50	692.50	691.00	689.50	687.00	686.00	684.00	683.00	682.00	681.00
825.00	823.25	821.50	817.00	815.25	812.50	810.00	807.50	806.00	803.00	801.50	800.25	798.50	797.50	795.50	794.00	792.25	791.00	789.25	785.50	784.00	782.00	780.50	778.50	777.00	773.50	771.50	769.25	766.00	762.50	759.00	756.50	753.25	750.50	746.75	743.50	741.50	738.50	737.00	734.25	732.50	731.00	730.50	730.25	730.50	732.50	734.00	735.00	736.50	737.75	740.00	740.75	741.25	741.00	739.75	738.00	734.25	732.00	729.75	726.00	723.50	718.00	715.50	711.75	709.25	706.50	702.00	700.00	697.50	696.50	696.00	695.50	696.25	696.75	697.50	698.50	699.50	703.50	706.00	708.75	711.00	712.75	715.50	715.75	715.00	714.50	713.75	713.00	712.00	710.75	709.25	706.50	703.50	701.00	700.00	701.50	702.75	706.00	706.50	706.25	705.00	702.75	701.00	699.00	698.75	699.50	702.00	703.00	707.25	711.00	714.75	717.00	719.00	723.75	725.75	728.50	728.50	729.00	729.25	729.50	728.75	728.00	727.50	727.50	727.00	726.50	726.75	727.25	727.75	728.75	729.00	729.00	729.50	729.75	730.00	730.75	731.25	731.75	732.00	733.50	734.50	736.50	739.00	741.25	746.75	750.00	753.00	758.50	764.00	767.75	773.00	778.50	781.75	787.00	789.50	792.50	795.00	796.25	796.50	796.25	795.25	794.75	793.50	792.50	791.25	790.00	787.50	786.25	784.50	782.00	780.00	776.50	775.00	772.75	771.50	770.50	768.50	767.75	766.50	766.00	766.00	765.75	765.50	765.50	765.75	766.00	766.00	766.50	766.50	767.00	767.00	767.00	767.00	767.00	767.00	766.50	766.50	766.50	766.50	766.25	765.50	765.00	764.25	763.00	761.50	760.50	759.50	757.00	755.75	754.00	752.50	751.00	750.00	748.00	747.00	746.00	744.50	743.00	741.00	739.50	738.00	736.50	735.00	732.25	731.00	728.50	727.50	725.50	724.00	721.50	720.50	719.25	717.50	716.50	714.00	713.00	711.50	710.50	709.50	707.50	706.75	705.50	704.50	702.75	702.00	700.25	699.00	698.00	696.50	695.00	693.00	691.50	689.75	688.75	687.50	686.25
831.00	829.00	827.00	822.00	820.00	817.00	814.00	812.00	810.50	808.00	806.50	805.50	804.00	803.00	801.00	800.00	798.50	797.50	796.00	792.50	791.00	789.00	787.00	785.00	783.50	779.50	777.00	774.50	771.00	767.00	764.00	761.00	757.50	754.50	751.00	748.00	746.00	743.00	741.00	738.50	737.00	735.50	735.00	735.00	736.00	737.50	739.00	740.00	741.50	742.50	744.50	745.00	745.50	746.00	744.00	742.00	739.00	737.00	734.50	731.00	728.00	722.00	719.00	715.50	712.50	709.50	704.50	702.00	699.00	698.00	697.50	697.00	698.50	699.50	700.50	702.00	703.00	707.00	709.00	711.00	713.00	715.00	719.00	719.50	720.00	720.00	720.00	720.00	718.50	717.50	716.00	713.00	710.00	708.00	707.00	707.50	708.00	710.50	711.50	712.00	711.00	707.00	704.50	701.00	700.50	701.00	703.00	704.00	709.50	714.00	718.00	720.00	722.00	726.00	727.50	729.00	729.00	730.00	730.50	731.00	731.00	731.00	732.00	733.00	733.00	733.00	733.00	733.00	733.00	733.00	733.00	732.00	732.00	731.00	731.00	731.00	731.00	731.00	731.00	732.50	734.00	736.00	738.00	741.00	747.50	751.00	754.50	761.00	767.00	771.00	777.00	782.50	786.00	792.00	794.00	797.00	800.00	801.50	802.00	801.50	800.50	800.00	799.00	798.00	796.00	794.50	791.50	790.00	788.00	785.00	783.00	780.00	778.00	775.00	773.50	772.00	769.50	768.50	767.00	766.00	766.00	766.00	766.00	766.00	766.00	766.00	766.00	767.00	767.00	768.00	768.00	768.00	768.00	768.00	768.00	768.00	768.00	768.00	768.00	768.00	767.00	767.00	766.00	765.00	763.50	762.50	761.50	759.50	758.00	756.00	755.00	753.50	752.50	750.50	749.50	748.50	747.00	745.00	743.00	742.00	740.50	739.00	737.50	735.00	733.50	731.00	730.00	728.50	727.00	724.50	723.50	722.50	721.00	720.00	717.00	716.00	714.50	713.50	712.50	710.50	710.00	709.00	708.00	707.00	706.50	705.50	704.50	703.50	702.00	700.50	699.00	697.00	695.50	694.50	693.00	691.50
831.00	829.00	827.00	822.00	820.00	817.00	814.00	812.00	810.50	808.00	806.50	805.50	804.00	803.00	801.00	800.00	798.50	797.50	796.00	792.50	791.00	789.00	787.00	785.00	783.50	779.50	777.00	774.50	771.00	767.00	764.00	761.00	757.50	754.50	751.00	748.00	746.00	743.00	741.00	738.50	737.00	735.50	735.00	735.00	736.00	737.50	739.00	740.00	741.50	742.50	744.50	745.00	745.50	746.00	744.00	742.00	739.00	737.00	734.50	731.00	728.00	722.00	719.00	715.50	712.50	709.50	704.50	702.00	699.00	698.00	697.50	697.00	698.50	699.50	700.50	702.00	703.00	707.00	709.00	711.00	713.00	715.00	719.00	719.50	720.00	720.00	720.00	720.00	718.50	717.50	716.00	713.00	710.00	708.00	707.00	707.50	708.00	710.50	711.50	712.00	711.00	707.00	704.50	701.00	700.50	701.00	703.00	704.00	709.50	714.00	718.00	720.00	722.00	726.00	727.50	729.00	729.00	730.00	730.50	731.00	731.00	731.00	732.00	733.00	733.00	733.00	733.00	733.00	733.00	733.00	733.00	732.00	732.00	731.00	731.00	731.00	731.00	731.00	731.00	732.50	734.00	736.00	738.00	741.00	747.50	751.00	754.50	761.00	767.00	771.00	777.00	782.50	786.00	792.00	794.00	797.00	800.00	801.50	802.00	801.50	800.50	800.00	799.00	798.00	796.00	794.50	791.50	790.00	788.00	785.00	783.00	780.00	778.00	775.00	773.50	772.00	769.50	768.50	767.00	766.00	766.00	766.00	766.00	766.00	766.00	766.00	766.00	767.00	767.00	768.00	768.00	768.00	768.00	768.00	768.00	768.00	768.00	768.00	768.00	768.00	767.00	767.00	766.00	765.00	763.50	762.50	761.50	759.50	758.00	756.00	755.00	753.50	752.50	750.50	749.50	748.50	747.00	745.00	743.00	742.00	740.50	739.00	737.50	735.00	733.50	731.00	730.00	728.50	727.00	724.50	723.50	722.50	721.00	720.00	717.00	716.00	714.50	713.50	712.50	710.50	710.00	709.00	708.00	707.00	706.50	705.50	704.50	703.50	702.00	700.50	699.00	697.00	695.50	694.50	693.00	691.50
836.50	834.50	832.50	828.00	825.75	822.50	820.00	817.50	816.00	813.25	812.00	811.00	809.50	808.50	806.00	805.00	803.25	801.75	800.25	797.00	795.50	793.50	792.00	790.25	788.75	784.25	782.00	779.75	776.50	773.00	769.50	767.00	763.75	761.00	757.50	754.50	752.50	749.50	747.50	745.00	743.00	741.75	741.50	741.50	742.00	742.75	744.00	744.50	745.75	746.25	747.75	748.25	748.50	748.00	745.75	744.25	740.75	738.25	735.75	732.00	729.00	723.50	720.50	717.25	714.50	711.75	707.00	704.75	702.00	700.50	699.75	699.50	700.75	701.50	702.25	703.50	704.50	707.00	709.00	711.00	712.75	714.50	718.25	719.00	720.00	720.50	721.25	722.00	721.50	720.50	719.50	717.50	715.25	713.50	712.50	712.00	712.00	713.50	714.25	714.75	714.50	711.50	709.50	708.00	709.00	709.50	711.50	712.50	716.75	721.00	723.25	724.50	725.50	727.75	729.00	730.50	731.00	733.00	734.25	735.75	736.25	737.00	739.00	740.50	741.50	741.50	741.25	741.00	740.75	739.25	738.75	737.50	737.00	735.75	735.50	734.50	733.75	733.25	733.00	734.00	735.50	737.00	740.25	743.50	750.25	754.00	757.75	764.00	770.50	774.75	781.00	787.50	791.25	797.00	799.50	802.75	805.50	807.00	807.75	807.75	807.00	806.25	805.00	804.00	801.50	799.75	796.25	794.50	792.25	789.00	787.00	783.50	781.50	778.00	776.50	775.00	771.75	770.50	769.00	768.00	767.25	767.00	766.75	766.50	766.50	766.50	766.50	767.00	767.00	768.00	768.25	768.50	768.75	769.00	769.00	769.50	769.50	769.50	769.50	769.50	769.00	768.50	768.00	767.00	766.00	765.00	764.00	762.00	760.75	759.00	758.00	756.50	755.50	753.50	752.50	751.50	750.00	748.00	746.00	745.00	743.25	741.75	740.50	738.00	736.50	734.50	733.00	731.50	730.25	728.00	727.00	726.00	724.50	723.50	721.00	719.50	718.00	717.00	716.00	714.25	713.75	712.50	712.00	711.25	710.75	709.50	708.75	708.00	706.50	705.00	703.50	702.00	700.50	699.50	698.00	696.50
842.00	840.00	838.00	834.00	831.50	828.00	826.00	823.00	821.50	818.50	817.50	816.50	815.00	814.00	811.00	810.00	808.00	806.00	804.50	801.50	800.00	798.00	797.00	795.50	794.00	789.00	787.00	785.00	782.00	779.00	775.00	773.00	770.00	767.50	764.00	761.00	759.00	756.00	754.00	751.50	749.00	748.00	748.00	748.00	748.00	748.00	749.00	749.00	750.00	750.00	751.00	751.50	751.50	750.00	747.50	746.50	742.50	739.50	737.00	733.00	730.00	725.00	722.00	719.00	716.50	714.00	709.50	707.50	705.00	703.00	702.00	702.00	703.00	703.50	704.00	705.00	706.00	707.00	709.00	711.00	712.50	714.00	717.50	718.50	720.00	721.00	722.50	724.00	724.50	723.50	723.00	722.00	720.50	719.00	718.00	716.50	716.00	716.50	717.00	717.50	718.00	716.00	714.50	715.00	717.50	718.00	720.00	721.00	724.00	728.00	728.50	729.00	729.00	729.50	730.50	732.00	733.00	736.00	738.00	740.50	741.50	743.00	746.00	748.00	750.00	750.00	749.50	749.00	748.50	745.50	744.50	743.00	742.00	740.50	740.00	738.00	736.50	735.50	735.00	735.50	737.00	738.00	742.50	746.00	753.00	757.00	761.00	767.00	774.00	778.50	785.00	792.50	796.50	802.00	805.00	808.50	811.00	812.50	813.50	814.00	813.50	812.50	811.00	810.00	807.00	805.00	801.00	799.00	796.50	793.00	791.00	787.00	785.00	781.00	779.50	778.00	774.00	772.50	771.00	770.00	768.50	768.00	767.50	767.00	767.00	767.00	767.00	767.00	767.00	768.00	768.50	769.00	769.50	770.00	770.00	771.00	771.00	771.00	771.00	771.00	771.00	770.00	770.00	769.00	768.50	767.50	766.50	764.50	763.50	762.00	761.00	759.50	758.50	756.50	755.50	754.50	753.00	751.00	749.00	748.00	746.00	744.50	743.50	741.00	739.50	738.00	736.00	734.50	733.50	731.50	730.50	729.50	728.00	727.00	725.00	723.00	721.50	720.50	719.50	718.00	717.50	716.00	716.00	715.50	715.00	713.50	713.00	712.50	711.00	709.50	708.00	707.00	705.50	704.50	703.00	701.50
842.00	840.00	838.00	834.00	831.50	828.00	826.00	823.00	821.50	818.50	817.50	816.50	815.00	814.00	811.00	810.00	808.00	806.00	804.50	801.50	800.00	798.00	797.00	795.50	794.00	789.00	787.00	785.00	782.00	779.00	775.00	773.00	770.00	767.50	764.00	761.00	759.00	756.00	754.00	751.50	749.00	748.00	748.00	748.00	748.00	748.00	749.00	749.00	750.00	750.00	751.00	751.50	751.50	750.00	747.50	746.50	742.50	739.50	737.00	733.00	730.00	725.00	722.00	719.00	716.50	714.00	709.50	707.50	705.00	703.00	702.00	702.00	703.00	703.50	704.00	705.00	706.00	707.00	709.00	711.00	712.50	714.00	717.50	718.50	720.00	721.00	722.50	724.00	724.50	723.50	723.00	722.00	720.50	719.00	718.00	716.50	716.00	716.50	717.00	717.50	718.00	716.00	714.50	715.00	717.50	718.00	720.00	721.00	724.00	728.00	728.50	729.00	729.00	729.50	730.50	732.00	733.00	736.00	738.00	740.50	741.50	743.00	746.00	748.00	750.00	750.00	749.50	749.00	748.50	745.50	744.50	743.00	742.00	740.50	740.00	738.00	736.50	735.50	735.00	735.50	737.00	738.00	742.50	746.00	753.00	757.00	761.00	767.00	774.00	778.50	785.00	792.50	796.50	802.00	805.00	808.50	811.00	812.50	813.50	814.00	813.50	812.50	811.00	810.00	807.00	805.00	801.00	799.00	796.50	793.00	791.00	787.00	785.00	781.00	779.50	778.00	774.00	772.50	771.00	770.00	768.50	768.00	767.50	767.00	767.00	767.00	767.00	767.00	767.00	768.00	768.50	769.00	769.50	770.00	770.00	771.00	771.00	771.00	771.00	771.00	771.00	770.00	770.00	769.00	768.50	767.50	766.50	764.50	763.50	762.00	761.00	759.50	758.50	756.50	755.50	754.50	753.00	751.00	749.00	748.00	746.00	744.50	743.50	741.00	739.50	738.00	736.00	734.50	733.50	731.50	730.50	729.50	728.00	727.00	725.00	723.00	721.50	720.50	719.50	718.00	717.50	716.00	716.00	715.50	715.00	713.50	713.00	712.50	711.00	709.50	708.00	707.00	705.50	704.50	703.00	701.50
845.75	844.00	842.25	838.75	836.75	833.50	831.50	828.50	826.75	823.25	822.00	820.75	819.00	818.00	815.50	814.00	812.00	810.25	808.75	805.75	804.25	802.00	801.00	799.50	798.00	794.00	792.25	790.50	787.50	785.00	781.50	779.50	776.00	773.75	770.75	768.00	766.25	763.50	761.50	759.00	756.50	755.25	754.75	754.50	754.00	753.50	753.50	753.50	753.25	753.00	753.50	753.50	753.00	751.00	748.75	747.25	742.50	739.50	736.75	732.50	729.50	724.50	722.50	719.75	717.75	715.75	712.50	711.00	708.50	707.00	706.50	706.50	706.75	706.75	707.00	707.50	708.00	709.50	711.00	712.75	714.00	715.50	718.50	719.50	720.50	721.50	723.00	724.50	724.75	724.25	724.00	723.00	721.25	719.50	718.50	717.75	717.50	718.00	718.75	719.75	721.50	721.25	720.75	721.00	722.25	723.00	725.50	727.00	730.00	733.50	735.00	735.75	736.50	738.00	739.00	740.50	742.00	745.00	747.00	750.25	751.75	753.50	756.50	758.00	758.50	758.50	758.25	757.75	757.00	754.00	752.75	751.00	750.00	748.00	747.00	744.50	743.00	742.00	741.00	741.00	742.00	743.50	748.00	751.25	758.00	762.25	766.50	772.50	779.25	783.75	790.50	797.75	801.50	807.00	810.00	813.75	816.50	818.25	819.25	819.50	818.50	817.75	816.50	815.00	812.50	810.75	806.75	804.50	802.25	798.50	796.50	792.00	789.50	786.00	784.25	782.50	778.50	776.75	774.50	773.00	771.50	770.75	769.50	768.75	768.50	768.50	768.00	768.00	768.50	769.00	769.25	769.75	770.50	771.00	771.50	772.00	772.25	772.50	772.50	772.50	772.50	772.00	772.00	771.50	771.00	770.25	769.50	767.50	766.75	765.50	764.50	763.00	762.00	760.00	759.00	758.00	756.50	755.00	752.50	751.50	749.75	748.50	747.25	744.75	743.50	741.50	740.00	738.50	737.50	735.50	734.50	733.50	731.50	730.50	728.50	727.00	725.00	724.00	723.25	721.75	721.00	720.00	720.00	719.25	718.75	717.50	716.75	716.25	715.00	713.75	712.50	711.50	710.00	709.00	707.50	706.00
849.50	848.00	846.50	843.50	842.00	839.00	837.00	834.00	832.00	828.00	826.50	825.00	823.00	822.00	820.00	818.00	816.00	814.50	813.00	810.00	808.50	806.00	805.00	803.50	802.00	799.00	797.50	796.00	793.00	791.00	788.00	786.00	782.00	780.00	777.50	775.00	773.50	771.00	769.00	766.50	764.00	762.50	761.50	761.00	760.00	759.00	758.00	758.00	756.50	756.00	756.00	755.50	754.50	752.00	750.00	748.00	742.50	739.50	736.50	732.00	729.00	724.00	723.00	720.50	719.00	717.50	715.50	714.50	712.00	711.00	711.00	711.00	710.50	710.00	710.00	710.00	710.00	712.00	713.00	714.50	715.50	717.00	719.50	720.50	721.00	722.00	723.50	725.00	725.00	725.00	725.00	724.00	722.00	720.00	719.00	719.00	719.00	719.50	720.50	722.00	725.00	726.50	727.00	727.00	727.00	728.00	731.00	733.00	736.00	739.00	741.50	742.50	744.00	746.50	747.50	749.00	751.00	754.00	756.00	760.00	762.00	764.00	767.00	768.00	767.00	767.00	767.00	766.50	765.50	762.50	761.00	759.00	758.00	755.50	754.00	751.00	749.50	748.50	747.00	746.50	747.00	749.00	753.50	756.50	763.00	767.50	772.00	778.00	784.50	789.00	796.00	803.00	806.50	812.00	815.00	819.00	822.00	824.00	825.00	825.00	823.50	823.00	822.00	820.00	818.00	816.50	812.50	810.00	808.00	804.00	802.00	797.00	794.00	791.00	789.00	787.00	783.00	781.00	778.00	776.00	774.50	773.50	771.50	770.50	770.00	770.00	769.00	769.00	770.00	770.00	770.00	770.50	771.50	772.00	773.00	773.00	773.50	774.00	774.00	774.00	774.00	774.00	774.00	774.00	773.50	773.00	772.50	770.50	770.00	769.00	768.00	766.50	765.50	763.50	762.50	761.50	760.00	759.00	756.00	755.00	753.50	752.50	751.00	748.50	747.50	745.00	744.00	742.50	741.50	739.50	738.50	737.50	735.00	734.00	732.00	731.00	728.50	727.50	727.00	725.50	724.50	724.00	724.00	723.00	722.50	721.50	720.50	720.00	719.00	718.00	717.00	716.00	714.50	713.50	712.00	710.50
849.50	848.00	846.50	843.50	842.00	839.00	837.00	834.00	832.00	828.00	826.50	825.00	823.00	822.00	820.00	818.00	816.00	814.50	813.00	810.00	808.50	806.00	805.00	803.50	802.00	799.00	797.50	796.00	793.00	791.00	788.00	786.00	782.00	780.00	777.50	775.00	773.50	771.00	769.00	766.50	764.00	762.50	761.50	761.00	760.00	759.00	758.00	758.00	756.50	756.00	756.00	755.50	754.50	752.00	750.00	748.00	742.50	739.50	736.50	732.00	729.00	724.00	723.00	720.50	719.00	717.50	715.50	714.50	712.00	711.00	711.00	711.00	710.50	710.00	710.00	710.00	710.00	712.00	713.00	714.50	715.50	717.00	719.50	720.50	721.00	722.00	723.50	725.00	725.00	725.00	725.00	724.00	722.00	720.00	719.00	719.00	719.00	719.50	720.50	722.00	725.00	726.50	727.00	727.00	727.00	728.00	731.00	733.00	736.00	739.00	741.50	742.50	744.00	746.50	747.50	749.00	751.00	754.00	756.00	760.00	762.00	764.00	767.00	768.00	767.00	767.00	767.00	766.50	765.50	762.50	761.00	759.00	758.00	755.50	754.00	751.00	749.50	748.50	747.00	746.50	747.00	749.00	753.50	756.50	763.00	767.50	772.00	778.00	784.50	789.00	796.00	803.00	806.50	812.00	815.00	819.00	822.00	824.00	825.00	825.00	823.50	823.00	822.00	820.00	818.00	816.50	812.50	810.00	808.00	804.00	802.00	797.00	794.00	791.00	789.00	787.00	783.00	781.00	778.00	776.00	774.50	773.50	771.50	770.50	770.00	770.00	769.00	769.00	770.00	770.00	770.00	770.50	771.50	772.00	773.00	773.00	773.50	774.00	774.00	774.00	774.00	774.00	774.00	774.00	773.50	773.00	772.50	770.50	770.00	769.00	768.00	766.50	765.50	763.50	762.50	761.50	760.00	759.00	756.00	755.00	753.50	752.50	751.00	748.50	747.50	745.00	744.00	742.50	741.50	739.50	738.50	737.50	735.00	734.00	732.00	731.00	728.50	727.50	727.00	725.50	724.50	724.00	724.00	723.00	722.50	721.50	720.50	720.00	719.00	718.00	717.00	716.00	714.50	713.50	712.00	710.50
850.50	849.25	848.25	845.75	844.00	841.00	839.50	836.50	834.75	831.25	830.00	828.50	826.50	825.50	823.00	821.50	819.50	818.00	816.75	814.25	812.75	810.50	809.50	807.75	806.25	803.75	802.25	800.75	798.50	796.25	793.50	792.00	788.50	786.75	784.50	782.00	780.50	778.00	776.00	773.75	771.00	769.00	768.00	767.25	766.00	764.75	763.50	763.00	761.50	760.75	759.75	758.75	757.50	755.00	752.25	750.00	744.75	741.75	738.50	733.50	730.50	726.00	725.00	722.75	721.25	720.25	719.25	718.50	717.00	716.50	716.50	716.25	715.75	715.50	715.25	715.50	715.50	717.50	718.00	719.25	720.00	721.25	722.75	723.25	723.50	724.50	725.25	726.00	726.00	726.00	726.00	725.50	724.00	722.50	722.00	721.50	721.50	722.50	723.75	725.25	728.00	729.75	730.75	731.50	732.25	733.25	736.00	737.50	741.25	745.00	748.50	750.50	752.50	756.00	757.50	759.50	761.00	764.00	766.25	771.25	773.50	775.50	777.50	777.50	776.50	776.50	776.50	776.25	775.75	773.50	772.00	769.50	768.00	765.50	764.00	760.50	759.00	758.00	756.50	756.25	757.00	758.50	762.00	764.50	771.25	775.00	779.00	785.00	791.50	796.00	802.50	808.25	811.50	817.00	819.50	823.00	826.00	828.00	828.25	828.00	827.25	826.75	825.50	824.00	822.25	821.00	817.75	815.50	813.25	809.50	807.00	802.00	799.50	796.50	794.50	792.25	788.00	786.00	783.00	781.00	778.75	777.25	774.50	773.50	772.75	772.00	771.50	771.00	771.50	771.50	771.75	772.25	773.00	773.50	774.50	774.50	775.00	775.50	775.50	775.75	776.00	776.00	776.00	776.00	775.75	775.50	775.25	773.75	773.50	772.50	772.00	770.75	770.00	768.00	767.00	766.00	764.50	763.00	760.50	759.50	758.00	757.00	755.75	753.25	752.00	750.00	749.00	747.50	746.50	744.00	743.00	741.75	739.50	738.50	736.00	735.00	733.00	732.00	731.25	729.50	728.75	728.00	728.00	726.75	726.00	725.00	724.00	723.50	722.50	721.50	720.50	719.50	718.00	717.00	715.50	714.00
851.50	850.50	850.00	848.00	846.00	843.00	842.00	839.00	837.50	834.50	833.50	832.00	830.00	829.00	826.00	825.00	823.00	821.50	820.50	818.50	817.00	815.00	814.00	812.00	810.50	808.50	807.00	805.50	804.00	801.50	799.00	798.00	795.00	793.50	791.50	789.00	787.50	785.00	783.00	781.00	778.00	775.50	774.50	773.50	772.00	770.50	769.00	768.00	766.50	765.50	763.50	762.00	760.50	758.00	754.50	752.00	747.00	744.00	740.50	735.00	732.00	728.00	727.00	725.00	723.50	723.00	723.00	722.50	722.00	722.00	722.00	721.50	721.00	721.00	720.50	721.00	721.00	723.00	723.00	724.00	724.50	725.50	726.00	726.00	726.00	727.00	727.00	727.00	727.00	727.00	727.00	727.00	726.00	725.00	725.00	724.00	724.00	725.50	727.00	728.50	731.00	733.00	734.50	736.00	737.50	738.50	741.00	742.00	746.50	751.00	755.50	758.50	761.00	765.50	767.50	770.00	771.00	774.00	776.50	782.50	785.00	787.00	788.00	787.00	786.00	786.00	786.00	786.00	786.00	784.50	783.00	780.00	778.00	775.50	774.00	770.00	768.50	767.50	766.00	766.00	767.00	768.00	770.50	772.50	779.50	782.50	786.00	792.00	798.50	803.00	809.00	813.50	816.50	822.00	824.00	827.00	830.00	832.00	831.50	831.00	831.00	830.50	829.00	828.00	826.50	825.50	823.00	821.00	818.50	815.00	812.00	807.00	805.00	802.00	800.00	797.50	793.00	791.00	788.00	786.00	783.00	781.00	777.50	776.50	775.50	774.00	774.00	773.00	773.00	773.00	773.50	774.00	774.50	775.00	776.00	776.00	776.50	777.00	777.00	777.50	778.00	778.00	778.00	778.00	778.00	778.00	778.00	777.00	777.00	776.00	776.00	775.00	774.50	772.50	771.50	770.50	769.00	767.00	765.00	764.00	762.50	761.50	760.50	758.00	756.50	755.00	754.00	752.50	751.50	748.50	747.50	746.00	744.00	743.00	740.00	739.00	737.50	736.50	735.50	733.50	733.00	732.00	732.00	730.50	729.50	728.50	727.50	727.00	726.00	725.00	724.00	723.00	721.50	720.50	719.00	717.50
851.50	850.50	850.00	848.00	846.00	843.00	842.00	839.00	837.50	834.50	833.50	832.00	830.00	829.00	826.00	825.00	823.00	821.50	820.50	818.50	817.00	815.00	814.00	812.00	810.50	808.50	807.00	805.50	804.00	801.50	799.00	798.00	795.00	793.50	791.50	789.00	787.50	785.00	783.00	781.00	778.00	775.50	774.50	773.50	772.00	770.50	769.00	768.00	766.50	765.50	763.50	762.00	760.50	758.00	754.50	752.00	747.00	744.00	740.50	735.00	732.00	728.00	727.00	725.00	723.50	723.00	723.00	722.50	722.00	722.00	722.00	721.50	721.00	721.00	720.50	721.00	721.00	723.00	723.00	724.00	724.50	725.50	726.00	726.00	726.00	727.00	727.00	727.00	727.00	727.00	727.00	727.00	726.00	725.00	725.00	724.00	724.00	725.50	727.00	728.50	731.00	733.00	734.50	736.00	737.50	738.50	741.00	742.00	746.50	751.00	755.50	758.50	761.00	765.50	767.50	770.00	771.00	774.00	776.50	782.50	785.00	787.00	788.00	787.00	786.00	786.00	786.00	786.00	786.00	784.50	783.00	780.00	778.00	775.50	774.00	770.00	768.50	767.50	766.00	766.00	767.00	768.00	770.50	772.50	779.50	782.50	786.00	792.00	798.50	803.00	809.00	813.50	816.50	822.00	824.00	827.00	830.00	832.00	831.50	831.00	831.00	830.50	829.00	828.00	826.50	825.50	823.00	821.00	818.50	815.00	812.00	807.00	805.00	802.00	800.00	797.50	793.00	791.00	788.00	786.00	783.00	781.00	777.50	776.50	775.50	774.00	774.00	773.00	773.00	773.00	773.50	774.00	774.50	775.00	776.00	776.00	776.50	777.00	777.00	777.50	778.00	778.00	778.00	778.00	778.00	778.00	778.00	777.00	777.00	776.00	776.00	775.00	774.50	772.50	771.50	770.50	769.00	767.00	765.00	764.00	762.50	761.50	760.50	758.00	756.50	755.00	754.00	752.50	751.50	748.50	747.50	746.00	744.00	743.00	740.00	739.00	737.50	736.50	735.50	733.50	733.00	732.00	732.00	730.50	729.50	728.50	727.50	727.00	726.00	725.00	724.00	723.00	721.50	720.50	719.00	717.50
850.50	849.75	849.25	847.75	846.25	844.00	843.00	840.75	839.50	837.00	835.75	834.25	832.50	831.50	829.00	827.50	826.00	825.00	824.00	822.00	820.50	818.50	817.50	815.75	814.50	812.50	811.25	810.00	808.50	806.25	804.00	803.00	800.25	799.00	797.00	794.75	793.50	791.50	790.00	787.75	785.00	782.75	781.50	780.25	778.50	776.50	775.00	774.00	772.50	771.25	768.75	767.25	765.75	762.50	759.00	756.50	751.50	748.75	745.50	740.00	738.00	734.00	733.00	730.75	729.75	729.25	729.00	728.75	728.50	728.50	728.50	728.00	727.25	727.00	727.00	728.00	728.50	730.00	730.00	730.50	730.75	731.25	731.00	731.00	730.50	731.00	730.50	730.00	730.00	730.00	730.00	730.00	729.50	728.50	728.50	728.00	728.25	730.00	731.25	732.75	735.50	738.00	739.50	741.50	743.25	744.50	747.00	749.00	753.00	757.50	762.75	766.00	769.00	774.25	776.00	778.00	779.00	781.50	783.75	789.00	791.50	793.25	795.00	795.00	795.00	795.50	795.75	796.00	795.75	794.00	792.75	790.50	788.50	786.25	784.75	781.75	780.50	779.50	778.00	778.50	779.00	779.50	781.75	783.75	789.25	792.00	795.00	800.50	806.25	810.00	814.50	818.75	821.50	825.50	827.50	830.00	832.50	833.50	833.25	833.00	833.00	832.75	831.50	831.00	829.50	828.50	826.25	824.75	822.75	819.50	817.00	812.50	810.50	807.00	805.00	802.75	798.25	796.00	792.50	790.50	787.00	785.00	781.25	779.75	778.50	777.00	776.50	775.00	775.00	775.00	775.50	776.00	776.50	777.00	777.50	778.00	778.25	778.50	778.50	778.75	779.00	779.00	779.25	779.50	779.75	780.00	780.00	780.00	780.00	779.50	779.50	779.00	778.50	777.00	776.00	775.25	774.00	772.00	770.00	769.00	767.50	766.50	765.50	763.25	762.00	760.50	759.50	757.50	756.50	753.75	752.50	751.25	749.00	747.50	745.00	743.50	742.00	741.00	740.00	738.25	737.75	736.50	736.00	734.50	733.50	732.00	731.00	730.25	729.50	728.25	727.00	726.00	724.50	723.50	722.00	720.50
849.50	849.00	848.50	847.50	846.50	845.00	844.00	842.50	841.50	839.50	838.00	836.50	835.00	834.00	832.00	830.00	829.00	828.50	827.50	825.50	824.00	822.00	821.00	819.50	818.50	816.50	815.50	814.50	813.00	811.00	809.00	808.00	805.50	804.50	802.50	800.50	799.50	798.00	797.00	794.50	792.00	790.00	788.50	787.00	785.00	782.50	781.00	780.00	778.50	777.00	774.00	772.50	771.00	767.00	763.50	761.00	756.00	753.50	750.50	745.00	744.00	740.00	739.00	736.50	736.00	735.50	735.00	735.00	735.00	735.00	735.00	734.50	733.50	733.00	733.50	735.00	736.00	737.00	737.00	737.00	737.00	737.00	736.00	736.00	735.00	735.00	734.00	733.00	733.00	733.00	733.00	733.00	733.00	732.00	732.00	732.00	732.50	734.50	735.50	737.00	740.00	743.00	744.50	747.00	749.00	750.50	753.00	756.00	759.50	764.00	770.00	773.50	777.00	783.00	784.50	786.00	787.00	789.00	791.00	795.50	798.00	799.50	802.00	803.00	804.00	805.00	805.50	806.00	805.50	803.50	802.50	801.00	799.00	797.00	795.50	793.50	792.50	791.50	790.00	791.00	791.00	791.00	793.00	795.00	799.00	801.50	804.00	809.00	814.00	817.00	820.00	824.00	826.50	829.00	831.00	833.00	835.00	835.00	835.00	835.00	835.00	835.00	834.00	834.00	832.50	831.50	829.50	828.50	827.00	824.00	822.00	818.00	816.00	812.00	810.00	808.00	803.50	801.00	797.00	795.00	791.00	789.00	785.00	783.00	781.50	780.00	779.00	777.00	777.00	777.00	777.50	778.00	778.50	779.00	779.00	780.00	780.00	780.00	780.00	780.00	780.00	780.00	780.50	781.00	781.50	782.00	782.00	783.00	783.00	783.00	783.00	783.00	782.50	781.50	780.50	780.00	779.00	777.00	775.00	774.00	772.50	771.50	770.50	768.50	767.50	766.00	765.00	762.50	761.50	759.00	757.50	756.50	754.00	752.00	750.00	748.00	746.50	745.50	744.50	743.00	742.50	741.00	740.00	738.50	737.50	735.50	734.50	733.50	733.00	731.50	730.00	729.00	727.50	726.50	725.00	723.50
849.50	849.00	848.50	847.50	846.50	845.00	844.00	842.50	841.50	839.50	838.00	836.50	835.00	834.00	832.00	830.00	829.00	828.50	827.50	825.50	824.00	822.00	821.00	819.50	818.50	816.50	815.50	814.50	813.00	811.00	809.00	808.00	805.50	804.50	802.50	800.50	799.50	798.00	797.00	794.50	792.00	790.00	788.50	787.00	785.00	782.50	781.00	780.00	778.50	777.00	774.00	772.50	771.00	767.00	763.50	761.00	756.00	753.50	750.50	745.00	744.00	740.00	739.00	736.50	736.00	735.50	735.00	735.00	735.00	735.00	735.00	734.50	733.50	733.00	733.50	735.00	736.00	737.00	737.00	737.00	737.00	737.00	736.00	736.00	735.00	735.00	734.00	733.00	733.00	733.00	733.00	733.00	733.00	732.00	732.00	732.00	732.50	734.50	735.50	737.00	740.00	743.00	744.50	747.00	749.00	750.50	753.00	756.00	759.50	764.00	770.00	773.50	777.00	783.00	784.50	786.00	787.00	789.00	791.00	795.50	798.00	799.50	802.00	803.00	804.00	805.00	805.50	806.00	805.50	803.50	802.50	801.00	799.00	797.00	795.50	793.50	792.50	791.50	790.00	791.00	791.00	791.00	793.00	795.00	799.00	801.50	804.00	809.00	814.00	817.00	820.00	824.00	826.50	829.00	831.00	833.00	835.00	835.00	835.00	835.00	835.00	835.00	834.00	834.00	832.50	831.50	829.50	828.50	827.00	824.00	822.00	818.00	816.00	812.00	810.00	808.00	803.50	801.00	797.00	795.00	791.00	789.00	785.00	783.00	781.50	780.00	779.00	777.00	777.00	777.00	777.50	778.00	778.50	779.00	779.00	780.00	780.00	780.00	780.00	780.00	780.00	780.00	780.50	781.00	781.50	782.00	782.00	783.00	783.00	783.00	783.00	783.00	782.50	781.50	780.50	780.00	779.00	777.00	775.00	774.00	772.50	771.50	770.50	768.50	767.50	766.00	765.00	762.50	761.50	759.00	757.50	756.50	754.00	752.00	750.00	748.00	746.50	745.50	744.50	743.00	742.50	741.00	740.00	738.50	737.50	735.50	734.50	733.50	733.00	731.50	730.00	729.00	727.50	726.50	725.00	723.50
848.75	848.50	848.00	847.25	846.75	846.00	845.50	844.25	843.50	841.50	840.00	838.50	837.00	836.00	834.00	832.50	831.50	831.00	830.00	828.00	826.75	825.00	824.00	823.00	822.00	820.00	819.25	818.50	817.00	815.75	814.00	813.00	811.00	810.00	808.25	806.50	805.50	804.00	803.00	801.00	799.00	797.00	795.50	794.00	792.00	789.25	787.50	786.00	784.25	782.75	780.00	778.25	776.50	772.50	768.75	766.75	762.75	760.75	758.25	754.00	752.50	748.50	747.50	745.50	744.75	744.00	743.50	743.50	743.00	743.00	742.75	742.25	742.25	742.00	742.25	743.00	744.00	744.50	744.00	744.00	743.75	743.25	742.00	741.75	741.00	740.50	739.50	738.50	738.00	737.75	737.50	737.50	737.50	737.00	737.00	737.75	738.50	740.50	741.50	743.00	745.50	748.50	750.25	752.50	755.00	756.75	760.00	762.50	766.00	770.50	776.25	779.75	783.25	789.25	791.25	794.00	795.50	797.50	799.25	802.50	804.50	806.00	808.50	809.50	811.00	812.00	812.75	813.00	812.75	811.50	810.75	809.50	808.50	806.75	805.75	804.50	803.75	803.00	802.50	803.00	803.00	803.50	805.25	806.75	809.75	811.75	814.00	818.00	821.75	824.00	826.50	829.50	831.00	832.50	834.00	835.50	836.50	837.00	837.00	837.00	836.50	836.50	836.00	836.00	835.00	834.25	832.50	831.50	830.25	828.00	826.00	822.50	820.50	817.00	814.75	812.50	808.00	805.25	801.00	798.50	794.50	792.50	788.50	786.50	785.00	783.00	782.00	780.00	780.00	780.00	780.25	780.50	781.00	781.50	781.50	782.00	782.00	782.00	781.75	781.50	781.50	781.50	782.00	782.50	783.25	783.75	784.25	785.25	785.50	786.00	786.00	786.50	786.25	785.50	784.75	784.25	783.00	781.50	779.50	778.50	777.00	776.00	775.00	773.00	772.00	771.00	770.00	767.50	766.50	764.00	762.50	761.50	759.50	757.50	755.50	753.50	751.75	750.50	749.50	748.00	747.50	746.00	745.00	743.50	742.50	740.00	739.00	738.00	736.50	735.00	733.50	732.50	731.00	730.00	728.50	727.25
848.00	848.00	847.50	847.00	847.00	847.00	847.00	846.00	845.50	843.50	842.00	840.50	839.00	838.00	836.00	835.00	834.00	833.50	832.50	830.50	829.50	828.00	827.00	826.50	825.50	823.50	823.00	822.50	821.00	820.50	819.00	818.00	816.50	815.50	814.00	812.50	811.50	810.00	809.00	807.50	806.00	804.00	802.50	801.00	799.00	796.00	794.00	792.00	790.00	788.50	786.00	784.00	782.00	778.00	774.00	772.50	769.50	768.00	766.00	763.00	761.00	757.00	756.00	754.50	753.50	752.50	752.00	752.00	751.00	751.00	750.50	750.00	751.00	751.00	751.00	751.00	752.00	752.00	751.00	751.00	750.50	749.50	748.00	747.50	747.00	746.00	745.00	744.00	743.00	742.50	742.00	742.00	742.00	742.00	742.00	743.50	744.50	746.50	747.50	749.00	751.00	754.00	756.00	758.00	761.00	763.00	767.00	769.00	772.50	777.00	782.50	786.00	789.50	795.50	798.00	802.00	804.00	806.00	807.50	809.50	811.00	812.50	815.00	816.00	818.00	819.00	820.00	820.00	820.00	819.50	819.00	818.00	818.00	816.50	816.00	815.50	815.00	814.50	815.00	815.00	815.00	816.00	817.50	818.50	820.50	822.00	824.00	827.00	829.50	831.00	833.00	835.00	835.50	836.00	837.00	838.00	838.00	839.00	839.00	839.00	838.00	838.00	838.00	838.00	837.50	837.00	835.50	834.50	833.50	832.00	830.00	827.00	825.00	822.00	819.50	817.00	812.50	809.50	805.00	802.00	798.00	796.00	792.00	790.00	788.50	786.00	785.00	783.00	783.00	783.00	783.00	783.00	783.50	784.00	784.00	784.00	784.00	784.00	783.50	783.00	783.00	783.00	783.50	784.00	785.00	785.50	786.50	787.50	788.00	789.00	789.00	790.00	790.00	789.50	789.00	788.50	787.00	786.00	784.00	783.00	781.50	780.50	779.50	777.50	776.50	776.00	775.00	772.50	771.50	769.00	767.50	766.50	765.00	763.00	761.00	759.00	757.00	755.50	754.50	753.00	752.50	751.00	750.00	748.50	747.50	744.50	743.50	742.50	740.00	738.50	737.00	736.00	734.50	733.50	732.00	731.00
848.00	848.00	847.50	847.00	847.00	847.00	847.00	846.00	845.50	843.50	842.00	840.50	839.00	838.00	836.00	835.00	834.00	833.50	832.50	830.50	829.50	828.00	827.00	826.50	825.50	823.50	823.00	822.50	821.00	820.50	819.00	818.00	816.50	815.50	814.00	812.50	811.50	810.00	809.00	807.50	806.00	804.00	802.50	801.00	799.00	796.00	794.00	792.00	790.00	788.50	786.00	784.00	782.00	778.00	774.00	772.50	769.50	768.00	766.00	763.00	761.00	757.00	756.00	754.50	753.50	752.50	752.00	752.00	751.00	751.00	750.50	750.00	751.00	751.00	751.00	751.00	752.00	752.00	751.00	751.00	750.50	749.50	748.00	747.50	747.00	746.00	745.00	744.00	743.00	742.50	742.00	742.00	742.00	742.00	742.00	743.50	744.50	746.50	747.50	749.00	751.00	754.00	756.00	758.00	761.00	763.00	767.00	769.00	772.50	777.00	782.50	786.00	789.50	795.50	798.00	802.00	804.00	806.00	807.50	809.50	811.00	812.50	815.00	816.00	818.00	819.00	820.00	820.00	820.00	819.50	819.00	818.00	818.00	816.50	816.00	815.50	815.00	814.50	815.00	815.00	815.00	816.00	817.50	818.50	820.50	822.00	824.00	827.00	829.50	831.00	833.00	835.00	835.50	836.00	837.00	838.00	838.00	839.00	839.00	839.00	838.00	838.00	838.00	838.00	837.50	837.00	835.50	834.50	833.50	832.00	830.00	827.00	825.00	822.00	819.50	817.00	812.50	809.50	805.00	802.00	798.00	796.00	792.00	790.00	788.50	786.00	785.00	783.00	783.00	783.00	783.00	783.00	783.50	784.00	784.00	784.00	784.00	784.00	783.50	783.00	783.00	783.00	783.50	784.00	785.00	785.50	786.50	787.50	788.00	789.00	789.00	790.00	790.00	789.50	789.00	788.50	787.00	786.00	784.00	783.00	781.50	780.50	779.50	777.50	776.50	776.00	775.00	772.50	771.50	769.00	767.50	766.50	765.00	763.00	761.00	759.00	757.00	755.50	754.50	753.00	752.50	751.00	750.00	748.50	747.50	744.50	743.50	742.50	740.00	738.50	737.00	736.00	734.50	733.50	732.00	731.00
848.00	848.00	847.50	847.00	847.00	847.00	847.00	846.00	845.50	843.50	842.00	840.50	839.00	838.00	836.00	835.00	834.00	833.50	832.50	830.50	829.50	828.00	827.00	826.50	825.50	823.50	823.00	822.50	821.00	820.50	819.00	818.00	816.50	815.50	814.00	812.50	811.50	810.00	809.00	807.50	806.00	804.00	802.50	801.00	799.00	796.00	794.00	792.00	790.00	788.50	786.00	784.00	782.00	778.00	774.00	772.50	769.50	768.00	766.00	763.00	761.00	757.00	756.00	754.50	753.50	752.50	752.00	752.00	751.00	751.00	750.50	750.00	751.00	751.00	751.00	751.00	752.00	752.00	751.00	751.00	750.50	749.50	748.00	747.50	747.00	746.00	745.00	744.00	743.00	742.50	742.00	742.00	742.00	742.00	742.00	743.50	744.50	746.50	747.50	749.00	751.00	754.00	756.00	758.00	761.00	763.00	767.00	769.00	772.50	777.00	782.50	786.00	789.50	795.50	798.00	802.00	804.00	806.00	807.50	809.50	811.00	812.50	815.00	816.00	818.00	819.00	820.00	820.00	820.00	819.50	819.00	818.00	818.00	816.50	816.00	815.50	815.00	814.50	815.00	815.00	815.00	816.00	817.50	818.50	820.50	822.00	824.00	827.00	829.50	831.00	833.00	835.00	835.50	836.00	837.00	838.00	838.00	839.00	839.00	839.00	838.00	838.00	838.00	838.00	837.50	837.00	835.50	834.50	833.50	832.00	830.00	827.00	825.00	822.00	819.50	817.00	812.50	809.50	805.00	802.00	798.00	796.00	792.00	790.00	788.50	786.00	785.00	783.00	783.00	783.00	783.00	783.00	783.50	784.00	784.00	784.00	784.00	784.00	783.50	783.00	783.00	783.00	783.50	784.00	785.00	785.50	786.50	787.50	788.00	789.00	789.00	790.00	790.00	789.50	789.00	788.50	787.00	786.00	784.00	783.00	781.50	780.50	779.50	777.50	776.50	776.00	775.00	772.50	771.50	769.00	767.50	766.50	765.00	763.00	761.00	759.00	757.00	755.50	754.50	753.00	752.50	751.00	750.00	748.50	747.50	744.50	743.50	742.50	740.00	738.50	737.00	736.00	734.50	733.50	732.00	731.00
847.00	847.50	848.50	849.50	850.00	850.00	851.00	850.00	849.50	848.00	847.50	846.50	845.00	844.00	842.00	841.00	839.50	839.00	838.50	837.50	836.50	836.00	835.00	834.50	834.00	832.50	832.00	831.50	830.00	829.50	829.00	828.00	826.50	825.50	823.50	822.00	821.50	820.00	819.00	817.50	816.00	814.50	813.50	812.50	810.00	807.50	805.00	804.00	802.00	800.50	798.50	797.50	796.50	794.00	791.50	790.00	787.00	785.50	784.00	782.00	780.00	778.00	777.00	775.00	774.00	773.50	773.00	772.50	771.00	771.00	769.50	768.50	768.00	768.00	768.00	768.00	768.00	768.00	767.00	766.00	765.50	764.50	763.00	762.50	762.00	761.00	759.50	757.00	755.00	754.00	754.50	755.00	755.00	756.00	756.00	757.50	758.00	760.50	762.00	763.50	765.00	767.50	769.00	771.00	774.00	776.00	780.00	782.00	785.50	790.00	794.00	796.50	799.50	804.50	807.00	810.00	812.00	815.00	816.50	819.50	821.00	822.50	824.00	825.00	828.00	828.00	829.50	830.00	830.50	831.00	831.00	831.00	831.00	832.00	832.50	833.00	833.00	833.50	835.00	835.50	837.00	838.00	840.00	841.00	842.50	843.00	843.50	845.00	845.00	845.50	846.00	845.50	845.00	845.00	844.00	843.50	843.00	842.00	842.00	842.00	842.00	842.00	842.00	841.00	841.00	841.00	839.50	839.00	838.50	837.00	836.00	833.00	831.00	828.00	826.00	824.00	819.00	816.50	812.00	810.00	806.00	804.00	799.50	798.00	796.00	794.00	792.00	791.00	791.00	790.00	790.00	790.00	790.50	791.00	790.00	790.00	790.00	789.50	788.50	788.00	788.00	788.00	788.00	788.00	789.00	789.50	790.00	791.00	791.50	793.00	794.00	794.00	794.00	794.00	794.00	793.50	793.00	792.00	791.00	790.00	789.50	788.50	787.50	786.50	785.50	784.00	784.00	782.50	781.50	779.50	778.50	777.50	776.00	775.00	773.00	772.00	770.00	768.50	767.50	765.50	765.00	764.00	763.00	761.00	759.00	756.00	754.00	752.00	748.00	745.00	743.00	743.00	741.50	741.00	741.00	741.00
847.00	847.50	848.50	849.50	850.00	850.00	851.00	850.00	849.50	848.00	847.50	846.50	845.00	844.00	842.00	841.00	839.50	839.00	838.50	837.50	836.50	836.00	835.00	834.50	834.00	832.50	832.00	831.50	830.00	829.50	829.00	828.00	826.50	825.50	823.50	822.00	821.50	820.00	819.00	817.50	816.00	814.50	813.50	812.50	810.00	807.50	805.00	804.00	802.00	800.50	798.50	797.50	796.50	794.00	791.50	790.00	787.00	785.50	784.00	782.00	780.00	778.00	777.00	775.00	774.00	773.50	773.00	772.50	771.00	771.00	769.50	768.50	768.00	768.00	768.00	768.00	768.00	768.00	767.00	766.00	765.50	764.50	763.00	762.50	762.00	761.00	759.50	757.00	755.00	754.00	754.50	755.00	755.00	756.00	756.00	757.50	758.00	760.50	762.00	763.50	765.00	767.50	769.00	771.00	774.00	776.00	780.00	782.00	785.50	790.00	794.00	796.50	799.50	804.50	807.00	810.00	812.00	815.00	816.50	819.50	821.00	822.50	824.00	825.00	828.00	828.00	829.50	830.00	830.50	831.00	831.00	831.00	831.00	832.00	832.50	833.00	833.00	833.50	835.00	835.50	837.00	838.00	840.00	841.00	842.50	843.00	843.50	845.00	845.00	845.50	846.00	845.50	845.00	845.00	844.00	843.50	843.00	842.00	842.00	842.00	842.00	842.00	842.00	841.00	841.00	841.00	839.50	839.00	838.50	837.00	836.00	833.00	831.00	828.00	826.00	824.00	819.00	816.50	812.00	810.00	806.00	804.00	799.50	798.00	796.00	794.00	792.00	791.00	791.00	790.00	790.00	790.00	790.50	791.00	790.00	790.00	790.00	789.50	788.50	788.00	788.00	788.00	788.00	788.00	789.00	789.50	790.00	791.00	791.50	793.00	794.00	794.00	794.00	794.00	794.00	793.50	793.00	792.00	791.00	790.00	789.50	788.50	787.50	786.50	785.50	784.00	784.00	782.50	781.50	779.50	778.50	777.50	776.00	775.00	773.00	772.00	770.00	768.50	767.50	765.50	765.00	764.00	763.00	761.00	759.00	756.00	754.00	752.00	748.00	745.00	743.00	743.00	741.50	741.00	741.00	741.00
847.00	847.50	848.50	849.50	850.00	850.00	851.00	850.00	849.50	848.00	847.50	846.50	845.00	844.00	842.00	841.00	839.50	839.00	838.50	837.50	836.50	836.00	835.00	834.50	834.00	832.50	832.00	831.50	830.00	829.50	829.00	828.00	826.50	825.50	823.50	822.00	821.50	820.00	819.00	817.50	816.00	814.50	813.50	812.50	810.00	807.50	805.00	804.00	802.00	800.50	798.50	797.50	796.50	794.00	791.50	790.00	787.00	785.50	784.00	782.00	780.00	778.00	777.00	775.00	774.00	773.50	773.00	772.50	771.00	771.00	769.50	768.50	768.00	768.00	768.00	768.00	768.00	768.00	767.00	766.00	765.50	764.50	763.00	762.50	762.00	761.00	759.50	757.00	755.00	754.00	754.50	755.00	755.00	756.00	756.00	757.50	758.00	760.50	762.00	763.50	765.00	767.50	769.00	771.00	774.00	776.00	780.00	782.00	785.50	790.00	794.00	796.50	799.50	804.50	807.00	810.00	812.00	815.00	816.50	819.50	821.00	822.50	824.00	825.00	828.00	828.00	829.50	830.00	830.50	831.00	831.00	831.00	831.00	832.00	832.50	833.00	833.00	833.50	835.00	835.50	837.00	838.00	840.00	841.00	842.50	843.00	843.50	845.00	845.00	845.50	846.00	845.50	845.00	845.00	844.00	843.50	843.00	842.00	842.00	842.00	842.00	842.00	842.00	841.00	841.00	841.00	839.50	839.00	838.50	837.00	836.00	833.00	831.00	828.00	826.00	824.00	819.00	816.50	812.00	810.00	806.00	804.00	799.50	798.00	796.00	794.00	792.00	791.00	791.00	790.00	790.00	790.00	790.50	791.00	790.00	790.00	790.00	789.50	788.50	788.00	788.00	788.00	788.00	788.00	789.00	789.50	790.00	791.00	791.50	793.00	794.00	794.00	794.00	794.00	794.00	793.50	793.00	792.00	791.00	790.00	789.50	788.50	787.50	786.50	785.50	784.00	784.00	782.50	781.50	779.50	778.50	777.50	776.00	775.00	773.00	772.00	770.00	768.50	767.50	765.50	765.00	764.00	763.00	761.00	759.00	756.00	754.00	752.00	748.00	745.00	743.00	743.00	741.50	741.00	741.00	741.00
850.50	852.00	853.00	854.00	854.50	855.00	855.00	854.00	854.00	853.00	852.50	852.00	851.00	850.00	848.00	847.00	846.50	846.00	845.50	844.50	844.00	844.00	844.00	843.00	843.00	842.00	841.50	841.00	840.00	839.50	838.00	838.00	836.50	835.50	833.50	831.50	830.50	829.00	827.00	825.50	824.00	822.50	821.50	820.50	819.00	817.50	816.00	815.00	813.50	813.00	812.00	811.50	810.50	809.00	807.50	806.50	804.50	803.50	802.50	801.00	800.00	797.00	796.00	794.50	793.50	793.00	792.00	791.50	790.00	789.00	787.50	786.50	785.50	785.00	785.50	786.00	787.00	788.00	787.00	785.50	785.00	784.00	781.50	780.50	780.00	778.00	775.50	773.00	772.00	771.50	771.00	771.00	771.50	772.00	772.00	773.50	774.50	777.50	778.50	780.00	782.00	784.00	785.50	788.00	790.00	792.00	795.00	797.00	800.50	804.00	807.00	809.50	812.00	816.00	818.00	822.00	824.00	825.50	826.50	829.50	830.00	830.50	832.00	832.00	834.00	834.00	835.50	836.50	837.00	838.00	838.50	839.00	840.00	841.50	842.50	844.50	846.00	847.50	849.00	852.00	854.00	856.00	857.50	858.00	859.00	859.00	859.00	859.00	859.00	858.50	857.00	855.50	854.50	853.00	852.00	850.50	849.00	848.00	847.50	847.00	847.00	846.50	846.00	846.00	845.50	845.00	844.00	843.50	842.50	842.00	841.00	838.00	837.00	834.50	833.00	830.50	826.00	824.00	820.00	818.00	813.50	811.00	808.00	806.00	804.50	803.00	802.00	801.00	800.00	800.00	800.00	800.00	800.00	799.50	799.00	798.00	797.50	796.50	795.00	794.50	794.00	794.00	793.00	793.00	793.00	793.50	794.00	794.00	794.00	795.00	795.00	796.00	796.00	796.50	796.00	796.00	796.00	795.00	795.00	795.00	794.00	794.00	793.50	793.00	793.00	792.00	792.00	791.00	791.00	790.00	789.50	788.50	787.00	786.00	785.00	784.00	783.00	782.50	781.50	780.00	779.50	778.00	776.00	774.00	772.00	768.50	767.00	765.00	762.00	760.50	758.00	757.00	755.50	755.00	754.00	754.00
850.50	852.00	853.00	854.00	854.50	855.00	855.00	854.00	854.00	853.00	852.50	852.00	851.00	850.00	848.00	847.00	846.50	846.00	845.50	844.50	844.00	844.00	844.00	843.00	843.00	842.00	841.50	841.00	840.00	839.50	838.00	838.00	836.50	835.50	833.50	831.50	830.50	829.00	827.00	825.50	824.00	822.50	821.50	820.50	819.00	817.50	816.00	815.00	813.50	813.00	812.00	811.50	810.50	809.00	807.50	806.50	804.50	803.50	802.50	801.00	800.00	797.00	796.00	794.50	793.50	793.00	792.00	791.50	790.00	789.00	787.50	786.50	785.50	785.00	785.50	786.00	787.00	788.00	787.00	785.50	785.00	784.00	781.50	780.50	780.00	778.00	775.50	773.00	772.00	771.50	771.00	771.00	771.50	772.00	772.00	773.50	774.50	777.50	778.50	780.00	782.00	784.00	785.50	788.00	790.00	792.00	795.00	797.00	800.50	804.00	807.00	809.50	812.00	816.00	818.00	822.00	824.00	825.50	826.50	829.50	830.00	830.50	832.00	832.00	834.00	834.00	835.50	836.50	837.00	838.00	838.50	839.00	840.00	841.50	842.50	844.50	846.00	847.50	849.00	852.00	854.00	856.00	857.50	858.00	859.00	859.00	859.00	859.00	859.00	858.50	857.00	855.50	854.50	853.00	852.00	850.50	849.00	848.00	847.50	847.00	847.00	846.50	846.00	846.00	845.50	845.00	844.00	843.50	842.50	842.00	841.00	838.00	837.00	834.50	833.00	830.50	826.00	824.00	820.00	818.00	813.50	811.00	808.00	806.00	804.50	803.00	802.00	801.00	800.00	800.00	800.00	800.00	800.00	799.50	799.00	798.00	797.50	796.50	795.00	794.50	794.00	794.00	793.00	793.00	793.00	793.50	794.00	794.00	794.00	795.00	795.00	796.00	796.00	796.50	796.00	796.00	796.00	795.00	795.00	795.00	794.00	794.00	793.50	793.00	793.00	792.00	792.00	791.00	791.00	790.00	789.50	788.50	787.00	786.00	785.00	784.00	783.00	782.50	781.50	780.00	779.50	778.00	776.00	774.00	772.00	768.50	767.00	765.00	762.00	760.50	758.00	757.00	755.50	755.00	754.00	754.00
850.50	852.00	853.00	854.00	854.50	855.00	855.00	854.00	854.00	853.00	852.50	852.00	851.00	850.00	848.00	847.00	846.50	846.00	845.50	844.50	844.00	844.00	844.00	843.00	843.00	842.00	841.50	841.00	840.00	839.50	838.00	838.00	836.50	835.50	833.50	831.50	830.50	829.00	827.00	825.50	824.00	822.50	821.50	820.50	819.00	817.50	816.00	815.00	813.50	813.00	812.00	811.50	810.50	809.00	807.50	806.50	804.50	803.50	802.50	801.00	800.00	797.00	796.00	794.50	793.50	793.00	792.00	791.50	790.00	789.00	787.50	786.50	785.50	785.00	785.50	786.00	787.00	788.00	787.00	785.50	785.00	784.00	781.50	780.50	780.00	778.00	775.50	773.00	772.00	771.50	771.00	771.00	771.50	772.00	772.00	773.50	774.50	777.50	778.50	780.00	782.00	784.00	785.50	788.00	790.00	792.00	795.00	797.00	800.50	804.00	807.00	809.50	812.00	816.00	818.00	822.00	824.00	825.50	826.50	829.50	830.00	830.50	832.00	832.00	834.00	834.00	835.50	836.50	837.00	838.00	838.50	839.00	840.00	841.50	842.50	844.50	846.00	847.50	849.00	852.00	854.00	856.00	857.50	858.00	859.00	859.00	859.00	859.00	859.00	858.50	857.00	855.50	854.50	853.00	852.00	850.50	849.00	848.00	847.50	847.00	847.00	846.50	846.00	846.00	845.50	845.00	844.00	843.50	842.50	842.00	841.00	838.00	837.00	834.50	833.00	830.50	826.00	824.00	820.00	818.00	813.50	811.00	808.00	806.00	804.50	803.00	802.00	801.00	800.00	800.00	800.00	800.00	800.00	799.50	799.00	798.00	797.50	796.50	795.00	794.50	794.00	794.00	793.00	793.00	793.00	793.50	794.00	794.00	794.00	795.00	795.00	796.00	796.00	796.50	796.00	796.00	796.00	795.00	795.00	795.00	794.00	794.00	793.50	793.00	793.00	792.00	792.00	791.00	791.00	790.00	789.50	788.50	787.00	786.00	785.00	784.00	783.00	782.50	781.50	780.00	779.50	778.00	776.00	774.00	772.00	768.50	767.00	765.00	762.00	760.50	758.00	757.00	755.50	755.00	754.00	754.00
