2405.00	2405.00	2405.00	2405.00	2405.00	2405.00	2405.00	2405.00	2405.00	2405.00	2405.00	2405.00	2405.00	2405.00	2405.00	2405.00	2405.00	2405.00	2405.00	2405.00	2405.00	2405.00	2405.00	2405.00	2405.00	2405.00	2405.00	2405.00	2406.00	2406.00	2406.00	2406.00	2406.00	2406.00	2406.00	2407.00	2407.00	2407.00	2407.00	2407.50	2408.00	2408.00	2408.00	2408.00	2409.00	2409.00	2409.00	2409.00	2409.50	2410.00	2410.00	2410.00	2410.00	2410.50	2411.00	2411.00	2411.00	2411.00	2411.00	2411.00	2411.00	2411.00	2411.00	2411.00	2411.50	2412.00	2412.00	2412.00	2412.00	2412.00	2412.00	2413.00	2413.00	2413.00	2413.00	2413.00	2413.50	2414.00	2414.00	2414.50	2415.00	2415.00	2415.00	2415.00	2415.50	2416.00	2416.00	2416.00	2416.00	2416.00	2416.00	2417.00	2417.00	2417.00	2417.00	2417.50	2418.00	2418.00	2418.50	2419.00	2419.00	2419.00	2419.00	2420.00	2420.00	2420.00	2420.00	2420.00	2420.00	2420.00	2420.00	2420.00	2420.00	2421.00	2421.00	2421.00	2421.00	2421.00	2421.00	2421.00	2421.50	2422.00	2422.00	2422.00	2422.00	2422.50	2423.00	2423.00	2423.00	2423.50	2424.00	2424.00	2424.50	2425.00	2425.00	2425.50	2426.00	2426.00	2427.00	2427.00	2427.50	2428.00	2428.50	2429.00	2429.00	2429.50	2430.00	2430.00	2430.50	2431.00	2431.00	2432.00	2432.00	2432.00	2432.50	2433.00	2433.00	2433.50	2434.00	2434.00	2434.00	2435.00	2435.00	2435.50	2436.00	2436.00	2436.00	2437.00	2437.00	2438.00	2438.00	2438.50	2439.00	2439.50	2440.00	2441.00	2441.50	2442.00	2443.00	2443.50	2444.00	2444.00	2445.00	2445.00	2446.00	2446.00	2446.50	2447.00	2447.50	2448.00	2448.00	2449.00	2449.00	2450.00	2450.00	2450.00	2450.00	2451.00	2451.00	2451.00	2451.00	2451.00	2451.00	2451.00	2451.00	2451.00	2451.00	2451.00	2451.00	2451.00	2451.00	2451.00	2451.00	2451.00	2451.50	2452.00	2452.00	2452.50	2453.00	2452.00	2452.00	2451.50	2451.00	2450.00	2450.00	2450.00	2449.00	2449.00	2449.00	2448.00	2448.00	2448.00	2447.50	2447.00	2447.00	2447.00	2446.50	2446.00	2446.00	2445.50	2445.00	2445.00	2444.50	2444.00	2443.00	2443.00	2442.00	2442.00	2441.00	2440.50	2440.00	2439.50	2439.00	2438.00	2438.00	2437.00
2405.00	2405.00	2405.00	2405.00	2405.00	2405.00	2405.00	2405.00	2405.00	2405.00	2405.00	2405.00	2405.00	2405.00	2405.00	2405.00	2405.00	2405.00	2405.00	2405.00	2405.00	2405.00	2405.00	2405.00	2405.00	2405.00	2405.00	2405.00	2406.00	2406.00	2406.00	2406.00	2406.00	2406.00	2406.00	2407.00	2407.00	2407.00	2407.00	2407.50	2408.00	2408.00	2408.00	2408.00	2409.00	2409.00	2409.00	2409.00	2409.50	2410.00	2410.00	2410.00	2410.00	2410.50	2411.00	2411.00	2411.00	2411.00	2411.00	2411.00	2411.00	2411.00	2411.00	2411.00	2411.50	2412.00	2412.00	2412.00	2412.00	2412.00	2412.00	2413.00	2413.00	2413.00	2413.00	2413.00	2413.50	2414.00	2414.00	2414.50	2415.00	2415.00	2415.00	2415.00	2415.50	2416.00	2416.00	2416.00	2416.00	2416.00	2416.00	2417.00	2417.00	2417.00	2417.00	2417.50	2418.00	2418.00	2418.50	2419.00	2419.00	2419.00	2419.00	2420.00	2420.00	2420.00	2420.00	2420.00	2420.00	2420.00	2420.00	2420.00	2420.00	2421.00	2421.00	2421.00	2421.00	2421.00	2421.00	2421.00	2421.50	2422.00	2422.00	2422.00	2422.00	2422.50	2423.00	2423.00	2423.00	2423.50	2424.00	2424.00	2424.50	2425.00	2425.00	2425.50	2426.00	2426.00	2427.00	2427.00	2427.50	2428.00	2428.50	2429.00	2429.00	2429.50	2430.00	2430.00	2430.50	2431.00	2431.00	2432.00	2432.00	2432.00	2432.50	2433.00	2433.00	2433.50	2434.00	2434.00	2434.00	2435.00	2435.00	2435.50	2436.00	2436.00	2436.00	2437.00	2437.00	2438.00	2438.00	2438.50	2439.00	2439.50	2440.00	2441.00	2441.50	2442.00	2443.00	2443.50	2444.00	2444.00	2445.00	2445.00	2446.00	2446.00	2446.50	2447.00	2447.50	2448.00	2448.00	2449.00	2449.00	2450.00	2450.00	2450.00	2450.00	2451.00	2451.00	2451.00	2451.00	2451.00	2451.00	2451.00	2451.00	2451.00	2451.00	2451.00	2451.00	2451.00	2451.00	2451.00	2451.00	2451.00	2451.50	2452.00	2452.00	2452.50	2453.00	2452.00	2452.00	2451.50	2451.00	2450.00	2450.00	2450.00	2449.00	2449.00	2449.00	2448.00	2448.00	2448.00	2447.50	2447.00	2447.00	2447.00	2446.50	2446.00	2446.00	2445.50	2445.00	2445.00	2444.50	2444.00	2443.00	2443.00	2442.00	2442.00	2441.00	2440.50	2440.00	2439.50	2439.00	2438.00	2438.00	2437.00
2405.00	2405.00	2405.00	2405.00	2405.00	2405.00	2405.00	2405.00	2405.00	2405.00	2405.00	2405.00	2405.00	2405.00	2405.00	2405.00	2405.00	2405.00	2405.00	2405.00	2405.00	2405.00	2405.00	2405.00	2405.00	2405.00	2405.00	2405.00	2406.00	2406.00	2406.00	2406.00	2406.00	2406.00	2406.00	2407.00	2407.00	2407.00	2407.00	2407.50	2408.00	2408.00	2408.00	2408.00	2409.00	2409.00	2409.00	2409.00	2409.50	2410.00	2410.00	2410.00	2410.00	2410.50	2411.00	2411.00	2411.00	2411.00	2411.00	2411.00	2411.00	2411.00	2411.00	2411.00	2411.50	2412.00	2412.00	2412.00	2412.00	2412.00	2412.00	2413.00	2413.00	2413.00	2413.00	2413.00	2413.50	2414.00	2414.00	2414.50	2415.00	2415.00	2415.00	2415.00	2415.50	2416.00	2416.00	2416.00	2416.00	2416.00	2416.00	2417.00	2417.00	2417.00	2417.00	2417.50	2418.00	2418.00	2418.50	2419.00	2419.00	2419.00	2419.00	2420.00	2420.00	2420.00	2420.00	2420.00	2420.00	2420.00	2420.00	2420.00	2420.00	2421.00	2421.00	2421.00	2421.00	2421.00	2421.00	2421.00	2421.50	2422.00	2422.00	2422.00	2422.00	2422.50	2423.00	2423.00	2423.00	2423.50	2424.00	2424.00	2424.50	2425.00	2425.00	2425.50	2426.00	2426.00	2427.00	2427.00	2427.50	2428.00	2428.50	2429.00	2429.00	2429.50	2430.00	2430.00	2430.50	2431.00	2431.00	2432.00	2432.00	2432.00	2432.50	2433.00	2433.00	2433.50	2434.00	2434.00	2434.00	2435.00	2435.00	2435.50	2436.00	2436.00	2436.00	2437.00	2437.00	2438.00	2438.00	2438.50	2439.00	2439.50	2440.00	2441.00	2441.50	2442.00	2443.00	2443.50	2444.00	2444.00	2445.00	2445.00	2446.00	2446.00	2446.50	2447.00	2447.50	2448.00	2448.00	2449.00	2449.00	2450.00	2450.00	2450.00	2450.00	2451.00	2451.00	2451.00	2451.00	2451.00	2451.00	2451.00	2451.00	2451.00	2451.00	2451.00	2451.00	2451.00	2451.00	2451.00	2451.00	2451.00	2451.50	2452.00	2452.00	2452.50	2453.00	2452.00	2452.00	2451.50	2451.00	2450.00	2450.00	2450.00	2449.00	2449.00	2449.00	2448.00	2448.00	2448.00	2447.50	2447.00	2447.00	2447.00	2446.50	2446.00	2446.00	2445.50	2445.00	2445.00	2444.50	2444.00	2443.00	2443.00	2442.00	2442.00	2441.00	2440.50	2440.00	2439.50	2439.00	2438.00	2438.00	2437.00
2405.25	2405.50	2405.50	2405.50	2405.50	2405.50	2405.50	2405.50	2405.50	2405.50	2405.50	2405.50	2405.50	2406.00	2405.75	2405.50	2405.50	2405.50	2405.50	2405.50	2405.50	2405.50	2405.50	2405.50	2405.50	2405.50	2405.50	2405.50	2406.00	2406.00	2406.00	2406.00	2406.00	2406.00	2406.00	2407.00	2407.00	2407.00	2407.00	2407.25	2407.50	2407.75	2408.00	2408.00	2408.50	2408.50	2408.75	2409.00	2409.25	2409.50	2409.50	2410.00	2410.00	2410.25	2410.50	2410.50	2410.50	2411.00	2411.00	2411.00	2411.00	2411.00	2411.00	2411.00	2411.25	2411.50	2411.75	2412.00	2412.00	2412.00	2412.00	2412.50	2412.75	2413.00	2413.00	2413.00	2413.25	2413.50	2413.75	2414.25	2414.50	2414.50	2414.50	2415.00	2415.25	2415.50	2415.75	2416.00	2416.00	2416.00	2416.00	2417.00	2417.00	2417.00	2417.00	2417.25	2418.00	2418.00	2418.25	2419.00	2419.00	2419.00	2419.00	2419.50	2419.50	2419.50	2420.00	2420.00	2420.00	2420.00	2420.00	2420.00	2420.00	2420.50	2420.50	2420.50	2420.50	2420.50	2420.50	2420.50	2421.25	2421.50	2421.50	2421.75	2422.00	2422.25	2422.50	2422.75	2423.00	2423.25	2424.00	2424.00	2424.25	2424.75	2425.00	2425.25	2426.00	2426.00	2426.50	2426.75	2427.25	2427.50	2428.00	2428.50	2428.50	2429.00	2429.50	2429.75	2430.25	2430.50	2431.00	2431.50	2431.50	2432.00	2432.25	2432.50	2432.75	2433.25	2433.50	2433.50	2434.00	2434.50	2434.50	2435.25	2435.50	2435.75	2436.00	2436.75	2437.00	2437.50	2438.00	2438.25	2439.00	2439.25	2439.75	2440.50	2441.00	2441.50	2442.50	2442.75	2443.25	2443.50	2444.25	2444.50	2445.00	2445.50	2446.00	2446.50	2446.75	2447.25	2447.50	2448.00	2448.00	2449.00	2449.00	2449.00	2449.25	2450.00	2450.00	2450.00	2450.00	2450.00	2450.00	2450.00	2450.00	2450.00	2450.00	2450.00	2450.00	2450.00	2450.00	2450.00	2450.00	2450.00	2450.75	2451.00	2451.50	2452.00	2452.50	2452.00	2451.75	2451.25	2451.00	2450.25	2450.00	2450.00	2449.50	2449.50	2449.00	2448.50	2448.50	2448.50	2448.25	2448.00	2448.00	2447.50	2447.25	2447.00	2447.00	2446.75	2446.00	2446.00	2445.75	2445.50	2444.50	2444.50	2443.50	2443.50	2442.50	2442.25	2441.75	2441.00	2440.50	2439.50	2439.50	2438.50
2405.50	2406.00	2406.00	2406.00	2406.00	2406.00	2406.00	2406.00	2406.00	2406.00	2406.00	2406.00	2406.00	2407.00	2406.50	2406.00	2406.00	2406.00	2406.00	2406.00	2406.00	2406.00	2406.00	2406.00	2406.00	2406.00	2406.00	2406.00	2406.00	2406.00	2406.00	2406.00	2406.00	2406.00	2406.00	2407.00	2407.00	2407.00	2407.00	2407.00	2407.00	2407.50	2408.00	2408.00	2408.00	2408.00	2408.50	2409.00	2409.00	2409.00	2409.00	2410.00	2410.00	2410.00	2410.00	2410.00	2410.00	2411.00	2411.00	2411.00	2411.00	2411.00	2411.00	2411.00	2411.00	2411.00	2411.50	2412.00	2412.00	2412.00	2412.00	2412.00	2412.50	2413.00	2413.00	2413.00	2413.00	2413.00	2413.50	2414.00	2414.00	2414.00	2414.00	2415.00	2415.00	2415.00	2415.50	2416.00	2416.00	2416.00	2416.00	2417.00	2417.00	2417.00	2417.00	2417.00	2418.00	2418.00	2418.00	2419.00	2419.00	2419.00	2419.00	2419.00	2419.00	2419.00	2420.00	2420.00	2420.00	2420.00	2420.00	2420.00	2420.00	2420.00	2420.00	2420.00	2420.00	2420.00	2420.00	2420.00	2421.00	2421.00	2421.00	2421.50	2422.00	2422.00	2422.00	2422.50	2423.00	2423.00	2424.00	2424.00	2424.00	2424.50	2425.00	2425.00	2426.00	2426.00	2426.00	2426.50	2427.00	2427.00	2427.50	2428.00	2428.00	2428.50	2429.00	2429.50	2430.00	2430.00	2431.00	2431.00	2431.00	2432.00	2432.00	2432.00	2432.50	2433.00	2433.00	2433.00	2434.00	2434.00	2434.00	2435.00	2435.00	2435.50	2436.00	2436.50	2437.00	2437.00	2438.00	2438.00	2439.00	2439.00	2439.50	2440.00	2440.50	2441.00	2442.00	2442.00	2442.50	2443.00	2443.50	2444.00	2444.00	2445.00	2445.50	2446.00	2446.00	2446.50	2447.00	2447.00	2447.00	2448.00	2448.00	2448.00	2448.50	2449.00	2449.00	2449.00	2449.00	2449.00	2449.00	2449.00	2449.00	2449.00	2449.00	2449.00	2449.00	2449.00	2449.00	2449.00	2449.00	2449.00	2450.00	2450.00	2451.00	2451.50	2452.00	2452.00	2451.50	2451.00	2451.00	2450.50	2450.00	2450.00	2450.00	2450.00	2449.00	2449.00	2449.00	2449.00	2449.00	2449.00	2449.00	2448.00	2448.00	2448.00	2448.00	2448.00	2447.00	2447.00	2447.00	2447.00	2446.00	2446.00	2445.00	2445.00	2444.00	2444.00	2443.50	2442.50	2442.00	2441.00	2441.00	2440.00
2405.50	2406.00	2406.00	2406.00	2406.00	2406.00	2406.00	2406.00	2406.00	2406.00	2406.00	2406.00	2406.00	2407.00	2406.50	2406.00	2406.00	2406.00	2406.00	2406.00	2406.00	2406.00	2406.00	2406.00	2406.00	2406.00	2406.00	2406.00	2406.00	2406.00	2406.00	2406.00	2406.00	2406.00	2406.00	2407.00	2407.00	2407.00	2407.00	2407.00	2407.00	2407.50	2408.00	2408.00	2408.00	2408.00	2408.50	2409.00	2409.00	2409.00	2409.00	2410.00	2410.00	2410.00	2410.00	2410.00	2410.00	2411.00	2411.00	2411.00	2411.00	2411.00	2411.00	2411.00	2411.00	2411.00	2411.50	2412.00	2412.00	2412.00	2412.00	2412.00	2412.50	2413.00	2413.00	2413.00	2413.00	2413.00	2413.50	2414.00	2414.00	2414.00	2414.00	2415.00	2415.00	2415.00	2415.50	2416.00	2416.00	2416.00	2416.00	2417.00	2417.00	2417.00	2417.00	2417.00	2418.00	2418.00	2418.00	2419.00	2419.00	2419.00	2419.00	2419.00	2419.00	2419.00	2420.00	2420.00	2420.00	2420.00	2420.00	2420.00	2420.00	2420.00	2420.00	2420.00	2420.00	2420.00	2420.00	2420.00	2421.00	2421.00	2421.00	2421.50	2422.00	2422.00	2422.00	2422.50	2423.00	2423.00	2424.00	2424.00	2424.00	2424.50	2425.00	2425.00	2426.00	2426.00	2426.00	2426.50	2427.00	2427.00	2427.50	2428.00	2428.00	2428.50	2429.00	2429.50	2430.00	2430.00	2431.00	2431.00	2431.00	2432.00	2432.00	2432.00	2432.50	2433.00	2433.00	2433.00	2434.00	2434.00	2434.00	2435.00	2435.00	2435.50	2436.00	2436.50	2437.00	2437.00	2438.00	2438.00	2439.00	2439.00	2439.50	2440.00	2440.50	2441.00	2442.00	2442.00	2442.50	2443.00	2443.50	2444.00	2444.00	2445.00	2445.50	2446.00	2446.00	2446.50	2447.00	2447.00	2447.00	2448.00	2448.00	2448.00	2448.50	2449.00	2449.00	2449.00	2449.00	2449.00	2449.00	2449.00	2449.00	2449.00	2449.00	2449.00	2449.00	2449.00	2449.00	2449.00	2449.00	2449.00	2450.00	2450.00	2451.00	2451.50	2452.00	2452.00	2451.50	2451.00	2451.00	2450.50	2450.00	2450.00	2450.00	2450.00	2449.00	2449.00	2449.00	2449.00	2449.00	2449.00	2449.00	2448.00	2448.00	2448.00	2448.00	2448.00	2447.00	2447.00	2447.00	2447.00	2446.00	2446.00	2445.00	2445.00	2444.00	2444.00	2443.50	2442.50	2442.00	2441.00	2441.00	2440.00
2405.50	2406.00	2406.00	2406.00	2406.00	2406.00	2406.00	2406.00	2406.00	2406.00	2406.00	2406.00	2406.00	2407.00	2406.50	2406.00	2406.00	2406.00	2406.00	2406.00	2406.00	2406.00	2406.00	2406.00	2406.00	2406.00	2406.00	2406.00	2406.00	2406.00	2406.00	2406.00	2406.00	2406.00	2406.00	2407.00	2407.00	2407.00	2407.00	2407.00	2407.00	2407.50	2408.00	2408.00	2408.00	2408.00	2408.50	2409.00	2409.00	2409.00	2409.00	2410.00	2410.00	2410.00	2410.00	2410.00	2410.00	2411.00	2411.00	2411.00	2411.00	2411.00	2411.00	2411.00	2411.00	2411.00	2411.50	2412.00	2412.00	2412.00	2412.00	2412.00	2412.50	2413.00	2413.00	2413.00	2413.00	2413.00	2413.50	2414.00	2414.00	2414.00	2414.00	2415.00	2415.00	2415.00	2415.50	2416.00	2416.00	2416.00	2416.00	2417.00	2417.00	2417.00	2417.00	2417.00	2418.00	2418.00	2418.00	2419.00	2419.00	2419.00	2419.00	2419.00	2419.00	2419.00	2420.00	2420.00	2420.00	2420.00	2420.00	2420.00	2420.00	2420.00	2420.00	2420.00	2420.00	2420.00	2420.00	2420.00	2421.00	2421.00	2421.00	2421.50	2422.00	2422.00	2422.00	2422.50	2423.00	2423.00	2424.00	2424.00	2424.00	2424.50	2425.00	2425.00	2426.00	2426.00	2426.00	2426.50	2427.00	2427.00	2427.50	2428.00	2428.00	2428.50	2429.00	2429.50	2430.00	2430.00	2431.00	2431.00	2431.00	2432.00	2432.00	2432.00	2432.50	2433.00	2433.00	2433.00	2434.00	2434.00	2434.00	2435.00	2435.00	2435.50	2436.00	2436.50	2437.00	2437.00	2438.00	2438.00	2439.00	2439.00	2439.50	2440.00	2440.50	2441.00	2442.00	2442.00	2442.50	2443.00	2443.50	2444.00	2444.00	2445.00	2445.50	2446.00	2446.00	2446.50	2447.00	2447.00	2447.00	2448.00	2448.00	2448.00	2448.50	2449.00	2449.00	2449.00	2449.00	2449.00	2449.00	2449.00	2449.00	2449.00	2449.00	2449.00	2449.00	2449.00	2449.00	2449.00	2449.00	2449.00	2450.00	2450.00	2451.00	2451.50	2452.00	2452.00	2451.50	2451.00	2451.00	2450.50	2450.00	2450.00	2450.00	2450.00	2449.00	2449.00	2449.00	2449.00	2449.00	2449.00	2449.00	2448.00	2448.00	2448.00	2448.00	2448.00	2447.00	2447.00	2447.00	2447.00	2446.00	2446.00	2445.00	2445.00	2444.00	2444.00	2443.50	2442.50	2442.00	2441.00	2441.00	2440.00
2405.50	2406.00	2406.00	2406.00	2406.00	2406.00	2406.00	2406.00	2406.00	2406.00	2406.00	2406.00	2406.00	2407.00	2406.50	2406.00	2406.00	2406.00	2406.00	2406.00	2406.00	2406.00	2406.00	2406.00	2406.00	2406.00	2406.00	2406.00	2406.00	2406.00	2406.00	2406.00	2406.00	2406.00	2406.00	2407.00	2407.00	2407.00	2407.00	2407.00	2407.00	2407.50	2408.00	2408.00	2408.00	2408.00	2408.50	2409.00	2409.00	2409.00	2409.00	2410.00	2410.00	2410.00	2410.00	2410.00	2410.00	2411.00	2411.00	2411.00	2411.00	2411.00	2411.00	2411.00	2411.00	2411.00	2411.50	2412.00	2412.00	2412.00	2412.00	2412.00	2412.50	2413.00	2413.00	2413.00	2413.00	2413.00	2413.50	2414.00	2414.00	2414.00	2414.00	2415.00	2415.00	2415.00	2415.50	2416.00	2416.00	2416.00	2416.00	2417.00	2417.00	2417.00	2417.00	2417.00	2418.00	2418.00	2418.00	2419.00	2419.00	2419.00	2419.00	2419.00	2419.00	2419.00	2420.00	2420.00	2420.00	2420.00	2420.00	2420.00	2420.00	2420.00	2420.00	2420.00	2420.00	2420.00	2420.00	2420.00	2421.00	2421.00	2421.00	2421.50	2422.00	2422.00	2422.00	2422.50	2423.00	2423.00	2424.00	2424.00	2424.00	2424.50	2425.00	2425.00	2426.00	2426.00	2426.00	2426.50	2427.00	2427.00	2427.50	2428.00	2428.00	2428.50	2429.00	2429.50	2430.00	2430.00	2431.00	2431.00	2431.00	2432.00	2432.00	2432.00	2432.50	2433.00	2433.00	2433.00	2434.00	2434.00	2434.00	2435.00	2435.00	2435.50	2436.00	2436.50	2437.00	2437.00	2438.00	2438.00	2439.00	2439.00	2439.50	2440.00	2440.50	2441.00	2442.00	2442.00	2442.50	2443.00	2443.50	2444.00	2444.00	2445.00	2445.50	2446.00	2446.00	2446.50	2447.00	2447.00	2447.00	2448.00	2448.00	2448.00	2448.50	2449.00	2449.00	2449.00	2449.00	2449.00	2449.00	2449.00	2449.00	2449.00	2449.00	2449.00	2449.00	2449.00	2449.00	2449.00	2449.00	2449.00	2450.00	2450.00	2451.00	2451.50	2452.00	2452.00	2451.50	2451.00	2451.00	2450.50	2450.00	2450.00	2450.00	2450.00	2449.00	2449.00	2449.00	2449.00	2449.00	2449.00	2449.00	2448.00	2448.00	2448.00	2448.00	2448.00	2447.00	2447.00	2447.00	2447.00	2446.00	2446.00	2445.00	2445.00	2444.00	2444.00	2443.50	2442.50	2442.00	2441.00	2441.00	2440.00
2405.50	2406.00	2406.00	2406.00	2406.00	2406.00	2406.00	2406.00	2406.00	2406.00	2406.00	2406.00	2406.00	2407.00	2406.50	2406.00	2406.00	2406.00	2406.00	2406.00	2406.00	2406.00	2406.00	2406.00	2406.00	2406.00	2406.00	2406.00	2406.00	2406.00	2406.00	2406.00	2406.00	2406.00	2406.00	2407.00	2407.00	2407.00	2407.00	2407.00	2407.00	2407.50	2408.00	2408.00	2408.00	2408.00	2408.50	2409.00	2409.00	2409.00	2409.00	2410.00	2410.00	2410.00	2410.00	2410.00	2410.00	2411.00	2411.00	2411.00	2411.00	2411.00	2411.00	2411.00	2411.00	2411.00	2411.50	2412.00	2412.00	2412.00	2412.00	2412.00	2412.50	2413.00	2413.00	2413.00	2413.00	2413.00	2413.50	2414.00	2414.00	2414.00	2414.00	2415.00	2415.00	2415.00	2415.50	2416.00	2416.00	2416.00	2416.00	2417.00	2417.00	2417.00	2417.00	2417.00	2418.00	2418.00	2418.00	2419.00	2419.00	2419.00	2419.00	2419.00	2419.00	2419.00	2420.00	2420.00	2420.00	2420.00	2420.00	2420.00	2420.00	2420.00	2420.00	2420.00	2420.00	2420.00	2420.00	2420.00	2421.00	2421.00	2421.00	2421.50	2422.00	2422.00	2422.00	2422.50	2423.00	2423.00	2424.00	2424.00	2424.00	2424.50	2425.00	2425.00	2426.00	2426.00	2426.00	2426.50	2427.00	2427.00	2427.50	2428.00	2428.00	2428.50	2429.00	2429.50	2430.00	2430.00	2431.00	2431.00	2431.00	2432.00	2432.00	2432.00	2432.50	2433.00	2433.00	2433.00	2434.00	2434.00	2434.00	2435.00	2435.00	2435.50	2436.00	2436.50	2437.00	2437.00	2438.00	2438.00	2439.00	2439.00	2439.50	2440.00	2440.50	2441.00	2442.00	2442.00	2442.50	2443.00	2443.50	2444.00	2444.00	2445.00	2445.50	2446.00	2446.00	2446.50	2447.00	2447.00	2447.00	2448.00	2448.00	2448.00	2448.50	2449.00	2449.00	2449.00	2449.00	2449.00	2449.00	2449.00	2449.00	2449.00	2449.00	2449.00	2449.00	2449.00	2449.00	2449.00	2449.00	2449.00	2450.00	2450.00	2451.00	2451.50	2452.00	2452.00	2451.50	2451.00	2451.00	2450.50	2450.00	2450.00	2450.00	2450.00	2449.00	2449.00	2449.00	2449.00	2449.00	2449.00	2449.00	2448.00	2448.00	2448.00	2448.00	2448.00	2447.00	2447.00	2447.00	2447.00	2446.00	2446.00	2445.00	2445.00	2444.00	2444.00	2443.50	2442.50	2442.00	2441.00	2441.00	2440.00
2407.00	2407.00	2408.00	2408.00	2408.00	2408.00	2408.00	2408.00	2408.00	2408.00	2408.00	2408.00	2408.00	2408.00	2408.00	2408.00	2408.00	2408.00	2408.00	2408.00	2408.00	2407.00	2407.00	2407.00	2407.00	2407.00	2407.00	2407.00	2407.00	2407.00	2407.00	2407.00	2407.00	2407.00	2407.00	2407.00	2407.00	2407.00	2407.00	2407.00	2407.00	2407.50	2408.00	2408.00	2408.00	2408.00	2408.50	2409.00	2409.00	2409.00	2409.00	2409.00	2409.00	2410.00	2410.00	2410.00	2410.00	2410.00	2410.00	2410.00	2410.50	2411.00	2411.00	2411.00	2411.00	2411.00	2411.00	2412.00	2412.00	2412.00	2412.00	2412.00	2412.00	2412.50	2413.00	2413.00	2413.00	2413.00	2413.00	2413.50	2414.00	2414.00	2414.00	2414.00	2415.00	2415.00	2415.00	2416.00	2416.00	2416.00	2416.00	2416.50	2417.00	2417.00	2417.00	2417.00	2418.00	2418.00	2418.00	2419.00	2419.00	2419.00	2419.00	2419.00	2419.00	2419.00	2419.00	2419.00	2419.00	2419.00	2419.00	2419.00	2419.00	2420.00	2420.00	2420.00	2420.00	2420.00	2420.00	2420.00	2420.00	2420.00	2421.00	2421.00	2421.00	2421.00	2421.50	2422.00	2422.00	2422.00	2423.00	2423.00	2423.00	2423.50	2424.00	2424.00	2425.00	2425.00	2425.00	2425.50	2426.00	2426.50	2427.00	2427.00	2428.00	2428.00	2428.00	2429.00	2429.00	2429.00	2430.00	2430.00	2430.00	2431.00	2431.00	2431.00	2431.50	2432.00	2432.00	2432.00	2433.00	2433.00	2434.00	2434.00	2434.50	2435.00	2435.00	2436.00	2436.00	2437.00	2437.50	2438.00	2438.50	2439.00	2439.00	2440.00	2440.00	2440.50	2441.00	2442.00	2442.00	2443.00	2443.00	2443.50	2444.00	2444.00	2444.50	2445.00	2445.00	2445.00	2446.00	2446.00	2446.00	2447.00	2447.00	2447.00	2447.00	2447.00	2447.00	2447.00	2447.00	2447.00	2447.00	2447.00	2447.00	2447.00	2447.00	2447.00	2447.00	2447.00	2447.00	2447.00	2447.00	2447.00	2447.50	2448.00	2448.00	2449.00	2449.50	2450.00	2450.00	2450.00	2450.00	2450.00	2450.50	2451.00	2451.00	2451.00	2450.00	2450.00	2450.00	2450.00	2450.00	2450.00	2450.00	2449.00	2449.00	2449.00	2449.00	2449.00	2449.00	2449.00	2448.50	2448.00	2448.00	2448.00	2447.00	2447.00	2446.50	2446.00	2445.50	2444.50	2444.00	2443.00	2443.00	2442.00
2407.00	2407.00	2408.00	2408.00	2408.00	2408.00	2408.00	2408.00	2408.00	2408.00	2408.00	2408.00	2408.00	2408.00	2408.00	2408.00	2408.00	2408.00	2408.00	2408.00	2408.00	2407.00	2407.00	2407.00	2407.00	2407.00	2407.00	2407.00	2407.00	2407.00	2407.00	2407.00	2407.00	2407.00	2407.00	2407.00	2407.00	2407.00	2407.00	2407.00	2407.00	2407.50	2408.00	2408.00	2408.00	2408.00	2408.50	2409.00	2409.00	2409.00	2409.00	2409.00	2409.00	2410.00	2410.00	2410.00	2410.00	2410.00	2410.00	2410.00	2410.50	2411.00	2411.00	2411.00	2411.00	2411.00	2411.00	2412.00	2412.00	2412.00	2412.00	2412.00	2412.00	2412.50	2413.00	2413.00	2413.00	2413.00	2413.00	2413.50	2414.00	2414.00	2414.00	2414.00	2415.00	2415.00	2415.00	2416.00	2416.00	2416.00	2416.00	2416.50	2417.00	2417.00	2417.00	2417.00	2418.00	2418.00	2418.00	2419.00	2419.00	2419.00	2419.00	2419.00	2419.00	2419.00	2419.00	2419.00	2419.00	2419.00	2419.00	2419.00	2419.00	2420.00	2420.00	2420.00	2420.00	2420.00	2420.00	2420.00	2420.00	2420.00	2421.00	2421.00	2421.00	2421.00	2421.50	2422.00	2422.00	2422.00	2423.00	2423.00	2423.00	2423.50	2424.00	2424.00	2425.00	2425.00	2425.00	2425.50	2426.00	2426.50	2427.00	2427.00	2428.00	2428.00	2428.00	2429.00	2429.00	2429.00	2430.00	2430.00	2430.00	2431.00	2431.00	2431.00	2431.50	2432.00	2432.00	2432.00	2433.00	2433.00	2434.00	2434.00	2434.50	2435.00	2435.00	2436.00	2436.00	2437.00	2437.50	2438.00	2438.50	2439.00	2439.00	2440.00	2440.00	2440.50	2441.00	2442.00	2442.00	2443.00	2443.00	2443.50	2444.00	2444.00	2444.50	2445.00	2445.00	2445.00	2446.00	2446.00	2446.00	2447.00	2447.00	2447.00	2447.00	2447.00	2447.00	2447.00	2447.00	2447.00	2447.00	2447.00	2447.00	2447.00	2447.00	2447.00	2447.00	2447.00	2447.00	2447.00	2447.00	2447.00	2447.50	2448.00	2448.00	2449.00	2449.50	2450.00	2450.00	2450.00	2450.00	2450.00	2450.50	2451.00	2451.00	2451.00	2450.00	2450.00	2450.00	2450.00	2450.00	2450.00	2450.00	2449.00	2449.00	2449.00	2449.00	2449.00	2449.00	2449.00	2448.50	2448.00	2448.00	2448.00	2447.00	2447.00	2446.50	2446.00	2445.50	2444.50	2444.00	2443.00	2443.00	2442.00
2407.00	2407.00	2408.00	2408.00	2408.00	2408.00	2408.00	2408.00	2408.00	2408.00	2408.00	2408.00	2408.00	2408.00	2408.00	2408.00	2408.00	2408.00	2408.00	2408.00	2408.00	2407.00	2407.00	2407.00	2407.00	2407.00	2407.00	2407.00	2407.00	2407.00	2407.00	2407.00	2407.00	2407.00	2407.00	2407.00	2407.00	2407.00	2407.00	2407.00	2407.00	2407.50	2408.00	2408.00	2408.00	2408.00	2408.50	2409.00	2409.00	2409.00	2409.00	2409.00	2409.00	2410.00	2410.00	2410.00	2410.00	2410.00	2410.00	2410.00	2410.50	2411.00	2411.00	2411.00	2411.00	2411.00	2411.00	2412.00	2412.00	2412.00	2412.00	2412.00	2412.00	2412.50	2413.00	2413.00	2413.00	2413.00	2413.00	2413.50	2414.00	2414.00	2414.00	2414.00	2415.00	2415.00	2415.00	2416.00	2416.00	2416.00	2416.00	2416.50	2417.00	2417.00	2417.00	2417.00	2418.00	2418.00	2418.00	2419.00	2419.00	2419.00	2419.00	2419.00	2419.00	2419.00	2419.00	2419.00	2419.00	2419.00	2419.00	2419.00	2419.00	2420.00	2420.00	2420.00	2420.00	2420.00	2420.00	2420.00	2420.00	2420.00	2421.00	2421.00	2421.00	2421.00	2421.50	2422.00	2422.00	2422.00	2423.00	2423.00	2423.00	2423.50	2424.00	2424.00	2425.00	2425.00	2425.00	2425.50	2426.00	2426.50	2427.00	2427.00	2428.00	2428.00	2428.00	2429.00	2429.00	2429.00	2430.00	2430.00	2430.00	2431.00	2431.00	2431.00	2431.50	2432.00	2432.00	2432.00	2433.00	2433.00	2434.00	2434.00	2434.50	2435.00	2435.00	2436.00	2436.00	2437.00	2437.50	2438.00	2438.50	2439.00	2439.00	2440.00	2440.00	2440.50	2441.00	2442.00	2442.00	2443.00	2443.00	2443.50	2444.00	2444.00	2444.50	2445.00	2445.00	2445.00	2446.00	2446.00	2446.00	2447.00	2447.00	2447.00	2447.00	2447.00	2447.00	2447.00	2447.00	2447.00	2447.00	2447.00	2447.00	2447.00	2447.00	2447.00	2447.00	2447.00	2447.00	2447.00	2447.00	2447.00	2447.50	2448.00	2448.00	2449.00	2449.50	2450.00	2450.00	2450.00	2450.00	2450.00	2450.50	2451.00	2451.00	2451.00	2450.00	2450.00	2450.00	2450.00	2450.00	2450.00	2450.00	2449.00	2449.00	2449.00	2449.00	2449.00	2449.00	2449.00	2448.50	2448.00	2448.00	2448.00	2447.00	2447.00	2446.50	2446.00	2445.50	2444.50	2444.00	2443.00	2443.00	2442.00
2407.00	2407.00	2408.00	2408.00	2408.00	2408.00	2408.00	2408.00	2408.00	2408.00	2408.00	2408.00	2408.00	2408.00	2408.00	2408.00	2408.00	2408.00	2408.00	2408.00	2408.00	2407.00	2407.00	2407.00	2407.00	2407.00	2407.00	2407.00	2407.00	2407.00	2407.00	2407.00	2407.00	2407.00	2407.00	2407.00	2407.00	2407.00	2407.00	2407.00	2407.00	2407.50	2408.00	2408.00	2408.00	2408.00	2408.50	2409.00	2409.00	2409.00	2409.00	2409.00	2409.00	2410.00	2410.00	2410.00	2410.00	2410.00	2410.00	2410.00	2410.50	2411.00	2411.00	2411.00	2411.00	2411.00	2411.00	2412.00	2412.00	2412.00	2412.00	2412.00	2412.00	2412.50	2413.00	2413.00	2413.00	2413.00	2413.00	2413.50	2414.00	2414.00	2414.00	2414.00	2415.00	2415.00	2415.00	2416.00	2416.00	2416.00	2416.00	2416.50	2417.00	2417.00	2417.00	2417.00	2418.00	2418.00	2418.00	2419.00	2419.00	2419.00	2419.00	2419.00	2419.00	2419.00	2419.00	2419.00	2419.00	2419.00	2419.00	2419.00	2419.00	2420.00	2420.00	2420.00	2420.00	2420.00	2420.00	2420.00	2420.00	2420.00	2421.00	2421.00	2421.00	2421.00	2421.50	2422.00	2422.00	2422.00	2423.00	2423.00	2423.00	2423.50	2424.00	2424.00	2425.00	2425.00	2425.00	2425.50	2426.00	2426.50	2427.00	2427.00	2428.00	2428.00	2428.00	2429.00	2429.00	2429.00	2430.00	2430.00	2430.00	2431.00	2431.00	2431.00	2431.50	2432.00	2432.00	2432.00	2433.00	2433.00	2434.00	2434.00	2434.50	2435.00	2435.00	2436.00	2436.00	2437.00	2437.50	2438.00	2438.50	2439.00	2439.00	2440.00	2440.00	2440.50	2441.00	2442.00	2442.00	2443.00	2443.00	2443.50	2444.00	2444.00	2444.50	2445.00	2445.00	2445.00	2446.00	2446.00	2446.00	2447.00	2447.00	2447.00	2447.00	2447.00	2447.00	2447.00	2447.00	2447.00	2447.00	2447.00	2447.00	2447.00	2447.00	2447.00	2447.00	2447.00	2447.00	2447.00	2447.00	2447.00	2447.50	2448.00	2448.00	2449.00	2449.50	2450.00	2450.00	2450.00	2450.00	2450.00	2450.50	2451.00	2451.00	2451.00	2450.00	2450.00	2450.00	2450.00	2450.00	2450.00	2450.00	2449.00	2449.00	2449.00	2449.00	2449.00	2449.00	2449.00	2448.50	2448.00	2448.00	2448.00	2447.00	2447.00	2446.50	2446.00	2445.50	2444.50	2444.00	2443.00	2443.00	2442.00
2407.00	2407.00	2408.00	2408.00	2408.00	2408.00	2408.00	2408.00	2408.00	2408.00	2408.00	2408.00	2408.00	2408.00	2408.00	2408.00	2408.00	2408.00	2408.00	2408.00	2408.00	2407.00	2407.00	2407.00	2407.00	2407.00	2407.00	2407.00	2407.00	2407.00	2407.00	2407.00	2407.00	2407.00	2407.00	2407.00	2407.00	2407.00	2407.00	2407.00	2407.00	2407.50	2408.00	2408.00	2408.00	2408.00	2408.50	2409.00	2409.00	2409.00	2409.00	2409.00	2409.00	2410.00	2410.00	2410.00	2410.00	2410.00	2410.00	2410.00	2410.50	2411.00	2411.00	2411.00	2411.00	2411.00	2411.00	2412.00	2412.00	2412.00	2412.00	2412.00	2412.00	2412.50	2413.00	2413.00	2413.00	2413.00	2413.00	2413.50	2414.00	2414.00	2414.00	2414.00	2415.00	2415.00	2415.00	2416.00	2416.00	2416.00	2416.00	2416.50	2417.00	2417.00	2417.00	2417.00	2418.00	2418.00	2418.00	2419.00	2419.00	2419.00	2419.00	2419.00	2419.00	2419.00	2419.00	2419.00	2419.00	2419.00	2419.00	2419.00	2419.00	2420.00	2420.00	2420.00	2420.00	2420.00	2420.00	2420.00	2420.00	2420.00	2421.00	2421.00	2421.00	2421.00	2421.50	2422.00	2422.00	2422.00	2423.00	2423.00	2423.00	2423.50	2424.00	2424.00	2425.00	2425.00	2425.00	2425.50	2426.00	2426.50	2427.00	2427.00	2428.00	2428.00	2428.00	2429.00	2429.00	2429.00	2430.00	2430.00	2430.00	2431.00	2431.00	2431.00	2431.50	2432.00	2432.00	2432.00	2433.00	2433.00	2434.00	2434.00	2434.50	2435.00	2435.00	2436.00	2436.00	2437.00	2437.50	2438.00	2438.50	2439.00	2439.00	2440.00	2440.00	2440.50	2441.00	2442.00	2442.00	2443.00	2443.00	2443.50	2444.00	2444.00	2444.50	2445.00	2445.00	2445.00	2446.00	2446.00	2446.00	2447.00	2447.00	2447.00	2447.00	2447.00	2447.00	2447.00	2447.00	2447.00	2447.00	2447.00	2447.00	2447.00	2447.00	2447.00	2447.00	2447.00	2447.00	2447.00	2447.00	2447.00	2447.50	2448.00	2448.00	2449.00	2449.50	2450.00	2450.00	2450.00	2450.00	2450.00	2450.50	2451.00	2451.00	2451.00	2450.00	2450.00	2450.00	2450.00	2450.00	2450.00	2450.00	2449.00	2449.00	2449.00	2449.00	2449.00	2449.00	2449.00	2448.50	2448.00	2448.00	2448.00	2447.00	2447.00	2446.50	2446.00	2445.50	2444.50	2444.00	2443.00	2443.00	2442.00
2408.50	2408.50	2409.00	2409.00	2409.00	2409.00	2409.00	2409.00	2409.00	2409.50	2409.50	2409.50	2409.50	2409.50	2409.50	2409.25	2409.00	2409.00	2409.00	2409.00	2408.50	2408.00	2408.00	2408.00	2408.00	2408.00	2408.00	2408.00	2407.50	2407.50	2407.50	2407.50	2407.50	2407.50	2407.50	2407.50	2407.50	2407.50	2407.50	2407.50	2407.50	2407.75	2408.50	2408.50	2408.50	2408.50	2408.75	2409.00	2409.25	2409.50	2409.50	2409.50	2409.50	2410.00	2410.00	2410.00	2410.00	2410.00	2410.00	2410.00	2410.75	2411.00	2411.00	2411.00	2411.00	2411.00	2411.00	2412.00	2412.00	2412.00	2412.00	2412.00	2412.00	2412.25	2413.00	2413.00	2413.00	2413.00	2413.50	2413.75	2414.00	2414.50	2414.50	2415.00	2415.50	2415.50	2415.50	2416.50	2416.50	2416.50	2416.50	2416.75	2417.00	2417.25	2417.50	2417.50	2418.00	2418.00	2418.25	2419.00	2419.00	2419.00	2419.00	2419.00	2419.00	2419.00	2419.00	2419.00	2419.00	2419.00	2419.00	2419.00	2419.00	2419.50	2419.50	2419.50	2419.50	2419.50	2419.50	2419.50	2419.75	2420.00	2420.50	2420.50	2420.50	2421.00	2421.25	2421.50	2421.50	2422.00	2422.50	2422.50	2422.50	2423.00	2423.50	2423.75	2424.50	2424.50	2425.00	2425.25	2425.75	2426.25	2426.50	2426.50	2427.50	2427.50	2427.50	2428.50	2428.50	2428.50	2429.00	2429.50	2429.50	2430.00	2430.50	2430.50	2431.00	2431.50	2431.50	2431.50	2432.50	2432.75	2433.50	2433.75	2434.25	2434.50	2435.00	2435.50	2436.00	2436.50	2437.00	2437.50	2438.25	2438.50	2438.75	2439.50	2440.00	2440.25	2441.00	2441.75	2442.00	2442.50	2443.00	2443.25	2444.00	2444.00	2444.25	2444.50	2445.00	2445.00	2445.50	2445.50	2445.75	2446.50	2446.50	2446.50	2446.50	2446.50	2446.50	2446.50	2446.50	2446.50	2446.50	2446.50	2446.50	2446.50	2446.00	2446.00	2446.00	2446.00	2446.00	2446.00	2446.00	2446.00	2446.25	2447.00	2447.00	2447.75	2448.25	2448.75	2449.00	2449.00	2449.00	2449.00	2449.50	2450.00	2450.00	2450.00	2449.50	2449.50	2449.50	2449.50	2449.50	2449.50	2449.50	2449.25	2449.50	2449.50	2449.50	2449.50	2449.50	2449.50	2449.00	2448.50	2448.50	2448.50	2447.50	2447.50	2447.25	2446.75	2446.25	2445.50	2445.00	2444.00	2444.00	2443.00
2410.00	2410.00	2410.00	2410.00	2410.00	2410.00	2410.00	2410.00	2410.00	2411.00	2411.00	2411.00	2411.00	2411.00	2411.00	2410.50	2410.00	2410.00	2410.00	2410.00	2409.00	2409.00	2409.00	2409.00	2409.00	2409.00	2409.00	2409.00	2408.00	2408.00	2408.00	2408.00	2408.00	2408.00	2408.00	2408.00	2408.00	2408.00	2408.00	2408.00	2408.00	2408.00	2409.00	2409.00	2409.00	2409.00	2409.00	2409.00	2409.50	2410.00	2410.00	2410.00	2410.00	2410.00	2410.00	2410.00	2410.00	2410.00	2410.00	2410.00	2411.00	2411.00	2411.00	2411.00	2411.00	2411.00	2411.00	2412.00	2412.00	2412.00	2412.00	2412.00	2412.00	2412.00	2413.00	2413.00	2413.00	2413.00	2414.00	2414.00	2414.00	2415.00	2415.00	2416.00	2416.00	2416.00	2416.00	2417.00	2417.00	2417.00	2417.00	2417.00	2417.00	2417.50	2418.00	2418.00	2418.00	2418.00	2418.50	2419.00	2419.00	2419.00	2419.00	2419.00	2419.00	2419.00	2419.00	2419.00	2419.00	2419.00	2419.00	2419.00	2419.00	2419.00	2419.00	2419.00	2419.00	2419.00	2419.00	2419.00	2419.50	2420.00	2420.00	2420.00	2420.00	2421.00	2421.00	2421.00	2421.00	2422.00	2422.00	2422.00	2422.00	2422.50	2423.00	2423.50	2424.00	2424.00	2425.00	2425.00	2425.50	2426.00	2426.00	2426.00	2427.00	2427.00	2427.00	2428.00	2428.00	2428.00	2428.00	2429.00	2429.00	2429.00	2430.00	2430.00	2430.50	2431.00	2431.00	2431.00	2432.00	2432.50	2433.00	2433.50	2434.00	2434.00	2435.00	2435.00	2436.00	2436.00	2436.50	2437.00	2438.00	2438.00	2438.50	2439.00	2440.00	2440.00	2441.00	2441.50	2442.00	2442.00	2443.00	2443.00	2444.00	2444.00	2444.00	2444.00	2445.00	2445.00	2445.00	2445.00	2445.50	2446.00	2446.00	2446.00	2446.00	2446.00	2446.00	2446.00	2446.00	2446.00	2446.00	2446.00	2446.00	2446.00	2445.00	2445.00	2445.00	2445.00	2445.00	2445.00	2445.00	2445.00	2445.00	2446.00	2446.00	2446.50	2447.00	2447.50	2448.00	2448.00	2448.00	2448.00	2448.50	2449.00	2449.00	2449.00	2449.00	2449.00	2449.00	2449.00	2449.00	2449.00	2449.00	2449.50	2450.00	2450.00	2450.00	2450.00	2450.00	2450.00	2449.50	2449.00	2449.00	2449.00	2448.00	2448.00	2448.00	2447.50	2447.00	2446.50	2446.00	2445.00	2445.00	2444.00
2410.00	2410.00	2410.00	2410.00	2410.00	2410.00	2410.00	2410.00	2410.00	2411.00	2411.00	2411.00	2411.00	2411.00	2411.00	2410.50	2410.00	2410.00	2410.00	2410.00	2409.00	2409.00	2409.00	2409.00	2409.00	2409.00	2409.00	2409.00	2408.00	2408.00	2408.00	2408.00	2408.00	2408.00	2408.00	2408.00	2408.00	2408.00	2408.00	2408.00	2408.00	2408.00	2409.00	2409.00	2409.00	2409.00	2409.00	2409.00	2409.50	2410.00	2410.00	2410.00	2410.00	2410.00	2410.00	2410.00	2410.00	2410.00	2410.00	2410.00	2411.00	2411.00	2411.00	2411.00	2411.00	2411.00	2411.00	2412.00	2412.00	2412.00	2412.00	2412.00	2412.00	2412.00	2413.00	2413.00	2413.00	2413.00	2414.00	2414.00	2414.00	2415.00	2415.00	2416.00	2416.00	2416.00	2416.00	2417.00	2417.00	2417.00	2417.00	2417.00	2417.00	2417.50	2418.00	2418.00	2418.00	2418.00	2418.50	2419.00	2419.00	2419.00	2419.00	2419.00	2419.00	2419.00	2419.00	2419.00	2419.00	2419.00	2419.00	2419.00	2419.00	2419.00	2419.00	2419.00	2419.00	2419.00	2419.00	2419.00	2419.50	2420.00	2420.00	2420.00	2420.00	2421.00	2421.00	2421.00	2421.00	2422.00	2422.00	2422.00	2422.00	2422.50	2423.00	2423.50	2424.00	2424.00	2425.00	2425.00	2425.50	2426.00	2426.00	2426.00	2427.00	2427.00	2427.00	2428.00	2428.00	2428.00	2428.00	2429.00	2429.00	2429.00	2430.00	2430.00	2430.50	2431.00	2431.00	2431.00	2432.00	2432.50	2433.00	2433.50	2434.00	2434.00	2435.00	2435.00	2436.00	2436.00	2436.50	2437.00	2438.00	2438.00	2438.50	2439.00	2440.00	2440.00	2441.00	2441.50	2442.00	2442.00	2443.00	2443.00	2444.00	2444.00	2444.00	2444.00	2445.00	2445.00	2445.00	2445.00	2445.50	2446.00	2446.00	2446.00	2446.00	2446.00	2446.00	2446.00	2446.00	2446.00	2446.00	2446.00	2446.00	2446.00	2445.00	2445.00	2445.00	2445.00	2445.00	2445.00	2445.00	2445.00	2445.00	2446.00	2446.00	2446.50	2447.00	2447.50	2448.00	2448.00	2448.00	2448.00	2448.50	2449.00	2449.00	2449.00	2449.00	2449.00	2449.00	2449.00	2449.00	2449.00	2449.00	2449.50	2450.00	2450.00	2450.00	2450.00	2450.00	2450.00	2449.50	2449.00	2449.00	2449.00	2448.00	2448.00	2448.00	2447.50	2447.00	2446.50	2446.00	2445.00	2445.00	2444.00
2410.00	2410.00	2410.00	2410.00	2410.00	2410.00	2410.00	2410.00	2410.00	2411.00	2411.00	2411.00	2411.00	2411.00	2411.00	2410.50	2410.00	2410.00	2410.00	2410.00	2409.00	2409.00	2409.00	2409.00	2409.00	2409.00	2409.00	2409.00	2408.00	2408.00	2408.00	2408.00	2408.00	2408.00	2408.00	2408.00	2408.00	2408.00	2408.00	2408.00	2408.00	2408.00	2409.00	2409.00	2409.00	2409.00	2409.00	2409.00	2409.50	2410.00	2410.00	2410.00	2410.00	2410.00	2410.00	2410.00	2410.00	2410.00	2410.00	2410.00	2411.00	2411.00	2411.00	2411.00	2411.00	2411.00	2411.00	2412.00	2412.00	2412.00	2412.00	2412.00	2412.00	2412.00	2413.00	2413.00	2413.00	2413.00	2414.00	2414.00	2414.00	2415.00	2415.00	2416.00	2416.00	2416.00	2416.00	2417.00	2417.00	2417.00	2417.00	2417.00	2417.00	2417.50	2418.00	2418.00	2418.00	2418.00	2418.50	2419.00	2419.00	2419.00	2419.00	2419.00	2419.00	2419.00	2419.00	2419.00	2419.00	2419.00	2419.00	2419.00	2419.00	2419.00	2419.00	2419.00	2419.00	2419.00	2419.00	2419.00	2419.50	2420.00	2420.00	2420.00	2420.00	2421.00	2421.00	2421.00	2421.00	2422.00	2422.00	2422.00	2422.00	2422.50	2423.00	2423.50	2424.00	2424.00	2425.00	2425.00	2425.50	2426.00	2426.00	2426.00	2427.00	2427.00	2427.00	2428.00	2428.00	2428.00	2428.00	2429.00	2429.00	2429.00	2430.00	2430.00	2430.50	2431.00	2431.00	2431.00	2432.00	2432.50	2433.00	2433.50	2434.00	2434.00	2435.00	2435.00	2436.00	2436.00	2436.50	2437.00	2438.00	2438.00	2438.50	2439.00	2440.00	2440.00	2441.00	2441.50	2442.00	2442.00	2443.00	2443.00	2444.00	2444.00	2444.00	2444.00	2445.00	2445.00	2445.00	2445.00	2445.50	2446.00	2446.00	2446.00	2446.00	2446.00	2446.00	2446.00	2446.00	2446.00	2446.00	2446.00	2446.00	2446.00	2445.00	2445.00	2445.00	2445.00	2445.00	2445.00	2445.00	2445.00	2445.00	2446.00	2446.00	2446.50	2447.00	2447.50	2448.00	2448.00	2448.00	2448.00	2448.50	2449.00	2449.00	2449.00	2449.00	2449.00	2449.00	2449.00	2449.00	2449.00	2449.00	2449.50	2450.00	2450.00	2450.00	2450.00	2450.00	2450.00	2449.50	2449.00	2449.00	2449.00	2448.00	2448.00	2448.00	2447.50	2447.00	2446.50	2446.00	2445.00	2445.00	2444.00
2410.00	2410.00	2410.00	2410.00	2410.00	2410.00	2410.00	2410.00	2410.00	2411.00	2411.00	2411.00	2411.00	2411.00	2411.00	2410.50	2410.00	2410.00	2410.00	2410.00	2409.00	2409.00	2409.00	2409.00	2409.00	2409.00	2409.00	2409.00	2408.00	2408.00	2408.00	2408.00	2408.00	2408.00	2408.00	2408.00	2408.00	2408.00	2408.00	2408.00	2408.00	2408.00	2409.00	2409.00	2409.00	2409.00	2409.00	2409.00	2409.50	2410.00	2410.00	2410.00	2410.00	2410.00	2410.00	2410.00	2410.00	2410.00	2410.00	2410.00	2411.00	2411.00	2411.00	2411.00	2411.00	2411.00	2411.00	2412.00	2412.00	2412.00	2412.00	2412.00	2412.00	2412.00	2413.00	2413.00	2413.00	2413.00	2414.00	2414.00	2414.00	2415.00	2415.00	2416.00	2416.00	2416.00	2416.00	2417.00	2417.00	2417.00	2417.00	2417.00	2417.00	2417.50	2418.00	2418.00	2418.00	2418.00	2418.50	2419.00	2419.00	2419.00	2419.00	2419.00	2419.00	2419.00	2419.00	2419.00	2419.00	2419.00	2419.00	2419.00	2419.00	2419.00	2419.00	2419.00	2419.00	2419.00	2419.00	2419.00	2419.50	2420.00	2420.00	2420.00	2420.00	2421.00	2421.00	2421.00	2421.00	2422.00	2422.00	2422.00	2422.00	2422.50	2423.00	2423.50	2424.00	2424.00	2425.00	2425.00	2425.50	2426.00	2426.00	2426.00	2427.00	2427.00	2427.00	2428.00	2428.00	2428.00	2428.00	2429.00	2429.00	2429.00	2430.00	2430.00	2430.50	2431.00	2431.00	2431.00	2432.00	2432.50	2433.00	2433.50	2434.00	2434.00	2435.00	2435.00	2436.00	2436.00	2436.50	2437.00	2438.00	2438.00	2438.50	2439.00	2440.00	2440.00	2441.00	2441.50	2442.00	2442.00	2443.00	2443.00	2444.00	2444.00	2444.00	2444.00	2445.00	2445.00	2445.00	2445.00	2445.50	2446.00	2446.00	2446.00	2446.00	2446.00	2446.00	2446.00	2446.00	2446.00	2446.00	2446.00	2446.00	2446.00	2445.00	2445.00	2445.00	2445.00	2445.00	2445.00	2445.00	2445.00	2445.00	2446.00	2446.00	2446.50	2447.00	2447.50	2448.00	2448.00	2448.00	2448.00	2448.50	2449.00	2449.00	2449.00	2449.00	2449.00	2449.00	2449.00	2449.00	2449.00	2449.00	2449.50	2450.00	2450.00	2450.00	2450.00	2450.00	2450.00	2449.50	2449.00	2449.00	2449.00	2448.00	2448.00	2448.00	2447.50	2447.00	2446.50	2446.00	2445.00	2445.00	2444.00
2410.00	2410.00	2410.00	2410.00	2410.00	2410.00	2410.00	2410.00	2410.00	2411.00	2411.00	2411.00	2411.00	2411.00	2411.00	2410.50	2410.00	2410.00	2410.00	2410.00	2409.00	2409.00	2409.00	2409.00	2409.00	2409.00	2409.00	2409.00	2408.00	2408.00	2408.00	2408.00	2408.00	2408.00	2408.00	2408.00	2408.00	2408.00	2408.00	2408.00	2408.00	2408.00	2409.00	2409.00	2409.00	2409.00	2409.00	2409.00	2409.50	2410.00	2410.00	2410.00	2410.00	2410.00	2410.00	2410.00	2410.00	2410.00	2410.00	2410.00	2411.00	2411.00	2411.00	2411.00	2411.00	2411.00	2411.00	2412.00	2412.00	2412.00	2412.00	2412.00	2412.00	2412.00	2413.00	2413.00	2413.00	2413.00	2414.00	2414.00	2414.00	2415.00	2415.00	2416.00	2416.00	2416.00	2416.00	2417.00	2417.00	2417.00	2417.00	2417.00	2417.00	2417.50	2418.00	2418.00	2418.00	2418.00	2418.50	2419.00	2419.00	2419.00	2419.00	2419.00	2419.00	2419.00	2419.00	2419.00	2419.00	2419.00	2419.00	2419.00	2419.00	2419.00	2419.00	2419.00	2419.00	2419.00	2419.00	2419.00	2419.50	2420.00	2420.00	2420.00	2420.00	2421.00	2421.00	2421.00	2421.00	2422.00	2422.00	2422.00	2422.00	2422.50	2423.00	2423.50	2424.00	2424.00	2425.00	2425.00	2425.50	2426.00	2426.00	2426.00	2427.00	2427.00	2427.00	2428.00	2428.00	2428.00	2428.00	2429.00	2429.00	2429.00	2430.00	2430.00	2430.50	2431.00	2431.00	2431.00	2432.00	2432.50	2433.00	2433.50	2434.00	2434.00	2435.00	2435.00	2436.00	2436.00	2436.50	2437.00	2438.00	2438.00	2438.50	2439.00	2440.00	2440.00	2441.00	2441.50	2442.00	2442.00	2443.00	2443.00	2444.00	2444.00	2444.00	2444.00	2445.00	2445.00	2445.00	2445.00	2445.50	2446.00	2446.00	2446.00	2446.00	2446.00	2446.00	2446.00	2446.00	2446.00	2446.00	2446.00	2446.00	2446.00	2445.00	2445.00	2445.00	2445.00	2445.00	2445.00	2445.00	2445.00	2445.00	2446.00	2446.00	2446.50	2447.00	2447.50	2448.00	2448.00	2448.00	2448.00	2448.50	2449.00	2449.00	2449.00	2449.00	2449.00	2449.00	2449.00	2449.00	2449.00	2449.00	2449.50	2450.00	2450.00	2450.00	2450.00	2450.00	2450.00	2449.50	2449.00	2449.00	2449.00	2448.00	2448.00	2448.00	2447.50	2447.00	2446.50	2446.00	2445.00	2445.00	2444.00
2411.50	2411.50	2411.50	2411.50	2411.50	2411.50	2411.75	2412.00	2412.00	2412.50	2412.50	2412.50	2412.50	2412.50	2412.50	2411.75	2411.50	2411.50	2411.50	2411.00	2410.50	2410.50	2410.50	2410.50	2410.50	2410.00	2410.00	2410.00	2409.50	2409.50	2409.25	2409.00	2409.00	2409.00	2409.00	2409.00	2409.00	2409.00	2409.00	2409.00	2409.00	2409.00	2409.50	2409.50	2409.50	2409.50	2409.50	2409.50	2409.75	2410.00	2410.00	2410.00	2410.00	2410.25	2410.50	2410.50	2410.50	2410.50	2410.50	2410.50	2411.00	2411.00	2411.00	2411.00	2411.00	2411.00	2411.50	2412.00	2412.00	2412.00	2412.00	2412.50	2412.50	2412.50	2413.00	2413.50	2413.50	2413.50	2414.25	2414.50	2414.50	2415.00	2415.50	2416.00	2416.00	2416.00	2416.00	2417.00	2417.00	2417.00	2417.00	2417.00	2417.00	2417.50	2418.00	2418.00	2418.00	2418.00	2418.25	2419.00	2419.00	2419.00	2419.00	2419.00	2419.00	2419.00	2419.00	2419.00	2419.00	2419.00	2419.00	2419.00	2419.00	2419.00	2419.00	2419.00	2419.00	2419.00	2419.00	2419.00	2419.25	2419.50	2419.50	2419.75	2420.00	2420.50	2420.50	2420.75	2421.00	2421.50	2421.50	2421.50	2422.00	2422.25	2422.50	2423.25	2423.50	2423.50	2424.50	2424.50	2425.00	2425.50	2425.50	2425.50	2426.50	2426.50	2426.50	2427.25	2427.50	2427.50	2427.50	2428.50	2428.50	2428.50	2429.50	2429.50	2429.75	2430.25	2430.50	2430.50	2431.50	2431.75	2432.50	2433.00	2433.50	2433.50	2434.50	2434.50	2435.50	2435.50	2436.00	2436.50	2437.50	2437.75	2438.25	2439.00	2439.75	2440.00	2440.50	2441.25	2441.75	2442.00	2442.75	2443.00	2443.50	2444.00	2444.00	2444.00	2444.75	2445.00	2445.00	2445.00	2445.25	2445.50	2445.50	2445.50	2445.50	2445.50	2445.50	2445.50	2445.50	2445.50	2445.50	2445.50	2445.25	2445.00	2444.50	2444.50	2444.50	2444.50	2444.50	2444.50	2444.50	2444.50	2444.50	2445.00	2445.50	2445.75	2446.25	2446.75	2447.00	2447.25	2447.50	2447.50	2447.75	2448.00	2448.00	2448.00	2448.50	2448.50	2448.50	2448.50	2449.00	2449.00	2449.00	2449.25	2449.75	2450.00	2450.00	2450.00	2450.00	2450.00	2449.75	2449.25	2449.00	2449.00	2448.50	2448.50	2448.50	2448.25	2447.75	2447.25	2447.00	2446.00	2446.00	2445.00
2413.00	2413.00	2413.00	2413.00	2413.00	2413.00	2413.50	2414.00	2414.00	2414.00	2414.00	2414.00	2414.00	2414.00	2414.00	2413.00	2413.00	2413.00	2413.00	2412.00	2412.00	2412.00	2412.00	2412.00	2412.00	2411.00	2411.00	2411.00	2411.00	2411.00	2410.50	2410.00	2410.00	2410.00	2410.00	2410.00	2410.00	2410.00	2410.00	2410.00	2410.00	2410.00	2410.00	2410.00	2410.00	2410.00	2410.00	2410.00	2410.00	2410.00	2410.00	2410.00	2410.00	2410.50	2411.00	2411.00	2411.00	2411.00	2411.00	2411.00	2411.00	2411.00	2411.00	2411.00	2411.00	2411.00	2412.00	2412.00	2412.00	2412.00	2412.00	2413.00	2413.00	2413.00	2413.00	2414.00	2414.00	2414.00	2414.50	2415.00	2415.00	2415.00	2416.00	2416.00	2416.00	2416.00	2416.00	2417.00	2417.00	2417.00	2417.00	2417.00	2417.00	2417.50	2418.00	2418.00	2418.00	2418.00	2418.00	2419.00	2419.00	2419.00	2419.00	2419.00	2419.00	2419.00	2419.00	2419.00	2419.00	2419.00	2419.00	2419.00	2419.00	2419.00	2419.00	2419.00	2419.00	2419.00	2419.00	2419.00	2419.00	2419.00	2419.00	2419.50	2420.00	2420.00	2420.00	2420.50	2421.00	2421.00	2421.00	2421.00	2422.00	2422.00	2422.00	2423.00	2423.00	2423.00	2424.00	2424.00	2424.50	2425.00	2425.00	2425.00	2426.00	2426.00	2426.00	2426.50	2427.00	2427.00	2427.00	2428.00	2428.00	2428.00	2429.00	2429.00	2429.00	2429.50	2430.00	2430.00	2431.00	2431.00	2432.00	2432.50	2433.00	2433.00	2434.00	2434.00	2435.00	2435.00	2435.50	2436.00	2437.00	2437.50	2438.00	2439.00	2439.50	2440.00	2440.00	2441.00	2441.50	2442.00	2442.50	2443.00	2443.00	2444.00	2444.00	2444.00	2444.50	2445.00	2445.00	2445.00	2445.00	2445.00	2445.00	2445.00	2445.00	2445.00	2445.00	2445.00	2445.00	2445.00	2445.00	2445.00	2444.50	2444.00	2444.00	2444.00	2444.00	2444.00	2444.00	2444.00	2444.00	2444.00	2444.00	2444.00	2445.00	2445.00	2445.50	2446.00	2446.00	2446.50	2447.00	2447.00	2447.00	2447.00	2447.00	2447.00	2448.00	2448.00	2448.00	2448.00	2449.00	2449.00	2449.00	2449.00	2449.50	2450.00	2450.00	2450.00	2450.00	2450.00	2450.00	2449.50	2449.00	2449.00	2449.00	2449.00	2449.00	2449.00	2448.50	2448.00	2448.00	2447.00	2447.00	2446.00
2413.00	2413.00	2413.00	2413.00	2413.00	2413.00	2413.50	2414.00	2414.00	2414.00	2414.00	2414.00	2414.00	2414.00	2414.00	2413.00	2413.00	2413.00	2413.00	2412.00	2412.00	2412.00	2412.00	2412.00	2412.00	2411.00	2411.00	2411.00	2411.00	2411.00	2410.50	2410.00	2410.00	2410.00	2410.00	2410.00	2410.00	2410.00	2410.00	2410.00	2410.00	2410.00	2410.00	2410.00	2410.00	2410.00	2410.00	2410.00	2410.00	2410.00	2410.00	2410.00	2410.00	2410.50	2411.00	2411.00	2411.00	2411.00	2411.00	2411.00	2411.00	2411.00	2411.00	2411.00	2411.00	2411.00	2412.00	2412.00	2412.00	2412.00	2412.00	2413.00	2413.00	2413.00	2413.00	2414.00	2414.00	2414.00	2414.50	2415.00	2415.00	2415.00	2416.00	2416.00	2416.00	2416.00	2416.00	2417.00	2417.00	2417.00	2417.00	2417.00	2417.00	2417.50	2418.00	2418.00	2418.00	2418.00	2418.00	2419.00	2419.00	2419.00	2419.00	2419.00	2419.00	2419.00	2419.00	2419.00	2419.00	2419.00	2419.00	2419.00	2419.00	2419.00	2419.00	2419.00	2419.00	2419.00	2419.00	2419.00	2419.00	2419.00	2419.00	2419.50	2420.00	2420.00	2420.00	2420.50	2421.00	2421.00	2421.00	2421.00	2422.00	2422.00	2422.00	2423.00	2423.00	2423.00	2424.00	2424.00	2424.50	2425.00	2425.00	2425.00	2426.00	2426.00	2426.00	2426.50	2427.00	2427.00	2427.00	2428.00	2428.00	2428.00	2429.00	2429.00	2429.00	2429.50	2430.00	2430.00	2431.00	2431.00	2432.00	2432.50	2433.00	2433.00	2434.00	2434.00	2435.00	2435.00	2435.50	2436.00	2437.00	2437.50	2438.00	2439.00	2439.50	2440.00	2440.00	2441.00	2441.50	2442.00	2442.50	2443.00	2443.00	2444.00	2444.00	2444.00	2444.50	2445.00	2445.00	2445.00	2445.00	2445.00	2445.00	2445.00	2445.00	2445.00	2445.00	2445.00	2445.00	2445.00	2445.00	2445.00	2444.50	2444.00	2444.00	2444.00	2444.00	2444.00	2444.00	2444.00	2444.00	2444.00	2444.00	2444.00	2445.00	2445.00	2445.50	2446.00	2446.00	2446.50	2447.00	2447.00	2447.00	2447.00	2447.00	2447.00	2448.00	2448.00	2448.00	2448.00	2449.00	2449.00	2449.00	2449.00	2449.50	2450.00	2450.00	2450.00	2450.00	2450.00	2450.00	2449.50	2449.00	2449.00	2449.00	2449.00	2449.00	2449.00	2448.50	2448.00	2448.00	2447.00	2447.00	2446.00
2413.00	2413.00	2413.00	2413.00	2413.00	2413.00	2413.50	2414.00	2414.00	2414.00	2414.00	2414.00	2414.00	2414.00	2414.00	2413.00	2413.00	2413.00	2413.00	2412.00	2412.00	2412.00	2412.00	2412.00	2412.00	2411.00	2411.00	2411.00	2411.00	2411.00	2410.50	2410.00	2410.00	2410.00	2410.00	2410.00	2410.00	2410.00	2410.00	2410.00	2410.00	2410.00	2410.00	2410.00	2410.00	2410.00	2410.00	2410.00	2410.00	2410.00	2410.00	2410.00	2410.00	2410.50	2411.00	2411.00	2411.00	2411.00	2411.00	2411.00	2411.00	2411.00	2411.00	2411.00	2411.00	2411.00	2412.00	2412.00	2412.00	2412.00	2412.00	2413.00	2413.00	2413.00	2413.00	2414.00	2414.00	2414.00	2414.50	2415.00	2415.00	2415.00	2416.00	2416.00	2416.00	2416.00	2416.00	2417.00	2417.00	2417.00	2417.00	2417.00	2417.00	2417.50	2418.00	2418.00	2418.00	2418.00	2418.00	2419.00	2419.00	2419.00	2419.00	2419.00	2419.00	2419.00	2419.00	2419.00	2419.00	2419.00	2419.00	2419.00	2419.00	2419.00	2419.00	2419.00	2419.00	2419.00	2419.00	2419.00	2419.00	2419.00	2419.00	2419.50	2420.00	2420.00	2420.00	2420.50	2421.00	2421.00	2421.00	2421.00	2422.00	2422.00	2422.00	2423.00	2423.00	2423.00	2424.00	2424.00	2424.50	2425.00	2425.00	2425.00	2426.00	2426.00	2426.00	2426.50	2427.00	2427.00	2427.00	2428.00	2428.00	2428.00	2429.00	2429.00	2429.00	2429.50	2430.00	2430.00	2431.00	2431.00	2432.00	2432.50	2433.00	2433.00	2434.00	2434.00	2435.00	2435.00	2435.50	2436.00	2437.00	2437.50	2438.00	2439.00	2439.50	2440.00	2440.00	2441.00	2441.50	2442.00	2442.50	2443.00	2443.00	2444.00	2444.00	2444.00	2444.50	2445.00	2445.00	2445.00	2445.00	2445.00	2445.00	2445.00	2445.00	2445.00	2445.00	2445.00	2445.00	2445.00	2445.00	2445.00	2444.50	2444.00	2444.00	2444.00	2444.00	2444.00	2444.00	2444.00	2444.00	2444.00	2444.00	2444.00	2445.00	2445.00	2445.50	2446.00	2446.00	2446.50	2447.00	2447.00	2447.00	2447.00	2447.00	2447.00	2448.00	2448.00	2448.00	2448.00	2449.00	2449.00	2449.00	2449.00	2449.50	2450.00	2450.00	2450.00	2450.00	2450.00	2450.00	2449.50	2449.00	2449.00	2449.00	2449.00	2449.00	2449.00	2448.50	2448.00	2448.00	2447.00	2447.00	2446.00
2413.00	2413.00	2413.00	2413.00	2413.00	2413.00	2413.50	2414.00	2414.00	2414.00	2414.00	2414.00	2414.00	2414.00	2414.00	2413.00	2413.00	2413.00	2413.00	2412.00	2412.00	2412.00	2412.00	2412.00	2412.00	2411.00	2411.00	2411.00	2411.00	2411.00	2410.50	2410.00	2410.00	2410.00	2410.00	2410.00	2410.00	2410.00	2410.00	2410.00	2410.00	2410.00	2410.00	2410.00	2410.00	2410.00	2410.00	2410.00	2410.00	2410.00	2410.00	2410.00	2410.00	2410.50	2411.00	2411.00	2411.00	2411.00	2411.00	2411.00	2411.00	2411.00	2411.00	2411.00	2411.00	2411.00	2412.00	2412.00	2412.00	2412.00	2412.00	2413.00	2413.00	2413.00	2413.00	2414.00	2414.00	2414.00	2414.50	2415.00	2415.00	2415.00	2416.00	2416.00	2416.00	2416.00	2416.00	2417.00	2417.00	2417.00	2417.00	2417.00	2417.00	2417.50	2418.00	2418.00	2418.00	2418.00	2418.00	2419.00	2419.00	2419.00	2419.00	2419.00	2419.00	2419.00	2419.00	2419.00	2419.00	2419.00	2419.00	2419.00	2419.00	2419.00	2419.00	2419.00	2419.00	2419.00	2419.00	2419.00	2419.00	2419.00	2419.00	2419.50	2420.00	2420.00	2420.00	2420.50	2421.00	2421.00	2421.00	2421.00	2422.00	2422.00	2422.00	2423.00	2423.00	2423.00	2424.00	2424.00	2424.50	2425.00	2425.00	2425.00	2426.00	2426.00	2426.00	2426.50	2427.00	2427.00	2427.00	2428.00	2428.00	2428.00	2429.00	2429.00	2429.00	2429.50	2430.00	2430.00	2431.00	2431.00	2432.00	2432.50	2433.00	2433.00	2434.00	2434.00	2435.00	2435.00	2435.50	2436.00	2437.00	2437.50	2438.00	2439.00	2439.50	2440.00	2440.00	2441.00	2441.50	2442.00	2442.50	2443.00	2443.00	2444.00	2444.00	2444.00	2444.50	2445.00	2445.00	2445.00	2445.00	2445.00	2445.00	2445.00	2445.00	2445.00	2445.00	2445.00	2445.00	2445.00	2445.00	2445.00	2444.50	2444.00	2444.00	2444.00	2444.00	2444.00	2444.00	2444.00	2444.00	2444.00	2444.00	2444.00	2445.00	2445.00	2445.50	2446.00	2446.00	2446.50	2447.00	2447.00	2447.00	2447.00	2447.00	2447.00	2448.00	2448.00	2448.00	2448.00	2449.00	2449.00	2449.00	2449.00	2449.50	2450.00	2450.00	2450.00	2450.00	2450.00	2450.00	2449.50	2449.00	2449.00	2449.00	2449.00	2449.00	2449.00	2448.50	2448.00	2448.00	2447.00	2447.00	2446.00
2413.00	2413.00	2413.00	2413.00	2413.00	2413.00	2413.50	2414.00	2414.00	2414.00	2414.00	2414.00	2414.00	2414.00	2414.00	2413.00	2413.00	2413.00	2413.00	2412.00	2412.00	2412.00	2412.00	2412.00	2412.00	2411.00	2411.00	2411.00	2411.00	2411.00	2410.50	2410.00	2410.00	2410.00	2410.00	2410.00	2410.00	2410.00	2410.00	2410.00	2410.00	2410.00	2410.00	2410.00	2410.00	2410.00	2410.00	2410.00	2410.00	2410.00	2410.00	2410.00	2410.00	2410.50	2411.00	2411.00	2411.00	2411.00	2411.00	2411.00	2411.00	2411.00	2411.00	2411.00	2411.00	2411.00	2412.00	2412.00	2412.00	2412.00	2412.00	2413.00	2413.00	2413.00	2413.00	2414.00	2414.00	2414.00	2414.50	2415.00	2415.00	2415.00	2416.00	2416.00	2416.00	2416.00	2416.00	2417.00	2417.00	2417.00	2417.00	2417.00	2417.00	2417.50	2418.00	2418.00	2418.00	2418.00	2418.00	2419.00	2419.00	2419.00	2419.00	2419.00	2419.00	2419.00	2419.00	2419.00	2419.00	2419.00	2419.00	2419.00	2419.00	2419.00	2419.00	2419.00	2419.00	2419.00	2419.00	2419.00	2419.00	2419.00	2419.00	2419.50	2420.00	2420.00	2420.00	2420.50	2421.00	2421.00	2421.00	2421.00	2422.00	2422.00	2422.00	2423.00	2423.00	2423.00	2424.00	2424.00	2424.50	2425.00	2425.00	2425.00	2426.00	2426.00	2426.00	2426.50	2427.00	2427.00	2427.00	2428.00	2428.00	2428.00	2429.00	2429.00	2429.00	2429.50	2430.00	2430.00	2431.00	2431.00	2432.00	2432.50	2433.00	2433.00	2434.00	2434.00	2435.00	2435.00	2435.50	2436.00	2437.00	2437.50	2438.00	2439.00	2439.50	2440.00	2440.00	2441.00	2441.50	2442.00	2442.50	2443.00	2443.00	2444.00	2444.00	2444.00	2444.50	2445.00	2445.00	2445.00	2445.00	2445.00	2445.00	2445.00	2445.00	2445.00	2445.00	2445.00	2445.00	2445.00	2445.00	2445.00	2444.50	2444.00	2444.00	2444.00	2444.00	2444.00	2444.00	2444.00	2444.00	2444.00	2444.00	2444.00	2445.00	2445.00	2445.50	2446.00	2446.00	2446.50	2447.00	2447.00	2447.00	2447.00	2447.00	2447.00	2448.00	2448.00	2448.00	2448.00	2449.00	2449.00	2449.00	2449.00	2449.50	2450.00	2450.00	2450.00	2450.00	2450.00	2450.00	2449.50	2449.00	2449.00	2449.00	2449.00	2449.00	2449.00	2448.50	2448.00	2448.00	2447.00	2447.00	2446.00
2416.00	2416.00	2417.00	2417.00	2417.00	2417.00	2417.00	2417.00	2417.00	2417.00	2417.00	2417.00	2417.00	2417.00	2417.00	2417.00	2416.50	2416.00	2416.00	2416.00	2415.00	2415.00	2415.00	2415.00	2415.00	2414.50	2414.00	2414.00	2414.00	2413.50	2413.00	2413.00	2413.00	2412.00	2412.00	2412.00	2412.00	2412.00	2412.00	2412.00	2412.00	2412.00	2411.00	2411.00	2411.00	2411.00	2411.00	2411.00	2411.00	2411.00	2412.00	2412.00	2412.00	2412.00	2412.00	2412.00	2412.00	2412.00	2412.00	2412.00	2412.00	2412.00	2412.00	2412.00	2412.00	2412.00	2412.00	2413.00	2413.00	2413.00	2413.00	2413.00	2413.50	2414.00	2414.00	2414.00	2414.50	2415.00	2415.00	2415.00	2416.00	2416.00	2416.00	2416.00	2417.00	2417.00	2417.00	2417.00	2417.00	2418.00	2418.00	2418.00	2418.00	2418.00	2418.50	2419.00	2419.00	2419.00	2419.00	2419.00	2419.00	2419.00	2419.00	2419.00	2419.00	2419.00	2419.00	2419.00	2419.00	2419.00	2419.00	2419.00	2419.00	2418.00	2418.00	2418.00	2418.00	2418.00	2418.50	2419.00	2419.00	2419.00	2419.00	2419.00	2419.00	2420.00	2420.00	2420.00	2420.00	2420.50	2421.00	2421.00	2421.50	2422.00	2422.00	2422.00	2423.00	2423.00	2423.00	2423.50	2424.00	2424.00	2424.00	2425.00	2425.00	2425.00	2425.00	2425.50	2426.00	2426.00	2426.00	2426.50	2427.00	2427.00	2428.00	2428.00	2428.50	2429.00	2429.50	2430.00	2430.00	2431.00	2431.00	2432.00	2432.00	2432.50	2433.00	2433.50	2434.00	2435.00	2435.00	2435.50	2436.50	2437.00	2437.50	2438.00	2439.00	2439.50	2440.00	2440.50	2441.00	2442.00	2442.00	2442.50	2443.00	2443.00	2443.50	2444.00	2444.00	2444.00	2444.00	2444.00	2444.00	2445.00	2445.00	2445.00	2445.00	2445.00	2445.00	2445.00	2444.00	2444.00	2444.00	2444.00	2444.00	2444.00	2444.00	2444.00	2444.00	2444.00	2444.00	2444.00	2444.00	2444.00	2444.00	2444.00	2444.00	2444.50	2445.00	2445.00	2445.50	2446.00	2446.00	2446.00	2446.00	2447.00	2447.00	2447.00	2447.00	2447.00	2448.00	2448.00	2448.50	2449.00	2449.00	2449.00	2449.00	2449.00	2450.00	2450.00	2450.00	2450.00	2450.00	2450.00	2450.00	2450.00	2450.00	2450.00	2449.50	2449.00	2449.00	2448.50	2448.00	2448.00	2447.00	2446.50
2416.00	2416.00	2417.00	2417.00	2417.00	2417.00	2417.00	2417.00	2417.00	2417.00	2417.00	2417.00	2417.00	2417.00	2417.00	2417.00	2416.50	2416.00	2416.00	2416.00	2415.00	2415.00	2415.00	2415.00	2415.00	2414.50	2414.00	2414.00	2414.00	2413.50	2413.00	2413.00	2413.00	2412.00	2412.00	2412.00	2412.00	2412.00	2412.00	2412.00	2412.00	2412.00	2411.00	2411.00	2411.00	2411.00	2411.00	2411.00	2411.00	2411.00	2412.00	2412.00	2412.00	2412.00	2412.00	2412.00	2412.00	2412.00	2412.00	2412.00	2412.00	2412.00	2412.00	2412.00	2412.00	2412.00	2412.00	2413.00	2413.00	2413.00	2413.00	2413.00	2413.50	2414.00	2414.00	2414.00	2414.50	2415.00	2415.00	2415.00	2416.00	2416.00	2416.00	2416.00	2417.00	2417.00	2417.00	2417.00	2417.00	2418.00	2418.00	2418.00	2418.00	2418.00	2418.50	2419.00	2419.00	2419.00	2419.00	2419.00	2419.00	2419.00	2419.00	2419.00	2419.00	2419.00	2419.00	2419.00	2419.00	2419.00	2419.00	2419.00	2419.00	2418.00	2418.00	2418.00	2418.00	2418.00	2418.50	2419.00	2419.00	2419.00	2419.00	2419.00	2419.00	2420.00	2420.00	2420.00	2420.00	2420.50	2421.00	2421.00	2421.50	2422.00	2422.00	2422.00	2423.00	2423.00	2423.00	2423.50	2424.00	2424.00	2424.00	2425.00	2425.00	2425.00	2425.00	2425.50	2426.00	2426.00	2426.00	2426.50	2427.00	2427.00	2428.00	2428.00	2428.50	2429.00	2429.50	2430.00	2430.00	2431.00	2431.00	2432.00	2432.00	2432.50	2433.00	2433.50	2434.00	2435.00	2435.00	2435.50	2436.50	2437.00	2437.50	2438.00	2439.00	2439.50	2440.00	2440.50	2441.00	2442.00	2442.00	2442.50	2443.00	2443.00	2443.50	2444.00	2444.00	2444.00	2444.00	2444.00	2444.00	2445.00	2445.00	2445.00	2445.00	2445.00	2445.00	2445.00	2444.00	2444.00	2444.00	2444.00	2444.00	2444.00	2444.00	2444.00	2444.00	2444.00	2444.00	2444.00	2444.00	2444.00	2444.00	2444.00	2444.00	2444.50	2445.00	2445.00	2445.50	2446.00	2446.00	2446.00	2446.00	2447.00	2447.00	2447.00	2447.00	2447.00	2448.00	2448.00	2448.50	2449.00	2449.00	2449.00	2449.00	2449.00	2450.00	2450.00	2450.00	2450.00	2450.00	2450.00	2450.00	2450.00	2450.00	2450.00	2449.50	2449.00	2449.00	2448.50	2448.00	2448.00	2447.00	2446.50
2416.00	2416.00	2417.00	2417.00	2417.00	2417.00	2417.00	2417.00	2417.00	2417.00	2417.00	2417.00	2417.00	2417.00	2417.00	2417.00	2416.50	2416.00	2416.00	2416.00	2415.00	2415.00	2415.00	2415.00	2415.00	2414.50	2414.00	2414.00	2414.00	2413.50	2413.00	2413.00	2413.00	2412.00	2412.00	2412.00	2412.00	2412.00	2412.00	2412.00	2412.00	2412.00	2411.00	2411.00	2411.00	2411.00	2411.00	2411.00	2411.00	2411.00	2412.00	2412.00	2412.00	2412.00	2412.00	2412.00	2412.00	2412.00	2412.00	2412.00	2412.00	2412.00	2412.00	2412.00	2412.00	2412.00	2412.00	2413.00	2413.00	2413.00	2413.00	2413.00	2413.50	2414.00	2414.00	2414.00	2414.50	2415.00	2415.00	2415.00	2416.00	2416.00	2416.00	2416.00	2417.00	2417.00	2417.00	2417.00	2417.00	2418.00	2418.00	2418.00	2418.00	2418.00	2418.50	2419.00	2419.00	2419.00	2419.00	2419.00	2419.00	2419.00	2419.00	2419.00	2419.00	2419.00	2419.00	2419.00	2419.00	2419.00	2419.00	2419.00	2419.00	2418.00	2418.00	2418.00	2418.00	2418.00	2418.50	2419.00	2419.00	2419.00	2419.00	2419.00	2419.00	2420.00	2420.00	2420.00	2420.00	2420.50	2421.00	2421.00	2421.50	2422.00	2422.00	2422.00	2423.00	2423.00	2423.00	2423.50	2424.00	2424.00	2424.00	2425.00	2425.00	2425.00	2425.00	2425.50	2426.00	2426.00	2426.00	2426.50	2427.00	2427.00	2428.00	2428.00	2428.50	2429.00	2429.50	2430.00	2430.00	2431.00	2431.00	2432.00	2432.00	2432.50	2433.00	2433.50	2434.00	2435.00	2435.00	2435.50	2436.50	2437.00	2437.50	2438.00	2439.00	2439.50	2440.00	2440.50	2441.00	2442.00	2442.00	2442.50	2443.00	2443.00	2443.50	2444.00	2444.00	2444.00	2444.00	2444.00	2444.00	2445.00	2445.00	2445.00	2445.00	2445.00	2445.00	2445.00	2444.00	2444.00	2444.00	2444.00	2444.00	2444.00	2444.00	2444.00	2444.00	2444.00	2444.00	2444.00	2444.00	2444.00	2444.00	2444.00	2444.00	2444.50	2445.00	2445.00	2445.50	2446.00	2446.00	2446.00	2446.00	2447.00	2447.00	2447.00	2447.00	2447.00	2448.00	2448.00	2448.50	2449.00	2449.00	2449.00	2449.00	2449.00	2450.00	2450.00	2450.00	2450.00	2450.00	2450.00	2450.00	2450.00	2450.00	2450.00	2449.50	2449.00	2449.00	2448.50	2448.00	2448.00	2447.00	2446.50
2416.00	2416.00	2417.00	2417.00	2417.00	2417.00	2417.00	2417.00	2417.00	2417.00	2417.00	2417.00	2417.00	2417.00	2417.00	2417.00	2416.50	2416.00	2416.00	2416.00	2415.00	2415.00	2415.00	2415.00	2415.00	2414.50	2414.00	2414.00	2414.00	2413.50	2413.00	2413.00	2413.00	2412.00	2412.00	2412.00	2412.00	2412.00	2412.00	2412.00	2412.00	2412.00	2411.00	2411.00	2411.00	2411.00	2411.00	2411.00	2411.00	2411.00	2412.00	2412.00	2412.00	2412.00	2412.00	2412.00	2412.00	2412.00	2412.00	2412.00	2412.00	2412.00	2412.00	2412.00	2412.00	2412.00	2412.00	2413.00	2413.00	2413.00	2413.00	2413.00	2413.50	2414.00	2414.00	2414.00	2414.50	2415.00	2415.00	2415.00	2416.00	2416.00	2416.00	2416.00	2417.00	2417.00	2417.00	2417.00	2417.00	2418.00	2418.00	2418.00	2418.00	2418.00	2418.50	2419.00	2419.00	2419.00	2419.00	2419.00	2419.00	2419.00	2419.00	2419.00	2419.00	2419.00	2419.00	2419.00	2419.00	2419.00	2419.00	2419.00	2419.00	2418.00	2418.00	2418.00	2418.00	2418.00	2418.50	2419.00	2419.00	2419.00	2419.00	2419.00	2419.00	2420.00	2420.00	2420.00	2420.00	2420.50	2421.00	2421.00	2421.50	2422.00	2422.00	2422.00	2423.00	2423.00	2423.00	2423.50	2424.00	2424.00	2424.00	2425.00	2425.00	2425.00	2425.00	2425.50	2426.00	2426.00	2426.00	2426.50	2427.00	2427.00	2428.00	2428.00	2428.50	2429.00	2429.50	2430.00	2430.00	2431.00	2431.00	2432.00	2432.00	2432.50	2433.00	2433.50	2434.00	2435.00	2435.00	2435.50	2436.50	2437.00	2437.50	2438.00	2439.00	2439.50	2440.00	2440.50	2441.00	2442.00	2442.00	2442.50	2443.00	2443.00	2443.50	2444.00	2444.00	2444.00	2444.00	2444.00	2444.00	2445.00	2445.00	2445.00	2445.00	2445.00	2445.00	2445.00	2444.00	2444.00	2444.00	2444.00	2444.00	2444.00	2444.00	2444.00	2444.00	2444.00	2444.00	2444.00	2444.00	2444.00	2444.00	2444.00	2444.00	2444.50	2445.00	2445.00	2445.50	2446.00	2446.00	2446.00	2446.00	2447.00	2447.00	2447.00	2447.00	2447.00	2448.00	2448.00	2448.50	2449.00	2449.00	2449.00	2449.00	2449.00	2450.00	2450.00	2450.00	2450.00	2450.00	2450.00	2450.00	2450.00	2450.00	2450.00	2449.50	2449.00	2449.00	2448.50	2448.00	2448.00	2447.00	2446.50
2416.00	2416.00	2417.00	2417.00	2417.00	2417.00	2417.00	2417.00	2417.00	2417.00	2417.00	2417.00	2417.00	2417.00	2417.00	2417.00	2416.50	2416.00	2416.00	2416.00	2415.00	2415.00	2415.00	2415.00	2415.00	2414.50	2414.00	2414.00	2414.00	2413.50	2413.00	2413.00	2413.00	2412.00	2412.00	2412.00	2412.00	2412.00	2412.00	2412.00	2412.00	2412.00	2411.00	2411.00	2411.00	2411.00	2411.00	2411.00	2411.00	2411.00	2412.00	2412.00	2412.00	2412.00	2412.00	2412.00	2412.00	2412.00	2412.00	2412.00	2412.00	2412.00	2412.00	2412.00	2412.00	2412.00	2412.00	2413.00	2413.00	2413.00	2413.00	2413.00	2413.50	2414.00	2414.00	2414.00	2414.50	2415.00	2415.00	2415.00	2416.00	2416.00	2416.00	2416.00	2417.00	2417.00	2417.00	2417.00	2417.00	2418.00	2418.00	2418.00	2418.00	2418.00	2418.50	2419.00	2419.00	2419.00	2419.00	2419.00	2419.00	2419.00	2419.00	2419.00	2419.00	2419.00	2419.00	2419.00	2419.00	2419.00	2419.00	2419.00	2419.00	2418.00	2418.00	2418.00	2418.00	2418.00	2418.50	2419.00	2419.00	2419.00	2419.00	2419.00	2419.00	2420.00	2420.00	2420.00	2420.00	2420.50	2421.00	2421.00	2421.50	2422.00	2422.00	2422.00	2423.00	2423.00	2423.00	2423.50	2424.00	2424.00	2424.00	2425.00	2425.00	2425.00	2425.00	2425.50	2426.00	2426.00	2426.00	2426.50	2427.00	2427.00	2428.00	2428.00	2428.50	2429.00	2429.50	2430.00	2430.00	2431.00	2431.00	2432.00	2432.00	2432.50	2433.00	2433.50	2434.00	2435.00	2435.00	2435.50	2436.50	2437.00	2437.50	2438.00	2439.00	2439.50	2440.00	2440.50	2441.00	2442.00	2442.00	2442.50	2443.00	2443.00	2443.50	2444.00	2444.00	2444.00	2444.00	2444.00	2444.00	2445.00	2445.00	2445.00	2445.00	2445.00	2445.00	2445.00	2444.00	2444.00	2444.00	2444.00	2444.00	2444.00	2444.00	2444.00	2444.00	2444.00	2444.00	2444.00	2444.00	2444.00	2444.00	2444.00	2444.00	2444.50	2445.00	2445.00	2445.50	2446.00	2446.00	2446.00	2446.00	2447.00	2447.00	2447.00	2447.00	2447.00	2448.00	2448.00	2448.50	2449.00	2449.00	2449.00	2449.00	2449.00	2450.00	2450.00	2450.00	2450.00	2450.00	2450.00	2450.00	2450.00	2450.00	2450.00	2449.50	2449.00	2449.00	2448.50	2448.00	2448.00	2447.00	2446.50
2417.25	2417.50	2418.50	2418.50	2418.50	2419.00	2419.00	2419.00	2419.00	2419.00	2419.00	2419.00	2419.00	2419.00	2419.00	2419.00	2418.75	2418.25	2418.00	2418.00	2417.00	2417.00	2417.00	2416.75	2416.50	2416.25	2415.75	2415.50	2415.50	2415.00	2414.50	2414.50	2414.50	2413.50	2413.50	2413.50	2413.50	2413.00	2413.00	2413.00	2413.00	2412.75	2412.00	2412.00	2412.00	2412.00	2412.00	2412.00	2412.00	2412.00	2412.50	2412.50	2412.50	2412.50	2412.50	2412.50	2412.50	2412.50	2412.50	2412.50	2412.50	2412.50	2412.50	2412.50	2412.50	2412.50	2412.50	2413.00	2413.50	2413.50	2413.50	2413.50	2413.75	2414.25	2414.50	2414.50	2414.75	2415.00	2415.00	2415.25	2416.00	2416.00	2416.50	2416.50	2417.25	2417.50	2417.50	2417.50	2417.50	2418.00	2418.00	2418.50	2418.50	2418.50	2418.75	2419.00	2419.00	2419.00	2419.00	2419.00	2419.00	2419.00	2419.00	2419.00	2419.00	2419.00	2419.00	2419.00	2419.00	2419.00	2419.00	2419.00	2419.00	2418.50	2418.50	2418.50	2418.50	2418.50	2418.75	2419.00	2419.00	2419.00	2419.00	2419.00	2419.25	2420.00	2420.00	2420.00	2420.00	2420.50	2421.00	2421.00	2421.25	2421.75	2422.00	2422.00	2423.00	2423.00	2423.00	2423.25	2423.75	2424.00	2424.00	2425.00	2425.00	2425.00	2425.00	2425.75	2426.00	2426.00	2426.00	2426.50	2427.00	2427.00	2427.50	2427.75	2428.25	2428.50	2429.00	2429.50	2429.50	2430.25	2430.50	2431.50	2431.50	2432.00	2432.50	2433.25	2434.00	2434.50	2434.75	2435.25	2436.25	2436.75	2437.25	2438.00	2438.50	2439.00	2439.50	2440.25	2440.50	2441.50	2441.50	2442.00	2442.50	2442.75	2443.25	2443.50	2443.50	2443.75	2444.00	2444.00	2444.00	2444.50	2444.50	2444.50	2444.50	2444.50	2444.50	2444.50	2444.00	2444.00	2444.00	2444.00	2444.00	2444.00	2444.00	2444.00	2444.00	2444.00	2444.00	2444.00	2444.00	2444.00	2444.00	2444.00	2444.00	2444.25	2444.75	2445.00	2445.25	2445.75	2446.00	2446.00	2446.00	2447.00	2447.00	2447.00	2447.00	2447.50	2448.00	2448.00	2448.25	2448.75	2449.00	2449.00	2449.00	2449.00	2449.50	2450.00	2450.00	2450.00	2450.00	2450.00	2450.00	2449.75	2449.50	2449.50	2449.25	2449.00	2448.75	2448.25	2448.00	2448.00	2447.50	2446.75
2418.50	2419.00	2420.00	2420.00	2420.00	2421.00	2421.00	2421.00	2421.00	2421.00	2421.00	2421.00	2421.00	2421.00	2421.00	2421.00	2421.00	2420.50	2420.00	2420.00	2419.00	2419.00	2419.00	2418.50	2418.00	2418.00	2417.50	2417.00	2417.00	2416.50	2416.00	2416.00	2416.00	2415.00	2415.00	2415.00	2415.00	2414.00	2414.00	2414.00	2414.00	2413.50	2413.00	2413.00	2413.00	2413.00	2413.00	2413.00	2413.00	2413.00	2413.00	2413.00	2413.00	2413.00	2413.00	2413.00	2413.00	2413.00	2413.00	2413.00	2413.00	2413.00	2413.00	2413.00	2413.00	2413.00	2413.00	2413.00	2414.00	2414.00	2414.00	2414.00	2414.00	2414.50	2415.00	2415.00	2415.00	2415.00	2415.00	2415.50	2416.00	2416.00	2417.00	2417.00	2417.50	2418.00	2418.00	2418.00	2418.00	2418.00	2418.00	2419.00	2419.00	2419.00	2419.00	2419.00	2419.00	2419.00	2419.00	2419.00	2419.00	2419.00	2419.00	2419.00	2419.00	2419.00	2419.00	2419.00	2419.00	2419.00	2419.00	2419.00	2419.00	2419.00	2419.00	2419.00	2419.00	2419.00	2419.00	2419.00	2419.00	2419.00	2419.00	2419.00	2419.50	2420.00	2420.00	2420.00	2420.00	2420.50	2421.00	2421.00	2421.00	2421.50	2422.00	2422.00	2423.00	2423.00	2423.00	2423.00	2423.50	2424.00	2424.00	2425.00	2425.00	2425.00	2425.00	2426.00	2426.00	2426.00	2426.00	2426.50	2427.00	2427.00	2427.00	2427.50	2428.00	2428.00	2428.50	2429.00	2429.00	2429.50	2430.00	2431.00	2431.00	2431.50	2432.00	2433.00	2434.00	2434.00	2434.50	2435.00	2436.00	2436.50	2437.00	2438.00	2438.00	2438.50	2439.00	2440.00	2440.00	2441.00	2441.00	2441.50	2442.00	2442.50	2443.00	2443.00	2443.00	2443.50	2444.00	2444.00	2444.00	2444.00	2444.00	2444.00	2444.00	2444.00	2444.00	2444.00	2444.00	2444.00	2444.00	2444.00	2444.00	2444.00	2444.00	2444.00	2444.00	2444.00	2444.00	2444.00	2444.00	2444.00	2444.00	2444.00	2444.00	2444.00	2444.50	2445.00	2445.00	2445.50	2446.00	2446.00	2446.00	2447.00	2447.00	2447.00	2447.00	2448.00	2448.00	2448.00	2448.00	2448.50	2449.00	2449.00	2449.00	2449.00	2449.00	2450.00	2450.00	2450.00	2450.00	2450.00	2450.00	2449.50	2449.00	2449.00	2449.00	2449.00	2448.50	2448.00	2448.00	2448.00	2448.00	2447.00
2418.50	2419.00	2420.00	2420.00	2420.00	2421.00	2421.00	2421.00	2421.00	2421.00	2421.00	2421.00	2421.00	2421.00	2421.00	2421.00	2421.00	2420.50	2420.00	2420.00	2419.00	2419.00	2419.00	2418.50	2418.00	2418.00	2417.50	2417.00	2417.00	2416.50	2416.00	2416.00	2416.00	2415.00	2415.00	2415.00	2415.00	2414.00	2414.00	2414.00	2414.00	2413.50	2413.00	2413.00	2413.00	2413.00	2413.00	2413.00	2413.00	2413.00	2413.00	2413.00	2413.00	2413.00	2413.00	2413.00	2413.00	2413.00	2413.00	2413.00	2413.00	2413.00	2413.00	2413.00	2413.00	2413.00	2413.00	2413.00	2414.00	2414.00	2414.00	2414.00	2414.00	2414.50	2415.00	2415.00	2415.00	2415.00	2415.00	2415.50	2416.00	2416.00	2417.00	2417.00	2417.50	2418.00	2418.00	2418.00	2418.00	2418.00	2418.00	2419.00	2419.00	2419.00	2419.00	2419.00	2419.00	2419.00	2419.00	2419.00	2419.00	2419.00	2419.00	2419.00	2419.00	2419.00	2419.00	2419.00	2419.00	2419.00	2419.00	2419.00	2419.00	2419.00	2419.00	2419.00	2419.00	2419.00	2419.00	2419.00	2419.00	2419.00	2419.00	2419.00	2419.50	2420.00	2420.00	2420.00	2420.00	2420.50	2421.00	2421.00	2421.00	2421.50	2422.00	2422.00	2423.00	2423.00	2423.00	2423.00	2423.50	2424.00	2424.00	2425.00	2425.00	2425.00	2425.00	2426.00	2426.00	2426.00	2426.00	2426.50	2427.00	2427.00	2427.00	2427.50	2428.00	2428.00	2428.50	2429.00	2429.00	2429.50	2430.00	2431.00	2431.00	2431.50	2432.00	2433.00	2434.00	2434.00	2434.50	2435.00	2436.00	2436.50	2437.00	2438.00	2438.00	2438.50	2439.00	2440.00	2440.00	2441.00	2441.00	2441.50	2442.00	2442.50	2443.00	2443.00	2443.00	2443.50	2444.00	2444.00	2444.00	2444.00	2444.00	2444.00	2444.00	2444.00	2444.00	2444.00	2444.00	2444.00	2444.00	2444.00	2444.00	2444.00	2444.00	2444.00	2444.00	2444.00	2444.00	2444.00	2444.00	2444.00	2444.00	2444.00	2444.00	2444.00	2444.50	2445.00	2445.00	2445.50	2446.00	2446.00	2446.00	2447.00	2447.00	2447.00	2447.00	2448.00	2448.00	2448.00	2448.00	2448.50	2449.00	2449.00	2449.00	2449.00	2449.00	2450.00	2450.00	2450.00	2450.00	2450.00	2450.00	2449.50	2449.00	2449.00	2449.00	2449.00	2448.50	2448.00	2448.00	2448.00	2448.00	2447.00
2418.50	2419.00	2420.00	2420.00	2420.00	2421.00	2421.00	2421.00	2421.00	2421.00	2421.00	2421.00	2421.00	2421.00	2421.00	2421.00	2421.00	2420.50	2420.00	2420.00	2419.00	2419.00	2419.00	2418.50	2418.00	2418.00	2417.50	2417.00	2417.00	2416.50	2416.00	2416.00	2416.00	2415.00	2415.00	2415.00	2415.00	2414.00	2414.00	2414.00	2414.00	2413.50	2413.00	2413.00	2413.00	2413.00	2413.00	2413.00	2413.00	2413.00	2413.00	2413.00	2413.00	2413.00	2413.00	2413.00	2413.00	2413.00	2413.00	2413.00	2413.00	2413.00	2413.00	2413.00	2413.00	2413.00	2413.00	2413.00	2414.00	2414.00	2414.00	2414.00	2414.00	2414.50	2415.00	2415.00	2415.00	2415.00	2415.00	2415.50	2416.00	2416.00	2417.00	2417.00	2417.50	2418.00	2418.00	2418.00	2418.00	2418.00	2418.00	2419.00	2419.00	2419.00	2419.00	2419.00	2419.00	2419.00	2419.00	2419.00	2419.00	2419.00	2419.00	2419.00	2419.00	2419.00	2419.00	2419.00	2419.00	2419.00	2419.00	2419.00	2419.00	2419.00	2419.00	2419.00	2419.00	2419.00	2419.00	2419.00	2419.00	2419.00	2419.00	2419.00	2419.50	2420.00	2420.00	2420.00	2420.00	2420.50	2421.00	2421.00	2421.00	2421.50	2422.00	2422.00	2423.00	2423.00	2423.00	2423.00	2423.50	2424.00	2424.00	2425.00	2425.00	2425.00	2425.00	2426.00	2426.00	2426.00	2426.00	2426.50	2427.00	2427.00	2427.00	2427.50	2428.00	2428.00	2428.50	2429.00	2429.00	2429.50	2430.00	2431.00	2431.00	2431.50	2432.00	2433.00	2434.00	2434.00	2434.50	2435.00	2436.00	2436.50	2437.00	2438.00	2438.00	2438.50	2439.00	2440.00	2440.00	2441.00	2441.00	2441.50	2442.00	2442.50	2443.00	2443.00	2443.00	2443.50	2444.00	2444.00	2444.00	2444.00	2444.00	2444.00	2444.00	2444.00	2444.00	2444.00	2444.00	2444.00	2444.00	2444.00	2444.00	2444.00	2444.00	2444.00	2444.00	2444.00	2444.00	2444.00	2444.00	2444.00	2444.00	2444.00	2444.00	2444.00	2444.50	2445.00	2445.00	2445.50	2446.00	2446.00	2446.00	2447.00	2447.00	2447.00	2447.00	2448.00	2448.00	2448.00	2448.00	2448.50	2449.00	2449.00	2449.00	2449.00	2449.00	2450.00	2450.00	2450.00	2450.00	2450.00	2450.00	2449.50	2449.00	2449.00	2449.00	2449.00	2448.50	2448.00	2448.00	2448.00	2448.00	2447.00
2418.50	2419.00	2420.00	2420.00	2420.00	2421.00	2421.00	2421.00	2421.00	2421.00	2421.00	2421.00	2421.00	2421.00	2421.00	2421.00	2421.00	2420.50	2420.00	2420.00	2419.00	2419.00	2419.00	2418.50	2418.00	2418.00	2417.50	2417.00	2417.00	2416.50	2416.00	2416.00	2416.00	2415.00	2415.00	2415.00	2415.00	2414.00	2414.00	2414.00	2414.00	2413.50	2413.00	2413.00	2413.00	2413.00	2413.00	2413.00	2413.00	2413.00	2413.00	2413.00	2413.00	2413.00	2413.00	2413.00	2413.00	2413.00	2413.00	2413.00	2413.00	2413.00	2413.00	2413.00	2413.00	2413.00	2413.00	2413.00	2414.00	2414.00	2414.00	2414.00	2414.00	2414.50	2415.00	2415.00	2415.00	2415.00	2415.00	2415.50	2416.00	2416.00	2417.00	2417.00	2417.50	2418.00	2418.00	2418.00	2418.00	2418.00	2418.00	2419.00	2419.00	2419.00	2419.00	2419.00	2419.00	2419.00	2419.00	2419.00	2419.00	2419.00	2419.00	2419.00	2419.00	2419.00	2419.00	2419.00	2419.00	2419.00	2419.00	2419.00	2419.00	2419.00	2419.00	2419.00	2419.00	2419.00	2419.00	2419.00	2419.00	2419.00	2419.00	2419.00	2419.50	2420.00	2420.00	2420.00	2420.00	2420.50	2421.00	2421.00	2421.00	2421.50	2422.00	2422.00	2423.00	2423.00	2423.00	2423.00	2423.50	2424.00	2424.00	2425.00	2425.00	2425.00	2425.00	2426.00	2426.00	2426.00	2426.00	2426.50	2427.00	2427.00	2427.00	2427.50	2428.00	2428.00	2428.50	2429.00	2429.00	2429.50	2430.00	2431.00	2431.00	2431.50	2432.00	2433.00	2434.00	2434.00	2434.50	2435.00	2436.00	2436.50	2437.00	2438.00	2438.00	2438.50	2439.00	2440.00	2440.00	2441.00	2441.00	2441.50	2442.00	2442.50	2443.00	2443.00	2443.00	2443.50	2444.00	2444.00	2444.00	2444.00	2444.00	2444.00	2444.00	2444.00	2444.00	2444.00	2444.00	2444.00	2444.00	2444.00	2444.00	2444.00	2444.00	2444.00	2444.00	2444.00	2444.00	2444.00	2444.00	2444.00	2444.00	2444.00	2444.00	2444.00	2444.50	2445.00	2445.00	2445.50	2446.00	2446.00	2446.00	2447.00	2447.00	2447.00	2447.00	2448.00	2448.00	2448.00	2448.00	2448.50	2449.00	2449.00	2449.00	2449.00	2449.00	2450.00	2450.00	2450.00	2450.00	2450.00	2450.00	2449.50	2449.00	2449.00	2449.00	2449.00	2448.50	2448.00	2448.00	2448.00	2448.00	2447.00
2418.50	2419.00	2420.00	2420.00	2420.00	2421.00	2421.00	2421.00	2421.00	2421.00	2421.00	2421.00	2421.00	2421.00	2421.00	2421.00	2421.00	2420.50	2420.00	2420.00	2419.00	2419.00	2419.00	2418.50	2418.00	2418.00	2417.50	2417.00	2417.00	2416.50	2416.00	2416.00	2416.00	2415.00	2415.00	2415.00	2415.00	2414.00	2414.00	2414.00	2414.00	2413.50	2413.00	2413.00	2413.00	2413.00	2413.00	2413.00	2413.00	2413.00	2413.00	2413.00	2413.00	2413.00	2413.00	2413.00	2413.00	2413.00	2413.00	2413.00	2413.00	2413.00	2413.00	2413.00	2413.00	2413.00	2413.00	2413.00	2414.00	2414.00	2414.00	2414.00	2414.00	2414.50	2415.00	2415.00	2415.00	2415.00	2415.00	2415.50	2416.00	2416.00	2417.00	2417.00	2417.50	2418.00	2418.00	2418.00	2418.00	2418.00	2418.00	2419.00	2419.00	2419.00	2419.00	2419.00	2419.00	2419.00	2419.00	2419.00	2419.00	2419.00	2419.00	2419.00	2419.00	2419.00	2419.00	2419.00	2419.00	2419.00	2419.00	2419.00	2419.00	2419.00	2419.00	2419.00	2419.00	2419.00	2419.00	2419.00	2419.00	2419.00	2419.00	2419.00	2419.50	2420.00	2420.00	2420.00	2420.00	2420.50	2421.00	2421.00	2421.00	2421.50	2422.00	2422.00	2423.00	2423.00	2423.00	2423.00	2423.50	2424.00	2424.00	2425.00	2425.00	2425.00	2425.00	2426.00	2426.00	2426.00	2426.00	2426.50	2427.00	2427.00	2427.00	2427.50	2428.00	2428.00	2428.50	2429.00	2429.00	2429.50	2430.00	2431.00	2431.00	2431.50	2432.00	2433.00	2434.00	2434.00	2434.50	2435.00	2436.00	2436.50	2437.00	2438.00	2438.00	2438.50	2439.00	2440.00	2440.00	2441.00	2441.00	2441.50	2442.00	2442.50	2443.00	2443.00	2443.00	2443.50	2444.00	2444.00	2444.00	2444.00	2444.00	2444.00	2444.00	2444.00	2444.00	2444.00	2444.00	2444.00	2444.00	2444.00	2444.00	2444.00	2444.00	2444.00	2444.00	2444.00	2444.00	2444.00	2444.00	2444.00	2444.00	2444.00	2444.00	2444.00	2444.50	2445.00	2445.00	2445.50	2446.00	2446.00	2446.00	2447.00	2447.00	2447.00	2447.00	2448.00	2448.00	2448.00	2448.00	2448.50	2449.00	2449.00	2449.00	2449.00	2449.00	2450.00	2450.00	2450.00	2450.00	2450.00	2450.00	2449.50	2449.00	2449.00	2449.00	2449.00	2448.50	2448.00	2448.00	2448.00	2448.00	2447.00
2419.75	2420.25	2421.00	2421.00	2421.50	2422.50	2422.50	2422.50	2422.75	2423.00	2423.00	2423.00	2423.00	2423.00	2423.00	2423.00	2423.00	2422.50	2422.00	2422.00	2421.00	2421.00	2421.00	2420.50	2420.00	2419.75	2419.25	2419.00	2418.50	2418.25	2417.75	2417.50	2417.50	2416.50	2416.50	2416.50	2416.00	2415.50	2415.50	2415.50	2415.00	2414.75	2414.50	2414.50	2414.50	2414.50	2414.25	2414.00	2414.00	2414.00	2414.00	2414.00	2413.50	2413.50	2413.50	2413.50	2413.50	2413.50	2413.50	2413.50	2413.50	2413.50	2413.50	2413.50	2413.50	2413.50	2413.50	2413.50	2414.00	2414.50	2414.50	2414.50	2414.50	2415.00	2415.50	2415.50	2415.50	2415.50	2415.75	2416.25	2416.50	2416.50	2417.25	2417.50	2417.75	2418.00	2418.25	2418.50	2418.50	2418.50	2418.50	2419.25	2419.50	2419.50	2419.50	2419.50	2419.50	2419.50	2419.50	2419.50	2419.50	2419.50	2419.50	2419.50	2419.50	2419.50	2419.50	2419.50	2419.50	2419.50	2419.50	2419.50	2419.50	2419.50	2419.50	2419.50	2419.50	2419.50	2419.50	2419.50	2419.50	2419.50	2419.50	2419.50	2419.75	2420.50	2420.50	2420.50	2420.50	2420.75	2421.50	2421.50	2421.50	2421.75	2422.00	2422.50	2423.00	2423.00	2423.50	2423.50	2423.75	2424.25	2424.50	2425.00	2425.00	2425.00	2425.50	2426.00	2426.00	2426.00	2426.50	2426.75	2427.00	2427.00	2427.50	2427.75	2428.25	2428.50	2428.75	2429.00	2429.50	2429.75	2430.50	2431.00	2431.25	2431.75	2432.50	2433.00	2434.00	2434.00	2434.50	2435.00	2436.00	2436.25	2436.75	2437.50	2437.75	2438.25	2438.50	2439.50	2439.50	2440.50	2440.50	2441.00	2441.50	2442.00	2442.50	2442.50	2442.50	2443.00	2443.50	2443.50	2443.50	2443.50	2443.50	2443.50	2443.50	2443.50	2443.50	2443.50	2443.50	2443.50	2443.50	2443.50	2443.50	2443.50	2443.50	2443.50	2444.00	2444.00	2444.00	2444.00	2444.00	2444.00	2444.00	2444.00	2444.00	2444.00	2444.50	2445.00	2445.00	2445.25	2446.00	2446.00	2446.00	2447.00	2447.00	2447.00	2447.50	2448.00	2448.00	2448.00	2448.50	2448.75	2449.00	2449.25	2449.50	2449.50	2449.50	2450.00	2450.00	2450.00	2450.00	2450.00	2450.00	2449.50	2449.00	2449.00	2449.00	2449.00	2448.50	2448.00	2448.00	2447.50	2447.50	2446.75
2421.00	2421.50	2422.00	2422.00	2423.00	2424.00	2424.00	2424.00	2424.50	2425.00	2425.00	2425.00	2425.00	2425.00	2425.00	2425.00	2425.00	2424.50	2424.00	2424.00	2423.00	2423.00	2423.00	2422.50	2422.00	2421.50	2421.00	2421.00	2420.00	2420.00	2419.50	2419.00	2419.00	2418.00	2418.00	2418.00	2417.00	2417.00	2417.00	2417.00	2416.00	2416.00	2416.00	2416.00	2416.00	2416.00	2415.50	2415.00	2415.00	2415.00	2415.00	2415.00	2414.00	2414.00	2414.00	2414.00	2414.00	2414.00	2414.00	2414.00	2414.00	2414.00	2414.00	2414.00	2414.00	2414.00	2414.00	2414.00	2414.00	2415.00	2415.00	2415.00	2415.00	2415.50	2416.00	2416.00	2416.00	2416.00	2416.50	2417.00	2417.00	2417.00	2417.50	2418.00	2418.00	2418.00	2418.50	2419.00	2419.00	2419.00	2419.00	2419.50	2420.00	2420.00	2420.00	2420.00	2420.00	2420.00	2420.00	2420.00	2420.00	2420.00	2420.00	2420.00	2420.00	2420.00	2420.00	2420.00	2420.00	2420.00	2420.00	2420.00	2420.00	2420.00	2420.00	2420.00	2420.00	2420.00	2420.00	2420.00	2420.00	2420.00	2420.00	2420.00	2420.00	2421.00	2421.00	2421.00	2421.00	2421.00	2422.00	2422.00	2422.00	2422.00	2422.00	2423.00	2423.00	2423.00	2424.00	2424.00	2424.00	2424.50	2425.00	2425.00	2425.00	2425.00	2426.00	2426.00	2426.00	2426.00	2427.00	2427.00	2427.00	2427.00	2428.00	2428.00	2428.50	2429.00	2429.00	2429.00	2430.00	2430.00	2431.00	2431.00	2431.50	2432.00	2433.00	2433.00	2434.00	2434.00	2434.50	2435.00	2436.00	2436.00	2436.50	2437.00	2437.50	2438.00	2438.00	2439.00	2439.00	2440.00	2440.00	2440.50	2441.00	2441.50	2442.00	2442.00	2442.00	2442.50	2443.00	2443.00	2443.00	2443.00	2443.00	2443.00	2443.00	2443.00	2443.00	2443.00	2443.00	2443.00	2443.00	2443.00	2443.00	2443.00	2443.00	2443.00	2444.00	2444.00	2444.00	2444.00	2444.00	2444.00	2444.00	2444.00	2444.00	2444.00	2444.50	2445.00	2445.00	2445.00	2446.00	2446.00	2446.00	2447.00	2447.00	2447.00	2448.00	2448.00	2448.00	2448.00	2449.00	2449.00	2449.00	2449.50	2450.00	2450.00	2450.00	2450.00	2450.00	2450.00	2450.00	2450.00	2450.00	2449.50	2449.00	2449.00	2449.00	2449.00	2448.50	2448.00	2448.00	2447.00	2447.00	2446.50
2421.00	2421.50	2422.00	2422.00	2423.00	2424.00	2424.00	2424.00	2424.50	2425.00	2425.00	2425.00	2425.00	2425.00	2425.00	2425.00	2425.00	2424.50	2424.00	2424.00	2423.00	2423.00	2423.00	2422.50	2422.00	2421.50	2421.00	2421.00	2420.00	2420.00	2419.50	2419.00	2419.00	2418.00	2418.00	2418.00	2417.00	2417.00	2417.00	2417.00	2416.00	2416.00	2416.00	2416.00	2416.00	2416.00	2415.50	2415.00	2415.00	2415.00	2415.00	2415.00	2414.00	2414.00	2414.00	2414.00	2414.00	2414.00	2414.00	2414.00	2414.00	2414.00	2414.00	2414.00	2414.00	2414.00	2414.00	2414.00	2414.00	2415.00	2415.00	2415.00	2415.00	2415.50	2416.00	2416.00	2416.00	2416.00	2416.50	2417.00	2417.00	2417.00	2417.50	2418.00	2418.00	2418.00	2418.50	2419.00	2419.00	2419.00	2419.00	2419.50	2420.00	2420.00	2420.00	2420.00	2420.00	2420.00	2420.00	2420.00	2420.00	2420.00	2420.00	2420.00	2420.00	2420.00	2420.00	2420.00	2420.00	2420.00	2420.00	2420.00	2420.00	2420.00	2420.00	2420.00	2420.00	2420.00	2420.00	2420.00	2420.00	2420.00	2420.00	2420.00	2420.00	2421.00	2421.00	2421.00	2421.00	2421.00	2422.00	2422.00	2422.00	2422.00	2422.00	2423.00	2423.00	2423.00	2424.00	2424.00	2424.00	2424.50	2425.00	2425.00	2425.00	2425.00	2426.00	2426.00	2426.00	2426.00	2427.00	2427.00	2427.00	2427.00	2428.00	2428.00	2428.50	2429.00	2429.00	2429.00	2430.00	2430.00	2431.00	2431.00	2431.50	2432.00	2433.00	2433.00	2434.00	2434.00	2434.50	2435.00	2436.00	2436.00	2436.50	2437.00	2437.50	2438.00	2438.00	2439.00	2439.00	2440.00	2440.00	2440.50	2441.00	2441.50	2442.00	2442.00	2442.00	2442.50	2443.00	2443.00	2443.00	2443.00	2443.00	2443.00	2443.00	2443.00	2443.00	2443.00	2443.00	2443.00	2443.00	2443.00	2443.00	2443.00	2443.00	2443.00	2444.00	2444.00	2444.00	2444.00	2444.00	2444.00	2444.00	2444.00	2444.00	2444.00	2444.50	2445.00	2445.00	2445.00	2446.00	2446.00	2446.00	2447.00	2447.00	2447.00	2448.00	2448.00	2448.00	2448.00	2449.00	2449.00	2449.00	2449.50	2450.00	2450.00	2450.00	2450.00	2450.00	2450.00	2450.00	2450.00	2450.00	2449.50	2449.00	2449.00	2449.00	2449.00	2448.50	2448.00	2448.00	2447.00	2447.00	2446.50
2421.00	2421.50	2422.00	2422.00	2423.00	2424.00	2424.00	2424.00	2424.50	2425.00	2425.00	2425.00	2425.00	2425.00	2425.00	2425.00	2425.00	2424.50	2424.00	2424.00	2423.00	2423.00	2423.00	2422.50	2422.00	2421.50	2421.00	2421.00	2420.00	2420.00	2419.50	2419.00	2419.00	2418.00	2418.00	2418.00	2417.00	2417.00	2417.00	2417.00	2416.00	2416.00	2416.00	2416.00	2416.00	2416.00	2415.50	2415.00	2415.00	2415.00	2415.00	2415.00	2414.00	2414.00	2414.00	2414.00	2414.00	2414.00	2414.00	2414.00	2414.00	2414.00	2414.00	2414.00	2414.00	2414.00	2414.00	2414.00	2414.00	2415.00	2415.00	2415.00	2415.00	2415.50	2416.00	2416.00	2416.00	2416.00	2416.50	2417.00	2417.00	2417.00	2417.50	2418.00	2418.00	2418.00	2418.50	2419.00	2419.00	2419.00	2419.00	2419.50	2420.00	2420.00	2420.00	2420.00	2420.00	2420.00	2420.00	2420.00	2420.00	2420.00	2420.00	2420.00	2420.00	2420.00	2420.00	2420.00	2420.00	2420.00	2420.00	2420.00	2420.00	2420.00	2420.00	2420.00	2420.00	2420.00	2420.00	2420.00	2420.00	2420.00	2420.00	2420.00	2420.00	2421.00	2421.00	2421.00	2421.00	2421.00	2422.00	2422.00	2422.00	2422.00	2422.00	2423.00	2423.00	2423.00	2424.00	2424.00	2424.00	2424.50	2425.00	2425.00	2425.00	2425.00	2426.00	2426.00	2426.00	2426.00	2427.00	2427.00	2427.00	2427.00	2428.00	2428.00	2428.50	2429.00	2429.00	2429.00	2430.00	2430.00	2431.00	2431.00	2431.50	2432.00	2433.00	2433.00	2434.00	2434.00	2434.50	2435.00	2436.00	2436.00	2436.50	2437.00	2437.50	2438.00	2438.00	2439.00	2439.00	2440.00	2440.00	2440.50	2441.00	2441.50	2442.00	2442.00	2442.00	2442.50	2443.00	2443.00	2443.00	2443.00	2443.00	2443.00	2443.00	2443.00	2443.00	2443.00	2443.00	2443.00	2443.00	2443.00	2443.00	2443.00	2443.00	2443.00	2444.00	2444.00	2444.00	2444.00	2444.00	2444.00	2444.00	2444.00	2444.00	2444.00	2444.50	2445.00	2445.00	2445.00	2446.00	2446.00	2446.00	2447.00	2447.00	2447.00	2448.00	2448.00	2448.00	2448.00	2449.00	2449.00	2449.00	2449.50	2450.00	2450.00	2450.00	2450.00	2450.00	2450.00	2450.00	2450.00	2450.00	2449.50	2449.00	2449.00	2449.00	2449.00	2448.50	2448.00	2448.00	2447.00	2447.00	2446.50
2421.00	2421.50	2422.00	2422.00	2423.00	2424.00	2424.00	2424.00	2424.50	2425.00	2425.00	2425.00	2425.00	2425.00	2425.00	2425.00	2425.00	2424.50	2424.00	2424.00	2423.00	2423.00	2423.00	2422.50	2422.00	2421.50	2421.00	2421.00	2420.00	2420.00	2419.50	2419.00	2419.00	2418.00	2418.00	2418.00	2417.00	2417.00	2417.00	2417.00	2416.00	2416.00	2416.00	2416.00	2416.00	2416.00	2415.50	2415.00	2415.00	2415.00	2415.00	2415.00	2414.00	2414.00	2414.00	2414.00	2414.00	2414.00	2414.00	2414.00	2414.00	2414.00	2414.00	2414.00	2414.00	2414.00	2414.00	2414.00	2414.00	2415.00	2415.00	2415.00	2415.00	2415.50	2416.00	2416.00	2416.00	2416.00	2416.50	2417.00	2417.00	2417.00	2417.50	2418.00	2418.00	2418.00	2418.50	2419.00	2419.00	2419.00	2419.00	2419.50	2420.00	2420.00	2420.00	2420.00	2420.00	2420.00	2420.00	2420.00	2420.00	2420.00	2420.00	2420.00	2420.00	2420.00	2420.00	2420.00	2420.00	2420.00	2420.00	2420.00	2420.00	2420.00	2420.00	2420.00	2420.00	2420.00	2420.00	2420.00	2420.00	2420.00	2420.00	2420.00	2420.00	2421.00	2421.00	2421.00	2421.00	2421.00	2422.00	2422.00	2422.00	2422.00	2422.00	2423.00	2423.00	2423.00	2424.00	2424.00	2424.00	2424.50	2425.00	2425.00	2425.00	2425.00	2426.00	2426.00	2426.00	2426.00	2427.00	2427.00	2427.00	2427.00	2428.00	2428.00	2428.50	2429.00	2429.00	2429.00	2430.00	2430.00	2431.00	2431.00	2431.50	2432.00	2433.00	2433.00	2434.00	2434.00	2434.50	2435.00	2436.00	2436.00	2436.50	2437.00	2437.50	2438.00	2438.00	2439.00	2439.00	2440.00	2440.00	2440.50	2441.00	2441.50	2442.00	2442.00	2442.00	2442.50	2443.00	2443.00	2443.00	2443.00	2443.00	2443.00	2443.00	2443.00	2443.00	2443.00	2443.00	2443.00	2443.00	2443.00	2443.00	2443.00	2443.00	2443.00	2444.00	2444.00	2444.00	2444.00	2444.00	2444.00	2444.00	2444.00	2444.00	2444.00	2444.50	2445.00	2445.00	2445.00	2446.00	2446.00	2446.00	2447.00	2447.00	2447.00	2448.00	2448.00	2448.00	2448.00	2449.00	2449.00	2449.00	2449.50	2450.00	2450.00	2450.00	2450.00	2450.00	2450.00	2450.00	2450.00	2450.00	2449.50	2449.00	2449.00	2449.00	2449.00	2448.50	2448.00	2448.00	2447.00	2447.00	2446.50
2421.00	2421.50	2422.00	2422.00	2423.00	2424.00	2424.00	2424.00	2424.50	2425.00	2425.00	2425.00	2425.00	2425.00	2425.00	2425.00	2425.00	2424.50	2424.00	2424.00	2423.00	2423.00	2423.00	2422.50	2422.00	2421.50	2421.00	2421.00	2420.00	2420.00	2419.50	2419.00	2419.00	2418.00	2418.00	2418.00	2417.00	2417.00	2417.00	2417.00	2416.00	2416.00	2416.00	2416.00	2416.00	2416.00	2415.50	2415.00	2415.00	2415.00	2415.00	2415.00	2414.00	2414.00	2414.00	2414.00	2414.00	2414.00	2414.00	2414.00	2414.00	2414.00	2414.00	2414.00	2414.00	2414.00	2414.00	2414.00	2414.00	2415.00	2415.00	2415.00	2415.00	2415.50	2416.00	2416.00	2416.00	2416.00	2416.50	2417.00	2417.00	2417.00	2417.50	2418.00	2418.00	2418.00	2418.50	2419.00	2419.00	2419.00	2419.00	2419.50	2420.00	2420.00	2420.00	2420.00	2420.00	2420.00	2420.00	2420.00	2420.00	2420.00	2420.00	2420.00	2420.00	2420.00	2420.00	2420.00	2420.00	2420.00	2420.00	2420.00	2420.00	2420.00	2420.00	2420.00	2420.00	2420.00	2420.00	2420.00	2420.00	2420.00	2420.00	2420.00	2420.00	2421.00	2421.00	2421.00	2421.00	2421.00	2422.00	2422.00	2422.00	2422.00	2422.00	2423.00	2423.00	2423.00	2424.00	2424.00	2424.00	2424.50	2425.00	2425.00	2425.00	2425.00	2426.00	2426.00	2426.00	2426.00	2427.00	2427.00	2427.00	2427.00	2428.00	2428.00	2428.50	2429.00	2429.00	2429.00	2430.00	2430.00	2431.00	2431.00	2431.50	2432.00	2433.00	2433.00	2434.00	2434.00	2434.50	2435.00	2436.00	2436.00	2436.50	2437.00	2437.50	2438.00	2438.00	2439.00	2439.00	2440.00	2440.00	2440.50	2441.00	2441.50	2442.00	2442.00	2442.00	2442.50	2443.00	2443.00	2443.00	2443.00	2443.00	2443.00	2443.00	2443.00	2443.00	2443.00	2443.00	2443.00	2443.00	2443.00	2443.00	2443.00	2443.00	2443.00	2444.00	2444.00	2444.00	2444.00	2444.00	2444.00	2444.00	2444.00	2444.00	2444.00	2444.50	2445.00	2445.00	2445.00	2446.00	2446.00	2446.00	2447.00	2447.00	2447.00	2448.00	2448.00	2448.00	2448.00	2449.00	2449.00	2449.00	2449.50	2450.00	2450.00	2450.00	2450.00	2450.00	2450.00	2450.00	2450.00	2450.00	2449.50	2449.00	2449.00	2449.00	2449.00	2448.50	2448.00	2448.00	2447.00	2447.00	2446.50
2422.50	2423.00	2424.00	2424.00	2426.00	2426.00	2426.50	2427.00	2427.00	2427.50	2428.00	2428.00	2428.00	2428.00	2428.00	2428.00	2427.50	2427.00	2427.00	2427.00	2426.00	2426.00	2426.00	2426.00	2425.00	2425.00	2424.50	2424.00	2423.50	2423.00	2423.00	2422.00	2422.00	2421.00	2421.00	2420.50	2420.00	2420.00	2419.50	2419.00	2419.00	2419.00	2419.00	2419.00	2418.00	2418.00	2418.00	2418.00	2417.50	2417.00	2417.00	2417.00	2416.00	2416.00	2416.00	2416.00	2416.00	2416.00	2416.00	2416.00	2416.00	2416.00	2416.00	2416.00	2416.00	2416.00	2416.00	2416.00	2416.00	2416.50	2417.00	2417.00	2417.00	2417.00	2417.00	2418.00	2418.00	2418.00	2418.00	2418.00	2419.00	2419.00	2419.00	2419.00	2419.00	2419.50	2420.00	2420.00	2420.00	2420.00	2421.00	2421.00	2421.00	2421.00	2421.00	2421.00	2421.00	2421.00	2421.00	2421.00	2421.00	2421.00	2421.00	2421.00	2421.00	2421.00	2421.00	2421.50	2422.00	2422.00	2422.00	2422.00	2422.00	2421.00	2421.00	2421.00	2421.00	2421.00	2421.00	2421.00	2421.00	2421.00	2421.00	2421.00	2421.00	2421.50	2422.00	2422.00	2422.00	2422.00	2423.00	2423.00	2423.00	2423.00	2424.00	2424.00	2424.00	2424.00	2425.00	2425.00	2425.00	2425.00	2425.00	2426.00	2426.00	2426.00	2426.00	2426.00	2426.50	2427.00	2427.00	2427.50	2428.00	2428.00	2428.50	2429.00	2429.00	2429.50	2430.00	2430.00	2430.00	2431.00	2431.00	2431.50	2432.00	2432.00	2432.00	2433.00	2433.00	2434.00	2434.00	2434.50	2435.50	2436.00	2436.00	2437.00	2437.00	2437.50	2438.00	2438.50	2439.00	2439.00	2439.50	2440.00	2440.00	2440.00	2440.50	2441.00	2441.00	2441.00	2442.00	2442.00	2442.00	2442.00	2442.00	2442.00	2442.00	2442.00	2442.00	2442.00	2442.00	2443.00	2443.00	2443.00	2443.00	2443.00	2443.00	2443.00	2443.50	2444.00	2444.00	2444.00	2444.00	2444.00	2444.00	2445.00	2445.00	2445.00	2445.00	2445.00	2445.00	2445.50	2446.00	2446.00	2446.00	2447.00	2447.00	2447.00	2448.00	2448.00	2448.00	2449.00	2449.00	2449.00	2449.00	2450.00	2450.00	2450.00	2450.00	2450.00	2450.00	2450.00	2450.00	2450.00	2450.00	2449.00	2449.00	2449.00	2448.50	2448.00	2448.00	2447.50	2447.00	2447.00	2447.00	2446.00
2422.50	2423.00	2424.00	2424.00	2426.00	2426.00	2426.50	2427.00	2427.00	2427.50	2428.00	2428.00	2428.00	2428.00	2428.00	2428.00	2427.50	2427.00	2427.00	2427.00	2426.00	2426.00	2426.00	2426.00	2425.00	2425.00	2424.50	2424.00	2423.50	2423.00	2423.00	2422.00	2422.00	2421.00	2421.00	2420.50	2420.00	2420.00	2419.50	2419.00	2419.00	2419.00	2419.00	2419.00	2418.00	2418.00	2418.00	2418.00	2417.50	2417.00	2417.00	2417.00	2416.00	2416.00	2416.00	2416.00	2416.00	2416.00	2416.00	2416.00	2416.00	2416.00	2416.00	2416.00	2416.00	2416.00	2416.00	2416.00	2416.00	2416.50	2417.00	2417.00	2417.00	2417.00	2417.00	2418.00	2418.00	2418.00	2418.00	2418.00	2419.00	2419.00	2419.00	2419.00	2419.00	2419.50	2420.00	2420.00	2420.00	2420.00	2421.00	2421.00	2421.00	2421.00	2421.00	2421.00	2421.00	2421.00	2421.00	2421.00	2421.00	2421.00	2421.00	2421.00	2421.00	2421.00	2421.00	2421.50	2422.00	2422.00	2422.00	2422.00	2422.00	2421.00	2421.00	2421.00	2421.00	2421.00	2421.00	2421.00	2421.00	2421.00	2421.00	2421.00	2421.00	2421.50	2422.00	2422.00	2422.00	2422.00	2423.00	2423.00	2423.00	2423.00	2424.00	2424.00	2424.00	2424.00	2425.00	2425.00	2425.00	2425.00	2425.00	2426.00	2426.00	2426.00	2426.00	2426.00	2426.50	2427.00	2427.00	2427.50	2428.00	2428.00	2428.50	2429.00	2429.00	2429.50	2430.00	2430.00	2430.00	2431.00	2431.00	2431.50	2432.00	2432.00	2432.00	2433.00	2433.00	2434.00	2434.00	2434.50	2435.50	2436.00	2436.00	2437.00	2437.00	2437.50	2438.00	2438.50	2439.00	2439.00	2439.50	2440.00	2440.00	2440.00	2440.50	2441.00	2441.00	2441.00	2442.00	2442.00	2442.00	2442.00	2442.00	2442.00	2442.00	2442.00	2442.00	2442.00	2442.00	2443.00	2443.00	2443.00	2443.00	2443.00	2443.00	2443.00	2443.50	2444.00	2444.00	2444.00	2444.00	2444.00	2444.00	2445.00	2445.00	2445.00	2445.00	2445.00	2445.00	2445.50	2446.00	2446.00	2446.00	2447.00	2447.00	2447.00	2448.00	2448.00	2448.00	2449.00	2449.00	2449.00	2449.00	2450.00	2450.00	2450.00	2450.00	2450.00	2450.00	2450.00	2450.00	2450.00	2450.00	2449.00	2449.00	2449.00	2448.50	2448.00	2448.00	2447.50	2447.00	2447.00	2447.00	2446.00
2422.50	2423.00	2424.00	2424.00	2426.00	2426.00	2426.50	2427.00	2427.00	2427.50	2428.00	2428.00	2428.00	2428.00	2428.00	2428.00	2427.50	2427.00	2427.00	2427.00	2426.00	2426.00	2426.00	2426.00	2425.00	2425.00	2424.50	2424.00	2423.50	2423.00	2423.00	2422.00	2422.00	2421.00	2421.00	2420.50	2420.00	2420.00	2419.50	2419.00	2419.00	2419.00	2419.00	2419.00	2418.00	2418.00	2418.00	2418.00	2417.50	2417.00	2417.00	2417.00	2416.00	2416.00	2416.00	2416.00	2416.00	2416.00	2416.00	2416.00	2416.00	2416.00	2416.00	2416.00	2416.00	2416.00	2416.00	2416.00	2416.00	2416.50	2417.00	2417.00	2417.00	2417.00	2417.00	2418.00	2418.00	2418.00	2418.00	2418.00	2419.00	2419.00	2419.00	2419.00	2419.00	2419.50	2420.00	2420.00	2420.00	2420.00	2421.00	2421.00	2421.00	2421.00	2421.00	2421.00	2421.00	2421.00	2421.00	2421.00	2421.00	2421.00	2421.00	2421.00	2421.00	2421.00	2421.00	2421.50	2422.00	2422.00	2422.00	2422.00	2422.00	2421.00	2421.00	2421.00	2421.00	2421.00	2421.00	2421.00	2421.00	2421.00	2421.00	2421.00	2421.00	2421.50	2422.00	2422.00	2422.00	2422.00	2423.00	2423.00	2423.00	2423.00	2424.00	2424.00	2424.00	2424.00	2425.00	2425.00	2425.00	2425.00	2425.00	2426.00	2426.00	2426.00	2426.00	2426.00	2426.50	2427.00	2427.00	2427.50	2428.00	2428.00	2428.50	2429.00	2429.00	2429.50	2430.00	2430.00	2430.00	2431.00	2431.00	2431.50	2432.00	2432.00	2432.00	2433.00	2433.00	2434.00	2434.00	2434.50	2435.50	2436.00	2436.00	2437.00	2437.00	2437.50	2438.00	2438.50	2439.00	2439.00	2439.50	2440.00	2440.00	2440.00	2440.50	2441.00	2441.00	2441.00	2442.00	2442.00	2442.00	2442.00	2442.00	2442.00	2442.00	2442.00	2442.00	2442.00	2442.00	2443.00	2443.00	2443.00	2443.00	2443.00	2443.00	2443.00	2443.50	2444.00	2444.00	2444.00	2444.00	2444.00	2444.00	2445.00	2445.00	2445.00	2445.00	2445.00	2445.00	2445.50	2446.00	2446.00	2446.00	2447.00	2447.00	2447.00	2448.00	2448.00	2448.00	2449.00	2449.00	2449.00	2449.00	2450.00	2450.00	2450.00	2450.00	2450.00	2450.00	2450.00	2450.00	2450.00	2450.00	2449.00	2449.00	2449.00	2448.50	2448.00	2448.00	2447.50	2447.00	2447.00	2447.00	2446.00
