529.50	573.50	498.00	533.50	610.50	618.00	527.00	483.50	415.50	422.00	495.00	507.00	541.00	585.50	641.50	706.50	582.00	522.50	457.50	417.50	412.50	419.50	429.00	492.50	458.50	525.00	549.50	644.50	680.50	692.00	636.50	581.00	599.50	552.00	563.00	582.50	512.50	528.50	498.00	495.50	453.50	455.50	432.00	532.50	537.50	539.00	607.50	636.00	573.00	602.50	565.50	497.50	481.00	519.00	509.00	480.50	437.50	432.00	416.00	421.00	449.00	473.50	549.50	578.50	589.00	541.00	453.50	402.50	405.50	411.50	408.50	412.50	444.00	514.00	541.00	501.00	541.00	580.50	552.50	606.00	583.00	536.00	525.00	571.00	550.50	513.00	485.50	533.50	555.00	619.50	567.00	523.00	477.50	474.00	506.50	554.50	588.50	552.00	593.00	613.50	681.00	777.50	796.00	709.00	736.00	820.50	913.00	886.50	886.50	815.50	776.50	737.00	675.50	670.50	700.50	631.50	737.00	685.50	702.00	631.00	473.50	475.00	492.50	600.50	576.00	580.50	727.50	743.00	761.00	790.50	781.00	736.00	727.50	705.00	605.00	676.50	678.00	597.50	570.50	543.00	552.00	599.50	554.50	533.50	516.50	548.50	569.50	561.00	559.00	540.50	510.50	482.00	456.50	456.00	438.00	421.00	421.00	416.00	407.50	403.50	402.50	403.00	404.00	414.50	451.00	458.00	423.00	393.00	387.00	417.50	470.50	531.50	532.50	504.00	529.50	565.00	593.00	593.00	532.50	519.50	502.50	476.00	434.00	408.00	373.00	361.00	358.50	384.00	352.00	415.50	441.50	440.50	430.50	460.50	496.50	412.00	386.00	388.50	374.50	371.00	368.00	386.50	393.00	374.00	346.00	331.00	329.00	323.00	324.50	324.00	323.50	321.50	325.00	325.50	340.50	352.00	359.00	369.50	389.00	386.00	403.50	414.50	407.00	387.50	382.50	371.50	371.00	364.00	360.00	353.00	347.00	341.00	335.00	327.50	326.50	335.00	343.50	343.50	334.50	334.50	374.00	387.00	387.00	393.50	382.00	364.00	361.00	357.00	357.00	356.50	356.00	358.50	361.00	365.50	358.50	361.50
563.00	601.25	580.50	624.50	696.75	593.50	502.75	462.75	427.25	403.50	451.75	497.25	526.75	545.50	610.75	671.75	653.50	556.00	504.75	485.00	464.75	498.00	501.50	426.50	518.25	621.50	578.50	610.75	649.50	673.00	630.25	552.50	589.00	533.00	536.25	529.25	515.75	469.50	456.50	459.75	463.75	460.50	450.25	501.00	527.00	577.25	605.00	577.25	531.50	537.75	512.75	561.75	524.75	541.00	577.00	513.00	448.00	413.25	453.75	475.75	500.75	543.50	593.25	617.50	605.00	533.50	479.25	424.50	472.75	492.25	448.25	454.25	482.75	506.25	499.75	544.25	587.50	594.50	591.25	596.00	613.50	579.75	545.50	580.25	537.75	496.00	534.75	566.00	646.25	636.50	548.75	545.50	527.75	488.25	498.50	548.75	548.75	547.00	594.25	623.50	681.50	721.50	705.00	699.25	755.25	795.00	891.75	871.75	768.75	719.00	674.00	707.00	677.75	648.00	633.75	565.00	707.00	554.25	520.00	485.25	516.75	603.50	563.50	517.25	629.75	638.00	674.25	704.75	772.25	815.75	785.00	728.00	662.00	632.25	607.25	646.75	655.50	596.00	574.00	593.25	598.50	613.25	589.00	572.50	545.00	554.00	560.25	544.25	525.50	516.50	528.50	492.75	459.75	453.50	439.50	422.50	419.50	415.00	413.25	406.75	402.00	404.00	404.50	402.75	413.00	429.75	405.25	385.50	388.25	399.50	424.50	480.75	486.25	492.00	566.00	624.50	611.00	597.00	551.25	492.75	469.50	454.00	415.00	388.00	382.25	372.50	387.50	398.00	369.50	439.00	468.25	473.75	466.50	467.00	486.25	454.00	436.75	440.25	404.75	388.50	379.25	383.50	397.75	386.25	348.00	331.25	329.50	325.75	324.50	324.75	325.50	324.50	324.50	335.25	349.25	351.50	356.50	364.00	363.00	363.25	387.25	392.50	378.75	373.00	368.50	363.75	361.75	357.25	352.00	347.50	344.00	335.50	328.75	333.25	345.00	351.75	353.50	349.50	338.00	335.25	354.25	367.50	380.25	387.75	387.75	374.00	383.50	382.00	380.75	375.25	373.50	373.50	364.25	358.75	352.75	351.75
616.75	658.75	617.75	596.75	651.25	546.00	505.25	447.50	461.75	442.50	477.25	569.25	580.25	558.25	573.50	627.25	700.75	624.75	563.75	486.50	526.00	595.00	600.50	444.25	475.00	583.50	635.25	619.75	636.50	597.75	559.50	517.50	567.25	509.25	499.00	483.25	492.50	521.50	539.00	516.75	519.00	472.25	451.25	589.50	600.50	577.50	601.25	597.00	593.50	547.25	559.50	590.50	574.50	577.25	556.00	509.50	465.75	433.50	562.25	552.00	577.50	590.75	571.50	547.50	574.00	504.75	429.50	426.25	500.50	578.00	526.75	458.00	437.50	511.00	552.75	607.25	603.75	563.25	565.25	610.25	614.50	588.50	591.50	591.25	551.75	507.25	497.50	543.75	580.50	585.50	627.00	575.50	541.25	537.00	501.25	527.75	527.00	553.75	563.25	610.00	653.00	640.25	661.50	727.50	775.00	825.00	817.25	752.00	703.75	634.25	629.25	575.75	561.75	556.50	570.50	527.75	644.75	466.75	452.75	501.25	599.75	644.50	640.25	597.00	580.00	622.50	689.50	730.50	819.25	881.25	815.50	762.00	741.00	692.75	673.50	685.25	677.00	609.75	597.75	588.50	570.00	565.50	562.50	577.50	526.00	510.25	498.50	514.50	519.25	505.75	495.25	508.25	494.00	438.25	430.25	434.75	429.25	413.25	409.25	408.50	401.75	411.00	398.75	391.75	388.50	387.50	386.75	389.00	394.00	397.25	420.00	439.50	457.50	502.75	528.75	604.25	652.25	615.00	525.75	485.75	450.50	427.00	418.00	435.00	411.50	400.25	424.25	411.25	387.75	424.75	457.25	457.75	464.00	480.75	484.00	479.00	475.00	486.00	472.00	445.50	410.25	398.25	390.75	360.25	337.75	332.00	328.25	327.00	327.25	325.75	326.75	328.75	325.75	338.25	350.25	353.50	366.75	383.75	371.00	369.00	374.75	374.50	378.00	379.50	380.75	375.50	374.75	366.25	358.75	349.75	343.25	341.50	365.25	368.50	367.50	364.50	355.25	348.50	345.50	343.50	360.75	369.50	383.25	395.25	400.00	399.75	399.25	390.25	384.50	373.75	371.00	377.75	380.50	377.50	369.50	360.50
595.50	602.50	561.00	580.25	636.75	530.75	483.50	435.50	534.75	492.25	419.75	495.25	534.75	502.25	542.00	600.75	708.50	650.25	571.25	498.50	582.50	652.25	627.50	467.25	488.25	585.00	623.75	625.75	658.50	616.75	552.00	514.50	571.25	524.25	492.50	493.50	549.00	570.50	525.00	498.50	491.25	467.25	453.25	561.00	561.25	552.75	616.25	618.50	569.50	555.00	608.50	607.75	577.50	572.75	530.75	500.50	452.00	445.25	550.00	582.00	585.50	593.75	553.50	516.25	550.25	501.00	417.25	450.00	496.00	571.75	514.25	467.75	432.00	511.50	558.25	613.75	587.75	549.00	565.25	594.25	600.50	602.50	597.00	579.50	546.00	523.00	498.00	515.75	574.00	591.25	651.25	598.50	556.50	529.50	505.75	519.25	538.75	550.00	565.00	581.50	606.50	617.00	674.25	721.50	741.75	786.00	822.25	754.25	711.75	645.50	613.25	573.25	595.50	608.00	565.75	500.75	580.50	486.25	461.00	502.50	547.25	593.50	637.25	623.50	594.75	623.75	697.75	717.25	789.50	840.00	788.50	733.00	777.75	749.50	745.75	687.25	643.75	609.75	590.50	555.00	554.00	537.00	521.25	521.25	502.50	497.00	476.75	489.75	513.25	498.25	484.00	479.00	486.75	440.00	428.00	423.00	419.75	411.50	409.50	408.50	399.50	399.75	393.75	391.25	389.25	388.50	387.50	392.50	408.25	402.00	408.75	445.25	464.50	477.75	512.00	555.75	618.50	634.50	578.75	524.75	468.75	441.50	450.25	451.50	416.00	421.25	421.00	402.75	387.75	424.25	459.25	454.25	454.75	472.50	478.25	474.25	482.75	493.50	494.25	461.75	408.50	382.25	378.00	346.25	336.25	333.75	328.75	326.75	328.00	328.25	329.50	329.25	327.00	340.25	354.00	357.00	371.25	385.25	375.00	377.50	385.50	377.00	377.25	376.00	374.25	375.00	373.75	367.50	361.25	351.75	341.25	350.50	379.50	374.25	368.75	364.50	351.25	348.50	357.50	353.50	354.00	361.00	372.50	386.75	400.25	407.00	405.25	393.00	383.25	371.00	367.75	366.75	363.00	361.00	355.00	350.25
507.00	497.25	551.75	651.25	631.75	535.25	503.00	502.50	526.00	571.50	481.75	444.50	478.75	515.50	568.75	597.75	699.75	694.00	625.00	565.25	637.50	588.50	578.50	471.75	605.75	607.00	579.75	629.50	677.00	638.25	562.75	544.25	515.75	491.00	523.25	533.50	553.00	571.75	559.25	579.50	584.25	534.00	484.00	581.25	571.25	557.25	585.75	615.25	581.50	606.25	635.75	578.00	559.50	506.25	481.75	456.00	439.50	481.25	555.00	607.75	599.50	534.00	565.25	541.00	482.50	430.25	453.25	490.50	539.00	574.00	518.00	493.75	436.00	445.25	536.25	543.00	525.00	556.50	567.00	618.25	610.25	600.25	560.50	554.75	525.50	540.00	532.75	498.75	565.75	595.00	642.75	668.00	625.75	583.00	539.25	501.25	529.25	570.75	546.75	564.75	565.75	594.75	647.25	647.00	668.00	717.50	813.75	781.50	713.00	675.25	674.25	748.00	745.75	660.75	604.00	510.50	461.50	471.50	483.00	622.50	537.75	519.75	536.75	552.50	618.75	635.75	649.50	683.50	702.00	715.50	683.50	755.50	853.00	883.25	818.25	701.50	656.00	580.75	563.50	583.75	590.75	569.75	530.25	533.25	525.00	514.00	492.50	467.50	458.25	451.25	457.00	451.50	444.75	432.25	436.00	427.00	419.75	414.75	409.25	403.50	399.25	396.25	394.50	393.75	391.50	390.50	390.25	392.75	419.25	420.75	406.50	405.00	419.00	455.25	471.00	500.50	554.25	574.50	597.25	587.75	533.00	508.00	462.50	458.75	464.25	447.75	427.00	429.00	419.25	428.25	454.00	443.00	432.75	449.50	457.50	455.00	446.00	464.25	459.75	417.00	413.75	400.75	347.00	339.75	344.50	337.00	332.75	328.75	331.00	330.25	330.50	331.50	331.75	346.25	355.50	364.25	391.25	394.25	382.50	378.25	372.50	368.50	367.25	371.50	374.00	378.75	384.25	372.00	358.75	336.00	345.75	378.75	384.00	370.00	360.25	358.25	374.50	377.25	383.00	371.75	377.50	382.50	385.00	381.25	396.75	410.25	401.50	386.50	378.25	389.50	402.00	386.75	376.75	373.25	375.00	377.50
495.50	501.25	587.00	649.75	649.25	573.50	569.00	511.25	547.75	558.50	479.50	451.00	511.00	544.00	541.25	566.25	703.25	738.00	649.75	610.50	649.75	562.75	518.00	467.75	592.75	556.50	540.75	617.25	668.50	624.25	576.25	589.75	528.75	487.00	532.75	552.75	545.25	563.75	567.00	575.50	597.75	532.75	471.50	580.75	582.75	598.25	606.00	642.25	601.50	611.50	626.00	567.75	530.50	487.25	449.00	428.75	468.75	528.75	585.25	595.75	577.00	503.50	538.00	523.00	476.50	437.75	505.75	513.50	549.50	588.00	523.25	489.50	447.50	432.50	472.75	476.75	510.50	575.75	576.25	624.50	608.25	621.00	593.75	574.00	544.75	542.75	561.75	515.00	548.50	593.75	642.50	654.50	640.50	607.75	562.50	513.00	510.25	543.25	550.50	570.50	557.25	580.75	604.00	624.50	660.75	684.00	833.25	825.25	725.75	722.75	740.75	764.00	706.75	679.50	642.00	462.75	478.75	499.75	560.00	626.25	588.50	561.00	600.75	614.75	578.00	589.50	649.50	657.00	685.00	665.25	686.25	785.75	902.00	898.50	803.75	692.75	652.25	583.50	580.50	627.50	610.25	565.50	542.00	535.75	541.25	517.00	508.50	480.75	457.50	457.50	486.75	485.75	471.00	453.75	467.50	446.75	433.25	419.75	410.50	404.50	400.25	397.25	396.75	395.25	392.75	391.75	391.50	394.00	417.75	426.25	416.50	402.25	411.25	437.25	460.25	486.00	499.50	516.00	552.75	612.50	592.25	547.75	495.75	492.50	487.75	465.50	449.50	450.50	439.50	448.25	458.50	448.25	432.50	431.25	445.75	447.00	432.00	450.50	442.25	417.25	377.00	380.25	350.00	363.00	361.00	340.25	334.50	330.00	331.75	331.25	331.50	333.75	333.75	348.50	354.75	368.50	397.25	398.25	387.00	377.75	376.50	373.50	367.25	365.75	364.50	367.25	369.50	358.25	349.25	340.00	358.75	387.00	381.00	366.00	356.75	362.75	394.25	393.50	397.25	388.00	393.75	391.75	399.75	393.00	405.25	410.75	414.25	399.00	393.75	401.25	411.50	399.00	391.50	385.75	386.00	391.75
487.00	523.75	566.75	669.50	718.00	662.75	624.25	575.75	632.50	531.25	457.00	475.25	439.00	505.25	541.00	581.00	650.00	735.50	724.75	682.75	635.00	570.50	574.50	484.50	470.75	562.00	592.50	615.50	681.25	678.50	628.00	585.50	543.50	496.50	571.75	555.00	555.50	570.75	570.75	524.50	505.25	502.25	491.50	551.00	551.25	600.50	665.25	610.75	556.75	580.25	594.50	568.75	518.50	520.75	437.75	487.50	543.75	577.25	588.75	554.50	544.50	495.25	471.50	441.00	467.75	488.50	534.00	571.50	594.50	550.75	529.50	519.25	471.00	445.50	473.50	443.25	490.50	506.00	524.00	553.25	592.00	659.00	657.25	623.50	594.00	549.50	578.75	567.00	520.00	522.75	569.00	589.00	638.75	658.00	609.50	570.25	532.25	516.00	527.25	531.25	540.50	557.00	573.25	596.50	628.50	679.75	827.75	814.00	736.75	746.75	697.00	725.25	685.00	603.00	638.25	482.25	499.00	624.00	673.75	655.75	651.75	712.25	817.00	818.75	652.25	572.00	594.50	599.75	626.00	656.25	700.75	764.25	921.75	913.75	835.25	740.00	695.75	636.75	668.25	664.25	644.50	595.50	606.25	594.50	587.50	572.50	535.50	507.75	490.75	493.25	512.25	498.75	505.00	520.50	526.00	490.00	468.25	449.00	424.00	410.75	403.50	401.50	399.25	397.50	395.50	395.00	397.25	402.75	404.50	404.50	409.25	397.50	414.50	436.00	440.50	451.75	477.50	500.25	522.25	555.75	620.00	585.50	543.50	512.00	475.25	457.75	442.75	445.00	450.00	450.50	447.50	450.75	443.50	422.75	411.00	422.75	404.00	410.75	412.50	404.00	376.75	350.00	402.25	439.00	401.75	357.50	340.25	332.25	332.25	332.25	335.00	337.50	346.00	356.75	362.75	374.00	394.50	402.00	407.25	400.75	394.00	387.75	383.50	389.25	381.25	377.25	372.75	356.25	339.25	364.50	379.25	394.50	388.00	381.50	370.00	362.75	380.25	397.50	422.00	429.00	427.25	410.75	426.25	417.75	435.50	429.25	436.00	427.75	428.00	425.25	416.25	403.50	402.25	399.75	388.75	382.00
463.50	492.25	556.75	644.50	703.50	617.25	640.75	616.75	639.75	554.75	483.75	533.25	494.00	481.75	520.25	556.75	609.00	682.50	716.75	713.75	635.50	579.00	566.25	523.50	464.25	571.75	622.25	616.25	672.75	686.25	607.00	551.00	556.75	504.50	568.00	567.75	570.00	580.00	577.00	539.00	530.50	482.75	517.75	567.00	589.50	611.50	666.25	625.75	533.00	529.00	531.50	541.50	531.25	480.00	440.75	506.00	565.00	579.75	590.75	559.00	538.00	481.00	453.25	468.00	524.25	545.50	554.75	582.75	597.50	554.50	535.00	527.75	501.50	468.50	513.50	493.75	485.00	479.00	493.00	567.50	625.50	634.75	631.75	644.25	640.50	596.50	602.00	566.00	534.25	506.50	565.75	583.50	596.50	616.25	636.25	618.25	575.25	535.25	535.75	530.50	548.00	559.75	561.75	593.25	637.25	668.75	775.50	797.25	764.50	718.50	666.25	627.50	613.75	554.50	576.00	505.50	462.00	566.25	595.00	624.50	680.25	781.50	826.75	794.50	648.75	625.50	615.50	638.75	642.25	666.50	722.50	798.50	828.50	809.25	778.00	746.25	729.75	672.25	663.75	658.00	660.75	667.25	685.75	680.75	673.75	633.75	574.50	546.50	501.25	478.25	468.00	456.25	463.25	482.50	486.25	464.75	467.25	471.00	452.00	423.00	405.50	403.50	401.25	399.75	400.25	408.50	416.25	416.25	408.00	402.00	402.25	398.25	404.75	432.25	442.50	453.00	473.00	480.50	494.00	528.00	583.50	585.50	553.75	542.75	500.75	479.25	449.75	434.00	429.50	440.25	437.00	440.75	443.00	435.00	431.00	414.75	391.50	398.00	398.50	384.25	370.75	355.75	427.00	452.00	445.75	398.50	352.00	334.00	334.00	334.00	336.75	347.75	355.00	369.50	380.00	392.50	407.75	415.00	418.00	412.00	401.50	398.50	398.50	397.75	385.25	379.00	369.00	351.00	343.00	379.25	403.75	415.00	412.00	400.00	382.00	381.25	376.75	396.00	428.50	436.25	428.75	417.50	422.50	425.50	438.75	428.50	434.00	440.00	439.25	438.50	423.25	422.25	419.00	416.75	401.50	389.50
435.25	467.25	508.25	566.75	605.50	562.75	640.50	625.25	626.00	575.50	528.75	574.25	536.25	501.25	507.00	547.50	583.50	625.25	674.50	722.25	641.25	571.00	550.50	549.75	472.25	571.25	635.00	611.50	688.25	687.25	600.75	555.50	564.50	508.75	534.00	577.75	589.50	586.50	582.25	549.00	553.25	489.25	537.50	552.00	590.75	625.25	658.00	633.00	550.50	527.50	505.00	493.75	483.50	437.00	471.50	551.75	596.00	579.75	591.75	550.25	514.25	472.75	430.25	473.75	527.25	568.75	569.50	576.25	597.50	591.00	521.00	552.50	537.00	502.25	523.25	567.25	508.25	493.00	453.75	569.25	614.75	584.25	610.50	659.50	673.50	651.25	634.50	579.75	548.50	516.00	551.50	563.50	557.50	582.00	619.00	642.25	620.50	572.00	559.25	538.00	564.75	582.00	564.75	592.75	626.75	653.25	780.75	792.50	838.25	750.50	682.50	606.00	609.50	579.50	580.25	506.00	471.25	545.00	573.25	647.00	754.50	846.00	835.75	773.00	640.00	661.75	685.75	740.25	701.75	674.25	720.75	811.75	763.00	699.50	687.50	704.50	748.75	713.00	678.00	622.75	649.25	709.75	782.25	779.00	752.25	666.00	582.50	566.00	517.00	461.00	449.00	446.75	442.75	437.75	435.00	430.50	439.25	455.25	475.00	437.00	406.75	404.75	403.75	401.50	409.00	428.75	442.75	431.00	414.00	404.25	401.25	399.75	400.25	411.50	434.25	457.50	469.00	469.25	477.75	516.50	562.00	580.25	568.75	564.00	542.50	510.00	481.50	446.50	414.00	421.50	428.25	429.50	443.00	444.50	450.00	419.00	391.50	383.25	396.00	369.75	357.00	367.00	424.50	451.75	461.75	428.50	353.75	335.25	335.00	335.25	338.75	364.50	366.75	387.25	405.75	417.50	422.50	425.25	425.00	419.25	408.00	412.25	410.50	399.50	385.25	374.75	364.25	346.50	354.00	405.50	425.75	426.75	429.75	418.75	397.75	406.25	385.25	390.75	429.00	436.75	427.50	421.00	413.50	425.00	437.25	421.00	428.50	442.25	440.50	444.25	437.50	441.00	431.00	419.00	397.00	383.25
436.50	456.25	470.25	508.50	514.25	529.25	608.75	573.00	570.75	565.00	586.50	619.25	560.50	533.50	500.25	563.50	602.00	633.50	681.25	731.00	674.25	608.75	576.75	543.25	482.00	589.75	606.50	602.50	709.50	696.25	621.25	608.25	565.25	523.25	527.25	570.25	600.50	574.25	565.25	529.00	516.50	515.00	531.25	551.00	594.50	663.75	648.00	626.75	604.25	571.25	558.75	501.00	447.50	460.75	514.00	589.00	636.50	627.75	598.25	542.50	522.75	452.00	432.25	498.00	525.75	562.50	568.50	592.75	597.50	613.00	549.75	559.75	579.00	551.00	535.00	583.00	562.50	507.25	469.75	548.25	557.25	565.00	579.25	652.00	642.00	643.50	633.00	624.25	602.25	538.00	530.25	545.50	572.75	605.50	619.50	654.00	645.50	615.50	573.25	552.50	584.50	619.00	586.75	598.00	609.75	638.00	742.50	769.50	826.25	790.75	772.50	678.25	649.75	602.50	598.25	486.00	560.00	693.00	724.25	764.25	833.25	836.25	800.50	743.50	692.50	706.00	755.00	808.50	766.75	705.25	741.00	798.75	754.50	690.75	667.50	651.25	667.50	658.50	640.75	584.25	605.25	644.75	771.75	748.50	728.75	621.00	531.75	521.00	509.00	490.00	494.75	495.00	470.50	437.75	433.75	427.00	424.25	424.25	446.00	427.00	408.75	406.75	408.50	414.25	422.00	433.75	447.25	447.00	434.50	418.00	410.50	405.00	403.00	401.50	412.75	441.00	468.00	484.00	493.50	522.75	561.25	566.75	551.75	531.25	530.25	530.00	532.00	491.75	458.00	416.50	410.00	429.00	429.00	426.00	433.50	430.50	411.25	390.25	381.25	374.75	378.25	408.00	424.50	434.50	423.00	388.75	344.00	336.75	336.75	336.25	342.00	384.00	385.25	401.75	421.00	427.50	429.25	429.25	428.50	425.25	418.00	417.75	420.75	408.00	392.75	384.00	370.00	345.25	358.00	417.75	420.00	413.00	415.75	422.00	421.75	424.00	401.75	398.75	433.00	445.25	441.75	431.25	411.00	418.25	436.25	419.00	416.00	441.75	436.00	441.50	447.75	446.50	432.00	417.00	397.75	398.25
422.25	452.50	473.50	460.00	455.00	503.75	594.50	529.75	545.00	552.00	595.00	647.25	618.00	567.00	489.50	559.50	622.25	646.25	700.25	723.50	669.50	639.25	605.50	562.50	486.25	555.75	550.75	608.25	715.25	680.50	619.00	627.25	554.50	532.00	518.50	580.75	610.50	577.25	554.75	518.00	500.00	537.50	524.50	570.50	623.25	698.00	638.25	609.50	611.00	571.50	571.00	511.50	491.00	501.25	537.50	610.25	642.00	618.25	578.25	525.50	506.50	437.00	438.75	544.75	560.00	588.75	611.00	628.50	614.75	629.00	575.75	569.25	606.00	574.00	546.50	578.00	568.25	473.50	485.50	512.75	504.75	538.00	521.25	595.75	588.00	606.25	627.00	658.00	658.25	577.25	517.75	537.50	583.25	616.25	622.50	663.50	674.50	644.00	598.25	577.00	615.75	639.25	607.75	601.75	600.00	615.25	666.00	738.50	764.75	778.50	815.00	713.50	629.00	554.75	533.00	476.50	658.50	839.25	850.75	837.00	814.75	765.50	701.75	702.00	728.75	756.50	814.50	862.00	824.50	765.00	803.00	816.25	756.25	738.25	691.75	611.25	602.50	610.00	604.50	584.00	567.00	573.50	700.50	658.75	622.25	552.00	486.25	493.00	531.25	573.00	579.75	556.50	508.75	436.75	433.75	428.25	424.25	420.25	415.25	413.75	411.75	416.50	422.50	436.25	438.25	441.75	446.50	455.25	450.50	432.25	421.00	410.75	405.75	404.75	403.75	424.50	458.75	487.25	504.25	523.75	546.50	543.00	515.25	511.50	508.50	504.50	535.00	540.50	529.50	446.75	398.25	406.50	396.00	395.00	418.25	436.50	421.50	412.25	360.00	389.75	406.75	438.25	444.75	430.00	412.75	353.25	340.75	338.50	339.25	338.75	342.25	404.00	407.50	413.50	421.25	422.75	429.75	427.25	428.75	425.50	421.50	411.75	421.75	412.50	396.25	384.00	367.00	345.00	367.25	409.50	400.25	398.25	407.00	417.75	439.50	438.75	417.50	415.50	446.25	458.00	454.25	439.75	413.75	408.00	427.00	419.25	404.00	442.00	429.25	434.50	446.75	450.00	443.25	435.75	416.25	429.50
407.25	436.25	451.50	445.50	473.50	537.75	572.00	503.50	524.00	535.25	573.25	623.00	645.50	597.00	534.25	533.25	596.25	634.25	704.00	709.00	640.75	601.75	597.75	543.00	523.50	559.25	527.75	623.75	704.75	688.50	628.50	621.25	592.00	558.25	540.25	596.00	623.50	609.25	560.75	523.50	529.00	541.50	550.50	580.00	621.75	673.25	621.25	574.75	576.00	549.50	539.50	471.00	526.75	555.00	584.50	614.00	607.00	589.00	593.75	559.00	502.25	453.75	497.00	557.00	599.25	623.50	628.25	612.50	620.25	653.00	621.00	604.75	614.75	568.75	548.50	578.75	541.50	460.75	499.50	513.25	511.00	543.00	531.25	543.75	602.25	598.75	624.00	648.25	685.00	615.50	553.25	544.50	549.00	583.00	607.25	638.50	655.25	637.50	632.00	609.50	627.75	628.50	617.50	589.25	579.50	586.75	624.50	667.00	718.25	699.00	698.00	680.00	622.00	514.00	489.75	554.25	689.00	822.50	803.00	784.25	720.75	682.50	635.50	654.00	700.75	726.75	823.25	863.50	825.25	778.50	830.00	822.75	739.50	733.25	692.75	627.00	666.00	743.25	747.25	658.25	588.25	555.50	589.25	567.00	528.50	510.00	506.50	546.25	601.75	606.50	588.00	543.75	497.00	440.50	460.00	454.25	451.75	441.75	423.00	421.25	426.50	454.75	455.25	460.25	467.50	478.75	470.25	462.50	446.75	427.75	419.25	412.25	414.50	411.00	405.50	435.50	456.00	460.50	480.25	493.75	520.75	531.00	519.25	529.75	522.75	498.25	514.75	506.25	498.00	438.50	395.00	411.25	414.25	398.25	387.25	396.50	388.75	397.25	364.00	423.25	442.50	449.25	449.75	418.25	403.50	352.25	341.75	340.00	341.75	341.25	341.75	402.75	431.75	436.00	422.75	414.25	415.25	416.25	422.00	414.25	412.25	399.50	405.25	408.25	398.75	389.75	363.75	360.00	369.25	389.50	400.25	408.50	423.00	429.75	449.00	450.25	437.50	436.50	457.25	456.75	447.25	435.25	413.75	408.25	406.00	421.25	401.00	439.25	420.25	429.50	436.75	455.50	455.75	447.75	432.00	427.25
447.50	447.25	442.75	466.75	514.75	576.50	523.25	484.75	507.25	539.25	579.50	602.50	651.75	609.75	568.25	523.75	600.00	648.75	713.25	698.75	635.75	579.50	562.75	497.50	573.50	617.00	542.50	593.00	660.75	699.25	665.75	645.50	651.00	610.75	559.50	592.25	632.75	620.25	540.50	523.50	548.25	569.00	567.75	609.50	652.25	651.00	602.00	548.75	560.50	548.50	524.50	449.00	507.50	565.75	607.25	623.00	587.25	580.75	617.75	575.75	498.25	508.25	568.00	572.25	604.00	637.25	622.75	589.00	604.50	662.75	671.75	618.00	604.00	563.75	563.00	564.25	532.00	468.75	507.50	543.50	551.25	598.25	562.75	518.25	599.00	608.00	624.00	650.25	699.75	650.25	591.50	592.00	542.75	549.75	588.75	601.50	621.00	634.25	661.00	633.00	620.75	619.25	627.25	584.50	562.25	566.25	595.75	598.25	666.50	633.50	605.00	637.50	604.50	483.75	486.75	653.75	709.75	731.50	712.25	706.75	648.75	612.00	610.75	631.50	707.50	729.25	816.50	816.50	791.00	762.00	820.75	809.75	734.75	674.50	658.50	682.25	758.50	890.00	879.00	728.50	624.00	562.75	511.25	508.75	504.25	524.50	558.25	605.50	639.25	581.50	561.50	522.75	500.75	445.75	500.25	518.25	502.75	475.25	438.50	432.50	441.25	472.75	477.50	488.50	495.25	497.75	479.25	463.25	438.50	420.75	419.25	419.00	425.75	412.50	406.75	430.50	441.25	451.75	460.50	483.25	518.00	530.75	527.75	525.50	512.00	506.50	513.00	480.75	441.50	418.75	405.25	479.00	488.00	442.00	396.50	366.00	361.25	364.50	362.00	431.25	459.50	448.00	426.25	408.00	399.50	349.00	343.25	342.25	343.25	344.25	342.50	384.25	442.75	455.00	436.75	423.50	403.00	400.00	404.25	399.25	398.25	388.25	388.75	401.50	397.25	394.50	364.25	388.00	372.50	394.50	419.50	423.50	424.50	431.75	445.00	451.50	458.25	461.00	455.50	442.00	429.50	420.00	421.25	415.00	396.25	412.75	397.00	434.25	410.75	423.75	429.50	456.00	446.50	442.00	439.75	416.25
440.00	388.25	477.00	513.00	557.00	513.50	477.25	571.50	568.75	541.00	550.25	556.25	633.25	620.00	611.25	618.75	580.00	631.25	678.50	650.00	616.75	606.75	552.75	503.75	604.00	654.25	599.00	568.00	591.25	645.00	655.00	712.75	663.75	612.25	629.50	648.00	645.25	586.25	579.50	598.25	606.25	592.00	599.75	633.75	671.50	648.00	606.75	536.75	511.75	551.75	474.50	447.00	465.00	551.50	572.00	583.00	595.75	566.00	544.50	514.50	497.50	481.00	554.00	605.25	618.75	607.50	602.00	560.75	587.25	644.50	676.25	613.75	611.00	602.75	581.50	562.75	534.25	474.50	492.25	528.75	554.25	598.75	572.50	533.50	532.00	588.00	652.50	635.25	661.50	671.75	657.50	641.75	593.75	564.25	553.75	582.00	615.25	662.00	669.50	626.25	603.75	604.75	622.75	612.50	565.50	549.00	574.00	558.25	579.00	575.00	560.75	570.25	551.00	484.25	506.50	645.50	662.75	627.25	638.75	640.50	587.00	618.50	701.00	689.75	729.25	797.00	840.75	802.25	803.50	780.75	740.25	750.50	743.75	739.75	726.00	746.25	851.00	998.00	909.25	816.50	714.00	591.50	564.50	532.00	610.25	645.50	674.25	659.25	595.50	555.50	590.75	529.50	527.75	453.25	498.00	626.00	597.50	523.00	486.75	464.00	459.75	463.00	485.50	490.50	473.75	468.00	464.00	454.25	460.00	447.50	447.50	433.50	420.00	416.25	416.25	412.00	413.50	429.00	449.00	487.00	516.50	521.75	500.50	470.25	472.50	463.50	439.00	428.75	420.75	469.00	507.75	554.25	580.75	531.25	454.25	439.75	415.50	375.25	374.75	434.25	450.50	451.00	445.75	432.75	418.25	352.50	346.25	346.00	344.75	347.25	346.75	406.50	470.25	478.75	483.75	452.75	430.00	414.75	403.50	394.25	379.25	379.25	379.50	379.75	378.25	374.00	363.75	404.00	418.75	435.50	409.75	422.50	450.75	456.00	451.00	440.00	460.50	477.50	458.00	453.50	431.25	446.75	453.50	434.50	413.25	392.25	389.00	416.50	398.75	413.50	421.50	437.50	429.00	430.00	458.00	447.50
439.00	370.50	491.75	547.50	585.25	482.50	521.50	547.75	538.00	522.50	513.75	547.00	631.75	626.75	645.50	644.25	595.50	628.75	691.75	675.50	630.25	558.25	540.75	507.25	595.75	674.25	630.00	592.25	602.00	657.00	655.00	714.50	663.50	623.75	665.25	680.50	637.75	574.25	582.25	623.00	624.50	590.50	580.00	595.50	618.25	655.00	609.75	543.50	491.50	498.25	446.50	447.75	473.00	525.75	547.50	571.50	596.00	562.50	535.25	539.50	499.75	462.75	552.50	604.50	622.50	589.00	594.00	561.25	586.00	628.50	674.75	624.25	636.00	624.25	579.75	554.25	525.00	468.00	506.00	531.50	567.25	575.75	543.75	535.75	571.25	576.75	622.50	602.75	638.00	665.25	673.75	653.00	618.50	587.50	581.25	578.25	600.25	656.75	678.75	635.25	605.50	593.50	613.50	619.25	584.75	546.50	559.75	546.25	561.25	557.25	551.25	532.75	520.50	491.25	481.25	519.00	585.25	583.75	596.25	600.25	561.25	627.25	674.00	680.00	737.00	809.50	869.75	835.25	819.50	794.50	762.00	825.25	845.00	803.25	756.75	755.00	894.00	1018.00	926.25	832.50	702.25	610.00	600.50	527.75	610.50	654.25	650.75	613.75	585.25	621.25	621.25	548.75	511.25	459.00	479.75	583.50	593.25	563.00	527.75	487.75	477.25	480.50	489.25	482.75	471.75	482.00	488.25	486.25	503.75	478.50	457.25	428.50	421.25	425.00	422.00	415.00	415.25	421.25	436.00	469.50	494.25	500.75	488.50	465.50	447.25	444.50	419.50	412.00	426.00	458.25	508.00	546.00	546.00	507.75	482.50	480.00	413.75	372.75	391.50	434.75	473.25	474.25	446.50	433.50	439.25	356.75	347.50	347.25	346.75	347.00	347.25	417.50	454.25	484.00	485.00	465.50	452.50	441.00	428.25	411.25	401.50	402.50	397.75	396.75	403.00	393.50	359.75	404.75	430.00	415.50	409.50	435.75	453.00	473.25	477.25	468.00	465.75	484.50	476.25	460.25	439.25	460.75	451.50	426.50	413.50	409.00	399.00	400.50	394.75	409.25	411.00	430.50	420.50	431.00	462.50	454.25
415.75	421.00	509.75	564.75	596.75	473.00	467.25	472.00	517.50	523.25	544.25	596.75	649.75	665.00	645.25	649.00	658.75	685.25	709.75	661.50	632.00	599.25	576.50	515.25	603.25	693.50	695.75	649.25	620.00	604.50	665.75	716.75	716.50	689.50	679.25	661.75	615.75	602.50	604.75	612.50	629.25	590.75	563.00	530.75	533.50	546.25	569.75	519.00	506.25	457.75	488.50	505.50	541.25	547.50	554.50	572.75	593.50	556.00	538.75	533.00	505.75	463.00	487.25	535.75	555.50	550.25	535.25	540.25	563.50	609.00	650.50	617.25	600.00	604.50	598.00	567.00	494.00	522.75	567.75	593.50	609.50	587.25	534.50	546.50	593.50	619.00	600.50	603.25	587.50	646.50	656.00	679.00	671.25	624.75	611.75	621.00	622.25	641.50	672.75	659.75	617.75	587.00	595.00	606.75	607.75	586.75	551.75	530.50	532.00	530.50	539.50	521.25	581.75	603.25	590.25	470.25	492.75	536.75	521.50	533.50	584.25	615.75	658.25	742.00	818.00	822.75	880.75	819.75	791.75	769.50	842.25	955.75	916.50	852.00	811.00	789.25	914.00	989.50	871.75	773.75	724.75	699.25	552.25	540.00	634.75	675.50	631.00	605.25	649.50	686.75	576.75	534.75	565.50	516.75	474.75	477.50	542.50	632.50	596.00	569.50	544.00	532.50	527.00	515.50	500.00	521.75	516.25	523.75	522.00	495.75	474.75	435.00	469.75	456.50	423.75	434.25	441.50	443.75	440.25	439.25	468.25	473.75	466.00	459.75	443.75	424.25	418.50	458.25	478.75	477.75	511.25	506.25	501.75	499.75	508.75	459.75	403.75	458.50	481.75	450.50	485.75	469.25	470.75	478.75	441.50	363.50	351.25	350.75	350.00	349.50	350.50	422.75	468.25	443.25	438.50	447.75	456.25	467.50	460.75	448.25	431.25	422.50	417.25	403.25	384.75	365.50	375.25	373.75	381.25	423.50	451.75	468.25	487.25	509.25	546.25	555.75	493.75	501.50	493.75	485.25	461.50	482.25	456.25	446.75	456.25	438.50	414.50	390.50	391.25	399.75	419.50	422.50	410.25	437.75	450.00	427.25
401.00	397.50	471.00	535.50	541.00	429.50	516.50	477.00	495.50	559.50	584.00	617.50	646.00	623.00	604.50	613.50	630.50	680.50	688.00	666.50	660.50	598.50	635.00	524.00	609.00	653.00	698.50	727.50	650.50	633.50	687.00	703.50	670.50	723.50	723.00	670.50	662.00	672.50	684.50	636.00	649.50	589.00	562.50	590.50	552.00	529.50	519.50	500.50	504.00	469.50	480.50	497.50	569.00	589.50	599.00	604.00	564.50	558.50	568.50	549.50	552.00	463.50	553.50	532.00	494.50	491.50	498.00	513.50	527.50	557.50	618.00	587.00	555.00	542.50	530.50	481.00	522.50	549.00	583.50	620.50	609.50	559.50	559.50	540.00	552.50	635.00	637.00	634.50	591.00	608.50	647.00	647.50	679.00	663.00	626.00	657.50	666.00	677.50	673.00	644.00	618.00	593.00	572.50	583.00	612.50	598.00	608.50	575.50	519.50	507.50	516.00	539.00	595.50	576.00	523.50	474.50	517.50	504.50	518.50	535.00	549.00	582.50	651.00	731.50	721.50	731.00	849.50	851.50	819.00	842.50	899.00	920.00	891.00	836.00	805.00	885.50	907.00	896.50	782.00	688.00	682.00	664.00	539.00	594.50	636.50	664.50	656.50	666.00	655.50	631.50	557.50	621.50	682.50	589.50	563.50	465.00	486.00	587.50	706.00	687.00	621.50	596.00	574.50	556.50	533.50	545.50	528.50	495.00	470.50	456.00	447.00	439.00	468.50	446.00	461.50	501.00	501.00	499.50	485.00	460.00	496.00	483.00	466.50	458.50	459.50	450.00	429.50	461.00	477.00	496.00	533.00	529.00	489.50	490.50	482.00	443.00	500.00	550.00	566.00	532.50	471.00	461.00	463.00	457.00	429.00	400.50	358.00	352.00	352.50	350.50	351.50	388.00	434.50	430.00	458.00	434.50	458.00	465.50	492.00	463.00	459.00	451.50	424.00	402.50	380.50	365.00	388.50	400.50	397.00	405.50	435.00	474.00	506.00	538.50	577.00	595.50	514.00	489.00	482.50	489.00	493.00	500.50	478.00	482.00	465.50	434.50	436.00	412.00	378.50	375.00	418.50	411.00	403.50	426.50	444.50	424.00
444.75	378.25	387.25	429.25	426.00	455.50	587.00	540.75	556.25	599.50	614.75	614.50	613.75	593.00	580.00	625.50	670.00	668.00	703.75	668.25	618.00	627.50	633.75	531.50	590.50	640.00	682.00	716.50	663.00	654.50	671.50	657.50	651.00	673.50	736.75	750.50	769.75	744.75	734.00	708.75	671.00	651.75	643.25	621.50	603.25	605.50	586.00	592.75	540.00	470.50	531.25	534.50	556.25	593.50	597.00	609.75	617.25	611.00	605.00	587.25	560.75	464.50	515.00	602.00	592.75	567.50	547.75	542.50	529.00	549.00	595.25	626.75	575.00	559.00	557.00	514.25	536.25	608.00	609.00	622.50	607.25	579.25	581.25	558.50	539.75	586.50	634.00	618.25	617.25	658.00	616.50	653.00	677.75	694.75	663.75	700.75	742.00	737.00	709.25	670.00	645.75	615.25	581.25	565.00	584.25	567.00	567.25	559.75	557.50	550.75	513.75	506.50	505.00	475.25	476.75	490.75	514.00	519.75	527.00	550.75	597.75	649.50	639.25	662.00	699.50	737.00	823.25	899.75	876.25	910.50	950.50	907.25	840.00	810.00	854.50	955.00	931.00	964.25	856.75	729.50	628.25	590.00	550.50	621.00	695.50	681.50	690.00	670.75	634.75	592.00	609.00	719.25	752.00	603.50	601.25	499.25	478.50	628.00	798.00	836.75	771.25	705.25	646.75	624.75	571.00	548.25	522.00	500.25	487.00	486.50	470.00	447.50	445.50	438.00	455.50	485.50	488.50	518.50	528.50	510.25	487.25	477.25	465.50	458.00	452.50	443.50	422.75	446.50	469.25	497.75	515.50	476.50	463.00	445.75	429.75	467.00	536.75	523.75	488.75	492.00	438.00	435.75	420.75	412.00	394.50	445.25	375.50	356.00	355.25	352.50	354.00	354.00	370.25	410.00	406.75	416.75	453.75	485.50	534.00	521.75	487.25	444.75	422.00	393.75	383.75	394.25	391.50	441.00	450.00	452.75	451.50	482.25	511.75	536.00	564.75	595.00	555.75	503.75	482.25	473.50	490.25	490.75	500.50	500.25	489.25	462.25	442.25	422.25	405.50	393.25	389.25	384.00	380.75	409.75	430.25	419.50
417.75	373.50	407.50	437.75	439.00	482.50	584.75	591.00	603.50	610.50	589.00	605.50	592.50	563.00	604.75	634.75	656.25	639.75	699.25	685.00	635.00	655.25	602.00	552.00	578.00	622.25	646.75	696.00	681.00	674.00	671.50	667.00	634.75	656.00	701.25	746.75	797.25	775.25	747.00	733.00	703.50	720.75	692.50	675.75	650.75	641.75	615.50	618.00	540.25	464.00	547.50	557.50	541.25	558.00	573.25	598.25	621.75	611.75	584.00	559.75	562.75	465.50	487.00	569.00	589.00	604.75	612.75	595.25	561.75	535.25	591.50	634.75	611.00	597.50	587.25	521.50	517.25	580.75	578.75	616.25	604.50	596.00	590.75	564.00	548.00	556.50	608.75	612.00	627.25	640.75	624.00	641.00	678.25	704.75	685.50	725.25	784.50	786.25	746.50	701.25	669.75	631.75	590.75	565.50	562.25	554.25	548.50	541.50	555.50	568.75	530.75	483.00	476.50	474.50	479.00	516.75	511.50	527.75	543.75	582.50	617.75	683.25	688.00	703.75	762.50	819.25	843.50	966.25	954.25	956.25	951.00	905.50	834.00	824.50	887.25	1010.00	973.75	994.25	901.50	765.25	654.75	599.25	557.00	611.25	704.50	689.50	691.75	664.50	637.00	616.00	638.00	735.00	750.75	661.00	658.00	544.75	476.75	590.00	734.75	858.50	839.50	789.25	711.75	681.50	594.75	559.50	532.00	511.25	495.50	485.50	473.25	455.25	450.25	443.00	440.75	452.00	475.25	504.50	533.75	536.50	493.25	470.00	459.00	457.25	447.00	438.50	417.75	435.25	462.50	492.50	491.00	472.50	485.00	443.25	439.25	492.50	531.00	510.00	484.75	469.50	458.75	487.00	462.25	423.75	400.25	446.75	386.50	358.50	358.75	354.00	355.00	353.00	355.75	389.00	408.00	435.50	444.75	466.75	525.50	553.75	520.00	467.00	423.00	403.75	403.75	409.25	391.75	460.50	471.50	468.25	470.25	483.00	507.00	537.50	562.50	591.50	579.25	522.25	488.00	472.00	475.25	478.50	496.50	501.75	504.25	467.75	464.00	447.50	417.25	431.50	424.00	407.00	384.00	385.00	406.50	400.50
396.75	379.00	416.75	498.50	525.00	480.75	563.00	644.50	634.75	589.25	576.25	599.50	569.50	555.00	624.00	605.50	614.75	629.25	705.50	705.50	659.25	668.00	620.25	591.00	547.50	601.75	636.50	703.25	722.25	698.00	677.00	686.75	614.25	638.75	658.25	696.25	744.25	744.25	714.50	703.00	697.50	726.25	713.75	740.25	733.50	713.50	671.00	641.75	541.50	463.50	515.50	570.50	541.00	544.50	579.50	599.25	593.75	591.75	580.50	536.25	536.00	467.50	497.75	535.25	575.00	639.00	709.75	683.50	628.50	553.75	585.25	638.75	645.00	628.00	581.25	511.75	510.75	571.75	575.25	610.25	633.25	621.75	604.00	582.75	578.50	550.00	571.75	606.50	654.00	627.75	634.00	644.00	680.50	706.00	705.75	752.50	798.50	829.75	792.25	742.50	699.50	650.75	610.75	582.50	566.25	562.25	578.50	559.75	530.50	536.00	529.25	486.25	479.00	477.00	477.75	525.00	533.50	558.50	561.50	614.25	636.25	711.25	758.00	765.00	835.25	920.00	871.25	1005.75	1027.75	990.75	944.25	900.25	836.25	844.00	912.50	1048.25	1029.25	1006.00	931.75	790.75	674.50	605.25	572.75	615.75	704.25	711.50	712.75	699.25	682.25	666.50	652.50	686.00	732.25	676.75	625.25	549.25	501.50	520.00	678.50	850.75	885.00	880.00	784.25	750.00	636.50	586.50	549.00	522.25	501.75	484.50	475.25	463.75	458.25	449.50	445.00	446.50	465.00	479.00	513.75	527.25	506.00	470.25	451.50	450.50	441.75	430.50	418.25	437.75	460.50	483.50	479.00	481.75	484.00	436.25	464.25	511.50	535.50	534.75	488.00	501.00	502.50	524.75	504.00	463.25	421.25	446.25	388.00	359.50	360.75	356.00	356.50	354.50	357.25	385.00	438.50	474.50	474.50	480.50	496.00	544.50	545.75	478.50	434.25	436.25	432.75	434.25	405.75	440.00	469.25	484.75	491.25	499.50	509.00	539.75	559.50	573.75	567.25	526.50	492.00	483.00	468.50	466.00	480.50	492.25	499.75	484.25	496.25	457.75	443.25	451.00	442.25	420.50	387.50	368.50	374.50	379.00
417.75	396.00	409.25	522.25	541.75	583.00	546.75	634.75	621.00	551.75	580.00	563.00	524.25	578.50	564.00	598.75	636.75	670.25	733.50	728.00	703.50	703.75	660.00	613.25	560.25	627.00	623.25	681.00	745.00	728.00	671.50	642.75	639.00	610.00	603.75	610.00	636.50	653.25	647.50	629.75	629.50	643.75	637.75	694.25	721.50	772.25	721.50	607.25	525.50	472.25	498.00	556.00	591.25	557.25	572.25	609.75	587.00	569.25	547.75	555.00	478.75	485.50	542.00	576.25	575.25	669.00	788.75	780.25	693.00	581.25	565.25	606.75	629.50	623.50	567.00	517.25	503.25	596.00	625.75	645.00	652.00	638.50	635.00	630.75	597.00	569.25	593.25	589.25	611.00	597.75	640.25	672.50	685.00	721.75	743.00	826.00	859.25	868.00	889.50	842.50	778.50	710.75	658.75	625.50	602.00	599.00	571.00	561.75	558.25	553.75	561.25	522.75	502.00	508.50	493.00	485.00	542.75	585.75	617.75	650.50	727.25	819.75	890.25	927.75	937.00	1027.50	938.75	957.00	988.75	970.00	930.00	907.00	856.25	872.75	943.75	1063.75	1116.50	1130.00	1077.00	920.00	751.75	627.00	641.75	695.25	758.50	800.25	829.25	831.75	823.50	807.00	769.75	717.75	728.25	734.50	658.50	615.00	572.50	505.25	590.25	715.75	794.50	871.00	881.00	818.00	707.50	657.25	595.75	590.25	540.50	505.50	495.50	486.00	477.25	464.75	457.50	460.75	457.75	461.75	478.25	474.75	460.25	450.50	448.75	445.75	429.50	426.75	450.75	466.50	479.50	490.25	481.75	478.00	465.50	441.50	481.50	542.50	540.25	515.50	519.00	552.00	542.25	507.50	474.25	458.50	444.00	434.25	372.25	361.50	362.00	360.00	359.75	358.50	360.00	390.75	455.00	544.00	562.50	552.25	537.50	533.50	490.50	448.25	489.25	499.00	470.25	495.25	458.75	424.00	441.50	459.00	488.50	509.50	529.25	529.50	518.75	528.50	518.50	505.25	487.50	476.00	470.75	476.25	461.75	466.50	493.25	509.00	513.25	440.50	418.50	406.00	388.75	404.75	419.50	421.00	383.50	432.50
462.50	418.75	415.50	513.00	515.25	575.75	592.25	625.25	601.50	550.50	526.25	546.00	556.25	569.75	550.25	610.75	631.25	658.00	722.75	735.75	691.50	672.00	616.75	608.75	597.00	640.75	648.75	675.50	714.75	728.50	702.50	673.00	642.25	620.50	605.25	599.25	597.00	624.50	633.25	593.25	617.75	604.75	619.50	660.50	640.50	656.75	616.25	529.75	566.25	582.75	586.75	566.75	587.75	582.25	578.00	602.75	578.00	572.75	534.00	518.00	498.50	512.75	536.50	585.00	597.00	698.75	759.00	743.75	646.50	576.50	589.75	615.75	616.75	617.00	572.50	525.50	501.25	573.25	614.00	662.25	676.25	651.75	634.50	605.75	577.00	570.25	602.00	617.25	613.50	621.50	644.75	689.25	694.50	709.75	734.50	843.00	900.50	889.25	900.25	864.00	827.00	756.00	690.50	659.75	625.50	611.50	580.50	570.25	580.50	572.75	571.75	552.50	516.75	503.75	491.50	483.00	565.75	607.50	663.00	757.50	810.75	920.00	1007.75	1047.25	1030.00	1035.50	954.75	920.50	927.50	932.50	944.75	976.25	934.00	909.75	949.00	1040.50	1103.50	1151.75	1106.75	949.75	776.25	643.75	709.75	779.75	869.75	926.00	977.75	1008.00	978.75	950.50	892.25	799.75	766.00	761.50	718.75	650.00	590.25	517.25	594.75	677.00	737.25	783.00	838.50	773.25	687.50	658.00	637.25	664.00	592.25	540.00	518.75	504.75	494.25	483.25	474.50	476.75	482.25	487.50	507.25	495.25	457.50	444.50	442.75	444.00	436.00	464.75	489.50	494.75	497.75	493.75	481.75	465.75	455.00	440.50	463.75	528.50	532.50	534.25	558.75	567.75	518.25	497.50	500.50	491.00	477.50	452.25	381.00	364.75	363.25	364.00	361.75	361.25	362.50	391.00	443.00	530.00	546.00	503.50	519.50	542.00	531.25	469.00	500.00	527.25	505.25	514.50	482.50	460.00	479.25	476.75	479.50	489.25	513.50	507.75	492.25	510.25	507.25	509.00	490.50	486.75	492.75	493.75	474.75	457.75	470.25	500.75	514.25	459.25	444.50	426.25	410.25	462.00	479.50	464.00	411.25	454.50
477.25	435.00	399.50	474.00	512.50	571.75	594.00	601.25	546.25	522.75	513.00	550.75	597.00	580.50	560.50	595.75	637.25	659.50	717.00	744.00	698.75	672.75	610.50	659.75	633.50	616.75	644.75	716.25	715.25	730.25	730.75	700.00	648.25	639.00	636.50	628.25	593.25	596.75	611.50	557.00	577.00	563.50	605.00	636.25	589.75	562.50	526.25	509.25	678.75	725.25	707.50	653.25	600.75	604.50	602.00	579.75	554.75	548.75	544.25	492.75	537.75	555.75	534.50	588.00	633.00	744.50	777.25	762.00	636.75	585.00	670.50	655.00	621.50	621.00	589.25	548.00	510.00	552.75	624.75	680.00	695.50	641.25	611.75	593.75	573.25	573.50	605.75	632.50	647.75	638.00	659.50	689.75	692.00	684.25	713.25	823.25	879.25	877.25	888.50	851.50	831.50	771.75	738.50	708.75	660.75	632.25	589.50	574.50	593.25	587.50	580.50	548.50	501.50	481.25	479.75	501.00	580.25	641.50	723.00	874.75	928.25	1009.75	1165.25	1188.50	1107.75	1015.75	959.75	918.00	889.00	899.00	956.00	1034.50	1037.25	977.25	966.50	1011.25	1059.25	1083.00	1026.00	901.00	748.75	657.75	776.75	871.00	1008.75	1091.50	1135.75	1174.25	1117.50	1070.00	966.00	846.25	775.00	733.50	740.75	661.25	610.00	531.50	569.75	682.75	750.50	777.00	825.25	759.25	676.00	671.00	700.75	725.50	658.25	585.50	541.25	529.00	522.00	508.00	497.25	489.25	495.50	502.00	517.00	508.50	463.75	445.25	434.75	432.00	438.00	483.50	504.50	501.50	498.75	487.75	482.75	465.50	452.50	443.25	474.75	518.25	538.25	545.00	555.25	553.75	517.50	503.50	540.25	530.00	507.50	492.50	395.75	371.00	367.50	366.00	364.00	365.00	365.50	384.50	428.00	493.00	506.75	464.75	522.50	571.25	603.50	541.50	507.50	527.50	539.75	543.75	522.00	479.50	499.75	524.25	506.00	489.50	503.00	496.50	479.50	497.25	494.75	508.75	511.50	517.25	516.00	508.50	491.50	466.00	448.75	487.25	507.75	499.25	489.75	457.00	449.75	510.00	528.25	511.00	452.00	458.25
472.25	416.25	423.00	488.50	532.50	535.25	514.00	532.75	550.50	531.25	570.50	602.25	626.25	625.00	613.00	629.75	659.00	688.25	706.50	716.75	721.50	692.75	645.25	718.75	711.00	672.00	666.50	694.50	688.25	699.50	710.25	719.00	687.50	687.25	680.75	685.25	639.00	587.00	587.25	568.50	558.50	547.50	553.50	638.00	617.50	578.75	504.50	503.50	666.00	755.50	765.75	708.25	697.25	663.25	648.50	627.00	565.50	530.00	534.75	512.00	572.75	615.50	589.00	596.25	660.50	752.00	819.50	803.00	654.75	646.50	759.00	749.25	659.50	629.25	598.25	564.25	523.50	522.50	622.75	664.50	667.50	648.00	647.75	629.50	600.75	573.75	596.75	612.75	641.75	639.25	647.25	655.75	669.25	686.25	705.75	755.75	789.75	851.25	874.75	866.00	843.00	829.50	819.00	763.00	720.00	694.75	644.75	607.75	584.25	569.50	557.00	509.75	493.50	505.75	483.25	512.75	572.75	650.00	758.00	890.00	975.75	1078.75	1255.00	1274.75	1122.25	995.75	891.25	858.75	853.75	912.00	960.50	1036.75	1147.25	1101.25	1074.00	1030.00	1002.75	973.75	906.00	795.00	688.00	674.50	823.00	943.75	1143.75	1213.50	1212.25	1188.25	1091.25	1015.25	912.50	810.75	751.75	694.00	688.75	613.00	587.25	585.50	534.25	639.00	756.25	817.50	891.25	848.75	756.00	726.00	782.25	782.50	681.00	605.75	563.75	621.25	595.75	548.75	528.50	513.75	507.00	507.75	511.75	504.50	476.75	454.00	432.25	427.25	435.00	466.75	482.75	484.50	487.75	480.25	486.25	473.75	459.25	446.25	479.00	514.50	524.25	514.75	513.00	508.50	519.00	519.25	532.75	523.00	500.75	443.75	404.00	434.00	406.00	403.50	369.00	367.50	371.00	398.25	417.25	439.25	458.50	483.50	547.75	605.25	604.00	569.25	535.75	545.75	542.00	527.75	528.75	503.25	509.50	529.50	530.25	513.75	510.00	499.25	475.50	486.50	490.00	508.25	522.75	528.50	524.50	517.00	505.25	479.25	451.50	465.75	486.75	492.25	493.75	496.75	500.75	515.75	517.75	527.25	492.00	452.75
447.75	400.25	425.00	493.25	505.25	473.25	485.75	508.00	592.75	586.25	617.00	637.00	644.00	651.75	653.75	650.50	676.00	688.25	672.75	691.25	724.75	702.00	696.25	765.75	811.00	770.75	757.50	668.75	656.00	675.50	682.50	716.25	718.50	723.75	724.00	714.00	662.75	602.25	616.50	593.25	603.50	589.75	552.75	630.00	627.25	597.50	495.00	495.75	612.00	717.00	771.75	732.75	790.25	724.75	679.00	675.50	583.50	515.00	519.00	572.50	622.25	667.00	662.75	612.00	656.00	733.50	826.00	812.00	671.50	737.75	821.75	841.25	706.50	637.75	599.25	568.25	543.00	519.00	563.00	612.25	632.00	670.00	693.75	661.75	615.75	571.00	578.75	601.25	609.75	618.75	618.00	626.00	682.25	751.50	756.75	733.00	738.75	826.50	870.25	904.25	896.00	903.25	887.00	805.50	770.75	759.00	710.50	661.50	575.75	540.25	509.00	498.50	520.50	533.75	485.75	511.75	567.25	648.50	770.50	886.00	980.50	1129.25	1271.50	1258.25	1118.75	1003.75	802.00	746.00	826.25	935.50	962.00	1015.00	1177.50	1193.50	1191.25	1079.50	992.00	904.00	833.50	734.50	662.75	694.75	840.00	972.25	1169.25	1209.25	1185.75	1117.75	989.75	902.50	834.00	762.00	728.50	688.00	665.25	588.25	634.50	677.75	585.75	577.00	680.00	789.25	910.00	921.00	840.25	793.50	839.00	796.50	673.25	629.00	594.50	729.50	695.50	595.50	568.00	547.25	533.50	528.00	525.50	522.50	502.00	469.00	435.50	432.75	435.75	453.00	462.75	467.75	472.75	469.25	478.00	474.00	458.25	446.50	471.50	511.50	517.25	510.25	486.00	474.75	490.25	503.00	476.25	460.50	451.25	391.25	431.00	500.25	469.50	481.00	378.50	368.25	385.75	426.00	419.25	408.75	422.75	485.25	528.25	591.75	576.50	544.75	571.75	606.00	573.25	515.50	507.25	513.00	520.25	526.25	524.25	506.50	503.50	496.50	473.00	480.25	487.75	510.25	517.75	524.75	525.00	513.75	510.50	491.25	465.00	445.75	466.50	469.00	486.75	519.75	541.75	524.75	501.00	513.75	521.00	474.25
447.75	424.50	426.25	444.00	470.25	469.50	490.75	529.50	615.75	627.50	606.50	594.75	613.25	633.75	615.75	623.25	688.25	664.75	648.75	708.25	707.50	698.25	698.00	778.50	835.75	798.25	778.00	692.25	686.00	720.25	717.25	709.50	733.50	711.75	700.25	666.25	636.25	607.50	649.50	640.00	665.50	644.00	633.50	632.50	608.00	553.75	541.00	545.25	577.00	660.75	732.25	729.75	804.25	735.75	674.25	643.50	572.75	520.00	595.75	607.50	608.25	670.25	721.75	687.00	713.50	736.75	796.00	769.75	666.25	767.25	812.00	803.75	739.00	674.75	624.50	596.25	589.50	553.00	539.25	583.50	615.00	678.75	694.75	675.00	636.00	580.00	569.50	589.50	610.25	612.50	647.00	641.50	698.00	781.25	829.25	842.75	799.50	809.00	840.50	896.25	906.75	909.75	885.75	812.25	765.25	774.75	731.50	717.00	639.75	559.25	494.00	500.25	531.75	544.25	488.00	504.25	568.75	653.25	778.50	897.25	1003.50	1095.75	1151.75	1117.75	1029.50	939.00	756.25	698.00	815.50	904.25	925.75	927.75	1018.50	1077.75	1109.00	1070.50	989.25	845.00	784.50	752.75	714.25	743.25	854.00	936.00	1029.00	1057.25	1040.50	990.25	891.50	823.75	786.75	749.50	718.00	713.75	653.50	652.00	741.50	753.25	663.50	567.00	625.25	706.25	812.75	894.50	900.00	872.25	828.50	739.75	680.25	651.75	652.25	781.25	736.75	687.50	645.75	610.00	575.75	549.50	537.75	527.75	504.00	483.50	455.00	448.00	441.25	451.75	456.75	455.50	454.25	453.25	456.75	459.00	452.25	457.50	477.50	493.00	500.50	507.75	477.25	471.75	448.25	447.75	435.25	435.25	407.50	429.25	482.75	507.75	483.50	471.50	381.75	400.50	436.00	471.50	461.75	450.75	435.50	437.75	502.50	578.25	584.00	546.75	605.25	653.00	615.75	587.00	555.75	503.25	502.50	503.00	496.50	481.25	478.25	474.00	462.75	467.75	474.25	498.00	504.75	516.50	510.25	495.50	486.50	481.00	468.50	452.75	463.75	450.50	488.75	519.00	532.25	540.00	513.25	508.25	503.50	468.00
452.00	489.00	489.25	469.00	505.50	540.25	455.75	529.50	604.00	638.50	591.50	551.25	597.25	595.50	590.75	627.50	680.50	641.00	641.00	717.50	675.50	660.25	667.25	770.75	835.25	794.25	759.50	724.75	724.50	774.75	768.50	742.00	732.50	677.25	654.50	654.00	651.25	611.50	653.50	695.50	703.25	654.75	638.25	669.75	655.00	543.25	609.25	626.75	554.75	615.00	672.75	694.50	771.25	727.25	670.00	630.00	564.75	538.25	681.75	627.00	591.50	625.50	722.25	772.25	796.25	772.25	781.25	718.00	658.00	755.50	781.75	754.75	771.75	754.75	678.00	635.75	625.25	571.00	537.00	575.00	640.25	714.00	711.25	690.50	656.50	601.25	571.75	575.75	612.25	624.75	686.50	669.75	684.25	746.25	837.50	936.75	882.75	843.25	832.50	864.50	888.25	899.25	862.25	808.75	747.25	755.50	718.00	714.75	698.00	577.25	505.25	495.50	516.50	551.25	492.75	492.50	558.75	645.75	769.25	919.50	1005.50	1002.25	982.75	972.75	896.25	832.25	710.00	680.25	775.50	835.75	882.00	839.25	859.75	910.25	942.75	1012.50	980.00	819.00	794.00	833.00	795.75	825.50	892.75	896.25	915.00	926.25	910.25	884.50	830.00	772.75	761.25	757.25	714.25	691.00	623.75	716.75	804.00	813.75	697.50	579.50	628.50	684.75	775.00	857.00	919.50	903.00	800.25	712.75	710.25	667.75	724.75	813.50	755.75	788.00	737.00	684.50	609.25	574.75	556.75	533.50	498.50	489.50	474.00	462.50	449.75	462.00	455.75	448.50	445.25	445.25	443.50	445.00	459.25	475.25	486.25	474.50	471.25	474.75	465.50	459.25	413.00	408.00	462.00	455.25	418.75	463.50	510.75	488.25	462.25	406.00	399.25	453.75	469.25	521.00	528.50	525.00	472.25	423.50	489.75	574.75	590.75	557.25	611.00	670.50	637.25	636.00	583.50	549.00	514.00	490.50	483.50	473.50	474.75	468.00	458.00	455.00	454.50	467.00	487.25	497.75	497.75	485.50	474.50	467.25	464.25	459.25	460.00	444.25	487.50	513.50	515.00	542.50	521.75	498.75	494.25	455.50
508.00	590.50	624.75	644.25	631.50	642.00	533.50	456.50	467.25	575.25	529.75	476.50	486.75	507.75	631.75	635.75	639.00	586.25	640.50	655.50	605.00	594.75	672.50	763.25	801.00	842.50	839.00	853.25	806.25	805.50	799.25	762.75	735.00	738.50	709.00	719.75	700.50	623.00	684.50	760.00	746.75	692.00	643.00	572.75	559.25	531.00	662.25	757.00	675.25	612.25	622.50	672.25	711.00	678.50	654.00	597.75	583.25	550.75	610.00	699.75	674.75	610.25	625.75	683.75	740.50	782.25	763.50	700.00	678.25	738.50	806.00	790.00	742.00	810.50	736.50	640.25	622.25	579.00	641.00	571.50	652.50	648.25	659.50	671.75	668.50	644.00	605.50	573.75	597.25	620.75	666.75	686.75	695.00	748.00	814.25	940.25	982.75	974.75	945.25	904.00	889.50	859.50	824.00	785.25	735.50	694.50	689.50	640.25	718.75	659.50	572.50	533.50	528.75	573.50	528.50	495.00	511.50	593.50	687.75	864.00	899.25	867.75	893.25	813.75	784.75	724.50	672.25	707.00	755.25	745.75	800.00	746.00	725.00	762.00	780.25	859.25	905.25	953.50	968.25	995.25	997.50	968.00	947.25	867.00	822.25	820.25	809.75	868.75	859.50	775.00	730.00	773.00	760.75	620.75	687.00	817.50	800.75	740.25	620.50	556.75	626.50	670.25	751.50	815.25	941.00	924.00	828.50	808.00	767.50	775.75	848.00	883.25	836.50	882.00	798.25	680.75	657.00	670.00	623.25	584.00	533.75	510.25	487.25	475.00	464.75	460.00	453.75	452.75	456.00	457.25	446.00	445.25	453.75	472.00	483.75	480.50	464.50	467.25	453.00	416.75	447.50	493.75	485.25	499.25	500.25	504.25	518.50	485.25	486.00	378.25	469.50	545.50	523.25	503.50	546.75	572.25	483.25	476.00	479.00	498.50	601.50	574.25	593.50	645.25	617.50	585.50	593.50	656.25	633.25	548.00	497.25	496.50	514.25	516.00	497.25	480.75	461.50	448.00	442.75	442.75	452.25	463.25	460.25	455.75	474.75	489.00	496.00	446.25	448.25	480.50	494.25	520.00	526.00	521.00	446.25	433.00
512.75	601.00	637.75	666.50	699.25	668.00	578.50	464.25	466.75	499.00	486.00	502.25	476.25	480.50	583.75	619.00	632.25	565.50	649.25	604.75	593.50	624.00	672.25	717.25	770.75	855.50	865.00	838.00	765.75	757.25	792.75	782.50	775.50	795.75	757.50	737.00	677.50	617.75	674.25	750.00	741.50	716.75	683.50	597.75	525.00	520.75	646.00	742.75	755.75	686.75	617.75	669.50	731.50	661.50	651.00	645.00	643.00	598.25	574.00	666.75	698.50	635.00	673.25	693.50	708.25	749.75	765.00	717.50	706.00	748.75	845.75	798.00	707.75	733.25	687.75	619.50	603.75	609.75	665.25	554.25	600.00	632.75	640.50	667.25	644.00	636.00	599.75	574.75	610.25	619.50	657.75	689.75	703.50	739.50	804.50	917.25	966.25	976.00	981.00	941.00	922.00	860.00	805.50	769.00	738.75	670.25	700.25	670.00	640.75	622.00	564.00	525.25	596.25	627.50	571.00	501.50	498.50	578.75	652.25	775.50	816.00	811.50	882.25	795.25	759.75	726.00	658.00	708.50	744.00	712.25	739.00	692.50	735.50	773.75	776.75	836.75	897.50	937.25	934.00	970.75	1028.00	1000.25	959.75	898.75	820.00	787.50	775.50	835.00	824.00	765.50	710.50	745.75	743.00	625.25	688.75	792.75	745.50	672.00	631.25	575.25	615.75	669.75	746.00	844.75	954.25	955.25	877.75	862.00	794.75	836.50	911.00	911.50	874.75	854.75	776.25	669.75	712.75	724.50	680.50	624.00	558.25	527.25	501.25	490.00	474.25	462.75	457.00	462.75	462.25	453.00	446.75	450.00	450.75	464.00	473.50	468.50	446.75	437.00	410.50	404.75	469.50	514.75	494.50	537.00	541.25	524.75	517.25	493.00	448.25	375.75	485.00	594.50	560.50	531.00	568.75	552.25	481.50	542.00	538.25	522.50	617.00	588.50	601.00	632.25	611.25	594.50	641.00	650.00	642.25	549.00	494.50	517.00	539.50	546.25	522.75	509.50	485.50	466.75	450.25	447.50	442.00	439.50	436.00	436.25	441.75	463.25	502.25	472.00	427.50	446.50	470.50	501.50	502.75	501.75	429.00	392.75
520.75	586.25	656.00	734.75	760.50	645.00	599.25	483.00	573.00	580.00	594.25	602.25	517.25	481.75	603.50	649.25	577.75	558.25	592.00	549.25	644.00	642.25	628.75	733.75	772.75	843.50	823.25	817.00	732.25	713.25	784.25	801.25	808.00	783.50	732.25	719.00	709.75	639.50	690.75	727.25	670.75	645.75	664.00	603.50	525.50	501.00	570.50	664.00	732.00	748.00	698.00	674.50	760.50	704.50	708.50	778.50	714.50	585.00	569.00	662.75	761.25	667.50	666.25	755.00	796.50	775.00	807.25	765.50	752.75	788.50	847.25	828.75	758.25	684.75	704.25	697.00	633.00	625.50	621.50	543.75	580.00	621.00	628.00	653.25	621.25	596.50	578.25	596.75	623.00	641.50	648.00	687.00	730.75	736.50	754.50	797.75	811.75	877.25	901.00	907.25	976.00	941.00	859.25	774.50	712.75	671.75	621.50	605.75	527.25	559.50	582.25	719.75	773.50	693.50	629.25	556.25	499.50	543.75	587.75	632.25	678.50	785.75	867.50	851.75	743.00	779.00	730.50	641.50	690.75	727.00	687.50	688.00	839.25	921.00	924.50	984.00	986.00	877.25	908.00	914.00	932.75	951.25	970.50	917.75	858.25	844.75	766.25	730.50	728.00	696.50	674.00	681.25	663.75	706.50	701.50	767.00	717.50	685.25	702.50	616.75	559.50	607.25	726.50	819.75	946.75	986.00	976.75	943.25	884.75	902.25	1001.25	972.25	916.75	798.25	709.00	724.75	767.25	812.00	794.25	686.50	624.25	598.25	557.00	546.25	506.00	487.25	489.00	486.00	472.00	458.00	484.75	490.75	479.75	469.75	481.00	449.25	421.50	409.75	409.50	417.75	444.75	464.25	485.25	504.25	499.00	492.50	525.25	490.00	446.25	387.75	456.25	574.00	618.50	632.75	625.50	586.00	516.50	551.00	623.25	651.75	677.75	630.50	654.25	646.25	641.25	641.25	619.75	575.00	574.50	554.00	534.25	562.00	578.00	571.25	540.50	529.25	501.50	482.00	472.75	486.25	491.75	482.75	462.25	450.50	449.25	439.50	431.25	445.50	423.50	423.50	433.00	426.50	418.25	401.75	400.75	421.75
535.00	576.00	675.00	758.00	758.75	644.25	650.25	496.25	527.75	617.25	684.00	636.00	561.25	504.00	578.75	646.25	538.00	517.25	521.75	537.50	606.75	592.00	642.75	693.00	731.50	817.50	795.50	783.00	705.75	712.75	765.50	777.00	790.75	777.50	714.25	687.00	678.00	646.25	714.25	729.75	650.75	599.75	610.50	555.25	560.00	505.75	560.25	626.50	665.75	723.50	756.25	710.50	738.75	732.25	720.50	777.25	720.75	588.25	573.50	687.00	776.75	681.00	702.75	730.75	812.00	811.75	799.25	781.50	782.25	827.25	851.50	851.00	807.00	718.00	718.50	724.25	645.25	618.50	597.00	555.50	617.00	619.00	620.50	653.00	628.50	595.25	577.00	607.50	654.00	674.25	658.75	690.00	721.75	724.50	732.50	756.00	774.50	834.50	835.50	871.00	952.25	969.75	922.75	846.75	741.50	722.75	691.25	636.00	532.25	578.00	646.75	772.75	810.50	712.50	646.75	566.25	501.50	540.75	559.75	602.25	649.25	733.00	816.50	828.50	726.75	771.25	717.75	627.75	669.00	693.00	666.75	705.25	879.50	971.50	1008.25	1024.75	986.50	878.50	873.25	872.75	924.00	967.50	956.00	915.50	868.00	868.75	773.75	723.00	714.50	710.50	692.00	653.25	676.75	779.00	765.50	773.75	740.25	722.50	622.00	579.00	557.50	586.75	687.00	764.75	905.75	968.50	969.75	953.00	936.25	934.25	1011.50	1023.00	966.75	811.00	719.00	800.25	847.50	857.00	805.50	726.75	697.25	653.00	607.50	598.00	529.25	508.25	508.00	501.00	492.00	469.25	507.25	517.00	503.00	482.00	502.75	452.50	413.50	410.75	418.75	435.50	452.50	469.50	487.25	477.25	460.50	480.75	515.00	476.00	439.50	391.00	443.75	520.25	580.50	644.75	652.75	622.25	557.00	537.00	603.25	676.25	690.75	678.50	669.00	633.50	615.25	615.00	602.75	554.25	550.25	599.00	553.75	591.25	624.75	572.25	526.75	512.50	492.75	495.00	490.25	513.75	516.00	500.75	467.75	461.50	469.50	447.00	432.25	419.00	414.75	421.25	432.00	417.00	403.75	405.50	425.75	462.25
554.75	600.00	634.75	687.75	759.00	740.00	685.25	616.25	516.50	592.00	746.25	735.75	684.00	593.25	474.75	537.00	521.50	619.25	620.75	508.75	557.75	662.00	645.50	662.50	741.75	717.50	746.75	710.50	670.50	724.25	761.00	738.75	748.00	768.25	734.25	732.75	705.50	678.75	736.00	729.50	662.00	604.75	575.25	663.50	610.00	504.25	550.75	586.50	611.00	645.75	767.25	806.75	783.50	790.25	714.00	644.00	583.00	639.25	636.50	674.75	751.50	719.25	751.00	755.50	804.00	859.00	866.50	839.25	843.50	864.75	845.00	810.75	792.25	802.25	742.25	753.00	693.50	661.00	601.00	582.50	652.75	651.50	668.50	666.00	634.50	612.25	598.25	594.50	634.00	643.00	658.50	679.00	682.75	679.00	696.75	725.50	744.50	728.50	740.25	781.50	849.25	929.25	947.00	902.25	823.50	807.25	866.25	809.75	679.00	578.50	569.25	590.50	748.50	779.00	704.00	602.00	512.75	559.25	606.00	584.25	600.50	628.50	665.00	653.75	696.00	733.00	656.00	618.25	613.00	636.25	722.00	743.00	853.50	910.25	987.25	992.00	884.25	790.50	848.50	950.00	967.25	990.00	931.25	904.50	868.00	827.50	799.75	812.50	791.75	745.25	698.50	724.50	807.75	936.00	923.50	766.25	693.75	644.00	594.50	663.75	601.25	588.00	620.50	733.25	815.00	869.50	915.00	871.00	904.50	954.25	983.00	1032.00	1022.75	874.75	771.50	852.75	938.25	955.50	902.50	885.00	860.50	789.25	666.00	615.25	602.25	590.00	574.50	535.75	507.25	492.00	544.00	535.75	527.00	498.50	465.75	429.25	417.50	422.00	471.75	466.75	517.75	560.00	542.50	522.25	476.00	430.25	420.25	422.50	394.25	382.50	392.50	406.25	442.75	523.75	603.75	672.75	678.50	664.00	624.50	601.50	670.25	728.25	716.00	699.00	683.75	660.00	607.75	629.00	646.25	668.25	563.00	626.00	661.00	596.00	591.00	565.00	543.00	536.50	523.25	514.50	500.00	491.00	505.75	497.75	472.50	459.50	476.00	437.75	455.75	433.25	421.00	419.00	437.00	460.25	481.00	499.25
535.50	661.00	695.00	702.00	767.50	775.00	723.00	612.00	510.00	589.00	684.50	745.00	642.50	582.50	521.00	503.00	524.00	598.00	599.50	514.00	566.50	641.50	606.50	664.00	657.50	659.00	699.00	708.00	664.00	732.50	731.00	705.50	738.00	796.50	770.50	780.50	742.00	722.50	776.00	742.00	675.00	615.00	635.00	685.50	590.50	505.00	581.00	658.50	682.00	654.50	696.50	758.00	824.50	777.00	715.50	665.50	582.00	639.00	732.00	684.00	757.00	760.50	770.50	798.50	799.50	856.50	917.50	866.00	859.50	824.50	813.00	782.50	755.50	753.00	731.00	743.00	728.50	670.00	657.50	571.00	626.50	643.00	671.00	663.50	650.00	647.50	604.50	594.00	594.50	597.50	638.00	660.00	667.00	657.00	690.50	699.00	701.00	685.50	700.50	725.00	776.50	820.00	844.00	826.50	777.00	777.50	897.50	919.00	828.50	747.50	712.50	541.50	684.00	816.50	788.50	647.50	527.00	511.50	561.50	569.50	610.00	612.50	610.00	624.00	662.00	710.50	670.00	645.00	614.50	699.00	797.00	831.00	797.00	864.00	882.50	946.00	855.00	848.50	944.00	1013.50	1034.00	1033.00	949.50	923.00	930.00	822.50	798.50	819.50	777.00	714.00	712.00	818.50	902.50	957.00	947.00	811.00	763.00	686.00	599.00	668.00	598.50	597.00	679.00	655.50	770.50	780.50	810.50	792.50	831.00	867.00	930.50	1000.00	1017.50	889.50	858.50	899.00	946.00	947.00	923.00	900.50	936.50	882.00	727.00	674.50	716.50	717.50	650.50	568.50	530.50	507.00	525.50	535.50	498.50	503.00	435.00	422.50	425.00	443.00	495.00	481.50	544.50	580.50	570.00	521.00	486.00	479.50	459.00	455.50	397.50	381.00	386.00	392.50	396.50	420.50	485.00	607.50	717.00	754.00	722.00	661.00	680.00	742.50	745.00	743.00	719.50	611.50	595.50	685.00	686.00	602.00	594.00	671.50	745.00	680.00	677.50	676.00	582.00	548.50	528.00	524.50	516.00	521.50	538.00	487.00	476.50	498.50	497.50	446.50	472.00	468.50	436.50	452.50	524.00	563.00	522.00	497.00
550.75	669.25	729.50	757.75	771.75	735.75	659.50	603.50	546.00	560.00	691.25	736.75	706.50	665.25	558.00	596.25	616.75	581.25	652.75	606.50	536.00	552.50	646.50	619.75	636.25	676.25	661.25	714.25	646.75	710.25	682.75	721.50	771.00	785.50	802.75	804.00	795.75	785.25	783.50	738.25	693.50	658.75	677.25	609.75	592.00	519.25	566.00	608.75	705.50	711.50	707.50	695.75	768.50	833.25	743.00	670.50	625.50	584.50	653.50	693.00	726.00	757.25	800.00	808.25	838.00	882.00	900.25	858.00	826.25	779.75	772.25	752.50	740.00	769.25	712.75	692.75	694.50	649.00	628.50	584.75	617.50	694.00	692.50	686.50	657.00	629.00	623.25	625.75	661.00	648.75	622.25	634.75	639.00	663.75	686.00	681.00	665.00	667.75	688.75	687.00	726.00	736.25	751.00	742.00	713.75	711.75	833.00	885.25	882.50	770.50	652.25	599.50	734.25	822.50	841.00	694.50	559.00	506.75	550.00	599.50	625.75	614.75	611.00	607.00	642.75	693.25	617.25	599.00	651.25	674.50	747.00	786.00	758.75	779.00	799.00	798.00	733.75	833.00	846.50	929.75	999.50	1049.00	909.00	873.50	905.25	837.00	761.00	771.00	740.50	701.25	750.00	872.50	875.50	886.25	885.75	796.25	740.75	645.50	626.75	648.00	619.50	610.25	704.25	693.75	715.75	728.25	732.00	800.50	882.75	940.50	950.25	990.50	996.75	951.25	981.00	949.75	906.25	849.75	839.50	811.00	838.75	880.25	847.25	783.00	722.00	653.25	648.50	591.00	576.25	533.75	501.50	515.00	478.25	449.50	431.25	429.75	450.25	482.75	513.75	551.50	550.75	584.50	516.75	503.00	555.25	533.25	488.00	420.00	404.25	419.75	398.75	388.75	390.50	396.25	411.00	538.25	611.00	703.75	771.00	760.75	791.75	740.25	704.50	666.75	641.00	644.25	666.25	739.00	669.75	618.75	683.50	767.00	782.25	788.50	803.50	699.50	603.00	591.00	560.50	549.50	548.00	538.75	512.75	483.50	505.00	542.50	514.50	474.75	509.25	491.25	444.75	474.00	554.00	583.25	550.50	525.50
548.50	642.00	724.75	758.00	739.50	742.50	670.00	616.25	599.50	552.75	675.00	739.00	688.00	631.50	603.50	641.25	607.75	570.00	662.75	668.75	575.00	530.50	603.50	613.00	678.25	716.25	646.50	686.50	663.50	679.00	693.25	744.75	774.25	762.50	778.75	783.25	799.50	814.25	789.50	739.75	709.75	678.75	684.25	594.50	572.75	520.00	533.00	599.25	684.25	679.00	674.50	658.25	728.50	828.25	786.00	711.75	690.75	644.25	607.00	647.25	690.50	709.50	748.25	778.25	828.50	901.50	896.00	847.50	812.25	768.50	750.50	730.25	740.50	778.50	711.00	675.75	698.25	648.75	619.50	588.75	629.00	716.50	701.25	694.00	660.75	642.75	648.25	656.50	682.50	655.50	646.00	649.75	639.00	660.75	670.75	656.25	645.75	663.00	688.50	670.50	696.75	694.75	708.50	698.50	680.25	671.75	782.75	830.75	835.25	691.25	579.25	669.50	791.25	850.75	885.75	757.75	584.25	511.75	527.75	556.50	580.50	601.50	613.50	597.75	631.00	672.50	593.50	635.00	658.50	663.25	706.25	723.75	738.75	728.00	751.75	717.00	734.50	908.50	890.00	931.25	1027.25	1040.25	894.75	842.75	895.25	853.00	761.25	742.25	721.50	726.75	784.25	854.50	842.25	846.00	864.25	766.00	725.00	635.25	689.25	658.00	654.25	604.50	688.50	730.50	737.75	775.00	751.50	789.00	874.25	939.25	964.75	992.25	981.00	990.25	1006.50	924.25	844.25	781.25	764.25	768.25	763.00	824.75	888.25	824.50	739.50	634.50	615.00	555.50	534.50	504.00	486.00	525.75	495.50	446.75	432.75	437.00	464.25	513.75	488.00	553.00	576.25	614.50	550.00	529.75	576.50	507.00	457.00	420.75	446.50	478.50	444.75	416.50	393.25	392.25	398.75	499.50	603.25	660.75	750.00	769.25	795.00	776.00	714.25	669.50	655.00	661.00	692.00	700.25	628.00	674.75	672.25	798.00	825.75	840.00	774.50	704.25	644.50	688.75	595.00	568.75	557.50	534.00	508.75	493.50	518.50	548.50	510.75	499.50	529.00	490.50	448.75	484.50	561.75	599.50	551.00	512.00
568.00	644.25	698.75	697.50	715.50	755.00	707.25	665.00	632.00	560.75	686.00	728.00	695.50	668.75	678.75	649.00	598.25	615.25	643.50	685.00	623.50	567.00	553.25	588.25	650.50	700.50	613.50	629.50	657.25	661.75	680.75	712.25	727.75	737.25	758.25	767.75	782.75	803.00	756.75	712.75	700.50	704.50	682.75	623.25	601.00	562.50	522.75	573.00	620.00	641.25	669.00	677.00	720.00	780.00	796.25	789.50	769.25	724.50	646.75	606.75	650.75	648.50	677.25	752.50	819.75	888.50	889.50	864.00	832.25	789.25	769.00	741.75	720.50	742.00	691.00	652.50	669.50	646.50	616.50	604.25	636.25	695.50	702.50	709.25	690.00	676.25	679.75	681.00	682.50	650.00	679.75	682.25	655.25	665.00	661.75	646.00	637.75	639.25	662.25	653.25	668.50	651.00	656.50	657.75	663.50	632.50	710.50	712.50	676.25	607.75	651.75	774.25	855.75	891.50	915.00	791.50	626.25	541.50	528.25	523.50	577.00	605.00	593.75	585.50	617.75	625.75	575.75	621.25	634.00	664.00	698.00	694.50	693.00	680.00	699.25	717.50	776.25	958.25	1000.75	1009.75	1054.75	1000.00	873.25	813.25	854.00	832.75	788.00	763.75	783.00	824.00	809.00	791.00	775.75	767.00	793.75	714.50	654.75	628.00	743.25	701.75	684.25	649.00	655.50	709.50	786.25	839.50	805.25	806.50	832.75	878.75	931.75	992.00	964.25	972.50	987.50	930.50	845.50	787.50	722.00	725.25	682.25	700.50	788.50	765.75	693.50	588.00	543.00	514.50	526.00	481.25	470.75	491.25	481.00	448.75	442.75	454.50	493.75	548.50	504.00	545.25	584.00	595.50	568.50	521.75	549.25	502.00	439.00	461.75	528.00	509.75	459.50	426.25	403.50	406.75	434.00	478.50	577.75	577.75	666.50	685.75	695.50	800.25	788.25	780.50	770.00	762.50	741.50	666.25	619.75	730.25	750.25	832.75	928.50	862.25	814.75	764.75	744.75	781.00	658.00	630.25	587.00	557.50	534.75	517.50	539.75	541.50	506.50	529.00	534.75	508.75	467.50	494.00	573.75	607.75	554.00	530.50
585.75	631.00	642.00	653.00	700.00	739.75	735.75	681.25	593.75	570.75	690.50	741.50	746.25	744.00	710.50	647.75	639.50	687.00	634.75	689.50	664.50	644.75	583.75	549.75	573.50	611.25	592.00	654.25	665.50	698.50	657.50	722.50	721.75	758.25	782.00	807.50	793.25	795.75	732.25	691.50	679.50	712.75	694.50	631.75	637.75	607.50	526.75	541.50	619.50	660.50	703.50	720.25	744.25	760.25	766.25	808.75	799.50	755.25	711.00	621.00	608.00	617.50	661.50	733.25	804.25	860.25	863.25	883.00	858.75	794.25	769.50	754.75	696.00	704.00	664.25	628.00	638.50	680.50	635.00	609.00	645.75	697.50	724.50	742.00	730.75	714.50	709.50	698.25	680.00	656.50	707.50	698.75	670.50	677.25	656.25	643.50	631.25	608.00	616.50	627.25	639.25	634.00	612.50	613.75	660.25	637.50	659.00	616.50	550.75	603.75	737.00	841.75	886.00	893.75	912.50	775.25	641.00	582.75	572.25	524.00	582.50	611.25	577.50	596.00	618.00	598.75	568.00	600.25	630.00	708.25	715.75	692.00	646.50	662.00	694.00	777.25	826.25	992.75	1026.75	1016.00	1040.50	956.00	859.00	801.50	805.50	791.00	806.75	812.00	833.75	866.50	804.00	731.00	699.00	704.50	704.00	651.50	607.25	641.75	780.50	746.00	697.75	729.25	638.50	659.75	771.00	826.50	794.50	811.75	815.50	851.75	893.25	991.50	959.75	909.50	930.25	928.50	865.50	808.50	719.00	666.50	633.75	617.75	636.75	644.50	624.25	530.25	490.00	517.00	581.50	512.75	473.25	455.00	451.00	456.00	471.00	474.25	532.00	595.00	535.00	552.75	544.75	542.75	560.25	497.75	502.25	506.75	439.50	487.00	568.25	491.00	434.25	400.75	402.00	455.00	520.25	500.50	523.00	509.00	597.50	604.25	607.50	743.50	794.00	860.50	904.50	883.00	779.25	706.00	656.50	746.50	812.25	882.50	1004.25	911.25	868.75	755.50	849.50	826.75	734.50	734.00	655.50	597.75	560.25	540.50	556.00	530.50	503.25	557.25	544.25	535.75	486.50	510.75	600.50	615.50	572.25	560.75
618.00	610.00	636.50	693.25	740.75	759.25	707.00	625.75	572.50	631.25	689.50	742.25	757.00	719.25	664.50	662.00	667.75	689.50	647.50	706.00	714.50	715.75	625.00	621.75	580.50	587.00	624.50	733.50	749.75	785.00	719.50	735.25	761.25	800.50	831.50	853.25	822.75	825.00	757.00	709.25	695.00	659.50	672.75	649.00	627.00	582.50	550.50	535.75	644.50	677.75	696.25	701.00	717.75	705.50	699.00	726.50	755.25	771.50	777.00	676.75	632.25	611.00	647.75	721.75	799.00	814.25	804.50	839.75	829.75	770.50	730.25	721.00	688.25	700.75	661.25	625.50	666.50	742.25	732.25	664.50	660.25	726.00	778.75	806.00	795.00	759.50	738.25	720.50	684.75	693.50	739.25	714.50	695.75	690.50	657.25	631.00	615.75	607.75	596.00	592.50	596.00	609.50	614.75	596.75	596.50	593.00	587.50	566.50	572.00	654.00	765.50	877.00	893.50	854.50	834.00	728.25	635.75	601.25	590.75	536.00	542.75	587.00	610.50	623.00	624.50	596.75	571.75	623.75	643.25	728.50	684.75	652.50	673.25	701.75	753.00	833.75	890.75	989.75	937.00	933.25	1000.00	929.25	862.75	810.75	778.50	745.25	758.00	771.00	758.50	782.75	759.00	698.50	680.00	663.75	647.50	642.25	666.25	708.25	813.75	795.50	723.50	793.50	684.25	681.75	731.25	740.25	775.75	821.25	819.25	864.00	914.00	964.00	972.50	901.00	881.50	849.75	802.00	762.25	729.25	712.25	708.25	694.50	658.25	625.00	598.50	523.25	497.75	581.75	640.50	559.00	507.75	471.25	457.25	484.25	507.25	502.00	574.75	618.75	543.50	558.00	534.75	519.25	515.25	471.75	462.25	462.50	440.25	502.25	529.25	459.25	422.00	392.75	405.75	500.50	573.50	561.50	504.00	466.75	525.00	521.25	563.25	652.00	702.50	779.25	884.25	922.75	880.25	800.75	724.50	738.75	780.00	893.75	982.00	957.25	855.75	730.25	863.75	917.00	879.00	876.25	772.25	654.00	595.25	565.75	558.50	528.25	518.00	584.00	574.75	544.25	492.75	536.00	621.00	605.50	546.75	527.00
672.50	643.75	684.50	765.00	839.25	836.50	708.00	612.50	582.00	683.50	722.50	752.00	764.75	706.25	657.50	688.00	669.50	690.00	657.50	712.25	761.25	752.75	622.00	713.25	633.00	604.00	622.00	760.75	815.00	832.75	785.00	739.00	782.25	821.75	884.50	874.50	853.00	842.50	749.50	693.25	684.50	634.75	625.00	634.00	586.50	561.50	612.50	549.50	609.75	663.75	647.50	659.00	655.00	654.75	685.75	713.75	739.00	785.00	810.00	733.50	693.25	608.00	641.00	717.25	791.25	753.25	764.00	807.25	804.75	764.00	711.50	695.25	683.00	690.00	663.00	631.50	686.75	787.75	850.25	751.25	685.25	736.75	819.75	862.50	863.75	812.75	772.00	742.75	711.75	734.00	743.75	716.50	724.50	700.75	664.50	630.25	613.50	622.00	597.50	578.75	580.25	572.75	590.25	576.00	530.75	525.25	539.50	536.00	610.50	669.25	777.25	912.50	901.50	824.50	759.00	703.50	650.00	614.50	588.00	541.50	516.00	553.50	613.25	601.75	615.75	580.25	567.25	608.25	643.75	674.25	632.75	641.75	709.00	736.00	797.25	835.75	891.50	921.50	854.25	846.50	932.50	910.25	847.75	799.25	755.50	719.00	711.25	700.75	689.00	715.75	698.00	657.00	657.00	634.25	650.75	697.50	762.75	780.00	860.25	867.25	765.00	809.25	737.00	729.50	755.25	697.00	781.50	872.75	833.25	872.00	938.00	924.50	966.75	928.25	892.75	820.50	789.50	773.75	769.25	827.25	824.25	808.75	767.25	677.00	577.00	517.25	512.25	634.50	692.75	618.50	553.25	487.50	466.25	507.50	541.00	531.75	588.50	605.75	548.00	531.00	528.75	498.25	468.00	461.75	471.00	465.25	462.75	518.25	500.00	458.25	428.25	394.50	405.75	480.25	553.00	535.75	458.25	433.25	445.25	448.50	516.50	574.75	616.75	671.50	766.50	868.50	922.25	880.25	823.00	824.00	800.25	921.50	988.25	981.25	869.50	796.00	824.25	926.50	1029.25	959.75	821.50	708.00	660.75	591.00	557.25	541.00	543.75	591.00	582.00	540.25	502.00	544.25	599.25	569.00	531.75	514.75
687.00	685.25	761.00	868.75	929.00	862.50	707.00	647.50	603.25	639.25	730.00	768.50	796.75	774.75	714.00	702.50	688.50	734.75	695.25	717.50	766.00	734.50	624.75	729.75	705.75	649.25	599.75	735.75	779.25	804.50	783.25	768.50	787.75	822.50	876.25	860.50	843.50	842.25	759.25	718.25	708.75	673.50	630.00	603.75	578.00	623.25	670.75	603.00	562.50	596.00	597.50	666.25	665.00	687.25	743.25	761.75	778.50	815.75	793.75	724.75	696.75	612.25	656.25	686.75	735.00	750.75	793.00	835.75	811.75	773.25	726.00	705.50	729.50	711.00	675.25	666.75	693.50	822.75	893.25	785.50	730.00	741.50	809.50	871.75	910.75	879.00	838.00	798.50	754.50	746.50	697.25	681.25	691.50	698.50	681.25	661.00	640.25	638.25	621.00	603.00	609.50	595.25	554.00	540.25	528.75	552.00	586.25	554.75	613.00	659.25	733.25	849.50	850.00	792.25	733.50	707.00	660.50	623.00	601.25	554.50	542.00	544.00	563.75	550.50	564.75	554.50	581.50	608.50	623.50	613.50	634.25	682.75	695.50	713.75	776.75	780.75	825.50	818.25	776.00	814.25	915.00	894.75	823.50	794.75	774.50	766.00	742.00	726.00	697.25	703.50	676.50	666.75	708.25	687.25	726.50	799.25	845.25	862.25	902.75	892.75	806.00	786.25	801.00	762.75	806.75	740.00	801.25	874.25	885.75	897.00	945.25	919.50	903.75	880.00	889.50	876.25	881.00	848.50	842.50	851.75	821.25	790.50	733.75	652.00	547.50	513.25	563.75	679.50	745.25	701.00	596.75	504.00	476.25	528.50	579.75	601.50	612.75	593.25	547.75	522.00	498.50	509.25	522.25	536.00	547.00	509.25	484.75	499.00	499.75	510.50	473.00	398.75	403.00	436.50	469.75	449.75	445.75	490.75	499.50	461.75	469.00	496.00	527.75	564.75	622.00	682.25	732.50	783.00	778.75	825.50	824.75	949.25	1044.75	1031.25	963.25	933.00	897.00	894.00	1022.50	999.25	885.25	807.00	699.50	619.00	613.00	577.75	577.50	582.75	564.50	539.75	544.25	585.25	613.00	579.50	555.25	526.25
656.75	713.75	826.00	934.25	950.25	825.75	676.00	665.75	627.00	596.50	671.00	742.50	811.25	813.50	732.75	693.25	719.00	783.50	755.25	738.25	768.75	716.50	661.25	730.50	773.25	693.25	611.50	667.50	736.75	754.75	732.00	753.50	784.00	815.50	844.75	823.75	808.75	833.75	809.75	788.75	758.25	694.75	643.50	635.25	644.25	696.00	700.00	659.25	546.00	555.50	559.25	643.00	695.50	711.00	753.50	750.25	792.25	855.25	794.50	710.25	698.25	621.50	638.00	663.25	705.25	777.75	836.50	871.00	835.00	789.25	747.50	723.50	778.50	737.25	708.75	719.50	689.50	804.25	870.50	792.25	771.00	764.50	789.50	851.50	916.25	933.00	911.50	882.25	800.00	757.00	680.50	649.75	640.75	681.75	680.75	682.75	674.25	652.50	646.25	625.50	626.50	590.00	542.25	531.50	536.25	606.00	603.00	592.75	613.25	652.00	713.50	777.50	788.25	744.25	694.75	685.00	662.75	638.00	624.75	568.50	573.25	573.50	565.75	529.25	527.00	535.00	586.50	603.75	589.25	614.00	673.25	683.75	669.50	706.00	760.00	745.50	793.25	738.25	722.50	833.00	941.00	896.75	830.25	827.75	832.25	833.75	819.25	810.50	762.25	737.00	682.50	717.25	813.50	748.50	782.00	878.75	907.50	922.50	906.50	872.50	817.25	781.00	844.75	781.25	817.00	784.75	837.25	886.25	915.25	924.25	936.50	931.00	850.25	804.75	825.75	871.75	885.50	832.00	839.25	813.50	733.50	691.75	618.00	564.75	526.50	538.00	644.50	757.75	818.25	740.50	621.00	519.75	487.25	531.25	592.25	690.00	653.75	589.75	544.00	566.50	516.25	585.00	605.00	612.50	573.50	505.00	476.75	463.25	483.25	543.50	487.50	402.00	432.00	460.75	431.25	425.75	461.75	543.00	579.25	530.75	469.00	449.00	459.75	474.00	499.50	526.00	554.00	602.75	630.50	697.00	765.25	878.50	992.75	1009.75	1067.25	1095.25	1047.00	977.25	997.00	1039.75	949.00	847.25	694.50	699.25	715.50	637.50	615.50	589.75	572.50	552.50	583.50	631.25	640.25	601.25	544.50	517.00
681.75	719.75	838.50	880.00	816.50	723.00	688.75	760.50	737.75	651.75	651.50	754.00	808.75	807.50	746.00	725.75	740.25	788.25	821.25	806.50	746.75	707.75	748.50	767.00	771.00	679.25	729.75	631.00	649.25	663.25	693.00	760.75	821.00	781.75	800.75	758.25	764.75	816.25	860.50	813.25	734.00	679.00	636.25	620.25	692.25	734.25	707.75	643.50	653.50	599.50	620.25	569.25	609.00	710.50	700.00	677.75	755.00	784.50	788.50	726.75	691.25	641.50	625.50	710.25	761.50	842.50	897.25	933.75	919.00	851.00	780.75	776.75	761.75	742.00	757.25	775.00	700.25	708.75	765.50	768.50	803.25	875.75	839.00	823.50	824.00	858.75	857.25	890.00	861.25	785.00	675.50	622.75	590.25	606.50	627.00	640.50	695.00	687.25	674.75	608.25	555.00	535.00	541.25	551.75	586.00	641.00	579.00	642.25	667.25	673.75	714.25	773.50	738.00	695.25	683.50	627.75	657.50	616.50	600.25	580.75	563.00	606.50	608.50	565.50	583.50	562.00	539.75	557.50	602.25	614.50	642.00	627.50	698.75	722.50	703.75	733.50	707.75	692.50	777.00	836.50	899.50	931.00	943.75	950.25	973.00	980.25	1038.50	1016.00	945.50	878.50	756.50	746.00	868.75	810.75	781.75	864.75	934.25	974.00	990.00	935.25	826.25	853.25	871.50	844.50	870.00	904.75	869.50	816.25	783.50	814.75	832.00	843.00	782.75	713.75	709.00	750.75	732.50	672.25	644.50	658.75	583.75	542.25	530.25	545.50	608.25	616.50	711.25	840.50	856.25	712.75	623.25	532.50	501.00	547.50	608.25	739.75	685.25	700.50	605.75	604.75	566.25	639.25	588.25	549.25	528.00	472.50	451.00	433.50	438.25	415.00	409.25	430.50	489.75	547.75	541.75	505.75	463.25	465.25	555.25	610.75	618.25	570.25	500.50	492.75	509.25	516.75	508.00	498.75	500.25	539.75	576.00	637.50	720.50	830.75	962.25	1026.50	1119.75	1146.00	1060.00	980.75	877.00	788.25	854.75	851.50	818.75	773.25	698.00	642.50	613.50	582.25	583.75	619.75	607.75	578.50	584.75	591.75
688.00	720.00	795.50	833.25	781.50	729.75	758.00	775.75	735.75	656.00	636.50	743.25	771.50	796.50	785.50	760.75	749.25	791.50	832.00	816.00	750.25	763.75	730.50	808.75	773.75	737.75	764.00	664.00	638.50	684.75	697.00	712.75	765.00	733.25	753.75	754.75	794.50	821.25	875.00	852.00	782.75	759.50	700.75	597.75	698.50	743.75	715.00	662.00	656.00	621.00	661.25	637.25	594.75	700.50	669.00	675.50	722.75	711.75	722.50	738.50	723.25	652.50	628.25	714.00	763.75	832.00	889.00	936.50	939.50	871.75	804.75	807.25	790.50	775.75	795.50	804.75	723.75	696.00	716.25	770.75	808.25	909.50	885.75	835.00	798.25	788.00	785.50	803.75	845.75	829.50	660.00	596.75	571.00	566.50	583.25	599.50	666.00	671.25	675.50	557.00	537.50	547.00	570.00	581.50	611.00	640.75	579.25	611.75	645.25	687.00	700.00	753.00	703.75	665.00	676.50	615.00	636.50	570.25	572.25	561.25	593.00	616.00	619.75	583.00	610.00	610.50	537.00	570.75	597.25	578.00	601.75	619.50	680.75	691.75	663.25	685.00	666.00	732.25	829.00	872.25	855.25	924.75	995.75	1023.50	1065.75	1065.50	1126.75	1099.00	1006.75	925.00	783.00	759.00	894.25	894.50	854.00	865.50	933.50	993.00	1038.50	992.75	853.25	866.50	905.25	904.50	951.00	975.00	899.00	811.00	752.75	721.25	779.50	780.75	733.25	687.75	690.25	732.50	681.25	639.25	573.75	567.75	548.25	546.00	571.00	579.25	683.50	693.75	736.50	858.50	835.00	706.25	629.00	538.75	508.75	543.25	608.50	745.25	738.25	767.00	651.75	641.50	620.75	653.50	574.00	539.25	514.25	470.75	456.25	445.50	431.50	402.75	411.50	456.75	514.75	578.75	582.00	543.25	526.50	489.25	503.00	553.25	602.75	606.00	543.75	540.25	565.75	593.75	578.25	561.25	506.75	511.00	531.50	580.50	633.50	715.00	828.50	907.50	1026.25	1110.25	1089.25	1018.50	912.00	865.25	952.00	952.25	911.75	815.00	754.50	698.00	642.00	602.75	599.50	623.00	607.25	600.25	606.50	600.00
730.75	727.75	761.75	832.50	830.00	795.25	772.75	710.50	684.00	660.75	693.50	687.00	747.75	805.25	845.25	843.75	814.00	822.75	838.25	815.75	827.75	847.00	728.75	830.25	796.75	831.00	791.00	784.00	724.00	674.75	778.75	764.75	778.75	815.50	763.00	799.50	841.25	886.75	912.50	842.75	777.25	735.00	751.25	594.25	650.75	703.50	714.00	705.25	685.00	713.00	689.00	683.50	563.50	575.50	595.00	629.75	620.75	627.75	614.75	647.75	720.25	700.00	641.00	700.00	715.75	763.25	823.00	881.25	879.00	857.75	866.50	900.75	974.00	937.00	861.00	806.50	757.75	726.25	732.25	818.50	855.50	895.25	945.25	891.00	830.50	781.00	734.25	698.50	699.75	736.00	590.75	689.75	698.50	642.75	603.00	569.00	563.25	562.75	586.75	541.00	548.00	605.00	628.25	621.75	670.25	650.25	600.75	605.25	609.00	645.00	692.25	713.25	707.75	662.50	624.25	596.75	576.50	610.00	615.75	579.75	677.75	667.75	617.75	656.00	713.25	664.25	543.00	542.25	545.25	546.50	565.75	610.50	638.75	631.75	662.00	638.75	738.00	877.25	886.50	838.00	770.50	872.00	1020.75	1081.00	1139.75	1159.75	1175.75	1076.00	963.50	888.50	788.25	787.25	899.50	1057.00	1038.75	996.25	1016.75	1003.00	965.75	915.75	837.75	839.25	917.75	968.25	1065.50	1071.75	984.75	910.00	786.25	697.00	664.75	677.75	700.00	658.25	625.75	657.75	608.00	582.50	576.00	607.50	648.00	674.75	740.50	674.00	775.75	868.75	844.00	902.50	861.75	730.75	624.50	547.50	522.50	588.25	655.00	801.25	830.00	862.50	772.75	723.50	624.75	597.00	565.00	568.50	552.75	546.25	496.50	441.75	411.25	414.25	526.50	468.50	498.00	594.50	611.50	582.50	653.25	609.75	554.50	539.00	514.00	591.00	651.75	700.25	727.75	771.75	723.50	654.50	580.00	518.50	527.00	528.00	547.25	578.00	654.75	704.00	785.50	885.25	1012.50	1088.25	1114.25	1084.25	1064.25	1102.00	1069.75	944.25	952.50	855.25	748.50	671.00	633.75	607.75	586.25	552.25	517.25	513.50
742.50	761.50	805.50	827.00	831.00	783.50	801.00	728.00	677.50	664.00	745.00	739.00	734.00	761.00	810.50	874.50	872.50	900.00	921.50	916.50	887.00	832.00	732.00	813.50	852.50	849.00	803.50	749.00	695.50	673.50	726.50	776.00	802.00	827.50	825.50	795.00	824.50	868.00	882.50	838.00	796.00	717.00	645.50	594.00	651.50	713.50	733.50	717.50	735.50	776.00	752.50	658.00	614.00	576.00	614.00	592.00	608.50	694.50	686.00	612.00	706.00	748.50	676.00	653.00	676.00	720.50	749.50	791.00	799.50	851.50	907.00	978.00	1105.00	1079.00	940.00	832.00	804.00	784.00	764.50	825.50	883.50	908.50	950.50	957.50	903.00	855.00	816.50	776.00	683.00	642.00	608.00	786.00	807.00	752.00	676.00	628.00	634.00	618.50	564.00	544.00	604.50	651.00	668.00	644.50	680.50	679.50	626.00	608.00	609.00	625.00	664.50	707.00	711.00	672.00	606.00	578.00	641.00	667.00	601.50	589.00	646.50	655.50	654.50	700.50	738.00	693.00	560.50	542.50	594.50	563.00	546.00	553.50	577.00	631.50	618.00	676.50	696.50	813.00	817.00	748.50	747.50	826.50	934.00	1012.50	1152.00	1241.00	1177.50	1079.50	1011.00	929.00	831.50	817.50	931.50	1132.00	1174.00	1140.50	1144.00	1092.00	966.00	891.00	861.00	874.00	935.50	991.00	1065.50	1008.00	895.50	832.00	828.00	746.50	733.00	621.50	614.50	608.50	615.00	600.50	590.00	648.50	603.00	649.00	670.00	728.00	817.00	814.00	826.00	884.50	840.50	904.00	871.50	716.50	615.50	541.50	539.00	615.50	648.50	726.50	776.00	852.00	769.50	674.50	556.50	526.50	523.50	496.50	472.00	468.50	441.50	419.00	408.50	442.50	575.50	561.00	490.00	574.50	626.00	627.50	685.50	696.00	659.00	644.50	532.50	544.50	635.50	715.00	766.50	797.50	688.00	597.50	571.00	567.50	584.00	569.50	547.50	556.50	587.00	606.00	670.00	742.50	828.00	917.50	1038.50	1158.00	1201.50	1192.00	1161.50	1070.50	1043.50	895.50	862.00	829.00	691.50	587.00	532.00	523.00	523.00	525.00
765.75	771.75	786.00	797.25	821.50	765.50	740.00	763.25	685.50	710.00	793.50	787.25	776.25	786.50	830.75	845.75	874.75	886.25	870.25	838.50	812.00	787.00	772.75	867.25	897.50	864.00	826.75	781.00	791.75	693.75	689.75	703.00	785.00	843.25	894.00	868.50	886.00	906.75	868.00	807.25	782.50	740.75	733.50	620.50	654.00	673.00	699.75	765.75	808.25	869.00	828.25	760.75	692.00	639.00	594.75	647.25	683.00	739.25	753.25	674.25	624.00	740.50	724.00	681.50	664.25	679.50	690.00	716.25	749.00	798.75	900.00	964.25	1025.25	1029.50	982.00	886.00	875.50	865.25	814.75	838.75	883.75	915.00	948.25	965.00	969.00	972.50	910.75	865.00	740.25	660.75	683.75	812.75	841.00	856.00	770.50	696.25	690.25	705.00	647.00	547.50	641.75	714.00	682.25	669.50	694.00	700.25	649.75	627.75	635.50	620.00	637.50	684.50	680.50	644.75	608.00	598.00	652.75	656.25	600.25	642.75	647.50	660.00	660.75	700.00	721.75	673.75	582.00	553.25	597.75	597.25	568.50	575.00	558.50	595.00	605.25	650.00	676.25	738.25	740.75	707.50	776.75	820.75	911.00	1009.00	1179.00	1295.75	1242.00	1150.50	1082.00	996.25	916.00	865.75	985.25	1198.75	1310.50	1334.75	1312.00	1222.75	1059.00	952.75	935.25	975.25	993.00	1003.00	1018.25	954.75	795.25	732.00	719.75	692.25	657.25	679.25	698.00	663.00	698.50	657.25	653.25	696.50	614.00	690.00	607.50	669.25	808.75	904.25	907.25	836.00	775.00	822.75	786.75	655.75	578.00	601.50	595.25	577.75	615.50	669.50	774.50	806.25	704.75	628.00	585.25	654.75	604.00	547.50	526.50	518.50	474.25	434.25	411.25	507.25	622.50	630.50	527.75	535.50	600.00	652.25	715.25	779.25	664.00	593.75	644.75	650.75	653.75	709.75	776.75	814.00	750.25	657.25	589.50	657.25	641.00	611.50	607.00	599.75	596.75	623.00	627.00	679.75	769.75	821.25	886.50	949.25	1032.00	1062.75	1066.25	1023.50	949.50	876.00	900.50	861.75	744.25	603.00	565.00	570.50	564.75	550.00
780.00	796.50	766.50	791.50	813.50	784.00	704.50	690.00	645.00	757.50	803.50	835.00	845.00	839.00	813.50	820.00	862.50	874.50	869.50	847.50	871.00	849.00	821.50	860.00	895.50	887.50	874.00	816.00	736.50	695.50	792.00	786.50	803.00	835.00	852.00	827.50	834.00	853.50	824.00	818.00	814.00	759.50	691.00	637.00	731.00	739.50	734.50	790.00	905.00	945.50	822.50	736.50	679.00	661.00	619.50	656.00	747.50	801.50	797.00	764.50	676.50	635.50	688.00	737.00	718.00	718.50	705.00	694.50	710.50	752.00	834.50	884.00	963.50	967.00	1020.00	992.50	953.00	905.50	887.50	883.00	893.00	891.50	903.50	859.00	893.50	954.00	934.00	887.50	781.50	642.00	701.50	773.00	835.00	887.00	832.50	777.50	743.00	690.00	639.00	561.00	574.00	643.00	639.50	679.50	688.50	705.00	668.50	664.50	645.50	635.00	641.00	662.00	651.00	610.50	649.50	639.50	685.50	625.50	641.00	683.50	693.00	690.00	685.50	707.50	733.50	695.50	599.00	584.00	581.00	608.00	642.50	684.00	609.00	561.50	601.50	636.00	671.50	694.50	653.50	737.50	779.00	780.00	921.00	1029.00	1204.00	1316.50	1246.00	1128.50	1062.00	1050.00	954.00	979.50	1072.50	1230.00	1308.00	1473.50	1466.00	1349.50	1149.50	1013.50	1009.50	1087.00	1027.00	971.00	926.00	921.00	802.00	805.00	779.00	679.00	720.00	831.50	841.00	790.50	764.50	710.50	726.00	705.50	619.50	686.00	634.50	660.00	807.50	909.50	900.00	778.50	709.00	719.50	656.50	593.50	583.50	705.50	670.50	614.50	687.50	704.00	765.50	724.50	651.50	580.50	721.50	795.50	695.00	582.00	573.50	522.50	480.50	443.00	414.50	468.50	557.50	670.00	597.00	573.50	610.00	698.50	766.00	826.00	679.50	637.00	765.50	785.50	789.00	858.50	904.00	921.00	849.00	715.00	644.50	707.50	679.50	657.50	646.00	684.50	668.50	719.50	663.50	623.50	716.50	811.50	821.50	892.00	948.50	920.00	908.00	925.50	950.50	771.50	734.00	760.00	618.00	696.00	708.00	643.50	613.50	587.50
761.75	776.00	761.75	788.50	788.00	761.50	752.75	677.75	669.25	721.00	739.00	776.50	805.75	813.75	807.50	856.25	861.00	869.50	880.75	889.25	897.75	910.00	885.75	902.25	891.25	849.00	810.00	758.00	738.75	744.25	829.00	822.75	726.00	759.50	768.75	805.50	850.50	868.25	816.75	778.00	748.50	708.25	687.00	645.00	741.00	832.50	867.25	820.75	989.75	1042.00	858.75	757.75	722.25	695.25	639.00	619.50	712.00	783.00	811.50	758.75	727.25	634.00	645.00	763.50	782.75	817.00	787.00	753.75	735.75	728.50	774.75	816.75	900.25	960.50	1076.75	1194.00	1136.00	1024.00	1007.00	964.75	933.00	863.75	829.50	785.50	785.50	865.50	833.00	760.25	649.00	676.00	776.75	803.25	872.50	873.50	845.00	812.75	809.50	743.50	677.50	594.50	558.75	597.00	703.25	751.50	741.75	726.00	695.50	685.75	701.25	673.75	657.75	687.50	647.50	661.75	676.50	663.50	701.75	648.75	656.50	713.75	765.50	774.50	772.50	783.50	772.50	731.75	652.00	617.50	581.50	629.00	638.50	644.00	656.50	579.00	567.00	631.00	639.75	634.50	684.50	786.75	874.75	869.50	925.25	1028.25	1187.50	1293.00	1196.25	1097.50	1042.25	1010.50	1002.75	1016.25	1047.25	1152.00	1245.50	1457.75	1505.25	1347.75	1157.00	1058.25	1057.25	1115.50	1022.75	958.50	893.00	875.25	850.75	781.00	822.25	740.00	837.00	923.25	899.00	832.25	770.50	758.25	792.75	691.50	723.75	725.25	650.50	698.00	815.50	912.75	851.00	728.25	682.25	682.25	694.50	700.50	648.00	680.50	707.50	643.25	710.75	754.00	712.75	675.75	632.25	674.00	743.50	807.75	682.50	613.75	617.00	590.75	531.75	514.00	416.50	440.00	596.50	706.75	670.50	617.00	572.50	638.25	730.25	804.25	782.75	777.25	833.00	910.25	880.75	844.50	804.50	856.25	901.25	804.75	730.50	667.75	739.75	711.25	693.75	797.50	790.00	806.75	761.25	763.25	675.50	696.00	788.75	857.75	953.00	925.25	851.75	777.00	775.00	796.50	739.25	653.25	671.25	832.00	889.75	845.50	712.75	655.75
730.50	731.50	766.50	775.00	795.00	805.00	732.00	688.00	728.50	734.00	753.00	741.50	736.00	738.00	786.50	810.50	821.50	823.50	830.50	844.50	873.50	889.00	856.50	881.00	906.50	878.00	824.50	768.50	825.50	806.00	829.00	850.50	723.50	737.00	763.00	815.00	879.00	909.00	893.50	877.00	848.50	784.00	753.50	658.00	748.00	886.50	948.50	887.50	1056.00	1025.50	809.50	735.50	683.50	679.00	639.00	601.50	684.00	722.50	749.00	779.00	719.00	633.00	648.00	713.00	777.00	855.00	857.00	822.50	823.00	750.00	750.50	782.50	873.50	944.50	1118.00	1264.00	1294.00	1206.50	1188.50	1072.50	954.00	873.00	824.50	789.50	711.00	673.00	623.50	613.50	692.50	840.50	916.50	897.50	931.00	871.50	793.50	726.50	696.00	749.50	723.00	595.00	570.50	555.50	639.50	766.50	782.50	776.00	721.00	689.00	712.50	677.50	661.50	666.00	652.50	698.50	696.00	719.50	716.50	687.50	707.50	786.50	897.00	936.00	909.00	868.50	792.00	737.00	656.00	649.00	597.00	663.50	734.50	689.00	658.00	596.50	567.00	656.00	668.50	669.50	762.50	819.00	858.00	834.50	960.00	1066.00	1203.50	1277.50	1178.50	1120.00	1124.50	1098.00	1135.50	1101.00	1033.00	1119.50	1223.50	1447.50	1448.50	1290.50	1177.00	1083.00	1081.00	1114.00	1010.50	914.50	863.00	850.00	825.00	793.00	824.00	813.00	933.00	965.00	928.00	900.50	894.00	800.50	734.00	699.50	746.50	776.50	710.00	694.50	766.50	891.50	813.50	717.50	783.50	824.00	845.00	786.00	767.00	658.00	738.50	692.50	719.00	752.00	695.50	664.50	731.50	783.00	813.50	811.50	725.50	685.50	714.00	631.00	569.00	538.00	418.50	448.00	635.00	722.00	661.00	603.50	549.50	585.00	677.50	709.50	830.00	882.50	895.00	892.00	814.50	752.50	727.00	750.00	835.50	892.50	850.00	705.00	751.50	767.00	738.00	896.50	953.50	948.50	827.50	865.50	780.50	697.00	707.50	811.50	998.00	1010.50	921.00	793.00	747.50	650.00	645.50	674.50	801.00	837.00	983.00	1014.50	860.50	782.50
740.00	779.50	823.00	828.50	813.75	812.75	751.50	717.50	759.00	779.75	812.25	795.75	771.25	781.75	785.00	805.50	803.25	825.50	856.25	870.00	865.00	853.25	810.75	847.75	881.50	875.00	865.75	830.50	833.75	864.25	852.00	846.50	781.50	748.75	780.50	843.25	899.50	906.75	887.75	857.00	847.25	809.50	757.25	698.00	737.75	833.00	925.00	951.00	921.00	879.00	803.50	756.75	775.50	726.25	716.25	684.50	624.75	678.75	716.25	770.50	746.25	674.00	664.25	772.25	812.50	873.25	898.25	891.75	902.75	793.25	749.75	769.00	838.00	918.00	1024.25	1160.75	1283.00	1345.50	1376.25	1191.75	987.25	868.50	809.75	745.75	669.50	708.00	688.25	662.00	676.00	769.50	982.25	986.25	971.50	893.25	906.50	811.00	772.75	687.50	660.75	696.25	633.00	565.75	568.50	716.00	818.00	790.00	749.25	741.00	728.25	702.25	684.50	689.75	661.00	686.00	710.75	748.50	761.00	773.25	826.00	938.50	1037.75	1084.75	1044.00	984.25	824.75	746.50	699.25	654.75	612.00	615.25	768.50	815.00	747.50	684.00	622.50	574.50	595.75	678.25	735.25	762.50	739.00	818.50	979.75	1084.25	1273.50	1346.75	1257.00	1209.50	1228.50	1212.75	1231.25	1181.25	1089.25	1135.75	1230.00	1352.50	1338.75	1238.75	1123.25	1065.50	1041.50	1056.00	995.00	939.50	828.25	828.00	799.00	815.50	860.25	869.50	899.50	1002.25	969.50	945.50	886.75	855.50	805.50	760.25	858.50	880.75	832.00	832.75	727.00	846.00	829.75	822.75	874.75	958.50	972.75	901.75	858.00	692.75	758.00	790.50	777.50	749.25	769.75	747.00	794.00	873.00	915.50	906.75	802.00	737.75	678.75	573.75	510.50	458.75	421.00	470.75	642.75	751.50	666.50	576.00	526.50	557.00	591.25	623.00	693.50	756.50	830.00	773.00	746.50	661.00	661.25	666.50	740.50	773.75	846.00	769.25	776.25	848.75	778.75	882.50	1022.50	1071.00	955.25	974.00	903.50	829.00	726.75	823.00	992.50	1112.00	1011.75	922.50	847.50	740.50	709.50	652.25	750.75	908.50	969.50	905.25	812.50	756.25
710.00	747.50	788.50	796.50	794.00	828.00	802.00	748.00	736.50	781.50	836.50	834.50	797.00	798.50	797.50	785.50	809.50	833.00	859.50	853.00	838.00	846.00	793.50	834.00	862.50	836.50	880.50	898.50	870.50	851.50	822.50	796.00	781.50	776.50	749.00	798.50	831.00	839.50	864.50	894.50	877.50	784.50	732.50	799.00	753.50	801.50	898.50	928.50	853.50	790.50	802.00	865.00	776.00	701.50	689.50	670.50	642.00	736.00	753.50	793.50	772.00	691.50	671.00	794.00	791.50	815.00	829.00	851.00	912.00	852.00	783.00	766.50	814.50	858.00	947.50	1080.00	1178.00	1271.50	1442.00	1305.00	1101.50	969.00	897.00	801.00	673.50	758.00	808.00	760.00	703.00	725.00	877.00	1001.00	988.50	964.50	977.50	888.50	942.50	787.50	697.50	794.50	715.50	620.50	581.00	692.00	790.00	725.50	796.50	740.50	737.00	723.00	709.50	707.50	673.00	704.50	714.00	770.50	824.00	929.00	1001.50	1072.50	1174.50	1256.50	1239.00	1148.00	967.50	841.00	793.00	723.50	658.00	593.00	702.00	831.00	909.00	769.00	718.00	606.00	576.50	608.50	636.50	656.00	705.50	838.50	962.50	1058.50	1283.50	1431.00	1349.00	1332.50	1339.00	1301.00	1267.00	1221.50	1170.50	1197.00	1218.50	1264.50	1278.50	1249.00	1148.00	1088.50	993.50	932.50	888.00	851.50	828.00	878.50	859.00	867.50	903.00	950.00	1008.00	1052.50	1034.50	963.00	929.00	943.50	822.00	790.50	914.00	1010.50	984.00	952.00	764.50	827.50	892.00	921.00	978.50	1076.50	1092.00	1006.00	892.00	731.50	763.50	875.50	891.50	782.00	798.50	814.00	827.00	902.00	1012.00	998.00	879.50	800.00	721.00	639.50	580.50	479.00	427.00	435.50	551.00	726.50	687.50	615.00	524.00	514.00	561.50	584.50	592.50	613.50	720.50	704.00	718.50	606.50	591.50	602.00	622.50	744.50	819.50	860.00	775.50	875.50	909.50	879.00	991.50	1047.00	1097.50	1137.00	976.00	851.00	775.00	871.00	1040.00	1163.50	1178.00	1047.00	918.50	879.00	792.00	691.00	645.00	811.00	968.00	898.00	840.50	884.50
