495.50	497.00	498.00	498.50	499.50	501.00	501.50	503.00	503.00	504.50	505.00	506.00	506.50	507.00	508.00	509.00	510.00	511.00	512.00	512.50	514.00	514.50	515.00	516.00	516.50	517.00	517.50	518.50	519.00	520.00	520.00	521.00	522.00	522.50	523.00	523.50	524.00	525.00	526.00	526.00	527.00	527.50	528.50	529.00	529.50	530.00	531.00	531.50	532.00	533.50	534.00	534.50	535.00	536.00	537.00	537.00	538.00	538.50	540.00	540.50	541.00	542.00	543.00	543.50	544.00	545.50	546.00	547.00	547.50	548.50	549.00	550.00	550.50	551.00	552.50	553.00	554.00	554.00	555.00	556.00	556.00	556.50	557.00	557.00	557.00	558.00	558.00	558.00	558.00	558.50	559.00	559.00	559.00	559.00	559.00	558.00	558.00	558.00	558.00	558.00	558.00	558.00	558.00	558.00	558.00	558.00	557.50	557.00	557.00	556.50	556.00	556.00	556.00	556.00	555.00	555.00	555.00	555.00	555.00	555.00	555.00	556.00	556.00	556.00	556.00	556.00	556.00	557.00	557.00	557.00	557.00	558.00	558.00	559.00	559.00	559.50	560.00	560.50	561.00	561.00	562.00	562.00	563.00	563.50	564.00	564.50	565.00	566.00	567.00	567.00	568.00	568.50	569.50	570.50	571.00	572.00	573.00	573.50	575.00	576.00	576.50	577.50	579.00	580.00	581.00	582.50	583.50	584.00	585.50	586.50	587.00	588.00	589.50	590.00	591.50	592.50	593.00	594.00	595.00	596.00	597.00	598.00	598.50	600.00	601.00	601.50	603.00	604.00	604.50	606.00	606.50	607.50	608.00	609.00	610.00	611.00	612.00	613.00	613.50	615.00	616.50	617.00	618.00	619.00	620.50	621.00	622.50	623.50	624.50	626.00	627.50	628.00	629.00	630.50	631.50	633.50	634.50	635.50	636.00	637.50	638.50	639.00	640.50	641.50	642.00	643.00	644.00	645.00	646.50	647.00	647.50	649.00	649.50	651.00	651.00	652.50	653.00	654.50	655.50	656.00	657.00	658.00	659.00	660.00	661.50	662.00	663.00	664.50	665.50	667.00	668.00	669.50	671.00	672.50	673.50	674.50
491.50	493.00	493.50	494.50	495.50	497.00	497.50	499.00	500.00	501.50	502.50	503.50	504.50	505.50	507.00	508.00	509.00	510.00	511.00	511.50	513.00	513.50	515.00	516.00	516.50	517.50	518.50	519.50	520.00	521.00	521.00	522.00	523.00	523.00	523.50	524.00	525.00	525.00	526.00	526.00	527.00	527.50	528.50	529.50	530.00	531.00	531.00	532.00	533.00	533.50	534.00	534.50	535.00	536.00	537.00	537.00	538.00	538.50	539.50	540.50	541.00	542.00	542.50	543.00	544.00	544.50	545.00	546.00	546.50	547.50	548.00	549.00	549.50	550.00	551.00	551.50	552.00	553.00	553.00	554.00	554.50	555.00	555.50	556.00	556.50	557.00	558.00	558.00	558.00	558.50	559.00	559.00	559.00	559.00	559.00	559.00	559.00	559.00	559.00	559.00	559.00	559.00	559.00	559.00	559.00	559.00	558.50	558.00	558.00	558.00	558.00	558.00	558.00	558.00	558.00	557.00	557.00	557.00	557.00	557.00	557.00	557.00	557.00	557.00	557.00	557.00	557.00	557.00	557.00	557.00	557.00	557.00	557.00	558.00	558.00	558.00	558.00	558.00	558.50	559.00	559.00	560.00	560.00	561.00	561.00	561.00	562.00	562.00	563.00	563.00	564.00	564.50	565.50	566.50	567.50	568.00	569.00	570.00	571.00	572.00	572.50	573.50	574.00	575.50	577.00	578.00	578.50	579.50	581.00	581.50	583.00	583.00	584.50	585.00	586.50	587.50	588.50	589.00	590.00	592.00	592.00	593.50	594.50	595.50	596.50	597.00	598.00	599.00	599.50	601.00	602.50	603.00	603.50	605.00	606.50	607.00	608.00	609.50	610.00	611.00	612.50	613.00	614.00	615.00	616.50	618.00	618.50	619.50	620.50	622.00	623.50	625.00	625.00	626.50	627.50	629.50	630.50	631.00	632.00	633.50	634.50	636.00	636.50	637.50	639.00	640.00	640.50	642.00	643.50	644.00	644.50	646.50	647.00	648.00	649.00	650.50	651.00	652.50	653.50	654.50	655.00	656.00	658.00	659.00	660.50	661.50	663.00	664.50	665.50	667.00	668.00	669.50	671.00	672.50	673.50	674.50
491.50	493.00	493.50	494.50	495.50	497.00	497.50	499.00	500.00	501.50	502.50	503.50	504.50	505.50	507.00	508.00	509.00	510.00	511.00	511.50	513.00	513.50	515.00	516.00	516.50	517.50	518.50	519.50	520.00	521.00	521.00	522.00	523.00	523.00	523.50	524.00	525.00	525.00	526.00	526.00	527.00	527.50	528.50	529.50	530.00	531.00	531.00	532.00	533.00	533.50	534.00	534.50	535.00	536.00	537.00	537.00	538.00	538.50	539.50	540.50	541.00	542.00	542.50	543.00	544.00	544.50	545.00	546.00	546.50	547.50	548.00	549.00	549.50	550.00	551.00	551.50	552.00	553.00	553.00	554.00	554.50	555.00	555.50	556.00	556.50	557.00	558.00	558.00	558.00	558.50	559.00	559.00	559.00	559.00	559.00	559.00	559.00	559.00	559.00	559.00	559.00	559.00	559.00	559.00	559.00	559.00	558.50	558.00	558.00	558.00	558.00	558.00	558.00	558.00	558.00	557.00	557.00	557.00	557.00	557.00	557.00	557.00	557.00	557.00	557.00	557.00	557.00	557.00	557.00	557.00	557.00	557.00	557.00	558.00	558.00	558.00	558.00	558.00	558.50	559.00	559.00	560.00	560.00	561.00	561.00	561.00	562.00	562.00	563.00	563.00	564.00	564.50	565.50	566.50	567.50	568.00	569.00	570.00	571.00	572.00	572.50	573.50	574.00	575.50	577.00	578.00	578.50	579.50	581.00	581.50	583.00	583.00	584.50	585.00	586.50	587.50	588.50	589.00	590.00	592.00	592.00	593.50	594.50	595.50	596.50	597.00	598.00	599.00	599.50	601.00	602.50	603.00	603.50	605.00	606.50	607.00	608.00	609.50	610.00	611.00	612.50	613.00	614.00	615.00	616.50	618.00	618.50	619.50	620.50	622.00	623.50	625.00	625.00	626.50	627.50	629.50	630.50	631.00	632.00	633.50	634.50	636.00	636.50	637.50	639.00	640.00	640.50	642.00	643.50	644.00	644.50	646.50	647.00	648.00	649.00	650.50	651.00	652.50	653.50	654.50	655.00	656.00	658.00	659.00	660.50	661.50	663.00	664.50	665.50	667.00	668.00	669.50	671.00	672.50	673.50	674.50
491.50	493.00	493.50	494.50	495.50	497.00	497.50	499.00	500.00	501.50	502.50	503.50	504.50	505.50	507.00	508.00	509.00	510.00	511.00	511.50	513.00	513.50	515.00	516.00	516.50	517.50	518.50	519.50	520.00	521.00	521.00	522.00	523.00	523.00	523.50	524.00	525.00	525.00	526.00	526.00	527.00	527.50	528.50	529.50	530.00	531.00	531.00	532.00	533.00	533.50	534.00	534.50	535.00	536.00	537.00	537.00	538.00	538.50	539.50	540.50	541.00	542.00	542.50	543.00	544.00	544.50	545.00	546.00	546.50	547.50	548.00	549.00	549.50	550.00	551.00	551.50	552.00	553.00	553.00	554.00	554.50	555.00	555.50	556.00	556.50	557.00	558.00	558.00	558.00	558.50	559.00	559.00	559.00	559.00	559.00	559.00	559.00	559.00	559.00	559.00	559.00	559.00	559.00	559.00	559.00	559.00	558.50	558.00	558.00	558.00	558.00	558.00	558.00	558.00	558.00	557.00	557.00	557.00	557.00	557.00	557.00	557.00	557.00	557.00	557.00	557.00	557.00	557.00	557.00	557.00	557.00	557.00	557.00	558.00	558.00	558.00	558.00	558.00	558.50	559.00	559.00	560.00	560.00	561.00	561.00	561.00	562.00	562.00	563.00	563.00	564.00	564.50	565.50	566.50	567.50	568.00	569.00	570.00	571.00	572.00	572.50	573.50	574.00	575.50	577.00	578.00	578.50	579.50	581.00	581.50	583.00	583.00	584.50	585.00	586.50	587.50	588.50	589.00	590.00	592.00	592.00	593.50	594.50	595.50	596.50	597.00	598.00	599.00	599.50	601.00	602.50	603.00	603.50	605.00	606.50	607.00	608.00	609.50	610.00	611.00	612.50	613.00	614.00	615.00	616.50	618.00	618.50	619.50	620.50	622.00	623.50	625.00	625.00	626.50	627.50	629.50	630.50	631.00	632.00	633.50	634.50	636.00	636.50	637.50	639.00	640.00	640.50	642.00	643.50	644.00	644.50	646.50	647.00	648.00	649.00	650.50	651.00	652.50	653.50	654.50	655.00	656.00	658.00	659.00	660.50	661.50	663.00	664.50	665.50	667.00	668.00	669.50	671.00	672.50	673.50	674.50
491.50	493.00	493.50	494.50	495.50	497.00	497.50	499.00	500.00	501.50	502.50	503.50	504.50	505.50	507.00	508.00	509.00	510.00	511.00	511.50	513.00	513.50	515.00	516.00	516.50	517.50	518.50	519.50	520.00	521.00	521.00	522.00	523.00	523.00	523.50	524.00	525.00	525.00	526.00	526.00	527.00	527.50	528.50	529.50	530.00	531.00	531.00	532.00	533.00	533.50	534.00	534.50	535.00	536.00	537.00	537.00	538.00	538.50	539.50	540.50	541.00	542.00	542.50	543.00	544.00	544.50	545.00	546.00	546.50	547.50	548.00	549.00	549.50	550.00	551.00	551.50	552.00	553.00	553.00	554.00	554.50	555.00	555.50	556.00	556.50	557.00	558.00	558.00	558.00	558.50	559.00	559.00	559.00	559.00	559.00	559.00	559.00	559.00	559.00	559.00	559.00	559.00	559.00	559.00	559.00	559.00	558.50	558.00	558.00	558.00	558.00	558.00	558.00	558.00	558.00	557.00	557.00	557.00	557.00	557.00	557.00	557.00	557.00	557.00	557.00	557.00	557.00	557.00	557.00	557.00	557.00	557.00	557.00	558.00	558.00	558.00	558.00	558.00	558.50	559.00	559.00	560.00	560.00	561.00	561.00	561.00	562.00	562.00	563.00	563.00	564.00	564.50	565.50	566.50	567.50	568.00	569.00	570.00	571.00	572.00	572.50	573.50	574.00	575.50	577.00	578.00	578.50	579.50	581.00	581.50	583.00	583.00	584.50	585.00	586.50	587.50	588.50	589.00	590.00	592.00	592.00	593.50	594.50	595.50	596.50	597.00	598.00	599.00	599.50	601.00	602.50	603.00	603.50	605.00	606.50	607.00	608.00	609.50	610.00	611.00	612.50	613.00	614.00	615.00	616.50	618.00	618.50	619.50	620.50	622.00	623.50	625.00	625.00	626.50	627.50	629.50	630.50	631.00	632.00	633.50	634.50	636.00	636.50	637.50	639.00	640.00	640.50	642.00	643.50	644.00	644.50	646.50	647.00	648.00	649.00	650.50	651.00	652.50	653.50	654.50	655.00	656.00	658.00	659.00	660.50	661.50	663.00	664.50	665.50	667.00	668.00	669.50	671.00	672.50	673.50	674.50
491.50	493.00	493.50	494.50	495.50	497.00	497.50	499.00	500.00	501.50	502.50	503.50	504.50	505.50	507.00	508.00	509.00	510.00	511.00	511.50	513.00	513.50	515.00	516.00	516.50	517.50	518.50	519.50	520.00	521.00	521.00	522.00	523.00	523.00	523.50	524.00	525.00	525.00	526.00	526.00	527.00	527.50	528.50	529.50	530.00	531.00	531.00	532.00	533.00	533.50	534.00	534.50	535.00	536.00	537.00	537.00	538.00	538.50	539.50	540.50	541.00	542.00	542.50	543.00	544.00	544.50	545.00	546.00	546.50	547.50	548.00	549.00	549.50	550.00	551.00	551.50	552.00	553.00	553.00	554.00	554.50	555.00	555.50	556.00	556.50	557.00	558.00	558.00	558.00	558.50	559.00	559.00	559.00	559.00	559.00	559.00	559.00	559.00	559.00	559.00	559.00	559.00	559.00	559.00	559.00	559.00	558.50	558.00	558.00	558.00	558.00	558.00	558.00	558.00	558.00	557.00	557.00	557.00	557.00	557.00	557.00	557.00	557.00	557.00	557.00	557.00	557.00	557.00	557.00	557.00	557.00	557.00	557.00	558.00	558.00	558.00	558.00	558.00	558.50	559.00	559.00	560.00	560.00	561.00	561.00	561.00	562.00	562.00	563.00	563.00	564.00	564.50	565.50	566.50	567.50	568.00	569.00	570.00	571.00	572.00	572.50	573.50	574.00	575.50	577.00	578.00	578.50	579.50	581.00	581.50	583.00	583.00	584.50	585.00	586.50	587.50	588.50	589.00	590.00	592.00	592.00	593.50	594.50	595.50	596.50	597.00	598.00	599.00	599.50	601.00	602.50	603.00	603.50	605.00	606.50	607.00	608.00	609.50	610.00	611.00	612.50	613.00	614.00	615.00	616.50	618.00	618.50	619.50	620.50	622.00	623.50	625.00	625.00	626.50	627.50	629.50	630.50	631.00	632.00	633.50	634.50	636.00	636.50	637.50	639.00	640.00	640.50	642.00	643.50	644.00	644.50	646.50	647.00	648.00	649.00	650.50	651.00	652.50	653.50	654.50	655.00	656.00	658.00	659.00	660.50	661.50	663.00	664.50	665.50	667.00	668.00	669.50	671.00	672.50	673.50	674.50
491.50	493.00	493.50	494.50	495.50	497.00	497.50	499.00	500.00	501.50	502.50	503.50	504.50	505.50	507.00	508.00	509.00	510.00	511.00	511.50	513.00	513.50	515.00	516.00	516.50	517.50	518.50	519.50	520.00	521.00	521.00	522.00	523.00	523.00	523.50	524.00	525.00	525.00	526.00	526.00	527.00	527.50	528.50	529.50	530.00	531.00	531.00	532.00	533.00	533.50	534.00	534.50	535.00	536.00	537.00	537.00	538.00	538.50	539.50	540.50	541.00	542.00	542.50	543.00	544.00	544.50	545.00	546.00	546.50	547.50	548.00	549.00	549.50	550.00	551.00	551.50	552.00	553.00	553.00	554.00	554.50	555.00	555.50	556.00	556.50	557.00	558.00	558.00	558.00	558.50	559.00	559.00	559.00	559.00	559.00	559.00	559.00	559.00	559.00	559.00	559.00	559.00	559.00	559.00	559.00	559.00	558.50	558.00	558.00	558.00	558.00	558.00	558.00	558.00	558.00	557.00	557.00	557.00	557.00	557.00	557.00	557.00	557.00	557.00	557.00	557.00	557.00	557.00	557.00	557.00	557.00	557.00	557.00	558.00	558.00	558.00	558.00	558.00	558.50	559.00	559.00	560.00	560.00	561.00	561.00	561.00	562.00	562.00	563.00	563.00	564.00	564.50	565.50	566.50	567.50	568.00	569.00	570.00	571.00	572.00	572.50	573.50	574.00	575.50	577.00	578.00	578.50	579.50	581.00	581.50	583.00	583.00	584.50	585.00	586.50	587.50	588.50	589.00	590.00	592.00	592.00	593.50	594.50	595.50	596.50	597.00	598.00	599.00	599.50	601.00	602.50	603.00	603.50	605.00	606.50	607.00	608.00	609.50	610.00	611.00	612.50	613.00	614.00	615.00	616.50	618.00	618.50	619.50	620.50	622.00	623.50	625.00	625.00	626.50	627.50	629.50	630.50	631.00	632.00	633.50	634.50	636.00	636.50	637.50	639.00	640.00	640.50	642.00	643.50	644.00	644.50	646.50	647.00	648.00	649.00	650.50	651.00	652.50	653.50	654.50	655.00	656.00	658.00	659.00	660.50	661.50	663.00	664.50	665.50	667.00	668.00	669.50	671.00	672.50	673.50	674.50
491.50	493.00	493.50	494.50	495.50	497.00	497.50	499.00	500.00	501.50	502.50	503.50	504.50	505.50	507.00	508.00	509.00	510.00	511.00	511.50	513.00	513.50	515.00	516.00	516.50	517.50	518.50	519.50	520.00	521.00	521.00	522.00	523.00	523.00	523.50	524.00	525.00	525.00	526.00	526.00	527.00	527.50	528.50	529.50	530.00	531.00	531.00	532.00	533.00	533.50	534.00	534.50	535.00	536.00	537.00	537.00	538.00	538.50	539.50	540.50	541.00	542.00	542.50	543.00	544.00	544.50	545.00	546.00	546.50	547.50	548.00	549.00	549.50	550.00	551.00	551.50	552.00	553.00	553.00	554.00	554.50	555.00	555.50	556.00	556.50	557.00	558.00	558.00	558.00	558.50	559.00	559.00	559.00	559.00	559.00	559.00	559.00	559.00	559.00	559.00	559.00	559.00	559.00	559.00	559.00	559.00	558.50	558.00	558.00	558.00	558.00	558.00	558.00	558.00	558.00	557.00	557.00	557.00	557.00	557.00	557.00	557.00	557.00	557.00	557.00	557.00	557.00	557.00	557.00	557.00	557.00	557.00	557.00	558.00	558.00	558.00	558.00	558.00	558.50	559.00	559.00	560.00	560.00	561.00	561.00	561.00	562.00	562.00	563.00	563.00	564.00	564.50	565.50	566.50	567.50	568.00	569.00	570.00	571.00	572.00	572.50	573.50	574.00	575.50	577.00	578.00	578.50	579.50	581.00	581.50	583.00	583.00	584.50	585.00	586.50	587.50	588.50	589.00	590.00	592.00	592.00	593.50	594.50	595.50	596.50	597.00	598.00	599.00	599.50	601.00	602.50	603.00	603.50	605.00	606.50	607.00	608.00	609.50	610.00	611.00	612.50	613.00	614.00	615.00	616.50	618.00	618.50	619.50	620.50	622.00	623.50	625.00	625.00	626.50	627.50	629.50	630.50	631.00	632.00	633.50	634.50	636.00	636.50	637.50	639.00	640.00	640.50	642.00	643.50	644.00	644.50	646.50	647.00	648.00	649.00	650.50	651.00	652.50	653.50	654.50	655.00	656.00	658.00	659.00	660.50	661.50	663.00	664.50	665.50	667.00	668.00	669.50	671.00	672.50	673.50	674.50
491.50	493.00	493.50	494.50	495.50	497.00	497.50	499.00	500.00	501.50	502.50	503.50	504.50	505.50	507.00	508.00	509.00	510.00	511.00	511.50	513.00	513.50	515.00	516.00	516.50	517.50	518.50	519.50	520.00	521.00	521.00	522.00	523.00	523.00	523.50	524.00	525.00	525.00	526.00	526.00	527.00	527.50	528.50	529.50	530.00	531.00	531.00	532.00	533.00	533.50	534.00	534.50	535.00	536.00	537.00	537.00	538.00	538.50	539.50	540.50	541.00	542.00	542.50	543.00	544.00	544.50	545.00	546.00	546.50	547.50	548.00	549.00	549.50	550.00	551.00	551.50	552.00	553.00	553.00	554.00	554.50	555.00	555.50	556.00	556.50	557.00	558.00	558.00	558.00	558.50	559.00	559.00	559.00	559.00	559.00	559.00	559.00	559.00	559.00	559.00	559.00	559.00	559.00	559.00	559.00	559.00	558.50	558.00	558.00	558.00	558.00	558.00	558.00	558.00	558.00	557.00	557.00	557.00	557.00	557.00	557.00	557.00	557.00	557.00	557.00	557.00	557.00	557.00	557.00	557.00	557.00	557.00	557.00	558.00	558.00	558.00	558.00	558.00	558.50	559.00	559.00	560.00	560.00	561.00	561.00	561.00	562.00	562.00	563.00	563.00	564.00	564.50	565.50	566.50	567.50	568.00	569.00	570.00	571.00	572.00	572.50	573.50	574.00	575.50	577.00	578.00	578.50	579.50	581.00	581.50	583.00	583.00	584.50	585.00	586.50	587.50	588.50	589.00	590.00	592.00	592.00	593.50	594.50	595.50	596.50	597.00	598.00	599.00	599.50	601.00	602.50	603.00	603.50	605.00	606.50	607.00	608.00	609.50	610.00	611.00	612.50	613.00	614.00	615.00	616.50	618.00	618.50	619.50	620.50	622.00	623.50	625.00	625.00	626.50	627.50	629.50	630.50	631.00	632.00	633.50	634.50	636.00	636.50	637.50	639.00	640.00	640.50	642.00	643.50	644.00	644.50	646.50	647.00	648.00	649.00	650.50	651.00	652.50	653.50	654.50	655.00	656.00	658.00	659.00	660.50	661.50	663.00	664.50	665.50	667.00	668.00	669.50	671.00	672.50	673.50	674.50
489.00	490.50	491.50	492.50	493.50	495.25	496.00	497.50	498.50	500.00	501.00	502.50	503.50	504.50	505.50	506.75	508.00	509.00	510.25	510.75	512.00	513.00	514.50	515.50	516.00	516.75	517.75	518.75	519.25	520.50	520.50	521.50	522.50	523.00	523.50	524.00	525.00	525.00	526.00	526.00	527.00	527.50	528.50	529.25	529.75	530.50	531.00	531.75	532.50	533.25	533.75	534.25	534.50	535.50	536.50	536.50	537.25	537.75	538.75	539.50	540.00	541.00	541.50	542.25	543.00	543.75	544.25	545.00	545.75	546.25	547.00	547.75	548.25	548.75	549.75	550.25	551.00	551.50	552.00	553.00	553.50	554.00	554.50	555.00	555.75	556.00	557.00	557.00	557.25	557.75	558.25	558.50	558.50	558.50	559.00	559.00	559.00	559.00	559.00	559.00	559.00	559.00	559.00	559.00	559.00	559.00	558.75	558.50	558.50	558.50	558.50	558.50	558.50	558.50	558.00	557.50	557.50	557.50	557.50	557.50	557.50	557.50	557.50	557.50	557.50	557.50	557.50	557.50	557.50	557.50	557.50	557.50	557.50	558.00	558.00	558.00	558.25	558.50	558.75	559.00	559.00	559.50	559.50	560.50	560.50	560.50	561.50	561.75	562.50	562.50	563.50	564.00	565.00	565.75	566.25	567.00	567.50	568.50	569.50	570.50	571.00	572.00	572.50	574.00	575.00	576.25	576.75	577.50	579.00	579.50	581.00	581.50	582.75	583.25	585.00	586.00	586.75	587.50	588.50	590.00	590.50	592.00	592.75	593.75	594.75	595.25	596.50	597.50	598.00	599.50	600.50	601.25	602.00	603.00	604.50	605.50	606.00	607.50	608.25	609.25	610.50	611.00	612.00	613.00	614.25	615.50	616.50	617.25	618.00	619.50	621.00	622.50	622.50	624.00	625.00	627.00	627.75	628.25	629.50	631.00	632.00	633.50	634.50	635.50	637.00	638.00	638.75	640.00	641.50	642.25	643.00	645.00	645.50	646.50	647.50	649.00	649.75	651.50	652.50	653.50	654.50	655.50	657.50	658.50	660.00	661.00	662.50	664.00	665.00	666.50	667.50	669.00	670.50	672.00	673.00	674.00
486.50	488.00	489.50	490.50	491.50	493.50	494.50	496.00	497.00	498.50	499.50	501.50	502.50	503.50	504.00	505.50	507.00	508.00	509.50	510.00	511.00	512.50	514.00	515.00	515.50	516.00	517.00	518.00	518.50	520.00	520.00	521.00	522.00	523.00	523.50	524.00	525.00	525.00	526.00	526.00	527.00	527.50	528.50	529.00	529.50	530.00	531.00	531.50	532.00	533.00	533.50	534.00	534.00	535.00	536.00	536.00	536.50	537.00	538.00	538.50	539.00	540.00	540.50	541.50	542.00	543.00	543.50	544.00	545.00	545.00	546.00	546.50	547.00	547.50	548.50	549.00	550.00	550.00	551.00	552.00	552.50	553.00	553.50	554.00	555.00	555.00	556.00	556.00	556.50	557.00	557.50	558.00	558.00	558.00	559.00	559.00	559.00	559.00	559.00	559.00	559.00	559.00	559.00	559.00	559.00	559.00	559.00	559.00	559.00	559.00	559.00	559.00	559.00	559.00	558.00	558.00	558.00	558.00	558.00	558.00	558.00	558.00	558.00	558.00	558.00	558.00	558.00	558.00	558.00	558.00	558.00	558.00	558.00	558.00	558.00	558.00	558.50	559.00	559.00	559.00	559.00	559.00	559.00	560.00	560.00	560.00	561.00	561.50	562.00	562.00	563.00	563.50	564.50	565.00	565.00	566.00	566.00	567.00	568.00	569.00	569.50	570.50	571.00	572.50	573.00	574.50	575.00	575.50	577.00	577.50	579.00	580.00	581.00	581.50	583.50	584.50	585.00	586.00	587.00	588.00	589.00	590.50	591.00	592.00	593.00	593.50	595.00	596.00	596.50	598.00	598.50	599.50	600.50	601.00	602.50	604.00	604.00	605.50	606.50	607.50	608.50	609.00	610.00	611.00	612.00	613.00	614.50	615.00	615.50	617.00	618.50	620.00	620.00	621.50	622.50	624.50	625.00	625.50	627.00	628.50	629.50	631.00	632.50	633.50	635.00	636.00	637.00	638.00	639.50	640.50	641.50	643.50	644.00	645.00	646.00	647.50	648.50	650.50	651.50	652.50	654.00	655.00	657.00	658.00	659.50	660.50	662.00	663.50	664.50	666.00	667.00	668.50	670.00	671.50	672.50	673.50
486.50	488.00	489.50	490.50	491.50	493.50	494.50	496.00	497.00	498.50	499.50	501.50	502.50	503.50	504.00	505.50	507.00	508.00	509.50	510.00	511.00	512.50	514.00	515.00	515.50	516.00	517.00	518.00	518.50	520.00	520.00	521.00	522.00	523.00	523.50	524.00	525.00	525.00	526.00	526.00	527.00	527.50	528.50	529.00	529.50	530.00	531.00	531.50	532.00	533.00	533.50	534.00	534.00	535.00	536.00	536.00	536.50	537.00	538.00	538.50	539.00	540.00	540.50	541.50	542.00	543.00	543.50	544.00	545.00	545.00	546.00	546.50	547.00	547.50	548.50	549.00	550.00	550.00	551.00	552.00	552.50	553.00	553.50	554.00	555.00	555.00	556.00	556.00	556.50	557.00	557.50	558.00	558.00	558.00	559.00	559.00	559.00	559.00	559.00	559.00	559.00	559.00	559.00	559.00	559.00	559.00	559.00	559.00	559.00	559.00	559.00	559.00	559.00	559.00	558.00	558.00	558.00	558.00	558.00	558.00	558.00	558.00	558.00	558.00	558.00	558.00	558.00	558.00	558.00	558.00	558.00	558.00	558.00	558.00	558.00	558.00	558.50	559.00	559.00	559.00	559.00	559.00	559.00	560.00	560.00	560.00	561.00	561.50	562.00	562.00	563.00	563.50	564.50	565.00	565.00	566.00	566.00	567.00	568.00	569.00	569.50	570.50	571.00	572.50	573.00	574.50	575.00	575.50	577.00	577.50	579.00	580.00	581.00	581.50	583.50	584.50	585.00	586.00	587.00	588.00	589.00	590.50	591.00	592.00	593.00	593.50	595.00	596.00	596.50	598.00	598.50	599.50	600.50	601.00	602.50	604.00	604.00	605.50	606.50	607.50	608.50	609.00	610.00	611.00	612.00	613.00	614.50	615.00	615.50	617.00	618.50	620.00	620.00	621.50	622.50	624.50	625.00	625.50	627.00	628.50	629.50	631.00	632.50	633.50	635.00	636.00	637.00	638.00	639.50	640.50	641.50	643.50	644.00	645.00	646.00	647.50	648.50	650.50	651.50	652.50	654.00	655.00	657.00	658.00	659.50	660.50	662.00	663.50	664.50	666.00	667.00	668.50	670.00	671.50	672.50	673.50
486.50	488.00	489.50	490.50	491.50	493.50	494.50	496.00	497.00	498.50	499.50	501.50	502.50	503.50	504.00	505.50	507.00	508.00	509.50	510.00	511.00	512.50	514.00	515.00	515.50	516.00	517.00	518.00	518.50	520.00	520.00	521.00	522.00	523.00	523.50	524.00	525.00	525.00	526.00	526.00	527.00	527.50	528.50	529.00	529.50	530.00	531.00	531.50	532.00	533.00	533.50	534.00	534.00	535.00	536.00	536.00	536.50	537.00	538.00	538.50	539.00	540.00	540.50	541.50	542.00	543.00	543.50	544.00	545.00	545.00	546.00	546.50	547.00	547.50	548.50	549.00	550.00	550.00	551.00	552.00	552.50	553.00	553.50	554.00	555.00	555.00	556.00	556.00	556.50	557.00	557.50	558.00	558.00	558.00	559.00	559.00	559.00	559.00	559.00	559.00	559.00	559.00	559.00	559.00	559.00	559.00	559.00	559.00	559.00	559.00	559.00	559.00	559.00	559.00	558.00	558.00	558.00	558.00	558.00	558.00	558.00	558.00	558.00	558.00	558.00	558.00	558.00	558.00	558.00	558.00	558.00	558.00	558.00	558.00	558.00	558.00	558.50	559.00	559.00	559.00	559.00	559.00	559.00	560.00	560.00	560.00	561.00	561.50	562.00	562.00	563.00	563.50	564.50	565.00	565.00	566.00	566.00	567.00	568.00	569.00	569.50	570.50	571.00	572.50	573.00	574.50	575.00	575.50	577.00	577.50	579.00	580.00	581.00	581.50	583.50	584.50	585.00	586.00	587.00	588.00	589.00	590.50	591.00	592.00	593.00	593.50	595.00	596.00	596.50	598.00	598.50	599.50	600.50	601.00	602.50	604.00	604.00	605.50	606.50	607.50	608.50	609.00	610.00	611.00	612.00	613.00	614.50	615.00	615.50	617.00	618.50	620.00	620.00	621.50	622.50	624.50	625.00	625.50	627.00	628.50	629.50	631.00	632.50	633.50	635.00	636.00	637.00	638.00	639.50	640.50	641.50	643.50	644.00	645.00	646.00	647.50	648.50	650.50	651.50	652.50	654.00	655.00	657.00	658.00	659.50	660.50	662.00	663.50	664.50	666.00	667.00	668.50	670.00	671.50	672.50	673.50
486.50	488.00	489.50	490.50	491.50	493.50	494.50	496.00	497.00	498.50	499.50	501.50	502.50	503.50	504.00	505.50	507.00	508.00	509.50	510.00	511.00	512.50	514.00	515.00	515.50	516.00	517.00	518.00	518.50	520.00	520.00	521.00	522.00	523.00	523.50	524.00	525.00	525.00	526.00	526.00	527.00	527.50	528.50	529.00	529.50	530.00	531.00	531.50	532.00	533.00	533.50	534.00	534.00	535.00	536.00	536.00	536.50	537.00	538.00	538.50	539.00	540.00	540.50	541.50	542.00	543.00	543.50	544.00	545.00	545.00	546.00	546.50	547.00	547.50	548.50	549.00	550.00	550.00	551.00	552.00	552.50	553.00	553.50	554.00	555.00	555.00	556.00	556.00	556.50	557.00	557.50	558.00	558.00	558.00	559.00	559.00	559.00	559.00	559.00	559.00	559.00	559.00	559.00	559.00	559.00	559.00	559.00	559.00	559.00	559.00	559.00	559.00	559.00	559.00	558.00	558.00	558.00	558.00	558.00	558.00	558.00	558.00	558.00	558.00	558.00	558.00	558.00	558.00	558.00	558.00	558.00	558.00	558.00	558.00	558.00	558.00	558.50	559.00	559.00	559.00	559.00	559.00	559.00	560.00	560.00	560.00	561.00	561.50	562.00	562.00	563.00	563.50	564.50	565.00	565.00	566.00	566.00	567.00	568.00	569.00	569.50	570.50	571.00	572.50	573.00	574.50	575.00	575.50	577.00	577.50	579.00	580.00	581.00	581.50	583.50	584.50	585.00	586.00	587.00	588.00	589.00	590.50	591.00	592.00	593.00	593.50	595.00	596.00	596.50	598.00	598.50	599.50	600.50	601.00	602.50	604.00	604.00	605.50	606.50	607.50	608.50	609.00	610.00	611.00	612.00	613.00	614.50	615.00	615.50	617.00	618.50	620.00	620.00	621.50	622.50	624.50	625.00	625.50	627.00	628.50	629.50	631.00	632.50	633.50	635.00	636.00	637.00	638.00	639.50	640.50	641.50	643.50	644.00	645.00	646.00	647.50	648.50	650.50	651.50	652.50	654.00	655.00	657.00	658.00	659.50	660.50	662.00	663.50	664.50	666.00	667.00	668.50	670.00	671.50	672.50	673.50
486.50	488.00	489.50	490.50	491.50	493.50	494.50	496.00	497.00	498.50	499.50	501.50	502.50	503.50	504.00	505.50	507.00	508.00	509.50	510.00	511.00	512.50	514.00	515.00	515.50	516.00	517.00	518.00	518.50	520.00	520.00	521.00	522.00	523.00	523.50	524.00	525.00	525.00	526.00	526.00	527.00	527.50	528.50	529.00	529.50	530.00	531.00	531.50	532.00	533.00	533.50	534.00	534.00	535.00	536.00	536.00	536.50	537.00	538.00	538.50	539.00	540.00	540.50	541.50	542.00	543.00	543.50	544.00	545.00	545.00	546.00	546.50	547.00	547.50	548.50	549.00	550.00	550.00	551.00	552.00	552.50	553.00	553.50	554.00	555.00	555.00	556.00	556.00	556.50	557.00	557.50	558.00	558.00	558.00	559.00	559.00	559.00	559.00	559.00	559.00	559.00	559.00	559.00	559.00	559.00	559.00	559.00	559.00	559.00	559.00	559.00	559.00	559.00	559.00	558.00	558.00	558.00	558.00	558.00	558.00	558.00	558.00	558.00	558.00	558.00	558.00	558.00	558.00	558.00	558.00	558.00	558.00	558.00	558.00	558.00	558.00	558.50	559.00	559.00	559.00	559.00	559.00	559.00	560.00	560.00	560.00	561.00	561.50	562.00	562.00	563.00	563.50	564.50	565.00	565.00	566.00	566.00	567.00	568.00	569.00	569.50	570.50	571.00	572.50	573.00	574.50	575.00	575.50	577.00	577.50	579.00	580.00	581.00	581.50	583.50	584.50	585.00	586.00	587.00	588.00	589.00	590.50	591.00	592.00	593.00	593.50	595.00	596.00	596.50	598.00	598.50	599.50	600.50	601.00	602.50	604.00	604.00	605.50	606.50	607.50	608.50	609.00	610.00	611.00	612.00	613.00	614.50	615.00	615.50	617.00	618.50	620.00	620.00	621.50	622.50	624.50	625.00	625.50	627.00	628.50	629.50	631.00	632.50	633.50	635.00	636.00	637.00	638.00	639.50	640.50	641.50	643.50	644.00	645.00	646.00	647.50	648.50	650.50	651.50	652.50	654.00	655.00	657.00	658.00	659.50	660.50	662.00	663.50	664.50	666.00	667.00	668.50	670.00	671.50	672.50	673.50
486.50	488.00	489.50	490.50	491.50	493.50	494.50	496.00	497.00	498.50	499.50	501.50	502.50	503.50	504.00	505.50	507.00	508.00	509.50	510.00	511.00	512.50	514.00	515.00	515.50	516.00	517.00	518.00	518.50	520.00	520.00	521.00	522.00	523.00	523.50	524.00	525.00	525.00	526.00	526.00	527.00	527.50	528.50	529.00	529.50	530.00	531.00	531.50	532.00	533.00	533.50	534.00	534.00	535.00	536.00	536.00	536.50	537.00	538.00	538.50	539.00	540.00	540.50	541.50	542.00	543.00	543.50	544.00	545.00	545.00	546.00	546.50	547.00	547.50	548.50	549.00	550.00	550.00	551.00	552.00	552.50	553.00	553.50	554.00	555.00	555.00	556.00	556.00	556.50	557.00	557.50	558.00	558.00	558.00	559.00	559.00	559.00	559.00	559.00	559.00	559.00	559.00	559.00	559.00	559.00	559.00	559.00	559.00	559.00	559.00	559.00	559.00	559.00	559.00	558.00	558.00	558.00	558.00	558.00	558.00	558.00	558.00	558.00	558.00	558.00	558.00	558.00	558.00	558.00	558.00	558.00	558.00	558.00	558.00	558.00	558.00	558.50	559.00	559.00	559.00	559.00	559.00	559.00	560.00	560.00	560.00	561.00	561.50	562.00	562.00	563.00	563.50	564.50	565.00	565.00	566.00	566.00	567.00	568.00	569.00	569.50	570.50	571.00	572.50	573.00	574.50	575.00	575.50	577.00	577.50	579.00	580.00	581.00	581.50	583.50	584.50	585.00	586.00	587.00	588.00	589.00	590.50	591.00	592.00	593.00	593.50	595.00	596.00	596.50	598.00	598.50	599.50	600.50	601.00	602.50	604.00	604.00	605.50	606.50	607.50	608.50	609.00	610.00	611.00	612.00	613.00	614.50	615.00	615.50	617.00	618.50	620.00	620.00	621.50	622.50	624.50	625.00	625.50	627.00	628.50	629.50	631.00	632.50	633.50	635.00	636.00	637.00	638.00	639.50	640.50	641.50	643.50	644.00	645.00	646.00	647.50	648.50	650.50	651.50	652.50	654.00	655.00	657.00	658.00	659.50	660.50	662.00	663.50	664.50	666.00	667.00	668.50	670.00	671.50	672.50	673.50
486.50	488.00	489.50	490.50	491.50	493.50	494.50	496.00	497.00	498.50	499.50	501.50	502.50	503.50	504.00	505.50	507.00	508.00	509.50	510.00	511.00	512.50	514.00	515.00	515.50	516.00	517.00	518.00	518.50	520.00	520.00	521.00	522.00	523.00	523.50	524.00	525.00	525.00	526.00	526.00	527.00	527.50	528.50	529.00	529.50	530.00	531.00	531.50	532.00	533.00	533.50	534.00	534.00	535.00	536.00	536.00	536.50	537.00	538.00	538.50	539.00	540.00	540.50	541.50	542.00	543.00	543.50	544.00	545.00	545.00	546.00	546.50	547.00	547.50	548.50	549.00	550.00	550.00	551.00	552.00	552.50	553.00	553.50	554.00	555.00	555.00	556.00	556.00	556.50	557.00	557.50	558.00	558.00	558.00	559.00	559.00	559.00	559.00	559.00	559.00	559.00	559.00	559.00	559.00	559.00	559.00	559.00	559.00	559.00	559.00	559.00	559.00	559.00	559.00	558.00	558.00	558.00	558.00	558.00	558.00	558.00	558.00	558.00	558.00	558.00	558.00	558.00	558.00	558.00	558.00	558.00	558.00	558.00	558.00	558.00	558.00	558.50	559.00	559.00	559.00	559.00	559.00	559.00	560.00	560.00	560.00	561.00	561.50	562.00	562.00	563.00	563.50	564.50	565.00	565.00	566.00	566.00	567.00	568.00	569.00	569.50	570.50	571.00	572.50	573.00	574.50	575.00	575.50	577.00	577.50	579.00	580.00	581.00	581.50	583.50	584.50	585.00	586.00	587.00	588.00	589.00	590.50	591.00	592.00	593.00	593.50	595.00	596.00	596.50	598.00	598.50	599.50	600.50	601.00	602.50	604.00	604.00	605.50	606.50	607.50	608.50	609.00	610.00	611.00	612.00	613.00	614.50	615.00	615.50	617.00	618.50	620.00	620.00	621.50	622.50	624.50	625.00	625.50	627.00	628.50	629.50	631.00	632.50	633.50	635.00	636.00	637.00	638.00	639.50	640.50	641.50	643.50	644.00	645.00	646.00	647.50	648.50	650.50	651.50	652.50	654.00	655.00	657.00	658.00	659.50	660.50	662.00	663.50	664.50	666.00	667.00	668.50	670.00	671.50	672.50	673.50
485.00	486.50	488.00	489.00	489.75	491.50	492.50	494.00	495.00	496.50	497.50	499.50	500.50	501.50	502.50	504.00	505.50	506.00	507.50	508.25	509.50	510.50	512.00	513.00	513.75	514.25	515.50	516.75	517.25	518.50	518.50	519.50	520.50	521.50	522.00	522.50	523.50	523.75	524.50	525.00	526.00	526.50	527.50	528.00	528.50	529.00	530.00	530.50	531.00	532.00	532.50	533.00	533.50	534.25	535.00	535.50	536.00	536.50	537.25	537.75	538.25	539.00	539.75	540.50	541.00	542.25	542.75	543.00	544.00	544.25	545.00	545.75	546.25	546.75	547.75	548.25	549.00	549.50	550.25	551.00	551.75	552.25	552.75	553.00	554.00	554.00	555.00	555.25	555.75	556.25	556.75	557.00	557.00	557.50	558.00	558.00	558.25	558.50	558.50	558.50	558.75	559.00	559.00	559.00	559.00	559.00	559.00	559.00	559.00	559.00	559.25	559.50	559.50	559.50	559.00	559.00	559.00	559.00	559.00	559.00	559.00	559.50	559.50	559.50	559.50	559.50	559.50	559.50	559.50	559.50	559.50	559.50	559.50	559.50	559.50	559.50	559.75	560.00	560.00	560.00	560.00	560.00	560.00	561.00	561.00	561.00	561.50	562.00	562.50	562.50	563.00	563.25	564.00	564.50	564.75	565.50	566.00	566.75	567.50	568.50	569.00	569.75	570.50	571.75	572.50	573.75	574.25	575.00	576.25	577.00	578.50	579.00	580.25	580.75	582.50	583.25	583.75	584.50	585.50	587.00	588.00	589.00	589.75	590.75	591.75	592.25	593.50	594.50	595.00	596.50	597.00	598.00	599.00	599.50	601.00	602.00	602.50	603.75	604.50	605.50	606.50	607.25	608.00	609.00	610.25	611.00	612.50	613.00	613.50	615.00	616.25	617.50	618.00	619.50	620.25	622.00	622.75	623.50	625.00	626.50	627.50	629.00	630.50	631.50	633.00	634.00	635.25	636.50	637.75	638.50	639.50	641.50	642.25	643.50	644.50	646.00	647.00	648.75	649.50	650.50	652.00	653.00	655.00	656.00	657.50	658.50	660.25	662.00	663.00	664.50	665.50	667.00	668.50	670.00	671.00	672.00
483.50	485.00	486.50	487.50	488.00	489.50	490.50	492.00	493.00	494.50	495.50	497.50	498.50	499.50	501.00	502.50	504.00	504.00	505.50	506.50	508.00	508.50	510.00	511.00	512.00	512.50	514.00	515.50	516.00	517.00	517.00	518.00	519.00	520.00	520.50	521.00	522.00	522.50	523.00	524.00	525.00	525.50	526.50	527.00	527.50	528.00	529.00	529.50	530.00	531.00	531.50	532.00	533.00	533.50	534.00	535.00	535.50	536.00	536.50	537.00	537.50	538.00	539.00	539.50	540.00	541.50	542.00	542.00	543.00	543.50	544.00	545.00	545.50	546.00	547.00	547.50	548.00	549.00	549.50	550.00	551.00	551.50	552.00	552.00	553.00	553.00	554.00	554.50	555.00	555.50	556.00	556.00	556.00	557.00	557.00	557.00	557.50	558.00	558.00	558.00	558.50	559.00	559.00	559.00	559.00	559.00	559.00	559.00	559.00	559.00	559.50	560.00	560.00	560.00	560.00	560.00	560.00	560.00	560.00	560.00	560.00	561.00	561.00	561.00	561.00	561.00	561.00	561.00	561.00	561.00	561.00	561.00	561.00	561.00	561.00	561.00	561.00	561.00	561.00	561.00	561.00	561.00	561.00	562.00	562.00	562.00	562.00	562.50	563.00	563.00	563.00	563.00	563.50	564.00	564.50	565.00	566.00	566.50	567.00	568.00	568.50	569.00	570.00	571.00	572.00	573.00	573.50	574.50	575.50	576.50	578.00	578.00	579.50	580.00	581.50	582.00	582.50	583.00	584.00	586.00	587.00	587.50	588.50	589.50	590.50	591.00	592.00	593.00	593.50	595.00	595.50	596.50	597.50	598.00	599.50	600.00	601.00	602.00	602.50	603.50	604.50	605.50	606.00	607.00	608.50	609.00	610.50	611.00	611.50	613.00	614.00	615.00	616.00	617.50	618.00	619.50	620.50	621.50	623.00	624.50	625.50	627.00	628.50	629.50	631.00	632.00	633.50	635.00	636.00	636.50	637.50	639.50	640.50	642.00	643.00	644.50	645.50	647.00	647.50	648.50	650.00	651.00	653.00	654.00	655.50	656.50	658.50	660.50	661.50	663.00	664.00	665.50	667.00	668.50	669.50	670.50
483.50	485.00	486.50	487.50	488.00	489.50	490.50	492.00	493.00	494.50	495.50	497.50	498.50	499.50	501.00	502.50	504.00	504.00	505.50	506.50	508.00	508.50	510.00	511.00	512.00	512.50	514.00	515.50	516.00	517.00	517.00	518.00	519.00	520.00	520.50	521.00	522.00	522.50	523.00	524.00	525.00	525.50	526.50	527.00	527.50	528.00	529.00	529.50	530.00	531.00	531.50	532.00	533.00	533.50	534.00	535.00	535.50	536.00	536.50	537.00	537.50	538.00	539.00	539.50	540.00	541.50	542.00	542.00	543.00	543.50	544.00	545.00	545.50	546.00	547.00	547.50	548.00	549.00	549.50	550.00	551.00	551.50	552.00	552.00	553.00	553.00	554.00	554.50	555.00	555.50	556.00	556.00	556.00	557.00	557.00	557.00	557.50	558.00	558.00	558.00	558.50	559.00	559.00	559.00	559.00	559.00	559.00	559.00	559.00	559.00	559.50	560.00	560.00	560.00	560.00	560.00	560.00	560.00	560.00	560.00	560.00	561.00	561.00	561.00	561.00	561.00	561.00	561.00	561.00	561.00	561.00	561.00	561.00	561.00	561.00	561.00	561.00	561.00	561.00	561.00	561.00	561.00	561.00	562.00	562.00	562.00	562.00	562.50	563.00	563.00	563.00	563.00	563.50	564.00	564.50	565.00	566.00	566.50	567.00	568.00	568.50	569.00	570.00	571.00	572.00	573.00	573.50	574.50	575.50	576.50	578.00	578.00	579.50	580.00	581.50	582.00	582.50	583.00	584.00	586.00	587.00	587.50	588.50	589.50	590.50	591.00	592.00	593.00	593.50	595.00	595.50	596.50	597.50	598.00	599.50	600.00	601.00	602.00	602.50	603.50	604.50	605.50	606.00	607.00	608.50	609.00	610.50	611.00	611.50	613.00	614.00	615.00	616.00	617.50	618.00	619.50	620.50	621.50	623.00	624.50	625.50	627.00	628.50	629.50	631.00	632.00	633.50	635.00	636.00	636.50	637.50	639.50	640.50	642.00	643.00	644.50	645.50	647.00	647.50	648.50	650.00	651.00	653.00	654.00	655.50	656.50	658.50	660.50	661.50	663.00	664.00	665.50	667.00	668.50	669.50	670.50
483.50	485.00	486.50	487.50	488.00	489.50	490.50	492.00	493.00	494.50	495.50	497.50	498.50	499.50	501.00	502.50	504.00	504.00	505.50	506.50	508.00	508.50	510.00	511.00	512.00	512.50	514.00	515.50	516.00	517.00	517.00	518.00	519.00	520.00	520.50	521.00	522.00	522.50	523.00	524.00	525.00	525.50	526.50	527.00	527.50	528.00	529.00	529.50	530.00	531.00	531.50	532.00	533.00	533.50	534.00	535.00	535.50	536.00	536.50	537.00	537.50	538.00	539.00	539.50	540.00	541.50	542.00	542.00	543.00	543.50	544.00	545.00	545.50	546.00	547.00	547.50	548.00	549.00	549.50	550.00	551.00	551.50	552.00	552.00	553.00	553.00	554.00	554.50	555.00	555.50	556.00	556.00	556.00	557.00	557.00	557.00	557.50	558.00	558.00	558.00	558.50	559.00	559.00	559.00	559.00	559.00	559.00	559.00	559.00	559.00	559.50	560.00	560.00	560.00	560.00	560.00	560.00	560.00	560.00	560.00	560.00	561.00	561.00	561.00	561.00	561.00	561.00	561.00	561.00	561.00	561.00	561.00	561.00	561.00	561.00	561.00	561.00	561.00	561.00	561.00	561.00	561.00	561.00	562.00	562.00	562.00	562.00	562.50	563.00	563.00	563.00	563.00	563.50	564.00	564.50	565.00	566.00	566.50	567.00	568.00	568.50	569.00	570.00	571.00	572.00	573.00	573.50	574.50	575.50	576.50	578.00	578.00	579.50	580.00	581.50	582.00	582.50	583.00	584.00	586.00	587.00	587.50	588.50	589.50	590.50	591.00	592.00	593.00	593.50	595.00	595.50	596.50	597.50	598.00	599.50	600.00	601.00	602.00	602.50	603.50	604.50	605.50	606.00	607.00	608.50	609.00	610.50	611.00	611.50	613.00	614.00	615.00	616.00	617.50	618.00	619.50	620.50	621.50	623.00	624.50	625.50	627.00	628.50	629.50	631.00	632.00	633.50	635.00	636.00	636.50	637.50	639.50	640.50	642.00	643.00	644.50	645.50	647.00	647.50	648.50	650.00	651.00	653.00	654.00	655.50	656.50	658.50	660.50	661.50	663.00	664.00	665.50	667.00	668.50	669.50	670.50
483.50	485.00	486.50	487.50	488.00	489.50	490.50	492.00	493.00	494.50	495.50	497.50	498.50	499.50	501.00	502.50	504.00	504.00	505.50	506.50	508.00	508.50	510.00	511.00	512.00	512.50	514.00	515.50	516.00	517.00	517.00	518.00	519.00	520.00	520.50	521.00	522.00	522.50	523.00	524.00	525.00	525.50	526.50	527.00	527.50	528.00	529.00	529.50	530.00	531.00	531.50	532.00	533.00	533.50	534.00	535.00	535.50	536.00	536.50	537.00	537.50	538.00	539.00	539.50	540.00	541.50	542.00	542.00	543.00	543.50	544.00	545.00	545.50	546.00	547.00	547.50	548.00	549.00	549.50	550.00	551.00	551.50	552.00	552.00	553.00	553.00	554.00	554.50	555.00	555.50	556.00	556.00	556.00	557.00	557.00	557.00	557.50	558.00	558.00	558.00	558.50	559.00	559.00	559.00	559.00	559.00	559.00	559.00	559.00	559.00	559.50	560.00	560.00	560.00	560.00	560.00	560.00	560.00	560.00	560.00	560.00	561.00	561.00	561.00	561.00	561.00	561.00	561.00	561.00	561.00	561.00	561.00	561.00	561.00	561.00	561.00	561.00	561.00	561.00	561.00	561.00	561.00	561.00	562.00	562.00	562.00	562.00	562.50	563.00	563.00	563.00	563.00	563.50	564.00	564.50	565.00	566.00	566.50	567.00	568.00	568.50	569.00	570.00	571.00	572.00	573.00	573.50	574.50	575.50	576.50	578.00	578.00	579.50	580.00	581.50	582.00	582.50	583.00	584.00	586.00	587.00	587.50	588.50	589.50	590.50	591.00	592.00	593.00	593.50	595.00	595.50	596.50	597.50	598.00	599.50	600.00	601.00	602.00	602.50	603.50	604.50	605.50	606.00	607.00	608.50	609.00	610.50	611.00	611.50	613.00	614.00	615.00	616.00	617.50	618.00	619.50	620.50	621.50	623.00	624.50	625.50	627.00	628.50	629.50	631.00	632.00	633.50	635.00	636.00	636.50	637.50	639.50	640.50	642.00	643.00	644.50	645.50	647.00	647.50	648.50	650.00	651.00	653.00	654.00	655.50	656.50	658.50	660.50	661.50	663.00	664.00	665.50	667.00	668.50	669.50	670.50
483.50	485.00	486.50	487.50	488.00	489.50	490.50	492.00	493.00	494.50	495.50	497.50	498.50	499.50	501.00	502.50	504.00	504.00	505.50	506.50	508.00	508.50	510.00	511.00	512.00	512.50	514.00	515.50	516.00	517.00	517.00	518.00	519.00	520.00	520.50	521.00	522.00	522.50	523.00	524.00	525.00	525.50	526.50	527.00	527.50	528.00	529.00	529.50	530.00	531.00	531.50	532.00	533.00	533.50	534.00	535.00	535.50	536.00	536.50	537.00	537.50	538.00	539.00	539.50	540.00	541.50	542.00	542.00	543.00	543.50	544.00	545.00	545.50	546.00	547.00	547.50	548.00	549.00	549.50	550.00	551.00	551.50	552.00	552.00	553.00	553.00	554.00	554.50	555.00	555.50	556.00	556.00	556.00	557.00	557.00	557.00	557.50	558.00	558.00	558.00	558.50	559.00	559.00	559.00	559.00	559.00	559.00	559.00	559.00	559.00	559.50	560.00	560.00	560.00	560.00	560.00	560.00	560.00	560.00	560.00	560.00	561.00	561.00	561.00	561.00	561.00	561.00	561.00	561.00	561.00	561.00	561.00	561.00	561.00	561.00	561.00	561.00	561.00	561.00	561.00	561.00	561.00	561.00	562.00	562.00	562.00	562.00	562.50	563.00	563.00	563.00	563.00	563.50	564.00	564.50	565.00	566.00	566.50	567.00	568.00	568.50	569.00	570.00	571.00	572.00	573.00	573.50	574.50	575.50	576.50	578.00	578.00	579.50	580.00	581.50	582.00	582.50	583.00	584.00	586.00	587.00	587.50	588.50	589.50	590.50	591.00	592.00	593.00	593.50	595.00	595.50	596.50	597.50	598.00	599.50	600.00	601.00	602.00	602.50	603.50	604.50	605.50	606.00	607.00	608.50	609.00	610.50	611.00	611.50	613.00	614.00	615.00	616.00	617.50	618.00	619.50	620.50	621.50	623.00	624.50	625.50	627.00	628.50	629.50	631.00	632.00	633.50	635.00	636.00	636.50	637.50	639.50	640.50	642.00	643.00	644.50	645.50	647.00	647.50	648.50	650.00	651.00	653.00	654.00	655.50	656.50	658.50	660.50	661.50	663.00	664.00	665.50	667.00	668.50	669.50	670.50
483.50	485.00	486.50	487.50	488.00	489.50	490.50	492.00	493.00	494.50	495.50	497.50	498.50	499.50	501.00	502.50	504.00	504.00	505.50	506.50	508.00	508.50	510.00	511.00	512.00	512.50	514.00	515.50	516.00	517.00	517.00	518.00	519.00	520.00	520.50	521.00	522.00	522.50	523.00	524.00	525.00	525.50	526.50	527.00	527.50	528.00	529.00	529.50	530.00	531.00	531.50	532.00	533.00	533.50	534.00	535.00	535.50	536.00	536.50	537.00	537.50	538.00	539.00	539.50	540.00	541.50	542.00	542.00	543.00	543.50	544.00	545.00	545.50	546.00	547.00	547.50	548.00	549.00	549.50	550.00	551.00	551.50	552.00	552.00	553.00	553.00	554.00	554.50	555.00	555.50	556.00	556.00	556.00	557.00	557.00	557.00	557.50	558.00	558.00	558.00	558.50	559.00	559.00	559.00	559.00	559.00	559.00	559.00	559.00	559.00	559.50	560.00	560.00	560.00	560.00	560.00	560.00	560.00	560.00	560.00	560.00	561.00	561.00	561.00	561.00	561.00	561.00	561.00	561.00	561.00	561.00	561.00	561.00	561.00	561.00	561.00	561.00	561.00	561.00	561.00	561.00	561.00	561.00	562.00	562.00	562.00	562.00	562.50	563.00	563.00	563.00	563.00	563.50	564.00	564.50	565.00	566.00	566.50	567.00	568.00	568.50	569.00	570.00	571.00	572.00	573.00	573.50	574.50	575.50	576.50	578.00	578.00	579.50	580.00	581.50	582.00	582.50	583.00	584.00	586.00	587.00	587.50	588.50	589.50	590.50	591.00	592.00	593.00	593.50	595.00	595.50	596.50	597.50	598.00	599.50	600.00	601.00	602.00	602.50	603.50	604.50	605.50	606.00	607.00	608.50	609.00	610.50	611.00	611.50	613.00	614.00	615.00	616.00	617.50	618.00	619.50	620.50	621.50	623.00	624.50	625.50	627.00	628.50	629.50	631.00	632.00	633.50	635.00	636.00	636.50	637.50	639.50	640.50	642.00	643.00	644.50	645.50	647.00	647.50	648.50	650.00	651.00	653.00	654.00	655.50	656.50	658.50	660.50	661.50	663.00	664.00	665.50	667.00	668.50	669.50	670.50
483.50	485.00	486.50	487.50	488.00	489.50	490.50	492.00	493.00	494.50	495.50	497.50	498.50	499.50	501.00	502.50	504.00	504.00	505.50	506.50	508.00	508.50	510.00	511.00	512.00	512.50	514.00	515.50	516.00	517.00	517.00	518.00	519.00	520.00	520.50	521.00	522.00	522.50	523.00	524.00	525.00	525.50	526.50	527.00	527.50	528.00	529.00	529.50	530.00	531.00	531.50	532.00	533.00	533.50	534.00	535.00	535.50	536.00	536.50	537.00	537.50	538.00	539.00	539.50	540.00	541.50	542.00	542.00	543.00	543.50	544.00	545.00	545.50	546.00	547.00	547.50	548.00	549.00	549.50	550.00	551.00	551.50	552.00	552.00	553.00	553.00	554.00	554.50	555.00	555.50	556.00	556.00	556.00	557.00	557.00	557.00	557.50	558.00	558.00	558.00	558.50	559.00	559.00	559.00	559.00	559.00	559.00	559.00	559.00	559.00	559.50	560.00	560.00	560.00	560.00	560.00	560.00	560.00	560.00	560.00	560.00	561.00	561.00	561.00	561.00	561.00	561.00	561.00	561.00	561.00	561.00	561.00	561.00	561.00	561.00	561.00	561.00	561.00	561.00	561.00	561.00	561.00	561.00	562.00	562.00	562.00	562.00	562.50	563.00	563.00	563.00	563.00	563.50	564.00	564.50	565.00	566.00	566.50	567.00	568.00	568.50	569.00	570.00	571.00	572.00	573.00	573.50	574.50	575.50	576.50	578.00	578.00	579.50	580.00	581.50	582.00	582.50	583.00	584.00	586.00	587.00	587.50	588.50	589.50	590.50	591.00	592.00	593.00	593.50	595.00	595.50	596.50	597.50	598.00	599.50	600.00	601.00	602.00	602.50	603.50	604.50	605.50	606.00	607.00	608.50	609.00	610.50	611.00	611.50	613.00	614.00	615.00	616.00	617.50	618.00	619.50	620.50	621.50	623.00	624.50	625.50	627.00	628.50	629.50	631.00	632.00	633.50	635.00	636.00	636.50	637.50	639.50	640.50	642.00	643.00	644.50	645.50	647.00	647.50	648.50	650.00	651.00	653.00	654.00	655.50	656.50	658.50	660.50	661.50	663.00	664.00	665.50	667.00	668.50	669.50	670.50
483.50	485.00	486.50	487.50	488.00	489.50	490.50	492.00	493.00	494.50	495.50	497.50	498.50	499.50	501.00	502.50	504.00	504.00	505.50	506.50	508.00	508.50	510.00	511.00	512.00	512.50	514.00	515.50	516.00	517.00	517.00	518.00	519.00	520.00	520.50	521.00	522.00	522.50	523.00	524.00	525.00	525.50	526.50	527.00	527.50	528.00	529.00	529.50	530.00	531.00	531.50	532.00	533.00	533.50	534.00	535.00	535.50	536.00	536.50	537.00	537.50	538.00	539.00	539.50	540.00	541.50	542.00	542.00	543.00	543.50	544.00	545.00	545.50	546.00	547.00	547.50	548.00	549.00	549.50	550.00	551.00	551.50	552.00	552.00	553.00	553.00	554.00	554.50	555.00	555.50	556.00	556.00	556.00	557.00	557.00	557.00	557.50	558.00	558.00	558.00	558.50	559.00	559.00	559.00	559.00	559.00	559.00	559.00	559.00	559.00	559.50	560.00	560.00	560.00	560.00	560.00	560.00	560.00	560.00	560.00	560.00	561.00	561.00	561.00	561.00	561.00	561.00	561.00	561.00	561.00	561.00	561.00	561.00	561.00	561.00	561.00	561.00	561.00	561.00	561.00	561.00	561.00	561.00	562.00	562.00	562.00	562.00	562.50	563.00	563.00	563.00	563.00	563.50	564.00	564.50	565.00	566.00	566.50	567.00	568.00	568.50	569.00	570.00	571.00	572.00	573.00	573.50	574.50	575.50	576.50	578.00	578.00	579.50	580.00	581.50	582.00	582.50	583.00	584.00	586.00	587.00	587.50	588.50	589.50	590.50	591.00	592.00	593.00	593.50	595.00	595.50	596.50	597.50	598.00	599.50	600.00	601.00	602.00	602.50	603.50	604.50	605.50	606.00	607.00	608.50	609.00	610.50	611.00	611.50	613.00	614.00	615.00	616.00	617.50	618.00	619.50	620.50	621.50	623.00	624.50	625.50	627.00	628.50	629.50	631.00	632.00	633.50	635.00	636.00	636.50	637.50	639.50	640.50	642.00	643.00	644.50	645.50	647.00	647.50	648.50	650.00	651.00	653.00	654.00	655.50	656.50	658.50	660.50	661.50	663.00	664.00	665.50	667.00	668.50	669.50	670.50
481.50	483.00	484.50	485.00	485.50	487.50	488.50	490.00	490.00	491.50	492.50	494.00	494.50	495.50	497.00	498.50	499.00	500.00	501.50	502.50	503.00	504.50	505.00	506.00	507.00	507.50	508.50	509.50	510.50	511.00	512.00	513.00	514.00	515.00	515.50	516.50	518.00	518.50	519.00	520.00	521.00	521.50	522.50	523.50	524.00	525.00	526.00	526.50	527.00	528.50	529.00	529.50	530.00	531.00	531.00	532.00	533.00	533.50	534.50	535.00	535.50	536.00	537.00	537.50	538.00	539.00	539.50	540.00	541.00	541.50	542.00	543.00	543.50	544.00	545.00	545.50	546.00	547.00	547.50	548.00	548.50	549.00	549.50	550.00	551.00	552.00	552.00	553.00	553.00	553.50	554.00	554.00	555.00	555.00	555.50	556.00	556.00	556.50	557.00	557.00	557.50	558.00	558.00	558.00	558.50	559.00	559.00	559.00	559.00	560.00	560.00	560.00	560.00	560.50	561.00	561.00	561.00	562.00	562.00	562.00	562.50	563.00	563.50	564.00	564.00	564.00	564.00	564.00	564.00	564.00	564.00	564.50	565.00	565.00	565.00	565.50	566.00	565.50	565.00	565.00	565.00	565.00	565.00	565.00	565.00	565.00	565.00	565.00	565.00	565.00	565.00	565.50	566.00	566.00	566.50	567.00	567.00	567.50	568.00	569.00	569.00	569.50	571.00	571.50	572.00	573.50	574.00	574.50	575.50	576.50	577.00	578.00	578.50	579.50	580.50	581.50	582.00	583.00	584.00	585.00	586.00	586.50	587.50	588.50	589.50	590.00	591.00	592.00	592.50	594.00	594.50	595.50	596.00	597.00	598.00	599.00	600.00	600.50	601.00	602.00	603.00	603.50	605.00	605.00	606.50	607.00	608.50	609.00	609.50	611.00	611.50	613.00	614.00	614.50	615.50	617.00	617.50	618.50	620.00	621.00	621.50	623.00	624.50	625.00	626.00	627.00	628.50	630.00	631.50	632.50	633.50	635.50	636.50	637.00	638.00	639.50	640.50	642.50	643.50	644.50	646.00	647.00	649.00	650.00	651.50	653.00	655.00	656.50	657.50	659.00	660.00	661.50	663.00	664.50	665.50	666.50
481.50	483.00	484.50	485.00	485.50	487.50	488.50	490.00	490.00	491.50	492.50	494.00	494.50	495.50	497.00	498.50	499.00	500.00	501.50	502.50	503.00	504.50	505.00	506.00	507.00	507.50	508.50	509.50	510.50	511.00	512.00	513.00	514.00	515.00	515.50	516.50	518.00	518.50	519.00	520.00	521.00	521.50	522.50	523.50	524.00	525.00	526.00	526.50	527.00	528.50	529.00	529.50	530.00	531.00	531.00	532.00	533.00	533.50	534.50	535.00	535.50	536.00	537.00	537.50	538.00	539.00	539.50	540.00	541.00	541.50	542.00	543.00	543.50	544.00	545.00	545.50	546.00	547.00	547.50	548.00	548.50	549.00	549.50	550.00	551.00	552.00	552.00	553.00	553.00	553.50	554.00	554.00	555.00	555.00	555.50	556.00	556.00	556.50	557.00	557.00	557.50	558.00	558.00	558.00	558.50	559.00	559.00	559.00	559.00	560.00	560.00	560.00	560.00	560.50	561.00	561.00	561.00	562.00	562.00	562.00	562.50	563.00	563.50	564.00	564.00	564.00	564.00	564.00	564.00	564.00	564.00	564.50	565.00	565.00	565.00	565.50	566.00	565.50	565.00	565.00	565.00	565.00	565.00	565.00	565.00	565.00	565.00	565.00	565.00	565.00	565.00	565.50	566.00	566.00	566.50	567.00	567.00	567.50	568.00	569.00	569.00	569.50	571.00	571.50	572.00	573.50	574.00	574.50	575.50	576.50	577.00	578.00	578.50	579.50	580.50	581.50	582.00	583.00	584.00	585.00	586.00	586.50	587.50	588.50	589.50	590.00	591.00	592.00	592.50	594.00	594.50	595.50	596.00	597.00	598.00	599.00	600.00	600.50	601.00	602.00	603.00	603.50	605.00	605.00	606.50	607.00	608.50	609.00	609.50	611.00	611.50	613.00	614.00	614.50	615.50	617.00	617.50	618.50	620.00	621.00	621.50	623.00	624.50	625.00	626.00	627.00	628.50	630.00	631.50	632.50	633.50	635.50	636.50	637.00	638.00	639.50	640.50	642.50	643.50	644.50	646.00	647.00	649.00	650.00	651.50	653.00	655.00	656.50	657.50	659.00	660.00	661.50	663.00	664.50	665.50	666.50
481.50	483.00	484.50	485.00	485.50	487.50	488.50	490.00	490.00	491.50	492.50	494.00	494.50	495.50	497.00	498.50	499.00	500.00	501.50	502.50	503.00	504.50	505.00	506.00	507.00	507.50	508.50	509.50	510.50	511.00	512.00	513.00	514.00	515.00	515.50	516.50	518.00	518.50	519.00	520.00	521.00	521.50	522.50	523.50	524.00	525.00	526.00	526.50	527.00	528.50	529.00	529.50	530.00	531.00	531.00	532.00	533.00	533.50	534.50	535.00	535.50	536.00	537.00	537.50	538.00	539.00	539.50	540.00	541.00	541.50	542.00	543.00	543.50	544.00	545.00	545.50	546.00	547.00	547.50	548.00	548.50	549.00	549.50	550.00	551.00	552.00	552.00	553.00	553.00	553.50	554.00	554.00	555.00	555.00	555.50	556.00	556.00	556.50	557.00	557.00	557.50	558.00	558.00	558.00	558.50	559.00	559.00	559.00	559.00	560.00	560.00	560.00	560.00	560.50	561.00	561.00	561.00	562.00	562.00	562.00	562.50	563.00	563.50	564.00	564.00	564.00	564.00	564.00	564.00	564.00	564.00	564.50	565.00	565.00	565.00	565.50	566.00	565.50	565.00	565.00	565.00	565.00	565.00	565.00	565.00	565.00	565.00	565.00	565.00	565.00	565.00	565.50	566.00	566.00	566.50	567.00	567.00	567.50	568.00	569.00	569.00	569.50	571.00	571.50	572.00	573.50	574.00	574.50	575.50	576.50	577.00	578.00	578.50	579.50	580.50	581.50	582.00	583.00	584.00	585.00	586.00	586.50	587.50	588.50	589.50	590.00	591.00	592.00	592.50	594.00	594.50	595.50	596.00	597.00	598.00	599.00	600.00	600.50	601.00	602.00	603.00	603.50	605.00	605.00	606.50	607.00	608.50	609.00	609.50	611.00	611.50	613.00	614.00	614.50	615.50	617.00	617.50	618.50	620.00	621.00	621.50	623.00	624.50	625.00	626.00	627.00	628.50	630.00	631.50	632.50	633.50	635.50	636.50	637.00	638.00	639.50	640.50	642.50	643.50	644.50	646.00	647.00	649.00	650.00	651.50	653.00	655.00	656.50	657.50	659.00	660.00	661.50	663.00	664.50	665.50	666.50
481.50	483.00	484.50	485.00	485.50	487.50	488.50	490.00	490.00	491.50	492.50	494.00	494.50	495.50	497.00	498.50	499.00	500.00	501.50	502.50	503.00	504.50	505.00	506.00	507.00	507.50	508.50	509.50	510.50	511.00	512.00	513.00	514.00	515.00	515.50	516.50	518.00	518.50	519.00	520.00	521.00	521.50	522.50	523.50	524.00	525.00	526.00	526.50	527.00	528.50	529.00	529.50	530.00	531.00	531.00	532.00	533.00	533.50	534.50	535.00	535.50	536.00	537.00	537.50	538.00	539.00	539.50	540.00	541.00	541.50	542.00	543.00	543.50	544.00	545.00	545.50	546.00	547.00	547.50	548.00	548.50	549.00	549.50	550.00	551.00	552.00	552.00	553.00	553.00	553.50	554.00	554.00	555.00	555.00	555.50	556.00	556.00	556.50	557.00	557.00	557.50	558.00	558.00	558.00	558.50	559.00	559.00	559.00	559.00	560.00	560.00	560.00	560.00	560.50	561.00	561.00	561.00	562.00	562.00	562.00	562.50	563.00	563.50	564.00	564.00	564.00	564.00	564.00	564.00	564.00	564.00	564.50	565.00	565.00	565.00	565.50	566.00	565.50	565.00	565.00	565.00	565.00	565.00	565.00	565.00	565.00	565.00	565.00	565.00	565.00	565.00	565.50	566.00	566.00	566.50	567.00	567.00	567.50	568.00	569.00	569.00	569.50	571.00	571.50	572.00	573.50	574.00	574.50	575.50	576.50	577.00	578.00	578.50	579.50	580.50	581.50	582.00	583.00	584.00	585.00	586.00	586.50	587.50	588.50	589.50	590.00	591.00	592.00	592.50	594.00	594.50	595.50	596.00	597.00	598.00	599.00	600.00	600.50	601.00	602.00	603.00	603.50	605.00	605.00	606.50	607.00	608.50	609.00	609.50	611.00	611.50	613.00	614.00	614.50	615.50	617.00	617.50	618.50	620.00	621.00	621.50	623.00	624.50	625.00	626.00	627.00	628.50	630.00	631.50	632.50	633.50	635.50	636.50	637.00	638.00	639.50	640.50	642.50	643.50	644.50	646.00	647.00	649.00	650.00	651.50	653.00	655.00	656.50	657.50	659.00	660.00	661.50	663.00	664.50	665.50	666.50
481.50	483.00	484.50	485.00	485.50	487.50	488.50	490.00	490.00	491.50	492.50	494.00	494.50	495.50	497.00	498.50	499.00	500.00	501.50	502.50	503.00	504.50	505.00	506.00	507.00	507.50	508.50	509.50	510.50	511.00	512.00	513.00	514.00	515.00	515.50	516.50	518.00	518.50	519.00	520.00	521.00	521.50	522.50	523.50	524.00	525.00	526.00	526.50	527.00	528.50	529.00	529.50	530.00	531.00	531.00	532.00	533.00	533.50	534.50	535.00	535.50	536.00	537.00	537.50	538.00	539.00	539.50	540.00	541.00	541.50	542.00	543.00	543.50	544.00	545.00	545.50	546.00	547.00	547.50	548.00	548.50	549.00	549.50	550.00	551.00	552.00	552.00	553.00	553.00	553.50	554.00	554.00	555.00	555.00	555.50	556.00	556.00	556.50	557.00	557.00	557.50	558.00	558.00	558.00	558.50	559.00	559.00	559.00	559.00	560.00	560.00	560.00	560.00	560.50	561.00	561.00	561.00	562.00	562.00	562.00	562.50	563.00	563.50	564.00	564.00	564.00	564.00	564.00	564.00	564.00	564.00	564.50	565.00	565.00	565.00	565.50	566.00	565.50	565.00	565.00	565.00	565.00	565.00	565.00	565.00	565.00	565.00	565.00	565.00	565.00	565.00	565.50	566.00	566.00	566.50	567.00	567.00	567.50	568.00	569.00	569.00	569.50	571.00	571.50	572.00	573.50	574.00	574.50	575.50	576.50	577.00	578.00	578.50	579.50	580.50	581.50	582.00	583.00	584.00	585.00	586.00	586.50	587.50	588.50	589.50	590.00	591.00	592.00	592.50	594.00	594.50	595.50	596.00	597.00	598.00	599.00	600.00	600.50	601.00	602.00	603.00	603.50	605.00	605.00	606.50	607.00	608.50	609.00	609.50	611.00	611.50	613.00	614.00	614.50	615.50	617.00	617.50	618.50	620.00	621.00	621.50	623.00	624.50	625.00	626.00	627.00	628.50	630.00	631.50	632.50	633.50	635.50	636.50	637.00	638.00	639.50	640.50	642.50	643.50	644.50	646.00	647.00	649.00	650.00	651.50	653.00	655.00	656.50	657.50	659.00	660.00	661.50	663.00	664.50	665.50	666.50
481.50	483.00	484.50	485.00	485.50	487.50	488.50	490.00	490.00	491.50	492.50	494.00	494.50	495.50	497.00	498.50	499.00	500.00	501.50	502.50	503.00	504.50	505.00	506.00	507.00	507.50	508.50	509.50	510.50	511.00	512.00	513.00	514.00	515.00	515.50	516.50	518.00	518.50	519.00	520.00	521.00	521.50	522.50	523.50	524.00	525.00	526.00	526.50	527.00	528.50	529.00	529.50	530.00	531.00	531.00	532.00	533.00	533.50	534.50	535.00	535.50	536.00	537.00	537.50	538.00	539.00	539.50	540.00	541.00	541.50	542.00	543.00	543.50	544.00	545.00	545.50	546.00	547.00	547.50	548.00	548.50	549.00	549.50	550.00	551.00	552.00	552.00	553.00	553.00	553.50	554.00	554.00	555.00	555.00	555.50	556.00	556.00	556.50	557.00	557.00	557.50	558.00	558.00	558.00	558.50	559.00	559.00	559.00	559.00	560.00	560.00	560.00	560.00	560.50	561.00	561.00	561.00	562.00	562.00	562.00	562.50	563.00	563.50	564.00	564.00	564.00	564.00	564.00	564.00	564.00	564.00	564.50	565.00	565.00	565.00	565.50	566.00	565.50	565.00	565.00	565.00	565.00	565.00	565.00	565.00	565.00	565.00	565.00	565.00	565.00	565.00	565.50	566.00	566.00	566.50	567.00	567.00	567.50	568.00	569.00	569.00	569.50	571.00	571.50	572.00	573.50	574.00	574.50	575.50	576.50	577.00	578.00	578.50	579.50	580.50	581.50	582.00	583.00	584.00	585.00	586.00	586.50	587.50	588.50	589.50	590.00	591.00	592.00	592.50	594.00	594.50	595.50	596.00	597.00	598.00	599.00	600.00	600.50	601.00	602.00	603.00	603.50	605.00	605.00	606.50	607.00	608.50	609.00	609.50	611.00	611.50	613.00	614.00	614.50	615.50	617.00	617.50	618.50	620.00	621.00	621.50	623.00	624.50	625.00	626.00	627.00	628.50	630.00	631.50	632.50	633.50	635.50	636.50	637.00	638.00	639.50	640.50	642.50	643.50	644.50	646.00	647.00	649.00	650.00	651.50	653.00	655.00	656.50	657.50	659.00	660.00	661.50	663.00	664.50	665.50	666.50
481.50	483.00	484.50	485.00	485.50	487.50	488.50	490.00	490.00	491.50	492.50	494.00	494.50	495.50	497.00	498.50	499.00	500.00	501.50	502.50	503.00	504.50	505.00	506.00	507.00	507.50	508.50	509.50	510.50	511.00	512.00	513.00	514.00	515.00	515.50	516.50	518.00	518.50	519.00	520.00	521.00	521.50	522.50	523.50	524.00	525.00	526.00	526.50	527.00	528.50	529.00	529.50	530.00	531.00	531.00	532.00	533.00	533.50	534.50	535.00	535.50	536.00	537.00	537.50	538.00	539.00	539.50	540.00	541.00	541.50	542.00	543.00	543.50	544.00	545.00	545.50	546.00	547.00	547.50	548.00	548.50	549.00	549.50	550.00	551.00	552.00	552.00	553.00	553.00	553.50	554.00	554.00	555.00	555.00	555.50	556.00	556.00	556.50	557.00	557.00	557.50	558.00	558.00	558.00	558.50	559.00	559.00	559.00	559.00	560.00	560.00	560.00	560.00	560.50	561.00	561.00	561.00	562.00	562.00	562.00	562.50	563.00	563.50	564.00	564.00	564.00	564.00	564.00	564.00	564.00	564.00	564.50	565.00	565.00	565.00	565.50	566.00	565.50	565.00	565.00	565.00	565.00	565.00	565.00	565.00	565.00	565.00	565.00	565.00	565.00	565.00	565.50	566.00	566.00	566.50	567.00	567.00	567.50	568.00	569.00	569.00	569.50	571.00	571.50	572.00	573.50	574.00	574.50	575.50	576.50	577.00	578.00	578.50	579.50	580.50	581.50	582.00	583.00	584.00	585.00	586.00	586.50	587.50	588.50	589.50	590.00	591.00	592.00	592.50	594.00	594.50	595.50	596.00	597.00	598.00	599.00	600.00	600.50	601.00	602.00	603.00	603.50	605.00	605.00	606.50	607.00	608.50	609.00	609.50	611.00	611.50	613.00	614.00	614.50	615.50	617.00	617.50	618.50	620.00	621.00	621.50	623.00	624.50	625.00	626.00	627.00	628.50	630.00	631.50	632.50	633.50	635.50	636.50	637.00	638.00	639.50	640.50	642.50	643.50	644.50	646.00	647.00	649.00	650.00	651.50	653.00	655.00	656.50	657.50	659.00	660.00	661.50	663.00	664.50	665.50	666.50
481.00	482.50	483.50	484.25	485.00	486.50	487.50	489.00	489.00	490.50	491.50	492.75	493.50	494.25	495.50	496.75	497.50	498.50	499.50	500.50	501.00	502.50	503.00	504.00	505.00	505.50	506.50	507.25	508.00	508.50	509.50	510.50	511.50	512.25	513.00	513.75	515.00	515.75	516.50	517.50	518.25	519.00	520.00	520.75	521.25	522.50	523.00	523.75	524.50	525.75	526.25	527.00	527.50	528.75	529.00	530.00	531.00	531.50	532.50	533.25	533.75	534.50	535.25	535.75	536.50	537.50	538.00	538.50	539.50	540.00	540.50	541.50	542.00	542.50	543.50	544.00	544.50	545.50	545.75	546.50	547.00	547.50	548.00	548.50	549.25	550.00	550.50	551.25	551.50	552.00	552.75	553.00	553.50	554.00	554.50	555.00	555.25	555.75	556.00	556.50	556.75	557.00	557.50	557.50	557.75	558.50	558.50	558.50	558.50	559.50	559.50	559.50	559.75	560.25	560.50	560.50	560.75	561.50	561.50	561.75	562.25	562.50	563.00	563.50	563.50	563.75	564.00	564.00	564.25	564.50	564.50	564.75	565.00	565.50	565.50	565.75	566.00	565.75	565.50	566.00	566.00	566.00	566.00	566.00	566.00	566.00	566.00	566.00	566.00	566.00	566.00	566.50	567.00	567.00	567.25	567.50	568.00	568.25	569.00	569.75	570.00	570.25	571.50	572.00	572.50	573.75	574.25	574.75	575.75	576.50	577.50	578.00	579.00	579.75	581.00	581.75	582.25	583.50	584.00	585.50	586.00	587.00	587.75	588.75	589.75	590.25	591.50	592.00	593.00	594.00	594.75	595.50	596.25	597.00	598.25	599.00	600.00	600.75	601.25	602.25	603.25	603.75	605.00	605.00	606.25	607.00	608.25	608.75	609.50	610.50	611.50	613.00	613.50	614.25	615.00	616.50	617.00	617.75	619.00	620.25	620.75	622.00	623.50	624.25	625.00	626.00	627.50	628.50	630.00	631.00	631.75	633.50	634.50	635.50	636.50	638.00	639.00	641.00	642.00	643.00	644.50	645.50	647.50	648.50	650.00	651.25	653.00	654.50	655.50	657.00	658.00	659.50	661.00	662.50	663.50	664.50
480.50	482.00	482.50	483.50	484.50	485.50	486.50	488.00	488.00	489.50	490.50	491.50	492.50	493.00	494.00	495.00	496.00	497.00	497.50	498.50	499.00	500.50	501.00	502.00	503.00	503.50	504.50	505.00	505.50	506.00	507.00	508.00	509.00	509.50	510.50	511.00	512.00	513.00	514.00	515.00	515.50	516.50	517.50	518.00	518.50	520.00	520.00	521.00	522.00	523.00	523.50	524.50	525.00	526.50	527.00	528.00	529.00	529.50	530.50	531.50	532.00	533.00	533.50	534.00	535.00	536.00	536.50	537.00	538.00	538.50	539.00	540.00	540.50	541.00	542.00	542.50	543.00	544.00	544.00	545.00	545.50	546.00	546.50	547.00	547.50	548.00	549.00	549.50	550.00	550.50	551.50	552.00	552.00	553.00	553.50	554.00	554.50	555.00	555.00	556.00	556.00	556.00	557.00	557.00	557.00	558.00	558.00	558.00	558.00	559.00	559.00	559.00	559.50	560.00	560.00	560.00	560.50	561.00	561.00	561.50	562.00	562.00	562.50	563.00	563.00	563.50	564.00	564.00	564.50	565.00	565.00	565.00	565.00	566.00	566.00	566.00	566.00	566.00	566.00	567.00	567.00	567.00	567.00	567.00	567.00	567.00	567.00	567.00	567.00	567.00	567.00	567.50	568.00	568.00	568.00	568.00	569.00	569.00	570.00	570.50	571.00	571.00	572.00	572.50	573.00	574.00	574.50	575.00	576.00	576.50	578.00	578.00	579.50	580.00	581.50	582.00	582.50	584.00	584.00	586.00	586.00	587.50	588.00	589.00	590.00	590.50	592.00	592.00	593.50	594.00	595.00	595.50	596.50	597.00	598.50	599.00	600.00	601.00	601.50	602.50	603.50	604.00	605.00	605.00	606.00	607.00	608.00	608.50	609.50	610.00	611.50	613.00	613.00	614.00	614.50	616.00	616.50	617.00	618.00	619.50	620.00	621.00	622.50	623.50	624.00	625.00	626.50	627.00	628.50	629.50	630.00	631.50	632.50	634.00	635.00	636.50	637.50	639.50	640.50	641.50	643.00	644.00	646.00	647.00	648.50	649.50	651.00	652.50	653.50	655.00	656.00	657.50	659.00	660.50	661.50	662.50
480.50	482.00	482.50	483.50	484.50	485.50	486.50	488.00	488.00	489.50	490.50	491.50	492.50	493.00	494.00	495.00	496.00	497.00	497.50	498.50	499.00	500.50	501.00	502.00	503.00	503.50	504.50	505.00	505.50	506.00	507.00	508.00	509.00	509.50	510.50	511.00	512.00	513.00	514.00	515.00	515.50	516.50	517.50	518.00	518.50	520.00	520.00	521.00	522.00	523.00	523.50	524.50	525.00	526.50	527.00	528.00	529.00	529.50	530.50	531.50	532.00	533.00	533.50	534.00	535.00	536.00	536.50	537.00	538.00	538.50	539.00	540.00	540.50	541.00	542.00	542.50	543.00	544.00	544.00	545.00	545.50	546.00	546.50	547.00	547.50	548.00	549.00	549.50	550.00	550.50	551.50	552.00	552.00	553.00	553.50	554.00	554.50	555.00	555.00	556.00	556.00	556.00	557.00	557.00	557.00	558.00	558.00	558.00	558.00	559.00	559.00	559.00	559.50	560.00	560.00	560.00	560.50	561.00	561.00	561.50	562.00	562.00	562.50	563.00	563.00	563.50	564.00	564.00	564.50	565.00	565.00	565.00	565.00	566.00	566.00	566.00	566.00	566.00	566.00	567.00	567.00	567.00	567.00	567.00	567.00	567.00	567.00	567.00	567.00	567.00	567.00	567.50	568.00	568.00	568.00	568.00	569.00	569.00	570.00	570.50	571.00	571.00	572.00	572.50	573.00	574.00	574.50	575.00	576.00	576.50	578.00	578.00	579.50	580.00	581.50	582.00	582.50	584.00	584.00	586.00	586.00	587.50	588.00	589.00	590.00	590.50	592.00	592.00	593.50	594.00	595.00	595.50	596.50	597.00	598.50	599.00	600.00	601.00	601.50	602.50	603.50	604.00	605.00	605.00	606.00	607.00	608.00	608.50	609.50	610.00	611.50	613.00	613.00	614.00	614.50	616.00	616.50	617.00	618.00	619.50	620.00	621.00	622.50	623.50	624.00	625.00	626.50	627.00	628.50	629.50	630.00	631.50	632.50	634.00	635.00	636.50	637.50	639.50	640.50	641.50	643.00	644.00	646.00	647.00	648.50	649.50	651.00	652.50	653.50	655.00	656.00	657.50	659.00	660.50	661.50	662.50
480.50	482.00	482.50	483.50	484.50	485.50	486.50	488.00	488.00	489.50	490.50	491.50	492.50	493.00	494.00	495.00	496.00	497.00	497.50	498.50	499.00	500.50	501.00	502.00	503.00	503.50	504.50	505.00	505.50	506.00	507.00	508.00	509.00	509.50	510.50	511.00	512.00	513.00	514.00	515.00	515.50	516.50	517.50	518.00	518.50	520.00	520.00	521.00	522.00	523.00	523.50	524.50	525.00	526.50	527.00	528.00	529.00	529.50	530.50	531.50	532.00	533.00	533.50	534.00	535.00	536.00	536.50	537.00	538.00	538.50	539.00	540.00	540.50	541.00	542.00	542.50	543.00	544.00	544.00	545.00	545.50	546.00	546.50	547.00	547.50	548.00	549.00	549.50	550.00	550.50	551.50	552.00	552.00	553.00	553.50	554.00	554.50	555.00	555.00	556.00	556.00	556.00	557.00	557.00	557.00	558.00	558.00	558.00	558.00	559.00	559.00	559.00	559.50	560.00	560.00	560.00	560.50	561.00	561.00	561.50	562.00	562.00	562.50	563.00	563.00	563.50	564.00	564.00	564.50	565.00	565.00	565.00	565.00	566.00	566.00	566.00	566.00	566.00	566.00	567.00	567.00	567.00	567.00	567.00	567.00	567.00	567.00	567.00	567.00	567.00	567.00	567.50	568.00	568.00	568.00	568.00	569.00	569.00	570.00	570.50	571.00	571.00	572.00	572.50	573.00	574.00	574.50	575.00	576.00	576.50	578.00	578.00	579.50	580.00	581.50	582.00	582.50	584.00	584.00	586.00	586.00	587.50	588.00	589.00	590.00	590.50	592.00	592.00	593.50	594.00	595.00	595.50	596.50	597.00	598.50	599.00	600.00	601.00	601.50	602.50	603.50	604.00	605.00	605.00	606.00	607.00	608.00	608.50	609.50	610.00	611.50	613.00	613.00	614.00	614.50	616.00	616.50	617.00	618.00	619.50	620.00	621.00	622.50	623.50	624.00	625.00	626.50	627.00	628.50	629.50	630.00	631.50	632.50	634.00	635.00	636.50	637.50	639.50	640.50	641.50	643.00	644.00	646.00	647.00	648.50	649.50	651.00	652.50	653.50	655.00	656.00	657.50	659.00	660.50	661.50	662.50
480.50	482.00	482.50	483.50	484.50	485.50	486.50	488.00	488.00	489.50	490.50	491.50	492.50	493.00	494.00	495.00	496.00	497.00	497.50	498.50	499.00	500.50	501.00	502.00	503.00	503.50	504.50	505.00	505.50	506.00	507.00	508.00	509.00	509.50	510.50	511.00	512.00	513.00	514.00	515.00	515.50	516.50	517.50	518.00	518.50	520.00	520.00	521.00	522.00	523.00	523.50	524.50	525.00	526.50	527.00	528.00	529.00	529.50	530.50	531.50	532.00	533.00	533.50	534.00	535.00	536.00	536.50	537.00	538.00	538.50	539.00	540.00	540.50	541.00	542.00	542.50	543.00	544.00	544.00	545.00	545.50	546.00	546.50	547.00	547.50	548.00	549.00	549.50	550.00	550.50	551.50	552.00	552.00	553.00	553.50	554.00	554.50	555.00	555.00	556.00	556.00	556.00	557.00	557.00	557.00	558.00	558.00	558.00	558.00	559.00	559.00	559.00	559.50	560.00	560.00	560.00	560.50	561.00	561.00	561.50	562.00	562.00	562.50	563.00	563.00	563.50	564.00	564.00	564.50	565.00	565.00	565.00	565.00	566.00	566.00	566.00	566.00	566.00	566.00	567.00	567.00	567.00	567.00	567.00	567.00	567.00	567.00	567.00	567.00	567.00	567.00	567.50	568.00	568.00	568.00	568.00	569.00	569.00	570.00	570.50	571.00	571.00	572.00	572.50	573.00	574.00	574.50	575.00	576.00	576.50	578.00	578.00	579.50	580.00	581.50	582.00	582.50	584.00	584.00	586.00	586.00	587.50	588.00	589.00	590.00	590.50	592.00	592.00	593.50	594.00	595.00	595.50	596.50	597.00	598.50	599.00	600.00	601.00	601.50	602.50	603.50	604.00	605.00	605.00	606.00	607.00	608.00	608.50	609.50	610.00	611.50	613.00	613.00	614.00	614.50	616.00	616.50	617.00	618.00	619.50	620.00	621.00	622.50	623.50	624.00	625.00	626.50	627.00	628.50	629.50	630.00	631.50	632.50	634.00	635.00	636.50	637.50	639.50	640.50	641.50	643.00	644.00	646.00	647.00	648.50	649.50	651.00	652.50	653.50	655.00	656.00	657.50	659.00	660.50	661.50	662.50
480.50	482.00	482.50	483.50	484.50	485.50	486.50	488.00	488.00	489.50	490.50	491.50	492.50	493.00	494.00	495.00	496.00	497.00	497.50	498.50	499.00	500.50	501.00	502.00	503.00	503.50	504.50	505.00	505.50	506.00	507.00	508.00	509.00	509.50	510.50	511.00	512.00	513.00	514.00	515.00	515.50	516.50	517.50	518.00	518.50	520.00	520.00	521.00	522.00	523.00	523.50	524.50	525.00	526.50	527.00	528.00	529.00	529.50	530.50	531.50	532.00	533.00	533.50	534.00	535.00	536.00	536.50	537.00	538.00	538.50	539.00	540.00	540.50	541.00	542.00	542.50	543.00	544.00	544.00	545.00	545.50	546.00	546.50	547.00	547.50	548.00	549.00	549.50	550.00	550.50	551.50	552.00	552.00	553.00	553.50	554.00	554.50	555.00	555.00	556.00	556.00	556.00	557.00	557.00	557.00	558.00	558.00	558.00	558.00	559.00	559.00	559.00	559.50	560.00	560.00	560.00	560.50	561.00	561.00	561.50	562.00	562.00	562.50	563.00	563.00	563.50	564.00	564.00	564.50	565.00	565.00	565.00	565.00	566.00	566.00	566.00	566.00	566.00	566.00	567.00	567.00	567.00	567.00	567.00	567.00	567.00	567.00	567.00	567.00	567.00	567.00	567.50	568.00	568.00	568.00	568.00	569.00	569.00	570.00	570.50	571.00	571.00	572.00	572.50	573.00	574.00	574.50	575.00	576.00	576.50	578.00	578.00	579.50	580.00	581.50	582.00	582.50	584.00	584.00	586.00	586.00	587.50	588.00	589.00	590.00	590.50	592.00	592.00	593.50	594.00	595.00	595.50	596.50	597.00	598.50	599.00	600.00	601.00	601.50	602.50	603.50	604.00	605.00	605.00	606.00	607.00	608.00	608.50	609.50	610.00	611.50	613.00	613.00	614.00	614.50	616.00	616.50	617.00	618.00	619.50	620.00	621.00	622.50	623.50	624.00	625.00	626.50	627.00	628.50	629.50	630.00	631.50	632.50	634.00	635.00	636.50	637.50	639.50	640.50	641.50	643.00	644.00	646.00	647.00	648.50	649.50	651.00	652.50	653.50	655.00	656.00	657.50	659.00	660.50	661.50	662.50
480.50	482.00	482.50	483.50	484.50	485.50	486.50	488.00	488.00	489.50	490.50	491.50	492.50	493.00	494.00	495.00	496.00	497.00	497.50	498.50	499.00	500.50	501.00	502.00	503.00	503.50	504.50	505.00	505.50	506.00	507.00	508.00	509.00	509.50	510.50	511.00	512.00	513.00	514.00	515.00	515.50	516.50	517.50	518.00	518.50	520.00	520.00	521.00	522.00	523.00	523.50	524.50	525.00	526.50	527.00	528.00	529.00	529.50	530.50	531.50	532.00	533.00	533.50	534.00	535.00	536.00	536.50	537.00	538.00	538.50	539.00	540.00	540.50	541.00	542.00	542.50	543.00	544.00	544.00	545.00	545.50	546.00	546.50	547.00	547.50	548.00	549.00	549.50	550.00	550.50	551.50	552.00	552.00	553.00	553.50	554.00	554.50	555.00	555.00	556.00	556.00	556.00	557.00	557.00	557.00	558.00	558.00	558.00	558.00	559.00	559.00	559.00	559.50	560.00	560.00	560.00	560.50	561.00	561.00	561.50	562.00	562.00	562.50	563.00	563.00	563.50	564.00	564.00	564.50	565.00	565.00	565.00	565.00	566.00	566.00	566.00	566.00	566.00	566.00	567.00	567.00	567.00	567.00	567.00	567.00	567.00	567.00	567.00	567.00	567.00	567.00	567.50	568.00	568.00	568.00	568.00	569.00	569.00	570.00	570.50	571.00	571.00	572.00	572.50	573.00	574.00	574.50	575.00	576.00	576.50	578.00	578.00	579.50	580.00	581.50	582.00	582.50	584.00	584.00	586.00	586.00	587.50	588.00	589.00	590.00	590.50	592.00	592.00	593.50	594.00	595.00	595.50	596.50	597.00	598.50	599.00	600.00	601.00	601.50	602.50	603.50	604.00	605.00	605.00	606.00	607.00	608.00	608.50	609.50	610.00	611.50	613.00	613.00	614.00	614.50	616.00	616.50	617.00	618.00	619.50	620.00	621.00	622.50	623.50	624.00	625.00	626.50	627.00	628.50	629.50	630.00	631.50	632.50	634.00	635.00	636.50	637.50	639.50	640.50	641.50	643.00	644.00	646.00	647.00	648.50	649.50	651.00	652.50	653.50	655.00	656.00	657.50	659.00	660.50	661.50	662.50
480.50	482.00	482.50	483.50	484.50	485.50	486.50	488.00	488.00	489.50	490.50	491.50	492.50	493.00	494.00	495.00	496.00	497.00	497.50	498.50	499.00	500.50	501.00	502.00	503.00	503.50	504.50	505.00	505.50	506.00	507.00	508.00	509.00	509.50	510.50	511.00	512.00	513.00	514.00	515.00	515.50	516.50	517.50	518.00	518.50	520.00	520.00	521.00	522.00	523.00	523.50	524.50	525.00	526.50	527.00	528.00	529.00	529.50	530.50	531.50	532.00	533.00	533.50	534.00	535.00	536.00	536.50	537.00	538.00	538.50	539.00	540.00	540.50	541.00	542.00	542.50	543.00	544.00	544.00	545.00	545.50	546.00	546.50	547.00	547.50	548.00	549.00	549.50	550.00	550.50	551.50	552.00	552.00	553.00	553.50	554.00	554.50	555.00	555.00	556.00	556.00	556.00	557.00	557.00	557.00	558.00	558.00	558.00	558.00	559.00	559.00	559.00	559.50	560.00	560.00	560.00	560.50	561.00	561.00	561.50	562.00	562.00	562.50	563.00	563.00	563.50	564.00	564.00	564.50	565.00	565.00	565.00	565.00	566.00	566.00	566.00	566.00	566.00	566.00	567.00	567.00	567.00	567.00	567.00	567.00	567.00	567.00	567.00	567.00	567.00	567.00	567.50	568.00	568.00	568.00	568.00	569.00	569.00	570.00	570.50	571.00	571.00	572.00	572.50	573.00	574.00	574.50	575.00	576.00	576.50	578.00	578.00	579.50	580.00	581.50	582.00	582.50	584.00	584.00	586.00	586.00	587.50	588.00	589.00	590.00	590.50	592.00	592.00	593.50	594.00	595.00	595.50	596.50	597.00	598.50	599.00	600.00	601.00	601.50	602.50	603.50	604.00	605.00	605.00	606.00	607.00	608.00	608.50	609.50	610.00	611.50	613.00	613.00	614.00	614.50	616.00	616.50	617.00	618.00	619.50	620.00	621.00	622.50	623.50	624.00	625.00	626.50	627.00	628.50	629.50	630.00	631.50	632.50	634.00	635.00	636.50	637.50	639.50	640.50	641.50	643.00	644.00	646.00	647.00	648.50	649.50	651.00	652.50	653.50	655.00	656.00	657.50	659.00	660.50	661.50	662.50
480.50	481.50	482.25	483.00	484.00	485.00	486.00	487.00	487.50	488.50	489.50	490.50	491.25	491.75	492.50	493.50	494.50	495.00	495.75	496.50	497.50	498.50	499.00	500.00	500.75	501.25	502.25	503.00	503.50	504.00	505.00	505.75	506.50	507.25	508.00	508.50	509.50	510.50	511.50	512.00	513.00	513.75	514.50	515.25	516.00	517.00	517.50	518.50	519.50	520.25	521.00	521.75	522.50	523.75	524.50	525.50	526.25	527.00	528.00	529.00	529.50	530.50	531.25	531.75	533.00	533.75	534.25	535.00	535.75	536.25	537.00	537.75	538.25	538.75	539.75	540.25	541.00	541.50	542.00	543.00	543.25	543.75	544.25	545.00	545.50	546.00	547.00	547.50	548.00	548.50	549.50	550.00	550.50	551.00	551.75	552.50	553.00	553.50	553.50	554.50	554.75	555.00	555.50	556.00	556.00	556.50	556.75	557.00	557.00	557.75	558.00	558.00	558.50	559.00	559.00	559.00	559.75	560.00	560.25	560.75	561.00	561.25	561.75	562.50	562.50	563.00	563.50	563.75	564.25	564.50	564.50	565.00	565.00	565.50	565.75	566.00	566.00	566.00	566.00	567.00	567.00	567.00	567.00	567.00	567.00	567.25	567.50	567.50	567.50	568.00	568.00	568.25	568.75	569.00	569.00	569.50	570.00	570.00	571.00	571.25	571.75	572.00	573.00	573.50	574.00	575.25	575.75	576.25	577.25	578.00	579.00	579.50	580.50	581.25	582.50	583.25	583.75	585.00	585.50	587.00	587.50	588.50	589.25	590.25	591.00	591.50	593.00	593.50	594.50	595.50	596.25	597.00	598.00	598.50	599.75	600.50	601.50	602.25	602.75	603.75	604.75	605.25	606.00	606.50	607.50	608.50	609.25	610.00	610.75	611.50	612.50	613.50	614.00	614.75	615.50	616.75	617.25	617.75	619.00	620.00	620.50	621.50	622.75	623.50	624.00	625.00	626.00	627.00	628.00	629.00	629.75	631.25	632.00	633.50	634.50	635.50	636.50	638.50	639.50	640.50	642.00	643.00	645.00	646.00	647.50	648.50	650.00	651.50	652.50	654.00	655.00	656.50	658.00	659.50	660.25	661.00
480.50	481.00	482.00	482.50	483.50	484.50	485.50	486.00	487.00	487.50	488.50	489.50	490.00	490.50	491.00	492.00	493.00	493.00	494.00	494.50	496.00	496.50	497.00	498.00	498.50	499.00	500.00	501.00	501.50	502.00	503.00	503.50	504.00	505.00	505.50	506.00	507.00	508.00	509.00	509.00	510.50	511.00	511.50	512.50	513.50	514.00	515.00	516.00	517.00	517.50	518.50	519.00	520.00	521.00	522.00	523.00	523.50	524.50	525.50	526.50	527.00	528.00	529.00	529.50	531.00	531.50	532.00	533.00	533.50	534.00	535.00	535.50	536.00	536.50	537.50	538.00	539.00	539.00	540.00	541.00	541.00	541.50	542.00	543.00	543.50	544.00	545.00	545.50	546.00	546.50	547.50	548.00	549.00	549.00	550.00	551.00	551.50	552.00	552.00	553.00	553.50	554.00	554.00	555.00	555.00	555.00	555.50	556.00	556.00	556.50	557.00	557.00	557.50	558.00	558.00	558.00	559.00	559.00	559.50	560.00	560.00	560.50	561.00	562.00	562.00	562.50	563.00	563.50	564.00	564.00	564.00	565.00	565.00	565.00	565.50	566.00	566.00	566.00	566.00	567.00	567.00	567.00	567.00	567.00	567.00	567.50	568.00	568.00	568.00	569.00	569.00	569.00	569.50	570.00	570.00	571.00	571.00	571.00	572.00	572.00	572.50	573.00	574.00	574.50	575.00	576.50	577.00	577.50	578.50	579.50	580.00	581.00	581.50	582.50	583.50	584.50	585.00	586.00	587.00	588.00	589.00	589.50	590.50	591.50	592.00	592.50	594.00	595.00	595.50	597.00	597.50	598.50	599.50	600.00	601.00	602.00	603.00	603.50	604.00	605.00	606.00	606.50	607.00	608.00	609.00	610.00	610.50	611.50	612.00	613.00	613.50	614.00	615.00	615.50	616.50	617.50	618.00	618.50	620.00	620.50	621.00	622.00	623.00	623.50	624.00	625.00	625.50	627.00	627.50	628.50	629.50	631.00	631.50	633.00	634.00	634.50	635.50	637.50	638.50	639.50	641.00	642.00	644.00	645.00	646.50	647.50	649.00	650.50	651.50	653.00	654.00	655.50	657.00	658.50	659.00	659.50
480.50	481.00	482.00	482.50	483.50	484.50	485.50	486.00	487.00	487.50	488.50	489.50	490.00	490.50	491.00	492.00	493.00	493.00	494.00	494.50	496.00	496.50	497.00	498.00	498.50	499.00	500.00	501.00	501.50	502.00	503.00	503.50	504.00	505.00	505.50	506.00	507.00	508.00	509.00	509.00	510.50	511.00	511.50	512.50	513.50	514.00	515.00	516.00	517.00	517.50	518.50	519.00	520.00	521.00	522.00	523.00	523.50	524.50	525.50	526.50	527.00	528.00	529.00	529.50	531.00	531.50	532.00	533.00	533.50	534.00	535.00	535.50	536.00	536.50	537.50	538.00	539.00	539.00	540.00	541.00	541.00	541.50	542.00	543.00	543.50	544.00	545.00	545.50	546.00	546.50	547.50	548.00	549.00	549.00	550.00	551.00	551.50	552.00	552.00	553.00	553.50	554.00	554.00	555.00	555.00	555.00	555.50	556.00	556.00	556.50	557.00	557.00	557.50	558.00	558.00	558.00	559.00	559.00	559.50	560.00	560.00	560.50	561.00	562.00	562.00	562.50	563.00	563.50	564.00	564.00	564.00	565.00	565.00	565.00	565.50	566.00	566.00	566.00	566.00	567.00	567.00	567.00	567.00	567.00	567.00	567.50	568.00	568.00	568.00	569.00	569.00	569.00	569.50	570.00	570.00	571.00	571.00	571.00	572.00	572.00	572.50	573.00	574.00	574.50	575.00	576.50	577.00	577.50	578.50	579.50	580.00	581.00	581.50	582.50	583.50	584.50	585.00	586.00	587.00	588.00	589.00	589.50	590.50	591.50	592.00	592.50	594.00	595.00	595.50	597.00	597.50	598.50	599.50	600.00	601.00	602.00	603.00	603.50	604.00	605.00	606.00	606.50	607.00	608.00	609.00	610.00	610.50	611.50	612.00	613.00	613.50	614.00	615.00	615.50	616.50	617.50	618.00	618.50	620.00	620.50	621.00	622.00	623.00	623.50	624.00	625.00	625.50	627.00	627.50	628.50	629.50	631.00	631.50	633.00	634.00	634.50	635.50	637.50	638.50	639.50	641.00	642.00	644.00	645.00	646.50	647.50	649.00	650.50	651.50	653.00	654.00	655.50	657.00	658.50	659.00	659.50
480.50	481.00	482.00	482.50	483.50	484.50	485.50	486.00	487.00	487.50	488.50	489.50	490.00	490.50	491.00	492.00	493.00	493.00	494.00	494.50	496.00	496.50	497.00	498.00	498.50	499.00	500.00	501.00	501.50	502.00	503.00	503.50	504.00	505.00	505.50	506.00	507.00	508.00	509.00	509.00	510.50	511.00	511.50	512.50	513.50	514.00	515.00	516.00	517.00	517.50	518.50	519.00	520.00	521.00	522.00	523.00	523.50	524.50	525.50	526.50	527.00	528.00	529.00	529.50	531.00	531.50	532.00	533.00	533.50	534.00	535.00	535.50	536.00	536.50	537.50	538.00	539.00	539.00	540.00	541.00	541.00	541.50	542.00	543.00	543.50	544.00	545.00	545.50	546.00	546.50	547.50	548.00	549.00	549.00	550.00	551.00	551.50	552.00	552.00	553.00	553.50	554.00	554.00	555.00	555.00	555.00	555.50	556.00	556.00	556.50	557.00	557.00	557.50	558.00	558.00	558.00	559.00	559.00	559.50	560.00	560.00	560.50	561.00	562.00	562.00	562.50	563.00	563.50	564.00	564.00	564.00	565.00	565.00	565.00	565.50	566.00	566.00	566.00	566.00	567.00	567.00	567.00	567.00	567.00	567.00	567.50	568.00	568.00	568.00	569.00	569.00	569.00	569.50	570.00	570.00	571.00	571.00	571.00	572.00	572.00	572.50	573.00	574.00	574.50	575.00	576.50	577.00	577.50	578.50	579.50	580.00	581.00	581.50	582.50	583.50	584.50	585.00	586.00	587.00	588.00	589.00	589.50	590.50	591.50	592.00	592.50	594.00	595.00	595.50	597.00	597.50	598.50	599.50	600.00	601.00	602.00	603.00	603.50	604.00	605.00	606.00	606.50	607.00	608.00	609.00	610.00	610.50	611.50	612.00	613.00	613.50	614.00	615.00	615.50	616.50	617.50	618.00	618.50	620.00	620.50	621.00	622.00	623.00	623.50	624.00	625.00	625.50	627.00	627.50	628.50	629.50	631.00	631.50	633.00	634.00	634.50	635.50	637.50	638.50	639.50	641.00	642.00	644.00	645.00	646.50	647.50	649.00	650.50	651.50	653.00	654.00	655.50	657.00	658.50	659.00	659.50
480.50	481.00	482.00	482.50	483.50	484.50	485.50	486.00	487.00	487.50	488.50	489.50	490.00	490.50	491.00	492.00	493.00	493.00	494.00	494.50	496.00	496.50	497.00	498.00	498.50	499.00	500.00	501.00	501.50	502.00	503.00	503.50	504.00	505.00	505.50	506.00	507.00	508.00	509.00	509.00	510.50	511.00	511.50	512.50	513.50	514.00	515.00	516.00	517.00	517.50	518.50	519.00	520.00	521.00	522.00	523.00	523.50	524.50	525.50	526.50	527.00	528.00	529.00	529.50	531.00	531.50	532.00	533.00	533.50	534.00	535.00	535.50	536.00	536.50	537.50	538.00	539.00	539.00	540.00	541.00	541.00	541.50	542.00	543.00	543.50	544.00	545.00	545.50	546.00	546.50	547.50	548.00	549.00	549.00	550.00	551.00	551.50	552.00	552.00	553.00	553.50	554.00	554.00	555.00	555.00	555.00	555.50	556.00	556.00	556.50	557.00	557.00	557.50	558.00	558.00	558.00	559.00	559.00	559.50	560.00	560.00	560.50	561.00	562.00	562.00	562.50	563.00	563.50	564.00	564.00	564.00	565.00	565.00	565.00	565.50	566.00	566.00	566.00	566.00	567.00	567.00	567.00	567.00	567.00	567.00	567.50	568.00	568.00	568.00	569.00	569.00	569.00	569.50	570.00	570.00	571.00	571.00	571.00	572.00	572.00	572.50	573.00	574.00	574.50	575.00	576.50	577.00	577.50	578.50	579.50	580.00	581.00	581.50	582.50	583.50	584.50	585.00	586.00	587.00	588.00	589.00	589.50	590.50	591.50	592.00	592.50	594.00	595.00	595.50	597.00	597.50	598.50	599.50	600.00	601.00	602.00	603.00	603.50	604.00	605.00	606.00	606.50	607.00	608.00	609.00	610.00	610.50	611.50	612.00	613.00	613.50	614.00	615.00	615.50	616.50	617.50	618.00	618.50	620.00	620.50	621.00	622.00	623.00	623.50	624.00	625.00	625.50	627.00	627.50	628.50	629.50	631.00	631.50	633.00	634.00	634.50	635.50	637.50	638.50	639.50	641.00	642.00	644.00	645.00	646.50	647.50	649.00	650.50	651.50	653.00	654.00	655.50	657.00	658.50	659.00	659.50
480.50	481.00	482.00	482.50	483.50	484.50	485.50	486.00	487.00	487.50	488.50	489.50	490.00	490.50	491.00	492.00	493.00	493.00	494.00	494.50	496.00	496.50	497.00	498.00	498.50	499.00	500.00	501.00	501.50	502.00	503.00	503.50	504.00	505.00	505.50	506.00	507.00	508.00	509.00	509.00	510.50	511.00	511.50	512.50	513.50	514.00	515.00	516.00	517.00	517.50	518.50	519.00	520.00	521.00	522.00	523.00	523.50	524.50	525.50	526.50	527.00	528.00	529.00	529.50	531.00	531.50	532.00	533.00	533.50	534.00	535.00	535.50	536.00	536.50	537.50	538.00	539.00	539.00	540.00	541.00	541.00	541.50	542.00	543.00	543.50	544.00	545.00	545.50	546.00	546.50	547.50	548.00	549.00	549.00	550.00	551.00	551.50	552.00	552.00	553.00	553.50	554.00	554.00	555.00	555.00	555.00	555.50	556.00	556.00	556.50	557.00	557.00	557.50	558.00	558.00	558.00	559.00	559.00	559.50	560.00	560.00	560.50	561.00	562.00	562.00	562.50	563.00	563.50	564.00	564.00	564.00	565.00	565.00	565.00	565.50	566.00	566.00	566.00	566.00	567.00	567.00	567.00	567.00	567.00	567.00	567.50	568.00	568.00	568.00	569.00	569.00	569.00	569.50	570.00	570.00	571.00	571.00	571.00	572.00	572.00	572.50	573.00	574.00	574.50	575.00	576.50	577.00	577.50	578.50	579.50	580.00	581.00	581.50	582.50	583.50	584.50	585.00	586.00	587.00	588.00	589.00	589.50	590.50	591.50	592.00	592.50	594.00	595.00	595.50	597.00	597.50	598.50	599.50	600.00	601.00	602.00	603.00	603.50	604.00	605.00	606.00	606.50	607.00	608.00	609.00	610.00	610.50	611.50	612.00	613.00	613.50	614.00	615.00	615.50	616.50	617.50	618.00	618.50	620.00	620.50	621.00	622.00	623.00	623.50	624.00	625.00	625.50	627.00	627.50	628.50	629.50	631.00	631.50	633.00	634.00	634.50	635.50	637.50	638.50	639.50	641.00	642.00	644.00	645.00	646.50	647.50	649.00	650.50	651.50	653.00	654.00	655.50	657.00	658.50	659.00	659.50
480.50	481.00	482.00	482.50	483.50	484.50	485.50	486.00	487.00	487.50	488.50	489.50	490.00	490.50	491.00	492.00	493.00	493.00	494.00	494.50	496.00	496.50	497.00	498.00	498.50	499.00	500.00	501.00	501.50	502.00	503.00	503.50	504.00	505.00	505.50	506.00	507.00	508.00	509.00	509.00	510.50	511.00	511.50	512.50	513.50	514.00	515.00	516.00	517.00	517.50	518.50	519.00	520.00	521.00	522.00	523.00	523.50	524.50	525.50	526.50	527.00	528.00	529.00	529.50	531.00	531.50	532.00	533.00	533.50	534.00	535.00	535.50	536.00	536.50	537.50	538.00	539.00	539.00	540.00	541.00	541.00	541.50	542.00	543.00	543.50	544.00	545.00	545.50	546.00	546.50	547.50	548.00	549.00	549.00	550.00	551.00	551.50	552.00	552.00	553.00	553.50	554.00	554.00	555.00	555.00	555.00	555.50	556.00	556.00	556.50	557.00	557.00	557.50	558.00	558.00	558.00	559.00	559.00	559.50	560.00	560.00	560.50	561.00	562.00	562.00	562.50	563.00	563.50	564.00	564.00	564.00	565.00	565.00	565.00	565.50	566.00	566.00	566.00	566.00	567.00	567.00	567.00	567.00	567.00	567.00	567.50	568.00	568.00	568.00	569.00	569.00	569.00	569.50	570.00	570.00	571.00	571.00	571.00	572.00	572.00	572.50	573.00	574.00	574.50	575.00	576.50	577.00	577.50	578.50	579.50	580.00	581.00	581.50	582.50	583.50	584.50	585.00	586.00	587.00	588.00	589.00	589.50	590.50	591.50	592.00	592.50	594.00	595.00	595.50	597.00	597.50	598.50	599.50	600.00	601.00	602.00	603.00	603.50	604.00	605.00	606.00	606.50	607.00	608.00	609.00	610.00	610.50	611.50	612.00	613.00	613.50	614.00	615.00	615.50	616.50	617.50	618.00	618.50	620.00	620.50	621.00	622.00	623.00	623.50	624.00	625.00	625.50	627.00	627.50	628.50	629.50	631.00	631.50	633.00	634.00	634.50	635.50	637.50	638.50	639.50	641.00	642.00	644.00	645.00	646.50	647.50	649.00	650.50	651.50	653.00	654.00	655.50	657.00	658.50	659.00	659.50
480.50	481.00	482.00	482.50	483.50	484.50	485.50	486.00	487.00	487.50	488.50	489.50	490.00	490.50	491.00	492.00	493.00	493.00	494.00	494.50	496.00	496.50	497.00	498.00	498.50	499.00	500.00	501.00	501.50	502.00	503.00	503.50	504.00	505.00	505.50	506.00	507.00	508.00	509.00	509.00	510.50	511.00	511.50	512.50	513.50	514.00	515.00	516.00	517.00	517.50	518.50	519.00	520.00	521.00	522.00	523.00	523.50	524.50	525.50	526.50	527.00	528.00	529.00	529.50	531.00	531.50	532.00	533.00	533.50	534.00	535.00	535.50	536.00	536.50	537.50	538.00	539.00	539.00	540.00	541.00	541.00	541.50	542.00	543.00	543.50	544.00	545.00	545.50	546.00	546.50	547.50	548.00	549.00	549.00	550.00	551.00	551.50	552.00	552.00	553.00	553.50	554.00	554.00	555.00	555.00	555.00	555.50	556.00	556.00	556.50	557.00	557.00	557.50	558.00	558.00	558.00	559.00	559.00	559.50	560.00	560.00	560.50	561.00	562.00	562.00	562.50	563.00	563.50	564.00	564.00	564.00	565.00	565.00	565.00	565.50	566.00	566.00	566.00	566.00	567.00	567.00	567.00	567.00	567.00	567.00	567.50	568.00	568.00	568.00	569.00	569.00	569.00	569.50	570.00	570.00	571.00	571.00	571.00	572.00	572.00	572.50	573.00	574.00	574.50	575.00	576.50	577.00	577.50	578.50	579.50	580.00	581.00	581.50	582.50	583.50	584.50	585.00	586.00	587.00	588.00	589.00	589.50	590.50	591.50	592.00	592.50	594.00	595.00	595.50	597.00	597.50	598.50	599.50	600.00	601.00	602.00	603.00	603.50	604.00	605.00	606.00	606.50	607.00	608.00	609.00	610.00	610.50	611.50	612.00	613.00	613.50	614.00	615.00	615.50	616.50	617.50	618.00	618.50	620.00	620.50	621.00	622.00	623.00	623.50	624.00	625.00	625.50	627.00	627.50	628.50	629.50	631.00	631.50	633.00	634.00	634.50	635.50	637.50	638.50	639.50	641.00	642.00	644.00	645.00	646.50	647.50	649.00	650.50	651.50	653.00	654.00	655.50	657.00	658.50	659.00	659.50
480.50	481.00	482.00	482.50	483.50	484.50	485.50	486.00	487.00	487.50	488.50	489.50	490.00	490.50	491.00	492.00	493.00	493.00	494.00	494.50	496.00	496.50	497.00	498.00	498.50	499.00	500.00	501.00	501.50	502.00	503.00	503.50	504.00	505.00	505.50	506.00	507.00	508.00	509.00	509.00	510.50	511.00	511.50	512.50	513.50	514.00	515.00	516.00	517.00	517.50	518.50	519.00	520.00	521.00	522.00	523.00	523.50	524.50	525.50	526.50	527.00	528.00	529.00	529.50	531.00	531.50	532.00	533.00	533.50	534.00	535.00	535.50	536.00	536.50	537.50	538.00	539.00	539.00	540.00	541.00	541.00	541.50	542.00	543.00	543.50	544.00	545.00	545.50	546.00	546.50	547.50	548.00	549.00	549.00	550.00	551.00	551.50	552.00	552.00	553.00	553.50	554.00	554.00	555.00	555.00	555.00	555.50	556.00	556.00	556.50	557.00	557.00	557.50	558.00	558.00	558.00	559.00	559.00	559.50	560.00	560.00	560.50	561.00	562.00	562.00	562.50	563.00	563.50	564.00	564.00	564.00	565.00	565.00	565.00	565.50	566.00	566.00	566.00	566.00	567.00	567.00	567.00	567.00	567.00	567.00	567.50	568.00	568.00	568.00	569.00	569.00	569.00	569.50	570.00	570.00	571.00	571.00	571.00	572.00	572.00	572.50	573.00	574.00	574.50	575.00	576.50	577.00	577.50	578.50	579.50	580.00	581.00	581.50	582.50	583.50	584.50	585.00	586.00	587.00	588.00	589.00	589.50	590.50	591.50	592.00	592.50	594.00	595.00	595.50	597.00	597.50	598.50	599.50	600.00	601.00	602.00	603.00	603.50	604.00	605.00	606.00	606.50	607.00	608.00	609.00	610.00	610.50	611.50	612.00	613.00	613.50	614.00	615.00	615.50	616.50	617.50	618.00	618.50	620.00	620.50	621.00	622.00	623.00	623.50	624.00	625.00	625.50	627.00	627.50	628.50	629.50	631.00	631.50	633.00	634.00	634.50	635.50	637.50	638.50	639.50	641.00	642.00	644.00	645.00	646.50	647.50	649.00	650.50	651.50	653.00	654.00	655.50	657.00	658.50	659.00	659.50
480.00	481.00	482.00	482.50	483.00	484.00	484.00	485.00	485.00	485.50	486.00	487.00	487.00	487.50	488.00	489.00	490.00	490.00	490.50	491.00	492.00	492.50	493.00	494.00	494.50	495.00	495.50	496.50	497.00	498.00	498.00	498.50	499.00	500.50	501.00	501.50	502.00	503.50	504.00	505.00	506.00	506.50	507.50	508.00	508.50	510.00	510.00	511.00	512.00	513.00	513.50	514.50	515.00	516.50	518.00	518.00	519.50	520.00	521.00	521.50	522.50	523.00	524.00	524.50	526.00	526.50	527.00	528.00	528.50	529.00	530.00	530.50	531.00	531.50	532.50	533.00	534.00	534.00	535.00	536.00	536.50	537.00	537.50	538.00	539.00	540.00	540.00	541.00	541.50	542.50	543.50	544.00	545.00	545.00	546.00	547.00	548.00	548.00	548.50	549.00	550.00	550.00	551.00	551.00	551.00	552.00	552.00	552.50	553.00	553.00	553.50	554.00	554.00	554.50	555.00	555.00	555.50	556.00	556.00	556.50	557.00	557.00	557.50	558.00	559.00	559.00	560.00	560.50	561.00	561.00	562.00	562.50	563.00	564.00	564.00	564.00	564.50	565.00	565.00	566.00	566.00	566.50	567.00	567.50	568.00	568.50	569.00	569.50	570.00	570.00	570.50	571.00	571.50	572.00	572.00	573.00	573.00	574.00	575.00	575.50	576.00	576.50	577.00	578.00	579.00	579.50	580.00	580.50	581.50	582.50	583.00	584.00	585.00	585.50	587.00	587.50	588.50	589.00	590.00	591.00	592.00	593.50	594.00	595.00	596.00	596.50	598.00	599.00	599.50	601.00	601.50	602.50	603.00	604.00	605.50	606.00	607.00	608.00	608.50	609.50	610.50	611.00	612.00	612.00	613.00	614.00	614.50	615.00	615.50	617.00	617.50	618.00	619.00	619.50	620.00	621.00	621.50	622.00	623.00	623.50	624.00	625.00	625.50	626.00	627.00	627.00	628.00	629.00	629.50	630.50	631.00	632.50	633.00	634.00	635.00	636.00	636.50	638.50	639.50	640.50	642.00	643.00	644.00	645.00	646.50	647.50	649.00	650.50	651.50	653.00	654.00	655.50	657.00	657.50	658.50	659.50
480.00	481.00	482.00	482.50	483.00	484.00	484.00	485.00	485.00	485.50	486.00	487.00	487.00	487.50	488.00	489.00	490.00	490.00	490.50	491.00	492.00	492.50	493.00	494.00	494.50	495.00	495.50	496.50	497.00	498.00	498.00	498.50	499.00	500.50	501.00	501.50	502.00	503.50	504.00	505.00	506.00	506.50	507.50	508.00	508.50	510.00	510.00	511.00	512.00	513.00	513.50	514.50	515.00	516.50	518.00	518.00	519.50	520.00	521.00	521.50	522.50	523.00	524.00	524.50	526.00	526.50	527.00	528.00	528.50	529.00	530.00	530.50	531.00	531.50	532.50	533.00	534.00	534.00	535.00	536.00	536.50	537.00	537.50	538.00	539.00	540.00	540.00	541.00	541.50	542.50	543.50	544.00	545.00	545.00	546.00	547.00	548.00	548.00	548.50	549.00	550.00	550.00	551.00	551.00	551.00	552.00	552.00	552.50	553.00	553.00	553.50	554.00	554.00	554.50	555.00	555.00	555.50	556.00	556.00	556.50	557.00	557.00	557.50	558.00	559.00	559.00	560.00	560.50	561.00	561.00	562.00	562.50	563.00	564.00	564.00	564.00	564.50	565.00	565.00	566.00	566.00	566.50	567.00	567.50	568.00	568.50	569.00	569.50	570.00	570.00	570.50	571.00	571.50	572.00	572.00	573.00	573.00	574.00	575.00	575.50	576.00	576.50	577.00	578.00	579.00	579.50	580.00	580.50	581.50	582.50	583.00	584.00	585.00	585.50	587.00	587.50	588.50	589.00	590.00	591.00	592.00	593.50	594.00	595.00	596.00	596.50	598.00	599.00	599.50	601.00	601.50	602.50	603.00	604.00	605.50	606.00	607.00	608.00	608.50	609.50	610.50	611.00	612.00	612.00	613.00	614.00	614.50	615.00	615.50	617.00	617.50	618.00	619.00	619.50	620.00	621.00	621.50	622.00	623.00	623.50	624.00	625.00	625.50	626.00	627.00	627.00	628.00	629.00	629.50	630.50	631.00	632.50	633.00	634.00	635.00	636.00	636.50	638.50	639.50	640.50	642.00	643.00	644.00	645.00	646.50	647.50	649.00	650.50	651.50	653.00	654.00	655.50	657.00	657.50	658.50	659.50
480.00	481.00	482.00	482.50	483.00	484.00	484.00	485.00	485.00	485.50	486.00	487.00	487.00	487.50	488.00	489.00	490.00	490.00	490.50	491.00	492.00	492.50	493.00	494.00	494.50	495.00	495.50	496.50	497.00	498.00	498.00	498.50	499.00	500.50	501.00	501.50	502.00	503.50	504.00	505.00	506.00	506.50	507.50	508.00	508.50	510.00	510.00	511.00	512.00	513.00	513.50	514.50	515.00	516.50	518.00	518.00	519.50	520.00	521.00	521.50	522.50	523.00	524.00	524.50	526.00	526.50	527.00	528.00	528.50	529.00	530.00	530.50	531.00	531.50	532.50	533.00	534.00	534.00	535.00	536.00	536.50	537.00	537.50	538.00	539.00	540.00	540.00	541.00	541.50	542.50	543.50	544.00	545.00	545.00	546.00	547.00	548.00	548.00	548.50	549.00	550.00	550.00	551.00	551.00	551.00	552.00	552.00	552.50	553.00	553.00	553.50	554.00	554.00	554.50	555.00	555.00	555.50	556.00	556.00	556.50	557.00	557.00	557.50	558.00	559.00	559.00	560.00	560.50	561.00	561.00	562.00	562.50	563.00	564.00	564.00	564.00	564.50	565.00	565.00	566.00	566.00	566.50	567.00	567.50	568.00	568.50	569.00	569.50	570.00	570.00	570.50	571.00	571.50	572.00	572.00	573.00	573.00	574.00	575.00	575.50	576.00	576.50	577.00	578.00	579.00	579.50	580.00	580.50	581.50	582.50	583.00	584.00	585.00	585.50	587.00	587.50	588.50	589.00	590.00	591.00	592.00	593.50	594.00	595.00	596.00	596.50	598.00	599.00	599.50	601.00	601.50	602.50	603.00	604.00	605.50	606.00	607.00	608.00	608.50	609.50	610.50	611.00	612.00	612.00	613.00	614.00	614.50	615.00	615.50	617.00	617.50	618.00	619.00	619.50	620.00	621.00	621.50	622.00	623.00	623.50	624.00	625.00	625.50	626.00	627.00	627.00	628.00	629.00	629.50	630.50	631.00	632.50	633.00	634.00	635.00	636.00	636.50	638.50	639.50	640.50	642.00	643.00	644.00	645.00	646.50	647.50	649.00	650.50	651.50	653.00	654.00	655.50	657.00	657.50	658.50	659.50
