115.50	116.50	136.00	140.00	145.50	162.50	179.50	182.00	173.00	182.50	165.00	182.00	129.00	111.50	112.00	110.50	107.00	108.00	110.00	136.00	137.50	136.00	137.50	137.50	143.50	139.50	135.50	144.50	142.50	150.50	140.00	140.00	163.50	178.50	166.50	158.00	154.50	146.50	144.00	166.50	174.00	164.50	158.00	145.50	157.50	168.50	159.50	149.50	174.00	207.00	194.00	243.00	270.00	278.00	218.00	169.50	154.00	155.50	173.00	180.00	205.50	235.00	203.00	170.00	152.50	142.00	137.50	136.00	136.00	134.50	132.00	130.00	129.50	128.50	129.50	127.50	127.00	126.50	125.50	126.00	126.00	126.00	126.00	125.00	125.00	125.50	126.50	127.00	127.00	127.50	128.00	128.50	129.00	129.50	130.00	136.50	153.00	176.50	220.50	242.50	242.50	225.00	201.00	182.00	203.00	227.00	226.50	220.00	204.50	210.00	230.50	216.50	205.00	196.50	197.50	182.00	186.00	200.50	178.00	198.00	207.50	194.00	181.50	172.00	187.50	213.00	236.50	234.00	217.00	209.50	201.00	204.50	236.00	322.00	320.00	353.50	267.50	246.50	246.50	199.00	204.50	279.00	287.00	326.50	327.00	292.00	269.50	262.50	252.00	266.00	317.00	329.50	363.00	328.50	342.00	315.50	310.50	353.00	335.00	292.50	269.50	282.50	301.00	279.50	291.00	313.00	322.00	310.50	270.50	252.00	228.50	222.00	257.00	265.50	263.50	255.00	226.00	208.00	211.50	267.50	280.50	239.50	221.00	235.50	269.00	296.00	266.00	248.50	228.50	218.00	213.50	221.50	232.50	225.50	205.00	196.50	207.50	199.00	213.00	238.50	209.50	277.00	349.00	368.50	345.00	362.50	372.00	316.00	342.00	329.00	240.50	272.50	286.50	224.00	262.00	363.50	310.50	370.50	387.50	314.00	211.50	243.00	286.50	286.00	328.50	317.00	351.00	374.50	423.00	387.50	286.50	222.00	240.50	200.50	171.50	147.50	144.50	143.50	143.00	174.00	122.50	113.50	102.50	108.00	157.50	148.00	120.00	159.00	160.50	158.00	175.50	166.50	185.00	187.00	173.50	176.50
127.25	129.00	128.50	141.00	150.00	146.00	150.25	172.75	156.50	141.00	139.75	132.75	117.50	111.75	108.75	108.25	108.25	114.25	145.75	175.25	145.50	158.00	142.50	145.75	159.00	151.00	141.50	150.25	152.50	152.50	143.50	142.00	152.25	191.25	200.25	166.50	154.00	150.25	152.75	184.25	234.00	232.75	185.50	153.00	163.75	171.75	164.25	155.25	153.50	226.25	217.75	239.50	255.50	218.00	179.00	170.25	158.50	154.00	165.75	174.50	191.00	203.00	195.50	184.75	163.75	146.00	140.00	139.25	138.25	137.00	133.75	133.00	132.75	132.00	131.75	130.75	130.25	128.25	128.75	128.75	128.25	128.00	128.25	125.75	125.00	126.00	127.00	127.25	128.00	128.50	128.25	129.00	128.75	128.75	129.50	130.25	133.25	142.75	159.25	178.50	216.25	226.50	192.50	172.00	180.00	198.25	190.75	222.50	234.00	254.50	259.25	232.00	219.50	208.00	201.75	195.25	197.50	205.00	180.50	190.00	215.50	209.75	196.75	189.75	177.75	193.75	211.00	221.50	226.00	235.50	242.75	255.00	281.50	317.50	413.50	388.25	355.00	301.00	287.00	222.75	210.00	213.75	220.00	247.00	245.00	232.50	229.25	254.25	264.50	296.25	319.25	340.25	379.25	361.25	318.00	313.00	301.00	307.75	287.00	274.50	278.50	306.00	304.75	293.75	296.00	295.50	308.50	308.75	288.75	283.25	242.25	214.25	243.75	250.25	256.50	240.75	239.75	207.25	215.00	286.75	267.25	230.50	216.50	232.50	252.25	274.25	245.00	234.25	223.75	213.75	213.00	223.00	234.75	223.75	209.25	188.25	187.50	184.50	217.25	234.50	249.25	282.00	295.75	310.00	310.75	350.00	309.50	279.00	273.25	254.25	220.00	231.50	244.75	251.25	253.50	351.25	347.00	290.25	328.50	286.75	200.50	233.00	264.25	271.75	288.00	308.75	336.00	307.25	291.00	282.25	261.25	286.50	284.25	281.50	309.75	199.75	180.25	182.75	128.75	135.50	116.00	106.00	116.75	129.00	148.00	156.25	147.50	139.75	150.25	162.00	171.25	178.25	185.75	201.75	190.50	196.25
140.00	140.50	123.25	128.25	129.75	133.75	139.25	152.00	138.50	131.00	129.75	127.50	121.75	111.50	108.00	109.25	110.25	125.00	150.25	179.00	151.00	159.75	153.75	148.00	180.00	165.75	149.75	157.25	164.25	156.00	146.75	146.50	144.00	183.00	207.00	169.25	158.75	156.25	145.00	175.00	252.75	273.75	217.25	161.25	162.75	171.50	168.50	162.75	155.25	198.50	243.00	227.00	213.25	182.75	168.25	165.00	161.50	157.00	169.00	173.50	187.00	189.25	171.25	163.75	156.75	145.25	142.75	145.25	141.75	138.00	135.75	134.75	135.25	134.25	133.25	133.00	131.75	129.25	130.75	131.75	130.00	130.50	133.75	126.25	125.25	126.00	126.75	127.75	128.25	128.75	128.75	128.75	128.75	129.00	129.50	130.25	131.25	136.50	141.00	167.50	202.50	201.75	172.75	164.75	165.50	170.00	177.00	215.00	263.25	295.00	262.50	248.50	223.75	215.25	217.50	216.25	210.50	195.75	179.00	195.75	219.00	225.00	216.25	212.50	178.50	182.25	190.00	200.75	224.50	241.25	250.25	277.75	342.00	325.75	447.00	392.00	411.75	356.00	325.50	236.00	231.75	231.00	207.75	212.00	216.25	228.00	230.50	293.25	311.75	327.50	357.50	355.75	381.50	389.75	321.50	283.50	292.50	276.50	262.50	270.75	299.50	293.00	287.25	280.00	275.00	276.50	290.25	304.25	281.00	273.50	229.75	225.50	252.25	256.00	256.50	226.50	233.75	208.75	219.50	284.50	249.25	224.25	214.50	234.50	248.25	264.50	234.50	222.50	218.25	210.00	215.00	229.75	236.25	223.25	209.75	187.75	178.50	186.50	238.00	271.75	271.50	270.00	258.75	264.25	288.25	333.50	262.50	254.75	239.75	204.25	205.75	201.75	205.50	277.00	243.00	333.25	375.00	249.00	292.00	257.25	193.50	244.00	257.25	270.00	323.25	340.75	281.00	259.25	242.75	230.25	236.25	319.25	295.50	266.25	331.50	207.25	212.00	217.50	133.25	119.25	110.00	111.25	135.25	153.00	141.50	156.75	164.25	144.75	141.25	161.25	166.75	179.25	187.25	208.00	207.25	209.50
158.75	162.50	130.50	162.25	168.75	158.00	174.25	181.50	177.00	163.50	172.50	182.50	136.75	111.50	110.25	109.25	111.50	133.50	158.25	158.75	146.50	147.00	155.75	172.00	207.75	195.00	159.50	169.25	195.50	159.50	160.25	152.25	146.75	168.75	214.25	195.50	175.50	156.00	145.50	151.50	188.75	191.50	195.00	165.00	165.00	190.75	179.50	170.25	168.25	159.50	169.75	170.75	170.75	185.00	185.00	184.25	170.00	164.75	158.75	162.50	179.25	184.50	175.25	168.00	162.50	150.25	147.75	162.75	149.00	144.00	142.75	138.50	138.25	137.50	136.25	135.75	132.25	132.00	133.50	133.75	133.50	144.25	142.50	128.50	126.50	126.50	127.00	128.50	129.00	128.75	128.75	130.00	130.00	130.00	130.00	130.25	131.00	132.00	133.00	135.75	161.75	179.25	158.25	180.25	153.75	157.00	172.00	200.00	220.00	263.50	246.50	225.00	212.75	202.00	207.50	203.00	189.75	189.25	188.50	219.50	248.75	276.75	240.25	211.25	186.50	213.50	198.75	218.50	206.00	244.75	270.50	306.00	354.50	439.25	471.25	440.75	444.50	418.00	322.75	257.25	281.75	275.25	230.50	234.25	274.00	305.75	290.00	275.50	298.00	309.25	322.25	345.25	351.00	335.00	315.00	286.50	274.00	282.00	298.00	298.75	314.50	300.50	296.50	292.50	264.50	256.75	282.00	296.50	265.50	240.25	212.75	226.50	237.75	258.25	265.25	254.75	230.50	206.75	210.50	256.50	233.00	215.25	209.75	222.75	252.00	254.00	230.25	219.25	209.25	208.00	219.00	233.75	234.25	212.25	200.25	181.75	174.75	188.25	228.00	265.75	259.50	252.50	227.25	223.50	243.50	249.25	220.50	238.75	263.00	224.00	182.50	197.75	237.25	244.00	214.00	262.50	259.25	219.25	243.25	256.25	198.50	303.25	287.75	277.50	268.75	263.50	232.25	209.25	201.00	192.75	248.50	312.50	282.25	189.50	204.75	154.00	168.75	172.50	113.75	110.50	106.25	127.25	152.00	169.00	153.00	158.50	169.50	166.25	152.00	175.50	180.25	195.50	195.00	217.00	231.00	230.00
161.00	163.75	134.00	163.00	215.00	179.25	195.25	242.00	217.50	198.50	185.00	127.75	113.25	109.25	108.50	110.50	110.25	111.25	111.50	115.75	122.75	126.50	143.50	200.00	272.25	219.50	174.00	169.50	214.00	175.00	186.75	163.75	157.50	168.00	230.50	215.00	164.25	154.50	153.00	159.50	159.75	171.50	174.50	165.75	163.25	187.00	193.50	175.00	182.25	169.25	181.00	172.75	164.00	175.00	189.75	193.00	198.00	188.00	166.50	161.25	174.00	180.75	182.00	173.75	161.25	147.50	152.00	164.00	153.25	153.00	155.25	145.75	142.00	140.00	139.75	138.75	136.25	135.75	135.00	134.50	140.75	150.25	139.25	132.00	129.75	129.00	128.25	129.00	129.50	131.00	134.50	131.25	131.50	131.00	131.00	131.25	131.25	131.25	132.00	132.75	134.50	143.50	156.25	164.00	143.25	153.25	166.50	187.25	233.75	276.25	265.75	241.50	230.25	233.50	250.50	231.00	205.50	221.75	194.50	214.00	241.75	251.00	216.25	189.25	208.75	247.50	225.00	215.25	217.50	210.25	240.75	275.75	316.25	415.50	445.50	437.50	444.00	371.25	326.75	326.50	286.75	259.50	230.75	233.50	262.75	283.75	312.75	337.75	336.50	321.00	354.50	392.50	386.25	347.25	307.25	303.50	287.75	309.25	318.50	315.25	329.50	309.50	310.75	298.50	273.00	248.00	251.25	244.75	220.00	213.50	207.00	206.00	224.50	249.75	258.00	261.25	241.25	211.00	202.75	211.25	229.00	224.50	208.50	220.25	241.00	238.00	218.00	209.00	205.75	208.50	221.25	233.25	236.25	230.00	213.00	183.50	171.00	184.75	206.50	244.25	248.25	247.00	234.50	209.25	197.00	193.25	200.00	223.75	241.75	217.50	185.50	172.50	204.00	207.50	179.75	215.50	217.00	197.00	188.00	190.25	203.75	237.25	213.00	199.50	197.00	212.25	210.25	178.50	163.50	203.00	220.50	250.25	230.75	172.75	165.50	134.75	127.25	130.50	107.50	109.50	116.50	127.50	172.50	172.75	189.50	177.00	171.00	186.00	162.50	148.75	147.00	167.25	176.50	210.75	227.00	238.50
154.75	150.50	136.50	148.50	177.75	185.00	209.75	199.50	167.75	135.00	117.25	114.50	113.75	111.75	111.25	112.00	113.25	112.25	111.00	116.50	129.75	140.50	136.50	218.50	278.75	217.50	185.50	235.25	208.25	208.50	228.25	187.00	179.75	179.25	233.00	194.00	169.00	173.00	160.00	167.50	181.00	169.75	184.50	181.75	167.25	163.25	178.50	189.50	204.00	187.25	198.75	186.75	170.00	166.25	176.75	191.75	218.75	192.00	173.00	172.50	178.00	179.25	169.25	161.75	154.25	153.00	170.25	203.75	173.25	154.25	164.25	155.75	145.75	143.00	142.75	141.50	139.50	139.00	137.25	136.00	143.25	145.25	138.25	134.00	132.00	134.00	132.50	131.50	131.50	132.75	139.75	134.50	132.75	133.50	131.75	131.75	132.25	132.00	132.00	132.75	133.25	133.75	135.00	136.00	137.25	146.25	171.75	194.25	222.00	231.25	235.75	220.00	234.50	241.75	270.50	242.50	235.25	241.25	203.50	207.00	223.25	241.50	208.00	202.50	250.00	265.50	246.50	226.00	250.00	243.75	228.75	244.25	283.25	327.25	335.75	329.50	449.25	505.25	425.00	334.25	272.50	233.25	222.25	238.00	251.75	295.50	345.75	349.75	353.50	356.25	394.25	405.75	395.00	359.25	324.75	349.50	331.25	317.25	325.00	303.50	310.50	310.00	291.25	296.50	278.75	259.75	241.75	225.50	241.00	255.75	222.75	204.50	213.00	251.25	249.75	240.25	246.25	212.00	201.00	200.50	218.50	222.75	210.50	210.50	220.25	219.75	206.00	204.50	207.25	215.00	222.75	230.50	224.50	210.75	198.75	180.75	168.00	174.00	192.75	223.25	229.75	244.00	236.50	224.25	198.25	182.50	186.75	218.00	217.25	193.50	171.75	170.75	214.25	200.75	172.50	204.25	263.75	193.25	171.50	179.00	205.25	201.25	178.00	175.50	162.50	166.00	183.00	175.50	166.00	188.50	193.75	216.25	212.50	218.00	168.75	129.25	118.25	115.75	107.75	131.00	155.00	157.00	162.25	181.00	197.00	181.50	193.50	186.25	190.25	196.75	171.50	164.25	184.75	207.25	224.50	235.25
154.75	154.25	141.25	152.50	165.25	177.75	181.00	164.00	168.50	135.75	120.75	115.25	115.00	111.75	111.75	114.25	112.25	114.00	130.00	143.25	215.25	213.00	164.50	169.50	169.25	181.25	195.75	226.50	267.25	228.25	227.50	254.00	209.50	180.00	226.50	208.25	180.00	177.00	162.50	177.50	195.25	207.25	210.00	202.75	179.75	169.25	170.00	188.50	201.50	200.00	184.00	194.00	178.00	171.50	189.75	205.25	214.00	211.25	199.50	189.25	184.75	176.50	167.75	165.50	158.25	167.75	210.00	288.25	208.00	163.75	167.25	158.75	149.25	146.00	146.50	145.00	146.50	143.00	139.25	137.75	140.00	139.75	137.25	134.75	134.75	139.00	137.00	133.75	132.50	133.00	137.25	135.00	138.25	142.75	136.00	133.50	133.00	133.25	133.50	133.25	133.50	133.50	134.00	135.00	135.75	136.75	153.75	187.25	194.00	189.25	176.50	195.25	184.00	229.25	233.25	230.50	240.50	207.25	199.25	208.25	231.25	222.50	207.50	191.50	229.00	239.75	260.50	248.25	255.25	276.50	274.25	247.00	244.00	257.75	277.75	297.00	349.75	414.00	356.50	315.75	286.50	239.00	239.50	272.75	289.50	284.25	290.25	358.50	370.25	378.00	395.50	383.50	362.00	370.50	358.75	355.25	366.75	342.25	325.00	314.50	308.50	291.00	282.25	276.25	286.00	263.75	237.00	250.75	277.25	285.50	249.00	209.50	203.50	238.25	249.00	225.50	237.25	207.75	199.50	199.50	212.00	217.50	207.25	203.50	207.50	203.00	203.25	205.00	217.75	225.25	228.50	230.25	221.25	197.50	182.00	175.50	166.50	165.75	174.00	207.50	214.75	233.75	227.00	228.50	211.00	177.25	187.25	213.50	254.25	215.25	173.25	210.50	227.50	177.00	167.75	204.00	212.75	176.75	170.50	185.25	203.00	193.75	159.75	175.25	150.75	158.00	183.00	156.75	150.25	180.00	169.00	159.75	175.00	183.00	150.25	130.50	155.00	207.75	116.25	113.50	144.50	185.00	165.75	167.50	219.25	228.75	212.50	208.25	169.25	198.75	202.00	184.00	184.25	224.25	240.25	238.75
150.75	158.50	145.25	154.00	168.00	172.00	182.00	176.50	193.00	160.25	125.00	116.00	113.75	110.75	112.50	114.50	113.00	133.00	194.25	174.25	279.75	279.00	199.75	240.25	211.00	169.75	188.25	204.25	290.00	269.00	251.25	288.50	248.25	218.00	252.25	201.50	189.75	194.25	178.25	178.00	218.00	242.50	254.00	217.25	184.50	173.00	182.50	182.75	195.25	205.25	191.00	188.25	180.25	177.00	181.00	193.00	214.25	220.00	212.50	220.00	194.00	179.25	180.50	175.25	164.50	166.75	214.00	288.25	220.25	171.00	174.25	161.00	151.25	149.75	149.25	147.50	147.25	144.25	142.50	140.75	141.00	139.50	137.75	136.50	136.50	143.25	140.50	135.00	133.50	135.50	137.75	136.25	142.50	145.75	138.75	136.00	136.00	134.75	134.50	134.25	135.00	134.50	134.25	135.00	135.50	136.25	142.75	156.25	160.00	160.75	154.75	178.00	178.50	225.75	218.25	197.50	209.50	198.25	203.00	204.75	225.50	218.75	205.25	192.50	210.00	220.75	230.00	238.50	262.50	264.00	288.25	283.50	275.75	273.25	318.25	355.25	387.00	432.75	356.25	291.00	300.25	253.75	265.75	287.75	314.50	319.50	303.00	350.00	380.50	387.50	394.75	383.00	351.50	342.75	353.50	357.75	360.75	340.25	327.00	309.00	300.75	284.00	286.50	272.00	267.25	259.00	241.75	264.75	283.75	280.75	243.25	211.50	201.50	223.50	242.25	220.75	233.50	203.25	198.25	198.00	208.00	209.75	202.50	200.75	201.25	202.25	207.00	212.00	220.00	221.50	225.50	226.75	223.75	210.00	195.00	189.75	166.00	163.25	167.25	187.75	203.25	229.50	223.50	215.25	192.75	169.50	214.75	241.50	258.75	230.00	186.50	182.00	187.50	160.25	169.25	171.75	171.25	175.00	183.50	201.75	213.00	186.00	172.00	176.00	141.00	157.50	162.25	146.00	159.75	191.75	169.50	146.75	161.75	146.75	134.25	174.00	213.00	245.50	116.75	117.50	148.75	196.50	175.50	187.00	231.00	242.00	224.00	211.50	192.75	187.25	194.50	213.75	195.25	239.25	272.25	238.75
144.00	152.00	148.00	164.50	158.50	173.50	200.00	173.50	165.50	161.50	136.50	120.50	113.50	112.50	111.00	115.50	116.50	167.50	292.50	264.50	254.00	337.00	278.00	349.50	264.00	186.50	209.00	193.50	240.00	336.50	346.50	365.00	397.00	378.50	303.50	208.00	206.00	258.50	235.00	195.00	273.50	282.00	303.00	225.00	188.50	184.00	232.00	189.00	195.50	203.50	188.50	177.00	193.00	184.00	177.50	174.00	190.00	193.00	220.00	259.00	233.00	195.50	220.50	205.50	180.00	163.50	190.00	225.00	198.50	182.50	169.50	157.00	159.50	162.00	161.00	155.50	149.00	144.50	146.00	145.00	143.00	140.50	139.00	139.00	139.00	146.00	140.00	135.50	135.00	141.00	140.50	138.00	144.00	144.50	138.50	140.00	146.00	137.00	136.50	136.50	136.50	136.00	136.00	135.50	135.50	136.00	137.00	137.50	137.50	137.50	139.50	155.50	182.50	198.00	207.00	174.00	171.00	196.00	210.50	209.00	222.00	221.00	201.50	200.00	200.50	222.50	254.00	230.00	236.00	242.00	280.50	315.00	337.00	295.00	355.50	405.50	461.00	488.00	376.00	309.50	322.00	273.00	319.50	300.50	345.00	365.00	353.50	365.00	365.00	383.50	376.00	372.50	345.00	314.00	329.50	346.50	359.50	367.00	349.50	294.50	282.00	307.50	311.00	280.50	261.00	247.50	255.50	263.50	268.50	253.00	217.50	203.00	198.50	214.00	234.00	213.50	217.00	199.50	197.00	197.00	196.50	198.00	198.50	198.50	201.50	207.50	206.50	213.50	212.00	219.00	225.00	218.00	209.00	222.50	221.00	189.00	171.50	162.00	162.50	170.00	199.00	220.00	211.00	201.00	171.50	167.50	252.00	323.00	281.50	244.00	191.50	155.00	149.50	150.00	152.50	166.00	183.00	221.50	210.00	241.00	218.50	166.00	214.00	181.50	135.00	160.00	148.00	133.50	184.00	190.50	156.50	143.50	137.00	147.00	152.50	181.00	251.50	215.00	111.00	137.50	164.00	178.50	183.50	215.00	256.00	273.00	254.50	216.00	230.50	219.50	192.50	237.00	198.00	268.50	304.50	242.50
135.00	140.50	157.25	162.00	157.75	163.00	176.00	159.50	157.00	171.50	149.50	120.00	116.25	114.25	111.50	113.50	115.50	180.50	282.50	280.50	245.50	290.00	359.75	434.75	377.00	245.75	219.50	229.25	257.25	295.50	320.50	407.00	439.00	387.75	237.00	240.00	328.25	425.25	382.75	250.00	295.50	358.25	316.25	236.25	198.50	191.50	237.75	228.00	215.00	193.50	195.75	188.00	194.75	193.75	201.25	182.00	182.50	211.00	240.25	281.00	259.00	219.00	247.75	234.75	192.25	178.25	184.50	192.25	182.75	170.75	166.75	176.25	195.75	199.25	183.25	163.25	150.00	147.75	147.25	146.50	144.75	142.50	140.75	141.25	143.75	142.75	138.25	137.25	137.00	143.00	141.25	144.50	160.25	154.50	141.25	144.75	147.00	141.50	139.25	139.00	138.25	137.25	136.50	136.50	136.00	136.00	136.50	137.50	138.00	138.25	138.75	141.50	159.25	162.50	171.00	169.75	167.25	206.50	213.50	218.50	228.75	224.75	205.50	219.00	213.25	233.25	265.50	259.50	252.75	263.00	278.75	295.25	336.50	282.75	324.00	355.25	373.25	342.00	349.50	354.50	333.00	318.75	293.75	278.75	296.50	299.50	316.50	348.50	366.25	377.25	344.25	316.00	294.75	301.00	325.25	341.25	359.75	357.75	337.75	308.00	298.00	310.50	293.50	284.00	286.75	263.25	268.50	285.75	279.50	242.25	211.75	197.75	199.25	216.50	231.00	213.25	203.75	195.75	195.75	195.50	196.00	200.00	204.00	202.75	214.75	218.75	212.50	211.50	216.50	221.75	218.25	201.25	189.00	201.75	221.00	198.75	190.00	158.75	159.25	173.75	208.00	206.75	201.00	194.75	167.50	173.25	233.25	254.25	247.25	238.25	202.75	163.00	148.25	160.50	182.25	214.25	245.00	289.00	242.00	251.00	216.25	153.50	200.50	164.00	129.50	138.00	149.50	130.50	147.75	168.00	172.50	186.00	185.75	243.00	241.25	174.75	170.50	162.00	115.50	125.00	153.50	166.50	183.75	190.75	229.25	234.75	258.75	245.25	259.75	259.25	232.50	223.00	219.25	260.25	322.00	301.00
131.50	139.75	152.00	161.75	160.75	158.50	153.25	150.00	136.50	134.75	130.50	120.25	118.75	115.50	114.75	112.25	113.25	168.75	289.25	233.00	206.25	205.00	336.50	486.25	423.25	277.75	233.75	254.00	306.25	336.75	345.75	424.75	426.50	344.25	225.25	297.50	446.00	534.75	483.75	286.25	276.50	401.50	328.50	267.25	213.00	191.75	237.25	253.00	219.25	197.25	214.50	196.25	191.00	197.75	210.50	188.00	182.75	215.50	238.00	271.75	293.25	260.75	248.25	247.00	195.00	191.75	202.25	197.75	186.50	167.50	177.50	207.50	233.75	212.00	182.00	162.50	152.00	150.25	149.00	148.75	146.75	144.25	143.25	143.75	143.25	140.00	139.25	138.75	141.00	146.25	142.75	150.00	177.50	166.25	143.75	147.25	144.50	142.75	141.25	140.25	139.50	138.25	137.50	137.75	137.00	136.00	136.50	137.25	138.00	138.50	138.75	139.00	143.25	149.50	156.25	160.25	168.00	213.00	227.00	233.25	237.25	230.25	210.50	226.25	229.50	231.25	252.50	261.25	249.25	258.25	252.50	267.25	320.00	271.50	293.25	319.00	319.00	288.25	328.00	356.00	323.50	309.25	284.25	250.50	244.75	256.75	301.50	330.00	362.50	371.50	310.50	283.00	278.75	291.50	323.25	347.25	359.50	346.00	331.00	298.00	310.75	299.00	283.00	291.25	285.75	275.75	275.50	289.25	285.75	250.75	218.75	198.25	199.50	217.25	222.00	208.75	202.75	194.50	195.00	195.00	196.25	207.25	214.00	205.75	219.25	225.75	218.50	218.00	223.50	224.00	212.00	198.00	179.75	191.00	204.25	196.25	180.75	157.25	157.25	179.50	198.25	197.50	198.50	192.50	165.50	173.25	221.75	200.75	201.75	207.75	195.50	164.25	152.25	178.75	224.75	283.50	274.75	309.00	233.00	215.75	214.25	151.25	168.25	138.00	124.50	124.00	137.75	124.50	135.50	160.75	176.50	209.00	228.25	295.50	274.50	166.50	128.25	123.25	110.00	126.50	160.75	185.25	205.00	185.50	210.00	228.75	258.00	265.00	275.25	264.75	267.25	233.50	230.75	234.75	327.75	332.75
137.00	156.75	177.75	178.75	156.00	145.50	136.75	135.00	131.25	125.50	124.25	135.00	126.00	131.50	157.00	145.75	116.50	117.00	134.75	145.25	170.75	247.50	274.00	440.25	421.75	328.50	320.25	273.75	336.25	375.25	343.75	351.75	396.75	353.50	246.75	331.50	426.50	488.75	503.50	354.00	281.50	422.75	399.00	338.00	223.75	194.50	220.75	235.00	227.50	215.25	223.25	198.75	211.75	216.25	204.25	201.25	201.75	187.00	217.75	247.50	285.25	313.50	295.50	279.75	243.75	214.00	244.50	201.00	190.25	176.50	221.50	275.25	262.75	224.25	185.75	160.50	154.75	153.25	152.25	152.50	152.00	150.25	147.25	144.00	142.75	142.25	142.00	140.50	149.75	150.50	143.00	150.75	165.25	159.00	147.00	148.75	145.50	144.00	142.75	141.75	140.50	139.50	139.25	140.75	139.00	136.75	137.00	137.25	138.00	138.50	139.00	139.50	140.00	144.00	146.75	152.25	175.00	213.75	253.50	256.00	251.75	219.25	221.75	225.25	241.00	238.50	216.50	220.00	208.00	221.75	267.00	253.50	238.75	257.75	236.00	245.75	258.00	349.25	319.25	282.75	317.00	295.25	271.00	228.50	249.00	288.00	304.00	320.25	341.25	363.50	311.50	257.50	271.00	295.00	313.00	338.50	354.25	342.50	325.25	316.25	312.25	302.00	306.00	306.00	293.00	307.75	290.75	279.00	284.00	267.25	224.50	206.75	195.00	201.50	204.50	200.75	195.00	193.50	193.50	196.25	202.00	222.00	228.50	213.00	207.75	221.25	227.25	227.00	235.25	237.25	210.00	180.50	171.00	169.75	178.25	187.50	182.25	156.25	155.75	167.00	182.50	219.50	214.00	192.25	166.25	169.50	203.25	172.25	204.25	181.00	170.50	151.50	176.00	254.00	305.50	378.00	334.00	279.75	246.75	183.00	158.75	134.50	125.50	126.00	129.00	131.75	129.00	129.25	152.00	213.50	184.25	213.25	223.25	219.00	197.25	124.75	112.50	114.50	111.75	131.75	175.00	188.75	206.00	209.50	226.75	236.50	245.50	273.00	291.25	290.25	288.50	292.75	265.00	250.00	312.50	357.25
143.75	147.00	189.25	217.50	173.75	153.25	147.25	135.75	135.50	127.25	138.00	146.50	138.75	171.00	160.00	194.75	165.50	154.25	121.25	116.50	157.75	277.75	388.75	275.75	269.75	330.50	390.00	405.50	290.75	265.75	231.75	316.75	428.00	403.25	282.50	360.25	536.50	619.25	538.25	444.50	284.25	404.00	430.50	335.50	255.75	217.75	246.25	253.50	272.50	250.75	228.50	209.00	219.50	240.50	220.75	216.25	197.25	186.50	203.50	248.75	251.25	285.50	309.75	336.25	277.25	251.50	255.00	245.75	232.00	190.50	225.50	283.75	247.75	223.25	179.50	163.00	160.75	158.25	156.75	157.25	153.25	148.50	146.75	146.00	146.75	145.75	143.75	145.50	156.00	149.50	147.25	160.25	161.50	154.50	150.75	150.00	146.50	145.00	144.50	143.00	142.00	141.50	142.75	141.25	140.00	138.50	139.00	137.25	138.00	138.50	139.25	139.25	140.25	141.00	142.25	146.00	167.50	181.50	238.25	245.25	218.50	192.50	185.00	232.00	238.50	229.75	207.25	194.50	195.75	223.50	219.75	206.00	240.25	216.75	216.75	238.00	289.75	362.75	321.75	257.50	263.25	255.50	255.25	232.00	230.00	246.50	266.25	313.00	351.50	347.00	298.75	265.00	269.00	322.50	344.25	349.50	357.25	361.00	346.25	321.75	323.75	323.75	319.50	302.75	299.00	301.50	288.75	290.00	292.25	277.25	249.00	217.50	200.00	193.50	194.75	193.00	192.00	196.50	209.50	206.00	213.00	213.75	227.00	221.50	215.25	210.00	222.00	232.50	238.00	235.50	209.75	190.25	191.00	173.50	164.00	164.25	163.50	155.25	153.25	164.75	216.00	250.00	222.75	174.25	157.00	197.25	167.00	152.25	145.00	138.50	139.00	140.50	167.75	280.25	300.25	328.00	266.25	196.25	179.50	135.50	155.00	166.50	135.00	149.25	156.50	162.50	188.50	166.25	131.50	156.25	156.00	157.50	177.25	167.50	144.25	114.75	120.75	128.75	113.75	121.00	143.75	174.00	147.75	188.50	208.75	202.00	211.00	226.25	266.00	315.50	311.25	321.75	272.00	268.25	346.25	366.00
180.50	164.75	202.25	282.00	228.50	176.25	153.25	143.50	133.50	142.00	147.75	176.50	142.50	249.75	213.25	223.25	295.25	206.00	164.00	172.00	119.25	169.75	240.50	181.75	197.75	338.75	399.75	330.25	242.75	191.00	208.50	357.00	397.00	451.00	393.25	381.50	552.25	658.25	624.00	475.50	305.50	375.25	416.75	284.00	256.75	224.25	320.00	329.75	353.75	303.00	233.50	219.00	254.75	241.00	221.75	206.00	200.25	193.25	200.25	197.75	224.75	242.75	307.75	308.50	301.25	315.75	305.25	305.00	251.50	201.25	224.00	250.25	233.75	217.00	172.25	171.00	170.75	167.50	164.00	161.25	156.25	152.75	150.75	150.50	151.00	149.75	146.25	150.00	157.50	152.75	160.00	172.25	169.50	162.75	156.25	151.50	147.25	146.50	145.00	144.50	143.75	145.00	142.75	147.75	150.00	143.25	140.25	139.50	138.25	138.75	139.50	139.25	140.75	141.00	141.25	142.00	145.00	175.50	234.50	226.00	200.00	181.25	183.75	215.25	200.25	203.50	214.25	200.00	184.25	203.00	185.50	199.25	205.00	223.50	246.75	284.50	292.25	339.00	326.75	272.50	254.75	230.50	228.50	224.75	213.00	215.50	256.75	253.75	277.50	290.25	265.00	271.50	259.00	323.50	331.75	346.25	361.25	375.75	351.75	326.50	307.00	301.25	296.25	287.00	306.00	307.00	282.25	272.50	301.25	308.50	261.25	217.50	194.25	191.00	190.50	191.00	196.75	212.50	215.00	213.75	223.25	223.25	221.50	234.00	231.25	224.00	218.25	217.75	237.75	242.75	206.75	196.50	188.00	188.25	183.50	155.75	154.00	153.00	157.50	158.25	176.25	171.75	162.50	160.00	161.00	185.75	170.25	148.00	157.00	172.00	164.50	140.75	136.75	155.75	210.50	213.50	243.25	136.00	154.75	170.50	239.50	201.75	147.75	163.00	195.75	218.75	313.00	220.25	128.50	128.50	134.75	129.50	139.25	143.25	133.25	118.25	113.50	119.00	115.50	123.50	122.75	122.50	125.25	138.00	153.75	139.50	147.25	203.00	289.50	307.00	333.25	343.75	323.25	314.25	342.75	380.75
193.25	216.75	199.00	259.75	196.75	178.25	153.50	141.25	149.00	159.25	192.50	150.75	152.50	284.00	280.25	243.75	324.00	259.75	228.75	255.50	124.00	118.75	146.75	171.50	277.50	296.75	313.00	339.75	218.00	171.25	190.25	255.00	341.25	509.00	547.00	484.50	476.00	596.25	653.25	506.75	353.25	278.50	392.25	357.25	341.25	245.25	281.00	428.50	349.50	245.75	237.00	235.50	259.50	235.50	220.75	207.00	195.50	206.50	226.25	207.50	212.50	251.50	260.25	245.25	308.00	368.25	302.75	251.25	235.00	241.50	261.50	237.00	213.00	200.75	195.75	213.50	192.50	185.50	174.50	168.75	161.00	156.25	155.25	154.75	154.75	154.00	149.25	148.25	159.00	159.25	172.25	190.25	175.25	166.00	155.75	150.50	148.50	147.25	146.25	145.75	147.00	145.50	143.00	150.50	157.75	157.25	145.75	141.00	139.75	139.00	139.75	139.50	140.50	141.00	141.75	142.75	143.00	172.50	219.00	223.75	194.25	165.75	172.50	182.50	182.75	192.00	201.25	205.75	187.75	176.50	206.00	200.00	198.50	211.50	243.25	271.50	264.25	283.00	312.75	259.75	271.75	263.50	265.00	243.50	218.00	213.75	204.50	207.75	237.50	233.00	227.00	227.00	259.75	288.00	320.50	339.00	337.50	345.25	336.75	307.50	292.25	288.75	288.50	276.00	272.00	281.50	244.50	266.25	275.50	258.25	220.00	198.50	189.75	189.75	192.50	198.75	197.00	217.75	225.50	229.00	228.00	242.50	232.00	267.25	266.00	252.75	239.00	235.75	257.25	254.25	210.50	205.25	183.00	177.50	169.00	156.00	163.50	172.75	167.25	175.75	163.75	157.75	153.50	148.75	146.00	147.25	143.25	142.00	159.75	194.50	157.75	159.25	145.25	141.75	135.50	177.00	204.25	152.00	252.50	244.50	206.50	165.00	172.50	177.25	235.00	317.50	429.00	264.25	149.50	125.50	120.50	118.25	116.50	115.75	114.50	114.50	117.75	122.75	114.75	136.00	157.00	140.50	138.00	143.25	152.00	169.25	206.75	155.50	239.25	337.50	357.75	384.00	375.00	332.75	370.25	392.50
209.75	242.25	200.25	220.75	179.50	160.50	154.00	155.50	185.75	206.25	191.50	154.00	198.50	267.00	314.75	309.25	292.50	295.00	284.50	225.00	131.50	144.75	119.00	153.75	249.75	245.75	282.25	282.25	183.50	196.75	237.00	273.75	312.75	409.50	470.50	510.00	534.00	510.25	566.50	533.50	357.00	247.25	356.50	411.00	373.25	315.50	276.00	425.50	349.75	294.50	283.50	275.50	288.25	242.00	220.50	208.75	212.25	213.25	235.00	229.00	210.75	231.75	234.50	236.75	320.75	391.50	320.75	259.00	275.50	291.25	250.00	267.25	261.50	221.75	203.50	265.50	229.00	201.25	182.75	176.00	166.50	160.75	158.00	158.25	158.25	157.00	152.25	150.25	159.75	163.25	175.50	198.25	183.00	168.00	154.75	151.75	149.75	148.50	148.00	148.25	148.50	147.50	144.25	157.00	160.75	162.50	157.75	151.25	144.50	140.50	140.50	140.50	141.00	141.00	141.75	142.50	143.00	159.00	192.00	215.00	174.75	177.00	185.50	205.75	200.00	208.25	203.25	202.50	193.50	174.75	205.00	210.50	231.50	201.00	239.50	240.50	240.25	265.75	288.50	240.50	256.00	284.75	266.50	246.00	231.75	219.25	206.50	202.00	213.50	210.00	237.25	244.25	272.75	294.75	323.00	331.25	314.75	325.25	317.50	317.00	310.00	295.50	286.00	265.25	256.75	250.50	224.00	240.50	252.75	234.50	200.25	190.50	189.00	193.25	206.00	214.50	206.75	206.75	216.25	230.00	228.50	247.00	246.00	285.75	270.25	265.50	271.00	248.75	258.50	265.00	220.50	223.50	183.25	160.00	157.75	167.75	186.00	191.50	171.25	208.00	209.75	176.75	175.00	163.00	160.75	166.50	159.00	149.25	164.25	183.00	154.50	175.50	159.00	156.75	135.25	147.25	147.25	150.75	209.50	226.50	188.75	182.25	199.00	197.50	268.75	388.25	427.25	268.25	166.75	141.25	131.50	119.75	120.50	130.75	121.75	127.00	138.50	147.75	116.00	137.50	163.75	161.00	162.75	186.75	201.50	231.00	270.00	186.25	200.50	290.50	344.25	387.50	391.25	369.00	383.75	417.50
244.50	215.50	200.50	199.50	172.50	174.50	174.50	199.00	286.00	278.50	179.50	196.50	312.50	254.50	397.50	411.00	278.50	303.00	255.00	173.00	157.00	204.50	152.50	117.00	139.00	164.50	342.00	282.50	164.50	169.50	216.00	332.00	247.50	272.00	324.00	463.00	601.50	470.50	379.00	484.50	324.00	224.50	277.00	427.00	440.50	374.00	305.50	361.00	403.00	335.00	276.50	271.00	263.50	239.00	231.50	232.00	232.00	223.50	260.50	260.50	220.00	250.50	251.00	238.50	299.00	355.50	300.50	312.50	388.00	314.00	307.00	323.50	268.00	218.50	204.50	253.50	303.00	241.50	198.00	186.00	177.50	173.50	165.50	163.50	163.50	161.50	155.50	153.50	164.50	170.50	180.50	211.00	188.50	161.50	154.50	153.50	151.50	151.50	154.00	152.50	151.00	152.00	146.00	164.00	167.00	175.00	175.00	159.50	150.00	144.50	142.50	142.00	142.00	142.50	141.50	142.50	142.50	144.00	167.00	192.00	162.00	209.50	230.50	209.00	197.50	205.00	192.50	196.00	195.00	171.50	192.00	234.00	254.50	227.50	209.50	221.00	235.50	247.00	259.50	223.50	252.00	285.50	263.50	254.50	229.00	218.00	212.50	207.50	200.00	195.00	238.50	241.50	240.00	252.00	311.50	286.00	288.50	298.00	295.00	319.00	326.50	306.50	298.50	278.00	246.50	239.00	202.00	199.00	211.00	212.50	188.00	188.50	192.00	212.00	214.00	230.50	224.00	210.50	200.00	216.50	218.00	233.50	266.00	304.00	242.00	227.00	273.00	230.00	234.00	234.00	190.50	178.00	159.50	157.50	160.00	191.50	221.50	229.00	180.50	217.00	277.00	215.50	230.00	191.00	196.50	211.00	172.00	150.50	184.00	177.00	157.00	175.50	172.00	176.00	147.00	149.50	141.50	153.00	168.50	213.50	218.50	223.00	244.00	230.00	323.00	408.50	348.50	250.50	184.00	182.00	156.00	126.50	129.00	169.50	145.00	136.50	178.00	192.50	119.00	122.50	139.50	171.00	214.00	227.00	298.50	356.50	312.50	206.00	195.00	210.00	318.00	371.50	387.00	420.00	425.50	438.00
183.00	177.50	184.75	210.50	217.50	207.00	271.00	265.50	276.25	252.00	189.00	183.25	268.00	318.25	417.25	451.50	322.75	266.50	208.75	171.25	164.25	234.75	241.25	169.25	153.25	137.25	263.75	274.75	190.50	151.25	185.75	290.75	295.25	228.00	293.25	434.25	558.25	508.50	314.00	327.25	280.25	210.75	243.50	329.75	396.25	387.75	340.75	331.25	386.50	299.00	269.00	247.00	241.50	226.75	233.00	249.00	263.75	261.25	295.00	265.75	233.00	229.50	261.75	286.00	298.25	342.50	324.50	349.25	344.25	271.50	366.75	311.50	255.25	275.25	238.75	242.00	301.75	299.75	259.50	229.50	199.50	186.25	174.75	171.00	172.25	168.50	161.00	159.25	165.50	183.50	204.00	211.50	170.25	158.25	155.75	155.25	155.50	157.00	158.00	150.75	153.00	154.50	147.75	165.00	172.75	173.25	169.25	158.75	148.25	151.75	156.50	153.50	147.50	144.00	144.25	142.75	143.00	143.75	163.25	162.00	176.25	212.75	199.50	183.75	193.00	196.50	175.25	191.75	184.50	169.50	201.25	221.25	252.50	260.25	235.25	250.75	246.75	257.75	242.75	220.00	259.50	271.25	274.50	261.25	249.50	232.75	224.25	221.50	205.25	200.50	200.25	202.50	205.00	220.50	256.75	259.25	267.25	269.25	268.00	289.75	303.25	315.25	306.50	277.00	237.50	228.25	221.75	206.75	196.50	193.25	187.25	189.50	199.25	207.25	214.50	222.25	228.25	225.50	211.75	213.75	225.25	247.25	276.00	286.00	250.50	209.75	200.25	194.75	189.25	189.75	169.50	162.00	165.00	166.00	180.25	195.50	223.00	253.50	204.00	214.75	294.00	246.25	226.75	210.75	223.25	206.25	177.25	165.75	203.25	188.00	166.50	184.50	222.50	222.50	188.50	199.50	150.25	158.00	200.75	245.50	266.50	294.75	269.00	295.50	336.00	336.75	295.75	262.75	218.00	192.75	164.75	129.25	122.00	179.50	175.25	171.25	175.00	152.50	122.75	125.00	141.00	154.50	204.25	219.25	328.50	436.25	363.50	211.00	271.25	268.25	228.50	283.25	337.50	388.50	350.50	332.75
166.50	162.50	189.00	231.00	242.50	222.50	331.00	258.00	206.50	180.50	169.50	168.50	221.00	362.00	409.00	461.00	340.00	223.50	182.50	159.50	170.50	247.50	331.00	218.00	188.00	118.00	184.00	237.50	207.50	139.00	182.00	278.50	342.00	224.00	267.00	394.50	484.50	524.00	305.00	276.50	268.50	206.50	231.00	274.00	376.00	357.50	344.50	309.00	348.50	280.50	257.50	232.50	231.00	225.00	235.00	243.50	275.50	287.00	295.50	243.50	240.50	226.00	247.50	298.00	321.50	356.00	342.50	345.50	335.00	271.50	368.00	287.00	269.50	305.00	261.50	230.50	303.00	304.50	312.00	264.50	212.00	192.50	179.50	174.50	178.00	173.50	164.50	163.50	169.00	192.00	220.00	219.50	162.50	158.50	156.50	156.50	157.50	158.50	157.50	150.00	154.00	154.00	148.50	165.50	171.50	169.00	164.00	157.50	148.00	154.00	161.50	162.50	152.00	145.00	146.00	143.50	143.00	143.50	158.50	156.00	176.00	195.50	184.50	179.00	200.50	199.00	170.50	190.00	174.50	170.00	192.50	211.50	249.00	260.00	248.50	273.50	237.50	243.00	228.50	218.00	260.50	247.00	267.50	263.00	263.50	239.50	236.00	224.00	203.00	206.50	193.00	191.00	192.00	196.00	232.50	272.50	286.00	261.50	262.00	266.50	293.00	305.50	293.50	272.00	243.00	233.00	241.50	218.00	197.50	188.00	187.00	190.50	208.00	198.50	205.50	216.00	224.00	230.50	218.00	220.50	231.50	251.00	265.00	277.00	271.50	206.50	178.50	180.00	172.00	172.00	162.50	163.50	171.00	171.50	188.50	218.00	188.50	250.50	217.50	215.50	313.00	261.00	216.00	224.00	235.00	193.50	162.50	178.50	220.50	201.00	174.00	177.50	254.00	237.00	212.50	201.00	153.00	158.50	225.50	279.00	270.50	328.50	274.00	327.00	318.50	316.00	300.00	281.00	219.00	171.50	150.00	129.00	119.50	178.00	189.00	185.50	186.50	141.00	118.00	131.00	153.00	155.50	174.00	202.50	300.00	435.50	385.00	217.50	306.50	344.50	231.00	252.50	323.50	351.00	293.50	265.00
160.50	173.75	203.50	264.25	332.00	305.50	339.50	247.00	221.25	241.00	207.50	255.50	225.00	339.25	412.50	369.75	302.25	298.75	263.75	187.25	284.00	305.00	316.25	334.00	289.50	157.75	127.25	136.50	148.50	123.50	137.50	211.25	236.50	203.50	240.75	337.00	348.75	441.75	287.25	233.75	270.75	218.50	198.75	230.00	288.75	362.50	411.75	331.25	287.25	284.00	268.75	254.75	268.50	251.25	239.25	253.00	300.25	292.25	256.75	253.75	290.25	241.50	292.50	314.50	344.00	370.00	403.00	370.25	372.25	297.75	371.75	293.50	340.00	327.50	279.50	263.00	264.25	309.75	345.50	316.00	265.75	210.25	189.75	184.25	192.00	180.25	169.25	175.75	193.00	220.75	244.00	202.50	162.00	160.25	160.00	159.75	162.50	161.50	156.75	156.75	157.75	152.75	157.25	169.50	166.00	161.75	158.25	155.50	156.00	162.25	170.25	168.25	157.50	148.50	147.00	145.50	145.25	145.50	146.50	149.50	164.00	166.75	164.00	180.00	203.75	189.25	167.00	181.50	170.50	185.25	209.50	238.00	239.25	261.25	240.50	256.00	224.00	208.50	209.50	240.25	246.50	238.25	229.25	250.00	281.50	269.00	247.25	225.00	224.75	224.00	214.50	209.00	189.00	196.25	250.75	292.00	286.00	242.75	235.50	256.00	273.25	255.50	266.25	255.00	252.25	245.00	216.75	208.25	208.50	194.00	186.50	197.50	219.75	217.50	210.75	203.00	215.75	234.75	238.25	219.50	220.75	227.75	241.75	259.75	232.25	216.00	198.50	193.25	186.50	172.50	165.00	186.25	190.25	196.00	209.50	225.00	217.50	239.75	258.75	236.25	276.25	287.25	284.50	269.00	237.00	222.00	194.75	190.75	271.50	257.50	193.25	225.25	228.00	220.75	200.50	175.25	176.25	165.25	209.75	310.50	384.50	369.50	356.75	393.00	301.00	268.50	226.50	228.00	191.25	157.75	140.75	124.75	129.50	153.00	162.50	168.25	145.75	125.50	121.75	130.50	145.25	165.00	199.25	224.25	278.25	322.00	267.00	228.00	335.50	379.75	341.75	248.50	279.50	264.75	285.75	363.75
164.50	183.25	219.75	304.50	411.75	370.00	301.50	229.50	246.00	274.50	251.50	281.50	262.25	271.25	359.25	346.00	355.75	401.50	326.75	219.25	327.75	358.25	251.00	351.25	345.50	189.25	131.50	125.00	119.00	120.00	122.25	149.00	178.00	226.25	239.75	264.75	302.00	404.50	290.00	231.00	241.75	221.75	184.75	208.75	308.00	366.50	370.75	344.75	281.50	301.25	277.25	276.75	277.50	260.00	238.25	243.25	292.25	301.50	252.25	284.75	320.75	245.75	311.50	359.25	382.25	399.50	433.50	405.25	397.25	336.25	378.25	307.25	359.00	333.25	328.25	284.25	260.00	307.25	365.25	323.50	320.50	232.00	200.00	193.75	202.25	180.75	181.75	187.50	215.50	266.00	231.25	180.25	163.50	161.50	162.25	161.50	164.75	158.25	160.00	163.25	160.50	153.00	162.75	169.25	163.25	163.25	163.50	163.00	166.50	168.75	171.50	163.75	150.50	148.25	147.50	146.75	146.50	146.50	145.75	147.50	147.25	151.00	154.00	166.00	189.75	177.00	166.75	173.75	170.50	204.25	222.50	234.25	221.75	236.00	230.50	222.50	228.50	200.00	201.50	247.00	240.75	219.75	207.00	240.25	295.25	282.75	246.25	234.75	253.00	228.00	224.75	219.00	188.00	194.00	223.25	255.00	259.00	225.25	232.25	254.50	253.25	236.50	236.25	229.75	235.00	241.75	214.50	205.75	200.50	197.25	186.25	201.50	220.00	228.00	227.25	202.25	216.75	253.75	251.25	232.00	228.00	223.00	233.25	228.00	211.00	221.75	221.75	215.25	189.00	182.00	167.25	194.75	212.75	216.50	231.00	230.50	245.00	234.25	260.25	247.75	259.50	294.25	339.25	291.50	253.25	269.25	195.25	202.00	286.25	260.50	198.25	237.75	230.00	207.75	193.25	203.75	211.50	175.75	209.75	303.00	423.75	395.75	385.75	407.75	300.00	270.50	221.25	190.75	164.25	146.75	134.25	123.25	147.50	139.75	156.00	169.75	134.00	120.50	126.75	136.00	138.25	159.00	184.75	231.75	300.00	307.00	244.75	255.25	350.00	380.00	382.50	313.00	258.00	304.25	356.75	409.00
185.00	180.75	267.25	360.00	325.00	302.00	265.50	286.50	336.00	408.25	381.50	414.50	324.25	218.00	272.75	393.75	443.25	463.00	393.75	347.75	317.00	323.75	250.75	183.00	214.25	153.25	195.75	249.25	165.00	123.25	122.00	130.00	195.50	209.00	176.00	257.25	324.00	323.50	270.25	234.25	187.25	180.00	194.50	225.25	307.00	305.50	317.00	355.25	338.75	392.50	351.50	302.75	275.25	271.25	265.50	262.75	271.50	300.75	299.25	316.75	281.25	278.75	297.50	360.75	444.50	479.00	519.50	488.50	451.50	380.50	374.50	379.50	347.25	354.75	322.75	332.00	297.75	310.50	378.00	339.00	287.75	275.50	240.75	222.00	213.75	207.50	236.75	259.75	267.25	242.00	189.75	168.75	165.00	164.00	164.00	165.00	163.25	163.75	167.50	167.75	165.00	154.50	173.25	179.25	174.25	179.00	182.50	177.00	173.25	165.25	158.75	152.75	150.75	151.25	151.25	150.25	149.00	147.75	146.75	146.25	146.50	146.50	147.00	148.75	166.00	163.50	175.00	175.50	167.50	194.25	214.50	222.50	202.50	222.75	256.00	214.00	218.25	210.00	193.50	218.75	230.75	193.50	231.00	253.25	257.00	270.50	251.50	259.25	267.25	251.25	227.25	204.00	188.50	203.50	233.50	245.75	226.50	223.25	251.50	239.00	269.75	269.00	239.00	212.00	203.50	219.50	220.25	210.75	185.00	184.25	190.50	206.00	212.00	223.50	230.75	212.75	203.75	232.50	223.00	229.00	245.25	236.50	241.75	231.00	203.25	200.50	198.25	183.25	169.00	174.50	194.00	188.50	204.25	245.25	268.50	283.75	273.75	306.00	285.75	279.75	293.00	351.75	381.50	298.75	236.25	217.75	195.00	224.25	252.50	215.50	213.75	248.25	261.25	290.25	288.50	237.50	203.75	212.25	207.50	252.50	333.50	324.50	333.50	390.75	293.50	247.50	208.25	172.00	150.25	138.50	128.75	137.50	190.75	178.00	169.25	140.50	123.00	127.25	147.75	150.75	175.75	179.50	173.75	186.75	227.75	244.00	262.50	241.50	320.50	349.00	369.75	392.75	359.50	349.25	419.00	439.00
190.75	221.25	306.00	397.50	329.00	350.00	267.00	356.75	355.75	406.00	489.75	510.50	323.75	256.50	363.75	431.50	541.25	511.75	447.75	381.00	348.00	247.25	223.25	267.25	205.25	173.25	306.00	379.75	210.25	128.00	151.75	127.50	122.00	142.50	149.50	233.00	319.50	230.00	228.25	198.25	178.25	172.75	182.00	196.50	247.75	248.75	290.75	398.75	364.75	332.75	378.50	348.25	293.00	280.00	258.00	268.75	294.50	272.50	293.25	321.25	332.25	363.50	364.00	420.25	403.75	375.00	407.75	497.00	481.50	443.50	373.75	399.50	392.50	377.25	350.25	371.00	347.00	333.50	399.00	314.50	290.50	263.25	319.25	305.00	297.25	244.50	350.50	327.50	272.50	198.75	171.50	169.00	167.25	169.00	170.50	171.50	173.50	176.25	174.25	172.75	163.50	157.75	179.00	190.50	184.25	179.00	178.00	175.75	167.25	158.00	154.25	153.25	153.00	153.75	153.00	152.25	150.75	150.50	149.00	152.50	148.00	148.25	147.75	147.75	148.00	165.50	183.50	171.75	164.25	192.00	192.25	221.00	198.25	230.00	249.50	221.75	203.25	210.75	195.50	222.25	215.25	199.50	220.00	222.25	237.50	275.50	274.75	267.75	240.25	250.25	211.75	195.50	206.50	229.25	234.25	237.25	216.75	242.25	257.75	226.50	244.25	304.50	248.75	220.25	209.25	196.00	195.50	187.00	183.75	183.75	194.25	199.75	204.25	210.75	229.50	222.75	216.50	203.75	221.00	251.25	258.25	252.75	242.00	242.50	213.25	185.00	172.75	174.75	194.50	233.50	278.00	298.50	228.75	192.00	216.50	234.00	273.50	336.00	355.25	387.50	352.50	396.25	359.25	296.50	272.00	251.75	254.50	286.50	307.00	251.75	222.50	288.25	338.75	365.75	271.00	252.50	264.25	278.75	291.00	303.00	299.00	298.50	390.00	429.00	329.00	283.00	206.25	179.50	149.25	132.50	150.00	177.75	200.00	175.75	152.75	130.50	124.25	158.00	150.75	147.00	194.00	237.00	227.25	237.25	279.50	270.25	302.25	264.25	273.75	339.00	367.25	377.50	392.50	409.75	431.25	471.00
197.00	195.75	275.75	343.50	380.25	285.50	313.25	396.50	399.00	419.00	425.75	323.75	253.00	236.75	337.50	422.75	496.50	463.50	378.50	308.00	250.50	213.75	295.00	332.00	256.50	212.50	266.25	326.25	204.50	144.25	224.00	167.25	143.25	123.75	143.00	239.75	331.75	246.75	191.75	171.00	154.50	161.75	182.75	185.00	204.50	258.50	289.50	374.75	313.25	342.75	311.75	379.75	304.50	277.75	255.00	230.50	241.25	248.25	295.50	361.25	417.50	309.50	302.50	355.25	432.00	344.25	310.75	368.25	397.75	443.25	435.50	465.00	468.25	438.50	455.75	457.75	416.25	370.00	399.75	350.50	323.00	303.00	368.75	401.00	348.50	235.25	264.25	276.50	202.00	178.75	173.50	171.75	173.25	177.00	179.50	181.50	185.25	180.00	172.00	164.75	157.00	164.25	179.25	183.00	181.25	172.25	168.25	165.00	159.75	156.75	155.50	155.00	158.00	159.00	154.75	152.50	158.50	162.00	160.50	156.50	162.25	157.75	149.00	148.50	148.50	152.50	152.25	160.00	168.75	176.75	198.50	216.25	202.50	195.50	222.00	215.00	194.50	195.00	194.25	213.00	191.00	191.50	199.75	227.50	238.00	266.75	278.75	250.75	229.25	230.25	211.25	185.25	224.25	223.00	211.00	206.00	219.50	237.25	251.00	208.25	218.50	249.25	270.25	257.25	248.50	227.00	200.75	183.00	182.50	184.25	208.50	212.00	222.50	226.75	248.00	245.00	229.50	207.50	228.25	271.50	245.25	216.75	213.75	212.25	196.75	176.50	182.75	189.00	232.50	279.50	357.25	338.00	259.50	209.50	259.00	254.25	300.00	327.00	321.50	331.50	321.00	363.50	331.25	319.00	352.25	335.50	329.50	307.50	278.75	272.75	278.00	339.25	351.25	296.00	308.75	347.00	396.75	382.50	435.25	430.00	322.75	298.50	441.75	374.25	276.75	221.75	250.00	171.50	136.75	132.25	140.00	160.00	183.00	172.00	165.00	133.75	126.25	178.25	163.50	149.00	180.25	184.50	196.75	219.75	284.00	333.75	330.50	298.00	307.25	336.25	330.00	343.75	363.25	408.00	432.25	455.50
180.75	230.50	354.75	351.00	295.25	355.50	472.25	487.00	471.00	425.25	344.00	255.75	336.00	284.75	257.00	316.75	379.75	447.00	426.75	419.25	280.75	282.25	316.25	332.25	297.50	333.50	322.25	209.50	167.25	179.75	265.00	209.25	173.00	123.50	147.00	243.25	253.00	270.00	163.00	148.00	190.50	194.00	240.75	247.00	217.50	287.25	363.25	299.50	284.25	329.50	280.75	355.00	316.50	264.75	250.75	239.25	240.25	262.25	305.00	376.50	422.50	312.50	276.00	308.75	321.50	284.75	320.00	358.25	404.00	319.25	419.50	469.00	525.00	548.00	495.50	431.75	382.25	400.75	410.75	371.75	392.75	350.25	315.00	301.25	311.25	303.50	203.75	189.00	181.25	178.25	177.25	177.75	182.25	187.50	192.25	193.50	194.50	187.75	174.00	161.50	161.00	178.50	185.75	178.75	174.75	172.50	171.00	163.25	159.25	158.00	158.25	162.25	162.75	158.50	154.25	158.75	167.50	172.00	166.00	163.00	162.25	154.75	151.00	152.50	149.75	149.75	149.75	151.25	167.25	165.00	170.00	189.25	180.50	176.50	215.25	194.25	191.75	193.75	193.00	187.75	179.25	212.50	236.75	260.50	275.25	261.00	228.25	228.25	214.75	206.75	202.00	182.75	199.00	199.75	199.75	214.00	230.75	241.25	236.25	208.75	199.50	227.50	232.50	243.50	258.75	209.75	184.25	182.00	185.75	193.00	197.25	205.25	211.25	229.75	266.75	260.00	243.75	216.25	215.75	238.50	242.00	232.50	218.00	206.50	187.25	187.00	228.50	221.25	266.25	335.75	321.50	298.00	255.00	211.75	215.00	254.50	285.00	261.75	296.75	283.25	264.50	299.75	324.75	303.00	338.00	307.50	325.25	271.75	265.50	269.25	301.00	351.25	355.75	384.00	482.25	535.50	578.25	480.00	517.50	415.25	312.50	304.50	350.25	292.75	262.75	217.25	219.25	155.25	134.25	143.75	155.25	171.00	196.50	172.50	151.50	148.50	136.75	154.00	174.50	180.50	205.50	223.75	220.75	276.50	269.25	317.50	345.00	329.50	375.00	394.25	387.25	385.00	394.25	415.25	444.00	444.75
221.50	229.50	322.75	408.00	321.50	352.75	418.50	470.50	449.75	364.25	299.00	315.75	337.50	347.00	269.00	311.00	347.00	447.00	460.25	409.50	309.00	343.00	350.75	364.75	368.00	393.50	342.25	222.25	168.00	211.25	271.75	291.50	200.75	125.00	144.25	198.00	232.75	248.50	151.25	150.75	191.25	186.50	250.75	262.50	231.75	254.50	335.50	322.25	283.00	300.25	257.25	303.25	301.75	262.75	238.25	241.50	235.75	270.25	314.00	363.50	392.00	346.50	294.75	274.50	278.00	286.50	310.75	331.50	365.25	288.25	364.00	410.75	468.00	473.00	458.25	431.50	358.50	358.00	398.75	402.50	418.00	360.25	302.75	280.50	272.00	280.25	204.75	188.75	184.75	181.00	180.50	184.50	194.50	197.25	203.50	201.00	190.00	179.00	167.00	165.50	169.75	184.75	190.75	184.00	178.75	173.50	169.75	163.25	161.00	162.25	163.00	163.00	159.25	157.75	160.00	165.00	172.75	173.75	167.25	162.75	159.25	154.00	152.00	154.75	158.50	151.50	150.25	150.75	157.50	156.50	157.50	167.00	174.50	177.50	202.00	185.50	188.25	188.25	177.75	179.50	189.75	213.75	239.25	255.50	278.75	248.00	217.75	214.50	207.25	196.75	188.25	182.50	198.50	203.75	210.75	224.00	229.25	223.75	228.00	211.75	193.50	218.75	209.25	222.25	220.25	188.75	181.25	182.00	197.00	206.00	205.75	217.75	219.00	228.50	266.00	244.25	233.75	216.25	212.75	227.25	261.50	255.50	211.25	197.00	180.50	197.25	267.25	250.50	346.75	380.25	345.00	299.00	245.75	219.75	222.75	239.75	249.25	257.25	305.00	270.25	253.50	288.00	285.50	321.25	338.75	287.00	328.25	265.00	247.00	261.00	306.75	351.25	427.00	486.00	516.50	564.25	590.00	426.25	463.00	369.00	279.50	277.25	299.00	260.75	258.50	226.50	188.50	145.00	142.00	156.75	185.50	226.25	243.25	194.50	165.25	198.50	170.75	139.25	188.00	223.75	269.00	306.00	253.25	329.50	296.00	322.50	316.00	323.50	367.25	388.75	383.50	396.50	409.75	411.25	402.00	420.25
289.50	232.50	258.50	387.50	380.50	396.50	354.00	401.50	398.00	328.50	310.00	420.50	369.00	374.50	299.50	371.50	419.00	425.50	469.00	431.50	358.00	419.50	366.50	434.00	445.50	385.50	260.50	207.00	193.00	193.50	224.50	338.00	195.50	125.50	186.00	208.50	228.00	165.00	149.00	185.50	175.50	171.50	202.50	231.00	276.00	231.00	318.50	356.00	299.00	342.00	287.00	260.00	295.50	270.00	240.50	223.00	224.00	263.50	304.00	304.50	354.00	322.50	309.00	255.00	256.00	291.50	279.50	266.50	283.50	270.00	301.00	329.00	403.00	383.50	380.00	392.00	377.00	315.50	339.50	368.00	391.00	371.50	347.00	336.50	309.50	255.00	206.00	210.00	197.00	187.50	183.50	195.50	214.50	220.00	203.00	191.00	170.50	164.00	170.00	184.50	188.50	192.00	187.50	185.00	178.50	167.00	165.50	163.50	164.50	169.50	165.00	159.50	162.00	163.50	174.50	178.50	181.00	177.50	168.00	159.00	157.00	155.00	154.00	154.00	174.00	163.00	154.00	150.50	151.00	151.50	152.50	152.50	164.00	169.50	190.50	187.00	179.00	174.00	173.00	181.50	185.00	201.50	244.00	271.00	247.00	236.50	234.50	203.00	201.50	181.00	180.00	192.00	219.50	231.00	224.50	223.00	212.00	205.50	218.00	207.00	188.00	198.00	188.50	188.50	181.00	180.50	181.00	189.00	207.50	220.50	231.50	243.00	241.50	247.50	264.50	242.00	229.50	214.00	216.00	220.50	254.50	232.50	208.50	197.00	177.00	206.00	295.00	313.50	436.00	496.50	415.50	288.00	250.50	250.00	259.50	260.00	244.50	294.50	327.50	263.00	246.00	258.00	237.50	298.50	289.50	242.00	304.50	301.50	240.00	272.00	341.50	423.50	480.50	514.00	473.00	465.50	504.50	391.50	360.50	293.00	241.00	219.50	262.00	232.50	220.00	195.00	141.00	145.00	163.00	183.00	248.00	350.00	330.50	228.00	208.00	227.50	158.00	146.00	219.50	295.50	322.00	389.00	328.50	359.50	296.50	305.00	292.00	309.00	316.50	349.00	387.00	354.00	322.00	340.00	371.50	432.50
186.00	189.00	214.25	292.00	361.00	431.00	459.25	501.75	507.75	472.00	355.75	434.50	439.75	382.25	365.50	396.00	466.00	384.00	377.25	420.00	404.75	358.25	368.50	377.75	430.00	404.00	343.50	246.50	196.50	173.00	169.25	215.50	170.25	129.75	145.50	176.25	164.25	142.00	171.00	224.25	261.00	252.25	201.75	235.00	297.50	256.25	287.25	317.25	323.25	310.00	309.50	242.25	287.25	256.50	235.50	216.75	238.75	275.00	277.75	250.75	316.50	284.50	292.25	254.50	261.75	285.50	267.75	242.00	287.00	277.50	308.75	320.00	319.25	369.50	337.00	335.25	346.75	293.00	332.50	316.75	355.75	305.50	310.25	326.00	292.25	231.25	271.00	264.25	222.50	195.00	189.75	206.25	217.25	202.75	189.00	184.75	178.25	185.50	190.00	198.00	192.75	184.25	175.25	173.00	171.25	168.50	167.75	170.75	175.00	170.75	162.00	163.75	176.25	180.00	187.25	190.25	185.75	176.50	164.25	159.25	158.00	156.75	155.00	154.75	176.75	178.25	167.50	160.25	152.25	151.75	152.00	152.50	154.25	157.50	177.75	178.00	170.50	171.25	200.50	235.50	226.75	208.25	250.50	264.75	242.50	228.75	216.25	201.25	187.00	188.00	195.75	204.75	215.25	227.75	218.75	211.75	201.00	205.00	208.75	187.75	179.75	178.75	178.00	179.25	183.50	193.75	200.75	214.25	218.25	230.00	254.75	292.75	297.50	274.50	267.50	241.25	234.50	213.75	233.00	238.50	252.50	268.50	257.25	210.75	178.25	201.25	248.25	291.00	382.50	491.75	462.75	344.50	302.50	297.75	322.75	283.50	245.25	280.50	269.25	228.50	262.50	298.75	225.25	261.00	274.50	231.00	259.25	244.75	253.75	321.25	398.25	411.75	459.75	483.50	401.75	384.25	406.75	344.50	340.50	298.75	253.50	208.75	208.50	189.75	172.50	156.50	143.25	178.75	232.50	267.25	320.50	393.00	312.75	222.50	206.25	185.75	212.00	224.00	158.50	208.25	273.75	302.50	334.75	267.50	230.50	261.25	279.50	287.50	316.00	320.00	335.25	340.50	384.25	403.75	401.50	395.50
155.75	173.50	190.25	226.00	298.25	443.25	532.25	561.50	595.75	549.00	403.50	391.75	447.50	460.00	418.75	385.50	472.50	379.25	282.50	341.25	425.75	323.25	323.50	348.00	356.75	439.25	357.50	248.00	201.25	185.75	151.50	147.50	143.25	130.75	126.25	130.50	130.50	146.75	206.25	222.50	336.75	290.25	221.25	209.00	306.00	304.75	296.00	279.00	324.00	255.75	293.00	241.50	254.00	251.00	227.25	217.50	233.25	271.25	272.75	240.00	281.50	259.50	311.25	280.25	238.75	265.75	258.25	253.50	317.50	282.25	315.00	301.75	315.50	347.50	336.00	305.75	337.75	284.75	333.00	293.50	321.00	278.50	256.75	283.75	246.25	217.00	277.50	292.50	246.50	201.50	194.75	210.75	211.75	197.50	194.50	193.25	195.25	204.25	203.75	197.50	184.75	177.25	175.00	172.00	171.00	171.25	172.50	180.00	179.50	169.25	161.75	173.75	187.50	190.50	190.25	188.75	181.00	169.75	161.25	160.25	159.50	158.25	156.00	155.75	174.00	184.75	178.50	171.00	160.25	154.75	152.25	153.25	153.50	155.25	160.00	161.00	171.75	184.25	220.00	282.50	283.50	225.50	276.25	291.50	242.00	222.00	194.00	191.75	180.25	214.50	214.25	220.50	220.00	225.00	215.75	204.25	197.50	208.50	193.50	176.00	175.75	177.50	178.25	179.50	184.75	200.50	206.75	223.75	234.00	244.50	249.00	281.25	312.00	270.25	253.00	245.75	236.50	218.00	229.75	246.50	271.25	262.50	252.00	214.00	180.00	196.75	235.25	277.75	418.25	536.00	491.25	395.75	347.75	314.50	326.50	254.00	230.25	224.00	225.25	225.25	306.75	327.25	224.00	238.00	282.50	234.00	234.50	227.50	261.00	346.25	374.00	366.00	430.50	470.50	388.00	346.25	364.25	320.00	322.00	305.25	263.00	220.75	178.25	173.00	159.50	148.75	158.25	218.25	291.25	321.25	327.25	358.25	311.75	206.50	197.50	218.75	249.50	263.50	167.75	167.50	221.75	210.25	263.75	211.75	230.25	292.00	269.50	254.25	267.25	298.50	346.75	396.00	417.50	426.75	438.75	402.50
163.75	179.25	242.00	257.25	291.75	423.25	546.00	606.75	598.75	576.00	465.00	407.75	400.75	513.50	469.50	428.75	452.25	430.00	325.00	262.25	341.50	404.25	356.25	262.75	234.25	277.50	245.00	215.00	193.25	192.75	164.25	156.25	133.50	129.00	124.50	142.25	133.50	144.25	233.00	291.00	353.00	280.75	247.75	269.75	275.25	320.75	329.00	252.25	275.00	299.00	242.25	254.00	219.00	247.00	218.75	225.25	206.75	244.75	285.00	250.00	229.25	235.00	285.00	265.50	242.75	236.00	216.50	239.00	259.50	248.50	264.25	299.00	353.00	341.25	335.25	290.50	278.50	273.00	276.50	268.00	299.50	256.00	230.75	226.75	222.00	248.75	309.25	299.50	252.50	216.00	217.75	219.50	235.00	226.00	219.00	213.00	203.50	199.75	190.50	185.00	182.50	179.50	178.25	177.25	177.50	181.75	185.50	185.25	180.00	167.25	164.25	185.00	199.25	193.00	183.00	180.00	173.25	164.50	163.00	161.50	160.75	162.25	159.25	156.50	168.00	196.25	189.75	182.50	174.00	167.75	157.50	154.25	153.75	154.75	156.75	157.25	182.50	202.25	214.25	246.25	314.50	275.50	279.75	336.50	246.00	213.00	207.00	187.50	177.75	217.00	203.50	205.25	221.75	219.50	210.00	195.00	190.50	195.50	177.00	175.75	176.50	179.50	180.00	197.25	200.00	196.50	191.00	190.00	199.00	227.75	226.25	245.50	267.50	266.50	243.50	229.50	228.75	248.75	235.00	253.25	281.75	254.50	204.25	198.50	182.25	198.75	250.00	301.50	507.00	507.25	434.00	376.75	361.00	328.25	286.50	233.75	253.75	207.00	197.00	271.75	321.75	267.50	209.75	222.25	273.75	219.00	204.75	256.50	259.50	351.25	319.25	367.25	403.50	378.75	338.00	306.75	345.75	301.75	307.25	340.25	306.00	248.25	184.50	174.00	154.25	149.50	195.00	277.50	308.50	282.00	282.50	314.00	280.25	228.00	199.00	208.25	252.75	275.25	254.75	210.50	168.50	166.00	166.00	176.00	239.50	247.25	216.25	265.75	328.00	377.25	398.00	407.75	436.25	457.25	475.00	434.25
165.50	186.75	232.75	268.75	393.50	394.25	473.25	519.25	463.75	496.75	510.00	527.50	446.25	527.00	496.75	467.25	446.00	421.50	334.25	284.75	243.75	270.50	435.25	349.50	251.00	181.25	172.50	176.50	172.25	227.75	226.00	226.00	149.00	128.75	125.25	125.50	126.75	145.50	209.00	276.00	273.25	333.00	325.75	360.50	304.75	304.00	277.75	283.75	234.75	296.50	227.25	235.00	215.75	266.00	231.50	223.50	191.75	216.75	264.25	260.25	220.75	234.75	241.75	219.25	206.00	233.25	277.00	237.50	293.75	295.75	296.50	365.25	412.50	334.50	311.75	326.00	323.75	312.50	280.75	249.75	248.25	244.50	245.50	274.75	280.75	280.00	295.00	273.25	239.00	265.25	309.00	245.75	236.75	226.50	211.50	207.50	198.00	194.50	190.25	188.25	186.25	184.50	186.50	191.25	195.00	191.00	183.50	172.75	168.75	165.75	178.50	186.00	194.25	193.00	182.50	172.00	167.75	165.75	164.25	163.00	167.25	167.50	160.50	158.50	172.50	199.25	190.75	180.75	174.25	176.75	160.50	161.25	160.50	155.00	155.50	156.50	159.00	174.75	198.50	228.50	247.00	235.75	258.50	249.25	232.25	211.50	194.25	186.50	174.00	185.75	193.25	200.00	214.75	209.75	202.25	209.50	186.25	175.75	173.75	177.25	186.25	199.75	185.50	214.00	237.00	237.00	218.25	207.50	190.50	196.75	210.50	229.00	256.25	246.00	247.25	256.75	243.00	246.50	250.50	268.50	266.25	240.25	222.00	209.00	191.75	188.25	235.25	288.25	437.75	431.50	356.25	327.25	339.00	306.25	264.75	228.25	256.25	185.25	240.00	276.25	312.25	251.75	201.25	210.75	253.50	239.00	183.50	248.25	209.50	309.00	297.50	379.50	358.75	301.50	285.00	292.25	269.50	269.50	272.50	311.25	241.75	250.50	195.50	184.25	154.75	163.50	246.25	293.00	306.75	295.75	276.75	252.00	250.25	219.25	201.00	180.75	209.25	258.00	288.00	263.00	261.00	234.25	202.50	203.25	264.00	274.50	247.25	264.50	313.25	356.75	379.25	420.00	459.00	456.00	467.25	476.00
162.75	167.00	244.50	258.25	298.50	294.00	330.25	477.50	388.75	372.50	414.75	519.75	466.50	447.75	500.00	492.75	451.25	412.50	411.25	441.75	367.75	262.50	236.25	313.25	282.50	210.50	167.00	150.50	148.50	201.25	280.00	178.25	134.00	131.50	173.50	143.00	134.00	129.25	135.50	177.25	222.75	260.75	292.50	419.50	372.00	283.25	243.75	310.50	269.75	287.50	235.50	217.75	203.50	252.50	237.50	201.25	189.25	213.75	242.25	230.50	215.75	213.75	239.00	204.25	217.50	245.50	261.00	250.00	238.50	300.00	320.75	387.50	405.75	348.50	299.50	290.50	320.50	315.75	296.00	261.75	296.50	310.00	283.75	337.25	284.25	294.50	356.50	275.75	230.50	277.50	332.25	321.75	249.75	227.00	217.25	213.00	201.75	197.75	194.75	192.75	190.25	195.00	198.00	203.25	195.75	184.00	184.00	188.75	179.00	170.00	186.00	190.25	185.75	185.75	177.25	171.25	169.50	167.50	166.75	173.25	175.25	164.50	160.50	161.00	189.00	224.00	209.25	182.75	164.50	161.00	169.00	183.25	171.25	159.75	156.00	157.25	157.75	159.50	199.00	220.25	229.75	254.50	278.75	237.50	203.25	193.00	189.00	182.25	173.00	192.50	236.25	220.75	205.00	193.50	200.00	197.50	174.75	172.75	173.50	197.75	213.75	206.50	192.25	211.75	223.75	231.75	234.25	216.25	196.50	190.75	220.00	206.25	220.25	225.50	228.00	237.00	226.00	228.00	231.75	238.25	269.25	294.00	240.00	214.25	204.75	196.25	217.25	251.50	284.50	290.25	322.25	303.50	325.25	294.25	220.50	235.50	259.00	201.50	251.25	244.00	277.50	229.00	185.25	208.50	258.00	222.25	176.00	231.25	188.75	277.00	258.75	293.50	268.25	280.50	319.75	260.50	240.00	240.25	275.75	301.25	251.50	201.75	172.25	158.25	178.25	207.75	216.75	244.50	297.50	304.25	300.00	233.75	235.50	261.75	233.50	197.25	191.50	220.00	234.25	264.50	285.75	275.00	235.00	280.00	320.50	334.50	302.00	287.75	326.50	365.75	386.00	426.50	453.75	442.75	485.75	522.50
169.75	168.25	200.75	208.00	227.25	255.50	335.00	389.25	343.75	300.50	352.75	454.00	416.50	349.00	438.00	496.75	499.75	467.00	506.50	547.00	509.00	459.50	347.00	205.75	196.25	189.75	161.50	145.25	141.25	151.50	187.50	165.00	130.75	146.25	222.00	171.75	234.00	214.50	138.25	136.75	197.25	192.25	238.00	354.00	441.50	350.75	288.75	227.25	245.25	207.75	255.75	201.00	219.50	225.25	213.75	191.50	193.00	223.50	239.50	210.25	205.25	224.75	223.50	206.25	259.00	309.25	306.50	292.50	286.25	260.75	283.00	312.25	348.25	357.50	336.50	305.50	303.00	312.50	286.50	334.75	392.75	323.75	322.25	331.25	310.50	304.75	354.25	307.75	248.00	312.50	360.25	320.00	254.00	240.25	235.50	227.75	211.00	204.25	200.00	197.75	201.25	211.75	210.50	202.25	196.00	206.75	205.00	189.50	176.00	176.00	198.25	198.25	187.50	181.25	173.75	172.75	171.25	169.25	176.25	185.75	179.50	164.25	162.00	163.25	190.00	232.75	201.00	177.50	181.75	174.75	185.75	185.50	181.50	186.25	159.25	157.00	157.00	157.75	187.00	221.25	259.25	318.75	328.50	284.75	234.50	208.50	189.25	175.00	171.50	206.75	226.00	236.25	215.25	194.50	197.25	181.25	171.50	173.25	185.75	210.25	216.25	214.75	210.50	196.25	192.50	216.00	228.00	216.00	212.50	206.50	200.75	198.00	194.00	204.25	209.25	223.25	207.75	226.50	219.00	224.75	266.50	315.25	250.00	231.50	234.00	204.50	205.25	234.75	226.00	239.50	268.50	276.75	289.75	228.75	208.75	209.00	232.00	173.00	200.00	237.00	269.75	205.00	169.00	220.50	193.25	189.75	164.50	197.00	177.50	217.50	218.00	249.50	238.50	287.25	260.25	214.50	218.00	290.50	311.75	268.25	219.50	191.75	244.25	185.00	207.25	328.00	399.25	323.50	283.00	283.25	252.25	235.25	192.50	258.25	246.75	235.75	232.75	249.00	255.25	258.25	297.50	306.25	255.75	289.75	325.50	341.75	329.75	302.75	328.75	359.50	368.50	405.00	397.25	473.00	515.50	490.25
175.75	173.00	192.75	216.50	262.25	329.50	344.25	345.50	305.25	296.00	332.75	399.75	351.00	338.50	469.25	521.75	547.25	468.00	486.25	538.00	461.00	484.00	390.75	235.50	178.00	169.00	156.25	150.50	146.00	137.50	144.25	143.50	130.00	166.25	233.00	211.75	293.25	249.75	197.25	134.00	191.25	172.00	221.00	281.50	388.00	355.00	273.00	252.25	216.75	198.75	234.25	207.75	231.50	222.50	201.25	182.50	196.75	223.00	223.00	205.25	211.25	224.50	202.25	233.25	281.25	307.25	335.25	358.25	376.50	337.25	296.25	327.25	334.75	356.25	332.25	306.25	365.25	351.75	321.50	375.00	369.25	309.50	351.50	380.75	371.25	366.50	350.00	303.00	244.00	337.75	379.00	298.00	300.25	297.00	258.75	242.00	217.50	208.75	204.75	202.50	209.50	224.25	229.25	219.00	211.75	215.00	207.00	187.75	175.25	181.75	207.00	200.75	186.50	180.75	174.75	174.00	173.25	177.75	186.75	185.75	178.75	165.00	163.25	165.00	196.50	211.75	182.50	178.25	185.25	178.25	195.25	191.50	191.50	189.25	169.00	163.25	158.25	157.75	173.25	219.25	247.75	313.25	280.50	327.00	307.75	235.00	192.25	173.50	178.00	209.25	223.75	236.25	210.00	193.25	184.25	171.75	173.25	179.25	187.25	199.00	209.50	218.75	225.00	217.25	203.00	204.75	212.50	232.50	234.50	223.00	195.25	200.75	200.75	195.75	203.00	209.75	203.25	215.25	209.00	227.75	266.50	321.25	264.00	244.00	245.00	215.50	206.00	222.50	246.25	276.75	257.25	249.50	249.00	204.25	187.00	184.75	208.00	165.25	195.50	251.50	231.25	200.75	164.00	197.00	178.50	180.50	155.75	168.75	178.00	194.50	214.00	243.75	233.00	247.00	224.75	203.25	234.75	303.00	311.00	254.00	213.75	196.75	294.25	200.00	212.25	322.25	436.50	311.50	244.50	264.75	219.00	219.25	183.25	222.75	232.50	277.50	258.75	266.50	283.50	271.50	296.25	319.75	308.50	300.25	312.75	316.00	304.75	293.50	321.50	355.25	349.75	369.00	381.25	449.25	445.50	388.25
188.75	181.00	206.25	252.75	333.00	380.00	336.75	308.75	267.50	301.00	342.25	374.75	295.75	351.50	458.50	503.25	569.75	452.25	443.00	498.25	371.00	391.75	323.00	251.75	187.75	170.00	159.50	158.50	152.25	140.25	138.50	134.00	129.50	171.75	234.25	260.50	344.75	277.00	290.25	150.75	154.75	147.75	197.25	195.25	360.25	327.00	249.00	276.00	243.50	204.50	199.25	218.25	218.75	211.25	189.50	176.25	205.75	214.75	198.50	193.25	215.75	204.75	199.25	248.50	285.75	278.50	351.00	444.50	491.25	396.50	352.00	392.75	381.00	363.50	336.75	315.00	422.00	351.50	375.50	378.75	339.50	325.00	383.00	440.00	419.00	399.75	336.50	283.50	237.75	336.00	388.25	309.25	367.25	343.50	297.00	269.25	224.00	213.50	210.00	209.25	218.00	231.50	242.75	225.50	218.75	216.75	205.75	184.25	172.75	187.75	207.50	195.75	181.75	179.50	176.25	175.75	177.75	189.75	191.25	181.25	174.00	165.00	164.25	167.75	210.25	202.50	172.25	199.25	183.50	181.75	198.50	200.50	197.50	187.75	180.25	175.50	160.75	158.50	165.25	186.50	206.50	273.00	273.25	335.00	355.50	265.00	190.50	172.50	189.25	233.75	234.50	238.75	200.75	183.00	171.75	170.50	178.25	192.00	187.75	198.00	208.50	222.75	239.00	245.50	223.25	206.25	202.75	244.25	242.25	229.25	203.50	212.25	204.75	200.00	209.25	208.25	203.75	205.75	210.50	231.00	273.75	321.75	268.50	248.00	260.00	225.25	203.00	230.25	277.00	300.50	247.25	210.50	206.75	181.50	170.00	174.75	183.75	160.75	195.50	243.50	205.50	201.25	156.50	168.75	171.25	173.25	150.50	158.00	177.75	188.00	207.75	232.50	230.00	211.75	194.50	197.25	230.50	285.75	302.00	279.50	256.25	209.00	257.25	197.50	206.50	285.00	363.25	270.00	216.75	264.00	196.00	191.75	176.75	202.50	238.50	293.75	279.50	277.25	297.50	289.50	299.75	321.25	339.00	326.00	307.00	285.50	259.00	271.25	301.25	324.50	323.75	340.75	373.25	431.75	381.25	314.00
224.75	198.00	203.00	245.50	319.25	302.75	284.75	272.50	258.25	297.50	322.25	320.25	321.25	423.75	491.25	497.25	492.50	408.50	373.75	402.75	324.75	319.75	332.25	280.25	248.25	184.00	170.25	158.75	152.00	156.25	156.50	133.00	136.00	194.25	198.25	261.25	368.25	355.25	284.25	195.75	156.50	138.25	158.50	159.25	290.25	263.75	213.75	269.50	283.75	193.75	222.00	242.00	211.25	194.75	179.50	179.00	210.00	198.00	189.00	195.25	199.00	187.00	206.50	245.00	309.75	318.75	383.50	456.75	549.25	415.50	446.75	476.00	480.50	420.50	366.50	366.50	442.00	415.75	403.50	394.75	379.00	352.50	420.25	455.50	421.00	370.25	342.00	297.50	248.75	320.50	333.50	381.00	428.75	399.50	344.50	316.25	233.75	220.25	220.00	222.00	227.00	222.25	228.25	220.50	206.75	204.25	199.75	179.50	179.00	198.75	200.25	189.00	181.25	180.50	178.25	179.00	188.50	193.50	185.50	180.50	176.00	166.00	165.75	173.00	208.75	211.50	176.00	214.50	196.25	192.50	189.50	204.25	202.75	183.50	192.75	184.25	171.50	160.50	160.50	164.25	182.00	221.25	258.00	279.50	303.75	281.00	184.50	191.00	232.50	229.50	211.00	205.00	181.25	171.50	170.25	171.25	189.00	207.00	202.25	211.50	227.25	248.75	263.25	266.75	235.50	214.25	203.75	219.50	222.75	226.00	218.75	217.50	204.25	216.50	229.50	224.00	216.50	218.00	222.00	226.75	268.25	290.50	249.25	234.00	241.75	229.50	199.50	220.00	260.50	266.75	232.25	193.75	181.00	166.50	161.50	182.00	166.00	178.00	209.25	212.50	202.00	186.50	151.25	160.00	172.00	175.00	146.75	151.25	169.25	170.75	190.50	201.25	219.75	191.50	186.75	232.75	230.75	244.00	266.25	274.00	284.00	222.25	225.75	197.50	194.75	235.50	270.75	235.75	202.75	229.50	184.00	174.25	168.00	219.50	246.75	293.25	286.50	293.75	300.50	304.50	311.00	313.75	315.00	315.50	285.25	239.25	255.25	286.50	307.50	319.50	344.00	393.50	391.25	439.75	384.00	312.75
270.00	210.00	210.00	205.50	207.00	213.00	215.50	237.50	233.50	245.50	264.50	289.00	325.00	521.00	550.00	501.50	452.50	347.00	330.00	350.00	296.50	367.50	516.00	448.50	355.00	257.50	203.50	156.00	158.00	228.00	228.00	129.00	145.50	217.00	198.50	274.00	403.50	426.00	299.00	283.00	190.00	184.50	140.50	136.50	169.00	172.50	176.50	245.50	283.00	177.00	270.00	272.00	213.00	194.00	173.00	199.00	199.00	177.50	201.00	210.50	179.50	192.00	197.00	215.50	288.00	380.50	387.00	509.00	536.00	508.50	583.00	553.00	520.50	500.50	463.00	469.50	457.50	520.50	455.50	486.50	397.50	382.00	463.00	485.50	432.00	405.50	368.00	306.50	254.00	333.00	310.00	413.00	512.50	401.50	350.00	326.00	244.00	242.50	242.50	240.50	222.00	202.00	196.00	213.50	190.00	181.50	178.00	182.50	196.00	208.50	189.00	186.00	182.50	182.00	181.00	189.50	200.50	189.00	188.00	191.00	184.00	168.00	167.50	182.50	204.00	221.00	184.50	207.00	218.00	204.50	197.50	192.50	210.50	187.50	200.00	188.50	185.50	163.50	162.50	160.00	161.50	168.50	183.00	210.50	239.50	263.00	175.00	244.50	277.50	182.00	170.00	170.00	170.00	170.00	170.50	172.00	195.00	222.00	218.00	227.50	251.00	243.50	246.00	250.00	241.50	239.00	216.00	202.50	216.50	241.50	236.50	220.50	203.50	210.50	238.00	244.50	237.00	238.00	261.00	233.00	244.00	268.50	247.00	235.00	218.50	234.50	203.50	211.00	246.50	229.00	207.50	185.00	169.50	154.50	162.50	180.50	153.00	195.00	232.00	204.00	205.00	162.00	146.50	152.50	163.50	169.50	145.00	141.50	147.50	158.00	175.50	173.50	195.00	172.00	213.50	258.50	274.00	203.00	206.00	229.00	221.50	234.50	245.50	211.00	188.00	206.00	213.00	195.00	184.50	182.00	189.00	193.00	173.50	178.50	216.00	295.50	278.00	308.00	266.50	301.50	301.00	296.50	248.00	291.50	231.50	194.00	255.50	325.00	339.00	363.50	439.00	421.50	427.00	438.00	339.00	291.50
244.75	229.75	305.25	283.50	259.50	239.25	265.50	307.50	341.75	317.00	328.25	415.50	380.25	433.50	413.50	427.25	372.00	363.75	310.50	371.50	331.00	360.00	535.75	523.50	414.25	326.50	221.50	171.50	200.50	299.50	231.75	140.50	191.00	225.00	292.50	322.50	386.25	445.50	327.25	297.50	244.00	212.00	182.25	159.00	151.75	163.75	177.00	220.25	240.75	175.50	262.50	255.25	205.75	187.25	184.00	211.75	175.25	188.00	192.75	179.50	200.00	238.75	220.25	218.00	298.75	364.25	393.75	487.75	501.25	510.00	491.25	477.50	456.75	536.50	518.75	527.00	518.75	536.75	550.75	521.50	436.50	418.00	428.50	430.25	425.25	382.50	339.00	290.00	285.25	343.25	329.50	375.25	424.75	391.75	371.50	303.25	284.50	335.25	312.75	274.75	234.00	215.50	198.25	193.00	192.25	192.75	192.25	209.50	215.50	200.75	189.25	188.25	185.75	185.25	200.25	205.75	202.00	201.00	202.25	192.25	183.75	169.75	172.50	197.25	231.25	229.50	193.75	195.50	231.75	241.00	228.25	197.75	223.00	205.75	201.75	199.75	180.75	164.00	167.50	167.00	162.75	161.00	162.50	178.75	194.75	200.00	185.50	225.75	212.50	170.00	170.00	170.00	175.50	183.50	181.00	173.00	183.25	205.50	213.25	222.25	227.00	219.50	210.50	228.50	242.75	233.00	216.25	206.50	215.25	231.75	235.00	218.50	211.25	212.00	214.25	237.50	245.25	245.50	246.25	248.25	251.75	262.00	243.50	234.25	211.50	224.50	217.25	201.75	210.25	200.50	185.25	171.00	161.50	151.50	152.50	176.50	152.25	172.50	201.25	179.25	156.75	154.50	156.75	149.25	160.50	174.50	153.50	139.25	141.25	152.00	159.25	195.75	192.50	211.75	247.25	235.25	213.00	230.25	256.75	268.00	247.00	255.50	245.00	245.00	215.00	219.25	234.75	240.25	211.50	237.75	251.00	250.75	208.50	155.00	194.75	256.75	257.25	291.50	232.25	283.25	280.75	252.00	217.00	206.00	185.50	214.25	272.50	280.00	294.25	335.00	364.50	359.25	399.25	429.50	345.50	309.25
266.50	257.50	350.00	361.50	313.50	278.00	315.50	401.50	422.50	382.75	348.00	426.75	397.50	361.75	371.50	365.50	364.00	353.25	294.50	312.25	336.25	313.75	458.25	479.25	358.00	258.00	191.75	218.75	256.75	253.00	188.75	152.75	253.75	244.00	329.75	382.50	384.00	467.75	332.00	381.00	240.00	226.25	198.50	181.50	161.75	170.25	143.00	198.00	217.50	180.50	256.50	261.00	207.50	187.00	185.00	190.25	175.00	196.50	170.50	183.00	226.00	279.00	247.50	222.25	278.00	317.75	358.00	465.75	476.25	500.75	438.25	431.00	458.75	527.75	478.50	556.75	514.50	549.00	550.50	580.75	485.00	441.00	396.75	421.50	416.25	349.75	293.50	277.75	325.00	352.75	365.50	390.50	381.50	358.00	338.00	286.50	340.50	424.50	388.50	323.75	255.25	217.50	201.50	202.50	206.50	211.25	205.75	225.75	218.75	196.00	190.75	189.75	188.00	193.50	216.25	212.50	211.75	207.50	203.00	192.75	180.25	171.25	174.50	198.50	225.00	222.50	191.25	192.50	233.50	261.00	240.75	206.00	226.00	214.75	195.00	189.25	173.00	166.25	176.50	179.25	169.75	163.25	161.00	162.50	164.75	185.25	209.00	195.00	172.50	170.00	170.50	173.50	187.75	203.75	192.00	174.25	176.75	201.25	219.75	206.00	197.00	198.25	193.25	228.50	237.75	227.00	215.00	212.50	203.75	210.00	234.25	218.00	225.00	244.00	216.75	237.50	254.00	235.75	230.50	250.50	263.00	250.00	230.75	221.75	213.00	213.50	211.75	200.25	217.00	201.75	195.00	178.25	163.50	150.00	147.00	164.25	152.25	154.00	165.25	159.00	146.00	154.25	154.25	150.50	173.75	186.00	158.50	139.25	137.00	144.25	152.00	190.00	180.25	246.50	273.00	212.50	187.00	256.00	302.50	309.25	295.75	300.75	228.50	270.75	274.25	254.75	261.00	296.75	251.00	280.00	261.75	265.25	227.75	160.75	185.25	222.50	233.25	272.50	221.25	274.50	248.00	211.50	177.75	163.75	178.50	212.50	252.25	249.50	282.00	330.50	340.75	363.75	399.50	413.75	345.25	342.50
326.00	298.50	410.25	440.50	449.50	387.25	354.25	441.75	439.50	426.75	388.25	333.75	325.50	297.75	303.75	309.25	397.50	341.00	296.25	277.00	335.50	276.75	309.75	309.25	231.50	190.50	286.00	389.50	382.50	212.75	144.00	149.25	185.50	203.25	279.00	377.25	476.00	538.50	446.25	331.50	306.25	232.25	227.25	245.25	192.00	178.25	150.50	147.50	144.25	253.00	281.25	262.00	197.00	169.00	171.25	165.50	165.25	170.25	173.75	200.00	229.75	234.50	221.75	235.50	294.50	327.25	337.25	443.75	444.50	463.25	467.50	399.25	465.25	446.75	484.75	539.00	504.75	599.00	569.75	594.25	536.00	456.75	411.25	365.75	356.75	303.00	299.75	355.75	387.25	374.75	389.75	409.25	353.25	329.25	280.00	297.00	386.25	392.75	386.50	363.00	297.25	232.50	225.00	233.00	232.75	241.50	240.00	229.00	200.50	195.00	193.25	192.25	195.75	210.75	226.50	222.00	219.00	209.25	188.75	177.75	176.00	182.25	175.50	180.00	202.25	215.00	215.75	197.75	214.00	240.75	232.25	220.50	209.00	206.50	189.00	173.75	170.00	169.50	195.50	203.00	193.00	174.25	174.00	167.75	163.50	163.75	168.25	172.25	182.00	196.50	187.75	192.75	207.50	215.75	195.50	178.75	177.75	197.50	212.25	183.00	182.00	183.25	184.50	191.00	205.00	236.25	243.50	241.50	220.75	208.25	246.00	257.25	261.50	272.50	235.50	209.25	216.75	217.75	226.25	257.25	270.00	257.00	242.00	233.50	237.00	224.00	209.50	199.50	216.00	195.75	174.00	163.75	161.00	171.25	165.75	147.00	143.50	139.75	138.25	138.25	138.00	149.25	143.50	157.25	192.50	190.25	153.50	138.00	135.50	137.25	141.50	165.75	248.00	297.75	285.25	187.25	250.25	290.25	362.00	406.25	364.00	354.00	231.75	264.25	296.50	253.00	249.25	249.75	259.50	313.75	256.25	257.75	221.00	173.75	151.00	178.50	217.75	216.25	207.25	237.00	188.50	162.00	148.00	236.50	242.75	253.00	256.00	326.50	312.00	279.00	323.00	395.50	406.25	286.75	298.75	285.75
371.00	424.25	598.50	559.25	566.00	471.50	417.25	468.50	406.25	423.50	414.75	383.00	318.00	341.50	299.75	260.25	294.25	351.75	281.00	254.00	240.25	232.00	211.50	203.00	219.75	325.75	475.50	465.75	443.25	268.00	160.25	133.00	161.00	277.00	369.00	342.75	477.50	614.50	451.50	368.50	264.25	271.50	298.00	259.25	246.00	218.50	226.75	143.75	143.50	197.00	228.00	252.25	222.25	172.50	156.00	164.25	173.50	181.75	190.25	189.50	200.75	220.50	249.75	238.00	312.00	440.25	410.50	476.50	461.25	401.50	398.50	386.25	399.50	430.75	468.00	437.50	479.00	473.00	549.25	518.25	454.50	440.50	439.25	390.00	341.50	367.25	320.25	382.50	437.25	412.00	447.00	387.00	343.00	328.25	321.75	364.25	375.75	385.50	347.50	329.25	308.25	274.50	245.25	239.25	231.25	225.25	221.25	214.50	200.25	197.50	197.25	197.75	217.25	227.75	224.25	218.75	204.00	192.25	181.50	188.00	198.75	193.50	180.00	180.25	205.50	209.75	195.00	188.00	193.75	225.25	250.00	237.75	206.00	191.00	174.50	170.50	181.25	181.00	190.75	210.75	190.75	183.75	192.75	186.25	190.50	173.50	180.25	190.50	232.50	211.75	194.25	217.50	215.00	216.75	191.00	180.00	185.75	210.75	201.00	181.75	190.00	195.00	199.25	194.75	188.75	208.25	237.75	262.75	244.00	222.00	222.50	240.50	259.50	267.50	228.50	221.50	234.25	230.75	250.00	270.25	277.50	239.75	235.25	220.00	220.25	214.25	207.75	203.75	224.50	239.25	200.25	175.25	168.50	167.00	172.25	164.75	164.00	150.25	145.50	139.75	135.25	143.25	138.75	152.75	171.75	194.25	154.25	134.75	134.50	139.50	146.50	170.50	241.25	249.50	239.75	225.75	269.00	339.50	343.50	310.00	302.00	285.00	253.00	220.50	212.00	191.50	192.50	196.50	223.25	205.50	224.00	181.25	165.75	175.50	149.50	160.00	191.25	166.25	200.00	190.50	170.00	150.25	143.75	218.25	210.75	227.75	259.25	295.00	258.25	261.00	265.25	276.00	320.75	238.50	235.25	200.75
569.50	664.75	695.25	633.75	585.25	626.25	569.00	538.75	454.00	384.00	383.25	369.25	379.25	368.50	351.25	293.75	246.25	247.25	249.00	229.00	322.50	276.75	259.75	269.50	323.25	472.25	534.00	451.75	302.00	193.75	148.75	134.50	174.25	265.75	422.50	442.00	455.00	555.00	470.00	333.00	316.00	390.75	313.75	266.25	298.50	285.25	268.50	178.75	151.00	145.75	155.75	222.50	215.25	162.50	153.50	155.00	164.25	192.25	222.75	221.00	233.75	262.00	326.00	268.50	319.00	392.00	492.75	541.00	488.75	454.75	392.25	357.25	376.25	396.25	434.50	512.75	571.50	523.75	580.25	469.25	442.25	424.75	386.50	405.25	397.75	371.50	351.25	381.00	453.50	433.25	468.50	422.50	369.00	337.50	381.25	395.75	343.75	345.25	331.75	305.50	276.25	253.25	240.50	226.50	221.75	215.50	210.00	204.00	202.50	201.00	203.00	207.25	228.25	220.50	204.75	198.00	189.75	183.50	190.25	209.50	204.25	185.00	181.25	179.00	189.25	201.75	203.50	197.50	197.50	206.75	210.25	238.50	233.00	202.50	172.75	189.00	208.00	188.50	202.75	216.00	198.00	206.50	195.50	196.25	197.25	179.25	200.25	221.75	204.50	213.00	211.75	222.75	212.00	201.00	197.25	197.00	183.50	181.75	180.00	204.75	224.25	222.00	225.25	217.25	201.25	196.75	232.75	255.50	255.00	240.00	208.75	217.00	254.00	268.25	233.50	215.50	227.25	264.25	268.75	268.75	278.75	260.50	255.00	237.00	254.25	237.50	238.75	215.00	237.75	286.50	229.00	177.25	164.00	153.25	151.25	151.75	142.50	140.50	147.25	147.75	139.50	133.50	150.50	160.00	184.25	173.00	145.50	132.75	138.50	158.75	168.00	174.00	187.25	183.75	202.50	211.00	262.75	308.00	259.50	258.75	302.25	363.00	349.00	295.00	203.25	208.50	152.00	168.75	210.25	185.00	160.75	156.25	144.00	139.50	139.25	144.25	146.00	153.00	172.00	196.75	195.75	181.25	131.25	151.50	252.75	282.00	260.25	274.25	218.00	195.25	190.50	254.75	302.75	228.25	173.75	182.50
555.00	778.50	712.25	672.75	576.75	582.75	647.25	533.00	493.00	462.25	439.75	383.25	439.50	450.00	401.75	347.50	295.00	266.25	309.00	383.25	415.50	333.00	306.25	392.00	379.75	417.75	357.50	349.25	326.75	171.25	136.75	185.00	173.50	226.00	323.25	438.25	591.25	599.25	459.00	421.50	435.25	427.75	345.75	261.00	276.50	332.25	245.25	190.00	185.00	155.00	150.00	148.25	147.50	149.75	153.00	155.25	162.00	181.00	206.75	208.50	229.25	263.00	356.50	326.00	388.00	430.50	513.75	674.75	578.00	495.00	376.00	361.50	445.00	532.25	487.75	481.25	627.75	603.25	561.00	527.50	556.75	484.75	446.50	525.25	484.50	411.75	391.25	388.00	476.75	466.50	502.75	452.00	367.00	354.00	389.75	374.25	348.25	305.25	308.75	327.00	328.75	298.50	262.75	239.75	235.00	225.25	214.25	209.50	207.50	207.25	208.75	214.25	235.75	231.75	197.25	198.25	207.00	194.25	206.75	213.00	193.50	188.00	192.25	182.50	184.25	205.50	211.25	208.75	193.75	224.50	209.00	240.00	236.25	210.75	175.50	211.25	235.00	220.75	224.25	234.75	204.50	216.75	213.75	205.75	188.00	179.50	200.75	219.75	223.00	233.50	237.50	223.50	216.25	216.25	207.25	209.50	208.00	213.75	194.50	202.00	221.75	250.75	244.50	228.50	209.25	194.25	202.75	251.75	243.50	232.00	224.00	215.00	239.00	246.00	247.25	242.25	235.75	233.25	242.25	287.75	328.00	318.75	335.25	321.00	329.25	306.50	261.00	222.25	230.00	284.50	239.50	179.75	166.75	155.50	145.75	139.25	138.00	137.75	135.25	143.00	154.25	138.25	133.75	151.00	176.75	176.25	139.50	130.75	160.25	177.50	171.75	160.00	146.50	147.00	196.75	198.00	188.25	226.75	257.75	260.50	313.25	363.75	299.50	235.50	197.25	188.00	174.75	149.00	167.75	162.75	142.25	135.00	134.50	139.75	148.00	161.00	166.75	179.00	197.00	212.50	183.75	196.25	188.00	135.25	239.25	247.75	196.25	214.50	180.50	162.25	218.25	215.00	231.75	173.00	156.75	167.75
518.00	652.50	720.75	672.25	591.50	541.50	595.25	538.00	570.75	508.50	437.25	407.75	420.25	452.25	406.00	347.50	297.50	286.75	372.50	456.50	480.00	394.50	359.75	410.75	389.25	411.50	303.25	257.25	225.75	143.75	156.75	262.25	246.25	239.50	319.00	431.00	562.50	626.75	553.00	506.25	473.00	406.75	361.50	331.75	335.00	341.00	237.75	223.50	218.75	173.75	164.25	161.25	157.25	158.50	152.25	156.00	160.50	174.00	188.75	204.75	221.50	246.00	305.25	318.25	433.25	523.50	578.00	629.75	573.75	463.00	367.25	367.75	448.25	518.50	543.75	534.25	652.00	645.00	560.50	597.75	643.75	620.00	512.00	533.50	545.50	477.75	428.00	381.75	473.25	486.50	499.00	438.00	398.00	418.75	369.75	345.25	332.00	339.50	350.25	370.00	342.75	310.50	279.25	260.25	247.25	229.50	219.25	213.75	212.75	213.50	214.50	220.50	235.50	217.25	210.00	216.75	211.75	196.25	215.75	205.75	194.00	201.25	201.00	186.75	185.50	195.75	209.75	210.00	193.50	214.25	214.75	243.75	240.25	220.50	178.25	199.75	250.00	264.75	254.25	251.25	227.25	233.50	233.25	204.00	199.50	189.00	201.50	207.75	218.00	235.75	254.00	242.50	239.75	230.00	224.25	219.75	222.25	223.25	209.75	220.75	224.00	256.75	240.00	223.75	217.00	199.75	194.50	228.75	242.00	253.00	243.75	227.00	223.25	224.00	244.75	274.25	276.50	264.00	269.25	326.75	342.00	324.00	342.00	345.75	334.75	323.75	266.00	242.25	223.00	251.25	223.50	169.00	159.25	150.75	144.50	145.00	149.00	144.25	140.00	138.75	145.00	136.75	130.75	140.25	161.75	167.00	136.50	135.50	162.25	182.50	167.25	147.25	138.50	149.25	176.50	181.50	160.50	210.25	241.50	233.25	267.25	295.75	255.25	212.75	163.25	152.00	153.25	139.25	141.50	143.00	135.00	134.25	137.00	147.75	169.75	194.50	214.75	203.25	216.75	202.00	172.50	192.25	195.75	129.50	224.25	209.50	180.75	183.25	167.50	175.25	207.50	176.00	177.25	159.25	142.25	143.75
556.50	579.50	801.50	744.00	608.50	518.00	541.00	503.50	554.50	481.50	413.50	441.00	443.50	395.00	405.50	368.00	325.50	343.50	504.50	522.50	556.50	524.00	433.50	394.00	333.00	379.00	352.50	297.50	171.00	153.50	167.50	248.50	343.00	283.50	379.00	495.00	591.50	617.00	620.00	665.00	495.00	466.50	451.00	478.50	478.00	376.00	244.00	300.50	288.00	207.00	189.50	190.50	220.50	192.00	152.00	155.00	166.50	189.00	187.50	187.00	231.50	279.50	275.00	304.00	453.00	521.50	568.00	536.00	520.50	438.00	337.00	392.00	522.50	498.00	484.50	569.00	682.00	635.00	608.50	687.50	714.00	723.00	596.50	525.50	593.00	529.00	437.50	376.50	456.00	525.50	479.00	418.50	484.00	409.50	389.00	369.00	379.50	409.50	403.00	357.00	371.50	357.00	327.00	286.50	285.00	244.00	235.50	218.50	221.50	226.00	223.00	234.00	234.50	206.50	234.00	222.00	222.00	204.00	227.00	202.50	201.00	218.50	206.00	191.50	189.00	188.50	200.50	212.50	198.00	212.00	224.50	239.00	256.00	216.50	179.50	183.50	245.00	259.50	287.50	301.50	266.00	255.50	252.00	220.50	225.00	198.00	207.50	206.00	226.50	264.00	314.00	306.50	279.00	279.00	264.00	255.50	245.00	239.00	242.50	266.00	267.00	269.00	248.00	220.00	208.00	197.50	191.50	193.00	216.50	232.00	245.00	231.50	230.00	218.00	221.50	282.00	286.00	310.00	324.00	376.00	334.50	298.00	283.00	315.50	307.00	322.00	311.00	282.00	212.50	241.50	224.50	177.00	161.50	146.50	142.00	140.00	155.00	154.50	150.00	142.50	134.50	131.00	130.00	130.50	147.00	155.00	131.50	149.00	157.00	172.50	164.50	142.50	133.50	154.50	178.50	161.00	142.50	152.00	166.00	195.00	212.00	223.00	179.00	150.50	139.50	128.50	127.50	128.50	130.00	131.50	135.50	137.50	146.00	158.00	227.00	239.50	259.00	230.00	284.00	248.50	172.50	193.50	147.50	132.50	177.50	158.00	184.50	146.50	148.50	169.50	175.50	150.50	139.50	154.50	132.00	117.00
784.75	780.50	773.75	713.50	632.75	531.00	513.00	510.25	505.00	452.75	408.25	401.25	402.50	378.25	365.75	327.00	314.25	398.25	482.50	493.00	566.75	612.00	510.75	333.75	288.25	295.75	256.75	231.00	158.00	171.25	261.00	251.75	368.00	306.50	363.50	472.25	524.00	509.00	568.00	679.00	702.75	659.75	634.75	699.50	520.25	372.00	276.00	314.75	288.75	230.75	223.00	214.50	206.75	177.25	153.00	155.25	179.75	217.25	233.00	209.00	247.50	306.50	360.50	355.00	407.75	477.75	477.50	457.00	489.00	371.00	326.25	413.50	567.75	582.00	547.75	634.50	712.75	640.25	663.25	762.00	758.50	708.50	720.25	631.25	650.75	567.25	444.50	459.75	462.75	516.75	461.25	504.00	507.25	471.25	432.50	395.25	396.25	451.00	431.50	423.75	404.50	387.25	367.25	310.75	280.00	248.50	227.50	224.50	230.00	236.00	236.50	240.50	229.25	224.50	244.75	235.00	216.75	221.50	223.50	208.75	224.50	226.00	207.25	201.00	196.25	193.25	200.25	216.75	207.75	220.00	244.75	252.75	231.50	193.25	191.75	199.50	201.25	203.00	237.75	253.75	228.50	236.50	244.00	248.25	234.75	236.50	257.25	250.75	230.50	327.25	390.25	402.50	391.50	418.75	339.00	318.50	293.00	296.75	282.50	271.50	261.50	241.50	235.50	222.25	222.50	212.00	195.25	201.25	204.75	206.00	223.75	227.75	243.50	239.75	241.00	243.25	239.25	270.50	298.75	338.75	368.75	363.75	317.25	285.00	281.75	269.75	269.25	249.50	240.25	257.75	245.75	181.75	165.25	155.75	154.25	146.50	153.50	166.50	161.25	150.75	138.50	136.75	132.50	129.50	130.50	134.25	128.50	146.75	152.75	158.75	156.25	135.50	140.25	154.50	152.25	151.75	139.50	145.25	153.75	169.50	166.00	153.75	148.00	128.75	126.50	132.25	140.25	140.00	146.50	146.50	157.00	154.00	156.50	163.00	172.50	210.75	267.75	287.00	245.75	209.75	157.75	198.00	195.00	130.00	138.75	142.50	170.00	145.25	129.75	145.00	158.75	146.50	132.25	145.25	134.75	120.75
805.75	771.00	756.00	706.75	611.50	559.25	476.00	540.25	559.00	455.00	398.00	417.75	372.50	351.50	325.00	327.25	358.75	452.25	436.25	439.75	547.00	613.75	565.25	389.25	302.25	230.50	245.75	181.50	150.75	149.75	298.25	316.75	390.00	316.25	357.75	419.25	419.25	516.00	516.25	664.00	829.25	731.00	681.25	773.00	499.75	346.25	310.25	320.75	276.50	227.75	222.50	222.25	214.75	187.00	158.25	156.00	172.25	216.50	272.75	240.00	280.00	306.00	396.75	397.00	403.25	443.00	402.00	387.50	439.75	370.75	326.00	447.00	633.00	576.75	575.00	671.00	724.50	613.00	689.00	801.00	762.50	672.75	737.50	697.00	653.50	592.75	477.50	548.25	491.75	512.00	507.25	567.50	502.00	478.50	422.00	385.50	357.25	416.50	415.75	410.75	390.00	403.25	393.00	340.00	290.25	235.50	227.25	231.50	238.25	244.00	246.75	249.25	241.25	246.25	240.75	228.25	218.00	237.50	222.75	219.75	246.00	225.50	213.00	209.75	202.75	199.25	199.50	212.75	220.50	232.50	263.75	256.25	228.25	187.25	208.25	220.75	209.75	194.25	204.50	214.75	212.75	234.75	240.75	258.25	264.50	300.25	320.50	285.75	244.25	334.25	353.50	404.00	463.50	461.00	392.75	356.75	323.00	301.75	284.50	265.50	243.00	229.00	224.00	230.00	220.50	203.50	199.00	215.00	219.25	209.25	199.25	208.00	246.50	261.00	275.50	273.50	249.50	238.00	270.50	286.00	355.25	385.75	340.50	310.50	301.50	255.50	243.25	247.75	272.50	249.75	251.25	195.25	176.25	167.25	165.50	150.75	151.00	173.50	162.25	149.25	141.75	145.25	136.00	130.25	128.50	127.75	127.50	144.25	139.25	163.00	156.50	131.25	144.50	154.25	141.25	136.50	131.75	159.25	158.50	166.25	162.50	133.75	124.75	124.00	131.50	147.50	174.00	157.25	164.75	165.00	181.00	172.25	166.25	186.75	169.25	196.25	257.75	302.00	214.00	181.75	157.25	202.75	242.00	148.75	112.25	132.00	154.25	138.75	124.50	135.00	144.75	149.00	136.00	138.25	136.00	119.00
612.00	595.50	574.25	586.50	545.75	505.50	481.00	461.25	568.50	480.25	386.25	384.00	377.50	413.00	436.50	444.00	455.50	434.50	378.50	427.00	534.25	472.75	599.75	501.75	316.50	209.25	226.25	186.50	150.00	146.00	250.75	361.00	367.75	314.00	362.25	355.00	420.25	535.50	438.25	531.50	643.50	608.75	513.00	508.25	452.25	339.00	306.50	330.75	296.75	275.50	227.25	195.75	196.00	194.75	179.25	156.50	168.00	210.25	274.00	288.75	314.50	355.75	435.50	416.25	392.50	375.75	340.75	328.50	401.50	413.00	334.00	476.25	580.50	509.25	586.50	605.00	668.50	620.75	611.25	711.25	717.50	649.25	650.50	657.75	645.75	623.25	597.50	649.50	590.25	598.00	633.50	649.50	563.75	580.75	506.75	434.50	356.25	355.50	343.75	333.25	320.50	330.25	359.75	356.25	290.50	248.75	245.50	275.75	271.50	270.75	267.25	267.50	300.75	312.50	283.50	257.25	246.25	239.00	232.00	251.25	248.50	237.00	232.25	219.25	225.50	217.75	214.25	213.00	229.25	259.75	240.75	230.00	216.50	193.25	260.00	301.75	296.25	248.00	216.75	224.25	247.00	297.75	323.25	354.25	369.75	377.50	340.25	351.25	306.00	295.50	344.00	400.75	392.00	335.50	344.75	313.75	287.25	246.75	262.50	232.25	231.50	228.00	228.00	220.50	205.50	212.75	213.75	235.25	249.75	227.75	223.25	213.25	217.75	222.75	234.50	241.75	255.75	241.75	239.75	257.50	283.00	316.25	324.75	326.50	313.25	303.75	291.25	273.25	273.00	247.75	240.00	210.25	188.75	169.50	160.00	147.50	161.00	170.75	155.75	154.75	159.00	149.00	142.50	139.75	132.50	129.50	127.50	126.00	125.25	127.75	129.50	126.00	131.25	137.00	134.25	124.25	126.50	148.50	140.00	146.75	139.50	125.25	130.50	141.50	163.50	185.00	223.25	201.75	211.25	235.25	230.25	189.75	216.25	244.25	220.00	249.75	237.50	236.50	200.00	165.00	133.25	163.75	197.25	147.25	110.75	111.25	129.50	139.00	124.50	117.00	136.25	135.50	134.50	126.25	130.75	136.75
667.50	649.25	487.50	461.25	461.75	449.25	493.75	410.50	527.00	475.25	415.75	430.25	416.25	499.75	491.50	487.75	453.50	387.25	356.75	436.75	545.75	405.00	568.25	504.75	313.50	202.75	183.25	154.75	141.00	184.00	301.50	290.75	264.25	279.75	388.00	320.25	385.50	467.25	367.25	408.50	530.00	533.75	491.50	395.50	400.50	327.75	292.75	330.00	347.25	327.25	249.75	200.75	184.50	181.75	176.00	158.25	181.50	217.50	266.75	277.75	322.00	329.75	447.50	450.75	350.25	340.75	306.00	322.50	409.00	402.75	337.00	493.75	555.75	454.00	515.75	559.25	617.00	601.00	573.25	630.00	689.50	666.00	606.25	586.50	645.50	583.75	629.50	645.00	609.75	627.75	712.75	682.00	614.50	638.00	539.25	450.00	371.75	368.25	334.75	330.50	332.75	311.50	296.75	285.50	262.00	273.00	277.75	331.00	314.25	315.00	287.75	285.75	342.25	385.50	340.00	278.75	260.50	240.25	247.25	263.00	252.50	253.75	236.00	234.25	237.50	229.25	231.50	226.50	221.75	264.25	236.25	229.00	237.50	203.25	285.50	336.00	325.75	283.00	229.25	249.50	286.25	344.00	380.75	452.25	463.75	430.00	383.75	402.25	315.50	337.00	364.50	399.25	363.25	318.75	297.50	299.75	268.50	228.50	221.75	216.50	220.25	215.75	208.50	226.00	214.00	223.25	222.25	250.50	259.50	231.00	238.50	230.50	215.25	206.50	221.75	226.50	238.00	250.75	247.75	271.50	292.00	330.00	325.00	300.00	321.25	303.75	249.00	244.75	217.50	203.50	206.25	199.50	179.25	157.25	150.50	152.00	161.50	173.00	159.50	167.00	161.50	149.50	154.00	146.25	134.00	135.75	131.75	127.50	124.75	124.25	123.50	122.50	122.25	121.00	121.75	120.50	124.25	135.00	131.00	137.25	124.00	122.50	144.50	159.00	196.50	185.25	197.75	234.00	253.50	282.00	251.00	219.75	252.25	261.00	238.50	259.75	238.75	212.00	155.25	144.75	126.25	132.75	150.50	138.00	116.00	107.50	123.50	153.25	139.00	111.50	134.25	135.50	115.50	124.25	135.25	146.00
697.75	589.25	533.50	459.50	489.25	433.00	427.25	403.50	477.75	514.25	548.50	551.75	531.75	505.50	466.25	444.25	479.50	397.75	320.25	484.25	474.75	360.50	483.25	536.25	378.75	268.75	161.25	163.25	160.25	182.50	228.25	162.25	185.75	321.50	405.75	291.50	324.00	314.00	325.00	447.75	542.75	483.50	426.75	409.50	346.75	327.50	295.50	291.25	344.50	364.25	297.25	227.00	205.75	220.00	193.00	159.25	167.75	202.25	239.00	245.75	263.25	292.25	379.75	420.50	327.75	294.00	279.50	339.25	412.25	350.25	353.25	428.50	400.75	412.75	493.75	569.25	553.75	529.50	582.50	611.50	669.00	705.00	624.75	557.25	562.25	591.00	582.00	584.75	564.25	611.25	662.75	640.25	555.25	532.50	540.75	536.50	404.50	369.50	375.50	399.75	373.50	339.75	310.50	275.75	316.25	301.25	282.75	406.00	355.50	391.00	349.50	352.25	392.75	370.00	346.00	327.50	287.25	257.50	288.50	298.25	280.25	288.75	267.75	266.00	272.00	260.00	262.25	243.25	225.50	226.00	251.25	258.00	293.75	251.25	211.00	233.25	295.25	276.75	241.50	263.50	289.00	319.00	345.75	418.75	424.25	479.50	444.75	416.25	396.25	408.50	382.50	352.75	336.50	339.00	261.00	258.25	225.75	216.75	230.25	261.00	267.75	235.50	227.00	249.50	222.75	233.00	240.75	264.00	260.25	218.25	253.50	245.50	218.75	221.75	274.25	259.75	244.75	266.50	278.75	313.25	350.50	330.25	314.50	261.25	230.50	214.25	177.50	178.50	169.25	162.00	160.25	155.25	152.25	153.50	158.25	166.00	190.75	194.00	183.75	179.00	153.25	157.75	166.25	145.25	143.00	153.75	148.00	142.75	134.25	129.00	125.25	122.75	121.00	119.00	119.00	119.00	119.00	119.25	124.75	125.00	119.25	137.00	217.75	216.50	243.25	237.25	183.25	184.25	199.00	220.50	276.50	303.00	280.50	198.25	170.00	165.25	162.25	172.50	207.25	169.00	138.00	122.50	122.50	127.50	133.25	114.25	117.00	157.75	142.25	108.25	108.75	121.75	108.25	102.75	103.75	107.50
709.25	734.50	595.75	530.00	592.50	481.75	392.00	370.25	390.25	491.75	497.25	515.25	508.00	435.50	428.75	382.75	402.50	368.00	284.75	406.00	385.75	283.00	424.75	394.50	365.50	229.00	159.75	223.75	248.25	141.00	141.75	141.00	153.75	294.75	334.75	246.25	280.75	259.25	301.75	382.00	569.50	537.25	518.25	510.25	383.00	285.00	269.25	304.00	380.00	313.50	272.00	268.50	262.75	237.25	224.50	199.75	176.50	169.00	310.00	272.00	234.75	295.00	386.25	451.00	357.00	273.75	272.00	399.00	368.75	298.25	338.00	357.50	397.75	456.50	495.00	569.25	515.75	533.00	677.50	753.25	746.00	778.50	660.00	583.00	540.00	587.25	561.75	558.75	600.00	653.50	706.75	652.00	543.00	515.50	447.00	431.75	372.25	349.50	341.00	321.75	315.00	319.00	327.25	322.00	351.50	314.25	273.25	376.75	421.75	424.50	372.50	409.50	444.50	416.00	386.75	401.00	311.50	310.00	304.75	347.25	299.75	346.25	351.75	337.50	370.00	330.50	277.75	259.75	236.00	236.75	285.25	314.50	335.50	375.25	253.25	215.00	272.25	335.25	256.75	276.50	350.00	372.75	375.75	345.50	404.50	393.75	368.00	373.50	400.00	386.00	322.75	293.75	306.00	278.00	243.25	221.50	236.50	251.75	254.50	292.25	238.75	238.25	257.75	275.50	241.50	256.50	285.00	292.50	248.75	231.75	288.50	247.50	242.00	217.25	249.75	268.25	256.25	293.00	314.75	309.75	273.75	238.50	236.00	217.00	190.25	183.50	186.75	181.75	169.75	161.75	160.50	170.00	168.75	164.75	178.75	167.75	198.25	211.50	196.75	170.75	161.75	159.00	147.00	143.50	156.75	174.50	177.50	174.25	159.25	139.50	137.25	132.00	125.25	121.75	120.25	119.00	119.00	119.00	119.00	119.00	119.00	152.50	221.75	199.00	161.25	148.25	171.00	192.50	225.75	253.25	251.50	226.50	192.75	171.25	170.50	131.25	135.25	172.25	281.75	230.00	162.25	145.50	125.00	111.75	109.75	106.75	104.50	107.25	106.25	103.00	103.75	102.75	101.50	100.50	100.00	99.50
868.25	835.25	623.00	592.50	628.75	539.50	499.25	413.50	364.75	356.50	358.25	399.50	543.50	553.25	553.75	417.75	384.50	320.75	268.75	259.25	287.75	224.25	228.50	199.75	205.25	164.50	203.00	295.75	241.00	146.50	145.00	144.75	144.50	225.00	251.25	234.25	232.50	274.50	357.00	389.75	510.25	562.00	500.00	419.50	333.25	323.75	359.00	277.50	260.50	292.00	244.00	289.50	255.00	217.75	183.75	173.50	169.50	165.50	177.75	175.00	192.25	220.25	259.25	349.25	361.50	260.25	275.00	337.50	360.00	292.25	401.25	475.50	449.50	536.25	640.25	672.75	511.50	565.75	718.25	834.00	772.25	798.50	722.00	596.25	524.75	529.00	552.75	640.75	682.75	734.25	735.75	668.25	647.25	673.25	523.00	474.50	427.50	394.25	365.75	383.75	366.50	376.75	361.00	405.75	415.75	320.50	301.75	348.75	391.50	450.75	453.00	488.75	457.75	445.00	405.25	399.00	319.75	364.25	366.75	394.00	327.75	393.75	437.25	397.50	408.00	338.00	306.25	293.25	249.50	248.50	322.75	353.50	432.00	373.25	274.25	223.50	267.75	338.00	301.25	243.50	253.50	270.25	267.25	305.50	328.75	327.50	323.50	370.25	401.25	407.25	368.75	319.75	254.00	241.50	235.25	235.50	289.50	317.50	310.50	253.75	258.50	284.00	311.50	342.50	279.00	279.25	324.00	300.25	229.50	280.25	309.50	308.75	267.00	225.75	245.50	321.50	304.75	353.25	375.50	309.75	269.75	230.00	214.00	213.50	206.75	209.25	222.75	204.25	177.75	179.75	182.75	211.75	205.50	194.50	209.75	211.75	180.50	214.75	227.00	189.75	167.25	157.00	163.25	169.50	181.50	187.25	174.50	179.25	160.00	149.25	150.25	148.50	135.75	135.00	142.50	127.50	122.75	119.00	119.00	119.00	120.00	152.50	150.50	138.75	144.50	155.25	203.25	247.25	246.25	206.75	192.25	157.75	148.75	149.00	166.00	125.50	126.25	155.00	212.75	183.75	142.50	127.25	113.00	106.75	104.75	104.00	103.75	104.00	102.75	101.75	102.00	101.75	100.75	100.50	99.50	98.75
974.25	939.75	772.75	683.75	533.25	496.25	443.75	396.50	381.50	358.00	392.00	316.00	486.25	552.75	463.00	468.25	517.25	417.25	409.50	313.75	241.00	249.25	199.00	217.00	189.50	175.50	255.75	372.00	234.75	156.50	157.75	148.00	146.25	201.00	189.75	211.50	205.00	231.50	360.75	461.75	489.00	495.50	452.00	456.25	411.00	439.00	415.50	300.00	260.50	239.75	212.50	212.50	206.25	190.00	201.75	236.25	204.50	181.75	164.50	164.50	168.00	180.25	218.50	265.50	272.25	261.25	330.75	433.25	401.00	293.50	448.25	564.00	592.75	649.50	685.00	677.25	500.25	593.25	758.50	801.25	707.50	719.25	731.25	593.00	529.75	512.50	568.50	652.25	727.00	794.25	823.50	756.25	758.00	646.00	654.25	607.75	514.00	450.50	400.75	417.25	435.00	414.75	366.50	435.50	384.00	330.00	353.25	324.00	357.75	429.00	471.50	493.25	409.50	381.25	354.75	348.00	311.00	334.00	421.50	429.50	358.50	473.25	423.50	388.25	377.75	360.75	325.00	362.25	278.50	267.25	336.50	359.50	380.50	319.50	249.50	247.50	264.50	337.75	356.50	351.75	325.25	366.00	350.75	307.00	322.25	348.75	364.75	414.50	477.00	444.25	345.50	307.00	262.00	268.25	267.75	265.75	273.50	321.00	308.00	278.25	303.50	350.50	398.00	408.75	326.75	293.00	300.25	274.75	259.75	266.75	368.25	360.50	327.00	249.75	245.00	319.50	356.50	424.25	396.25	343.00	303.50	257.75	259.50	239.75	260.50	256.50	251.00	214.25	194.25	193.50	208.25	232.50	255.50	249.75	263.75	282.00	213.50	222.50	208.50	189.75	168.75	191.75	210.75	201.75	180.00	176.50	161.00	158.50	170.75	173.25	166.25	169.75	146.75	145.50	200.50	143.25	140.50	126.00	120.50	123.00	119.00	119.25	128.25	159.50	247.25	234.75	185.25	217.75	199.50	181.50	167.75	160.75	130.75	126.00	136.75	118.00	135.25	149.75	145.00	143.25	141.75	110.00	104.75	103.75	103.75	104.00	103.75	103.00	101.75	101.00	100.25	99.75	100.50	99.50	99.25	99.25
