511.00	425.25	443.50	395.50	391.75	412.00	458.00	479.25	456.25	443.75	479.50	484.75	482.25	437.75	442.50	466.50	500.50	432.50	429.75	418.50	410.50	418.00	453.25	460.00	432.75	454.75	466.25	452.50	439.75	429.50	427.00	426.75	447.25	449.75	447.75	433.50	432.00	430.75	439.25	426.25	417.25	451.50	465.25	454.25	484.00	479.00	446.00	438.25	398.25	389.50	402.25	421.25	430.50	404.25	389.25	390.00	410.25	470.50	538.00	477.00	470.75	528.25	543.75	595.50	582.75	589.50	568.00	551.00	503.50	551.75	570.50	551.75	517.25	451.25	455.50	483.25	466.75	451.00	438.25	420.75	428.25	437.75	428.75	422.25	434.75	453.25	434.50	407.00	406.25	401.75	444.00	438.50	421.50	411.50	405.50	418.75	394.75	395.75	402.75	384.25	371.00	363.50	364.75	342.00	312.25	332.50	370.25	373.50	379.00	385.00	375.50	384.50	377.25	370.25	367.25	352.75	341.75	330.00	346.75	348.75	365.75	345.50	321.50	330.50	340.25	355.50	358.75	357.50	350.50	323.50	327.25	329.75	345.25	352.50	348.50	350.50	354.25	335.25	318.50	320.75	324.50	319.00	310.50	303.00	298.75	298.25	306.00	333.75	347.50	353.00	354.25	345.50	348.50	350.00	351.75	355.00	356.75	347.75	347.00	349.25	347.75	351.00	360.25	351.00	340.25	339.25	326.50	331.00	325.25	321.25	329.75	332.50	344.25	363.25	390.25	379.75	391.00	411.00	424.50	399.75	382.50	376.25	355.00	380.75	354.75	356.00	366.75	361.00	354.50	344.25	362.50	356.00	345.75	346.25	322.25	336.25	330.25	318.75	323.00	317.75	317.25	334.50	348.75	350.25	349.50	335.00	345.00	355.25	359.00	364.75	373.50	356.00	365.00	366.00	365.00	372.50	383.50	404.50	410.50	405.75	417.50	441.25	423.50	429.75	431.75	435.50	418.50	393.00	377.75	373.25	416.25	373.00	361.25	393.00	449.50	490.25	456.50	402.50	366.75	363.25	376.75	394.50	382.75	396.00	393.25	393.75	409.50	405.75	381.25	368.50	368.00	382.25	403.75	401.75	369.50	380.50
409.00	380.25	395.00	392.50	401.50	445.50	498.25	519.50	451.50	479.50	463.75	456.00	470.50	468.75	476.75	476.00	533.00	450.25	445.50	422.75	431.75	457.00	467.75	464.00	450.25	495.50	466.50	451.75	426.75	415.00	418.75	422.00	423.75	437.25	468.00	449.25	464.50	496.75	469.75	443.25	421.50	406.75	423.75	429.00	462.00	436.50	421.25	398.25	373.25	374.75	403.00	423.00	425.00	399.25	373.25	388.00	410.50	417.75	410.25	403.25	492.50	581.25	439.75	428.75	576.50	600.00	510.25	410.50	446.50	556.50	543.25	458.50	413.75	485.00	508.75	537.25	497.75	450.25	439.50	431.25	416.00	419.50	435.50	455.75	441.50	481.75	501.75	492.25	475.00	461.50	499.25	465.75	440.25	438.25	468.50	439.25	404.50	395.50	383.00	373.75	366.50	360.25	326.00	313.00	323.75	334.75	347.75	358.75	364.25	351.50	363.25	362.75	373.25	377.00	372.50	365.25	351.25	352.50	348.25	363.00	359.25	345.00	334.75	324.50	327.50	334.00	349.75	339.50	332.50	330.25	347.25	337.25	347.00	370.00	365.50	360.00	341.75	337.50	340.00	346.25	358.00	350.00	338.50	322.50	310.00	301.75	298.75	331.00	346.25	372.50	374.25	366.75	354.75	354.00	361.50	362.75	353.50	349.75	349.75	353.25	353.50	353.00	367.75	385.50	383.25	367.25	360.00	370.25	352.75	338.25	341.00	326.75	342.50	346.50	347.50	406.75	396.00	416.50	416.50	407.00	412.75	383.00	385.25	363.25	367.25	362.75	377.75	368.00	373.00	380.00	366.75	360.25	377.50	381.50	334.00	331.25	352.25	357.75	370.50	337.50	315.25	318.25	330.00	357.00	365.75	350.50	339.75	346.00	375.25	376.25	391.25	377.00	381.00	389.25	376.50	383.00	401.00	401.50	394.75	459.00	477.00	478.75	519.75	561.25	493.75	454.00	491.75	568.75	503.50	484.00	417.00	394.00	363.00	443.00	488.50	433.75	479.50	489.25	381.75	375.75	397.00	400.00	386.00	411.75	409.75	408.50	395.00	381.25	371.00	368.50	398.00	387.00	409.25	381.25	372.00	394.00
410.25	393.50	400.50	389.75	402.50	420.00	465.50	499.50	458.75	449.00	489.75	487.00	474.75	486.50	486.25	494.00	537.00	464.50	444.25	437.75	435.75	448.25	464.75	464.25	461.75	477.75	440.50	451.50	446.25	421.25	408.75	423.50	444.25	460.50	449.50	449.50	468.50	509.75	496.75	471.00	450.00	414.50	401.50	405.00	423.25	410.75	404.00	398.25	379.50	365.75	392.25	411.50	413.75	401.50	373.50	370.75	407.25	400.75	379.50	409.00	452.50	502.25	451.00	404.50	483.25	571.25	460.25	417.25	396.75	469.75	450.50	403.75	452.75	487.25	513.25	539.25	518.75	497.50	490.00	478.25	449.50	423.75	420.00	408.50	428.25	463.00	494.75	468.00	429.50	457.00	511.00	496.75	456.50	478.00	485.25	453.25	431.25	419.00	381.75	363.25	344.00	341.25	314.25	317.00	348.50	360.75	337.75	328.50	331.00	343.50	348.50	359.00	368.75	381.00	371.75	359.75	353.50	358.75	363.00	359.00	354.25	344.00	336.50	323.25	336.50	337.50	346.75	362.25	352.75	332.50	337.25	354.25	350.25	368.50	379.25	369.00	361.00	387.00	408.50	414.25	418.25	406.50	365.50	324.50	320.50	323.00	309.00	318.75	342.75	362.50	372.75	371.50	378.50	378.00	353.25	359.75	363.50	359.50	349.75	355.00	360.75	365.50	369.50	376.25	387.25	393.75	390.75	370.25	352.25	354.50	350.00	329.25	323.25	337.00	350.25	360.50	413.00	415.50	460.00	465.50	418.75	418.75	411.75	383.25	399.50	394.50	408.25	391.00	410.00	410.25	399.25	396.00	394.00	417.00	342.25	334.75	357.25	406.25	441.25	349.50	325.75	315.50	314.25	332.25	356.50	362.50	354.25	346.75	357.50	362.00	381.50	426.25	404.00	392.25	403.25	396.50	416.00	463.75	476.00	471.25	485.50	543.25	529.25	591.25	638.50	605.50	623.00	594.50	514.50	515.00	517.25	412.75	420.25	538.50	489.25	514.75	497.50	474.25	402.50	387.75	402.00	394.00	385.75	408.50	421.75	404.75	399.50	400.50	381.00	367.50	383.50	400.00	404.50	377.25	382.50	391.25
409.50	388.75	405.00	402.00	422.25	435.50	455.75	503.75	480.50	458.50	455.25	472.50	480.25	480.25	500.50	495.75	528.25	489.50	451.75	464.50	475.00	447.00	439.50	442.25	476.00	445.75	438.25	454.75	436.50	428.00	406.50	420.25	455.75	465.25	458.00	437.75	453.50	505.75	483.50	467.25	453.75	428.00	392.00	388.25	387.50	383.50	395.75	389.75	373.75	368.50	372.25	395.50	400.50	388.75	360.50	379.50	404.50	380.00	406.00	397.00	403.25	430.75	520.50	405.25	525.25	528.50	389.75	378.50	387.50	391.25	393.00	427.75	500.00	529.75	517.00	501.25	498.75	470.50	481.50	483.25	448.25	436.75	414.25	407.75	412.75	467.75	480.75	467.00	426.25	424.00	446.50	506.00	467.00	475.75	451.75	470.50	407.00	390.50	379.00	363.25	360.25	321.25	323.25	353.00	359.25	370.75	359.75	340.25	324.00	362.75	371.00	371.25	379.00	391.00	382.00	377.50	373.00	362.50	365.50	347.50	339.50	331.50	336.00	329.75	332.75	345.50	349.50	367.25	357.00	335.50	336.00	356.50	355.50	363.50	383.00	429.75	463.50	445.75	452.50	375.50	379.00	354.00	333.75	326.25	351.00	345.50	325.00	311.25	384.50	377.50	363.75	348.75	362.25	369.50	358.00	374.50	383.25	370.50	351.00	354.50	369.50	381.25	384.25	381.50	379.25	394.75	393.50	367.50	375.75	370.00	359.75	339.25	323.25	335.25	368.50	354.25	415.00	451.00	508.25	517.00	462.50	456.25	410.25	418.25	420.50	434.00	443.50	397.00	427.75	443.75	434.00	418.00	404.75	417.25	339.75	335.00	365.00	399.25	450.50	366.75	341.00	329.00	311.50	319.25	337.50	359.25	355.75	352.25	350.00	357.75	369.75	376.75	407.75	386.00	391.25	378.75	414.50	470.00	489.00	511.25	490.25	513.25	535.25	627.75	619.75	629.00	604.25	581.50	596.50	573.75	553.00	417.00	535.00	626.00	556.25	544.00	532.50	464.50	409.00	407.25	399.25	390.50	393.25	408.50	417.75	410.00	421.75	412.75	386.00	366.25	387.50	406.50	408.50	388.50	390.00	409.00
411.25	405.00	411.75	400.75	433.00	459.75	473.00	491.25	477.50	461.75	457.50	458.75	478.00	470.50	501.75	524.25	521.00	488.00	466.75	449.75	481.25	457.75	437.50	435.00	460.75	439.75	427.25	451.25	443.00	415.00	402.25	421.00	440.75	433.25	427.00	426.50	443.25	489.75	476.75	458.75	444.50	421.00	412.50	411.75	404.00	397.75	382.25	392.50	387.50	361.25	360.50	369.75	399.75	402.50	380.25	370.75	375.25	370.50	405.75	390.50	393.50	427.25	402.25	386.25	465.50	432.00	386.00	371.50	392.50	408.00	455.75	487.25	500.25	510.75	477.25	458.75	462.25	421.25	425.50	437.50	403.50	401.25	400.00	402.25	400.25	427.50	448.00	440.50	413.00	397.50	425.75	463.00	411.25	408.25	438.50	415.50	372.00	367.50	396.50	381.00	367.50	322.50	334.25	361.50	373.25	380.50	380.00	351.50	329.50	348.25	359.50	386.00	379.50	390.75	393.75	385.50	374.25	375.75	361.75	350.25	343.25	349.25	358.25	346.00	346.25	354.75	365.00	369.50	353.75	345.50	359.75	352.50	368.50	401.25	467.75	508.50	471.75	425.75	387.00	354.00	337.50	347.75	342.00	368.50	383.00	327.25	301.75	318.75	326.25	331.50	336.00	329.50	334.75	347.25	361.50	370.75	379.00	377.75	365.50	354.50	367.00	381.25	391.25	403.75	406.50	394.25	382.75	398.00	402.00	393.75	376.00	352.00	327.75	332.25	374.00	359.75	417.25	485.75	538.50	565.75	530.50	497.75	490.00	470.50	435.00	441.75	437.00	408.25	419.25	438.75	439.25	422.00	417.75	416.75	378.50	344.75	379.00	405.00	419.25	393.75	360.75	323.00	312.00	313.75	323.00	334.00	333.50	347.50	360.25	359.00	356.00	362.50	364.25	364.50	375.50	384.50	426.75	489.25	535.50	511.00	525.25	504.75	526.00	544.75	588.00	637.50	643.00	639.75	629.75	617.00	541.75	400.75	539.25	508.00	467.00	479.50	472.50	426.25	418.50	410.25	405.75	403.00	409.75	407.50	420.00	421.25	411.75	397.00	379.25	376.25	375.75	389.75	404.75	413.00	408.00	396.75
406.00	411.50	413.75	399.75	401.25	443.75	445.00	439.75	444.00	434.50	462.25	457.00	464.50	465.50	498.75	529.75	538.75	497.00	483.50	435.75	443.75	463.75	427.75	424.00	421.00	413.50	426.50	425.00	448.50	417.75	402.50	419.25	431.00	415.75	415.00	446.75	457.25	486.25	472.00	454.25	438.25	429.50	420.25	412.75	433.00	419.25	379.00	385.00	399.00	393.50	395.00	350.50	390.25	376.25	357.50	348.00	337.75	344.00	369.50	376.00	396.50	386.75	370.75	395.50	440.25	441.75	384.75	365.00	384.00	406.25	456.25	533.25	520.50	477.50	475.50	469.50	429.50	413.00	401.00	429.25	389.25	393.75	396.25	381.00	389.25	374.50	398.00	390.25	393.50	374.50	402.75	423.00	427.75	381.00	402.75	375.50	350.00	342.75	351.50	355.25	347.75	309.75	331.50	340.25	352.75	361.25	375.25	357.25	345.50	345.75	359.75	383.00	362.25	375.25	378.00	389.00	385.00	375.75	365.00	348.00	339.50	348.50	356.75	355.50	351.25	358.25	383.00	391.50	376.00	353.50	363.50	369.75	410.00	505.50	523.75	549.75	505.75	479.50	438.75	378.00	362.50	372.50	373.50	405.25	371.75	325.50	303.25	301.50	305.75	308.25	313.50	328.00	344.50	351.50	351.25	355.25	364.25	383.25	379.00	360.75	371.75	391.00	403.00	418.00	426.25	412.50	405.50	407.25	397.25	407.75	394.25	361.00	327.50	332.75	383.75	374.75	390.00	420.25	467.00	575.25	602.25	554.75	526.75	503.25	452.75	429.00	448.25	420.25	423.00	442.00	433.00	430.00	437.75	454.25	391.50	361.00	385.50	363.50	351.00	362.50	344.00	324.25	315.75	321.25	324.25	317.75	325.00	332.00	346.75	361.00	366.50	370.00	373.00	370.00	387.25	400.75	442.25	531.50	550.50	535.25	513.50	544.25	573.25	535.50	575.25	589.50	582.00	613.75	656.50	619.50	413.25	416.25	628.50	524.00	459.00	440.50	430.50	418.75	414.50	405.25	412.00	410.25	428.50	408.00	429.00	411.75	394.50	377.00	389.00	387.50	384.00	406.00	409.25	448.00	425.25	394.75
418.25	465.50	444.00	419.00	404.00	431.50	420.50	449.25	423.00	416.25	438.25	454.50	489.00	490.75	528.25	534.75	513.25	475.50	464.25	448.25	447.75	448.00	434.25	436.00	424.50	415.00	417.25	411.00	433.25	419.75	401.75	414.50	417.50	407.50	418.50	463.00	473.50	478.25	453.75	438.25	425.75	417.00	403.50	393.75	402.25	398.00	385.25	374.50	382.50	392.25	384.25	370.50	364.00	360.25	380.75	364.25	350.75	344.75	346.75	358.50	370.25	370.75	383.50	413.50	403.50	406.75	380.00	358.25	392.75	423.25	484.75	513.00	515.50	459.50	452.25	446.25	420.25	387.75	378.50	391.00	378.00	385.75	364.00	379.00	373.00	366.50	365.00	353.75	367.00	361.75	375.00	386.25	380.75	363.75	363.75	369.25	368.25	357.75	345.00	333.25	331.25	305.00	353.00	361.00	371.25	372.00	388.00	374.00	353.25	340.00	348.00	365.25	354.00	363.75	368.75	387.50	373.75	364.75	349.75	355.50	347.25	365.25	360.25	363.75	367.50	381.00	375.75	402.75	395.75	358.25	369.75	407.50	475.25	566.00	553.25	511.75	532.75	520.25	463.00	427.75	422.00	400.75	369.50	358.75	344.25	323.75	305.75	309.00	320.50	313.00	308.75	328.00	348.50	358.25	356.25	356.50	357.75	366.00	373.75	366.00	381.25	406.50	425.00	428.25	408.75	410.50	396.25	414.00	397.25	370.25	366.50	351.50	341.00	336.25	376.00	374.25	385.75	386.75	419.75	516.75	606.25	620.00	599.00	515.00	462.50	456.75	470.50	440.25	443.00	455.25	457.50	469.50	476.00	451.25	383.00	371.75	370.50	356.25	345.00	339.50	340.50	342.25	323.00	337.75	347.25	330.50	324.25	330.50	344.25	361.25	360.75	372.50	372.00	383.50	377.50	388.50	405.50	460.25	484.00	483.75	481.50	533.50	565.00	581.25	588.50	486.00	488.25	654.75	683.75	613.25	527.75	604.25	557.75	558.75	511.75	460.00	449.75	429.50	437.00	425.75	422.25	425.00	420.75	419.00	423.25	408.00	385.75	397.50	403.50	383.25	377.50	386.50	435.75	462.00	449.50	414.25
475.75	479.50	489.00	460.00	419.00	426.75	456.25	425.00	411.75	423.50	459.50	464.50	505.25	500.25	535.25	542.75	503.00	487.75	490.00	465.75	473.50	463.50	470.50	451.00	433.50	445.50	415.25	404.00	398.75	398.25	397.50	390.50	407.25	399.50	406.00	428.00	446.50	457.50	447.00	424.00	416.75	413.75	403.25	408.00	420.75	407.75	393.75	393.50	388.25	386.25	373.75	358.00	349.75	394.00	373.75	361.25	356.00	369.25	374.25	360.25	393.75	403.25	402.50	413.75	414.50	373.75	358.25	400.50	441.75	430.50	464.50	466.25	491.75	461.25	414.50	374.75	368.00	364.25	371.25	371.25	385.25	392.25	347.50	368.75	360.00	353.50	355.00	342.75	352.00	363.00	364.75	396.00	391.75	362.00	345.50	373.75	372.25	368.50	351.50	334.75	328.00	303.25	352.25	378.25	391.75	399.50	381.75	364.00	361.75	363.25	344.00	343.00	339.50	354.75	373.50	384.50	367.00	352.00	350.25	356.00	363.00	367.00	369.75	376.00	382.50	396.75	394.75	401.50	390.25	367.75	380.25	484.00	522.25	574.00	479.75	489.00	534.00	532.25	495.00	426.25	381.50	353.50	352.25	327.25	323.75	319.00	305.50	342.50	348.00	331.75	306.25	329.50	345.00	358.25	354.00	354.25	357.25	354.50	360.50	360.50	381.25	409.25	440.50	424.50	396.50	389.00	378.50	411.00	411.00	383.25	384.25	370.75	376.50	347.50	341.75	355.50	392.00	402.50	414.25	453.00	555.75	615.50	637.50	518.50	484.25	456.25	480.00	481.25	510.75	475.75	497.00	504.75	432.75	410.25	401.25	391.75	389.75	356.50	361.50	360.00	364.50	354.25	323.25	347.75	358.25	349.00	328.00	323.25	336.25	351.00	344.25	366.50	354.25	382.75	374.50	378.00	386.25	424.50	487.25	512.25	501.75	523.00	535.75	535.25	502.50	442.50	425.50	499.50	635.25	671.50	670.00	650.00	564.25	521.75	481.75	484.00	449.50	429.50	435.25	437.25	436.50	430.00	418.00	428.50	413.00	392.25	393.50	416.00	385.75	376.50	377.25	392.75	407.50	439.25	458.50	424.00
501.75	503.75	463.25	437.00	425.25	425.25	442.25	465.25	423.00	427.50	442.50	486.50	544.75	521.75	521.75	544.75	511.00	492.75	498.25	479.75	463.50	471.00	464.25	458.00	453.75	456.75	443.00	445.00	433.50	438.00	430.50	406.25	394.50	387.00	396.00	407.75	418.00	473.50	457.25	446.00	443.50	444.50	448.25	426.50	413.75	409.50	398.75	387.50	396.25	397.25	364.75	359.25	393.50	401.75	367.50	377.25	384.00	392.00	380.00	344.50	358.25	382.25	398.00	386.00	418.25	399.75	377.00	392.50	416.00	416.75	446.00	420.25	445.75	448.25	412.00	394.50	379.00	349.25	348.25	344.25	369.50	367.50	355.00	357.25	378.50	373.00	362.00	365.50	353.25	345.00	352.50	374.25	384.25	349.25	339.75	356.75	346.50	342.25	353.00	335.25	318.75	316.00	355.00	381.75	400.25	418.25	380.25	375.25	378.50	370.50	356.50	358.50	341.75	359.00	373.25	373.25	360.50	366.00	373.00	366.75	384.50	383.25	387.50	390.25	413.50	431.50	425.25	427.75	423.00	399.50	403.75	487.25	535.25	494.75	417.00	476.50	535.75	471.25	395.50	384.75	356.75	346.00	347.75	342.25	322.25	305.75	319.00	379.50	430.00	338.75	317.00	312.50	327.25	350.50	343.25	339.25	343.25	349.75	354.00	352.75	369.25	378.00	373.00	378.00	387.75	367.00	374.25	381.00	398.75	413.75	390.00	372.00	376.75	369.75	344.75	349.25	355.00	375.25	381.00	430.75	465.50	542.75	623.75	559.00	530.75	472.00	484.50	517.50	540.00	504.50	476.00	456.75	448.00	439.25	425.00	417.50	386.75	364.75	394.50	435.25	406.25	353.50	336.00	335.00	350.00	361.75	348.75	330.50	331.75	336.75	331.50	342.75	348.00	375.75	392.25	392.00	394.00	421.75	455.00	448.25	494.50	431.75	407.25	408.75	406.75	419.75	412.00	422.75	521.75	558.75	555.00	589.00	505.00	499.25	474.25	469.25	446.25	448.50	444.25	483.25	444.50	429.50	429.00	417.75	406.50	398.50	441.00	494.50	378.50	393.75	388.75	406.75	403.25	424.00	473.75	498.25
463.25	515.50	503.50	455.00	434.25	422.25	445.00	479.00	447.25	432.50	430.25	454.25	543.00	546.50	540.00	540.25	491.00	460.75	474.50	480.75	452.50	432.50	416.50	421.00	443.00	435.25	452.75	455.00	442.50	434.50	425.75	426.50	405.50	380.25	376.75	404.75	397.75	439.75	444.50	445.50	419.25	476.50	487.00	443.25	442.25	419.25	396.00	408.00	397.75	370.00	359.25	357.50	401.00	399.25	377.00	411.50	406.00	405.00	375.50	345.50	338.50	343.00	371.75	366.75	399.00	380.50	354.75	352.25	380.00	380.75	387.50	384.00	437.00	414.00	424.50	393.50	391.75	362.50	327.00	334.50	360.00	349.50	341.25	334.25	360.75	372.00	354.00	372.50	386.50	352.00	336.25	356.50	372.25	342.50	334.75	344.50	349.25	326.25	343.75	317.25	307.00	328.25	368.50	380.25	406.25	416.75	398.25	395.75	395.75	359.00	346.75	371.75	349.75	359.25	368.25	374.00	372.00	376.75	394.00	381.00	396.75	387.00	414.00	424.25	438.75	474.75	472.25	467.75	423.50	479.75	439.75	408.25	430.00	444.50	423.25	401.25	409.75	376.50	359.50	359.00	340.75	335.25	336.75	340.00	336.00	309.25	316.00	377.00	470.25	349.25	336.25	315.75	313.00	335.50	330.00	317.00	334.00	342.00	340.50	355.00	363.50	359.25	341.75	349.25	355.00	377.25	402.25	385.25	386.75	434.25	381.75	386.00	377.75	380.75	359.75	342.25	371.50	378.00	391.00	398.00	408.75	503.50	572.50	601.25	562.00	506.50	514.75	559.25	571.75	494.25	498.25	496.00	470.50	449.50	465.25	415.75	392.75	385.75	396.75	448.00	439.75	356.50	337.50	328.50	339.75	357.75	364.00	342.25	337.25	345.00	354.25	329.00	344.25	373.00	394.50	439.75	408.25	419.25	466.00	381.25	384.50	383.50	369.25	395.00	386.00	402.00	398.50	410.25	409.25	453.50	442.00	455.00	527.75	527.75	531.75	508.25	467.50	459.50	459.00	497.75	447.50	435.00	440.50	427.00	424.00	398.75	414.00	480.00	386.75	402.00	399.25	423.75	426.00	450.50	489.75	517.50
436.00	473.00	463.00	445.00	430.00	429.25	479.75	501.75	465.25	435.50	508.50	474.75	502.00	517.25	519.25	522.00	498.25	478.75	450.00	454.25	435.00	429.75	453.50	432.25	416.25	420.75	416.75	409.50	410.75	407.50	405.00	402.50	397.50	411.00	401.75	386.00	388.75	410.25	408.50	427.75	403.25	450.50	446.50	436.00	467.00	431.25	419.50	423.75	421.00	371.75	357.50	379.50	401.75	413.50	395.75	419.75	406.75	396.50	383.75	374.75	355.50	345.25	363.00	356.50	350.00	345.00	340.50	361.00	363.00	348.00	352.25	384.50	401.00	402.75	405.00	381.00	379.00	364.00	329.00	353.50	351.00	363.00	343.75	334.75	332.25	334.75	334.75	360.25	382.00	364.75	350.25	348.00	361.25	338.75	327.50	333.50	326.25	309.25	320.25	329.00	330.25	351.25	360.50	369.50	377.75	392.50	418.25	405.75	381.50	353.75	372.25	362.25	371.50	359.75	368.00	383.75	374.50	384.00	419.25	424.50	406.50	395.75	435.00	446.00	446.25	466.50	476.75	498.25	452.75	442.00	404.75	400.50	437.75	484.25	455.75	382.50	364.00	361.00	341.75	350.50	353.75	346.25	326.00	322.00	323.50	312.00	308.00	326.75	351.25	344.25	344.50	320.25	311.25	318.00	316.00	318.50	316.75	326.00	337.75	352.50	358.50	349.25	341.00	352.75	355.00	381.50	400.75	409.75	404.50	424.50	419.00	425.75	423.00	408.50	370.00	354.25	355.75	373.75	401.25	412.50	428.00	481.75	474.75	515.50	528.75	484.25	491.75	481.50	553.25	511.50	549.50	561.75	497.75	497.25	459.00	404.50	402.00	400.75	401.50	382.50	363.50	339.00	347.75	331.00	344.00	359.00	358.50	351.00	345.75	363.25	354.75	336.50	336.25	350.25	367.25	395.25	423.00	430.75	432.50	362.25	353.25	355.75	363.50	371.25	372.25	384.75	393.50	389.25	397.25	421.50	408.75	406.25	427.75	459.00	492.50	467.25	453.25	449.25	463.50	484.00	455.50	447.25	440.00	417.50	401.75	408.00	424.00	423.25	397.25	412.50	387.00	408.50	444.75	459.25	500.75	510.25
437.50	441.75	461.75	452.00	432.50	434.75	466.00	523.75	453.00	436.50	534.50	520.25	508.50	497.00	515.25	500.25	469.75	490.25	460.25	428.00	447.00	444.25	471.00	443.25	421.50	444.00	437.50	422.75	418.25	418.75	415.75	406.75	415.75	430.50	423.00	404.50	381.75	382.25	396.25	411.00	391.75	449.25	437.75	412.25	479.25	428.50	408.00	433.25	444.50	392.50	370.25	393.00	411.75	422.75	416.75	417.50	405.00	399.25	409.75	384.00	357.50	352.00	343.50	349.25	364.75	363.75	338.25	352.25	348.75	343.75	341.25	352.00	348.75	407.25	393.00	371.00	352.75	342.00	321.75	359.25	364.25	389.25	380.00	363.00	335.00	328.75	329.25	356.75	371.75	369.00	350.75	343.75	352.75	332.50	312.75	314.75	307.25	310.50	329.25	362.00	345.00	369.50	359.75	365.00	368.00	382.25	414.25	395.50	374.75	358.50	383.50	365.25	384.25	367.00	358.75	377.00	377.25	383.00	430.75	458.00	416.25	401.25	446.00	446.75	442.00	475.00	481.00	507.50	459.50	423.00	406.50	421.25	457.75	500.00	461.00	386.50	358.50	351.75	336.00	335.50	351.00	344.00	318.50	312.25	317.75	309.25	308.00	322.00	318.75	331.50	349.00	327.75	320.75	321.75	321.75	321.75	316.50	322.00	328.50	344.25	350.50	340.50	342.75	361.00	357.75	375.00	389.00	415.50	426.25	430.50	467.75	466.75	471.00	423.25	379.25	365.50	348.75	353.00	360.50	378.50	425.75	478.25	441.25	455.50	447.75	437.75	431.25	446.50	527.50	531.50	574.50	590.50	523.50	515.75	434.00	410.50	414.50	392.25	384.00	355.50	342.50	349.25	356.25	336.25	332.00	371.25	359.50	360.75	354.75	365.50	357.50	343.50	333.50	349.25	360.25	361.00	422.25	413.75	381.00	352.00	353.00	355.25	355.00	357.00	360.00	379.00	387.75	381.25	395.75	393.50	402.00	394.00	405.75	423.25	449.75	431.00	432.00	442.25	457.75	484.75	458.25	452.25	437.00	422.50	400.50	413.00	411.50	389.75	405.25	421.75	388.00	404.00	448.00	486.00	523.25	510.00
451.25	441.50	442.00	451.50	449.25	433.25	466.50	528.00	469.00	442.25	510.00	529.00	524.25	484.25	484.50	499.00	475.50	460.25	458.25	444.75	463.50	470.50	448.50	437.25	475.25	544.00	524.25	448.50	432.75	432.50	440.75	436.00	465.50	464.25	443.50	413.50	390.00	381.50	391.25	394.00	401.50	436.00	432.50	408.75	417.00	410.50	393.00	387.00	385.50	384.00	373.75	401.25	404.00	428.75	451.50	424.75	405.50	411.00	412.75	389.00	383.75	383.00	350.25	386.25	379.50	385.75	388.00	363.75	366.50	373.50	352.25	340.00	339.50	351.00	352.25	344.50	331.25	337.50	341.25	370.25	373.25	384.25	407.00	398.50	386.50	358.50	332.00	332.00	357.25	354.75	336.75	323.00	331.00	324.00	340.75	327.75	333.50	332.50	335.50	376.00	378.75	392.00	386.00	391.25	402.75	404.25	413.75	395.00	388.00	384.75	389.00	393.25	400.00	380.75	402.75	402.75	394.50	402.25	451.75	467.75	463.75	428.50	445.50	427.50	426.00	450.75	467.75	477.75	453.75	457.00	466.50	483.00	496.75	466.25	434.25	402.75	411.00	368.50	347.50	329.75	326.00	326.25	317.25	319.25	337.25	326.00	322.75	346.75	332.25	320.75	337.50	345.25	338.75	344.75	342.75	332.75	320.00	323.25	319.75	325.00	335.25	332.25	340.50	353.00	358.75	369.25	381.50	402.75	414.75	451.50	482.00	497.75	489.25	431.25	396.75	394.50	377.25	378.00	356.50	382.00	416.75	422.25	403.50	399.75	395.50	407.25	401.75	416.25	429.50	506.75	606.75	627.75	613.75	521.00	456.00	441.00	427.50	387.50	377.75	372.75	356.25	376.75	366.75	349.75	333.25	360.75	381.50	372.00	362.50	368.00	368.50	353.25	338.75	340.25	342.50	346.50	374.00	388.25	350.25	349.00	355.75	369.50	370.75	373.75	372.00	375.25	379.25	380.50	383.00	396.25	392.25	400.50	411.50	413.50	425.00	430.75	448.50	455.25	471.25	495.75	439.50	429.00	419.25	422.00	409.75	419.00	404.00	390.75	415.75	438.75	394.25	409.50	418.50	445.00	475.50	514.25
465.50	453.50	458.00	451.00	454.00	447.25	477.00	517.25	455.50	457.25	523.50	531.25	498.75	475.00	499.25	507.00	489.25	459.75	490.00	477.75	450.75	469.25	451.75	448.00	512.75	603.75	524.00	450.25	433.50	452.25	455.25	441.00	472.25	433.75	426.25	410.00	405.75	405.00	391.25	379.50	403.25	409.25	402.75	402.75	383.50	374.75	409.50	399.75	377.25	387.00	384.75	388.25	418.75	440.75	450.75	427.00	400.75	379.50	387.75	380.25	376.00	363.00	352.50	387.75	403.50	410.50	410.00	396.75	400.75	395.00	368.00	358.00	340.00	343.50	328.25	370.25	348.25	362.50	364.50	374.75	359.50	359.75	377.75	393.50	404.75	377.75	353.00	321.50	351.75	335.75	328.50	346.75	353.75	340.00	359.00	345.50	363.50	333.00	339.00	375.00	391.00	383.75	409.00	414.75	421.25	410.00	424.25	419.00	411.25	427.00	425.75	416.25	419.00	390.00	402.75	425.00	418.50	414.75	443.00	462.75	438.50	425.00	431.25	410.50	426.75	454.25	470.25	464.00	429.50	494.00	504.75	499.50	519.75	427.00	408.50	418.50	390.50	382.00	346.00	323.25	314.25	319.75	332.25	328.00	344.25	344.50	329.25	360.25	350.25	321.00	336.75	357.25	356.00	361.00	357.50	350.75	333.75	340.00	322.75	321.75	332.00	331.25	332.00	347.50	365.75	379.75	385.25	381.00	400.75	482.25	487.75	478.00	501.00	480.00	445.25	442.25	411.50	367.50	359.50	383.75	410.25	401.00	403.25	381.50	384.00	389.25	394.50	400.75	417.00	457.25	548.00	680.00	694.50	591.00	494.75	445.50	416.75	392.50	403.00	387.50	362.50	378.25	375.75	351.00	344.25	343.75	361.00	377.75	385.25	377.25	394.50	362.50	355.75	351.25	343.75	348.75	343.00	344.00	339.50	345.50	345.75	367.00	370.00	375.00	383.50	389.00	394.00	387.00	398.50	408.75	404.50	413.25	429.00	417.25	424.50	448.75	458.00	468.75	477.25	449.25	435.75	420.00	429.50	440.50	421.25	425.00	405.00	395.50	421.00	435.75	395.75	416.75	418.50	427.50	462.25	525.00
474.25	466.25	471.00	461.75	461.00	466.50	475.50	472.75	484.75	500.25	491.25	524.75	522.00	491.50	506.25	513.75	487.25	478.00	513.25	503.50	474.75	490.50	463.75	518.50	597.50	631.25	478.25	489.50	445.75	451.75	455.25	471.25	473.50	430.00	416.50	416.75	409.50	416.50	420.50	400.75	384.50	372.00	367.00	370.00	362.00	359.25	384.00	380.25	372.75	377.75	392.00	394.25	406.75	421.25	394.75	397.00	387.00	385.00	380.50	366.75	372.50	392.00	398.75	388.50	418.50	426.25	420.00	407.75	403.75	386.75	354.25	349.50	373.75	354.75	361.25	391.75	366.00	391.00	389.25	376.00	366.25	351.50	346.50	347.50	373.25	352.50	326.25	319.25	328.50	332.50	353.00	375.00	373.75	353.75	371.25	362.50	370.00	332.50	323.50	345.50	367.75	356.25	393.50	417.50	421.25	396.25	410.00	442.00	440.00	447.00	451.25	437.75	431.25	405.00	405.50	435.25	443.25	425.00	442.75	471.00	445.75	425.25	415.00	396.50	412.25	437.00	441.25	443.75	417.75	458.25	455.00	441.00	450.25	403.00	394.25	413.75	382.75	371.25	342.75	319.25	321.50	345.25	348.00	340.00	342.75	352.25	351.00	362.25	354.50	322.50	335.75	366.00	370.75	371.25	371.00	373.75	336.50	349.25	331.50	324.50	325.00	324.25	323.00	336.00	357.50	374.00	373.75	362.50	382.75	454.50	498.25	508.75	515.25	533.00	468.25	428.00	375.00	371.75	370.50	361.25	372.50	380.75	383.25	397.00	406.75	405.00	399.75	404.25	415.25	426.75	474.25	560.25	600.25	593.00	541.25	534.75	470.75	429.50	397.00	376.00	365.25	421.50	389.75	356.75	362.75	351.75	358.00	377.00	419.50	406.00	384.50	393.00	372.75	357.50	348.25	367.50	358.25	355.00	355.00	348.50	342.50	346.00	362.00	376.75	382.25	387.00	393.00	401.25	415.75	418.25	426.75	443.00	440.50	438.00	432.75	441.25	443.00	450.00	470.50	467.75	442.25	425.75	451.50	448.50	443.50	420.50	410.25	416.75	411.00	423.25	406.25	430.25	431.25	457.00	459.75	514.75
496.00	501.25	524.50	499.50	483.00	473.00	470.25	454.50	505.25	523.50	486.00	529.50	539.50	506.00	500.25	528.50	504.75	480.75	530.50	528.25	522.00	529.50	511.75	552.50	572.25	616.50	465.00	461.50	461.50	440.25	438.50	448.00	460.00	461.25	437.75	417.25	401.25	391.25	413.75	410.50	391.50	360.50	379.00	393.00	392.75	386.75	364.75	386.00	388.00	394.25	394.50	402.75	399.50	447.50	439.25	419.25	384.75	397.00	415.25	384.75	372.00	393.25	411.75	417.50	393.25	401.50	384.50	368.75	371.25	356.00	356.50	360.50	388.00	374.75	381.75	406.50	385.25	394.50	377.75	354.75	346.25	347.50	317.50	311.75	314.00	311.75	318.25	344.75	369.25	375.25	369.25	388.75	378.25	380.50	383.25	381.25	376.50	340.50	323.50	336.50	328.25	354.50	393.00	412.00	392.50	385.25	406.00	425.50	409.75	419.25	450.75	454.00	436.50	422.50	444.50	459.50	454.00	443.50	462.00	465.75	450.50	453.75	409.50	396.25	399.00	420.75	440.50	433.00	407.25	426.50	406.00	421.75	428.25	391.50	375.00	386.50	358.25	348.50	335.00	328.50	321.25	339.25	358.75	349.00	339.75	363.00	362.25	364.50	343.50	334.00	328.25	357.25	359.00	375.75	371.00	358.00	344.00	359.50	341.75	340.00	331.00	325.00	322.00	329.75	353.50	354.50	353.75	353.00	368.00	388.75	441.25	506.75	543.00	534.00	413.00	392.50	381.50	408.50	392.50	378.75	368.75	397.50	408.50	425.50	439.50	415.25	413.00	420.25	415.75	424.50	447.25	491.75	551.75	544.00	565.50	610.50	570.00	493.75	407.50	386.50	373.75	428.50	395.25	371.75	381.50	348.50	351.00	363.00	411.25	429.25	387.75	380.50	365.00	350.00	355.00	375.75	371.00	367.50	379.50	357.25	352.50	344.25	343.75	370.75	392.25	396.00	392.25	412.75	425.25	400.25	432.25	430.25	436.75	444.25	433.00	433.75	420.25	441.25	449.75	471.25	444.50	433.25	439.50	465.25	450.25	420.50	434.25	431.25	406.25	428.00	420.00	410.50	434.25	473.75	476.50	513.00
478.50	551.75	557.00	531.00	532.25	493.75	472.00	467.75	511.25	558.75	516.25	517.00	540.25	543.50	519.00	539.25	523.50	518.00	532.00	512.25	513.25	515.75	485.25	469.50	487.50	472.50	506.75	435.25	458.25	429.00	431.25	445.25	447.00	467.00	450.25	440.00	424.75	414.25	377.75	382.00	377.00	370.50	388.00	464.00	416.50	382.25	382.75	404.75	391.50	399.25	425.50	429.00	414.00	428.00	431.25	398.50	399.25	406.00	419.00	395.00	389.50	397.75	412.00	412.00	389.50	385.25	381.50	372.00	361.25	387.25	392.75	374.50	394.50	421.25	418.50	420.75	378.75	360.75	362.25	366.25	349.50	339.75	319.25	330.75	349.50	333.75	342.50	334.50	373.25	402.75	393.50	397.25	403.25	403.75	390.50	375.00	358.25	330.25	336.75	364.50	336.75	350.00	362.50	371.75	384.25	384.75	383.00	384.00	387.75	412.75	428.75	436.00	421.25	424.50	452.00	454.50	445.00	445.75	456.50	461.75	456.00	436.25	414.25	405.25	391.50	409.75	410.00	403.50	401.75	423.00	398.25	402.50	405.50	422.00	378.00	366.25	361.75	356.00	335.00	328.50	329.25	350.75	362.50	362.50	346.00	350.00	361.50	366.25	347.75	355.50	327.00	340.25	348.00	376.00	382.75	378.50	355.00	355.00	350.50	351.00	343.75	340.25	324.75	328.75	342.50	340.25	348.00	361.75	363.00	382.75	393.25	440.25	510.75	506.75	425.75	404.00	393.50	436.25	405.25	379.75	366.25	362.50	387.25	425.75	447.50	427.50	446.00	449.50	477.50	450.00	477.00	501.50	515.00	530.00	563.75	631.50	696.00	632.50	468.00	409.25	397.50	436.00	407.00	384.50	373.00	351.50	358.25	370.00	433.00	430.50	382.00	362.50	359.00	350.50	373.00	371.50	385.50	371.25	378.25	365.50	368.25	347.25	344.75	359.25	381.75	383.50	391.25	410.25	407.25	391.50	406.75	394.00	411.75	435.25	428.50	409.50	428.50	435.75	444.25	487.00	459.00	444.25	446.50	460.25	448.50	432.00	438.00	420.25	415.75	433.00	424.50	414.00	445.50	470.75	512.75	512.25
492.25	553.00	517.50	534.00	574.50	516.25	520.50	542.25	512.50	541.50	553.50	550.50	635.50	657.50	584.25	536.75	528.25	516.75	496.50	462.75	468.75	473.75	473.25	444.25	468.00	437.00	463.75	442.00	421.50	418.75	432.75	473.00	434.50	442.25	434.25	433.25	425.50	409.25	398.50	378.00	373.25	385.50	406.00	461.00	377.75	387.75	416.75	393.25	391.75	385.75	426.50	449.75	445.75	445.50	455.00	420.00	434.50	412.75	400.00	407.75	416.25	427.25	403.25	396.75	417.50	420.75	420.25	388.75	374.25	413.75	412.00	387.25	402.75	439.75	450.00	403.00	369.75	369.00	344.75	351.50	343.75	329.25	322.75	340.75	365.00	354.25	357.75	337.50	341.25	377.25	397.50	402.50	389.50	399.00	390.00	371.25	345.00	326.50	333.50	360.50	362.00	356.25	352.00	367.50	386.00	377.75	376.75	402.00	412.00	427.50	430.50	403.75	406.25	423.75	435.75	445.25	442.00	428.00	437.25	456.25	450.00	438.75	438.50	429.25	398.00	379.75	381.50	386.50	405.00	409.25	392.25	371.75	386.00	424.75	375.25	350.00	349.50	339.25	328.25	318.25	337.50	351.50	352.00	364.50	353.00	354.00	353.25	367.25	363.25	362.00	335.25	336.25	363.50	368.75	392.50	382.75	357.75	365.50	365.75	358.75	347.75	350.75	327.50	325.00	330.00	350.50	360.50	376.50	384.25	386.00	400.50	442.00	486.75	511.00	421.50	422.50	413.75	454.00	427.25	382.25	384.25	364.50	375.25	397.50	411.25	446.25	472.25	491.50	545.50	521.50	512.00	508.50	513.75	527.25	570.00	675.00	702.00	713.50	557.25	443.50	427.00	458.75	405.50	391.25	400.75	377.50	350.50	385.50	511.00	455.00	416.75	372.50	375.50	360.75	371.00	381.75	416.75	396.50	384.50	377.75	354.25	357.00	347.50	352.50	358.75	365.50	381.25	385.75	385.50	391.50	375.75	369.75	405.75	429.00	412.75	401.00	418.00	425.25	444.00	492.00	470.00	457.00	458.50	468.00	455.00	445.00	425.75	407.75	422.25	433.25	421.50	422.50	458.75	487.75	536.00	554.75
512.25	524.75	525.00	559.75	557.50	545.25	521.00	534.75	533.00	536.50	589.75	579.25	659.25	705.25	626.00	534.50	493.75	482.25	472.00	479.75	480.25	455.50	458.00	444.50	422.50	423.25	413.00	410.25	411.75	407.25	400.50	415.75	430.00	414.25	406.75	398.50	386.00	379.75	392.50	398.50	389.75	389.25	418.25	440.75	372.75	421.75	429.25	400.75	408.50	386.00	415.75	398.00	416.25	439.25	469.75	456.00	436.50	423.25	417.75	426.75	418.75	416.75	431.00	428.00	417.50	395.00	381.25	382.00	388.75	408.50	440.00	428.50	406.25	444.00	438.25	393.00	388.75	385.00	375.50	360.50	328.00	332.00	369.00	376.00	371.50	364.00	365.25	349.50	338.75	352.00	374.00	395.00	381.00	365.75	356.25	343.50	342.50	358.75	344.75	349.50	372.50	373.25	355.50	346.75	358.00	354.75	367.00	374.75	378.00	389.25	392.25	420.00	421.50	452.75	468.00	453.00	431.75	416.25	436.50	434.50	428.75	431.00	419.00	408.50	401.50	381.25	374.50	385.00	391.75	401.75	387.25	365.50	382.00	401.25	387.00	369.50	370.75	353.75	333.50	321.50	331.00	325.00	346.00	366.75	354.00	357.75	367.00	367.00	369.50	361.25	344.25	330.00	339.50	359.25	383.00	385.75	367.00	367.00	371.00	367.50	355.00	338.50	328.75	326.25	334.00	354.75	363.25	369.25	370.25	367.75	384.00	404.25	407.75	424.00	427.50	446.00	465.50	444.25	409.00	404.75	400.75	382.25	372.50	375.50	387.00	429.00	436.25	490.75	484.75	499.25	512.50	492.00	516.00	530.75	600.50	581.25	628.75	724.25	613.50	537.00	498.00	487.00	443.25	401.75	437.75	376.00	355.75	439.75	441.00	415.00	405.25	391.25	379.75	367.25	374.75	381.75	414.50	408.50	399.50	368.50	352.75	372.25	356.50	349.00	349.25	349.00	356.75	355.75	365.75	378.75	363.75	380.50	392.00	397.50	405.25	414.00	412.25	427.25	449.25	499.25	487.75	471.25	466.25	475.25	458.50	440.75	423.00	416.00	427.25	500.50	465.25	430.00	468.00	541.00	542.00	509.75
584.75	610.25	570.25	652.00	636.50	561.75	590.00	636.75	596.50	550.25	617.75	649.25	640.00	681.50	653.50	539.75	528.50	502.50	489.00	498.25	507.75	471.00	448.75	432.25	435.75	457.00	439.00	440.75	482.75	435.25	410.25	395.25	410.25	393.50	376.50	385.75	376.75	399.25	425.25	415.75	385.50	403.50	466.00	416.25	379.00	452.50	421.25	420.75	431.25	391.50	391.00	394.25	414.50	443.00	462.25	474.75	455.75	450.00	451.75	441.75	408.50	418.75	441.00	454.75	400.25	391.75	389.25	439.00	451.25	452.25	459.25	437.25	433.00	433.00	419.75	388.00	373.00	385.50	382.25	378.75	339.00	324.50	372.00	401.25	409.00	396.25	377.00	358.25	348.00	348.25	372.25	404.00	385.25	349.50	341.75	349.75	364.50	382.50	368.75	354.75	346.00	375.00	380.75	358.75	366.25	369.50	365.75	387.50	381.50	411.50	437.50	445.50	437.50	442.75	466.00	455.75	432.25	413.75	408.50	401.50	405.25	402.75	402.25	384.00	374.75	377.00	371.25	393.75	375.75	389.50	375.75	360.75	385.50	390.75	386.25	383.25	382.25	371.75	346.00	333.00	330.75	329.25	346.75	365.00	362.50	358.00	365.50	370.50	374.50	365.75	358.25	339.25	334.00	342.25	364.00	370.00	373.00	367.75	376.75	373.50	353.50	348.50	334.00	329.00	328.25	332.50	340.25	351.00	363.25	366.50	410.50	438.00	397.75	392.75	411.25	435.50	508.50	470.25	428.00	413.00	386.25	370.25	379.00	381.75	390.25	426.25	402.50	422.00	429.50	457.75	494.00	495.00	547.50	542.25	536.75	539.50	629.75	780.75	721.50	682.50	516.25	418.50	392.50	377.75	376.50	364.50	361.25	435.50	438.50	451.25	440.50	412.25	404.00	371.25	378.00	388.00	407.25	386.25	388.00	364.50	356.75	374.25	361.00	359.50	358.75	354.50	360.50	359.25	352.75	354.25	371.50	386.00	398.50	404.25	416.25	395.25	418.50	441.50	429.25	474.50	499.50	477.25	480.50	471.50	445.25	427.75	418.00	419.75	437.00	458.00	459.75	429.00	515.50	621.50	570.50	484.50
665.00	631.00	624.75	644.50	721.25	708.00	698.00	664.00	593.50	631.75	672.75	713.75	704.25	681.75	630.50	602.75	632.25	506.50	516.00	509.75	496.75	477.75	453.50	489.50	532.75	526.00	578.50	572.00	569.00	470.75	411.00	398.75	391.00	391.75	383.75	403.00	395.00	452.00	436.00	408.25	384.00	426.50	488.25	408.50	377.50	394.25	428.75	442.75	432.75	402.75	432.25	413.00	404.25	423.50	436.50	447.50	468.00	476.50	461.75	430.25	429.50	428.50	446.00	458.25	413.75	429.00	413.25	435.75	457.75	477.75	472.75	454.00	429.25	407.25	400.50	382.50	375.25	372.50	368.00	353.50	319.25	346.00	364.50	383.75	420.75	418.00	396.25	372.75	366.75	352.50	361.00	390.75	374.25	343.75	362.75	355.50	359.00	386.50	391.50	380.75	358.00	372.25	389.00	372.50	369.75	386.00	387.25	392.25	410.75	434.50	428.50	453.25	436.75	419.50	438.00	436.25	430.50	427.25	414.75	402.25	395.75	394.25	385.00	380.50	375.75	364.00	367.25	394.25	386.25	374.75	366.75	353.25	369.25	378.25	378.25	377.00	375.25	371.25	358.50	340.00	326.75	343.50	351.00	358.25	370.00	371.25	365.25	371.75	374.50	371.75	354.50	363.00	350.50	338.25	346.50	364.25	373.50	373.50	377.00	369.75	359.00	362.00	344.25	333.75	328.75	332.00	332.25	349.75	350.50	367.00	374.00	388.75	383.50	378.00	392.75	405.25	499.00	534.50	450.00	402.50	388.50	376.50	393.75	395.00	411.75	403.25	394.75	399.50	411.25	467.25	472.25	446.75	520.75	566.50	494.50	545.00	634.25	715.75	760.50	691.50	551.25	468.25	404.00	373.50	369.50	373.25	366.75	422.00	474.50	481.50	491.75	469.50	508.00	418.75	376.00	395.75	419.25	382.75	370.50	371.25	372.50	379.75	370.25	357.50	370.50	369.50	380.00	384.25	371.50	365.00	360.00	383.75	402.50	400.25	404.50	387.00	418.00	423.75	417.50	422.50	425.50	462.50	488.25	469.00	446.50	432.50	432.00	421.75	548.75	606.25	526.00	432.50	498.50	656.75	630.75	488.25
689.75	723.75	733.75	709.25	732.00	752.00	739.50	679.75	679.25	705.50	702.25	731.75	725.00	698.75	674.25	678.50	627.75	533.25	556.00	520.50	567.00	509.50	519.75	631.00	679.00	618.25	656.00	628.50	578.25	477.25	399.00	405.75	425.25	410.50	402.25	410.50	427.75	444.25	425.00	408.75	403.50	394.50	456.25	428.25	376.25	400.50	430.00	464.25	459.75	432.50	448.75	422.75	423.00	432.75	431.00	485.25	514.75	517.25	480.75	439.75	442.25	454.75	453.00	459.50	447.25	421.00	407.25	422.00	433.75	461.75	479.25	451.50	437.50	443.25	448.25	399.25	412.25	397.50	369.50	351.25	321.25	359.00	382.50	390.50	412.50	430.75	420.25	393.75	390.25	362.25	393.00	422.25	384.00	374.50	370.50	379.50	350.75	379.25	393.75	387.50	362.25	376.25	393.25	385.00	390.75	404.25	417.00	444.00	447.75	443.75	408.25	423.75	420.25	415.75	429.50	418.50	423.25	426.00	420.75	415.00	407.25	402.00	396.50	396.75	392.25	374.75	359.75	385.75	391.00	389.75	382.00	353.75	346.75	359.75	374.50	371.50	363.75	359.50	354.25	344.25	324.75	329.50	336.75	339.25	358.50	381.00	373.50	370.00	379.50	370.75	356.50	371.50	362.50	356.25	335.50	343.75	363.00	376.50	387.75	381.50	366.75	367.50	348.25	337.25	338.75	336.00	337.75	359.00	370.75	376.25	365.00	359.75	365.00	370.00	380.75	401.25	436.75	532.00	429.00	396.50	383.50	373.00	375.75	384.25	398.75	390.00	406.00	406.25	403.00	430.75	420.00	421.00	434.75	470.75	498.75	535.00	575.50	701.50	730.75	682.75	583.75	476.50	451.50	414.25	384.50	387.00	373.75	371.25	452.25	454.75	429.50	443.25	489.50	426.75	423.75	484.50	448.25	427.75	383.50	392.50	387.25	381.75	382.00	363.75	385.00	390.75	384.75	396.00	392.00	370.50	356.00	362.25	367.25	368.50	371.25	381.50	403.00	397.00	398.50	401.25	426.25	463.00	499.50	487.75	452.75	444.50	449.00	429.50	689.75	689.00	488.00	448.50	513.25	587.75	628.50	539.25
726.50	759.25	762.75	756.25	761.00	769.00	736.00	677.50	690.25	728.00	733.00	727.75	719.25	714.00	702.00	675.50	599.75	640.25	614.00	626.50	609.50	573.75	604.75	656.25	644.00	595.50	581.75	478.75	434.00	410.00	485.75	504.00	466.25	406.50	430.25	422.75	461.25	439.75	428.25	439.25	402.50	404.00	444.50	427.25	392.25	407.25	431.00	453.75	473.75	470.75	475.75	455.25	453.50	490.25	499.75	506.50	530.75	539.00	526.50	499.50	498.25	510.75	507.25	511.00	453.50	428.50	458.75	474.25	476.00	479.50	467.00	452.75	429.75	425.00	466.00	465.50	440.50	418.00	380.25	360.75	322.50	339.50	373.25	383.75	412.50	436.00	435.75	418.00	400.00	376.00	409.25	388.75	377.50	403.25	392.00	400.25	364.50	369.25	388.25	407.00	376.50	376.75	395.50	426.75	442.00	454.25	429.50	420.50	410.00	412.75	402.00	402.25	393.75	396.00	397.75	401.75	408.25	412.00	411.50	411.75	410.25	407.25	402.50	400.00	394.50	378.25	367.50	355.50	374.25	375.25	368.25	349.00	340.50	341.00	344.00	353.00	343.25	339.00	345.25	338.75	329.25	326.00	328.00	337.50	345.25	361.25	369.50	373.25	376.25	375.75	375.25	379.00	382.50	375.00	345.50	341.00	370.75	380.25	388.75	380.25	374.25	370.50	356.75	347.25	354.00	342.25	332.00	347.25	368.00	365.25	351.25	366.75	384.50	380.75	399.25	394.75	419.25	482.75	439.25	408.25	395.25	382.25	385.00	378.75	383.00	413.00	470.50	445.50	406.25	413.00	432.50	431.00	469.75	448.75	471.75	502.25	521.75	571.25	586.75	584.75	532.25	505.75	562.25	501.50	487.25	433.75	387.50	379.50	387.00	459.75	440.00	410.50	422.50	448.00	516.75	513.00	491.25	494.50	416.00	399.75	423.75	385.50	397.00	372.25	374.50	386.75	392.50	401.25	402.75	386.75	357.75	371.25	371.75	365.75	364.25	382.75	384.00	398.25	400.00	419.75	450.75	490.00	512.75	488.75	453.50	446.75	456.00	442.25	536.25	675.25	591.00	478.25	475.25	551.00	507.25	550.50
747.75	743.25	759.00	768.75	771.00	769.25	766.25	757.00	754.25	747.50	732.25	719.25	705.75	702.50	698.00	684.25	634.25	681.00	685.00	699.25	682.00	673.75	615.50	572.75	523.25	469.25	436.75	430.50	467.25	410.00	456.50	530.25	483.75	447.25	471.50	438.25	459.00	450.25	453.25	433.75	399.50	408.25	438.00	434.75	408.50	403.25	401.75	436.00	472.50	511.75	520.25	517.25	512.50	503.00	531.75	515.75	504.00	516.75	537.50	540.75	547.75	551.75	543.75	513.00	554.00	515.00	495.00	491.50	524.75	512.75	470.75	445.50	432.50	400.00	424.75	436.75	378.00	351.00	352.00	356.00	331.25	327.25	359.50	391.25	429.75	433.50	439.25	437.00	409.75	401.25	427.00	443.50	405.25	462.75	446.00	411.50	397.00	379.75	371.50	393.50	390.25	377.75	391.25	427.25	469.75	443.25	424.75	415.50	429.50	410.00	409.75	398.50	399.25	406.00	388.25	381.75	381.50	379.25	395.00	402.00	407.50	406.00	401.25	397.50	388.25	376.00	363.75	348.50	348.50	358.25	340.00	343.00	346.75	338.00	333.25	334.75	331.00	334.00	333.50	332.75	347.50	345.25	339.00	356.50	339.00	339.00	342.50	346.50	361.25	374.25	376.75	377.75	382.00	380.25	347.75	343.25	364.50	364.25	379.25	375.00	382.50	378.75	370.50	356.25	356.00	359.75	338.00	349.25	347.50	357.00	345.50	347.50	360.25	399.00	466.75	479.00	423.75	466.50	514.75	463.25	409.25	395.75	408.00	395.00	396.25	426.25	516.75	475.75	426.75	422.00	479.75	447.75	509.50	495.25	515.25	482.00	488.00	507.75	521.25	542.00	534.50	586.75	614.50	597.50	583.50	446.75	391.50	396.50	393.50	453.00	463.50	417.00	529.25	671.25	659.75	550.75	510.25	454.75	441.50	393.75	427.25	397.25	412.00	389.25	372.75	377.25	383.00	411.25	407.75	383.75	361.25	371.75	395.50	386.50	365.25	370.25	380.25	393.50	406.00	426.00	432.25	518.75	518.75	527.75	491.50	456.25	474.50	460.00	457.50	566.25	599.50	491.75	480.50	603.25	524.75	548.25
748.50	758.00	756.75	755.00	761.50	764.25	765.50	759.50	747.00	742.75	742.75	743.75	727.25	706.50	704.00	691.50	680.50	654.75	667.75	648.75	599.50	606.00	584.00	555.75	551.00	531.50	433.50	502.25	553.25	463.50	431.00	498.50	512.00	511.75	539.75	547.00	526.25	470.50	421.50	418.25	433.25	472.00	458.00	436.50	413.50	401.50	462.00	470.75	476.00	521.00	534.25	536.50	537.75	569.50	562.50	526.50	506.00	499.75	529.00	533.75	520.25	512.00	513.00	506.00	541.50	525.25	467.25	469.75	524.00	489.00	453.25	437.50	455.00	406.75	387.50	371.25	402.75	396.50	358.25	335.25	367.00	370.50	362.75	372.25	374.00	404.25	431.00	451.75	445.25	496.00	511.75	438.25	496.75	520.00	490.50	507.75	545.00	495.50	484.25	452.25	507.75	500.75	473.75	477.50	485.50	449.50	447.00	430.00	452.50	432.50	426.00	407.25	427.50	408.50	413.50	399.00	395.50	384.25	370.50	374.50	381.50	388.00	395.75	377.50	364.25	362.25	354.50	375.50	371.25	359.50	365.75	371.25	370.25	370.75	366.25	367.00	361.50	349.25	339.00	335.00	363.00	357.25	337.50	342.50	358.50	358.00	360.50	365.25	347.50	347.25	349.75	354.75	350.00	369.25	371.00	352.00	354.75	359.00	355.00	370.75	378.75	386.25	385.50	369.75	360.75	365.00	345.75	341.25	346.00	352.25	355.50	344.50	354.25	380.00	443.50	520.25	515.50	484.50	535.25	592.50	509.00	442.50	421.50	411.50	406.00	406.50	420.50	436.25	440.00	490.75	495.50	459.75	505.75	579.00	557.00	544.25	520.50	501.00	506.25	504.50	506.25	536.75	577.25	584.75	493.00	481.75	459.75	441.00	448.00	412.50	539.25	445.50	620.00	646.50	630.00	589.25	530.00	471.25	437.25	414.00	447.25	417.50	402.25	389.50	393.50	391.00	392.75	394.00	400.50	386.00	363.00	389.00	413.25	398.00	379.75	373.50	364.00	381.50	386.25	412.25	426.25	459.50	473.00	533.75	487.50	467.50	475.75	463.00	459.75	480.25	490.00	475.75	553.75	688.75	625.00	588.00
747.25	758.50	761.00	760.00	762.25	766.25	770.00	770.25	766.75	766.50	767.00	765.50	716.25	689.25	685.00	697.25	691.50	692.75	679.25	624.25	637.25	655.00	624.50	610.50	592.25	570.50	470.75	594.50	510.75	445.25	470.00	471.00	535.75	576.50	592.25	596.25	508.00	443.00	441.75	437.00	448.25	477.75	479.00	455.00	412.25	413.50	451.75	469.00	524.75	579.25	562.25	559.50	559.50	580.00	556.00	554.75	529.50	503.25	497.25	536.00	528.50	508.00	486.50	503.75	557.00	533.00	488.00	455.00	476.50	474.25	441.00	430.00	463.25	436.50	393.50	355.75	368.75	378.75	368.25	346.25	369.50	403.00	380.75	390.00	372.25	394.75	425.75	467.00	481.50	535.50	521.00	495.75	553.50	602.50	592.00	602.75	614.00	588.75	502.00	597.75	491.25	525.00	548.50	547.75	522.75	482.00	449.00	452.75	472.50	513.50	449.00	425.75	444.75	420.00	412.75	407.75	410.25	396.75	398.00	387.00	370.25	364.75	373.75	359.50	370.75	376.25	370.50	389.00	373.75	379.75	379.00	379.50	384.00	373.25	364.75	354.00	351.25	334.00	340.50	338.00	365.25	369.25	343.00	330.75	354.00	362.00	357.00	359.75	362.75	367.75	358.50	376.50	368.00	366.50	378.25	371.75	360.50	387.25	363.75	353.50	363.50	376.50	369.50	374.50	379.00	371.00	355.25	360.25	387.00	377.25	360.50	343.25	349.00	359.25	377.75	431.75	454.00	427.50	486.75	613.25	577.25	472.00	445.50	426.00	411.50	422.00	423.25	434.75	458.75	497.25	468.00	483.25	529.00	578.00	620.25	566.75	525.25	528.00	527.50	517.00	508.75	518.50	560.50	584.75	552.75	547.75	545.25	498.25	538.25	442.00	573.00	566.50	664.00	698.00	601.00	521.75	465.25	420.00	426.50	433.25	447.50	453.75	418.25	403.00	403.25	398.25	406.00	398.25	418.75	403.50	371.50	365.00	412.75	413.75	403.25	389.50	367.25	369.75	375.75	397.25	411.50	405.50	447.50	511.00	479.25	484.25	490.50	480.00	464.50	484.75	488.50	508.00	551.50	631.50	621.50	591.75
754.00	759.50	761.25	764.00	767.75	773.25	777.50	778.75	777.75	776.50	766.75	743.00	704.50	683.25	656.25	654.50	635.50	658.00	649.75	624.75	633.25	625.25	647.25	601.00	477.00	509.50	605.75	588.50	471.75	453.75	570.50	584.00	554.75	532.25	536.25	519.75	475.00	466.00	452.75	446.75	453.50	483.75	479.75	429.75	425.00	422.25	463.50	515.50	560.25	576.50	585.25	580.25	584.25	562.75	556.00	548.75	551.50	527.50	492.50	526.25	510.50	489.50	487.00	514.25	580.75	532.50	477.75	467.75	449.25	435.75	421.25	443.25	458.50	418.75	388.50	358.50	350.50	334.00	330.25	330.50	325.50	339.25	365.25	365.00	393.00	414.00	440.75	487.25	533.75	578.75	572.25	582.50	559.50	599.75	613.75	650.00	658.25	645.00	556.75	575.50	515.00	551.00	569.75	622.75	591.75	531.00	478.50	506.00	518.00	507.50	474.25	458.00	470.50	436.25	421.00	423.75	426.75	415.75	403.75	386.00	368.25	368.25	362.25	371.00	390.50	378.00	387.00	388.00	384.25	389.50	387.50	388.50	381.00	361.50	345.25	336.25	335.75	345.75	350.25	339.25	372.00	375.50	349.25	331.75	339.75	346.50	354.25	368.25	368.50	381.75	376.75	384.25	379.00	374.00	394.50	396.75	376.75	384.75	384.50	364.25	351.50	361.75	374.50	377.75	383.25	389.00	386.25	373.75	405.25	375.00	358.50	360.50	345.50	350.50	377.25	406.25	403.50	425.00	470.25	589.25	639.25	518.00	466.75	460.25	442.00	431.25	439.50	496.25	537.75	506.25	488.25	528.75	580.00	596.50	645.00	593.75	566.75	560.25	552.50	518.50	523.75	524.75	526.00	562.75	556.00	559.00	565.25	545.50	546.00	507.75	560.75	629.75	700.00	684.25	574.50	480.75	431.25	446.75	528.25	515.25	465.00	543.00	532.00	424.25	404.25	408.50	407.50	402.25	420.00	406.25	391.50	371.50	387.25	411.00	416.00	397.25	379.25	377.25	390.25	389.25	393.25	412.75	461.75	533.00	518.50	505.25	494.00	498.75	509.00	544.75	501.00	539.25	569.00	570.00	614.00	656.50
759.00	763.25	763.75	764.50	768.25	775.00	777.75	778.00	777.50	776.25	767.75	741.50	704.00	670.00	644.25	606.25	604.50	600.50	597.50	560.50	552.00	562.00	601.00	523.75	470.50	577.25	579.75	481.25	549.00	472.00	511.50	560.75	536.75	493.75	508.00	512.50	499.50	496.00	460.75	475.75	510.50	496.25	461.50	423.75	434.25	464.25	487.75	519.50	579.00	595.50	552.50	559.75	563.50	535.25	523.25	512.25	518.25	500.50	484.50	530.50	527.75	500.50	489.50	513.50	538.50	520.25	472.00	461.00	440.75	432.00	412.25	439.00	445.00	411.75	385.25	354.75	339.75	341.25	350.50	336.00	324.75	330.00	332.50	353.00	403.75	452.75	482.50	531.75	566.75	590.00	603.75	613.00	599.00	618.50	650.25	685.25	693.75	695.75	587.25	584.75	556.25	564.75	709.75	774.50	712.50	604.50	498.50	559.75	566.25	530.50	517.50	528.75	535.50	475.50	458.50	444.00	434.00	418.25	397.50	385.50	374.25	373.50	365.00	388.25	397.25	379.50	398.25	401.00	400.75	393.50	391.50	385.50	372.00	351.50	338.25	346.00	352.25	365.50	357.00	342.00	361.25	376.25	357.00	337.75	334.50	348.00	363.25	381.75	376.25	378.75	407.75	405.25	379.25	372.00	399.25	419.00	382.75	402.25	382.00	370.25	362.75	362.00	365.75	386.25	400.00	395.25	432.75	383.00	418.00	382.25	388.50	377.75	347.50	357.00	378.25	385.75	415.75	494.00	514.75	585.25	701.50	593.25	489.50	444.50	441.75	455.75	453.50	566.25	593.50	517.50	507.00	499.00	552.50	581.50	664.50	606.00	618.75	608.50	568.00	519.00	545.00	546.00	524.00	529.00	541.25	548.25	547.00	573.50	594.50	584.00	545.50	568.00	635.25	591.50	493.25	465.75	452.00	490.50	604.50	652.00	533.75	603.50	596.50	440.50	407.50	421.75	412.00	409.25	417.00	420.50	385.00	377.50	374.00	387.00	426.75	408.75	380.00	367.50	387.50	400.25	406.75	435.00	503.50	551.25	557.50	489.00	462.00	483.00	566.00	569.25	513.75	574.75	629.75	592.25	622.25	698.50
765.00	765.00	762.75	758.00	761.00	767.75	773.50	774.00	774.00	771.75	765.00	749.50	718.00	682.25	656.25	651.50	644.75	633.75	627.50	573.75	546.25	507.00	532.50	465.50	474.75	544.25	520.50	493.75	562.25	489.50	527.00	526.75	530.75	512.75	569.00	637.50	609.50	598.00	528.75	527.00	545.25	523.75	492.25	448.00	438.50	450.25	537.50	590.50	580.00	574.75	551.25	533.50	530.00	584.75	560.50	518.75	504.25	483.75	490.75	514.75	518.50	498.50	483.75	475.00	516.00	498.00	481.00	468.50	474.25	427.00	368.75	373.75	399.75	413.75	365.00	351.25	348.75	360.75	373.00	388.00	361.00	371.50	390.75	357.00	385.00	396.25	414.50	454.75	486.00	502.75	559.00	593.50	602.75	588.25	588.75	617.50	688.75	655.75	608.25	610.50	640.50	737.25	821.00	880.50	738.00	581.25	541.50	610.25	702.50	615.25	610.25	644.50	701.00	574.50	521.00	478.75	403.50	391.75	384.50	376.75	388.75	393.75	372.25	391.00	401.25	388.00	404.75	406.75	399.00	394.75	390.00	375.25	359.00	343.25	346.00	358.75	373.75	382.75	371.25	350.25	362.00	379.00	366.00	353.75	339.25	342.00	356.75	378.25	395.75	384.75	410.75	409.75	379.00	372.00	389.50	417.00	389.75	402.00	389.00	393.50	374.25	367.00	367.75	383.50	420.00	411.00	406.00	411.25	421.00	385.25	378.50	367.00	352.00	358.50	367.75	374.25	394.50	423.00	471.50	559.00	611.25	588.75	462.75	462.75	427.25	465.50	485.00	573.50	645.25	565.75	513.00	515.50	552.75	639.75	669.75	660.50	645.50	612.25	562.75	536.50	550.50	536.75	564.25	588.00	605.25	589.50	559.75	598.75	625.50	609.50	571.25	603.00	589.25	541.50	500.00	528.00	559.25	563.50	617.00	667.75	602.50	624.50	604.75	490.00	427.75	428.75	412.50	421.25	430.75	411.75	385.25	372.75	382.25	418.75	428.50	415.00	388.75	382.00	370.25	383.00	397.75	471.75	501.00	577.50	532.00	460.00	429.50	441.00	510.50	572.50	532.50	553.50	634.25	625.00	608.50	706.50
767.75	762.75	760.75	748.00	746.50	759.75	764.50	753.25	767.50	764.50	755.25	740.00	717.75	709.50	701.50	703.50	689.50	662.25	642.75	613.25	538.50	501.25	450.50	478.50	472.00	545.50	538.75	505.50	591.25	517.75	521.50	544.75	578.25	582.00	553.25	560.00	575.50	607.00	601.25	584.25	550.25	511.75	500.75	453.00	510.25	490.25	538.00	578.00	585.50	574.50	545.25	533.75	516.00	575.25	570.00	553.25	523.00	484.00	509.25	547.75	516.50	512.00	499.25	474.00	466.00	457.00	469.00	485.50	466.00	381.50	363.50	364.00	355.50	343.75	359.50	402.00	395.75	413.50	414.00	413.50	367.50	373.00	395.25	428.25	360.75	389.75	389.50	392.00	391.00	449.00	520.50	523.50	499.75	491.00	496.00	531.00	575.50	568.50	598.50	623.25	692.25	764.75	844.75	807.25	718.00	571.25	618.75	718.00	868.25	815.00	792.25	756.75	710.25	541.00	425.75	407.75	396.25	396.50	384.75	388.75	405.50	406.00	384.50	391.25	406.00	397.25	406.00	409.25	393.25	380.00	377.00	366.25	359.25	343.00	353.50	365.25	380.50	389.50	377.50	352.50	376.00	385.25	379.25	363.75	345.25	337.00	347.25	367.50	386.50	396.25	414.50	395.50	388.75	374.75	381.00	404.75	414.50	411.00	393.75	394.75	374.00	379.00	366.75	375.00	413.00	441.50	414.75	403.00	414.25	384.25	383.50	373.75	366.75	365.25	352.00	368.25	373.50	371.75	421.50	459.00	478.50	508.00	449.00	429.50	409.25	479.25	528.25	598.75	713.50	618.00	524.50	540.75	616.75	744.00	691.50	703.25	657.75	632.50	578.75	562.25	563.75	572.50	620.50	621.00	602.25	570.50	573.75	591.00	633.75	642.50	617.00	627.50	587.75	579.25	538.25	535.00	646.00	663.00	653.75	599.00	592.75	572.75	570.25	558.50	458.00	439.00	431.50	428.00	441.50	409.75	376.25	362.25	387.25	465.75	435.50	406.50	396.50	398.00	370.00	391.00	401.25	451.25	430.75	501.50	454.75	429.75	427.50	442.25	535.50	594.25	558.25	560.50	671.25	662.00	656.50	775.25
720.25	722.50	723.50	707.50	733.50	740.75	744.25	726.75	748.00	751.00	740.75	731.25	712.25	700.25	689.00	690.00	678.25	636.75	600.75	582.25	567.50	596.75	501.25	534.75	504.50	500.50	536.50	480.00	531.00	551.00	565.75	579.50	581.50	608.25	628.25	553.25	613.75	620.25	624.75	594.75	552.75	498.00	469.00	511.00	576.50	526.75	515.75	550.25	606.00	564.75	565.75	556.00	526.25	525.25	541.50	532.75	532.25	504.50	486.25	510.25	506.00	479.75	486.00	464.00	438.75	433.00	403.50	398.00	379.50	373.00	419.25	431.75	409.00	408.50	413.75	432.75	411.25	428.00	451.25	408.00	400.00	412.50	393.00	407.00	412.25	449.25	478.75	500.75	477.50	402.25	507.25	485.75	479.00	499.75	524.25	550.00	569.75	633.75	703.25	666.25	843.25	830.25	829.75	822.75	748.00	747.75	777.00	794.75	903.00	828.50	718.50	556.25	478.50	488.75	470.50	461.75	430.00	408.50	392.75	402.50	424.75	431.25	397.25	398.00	395.50	379.25	384.50	390.00	389.50	382.25	371.00	352.75	345.75	348.50	363.50	372.75	382.50	377.00	366.75	360.50	379.50	388.75	377.50	362.25	345.50	338.00	344.50	359.25	382.75	399.25	408.25	393.00	385.75	372.50	377.75	395.00	414.75	420.50	401.25	390.00	371.00	380.25	379.50	382.25	399.25	437.75	422.25	406.25	417.25	429.25	407.00	406.75	388.75	375.50	360.00	362.00	365.50	362.00	369.00	393.25	413.00	421.50	423.75	408.75	400.00	441.00	478.25	487.75	553.00	529.75	505.50	542.50	744.00	747.25	713.75	703.25	671.50	650.75	616.25	578.00	570.25	609.25	648.50	630.75	597.00	579.25	600.50	612.50	626.75	675.75	664.50	663.00	670.25	662.75	698.00	671.00	717.00	674.75	625.25	593.00	574.00	520.25	485.75	505.75	474.25	455.25	454.50	464.75	432.75	393.50	371.00	376.75	404.25	522.75	467.50	428.25	408.75	402.50	372.50	382.00	389.75	412.50	424.00	494.25	441.00	430.50	447.50	465.00	543.75	593.75	588.75	578.75	690.25	692.00	768.25	862.00
719.50	697.00	686.25	684.25	728.50	726.25	723.00	713.25	729.75	739.00	729.00	721.00	711.50	705.75	680.25	662.00	642.50	609.75	592.75	637.75	634.75	608.00	501.75	565.75	569.25	473.00	556.25	499.50	503.75	540.50	565.25	563.25	602.50	618.75	646.50	583.00	659.50	636.00	615.50	588.00	548.25	481.00	487.50	541.00	576.50	537.00	507.50	578.50	599.00	564.75	554.00	538.25	526.00	511.75	537.25	514.75	524.00	521.50	486.50	475.25	478.50	458.25	452.75	448.25	436.50	419.25	401.00	389.00	363.75	396.75	445.25	457.25	434.00	431.75	432.75	455.25	437.50	450.25	459.00	404.00	423.00	453.00	421.00	419.50	434.75	459.75	475.50	484.00	461.25	391.25	449.00	468.00	502.75	536.25	568.75	578.25	600.25	647.75	767.75	738.00	897.00	921.00	839.00	783.25	781.25	828.50	892.25	902.25	921.00	806.75	755.25	525.50	496.50	571.25	531.75	522.75	452.00	410.00	399.25	405.50	448.00	436.75	404.00	397.00	379.50	371.25	367.00	372.00	377.50	368.25	351.00	349.00	346.50	359.75	378.25	378.50	388.00	372.75	378.50	370.25	366.25	385.00	382.75	366.00	344.50	335.00	348.00	364.50	379.00	404.25	393.25	382.75	382.25	381.00	379.75	400.25	420.50	428.25	416.25	407.25	376.00	376.75	390.50	391.25	390.50	467.00	432.00	414.00	413.75	433.00	418.75	420.00	405.00	391.75	370.00	377.75	371.75	364.00	360.25	368.75	396.50	398.50	406.00	401.25	395.75	429.25	443.50	449.25	469.00	460.25	471.25	509.25	740.50	697.75	719.75	703.25	679.50	666.50	640.50	602.50	575.75	607.25	661.50	657.50	611.50	593.25	595.75	618.75	659.00	698.25	694.75	698.75	736.50	699.00	791.50	788.75	762.75	648.75	588.50	573.75	565.75	529.50	470.75	436.00	456.75	460.75	478.00	486.25	433.75	395.00	380.25	380.00	401.75	525.25	485.75	449.75	414.50	405.75	372.50	386.50	401.00	407.75	429.75	499.75	415.25	418.25	443.25	456.25	507.00	565.25	598.25	591.50	692.00	748.75	807.50	814.50
678.75	606.00	639.50	693.00	702.50	736.25	722.75	708.75	701.50	706.00	701.75	692.50	689.25	687.00	681.00	664.50	650.75	626.25	639.00	634.00	601.25	555.25	503.50	602.50	581.50	473.75	560.25	530.75	511.75	500.75	510.50	499.25	597.00	674.00	685.25	646.25	653.00	652.00	601.25	554.25	501.50	484.75	497.00	612.75	543.00	524.25	543.50	632.50	625.00	573.75	558.50	551.50	527.50	507.50	531.25	514.00	501.75	513.00	514.25	487.50	489.00	471.50	466.00	482.00	432.25	432.25	442.00	415.00	388.25	424.50	466.75	481.50	480.75	472.00	465.50	481.25	480.25	487.25	456.00	476.00	451.75	485.50	451.00	436.25	463.00	457.75	431.25	423.50	425.00	418.25	432.00	516.25	517.00	553.50	578.00	651.25	734.75	773.50	863.75	883.25	952.75	1000.25	962.75	892.25	865.75	875.25	879.00	851.75	855.25	814.50	775.75	683.25	726.25	745.25	669.50	559.25	493.00	431.75	417.00	432.00	443.50	427.00	421.50	397.75	369.75	372.00	368.25	360.75	359.75	357.75	356.50	359.50	347.00	368.00	385.50	389.00	385.00	378.00	382.00	382.50	366.75	376.50	384.00	371.00	356.00	340.25	343.00	360.00	388.25	401.50	390.00	400.25	397.75	386.75	371.25	385.50	410.75	428.25	438.25	438.50	388.75	385.50	401.00	395.50	382.75	457.75	439.25	433.25	440.50	442.00	430.75	424.50	426.50	407.00	397.25	392.75	391.50	401.50	390.50	375.25	420.75	390.00	389.75	402.75	398.25	419.50	426.75	434.25	432.25	445.50	456.00	475.25	620.25	629.25	668.00	793.25	716.25	713.50	664.50	621.50	611.50	590.25	646.50	682.50	685.00	679.50	665.25	642.50	662.75	654.75	665.75	705.75	684.25	723.25	820.00	784.75	732.75	678.00	605.75	556.75	541.00	497.50	460.25	427.75	425.00	448.00	509.75	481.75	427.25	394.75	398.50	375.75	414.75	479.50	494.25	442.75	419.50	397.50	378.00	382.25	386.00	433.25	438.50	435.75	402.50	423.50	424.50	434.00	511.00	639.50	621.50	589.75	675.75	666.75	675.50	641.75
609.00	583.50	622.25	617.50	659.50	728.50	739.25	722.50	696.50	692.75	692.50	687.75	697.25	686.75	691.50	690.25	676.25	653.75	662.75	619.00	625.25	607.00	512.75	597.75	571.00	491.75	617.00	586.25	507.25	514.00	482.75	504.00	550.00	617.25	700.50	673.25	662.00	678.50	628.00	577.75	505.50	523.50	532.25	615.75	572.00	524.25	559.00	641.50	607.25	566.50	545.00	534.50	531.50	499.25	499.50	527.75	515.50	488.00	475.50	471.00	466.25	465.25	489.25	494.75	461.25	482.25	497.00	420.25	372.00	398.75	439.25	470.25	516.25	551.25	524.75	539.50	532.25	537.00	508.75	484.25	465.75	489.50	453.75	458.00	514.50	554.50	591.25	599.75	597.25	482.00	454.75	553.00	527.00	578.50	664.25	771.75	870.75	896.50	919.00	935.50	961.75	984.50	988.00	963.75	965.75	952.25	901.50	831.00	805.75	768.25	792.75	881.00	859.25	804.25	633.25	502.75	443.50	418.00	433.75	511.25	452.75	465.00	410.50	372.00	382.00	395.50	378.25	384.00	368.25	381.75	380.75	349.00	352.00	363.00	381.75	404.00	401.00	386.50	390.50	393.75	372.00	382.75	385.75	384.00	362.00	340.25	338.75	358.25	392.00	405.75	399.00	405.50	409.25	391.25	371.75	380.00	420.00	418.00	492.75	467.50	392.25	411.25	413.00	401.75	382.25	406.75	413.25	417.50	446.75	453.00	464.25	445.75	427.25	419.25	441.75	446.00	466.25	452.50	423.00	378.50	381.25	396.00	396.25	435.25	396.75	400.00	405.00	415.25	426.50	423.00	456.00	449.25	494.25	539.00	582.50	794.00	772.75	753.75	695.75	644.25	647.00	597.75	599.50	665.50	684.50	781.75	781.25	703.00	642.75	624.50	629.75	625.25	639.75	720.75	807.50	769.50	679.25	677.00	595.00	548.75	533.50	483.75	432.25	433.00	432.50	430.00	467.00	428.00	406.00	403.25	404.75	376.25	480.50	433.25	465.50	437.50	412.00	400.75	386.00	394.00	388.50	417.00	430.50	423.25	400.75	437.00	416.25	414.25	570.50	664.75	578.75	544.00	617.00	597.50	605.75	626.00
580.00	593.75	601.75	624.25	656.75	714.00	724.25	703.50	703.75	710.50	709.75	696.75	704.75	691.50	699.75	696.75	684.50	706.00	720.50	687.75	711.50	667.00	547.00	600.00	559.50	503.25	617.25	652.00	591.50	548.50	523.50	489.00	525.75	618.25	671.25	662.25	706.00	693.00	706.50	606.25	562.25	629.00	650.75	653.75	587.50	588.00	592.25	597.00	581.50	567.25	564.50	549.75	531.25	513.00	490.25	495.75	508.25	488.25	489.50	503.75	495.50	497.75	490.00	475.75	482.00	505.25	465.50	413.00	380.75	420.25	477.50	503.00	541.00	599.50	595.25	602.25	597.75	567.00	561.25	527.50	514.75	508.00	523.00	600.75	679.75	730.00	719.50	702.75	665.00	545.25	524.00	604.75	627.50	715.50	757.25	813.25	850.25	870.50	911.75	928.00	926.25	950.25	952.50	955.25	945.00	945.75	920.00	890.25	898.25	892.75	884.50	880.25	791.25	755.75	609.50	516.75	431.50	402.25	399.75	410.50	422.25	428.50	386.25	385.75	396.25	391.00	385.75	387.00	366.25	394.50	377.75	351.75	361.75	358.75	382.25	404.25	410.00	401.25	407.25	394.75	380.25	387.25	388.50	377.00	354.00	338.50	341.25	363.50	386.75	395.25	399.00	411.25	416.00	401.00	381.50	376.00	398.25	401.75	488.75	423.50	392.50	397.50	415.25	402.25	407.50	392.00	391.75	408.00	439.50	470.50	476.75	473.00	477.50	474.50	507.00	479.75	571.00	533.00	470.00	437.25	432.00	445.25	395.75	481.75	438.25	406.00	406.75	403.25	415.25	429.75	455.50	465.75	494.75	534.50	543.00	632.25	764.00	795.75	716.75	670.50	670.25	664.75	628.50	649.50	660.75	733.50	767.75	683.00	645.50	610.75	613.50	632.50	689.25	746.00	787.50	694.75	655.00	600.00	602.25	594.00	564.00	487.00	445.75	444.25	439.25	425.50	434.25	414.25	422.25	434.75	397.25	377.25	458.50	536.25	503.25	426.25	424.50	403.00	394.75	405.00	388.50	400.75	403.50	410.00	388.75	407.00	406.75	415.75	610.00	625.00	526.50	519.50	696.50	753.00	729.50	720.00
557.00	566.25	574.50	608.50	666.00	723.50	709.25	697.25	720.75	727.75	716.75	700.50	711.50	699.75	694.75	689.75	690.50	728.50	739.75	735.25	689.75	668.25	583.00	577.00	580.25	591.50	569.50	666.75	642.50	637.25	599.50	531.25	547.50	642.50	595.75	697.25	722.25	705.00	716.25	687.00	582.50	742.00	731.00	613.50	585.75	618.50	558.50	568.50	558.75	548.75	550.75	545.00	535.00	513.00	516.50	496.50	481.25	484.25	531.00	529.50	520.50	483.25	474.00	496.50	523.75	525.50	443.75	393.00	363.00	400.00	448.75	482.50	519.75	576.75	629.25	670.50	643.00	603.75	593.00	570.25	582.50	583.00	716.50	776.00	710.50	737.75	706.00	622.75	599.50	561.25	552.25	700.50	744.25	794.50	732.25	721.50	727.50	778.75	828.25	841.50	873.25	900.25	904.25	918.25	921.75	934.25	926.75	934.00	928.25	914.50	924.25	849.50	810.25	647.25	495.50	448.75	415.25	447.00	412.50	397.50	386.25	379.75	403.50	412.00	405.25	403.00	404.75	371.75	372.50	400.50	367.50	353.25	363.50	355.75	364.75	376.75	398.25	413.00	396.50	380.25	390.75	389.00	384.25	367.50	352.25	344.00	347.00	358.00	383.00	384.75	397.25	405.00	417.75	410.50	396.50	372.75	393.00	418.75	520.25	424.50	399.50	391.00	407.25	421.00	414.50	401.00	403.00	391.50	413.75	477.00	485.25	499.00	503.50	529.25	610.25	573.25	616.25	581.75	508.25	539.00	468.00	395.25	403.00	540.00	523.00	432.50	420.75	419.75	419.25	444.00	466.50	475.50	525.25	539.00	524.75	560.25	648.75	775.50	732.25	705.75	691.50	693.50	698.00	644.75	625.75	665.50	724.50	663.50	621.25	608.75	612.00	638.00	732.75	768.25	760.00	705.00	632.50	609.50	574.75	585.50	531.75	481.00	519.75	487.25	456.50	419.50	405.25	398.00	398.25	411.00	409.25	385.00	402.00	464.75	477.25	476.50	485.25	414.50	414.50	419.25	390.25	378.50	383.25	383.75	391.75	406.75	421.50	439.75	543.25	598.00	486.25	512.50	698.25	791.00	785.00	753.75
651.00	573.25	593.50	674.25	719.50	712.75	704.50	720.25	737.00	735.25	714.00	702.75	720.00	702.75	715.75	712.75	709.25	718.00	722.25	753.25	733.50	693.75	681.00	653.25	643.00	609.25	552.00	649.75	647.50	572.50	567.25	527.75	519.75	531.25	626.50	669.25	695.00	751.25	746.50	723.75	809.50	786.00	661.75	542.50	533.50	526.50	541.75	551.75	540.50	558.50	549.00	522.25	512.75	506.25	488.75	489.50	485.25	506.25	516.75	500.25	482.00	492.00	514.00	517.75	512.00	474.50	425.75	377.50	385.50	447.00	502.75	538.00	568.00	589.00	608.50	638.75	649.25	633.25	624.75	652.75	693.50	702.75	754.50	753.75	692.00	673.50	645.25	622.25	634.75	618.00	586.25	665.75	668.25	620.75	616.00	613.75	628.00	670.25	716.75	775.75	844.00	877.75	881.25	909.25	886.00	875.25	911.75	917.00	898.75	911.25	886.25	728.25	612.75	529.50	537.25	483.75	420.50	420.75	446.25	425.75	417.75	410.25	458.00	460.50	424.00	413.25	392.00	406.75	406.50	399.50	385.25	366.00	363.75	364.25	369.00	382.25	383.75	403.25	398.50	397.25	384.00	376.00	374.25	362.75	372.00	356.00	344.25	355.50	361.75	386.50	384.00	390.00	409.25	413.75	402.50	380.75	398.25	412.25	523.75	422.75	417.50	402.00	411.50	429.25	441.00	424.75	421.75	424.00	424.75	406.25	436.25	456.75	481.00	501.50	521.00	598.50	637.25	610.25	552.00	548.75	456.50	426.00	426.50	416.25	486.25	516.25	525.00	461.75	419.25	434.50	466.50	500.25	509.00	529.25	513.25	529.75	558.50	645.00	770.00	724.75	745.75	734.00	725.50	664.25	622.00	663.00	652.75	626.25	610.50	593.00	627.25	637.00	643.25	652.25	753.25	698.75	613.75	559.00	539.50	552.00	564.50	598.25	617.75	494.00	511.50	551.25	497.50	431.50	398.50	388.75	385.00	389.75	397.25	406.75	463.75	532.75	572.75	461.00	495.00	460.00	421.50	393.50	403.00	410.00	397.50	422.75	429.00	446.50	473.00	555.75	455.50	481.25	544.50	630.75	699.00	718.25
681.75	621.25	632.75	703.25	718.00	708.25	712.75	729.50	740.25	731.25	713.50	706.00	720.75	709.00	727.50	722.00	723.75	741.50	720.25	732.50	729.50	734.25	743.00	720.00	654.00	595.75	584.75	676.25	656.25	670.25	596.25	581.25	563.75	597.75	660.25	709.50	725.00	748.00	760.75	738.00	793.75	802.00	740.75	545.75	521.75	514.75	519.50	539.50	529.00	542.00	548.25	524.50	502.75	490.50	490.00	519.75	520.50	512.75	506.00	497.50	489.00	504.50	533.50	551.75	488.25	465.50	441.75	393.50	371.50	448.00	510.00	533.25	561.00	556.25	568.75	582.25	590.00	599.00	612.50	657.50	660.00	693.00	755.25	725.50	709.25	689.25	683.00	688.00	691.50	671.50	613.00	608.75	601.00	611.25	612.00	652.00	681.25	731.50	780.75	801.50	825.75	853.75	868.00	880.75	857.00	892.00	934.00	889.25	885.75	901.75	891.75	729.25	687.50	690.00	640.00	492.75	428.25	421.50	457.50	450.25	438.00	442.25	614.50	639.75	533.75	453.75	411.00	413.75	413.75	391.00	375.25	372.75	366.50	372.00	356.75	378.75	389.50	401.75	413.00	397.75	382.25	386.25	388.25	384.50	385.25	363.00	349.25	348.25	354.50	363.50	374.00	390.00	422.00	409.75	383.00	390.25	393.75	406.25	529.25	467.75	455.75	414.00	416.00	418.25	433.75	449.50	445.00	436.75	455.50	403.00	417.50	436.00	448.75	462.25	506.50	621.75	540.25	502.25	479.75	473.75	440.75	466.25	496.25	440.75	416.00	524.50	544.50	476.00	444.25	439.50	468.50	504.00	511.50	514.00	512.75	524.75	551.75	627.00	745.50	743.00	761.75	779.50	723.75	631.25	609.50	667.75	622.00	605.75	586.50	602.25	627.25	638.75	633.00	683.50	706.25	647.50	606.25	526.50	513.25	575.25	595.00	598.75	613.00	585.00	610.00	675.50	535.25	413.75	386.50	392.75	407.00	410.00	409.50	423.75	475.50	573.00	606.25	566.75	602.25	539.50	468.00	412.25	418.75	399.75	386.50	414.00	415.50	430.50	440.00	525.00	435.25	484.00	472.00	481.75	604.00	669.25
685.00	690.00	707.75	726.75	719.25	702.50	687.25	671.25	715.00	730.50	719.25	721.00	697.50	719.25	734.00	730.50	724.00	735.50	726.00	707.50	689.50	710.75	749.00	736.25	689.25	598.00	580.75	627.00	654.50	710.00	694.75	652.75	578.75	525.75	564.75	667.00	638.75	706.75	748.00	745.25	788.75	770.75	655.25	539.50	532.25	529.00	517.25	518.00	514.50	508.00	516.75	509.00	496.00	498.75	499.50	546.25	543.75	522.25	526.75	492.00	504.75	514.00	514.75	550.50	485.50	485.50	465.75	421.50	385.00	424.00	489.00	522.25	533.00	543.75	549.75	560.50	565.50	589.00	612.25	637.75	677.75	739.50	732.25	706.50	742.75	724.00	716.50	718.50	691.00	656.75	617.75	612.75	629.25	657.75	691.50	738.25	752.50	766.50	776.75	790.75	813.75	831.50	843.75	861.25	886.00	934.00	902.00	873.25	891.00	898.25	853.75	768.75	709.50	667.25	556.00	468.00	474.00	434.25	567.75	575.25	579.50	611.25	808.25	791.00	771.75	698.50	658.75	437.75	404.00	386.00	368.25	364.50	368.75	364.75	367.00	377.25	403.25	405.75	421.00	400.75	382.50	393.25	400.25	396.25	381.00	353.50	347.75	352.50	380.00	363.25	372.75	387.25	420.00	413.25	380.75	392.75	411.75	423.25	497.50	531.25	466.00	430.50	442.25	435.00	452.00	489.50	473.00	452.00	453.75	411.50	406.25	416.25	430.50	452.25	526.50	613.25	567.50	576.75	554.75	514.25	483.00	520.25	543.00	441.25	421.50	465.75	510.25	511.50	492.25	471.00	463.75	485.00	492.00	497.00	509.00	524.00	545.50	603.50	724.25	744.00	746.00	816.75	759.00	649.00	609.50	626.00	606.00	615.50	603.25	594.00	605.25	629.25	633.25	708.25	657.25	640.75	570.25	524.50	485.75	530.75	582.50	580.25	583.00	502.75	466.25	474.00	516.00	440.50	394.50	391.75	487.00	468.25	406.25	426.25	471.50	557.25	595.50	644.00	679.00	549.50	469.75	437.75	431.75	407.50	399.25	435.25	424.75	412.75	442.00	512.25	426.75	460.25	447.75	460.75	507.00	631.25
634.75	603.75	645.00	671.25	684.25	675.50	623.50	634.25	663.25	650.25	670.50	654.50	667.00	665.75	700.75	713.50	701.50	732.00	686.00	692.25	668.25	685.75	724.25	739.50	693.50	609.00	611.50	634.25	698.75	736.75	732.00	672.25	579.00	610.00	532.00	576.00	636.75	747.75	666.00	715.25	757.50	731.25	586.50	558.00	554.25	533.00	529.25	517.25	511.75	523.00	522.25	511.25	497.00	529.75	518.00	547.25	544.00	534.75	539.25	490.50	500.00	531.75	525.75	551.00	523.50	521.25	429.25	391.25	375.50	431.75	478.75	508.25	530.00	552.25	568.50	610.50	619.50	636.50	665.75	682.50	716.75	741.00	703.75	679.50	732.75	752.50	753.50	744.50	705.25	664.50	650.75	652.25	675.25	707.75	785.00	849.25	805.50	785.50	802.25	799.00	805.25	814.25	852.50	907.75	923.00	878.25	861.00	884.00	859.75	845.25	837.75	708.50	618.75	535.00	485.75	466.00	582.50	463.50	681.25	646.50	788.50	790.75	828.75	806.50	827.50	816.75	804.75	447.50	383.25	376.50	366.50	374.50	372.50	366.25	381.50	391.00	422.00	419.25	416.25	400.25	392.25	394.00	409.75	384.25	378.75	369.50	346.25	361.75	383.50	379.25	380.50	393.75	412.50	411.25	391.25	384.50	402.00	422.25	455.00	490.25	461.75	470.00	488.75	473.75	465.25	502.25	510.50	463.75	435.25	416.75	408.25	429.75	430.00	487.25	520.00	616.50	717.75	701.50	645.00	578.50	534.25	564.00	575.00	435.50	431.00	497.50	508.75	555.25	566.50	505.50	481.75	485.75	486.25	510.00	508.25	516.50	535.00	560.00	610.50	633.75	612.25	719.75	822.75	694.00	621.75	610.25	607.75	597.00	614.00	583.00	590.00	636.00	626.50	672.50	628.75	588.75	542.75	481.50	458.00	512.25	573.25	561.75	560.25	540.75	494.75	425.25	436.75	421.25	396.00	431.00	517.50	562.75	425.00	412.75	479.75	577.75	610.75	680.50	726.50	599.00	511.00	439.25	429.25	401.75	390.50	412.25	398.50	398.75	431.00	481.25	410.50	413.00	459.25	542.75	503.25	630.50
550.50	560.25	583.50	598.75	621.75	632.50	609.25	639.50	643.50	637.50	587.00	607.00	643.50	679.00	703.75	677.25	681.00	722.25	725.00	677.00	659.50	641.50	654.25	672.50	648.00	591.75	673.50	710.50	722.50	733.75	683.00	619.75	649.00	675.50	605.00	529.25	594.50	628.50	635.75	690.50	721.25	667.50	580.50	541.00	532.75	526.00	516.25	511.00	525.75	539.75	533.50	525.50	514.25	550.50	542.50	565.00	557.00	558.50	543.00	505.25	485.75	517.50	552.00	559.00	522.25	500.00	451.50	419.25	394.50	417.50	432.50	441.00	455.50	480.25	513.75	580.25	617.75	656.50	683.50	690.75	692.25	703.50	680.50	663.50	718.50	746.25	743.50	734.50	726.00	689.25	687.75	666.00	682.25	719.50	751.75	881.50	860.50	808.75	840.25	824.25	833.50	835.75	841.75	878.50	855.50	846.25	863.75	884.25	864.50	806.25	752.25	623.75	621.75	603.00	479.00	521.00	618.75	481.25	721.25	794.25	856.50	863.50	839.00	818.50	807.25	775.50	698.00	414.50	393.50	373.50	393.00	387.75	376.25	376.50	384.25	402.50	430.50	429.25	414.75	417.25	419.00	437.25	478.50	397.75	426.25	409.50	350.00	362.25	359.75	376.25	382.75	404.50	425.25	417.25	418.75	396.75	398.25	413.00	412.75	411.25	428.25	455.75	491.25	550.25	514.00	513.75	497.25	464.00	460.50	437.50	415.25	433.50	452.00	503.00	560.25	629.00	753.50	761.75	707.50	628.50	564.75	586.25	545.50	450.75	436.25	504.50	534.00	556.75	585.50	576.50	532.00	527.50	518.75	521.00	519.50	538.00	580.75	592.50	610.75	587.25	559.75	620.75	681.50	624.50	608.25	608.25	605.75	588.50	604.00	580.75	609.00	636.00	610.25	637.25	593.50	547.75	524.75	479.75	447.50	467.00	492.50	531.25	517.75	460.25	420.00	411.50	408.50	411.75	411.75	431.00	490.50	583.25	479.75	440.50	446.00	531.25	583.25	637.25	647.25	631.75	537.75	450.25	455.00	415.25	398.25	397.00	401.25	396.75	419.25	441.75	408.75	408.00	512.00	543.25	622.25	726.50
527.00	553.25	561.25	570.50	602.75	615.75	602.50	592.25	595.25	601.00	552.75	607.50	647.00	655.25	676.25	707.25	724.25	734.50	720.25	676.00	641.25	614.25	575.25	590.75	594.25	607.00	615.00	638.50	659.50	670.25	635.50	623.75	698.25	664.00	651.00	582.50	591.75	669.00	681.75	707.75	636.50	580.50	555.75	542.25	563.25	543.00	533.25	521.00	534.75	535.00	548.25	545.25	522.25	567.00	568.25	573.00	572.25	554.25	529.00	504.50	490.25	497.25	541.75	544.75	503.00	490.75	462.25	467.00	421.75	377.75	389.00	391.25	375.75	433.75	502.00	564.75	610.50	639.00	653.25	656.75	661.25	675.50	647.75	656.25	711.00	722.75	700.25	704.50	738.50	720.00	728.00	691.75	697.00	722.25	742.25	796.50	815.75	830.50	881.00	864.50	904.50	843.75	838.50	827.00	840.75	857.75	872.00	868.50	844.00	756.25	751.50	707.50	637.25	555.25	475.50	606.75	640.25	583.75	748.75	836.00	881.00	883.50	820.25	742.75	706.25	632.50	527.00	393.25	387.50	391.25	408.75	419.00	379.25	376.75	398.25	401.00	404.50	425.25	422.25	431.75	454.50	543.00	517.00	392.25	462.00	508.25	373.00	346.75	360.25	360.00	365.25	383.25	400.75	418.50	413.25	407.25	406.75	398.50	407.00	413.00	411.00	437.00	456.50	482.25	464.25	494.50	491.00	498.50	488.50	461.00	439.50	433.50	450.00	483.75	575.25	632.50	751.50	791.00	755.50	660.50	603.75	591.00	535.50	498.25	478.00	449.50	488.00	495.25	545.00	607.75	570.50	538.00	544.50	546.25	543.25	555.75	569.00	580.25	556.75	536.75	526.50	548.75	624.75	646.50	616.25	626.00	601.25	590.75	573.00	569.75	615.50	614.00	600.25	623.00	562.50	540.00	506.00	510.00	481.25	437.75	425.50	425.25	428.00	411.25	416.50	416.25	437.50	450.75	442.75	452.75	445.00	473.00	504.75	495.25	474.25	473.50	511.00	533.25	563.75	616.75	630.00	493.50	506.75	445.75	409.50	417.75	417.75	407.50	391.75	402.75	401.50	399.25	480.00	576.50	666.25	759.25
552.00	570.50	575.50	563.00	562.50	581.25	592.50	561.00	559.00	583.50	577.50	581.75	615.25	649.75	691.50	758.75	789.75	728.25	671.00	650.25	645.25	628.75	609.25	632.50	630.00	642.00	616.25	639.00	676.00	686.25	673.00	700.25	640.00	612.00	606.25	602.50	635.75	739.75	763.00	769.00	704.75	663.75	561.00	567.25	575.75	558.00	543.75	542.25	541.00	549.00	554.75	539.25	532.25	561.25	561.00	553.75	545.75	530.75	521.00	502.00	485.50	502.25	522.75	529.50	539.75	535.00	515.25	500.75	451.75	427.25	466.00	419.50	379.25	450.50	503.00	547.25	584.25	616.00	628.25	626.50	638.50	641.50	618.25	640.25	679.00	679.00	674.25	700.50	710.25	734.00	745.25	727.25	726.25	740.00	757.75	737.25	746.75	791.25	840.25	878.50	834.50	874.75	872.75	838.50	861.00	888.25	901.00	858.75	848.25	884.00	885.25	771.00	698.00	580.50	526.00	682.25	768.50	772.00	866.25	913.75	916.25	846.25	725.75	663.75	591.50	497.25	439.75	481.75	505.25	451.25	406.50	415.00	382.75	377.25	385.75	394.50	409.00	415.50	444.75	501.75	516.25	583.75	485.75	476.75	484.00	466.25	395.75	348.50	367.00	358.75	356.75	367.25	390.50	423.00	424.75	415.25	424.25	412.50	416.75	430.50	416.50	430.75	437.00	448.75	464.00	483.00	526.25	516.00	497.75	470.25	481.50	454.75	478.00	478.00	599.50	589.00	703.00	804.75	774.00	716.00	672.50	624.25	573.25	533.50	474.50	440.75	450.25	451.75	490.75	552.00	576.25	548.50	522.25	523.25	544.25	524.75	521.00	525.25	522.50	515.00	524.50	556.50	652.00	715.00	633.50	621.75	570.00	582.00	598.50	572.75	594.00	594.75	602.75	617.25	588.00	557.00	573.75	682.75	630.75	463.00	464.00	424.25	418.50	433.00	440.00	430.75	475.00	466.25	464.25	459.25	476.00	505.75	525.50	541.25	548.50	514.50	504.00	506.50	558.50	594.25	643.00	553.50	527.50	446.25	439.75	498.25	437.50	421.50	409.75	436.00	408.75	401.50	463.50	594.50	733.25	810.25
569.25	577.75	572.00	556.50	560.00	588.00	569.75	555.75	611.50	623.50	592.50	567.00	586.25	675.50	734.25	774.00	775.25	741.50	714.00	692.50	684.50	666.50	673.25	674.25	665.75	658.75	635.00	657.75	676.50	710.25	724.50	672.25	626.25	692.00	700.00	634.25	602.50	710.50	778.25	804.75	781.50	716.75	612.25	611.25	597.75	571.00	569.25	563.00	564.25	579.50	575.25	551.50	554.00	558.00	550.75	548.75	537.75	513.25	507.00	484.00	501.75	520.00	535.00	538.75	547.75	535.75	507.25	482.25	448.25	448.50	483.25	428.25	382.75	425.00	464.25	500.25	556.00	587.25	590.25	593.00	596.75	589.25	592.50	632.25	637.00	627.75	650.00	668.25	691.50	716.75	729.75	747.00	734.50	713.50	721.25	698.50	700.75	717.50	758.00	768.25	748.25	851.25	904.75	842.00	823.00	847.50	877.50	887.75	899.75	866.25	850.75	771.75	749.75	592.75	615.25	725.75	872.25	908.25	932.00	919.00	827.75	747.25	693.50	714.75	620.75	470.50	487.25	682.75	655.25	554.75	451.75	392.25	389.75	403.50	405.75	404.50	404.25	468.50	602.75	663.50	623.75	625.75	529.75	573.25	566.50	485.00	407.25	349.75	360.00	369.25	359.50	373.75	390.25	419.50	436.50	437.25	439.50	441.50	443.25	443.50	432.75	415.75	431.50	459.00	477.75	477.50	524.50	488.25	477.50	477.00	486.00	471.25	492.50	575.75	649.25	636.50	669.00	720.50	753.75	711.25	636.25	610.50	606.25	502.00	466.25	434.00	464.50	460.00	460.00	530.25	587.75	553.25	525.75	497.00	536.50	512.75	488.25	495.25	509.75	499.00	521.25	560.00	648.50	785.75	680.75	606.00	567.00	555.25	607.50	577.25	583.75	579.75	590.75	605.25	610.75	590.50	585.00	629.75	579.75	484.00	462.75	428.25	454.00	469.75	433.50	435.00	477.00	493.00	509.75	496.75	466.75	531.75	505.75	526.50	577.25	592.25	581.50	544.50	540.50	616.50	648.75	557.75	528.00	456.25	459.25	560.75	479.00	436.50	430.50	494.00	415.75	407.25	470.00	620.25	764.50	790.25
532.25	546.50	566.00	582.00	592.00	572.00	551.25	574.25	558.50	577.25	576.50	575.00	619.00	672.50	699.50	728.00	734.75	718.25	716.25	715.00	692.00	654.50	715.75	725.00	709.00	717.25	669.25	667.50	689.50	736.50	729.50	671.00	723.00	746.75	771.00	751.00	674.75	694.00	719.00	781.50	802.25	732.00	610.25	634.75	612.75	608.25	608.50	593.25	585.50	588.00	567.00	559.75	562.75	550.50	549.00	520.75	510.25	499.00	495.50	499.00	507.75	533.00	548.00	549.75	520.00	508.25	493.25	475.25	458.50	473.00	497.75	456.00	426.75	402.75	412.25	479.75	511.00	522.00	528.75	543.00	555.00	563.50	591.50	618.75	606.00	634.25	654.25	662.00	674.50	681.00	692.25	721.00	713.00	671.25	668.25	680.25	705.25	713.25	714.75	723.75	723.00	761.25	929.00	869.75	820.75	809.75	876.25	907.50	903.25	866.50	855.25	814.25	770.75	679.00	726.50	747.50	842.75	890.00	886.75	877.50	874.25	835.50	769.25	740.00	616.75	575.00	587.25	744.25	720.50	542.75	456.00	400.00	390.25	443.25	462.00	469.75	500.50	664.75	677.25	744.00	724.25	650.00	676.00	688.75	555.50	410.75	365.50	351.75	364.75	378.50	365.00	378.50	380.25	408.00	444.75	453.50	463.75	468.75	462.75	463.50	439.25	419.50	446.50	471.50	495.00	506.50	530.75	501.25	490.25	515.00	517.75	533.25	551.25	598.25	670.25	684.50	640.00	628.75	673.25	670.75	620.00	557.75	532.50	509.25	536.25	447.75	461.25	474.00	472.25	472.75	599.25	577.25	513.75	491.50	516.25	500.50	479.25	491.00	497.25	520.00	543.75	559.50	603.50	648.00	585.75	561.75	569.50	553.00	550.25	549.50	567.75	610.50	598.50	588.75	592.25	605.75	589.50	545.50	570.75	505.50	489.00	430.25	462.00	487.50	435.50	448.75	486.75	491.50	512.00	522.00	472.00	513.00	565.50	596.50	576.75	598.75	641.25	591.00	642.25	609.25	642.75	609.25	579.50	535.00	492.50	621.75	528.50	483.00	454.50	517.75	409.50	414.50	439.50	469.75	535.25	544.25
553.25	557.75	556.00	588.50	570.50	534.75	559.00	611.50	623.50	592.00	614.25	613.50	621.75	658.50	715.00	699.00	701.50	705.00	681.50	686.25	647.75	682.25	723.75	754.50	774.25	769.25	742.75	704.75	725.00	773.25	737.75	701.50	762.50	771.25	806.00	802.75	769.00	792.25	754.25	764.75	795.50	728.00	593.75	605.25	642.75	622.50	620.25	603.50	592.00	573.50	548.25	532.75	549.50	527.75	512.00	494.00	507.50	504.25	518.75	521.00	506.75	542.00	561.50	556.25	529.00	519.50	498.25	466.25	473.00	481.50	508.75	486.50	485.00	436.25	385.50	432.50	476.25	497.25	525.50	547.75	568.75	570.00	607.25	630.50	581.50	627.00	634.00	622.00	634.00	652.25	672.00	677.00	692.50	662.50	636.25	660.00	680.50	674.50	673.00	683.00	726.00	741.00	855.00	898.50	823.75	807.00	865.25	873.25	879.25	881.50	884.50	848.25	855.00	753.00	783.50	775.75	867.25	901.50	912.25	913.50	891.25	875.75	801.50	727.00	643.75	700.50	724.75	751.50	725.50	634.75	572.25	387.50	386.25	404.00	483.00	600.75	642.00	701.50	735.00	770.00	765.00	740.00	729.50	597.75	447.50	384.75	363.50	355.50	366.25	384.00	370.75	379.50	389.75	405.25	429.75	432.50	468.50	484.00	467.50	475.00	451.00	426.75	440.50	468.00	495.50	566.50	560.50	543.75	515.75	551.25	626.25	648.25	674.25	685.25	697.50	672.00	661.25	609.50	610.75	621.50	609.00	589.50	538.75	585.00	583.75	487.00	482.00	465.75	506.00	465.75	528.75	565.00	500.25	481.75	474.25	468.75	473.00	481.25	518.75	549.25	552.50	558.00	571.75	557.50	565.25	540.00	546.25	539.25	519.25	540.00	562.75	611.00	571.00	556.50	579.50	608.00	574.50	495.25	539.75	522.00	497.25	448.75	478.50	462.50	424.25	469.00	499.50	490.75	511.75	536.50	504.75	559.25	564.00	682.25	613.50	593.50	687.75	695.25	722.00	663.50	606.75	643.25	641.75	629.00	615.00	664.75	561.00	524.50	512.75	526.00	423.25	424.50	414.25	430.75	442.25	476.50
585.25	532.00	511.25	546.00	552.50	551.75	593.00	614.50	633.50	624.75	610.00	622.75	605.75	640.50	695.00	711.25	694.25	683.50	679.25	698.50	683.25	685.50	738.25	762.00	774.00	762.50	735.75	722.75	777.25	787.75	755.00	750.50	792.50	784.50	798.75	813.25	780.50	801.25	818.00	772.50	731.50	654.00	558.25	568.50	593.25	593.50	586.50	577.25	565.25	557.25	532.50	507.50	518.00	516.00	501.00	516.00	513.75	507.75	527.25	538.00	513.25	531.25	549.00	549.00	533.25	519.75	499.00	471.50	490.50	496.00	513.25	504.00	518.25	451.50	391.50	412.75	448.75	479.50	504.25	540.25	578.50	576.00	615.25	609.25	565.75	585.00	592.50	607.25	629.50	630.50	628.75	623.50	650.25	643.75	629.50	624.75	637.50	645.50	666.25	689.25	707.75	705.50	762.00	840.25	792.75	770.25	802.50	843.00	860.75	847.25	857.00	841.25	806.50	791.00	816.50	807.25	860.50	879.50	904.00	916.50	885.00	852.75	800.25	727.25	697.25	720.00	748.25	756.00	741.00	694.25	600.50	404.00	395.75	401.50	538.00	622.00	718.50	745.75	770.50	763.25	754.50	726.25	641.00	480.75	409.50	377.50	362.25	359.50	362.25	382.25	377.00	376.75	401.75	407.75	425.50	437.00	459.75	488.25	481.75	479.50	475.00	450.50	431.75	452.50	471.75	536.00	592.50	607.50	533.75	583.25	674.25	723.00	677.50	678.00	637.25	615.25	617.25	610.25	618.50	595.25	589.00	599.50	592.00	564.75	509.75	477.00	475.00	459.50	479.00	500.75	469.25	502.75	467.50	468.75	483.00	495.75	495.50	478.50	497.50	511.25	522.00	544.75	567.75	552.25	553.00	528.50	517.75	519.00	534.75	553.75	557.75	572.75	537.25	531.00	536.50	525.00	522.75	494.50	482.50	473.00	464.25	470.00	483.00	434.00	442.00	456.75	493.25	500.00	555.75	583.00	566.00	603.25	597.75	669.25	666.75	656.75	734.50	762.25	702.00	662.00	652.25	651.75	668.00	698.00	658.25	601.25	587.50	542.00	470.25	483.75	429.25	439.50	416.50	448.75	529.75	678.00
596.00	518.25	519.00	541.75	585.50	584.50	604.25	640.75	646.25	618.75	599.00	625.00	591.75	625.25	685.00	734.50	714.75	668.50	701.75	719.75	694.50	683.50	743.75	757.75	746.25	727.25	722.75	752.25	776.00	780.50	752.25	766.75	805.25	802.00	807.00	814.75	782.00	789.75	815.25	750.25	687.25	599.25	566.50	546.00	570.25	577.25	571.25	559.25	551.50	551.50	522.50	500.25	501.75	505.00	513.00	516.25	502.00	511.25	530.00	549.75	524.75	540.50	548.25	539.75	532.50	529.50	514.00	480.75	483.25	507.25	524.50	519.00	535.75	468.00	414.50	423.00	454.00	470.75	488.50	519.75	539.25	551.25	615.75	600.75	558.50	558.50	587.25	607.50	610.75	611.50	605.00	602.25	618.25	624.75	613.25	606.50	619.50	648.00	662.75	671.25	678.75	693.00	751.50	831.75	789.50	759.50	787.50	839.00	854.00	817.75	836.50	815.75	761.00	799.50	823.25	816.25	856.00	882.25	900.00	928.25	925.00	850.25	804.75	789.50	755.50	723.25	742.00	755.75	737.25	696.00	624.50	408.00	414.50	403.25	502.75	623.25	727.50	770.75	766.00	739.00	720.75	708.75	601.75	511.75	417.25	375.00	369.50	360.50	351.00	377.50	374.00	380.50	408.50	407.50	421.75	429.25	450.00	465.50	486.50	491.25	491.25	461.00	431.00	443.00	450.25	495.00	549.00	616.75	554.25	636.50	664.75	720.75	673.00	657.00	616.00	608.00	612.75	636.75	671.50	643.75	640.00	637.50	603.75	519.00	484.00	469.75	466.75	459.50	457.50	501.25	462.75	468.25	457.75	482.75	502.00	513.25	500.50	481.75	484.00	511.25	528.75	566.00	602.75	545.50	556.25	528.00	507.75	529.00	535.50	542.00	548.75	516.75	493.75	506.75	501.50	504.00	504.00	504.75	479.25	448.75	443.25	502.50	499.25	434.50	487.75	518.00	527.25	502.75	555.25	611.00	595.00	607.25	674.25	701.50	704.50	743.00	767.00	795.00	708.75	691.50	678.00	673.00	676.75	699.00	660.50	575.25	525.75	487.50	468.00	459.50	436.00	425.25	422.75	473.50	591.25	749.25
544.50	541.75	570.50	606.25	632.00	620.75	634.25	639.50	603.75	574.75	563.25	572.25	607.00	602.25	641.25	718.00	720.00	678.50	719.75	703.75	684.00	686.50	728.00	726.00	711.50	692.75	718.00	741.25	757.25	759.25	771.25	786.75	824.00	837.00	827.75	818.50	798.75	790.00	760.75	703.25	632.75	583.25	569.75	542.25	532.75	556.75	544.50	536.00	526.75	527.50	520.25	512.25	504.00	516.00	530.50	532.75	516.50	519.50	551.25	558.00	548.75	554.25	547.50	536.00	524.75	517.25	505.50	494.75	489.50	518.00	530.00	517.75	502.25	504.00	453.25	406.00	454.25	500.75	532.25	529.75	522.75	555.25	609.00	585.50	546.25	531.75	555.00	551.50	578.50	590.00	568.00	576.75	590.75	599.75	570.75	594.50	622.25	629.75	642.25	653.50	659.50	656.00	720.00	749.25	766.50	743.25	754.25	779.00	822.50	791.50	784.00	745.00	722.25	790.75	817.25	808.25	833.75	831.50	822.50	829.75	877.75	845.00	825.25	827.25	812.50	801.50	801.25	722.00	709.25	683.75	621.00	536.75	561.25	463.50	466.75	652.50	744.00	749.25	731.25	717.00	694.00	633.00	510.50	431.50	387.75	376.50	378.50	362.25	354.50	369.50	380.00	386.50	400.50	416.75	423.00	436.25	448.25	463.25	494.50	512.25	496.25	454.00	443.25	440.25	457.00	492.25	520.00	600.75	619.25	686.50	725.75	692.25	653.00	656.00	658.00	647.50	658.00	723.75	758.25	744.00	655.00	612.75	535.50	490.00	501.25	530.00	483.75	491.00	491.50	474.50	482.25	492.00	488.50	530.75	536.75	545.50	516.00	504.75	486.75	499.00	521.00	565.75	588.25	521.25	524.50	519.75	521.50	554.50	554.50	558.00	553.25	504.75	486.00	484.75	476.00	484.00	465.00	473.75	465.00	450.75	478.75	486.00	473.75	450.50	475.00	529.25	554.50	553.50	550.25	568.00	607.25	650.75	727.50	725.00	717.50	714.50	716.25	728.75	717.75	727.00	718.50	684.75	699.00	662.50	625.75	611.25	587.50	515.25	471.75	456.00	433.25	443.25	441.00	446.50	578.25	619.50
579.50	580.75	553.25	611.75	636.50	602.75	608.50	627.50	579.00	594.50	549.50	574.75	587.00	581.50	595.25	648.00	742.25	740.25	738.50	727.50	713.75	682.00	716.75	731.75	740.50	725.00	698.75	716.50	753.50	771.75	804.25	809.00	819.00	857.50	856.50	830.25	815.00	801.25	661.25	605.75	569.25	561.75	556.50	562.25	536.25	531.50	531.25	529.00	545.25	543.75	535.00	503.50	517.50	539.75	550.00	546.00	520.00	520.75	560.25	565.25	566.25	553.75	539.50	533.75	520.00	506.50	495.00	489.50	500.00	523.00	513.50	479.50	448.00	470.00	426.50	427.00	488.75	524.00	508.75	530.00	498.50	529.75	551.50	520.75	507.00	502.75	516.50	539.25	555.00	561.50	539.75	579.50	566.25	562.50	547.25	596.00	605.75	606.00	634.25	644.50	633.25	626.75	664.75	711.75	743.75	728.25	709.00	737.25	788.75	778.75	752.75	661.50	700.25	759.00	780.75	773.75	785.75	773.50	797.00	816.25	835.00	821.00	798.25	806.50	813.75	828.00	842.00	701.00	662.50	596.50	635.50	652.00	670.25	542.00	499.75	665.75	746.25	730.50	692.25	661.75	628.50	550.00	490.50	387.00	376.75	393.25	381.25	357.00	368.25	368.75	389.50	393.00	399.25	423.50	436.25	453.75	455.25	488.25	495.75	518.75	505.25	461.25	458.25	459.25	454.00	481.00	511.25	639.75	691.00	710.25	689.25	673.75	679.00	709.75	726.50	702.25	712.25	722.00	695.00	813.00	633.25	534.25	501.25	499.25	563.75	541.25	489.50	517.50	549.00	512.25	463.75	520.00	526.00	546.25	591.75	567.50	531.25	509.25	499.75	506.00	502.75	553.75	557.75	505.50	502.50	528.75	521.00	559.25	563.00	567.75	574.00	508.50	489.00	509.75	503.75	481.00	466.75	465.50	482.50	463.25	484.25	467.50	445.00	474.50	484.50	521.75	507.00	506.25	522.00	520.00	587.25	637.75	700.50	672.50	686.75	685.00	636.50	646.50	653.00	720.25	750.00	725.00	718.75	667.75	681.75	612.00	601.75	532.75	454.00	445.00	435.00	466.25	484.75	421.25	440.75	430.25
529.75	582.00	596.25	604.50	594.75	570.50	588.00	609.75	544.50	557.00	569.00	570.75	555.50	565.50	581.25	622.50	717.50	680.75	629.00	661.75	704.50	675.50	655.00	679.00	697.50	706.75	730.50	721.25	756.00	792.25	832.25	827.25	822.25	846.25	854.75	811.75	754.25	670.00	612.50	638.75	609.50	582.75	581.25	564.75	573.00	573.75	571.75	568.25	565.25	538.25	510.75	516.00	541.25	554.75	561.50	548.75	541.50	526.75	552.25	578.50	566.25	546.50	529.25	526.00	507.25	513.25	512.75	500.75	518.75	527.75	497.75	485.00	440.25	423.75	428.00	451.75	510.00	502.00	450.25	470.75	469.25	476.25	505.25	502.75	479.75	496.50	502.50	513.25	518.25	525.50	534.50	522.50	519.00	520.75	534.25	574.50	594.25	584.25	598.75	599.00	601.25	615.00	666.75	692.75	708.25	703.50	692.25	731.00	737.25	743.75	743.25	652.25	713.25	745.25	737.00	739.00	763.25	791.00	802.00	806.00	796.00	804.50	794.25	800.00	820.50	836.75	841.50	732.25	685.75	668.00	664.50	686.00	689.25	572.00	569.75	673.25	733.50	722.00	693.50	660.25	608.50	529.75	484.25	384.75	395.25	390.50	375.25	364.00	373.00	375.75	389.00	395.00	399.00	412.75	410.50	417.75	453.25	470.50	503.25	519.25	499.75	475.50	469.50	473.25	450.75	507.00	548.50	608.75	676.25	733.50	709.25	725.25	693.75	645.75	654.25	691.75	737.00	679.00	622.00	711.75	601.25	530.25	513.25	521.75	576.50	526.25	526.50	514.50	533.00	542.50	465.75	463.50	483.75	520.75	571.75	562.25	548.75	525.25	523.00	513.50	502.50	494.00	509.50	507.25	515.75	544.50	528.75	565.25	582.50	587.50	577.50	538.25	501.25	504.00	530.75	509.75	507.00	495.00	475.25	484.00	495.00	464.75	470.00	509.00	477.75	473.00	479.50	480.00	492.75	554.25	636.50	632.00	673.25	644.25	665.25	674.75	644.50	619.00	621.00	657.25	716.50	708.25	748.00	711.75	730.00	602.75	542.75	500.25	480.25	471.75	485.75	550.75	601.75	448.50	421.75	428.25
507.25	584.75	618.00	602.75	559.50	565.25	609.75	595.00	530.25	556.25	584.50	558.50	543.25	574.75	583.00	616.00	664.25	573.75	608.25	660.00	647.50	614.50	674.00	676.25	708.00	717.50	742.25	748.00	745.75	752.75	811.75	808.50	820.00	759.75	722.50	686.25	672.25	647.00	578.25	627.25	605.00	575.50	575.00	591.75	580.50	568.50	568.50	572.75	552.00	507.75	512.25	540.00	561.00	572.00	569.75	545.75	527.00	534.25	552.00	577.50	561.25	551.25	535.50	543.50	521.75	539.00	526.50	510.00	528.00	530.25	491.25	476.50	473.50	408.50	412.50	416.50	488.00	463.00	411.00	420.25	433.50	466.25	500.75	481.50	463.75	539.25	522.50	519.00	500.25	498.00	492.75	479.00	494.75	529.75	560.25	579.00	553.00	558.00	560.75	585.75	611.75	640.50	660.00	661.25	675.75	662.25	673.50	705.75	696.50	695.25	683.00	698.50	723.25	718.00	698.25	725.00	764.50	784.25	772.50	767.75	769.25	776.50	785.25	795.00	805.50	815.00	822.25	797.00	778.25	687.50	683.25	703.75	694.50	593.50	602.25	686.25	713.50	684.25	688.00	663.00	588.25	564.25	476.00	391.75	405.50	382.75	384.25	360.50	376.00	387.25	391.50	396.25	397.75	415.75	426.50	414.00	426.50	446.75	507.50	532.75	503.50	479.00	502.00	503.00	460.50	491.75	546.25	610.75	659.75	699.75	669.50	697.00	689.50	641.75	621.50	661.50	658.00	633.75	596.50	595.00	565.00	526.00	581.00	610.50	565.75	546.75	559.75	523.00	524.25	541.25	493.00	492.25	462.25	464.25	514.25	585.00	573.75	545.00	540.00	535.75	519.75	494.00	526.00	581.50	542.75	564.25	553.00	565.50	570.75	595.00	601.00	576.50	510.00	493.25	504.75	518.00	520.75	486.25	484.50	478.50	508.00	470.50	460.75	547.75	503.50	488.50	510.00	494.75	493.50	565.00	635.50	636.75	654.25	626.50	679.00	641.50	649.50	626.25	595.50	637.00	632.75	657.75	754.50	743.00	737.25	620.50	594.25	538.00	536.00	491.00	560.75	624.25	614.50	496.25	456.00	431.25
497.25	551.75	603.25	567.50	537.50	566.00	615.50	610.00	523.50	540.00	579.00	539.75	567.50	580.50	562.25	581.50	584.50	593.75	606.25	604.25	606.50	648.75	719.50	678.75	687.00	710.25	711.75	704.25	718.75	734.75	759.00	738.00	772.75	783.25	779.25	734.75	704.25	604.00	555.50	552.25	554.00	551.00	573.25	577.75	568.75	569.00	556.50	544.25	517.00	511.50	539.75	542.75	571.75	579.00	556.50	560.50	553.00	542.00	553.75	581.25	527.75	528.75	528.75	531.25	533.50	543.75	529.00	536.00	530.50	510.00	488.75	469.75	458.25	418.25	420.75	426.75	446.75	430.25	418.50	440.25	482.25	508.00	540.50	486.25	441.00	524.25	555.25	537.00	482.00	450.75	467.75	466.75	499.50	504.75	556.00	560.00	499.75	499.75	529.50	556.00	587.50	620.50	645.00	636.75	645.25	655.50	687.00	709.50	692.00	650.50	605.50	702.75	732.00	705.75	710.25	747.75	756.00	759.75	772.25	782.50	782.25	812.25	814.75	825.50	827.50	822.50	842.50	820.50	787.25	752.75	767.00	780.50	757.75	645.75	648.25	690.50	687.25	665.75	649.75	628.00	565.75	523.75	464.75	404.75	396.75	379.25	368.50	358.75	386.25	393.50	402.50	401.25	403.25	420.75	452.75	430.25	430.00	434.25	504.75	524.25	532.50	495.50	510.25	522.50	500.00	492.75	532.25	607.25	603.00	656.75	635.25	628.50	623.75	625.75	594.00	599.50	594.25	583.00	578.50	555.50	550.50	564.25	592.25	659.00	595.25	585.75	574.00	532.50	522.50	563.25	509.00	495.50	471.50	465.50	482.75	532.50	566.00	574.00	564.00	538.50	524.25	503.00	513.75	565.50	568.50	549.75	552.25	559.00	576.25	595.75	590.25	602.50	541.25	516.25	525.25	513.75	516.00	499.25	515.25	490.00	503.75	504.00	455.00	480.25	487.00	515.75	533.00	574.75	553.25	547.00	577.00	584.75	632.25	646.75	661.50	594.50	628.50	607.25	612.00	585.50	579.25	672.00	752.75	725.00	694.75	655.50	640.00	612.00	605.25	585.75	586.25	676.50	569.00	494.00	461.50	431.00
