737.25	740.00	765.25	790.00	794.50	796.25	794.75	827.25	839.75	835.75	841.25	845.75	854.25	858.00	864.75	849.50	829.75	833.25	814.50	824.75	832.75	843.25	830.75	845.00	844.25	839.25	835.75	842.00	821.25	807.75	801.00	788.25	786.25	768.00	773.25	790.50	797.25	811.00	812.75	826.25	808.75	795.50	794.50	769.50	756.75	825.25	772.75	781.75	792.75	801.50	797.25	801.25	801.75	779.50	807.00	799.00	814.75	825.25	847.25	875.25	894.00	879.25	887.75	892.75	875.50	893.25	907.75	885.25	986.00	1149.25	946.00	940.00	870.75	886.75	801.00	761.75	738.25	739.75	765.00	861.25	1002.00	992.25	989.50	903.75	888.00	983.75	1156.00	1187.00	1164.25	1129.75	1062.50	961.00	886.75	846.75	836.00	886.50	886.00	824.25	792.00	892.50	879.00	815.25	801.25	788.00	785.00	778.25	788.75	753.25	699.50	690.00	697.50	695.00	664.00	634.00	634.75	633.50	626.25	609.25	607.25	606.00	621.75	613.00	630.50	657.75	658.75	626.50	609.00	624.25	619.75	640.00	660.25	635.75	604.50	624.75	633.50	620.75	609.00	580.75	556.75	561.00	582.00	604.00	583.50	567.75	567.50	553.75	536.25	529.00	524.00	511.00	518.75	512.25	509.50	513.75	507.50	491.50	485.75	471.75	478.00	528.00	608.75	548.25	431.00	457.75	448.75	516.25	607.25	392.75	387.00	477.75	425.25	439.25	462.75	409.00	398.25	441.25	512.25	459.00	370.00	376.75	409.00	419.50	466.75	440.00	439.50	424.75	414.75	410.00	424.75	437.75	440.75	456.50	463.50	449.00	448.25	450.25	459.25	470.75	490.50	501.50	527.50	545.75	542.00	528.00	526.25	521.25	531.75	542.25	550.50	569.00	585.50	588.25	575.25	586.25	591.50	558.00	541.00	531.25	520.00	531.00	527.50	542.75	558.25	591.00	625.25	705.25	681.25	821.25	698.25	564.50	587.50	577.50	612.50	551.25	524.00	535.75	569.75	607.00	876.75	1116.25	1033.75	874.75	952.00	810.00	771.00	768.25	771.25	782.50	822.50	982.25	1146.50	1164.75	1160.00	1064.75	987.25	926.00
725.50	736.25	764.25	785.00	774.50	774.50	777.00	807.75	810.00	826.00	832.00	820.50	840.00	859.50	838.50	835.25	825.25	817.50	808.50	812.25	824.25	819.75	825.00	833.50	839.50	867.00	849.00	842.00	828.50	811.50	804.75	799.75	786.50	775.25	765.75	787.50	791.25	792.00	807.75	832.00	832.25	807.25	799.00	771.25	756.75	796.50	778.25	774.50	773.25	776.00	789.25	811.25	779.00	771.75	798.00	824.25	831.50	836.00	851.25	874.00	892.50	877.50	871.50	874.25	872.25	862.50	857.25	874.75	977.75	1099.25	910.00	876.50	815.50	785.50	763.25	751.00	736.75	760.25	797.00	844.50	831.00	846.50	878.00	836.75	833.50	965.25	1048.50	1077.50	1058.25	1117.00	1114.75	993.25	1002.75	927.50	847.50	825.50	820.00	793.50	770.25	825.00	840.50	828.25	809.00	798.25	793.00	818.25	780.25	719.75	694.50	680.25	671.25	669.50	649.00	635.50	662.50	691.25	676.25	657.25	665.75	645.75	627.75	618.00	607.25	593.75	600.25	588.00	573.25	583.25	585.00	606.00	623.25	629.50	600.00	586.50	607.50	594.00	583.75	570.75	549.75	558.00	598.75	598.75	598.50	576.00	562.00	548.00	535.00	527.75	526.50	526.75	505.25	505.50	502.25	519.00	516.25	511.50	502.00	483.75	480.00	541.75	646.00	555.25	442.00	445.00	457.75	687.25	585.00	462.25	440.25	486.25	402.00	413.50	405.50	401.75	416.50	399.75	399.00	399.25	368.00	371.50	384.00	403.50	417.25	431.50	455.75	439.25	416.50	405.25	416.75	428.50	436.50	456.25	465.00	467.50	463.75	459.00	461.00	466.50	480.50	492.00	502.75	523.75	520.50	513.00	511.75	519.25	536.00	549.25	559.00	568.75	574.00	574.50	564.75	570.00	562.50	549.00	534.75	523.00	515.25	519.50	527.00	545.00	557.75	563.75	637.75	798.50	826.75	822.75	668.00	572.75	580.75	618.75	703.00	696.00	522.75	529.75	554.50	568.25	717.75	923.50	1036.25	968.25	959.00	765.50	856.75	821.50	794.25	792.00	806.25	969.50	1254.50	1152.50	1077.25	1039.75	1029.00	1037.00
717.75	737.50	741.50	746.00	752.00	758.75	770.75	840.50	874.00	889.00	891.00	829.25	823.00	819.00	812.25	812.25	816.25	806.75	801.00	802.50	812.75	811.75	813.00	816.75	839.00	847.00	843.75	841.25	829.50	827.00	831.50	814.00	803.50	784.75	762.00	759.00	775.25	787.75	799.50	848.50	819.50	817.00	812.75	800.00	759.75	771.75	768.00	762.25	761.00	773.00	773.00	763.50	756.25	782.50	802.50	822.25	858.50	855.75	887.25	888.25	886.75	879.75	874.00	860.25	861.50	878.00	845.25	850.75	959.75	1030.25	852.50	828.75	780.75	776.50	762.00	753.25	742.25	768.25	770.75	775.00	766.75	803.25	804.75	799.75	823.50	904.50	942.50	956.50	955.25	1016.75	1111.75	1062.00	1108.00	1060.75	862.25	815.75	849.50	839.75	758.00	749.00	806.50	837.75	843.75	815.25	806.25	814.75	794.75	730.25	715.00	685.25	683.25	678.75	665.25	670.50	687.00	708.75	725.50	710.00	714.50	705.50	675.75	661.00	662.25	634.25	605.00	591.25	593.75	576.00	560.75	550.75	559.50	579.25	572.50	561.50	583.25	569.75	566.50	556.50	546.50	555.00	640.50	598.00	580.25	582.25	550.00	565.50	539.25	531.00	529.50	533.00	513.25	503.75	494.50	506.75	516.25	554.00	517.75	500.75	497.50	530.75	580.25	530.50	442.75	446.75	521.75	574.75	519.00	474.50	420.50	351.75	388.00	385.00	384.00	401.50	391.25	386.75	384.75	383.75	352.25	355.00	382.25	394.00	411.25	430.25	454.75	434.50	420.00	402.75	412.00	426.00	447.75	456.00	465.75	483.75	486.50	494.25	472.00	462.00	465.50	472.50	482.25	492.50	495.75	499.75	507.75	517.25	534.00	552.50	556.75	560.00	565.75	570.50	559.00	546.50	544.75	542.00	530.50	515.50	509.00	513.25	524.50	528.25	541.00	555.00	581.00	632.00	761.00	893.75	686.50	572.50	568.25	578.00	637.25	734.50	534.50	519.00	554.75	621.75	598.00	722.75	880.25	852.25	853.25	714.75	812.25	870.75	852.25	822.25	822.50	1048.00	1104.50	1002.25	958.25	977.50	1047.25	1091.75
718.25	729.00	723.00	727.75	731.25	744.50	752.50	770.50	789.75	776.25	775.50	774.75	780.50	794.25	806.25	802.25	802.75	799.75	791.25	789.25	795.75	798.50	798.50	813.50	822.00	831.00	845.25	856.00	854.50	854.50	845.25	832.00	825.75	804.25	779.75	770.00	756.50	757.00	791.50	799.25	806.75	793.50	794.75	809.75	797.75	756.25	759.50	761.75	761.25	763.50	779.00	781.75	804.00	817.50	826.00	839.00	861.75	886.00	872.25	891.00	899.50	898.00	882.50	871.50	871.25	903.50	854.50	835.25	844.25	895.50	833.50	847.75	768.00	773.75	787.00	771.25	738.75	748.00	753.75	755.50	763.25	813.25	840.00	823.50	875.00	907.00	950.00	979.25	1024.00	1065.50	1068.00	1080.25	1048.50	1037.50	969.25	926.75	948.50	926.25	813.50	736.75	719.75	770.75	889.75	842.25	818.00	793.50	778.75	756.00	720.75	707.25	701.75	700.00	707.75	759.75	740.50	717.00	716.00	737.25	754.00	744.75	720.00	706.75	686.25	659.00	626.75	620.00	619.50	620.00	606.25	587.25	566.00	556.00	554.50	541.00	551.00	552.50	543.50	542.00	541.50	533.25	591.50	649.25	629.75	603.50	567.50	554.00	560.75	537.00	530.50	534.00	530.00	511.75	499.75	488.25	500.75	530.75	569.25	551.75	592.75	569.00	519.00	482.00	448.50	454.00	661.75	530.75	534.00	571.75	383.75	339.75	369.50	375.75	431.00	393.50	377.75	388.00	377.00	369.00	346.50	356.75	372.50	383.25	400.50	415.75	435.50	424.25	416.00	412.00	413.75	425.00	447.75	465.50	480.50	512.50	536.25	535.50	491.75	476.50	467.75	468.00	475.75	482.75	490.50	499.25	509.50	519.75	533.25	543.00	546.00	551.50	559.00	560.00	555.75	547.50	537.00	527.75	518.00	507.50	505.50	511.75	524.50	538.50	554.50	558.00	568.75	597.50	750.50	965.00	756.50	573.50	564.75	560.00	577.00	650.00	541.75	509.25	548.00	587.75	576.75	612.50	809.00	809.50	820.75	762.25	712.25	729.50	785.50	816.00	910.50	1039.50	909.00	843.25	813.25	931.50	1036.75	952.00
710.00	712.00	707.75	717.00	729.50	742.50	734.75	732.50	739.00	743.00	751.50	765.25	788.00	799.00	803.00	793.00	798.00	787.75	784.50	786.50	789.75	789.25	797.50	810.00	817.00	832.50	852.25	885.50	883.25	870.25	859.00	849.00	833.75	821.00	797.25	777.50	752.00	753.75	770.25	776.50	791.50	774.25	763.50	767.50	821.50	815.50	781.50	751.75	752.00	773.50	801.25	794.75	814.25	850.50	833.50	850.50	880.75	883.00	887.00	907.25	927.25	937.00	920.50	884.50	896.00	896.25	944.75	887.50	843.50	889.00	780.50	775.75	750.75	814.50	788.25	760.00	728.50	717.75	742.00	770.50	780.00	798.75	820.75	834.50	906.25	946.75	1043.00	1029.50	1075.50	1156.75	1124.25	1104.25	1058.75	1046.00	967.25	969.25	1038.00	1032.00	883.75	776.00	730.00	714.75	775.00	811.00	820.75	800.75	790.00	755.75	733.50	735.00	722.00	721.25	749.50	757.75	709.25	712.00	728.00	763.75	766.75	739.50	733.25	720.50	693.50	675.75	662.50	646.50	642.00	648.25	637.50	613.25	591.75	587.50	588.25	555.75	551.50	530.25	522.00	518.25	517.50	524.25	516.00	577.00	614.50	646.75	569.00	580.25	573.00	561.00	525.25	531.50	525.25	516.50	507.25	481.00	503.00	602.25	556.50	554.50	570.25	555.25	547.00	553.75	459.25	498.50	842.25	634.00	498.25	400.50	357.75	338.00	377.25	419.75	414.25	371.75	362.50	387.00	386.00	372.50	359.00	344.00	362.75	379.50	401.25	408.25	412.50	404.50	408.25	435.25	430.50	426.25	449.75	502.50	503.75	553.50	568.00	547.50	500.25	492.50	482.00	473.25	475.75	485.25	494.75	503.50	515.50	522.25	527.75	534.00	539.00	553.50	554.50	544.25	545.50	546.50	548.50	531.25	511.75	500.50	500.00	506.75	556.00	539.00	582.75	574.50	573.25	586.00	640.00	954.75	884.50	592.50	558.75	553.50	540.25	563.50	539.50	513.00	543.75	565.00	574.00	592.50	701.00	693.75	754.50	698.75	682.50	631.25	664.50	841.00	1002.75	970.25	955.50	758.00	642.75	774.25	787.00	772.50
682.25	691.25	705.25	720.00	732.50	741.25	728.00	722.50	732.00	738.50	754.75	758.50	774.25	793.00	806.25	792.25	782.25	781.50	776.00	781.25	781.25	797.00	805.75	810.75	814.75	831.00	880.00	887.50	886.25	873.50	861.75	849.50	834.50	815.75	786.00	769.50	754.75	745.50	770.75	785.50	771.75	774.50	748.50	746.25	769.50	734.50	724.75	729.50	744.00	745.00	762.50	757.00	776.25	798.75	819.00	835.75	922.25	940.75	961.00	942.75	979.25	955.00	969.00	924.00	917.75	1018.25	1006.50	902.00	861.25	873.00	777.50	765.75	747.50	737.00	731.50	765.50	712.75	751.50	750.50	785.50	803.25	794.75	789.75	837.25	891.00	932.00	1063.25	1077.50	1114.50	1094.25	1041.25	957.25	989.75	1053.00	972.25	901.00	973.25	900.25	808.25	729.75	728.00	711.75	840.25	841.50	813.25	823.25	783.75	780.75	780.75	761.00	738.50	737.50	745.50	687.50	673.25	696.50	722.50	740.25	765.50	750.00	730.75	705.75	671.00	669.50	686.25	676.25	688.50	690.25	656.50	635.50	616.25	610.75	611.50	587.75	573.50	549.25	546.75	530.75	534.75	529.25	549.50	523.50	521.00	557.50	583.50	587.25	576.25	543.50	559.25	525.25	508.00	513.75	528.00	484.00	498.00	677.50	538.25	517.50	548.25	575.00	544.50	565.25	483.25	609.25	774.50	653.25	440.50	377.00	356.75	336.50	388.25	417.00	377.00	360.50	356.00	376.50	382.75	378.25	365.25	336.75	354.75	373.00	394.50	406.75	434.50	416.25	422.50	435.00	443.25	434.25	469.75	519.25	516.50	563.25	604.00	563.00	509.25	525.00	513.00	486.75	478.25	484.50	497.00	504.00	509.00	513.50	521.25	529.50	538.25	563.00	556.75	536.00	562.50	563.75	565.25	521.50	510.75	498.00	496.75	510.00	600.75	543.00	543.25	564.75	619.50	633.00	628.75	875.25	983.25	689.50	587.75	564.25	536.25	522.75	514.25	500.00	542.25	554.25	563.50	577.50	756.00	627.25	640.75	711.00	671.50	617.25	678.25	971.50	996.00	867.00	857.75	757.25	663.00	647.50	650.00	638.00
675.75	682.75	701.00	713.25	734.75	745.00	725.75	716.25	737.50	735.25	751.00	753.00	773.00	779.75	793.00	793.50	775.00	776.25	773.50	776.25	775.50	789.00	800.75	806.50	805.75	830.50	885.25	915.25	881.50	863.25	854.25	838.50	830.50	814.50	788.00	774.25	757.50	732.00	749.75	766.00	754.50	775.25	752.75	722.50	747.75	761.25	721.25	710.25	712.50	743.75	788.25	760.50	770.75	793.75	838.00	862.00	987.25	984.50	1018.00	952.75	1007.75	997.00	994.50	905.50	865.75	954.75	868.00	872.50	881.00	858.25	763.00	747.00	729.00	724.50	721.25	804.00	716.25	768.75	768.25	785.50	810.50	790.25	773.75	791.25	838.75	921.50	982.75	1070.00	1090.50	1061.75	986.50	927.25	937.50	963.50	933.75	825.50	838.50	763.25	728.25	703.00	715.50	698.25	853.25	845.25	804.00	842.25	768.00	762.00	781.75	758.00	739.00	729.25	735.75	653.75	664.75	696.25	718.50	703.00	740.75	750.75	750.00	712.50	663.25	654.25	682.50	698.25	725.25	730.75	679.25	654.50	631.75	621.75	624.00	606.75	577.00	563.25	562.75	540.50	545.00	583.25	597.00	553.25	537.00	505.50	554.75	625.50	620.75	530.75	575.00	566.75	500.75	507.50	539.50	490.75	482.25	603.75	512.00	504.50	548.75	566.75	527.00	634.25	519.00	725.00	686.75	581.75	435.00	375.50	358.00	331.75	394.50	377.25	373.25	359.25	351.00	367.25	377.00	374.50	360.75	323.75	346.00	367.50	393.00	409.00	447.50	426.00	419.25	416.00	424.50	441.75	455.75	504.25	498.75	590.50	645.00	572.00	507.00	529.00	532.50	495.50	481.00	485.00	495.75	499.50	504.25	510.25	518.50	529.50	538.50	560.25	562.00	533.00	549.25	543.00	524.50	515.75	509.50	496.00	503.00	534.50	512.25	522.00	541.00	547.75	623.00	688.00	633.75	789.00	924.75	735.75	631.50	580.25	552.50	542.25	505.25	498.25	520.75	549.50	554.00	569.50	783.75	621.25	589.00	680.00	679.50	602.00	655.50	904.00	974.00	829.75	765.50	722.00	650.75	601.75	587.25	589.00
711.25	713.00	709.75	712.75	717.75	724.25	716.00	703.50	716.25	723.75	737.50	748.75	753.75	764.00	779.25	783.00	770.00	765.75	768.25	763.25	774.00	786.50	792.00	791.75	792.00	822.25	873.00	879.75	923.75	880.50	846.50	829.00	818.00	814.25	795.25	781.00	760.50	748.75	738.50	734.50	739.50	757.25	750.25	751.25	722.00	704.75	704.00	692.75	715.25	775.25	836.00	818.00	840.00	825.50	920.50	912.00	978.00	981.00	1010.00	1008.25	1026.75	1027.00	1017.00	896.25	828.50	809.50	801.50	780.00	852.25	899.25	773.75	752.50	748.00	725.75	717.50	750.75	719.50	725.75	753.00	765.75	757.75	789.50	767.00	789.75	825.00	876.00	909.50	897.75	1071.00	1105.00	1061.00	1017.25	959.75	891.00	902.75	878.25	786.00	688.50	662.00	666.75	689.75	680.75	691.50	726.50	855.00	853.25	789.25	735.75	706.75	713.50	689.00	682.50	690.25	649.50	651.75	685.50	713.00	670.75	680.00	672.00	702.25	703.25	661.00	650.75	699.00	723.50	699.00	692.00	668.00	669.25	632.75	601.00	601.25	611.75	598.00	582.50	568.75	561.50	587.50	588.50	600.50	600.25	594.25	561.75	533.50	546.25	599.50	525.50	561.75	655.75	518.25	507.00	508.50	486.25	468.75	490.00	481.75	481.00	483.75	476.75	496.50	532.50	567.25	626.75	575.75	512.50	419.75	381.25	357.25	354.25	372.75	361.00	358.75	356.25	339.50	360.50	363.00	368.25	353.75	323.00	354.50	369.25	387.75	403.50	411.25	397.50	391.50	417.00	439.25	436.75	444.00	529.75	610.50	623.75	567.00	540.75	499.50	513.75	535.75	510.50	489.25	486.50	491.75	498.25	506.25	517.25	524.75	530.75	532.50	541.75	546.50	528.75	518.00	513.25	509.75	506.25	500.75	490.00	512.75	504.25	491.00	506.00	529.50	528.50	565.50	696.50	660.25	683.25	706.75	720.25	663.25	650.75	643.75	664.25	576.50	494.00	503.00	514.25	535.75	550.00	595.25	571.00	557.00	578.50	632.50	597.75	591.50	676.25	773.50	826.50	694.75	650.25	628.75	590.00	545.75	615.75
686.75	681.25	685.00	698.25	707.75	707.25	704.00	687.50	695.50	714.75	764.00	750.25	738.00	750.50	749.75	761.50	762.25	753.00	750.25	751.75	762.25	776.25	788.25	773.75	769.25	787.25	803.25	820.00	820.50	833.25	839.00	829.25	806.75	799.50	784.50	769.75	756.75	738.25	725.25	705.75	722.00	742.75	731.25	709.50	719.50	698.00	709.25	686.75	694.50	718.25	740.00	779.00	839.50	787.00	887.25	904.50	884.00	902.00	943.25	931.50	879.50	880.75	875.00	784.50	752.25	760.00	802.50	746.25	783.25	880.50	792.75	775.75	727.50	729.75	710.75	699.25	703.00	687.00	726.75	758.75	728.25	747.75	753.50	786.50	811.25	827.75	782.00	765.25	939.50	1085.50	1046.25	994.50	1009.00	845.75	939.00	994.75	831.75	688.25	666.00	639.50	674.25	690.50	669.25	656.75	675.75	684.00	713.00	664.00	687.00	682.00	656.25	633.25	611.00	609.00	623.25	647.00	677.50	660.25	662.50	614.50	618.00	666.25	664.75	638.25	682.75	691.75	738.25	725.00	648.00	604.75	581.50	564.25	560.75	640.00	599.75	581.75	584.25	543.50	541.75	549.00	567.50	617.00	678.00	607.75	599.25	656.25	661.75	633.25	564.25	572.50	527.75	479.00	491.00	469.25	470.25	511.50	484.25	454.00	460.75	446.00	432.50	443.25	456.50	421.75	483.75	455.00	408.75	392.25	394.00	356.25	323.50	331.25	333.50	347.00	327.75	334.75	345.00	357.25	346.75	321.25	345.50	357.00	373.25	392.25	381.75	368.50	386.75	452.50	438.25	532.25	501.25	437.00	500.50	472.00	456.00	469.25	484.00	497.50	514.50	521.75	517.75	500.25	494.25	496.00	503.50	519.25	522.00	518.25	523.75	519.50	520.75	513.00	504.25	497.50	493.50	491.75	489.00	484.50	483.75	493.50	496.50	523.75	525.50	527.50	505.75	519.75	525.25	549.75	593.50	707.75	852.25	727.25	671.75	607.50	542.25	496.75	491.75	500.75	527.50	536.25	524.25	522.75	528.25	540.75	546.00	558.50	572.25	625.50	679.00	721.00	640.00	654.75	676.25	576.00	524.25	610.00
672.50	677.50	697.50	706.00	698.50	695.00	698.25	680.25	690.50	707.25	717.75	721.00	729.00	733.25	743.00	752.75	757.50	751.00	743.00	756.25	779.75	795.00	794.25	765.25	759.75	780.75	793.00	800.25	809.00	816.25	815.50	813.00	799.75	788.50	770.75	765.75	757.00	745.50	735.75	714.25	718.50	728.50	707.25	695.75	721.00	726.50	717.75	687.50	728.00	718.75	751.75	774.00	798.50	793.50	890.00	912.00	906.00	882.75	897.50	916.50	887.50	847.50	827.50	762.50	759.25	741.00	751.50	745.50	783.00	807.75	812.75	829.00	728.75	727.25	714.50	705.00	688.00	692.25	723.00	717.00	731.25	762.50	752.25	774.50	798.75	831.25	836.00	778.75	767.50	866.75	921.25	869.00	866.50	801.75	819.50	841.50	814.00	730.25	735.00	668.75	638.75	679.75	682.00	668.25	680.25	638.00	652.00	650.25	673.50	686.00	669.25	640.25	607.00	592.75	586.25	595.00	600.25	599.75	622.25	633.50	635.00	602.50	598.50	588.25	663.25	674.75	713.25	725.25	657.75	625.00	597.50	574.50	537.75	601.00	588.00	588.75	580.25	544.75	521.75	540.75	546.50	629.50	609.75	609.00	616.50	685.25	634.50	643.75	658.50	652.50	707.75	727.50	599.50	461.75	458.50	472.00	453.00	453.25	444.25	452.25	419.75	415.25	443.00	416.25	466.50	441.75	400.00	380.75	397.25	358.25	314.75	309.00	313.00	337.50	326.75	324.75	332.25	343.50	345.25	321.25	346.25	356.50	377.75	389.75	372.75	366.25	396.25	404.00	423.50	451.50	424.75	419.50	431.00	437.50	449.00	467.00	471.75	502.00	543.00	545.00	532.75	511.00	502.75	499.75	501.50	506.75	508.75	512.25	520.75	509.50	507.00	502.25	495.75	488.75	485.25	482.00	481.50	488.25	567.25	511.50	489.25	511.25	504.50	504.00	517.25	504.00	510.25	551.75	534.25	564.25	724.75	660.75	642.50	637.00	518.25	490.50	483.00	500.50	520.25	514.75	512.50	512.50	515.25	525.25	531.25	539.75	544.25	566.75	596.75	795.50	809.50	612.00	552.25	539.25	517.50	614.00
695.50	692.25	705.00	700.50	684.75	683.75	681.25	674.75	687.00	702.75	706.25	714.50	725.50	714.50	726.25	734.25	742.00	749.75	738.50	764.00	786.25	795.50	785.75	764.75	757.75	773.50	794.25	789.50	793.75	795.50	812.00	821.25	804.50	795.75	787.00	782.50	770.25	758.25	737.00	717.75	700.00	701.25	688.25	678.75	726.00	719.50	679.75	688.25	716.00	746.00	739.75	776.75	838.25	815.50	819.50	829.00	860.75	872.25	859.00	848.50	859.25	848.75	783.50	769.00	808.75	741.25	704.00	689.75	775.25	813.75	889.00	861.00	770.50	763.00	699.25	699.25	690.00	670.50	676.25	712.25	725.75	728.25	729.00	750.75	780.25	816.25	855.25	805.50	706.50	727.00	809.25	862.50	840.75	802.50	742.00	729.25	716.00	677.75	667.25	642.00	618.25	604.00	590.50	590.25	581.25	585.75	602.25	673.50	619.25	613.25	641.50	621.50	598.25	585.50	572.00	568.50	566.00	559.50	562.50	608.00	666.75	601.00	566.00	573.25	597.75	626.50	651.50	611.25	588.75	590.50	583.00	598.00	542.00	537.75	556.00	593.25	582.25	559.75	515.50	587.25	630.75	629.25	618.50	671.25	649.50	726.25	616.00	710.00	721.75	630.50	695.00	830.50	787.50	528.75	468.00	455.50	451.00	456.00	481.75	458.00	422.50	415.50	423.75	423.00	505.25	541.75	418.50	405.75	361.75	328.50	320.00	311.25	300.50	307.75	308.50	306.75	317.25	330.25	333.75	310.00	331.75	347.25	382.00	386.25	378.75	370.50	384.75	375.00	385.50	393.25	427.25	438.25	450.00	434.75	439.50	449.75	466.75	491.25	548.00	542.75	539.75	526.25	514.75	508.25	502.00	498.50	499.50	505.50	510.25	501.00	497.75	492.25	486.00	480.50	476.50	475.00	495.50	480.50	605.25	533.75	468.75	476.25	475.25	483.25	506.00	497.50	494.75	516.25	502.25	546.25	587.25	610.00	537.00	520.50	500.00	489.50	476.75	482.75	500.25	499.25	500.75	501.50	504.75	513.75	523.50	542.75	625.50	625.50	608.25	817.50	877.00	688.00	562.75	529.75	493.00	514.75
700.25	702.00	691.25	691.25	680.25	671.00	669.25	681.50	687.00	693.00	699.75	710.50	705.75	697.50	703.00	712.50	730.50	742.25	734.00	762.50	780.50	787.25	765.75	742.00	751.00	770.00	778.50	777.75	776.25	795.75	800.25	814.50	830.25	820.75	811.75	801.50	777.25	761.75	737.25	706.75	698.50	695.00	687.75	693.00	722.75	715.00	705.25	736.75	747.50	759.25	752.25	781.75	798.00	828.25	806.25	794.75	799.00	795.75	800.75	825.75	830.75	801.50	785.75	815.00	787.00	738.75	692.00	680.25	699.75	787.25	807.00	796.25	733.25	734.50	702.25	677.25	694.50	664.00	673.25	717.50	700.75	709.00	725.50	760.75	782.25	823.25	880.50	874.00	747.50	706.75	751.75	807.75	829.75	787.50	753.50	739.75	710.50	798.25	747.75	613.50	588.00	579.00	561.25	548.75	556.00	566.00	578.25	677.50	628.75	609.00	576.00	569.25	584.50	565.25	550.00	556.00	573.50	540.50	531.75	560.25	581.75	600.50	561.75	536.25	556.00	585.00	606.50	590.50	548.25	537.50	534.50	542.25	527.25	509.50	535.50	581.00	585.75	555.75	528.25	579.50	766.75	678.00	623.25	617.75	579.50	576.00	595.25	743.00	720.50	599.00	579.50	586.50	645.25	586.00	515.75	487.00	481.50	466.50	466.00	454.50	434.25	424.75	425.50	422.00	446.00	475.50	424.25	404.00	377.75	342.75	342.00	327.25	302.50	299.00	297.75	291.25	300.75	317.25	338.00	313.00	315.50	341.00	371.50	381.50	367.25	362.25	370.00	376.25	433.00	406.00	469.25	492.75	472.25	449.75	450.50	453.25	465.75	481.50	499.75	519.75	534.25	539.75	531.00	518.50	507.25	498.75	492.25	494.75	498.50	493.50	489.75	487.75	485.00	480.25	472.75	470.75	511.00	474.00	483.25	484.25	481.50	464.00	467.00	471.75	510.50	499.75	484.00	490.00	490.00	496.25	507.00	516.25	523.75	515.00	502.75	487.75	474.75	475.25	500.00	491.50	484.75	491.50	497.75	514.50	553.00	664.25	833.50	881.25	678.50	649.75	686.00	709.00	640.50	567.25	490.00	508.75
708.00	695.00	678.25	686.50	671.00	659.00	656.25	672.25	678.00	689.25	703.25	702.00	689.00	681.75	700.00	706.50	720.75	729.75	729.50	755.00	774.50	775.25	749.00	734.25	747.50	746.00	751.75	764.75	767.50	773.75	786.25	805.25	814.50	829.00	827.75	803.00	774.75	765.25	747.00	735.50	735.00	758.50	750.50	739.25	675.25	654.00	724.25	745.50	707.25	735.50	762.50	778.25	824.75	856.50	770.25	775.25	777.75	774.50	782.50	794.00	786.75	761.75	770.00	811.75	798.75	766.25	739.75	664.25	639.75	807.50	772.50	754.50	732.75	712.50	688.25	694.25	658.00	647.50	667.25	698.00	687.00	724.00	760.25	753.50	782.50	891.75	886.50	845.75	873.50	721.25	681.00	730.50	795.00	830.75	804.50	829.75	731.25	738.25	739.00	686.00	657.00	591.00	516.75	538.50	550.25	544.25	549.25	662.75	558.50	552.00	542.00	538.00	585.50	558.50	531.50	540.25	577.75	530.50	519.50	529.00	556.25	583.75	563.25	531.00	533.75	565.50	597.50	566.00	530.50	512.75	503.00	505.00	514.50	493.50	520.00	524.75	556.50	532.50	509.00	496.50	643.25	721.50	648.00	593.50	556.00	564.75	592.00	616.25	751.75	730.75	578.50	536.00	510.50	539.75	533.25	523.75	548.00	469.00	450.00	444.50	436.75	429.25	419.75	423.25	397.50	395.50	396.25	387.00	368.75	348.00	339.00	322.00	318.25	324.00	304.75	275.50	292.50	316.25	328.75	331.25	289.75	315.25	361.50	364.00	359.25	336.75	356.00	415.25	494.50	460.25	423.00	451.25	463.75	467.25	466.50	470.75	467.00	478.75	492.25	508.25	531.50	551.25	544.75	527.25	515.00	504.50	494.50	485.25	483.75	482.75	481.00	482.25	486.25	490.00	479.50	464.00	467.00	476.75	473.50	480.25	471.00	462.00	458.50	461.50	473.75	479.25	480.75	472.75	476.00	484.50	502.75	499.75	552.25	542.75	506.50	487.75	473.25	468.00	520.50	504.00	480.00	486.75	500.00	554.50	718.50	863.50	1023.75	998.00	759.50	572.25	593.75	665.25	599.00	536.25	492.75	514.25
693.25	679.25	669.50	674.75	664.25	645.25	650.50	669.00	682.75	694.50	692.25	680.75	676.00	672.50	684.25	692.25	705.50	724.75	728.25	758.50	761.50	750.75	738.00	723.25	725.25	742.75	758.50	753.00	748.50	768.75	797.75	783.00	773.75	773.25	804.25	787.00	765.00	753.75	737.75	734.25	718.50	710.00	693.00	683.50	691.25	667.50	660.75	700.25	690.25	721.00	771.00	753.50	780.50	819.00	770.75	780.25	771.25	766.50	778.25	760.00	746.50	726.75	765.50	780.00	787.50	791.50	790.25	698.50	627.00	726.25	808.50	804.25	741.00	725.50	708.00	713.25	658.00	643.50	658.25	671.50	706.25	737.75	728.75	735.50	732.50	761.75	817.75	796.50	840.25	737.75	664.50	707.50	735.25	767.75	721.50	717.25	697.25	679.25	660.00	623.75	603.25	607.75	520.75	530.00	545.00	533.75	532.75	539.50	527.00	522.25	514.25	537.25	593.75	554.75	521.75	506.50	537.50	518.00	505.50	507.75	516.50	526.00	535.00	517.00	504.25	532.25	562.75	532.00	504.75	502.00	487.50	516.25	521.25	479.00	495.75	499.50	501.75	514.75	500.50	480.00	500.25	603.00	756.25	666.75	575.00	604.50	570.75	586.50	699.25	793.25	677.25	596.75	586.00	505.00	491.25	485.75	486.75	497.50	501.75	489.50	448.50	433.50	425.00	425.00	414.25	401.25	389.50	379.75	368.25	354.00	357.50	348.75	345.50	322.25	307.75	265.25	290.75	309.00	313.00	306.25	286.50	297.25	343.50	345.75	332.25	340.00	383.25	396.50	448.00	496.50	478.75	451.75	466.25	479.75	481.50	492.00	476.50	484.00	513.50	557.75	534.25	546.00	553.00	540.00	527.50	512.50	500.00	489.00	482.75	475.75	473.00	474.25	477.75	482.50	478.75	459.75	457.50	468.00	471.50	469.00	471.25	476.75	461.50	456.50	466.50	478.75	467.00	463.75	466.00	471.25	479.75	503.25	678.25	698.75	550.00	510.50	498.25	468.75	469.75	470.00	474.75	482.75	503.50	648.00	864.00	966.25	1088.00	929.25	704.50	550.00	573.00	594.00	576.00	553.50	499.75	482.50
677.75	666.00	656.00	646.50	647.50	637.50	644.00	674.00	677.25	685.75	673.25	668.00	661.50	661.50	677.25	692.25	705.00	720.25	719.50	735.25	746.25	734.50	719.50	710.00	728.00	754.75	744.00	737.25	741.00	763.25	783.75	775.75	758.50	751.75	753.25	751.50	770.75	764.50	737.50	713.50	707.25	696.00	727.00	741.75	723.00	656.00	642.75	652.75	737.50	789.50	846.75	803.00	746.00	784.50	776.75	762.75	749.50	785.25	867.25	759.25	730.50	720.50	722.25	711.25	733.50	740.75	726.25	691.25	634.50	639.00	809.00	775.75	774.50	721.75	699.75	716.75	683.50	637.75	645.25	690.25	713.50	725.00	712.25	711.25	711.25	728.00	752.75	722.75	704.75	723.00	676.25	627.75	627.25	629.75	623.75	601.25	625.25	640.75	645.25	626.25	594.75	551.00	536.25	517.25	520.25	529.25	515.75	512.25	509.75	502.75	498.00	516.00	548.50	528.50	506.00	486.50	501.75	508.75	490.50	485.75	494.50	503.75	509.25	498.50	484.25	496.00	509.75	501.50	480.25	473.00	471.25	485.75	488.50	461.00	475.25	481.75	479.25	485.25	479.75	467.75	475.50	554.50	602.75	611.75	570.00	644.50	599.50	585.50	620.00	606.00	607.50	556.75	564.75	533.50	521.50	499.00	489.25	511.25	547.75	519.25	497.25	475.25	441.25	440.50	421.00	414.75	397.75	381.75	374.25	369.00	373.00	371.75	349.00	339.75	300.25	258.50	258.25	291.75	282.25	263.75	284.75	312.50	332.00	321.00	338.75	354.25	435.75	421.50	460.50	523.25	525.50	456.50	463.25	471.25	490.50	508.50	488.25	493.00	521.00	569.00	603.50	571.50	563.75	559.00	548.00	530.00	507.75	494.25	486.50	477.00	472.00	465.00	468.50	482.75	474.25	456.75	450.75	461.75	462.00	460.00	470.25	463.25	452.00	452.25	455.25	457.25	458.25	455.25	456.50	460.75	468.25	486.75	542.25	619.75	554.25	506.75	515.00	481.25	460.50	468.25	530.00	503.00	540.50	561.25	786.25	884.50	966.75	884.25	668.00	546.50	536.00	544.50	565.25	520.25	491.00	473.75
670.00	670.25	648.00	638.75	629.25	627.25	633.50	659.75	670.00	676.75	664.50	656.50	651.00	660.00	677.25	679.25	687.00	698.25	712.75	713.50	729.50	721.00	714.00	712.25	721.25	731.25	733.75	721.50	747.00	759.75	755.75	786.25	744.00	729.75	756.75	797.00	784.75	767.50	752.00	748.50	769.00	762.50	769.50	709.25	688.25	697.25	690.50	687.75	765.25	821.00	774.75	702.25	744.00	777.00	736.25	750.50	739.75	752.25	797.25	759.75	731.50	692.50	671.75	658.50	663.75	707.25	738.00	691.75	651.00	610.75	738.75	766.50	740.00	689.50	672.00	691.25	677.50	635.00	648.25	682.00	694.75	697.75	692.25	689.75	703.75	727.50	734.00	710.25	683.50	673.75	677.50	672.25	621.75	578.00	580.00	559.75	575.75	590.50	603.75	602.50	600.25	600.75	572.25	505.75	496.00	529.75	525.25	500.25	495.75	487.00	484.00	491.25	494.25	487.75	481.75	470.50	477.75	508.75	483.75	469.00	484.25	498.75	489.75	482.50	469.00	461.00	492.75	478.75	460.50	455.25	459.00	452.00	466.50	449.25	469.25	468.25	466.75	465.25	472.50	457.75	477.50	524.00	593.00	591.25	634.00	597.50	640.00	585.75	554.75	609.00	713.75	721.25	632.25	710.25	622.50	543.00	516.25	512.50	528.50	517.25	493.75	471.00	451.25	438.00	420.00	406.25	396.25	389.50	394.50	392.25	368.00	363.50	352.00	344.50	319.25	297.00	264.75	257.25	257.50	291.75	322.75	349.75	304.00	309.50	337.25	357.75	425.75	504.00	464.75	470.50	432.25	426.75	442.50	479.00	496.25	513.00	496.00	504.50	526.50	549.75	609.50	613.75	588.25	588.25	573.50	550.50	522.75	499.25	490.75	480.25	473.00	463.50	464.00	474.25	463.75	451.00	444.25	451.00	447.75	447.75	483.25	461.25	451.00	448.50	447.50	455.25	450.00	448.25	449.25	453.75	456.75	469.00	484.50	492.50	537.00	506.50	497.00	486.75	463.00	481.50	558.75	532.25	620.00	554.50	631.75	742.75	848.75	727.50	617.00	544.00	530.25	525.50	535.00	530.25	602.00	593.50
661.00	655.75	630.75	624.25	615.00	625.00	636.50	654.00	663.75	666.50	653.25	641.50	644.00	656.25	659.50	665.50	685.50	697.00	714.25	698.50	709.00	706.75	700.25	698.75	704.25	707.75	717.00	714.00	729.00	730.00	726.00	718.25	711.75	738.50	777.50	774.50	798.25	805.25	784.75	760.50	778.75	776.25	728.75	705.75	740.00	773.75	767.00	751.25	690.00	704.75	641.75	690.25	765.75	732.25	738.00	721.50	730.50	749.50	762.25	751.00	720.00	708.50	691.25	669.75	656.75	659.75	703.00	688.00	669.00	636.75	700.25	726.00	694.75	663.00	651.75	659.25	680.00	649.75	629.00	656.50	663.25	687.25	667.25	677.25	698.50	702.00	715.00	703.75	699.50	764.25	647.75	677.25	670.25	582.75	565.75	567.00	577.00	603.25	617.25	596.25	566.75	586.75	599.75	552.75	483.25	509.75	534.00	503.75	484.75	476.25	466.00	467.25	470.25	470.25	463.00	476.50	504.25	512.75	495.00	456.25	476.50	499.00	501.75	470.75	458.75	444.75	470.25	463.25	443.75	445.25	496.00	453.25	463.50	445.00	469.75	480.50	456.50	450.00	456.50	467.25	443.75	484.75	522.75	451.25	556.75	658.25	639.50	589.50	539.25	530.50	523.25	677.00	737.00	727.00	732.25	533.00	506.25	515.25	502.50	494.25	475.00	474.50	460.25	442.50	434.00	424.75	450.50	413.00	412.00	405.25	404.50	392.00	388.00	388.50	344.00	313.00	296.25	254.25	262.00	299.25	311.75	334.25	322.00	329.00	336.25	370.75	406.50	462.00	491.25	480.00	410.00	420.50	467.50	493.50	509.00	520.25	507.25	524.50	538.25	580.75	587.75	618.25	603.75	614.75	598.25	572.25	537.50	506.50	495.50	482.50	474.00	464.25	458.00	458.75	450.75	444.25	439.50	439.00	439.75	439.50	452.75	451.50	445.25	442.75	442.25	441.50	442.75	441.50	442.25	445.75	449.00	451.50	460.75	552.25	668.75	641.50	486.25	481.75	453.25	457.00	472.25	487.50	539.50	561.75	578.00	569.75	635.00	587.50	564.75	537.00	524.50	514.25	512.75	532.00	687.00	600.00
653.00	643.75	619.75	604.75	607.25	625.25	636.25	650.50	657.75	651.25	649.00	640.50	636.00	643.75	661.50	666.75	679.50	691.00	719.00	716.00	701.25	697.25	695.00	681.00	684.75	687.75	691.50	695.50	708.25	716.75	711.75	702.00	711.75	765.00	758.00	783.25	795.25	786.25	774.00	766.00	768.75	740.50	724.25	747.00	793.25	738.00	698.25	691.75	638.00	629.50	676.75	661.00	687.50	668.75	701.50	714.25	739.50	751.25	782.50	810.00	742.75	696.00	687.75	666.00	653.25	656.75	704.25	674.25	656.25	650.50	621.75	745.25	708.50	672.25	655.50	622.50	698.25	678.75	651.00	633.50	639.50	655.50	678.00	691.50	674.75	671.00	687.50	681.25	644.75	660.25	642.75	643.75	661.50	636.00	610.00	569.25	556.00	569.50	549.25	579.00	541.25	543.25	542.25	537.00	473.25	487.50	500.75	479.25	497.25	502.75	490.00	466.25	449.25	441.50	449.75	475.50	584.75	560.75	516.25	475.25	456.75	486.25	507.75	490.50	455.75	436.25	464.75	454.00	441.25	429.00	431.25	425.50	425.25	427.00	436.50	480.25	453.00	439.00	442.50	454.00	464.00	436.50	433.50	452.25	515.75	568.50	561.00	586.50	546.25	496.75	504.00	652.75	682.50	529.75	693.25	550.25	553.75	528.75	533.25	530.75	493.00	501.00	476.25	461.50	443.75	463.75	490.00	505.25	453.25	415.50	388.50	380.50	369.50	359.00	343.25	317.00	301.25	270.25	245.50	260.00	283.50	294.75	346.25	342.75	356.25	362.50	386.00	430.50	443.00	413.25	394.00	445.50	487.25	501.50	528.75	528.00	517.50	572.00	548.75	596.50	593.50	617.50	605.25	654.75	697.75	632.00	590.25	524.25	505.00	488.50	479.75	468.50	460.75	455.25	449.00	444.50	440.00	440.00	432.25	432.50	435.75	435.75	438.25	438.50	438.50	435.25	435.75	435.75	436.50	438.75	440.75	442.75	447.50	499.25	626.00	523.25	468.50	455.25	447.50	458.50	474.75	504.25	513.25	516.50	518.00	524.00	534.75	536.75	528.00	525.25	529.50	534.75	502.75	508.25	531.25	489.75
640.00	614.00	590.25	604.75	616.00	644.00	655.50	651.50	644.00	630.75	618.75	618.00	614.50	631.00	653.75	675.75	690.75	679.25	719.25	736.75	736.75	742.00	729.00	734.25	732.50	698.50	689.25	658.50	677.00	680.00	695.50	717.25	727.00	749.50	753.00	792.50	799.75	857.50	828.50	800.75	773.25	766.25	781.50	696.75	732.75	685.75	639.25	624.00	608.50	581.75	574.25	579.00	598.25	663.25	680.75	689.50	744.25	792.75	845.00	854.25	746.25	738.25	726.75	755.00	771.00	622.25	609.25	626.50	606.25	602.25	582.50	586.75	692.50	648.75	605.00	591.75	622.00	682.00	716.75	620.25	620.25	659.25	654.50	653.00	655.50	640.50	657.00	651.75	638.00	610.50	624.25	635.00	600.00	585.50	561.25	542.50	533.50	504.50	503.25	495.75	484.25	501.50	511.75	486.25	480.75	473.25	484.00	468.75	455.50	464.25	491.50	472.50	490.75	527.25	469.75	449.00	625.25	639.75	589.50	458.75	435.25	449.75	470.00	461.75	443.00	427.25	427.75	421.25	422.00	410.50	401.25	404.50	417.25	418.50	429.00	443.50	443.00	431.25	425.00	417.25	415.75	436.00	459.50	527.25	521.25	580.75	667.00	564.75	557.75	478.00	433.75	424.50	444.00	549.25	447.75	508.75	585.50	570.00	564.50	618.25	497.25	482.50	492.75	467.75	437.25	432.00	439.00	475.50	570.00	480.75	386.75	377.50	368.75	360.50	347.25	327.75	316.50	300.00	269.00	241.25	281.75	302.75	328.75	330.00	354.50	350.00	375.25	376.00	359.00	350.50	435.00	439.50	466.50	477.75	478.75	493.25	526.00	543.75	538.75	543.75	559.00	570.00	564.00	603.50	749.00	845.00	774.25	576.00	554.75	502.25	491.25	476.25	468.25	461.75	455.50	450.25	443.00	436.75	427.50	426.00	425.50	427.00	430.00	430.75	430.25	430.00	432.25	428.75	428.25	429.00	430.25	432.25	429.25	430.00	437.00	435.25	437.00	447.75	468.00	454.25	464.25	474.00	483.25	496.75	503.50	513.75	521.25	517.00	510.00	505.25	512.50	506.50	493.75	492.25	483.75	471.50
618.00	581.00	621.00	672.00	688.00	724.00	662.25	638.50	627.75	621.00	599.50	605.25	628.25	671.50	641.50	646.25	721.75	709.25	713.00	714.50	728.75	730.25	719.50	714.25	712.50	731.00	703.50	675.50	708.75	714.25	709.25	715.75	721.75	751.75	845.50	880.25	841.75	854.25	844.50	852.50	834.25	849.00	832.75	719.50	668.25	699.25	752.25	780.50	666.50	649.25	617.25	585.75	575.25	605.25	647.25	667.25	709.25	804.50	810.50	766.25	776.50	788.25	786.50	809.50	772.75	667.50	612.50	593.50	581.25	574.75	576.75	557.50	732.50	786.50	656.50	562.50	571.00	590.50	636.75	619.25	609.50	645.00	614.50	632.25	629.50	618.75	628.25	641.25	624.00	600.75	615.00	607.50	573.00	572.50	563.75	537.75	517.75	506.00	503.00	483.50	478.00	467.25	469.25	474.25	456.00	453.00	460.25	453.25	439.50	447.75	477.50	472.25	567.00	573.75	473.75	503.25	574.25	526.00	472.75	447.75	421.75	421.25	442.00	439.00	434.75	418.75	413.75	401.25	398.75	394.25	395.25	404.25	416.75	410.00	430.00	464.50	472.25	437.00	450.75	438.25	423.75	408.00	411.00	489.50	477.75	486.25	694.50	637.00	656.50	603.50	496.25	417.75	513.00	479.50	439.25	513.00	495.25	604.50	725.50	721.00	566.25	476.50	475.00	464.00	435.50	424.25	423.00	476.75	595.25	583.00	401.00	407.00	450.00	354.75	339.50	341.50	341.75	332.50	300.75	266.25	247.25	303.00	344.50	348.75	342.25	338.50	367.50	397.25	387.00	400.75	398.25	423.75	448.75	505.75	500.50	499.25	496.00	517.75	528.00	525.25	543.50	540.00	570.25	573.75	609.00	635.75	656.25	659.25	594.00	517.00	503.75	486.75	475.50	466.25	459.00	450.00	442.25	434.75	427.00	422.75	421.25	424.50	426.50	426.50	426.75	423.50	425.75	424.75	422.25	422.25	422.75	424.25	419.00	421.25	425.75	431.00	482.00	494.25	508.25	469.25	467.25	476.00	485.50	507.25	503.00	498.00	508.00	522.50	512.00	501.25	496.00	496.75	502.50	505.25	488.25	473.75
576.50	571.50	610.75	634.50	675.75	695.00	677.75	647.50	630.75	605.00	614.50	587.75	620.75	614.25	635.75	622.75	666.00	637.75	708.25	710.75	717.50	729.50	722.00	707.25	679.75	661.75	654.75	677.00	671.75	729.00	758.25	767.75	758.00	796.25	949.75	963.50	841.75	842.75	842.50	858.50	826.00	828.25	761.00	767.75	689.50	765.00	897.75	954.75	774.25	729.50	666.75	629.00	579.25	589.75	582.75	594.25	609.75	628.75	703.50	790.75	797.25	746.50	767.50	784.50	799.00	666.75	624.25	589.00	568.00	560.50	570.50	551.00	585.00	625.75	595.25	571.25	556.50	608.75	607.50	597.25	615.00	625.75	590.25	620.50	607.50	606.75	609.00	631.50	614.00	597.50	567.25	591.00	572.00	551.50	542.25	529.50	512.00	514.25	511.50	500.50	486.75	470.75	450.75	456.00	456.00	439.25	450.00	435.00	424.00	429.75	450.75	489.75	534.75	507.50	404.50	439.50	660.50	591.00	516.25	438.75	442.25	412.00	416.00	416.25	415.25	409.50	396.75	393.25	376.75	385.00	379.25	376.75	386.75	449.50	498.25	436.25	461.75	414.50	416.75	429.00	417.50	401.50	394.50	417.50	454.75	467.50	548.00	648.25	596.75	662.75	521.25	413.50	468.50	425.75	463.50	459.75	491.50	584.00	720.50	725.50	684.00	505.50	484.75	484.25	429.00	409.00	419.50	460.75	556.00	544.00	412.00	466.50	419.50	365.25	343.75	331.00	354.50	385.75	344.75	296.00	239.50	254.50	353.75	340.00	351.75	323.00	325.50	322.75	362.50	398.75	468.75	482.25	462.00	599.75	522.50	522.25	505.75	532.50	568.00	550.75	592.50	558.00	553.75	563.75	577.25	604.25	627.25	695.00	725.25	534.50	517.00	497.50	483.75	472.75	462.50	452.75	444.75	436.00	426.50	420.50	416.75	418.50	422.00	423.25	422.25	419.00	419.50	421.75	418.50	419.25	416.75	417.50	413.75	417.25	425.75	434.75	482.50	482.50	481.00	482.75	480.75	481.00	486.50	509.50	510.00	486.50	502.75	507.75	514.50	502.50	493.00	483.00	482.75	492.75	470.25	465.25
558.25	564.75	628.50	669.00	724.75	766.75	757.75	681.00	700.25	622.50	603.50	582.00	583.25	591.25	620.25	608.00	586.00	615.75	646.25	675.25	696.00	697.00	714.75	691.75	678.00	660.00	641.75	658.25	715.50	751.00	787.50	777.75	774.25	811.00	891.25	819.75	784.75	816.75	810.25	798.00	802.25	798.75	815.25	816.25	779.25	713.25	736.50	835.25	744.50	707.50	636.75	580.00	570.00	557.00	562.25	571.00	566.00	575.25	673.25	818.50	801.75	692.75	805.75	769.50	705.25	684.25	613.00	585.25	564.00	547.25	563.25	553.25	537.50	548.50	563.50	562.75	538.50	574.25	641.75	604.00	591.50	701.50	583.50	598.00	584.00	580.00	599.25	620.75	602.75	587.50	570.00	552.00	577.50	612.50	593.75	557.25	526.00	486.50	487.75	505.75	487.00	459.50	440.00	452.00	454.25	436.00	427.25	417.50	424.25	439.25	464.00	542.75	532.25	407.25	389.75	387.75	417.25	491.75	509.75	448.00	421.25	436.00	414.75	414.50	415.00	410.00	408.25	406.75	376.75	370.50	366.75	377.75	425.50	476.75	517.25	447.50	464.00	405.75	422.00	452.25	464.50	431.00	391.00	459.50	542.50	489.75	523.00	481.75	453.25	463.25	451.50	438.75	421.50	497.50	578.75	548.75	594.75	710.00	710.25	656.25	604.50	509.75	454.75	451.25	422.25	405.50	401.50	411.25	437.00	436.00	391.25	376.00	406.00	348.50	328.00	321.75	342.25	357.75	336.00	304.50	266.75	247.25	298.75	337.25	350.75	322.25	336.25	354.25	368.00	371.25	390.75	463.50	442.00	450.50	537.00	526.00	510.25	550.50	569.25	579.75	580.75	561.50	559.50	561.25	571.50	583.25	644.25	663.50	653.75	558.75	535.75	508.25	491.75	478.75	466.25	456.00	445.50	434.75	427.25	420.75	413.25	415.75	418.00	419.00	418.75	416.25	414.50	417.75	414.25	411.25	411.75	413.25	412.75	417.50	422.25	426.75	447.25	459.00	469.25	474.00	483.75	489.50	493.25	490.50	494.50	477.00	482.50	491.25	502.00	497.00	491.75	487.00	487.75	492.25	475.25	510.75
542.50	561.00	652.75	720.75	820.50	817.00	718.75	773.50	797.00	742.25	778.25	620.00	558.00	556.50	555.25	556.50	578.25	596.25	626.75	616.00	633.00	650.50	661.00	681.75	684.75	717.25	698.25	646.50	696.75	683.25	701.75	709.25	721.75	817.25	779.00	751.50	733.50	782.00	803.50	808.75	780.00	773.25	822.50	877.00	853.00	772.00	730.00	706.50	680.00	657.00	630.50	631.00	621.00	529.25	590.50	584.00	542.00	535.75	597.50	681.00	755.50	653.25	695.00	736.00	663.75	628.50	606.25	589.50	568.75	554.75	562.00	577.75	528.75	520.75	554.25	548.25	522.50	533.75	596.50	623.75	608.50	683.25	588.50	551.25	566.50	560.00	585.75	592.75	590.25	577.75	553.25	533.50	547.25	571.50	562.50	544.00	520.25	480.75	486.25	521.25	512.25	472.00	455.00	446.25	461.75	440.75	412.25	401.50	407.75	443.25	512.25	657.50	528.00	386.25	380.25	378.50	388.50	416.25	400.25	388.50	377.50	387.25	417.00	393.25	384.00	377.00	373.25	366.75	362.50	360.50	379.00	383.50	476.00	486.00	439.75	450.00	495.50	396.25	400.00	397.25	415.00	403.25	390.00	430.75	470.50	518.00	466.75	444.00	396.00	395.25	469.50	427.50	422.75	530.75	557.00	659.50	587.00	688.00	746.25	648.00	521.00	450.75	432.50	420.00	425.75	404.00	391.75	392.25	419.50	476.50	404.00	399.50	411.50	325.25	305.50	309.75	324.00	349.00	365.50	331.75	300.50	263.50	265.75	384.00	400.75	310.75	330.75	360.75	390.25	400.00	408.00	396.50	399.50	445.75	510.25	540.75	504.00	518.50	512.25	542.00	540.25	536.25	540.25	543.00	580.00	581.75	623.50	706.00	643.25	593.50	545.00	517.75	501.75	487.75	474.00	461.00	447.00	435.75	426.25	419.75	411.75	413.50	413.75	413.75	414.00	411.75	409.50	414.25	410.50	407.75	407.50	410.50	408.75	415.25	417.75	423.75	435.75	446.00	461.50	463.75	477.00	483.75	487.25	481.00	479.50	471.25	468.75	485.00	500.75	507.25	511.25	503.25	501.75	509.75	486.00	523.25
545.00	532.25	572.00	611.50	675.75	707.00	718.25	747.75	713.75	712.00	697.25	640.75	583.25	560.00	538.25	543.75	551.25	545.25	568.00	600.25	624.25	634.75	629.75	649.25	681.25	647.25	654.00	625.00	618.00	621.00	632.00	652.75	719.25	772.50	661.00	666.25	699.75	782.75	814.50	829.50	809.75	768.75	826.50	877.00	840.75	833.00	800.75	774.50	697.25	672.75	645.50	657.50	641.50	580.00	578.50	600.00	557.50	523.75	533.75	619.25	719.25	612.00	651.50	770.25	706.25	614.50	597.75	584.75	574.00	538.50	539.75	559.00	516.25	514.00	539.00	530.00	504.25	495.50	559.50	600.75	677.00	690.25	571.25	546.75	540.75	564.25	581.00	603.25	642.25	559.25	526.50	548.75	527.50	556.25	546.75	518.25	499.75	474.00	464.25	503.25	495.25	490.00	487.25	457.00	447.75	458.75	441.00	410.00	394.75	408.00	462.50	592.50	476.00	378.50	372.75	368.75	371.50	423.50	417.00	427.50	386.25	385.50	393.25	393.00	382.25	371.25	366.00	359.00	351.00	353.50	357.00	404.00	506.75	519.50	449.25	478.75	487.00	413.75	407.00	392.50	377.25	382.00	409.50	486.00	445.75	406.75	407.50	384.75	393.50	408.00	415.25	403.75	408.75	493.75	486.50	565.00	539.50	630.00	710.25	621.00	487.50	483.25	464.75	439.50	483.75	504.75	421.00	381.00	392.25	454.00	463.50	465.75	435.75	426.25	323.00	307.25	323.00	360.50	407.50	378.50	301.25	309.00	249.00	349.50	399.00	352.75	319.50	377.25	408.50	403.75	412.00	421.75	403.75	414.25	430.00	480.25	485.50	510.75	508.50	520.75	524.25	532.00	546.75	588.00	641.00	686.75	629.00	646.00	643.50	607.75	599.50	526.25	509.00	493.25	477.50	462.75	449.25	435.50	426.25	419.75	409.75	409.25	409.25	409.75	409.50	408.75	405.50	407.50	407.25	405.25	405.75	407.75	409.25	412.25	414.50	420.25	431.75	440.00	452.25	461.00	472.50	479.25	474.50	483.25	472.50	462.50	464.00	475.75	495.00	529.25	547.75	540.75	555.75	510.00	485.00	477.00
550.25	531.75	542.75	584.50	595.25	597.75	659.25	652.75	638.00	612.25	616.75	603.75	573.50	557.75	532.25	525.75	521.75	520.50	606.25	580.00	612.75	579.50	579.25	617.75	673.75	621.75	685.50	623.50	593.50	575.00	611.75	695.50	729.50	652.00	588.00	611.00	723.75	778.00	802.75	812.25	829.00	761.50	748.00	758.75	710.50	806.00	817.50	833.50	740.25	694.25	673.00	676.75	674.75	684.50	529.75	557.75	597.50	573.25	508.75	570.25	639.00	601.25	594.25	709.25	768.50	625.00	597.50	606.00	580.25	546.50	523.75	543.25	516.00	501.00	543.25	536.00	515.25	488.75	475.25	483.75	511.50	497.00	552.00	548.00	516.50	555.50	612.00	632.25	570.75	540.75	514.25	526.75	514.75	538.00	519.75	510.00	488.00	469.00	446.50	469.75	473.00	446.50	449.25	449.75	412.25	432.00	421.50	404.25	383.00	372.00	394.50	414.75	399.00	383.00	364.00	360.75	365.75	443.00	422.75	377.50	366.00	374.00	381.75	374.00	372.50	375.75	365.00	361.00	341.25	338.25	358.50	498.50	521.50	503.25	408.75	460.00	487.75	493.25	410.75	372.25	369.50	372.50	382.00	410.75	412.00	399.50	401.75	368.25	396.25	400.00	401.00	399.00	433.75	451.25	434.25	534.00	512.25	568.50	598.75	539.50	565.50	574.75	475.50	567.25	508.75	548.50	507.50	396.00	400.00	396.75	370.75	361.25	367.75	350.75	361.50	349.50	410.50	405.75	354.25	337.50	324.75	329.75	258.75	242.00	401.75	358.00	305.75	397.25	408.50	408.25	391.75	411.50	415.00	430.25	435.25	456.00	471.25	627.75	533.50	516.75	507.25	510.50	595.00	656.00	723.00	725.00	668.50	636.75	625.75	596.00	654.00	540.75	609.00	527.75	474.75	461.25	451.25	438.75	427.50	420.25	411.00	405.50	405.00	405.50	405.25	405.50	403.75	402.50	402.25	402.75	405.00	405.25	404.75	408.00	411.75	417.50	427.50	434.50	453.50	460.50	466.50	471.00	465.75	472.50	472.50	457.00	454.75	489.00	476.00	527.00	543.75	567.75	536.25	508.50	473.75	465.25
552.75	530.00	542.25	588.25	561.50	542.25	563.25	589.75	571.00	567.50	576.50	555.25	543.25	531.25	543.75	544.50	547.75	515.75	549.25	552.25	556.50	545.25	574.50	570.25	573.50	593.50	606.50	619.75	637.00	600.50	635.50	735.25	711.00	579.00	594.50	661.75	723.75	773.75	851.50	822.50	827.50	810.75	728.75	687.25	679.75	763.75	750.25	762.25	733.50	697.50	674.50	669.50	653.00	667.00	525.50	523.00	547.75	546.50	523.25	514.25	584.50	540.25	570.00	626.50	638.00	608.25	572.50	580.25	571.50	556.25	509.75	530.75	511.50	495.75	538.00	564.00	536.25	516.25	491.25	458.50	465.50	460.75	521.00	550.75	498.75	480.50	496.50	510.25	535.50	519.50	501.75	493.00	499.25	494.50	500.00	475.50	469.00	454.50	439.00	453.00	457.25	440.00	421.25	413.25	412.50	394.75	391.25	398.75	385.50	372.25	386.25	397.00	443.25	401.50	371.75	355.50	357.50	418.25	385.50	357.25	351.00	364.75	385.00	387.00	362.50	378.25	401.25	358.00	331.75	337.50	354.50	420.25	460.25	394.00	369.00	357.00	375.00	399.00	379.25	366.00	370.25	438.25	480.00	394.00	458.50	428.50	448.75	366.75	381.75	378.75	406.00	531.00	656.50	581.50	426.00	462.25	439.75	513.75	589.75	596.00	531.50	505.75	499.50	535.25	518.25	475.75	499.50	423.50	428.25	450.00	427.75	412.00	421.25	382.50	362.25	302.75	388.25	409.25	371.00	393.50	419.75	380.75	375.75	351.50	360.50	339.00	297.00	397.75	402.50	393.25	384.25	421.25	411.00	475.50	463.50	466.50	488.25	549.00	515.75	507.25	495.50	515.75	563.25	574.25	668.50	674.50	641.50	627.00	638.50	623.50	577.25	553.75	681.00	623.25	479.50	467.50	459.25	445.75	431.75	424.25	413.75	407.25	402.50	400.75	400.50	401.00	401.25	397.75	397.50	399.75	401.25	401.25	401.75	405.00	410.50	415.50	424.75	430.75	443.75	450.25	457.50	453.50	457.25	461.50	464.50	457.25	448.25	447.25	465.75	525.25	488.25	493.50	458.00	463.25	467.75	465.75
546.75	526.00	544.25	569.25	542.00	528.25	538.00	542.25	544.50	543.25	530.75	524.75	517.50	518.50	537.75	530.50	537.25	523.50	511.25	540.25	524.25	512.50	561.50	552.25	552.00	583.00	571.25	584.00	648.50	604.25	576.25	574.25	556.50	557.25	649.25	673.25	719.25	765.00	865.25	877.75	888.00	848.50	727.25	658.00	674.00	700.25	714.50	737.25	735.50	700.00	687.50	691.00	649.50	654.75	561.50	501.75	516.75	494.75	510.75	479.25	515.50	520.00	568.50	597.50	614.25	572.25	561.00	574.75	576.25	565.00	496.00	512.50	503.50	495.00	537.50	582.75	543.50	529.25	498.75	469.00	451.00	424.75	446.00	486.75	457.75	467.00	487.25	492.50	509.00	505.75	490.00	478.00	492.25	480.75	480.25	465.25	451.00	441.25	428.00	451.75	453.50	438.75	423.25	403.50	407.00	393.75	378.75	382.00	401.50	386.00	360.50	400.25	434.50	427.50	384.00	358.75	357.25	444.00	427.25	377.25	344.25	345.25	399.25	388.75	357.50	369.25	390.75	347.75	331.75	347.25	355.50	383.50	399.00	370.00	429.25	344.25	346.50	355.50	364.75	360.75	360.50	459.75	495.50	389.50	456.25	415.25	447.00	378.50	375.00	380.75	454.50	566.00	627.00	537.00	422.75	465.25	414.00	427.00	512.00	562.00	506.00	511.75	496.25	505.25	539.25	519.25	448.50	426.25	429.50	454.50	483.25	438.75	514.00	492.00	381.50	279.75	327.50	402.25	408.50	426.75	442.00	445.00	478.00	441.50	272.25	332.50	270.00	366.25	387.50	382.50	381.00	436.25	413.75	525.25	475.25	475.25	502.25	490.25	499.50	492.50	489.75	513.25	533.75	544.00	636.00	658.00	593.25	614.00	616.00	632.00	580.25	565.25	659.00	592.50	485.25	471.25	460.75	448.50	434.50	427.25	415.75	409.50	401.75	398.25	397.75	399.00	398.25	394.75	396.00	398.00	399.75	399.25	399.00	403.75	410.25	415.00	423.25	429.00	439.00	444.25	452.75	447.00	450.00	454.50	460.00	461.00	448.50	436.00	472.75	569.25	496.75	451.75	447.50	455.50	469.50	468.75
532.25	515.50	515.50	522.50	514.25	517.25	524.75	510.75	508.00	506.00	496.50	491.75	489.50	489.25	488.00	489.50	498.75	503.25	486.00	483.00	496.50	495.00	526.00	507.25	523.00	535.00	538.00	567.00	625.25	574.25	550.50	513.25	485.75	537.25	685.75	728.50	790.75	775.00	812.25	899.50	885.75	889.25	817.50	638.75	691.50	702.00	693.75	733.75	760.75	715.25	688.25	732.00	722.75	738.75	607.25	546.25	521.25	479.00	458.50	489.00	572.75	572.00	571.75	583.25	583.25	550.00	541.00	561.50	577.50	587.75	503.50	491.25	480.25	485.25	481.25	514.75	539.25	527.50	496.50	468.25	454.25	436.25	438.00	441.75	449.00	493.50	504.75	523.75	512.00	505.00	501.25	475.50	483.25	484.25	461.25	449.50	438.00	434.00	422.75	453.25	455.75	429.50	424.50	404.75	388.25	383.25	363.75	364.25	350.75	353.25	345.50	393.00	450.00	498.75	434.75	371.00	367.50	414.25	477.25	506.25	444.25	340.75	345.75	347.00	359.25	378.75	384.75	334.00	344.25	353.50	362.50	366.75	424.00	465.00	473.00	325.50	331.50	351.75	359.25	362.00	357.50	367.50	375.50	377.25	390.50	403.50	374.50	407.00	357.25	403.00	572.75	561.50	506.50	538.00	457.00	406.50	451.50	378.00	383.25	466.75	485.75	496.50	520.00	512.50	504.50	547.75	497.25	455.25	458.75	461.75	493.50	454.25	433.75	475.00	413.75	298.25	386.50	439.75	454.25	443.25	492.50	456.00	488.00	475.75	250.75	299.25	313.00	324.75	336.00	360.75	351.50	421.50	425.50	485.50	487.25	490.75	514.00	507.25	513.50	482.75	497.75	510.25	527.25	529.25	573.50	617.75	591.50	635.25	611.50	667.25	683.25	612.25	655.50	625.00	520.50	480.75	468.75	455.00	441.50	432.75	421.50	414.00	405.25	397.50	395.75	396.50	394.75	392.00	392.75	395.00	395.00	395.00	395.75	400.25	406.00	412.25	419.25	423.25	430.50	434.75	439.25	437.25	437.50	443.25	448.50	458.50	453.25	436.25	430.50	437.75	437.00	431.75	440.00	453.75	466.50	456.25
499.25	477.50	485.50	496.25	504.00	512.75	520.75	501.25	492.25	482.25	473.75	469.50	468.50	459.50	450.50	452.50	449.00	451.00	444.25	451.50	457.50	482.25	514.00	507.00	495.75	517.00	538.50	557.50	590.25	568.75	560.50	564.50	559.50	515.00	655.00	726.25	797.25	725.75	751.75	859.25	832.75	814.75	742.75	631.25	623.75	655.00	678.00	743.25	762.75	706.50	655.00	626.50	812.75	840.00	619.50	682.75	662.25	615.00	470.25	484.50	726.00	564.00	565.25	538.00	541.00	528.75	542.25	555.25	552.75	550.25	514.75	488.50	465.75	467.25	458.00	474.50	498.00	473.75	459.25	462.00	447.25	421.00	406.00	405.00	451.00	522.25	474.00	481.75	508.25	494.50	480.00	481.50	464.25	460.00	466.25	444.00	426.00	416.50	413.00	427.25	446.50	416.50	405.25	407.50	392.50	374.25	361.00	344.50	335.50	323.25	351.00	354.50	422.25	458.75	435.25	395.25	356.00	346.50	389.25	436.00	482.00	414.50	355.75	402.25	462.75	426.25	393.75	326.00	360.50	354.25	383.00	385.25	485.25	521.50	459.50	318.00	352.00	383.25	363.25	370.00	347.25	391.75	399.00	377.25	380.75	409.00	330.50	376.50	392.25	543.00	534.25	516.75	540.50	550.25	619.50	505.25	392.00	377.00	360.75	403.75	427.50	475.00	532.00	534.00	543.50	540.50	487.00	464.75	502.50	544.00	484.50	449.50	352.75	450.25	450.75	260.75	331.50	475.75	500.25	444.75	381.50	397.00	421.50	425.75	223.25	243.25	351.75	298.50	322.00	316.25	332.50	414.75	435.25	477.25	468.25	479.75	473.75	475.50	464.50	461.00	488.50	580.50	508.75	506.50	535.00	563.75	605.50	608.25	619.00	778.75	799.50	633.50	606.50	688.75	707.50	576.00	482.50	465.25	449.75	441.00	429.50	422.25	411.75	403.50	396.75	392.50	392.50	389.25	388.75	391.00	391.50	392.25	394.00	398.75	404.25	409.00	414.75	418.75	424.75	427.75	431.50	425.75	427.50	430.25	442.50	446.25	453.00	447.25	437.25	420.25	419.00	435.50	432.75	463.00	569.75	547.75
488.75	496.00	512.25	528.00	535.00	536.25	539.00	521.75	507.25	493.25	481.75	467.75	450.25	444.50	435.00	429.75	421.00	434.75	450.00	450.25	436.75	436.00	441.75	456.75	461.50	541.75	518.75	543.00	569.50	635.75	746.00	574.50	604.25	490.25	544.75	611.00	711.50	613.50	653.50	679.75	740.75	692.25	685.25	653.00	601.25	641.75	679.50	709.75	730.50	677.50	608.00	633.75	587.50	619.75	655.50	599.50	565.50	555.50	464.00	430.25	459.50	498.50	489.75	473.00	481.00	502.25	524.75	538.75	566.00	556.75	524.50	516.25	503.25	463.75	451.25	469.00	485.75	481.25	453.50	431.25	459.75	418.25	404.25	386.50	411.25	416.50	447.50	475.25	502.50	494.75	477.00	453.00	450.25	438.00	439.25	442.75	435.00	442.50	404.25	416.25	430.75	415.75	416.00	408.25	395.75	366.50	344.25	329.75	327.00	318.75	326.25	331.75	345.75	357.50	355.00	352.25	346.50	343.25	326.00	358.25	387.75	373.50	374.25	352.00	338.00	331.75	325.25	331.25	355.75	384.25	400.75	411.75	390.75	416.00	404.50	355.25	405.25	391.75	393.00	360.75	386.75	496.00	598.75	502.75	347.00	447.75	349.00	349.75	403.00	506.25	453.00	458.75	571.50	686.25	656.00	462.25	507.00	417.25	352.25	372.50	396.75	430.75	528.25	590.50	563.50	600.25	622.00	696.25	535.00	429.75	433.75	433.75	380.50	307.75	320.25	240.75	317.50	424.25	513.50	446.75	439.50	434.00	356.25	325.50	248.00	218.50	347.50	270.00	298.00	319.25	329.25	388.75	393.50	447.75	450.50	451.25	435.25	457.25	470.25	484.50	499.75	647.00	504.25	527.00	521.25	535.25	591.75	623.75	836.25	969.00	837.75	619.25	636.00	875.50	956.25	808.50	581.50	483.25	462.00	454.75	442.25	435.25	424.75	413.75	405.00	398.50	392.50	386.25	385.00	385.50	386.00	386.75	390.75	395.25	399.00	402.75	406.50	408.50	416.25	423.50	420.00	417.50	413.25	416.25	425.25	436.75	436.25	440.25	445.50	413.50	411.00	415.25	422.75	505.00	544.75	624.50
535.25	551.25	537.50	550.50	562.75	569.25	571.00	549.00	521.25	506.50	494.25	480.75	463.75	451.75	435.75	425.00	404.00	415.25	427.75	429.25	427.25	421.75	419.25	428.00	437.00	472.75	482.00	533.25	565.00	717.50	811.50	550.50	571.75	539.00	483.50	521.00	560.75	563.00	673.00	654.25	750.50	769.75	667.75	556.00	518.00	549.75	559.50	686.75	810.25	675.75	551.50	577.00	609.00	546.25	579.75	567.75	560.75	576.00	528.25	432.00	400.75	436.25	459.50	461.75	475.25	503.50	513.50	529.25	552.00	542.00	526.25	520.00	492.00	465.50	436.25	446.50	470.75	505.00	470.00	437.75	419.25	403.50	407.50	398.50	379.50	387.00	439.75	485.00	465.00	461.25	482.50	453.75	440.50	425.50	427.00	425.25	428.75	449.25	430.00	406.00	436.00	440.75	463.25	467.75	448.75	414.50	396.25	335.50	318.00	317.00	317.00	319.00	318.50	317.75	318.25	317.75	318.00	317.00	317.00	317.25	319.50	318.00	318.00	317.00	317.00	317.00	328.25	344.50	404.25	383.50	418.25	370.75	414.75	357.00	357.00	317.50	334.50	332.50	337.75	337.00	445.75	671.50	741.75	532.50	329.25	360.50	318.00	319.75	507.00	502.75	435.25	525.00	511.50	516.75	534.25	390.75	424.00	348.75	330.75	450.50	512.00	601.50	684.00	711.00	734.75	651.75	608.75	658.50	622.25	469.25	460.25	396.00	332.75	286.25	262.50	245.25	285.25	413.00	547.75	560.75	574.50	590.25	390.25	325.50	291.25	210.25	242.75	259.25	321.00	333.75	341.00	375.00	382.75	430.00	449.75	432.00	420.50	452.50	516.25	501.00	530.25	500.75	492.50	526.75	519.50	504.00	622.25	755.25	691.50	786.75	617.25	564.00	681.25	1000.75	1186.50	1127.00	802.50	510.75	475.50	468.25	454.50	446.25	433.25	421.25	412.75	406.00	398.00	386.25	382.25	382.25	382.75	383.50	386.50	392.50	396.00	397.75	400.50	403.75	416.75	425.00	418.50	412.50	407.25	408.00	410.25	418.00	422.00	422.25	430.75	417.25	405.00	399.00	410.00	437.75	470.00	545.75
582.75	563.25	569.00	576.75	589.00	597.25	596.50	574.50	548.25	532.25	508.25	489.50	472.00	459.75	443.50	435.25	412.00	398.75	413.00	412.75	405.50	415.50	408.75	415.00	417.50	438.25	446.00	517.50	581.50	547.75	533.25	502.00	494.25	449.50	468.50	447.75	477.50	537.75	649.00	637.75	719.25	814.50	753.75	689.50	536.00	506.25	617.00	832.75	1005.50	799.00	537.25	532.75	531.75	522.25	492.50	537.25	557.50	492.75	467.25	407.75	384.50	411.00	420.75	487.00	497.00	521.25	536.25	547.00	545.00	519.00	489.50	483.25	472.25	462.75	430.50	428.75	458.00	478.25	474.50	438.75	419.00	393.50	390.75	395.00	396.00	379.25	406.00	449.50	425.00	444.75	455.50	469.75	472.25	432.50	409.50	409.50	408.50	415.25	412.00	374.50	397.00	423.75	431.25	451.50	415.50	398.75	383.00	354.00	321.75	317.00	317.00	317.00	317.00	317.00	317.00	317.00	317.00	317.00	317.00	317.00	317.00	317.00	317.00	317.00	317.00	317.00	317.00	318.00	340.00	329.25	344.00	327.75	341.75	411.25	402.75	344.00	326.75	321.50	333.75	387.50	414.50	588.50	629.25	560.50	325.25	328.50	323.50	338.25	474.00	436.50	405.25	456.50	439.75	379.00	367.25	357.00	376.75	397.50	384.00	478.25	550.25	613.50	665.25	565.50	439.25	443.75	425.25	387.00	568.50	607.75	473.75	463.50	331.00	291.50	284.00	220.50	221.50	329.75	470.00	512.50	556.25	475.75	442.75	398.00	296.25	206.00	245.75	278.25	324.75	364.25	352.25	359.75	377.25	379.00	439.75	425.50	419.50	453.50	483.50	544.50	523.50	469.50	464.00	485.75	512.75	503.00	567.50	663.00	698.75	636.25	612.25	659.50	791.00	881.25	1024.00	929.75	785.25	593.50	490.75	480.00	467.75	457.25	444.75	430.50	421.50	412.00	403.50	389.50	381.25	380.75	380.25	380.50	385.00	390.00	393.75	391.75	395.75	400.75	412.00	419.50	418.00	411.25	403.00	398.50	401.50	409.50	410.75	404.50	412.25	414.00	406.75	395.50	399.75	422.25	464.75	498.00
591.75	608.00	585.00	600.75	615.00	618.25	617.00	605.25	588.25	550.75	526.75	497.00	474.75	459.00	442.50	433.25	417.00	402.00	396.25	408.00	395.00	392.25	396.50	401.50	398.25	407.00	417.00	428.00	460.50	584.00	676.50	625.00	426.75	401.25	455.50	424.25	434.75	460.75	631.25	678.50	596.25	631.50	649.00	755.75	606.75	514.00	756.75	880.25	795.25	664.25	510.00	539.50	472.25	482.50	465.50	521.00	524.50	474.00	448.25	406.50	385.75	393.00	407.75	454.25	463.00	517.25	529.25	551.50	533.50	520.75	477.25	459.75	449.50	436.25	441.50	414.00	454.50	463.25	459.25	445.00	412.25	387.25	370.75	375.50	384.50	362.00	366.50	396.75	472.00	493.25	476.00	471.00	443.25	423.25	401.25	383.50	389.75	392.75	387.25	371.25	351.50	379.00	386.50	412.50	397.75	378.00	363.00	321.50	317.00	317.00	317.00	317.00	317.00	317.00	317.00	317.00	317.00	317.00	317.00	317.00	317.00	317.00	317.00	317.00	317.00	317.00	317.00	317.00	317.00	317.00	317.00	317.00	317.25	322.25	319.50	320.50	318.50	319.00	321.50	328.25	330.00	382.75	442.00	410.50	317.00	317.00	317.00	333.25	374.25	318.75	326.25	317.75	372.75	364.25	523.50	585.25	378.25	481.75	550.75	622.25	634.25	708.75	720.00	523.25	518.50	664.50	571.75	483.50	321.25	280.75	274.50	240.25	243.50	335.75	261.00	217.50	206.50	242.50	308.50	437.50	408.50	404.25	438.25	370.75	286.75	214.50	226.50	265.50	324.75	326.25	344.00	343.50	364.00	344.75	401.25	385.75	427.50	444.00	498.75	526.50	498.25	471.00	444.50	457.00	475.25	492.50	507.75	507.00	492.25	507.75	586.00	591.50	814.75	756.25	712.75	781.25	766.00	691.75	500.75	489.75	480.75	468.25	451.50	437.75	429.00	417.75	409.00	395.50	384.25	378.75	377.50	380.00	381.50	387.50	388.75	388.25	392.50	395.50	405.00	417.00	422.50	419.50	411.00	395.75	392.75	402.50	405.25	392.50	399.50	401.75	400.00	385.50	387.50	414.50	442.25	448.25
640.25	661.50	641.25	622.25	633.25	626.75	628.00	606.00	593.75	567.50	539.75	507.50	481.00	463.75	441.50	432.50	414.25	400.25	385.50	391.25	390.75	384.75	387.00	392.75	385.50	391.25	393.50	390.00	389.75	427.25	497.50	598.75	494.00	425.00	402.25	389.50	400.75	408.75	481.25	503.00	435.75	453.00	470.75	481.50	484.25	497.25	550.75	547.00	522.75	506.50	483.50	479.00	465.50	447.75	462.50	459.25	445.75	448.25	435.50	419.00	418.25	393.00	410.75	455.50	477.75	501.50	505.50	492.50	475.50	514.25	477.00	456.00	433.75	420.75	415.25	403.00	414.75	438.00	442.25	459.25	424.75	469.00	447.50	356.00	349.00	341.25	365.25	448.25	474.25	496.00	497.50	467.00	430.00	406.25	396.00	379.75	366.25	364.00	360.25	359.50	355.25	346.00	350.50	359.00	378.75	354.75	336.00	317.00	317.00	317.00	317.00	317.00	317.00	317.00	317.00	317.00	317.00	317.00	317.00	317.00	317.00	317.00	317.00	317.00	317.00	317.00	317.00	317.00	317.00	317.00	317.00	317.00	317.00	320.25	324.25	337.50	333.50	323.50	320.25	317.00	321.00	325.25	331.75	355.25	374.75	336.25	349.75	379.25	383.00	361.50	380.25	334.00	399.75	446.25	510.50	547.75	606.75	469.75	709.00	704.25	591.75	447.00	403.75	476.75	845.00	912.75	843.25	773.00	736.50	512.50	287.50	344.50	368.75	297.75	366.00	353.25	327.25	270.25	218.00	232.75	301.75	299.50	419.00	335.50	272.50	225.75	190.25	221.25	240.25	311.00	331.25	354.25	358.00	326.75	327.00	398.25	441.25	454.25	478.25	516.00	468.50	456.50	438.50	458.50	490.00	500.25	483.25	498.25	459.00	468.75	486.50	516.75	566.75	582.75	571.00	558.25	596.50	671.00	512.50	495.25	480.50	474.25	459.00	453.00	438.00	426.75	419.50	400.50	388.50	380.00	374.25	375.75	378.25	383.00	383.75	387.50	390.75	395.75	409.50	418.25	429.00	422.00	413.25	403.00	389.25	390.00	397.25	390.00	398.00	394.50	395.50	391.75	377.00	396.75	421.50	437.50
584.75	638.00	646.75	647.50	636.75	617.25	603.00	593.00	583.75	591.00	556.75	523.75	498.50	477.00	449.50	431.50	415.00	402.75	381.00	378.50	381.75	378.25	376.75	379.25	379.25	376.75	382.75	374.50	365.75	371.50	396.25	471.75	569.50	484.25	402.75	483.25	381.75	376.75	377.75	375.75	376.00	366.25	365.50	367.00	376.50	401.50	424.25	406.75	421.50	430.00	442.75	440.75	408.00	395.75	386.50	396.50	382.25	372.50	370.75	404.50	429.00	394.50	419.25	460.75	509.25	538.50	518.75	476.25	442.75	463.00	455.50	447.50	425.25	420.50	398.75	399.50	395.00	414.25	416.50	417.00	413.00	468.75	507.75	377.00	330.75	326.50	351.00	374.75	403.25	430.50	457.25	441.00	425.25	410.25	392.50	371.50	350.00	343.00	338.75	336.75	335.50	323.25	321.75	317.25	330.00	323.75	317.00	317.00	317.00	317.00	317.00	317.00	317.00	317.00	317.00	317.00	317.00	317.00	317.00	317.00	317.00	317.00	317.00	317.00	317.00	317.00	317.00	317.00	317.00	317.00	317.00	317.00	317.00	320.25	317.25	331.50	329.00	328.00	326.00	318.75	322.75	368.25	395.25	421.00	434.00	360.75	336.50	384.25	396.75	374.75	350.75	336.75	367.50	455.25	472.25	499.25	614.50	489.50	403.00	398.25	354.00	542.50	708.50	750.75	879.25	931.50	915.00	914.00	908.25	675.25	439.25	389.50	448.50	374.50	484.00	646.00	568.25	485.25	336.00	279.00	226.50	197.75	209.50	217.50	210.75	191.75	175.50	179.75	294.50	248.00	262.50	328.50	330.50	331.00	299.00	360.00	472.75	485.25	474.50	547.25	452.25	430.75	457.75	431.00	454.00	650.50	566.25	429.75	429.00	446.25	447.75	484.50	507.50	507.75	516.25	501.25	521.25	536.00	508.50	496.50	486.25	479.25	459.75	444.50	438.50	432.00	425.25	407.00	396.00	383.50	375.00	372.75	375.00	379.00	387.75	395.00	399.00	402.25	415.00	417.25	419.50	414.50	405.00	393.50	384.25	380.00	384.75	389.25	392.75	391.25	385.50	388.25	378.75	378.50	397.00	410.25
569.50	626.00	601.00	614.50	599.25	600.25	594.00	566.00	556.00	557.50	554.75	535.50	510.50	484.25	461.25	441.50	417.00	408.00	389.00	374.75	376.00	374.75	369.75	371.50	369.50	369.50	372.75	375.50	364.00	352.75	362.75	402.25	431.00	362.25	338.75	361.25	357.75	357.50	350.50	350.00	352.25	347.75	345.25	350.50	358.25	366.50	381.50	367.25	371.00	386.50	405.00	401.75	370.50	360.25	356.25	360.00	355.25	349.75	347.75	356.25	433.25	374.50	411.25	520.50	567.75	554.75	563.50	489.75	423.75	427.00	442.75	444.00	438.50	450.00	401.25	378.75	381.50	392.75	390.50	389.25	387.25	396.75	376.25	366.25	330.50	318.25	336.50	356.00	362.25	396.25	450.00	448.25	413.50	395.75	383.00	383.00	368.25	330.75	320.75	320.25	321.00	317.00	317.00	317.00	317.00	317.00	317.00	317.00	317.00	317.00	317.00	317.00	317.00	317.00	317.00	317.00	317.00	317.00	317.00	317.00	317.00	317.00	317.00	317.00	317.00	317.00	317.00	317.00	317.00	317.00	317.00	317.00	317.00	344.00	348.50	338.25	342.25	370.00	352.75	341.25	334.00	355.00	382.25	377.50	415.00	406.75	367.75	344.75	401.50	377.50	389.25	464.50	462.75	518.50	543.00	494.00	594.25	598.75	331.25	442.25	667.50	701.50	764.00	850.75	872.50	866.50	893.75	936.25	902.25	729.00	516.75	550.25	524.00	396.75	453.25	461.00	511.00	571.75	611.00	495.00	498.25	365.75	380.00	290.00	356.25	345.75	248.75	208.75	221.75	254.75	266.75	343.00	346.25	322.50	292.50	424.75	532.00	472.50	478.25	492.75	474.75	477.00	446.50	427.00	475.75	623.25	585.00	432.25	423.75	434.00	432.00	454.75	509.25	478.00	479.25	480.00	499.50	530.25	508.50	493.50	479.50	473.00	461.50	448.75	437.00	426.75	416.50	403.75	396.00	386.25	377.75	372.50	378.25	387.75	402.00	406.25	410.25	413.00	405.25	407.50	410.25	408.75	406.75	403.00	396.00	383.75	379.00	376.50	381.00	383.50	385.00	375.50	374.75	378.00	388.25	396.75
539.00	576.50	540.75	544.00	554.50	577.50	578.75	558.50	536.75	533.00	548.75	543.00	515.50	492.50	466.25	448.50	433.50	419.00	392.75	379.25	371.75	364.75	364.50	363.00	360.75	365.25	374.50	391.50	369.50	351.75	366.25	372.75	364.50	352.25	324.75	321.50	339.00	338.25	331.50	325.00	333.00	329.00	335.75	344.25	343.25	357.00	350.50	348.50	348.75	352.25	367.75	364.50	346.50	342.75	343.25	344.75	338.25	331.00	330.75	331.00	361.50	385.75	388.25	467.00	477.25	495.00	537.25	497.75	429.00	395.50	433.00	480.00	476.75	453.75	401.50	373.00	366.00	372.75	368.50	370.75	355.00	360.25	383.00	343.75	352.75	329.75	317.00	318.75	329.50	355.00	439.25	500.75	418.00	387.00	366.25	384.75	412.25	360.00	324.25	331.50	345.25	343.50	318.25	317.00	317.00	317.00	317.00	317.00	317.00	317.00	317.00	317.00	317.00	317.00	317.00	317.00	317.00	317.00	317.00	317.00	317.00	317.00	317.00	317.00	317.00	317.00	317.00	317.00	317.00	317.00	317.00	317.00	317.00	327.75	344.75	370.50	371.25	384.50	376.25	346.00	349.25	342.25	350.75	385.75	387.00	390.00	363.00	371.25	407.50	388.00	437.25	480.25	545.00	553.75	567.75	535.50	566.50	413.75	352.00	417.00	640.75	814.00	784.25	914.75	868.25	851.00	860.50	900.25	902.25	745.00	660.75	591.50	545.50	548.75	564.50	428.50	454.50	510.25	668.75	749.75	684.00	495.50	427.50	504.00	558.75	533.00	377.00	293.50	193.75	203.00	277.25	277.75	330.75	326.75	288.25	535.50	538.75	450.75	448.25	512.00	488.00	554.25	410.50	406.75	533.50	526.25	456.25	418.75	405.50	421.75	420.25	427.75	439.50	442.50	456.00	476.50	493.25	536.50	530.00	501.00	491.50	486.00	473.75	458.25	449.25	433.25	420.00	399.25	388.00	377.25	376.75	371.75	385.75	408.25	407.50	395.50	407.25	410.25	397.25	398.00	410.25	398.00	396.00	410.75	406.25	399.75	382.50	363.25	365.00	368.50	372.25	369.25	372.25	365.75	376.75	387.75
483.50	501.75	505.75	518.00	538.25	570.25	561.50	556.50	523.75	516.50	533.25	536.75	522.50	508.25	480.75	463.50	450.25	430.00	396.75	380.00	367.00	355.00	356.50	353.75	361.00	370.50	368.00	370.25	373.25	356.00	348.75	358.75	362.25	345.00	319.50	318.25	329.75	324.25	323.00	324.50	317.00	318.75	319.75	333.75	325.25	343.25	340.75	334.50	334.50	338.75	351.00	349.75	333.25	325.25	328.50	325.50	324.75	318.00	319.00	321.00	334.75	365.00	365.75	349.50	358.25	378.50	407.00	443.50	435.25	374.50	425.00	520.00	472.00	551.75	438.25	342.50	335.75	343.25	342.75	351.75	335.25	348.50	338.00	322.00	326.50	322.00	318.75	317.25	317.00	320.75	459.00	555.50	441.75	348.00	352.00	347.50	362.25	347.50	337.00	322.25	333.00	361.25	340.75	340.00	352.25	328.25	317.00	318.00	317.00	317.00	317.00	317.00	317.50	320.25	317.50	317.00	317.00	317.00	317.00	317.00	317.00	317.00	317.00	317.00	317.00	317.00	317.00	317.00	317.00	317.00	317.00	317.00	317.00	317.00	317.00	343.75	343.00	360.50	367.50	357.75	335.25	332.50	328.50	346.25	366.00	374.25	381.75	398.50	426.50	428.25	436.25	496.50	484.25	483.75	581.75	570.25	645.25	556.75	424.75	361.50	349.25	437.50	754.50	749.00	903.50	934.00	906.00	882.50	906.00	741.75	583.75	513.50	503.75	478.00	486.50	508.00	526.25	651.25	692.50	799.50	757.00	686.25	507.00	582.50	509.00	461.25	339.75	266.25	202.25	180.75	244.00	326.50	329.00	290.00	317.75	557.00	471.50	431.50	424.00	497.50	504.00	577.00	460.50	409.50	414.25	401.50	419.75	422.25	403.50	409.25	412.25	419.25	434.50	446.00	454.50	465.00	487.50	511.00	527.75	496.75	485.50	480.25	477.00	463.50	454.00	435.75	420.25	399.50	385.25	370.50	367.75	372.00	388.75	399.75	394.25	387.00	396.00	403.00	392.25	388.75	400.75	399.00	389.50	398.50	398.00	386.25	380.25	368.00	356.50	361.25	371.50	367.50	364.25	362.75	372.25	382.25
467.75	521.50	479.25	521.50	554.00	543.25	552.25	526.75	519.50	506.50	520.25	522.50	517.25	507.00	493.25	482.75	455.50	435.25	405.00	380.75	363.25	350.50	350.00	349.00	357.50	365.50	361.75	355.25	349.50	355.75	340.50	342.50	350.25	349.75	320.25	317.00	321.50	317.75	317.50	317.75	317.00	317.00	318.25	322.00	317.75	323.00	329.50	324.75	329.75	323.00	325.25	331.50	318.75	317.00	317.00	317.00	317.00	317.00	317.25	322.50	331.75	329.75	323.00	336.00	332.75	337.50	334.50	336.25	334.25	343.75	445.00	457.50	363.00	364.25	357.25	323.25	319.75	318.75	318.00	322.50	324.50	336.75	319.50	317.00	317.00	317.00	317.00	317.00	317.00	317.00	322.50	441.25	448.75	347.75	347.50	343.25	324.50	320.50	317.00	317.00	319.50	322.50	323.75	335.50	352.25	338.75	317.00	423.50	443.00	348.00	317.00	317.00	335.50	317.75	317.00	317.00	317.00	317.00	317.00	317.00	317.00	317.00	317.00	317.00	317.00	317.00	317.00	317.00	317.00	317.00	317.00	317.00	317.00	317.00	317.00	317.00	317.00	325.00	354.25	380.50	374.00	327.25	324.50	338.25	353.75	360.25	383.50	409.00	409.75	420.25	428.75	465.00	494.00	501.50	514.25	473.75	544.50	709.50	638.25	404.25	390.50	353.50	628.00	724.25	841.00	896.25	884.50	843.25	858.00	675.75	539.50	515.50	496.25	470.50	491.25	624.50	609.50	625.00	660.75	618.25	614.75	563.00	492.00	470.50	504.50	512.00	472.75	333.50	260.25	186.75	181.75	291.25	353.75	241.25	340.00	507.25	428.75	416.50	407.00	437.00	420.25	516.00	459.50	417.00	378.50	380.25	394.25	422.75	417.25	397.25	399.50	412.50	426.00	448.75	457.50	479.75	496.75	523.25	517.75	484.75	475.00	465.50	465.25	453.50	447.50	434.25	421.75	397.50	380.50	364.00	369.00	382.50	379.25	381.00	383.00	390.25	400.00	408.25	399.50	387.50	382.75	383.75	377.75	379.00	383.25	384.00	371.25	363.50	356.50	347.00	357.50	363.75	352.75	354.75	362.25	369.50
453.25	441.25	437.75	478.75	510.50	516.50	541.75	497.00	494.50	476.75	500.00	491.75	490.00	481.00	466.00	462.75	444.25	427.00	402.25	380.00	356.50	343.25	339.00	341.50	343.25	347.75	351.00	343.00	343.25	334.75	339.25	345.00	333.25	335.25	327.00	317.75	320.50	317.00	317.00	317.00	317.00	317.00	317.25	317.75	317.00	317.25	319.00	317.25	317.00	317.00	317.00	318.25	317.00	317.00	317.00	317.00	317.00	317.00	317.25	319.00	323.50	320.25	319.00	330.00	333.75	322.75	319.50	317.50	318.50	322.25	318.25	317.25	317.25	317.00	317.00	317.00	317.00	317.00	317.00	317.00	317.00	317.00	317.00	317.00	317.00	317.00	317.00	317.00	317.00	317.00	317.00	317.25	320.50	323.75	328.00	337.25	319.25	317.00	317.00	317.00	317.00	317.00	317.00	317.25	317.50	318.75	317.00	418.00	398.25	365.00	318.00	331.00	418.50	384.50	338.50	361.25	340.75	317.00	317.00	317.00	317.00	317.00	317.00	317.00	317.00	317.00	317.00	317.00	317.00	317.00	317.00	317.00	317.25	317.25	317.25	322.00	323.75	329.25	341.50	356.00	360.00	336.25	328.00	334.25	354.50	359.50	387.00	422.50	420.25	458.75	541.00	582.50	604.00	698.25	623.75	489.50	418.50	451.25	485.50	458.25	450.25	401.75	463.00	538.50	594.50	591.75	602.75	644.50	640.00	557.75	523.00	510.75	496.25	482.50	502.25	602.50	546.50	537.75	554.50	587.00	591.25	592.00	543.25	500.75	518.25	598.00	484.25	429.00	372.00	281.50	198.50	267.50	301.00	225.50	250.25	354.25	365.00	362.25	380.25	374.00	417.50	477.50	483.50	426.75	373.25	362.00	387.00	402.75	391.00	386.25	400.75	418.25	431.75	474.50	500.25	483.50	494.75	519.25	481.75	470.00	462.25	451.75	453.25	450.50	429.75	424.00	425.50	405.00	395.50	371.00	362.50	364.00	375.00	388.00	387.75	391.25	402.00	405.75	396.25	389.75	382.50	382.25	377.25	371.25	368.00	367.00	366.00	361.75	355.25	340.50	343.25	357.00	354.75	348.00	353.00	362.50
382.00	354.25	379.00	418.50	463.75	456.75	468.75	472.00	460.00	445.25	459.25	454.00	457.50	477.75	446.00	432.50	410.75	403.25	381.50	366.50	355.75	345.00	334.00	329.75	330.25	331.75	335.25	335.25	327.25	326.00	321.00	343.75	346.00	325.50	317.50	317.00	321.25	318.00	317.00	317.00	317.00	317.00	317.00	317.00	317.00	317.00	317.50	318.50	317.50	317.00	317.00	317.00	317.00	317.00	317.00	317.00	317.00	317.00	317.00	318.50	319.00	320.75	322.00	331.25	326.25	319.50	317.00	317.00	317.00	317.00	317.00	317.00	317.00	317.00	317.00	317.00	317.00	317.00	317.00	317.00	317.00	317.00	317.00	317.00	317.00	317.00	317.00	317.00	317.00	317.00	317.00	317.00	317.00	317.00	317.00	317.00	317.00	317.00	317.00	317.00	317.00	317.00	317.00	317.00	317.00	317.00	317.50	317.00	317.50	319.25	360.25	394.50	402.50	384.50	326.75	319.75	325.25	317.00	317.00	317.00	317.00	317.00	317.00	317.00	317.00	317.00	317.00	317.00	317.00	317.00	317.00	317.00	318.50	320.25	325.50	335.75	337.50	340.75	343.00	345.00	339.25	335.50	335.00	333.00	344.75	349.50	396.25	423.00	457.25	485.25	518.00	547.75	543.75	736.25	614.00	459.00	419.75	407.75	415.50	474.25	638.25	657.00	635.50	488.75	558.00	562.25	604.50	509.75	470.50	475.25	492.25	500.50	500.00	495.50	497.75	531.25	505.75	520.00	566.25	693.50	646.75	604.75	551.50	509.00	482.75	579.00	478.25	366.75	358.75	336.25	231.50	229.00	205.75	246.50	211.25	290.00	415.50	406.00	362.50	347.50	387.50	429.50	430.75	418.75	383.50	354.00	356.25	370.25	369.50	378.00	390.50	434.50	457.50	446.75	467.00	473.75	486.75	479.00	468.25	459.25	447.25	439.00	435.00	440.00	427.75	411.75	404.25	387.50	377.00	372.75	356.75	373.25	386.25	408.50	409.25	407.00	412.00	412.50	401.25	399.75	400.50	414.50	393.75	376.00	366.00	357.00	354.25	363.00	357.25	342.50	335.00	343.00	355.75	343.00	342.25	348.25
323.75	325.75	328.75	336.00	374.00	391.75	397.50	407.75	399.25	396.75	398.50	401.25	406.50	416.00	405.75	394.25	387.75	379.00	362.50	353.00	345.75	360.75	341.00	335.25	321.75	324.25	329.00	325.25	318.75	319.25	317.25	322.00	336.50	327.75	318.75	317.00	317.00	317.00	317.25	317.00	317.00	317.00	317.00	317.00	317.00	317.00	317.25	318.25	318.50	317.00	317.00	317.50	317.00	317.00	317.00	317.00	317.00	317.00	317.25	317.00	317.00	317.75	321.50	320.00	317.50	318.00	317.00	317.00	317.00	317.00	317.00	317.00	317.00	317.00	317.00	317.00	317.00	317.00	317.00	317.00	317.00	317.00	317.00	317.00	317.00	317.00	317.00	317.00	317.00	317.00	317.00	317.00	317.00	317.00	317.00	317.00	317.00	317.00	317.00	317.00	317.00	317.00	317.00	317.00	317.00	317.00	317.00	317.00	317.00	317.00	329.25	329.25	338.75	349.75	322.50	317.00	317.00	317.00	317.00	317.00	317.00	317.00	317.00	317.00	317.00	317.00	317.00	317.00	317.00	317.00	317.00	317.00	322.50	335.25	377.00	352.25	354.50	351.25	352.25	353.00	347.25	342.75	338.25	343.75	341.50	357.75	411.00	412.50	470.25	466.50	443.50	463.00	549.75	521.25	486.75	436.50	422.25	426.25	478.75	684.50	837.50	849.75	664.75	573.00	467.25	576.00	564.00	578.25	562.50	524.25	507.75	527.50	492.50	484.50	503.00	499.50	517.75	556.50	591.00	619.25	531.25	596.00	666.00	531.00	522.50	551.75	582.50	528.50	371.75	316.00	272.00	180.75	190.00	216.25	203.75	239.25	444.50	412.25	355.50	359.50	357.50	397.75	408.00	409.75	419.50	390.25	348.25	348.00	358.75	372.50	394.50	433.50	418.75	415.00	444.25	465.75	479.50	471.50	460.50	450.75	439.75	436.75	424.50	420.25	425.75	430.50	414.50	388.00	379.00	356.50	356.25	375.00	387.50	402.25	411.00	419.25	427.00	421.75	416.25	417.25	456.25	430.75	409.50	382.75	367.00	358.50	352.50	358.25	354.75	342.00	332.75	342.00	350.00	340.50	327.75	328.50
317.00	317.00	317.00	317.00	327.50	339.25	339.75	353.50	361.25	369.00	365.25	369.00	367.50	369.75	379.25	373.00	367.50	362.75	350.75	342.75	335.25	333.00	327.00	339.00	332.75	321.75	355.50	321.50	317.00	317.00	317.00	317.00	317.00	318.75	324.25	324.00	317.50	317.00	322.00	323.00	317.00	317.00	317.00	317.00	317.00	317.00	317.00	317.25	317.00	317.00	317.00	319.00	317.25	317.75	317.00	317.00	317.00	317.00	317.00	317.00	317.00	317.00	317.00	317.00	317.00	317.00	317.00	317.00	317.00	317.00	317.00	317.00	317.00	317.00	317.00	317.00	317.00	317.00	317.00	317.00	317.00	317.00	317.00	317.00	317.00	317.00	317.00	317.00	317.00	317.00	317.00	317.00	317.00	317.00	317.00	317.00	317.00	317.00	317.00	317.00	317.00	317.00	317.00	317.00	317.00	317.00	317.00	317.00	317.00	317.00	317.00	317.00	317.00	317.00	317.00	317.00	317.00	317.00	317.00	325.00	318.75	317.00	317.00	317.00	317.00	317.00	317.25	317.00	317.00	317.00	317.00	317.50	332.00	341.50	374.50	376.50	370.00	362.25	362.25	359.00	353.00	349.00	346.50	346.00	344.25	370.50	436.25	450.00	454.75	411.75	415.00	435.25	465.75	469.00	480.75	457.25	471.25	503.50	533.00	825.25	926.50	954.75	729.25	499.75	513.00	445.50	457.00	494.50	663.00	685.75	563.00	525.00	494.75	462.50	499.25	617.00	634.50	667.25	626.75	551.25	496.00	461.00	612.00	549.25	546.50	585.50	603.00	628.75	432.25	293.50	250.25	175.25	156.75	188.75	175.00	229.50	367.75	375.00	338.00	317.25	340.00	341.50	357.50	401.75	398.75	354.25	333.25	316.50	337.00	345.50	353.25	390.00	411.75	419.00	444.25	475.75	493.75	486.50	460.50	452.00	455.25	440.50	432.75	413.25	410.00	426.25	422.50	381.50	367.00	356.25	358.50	376.75	394.50	404.50	404.75	414.00	428.50	427.25	440.25	460.00	408.25	396.75	393.50	377.25	371.50	364.75	356.75	346.75	350.75	341.75	329.50	337.25	351.25	341.75	329.00	326.25
324.25	330.00	317.00	317.00	317.00	318.00	318.25	325.75	333.75	339.25	341.75	345.25	345.75	349.25	355.75	353.75	348.50	343.75	339.00	331.75	325.25	320.00	319.00	322.00	336.00	318.75	327.75	341.75	334.50	327.50	317.00	317.00	317.00	317.00	343.50	359.00	318.00	317.00	317.00	325.25	320.25	317.00	317.00	317.00	317.00	317.00	317.00	317.00	317.00	317.00	317.00	318.00	320.50	318.75	322.25	317.50	318.25	319.25	317.00	317.00	317.00	317.00	317.00	317.00	317.00	317.00	317.00	317.00	317.00	317.00	317.00	317.00	317.00	317.00	317.00	317.00	317.00	317.00	317.00	317.00	317.00	317.00	317.00	317.00	317.00	317.00	317.00	317.00	317.00	317.00	317.00	317.00	317.00	317.00	317.00	317.00	317.00	317.00	317.00	317.00	317.00	317.00	317.00	317.00	317.00	317.00	317.00	317.00	317.00	317.00	317.00	317.00	317.00	320.50	330.25	320.00	317.25	317.00	317.00	320.00	324.00	319.50	318.25	317.25	317.00	317.00	318.00	317.50	317.00	317.00	318.50	319.50	344.25	352.00	355.75	381.25	381.00	375.00	371.00	363.25	361.25	358.50	356.00	352.50	348.50	351.50	377.50	391.00	383.25	389.50	398.25	400.75	405.75	420.50	429.50	444.75	456.00	558.50	672.25	839.75	938.75	914.75	838.50	629.50	539.50	504.00	546.00	586.25	899.50	970.75	759.25	570.50	532.00	471.00	516.50	602.00	658.00	644.00	653.50	516.25	550.00	475.50	464.25	440.25	490.25	481.75	515.75	553.25	400.00	320.50	277.50	219.50	187.25	172.25	168.00	198.00	357.00	332.25	283.00	307.75	373.75	339.75	351.75	389.00	388.50	389.50	334.25	322.00	351.00	342.00	380.00	403.75	429.50	431.50	462.50	498.75	480.50	508.75	482.50	473.25	474.75	475.50	458.00	426.00	405.75	406.25	415.50	376.25	362.75	346.25	352.25	364.00	379.00	396.00	409.25	417.25	438.50	443.50	482.00	443.50	399.75	388.00	378.50	369.50	367.75	364.50	360.00	348.00	342.50	332.50	327.25	337.25	349.50	341.00	335.50	338.25
390.00	355.50	317.00	317.00	317.00	317.00	317.00	317.00	317.00	317.50	319.50	327.75	325.00	328.75	330.00	326.50	332.00	327.00	325.50	321.00	317.75	317.00	317.00	317.00	318.75	327.50	320.25	322.25	343.00	322.00	317.00	317.00	317.00	317.00	317.50	347.75	330.50	317.00	317.00	317.00	325.00	321.25	317.25	317.00	317.00	317.75	317.25	317.75	318.50	317.00	317.00	321.00	331.50	322.25	317.25	317.50	332.50	352.75	330.25	318.25	317.00	317.00	317.00	317.00	317.00	317.00	317.00	317.00	317.00	317.00	317.00	317.00	317.00	317.00	317.00	317.00	317.00	317.00	317.00	317.00	317.00	317.25	318.50	317.50	317.00	317.00	317.25	317.00	317.00	317.00	317.00	317.00	317.00	317.00	317.00	317.00	317.00	317.00	317.00	317.00	317.00	317.00	317.00	317.00	317.00	317.00	317.00	317.00	317.00	317.00	317.00	317.00	317.00	325.00	355.50	344.00	358.00	322.50	326.00	319.25	317.00	317.00	318.25	319.00	317.25	317.00	317.75	319.75	318.75	322.00	325.50	329.50	350.50	363.75	360.50	376.50	387.25	387.00	377.00	370.00	370.75	369.00	365.25	359.75	356.25	352.75	353.25	361.50	378.00	382.75	385.25	391.00	397.00	411.75	403.50	396.00	394.50	401.00	449.00	579.00	667.00	788.25	713.75	652.00	571.25	526.50	719.25	816.50	754.25	874.25	842.25	654.75	513.50	410.00	402.25	464.50	525.00	567.75	501.25	441.75	422.00	499.25	402.25	391.75	467.50	422.75	444.50	484.00	355.00	331.75	308.25	227.50	195.25	198.00	183.50	161.75	225.50	297.25	278.75	286.50	321.75	332.50	303.25	331.00	364.25	348.75	323.25	292.00	340.75	389.50	531.75	475.75	438.50	442.50	464.00	524.50	460.75	467.75	474.25	473.50	480.50	466.50	452.75	425.00	437.00	415.50	393.25	386.50	366.00	345.25	339.00	356.50	370.50	389.50	406.50	422.75	502.25	528.50	431.00	442.75	403.75	395.25	382.25	368.50	360.50	352.25	346.50	347.25	349.00	331.50	322.75	332.25	340.75	337.25	332.25	337.00
375.50	352.25	319.25	317.50	317.00	317.00	317.00	317.00	317.00	317.00	317.00	317.50	318.50	320.00	320.50	320.50	321.50	320.25	319.25	317.25	317.00	317.00	317.00	317.00	317.00	317.00	320.00	317.00	317.00	320.25	318.00	317.00	317.00	317.00	321.25	330.50	342.75	322.75	317.00	317.00	317.75	321.25	318.00	320.25	327.00	329.75	331.75	327.00	323.75	320.25	317.25	321.75	342.00	333.00	317.00	317.00	335.50	367.00	373.50	344.50	317.00	317.00	317.00	317.00	317.00	317.00	317.00	317.00	317.00	317.00	317.00	317.00	317.00	317.00	317.00	317.00	317.00	317.00	317.50	317.00	317.25	318.50	325.25	320.75	317.50	318.25	319.50	317.00	317.00	317.00	317.00	317.00	317.00	317.00	317.00	317.00	317.00	317.00	317.00	317.00	317.00	317.00	317.00	317.00	317.00	317.00	317.00	317.00	317.00	317.00	317.00	317.00	317.00	317.75	317.00	319.75	349.25	365.75	346.50	321.00	317.00	317.75	318.00	320.00	320.25	319.25	317.00	320.25	324.25	332.75	339.75	345.00	355.25	371.50	368.25	375.50	385.50	391.75	383.25	380.75	383.00	381.75	375.75	369.25	363.50	361.25	358.25	360.25	370.50	387.25	393.75	400.75	403.75	414.00	404.00	391.00	386.00	381.00	378.75	388.00	413.25	442.50	440.50	451.25	568.75	591.25	605.00	636.25	547.75	550.50	588.25	488.00	483.75	487.25	430.25	390.00	412.50	500.75	490.50	450.25	367.00	386.75	350.50	339.50	395.50	363.00	437.50	473.75	331.25	387.00	398.25	258.75	226.75	230.25	237.75	212.25	177.25	248.50	273.25	290.25	340.25	293.75	290.00	312.25	325.50	338.00	326.75	298.00	291.50	344.50	366.75	428.25	392.00	415.75	416.00	440.25	466.75	443.50	453.00	430.25	440.75	433.50	439.25	436.25	431.00	421.25	392.75	384.25	383.50	374.25	359.25	346.25	372.00	403.00	426.50	454.00	545.75	511.50	436.75	414.00	394.75	387.75	381.50	370.25	364.75	357.50	349.75	341.50	334.25	329.00	319.25	326.50	335.00	331.75	330.50	334.00
359.50	347.25	324.00	321.00	317.00	317.25	317.25	317.00	317.00	317.00	317.00	317.00	317.00	317.00	317.00	317.00	318.25	317.75	317.25	317.00	317.00	317.00	317.00	317.00	317.00	317.00	317.00	317.75	317.00	326.75	333.75	319.00	317.00	317.00	317.50	330.50	336.75	323.50	317.00	317.00	318.50	318.50	318.75	326.00	335.50	341.50	342.00	335.75	324.75	326.25	318.25	322.00	344.50	337.75	317.00	317.00	331.50	366.50	381.50	357.00	317.00	317.00	317.00	317.00	317.00	317.00	317.00	317.00	317.00	317.00	317.00	317.00	317.00	317.00	317.00	317.00	317.00	317.00	317.25	317.25	318.50	318.50	326.25	320.50	319.75	320.25	320.50	317.00	317.00	317.00	317.00	317.00	317.00	317.00	317.00	317.00	317.00	317.00	317.00	317.00	317.00	317.00	317.00	317.00	317.00	317.00	317.00	317.00	317.00	317.00	317.00	317.00	328.75	356.75	325.25	317.00	317.50	334.75	336.50	317.50	317.00	319.00	320.00	324.00	328.75	319.00	318.00	322.25	330.50	339.25	347.50	353.75	356.75	376.00	374.50	377.75	383.75	395.50	388.50	386.00	391.25	390.75	382.25	372.75	368.25	366.50	362.50	363.25	367.75	376.75	389.75	404.25	410.75	414.75	403.50	392.25	386.75	378.25	371.50	370.50	374.75	379.75	384.50	395.00	439.00	470.75	471.75	467.75	427.25	410.50	428.50	389.50	403.25	418.25	419.75	339.25	337.50	376.25	397.75	392.50	347.75	361.00	330.50	337.50	332.50	392.25	459.50	460.25	309.50	394.75	394.50	269.25	251.00	267.50	251.50	238.75	161.50	223.75	249.25	286.25	317.50	274.25	269.25	297.00	313.50	320.75	319.50	304.75	282.75	332.50	325.50	364.25	369.75	393.50	397.25	417.75	449.00	428.25	427.00	410.75	422.50	417.75	428.75	440.75	427.25	410.00	394.75	372.50	385.50	383.25	361.00	345.25	375.50	421.50	450.50	470.75	473.75	489.75	434.25	411.00	394.75	388.75	386.25	379.25	368.75	359.75	355.25	353.25	336.50	322.50	317.50	319.00	328.50	328.25	332.00	330.25
348.25	338.00	336.00	319.50	321.00	321.00	319.00	317.00	317.00	317.00	317.00	317.00	317.00	317.00	317.00	317.25	317.00	317.00	317.00	317.00	317.00	317.00	317.00	317.75	331.00	317.00	317.00	319.00	339.50	330.50	360.75	341.50	322.75	317.25	317.00	317.00	329.25	338.50	326.50	319.00	322.25	323.75	323.75	331.00	345.00	352.75	352.25	342.50	335.75	333.75	326.50	324.75	345.50	347.75	322.25	321.50	330.25	366.75	390.50	379.00	330.50	317.00	317.00	317.00	317.00	317.00	317.00	317.00	317.00	317.00	317.00	317.00	317.00	317.00	317.00	317.25	317.75	317.50	318.00	321.50	322.50	325.00	327.50	323.75	325.25	329.50	327.25	324.50	319.00	317.50	317.00	318.25	317.00	317.00	317.00	317.00	317.00	317.00	317.00	317.00	317.00	317.00	317.00	317.00	317.00	317.00	317.00	317.00	317.00	317.00	317.00	317.00	337.00	354.25	350.00	348.75	323.75	330.75	334.25	324.00	321.25	320.50	331.25	326.75	335.50	332.00	325.00	327.75	335.25	346.25	356.25	363.00	368.00	382.50	382.25	387.25	390.75	400.00	398.25	394.50	400.25	395.00	384.50	380.50	375.75	375.00	369.75	369.25	373.25	378.50	384.25	395.50	407.25	415.50	404.75	392.00	386.50	379.00	371.50	365.00	359.75	358.75	364.00	362.50	366.75	362.25	355.00	347.50	338.75	331.75	317.75	325.00	309.50	305.75	312.00	315.75	308.75	307.50	324.75	343.25	320.25	327.75	313.50	353.50	316.75	355.75	358.25	362.75	299.75	341.25	387.00	303.75	282.25	330.00	311.50	260.75	219.50	197.75	233.50	230.75	242.50	279.25	291.00	294.00	303.75	314.00	312.75	293.75	273.25	300.25	319.00	348.50	368.25	370.25	379.75	386.75	403.50	407.75	397.75	389.75	398.25	394.00	412.75	429.50	416.25	397.50	386.25	358.75	354.75	345.00	329.25	352.50	430.75	550.75	611.75	741.00	564.00	487.75	427.25	417.75	405.25	402.00	399.50	388.25	374.75	374.50	374.00	362.50	351.75	341.00	333.75	325.00	314.50	318.25	327.25	322.50
355.50	349.50	334.75	319.75	321.50	339.50	327.75	317.75	317.00	317.00	317.00	317.00	317.00	317.00	317.00	317.00	317.00	317.00	317.00	317.00	317.00	317.00	317.00	317.50	360.00	317.00	317.00	317.25	361.00	349.75	339.25	383.75	362.25	322.75	317.00	318.75	317.00	324.25	340.25	330.00	325.25	330.75	332.50	335.25	346.75	359.75	356.75	349.25	347.75	341.50	339.50	334.25	341.00	347.50	332.75	330.75	334.75	352.25	367.50	369.25	343.50	323.50	317.25	339.75	317.50	320.25	321.50	321.25	317.25	317.00	317.00	317.00	317.00	317.00	317.25	322.50	324.00	322.25	323.75	332.75	327.25	338.25	331.25	340.75	338.50	338.75	339.25	339.50	322.25	317.75	318.25	320.00	317.25	317.50	317.00	317.00	317.00	317.00	317.00	317.00	317.00	317.00	317.00	317.00	317.00	317.00	317.00	317.00	317.00	317.00	317.25	317.00	320.00	318.25	324.75	348.50	364.00	338.25	337.50	338.75	330.50	326.25	338.75	339.25	341.00	340.75	330.75	336.50	344.50	349.00	359.00	368.75	374.50	387.75	392.00	397.50	401.75	403.25	408.75	405.75	405.25	396.25	392.75	388.50	384.00	382.75	375.75	375.25	381.50	383.75	386.25	392.75	402.00	418.25	408.50	395.00	387.50	382.25	377.50	369.50	360.50	354.75	348.75	347.00	341.50	337.75	329.25	322.50	318.25	316.00	317.75	323.00	323.00	295.75	290.25	298.75	301.00	290.00	284.75	288.25	290.50	279.50	301.50	300.25	268.50	254.75	270.25	303.00	278.50	278.00	317.25	279.75	255.25	253.50	295.00	323.00	275.00	201.75	196.00	252.50	269.50	353.25	301.25	320.50	311.75	318.25	301.75	297.75	266.50	303.50	316.75	360.75	374.75	363.00	364.25	374.50	393.50	401.50	381.50	371.75	377.00	385.00	414.25	431.00	426.00	413.00	394.00	365.50	339.25	316.75	333.75	375.25	557.50	794.00	855.25	863.25	601.50	482.00	438.50	429.00	421.50	416.00	416.00	396.50	383.50	376.50	369.50	358.00	353.00	348.75	346.00	336.75	322.50	309.75	305.25	310.00
354.75	350.50	333.00	323.25	328.50	342.50	335.25	322.25	318.75	317.00	317.00	317.50	322.50	339.25	331.75	345.50	322.25	318.50	317.00	317.00	317.00	317.50	330.25	331.50	318.25	317.00	317.00	317.00	323.00	340.75	336.00	359.00	386.25	348.25	317.00	321.25	325.25	322.00	333.00	339.00	334.25	331.75	336.50	341.00	347.00	356.00	360.25	358.50	350.75	346.50	349.75	342.25	342.25	352.25	346.75	344.75	347.75	340.00	331.75	336.00	360.00	359.50	381.75	429.50	403.00	371.50	356.25	350.50	331.25	324.75	319.00	319.00	319.00	319.75	322.00	332.50	339.00	334.75	336.50	338.50	334.25	342.75	335.50	346.75	352.25	348.00	350.25	343.25	322.25	320.75	322.00	326.00	318.75	317.25	317.00	317.00	317.00	317.00	317.00	317.00	317.00	317.25	317.00	317.00	317.00	317.00	317.50	317.00	317.00	317.50	321.50	324.75	327.00	328.00	327.00	333.75	344.25	337.50	338.00	346.25	340.00	334.00	344.50	349.50	351.25	348.50	336.25	345.25	356.75	356.75	360.75	374.00	381.25	394.75	399.50	407.00	411.00	412.50	415.75	416.00	414.25	403.75	403.75	396.00	395.50	389.00	382.25	384.25	390.25	390.75	391.75	395.50	403.00	416.50	408.50	398.00	394.50	391.00	384.50	374.25	365.25	358.75	351.25	345.50	339.00	336.75	333.75	335.25	327.50	324.00	335.75	347.25	344.25	315.75	305.50	290.25	289.00	284.25	274.75	277.00	272.25	272.50	271.75	259.75	274.50	255.50	242.50	238.25	249.00	233.50	224.50	242.75	242.00	214.50	213.00	208.00	207.00	167.00	213.25	337.00	325.00	323.00	304.50	298.75	285.25	292.50	275.75	263.50	265.00	329.50	349.25	360.25	345.00	353.50	373.25	398.50	410.00	389.50	368.00	354.50	407.75	446.50	476.75	466.75	474.25	480.00	423.50	408.75	390.75	343.00	339.50	498.75	651.50	776.75	861.50	778.75	536.25	471.50	450.25	440.00	429.50	423.00	418.00	407.25	395.25	383.50	372.00	362.00	355.25	343.75	338.75	328.50	318.75	310.25	302.75	295.00
332.00	331.00	330.75	338.50	337.25	332.50	327.25	320.50	319.00	317.50	317.25	317.00	317.00	317.25	359.75	418.25	444.25	455.50	447.75	424.25	364.50	386.00	368.50	320.50	317.00	317.00	317.00	317.00	317.00	317.00	321.25	334.50	351.50	354.00	319.50	325.50	335.50	332.00	336.00	339.50	344.50	339.25	346.25	350.00	348.50	353.50	359.75	365.00	359.25	356.00	355.50	352.00	352.50	355.75	362.75	366.00	363.00	346.00	330.75	323.25	317.00	329.25	367.50	416.00	432.75	468.00	468.75	441.25	465.75	431.25	353.50	347.50	342.00	345.25	382.00	382.75	356.00	352.75	349.75	346.50	345.50	347.75	345.25	348.50	366.00	362.25	349.50	340.25	326.00	329.75	333.50	322.75	318.50	316.75	317.75	316.75	317.25	318.25	323.00	322.50	320.50	319.50	318.00	317.75	318.25	320.00	322.25	317.50	317.50	320.00	332.00	338.50	343.50	342.25	335.50	337.50	339.75	345.00	343.75	349.00	351.75	351.50	351.25	352.50	358.00	361.50	346.50	361.25	391.25	380.25	377.50	385.50	398.75	405.25	413.00	417.00	423.75	429.25	430.50	431.00	420.00	417.75	413.25	407.50	403.25	394.25	392.75	398.00	402.00	403.00	402.75	402.25	404.75	416.00	418.25	412.50	407.75	399.75	392.00	380.75	372.25	366.50	357.00	355.25	347.25	346.00	344.25	345.75	337.50	340.75	358.50	373.25	366.00	343.00	337.75	301.50	292.50	283.75	286.75	285.00	308.75	311.75	301.25	292.50	306.00	292.25	276.00	263.50	245.75	216.25	213.00	204.25	196.25	184.00	185.50	184.00	216.25	232.75	186.75	172.75	260.75	316.00	316.50	296.00	278.00	260.00	241.25	232.25	260.25	280.75	334.00	323.50	349.00	348.50	368.00	417.25	416.75	402.75	371.00	352.00	417.50	481.00	590.75	723.25	736.75	701.50	464.50	436.50	414.75	332.25	417.25	490.25	569.00	710.50	574.25	548.25	401.75	417.75	451.00	457.50	438.75	420.25	408.50	400.75	393.75	381.50	372.25	369.50	354.00	339.25	334.00	334.25	333.25	318.50	302.75	305.00
