231.00	230.00	231.00	229.00	225.25	221.00	218.75	217.25	217.50	213.00	216.00	217.75	216.25	218.50	218.25	219.75	218.25	218.25	218.00	219.00	216.75	216.50	213.75	211.00	209.00	207.00	206.50	205.25	209.00	211.25	211.25	210.00	208.50	207.25	207.75	211.75	213.75	210.75	210.00	211.00	209.25	205.25	207.50	217.75	222.25	231.50	231.25	232.00	231.00	231.75	233.25	234.75	234.75	234.50	235.25	235.50	230.75	228.25	226.50	229.50	231.75	224.50	223.25	230.25	234.75	237.00	241.50	240.50	241.00	243.75	245.25	245.00	244.75	245.50	247.50	248.50	247.25	245.50	247.75	248.50	248.75	251.25	249.00	246.75	246.75	249.50	251.25	250.00	250.00	252.50	254.75	275.00	271.00	269.00	267.75	274.00	276.50	269.50	267.50	267.25	268.50	271.75	272.25	273.75	277.25	282.50	285.25	284.00	286.25	289.25	298.50	311.25	351.50	338.00	342.00	368.00	359.00	376.75	366.00	329.75	316.00	306.50	305.75	306.00	302.00	292.75	306.00	308.00	311.75	314.50	313.25	315.25	318.75	321.75	329.00	332.75	336.00	340.00	350.25	376.50	376.25	377.75	377.75	370.50	361.75	351.50	342.00	341.00	335.75	328.25	319.50	304.75	297.00	285.00	281.50	278.75	275.50	278.25	283.00	302.75	349.00	436.25	450.75	441.00	435.00	428.00	409.00	399.75	379.50	370.50	364.75	361.25	364.75	362.00	358.00	353.75	350.75	350.00	347.00	348.25	349.50	350.25	349.50	350.25	348.25	351.75	351.50	352.50	350.75	351.50	354.00	353.25	352.25	352.25	351.25	355.25	357.00	355.50	355.25	355.00	356.75	358.25	359.00	360.75	360.00	362.75	364.00	361.00	365.50	366.00	364.75	371.75	368.50	362.25	365.00	372.75	375.25	372.00	374.00	378.00	375.75	369.50	372.75	380.50	377.00	375.00	382.50	384.50	383.75	385.50	393.25	393.25	392.00	393.50	398.00	401.25	405.50	402.25	393.25	392.75	404.75	410.00	407.25	398.25	395.50	413.25	418.00	410.50	411.25	406.75	399.25	407.50	410.75	420.00	428.00	419.00
231.00	226.50	227.25	224.75	222.00	216.75	218.25	216.50	216.50	216.00	216.50	212.75	213.50	218.00	220.00	218.50	220.50	219.75	219.50	217.75	218.25	216.25	212.75	211.00	207.00	206.00	204.75	203.50	206.75	211.75	209.50	207.75	207.00	204.50	208.00	211.50	211.75	210.25	208.25	207.75	213.25	210.25	210.50	216.75	223.25	231.50	230.00	229.25	227.50	230.00	231.00	232.25	231.25	233.75	235.25	234.25	231.00	229.50	227.75	225.25	226.00	221.75	223.50	233.50	234.50	237.75	242.50	243.00	242.25	242.75	244.00	243.50	242.25	244.00	246.00	247.75	247.50	247.00	248.50	251.00	250.00	252.50	254.00	253.00	251.25	250.50	250.75	250.75	250.75	253.25	257.25	260.00	271.50	270.75	271.00	274.00	276.25	273.25	271.50	270.00	270.75	273.75	274.50	276.75	277.00	280.25	285.75	287.25	286.50	290.75	299.25	309.75	343.00	337.75	342.25	378.75	377.75	379.50	360.75	327.75	313.50	305.00	304.00	305.75	299.75	296.75	307.25	310.25	312.00	313.75	314.50	319.00	321.00	324.75	330.75	335.00	337.25	342.50	355.00	372.25	373.75	371.75	370.75	361.25	352.25	345.75	342.25	341.25	332.75	320.50	312.00	300.25	291.50	283.75	283.25	280.00	275.75	281.75	287.50	300.75	326.00	408.75	440.25	433.25	429.75	421.00	404.25	391.75	376.50	369.25	362.50	358.50	359.00	360.50	355.25	349.50	348.25	349.00	348.25	348.50	350.75	350.75	349.00	350.25	350.00	350.00	351.00	352.00	350.00	351.25	352.50	352.50	349.75	352.25	353.25	354.75	356.75	354.50	355.00	356.00	355.25	359.00	359.25	359.00	359.25	360.25	361.00	360.75	362.75	361.50	361.75	365.50	365.50	367.00	370.75	371.00	366.75	370.00	377.75	376.00	373.00	370.25	378.75	382.25	377.00	378.25	387.75	386.00	384.75	391.00	394.00	393.50	391.25	397.00	400.75	400.50	399.25	396.00	403.75	403.50	409.25	412.75	397.50	396.75	406.75	419.00	419.25	418.25	406.50	389.00	397.00	427.00	429.75	429.75	428.25	426.00
229.50	225.00	223.50	221.00	217.00	217.25	215.00	211.25	214.00	214.75	216.00	210.00	214.00	219.00	220.25	220.25	220.75	221.00	218.75	218.75	218.00	212.00	210.00	209.00	205.50	204.00	202.50	203.50	206.50	208.50	206.25	204.25	204.25	203.00	207.50	207.75	208.00	208.50	209.50	207.00	211.25	214.00	215.00	219.50	223.75	226.00	226.75	225.75	225.50	225.75	228.75	231.00	231.75	231.75	232.25	232.00	236.50	233.75	226.75	222.75	221.50	224.25	226.00	234.25	234.00	239.50	244.75	243.25	242.50	240.25	241.50	239.75	240.50	241.25	242.25	244.50	246.00	247.50	250.00	248.50	250.00	254.50	257.00	257.00	255.75	252.75	251.00	251.00	252.00	253.00	256.75	262.00	265.50	267.00	269.25	271.50	274.00	276.00	275.00	275.75	276.00	276.25	278.50	279.50	278.50	278.75	283.25	288.25	290.00	292.50	302.75	318.75	337.00	336.50	340.25	344.75	372.25	377.25	355.25	324.00	312.25	305.00	306.50	308.75	299.50	302.75	308.00	311.00	314.00	313.50	316.75	321.25	325.75	329.25	335.00	336.50	338.50	348.75	359.50	368.50	366.00	363.25	363.25	355.25	351.25	344.00	342.00	340.75	329.00	318.25	308.75	300.75	286.75	284.75	286.00	279.00	277.50	285.75	292.25	307.00	352.25	436.25	434.25	428.75	421.25	412.25	398.25	388.75	376.00	369.25	361.75	360.50	358.75	355.00	351.50	349.00	350.00	349.00	349.50	348.00	352.25	352.75	351.00	348.75	351.25	354.50	352.00	350.50	350.50	351.75	354.25	353.25	353.50	352.25	352.50	356.75	359.50	358.75	354.00	354.25	357.00	358.25	358.50	361.50	360.00	362.25	360.25	358.25	359.75	359.50	363.00	364.25	362.25	370.50	370.00	367.00	368.50	376.25	376.25	374.50	371.75	376.00	383.50	378.25	374.25	384.75	388.75	382.50	386.25	392.00	394.00	395.75	398.00	399.00	395.25	400.00	407.25	405.50	400.25	406.50	416.00	413.50	394.50	390.25	407.50	422.25	422.25	408.25	381.75	370.50	403.50	480.50	462.50	453.75	442.75	437.25
225.75	225.00	222.00	220.00	217.75	215.00	213.75	210.75	212.75	215.75	214.25	211.50	215.50	218.50	222.00	221.50	221.25	220.25	221.25	218.50	211.50	208.50	209.00	206.25	204.50	204.25	202.00	201.75	202.25	206.50	203.25	202.75	202.50	200.75	205.00	207.75	208.75	211.50	210.00	210.25	213.75	216.50	218.25	222.75	223.25	222.75	224.75	222.00	223.00	224.75	228.25	229.50	230.25	230.50	229.75	230.00	234.00	230.75	226.00	219.25	219.25	223.50	227.00	232.25	233.50	241.50	242.00	240.50	239.75	237.75	237.25	236.00	238.75	238.75	239.50	240.50	241.50	244.75	249.00	249.75	251.00	253.50	255.50	257.00	257.00	255.00	255.00	254.00	252.75	253.50	256.75	258.75	260.75	262.75	265.50	267.00	269.75	276.00	280.75	279.25	278.75	277.50	279.00	279.50	278.50	280.75	282.50	286.75	293.25	297.75	309.75	340.75	334.75	335.50	339.50	344.25	366.75	364.25	349.00	320.75	313.75	306.50	307.25	308.75	301.75	307.75	310.00	314.75	315.75	314.25	318.25	322.75	326.25	331.50	336.25	339.25	342.00	353.25	361.75	368.25	364.00	360.50	359.75	353.75	348.00	342.75	341.00	337.25	328.00	321.25	310.25	296.00	292.50	297.00	290.25	278.50	280.50	290.75	304.25	335.25	405.25	437.00	427.25	418.75	411.75	406.25	393.25	383.75	367.75	365.00	362.00	360.50	356.25	353.25	351.50	349.50	351.00	348.75	347.75	348.50	351.75	352.00	350.25	347.75	351.75	350.00	352.00	353.00	354.50	352.75	353.50	355.75	353.50	353.00	351.25	354.25	355.75	357.00	356.00	357.75	358.75	356.75	358.75	357.50	360.00	361.25	361.00	360.25	363.25	365.75	366.00	360.25	361.00	369.00	370.25	370.75	375.25	376.50	372.50	371.00	372.75	376.50	380.75	373.50	378.25	385.00	382.25	385.25	391.75	391.00	390.00	395.50	401.00	400.50	401.50	405.75	406.25	404.00	409.00	409.25	409.75	405.00	394.00	398.25	406.50	416.00	406.50	377.50	359.00	372.50	420.75	514.75	498.25	471.25	454.00	440.75
223.00	220.75	220.00	221.25	220.00	214.50	213.50	211.00	210.75	214.25	212.75	213.25	217.50	220.00	222.75	222.50	222.00	222.00	224.75	214.00	209.00	209.00	206.75	203.75	204.50	202.00	200.00	199.25	201.75	206.00	202.75	200.50	199.50	202.25	204.25	208.50	211.00	213.25	213.50	215.00	215.25	220.25	220.00	220.75	218.50	220.50	219.00	220.25	221.50	224.75	229.25	229.25	230.50	228.50	227.50	229.25	231.00	229.75	223.50	216.75	216.50	223.25	226.00	230.50	233.00	239.75	240.50	236.75	235.75	234.00	232.00	233.25	235.75	236.50	237.50	236.25	240.00	244.00	246.50	250.00	250.75	251.75	253.00	255.00	256.50	257.00	256.75	255.25	253.75	253.25	255.50	256.50	258.25	261.25	264.50	267.00	271.75	276.00	279.50	280.00	281.00	281.25	279.00	279.50	281.50	282.50	283.25	286.50	293.75	300.75	337.75	355.25	332.00	333.75	339.50	357.50	374.75	353.00	342.25	319.50	313.25	308.75	312.50	311.75	302.50	309.75	316.75	318.50	318.50	315.00	322.50	323.00	326.00	333.50	336.75	341.25	346.75	359.00	368.25	374.00	366.50	362.50	357.25	352.75	346.00	341.75	338.50	334.50	326.00	319.50	305.00	305.25	304.75	292.50	284.25	278.75	283.25	300.75	346.25	433.25	453.50	436.75	424.50	412.50	406.00	402.00	387.00	374.75	366.75	364.25	360.50	358.75	354.00	350.50	350.00	349.75	351.50	349.25	346.75	346.75	351.75	351.00	349.00	349.00	350.25	351.25	351.25	353.75	354.75	353.25	351.50	352.75	351.25	350.25	353.50	352.00	356.25	357.75	359.00	357.00	355.00	354.50	355.50	358.50	361.00	362.00	361.50	361.25	366.50	366.50	368.50	369.25	368.25	369.25	364.50	365.75	371.50	371.25	368.50	371.75	375.00	375.75	373.75	373.75	379.25	380.25	380.50	385.25	390.75	390.75	394.00	405.75	404.75	396.75	407.25	411.00	407.75	405.00	409.00	409.50	407.25	399.25	394.25	400.00	403.50	399.75	383.00	353.75	352.50	387.00	444.25	502.75	490.00	472.50	458.50	448.50
218.00	217.50	219.50	220.00	217.25	215.25	215.75	211.25	210.75	213.00	213.50	215.75	218.00	220.50	222.75	222.75	222.75	223.75	217.00	213.75	210.75	207.00	202.75	203.00	202.25	199.50	198.00	198.50	202.75	204.75	200.25	199.00	200.75	202.25	204.25	207.75	209.50	211.25	214.75	215.25	216.00	216.75	218.50	218.00	217.75	217.50	218.25	220.50	221.25	226.50	231.75	228.25	229.25	227.50	227.25	227.50	226.00	224.00	219.00	215.75	218.50	222.50	225.50	229.75	235.00	244.75	240.25	233.50	230.75	229.50	230.25	231.00	232.00	232.50	234.50	235.50	238.25	240.75	244.00	247.25	248.50	248.25	250.50	250.50	253.25	255.75	257.75	253.75	251.00	251.75	253.25	254.50	257.25	258.25	263.50	270.00	277.25	272.75	276.00	276.25	277.00	278.00	279.25	280.75	281.25	282.75	286.25	288.75	295.00	306.25	358.25	346.50	329.00	331.75	338.75	363.25	371.75	353.25	339.50	318.75	318.25	314.25	316.25	312.25	305.25	310.25	316.75	316.25	318.50	317.25	323.50	324.00	327.75	334.00	336.50	341.50	348.50	364.50	376.75	373.25	366.00	359.50	354.75	348.50	344.50	342.00	338.25	333.00	324.75	320.50	313.75	309.00	296.75	288.25	284.00	280.25	287.50	316.50	418.75	464.50	445.50	431.50	416.50	405.00	399.75	395.25	378.50	370.25	367.25	363.25	359.50	358.25	354.50	353.25	349.75	348.00	351.50	348.00	347.25	346.00	347.00	349.00	347.75	347.25	350.50	350.00	351.00	353.00	350.25	349.25	350.75	349.25	350.25	353.25	354.50	352.00	355.00	355.00	355.00	356.25	356.25	358.00	360.00	359.50	359.50	360.00	359.50	361.00	365.75	363.75	367.25	361.75	365.25	368.00	364.25	363.00	368.75	370.25	366.00	368.25	373.25	374.00	372.50	377.50	381.25	380.75	384.50	390.00	392.75	397.50	398.25	404.00	404.50	404.25	408.50	410.75	409.75	408.75	411.00	410.00	403.50	400.50	402.50	405.75	399.25	379.00	361.25	345.75	353.25	425.25	496.25	497.75	493.00	474.00	462.25	466.75
212.25	216.50	219.50	218.25	217.00	216.25	216.25	213.25	212.00	212.25	214.25	216.50	217.75	220.50	221.00	221.25	221.00	218.25	216.00	214.50	210.75	207.25	202.75	201.75	199.75	196.75	196.25	198.00	204.00	201.75	200.00	199.50	200.50	198.25	201.50	205.75	207.75	210.50	214.25	212.75	212.25	212.50	214.75	217.25	219.00	217.75	217.25	220.50	223.25	228.50	232.50	228.75	228.75	226.25	225.00	226.00	222.75	221.00	215.25	213.75	218.75	224.75	228.00	230.75	235.25	236.75	233.50	229.25	227.25	228.00	226.75	227.00	229.75	233.25	233.00	234.00	235.00	237.50	243.50	246.25	246.75	246.25	246.25	246.50	249.50	252.00	254.25	251.00	249.00	249.50	251.25	252.00	254.75	258.00	260.50	264.25	275.50	268.75	272.75	271.25	271.50	273.50	274.75	275.75	277.00	278.75	283.00	287.00	295.00	322.25	362.25	337.00	326.50	333.75	341.50	345.00	364.50	350.00	337.75	321.75	320.50	317.25	314.25	314.00	309.50	311.75	316.25	318.50	318.25	320.50	326.75	324.50	331.00	334.50	337.25	346.25	354.00	379.75	376.25	366.25	359.25	353.75	351.75	346.25	343.50	343.25	336.25	332.75	331.50	332.75	309.50	295.00	292.50	287.25	283.25	283.00	290.75	332.00	454.50	445.50	432.50	416.00	407.75	403.50	395.25	386.50	376.75	372.00	365.25	362.50	361.50	357.00	355.50	353.75	353.00	350.50	350.75	347.25	349.25	347.25	344.50	346.00	345.50	346.00	345.75	350.75	348.75	348.75	349.25	348.50	349.25	345.75	347.00	348.00	350.25	350.50	352.50	354.50	356.00	356.00	356.50	362.75	358.50	360.25	364.00	362.25	361.25	364.75	362.50	360.25	359.25	360.25	363.50	365.00	362.75	361.50	362.75	361.50	367.25	370.50	374.00	374.50	375.00	379.00	380.25	381.25	388.25	392.25	396.75	402.75	404.25	402.50	406.00	411.75	412.00	408.75	412.00	415.50	412.00	410.00	405.25	399.50	409.50	400.25	383.25	362.25	345.75	345.00	366.25	475.00	497.50	478.25	484.25	478.00	477.50	473.00
214.50	217.75	217.75	216.75	215.00	214.00	215.50	215.00	211.75	212.50	212.25	213.00	214.25	217.50	217.25	218.25	217.50	215.75	216.00	213.75	208.75	205.75	204.50	199.75	196.75	195.50	195.50	200.50	202.25	202.25	197.00	198.25	198.75	197.00	194.00	203.50	206.25	211.00	213.00	212.50	210.25	210.75	215.75	216.50	216.75	216.00	217.25	220.50	220.25	227.75	234.50	229.75	231.00	224.25	223.75	224.00	216.50	214.25	213.25	216.00	220.25	225.25	228.00	231.25	234.00	233.50	228.75	226.00	224.25	224.50	224.25	226.50	229.25	232.25	232.50	235.00	235.75	237.50	241.50	243.50	244.00	243.25	243.75	245.75	247.50	248.75	250.25	249.75	248.50	250.25	248.00	249.50	251.50	254.25	255.25	259.75	263.75	266.25	268.00	266.25	267.75	267.50	266.75	268.75	270.75	273.75	277.50	282.50	303.00	372.00	336.50	325.75	324.75	347.00	353.50	358.50	357.25	346.00	335.00	324.50	319.00	316.50	314.25	314.75	308.50	315.00	316.25	317.50	318.50	321.75	324.00	325.00	330.75	334.25	338.25	355.50	357.00	368.00	378.75	368.25	361.50	357.75	353.75	346.25	343.25	342.75	338.25	335.00	334.00	319.75	298.25	295.50	290.75	287.50	282.25	287.25	296.25	372.50	465.25	440.00	426.25	417.25	413.00	406.00	396.50	386.00	374.50	370.25	365.75	364.25	362.50	357.25	354.50	352.75	352.75	350.75	350.75	348.50	348.75	345.75	348.50	348.75	347.25	345.00	347.75	350.50	347.75	348.50	349.75	349.00	349.25	349.00	347.00	352.75	350.00	351.50	353.25	356.75	356.50	358.25	360.00	361.75	366.00	369.00	369.00	368.50	366.00	366.00	364.75	364.25	362.25	362.50	361.50	356.25	352.75	357.00	357.75	367.00	369.50	371.50	375.50	370.75	372.50	373.25	372.25	376.50	385.50	388.75	394.75	405.75	404.50	406.75	410.75	411.50	410.75	413.00	412.50	412.00	411.50	408.00	405.75	403.25	392.75	375.50	359.50	345.75	345.75	354.75	416.25	450.25	474.75	451.00	468.25	449.25	451.50	468.25
216.25	216.50	217.50	217.25	215.50	213.00	214.50	214.25	211.25	211.50	211.25	212.25	212.75	215.25	213.75	214.50	216.75	217.00	215.25	212.50	210.75	208.50	201.75	196.50	193.75	193.75	195.00	201.25	200.00	199.25	195.00	197.00	195.25	193.50	190.50	199.00	204.50	208.00	206.00	208.50	210.75	212.75	216.75	218.25	217.25	214.00	216.00	222.00	222.00	230.25	229.75	228.25	225.00	222.75	216.75	218.00	210.00	211.00	213.75	217.00	220.50	226.25	229.00	231.50	234.00	231.25	225.00	222.75	222.75	224.50	226.25	227.00	231.00	232.50	234.25	235.50	237.25	238.50	238.50	239.00	240.00	239.50	241.25	244.00	246.75	247.00	247.00	248.50	247.75	248.75	246.50	246.25	247.50	249.75	253.00	255.00	257.75	262.75	264.00	264.25	263.75	261.25	262.50	267.75	272.50	278.50	284.50	290.75	313.75	363.00	321.00	321.25	323.25	348.00	372.00	376.00	359.75	343.00	332.25	322.50	320.50	317.75	316.25	314.50	310.00	316.50	314.25	318.50	321.75	320.75	322.75	324.25	330.75	334.00	339.50	346.75	353.50	366.00	378.00	370.25	366.75	364.00	353.50	345.50	346.25	347.25	339.75	339.00	324.75	310.25	298.25	296.50	290.75	285.25	283.25	294.25	308.00	438.25	466.75	443.25	429.00	421.75	414.50	405.00	394.25	385.75	372.00	369.50	363.75	364.25	361.00	360.75	355.50	354.00	352.50	351.00	349.75	348.50	350.50	347.75	348.00	346.75	348.00	348.00	348.25	348.25	349.00	351.75	349.50	346.00	347.50	344.00	344.25	344.25	344.75	352.00	348.25	353.50	355.00	361.00	366.00	368.00	367.50	371.50	369.00	367.75	365.75	364.50	364.75	365.25	361.75	362.25	358.50	366.50	352.00	364.00	364.50	365.50	365.50	368.75	372.50	372.00	368.75	368.00	371.50	378.50	385.25	393.00	400.75	407.75	410.25	408.00	411.50	414.00	412.00	410.50	413.25	411.00	407.25	401.25	396.25	384.75	366.50	360.75	354.25	347.25	349.50	386.50	405.50	451.75	432.00	413.50	436.75	411.00	449.00	455.25
214.25	215.00	216.00	218.00	218.00	216.00	215.00	213.25	212.25	211.25	209.25	210.00	209.50	209.75	211.75	213.50	216.00	217.00	215.00	214.50	213.25	208.25	199.75	197.25	193.75	192.75	193.50	198.50	195.50	196.75	196.25	196.75	195.25	193.00	194.00	200.50	203.75	205.50	206.25	208.50	215.50	216.50	217.50	216.50	212.75	212.00	215.00	220.25	225.00	231.25	229.50	226.00	222.50	219.75	213.50	210.25	210.75	212.25	215.75	219.25	223.50	229.00	230.00	232.00	231.50	226.50	222.75	221.25	223.25	226.25	226.50	227.75	230.75	232.50	234.50	235.50	236.25	235.50	234.50	235.50	236.75	239.75	240.00	242.50	245.25	247.00	245.50	244.50	245.00	244.00	243.00	243.50	244.75	247.00	249.75	252.00	256.25	259.75	261.25	259.75	260.00	261.25	265.50	274.00	278.75	287.00	298.50	309.25	367.00	332.00	316.50	320.25	323.25	335.00	373.00	377.75	357.00	338.00	329.75	324.00	320.00	319.00	318.25	315.00	311.75	317.50	319.25	320.00	321.50	319.25	320.50	326.25	331.50	336.50	339.00	349.00	369.50	373.75	376.25	365.25	363.50	360.25	351.50	351.00	351.25	348.00	337.50	330.00	320.25	305.00	297.25	294.50	289.50	285.50	286.75	301.00	322.00	441.00	458.75	438.25	427.00	418.75	411.75	400.75	391.75	383.50	370.50	368.50	364.00	361.50	362.25	360.50	358.75	352.75	353.50	352.00	355.00	353.50	355.00	352.00	350.25	347.25	347.75	347.25	344.75	344.25	345.50	345.50	343.75	346.25	344.75	344.00	343.75	348.50	347.75	350.00	352.00	354.00	361.50	367.00	369.75	372.00	373.50	374.25	371.00	369.75	369.25	366.25	364.75	365.50	365.25	366.50	363.25	365.00	345.00	362.00	364.25	366.50	370.25	372.25	369.25	366.25	358.75	354.00	357.00	373.25	383.00	393.75	401.25	407.00	408.00	407.25	409.00	409.75	407.00	405.25	403.75	400.50	397.25	391.75	379.00	366.75	364.25	359.00	354.50	353.25	355.00	366.50	373.50	438.75	389.75	385.50	387.25	405.25	418.50	450.00
212.25	213.50	215.50	217.50	219.00	218.75	215.75	212.25	213.00	210.25	209.00	206.50	204.50	207.50	209.25	211.25	212.50	213.50	213.75	214.50	209.00	203.75	200.00	196.75	194.00	190.75	193.50	196.25	191.50	196.00	197.25	198.50	200.75	196.75	200.25	201.75	202.50	207.00	211.00	215.00	216.75	217.75	217.00	213.25	211.00	212.50	215.50	219.00	222.50	238.25	231.50	224.25	217.00	213.25	210.25	207.25	211.00	215.00	219.25	223.00	225.25	230.25	229.50	229.50	228.00	223.50	220.50	220.25	222.00	224.00	225.50	228.25	231.25	233.25	234.50	235.00	235.75	233.75	232.25	234.25	233.50	238.25	239.50	242.00	244.75	245.00	244.50	241.75	240.50	241.25	242.25	241.50	242.50	245.25	247.50	249.50	253.50	255.00	256.50	256.00	257.75	263.75	268.25	279.25	285.50	296.25	320.00	375.50	381.25	344.25	318.25	320.00	338.75	344.50	365.00	373.00	350.50	334.50	329.00	323.50	318.50	316.50	315.50	314.50	314.00	319.75	320.00	319.75	320.00	321.00	319.50	328.00	331.00	334.25	340.75	351.00	373.00	371.25	376.25	362.75	361.50	358.00	353.50	353.25	351.00	337.75	331.50	327.75	313.00	298.75	295.25	294.75	289.25	287.75	292.00	308.00	336.00	437.25	447.00	434.75	427.50	416.25	408.25	396.25	387.50	380.25	370.75	368.75	366.00	363.25	360.75	357.25	358.00	356.00	357.50	354.75	357.50	354.75	350.25	351.25	349.50	351.00	350.50	350.00	348.25	347.50	346.25	343.25	341.00	341.75	341.25	339.75	342.50	348.25	346.25	350.00	355.00	356.50	361.50	369.00	375.75	380.75	378.75	377.75	373.50	369.50	369.25	368.75	369.50	371.00	367.00	365.75	361.50	365.00	355.50	364.50	369.00	371.50	371.25	364.25	346.50	342.75	329.00	329.25	352.50	370.75	385.25	394.75	400.00	402.00	404.50	404.00	400.50	400.00	397.25	396.00	391.75	386.25	373.25	358.50	346.75	343.75	346.25	347.00	349.50	351.75	359.25	357.50	417.25	388.00	373.75	376.00	398.75	404.00	397.00	439.50
211.75	213.00	214.50	218.25	219.50	219.00	216.25	212.75	212.50	210.25	208.25	203.50	204.75	205.50	209.25	210.50	211.25	213.25	213.50	212.50	207.25	203.75	201.00	197.25	194.25	190.50	192.00	195.75	191.50	196.00	196.25	201.00	201.75	202.00	200.50	204.25	210.00	209.25	212.75	217.00	217.00	215.25	213.50	209.50	210.50	212.25	213.50	219.00	223.25	230.00	226.75	220.50	214.25	209.75	205.75	207.75	214.25	219.00	223.00	223.00	224.50	229.25	227.75	226.75	223.75	220.50	218.25	220.25	221.25	223.75	224.75	227.25	231.25	232.00	234.00	234.00	233.50	232.50	230.50	231.25	231.75	236.25	238.00	240.25	244.75	243.25	241.50	239.25	238.50	239.50	240.50	240.00	243.25	245.00	246.75	249.25	252.25	252.25	255.25	255.75	258.50	264.75	269.75	283.00	291.50	307.00	336.75	401.50	387.25	346.75	318.25	319.50	324.50	331.25	364.25	364.50	345.50	332.25	327.75	321.75	318.25	316.00	313.50	308.75	316.50	315.00	319.25	319.25	321.50	323.25	319.00	329.25	332.00	333.75	340.75	348.75	358.00	374.50	372.75	364.25	361.75	356.00	352.75	350.50	345.50	337.00	330.75	324.50	306.50	296.25	297.50	293.25	289.25	289.50	294.25	320.00	378.00	408.25	429.50	425.00	419.25	411.25	400.50	390.75	383.00	376.50	369.00	366.75	365.25	361.75	361.00	358.50	356.25	359.00	359.75	355.75	356.50	353.75	355.50	356.00	355.50	350.75	348.50	346.00	346.50	344.25	341.25	344.00	343.25	339.50	341.50	338.75	338.00	347.50	348.50	349.00	352.25	351.00	363.25	377.50	386.75	389.75	384.75	380.00	377.75	375.75	372.25	372.25	369.00	366.50	363.50	358.75	361.25	355.75	354.00	357.75	358.75	349.00	330.50	327.25	315.25	313.25	318.25	341.50	358.25	368.50	402.75	402.00	402.25	396.50	389.75	385.00	379.25	368.50	363.25	357.25	350.50	342.00	338.00	337.75	340.25	341.75	343.75	346.00	366.75	422.00	420.25	373.75	410.00	367.25	369.00	377.00	401.75	404.25	440.50	475.50
210.00	211.00	215.00	218.25	219.50	218.25	217.25	215.50	213.50	204.00	199.75	201.00	205.25	207.25	208.25	211.25	211.50	212.75	211.75	210.00	207.00	203.50	200.25	196.25	194.00	190.00	192.00	192.00	190.25	195.75	197.75	200.00	205.25	205.75	204.25	206.00	213.00	209.75	215.25	215.50	215.75	213.25	214.25	208.25	210.25	212.75	214.25	221.75	228.00	232.00	220.50	214.75	209.75	206.25	205.25	210.25	215.75	219.00	221.00	219.25	225.50	226.50	225.00	223.25	220.25	217.00	218.75	221.25	222.00	225.25	226.50	228.25	230.50	232.50	232.25	231.50	232.25	231.00	231.25	230.75	231.75	235.25	238.25	239.50	240.00	239.50	237.75	237.25	236.50	237.75	240.25	240.25	245.00	244.75	245.25	247.25	249.00	250.00	254.25	258.50	261.50	265.50	271.00	285.25	296.50	318.00	366.50	406.50	379.25	347.75	321.00	321.50	325.00	334.75	372.50	358.50	344.00	329.50	328.00	321.00	312.50	316.00	311.00	309.50	314.25	313.00	320.00	321.00	320.75	323.50	322.25	331.75	331.50	335.25	341.00	351.50	368.25	382.00	372.75	363.25	361.00	352.50	348.50	348.50	344.75	337.00	328.50	322.25	304.50	304.50	300.50	293.75	290.00	293.25	299.00	345.25	397.00	411.25	417.00	415.75	414.50	407.75	396.00	386.50	380.50	376.50	369.25	363.50	363.50	361.75	364.75	362.75	362.00	360.00	360.50	356.50	355.25	351.75	351.25	353.00	354.25	353.00	351.75	350.00	346.00	340.75	342.50	344.75	343.00	334.25	338.50	338.50	342.25	341.00	343.50	347.50	342.00	347.00	376.25	401.75	406.25	404.00	391.75	383.50	379.00	375.00	371.75	368.75	363.75	358.00	358.00	360.00	361.00	343.00	337.25	333.75	321.25	313.75	309.25	308.75	310.25	314.25	350.50	486.25	483.75	327.25	354.75	365.25	355.25	347.00	343.75	336.25	334.25	332.50	331.25	331.00	332.00	332.75	334.50	336.75	339.50	340.50	342.50	348.00	426.50	498.50	426.75	362.00	362.25	365.00	369.75	390.00	386.75	393.25	435.50	519.00
209.50	211.25	214.75	217.00	219.00	217.25	215.50	216.50	212.00	201.00	198.50	201.75	204.25	207.50	209.50	211.00	212.00	212.00	211.25	209.75	206.75	204.75	200.50	195.75	192.50	189.75	189.75	191.00	191.25	196.75	200.50	202.50	204.25	207.00	208.50	206.00	212.00	214.50	213.00	215.00	213.25	212.00	208.50	206.25	210.00	213.50	214.50	218.25	233.00	238.00	217.75	210.00	207.50	204.25	205.50	210.25	215.50	218.00	217.25	216.75	225.75	224.75	222.25	219.25	217.00	218.50	220.50	222.75	223.25	226.50	227.25	229.00	230.50	230.75	231.50	231.25	231.25	231.25	229.50	231.25	231.50	231.50	234.50	237.25	238.00	237.50	237.25	236.75	237.25	238.00	239.50	240.25	242.00	243.00	244.75	245.75	248.00	250.50	254.00	259.50	264.50	269.00	274.75	290.25	304.00	359.25	448.00	415.00	368.75	347.75	326.50	326.00	327.00	340.00	367.50	358.50	342.00	330.50	328.50	325.75	320.25	307.00	305.75	310.00	312.50	314.50	320.75	319.50	325.25	321.25	326.75	332.75	332.75	336.50	343.50	353.75	364.50	378.75	371.25	362.50	355.50	351.00	349.75	347.50	343.00	333.25	330.00	322.00	306.00	304.25	299.25	294.50	289.50	294.00	302.75	398.25	443.25	432.25	425.75	415.25	414.00	403.75	393.25	385.50	377.75	371.75	369.50	366.50	363.50	365.25	365.00	364.75	359.25	359.50	361.25	357.50	356.25	353.50	351.50	352.00	352.50	349.00	346.50	347.50	346.50	346.75	340.00	337.00	335.00	333.75	328.50	332.25	337.75	334.75	334.50	325.25	323.50	345.75	457.00	477.00	432.50	415.00	393.50	383.25	375.25	371.00	365.25	360.50	357.25	356.50	355.00	344.00	335.00	323.00	318.00	310.50	303.75	304.75	305.50	307.25	316.25	346.75	549.50	625.00	569.75	429.00	338.25	329.75	329.00	328.25	329.00	329.25	328.75	329.50	329.75	331.00	332.00	334.50	337.75	340.50	342.75	343.50	347.75	382.00	462.25	446.50	423.25	368.25	369.25	371.25	370.50	373.25	400.50	428.25	480.75	535.25
208.75	210.25	212.75	215.50	216.50	214.00	215.25	212.75	207.50	201.00	200.00	201.75	204.00	206.25	208.50	208.75	210.50	212.25	213.00	210.50	208.25	203.00	199.75	194.25	192.25	188.75	188.50	187.50	188.75	197.75	199.50	200.50	206.00	213.00	211.50	211.50	214.00	213.50	209.75	212.75	211.75	208.50	208.25	206.00	208.25	209.75	209.75	216.00	225.00	220.25	213.00	208.25	203.50	203.25	206.50	209.25	212.75	214.75	215.50	214.75	222.75	219.25	219.00	215.00	217.50	218.50	221.00	222.75	224.50	226.50	225.75	229.25	230.25	228.75	230.25	228.50	227.25	227.25	230.00	230.00	229.75	231.50	234.25	237.50	238.25	237.00	236.25	236.00	235.50	237.25	238.00	239.25	241.25	242.25	245.25	247.50	248.50	252.25	256.00	260.75	264.75	271.25	277.00	296.25	316.25	388.00	444.50	405.25	359.00	347.25	329.00	328.50	331.50	360.00	367.75	354.50	341.00	332.25	328.25	324.50	318.25	296.75	303.50	312.00	314.25	317.75	320.25	321.75	326.00	320.75	331.25	333.75	334.75	336.50	348.00	357.50	368.50	376.50	366.00	358.00	355.50	349.25	350.75	347.25	339.00	334.25	331.75	320.25	307.50	305.75	300.75	291.75	290.25	296.00	307.50	464.75	462.50	449.50	433.25	421.25	412.75	400.50	387.25	382.00	374.75	370.25	370.75	367.75	365.75	366.00	365.25	361.25	358.25	359.75	357.50	354.75	354.50	354.50	353.00	355.00	354.75	350.00	347.50	345.75	346.50	345.75	347.25	340.75	344.00	344.50	342.25	322.75	331.00	325.75	321.25	309.50	315.25	393.50	579.75	513.25	446.00	417.25	387.25	375.75	365.25	362.00	358.50	354.75	347.75	343.25	329.75	318.50	312.75	308.75	311.75	304.75	300.25	302.25	306.00	311.00	343.25	479.00	627.00	628.75	625.75	572.25	371.75	346.00	340.00	333.75	331.50	330.00	330.25	332.00	332.75	334.50	339.75	369.75	446.25	380.25	347.75	347.25	359.00	480.50	471.00	467.00	463.00	388.50	427.75	421.00	396.50	374.50	390.25	446.75	502.75	532.00
207.00	208.75	212.25	213.75	214.00	212.50	211.00	207.25	207.50	202.25	200.00	200.00	202.50	206.00	206.75	207.50	210.75	211.50	212.50	211.25	208.25	204.25	200.00	196.00	192.00	191.50	189.25	186.25	187.75	195.00	196.50	200.75	202.50	207.75	211.00	214.75	210.25	213.00	209.50	209.75	211.00	208.75	207.00	204.25	204.25	209.50	209.50	216.25	218.75	215.25	209.00	205.75	202.00	202.25	206.50	207.75	208.75	211.00	211.75	215.75	218.50	214.75	215.75	215.75	217.00	218.25	221.50	223.75	225.50	226.25	226.00	229.00	230.00	230.25	227.25	227.00	225.50	224.75	226.75	227.50	230.00	234.75	236.00	237.00	235.75	234.75	234.00	233.75	235.25	236.25	237.25	238.50	241.50	241.75	245.50	246.50	249.00	252.25	257.50	261.25	265.00	271.50	277.25	298.00	317.50	385.75	435.25	397.75	354.50	341.00	328.75	338.50	361.00	378.25	363.50	348.75	336.50	329.75	328.75	322.00	312.25	298.50	304.25	314.00	316.00	319.75	320.75	323.50	325.50	322.75	332.25	332.50	336.00	338.00	350.25	370.75	376.25	367.50	360.75	360.50	353.25	349.75	350.25	346.00	339.25	334.25	330.75	321.50	308.00	302.25	295.00	290.50	294.25	302.25	319.00	479.25	487.75	466.25	446.75	427.75	415.00	401.00	389.75	383.25	376.75	368.50	371.25	369.25	366.50	362.00	363.25	358.25	358.25	355.25	358.50	356.00	353.50	355.25	355.00	354.00	350.00	351.00	352.75	347.00	348.75	350.50	350.50	347.00	346.25	340.50	338.75	330.50	321.00	313.75	308.25	305.50	305.50	327.00	368.75	486.00	445.00	403.50	371.00	361.75	352.00	352.00	346.00	342.25	324.25	310.50	304.75	302.50	302.25	300.00	301.75	299.00	301.50	305.25	318.00	338.75	523.75	616.50	627.50	627.25	625.25	601.75	481.75	475.50	476.50	389.50	351.00	338.25	336.75	338.50	346.75	368.50	436.50	502.50	561.75	516.00	356.25	355.75	436.25	533.00	471.75	506.25	480.25	453.00	526.50	507.25	482.00	466.00	450.25	422.25	499.00	532.00
205.50	207.75	211.50	212.75	212.50	209.75	207.25	205.50	207.00	201.00	197.75	198.50	202.00	205.00	206.00	208.25	209.75	212.50	213.00	211.00	208.00	204.25	200.00	196.50	192.00	190.00	188.00	187.25	185.75	194.25	197.00	200.00	200.25	204.50	208.25	208.50	206.50	207.25	205.75	208.50	211.25	210.00	204.75	201.00	204.75	209.00	209.00	214.75	217.00	214.50	207.75	204.25	201.50	202.00	206.00	205.75	207.25	209.75	210.25	211.50	213.50	212.75	214.25	216.75	217.50	218.50	222.00	224.75	225.25	225.50	224.75	228.00	229.25	230.50	226.50	224.50	223.75	223.50	225.25	228.50	232.25	236.00	235.75	235.75	234.25	233.75	233.00	233.25	234.75	236.00	236.50	238.00	241.00	242.25	246.25	246.75	249.50	252.50	257.75	263.25	266.25	272.00	277.00	297.50	314.25	374.25	426.25	391.75	351.00	336.25	332.25	358.00	394.00	384.25	359.00	344.75	334.00	329.75	329.75	322.25	311.50	299.75	305.75	315.25	316.00	321.25	320.50	325.00	324.50	329.25	335.25	335.75	338.75	339.50	352.25	374.75	378.00	362.75	362.50	360.50	352.00	350.00	351.00	345.25	337.75	334.00	330.00	323.00	308.00	298.25	294.00	291.50	297.25	307.50	330.50	478.75	488.25	466.50	447.75	425.00	413.00	398.75	387.50	381.75	377.50	371.75	369.50	366.25	366.00	362.75	364.50	360.00	359.00	356.25	357.75	355.75	351.75	351.75	354.25	355.50	350.25	350.50	352.50	351.00	349.50	350.00	352.25	347.75	345.25	338.50	336.75	331.75	316.75	308.75	305.50	300.75	299.50	312.25	334.00	459.00	450.25	385.75	359.50	354.50	340.00	340.50	334.25	329.25	306.00	296.50	295.50	296.00	296.75	294.75	297.00	300.00	303.00	308.25	328.75	365.00	609.75	624.50	627.75	626.00	625.25	622.75	590.50	596.25	590.00	446.75	419.25	351.25	343.25	345.00	364.75	447.25	542.50	564.25	564.50	554.75	361.75	366.00	505.00	537.25	477.00	517.50	493.00	500.25	530.00	530.25	517.25	526.25	522.75	446.25	507.75	532.00
204.00	206.50	209.00	211.25	211.25	207.25	205.00	204.00	204.50	199.25	196.75	198.25	200.00	202.00	205.75	208.50	211.25	212.25	212.25	210.50	208.25	207.00	200.25	198.00	194.25	190.00	185.75	186.25	186.50	193.50	196.75	199.00	201.25	203.75	204.25	201.50	199.75	200.50	204.25	209.75	211.50	207.25	201.75	199.25	201.75	206.50	206.25	213.00	214.50	212.25	206.25	202.75	200.75	201.25	203.50	205.50	206.75	208.75	208.00	208.00	210.25	213.25	215.75	217.50	218.75	220.25	221.50	222.75	223.50	224.50	223.75	226.50	228.50	226.75	225.75	220.75	220.50	223.75	225.25	231.75	230.75	232.75	234.25	234.75	233.00	231.75	231.75	232.50	233.50	234.50	236.00	237.75	239.75	243.75	247.25	248.75	251.50	254.50	259.50	265.00	269.75	275.25	279.25	295.50	310.50	370.00	407.25	379.25	340.50	332.00	342.25	426.25	410.00	382.50	359.50	339.25	333.00	330.25	326.25	321.50	310.50	302.75	312.25	321.25	316.00	322.00	325.00	324.50	325.75	333.00	332.75	341.00	339.75	340.75	355.75	375.75	371.50	361.75	365.00	359.25	350.75	352.75	349.25	343.75	336.25	334.75	331.00	315.25	303.25	299.00	294.00	294.25	301.25	314.75	355.00	473.25	474.75	452.25	436.50	417.25	405.50	391.00	380.75	381.25	378.00	376.50	365.75	363.50	365.75	364.25	365.75	362.50	357.00	358.25	356.75	355.50	350.25	346.50	349.75	348.00	348.50	350.75	354.00	353.25	353.00	352.50	350.25	341.50	339.00	336.50	328.50	316.75	310.75	308.00	300.75	294.50	291.25	295.50	305.25	343.75	365.00	343.75	336.75	328.75	324.50	322.25	310.50	299.25	289.75	289.50	290.50	292.25	293.75	298.75	300.50	304.75	311.00	321.25	388.75	537.50	620.50	625.00	625.25	624.25	624.75	624.25	621.00	617.50	611.25	582.25	595.00	504.50	457.50	440.00	536.75	537.75	567.00	560.75	541.00	471.25	437.25	439.75	539.00	538.50	495.50	532.75	523.00	541.25	537.50	541.50	536.25	542.00	537.00	477.75	514.25	536.25
203.00	206.00	206.50	210.00	209.00	204.50	203.00	202.00	203.00	198.75	196.75	197.25	198.50	202.75	206.75	208.25	210.50	210.25	211.00	209.50	207.25	204.50	200.00	196.75	191.50	188.75	187.25	186.75	185.00	192.25	195.75	197.75	200.00	203.00	200.25	197.50	195.25	199.00	203.50	206.50	207.50	203.25	200.25	198.00	199.75	205.00	205.75	211.00	212.00	208.50	206.00	200.75	199.50	200.50	207.50	211.00	205.50	205.25	206.00	208.25	210.50	214.50	217.25	218.50	220.00	220.50	222.25	222.25	224.50	222.75	223.00	224.00	226.75	224.00	219.50	217.75	220.75	222.25	223.50	227.25	228.50	229.00	233.00	232.75	230.75	230.25	229.75	230.25	232.00	233.25	234.25	235.50	239.25	242.75	247.25	250.00	253.00	257.50	261.75	267.25	272.50	280.25	284.50	295.00	307.25	361.50	407.00	376.00	339.25	334.50	342.75	389.75	392.00	382.25	355.25	338.50	331.00	324.25	329.00	323.00	312.50	310.50	324.25	325.25	318.50	320.00	324.25	325.00	329.00	333.75	335.00	337.75	342.25	344.50	357.75	369.75	366.25	363.75	364.50	357.25	351.25	351.75	348.75	345.00	337.00	336.25	323.75	310.75	302.75	298.75	293.50	296.00	305.75	327.50	406.75	472.25	468.75	449.25	429.50	411.25	398.75	390.00	380.75	379.00	374.25	372.00	368.25	366.25	365.00	364.00	362.50	360.00	360.00	360.25	354.50	352.25	352.00	351.50	351.50	348.50	349.25	351.00	359.75	348.25	350.25	351.00	344.00	340.50	337.00	329.00	314.75	308.25	308.50	307.25	310.00	298.25	286.75	283.50	286.75	298.75	310.00	311.25	315.75	315.00	301.00	295.00	288.75	284.00	286.75	289.00	290.75	293.75	298.00	305.50	308.50	321.00	335.00	385.25	591.50	622.25	621.50	624.00	622.25	620.50	621.75	622.50	621.00	619.00	615.00	611.00	609.50	599.00	586.25	576.75	568.00	568.00	569.75	548.50	501.50	445.50	555.75	545.75	542.00	541.25	513.25	545.50	542.25	545.25	545.00	545.00	544.50	546.00	545.25	513.75	494.00	534.75
202.00	203.25	204.00	207.25	207.25	204.00	201.75	200.25	200.50	194.75	195.25	198.25	200.25	204.00	206.00	205.50	206.50	207.50	208.50	207.25	205.50	203.00	199.00	195.25	190.25	188.00	186.25	184.25	184.25	193.25	194.50	197.25	200.00	199.75	201.25	193.50	196.00	198.50	201.75	203.50	206.00	204.75	199.25	196.00	198.75	202.50	205.50	208.75	207.75	204.25	201.50	200.00	198.75	200.25	210.75	204.25	203.00	202.75	205.75	209.50	211.00	216.50	220.75	227.50	224.25	222.00	219.50	223.50	222.25	221.00	222.25	224.00	222.50	221.50	219.25	216.25	219.25	221.75	223.00	224.00	224.75	226.75	230.50	230.25	229.00	228.00	228.00	229.00	230.00	231.75	233.75	236.25	240.00	244.00	249.00	252.25	255.50	259.00	263.00	269.50	275.75	287.00	292.25	301.50	311.50	360.00	388.00	364.50	340.25	337.50	342.25	359.75	397.00	378.50	350.25	335.75	327.75	329.25	329.75	324.75	313.50	316.00	326.75	329.25	320.75	325.25	331.75	331.00	332.25	336.75	336.25	337.00	342.75	347.75	354.00	368.00	368.75	368.50	367.50	354.75	352.75	351.00	347.25	342.00	335.75	330.00	318.50	307.50	300.75	297.25	295.75	299.00	316.25	395.25	476.00	473.50	458.00	427.25	415.75	404.25	394.75	385.25	383.50	377.50	372.50	373.50	369.25	366.75	362.75	363.25	360.25	358.50	357.75	354.50	352.25	352.25	352.00	355.00	354.25	353.50	354.75	353.75	352.00	350.75	348.50	348.75	341.50	338.25	326.50	316.50	311.50	308.25	305.25	304.75	305.75	314.75	309.75	302.00	295.50	296.50	295.75	299.00	298.75	291.00	288.00	286.25	283.00	283.50	287.25	289.75	291.50	296.25	303.00	317.25	327.50	436.00	508.50	576.25	620.00	620.75	622.00	622.75	620.00	619.25	619.00	620.00	618.25	617.00	616.25	616.25	615.50	609.50	600.25	588.25	580.00	580.75	578.50	570.50	548.00	544.00	554.00	557.50	546.75	539.25	512.00	550.50	548.00	545.75	545.75	546.50	548.50	550.00	548.75	537.75	508.25	524.75
199.75	199.25	201.75	206.00	205.75	203.00	202.25	198.25	197.50	193.75	196.50	198.75	200.50	203.75	204.25	203.25	202.50	201.75	203.75	204.50	204.25	202.25	198.25	195.00	190.00	187.75	186.50	183.00	188.00	191.00	192.75	192.00	196.25	198.50	202.75	193.50	195.50	196.50	198.25	202.25	206.00	205.75	198.50	195.50	197.75	204.00	206.50	206.75	206.25	202.00	199.25	199.00	198.00	198.75	200.25	201.50	200.50	200.75	205.75	208.75	211.25	217.50	235.00	225.00	220.75	219.25	220.00	219.00	219.00	218.25	218.25	220.50	219.75	218.75	218.75	217.25	220.00	222.00	223.00	224.75	225.25	226.00	227.00	228.75	229.25	226.75	227.00	229.75	231.50	236.75	237.25	237.25	242.50	246.25	251.25	254.50	259.00	263.00	265.75	270.00	278.50	315.00	312.50	316.00	325.50	375.50	383.75	357.00	342.50	342.25	345.25	349.25	371.25	366.50	344.25	334.50	331.25	334.50	334.25	327.00	316.75	324.75	327.25	332.25	321.75	327.50	333.00	327.75	337.50	337.75	337.00	339.25	344.50	351.75	361.75	366.75	369.00	368.50	365.00	354.25	353.75	350.50	347.25	339.25	333.50	328.25	308.50	305.75	299.00	295.25	297.00	303.50	341.25	459.25	490.50	464.50	441.75	415.75	408.75	401.50	391.25	383.50	378.25	375.25	367.50	370.25	367.25	365.75	365.50	363.75	358.50	357.00	355.00	353.50	356.75	356.75	356.25	352.25	353.00	355.25	356.75	353.75	348.25	355.50	344.50	351.25	334.50	321.50	315.50	315.25	310.50	311.25	314.00	324.75	331.50	344.25	340.25	344.00	329.75	307.00	293.50	287.25	285.25	284.50	284.75	282.00	282.00	284.00	288.25	291.50	293.25	299.00	332.50	345.00	353.75	555.50	624.25	622.75	619.50	619.00	619.50	621.00	617.25	617.25	617.25	617.00	616.50	616.50	616.75	617.25	616.00	609.50	603.00	602.50	598.00	594.75	584.50	574.75	570.00	568.25	559.50	559.50	553.75	522.25	539.00	553.00	551.25	547.75	547.50	551.75	555.00	555.00	555.25	549.50	541.50	549.50
197.25	197.50	200.75	205.50	205.00	204.25	203.25	199.25	195.75	193.75	196.50	199.25	200.50	202.00	202.75	201.50	200.50	201.50	201.25	200.75	201.25	200.75	196.75	192.50	190.75	189.50	185.50	182.50	186.75	191.00	191.00	190.50	194.75	197.00	200.00	196.75	194.25	193.75	198.25	201.75	206.00	202.00	197.00	194.25	194.75	201.50	204.00	203.25	201.50	200.00	198.50	197.25	197.50	198.00	198.25	197.75	200.00	203.25	204.75	208.25	211.50	216.25	251.75	221.75	218.50	219.75	218.50	217.25	217.00	216.00	217.75	217.75	218.75	217.00	217.00	218.50	222.25	223.00	223.25	223.50	223.75	224.25	226.75	226.25	228.50	229.50	230.25	233.75	234.25	235.25	236.50	238.25	242.25	246.25	252.75	257.00	261.75	267.00	270.50	276.75	289.50	422.25	355.25	360.25	359.00	399.50	379.00	358.50	348.75	349.75	359.00	367.25	385.75	361.25	341.25	335.50	334.75	336.00	337.00	330.25	324.50	331.25	331.25	329.25	325.50	326.25	330.75	328.25	337.75	340.25	345.25	343.25	348.75	360.25	372.00	365.00	362.50	363.75	363.25	357.00	355.00	352.50	345.50	336.50	333.50	319.25	307.50	304.25	298.75	295.25	299.75	309.75	342.25	452.75	475.25	450.25	438.00	423.25	413.50	397.50	388.75	380.50	377.00	372.75	371.50	368.25	366.25	366.50	362.50	359.25	356.75	359.00	359.75	355.75	358.25	358.25	357.75	356.50	356.75	357.00	352.25	351.00	352.50	350.25	343.25	339.50	322.75	315.75	315.75	320.75	322.50	328.75	334.75	343.50	347.75	349.50	340.25	322.75	303.75	290.50	282.50	283.00	284.00	284.75	285.25	281.00	282.25	284.25	289.50	293.75	297.50	305.25	332.50	556.25	500.25	602.50	619.75	621.00	619.00	617.25	616.00	617.50	615.50	614.50	615.00	615.25	615.00	615.50	615.00	615.50	615.75	613.50	613.50	611.25	608.00	603.75	595.50	587.75	583.50	576.50	565.00	563.50	558.25	538.25	537.75	554.75	554.50	552.00	554.25	558.50	559.75	559.75	560.00	557.75	555.00	554.50
192.75	195.75	201.50	204.75	202.50	201.00	201.75	196.00	193.50	193.25	194.25	197.50	199.25	199.75	199.75	199.25	198.25	197.50	200.25	200.50	200.50	197.00	193.75	188.50	190.00	187.00	181.00	181.50	186.00	193.25	192.00	193.75	192.50	196.75	196.25	195.00	193.50	197.25	200.00	203.75	204.75	201.75	198.25	192.50	193.00	198.50	200.75	201.75	199.00	199.00	196.75	196.75	196.00	195.75	196.50	197.25	199.75	203.75	204.50	206.25	208.50	217.00	227.00	219.50	216.75	218.25	213.00	212.50	214.50	215.75	217.75	216.75	215.50	215.50	219.00	221.75	222.75	222.00	221.75	221.75	222.00	225.75	228.25	228.25	230.75	229.75	230.25	230.75	231.75	232.75	235.50	238.75	243.50	246.50	254.00	258.00	264.25	271.50	276.25	287.00	303.25	417.75	399.50	364.00	378.00	404.00	375.00	354.00	351.00	353.75	362.75	397.00	393.75	361.00	340.00	333.00	337.25	340.25	337.50	331.50	328.25	330.50	333.00	331.25	328.50	327.25	327.75	333.00	335.75	345.75	351.75	352.00	359.50	378.00	379.50	369.50	369.00	365.25	362.00	355.50	355.50	349.50	341.25	336.00	332.50	316.75	309.25	304.25	298.50	295.75	303.25	317.25	386.75	465.50	457.50	429.25	414.00	409.25	402.00	391.25	384.00	377.75	376.50	373.50	368.25	363.75	370.25	363.25	361.25	360.50	359.25	361.50	361.50	358.75	360.00	357.75	358.00	357.00	356.75	355.00	356.50	354.25	347.00	343.75	336.75	323.00	317.50	321.50	330.75	336.75	339.50	342.50	344.50	344.25	336.50	319.75	309.75	296.25	283.25	281.75	282.25	283.25	284.25	282.75	285.00	281.75	281.75	286.25	292.50	297.00	302.00	309.75	318.50	453.50	521.75	562.00	604.75	619.00	618.50	616.50	615.00	614.50	612.50	611.50	612.75	613.75	614.00	613.75	613.25	613.75	614.25	615.25	616.50	613.75	611.25	608.75	604.00	597.75	590.00	581.75	569.50	564.50	556.25	539.50	547.00	558.25	561.75	562.00	563.50	564.75	566.25	566.25	565.25	563.50	561.75	558.00
192.75	196.00	200.00	203.75	202.50	200.50	198.50	195.00	192.00	192.25	191.00	195.75	196.25	198.00	197.75	196.00	195.25	196.25	197.50	198.25	200.25	198.00	191.75	188.25	188.75	183.25	180.25	186.00	191.00	194.00	193.25	193.75	192.50	196.50	196.50	189.75	194.00	198.00	200.00	202.00	200.50	197.50	194.25	191.50	191.50	196.25	198.00	198.75	198.00	196.50	195.75	195.25	194.50	194.50	196.25	197.50	200.50	202.75	202.00	204.00	208.50	211.75	212.75	213.00	212.75	209.75	213.00	214.50	218.00	218.00	217.25	214.75	215.75	216.50	218.75	220.50	220.25	219.75	221.75	222.75	225.75	226.25	227.75	227.00	227.75	226.75	228.00	230.25	230.75	232.50	235.25	239.00	243.25	247.75	253.50	258.25	266.25	280.00	286.50	289.25	307.00	388.75	421.50	365.75	401.00	395.75	367.00	352.50	353.25	356.25	369.50	409.25	385.75	358.00	343.25	340.25	343.00	341.00	338.50	335.25	332.25	334.00	333.00	330.50	328.75	327.50	329.50	334.50	337.50	346.25	353.00	358.75	373.50	391.75	383.00	372.00	367.50	363.00	358.50	355.50	353.75	347.50	340.00	335.25	326.75	310.25	307.25	302.50	297.75	299.25	307.50	334.25	409.00	428.00	426.00	418.25	407.00	398.25	395.00	386.25	382.50	376.50	372.50	373.50	371.25	369.00	362.50	363.00	363.50	362.25	362.25	360.50	360.25	359.50	357.50	359.25	360.00	359.00	360.00	359.00	354.00	345.25	335.50	333.25	329.75	328.25	333.75	340.75	341.00	344.00	343.00	345.50	339.50	325.25	314.00	298.00	291.25	284.50	281.75	281.00	282.00	283.25	283.00	279.75	280.75	280.00	283.00	287.50	293.50	299.00	304.50	313.75	321.50	389.75	464.25	542.00	613.00	617.25	616.00	612.00	611.75	611.25	610.00	610.25	612.25	613.00	613.00	613.00	613.00	613.00	613.50	614.25	615.25	614.50	612.00	608.75	604.50	598.00	590.50	580.25	569.50	565.75	556.75	554.00	554.75	563.75	570.75	570.75	569.75	567.75	569.50	569.50	569.25	566.25	562.50	561.00
193.75	196.50	200.00	201.75	203.25	200.25	198.00	195.00	191.00	190.25	188.25	192.50	195.00	196.75	196.25	193.00	194.00	195.00	196.25	196.00	196.25	196.25	190.00	185.25	185.50	182.00	181.75	186.75	191.00	192.50	193.75	192.25	190.75	194.25	193.50	183.75	192.25	198.00	200.25	198.00	200.25	195.50	193.00	190.50	191.25	194.25	195.25	198.25	197.75	195.25	194.00	193.75	193.75	195.25	198.75	199.50	200.50	199.75	201.25	206.00	210.25	209.75	210.75	207.25	207.25	211.75	215.50	219.75	222.25	221.00	217.75	216.50	214.75	215.75	218.25	217.75	218.75	222.00	223.00	225.00	226.50	224.75	225.75	223.50	224.25	227.00	227.00	229.75	229.75	232.25	235.00	237.25	242.50	246.00	252.00	257.50	281.50	393.00	338.25	295.50	312.75	460.00	465.50	397.50	415.00	388.00	363.25	354.50	355.00	360.00	383.00	414.00	382.25	359.50	346.50	346.00	346.50	342.75	338.50	338.00	336.75	333.75	334.00	331.00	331.75	331.75	332.00	335.50	340.75	346.50	364.00	368.00	381.00	392.00	384.00	370.25	366.75	360.25	357.00	354.00	350.25	345.50	339.00	334.50	318.00	307.00	305.25	301.75	298.50	302.50	316.25	352.00	436.75	444.00	425.75	408.50	405.00	396.50	395.75	387.50	382.00	374.50	373.00	374.25	368.00	365.00	361.25	364.75	363.75	362.75	361.75	363.00	360.50	363.00	361.25	359.25	358.25	367.00	358.00	345.50	340.75	337.75	324.25	334.50	334.75	339.00	345.25	341.25	341.75	344.25	340.00	329.00	312.75	296.00	286.50	283.75	283.25	280.50	277.25	282.00	284.25	280.50	280.00	277.50	279.00	280.25	282.75	286.75	293.00	298.50	304.75	317.50	327.50	374.00	536.75	612.25	613.75	614.25	611.75	610.50	609.50	610.25	608.75	609.25	611.25	612.25	612.25	612.50	612.75	613.25	613.25	614.00	614.75	614.25	612.00	609.25	604.50	598.50	590.00	580.00	574.75	569.50	563.25	562.50	561.50	570.75	578.75	575.00	572.00	565.75	567.25	567.75	567.00	564.75	562.75	562.00
193.25	198.25	199.50	201.75	201.50	200.00	197.75	193.50	191.00	185.75	186.50	191.75	193.50	194.50	193.75	191.75	192.75	195.75	196.75	194.00	192.00	192.00	188.00	182.75	181.75	183.00	183.75	186.00	184.00	189.50	193.25	189.75	187.75	189.00	186.00	181.50	192.25	196.25	197.50	193.50	198.00	194.25	191.75	189.50	191.75	194.00	195.00	196.00	195.25	193.25	192.50	193.25	195.25	195.50	197.50	197.25	200.50	202.50	205.75	208.50	207.50	207.75	208.25	209.50	211.75	214.25	230.50	228.00	228.00	225.25	221.75	220.50	220.50	221.00	220.75	222.50	224.25	225.75	226.50	225.50	225.50	222.75	222.00	223.00	225.00	225.00	226.25	228.75	230.25	233.00	234.75	237.50	240.25	243.25	249.00	256.75	299.25	513.00	407.50	317.50	315.75	458.50	454.75	415.00	409.25	383.00	362.25	353.75	359.50	375.50	408.75	413.50	378.00	357.50	350.75	349.00	346.25	341.00	339.25	335.75	335.50	333.50	334.00	332.25	330.75	332.50	337.00	338.75	345.75	355.75	383.25	387.50	394.25	393.25	381.25	369.50	362.00	359.75	357.50	353.00	348.50	343.00	338.00	333.25	320.50	311.00	305.00	301.25	301.25	306.00	320.00	369.25	456.00	441.75	433.00	414.25	409.00	400.75	396.00	388.25	382.50	373.50	370.50	368.00	367.00	365.75	365.00	363.50	364.25	363.25	363.00	363.50	362.75	361.00	359.75	354.25	357.50	346.25	341.25	342.75	339.75	335.25	340.00	342.00	342.50	340.50	342.00	343.25	336.75	330.00	315.50	299.25	282.50	276.25	275.50	276.50	277.25	277.50	280.50	284.00	280.25	277.00	277.50	277.25	279.75	282.50	285.75	287.75	291.75	299.00	317.25	337.25	382.75	425.25	593.00	610.00	612.75	612.75	609.50	608.00	608.25	608.25	607.75	608.25	610.00	610.50	611.50	612.25	612.75	613.00	613.00	613.50	614.50	613.75	609.75	606.00	599.50	594.75	590.50	585.25	577.25	573.00	566.00	565.25	569.50	579.50	584.50	575.25	569.50	562.25	563.75	565.75	566.25	565.25	563.00	562.50
196.50	196.75	197.25	200.75	201.00	200.00	196.50	192.00	190.75	185.00	184.75	190.00	192.75	193.50	192.00	190.50	189.50	193.25	195.50	193.50	188.50	187.25	184.25	180.00	181.50	183.50	182.50	184.25	183.25	186.50	190.25	188.25	188.00	186.00	184.00	182.50	188.75	194.75	192.75	189.00	195.50	191.75	189.00	189.25	191.25	192.75	192.75	194.25	193.00	190.75	193.00	194.25	195.50	196.00	199.50	201.50	203.50	204.00	206.25	207.25	208.75	209.75	208.50	210.50	212.75	223.50	255.25	257.50	234.50	239.50	230.25	228.00	225.75	228.50	227.00	228.50	231.00	230.50	227.50	223.25	222.75	222.25	222.75	224.25	224.50	224.75	226.50	228.75	231.50	234.25	234.50	235.75	237.25	241.25	246.50	255.25	309.50	493.50	414.50	337.00	321.25	449.25	442.75	417.50	401.75	377.75	360.00	354.50	358.75	364.25	415.00	407.50	372.25	356.75	352.25	348.75	346.75	341.50	337.75	337.25	335.00	334.50	335.00	333.50	331.00	335.25	337.25	342.75	351.75	365.25	395.50	405.00	397.00	388.75	378.75	367.25	362.25	359.25	355.25	352.75	348.00	341.25	337.50	334.75	323.00	313.75	305.50	300.75	304.75	311.00	330.25	405.50	455.50	444.00	432.25	419.00	412.50	401.75	396.25	386.75	380.75	374.75	370.00	367.50	368.00	368.25	367.00	364.50	364.50	364.25	363.75	362.00	362.00	359.75	357.00	352.00	341.50	340.25	340.00	346.25	344.00	344.00	343.25	342.00	336.00	331.25	334.25	330.75	318.50	300.75	285.75	273.00	267.00	268.00	269.00	270.75	271.50	274.25	276.25	277.25	275.50	276.50	277.00	278.50	282.50	286.25	290.50	292.75	295.75	302.50	383.00	420.25	568.00	449.75	560.00	608.00	610.50	610.50	607.50	607.00	606.75	606.50	606.00	607.50	609.25	610.25	610.50	611.25	611.50	612.25	612.75	612.75	613.25	612.25	606.75	601.50	601.75	599.00	596.00	588.50	578.00	574.00	568.75	567.25	572.00	580.50	583.25	570.50	563.50	558.50	561.75	567.00	567.75	566.50	564.00	562.75
194.50	195.25	196.25	198.50	199.75	199.75	197.00	191.75	189.25	185.25	184.75	185.00	191.25	192.50	188.75	188.25	190.75	192.50	195.00	193.75	190.50	186.75	182.75	181.00	181.00	181.00	180.25	181.00	182.75	187.00	190.50	190.50	190.00	190.50	189.00	184.50	192.75	197.00	188.50	187.50	191.00	187.75	186.50	188.25	190.25	190.00	191.25	190.50	190.75	191.00	191.75	194.75	196.25	199.25	202.00	203.00	202.00	203.00	204.75	206.00	208.75	210.50	210.25	211.50	216.75	224.25	235.75	279.75	261.25	247.50	237.25	232.50	232.00	232.00	231.25	231.50	231.25	230.50	227.00	223.00	222.50	223.00	224.00	225.25	225.25	224.75	225.75	228.00	229.50	231.00	232.25	233.00	235.75	238.25	243.50	252.50	353.75	546.00	418.75	354.50	332.50	444.00	436.75	410.00	399.75	380.75	363.75	357.00	363.75	380.75	418.25	397.75	366.00	356.75	352.50	350.25	345.00	341.50	339.75	338.50	336.75	335.75	333.25	335.25	336.25	340.00	342.50	343.75	363.00	393.00	409.75	403.00	394.00	385.00	376.50	364.50	362.00	356.50	356.50	352.00	345.25	340.50	337.00	333.00	325.50	321.50	314.00	306.25	308.75	316.25	354.50	427.75	449.50	437.00	432.00	425.75	419.50	402.75	393.25	385.25	378.00	373.75	373.25	371.50	369.75	369.00	366.00	366.75	367.00	365.00	364.75	358.75	359.50	354.50	346.00	339.75	340.50	346.50	342.50	344.50	340.75	342.00	336.25	334.00	330.25	329.50	315.75	300.25	291.00	281.50	271.75	266.50	265.25	267.25	267.75	269.50	270.50	273.25	275.50	276.25	277.50	278.25	278.25	280.00	286.50	290.75	296.50	301.75	304.50	317.00	380.75	576.25	599.50	566.50	601.00	607.75	606.50	605.75	604.75	605.75	606.00	605.25	605.50	606.50	608.50	609.75	610.25	610.75	611.00	612.00	612.00	612.00	612.00	610.50	606.75	603.50	603.00	599.50	593.25	584.00	575.50	572.25	568.50	567.75	570.75	576.25	572.00	562.75	555.00	553.25	552.25	555.25	562.25	564.00	564.00	563.25
192.50	194.50	196.00	195.25	198.50	198.25	197.50	192.50	189.75	188.75	183.75	181.50	188.75	190.00	188.00	186.50	191.00	193.00	195.75	195.50	191.25	187.50	183.25	180.75	178.50	179.25	179.25	179.50	184.25	188.25	189.75	195.00	194.50	195.25	198.50	190.00	195.50	196.50	190.00	189.25	187.00	185.00	185.50	187.25	188.00	187.75	188.75	188.75	189.25	189.75	194.00	197.75	199.25	201.00	202.25	201.75	201.50	203.00	205.25	205.75	207.00	222.00	214.50	212.75	218.75	224.00	269.00	314.75	258.25	244.75	240.75	236.75	234.50	232.75	229.00	229.25	232.50	235.00	229.00	225.75	226.50	224.50	226.00	225.50	226.00	226.00	226.00	227.00	228.50	230.00	231.25	232.25	235.00	237.00	242.00	251.00	386.50	540.00	442.50	370.25	348.00	408.00	434.50	402.50	399.00	378.50	365.50	357.00	368.50	402.00	407.00	389.00	361.50	357.00	351.25	348.25	344.25	343.00	340.75	339.25	339.25	338.25	334.25	336.25	338.50	341.25	344.75	349.50	389.50	433.25	414.00	400.25	390.00	380.00	371.50	365.50	362.25	359.25	356.75	348.50	343.50	339.25	336.75	333.50	328.50	329.50	314.75	307.50	310.75	320.00	392.50	460.50	452.75	443.75	443.00	427.00	417.25	397.75	388.75	379.75	376.50	374.25	373.00	370.75	370.25	369.50	367.50	364.75	366.25	365.25	358.75	360.00	350.00	338.25	341.75	339.75	344.25	340.50	345.00	344.25	342.75	336.75	331.50	330.25	318.75	311.00	290.25	281.00	276.75	269.50	264.25	263.00	264.75	266.50	268.00	270.25	273.75	276.50	279.00	279.25	280.75	281.00	280.50	282.00	293.25	302.25	307.25	311.25	319.25	376.50	517.75	603.00	602.50	604.50	607.75	608.00	605.50	603.25	603.50	604.25	604.75	604.00	604.00	605.25	608.00	609.25	610.00	609.75	610.75	611.00	611.75	611.50	611.25	610.50	607.50	604.00	600.00	594.75	587.25	580.75	574.50	571.00	567.50	568.00	568.75	564.50	558.00	553.00	547.50	542.00	530.25	513.00	544.50	559.25	561.25	562.50
194.25	194.50	194.00	191.50	196.25	196.50	196.50	192.75	189.75	188.25	185.25	181.00	184.00	187.25	183.00	184.75	190.75	192.75	194.00	194.00	190.00	184.50	182.50	179.25	178.25	175.00	176.25	181.00	183.50	187.75	191.25	194.50	195.25	193.75	195.25	197.25	193.25	193.50	191.00	188.25	186.50	185.25	184.25	185.00	186.00	187.75	187.25	187.25	188.75	192.00	197.75	200.00	201.00	201.00	200.25	200.00	201.25	200.50	202.75	203.75	206.00	217.75	216.00	219.25	222.75	241.75	264.00	279.25	247.75	246.00	242.00	236.00	229.00	227.00	227.25	232.00	274.25	286.25	237.75	229.75	230.50	230.00	229.50	227.50	227.00	228.00	228.25	228.50	230.75	234.00	233.25	233.75	235.00	237.25	243.50	259.75	393.75	544.50	445.75	375.75	367.75	389.25	443.50	407.25	406.50	381.75	366.00	358.75	377.00	389.50	405.75	385.75	361.50	359.75	353.25	348.00	344.00	342.75	341.50	339.75	340.25	337.50	337.50	337.50	339.25	342.75	347.75	353.75	377.00	427.50	403.00	395.25	385.25	376.75	372.00	367.00	360.50	360.50	355.25	346.75	345.25	342.75	339.00	335.00	331.00	322.00	308.50	307.50	315.25	328.75	412.25	465.00	456.50	451.00	439.50	422.50	415.75	396.50	387.25	379.50	378.25	376.00	373.25	371.50	370.00	370.50	365.50	365.75	362.00	359.75	356.25	346.75	342.25	343.50	341.50	339.75	342.75	346.00	342.75	340.00	335.00	328.00	319.00	311.00	295.25	287.25	279.00	274.25	268.75	263.50	262.25	262.75	263.50	266.25	268.75	273.00	275.50	278.50	281.25	281.50	282.00	283.25	284.75	290.00	316.25	368.00	357.50	336.00	358.00	517.75	599.00	602.50	604.50	607.25	608.00	606.25	604.00	602.50	602.25	603.00	603.00	601.00	603.50	605.00	607.25	608.50	609.25	609.50	609.50	610.50	610.50	610.50	610.00	611.00	608.25	603.75	598.50	586.50	566.50	565.25	569.50	566.50	568.50	569.75	566.00	552.25	544.25	539.00	526.50	520.25	481.00	507.25	517.00	528.75	539.75	551.75
195.25	193.50	190.25	189.75	191.75	195.50	195.50	192.75	189.00	189.75	188.50	183.00	181.25	182.25	181.00	184.00	189.50	190.50	191.00	191.25	187.25	182.75	181.75	179.50	174.75	172.50	177.25	179.00	182.50	186.25	190.25	191.50	192.00	201.75	202.00	200.00	191.50	188.75	191.00	188.00	186.75	186.25	184.75	185.25	186.75	188.00	186.25	189.00	192.00	196.50	200.25	200.25	199.75	200.00	199.75	200.00	198.25	198.75	199.50	203.00	205.00	211.00	215.75	238.25	248.25	295.50	240.25	241.25	235.25	245.50	243.25	229.50	224.50	223.50	224.75	242.50	281.75	262.00	241.25	235.00	235.50	239.25	233.50	230.00	228.25	228.75	230.00	230.75	232.00	234.00	234.25	235.50	236.75	238.75	246.00	274.75	483.25	528.25	438.00	383.25	382.00	424.00	453.00	407.50	401.50	378.75	360.00	382.75	439.25	428.75	401.50	380.75	362.75	361.75	355.75	349.75	345.75	343.50	340.25	338.50	339.25	336.50	338.00	339.00	340.75	345.75	350.50	355.75	371.25	410.75	404.75	393.50	380.75	372.75	372.00	366.75	362.00	359.50	352.75	348.75	349.50	347.75	344.00	338.50	328.00	310.75	307.00	311.00	321.25	339.75	425.75	461.75	458.25	445.25	431.00	416.00	407.75	389.00	384.50	383.00	378.00	373.25	373.50	372.75	370.75	367.50	365.00	362.00	358.00	355.75	347.00	344.50	344.25	349.25	343.75	335.75	344.75	343.00	335.75	330.50	327.75	316.50	300.25	288.50	280.25	279.75	271.75	265.25	262.50	260.00	261.00	261.50	263.00	266.50	269.50	273.50	275.25	280.00	282.25	284.50	284.25	285.00	290.75	305.25	469.50	568.00	533.00	470.00	431.25	598.25	601.00	602.00	605.25	606.50	606.00	604.75	602.50	601.25	600.25	600.00	599.50	599.00	602.75	604.50	606.00	607.75	608.00	608.75	608.25	608.50	608.50	608.25	607.75	610.00	605.75	599.50	589.50	573.25	552.25	545.00	560.00	563.75	562.50	571.25	561.00	546.25	523.00	506.25	481.75	499.25	460.75	489.75	504.25	507.00	474.00	525.25
195.25	192.00	189.75	187.00	190.00	192.25	194.00	191.25	190.00	190.50	188.75	183.75	181.25	180.50	183.25	183.75	186.75	187.75	189.75	189.75	186.50	183.75	180.75	175.75	172.50	173.00	178.00	177.00	179.50	185.25	188.75	188.50	185.50	214.25	201.00	198.00	190.50	187.25	191.00	189.25	188.25	186.00	185.00	186.50	187.00	187.75	191.50	194.50	197.25	199.50	200.25	198.00	198.50	197.50	198.50	198.00	194.50	195.50	198.75	203.00	207.00	213.00	215.50	227.75	244.00	252.25	226.25	226.00	226.00	229.50	226.00	221.50	219.75	220.50	226.25	231.00	243.00	240.25	240.50	242.25	241.75	240.50	236.00	231.50	230.00	229.00	230.25	232.25	233.75	235.00	236.25	236.75	238.75	241.00	249.50	306.25	523.75	515.25	445.75	395.50	403.25	455.50	443.50	395.50	381.75	369.50	362.00	385.50	439.00	422.50	390.25	376.25	366.00	363.75	355.75	349.50	345.00	339.75	337.25	340.00	338.75	340.00	340.00	340.00	343.75	348.50	352.25	358.75	370.25	390.75	402.75	391.75	379.75	371.50	366.25	362.75	360.00	359.25	355.00	355.50	351.25	348.00	343.25	331.50	321.50	308.00	310.50	314.25	323.50	344.50	420.25	448.75	449.25	436.50	426.00	404.25	396.25	388.75	384.75	378.75	378.50	376.25	372.00	370.00	368.25	364.50	361.50	359.00	350.75	345.75	344.25	345.25	342.25	339.75	335.25	345.25	339.50	334.75	331.25	323.50	312.25	297.75	284.50	281.50	274.50	271.00	263.00	259.75	258.75	258.00	260.00	260.75	261.75	265.25	268.00	282.25	290.50	289.00	287.00	286.75	287.00	287.00	298.75	351.75	563.00	602.50	596.00	466.75	533.75	599.00	600.75	600.00	601.75	601.75	602.75	604.25	602.00	600.50	598.50	597.50	597.50	598.50	603.00	604.00	605.75	606.50	606.75	607.50	606.50	605.75	605.50	603.75	603.00	606.00	601.50	589.50	560.00	511.75	520.50	526.75	549.25	557.00	541.00	545.25	539.25	526.00	458.25	438.75	497.50	473.25	410.75	420.50	445.25	448.75	427.50	510.00
191.75	190.00	187.25	186.00	189.00	191.25	193.25	190.75	190.25	191.50	187.75	184.25	180.00	181.00	183.25	182.00	185.75	187.25	189.00	187.75	186.25	183.75	179.50	172.50	172.00	177.75	179.75	174.25	177.50	183.50	184.75	186.00	181.00	183.75	201.25	199.25	193.75	191.25	190.25	190.25	197.50	190.25	186.25	185.25	187.00	192.00	194.25	197.00	199.50	199.50	199.50	198.25	199.00	197.25	194.50	193.25	193.25	195.00	200.00	203.25	208.75	214.25	214.25	217.50	233.25	229.00	220.25	220.25	220.50	220.00	218.75	217.25	217.25	219.75	233.25	237.25	231.75	234.25	245.00	264.50	249.75	248.50	239.75	239.25	232.50	230.50	230.50	232.50	235.00	236.00	237.75	237.75	239.50	242.50	256.25	313.00	509.50	527.50	460.25	401.00	421.75	458.75	433.00	389.50	379.25	369.50	365.75	366.50	408.00	415.25	385.75	374.00	368.00	361.00	354.25	349.25	343.50	337.75	336.75	341.00	341.00	344.50	343.25	341.00	346.75	351.25	355.50	361.75	395.50	405.50	400.75	389.25	377.25	368.25	366.25	365.00	363.25	363.00	359.00	355.25	350.00	345.00	337.25	325.75	315.50	308.50	313.50	317.75	327.00	350.75	414.50	451.75	441.25	431.50	422.50	403.50	396.00	387.75	382.50	379.75	378.00	375.25	370.50	365.75	362.75	362.00	358.25	352.25	349.50	347.00	343.50	343.00	341.00	337.50	336.75	338.75	331.75	327.50	317.00	303.50	290.50	284.75	280.50	275.00	267.25	263.25	259.25	257.50	256.50	257.00	258.75	259.25	260.25	266.50	290.00	456.25	416.25	306.25	294.00	290.75	289.75	290.00	319.50	494.25	605.25	603.50	600.00	583.75	598.50	598.25	599.50	596.75	597.75	599.00	599.25	601.00	598.50	598.25	597.50	596.50	597.00	598.25	602.75	603.50	604.75	605.00	605.00	606.25	604.25	602.00	600.00	594.00	600.50	604.00	599.75	568.50	470.25	435.50	472.75	493.00	542.00	544.75	529.00	514.00	460.00	419.50	414.00	413.75	439.75	422.25	402.75	408.75	408.00	405.25	411.00	507.00
187.00	186.75	184.25	184.00	187.75	190.50	192.50	187.75	188.75	191.25	189.25	185.25	180.50	179.25	180.50	181.00	183.50	187.75	188.50	186.25	184.50	180.25	176.75	171.00	172.25	176.25	178.25	169.00	167.00	174.75	178.25	182.25	182.75	185.50	201.50	199.25	194.50	190.00	184.50	186.25	198.00	209.25	190.75	188.50	190.00	194.25	195.00	198.25	199.50	198.75	198.00	197.25	194.50	192.25	191.75	192.75	195.75	197.50	200.50	203.50	208.50	217.50	217.50	218.25	222.75	218.25	214.25	215.50	213.00	213.75	214.25	215.00	217.75	220.25	225.50	230.00	229.75	235.75	254.00	258.75	250.75	254.00	262.00	244.00	236.75	232.75	231.75	232.75	234.75	242.00	237.50	235.00	239.00	244.50	259.75	324.75	537.75	513.25	462.50	417.75	432.50	445.00	420.50	388.50	379.50	371.25	377.00	382.50	415.50	406.00	380.50	371.00	362.25	354.25	351.50	345.50	337.75	337.25	341.00	341.25	340.00	339.00	339.25	341.25	351.25	358.25	364.75	385.75	416.75	412.50	394.00	384.00	377.75	375.00	374.00	372.50	369.00	362.00	359.00	350.75	347.25	340.25	328.50	322.25	313.25	310.00	315.50	321.00	333.25	356.25	426.25	448.75	434.00	423.25	418.50	406.75	397.50	386.00	383.50	378.75	375.25	370.25	366.25	364.00	364.00	362.75	352.25	350.25	348.50	345.50	345.00	343.25	343.00	339.75	334.50	326.75	321.75	306.75	296.25	287.50	284.00	279.00	274.50	267.75	261.75	259.00	257.75	257.00	256.75	257.00	257.50	258.25	261.00	286.50	375.00	582.00	468.75	320.25	300.25	295.50	292.25	295.00	375.00	589.00	602.25	602.25	600.00	598.25	598.75	599.50	598.50	595.50	594.50	591.00	587.50	591.25	593.75	596.50	596.00	596.50	597.25	599.50	602.50	602.75	604.25	604.25	604.50	604.00	599.25	588.00	574.25	581.50	589.25	594.75	593.50	546.75	434.00	425.75	440.50	501.75	485.50	461.75	477.25	450.00	415.75	402.75	406.50	401.00	397.25	393.50	392.50	395.00	399.00	399.75	405.25	462.25
183.75	184.25	182.50	184.25	186.75	188.50	188.50	186.75	189.50	190.50	188.50	186.25	183.50	179.00	179.00	180.00	182.50	185.00	188.00	184.50	181.00	178.00	174.25	171.00	172.25	174.25	174.50	161.75	159.75	163.75	173.50	179.75	183.75	186.75	195.75	201.50	194.50	190.00	185.00	185.50	186.00	195.25	187.00	190.50	191.50	193.25	194.75	197.50	199.00	197.75	195.00	193.50	190.50	188.75	190.25	192.00	196.25	197.75	200.75	204.50	208.75	235.00	224.00	216.25	213.75	209.50	209.50	210.75	209.75	211.50	213.00	218.25	218.25	220.50	223.00	225.25	230.25	237.75	248.25	253.50	248.75	248.50	257.75	265.75	242.00	234.50	233.50	232.50	233.25	241.75	234.75	234.25	238.50	246.00	270.75	378.75	537.50	500.25	462.75	442.25	430.00	429.00	408.25	387.50	380.25	382.00	433.25	406.75	413.75	395.50	375.00	367.50	356.75	353.25	349.00	348.50	343.50	337.50	339.25	337.25	338.25	340.50	341.00	343.50	354.50	363.75	373.50	390.50	399.00	406.25	395.75	387.00	383.75	381.00	377.50	372.25	365.25	361.00	356.00	351.50	346.00	334.00	323.25	318.75	312.50	315.25	319.50	323.25	343.50	409.50	460.25	442.75	430.25	426.25	423.50	401.75	392.50	384.25	381.25	376.00	370.50	364.50	367.00	364.25	359.75	356.00	351.25	349.50	343.00	343.25	345.50	342.50	339.00	329.25	326.50	313.25	302.25	288.25	282.50	278.00	275.00	271.25	266.50	262.00	258.75	256.75	257.00	256.75	257.00	256.50	256.75	260.25	269.75	414.75	583.00	596.00	561.75	381.50	304.25	298.25	295.50	299.75	425.75	603.00	602.00	601.25	598.75	597.25	596.75	597.50	597.75	595.00	589.75	582.25	589.25	594.00	593.50	595.00	596.25	597.50	598.50	600.00	601.75	603.00	604.00	604.00	604.00	603.00	596.25	584.00	554.50	515.25	515.75	539.00	537.75	509.00	415.00	411.75	429.50	423.75	410.00	416.00	407.00	404.75	404.75	405.50	405.75	396.75	392.25	386.50	385.25	384.50	383.50	387.00	394.00	401.25
180.50	179.00	178.75	184.25	186.75	187.25	186.25	188.50	188.00	188.25	187.75	186.25	183.50	177.50	175.75	179.00	182.50	185.25	185.00	182.50	178.75	177.00	172.00	170.50	172.25	170.25	163.50	159.75	159.25	161.50	170.25	180.00	186.75	195.50	196.25	198.25	194.75	194.00	187.75	184.75	187.75	185.75	186.00	189.50	190.50	194.00	194.75	196.00	196.00	195.00	190.00	189.25	189.00	188.25	189.00	190.50	195.50	198.75	202.50	208.00	214.50	222.00	213.75	207.75	207.75	205.75	206.50	208.00	209.50	211.75	215.25	242.25	221.25	220.25	222.50	226.25	232.50	238.75	248.50	254.00	245.25	282.25	250.50	248.00	243.50	236.75	233.50	232.00	231.75	231.25	231.75	234.50	240.75	248.75	306.00	491.00	528.00	488.00	458.25	436.75	438.00	424.00	409.75	385.50	376.75	394.75	464.00	435.75	406.25	389.50	369.75	361.25	355.50	353.75	349.75	344.75	340.50	334.75	335.25	338.75	341.25	341.75	342.50	346.00	356.00	386.50	407.50	411.75	412.50	401.25	394.75	390.50	387.75	384.50	377.00	369.25	362.75	359.00	353.50	348.00	342.00	328.75	323.00	319.75	314.25	316.75	320.00	325.25	350.00	421.00	443.75	442.00	433.00	426.00	419.50	395.50	387.00	380.50	376.25	370.75	369.00	366.00	364.00	361.00	358.00	355.00	349.25	347.75	344.75	347.00	345.00	336.50	326.25	317.00	309.50	295.50	287.75	279.00	275.00	273.25	268.00	264.50	261.50	258.75	256.75	256.25	256.00	256.25	256.50	255.75	257.75	266.50	285.50	514.50	602.00	439.00	421.75	355.25	310.50	302.25	300.75	320.00	560.50	604.25	601.25	599.25	598.25	597.75	595.25	594.50	594.25	589.25	580.25	588.50	592.25	594.75	595.75	597.00	598.50	599.25	600.00	600.75	602.25	603.00	604.00	604.00	603.50	601.25	593.50	583.25	548.25	443.25	437.75	431.25	430.50	429.50	410.25	405.75	405.25	402.75	400.50	402.50	395.25	398.00	396.00	400.50	401.25	397.25	394.25	387.75	387.75	380.50	378.75	379.00	377.50	380.25
177.75	175.25	178.50	184.00	186.00	186.00	185.00	188.50	187.00	188.00	187.50	186.25	183.25	176.50	174.25	178.00	182.25	185.00	183.50	180.75	177.50	175.75	171.75	170.00	171.75	165.75	159.75	159.50	159.25	163.75	177.00	181.75	188.25	187.00	189.25	188.00	193.50	194.25	187.50	186.75	188.50	185.00	186.75	190.50	189.75	194.00	195.00	195.50	194.75	191.50	188.25	188.25	187.00	187.50	188.75	189.75	196.25	199.50	203.25	210.50	216.25	214.50	209.75	205.25	205.25	204.00	205.25	208.50	209.50	212.75	216.00	245.00	222.25	221.50	223.50	226.50	237.75	240.25	246.75	256.50	243.00	304.00	253.50	243.00	241.00	236.00	233.50	231.50	230.75	230.00	232.00	234.25	240.50	251.00	358.00	532.75	523.25	487.00	458.75	441.75	450.75	429.25	413.25	381.50	374.00	405.50	467.50	427.00	401.50	384.25	367.50	357.50	355.75	354.00	348.50	342.00	338.50	335.50	336.25	340.00	344.00	343.00	343.25	348.50	358.25	400.00	424.75	421.25	410.25	397.75	391.25	390.50	388.75	382.25	376.25	368.00	361.00	357.75	352.25	346.25	340.75	329.25	325.00	321.00	313.25	315.75	322.00	326.50	354.50	398.25	433.25	438.25	431.75	424.00	415.75	393.00	384.25	377.75	372.75	369.75	368.25	363.50	361.00	361.00	357.25	353.25	348.50	347.50	345.50	346.75	339.75	332.50	323.25	307.00	298.50	285.75	281.00	275.50	272.25	269.75	263.00	261.50	258.75	256.75	256.50	256.00	256.00	256.00	255.75	255.75	258.50	275.75	301.25	452.00	600.00	373.25	344.75	326.25	312.50	304.25	305.00	339.00	603.25	604.00	600.50	599.00	599.50	599.50	594.00	593.50	593.00	586.75	576.75	590.25	590.75	593.50	595.50	597.25	599.00	600.00	600.75	601.00	602.25	602.75	604.00	603.75	602.50	600.00	591.50	578.25	541.00	436.25	422.00	414.50	417.75	416.75	411.25	406.75	403.50	399.75	398.00	400.75	392.75	395.25	393.00	394.75	393.50	392.00	391.25	389.50	393.25	382.75	377.00	375.50	374.75	374.25
172.50	172.50	180.25	183.00	184.75	182.25	181.25	182.00	184.50	186.75	187.25	186.25	183.00	177.00	174.25	175.75	176.50	180.00	181.50	177.50	173.50	171.25	169.25	171.25	173.00	164.50	162.75	162.00	164.25	170.00	179.50	182.50	186.75	185.00	194.75	183.50	202.50	196.25	192.25	193.25	185.25	184.75	188.25	190.50	189.75	192.50	192.50	190.50	189.00	187.25	185.50	186.00	185.75	186.25	190.25	193.75	201.00	203.75	207.25	211.00	208.25	203.75	215.25	205.75	203.50	203.75	205.25	207.25	207.25	211.25	215.00	233.50	224.75	223.25	225.50	227.75	231.75	237.00	240.50	239.75	239.75	248.50	247.25	245.00	238.50	234.00	230.75	228.75	226.75	228.75	231.75	235.00	245.25	267.00	477.75	553.25	520.75	486.25	449.50	437.25	442.50	421.75	406.25	382.50	378.25	386.00	414.50	406.00	392.75	378.25	364.50	357.75	354.75	351.50	343.75	344.00	343.75	340.25	338.00	343.00	343.50	345.00	346.75	353.25	361.75	386.25	399.50	413.75	408.50	398.25	390.25	387.75	384.00	377.75	373.00	363.50	359.00	352.50	349.25	345.25	337.75	331.25	326.00	316.50	315.25	319.75	327.50	333.75	386.25	413.50	432.00	422.75	420.00	417.50	407.25	385.25	378.00	373.75	371.00	368.00	365.00	362.25	362.75	359.50	356.25	353.25	349.75	345.50	345.50	342.25	327.75	317.50	302.00	291.50	283.00	274.75	271.50	266.75	266.00	262.75	259.25	257.50	256.50	256.25	255.50	255.25	255.50	255.25	255.50	258.50	270.50	328.75	499.50	565.25	581.75	388.00	346.25	324.25	310.25	308.50	317.25	356.50	602.00	600.75	600.75	600.25	599.75	597.00	588.00	589.00	590.50	585.75	580.75	585.75	588.50	592.00	594.50	596.25	598.25	599.25	600.75	601.00	602.50	603.25	604.00	603.00	600.75	597.25	589.25	553.25	462.50	427.00	414.00	407.50	416.50	415.50	409.75	404.00	402.50	398.50	395.00	394.50	392.25	390.25	388.50	387.00	385.25	384.00	383.75	384.25	386.50	387.25	383.75	380.50	375.75	369.75
173.00	173.75	178.00	181.00	181.75	180.25	177.50	177.75	182.75	186.75	187.75	185.75	183.25	178.00	174.00	172.25	174.00	176.75	179.25	177.75	170.25	167.00	167.75	172.50	172.00	167.25	170.25	173.00	172.25	173.25	179.00	179.75	182.00	180.00	175.50	169.50	189.00	188.50	189.75	189.00	182.25	185.75	186.75	186.25	187.00	193.00	186.00	184.50	183.50	182.25	183.25	185.00	186.00	189.75	196.50	199.25	204.25	206.75	205.75	204.00	199.75	201.50	211.50	212.50	204.25	205.50	206.50	207.00	207.50	211.00	220.50	236.25	227.00	225.50	227.00	234.25	233.25	235.00	236.75	235.00	235.50	237.50	240.25	242.50	243.75	234.75	228.75	225.00	225.50	229.25	236.50	238.00	251.75	283.75	499.75	542.00	497.25	465.25	433.25	428.50	434.25	421.25	407.50	395.00	390.00	390.50	416.50	422.00	391.25	373.25	361.00	352.25	349.75	347.50	344.50	345.75	346.00	341.75	342.75	347.00	346.00	346.25	352.25	354.75	364.75	375.00	388.25	399.50	408.00	398.75	389.75	388.00	379.50	369.50	363.25	358.00	354.75	352.25	348.00	349.75	337.25	331.25	320.50	322.50	319.50	322.75	330.50	342.75	373.00	387.25	407.00	407.25	412.50	410.50	399.50	377.00	377.25	370.50	366.00	367.25	364.50	361.25	358.50	358.50	357.75	354.50	342.75	342.00	336.75	321.25	306.50	294.50	288.50	283.75	274.25	265.50	262.25	260.00	258.50	256.75	256.75	256.50	256.00	255.75	255.25	255.25	255.00	255.25	256.00	261.50	276.50	363.25	564.50	566.50	486.75	434.25	341.00	319.50	312.00	318.25	342.00	475.25	600.00	598.75	600.25	599.25	598.50	595.50	578.75	579.75	579.00	574.25	572.50	585.00	588.25	591.00	593.50	595.50	597.50	597.50	599.00	600.50	602.50	603.00	602.75	601.00	599.00	594.50	588.75	570.75	458.50	420.25	414.50	408.25	406.50	406.75	403.25	400.50	399.00	397.75	398.50	395.75	394.75	394.00	391.50	389.50	388.00	384.75	381.75	378.25	377.00	377.25	380.25	381.75	382.75	370.75
170.50	172.25	176.75	179.00	178.50	177.50	174.00	178.50	183.00	186.25	186.50	186.25	184.75	180.75	174.50	171.00	172.00	173.75	176.00	175.50	166.00	162.50	167.25	170.25	168.50	171.00	173.00	171.75	170.75	171.00	178.50	176.25	173.25	174.75	173.50	173.25	177.75	182.75	182.25	180.00	183.50	185.25	183.00	183.00	186.00	184.25	181.25	180.50	180.75	181.50	184.50	188.25	193.25	196.50	200.00	201.75	203.75	203.75	201.00	198.00	198.25	201.00	202.50	205.75	206.25	208.25	209.00	208.75	209.25	213.50	220.00	224.25	230.50	227.50	229.25	244.50	233.00	235.50	233.50	231.50	240.75	245.75	238.75	246.00	280.50	236.25	226.00	224.25	225.00	228.50	233.75	244.50	264.50	335.25	563.00	523.25	477.50	446.25	426.00	422.25	448.75	431.50	410.75	391.25	382.50	403.00	422.00	418.75	387.00	369.50	357.50	350.50	349.00	348.00	347.75	347.25	346.25	345.50	348.75	350.00	350.50	355.75	357.50	359.00	366.00	372.50	380.00	390.00	406.75	397.25	387.50	383.00	372.75	365.00	362.00	359.25	356.00	353.50	348.75	342.00	337.75	336.25	328.50	327.25	322.75	324.50	343.50	352.25	351.75	358.00	382.00	399.50	408.50	403.00	390.00	378.00	371.25	369.50	368.50	367.25	361.75	361.25	360.25	357.75	352.75	350.50	336.75	325.00	308.50	302.00	295.25	287.25	283.00	280.50	273.00	263.50	260.50	258.25	256.75	257.25	255.75	256.50	255.25	255.25	254.75	254.25	254.50	254.50	256.75	264.75	288.25	391.00	440.00	386.50	367.25	348.75	330.00	320.00	321.50	355.75	474.50	594.00	598.25	597.75	598.25	596.75	593.25	590.00	577.25	560.25	554.00	565.75	574.00	585.50	585.50	588.75	592.25	593.75	595.25	595.75	596.50	598.00	601.00	602.75	601.75	598.25	595.25	591.25	587.00	511.00	425.75	416.75	414.25	407.50	399.75	402.50	404.00	402.25	404.00	403.25	405.50	410.25	417.75	418.00	412.00	406.25	398.25	392.50	386.25	379.75	378.75	375.25	373.75	374.75	379.00	379.25
170.50	169.50	174.25	177.00	175.50	173.00	172.00	178.00	182.00	185.25	186.00	185.00	186.25	180.75	174.75	170.25	170.00	171.00	172.50	172.50	163.00	160.50	167.00	170.00	166.75	169.50	169.75	169.25	168.25	168.50	176.50	173.25	170.50	173.25	173.25	174.25	177.00	177.50	179.00	183.50	184.00	181.50	183.25	188.75	189.50	181.00	179.50	180.50	182.75	186.00	189.25	192.75	196.00	198.00	199.75	200.75	198.50	198.00	195.75	195.75	197.25	200.00	201.00	203.25	203.50	213.75	210.25	211.00	211.75	212.50	216.75	223.50	228.75	228.75	231.00	238.25	236.75	234.00	230.25	228.00	229.75	232.75	235.50	237.25	240.75	226.75	222.75	221.75	224.25	227.50	232.25	245.75	297.25	380.00	548.50	506.00	473.50	441.25	423.50	415.25	451.00	435.50	408.25	385.25	382.75	396.50	421.75	417.75	382.50	367.25	350.75	350.50	350.50	349.50	349.25	350.00	351.00	352.25	352.50	355.50	354.50	363.00	362.50	364.50	367.00	372.50	377.25	390.00	398.00	390.50	384.50	379.00	371.75	367.50	362.75	360.25	358.75	352.25	348.00	348.25	347.00	336.75	335.75	328.75	331.75	335.00	353.75	357.25	357.75	362.75	377.00	390.25	394.00	392.25	385.00	371.75	371.25	369.00	366.25	363.00	362.25	362.75	358.50	350.25	345.25	339.25	314.25	306.75	298.25	291.00	286.50	285.50	278.75	275.25	273.00	262.00	258.50	256.75	256.50	256.50	256.00	256.25	255.50	254.75	254.00	254.75	254.25	254.75	261.50	278.00	369.25	507.75	453.00	457.50	430.25	351.50	328.50	323.75	332.50	401.00	582.00	596.75	597.25	597.00	598.00	594.50	589.25	582.00	565.25	550.75	554.50	573.50	580.50	583.25	583.00	587.00	590.25	592.50	593.00	593.00	592.00	595.25	601.25	603.00	601.00	595.50	576.75	570.75	577.25	455.25	410.75	414.00	404.75	402.00	397.00	398.25	404.25	406.25	410.00	420.00	414.25	410.25	407.75	410.00	414.00	420.25	423.25	418.00	397.75	385.00	381.25	378.00	374.75	372.50	371.75	381.25
170.75	169.25	172.00	173.25	172.75	172.75	174.00	177.50	181.25	184.00	184.50	186.00	182.75	179.25	175.00	169.00	166.50	168.00	169.25	167.50	162.50	160.50	167.75	171.00	170.25	168.25	167.25	167.25	167.50	169.50	174.75	170.75	171.50	172.50	174.50	178.00	177.50	178.50	180.25	182.00	183.50	185.00	184.50	184.75	192.00	182.75	185.00	186.75	190.50	194.25	195.50	197.00	196.00	196.25	197.50	197.75	195.25	194.25	195.25	196.50	197.75	204.00	204.75	205.00	205.50	207.25	210.50	212.50	214.00	214.50	218.25	224.75	228.00	228.00	231.25	233.25	235.25	230.25	226.50	226.00	226.75	230.25	230.50	228.00	226.50	221.50	219.00	221.00	225.25	230.00	235.50	248.00	382.00	431.75	522.25	494.50	469.50	439.25	417.25	410.00	444.75	432.50	407.00	384.75	385.50	406.50	426.00	412.00	376.50	360.50	352.50	352.75	354.75	353.25	354.75	357.00	358.75	360.75	362.25	363.25	367.75	365.25	364.00	366.00	369.25	371.75	381.00	389.00	389.25	383.25	381.75	377.00	372.25	365.00	361.50	358.50	357.00	360.50	357.00	352.50	342.00	342.50	347.00	348.75	356.50	354.25	361.25	367.25	376.00	380.75	384.00	382.50	382.25	385.50	378.75	371.50	371.50	368.00	367.25	363.75	362.25	355.25	349.75	341.25	326.75	315.75	304.50	299.00	290.25	285.50	281.50	280.25	277.00	271.75	271.25	262.25	258.25	257.00	257.00	256.00	255.75	256.00	255.25	255.50	255.00	254.50	254.50	255.00	273.00	318.25	493.25	578.25	535.25	463.25	426.00	347.50	329.75	330.75	350.75	494.50	583.00	592.00	595.00	595.75	595.50	591.00	582.25	573.25	554.25	543.75	559.50	570.25	576.25	580.25	579.50	584.00	589.50	592.00	590.50	589.75	589.25	595.00	599.50	599.75	594.25	587.50	542.75	544.75	525.75	422.75	405.50	406.25	400.50	395.00	395.25	399.25	406.50	421.00	424.50	424.25	413.25	414.75	416.75	416.75	416.00	411.75	408.25	407.50	409.00	413.50	392.25	381.75	378.50	373.50	370.75	372.75
172.75	169.00	169.00	169.00	171.00	172.50	174.75	175.50	179.75	182.50	183.00	182.50	181.00	178.25	173.25	167.75	164.00	165.25	165.50	163.50	161.00	160.25	167.00	169.00	165.50	163.25	165.75	166.00	168.00	170.00	174.25	171.00	172.25	177.75	180.75	179.50	180.50	180.50	180.00	180.50	182.75	182.75	181.75	185.00	187.50	189.75	192.00	194.25	196.00	199.25	199.75	198.75	196.00	194.50	191.50	192.00	191.25	193.75	195.75	197.00	197.75	203.00	216.00	208.25	208.50	208.75	212.25	214.75	218.50	219.50	221.00	223.50	227.25	227.25	229.25	228.75	228.50	227.75	224.00	224.25	224.00	231.00	230.00	223.25	221.00	218.25	216.75	220.75	226.75	235.25	243.50	263.75	449.00	475.50	495.00	481.75	458.00	429.00	409.50	404.75	439.25	429.50	403.00	381.00	387.50	411.75	426.00	404.25	367.75	358.75	358.50	358.75	362.75	362.25	364.50	365.75	367.00	366.25	366.75	367.25	372.00	365.50	366.25	365.25	369.50	370.50	375.75	383.25	382.25	384.00	381.25	376.50	369.00	363.50	363.50	367.75	364.25	366.25	355.00	349.75	348.75	348.75	357.25	360.75	363.75	360.75	363.25	373.00	398.00	406.25	398.00	388.00	380.00	380.50	378.00	370.25	369.00	371.50	368.50	361.75	350.50	342.75	334.75	321.25	312.00	308.00	295.75	291.50	285.00	281.75	276.25	272.25	271.75	271.00	267.75	263.75	259.75	257.75	257.00	256.25	255.50	255.50	255.50	255.25	254.75	254.75	253.75	254.75	307.00	529.00	594.75	588.50	455.00	374.50	369.25	341.50	332.00	342.00	360.50	384.25	467.00	562.75	590.00	592.00	589.00	585.75	576.75	567.25	546.50	541.00	557.50	567.50	571.25	578.25	577.50	582.50	586.50	589.00	586.00	587.75	587.25	593.25	597.25	596.75	589.50	580.50	522.00	515.25	463.00	425.00	411.25	398.50	395.00	392.25	395.25	401.75	424.25	442.25	441.50	426.75	451.00	464.00	452.00	450.25	446.50	449.25	422.00	402.00	399.00	433.00	415.50	388.00	380.75	374.75	370.25	368.50
178.50	174.00	168.50	167.75	171.75	173.25	173.75	175.00	181.00	181.50	182.25	181.25	178.50	175.75	172.50	167.50	162.75	164.75	163.75	162.00	161.00	163.25	167.50	166.75	162.50	163.00	166.25	165.75	167.50	169.00	172.25	173.75	180.00	181.50	179.75	179.25	179.50	180.00	180.00	178.50	179.00	182.25	184.75	186.75	188.50	195.00	196.75	198.50	199.75	201.50	199.25	197.00	195.00	192.50	188.75	188.00	190.25	192.25	193.75	195.75	197.25	201.50	207.00	208.25	209.75	211.50	214.00	216.00	219.25	220.25	222.75	226.50	226.25	225.75	226.25	227.50	227.25	225.25	221.25	220.75	223.75	233.50	230.25	220.00	217.25	215.25	215.50	220.75	229.50	245.00	261.75	301.75	488.00	464.25	480.25	465.25	442.75	417.50	404.50	402.00	435.00	419.00	396.00	379.75	387.50	410.25	418.25	394.75	370.75	368.25	369.00	369.50	369.25	370.25	370.25	369.50	370.75	369.00	368.25	367.75	366.75	363.25	362.50	364.50	370.00	377.50	383.00	382.00	383.75	384.50	376.75	373.75	371.25	371.75	370.00	367.50	363.50	360.75	358.25	357.00	359.25	358.50	356.25	360.25	362.25	362.00	378.25	402.75	413.50	406.25	397.00	394.25	389.75	382.25	376.25	366.75	366.25	366.50	359.75	348.25	339.50	327.75	316.75	312.75	310.00	307.00	291.75	288.00	280.50	277.75	273.25	267.75	265.75	267.25	268.75	266.50	259.75	257.50	257.25	256.75	256.75	256.25	255.50	255.50	255.00	254.75	254.25	254.75	309.50	555.00	597.25	587.25	548.00	524.00	539.25	349.75	342.00	414.75	529.75	547.50	546.75	542.00	584.00	585.25	583.50	583.75	573.25	561.50	539.00	539.25	553.50	562.75	569.00	573.50	572.75	577.50	581.00	582.50	581.75	583.50	587.50	590.75	594.75	593.25	589.75	582.50	558.25	501.00	435.75	419.25	411.00	396.00	391.75	391.75	397.75	412.50	437.25	436.00	445.75	452.25	430.25	415.75	406.75	404.00	414.25	439.75	451.50	427.75	404.75	415.25	453.50	404.00	388.00	378.00	371.75	367.75
182.75	176.75	169.25	166.00	169.75	172.00	172.50	176.25	177.50	180.50	180.00	178.75	178.50	173.75	169.25	166.00	162.00	164.75	163.50	159.50	160.75	162.50	164.25	162.00	163.00	163.50	164.50	166.00	166.75	169.50	174.50	181.00	183.50	182.50	179.75	178.50	178.25	179.25	177.00	173.00	179.00	183.00	185.75	188.50	191.25	197.00	198.25	200.25	201.00	200.50	199.00	194.25	194.50	191.75	186.75	187.50	190.25	191.50	191.75	193.50	197.25	201.50	204.50	206.50	209.75	210.75	212.75	216.50	218.50	222.25	225.50	226.25	226.25	224.00	222.25	223.75	223.00	220.75	218.00	221.00	224.50	245.25	224.25	216.00	214.00	213.50	215.75	221.25	230.25	261.00	330.00	365.00	471.00	449.00	447.75	445.00	431.50	413.75	401.00	405.50	436.00	408.25	389.00	378.75	403.00	425.00	406.25	386.50	378.25	375.75	375.50	373.25	372.50	373.50	372.50	372.25	371.75	369.75	370.00	362.50	360.25	361.75	363.75	368.00	382.75	392.00	397.00	392.25	388.75	378.25	379.25	380.25	381.00	375.50	368.00	366.75	365.75	367.25	364.25	362.25	362.25	362.75	364.00	361.25	360.50	373.75	395.75	416.00	411.25	405.00	397.50	392.25	386.75	378.00	379.75	364.00	368.75	353.75	341.00	333.75	321.25	313.75	310.50	305.75	301.75	297.00	286.75	285.50	278.50	274.25	269.75	263.50	261.50	260.75	260.25	266.50	258.75	257.25	258.00	256.75	256.75	256.75	256.00	255.00	254.50	254.75	254.00	255.75	283.25	415.50	581.25	593.25	589.75	574.50	533.25	354.25	369.75	562.25	588.75	587.50	583.00	578.75	576.00	572.00	575.00	577.50	572.25	559.50	537.25	539.00	547.50	557.00	562.25	570.00	566.50	570.25	573.50	571.00	575.75	579.75	587.25	591.00	593.00	590.25	586.00	581.00	566.00	558.50	466.00	408.50	402.50	393.75	389.00	390.25	400.25	423.00	431.75	446.25	466.25	417.75	401.25	401.75	400.50	399.75	398.00	400.50	424.00	467.50	425.75	405.75	441.75	432.00	399.25	383.00	373.75	367.50
180.25	175.50	170.50	165.25	166.50	171.00	172.25	173.50	175.00	177.75	178.25	177.50	178.25	174.50	170.50	167.00	162.00	161.75	161.50	158.00	160.50	166.75	167.50	162.75	164.25	164.50	164.00	168.50	172.50	175.25	181.00	182.00	182.75	181.00	179.50	178.50	178.00	175.50	172.25	173.25	180.00	183.00	187.25	190.75	191.50	196.00	196.50	200.00	199.00	198.50	198.25	195.50	193.25	191.00	185.50	185.50	191.50	193.75	193.00	194.00	197.75	202.00	204.25	208.50	210.00	211.50	215.75	221.50	222.25	225.50	229.75	234.75	226.75	223.25	218.25	218.25	217.50	216.00	217.75	220.50	227.75	223.50	218.25	212.75	211.00	211.75	214.75	221.25	245.25	290.25	412.50	448.00	451.25	432.25	418.50	420.25	423.25	409.75	399.25	423.00	426.00	398.50	384.25	378.50	405.75	423.75	403.00	387.25	381.25	377.50	376.75	377.00	374.50	374.75	371.25	370.25	367.00	363.75	360.25	359.50	361.75	368.50	369.75	375.25	398.00	409.25	403.00	396.00	394.25	388.50	383.75	380.00	374.75	372.25	373.75	372.75	372.75	369.25	366.00	365.25	367.25	363.25	355.25	360.50	372.00	376.00	382.00	398.75	404.00	394.50	387.25	385.00	382.75	376.50	370.00	360.75	355.50	338.50	332.25	318.25	310.50	306.00	300.00	295.00	292.00	290.00	281.75	282.50	275.75	271.25	265.75	260.25	258.75	258.50	257.25	257.75	258.25	257.25	257.25	257.00	257.25	256.75	256.25	255.25	254.50	254.50	254.50	257.50	271.75	313.00	497.25	602.25	598.75	576.00	513.25	357.75	447.00	592.25	597.00	592.25	586.75	580.75	563.50	556.25	562.00	566.75	564.50	557.25	543.50	529.75	533.25	552.00	557.75	565.50	563.75	563.00	566.75	565.50	575.50	581.25	587.50	589.25	591.00	587.75	583.25	578.50	575.25	576.25	453.50	402.25	394.50	391.25	387.25	390.25	406.75	425.50	428.25	447.75	413.75	400.00	412.00	416.25	417.50	415.50	404.00	396.50	405.00	439.25	453.00	408.50	416.75	456.50	413.25	388.25	376.00	367.50
179.50	176.75	171.50	166.75	165.50	168.25	170.50	170.00	172.75	176.50	180.00	177.75	176.50	173.50	169.50	166.75	163.50	161.25	160.50	158.75	159.00	166.75	170.50	167.25	167.50	167.25	166.00	174.00	177.00	180.00	182.50	182.25	181.00	179.50	179.25	177.00	173.00	171.75	172.25	175.75	181.75	186.50	190.75	191.50	192.25	194.00	195.50	197.00	197.25	198.25	196.75	194.00	192.50	188.00	185.75	186.50	193.75	196.00	195.50	195.75	198.00	204.50	207.25	207.75	208.50	221.50	222.50	226.00	226.25	231.00	251.00	246.50	226.25	221.50	216.00	215.75	215.25	218.25	218.50	219.25	226.00	218.00	222.25	210.00	210.25	212.25	215.25	223.75	245.00	285.00	446.75	484.50	444.25	421.00	402.50	403.25	413.50	402.25	401.00	430.00	417.75	390.75	379.75	377.50	384.75	408.00	398.75	387.00	381.00	380.00	378.25	378.00	376.75	372.75	369.00	368.00	362.00	359.00	359.00	364.50	365.00	370.00	372.00	379.00	400.50	412.00	406.50	400.75	395.75	387.50	380.50	381.75	380.00	380.50	377.50	373.75	374.00	375.25	375.25	367.25	357.25	349.00	350.00	367.50	377.50	383.50	375.25	382.25	392.00	385.00	378.75	379.00	377.00	372.25	368.25	358.50	342.50	328.75	323.00	316.25	305.50	298.00	292.75	288.75	287.25	284.50	278.50	275.00	270.50	267.00	262.25	258.25	257.75	257.50	257.25	256.50	257.50	257.50	257.00	257.00	256.00	256.50	256.00	255.75	255.75	254.75	255.00	256.00	275.00	393.50	586.25	610.50	604.00	592.50	568.75	371.25	522.25	605.00	602.00	594.25	588.25	582.50	567.75	556.75	547.25	555.00	554.00	551.50	541.75	530.25	527.75	549.50	554.50	558.75	559.00	558.50	561.00	566.00	576.50	579.50	585.75	588.00	588.50	581.75	579.00	573.50	570.00	545.25	411.25	394.00	389.25	388.00	386.50	392.25	414.75	416.50	457.50	433.75	397.50	403.00	408.25	416.00	422.00	414.25	408.50	397.00	397.50	414.00	459.00	412.75	412.75	466.25	431.50	394.25	377.25	367.75
176.75	174.00	169.75	164.50	163.25	167.00	168.50	169.50	173.00	176.75	178.75	177.75	176.25	172.00	168.50	167.25	162.50	160.25	158.50	158.00	158.75	165.25	167.75	168.50	169.25	169.25	171.50	176.00	179.00	180.50	180.75	179.00	177.75	178.50	177.00	173.00	171.25	172.75	176.50	180.50	186.00	190.00	192.25	194.75	193.50	189.50	190.25	196.75	199.75	195.25	194.00	191.00	190.50	187.75	188.00	191.00	196.75	198.25	199.00	200.25	202.50	204.00	206.75	209.00	211.25	215.00	234.00	227.75	238.25	239.75	253.00	247.25	225.75	221.50	214.50	212.50	214.25	219.00	217.75	216.75	217.25	228.00	214.25	208.75	209.75	212.50	216.75	226.75	240.50	312.50	473.75	476.00	435.75	414.50	395.75	393.75	400.25	397.00	399.50	418.00	405.50	384.25	380.25	389.00	391.50	406.50	394.50	385.00	383.75	380.50	376.50	376.50	376.50	372.50	367.25	364.00	363.25	361.00	363.75	365.75	368.50	372.75	378.25	388.50	401.50	406.00	403.00	397.75	395.50	391.25	387.00	384.25	382.50	380.00	380.00	378.50	378.50	376.50	371.50	359.50	354.25	359.00	366.00	381.50	386.00	389.25	390.00	384.50	392.50	388.75	383.00	381.00	378.50	369.00	358.50	335.25	331.75	322.00	316.75	313.50	305.75	296.25	290.75	285.00	282.75	280.75	274.75	273.25	266.00	263.25	260.25	258.00	257.75	257.75	257.50	256.75	256.50	260.00	257.50	256.25	256.00	256.50	256.25	255.75	255.50	255.75	256.00	257.00	301.00	534.00	610.00	612.50	611.00	598.00	579.25	440.25	604.25	609.75	605.00	599.50	592.75	586.00	572.25	558.75	541.75	541.00	541.25	543.25	534.50	522.00	530.00	546.75	545.75	553.00	555.00	559.50	563.25	566.25	573.00	576.25	581.50	581.50	582.25	576.75	573.50	557.25	513.00	465.50	404.00	392.50	386.50	386.25	384.75	395.75	409.50	417.75	470.25	419.50	394.75	404.25	405.25	427.75	430.50	418.00	409.00	397.75	396.25	414.00	453.25	415.75	419.75	460.00	434.00	394.50	377.75	368.00
175.00	171.50	166.00	162.00	163.75	168.50	170.00	170.75	174.75	177.25	177.25	176.25	175.00	173.00	169.00	168.25	160.25	156.50	156.75	159.25	162.00	166.75	168.75	170.00	171.50	173.00	176.25	177.50	179.75	180.75	178.25	177.50	175.75	173.75	170.25	170.75	173.00	174.50	179.75	183.25	188.50	191.00	192.25	195.25	192.50	188.50	190.00	195.25	194.00	192.25	190.75	189.25	189.25	185.50	190.00	193.75	198.25	201.50	202.00	204.50	205.75	204.00	205.25	209.00	210.50	214.75	220.75	241.75	248.50	242.50	236.75	233.00	220.75	218.00	212.25	209.75	213.00	216.75	217.75	212.50	211.00	215.25	215.00	209.00	208.75	212.25	218.00	234.00	251.00	378.75	468.50	451.75	414.25	402.00	390.75	386.50	391.25	393.50	394.75	401.00	393.75	379.00	375.50	412.25	404.50	403.00	393.25	386.50	382.25	380.25	378.75	378.50	376.25	372.50	368.00	364.75	364.25	364.50	365.50	371.25	373.25	375.50	383.50	404.50	406.00	406.00	404.75	401.50	398.25	390.00	387.25	384.00	383.75	384.00	381.50	379.50	372.75	367.50	360.50	360.00	364.75	375.50	388.00	383.50	387.00	394.50	404.50	402.00	397.50	381.25	381.50	380.50	367.00	343.25	333.50	327.25	324.50	314.75	307.25	304.00	300.25	292.50	287.25	281.50	278.25	275.00	272.00	269.00	261.50	260.00	258.25	258.00	257.75	257.50	257.25	257.00	257.25	257.00	258.75	256.25	255.75	256.00	257.25	257.25	258.00	259.00	259.25	263.00	309.50	549.00	610.00	609.25	608.75	595.25	569.50	464.50	610.25	610.00	605.25	601.00	596.25	591.25	575.00	557.50	551.25	545.50	534.00	527.00	520.75	514.75	525.00	542.00	547.75	554.75	556.50	559.00	563.25	565.25	570.25	572.00	577.75	577.25	575.25	572.50	568.25	549.75	455.50	427.75	404.75	390.00	385.00	382.50	382.75	394.25	405.00	424.75	478.75	418.50	395.75	393.25	393.75	413.25	426.00	420.25	412.50	395.25	396.00	420.75	453.25	419.75	434.25	464.75	429.25	395.00	378.00	367.50
174.25	170.50	164.75	160.00	165.25	167.25	169.00	170.25	171.75	173.75	173.25	171.00	170.25	169.25	168.00	164.50	157.25	154.50	156.50	159.50	163.50	169.25	170.25	171.50	173.50	174.25	176.25	178.25	179.75	177.75	177.25	175.25	173.75	169.75	170.25	172.00	173.50	175.75	182.25	183.50	186.00	189.00	188.75	190.00	189.00	191.75	193.50	194.00	191.75	190.25	188.25	187.75	186.25	186.00	190.25	194.00	201.75	202.75	201.25	211.75	209.00	205.75	208.75	210.00	210.75	215.25	223.75	226.00	231.25	245.50	241.00	233.50	219.50	216.00	208.75	208.00	211.50	213.75	215.00	211.25	208.50	206.25	207.00	207.75	209.00	213.00	221.75	253.50	271.50	381.75	417.25	439.00	420.75	403.75	386.25	384.00	388.00	389.25	393.75	394.00	387.50	377.00	375.00	417.25	419.75	402.75	390.75	387.75	382.50	382.50	379.00	379.75	377.25	374.75	373.50	372.75	376.25	375.25	371.25	369.00	369.75	375.25	386.50	400.75	413.00	409.25	405.50	400.50	396.50	391.50	390.00	389.00	389.00	383.50	380.00	375.00	371.75	370.00	368.25	371.25	372.75	368.50	373.50	378.25	382.25	407.25	405.25	396.50	392.25	387.00	378.25	366.25	351.50	335.75	328.25	324.75	319.50	310.75	303.50	297.50	294.25	287.50	284.75	280.50	276.00	273.00	267.50	264.25	259.50	258.50	257.75	258.00	257.50	257.00	257.00	257.25	257.00	257.00	257.25	257.75	257.25	259.25	261.50	262.50	262.50	264.50	265.25	270.00	359.00	551.50	609.75	608.00	602.25	589.25	558.25	476.75	604.75	608.50	606.00	604.50	600.00	593.00	578.00	570.00	565.50	557.75	548.25	541.00	528.25	514.00	526.25	545.00	548.50	552.50	555.00	559.00	562.00	564.00	566.25	567.00	574.00	575.25	571.75	568.50	561.00	539.00	475.00	419.50	402.25	387.75	382.25	381.00	382.00	393.00	407.50	417.25	472.50	426.50	397.50	390.00	389.50	396.00	408.00	418.25	401.00	393.25	407.00	447.50	434.25	431.50	440.00	466.00	433.75	392.75	375.00	365.75
169.25	167.00	161.75	159.00	163.00	164.00	166.00	168.50	170.00	171.75	171.00	167.00	166.25	165.25	163.00	160.50	154.75	155.25	158.50	161.00	167.50	171.50	172.25	173.75	174.50	176.50	177.75	177.00	176.75	176.00	174.25	172.50	168.75	169.25	170.75	172.50	174.75	177.00	180.25	182.75	185.00	185.50	185.25	186.25	184.00	192.50	192.50	192.25	190.25	187.75	186.25	183.75	186.00	188.25	191.00	195.00	200.50	200.75	204.50	208.75	208.00	208.50	210.25	214.00	214.75	215.00	219.25	222.75	232.25	270.75	239.00	228.25	215.75	210.75	205.25	206.00	209.00	211.00	215.75	207.75	205.50	204.75	207.25	208.00	207.75	215.25	225.25	248.00	277.50	377.25	430.25	463.50	421.50	404.75	391.00	391.25	389.75	393.25	395.00	392.50	385.75	380.00	372.75	396.00	412.50	401.50	391.75	388.00	385.25	383.00	381.75	379.75	379.50	381.50	380.00	380.00	380.00	375.75	372.50	371.75	374.00	381.00	383.00	393.50	407.75	406.25	404.50	402.00	399.00	392.75	388.50	389.00	388.75	383.50	380.75	379.25	374.75	374.50	375.50	379.75	374.75	373.25	371.75	373.75	378.25	408.50	394.50	393.25	382.75	376.75	366.00	355.00	342.50	332.00	332.00	321.50	314.75	300.75	297.50	292.50	290.50	285.00	281.75	280.00	273.25	269.75	264.25	261.50	258.25	258.75	257.75	258.00	257.75	257.50	256.75	257.25	257.25	256.50	257.00	257.50	261.50	263.75	266.25	267.75	268.25	270.75	273.25	284.25	456.00	607.00	607.50	607.50	600.75	575.00	532.00	450.50	597.50	605.50	606.50	605.00	603.00	598.75	588.75	581.75	568.00	562.25	553.75	546.75	535.25	519.75	515.00	541.00	546.00	550.00	553.50	559.75	561.50	562.50	563.25	563.25	569.00	569.25	567.25	564.25	554.00	501.50	470.00	402.50	392.50	385.75	381.50	379.50	380.50	395.75	406.25	407.00	454.25	441.50	399.75	393.50	392.00	394.00	403.00	396.50	393.75	392.75	424.25	447.50	413.50	438.25	452.25	457.25	413.50	385.75	370.75	363.75
165.25	163.50	159.00	158.75	161.25	162.25	163.25	166.25	169.00	169.00	169.50	167.00	165.25	161.50	160.25	156.50	153.75	154.50	162.00	165.00	169.75	172.75	173.00	173.25	174.75	176.25	176.00	176.25	175.25	172.25	168.75	169.50	169.50	170.25	170.50	170.50	175.25	177.25	178.25	180.50	180.25	182.50	182.75	183.50	182.25	190.25	189.50	190.50	189.25	187.50	184.00	186.25	189.25	190.25	191.25	195.75	199.00	202.75	205.00	214.25	214.75	210.00	211.00	213.00	218.75	218.25	220.25	226.25	243.75	243.75	230.75	224.25	213.25	208.25	203.50	202.50	205.00	208.50	209.25	204.25	203.75	204.50	208.50	208.75	210.50	215.50	222.50	246.50	352.00	445.75	473.00	458.00	415.75	401.50	396.75	395.75	394.50	395.00	393.50	389.25	386.25	380.75	381.50	413.50	411.50	398.00	392.00	387.50	386.50	385.25	384.75	385.75	382.75	382.75	383.00	379.75	379.25	379.25	379.00	380.50	381.25	383.25	383.50	393.50	401.25	404.50	405.25	402.25	397.00	390.50	390.75	391.00	388.50	384.75	382.50	380.75	379.00	378.75	378.00	370.50	364.50	372.25	370.75	374.25	390.50	403.00	392.50	385.25	371.00	367.50	354.25	343.00	336.25	328.75	326.00	315.25	308.50	299.25	295.00	288.75	286.25	283.75	277.75	276.00	270.75	265.75	260.75	259.25	257.50	258.00	257.25	257.00	257.00	257.00	256.75	257.00	257.25	258.00	259.50	259.75	263.75	268.00	271.00	273.75	275.50	278.50	284.00	302.25	473.75	591.50	595.50	604.50	600.25	584.75	569.00	450.75	584.25	599.75	603.75	603.50	602.50	599.50	591.25	579.00	563.75	556.25	549.50	543.00	535.25	523.00	508.00	537.00	543.50	549.00	554.50	558.25	557.75	557.50	559.00	560.50	565.50	564.25	562.75	561.50	549.50	451.00	429.25	402.25	394.25	386.25	381.75	379.25	379.75	394.75	398.50	399.25	414.25	442.50	416.00	399.00	393.50	394.25	392.25	391.50	399.75	415.75	437.75	412.25	414.25	455.50	462.75	414.50	392.00	375.50	366.25	362.00
164.50	160.25	156.25	158.75	164.50	165.00	162.00	167.50	169.25	167.25	168.75	167.00	164.25	161.25	158.25	152.75	152.50	153.75	162.50	167.50	172.00	173.00	174.00	174.75	174.50	174.75	174.00	173.75	173.00	167.25	166.25	169.75	171.50	171.50	168.75	169.75	176.00	178.50	177.25	175.25	177.50	181.75	180.75	180.75	181.50	187.00	187.50	188.50	188.75	186.50	183.00	186.75	188.25	188.25	190.50	193.25	200.50	201.25	202.25	236.50	219.75	210.25	209.25	212.50	256.25	219.50	225.25	231.25	239.75	238.00	230.25	224.00	211.00	207.00	201.25	201.50	201.25	202.50	202.75	202.50	203.75	205.50	206.50	209.50	211.50	215.00	220.00	265.00	453.25	483.50	476.00	450.00	415.75	402.25	397.75	396.75	395.75	393.00	390.25	390.75	387.75	376.25	383.00	413.00	412.75	398.25	392.50	390.25	391.00	390.00	388.50	387.50	386.50	385.50	385.00	384.75	384.50	383.75	382.75	385.00	388.00	390.00	390.75	392.00	400.00	403.50	407.25	405.00	397.00	393.00	392.50	392.50	388.25	384.00	384.50	383.50	381.50	380.00	369.50	370.75	365.25	377.00	371.75	372.75	392.00	395.50	383.25	374.75	368.00	359.00	345.75	338.00	334.50	329.00	326.75	309.25	302.25	294.75	290.50	286.25	283.00	279.75	275.50	272.00	266.00	262.50	258.50	257.50	257.75	257.50	257.25	257.00	256.75	256.25	256.25	257.75	260.75	263.50	264.50	268.50	272.25	273.75	275.25	279.25	283.25	285.75	291.50	334.00	474.25	547.50	591.50	601.50	598.00	584.25	573.75	476.25	574.00	594.25	602.00	601.25	600.50	597.75	588.00	572.00	552.50	549.50	541.25	535.50	528.00	520.00	505.00	533.75	543.75	551.00	553.00	553.25	553.50	552.50	554.50	555.25	561.50	559.75	559.00	555.50	539.00	430.50	409.75	400.00	394.25	388.00	383.25	379.50	378.50	392.25	397.00	395.00	391.50	421.25	447.50	424.25	406.00	398.75	398.50	408.00	430.75	437.50	409.00	409.75	443.25	466.25	440.25	389.50	378.75	369.25	363.00	360.75
