300.00	307.50	312.50	321.50	325.50	331.75	336.00	340.50	349.50	353.50	360.00	364.50	371.00	374.75	382.50	386.00	389.25	394.50	399.50	404.50	409.50	412.50	415.50	420.00	424.25	428.50	431.00	435.00	437.50	443.25	445.75	448.00	451.50	453.50	457.00	459.50	462.75	465.25	467.75	472.75	475.25	479.00	481.00	484.75	487.00	491.25	493.75	496.00	499.00	501.50	506.00	508.50	512.00	514.25	516.50	521.25	523.50	527.00	530.00	533.00	535.50	540.50	543.50	546.25	550.50	555.00	559.50	562.50	566.50	569.25	573.50	577.75	580.25	584.50	588.25	591.75	595.00	601.50	604.50	609.00	611.50	615.75	620.00	624.00	626.50	629.00	634.00	636.25	639.50	642.50	645.75	648.25	653.25	655.75	658.50	663.50	666.50	672.00	674.50	678.75	681.25	684.00	689.25	692.00	697.00	700.00	704.50	707.50	712.25	714.25	716.00	719.00	721.50	725.50	728.00	732.50	735.50	740.00	744.00	746.75	750.50	754.00	756.50	759.50	764.50	766.75	771.00	775.00	780.00	784.00	787.50	789.75	792.50	796.00	797.50	799.00	801.00	804.00	805.50	807.25	809.25	811.00	813.50	815.00	818.00	819.50	821.75	823.25	824.75	827.75	829.25	831.50	833.00	835.75	837.25	841.00	843.00	845.00	848.00	849.50	853.50	855.50	858.50	860.25	863.00	866.00	868.25	872.00	876.00	878.50	880.75	885.00	887.00	889.50	892.00	895.25	898.50	902.25	904.50	906.00	908.50	911.50	914.00	915.50	918.50	920.25	923.00	925.75	927.50	930.50	932.50	934.75	937.50	940.00	942.00	944.25	948.50	951.50	954.50	956.50	958.00	959.00	960.75	962.50	964.00	966.50	968.00	971.00	972.50	975.50	977.00	978.50	981.50	983.25	985.50	987.00	989.25	990.50	993.50	995.00	996.50	999.00	1001.25	1003.50	1005.00	1007.25	1009.00	1011.00	1013.50	1014.75	1017.00	1018.75	1020.25	1022.75	1025.00	1026.50	1028.50	1030.00	1032.75	1035.50	1038.00	1040.50	1042.75	1045.00	1047.75	1051.00	1053.00	1056.00	1057.75	1060.25	1062.75	1064.25	1066.50	1068.00	1070.50	1072.50
309.00	316.00	321.00	330.00	334.00	340.00	344.00	348.50	357.00	361.00	367.00	372.00	378.00	381.50	389.00	392.50	395.50	401.00	405.50	411.00	415.50	418.50	421.50	426.00	430.00	434.00	437.00	441.00	443.50	449.00	451.50	454.00	457.00	460.00	463.00	466.00	469.50	472.00	474.50	479.50	482.00	486.00	488.00	491.50	494.00	498.50	501.00	503.00	506.00	508.00	513.00	515.00	519.00	521.50	524.00	529.00	531.00	534.00	537.00	540.00	542.50	547.50	550.50	553.00	557.00	561.50	566.00	569.00	572.50	575.00	579.00	583.00	585.50	590.00	593.50	597.00	600.50	606.50	609.50	614.00	617.00	621.00	625.00	629.00	631.50	634.00	639.00	641.00	644.00	647.00	650.00	652.50	657.50	660.00	662.50	668.00	671.00	676.00	679.00	683.00	685.50	688.50	694.00	696.50	702.00	705.00	709.50	712.50	717.00	718.50	720.00	723.00	725.00	729.00	732.00	736.50	739.50	744.00	747.50	750.50	754.00	758.00	760.50	763.50	768.00	770.50	775.00	779.00	784.50	789.00	792.00	794.50	797.50	801.00	802.50	804.00	806.00	809.00	810.50	812.00	814.00	816.00	818.00	820.00	823.00	824.00	826.50	828.00	829.50	832.50	834.00	836.00	838.00	840.50	842.00	846.00	848.00	850.00	853.00	854.00	858.00	860.00	863.00	864.50	867.00	870.00	872.00	876.00	879.50	882.00	884.00	888.00	890.00	892.00	895.00	898.00	901.00	905.00	907.00	908.50	911.00	914.00	917.00	918.00	921.00	923.00	926.00	928.50	930.00	933.00	935.00	937.50	940.00	943.00	945.00	947.50	952.00	955.00	958.00	960.00	961.50	962.50	964.50	966.50	968.00	970.00	972.00	975.00	977.00	980.00	981.50	983.00	986.00	987.50	990.00	991.00	993.50	994.50	997.50	999.00	1000.50	1003.00	1005.50	1008.00	1009.00	1011.50	1013.00	1015.00	1017.50	1018.50	1021.00	1022.50	1024.00	1026.50	1028.50	1030.00	1032.00	1034.00	1036.50	1039.00	1042.00	1044.50	1047.00	1049.00	1051.50	1055.00	1057.00	1060.00	1061.50	1064.00	1066.50	1068.00	1070.00	1072.00	1074.00	1076.00
309.00	316.00	321.00	330.00	334.00	340.00	344.00	348.50	357.00	361.00	367.00	372.00	378.00	381.50	389.00	392.50	395.50	401.00	405.50	411.00	415.50	418.50	421.50	426.00	430.00	434.00	437.00	441.00	443.50	449.00	451.50	454.00	457.00	460.00	463.00	466.00	469.50	472.00	474.50	479.50	482.00	486.00	488.00	491.50	494.00	498.50	501.00	503.00	506.00	508.00	513.00	515.00	519.00	521.50	524.00	529.00	531.00	534.00	537.00	540.00	542.50	547.50	550.50	553.00	557.00	561.50	566.00	569.00	572.50	575.00	579.00	583.00	585.50	590.00	593.50	597.00	600.50	606.50	609.50	614.00	617.00	621.00	625.00	629.00	631.50	634.00	639.00	641.00	644.00	647.00	650.00	652.50	657.50	660.00	662.50	668.00	671.00	676.00	679.00	683.00	685.50	688.50	694.00	696.50	702.00	705.00	709.50	712.50	717.00	718.50	720.00	723.00	725.00	729.00	732.00	736.50	739.50	744.00	747.50	750.50	754.00	758.00	760.50	763.50	768.00	770.50	775.00	779.00	784.50	789.00	792.00	794.50	797.50	801.00	802.50	804.00	806.00	809.00	810.50	812.00	814.00	816.00	818.00	820.00	823.00	824.00	826.50	828.00	829.50	832.50	834.00	836.00	838.00	840.50	842.00	846.00	848.00	850.00	853.00	854.00	858.00	860.00	863.00	864.50	867.00	870.00	872.00	876.00	879.50	882.00	884.00	888.00	890.00	892.00	895.00	898.00	901.00	905.00	907.00	908.50	911.00	914.00	917.00	918.00	921.00	923.00	926.00	928.50	930.00	933.00	935.00	937.50	940.00	943.00	945.00	947.50	952.00	955.00	958.00	960.00	961.50	962.50	964.50	966.50	968.00	970.00	972.00	975.00	977.00	980.00	981.50	983.00	986.00	987.50	990.00	991.00	993.50	994.50	997.50	999.00	1000.50	1003.00	1005.50	1008.00	1009.00	1011.50	1013.00	1015.00	1017.50	1018.50	1021.00	1022.50	1024.00	1026.50	1028.50	1030.00	1032.00	1034.00	1036.50	1039.00	1042.00	1044.50	1047.00	1049.00	1051.50	1055.00	1057.00	1060.00	1061.50	1064.00	1066.50	1068.00	1070.00	1072.00	1074.00	1076.00
309.00	316.00	321.00	330.00	334.00	340.00	344.00	348.50	357.00	361.00	367.00	372.00	378.00	381.50	389.00	392.50	395.50	401.00	405.50	411.00	415.50	418.50	421.50	426.00	430.00	434.00	437.00	441.00	443.50	449.00	451.50	454.00	457.00	460.00	463.00	466.00	469.50	472.00	474.50	479.50	482.00	486.00	488.00	491.50	494.00	498.50	501.00	503.00	506.00	508.00	513.00	515.00	519.00	521.50	524.00	529.00	531.00	534.00	537.00	540.00	542.50	547.50	550.50	553.00	557.00	561.50	566.00	569.00	572.50	575.00	579.00	583.00	585.50	590.00	593.50	597.00	600.50	606.50	609.50	614.00	617.00	621.00	625.00	629.00	631.50	634.00	639.00	641.00	644.00	647.00	650.00	652.50	657.50	660.00	662.50	668.00	671.00	676.00	679.00	683.00	685.50	688.50	694.00	696.50	702.00	705.00	709.50	712.50	717.00	718.50	720.00	723.00	725.00	729.00	732.00	736.50	739.50	744.00	747.50	750.50	754.00	758.00	760.50	763.50	768.00	770.50	775.00	779.00	784.50	789.00	792.00	794.50	797.50	801.00	802.50	804.00	806.00	809.00	810.50	812.00	814.00	816.00	818.00	820.00	823.00	824.00	826.50	828.00	829.50	832.50	834.00	836.00	838.00	840.50	842.00	846.00	848.00	850.00	853.00	854.00	858.00	860.00	863.00	864.50	867.00	870.00	872.00	876.00	879.50	882.00	884.00	888.00	890.00	892.00	895.00	898.00	901.00	905.00	907.00	908.50	911.00	914.00	917.00	918.00	921.00	923.00	926.00	928.50	930.00	933.00	935.00	937.50	940.00	943.00	945.00	947.50	952.00	955.00	958.00	960.00	961.50	962.50	964.50	966.50	968.00	970.00	972.00	975.00	977.00	980.00	981.50	983.00	986.00	987.50	990.00	991.00	993.50	994.50	997.50	999.00	1000.50	1003.00	1005.50	1008.00	1009.00	1011.50	1013.00	1015.00	1017.50	1018.50	1021.00	1022.50	1024.00	1026.50	1028.50	1030.00	1032.00	1034.00	1036.50	1039.00	1042.00	1044.50	1047.00	1049.00	1051.50	1055.00	1057.00	1060.00	1061.50	1064.00	1066.50	1068.00	1070.00	1072.00	1074.00	1076.00
317.25	324.00	328.50	337.50	341.50	347.50	351.50	355.75	364.00	368.00	374.00	378.50	384.25	387.75	395.00	398.50	401.75	407.00	411.50	417.00	421.50	424.50	427.50	432.00	435.75	440.00	443.00	446.75	449.50	454.75	457.50	460.00	463.50	466.00	469.50	472.50	476.00	478.50	481.00	486.00	488.50	492.50	494.50	498.25	500.50	505.50	508.00	510.00	513.00	515.50	520.00	522.50	526.25	528.75	531.25	536.00	538.00	541.00	544.00	547.00	549.50	554.25	557.00	559.50	563.50	567.75	572.00	575.00	578.50	581.00	585.00	589.25	591.75	596.00	599.75	602.75	606.00	612.50	615.50	619.50	622.50	626.50	630.50	634.50	637.00	639.50	644.50	646.50	649.50	652.00	655.50	658.00	663.00	665.75	668.25	673.00	676.00	681.00	683.50	687.75	690.50	693.50	699.00	701.75	707.00	710.50	714.75	717.50	722.00	723.50	725.00	728.00	730.25	734.00	737.00	741.25	744.00	748.50	752.00	755.00	758.50	762.50	765.00	767.75	772.50	775.00	779.50	783.00	788.50	793.00	796.25	799.00	801.75	805.00	806.50	808.50	810.50	813.25	814.75	816.50	818.50	820.25	822.50	824.50	827.50	828.50	831.00	832.50	834.00	837.00	838.50	840.50	842.50	844.75	846.50	850.50	852.50	854.25	857.00	858.50	862.50	864.50	867.00	868.75	871.50	874.50	876.50	880.00	883.25	885.50	887.50	891.00	893.00	895.50	898.00	901.00	904.00	908.00	910.00	911.75	914.00	917.00	920.00	921.50	924.00	926.00	929.00	931.75	933.50	936.50	938.50	941.00	943.50	946.50	948.50	951.00	955.00	958.00	961.00	963.00	964.75	966.00	968.00	970.25	972.00	974.00	976.00	979.00	981.00	983.75	985.25	986.75	989.75	991.25	993.50	995.00	997.25	998.50	1001.50	1003.00	1004.50	1007.00	1009.50	1012.00	1013.00	1015.50	1017.00	1019.00	1021.50	1022.50	1024.50	1026.25	1027.75	1030.00	1032.25	1034.00	1036.00	1038.00	1040.50	1043.00	1046.00	1048.50	1051.00	1053.00	1055.50	1058.50	1060.50	1063.50	1065.25	1067.75	1070.25	1071.75	1074.00	1075.50	1077.75	1080.00
325.50	332.00	336.00	345.00	349.00	355.00	359.00	363.00	371.00	375.00	381.00	385.00	390.50	394.00	401.00	404.50	408.00	413.00	417.50	423.00	427.50	430.50	433.50	438.00	441.50	446.00	449.00	452.50	455.50	460.50	463.50	466.00	470.00	472.00	476.00	479.00	482.50	485.00	487.50	492.50	495.00	499.00	501.00	505.00	507.00	512.50	515.00	517.00	520.00	523.00	527.00	530.00	533.50	536.00	538.50	543.00	545.00	548.00	551.00	554.00	556.50	561.00	563.50	566.00	570.00	574.00	578.00	581.00	584.50	587.00	591.00	595.50	598.00	602.00	606.00	608.50	611.50	618.50	621.50	625.00	628.00	632.00	636.00	640.00	642.50	645.00	650.00	652.00	655.00	657.00	661.00	663.50	668.50	671.50	674.00	678.00	681.00	686.00	688.00	692.50	695.50	698.50	704.00	707.00	712.00	716.00	720.00	722.50	727.00	728.50	730.00	733.00	735.50	739.00	742.00	746.00	748.50	753.00	756.50	759.50	763.00	767.00	769.50	772.00	777.00	779.50	784.00	787.00	792.50	797.00	800.50	803.50	806.00	809.00	810.50	813.00	815.00	817.50	819.00	821.00	823.00	824.50	827.00	829.00	832.00	833.00	835.50	837.00	838.50	841.50	843.00	845.00	847.00	849.00	851.00	855.00	857.00	858.50	861.00	863.00	867.00	869.00	871.00	873.00	876.00	879.00	881.00	884.00	887.00	889.00	891.00	894.00	896.00	899.00	901.00	904.00	907.00	911.00	913.00	915.00	917.00	920.00	923.00	925.00	927.00	929.00	932.00	935.00	937.00	940.00	942.00	944.50	947.00	950.00	952.00	954.50	958.00	961.00	964.00	966.00	968.00	969.50	971.50	974.00	976.00	978.00	980.00	983.00	985.00	987.50	989.00	990.50	993.50	995.00	997.00	999.00	1001.00	1002.50	1005.50	1007.00	1008.50	1011.00	1013.50	1016.00	1017.00	1019.50	1021.00	1023.00	1025.50	1026.50	1028.00	1030.00	1031.50	1033.50	1036.00	1038.00	1040.00	1042.00	1044.50	1047.00	1050.00	1052.50	1055.00	1057.00	1059.50	1062.00	1064.00	1067.00	1069.00	1071.50	1074.00	1075.50	1078.00	1079.00	1081.50	1084.00
325.50	332.00	336.00	345.00	349.00	355.00	359.00	363.00	371.00	375.00	381.00	385.00	390.50	394.00	401.00	404.50	408.00	413.00	417.50	423.00	427.50	430.50	433.50	438.00	441.50	446.00	449.00	452.50	455.50	460.50	463.50	466.00	470.00	472.00	476.00	479.00	482.50	485.00	487.50	492.50	495.00	499.00	501.00	505.00	507.00	512.50	515.00	517.00	520.00	523.00	527.00	530.00	533.50	536.00	538.50	543.00	545.00	548.00	551.00	554.00	556.50	561.00	563.50	566.00	570.00	574.00	578.00	581.00	584.50	587.00	591.00	595.50	598.00	602.00	606.00	608.50	611.50	618.50	621.50	625.00	628.00	632.00	636.00	640.00	642.50	645.00	650.00	652.00	655.00	657.00	661.00	663.50	668.50	671.50	674.00	678.00	681.00	686.00	688.00	692.50	695.50	698.50	704.00	707.00	712.00	716.00	720.00	722.50	727.00	728.50	730.00	733.00	735.50	739.00	742.00	746.00	748.50	753.00	756.50	759.50	763.00	767.00	769.50	772.00	777.00	779.50	784.00	787.00	792.50	797.00	800.50	803.50	806.00	809.00	810.50	813.00	815.00	817.50	819.00	821.00	823.00	824.50	827.00	829.00	832.00	833.00	835.50	837.00	838.50	841.50	843.00	845.00	847.00	849.00	851.00	855.00	857.00	858.50	861.00	863.00	867.00	869.00	871.00	873.00	876.00	879.00	881.00	884.00	887.00	889.00	891.00	894.00	896.00	899.00	901.00	904.00	907.00	911.00	913.00	915.00	917.00	920.00	923.00	925.00	927.00	929.00	932.00	935.00	937.00	940.00	942.00	944.50	947.00	950.00	952.00	954.50	958.00	961.00	964.00	966.00	968.00	969.50	971.50	974.00	976.00	978.00	980.00	983.00	985.00	987.50	989.00	990.50	993.50	995.00	997.00	999.00	1001.00	1002.50	1005.50	1007.00	1008.50	1011.00	1013.50	1016.00	1017.00	1019.50	1021.00	1023.00	1025.50	1026.50	1028.00	1030.00	1031.50	1033.50	1036.00	1038.00	1040.00	1042.00	1044.50	1047.00	1050.00	1052.50	1055.00	1057.00	1059.50	1062.00	1064.00	1067.00	1069.00	1071.50	1074.00	1075.50	1078.00	1079.00	1081.50	1084.00
325.50	332.00	336.00	345.00	349.00	355.00	359.00	363.00	371.00	375.00	381.00	385.00	390.50	394.00	401.00	404.50	408.00	413.00	417.50	423.00	427.50	430.50	433.50	438.00	441.50	446.00	449.00	452.50	455.50	460.50	463.50	466.00	470.00	472.00	476.00	479.00	482.50	485.00	487.50	492.50	495.00	499.00	501.00	505.00	507.00	512.50	515.00	517.00	520.00	523.00	527.00	530.00	533.50	536.00	538.50	543.00	545.00	548.00	551.00	554.00	556.50	561.00	563.50	566.00	570.00	574.00	578.00	581.00	584.50	587.00	591.00	595.50	598.00	602.00	606.00	608.50	611.50	618.50	621.50	625.00	628.00	632.00	636.00	640.00	642.50	645.00	650.00	652.00	655.00	657.00	661.00	663.50	668.50	671.50	674.00	678.00	681.00	686.00	688.00	692.50	695.50	698.50	704.00	707.00	712.00	716.00	720.00	722.50	727.00	728.50	730.00	733.00	735.50	739.00	742.00	746.00	748.50	753.00	756.50	759.50	763.00	767.00	769.50	772.00	777.00	779.50	784.00	787.00	792.50	797.00	800.50	803.50	806.00	809.00	810.50	813.00	815.00	817.50	819.00	821.00	823.00	824.50	827.00	829.00	832.00	833.00	835.50	837.00	838.50	841.50	843.00	845.00	847.00	849.00	851.00	855.00	857.00	858.50	861.00	863.00	867.00	869.00	871.00	873.00	876.00	879.00	881.00	884.00	887.00	889.00	891.00	894.00	896.00	899.00	901.00	904.00	907.00	911.00	913.00	915.00	917.00	920.00	923.00	925.00	927.00	929.00	932.00	935.00	937.00	940.00	942.00	944.50	947.00	950.00	952.00	954.50	958.00	961.00	964.00	966.00	968.00	969.50	971.50	974.00	976.00	978.00	980.00	983.00	985.00	987.50	989.00	990.50	993.50	995.00	997.00	999.00	1001.00	1002.50	1005.50	1007.00	1008.50	1011.00	1013.50	1016.00	1017.00	1019.50	1021.00	1023.00	1025.50	1026.50	1028.00	1030.00	1031.50	1033.50	1036.00	1038.00	1040.00	1042.00	1044.50	1047.00	1050.00	1052.50	1055.00	1057.00	1059.50	1062.00	1064.00	1067.00	1069.00	1071.50	1074.00	1075.50	1078.00	1079.00	1081.50	1084.00
333.75	340.00	344.00	352.50	356.50	362.50	366.25	370.00	378.00	382.00	387.50	391.50	396.75	400.25	407.25	410.50	414.00	419.00	423.75	429.00	433.50	436.50	439.50	443.50	447.50	452.00	455.00	458.50	461.50	467.00	469.75	472.25	476.00	478.50	482.50	485.50	489.00	491.50	494.00	499.00	501.50	505.50	507.50	511.75	514.25	519.50	522.00	524.25	527.50	530.00	535.00	537.50	541.00	543.50	545.75	550.50	552.50	555.50	558.00	561.00	563.25	568.00	570.25	572.75	576.50	580.50	584.50	587.00	590.75	593.25	597.50	601.75	604.25	608.50	612.25	614.75	617.50	624.25	627.25	631.00	634.00	637.75	642.00	645.75	648.25	650.75	655.75	658.00	661.00	663.00	666.50	669.00	674.25	677.00	679.50	683.50	686.00	691.00	693.50	697.75	700.50	703.50	709.25	712.25	717.50	721.00	725.25	727.75	732.00	733.75	735.25	738.00	740.75	744.50	747.00	751.00	753.50	757.50	761.00	763.75	767.50	771.25	773.75	776.25	781.25	783.75	788.00	791.00	796.00	800.50	804.50	807.25	809.75	813.00	814.50	817.00	819.00	821.75	823.25	825.25	827.50	829.00	831.50	833.00	836.00	837.50	840.25	841.75	843.25	846.00	847.50	849.50	851.50	853.50	855.50	859.50	861.25	862.75	865.50	867.50	871.50	873.50	875.50	877.50	880.50	883.00	884.75	887.50	890.50	892.50	894.25	897.50	899.50	903.00	905.00	907.50	910.50	914.00	916.00	918.00	920.50	923.50	926.00	928.00	930.50	932.50	935.75	939.00	941.00	943.50	945.50	948.00	950.50	953.50	955.50	957.75	961.00	964.00	967.00	969.00	971.25	972.75	975.25	977.75	979.50	981.50	983.50	986.50	988.50	990.75	992.50	994.00	997.00	998.50	1001.00	1002.50	1004.75	1006.25	1009.25	1010.75	1012.25	1014.50	1017.00	1019.50	1021.00	1023.25	1024.75	1027.00	1029.25	1030.50	1032.00	1034.00	1035.75	1038.00	1040.25	1042.00	1044.50	1046.50	1048.75	1051.50	1054.50	1056.75	1058.75	1061.00	1063.50	1066.00	1068.00	1070.50	1072.50	1075.00	1077.50	1079.25	1081.50	1083.00	1085.25	1087.50
342.00	348.00	352.00	360.00	364.00	370.00	373.50	377.00	385.00	389.00	394.00	398.00	403.00	406.50	413.50	416.50	420.00	425.00	430.00	435.00	439.50	442.50	445.50	449.00	453.50	458.00	461.00	464.50	467.50	473.50	476.00	478.50	482.00	485.00	489.00	492.00	495.50	498.00	500.50	505.50	508.00	512.00	514.00	518.50	521.50	526.50	529.00	531.50	535.00	537.00	543.00	545.00	548.50	551.00	553.00	558.00	560.00	563.00	565.00	568.00	570.00	575.00	577.00	579.50	583.00	587.00	591.00	593.00	597.00	599.50	604.00	608.00	610.50	615.00	618.50	621.00	623.50	630.00	633.00	637.00	640.00	643.50	648.00	651.50	654.00	656.50	661.50	664.00	667.00	669.00	672.00	674.50	680.00	682.50	685.00	689.00	691.00	696.00	699.00	703.00	705.50	708.50	714.50	717.50	723.00	726.00	730.50	733.00	737.00	739.00	740.50	743.00	746.00	750.00	752.00	756.00	758.50	762.00	765.50	768.00	772.00	775.50	778.00	780.50	785.50	788.00	792.00	795.00	799.50	804.00	808.50	811.00	813.50	817.00	818.50	821.00	823.00	826.00	827.50	829.50	832.00	833.50	836.00	837.00	840.00	842.00	845.00	846.50	848.00	850.50	852.00	854.00	856.00	858.00	860.00	864.00	865.50	867.00	870.00	872.00	876.00	878.00	880.00	882.00	885.00	887.00	888.50	891.00	894.00	896.00	897.50	901.00	903.00	907.00	909.00	911.00	914.00	917.00	919.00	921.00	924.00	927.00	929.00	931.00	934.00	936.00	939.50	943.00	945.00	947.00	949.00	951.50	954.00	957.00	959.00	961.00	964.00	967.00	970.00	972.00	974.50	976.00	979.00	981.50	983.00	985.00	987.00	990.00	992.00	994.00	996.00	997.50	1000.50	1002.00	1005.00	1006.00	1008.50	1010.00	1013.00	1014.50	1016.00	1018.00	1020.50	1023.00	1025.00	1027.00	1028.50	1031.00	1033.00	1034.50	1036.00	1038.00	1040.00	1042.50	1044.50	1046.00	1049.00	1051.00	1053.00	1056.00	1059.00	1061.00	1062.50	1065.00	1067.50	1070.00	1072.00	1074.00	1076.00	1078.50	1081.00	1083.00	1085.00	1087.00	1089.00	1091.00
342.00	348.00	352.00	360.00	364.00	370.00	373.50	377.00	385.00	389.00	394.00	398.00	403.00	406.50	413.50	416.50	420.00	425.00	430.00	435.00	439.50	442.50	445.50	449.00	453.50	458.00	461.00	464.50	467.50	473.50	476.00	478.50	482.00	485.00	489.00	492.00	495.50	498.00	500.50	505.50	508.00	512.00	514.00	518.50	521.50	526.50	529.00	531.50	535.00	537.00	543.00	545.00	548.50	551.00	553.00	558.00	560.00	563.00	565.00	568.00	570.00	575.00	577.00	579.50	583.00	587.00	591.00	593.00	597.00	599.50	604.00	608.00	610.50	615.00	618.50	621.00	623.50	630.00	633.00	637.00	640.00	643.50	648.00	651.50	654.00	656.50	661.50	664.00	667.00	669.00	672.00	674.50	680.00	682.50	685.00	689.00	691.00	696.00	699.00	703.00	705.50	708.50	714.50	717.50	723.00	726.00	730.50	733.00	737.00	739.00	740.50	743.00	746.00	750.00	752.00	756.00	758.50	762.00	765.50	768.00	772.00	775.50	778.00	780.50	785.50	788.00	792.00	795.00	799.50	804.00	808.50	811.00	813.50	817.00	818.50	821.00	823.00	826.00	827.50	829.50	832.00	833.50	836.00	837.00	840.00	842.00	845.00	846.50	848.00	850.50	852.00	854.00	856.00	858.00	860.00	864.00	865.50	867.00	870.00	872.00	876.00	878.00	880.00	882.00	885.00	887.00	888.50	891.00	894.00	896.00	897.50	901.00	903.00	907.00	909.00	911.00	914.00	917.00	919.00	921.00	924.00	927.00	929.00	931.00	934.00	936.00	939.50	943.00	945.00	947.00	949.00	951.50	954.00	957.00	959.00	961.00	964.00	967.00	970.00	972.00	974.50	976.00	979.00	981.50	983.00	985.00	987.00	990.00	992.00	994.00	996.00	997.50	1000.50	1002.00	1005.00	1006.00	1008.50	1010.00	1013.00	1014.50	1016.00	1018.00	1020.50	1023.00	1025.00	1027.00	1028.50	1031.00	1033.00	1034.50	1036.00	1038.00	1040.00	1042.50	1044.50	1046.00	1049.00	1051.00	1053.00	1056.00	1059.00	1061.00	1062.50	1065.00	1067.50	1070.00	1072.00	1074.00	1076.00	1078.50	1081.00	1083.00	1085.00	1087.00	1089.00	1091.00
342.00	348.00	352.00	360.00	364.00	370.00	373.50	377.00	385.00	389.00	394.00	398.00	403.00	406.50	413.50	416.50	420.00	425.00	430.00	435.00	439.50	442.50	445.50	449.00	453.50	458.00	461.00	464.50	467.50	473.50	476.00	478.50	482.00	485.00	489.00	492.00	495.50	498.00	500.50	505.50	508.00	512.00	514.00	518.50	521.50	526.50	529.00	531.50	535.00	537.00	543.00	545.00	548.50	551.00	553.00	558.00	560.00	563.00	565.00	568.00	570.00	575.00	577.00	579.50	583.00	587.00	591.00	593.00	597.00	599.50	604.00	608.00	610.50	615.00	618.50	621.00	623.50	630.00	633.00	637.00	640.00	643.50	648.00	651.50	654.00	656.50	661.50	664.00	667.00	669.00	672.00	674.50	680.00	682.50	685.00	689.00	691.00	696.00	699.00	703.00	705.50	708.50	714.50	717.50	723.00	726.00	730.50	733.00	737.00	739.00	740.50	743.00	746.00	750.00	752.00	756.00	758.50	762.00	765.50	768.00	772.00	775.50	778.00	780.50	785.50	788.00	792.00	795.00	799.50	804.00	808.50	811.00	813.50	817.00	818.50	821.00	823.00	826.00	827.50	829.50	832.00	833.50	836.00	837.00	840.00	842.00	845.00	846.50	848.00	850.50	852.00	854.00	856.00	858.00	860.00	864.00	865.50	867.00	870.00	872.00	876.00	878.00	880.00	882.00	885.00	887.00	888.50	891.00	894.00	896.00	897.50	901.00	903.00	907.00	909.00	911.00	914.00	917.00	919.00	921.00	924.00	927.00	929.00	931.00	934.00	936.00	939.50	943.00	945.00	947.00	949.00	951.50	954.00	957.00	959.00	961.00	964.00	967.00	970.00	972.00	974.50	976.00	979.00	981.50	983.00	985.00	987.00	990.00	992.00	994.00	996.00	997.50	1000.50	1002.00	1005.00	1006.00	1008.50	1010.00	1013.00	1014.50	1016.00	1018.00	1020.50	1023.00	1025.00	1027.00	1028.50	1031.00	1033.00	1034.50	1036.00	1038.00	1040.00	1042.50	1044.50	1046.00	1049.00	1051.00	1053.00	1056.00	1059.00	1061.00	1062.50	1065.00	1067.50	1070.00	1072.00	1074.00	1076.00	1078.50	1081.00	1083.00	1085.00	1087.00	1089.00	1091.00
342.00	348.00	352.00	360.00	364.00	370.00	373.50	377.00	385.00	389.00	394.00	398.00	403.00	406.50	413.50	416.50	420.00	425.00	430.00	435.00	439.50	442.50	445.50	449.00	453.50	458.00	461.00	464.50	467.50	473.50	476.00	478.50	482.00	485.00	489.00	492.00	495.50	498.00	500.50	505.50	508.00	512.00	514.00	518.50	521.50	526.50	529.00	531.50	535.00	537.00	543.00	545.00	548.50	551.00	553.00	558.00	560.00	563.00	565.00	568.00	570.00	575.00	577.00	579.50	583.00	587.00	591.00	593.00	597.00	599.50	604.00	608.00	610.50	615.00	618.50	621.00	623.50	630.00	633.00	637.00	640.00	643.50	648.00	651.50	654.00	656.50	661.50	664.00	667.00	669.00	672.00	674.50	680.00	682.50	685.00	689.00	691.00	696.00	699.00	703.00	705.50	708.50	714.50	717.50	723.00	726.00	730.50	733.00	737.00	739.00	740.50	743.00	746.00	750.00	752.00	756.00	758.50	762.00	765.50	768.00	772.00	775.50	778.00	780.50	785.50	788.00	792.00	795.00	799.50	804.00	808.50	811.00	813.50	817.00	818.50	821.00	823.00	826.00	827.50	829.50	832.00	833.50	836.00	837.00	840.00	842.00	845.00	846.50	848.00	850.50	852.00	854.00	856.00	858.00	860.00	864.00	865.50	867.00	870.00	872.00	876.00	878.00	880.00	882.00	885.00	887.00	888.50	891.00	894.00	896.00	897.50	901.00	903.00	907.00	909.00	911.00	914.00	917.00	919.00	921.00	924.00	927.00	929.00	931.00	934.00	936.00	939.50	943.00	945.00	947.00	949.00	951.50	954.00	957.00	959.00	961.00	964.00	967.00	970.00	972.00	974.50	976.00	979.00	981.50	983.00	985.00	987.00	990.00	992.00	994.00	996.00	997.50	1000.50	1002.00	1005.00	1006.00	1008.50	1010.00	1013.00	1014.50	1016.00	1018.00	1020.50	1023.00	1025.00	1027.00	1028.50	1031.00	1033.00	1034.50	1036.00	1038.00	1040.00	1042.50	1044.50	1046.00	1049.00	1051.00	1053.00	1056.00	1059.00	1061.00	1062.50	1065.00	1067.50	1070.00	1072.00	1074.00	1076.00	1078.50	1081.00	1083.00	1085.00	1087.00	1089.00	1091.00
359.00	364.00	368.00	375.00	379.00	385.00	388.50	392.00	399.00	402.50	407.00	411.00	415.50	418.50	425.50	428.50	432.00	437.00	441.50	446.00	450.50	453.50	456.50	461.00	465.50	470.00	473.00	476.50	479.50	485.50	488.00	490.50	494.00	497.00	502.00	504.00	508.50	511.50	514.00	518.50	521.50	525.00	528.00	532.50	535.50	540.50	543.50	546.00	550.00	552.00	558.00	560.00	563.50	566.00	568.00	573.00	574.50	577.00	579.00	582.00	584.00	589.00	591.00	593.50	597.00	601.00	604.00	607.00	610.00	612.50	616.00	620.50	623.00	627.00	630.50	633.00	635.50	641.50	644.50	648.00	651.00	654.50	659.00	663.00	665.50	668.00	673.00	675.00	678.00	679.00	682.50	685.00	690.00	692.50	695.50	699.00	701.00	707.00	709.00	713.50	716.50	719.50	725.50	728.50	733.00	736.00	739.50	742.00	747.00	749.00	751.00	753.00	756.00	760.00	762.00	765.00	767.50	771.00	774.00	776.50	780.00	783.50	786.50	789.00	793.50	796.00	799.00	803.00	808.00	812.00	816.50	819.00	821.00	824.00	827.00	829.00	831.00	834.00	836.00	838.50	841.00	842.50	845.00	846.00	849.00	851.00	854.00	855.50	857.00	860.00	861.50	864.00	865.00	868.00	870.00	873.00	875.00	877.00	879.00	881.00	885.00	886.00	889.00	890.50	893.00	895.00	896.50	899.00	902.00	903.50	905.00	909.00	911.00	914.00	916.00	918.50	921.00	924.00	926.00	928.00	930.00	933.00	937.00	939.00	941.00	943.00	946.50	950.00	951.50	954.00	956.00	958.50	961.00	964.00	966.00	968.00	971.00	974.00	977.00	979.00	981.00	983.00	985.50	988.00	989.50	992.00	993.00	997.00	998.00	1001.00	1002.50	1004.00	1007.50	1009.00	1011.00	1013.00	1015.50	1017.00	1020.00	1021.50	1023.00	1025.00	1028.00	1030.00	1032.00	1034.50	1036.00	1039.00	1041.00	1042.50	1044.00	1046.50	1048.00	1050.50	1053.00	1055.00	1057.00	1059.00	1061.50	1064.00	1067.00	1068.50	1070.00	1073.00	1075.00	1077.00	1079.00	1082.00	1083.50	1086.00	1088.50	1090.00	1092.00	1094.00	1096.00	1099.00
359.00	364.00	368.00	375.00	379.00	385.00	388.50	392.00	399.00	402.50	407.00	411.00	415.50	418.50	425.50	428.50	432.00	437.00	441.50	446.00	450.50	453.50	456.50	461.00	465.50	470.00	473.00	476.50	479.50	485.50	488.00	490.50	494.00	497.00	502.00	504.00	508.50	511.50	514.00	518.50	521.50	525.00	528.00	532.50	535.50	540.50	543.50	546.00	550.00	552.00	558.00	560.00	563.50	566.00	568.00	573.00	574.50	577.00	579.00	582.00	584.00	589.00	591.00	593.50	597.00	601.00	604.00	607.00	610.00	612.50	616.00	620.50	623.00	627.00	630.50	633.00	635.50	641.50	644.50	648.00	651.00	654.50	659.00	663.00	665.50	668.00	673.00	675.00	678.00	679.00	682.50	685.00	690.00	692.50	695.50	699.00	701.00	707.00	709.00	713.50	716.50	719.50	725.50	728.50	733.00	736.00	739.50	742.00	747.00	749.00	751.00	753.00	756.00	760.00	762.00	765.00	767.50	771.00	774.00	776.50	780.00	783.50	786.50	789.00	793.50	796.00	799.00	803.00	808.00	812.00	816.50	819.00	821.00	824.00	827.00	829.00	831.00	834.00	836.00	838.50	841.00	842.50	845.00	846.00	849.00	851.00	854.00	855.50	857.00	860.00	861.50	864.00	865.00	868.00	870.00	873.00	875.00	877.00	879.00	881.00	885.00	886.00	889.00	890.50	893.00	895.00	896.50	899.00	902.00	903.50	905.00	909.00	911.00	914.00	916.00	918.50	921.00	924.00	926.00	928.00	930.00	933.00	937.00	939.00	941.00	943.00	946.50	950.00	951.50	954.00	956.00	958.50	961.00	964.00	966.00	968.00	971.00	974.00	977.00	979.00	981.00	983.00	985.50	988.00	989.50	992.00	993.00	997.00	998.00	1001.00	1002.50	1004.00	1007.50	1009.00	1011.00	1013.00	1015.50	1017.00	1020.00	1021.50	1023.00	1025.00	1028.00	1030.00	1032.00	1034.50	1036.00	1039.00	1041.00	1042.50	1044.00	1046.50	1048.00	1050.50	1053.00	1055.00	1057.00	1059.00	1061.50	1064.00	1067.00	1068.50	1070.00	1073.00	1075.00	1077.00	1079.00	1082.00	1083.50	1086.00	1088.50	1090.00	1092.00	1094.00	1096.00	1099.00
359.00	364.00	368.00	375.00	379.00	385.00	388.50	392.00	399.00	402.50	407.00	411.00	415.50	418.50	425.50	428.50	432.00	437.00	441.50	446.00	450.50	453.50	456.50	461.00	465.50	470.00	473.00	476.50	479.50	485.50	488.00	490.50	494.00	497.00	502.00	504.00	508.50	511.50	514.00	518.50	521.50	525.00	528.00	532.50	535.50	540.50	543.50	546.00	550.00	552.00	558.00	560.00	563.50	566.00	568.00	573.00	574.50	577.00	579.00	582.00	584.00	589.00	591.00	593.50	597.00	601.00	604.00	607.00	610.00	612.50	616.00	620.50	623.00	627.00	630.50	633.00	635.50	641.50	644.50	648.00	651.00	654.50	659.00	663.00	665.50	668.00	673.00	675.00	678.00	679.00	682.50	685.00	690.00	692.50	695.50	699.00	701.00	707.00	709.00	713.50	716.50	719.50	725.50	728.50	733.00	736.00	739.50	742.00	747.00	749.00	751.00	753.00	756.00	760.00	762.00	765.00	767.50	771.00	774.00	776.50	780.00	783.50	786.50	789.00	793.50	796.00	799.00	803.00	808.00	812.00	816.50	819.00	821.00	824.00	827.00	829.00	831.00	834.00	836.00	838.50	841.00	842.50	845.00	846.00	849.00	851.00	854.00	855.50	857.00	860.00	861.50	864.00	865.00	868.00	870.00	873.00	875.00	877.00	879.00	881.00	885.00	886.00	889.00	890.50	893.00	895.00	896.50	899.00	902.00	903.50	905.00	909.00	911.00	914.00	916.00	918.50	921.00	924.00	926.00	928.00	930.00	933.00	937.00	939.00	941.00	943.00	946.50	950.00	951.50	954.00	956.00	958.50	961.00	964.00	966.00	968.00	971.00	974.00	977.00	979.00	981.00	983.00	985.50	988.00	989.50	992.00	993.00	997.00	998.00	1001.00	1002.50	1004.00	1007.50	1009.00	1011.00	1013.00	1015.50	1017.00	1020.00	1021.50	1023.00	1025.00	1028.00	1030.00	1032.00	1034.50	1036.00	1039.00	1041.00	1042.50	1044.00	1046.50	1048.00	1050.50	1053.00	1055.00	1057.00	1059.00	1061.50	1064.00	1067.00	1068.50	1070.00	1073.00	1075.00	1077.00	1079.00	1082.00	1083.50	1086.00	1088.50	1090.00	1092.00	1094.00	1096.00	1099.00
359.00	364.00	368.00	375.00	379.00	385.00	388.50	392.00	399.00	402.50	407.00	411.00	415.50	418.50	425.50	428.50	432.00	437.00	441.50	446.00	450.50	453.50	456.50	461.00	465.50	470.00	473.00	476.50	479.50	485.50	488.00	490.50	494.00	497.00	502.00	504.00	508.50	511.50	514.00	518.50	521.50	525.00	528.00	532.50	535.50	540.50	543.50	546.00	550.00	552.00	558.00	560.00	563.50	566.00	568.00	573.00	574.50	577.00	579.00	582.00	584.00	589.00	591.00	593.50	597.00	601.00	604.00	607.00	610.00	612.50	616.00	620.50	623.00	627.00	630.50	633.00	635.50	641.50	644.50	648.00	651.00	654.50	659.00	663.00	665.50	668.00	673.00	675.00	678.00	679.00	682.50	685.00	690.00	692.50	695.50	699.00	701.00	707.00	709.00	713.50	716.50	719.50	725.50	728.50	733.00	736.00	739.50	742.00	747.00	749.00	751.00	753.00	756.00	760.00	762.00	765.00	767.50	771.00	774.00	776.50	780.00	783.50	786.50	789.00	793.50	796.00	799.00	803.00	808.00	812.00	816.50	819.00	821.00	824.00	827.00	829.00	831.00	834.00	836.00	838.50	841.00	842.50	845.00	846.00	849.00	851.00	854.00	855.50	857.00	860.00	861.50	864.00	865.00	868.00	870.00	873.00	875.00	877.00	879.00	881.00	885.00	886.00	889.00	890.50	893.00	895.00	896.50	899.00	902.00	903.50	905.00	909.00	911.00	914.00	916.00	918.50	921.00	924.00	926.00	928.00	930.00	933.00	937.00	939.00	941.00	943.00	946.50	950.00	951.50	954.00	956.00	958.50	961.00	964.00	966.00	968.00	971.00	974.00	977.00	979.00	981.00	983.00	985.50	988.00	989.50	992.00	993.00	997.00	998.00	1001.00	1002.50	1004.00	1007.50	1009.00	1011.00	1013.00	1015.50	1017.00	1020.00	1021.50	1023.00	1025.00	1028.00	1030.00	1032.00	1034.50	1036.00	1039.00	1041.00	1042.50	1044.00	1046.50	1048.00	1050.50	1053.00	1055.00	1057.00	1059.00	1061.50	1064.00	1067.00	1068.50	1070.00	1073.00	1075.00	1077.00	1079.00	1082.00	1083.50	1086.00	1088.50	1090.00	1092.00	1094.00	1096.00	1099.00
374.50	380.00	383.00	390.00	394.00	399.00	402.50	406.00	412.50	415.50	420.00	423.00	427.50	431.00	437.50	440.50	444.00	449.00	453.50	458.00	462.50	465.50	468.50	473.00	477.50	482.00	484.00	488.50	491.50	497.50	500.00	502.50	507.00	509.00	515.00	518.00	522.00	524.50	527.00	532.50	535.50	540.00	542.00	546.50	549.00	554.00	556.50	559.50	563.00	566.00	571.00	573.00	577.00	579.50	582.00	586.50	588.50	591.00	593.00	596.50	599.00	603.00	605.50	608.00	611.00	615.00	618.00	620.00	623.50	626.00	629.00	633.00	635.00	639.00	642.50	645.00	647.50	652.50	655.00	659.00	661.00	665.00	669.00	673.50	676.50	679.00	684.00	686.00	689.00	690.00	693.50	696.00	701.00	703.50	706.00	710.00	712.00	718.00	720.00	724.50	727.50	730.50	735.50	738.00	741.00	743.00	747.00	749.00	753.50	756.00	758.50	762.00	766.00	769.00	772.00	775.00	777.00	780.00	783.00	785.00	789.00	792.00	794.50	797.00	801.00	803.00	808.00	811.00	816.50	821.00	825.00	827.00	829.00	832.00	835.00	838.00	840.00	843.00	844.50	846.50	849.00	851.00	854.00	855.00	859.00	860.00	863.00	865.00	867.00	870.00	871.50	874.00	876.00	878.00	880.00	883.00	885.00	886.50	889.00	891.00	894.00	895.00	897.50	899.00	901.00	904.00	905.50	908.00	910.50	912.00	914.00	917.50	919.00	922.00	924.00	926.00	928.00	931.00	933.00	935.00	937.00	940.00	943.00	945.00	948.00	950.00	953.00	956.00	958.00	961.00	963.00	965.50	968.00	971.00	973.00	975.00	978.00	981.00	984.00	986.00	988.00	990.00	992.50	995.00	996.50	999.00	1000.00	1003.00	1005.00	1008.00	1009.50	1011.00	1014.00	1016.00	1018.00	1020.00	1022.00	1023.50	1027.00	1028.50	1030.00	1032.00	1034.50	1037.00	1039.00	1042.00	1043.50	1046.00	1048.00	1049.50	1052.00	1054.00	1055.50	1057.50	1060.00	1062.00	1064.00	1066.00	1068.50	1071.00	1073.50	1075.00	1077.00	1079.00	1082.00	1084.00	1086.00	1089.00	1090.50	1093.00	1095.50	1097.00	1099.00	1101.00	1103.00	1105.00
374.50	380.00	383.00	390.00	394.00	399.00	402.50	406.00	412.50	415.50	420.00	423.00	427.50	431.00	437.50	440.50	444.00	449.00	453.50	458.00	462.50	465.50	468.50	473.00	477.50	482.00	484.00	488.50	491.50	497.50	500.00	502.50	507.00	509.00	515.00	518.00	522.00	524.50	527.00	532.50	535.50	540.00	542.00	546.50	549.00	554.00	556.50	559.50	563.00	566.00	571.00	573.00	577.00	579.50	582.00	586.50	588.50	591.00	593.00	596.50	599.00	603.00	605.50	608.00	611.00	615.00	618.00	620.00	623.50	626.00	629.00	633.00	635.00	639.00	642.50	645.00	647.50	652.50	655.00	659.00	661.00	665.00	669.00	673.50	676.50	679.00	684.00	686.00	689.00	690.00	693.50	696.00	701.00	703.50	706.00	710.00	712.00	718.00	720.00	724.50	727.50	730.50	735.50	738.00	741.00	743.00	747.00	749.00	753.50	756.00	758.50	762.00	766.00	769.00	772.00	775.00	777.00	780.00	783.00	785.00	789.00	792.00	794.50	797.00	801.00	803.00	808.00	811.00	816.50	821.00	825.00	827.00	829.00	832.00	835.00	838.00	840.00	843.00	844.50	846.50	849.00	851.00	854.00	855.00	859.00	860.00	863.00	865.00	867.00	870.00	871.50	874.00	876.00	878.00	880.00	883.00	885.00	886.50	889.00	891.00	894.00	895.00	897.50	899.00	901.00	904.00	905.50	908.00	910.50	912.00	914.00	917.50	919.00	922.00	924.00	926.00	928.00	931.00	933.00	935.00	937.00	940.00	943.00	945.00	948.00	950.00	953.00	956.00	958.00	961.00	963.00	965.50	968.00	971.00	973.00	975.00	978.00	981.00	984.00	986.00	988.00	990.00	992.50	995.00	996.50	999.00	1000.00	1003.00	1005.00	1008.00	1009.50	1011.00	1014.00	1016.00	1018.00	1020.00	1022.00	1023.50	1027.00	1028.50	1030.00	1032.00	1034.50	1037.00	1039.00	1042.00	1043.50	1046.00	1048.00	1049.50	1052.00	1054.00	1055.50	1057.50	1060.00	1062.00	1064.00	1066.00	1068.50	1071.00	1073.50	1075.00	1077.00	1079.00	1082.00	1084.00	1086.00	1089.00	1090.50	1093.00	1095.50	1097.00	1099.00	1101.00	1103.00	1105.00
374.50	380.00	383.00	390.00	394.00	399.00	402.50	406.00	412.50	415.50	420.00	423.00	427.50	431.00	437.50	440.50	444.00	449.00	453.50	458.00	462.50	465.50	468.50	473.00	477.50	482.00	484.00	488.50	491.50	497.50	500.00	502.50	507.00	509.00	515.00	518.00	522.00	524.50	527.00	532.50	535.50	540.00	542.00	546.50	549.00	554.00	556.50	559.50	563.00	566.00	571.00	573.00	577.00	579.50	582.00	586.50	588.50	591.00	593.00	596.50	599.00	603.00	605.50	608.00	611.00	615.00	618.00	620.00	623.50	626.00	629.00	633.00	635.00	639.00	642.50	645.00	647.50	652.50	655.00	659.00	661.00	665.00	669.00	673.50	676.50	679.00	684.00	686.00	689.00	690.00	693.50	696.00	701.00	703.50	706.00	710.00	712.00	718.00	720.00	724.50	727.50	730.50	735.50	738.00	741.00	743.00	747.00	749.00	753.50	756.00	758.50	762.00	766.00	769.00	772.00	775.00	777.00	780.00	783.00	785.00	789.00	792.00	794.50	797.00	801.00	803.00	808.00	811.00	816.50	821.00	825.00	827.00	829.00	832.00	835.00	838.00	840.00	843.00	844.50	846.50	849.00	851.00	854.00	855.00	859.00	860.00	863.00	865.00	867.00	870.00	871.50	874.00	876.00	878.00	880.00	883.00	885.00	886.50	889.00	891.00	894.00	895.00	897.50	899.00	901.00	904.00	905.50	908.00	910.50	912.00	914.00	917.50	919.00	922.00	924.00	926.00	928.00	931.00	933.00	935.00	937.00	940.00	943.00	945.00	948.00	950.00	953.00	956.00	958.00	961.00	963.00	965.50	968.00	971.00	973.00	975.00	978.00	981.00	984.00	986.00	988.00	990.00	992.50	995.00	996.50	999.00	1000.00	1003.00	1005.00	1008.00	1009.50	1011.00	1014.00	1016.00	1018.00	1020.00	1022.00	1023.50	1027.00	1028.50	1030.00	1032.00	1034.50	1037.00	1039.00	1042.00	1043.50	1046.00	1048.00	1049.50	1052.00	1054.00	1055.50	1057.50	1060.00	1062.00	1064.00	1066.00	1068.50	1071.00	1073.50	1075.00	1077.00	1079.00	1082.00	1084.00	1086.00	1089.00	1090.50	1093.00	1095.50	1097.00	1099.00	1101.00	1103.00	1105.00
374.50	380.00	383.00	390.00	394.00	399.00	402.50	406.00	412.50	415.50	420.00	423.00	427.50	431.00	437.50	440.50	444.00	449.00	453.50	458.00	462.50	465.50	468.50	473.00	477.50	482.00	484.00	488.50	491.50	497.50	500.00	502.50	507.00	509.00	515.00	518.00	522.00	524.50	527.00	532.50	535.50	540.00	542.00	546.50	549.00	554.00	556.50	559.50	563.00	566.00	571.00	573.00	577.00	579.50	582.00	586.50	588.50	591.00	593.00	596.50	599.00	603.00	605.50	608.00	611.00	615.00	618.00	620.00	623.50	626.00	629.00	633.00	635.00	639.00	642.50	645.00	647.50	652.50	655.00	659.00	661.00	665.00	669.00	673.50	676.50	679.00	684.00	686.00	689.00	690.00	693.50	696.00	701.00	703.50	706.00	710.00	712.00	718.00	720.00	724.50	727.50	730.50	735.50	738.00	741.00	743.00	747.00	749.00	753.50	756.00	758.50	762.00	766.00	769.00	772.00	775.00	777.00	780.00	783.00	785.00	789.00	792.00	794.50	797.00	801.00	803.00	808.00	811.00	816.50	821.00	825.00	827.00	829.00	832.00	835.00	838.00	840.00	843.00	844.50	846.50	849.00	851.00	854.00	855.00	859.00	860.00	863.00	865.00	867.00	870.00	871.50	874.00	876.00	878.00	880.00	883.00	885.00	886.50	889.00	891.00	894.00	895.00	897.50	899.00	901.00	904.00	905.50	908.00	910.50	912.00	914.00	917.50	919.00	922.00	924.00	926.00	928.00	931.00	933.00	935.00	937.00	940.00	943.00	945.00	948.00	950.00	953.00	956.00	958.00	961.00	963.00	965.50	968.00	971.00	973.00	975.00	978.00	981.00	984.00	986.00	988.00	990.00	992.50	995.00	996.50	999.00	1000.00	1003.00	1005.00	1008.00	1009.50	1011.00	1014.00	1016.00	1018.00	1020.00	1022.00	1023.50	1027.00	1028.50	1030.00	1032.00	1034.50	1037.00	1039.00	1042.00	1043.50	1046.00	1048.00	1049.50	1052.00	1054.00	1055.50	1057.50	1060.00	1062.00	1064.00	1066.00	1068.50	1071.00	1073.50	1075.00	1077.00	1079.00	1082.00	1084.00	1086.00	1089.00	1090.50	1093.00	1095.50	1097.00	1099.00	1101.00	1103.00	1105.00
388.50	393.00	397.00	404.00	407.00	412.50	416.00	419.50	425.50	429.00	434.00	437.00	440.50	444.00	450.50	453.50	456.50	462.00	466.50	470.00	474.50	477.50	480.50	485.00	489.50	494.00	497.00	501.50	504.50	510.00	512.50	515.50	520.00	522.00	529.00	532.00	535.50	538.50	541.00	546.50	549.50	554.00	557.00	560.50	563.50	568.50	571.50	574.00	578.00	580.00	584.00	587.00	591.00	593.50	596.00	600.00	602.00	605.00	607.00	610.50	613.00	617.50	620.00	622.00	625.00	628.00	631.00	633.00	636.50	639.00	642.00	645.00	647.50	652.00	655.50	658.00	660.50	665.00	667.50	671.00	674.00	678.00	682.00	686.50	689.00	691.50	696.50	699.00	701.00	703.00	706.00	708.50	713.00	715.50	718.00	722.00	724.00	729.00	732.00	735.50	738.00	740.50	745.50	748.00	751.00	753.00	756.00	758.00	763.00	765.00	767.50	772.00	776.00	779.00	782.00	785.00	787.00	790.00	793.00	795.00	798.00	801.00	803.00	805.00	810.00	812.00	816.00	819.00	823.50	829.00	833.00	835.00	837.00	840.00	843.00	846.00	848.00	851.00	852.50	855.00	858.00	860.00	863.00	864.00	868.00	869.00	872.00	873.50	875.00	878.50	880.00	882.00	884.00	887.00	889.00	892.50	893.50	895.00	897.00	899.00	902.00	903.00	905.50	907.00	909.00	911.50	913.00	916.00	918.00	920.00	921.50	925.00	926.50	929.00	931.00	933.00	936.00	939.00	940.50	942.00	945.00	948.00	950.00	952.00	955.00	957.00	960.00	963.00	965.00	968.00	970.00	972.50	975.00	978.00	980.00	982.00	985.00	988.00	991.00	992.00	994.50	996.00	998.50	1001.00	1003.00	1005.00	1007.00	1010.00	1012.00	1014.50	1016.00	1018.00	1021.00	1022.50	1025.00	1026.00	1028.50	1030.00	1034.00	1035.50	1037.00	1039.00	1041.50	1044.00	1046.00	1048.00	1049.50	1052.00	1054.00	1055.50	1058.00	1060.00	1061.50	1064.00	1067.00	1068.50	1071.00	1073.00	1075.00	1078.00	1080.00	1082.00	1083.50	1086.00	1088.50	1091.00	1093.00	1095.00	1097.00	1099.50	1101.50	1103.00	1106.00	1107.00	1109.50	1112.00
388.50	393.00	397.00	404.00	407.00	412.50	416.00	419.50	425.50	429.00	434.00	437.00	440.50	444.00	450.50	453.50	456.50	462.00	466.50	470.00	474.50	477.50	480.50	485.00	489.50	494.00	497.00	501.50	504.50	510.00	512.50	515.50	520.00	522.00	529.00	532.00	535.50	538.50	541.00	546.50	549.50	554.00	557.00	560.50	563.50	568.50	571.50	574.00	578.00	580.00	584.00	587.00	591.00	593.50	596.00	600.00	602.00	605.00	607.00	610.50	613.00	617.50	620.00	622.00	625.00	628.00	631.00	633.00	636.50	639.00	642.00	645.00	647.50	652.00	655.50	658.00	660.50	665.00	667.50	671.00	674.00	678.00	682.00	686.50	689.00	691.50	696.50	699.00	701.00	703.00	706.00	708.50	713.00	715.50	718.00	722.00	724.00	729.00	732.00	735.50	738.00	740.50	745.50	748.00	751.00	753.00	756.00	758.00	763.00	765.00	767.50	772.00	776.00	779.00	782.00	785.00	787.00	790.00	793.00	795.00	798.00	801.00	803.00	805.00	810.00	812.00	816.00	819.00	823.50	829.00	833.00	835.00	837.00	840.00	843.00	846.00	848.00	851.00	852.50	855.00	858.00	860.00	863.00	864.00	868.00	869.00	872.00	873.50	875.00	878.50	880.00	882.00	884.00	887.00	889.00	892.50	893.50	895.00	897.00	899.00	902.00	903.00	905.50	907.00	909.00	911.50	913.00	916.00	918.00	920.00	921.50	925.00	926.50	929.00	931.00	933.00	936.00	939.00	940.50	942.00	945.00	948.00	950.00	952.00	955.00	957.00	960.00	963.00	965.00	968.00	970.00	972.50	975.00	978.00	980.00	982.00	985.00	988.00	991.00	992.00	994.50	996.00	998.50	1001.00	1003.00	1005.00	1007.00	1010.00	1012.00	1014.50	1016.00	1018.00	1021.00	1022.50	1025.00	1026.00	1028.50	1030.00	1034.00	1035.50	1037.00	1039.00	1041.50	1044.00	1046.00	1048.00	1049.50	1052.00	1054.00	1055.50	1058.00	1060.00	1061.50	1064.00	1067.00	1068.50	1071.00	1073.00	1075.00	1078.00	1080.00	1082.00	1083.50	1086.00	1088.50	1091.00	1093.00	1095.00	1097.00	1099.50	1101.50	1103.00	1106.00	1107.00	1109.50	1112.00
388.50	393.00	397.00	404.00	407.00	412.50	416.00	419.50	425.50	429.00	434.00	437.00	440.50	444.00	450.50	453.50	456.50	462.00	466.50	470.00	474.50	477.50	480.50	485.00	489.50	494.00	497.00	501.50	504.50	510.00	512.50	515.50	520.00	522.00	529.00	532.00	535.50	538.50	541.00	546.50	549.50	554.00	557.00	560.50	563.50	568.50	571.50	574.00	578.00	580.00	584.00	587.00	591.00	593.50	596.00	600.00	602.00	605.00	607.00	610.50	613.00	617.50	620.00	622.00	625.00	628.00	631.00	633.00	636.50	639.00	642.00	645.00	647.50	652.00	655.50	658.00	660.50	665.00	667.50	671.00	674.00	678.00	682.00	686.50	689.00	691.50	696.50	699.00	701.00	703.00	706.00	708.50	713.00	715.50	718.00	722.00	724.00	729.00	732.00	735.50	738.00	740.50	745.50	748.00	751.00	753.00	756.00	758.00	763.00	765.00	767.50	772.00	776.00	779.00	782.00	785.00	787.00	790.00	793.00	795.00	798.00	801.00	803.00	805.00	810.00	812.00	816.00	819.00	823.50	829.00	833.00	835.00	837.00	840.00	843.00	846.00	848.00	851.00	852.50	855.00	858.00	860.00	863.00	864.00	868.00	869.00	872.00	873.50	875.00	878.50	880.00	882.00	884.00	887.00	889.00	892.50	893.50	895.00	897.00	899.00	902.00	903.00	905.50	907.00	909.00	911.50	913.00	916.00	918.00	920.00	921.50	925.00	926.50	929.00	931.00	933.00	936.00	939.00	940.50	942.00	945.00	948.00	950.00	952.00	955.00	957.00	960.00	963.00	965.00	968.00	970.00	972.50	975.00	978.00	980.00	982.00	985.00	988.00	991.00	992.00	994.50	996.00	998.50	1001.00	1003.00	1005.00	1007.00	1010.00	1012.00	1014.50	1016.00	1018.00	1021.00	1022.50	1025.00	1026.00	1028.50	1030.00	1034.00	1035.50	1037.00	1039.00	1041.50	1044.00	1046.00	1048.00	1049.50	1052.00	1054.00	1055.50	1058.00	1060.00	1061.50	1064.00	1067.00	1068.50	1071.00	1073.00	1075.00	1078.00	1080.00	1082.00	1083.50	1086.00	1088.50	1091.00	1093.00	1095.00	1097.00	1099.50	1101.50	1103.00	1106.00	1107.00	1109.50	1112.00
388.50	393.00	397.00	404.00	407.00	412.50	416.00	419.50	425.50	429.00	434.00	437.00	440.50	444.00	450.50	453.50	456.50	462.00	466.50	470.00	474.50	477.50	480.50	485.00	489.50	494.00	497.00	501.50	504.50	510.00	512.50	515.50	520.00	522.00	529.00	532.00	535.50	538.50	541.00	546.50	549.50	554.00	557.00	560.50	563.50	568.50	571.50	574.00	578.00	580.00	584.00	587.00	591.00	593.50	596.00	600.00	602.00	605.00	607.00	610.50	613.00	617.50	620.00	622.00	625.00	628.00	631.00	633.00	636.50	639.00	642.00	645.00	647.50	652.00	655.50	658.00	660.50	665.00	667.50	671.00	674.00	678.00	682.00	686.50	689.00	691.50	696.50	699.00	701.00	703.00	706.00	708.50	713.00	715.50	718.00	722.00	724.00	729.00	732.00	735.50	738.00	740.50	745.50	748.00	751.00	753.00	756.00	758.00	763.00	765.00	767.50	772.00	776.00	779.00	782.00	785.00	787.00	790.00	793.00	795.00	798.00	801.00	803.00	805.00	810.00	812.00	816.00	819.00	823.50	829.00	833.00	835.00	837.00	840.00	843.00	846.00	848.00	851.00	852.50	855.00	858.00	860.00	863.00	864.00	868.00	869.00	872.00	873.50	875.00	878.50	880.00	882.00	884.00	887.00	889.00	892.50	893.50	895.00	897.00	899.00	902.00	903.00	905.50	907.00	909.00	911.50	913.00	916.00	918.00	920.00	921.50	925.00	926.50	929.00	931.00	933.00	936.00	939.00	940.50	942.00	945.00	948.00	950.00	952.00	955.00	957.00	960.00	963.00	965.00	968.00	970.00	972.50	975.00	978.00	980.00	982.00	985.00	988.00	991.00	992.00	994.50	996.00	998.50	1001.00	1003.00	1005.00	1007.00	1010.00	1012.00	1014.50	1016.00	1018.00	1021.00	1022.50	1025.00	1026.00	1028.50	1030.00	1034.00	1035.50	1037.00	1039.00	1041.50	1044.00	1046.00	1048.00	1049.50	1052.00	1054.00	1055.50	1058.00	1060.00	1061.50	1064.00	1067.00	1068.50	1071.00	1073.00	1075.00	1078.00	1080.00	1082.00	1083.50	1086.00	1088.50	1091.00	1093.00	1095.00	1097.00	1099.50	1101.50	1103.00	1106.00	1107.00	1109.50	1112.00
400.50	406.00	409.00	416.00	420.00	425.00	428.50	431.50	438.50	441.50	446.00	449.00	453.50	456.50	463.50	466.50	469.50	474.00	478.50	483.00	487.50	490.50	493.50	498.00	502.50	507.00	510.00	514.50	517.50	523.50	526.00	528.50	533.00	536.00	542.00	545.00	548.50	551.50	554.50	559.50	562.50	567.00	570.00	574.50	577.00	582.50	585.00	587.50	591.00	594.00	598.00	601.00	604.50	607.00	609.00	614.00	616.00	619.00	621.00	624.00	626.50	631.00	633.00	635.50	639.00	642.00	645.00	647.00	650.50	653.00	656.00	659.50	662.00	666.00	669.00	671.00	673.50	678.50	681.50	685.00	687.00	691.00	695.00	699.00	701.50	704.00	709.00	711.00	714.00	715.00	718.00	720.50	725.50	728.00	730.00	733.00	736.00	740.00	743.00	746.50	749.00	751.00	756.00	758.00	762.00	764.00	768.00	770.00	774.50	777.00	779.00	782.00	785.00	788.00	790.00	793.50	796.00	799.00	803.00	805.00	808.00	810.50	813.00	815.00	819.00	821.00	825.00	828.00	832.50	837.00	841.50	843.50	845.00	848.00	851.00	854.00	856.00	859.50	861.00	863.50	866.00	868.00	871.00	873.00	876.00	878.00	880.50	882.00	884.00	887.50	889.00	892.00	893.00	896.00	898.00	901.00	902.50	904.00	906.00	907.00	910.00	912.00	914.00	915.50	918.00	920.00	922.00	924.00	926.50	928.00	929.50	932.50	934.00	937.00	939.00	941.00	944.00	947.00	949.00	950.50	953.00	956.00	958.00	960.00	963.00	965.00	968.00	970.50	972.00	975.00	977.00	980.00	983.00	986.00	987.50	989.00	992.00	995.00	998.00	999.00	1001.50	1003.00	1005.50	1008.00	1010.00	1012.00	1014.00	1017.00	1019.00	1021.00	1023.00	1024.50	1028.00	1029.50	1032.00	1033.00	1035.00	1037.00	1040.00	1042.00	1044.00	1046.00	1048.50	1051.00	1052.00	1054.50	1056.00	1058.00	1060.50	1062.00	1064.00	1067.00	1068.50	1071.00	1073.50	1075.00	1077.00	1079.00	1082.00	1084.00	1087.00	1088.50	1090.00	1093.00	1095.00	1097.00	1099.00	1101.50	1103.00	1105.50	1108.00	1109.50	1112.00	1113.00	1115.50	1118.00
400.50	406.00	409.00	416.00	420.00	425.00	428.50	431.50	438.50	441.50	446.00	449.00	453.50	456.50	463.50	466.50	469.50	474.00	478.50	483.00	487.50	490.50	493.50	498.00	502.50	507.00	510.00	514.50	517.50	523.50	526.00	528.50	533.00	536.00	542.00	545.00	548.50	551.50	554.50	559.50	562.50	567.00	570.00	574.50	577.00	582.50	585.00	587.50	591.00	594.00	598.00	601.00	604.50	607.00	609.00	614.00	616.00	619.00	621.00	624.00	626.50	631.00	633.00	635.50	639.00	642.00	645.00	647.00	650.50	653.00	656.00	659.50	662.00	666.00	669.00	671.00	673.50	678.50	681.50	685.00	687.00	691.00	695.00	699.00	701.50	704.00	709.00	711.00	714.00	715.00	718.00	720.50	725.50	728.00	730.00	733.00	736.00	740.00	743.00	746.50	749.00	751.00	756.00	758.00	762.00	764.00	768.00	770.00	774.50	777.00	779.00	782.00	785.00	788.00	790.00	793.50	796.00	799.00	803.00	805.00	808.00	810.50	813.00	815.00	819.00	821.00	825.00	828.00	832.50	837.00	841.50	843.50	845.00	848.00	851.00	854.00	856.00	859.50	861.00	863.50	866.00	868.00	871.00	873.00	876.00	878.00	880.50	882.00	884.00	887.50	889.00	892.00	893.00	896.00	898.00	901.00	902.50	904.00	906.00	907.00	910.00	912.00	914.00	915.50	918.00	920.00	922.00	924.00	926.50	928.00	929.50	932.50	934.00	937.00	939.00	941.00	944.00	947.00	949.00	950.50	953.00	956.00	958.00	960.00	963.00	965.00	968.00	970.50	972.00	975.00	977.00	980.00	983.00	986.00	987.50	989.00	992.00	995.00	998.00	999.00	1001.50	1003.00	1005.50	1008.00	1010.00	1012.00	1014.00	1017.00	1019.00	1021.00	1023.00	1024.50	1028.00	1029.50	1032.00	1033.00	1035.00	1037.00	1040.00	1042.00	1044.00	1046.00	1048.50	1051.00	1052.00	1054.50	1056.00	1058.00	1060.50	1062.00	1064.00	1067.00	1068.50	1071.00	1073.50	1075.00	1077.00	1079.00	1082.00	1084.00	1087.00	1088.50	1090.00	1093.00	1095.00	1097.00	1099.00	1101.50	1103.00	1105.50	1108.00	1109.50	1112.00	1113.00	1115.50	1118.00
400.50	406.00	409.00	416.00	420.00	425.00	428.50	431.50	438.50	441.50	446.00	449.00	453.50	456.50	463.50	466.50	469.50	474.00	478.50	483.00	487.50	490.50	493.50	498.00	502.50	507.00	510.00	514.50	517.50	523.50	526.00	528.50	533.00	536.00	542.00	545.00	548.50	551.50	554.50	559.50	562.50	567.00	570.00	574.50	577.00	582.50	585.00	587.50	591.00	594.00	598.00	601.00	604.50	607.00	609.00	614.00	616.00	619.00	621.00	624.00	626.50	631.00	633.00	635.50	639.00	642.00	645.00	647.00	650.50	653.00	656.00	659.50	662.00	666.00	669.00	671.00	673.50	678.50	681.50	685.00	687.00	691.00	695.00	699.00	701.50	704.00	709.00	711.00	714.00	715.00	718.00	720.50	725.50	728.00	730.00	733.00	736.00	740.00	743.00	746.50	749.00	751.00	756.00	758.00	762.00	764.00	768.00	770.00	774.50	777.00	779.00	782.00	785.00	788.00	790.00	793.50	796.00	799.00	803.00	805.00	808.00	810.50	813.00	815.00	819.00	821.00	825.00	828.00	832.50	837.00	841.50	843.50	845.00	848.00	851.00	854.00	856.00	859.50	861.00	863.50	866.00	868.00	871.00	873.00	876.00	878.00	880.50	882.00	884.00	887.50	889.00	892.00	893.00	896.00	898.00	901.00	902.50	904.00	906.00	907.00	910.00	912.00	914.00	915.50	918.00	920.00	922.00	924.00	926.50	928.00	929.50	932.50	934.00	937.00	939.00	941.00	944.00	947.00	949.00	950.50	953.00	956.00	958.00	960.00	963.00	965.00	968.00	970.50	972.00	975.00	977.00	980.00	983.00	986.00	987.50	989.00	992.00	995.00	998.00	999.00	1001.50	1003.00	1005.50	1008.00	1010.00	1012.00	1014.00	1017.00	1019.00	1021.00	1023.00	1024.50	1028.00	1029.50	1032.00	1033.00	1035.00	1037.00	1040.00	1042.00	1044.00	1046.00	1048.50	1051.00	1052.00	1054.50	1056.00	1058.00	1060.50	1062.00	1064.00	1067.00	1068.50	1071.00	1073.50	1075.00	1077.00	1079.00	1082.00	1084.00	1087.00	1088.50	1090.00	1093.00	1095.00	1097.00	1099.00	1101.50	1103.00	1105.50	1108.00	1109.50	1112.00	1113.00	1115.50	1118.00
400.50	406.00	409.00	416.00	420.00	425.00	428.50	431.50	438.50	441.50	446.00	449.00	453.50	456.50	463.50	466.50	469.50	474.00	478.50	483.00	487.50	490.50	493.50	498.00	502.50	507.00	510.00	514.50	517.50	523.50	526.00	528.50	533.00	536.00	542.00	545.00	548.50	551.50	554.50	559.50	562.50	567.00	570.00	574.50	577.00	582.50	585.00	587.50	591.00	594.00	598.00	601.00	604.50	607.00	609.00	614.00	616.00	619.00	621.00	624.00	626.50	631.00	633.00	635.50	639.00	642.00	645.00	647.00	650.50	653.00	656.00	659.50	662.00	666.00	669.00	671.00	673.50	678.50	681.50	685.00	687.00	691.00	695.00	699.00	701.50	704.00	709.00	711.00	714.00	715.00	718.00	720.50	725.50	728.00	730.00	733.00	736.00	740.00	743.00	746.50	749.00	751.00	756.00	758.00	762.00	764.00	768.00	770.00	774.50	777.00	779.00	782.00	785.00	788.00	790.00	793.50	796.00	799.00	803.00	805.00	808.00	810.50	813.00	815.00	819.00	821.00	825.00	828.00	832.50	837.00	841.50	843.50	845.00	848.00	851.00	854.00	856.00	859.50	861.00	863.50	866.00	868.00	871.00	873.00	876.00	878.00	880.50	882.00	884.00	887.50	889.00	892.00	893.00	896.00	898.00	901.00	902.50	904.00	906.00	907.00	910.00	912.00	914.00	915.50	918.00	920.00	922.00	924.00	926.50	928.00	929.50	932.50	934.00	937.00	939.00	941.00	944.00	947.00	949.00	950.50	953.00	956.00	958.00	960.00	963.00	965.00	968.00	970.50	972.00	975.00	977.00	980.00	983.00	986.00	987.50	989.00	992.00	995.00	998.00	999.00	1001.50	1003.00	1005.50	1008.00	1010.00	1012.00	1014.00	1017.00	1019.00	1021.00	1023.00	1024.50	1028.00	1029.50	1032.00	1033.00	1035.00	1037.00	1040.00	1042.00	1044.00	1046.00	1048.50	1051.00	1052.00	1054.50	1056.00	1058.00	1060.50	1062.00	1064.00	1067.00	1068.50	1071.00	1073.50	1075.00	1077.00	1079.00	1082.00	1084.00	1087.00	1088.50	1090.00	1093.00	1095.00	1097.00	1099.00	1101.50	1103.00	1105.50	1108.00	1109.50	1112.00	1113.00	1115.50	1118.00
409.50	415.00	419.00	426.00	430.00	435.00	438.50	442.00	449.00	453.00	458.00	461.00	466.50	469.50	476.50	479.50	482.50	487.00	491.50	496.00	501.50	504.50	507.50	512.00	516.50	521.00	524.00	528.50	531.50	537.50	540.50	543.50	547.00	550.00	555.00	558.00	561.50	564.50	567.50	572.50	575.50	580.00	583.00	587.00	589.50	595.50	598.00	600.00	604.00	606.00	611.00	614.00	618.00	620.00	622.00	627.00	629.00	632.00	634.00	637.50	640.00	644.50	647.00	649.00	653.00	656.00	659.00	661.00	665.00	667.50	671.00	674.00	676.00	680.00	683.00	685.00	687.00	692.00	694.50	698.00	700.00	704.00	708.00	711.50	714.00	716.00	721.00	723.00	725.00	727.00	730.00	732.50	737.00	739.00	741.50	745.00	747.00	752.00	754.00	757.00	759.00	761.50	766.00	768.50	772.00	775.00	779.00	781.00	786.50	789.00	791.00	792.00	793.50	797.00	799.00	803.50	806.50	811.00	814.00	816.00	820.00	823.00	825.00	827.00	831.00	833.00	836.00	839.00	842.50	846.00	850.00	852.00	854.00	857.00	860.00	863.00	865.00	868.00	870.00	872.50	875.00	877.00	879.00	881.00	885.00	887.00	889.00	891.00	893.00	896.50	898.00	900.00	902.00	904.50	906.00	909.00	911.00	913.00	915.00	916.00	919.00	920.00	922.50	924.00	926.00	929.00	930.50	933.00	935.00	936.50	938.00	941.00	943.00	946.00	947.00	950.00	952.00	955.00	957.00	959.00	961.00	964.00	967.00	968.00	971.00	973.00	976.00	979.00	980.50	983.00	985.00	988.00	991.00	993.00	995.00	997.00	1000.00	1002.00	1005.00	1006.00	1008.50	1010.00	1012.50	1015.00	1017.00	1019.00	1021.00	1024.00	1026.00	1028.00	1029.50	1031.00	1034.50	1036.00	1038.00	1040.00	1042.00	1043.50	1047.00	1048.50	1050.00	1053.00	1055.00	1057.00	1059.00	1061.00	1062.50	1065.00	1067.50	1069.00	1071.00	1073.50	1075.00	1077.50	1080.00	1081.50	1084.00	1086.00	1088.00	1091.00	1093.00	1095.00	1096.50	1099.00	1101.50	1104.00	1105.00	1107.50	1109.00	1111.50	1113.50	1115.00	1117.00	1119.00	1121.00	1123.00
409.50	415.00	419.00	426.00	430.00	435.00	438.50	442.00	449.00	453.00	458.00	461.00	466.50	469.50	476.50	479.50	482.50	487.00	491.50	496.00	501.50	504.50	507.50	512.00	516.50	521.00	524.00	528.50	531.50	537.50	540.50	543.50	547.00	550.00	555.00	558.00	561.50	564.50	567.50	572.50	575.50	580.00	583.00	587.00	589.50	595.50	598.00	600.00	604.00	606.00	611.00	614.00	618.00	620.00	622.00	627.00	629.00	632.00	634.00	637.50	640.00	644.50	647.00	649.00	653.00	656.00	659.00	661.00	665.00	667.50	671.00	674.00	676.00	680.00	683.00	685.00	687.00	692.00	694.50	698.00	700.00	704.00	708.00	711.50	714.00	716.00	721.00	723.00	725.00	727.00	730.00	732.50	737.00	739.00	741.50	745.00	747.00	752.00	754.00	757.00	759.00	761.50	766.00	768.50	772.00	775.00	779.00	781.00	786.50	789.00	791.00	792.00	793.50	797.00	799.00	803.50	806.50	811.00	814.00	816.00	820.00	823.00	825.00	827.00	831.00	833.00	836.00	839.00	842.50	846.00	850.00	852.00	854.00	857.00	860.00	863.00	865.00	868.00	870.00	872.50	875.00	877.00	879.00	881.00	885.00	887.00	889.00	891.00	893.00	896.50	898.00	900.00	902.00	904.50	906.00	909.00	911.00	913.00	915.00	916.00	919.00	920.00	922.50	924.00	926.00	929.00	930.50	933.00	935.00	936.50	938.00	941.00	943.00	946.00	947.00	950.00	952.00	955.00	957.00	959.00	961.00	964.00	967.00	968.00	971.00	973.00	976.00	979.00	980.50	983.00	985.00	988.00	991.00	993.00	995.00	997.00	1000.00	1002.00	1005.00	1006.00	1008.50	1010.00	1012.50	1015.00	1017.00	1019.00	1021.00	1024.00	1026.00	1028.00	1029.50	1031.00	1034.50	1036.00	1038.00	1040.00	1042.00	1043.50	1047.00	1048.50	1050.00	1053.00	1055.00	1057.00	1059.00	1061.00	1062.50	1065.00	1067.50	1069.00	1071.00	1073.50	1075.00	1077.50	1080.00	1081.50	1084.00	1086.00	1088.00	1091.00	1093.00	1095.00	1096.50	1099.00	1101.50	1104.00	1105.00	1107.50	1109.00	1111.50	1113.50	1115.00	1117.00	1119.00	1121.00	1123.00
409.50	415.00	419.00	426.00	430.00	435.00	438.50	442.00	449.00	453.00	458.00	461.00	466.50	469.50	476.50	479.50	482.50	487.00	491.50	496.00	501.50	504.50	507.50	512.00	516.50	521.00	524.00	528.50	531.50	537.50	540.50	543.50	547.00	550.00	555.00	558.00	561.50	564.50	567.50	572.50	575.50	580.00	583.00	587.00	589.50	595.50	598.00	600.00	604.00	606.00	611.00	614.00	618.00	620.00	622.00	627.00	629.00	632.00	634.00	637.50	640.00	644.50	647.00	649.00	653.00	656.00	659.00	661.00	665.00	667.50	671.00	674.00	676.00	680.00	683.00	685.00	687.00	692.00	694.50	698.00	700.00	704.00	708.00	711.50	714.00	716.00	721.00	723.00	725.00	727.00	730.00	732.50	737.00	739.00	741.50	745.00	747.00	752.00	754.00	757.00	759.00	761.50	766.00	768.50	772.00	775.00	779.00	781.00	786.50	789.00	791.00	792.00	793.50	797.00	799.00	803.50	806.50	811.00	814.00	816.00	820.00	823.00	825.00	827.00	831.00	833.00	836.00	839.00	842.50	846.00	850.00	852.00	854.00	857.00	860.00	863.00	865.00	868.00	870.00	872.50	875.00	877.00	879.00	881.00	885.00	887.00	889.00	891.00	893.00	896.50	898.00	900.00	902.00	904.50	906.00	909.00	911.00	913.00	915.00	916.00	919.00	920.00	922.50	924.00	926.00	929.00	930.50	933.00	935.00	936.50	938.00	941.00	943.00	946.00	947.00	950.00	952.00	955.00	957.00	959.00	961.00	964.00	967.00	968.00	971.00	973.00	976.00	979.00	980.50	983.00	985.00	988.00	991.00	993.00	995.00	997.00	1000.00	1002.00	1005.00	1006.00	1008.50	1010.00	1012.50	1015.00	1017.00	1019.00	1021.00	1024.00	1026.00	1028.00	1029.50	1031.00	1034.50	1036.00	1038.00	1040.00	1042.00	1043.50	1047.00	1048.50	1050.00	1053.00	1055.00	1057.00	1059.00	1061.00	1062.50	1065.00	1067.50	1069.00	1071.00	1073.50	1075.00	1077.50	1080.00	1081.50	1084.00	1086.00	1088.00	1091.00	1093.00	1095.00	1096.50	1099.00	1101.50	1104.00	1105.00	1107.50	1109.00	1111.50	1113.50	1115.00	1117.00	1119.00	1121.00	1123.00
409.50	415.00	419.00	426.00	430.00	435.00	438.50	442.00	449.00	453.00	458.00	461.00	466.50	469.50	476.50	479.50	482.50	487.00	491.50	496.00	501.50	504.50	507.50	512.00	516.50	521.00	524.00	528.50	531.50	537.50	540.50	543.50	547.00	550.00	555.00	558.00	561.50	564.50	567.50	572.50	575.50	580.00	583.00	587.00	589.50	595.50	598.00	600.00	604.00	606.00	611.00	614.00	618.00	620.00	622.00	627.00	629.00	632.00	634.00	637.50	640.00	644.50	647.00	649.00	653.00	656.00	659.00	661.00	665.00	667.50	671.00	674.00	676.00	680.00	683.00	685.00	687.00	692.00	694.50	698.00	700.00	704.00	708.00	711.50	714.00	716.00	721.00	723.00	725.00	727.00	730.00	732.50	737.00	739.00	741.50	745.00	747.00	752.00	754.00	757.00	759.00	761.50	766.00	768.50	772.00	775.00	779.00	781.00	786.50	789.00	791.00	792.00	793.50	797.00	799.00	803.50	806.50	811.00	814.00	816.00	820.00	823.00	825.00	827.00	831.00	833.00	836.00	839.00	842.50	846.00	850.00	852.00	854.00	857.00	860.00	863.00	865.00	868.00	870.00	872.50	875.00	877.00	879.00	881.00	885.00	887.00	889.00	891.00	893.00	896.50	898.00	900.00	902.00	904.50	906.00	909.00	911.00	913.00	915.00	916.00	919.00	920.00	922.50	924.00	926.00	929.00	930.50	933.00	935.00	936.50	938.00	941.00	943.00	946.00	947.00	950.00	952.00	955.00	957.00	959.00	961.00	964.00	967.00	968.00	971.00	973.00	976.00	979.00	980.50	983.00	985.00	988.00	991.00	993.00	995.00	997.00	1000.00	1002.00	1005.00	1006.00	1008.50	1010.00	1012.50	1015.00	1017.00	1019.00	1021.00	1024.00	1026.00	1028.00	1029.50	1031.00	1034.50	1036.00	1038.00	1040.00	1042.00	1043.50	1047.00	1048.50	1050.00	1053.00	1055.00	1057.00	1059.00	1061.00	1062.50	1065.00	1067.50	1069.00	1071.00	1073.50	1075.00	1077.50	1080.00	1081.50	1084.00	1086.00	1088.00	1091.00	1093.00	1095.00	1096.50	1099.00	1101.50	1104.00	1105.00	1107.50	1109.00	1111.50	1113.50	1115.00	1117.00	1119.00	1121.00	1123.00
413.75	419.50	423.50	430.50	434.50	439.75	443.25	447.00	454.25	458.00	463.50	467.00	472.75	476.00	482.75	486.00	489.00	493.50	498.50	503.00	508.00	511.25	514.50	519.00	524.00	528.00	531.00	535.25	538.00	544.00	547.00	550.00	554.00	556.50	561.50	564.50	568.00	571.00	573.75	578.75	581.50	586.00	589.00	593.25	596.00	601.75	604.25	606.50	610.50	612.50	618.00	620.50	624.50	626.50	628.50	633.50	635.50	638.50	640.50	644.25	646.50	651.25	653.75	656.00	659.50	663.00	666.00	668.50	672.00	674.50	678.00	681.00	683.00	686.50	689.50	691.50	693.50	698.25	700.75	704.50	706.50	710.25	714.00	717.50	720.00	722.00	726.75	728.75	731.00	732.50	735.50	738.00	742.50	744.50	747.00	750.50	752.50	757.00	759.50	762.25	764.00	766.25	771.00	773.50	777.00	779.50	783.25	785.50	791.00	793.50	795.50	797.00	798.50	802.00	804.00	808.75	812.00	816.50	819.50	821.75	825.50	829.00	831.00	833.00	837.00	839.00	842.00	844.50	847.25	850.50	854.50	856.50	858.50	861.50	864.50	867.50	869.50	872.50	874.25	876.75	879.50	881.25	883.50	885.50	889.50	891.00	893.50	895.50	897.50	900.75	902.25	904.50	906.50	908.75	910.25	913.50	915.50	917.25	919.50	920.50	923.50	924.50	926.75	928.25	930.50	933.00	934.75	937.00	939.25	940.75	942.25	945.50	947.25	950.00	951.50	954.25	956.50	959.25	961.00	963.00	965.50	968.00	971.00	972.50	975.00	977.00	980.00	983.00	984.50	987.00	989.00	991.75	994.50	997.00	998.75	1000.50	1003.50	1005.50	1008.50	1009.50	1012.00	1013.50	1016.00	1018.50	1020.50	1022.50	1024.50	1027.50	1029.00	1031.50	1033.00	1034.50	1037.75	1039.25	1041.50	1043.00	1045.25	1046.75	1050.00	1051.75	1053.25	1056.00	1058.00	1060.00	1062.00	1064.25	1065.75	1068.50	1070.75	1072.25	1074.50	1076.75	1078.50	1081.00	1083.25	1084.75	1087.00	1089.00	1091.25	1094.00	1096.25	1098.00	1099.75	1102.00	1104.50	1107.00	1108.00	1110.50	1111.75	1114.00	1116.25	1118.00	1120.00	1121.50	1123.75	1126.00
418.00	424.00	428.00	435.00	439.00	444.50	448.00	452.00	459.50	463.00	469.00	473.00	479.00	482.50	489.00	492.50	495.50	500.00	505.50	510.00	514.50	518.00	521.50	526.00	531.50	535.00	538.00	542.00	544.50	550.50	553.50	556.50	561.00	563.00	568.00	571.00	574.50	577.50	580.00	585.00	587.50	592.00	595.00	599.50	602.50	608.00	610.50	613.00	617.00	619.00	625.00	627.00	631.00	633.00	635.00	640.00	642.00	645.00	647.00	651.00	653.00	658.00	660.50	663.00	666.00	670.00	673.00	676.00	679.00	681.50	685.00	688.00	690.00	693.00	696.00	698.00	700.00	704.50	707.00	711.00	713.00	716.50	720.00	723.50	726.00	728.00	732.50	734.50	737.00	738.00	741.00	743.50	748.00	750.00	752.50	756.00	758.00	762.00	765.00	767.50	769.00	771.00	776.00	778.50	782.00	784.00	787.50	790.00	795.50	798.00	800.00	802.00	803.50	807.00	809.00	814.00	817.50	822.00	825.00	827.50	831.00	835.00	837.00	839.00	843.00	845.00	848.00	850.00	852.00	855.00	859.00	861.00	863.00	866.00	869.00	872.00	874.00	877.00	878.50	881.00	884.00	885.50	888.00	890.00	894.00	895.00	898.00	900.00	902.00	905.00	906.50	909.00	911.00	913.00	914.50	918.00	920.00	921.50	924.00	925.00	928.00	929.00	931.00	932.50	935.00	937.00	939.00	941.00	943.50	945.00	946.50	950.00	951.50	954.00	956.00	958.50	961.00	963.50	965.00	967.00	970.00	972.00	975.00	977.00	979.00	981.00	984.00	987.00	988.50	991.00	993.00	995.50	998.00	1001.00	1002.50	1004.00	1007.00	1009.00	1012.00	1013.00	1015.50	1017.00	1019.50	1022.00	1024.00	1026.00	1028.00	1031.00	1032.00	1035.00	1036.50	1038.00	1041.00	1042.50	1045.00	1046.00	1048.50	1050.00	1053.00	1055.00	1056.50	1059.00	1061.00	1063.00	1065.00	1067.50	1069.00	1072.00	1074.00	1075.50	1078.00	1080.00	1082.00	1084.50	1086.50	1088.00	1090.00	1092.00	1094.50	1097.00	1099.50	1101.00	1103.00	1105.00	1107.50	1110.00	1111.00	1113.50	1114.50	1116.50	1119.00	1121.00	1123.00	1124.00	1126.50	1129.00
418.00	424.00	428.00	435.00	439.00	444.50	448.00	452.00	459.50	463.00	469.00	473.00	479.00	482.50	489.00	492.50	495.50	500.00	505.50	510.00	514.50	518.00	521.50	526.00	531.50	535.00	538.00	542.00	544.50	550.50	553.50	556.50	561.00	563.00	568.00	571.00	574.50	577.50	580.00	585.00	587.50	592.00	595.00	599.50	602.50	608.00	610.50	613.00	617.00	619.00	625.00	627.00	631.00	633.00	635.00	640.00	642.00	645.00	647.00	651.00	653.00	658.00	660.50	663.00	666.00	670.00	673.00	676.00	679.00	681.50	685.00	688.00	690.00	693.00	696.00	698.00	700.00	704.50	707.00	711.00	713.00	716.50	720.00	723.50	726.00	728.00	732.50	734.50	737.00	738.00	741.00	743.50	748.00	750.00	752.50	756.00	758.00	762.00	765.00	767.50	769.00	771.00	776.00	778.50	782.00	784.00	787.50	790.00	795.50	798.00	800.00	802.00	803.50	807.00	809.00	814.00	817.50	822.00	825.00	827.50	831.00	835.00	837.00	839.00	843.00	845.00	848.00	850.00	852.00	855.00	859.00	861.00	863.00	866.00	869.00	872.00	874.00	877.00	878.50	881.00	884.00	885.50	888.00	890.00	894.00	895.00	898.00	900.00	902.00	905.00	906.50	909.00	911.00	913.00	914.50	918.00	920.00	921.50	924.00	925.00	928.00	929.00	931.00	932.50	935.00	937.00	939.00	941.00	943.50	945.00	946.50	950.00	951.50	954.00	956.00	958.50	961.00	963.50	965.00	967.00	970.00	972.00	975.00	977.00	979.00	981.00	984.00	987.00	988.50	991.00	993.00	995.50	998.00	1001.00	1002.50	1004.00	1007.00	1009.00	1012.00	1013.00	1015.50	1017.00	1019.50	1022.00	1024.00	1026.00	1028.00	1031.00	1032.00	1035.00	1036.50	1038.00	1041.00	1042.50	1045.00	1046.00	1048.50	1050.00	1053.00	1055.00	1056.50	1059.00	1061.00	1063.00	1065.00	1067.50	1069.00	1072.00	1074.00	1075.50	1078.00	1080.00	1082.00	1084.50	1086.50	1088.00	1090.00	1092.00	1094.50	1097.00	1099.50	1101.00	1103.00	1105.00	1107.50	1110.00	1111.00	1113.50	1114.50	1116.50	1119.00	1121.00	1123.00	1124.00	1126.50	1129.00
418.00	424.00	428.00	435.00	439.00	444.50	448.00	452.00	459.50	463.00	469.00	473.00	479.00	482.50	489.00	492.50	495.50	500.00	505.50	510.00	514.50	518.00	521.50	526.00	531.50	535.00	538.00	542.00	544.50	550.50	553.50	556.50	561.00	563.00	568.00	571.00	574.50	577.50	580.00	585.00	587.50	592.00	595.00	599.50	602.50	608.00	610.50	613.00	617.00	619.00	625.00	627.00	631.00	633.00	635.00	640.00	642.00	645.00	647.00	651.00	653.00	658.00	660.50	663.00	666.00	670.00	673.00	676.00	679.00	681.50	685.00	688.00	690.00	693.00	696.00	698.00	700.00	704.50	707.00	711.00	713.00	716.50	720.00	723.50	726.00	728.00	732.50	734.50	737.00	738.00	741.00	743.50	748.00	750.00	752.50	756.00	758.00	762.00	765.00	767.50	769.00	771.00	776.00	778.50	782.00	784.00	787.50	790.00	795.50	798.00	800.00	802.00	803.50	807.00	809.00	814.00	817.50	822.00	825.00	827.50	831.00	835.00	837.00	839.00	843.00	845.00	848.00	850.00	852.00	855.00	859.00	861.00	863.00	866.00	869.00	872.00	874.00	877.00	878.50	881.00	884.00	885.50	888.00	890.00	894.00	895.00	898.00	900.00	902.00	905.00	906.50	909.00	911.00	913.00	914.50	918.00	920.00	921.50	924.00	925.00	928.00	929.00	931.00	932.50	935.00	937.00	939.00	941.00	943.50	945.00	946.50	950.00	951.50	954.00	956.00	958.50	961.00	963.50	965.00	967.00	970.00	972.00	975.00	977.00	979.00	981.00	984.00	987.00	988.50	991.00	993.00	995.50	998.00	1001.00	1002.50	1004.00	1007.00	1009.00	1012.00	1013.00	1015.50	1017.00	1019.50	1022.00	1024.00	1026.00	1028.00	1031.00	1032.00	1035.00	1036.50	1038.00	1041.00	1042.50	1045.00	1046.00	1048.50	1050.00	1053.00	1055.00	1056.50	1059.00	1061.00	1063.00	1065.00	1067.50	1069.00	1072.00	1074.00	1075.50	1078.00	1080.00	1082.00	1084.50	1086.50	1088.00	1090.00	1092.00	1094.50	1097.00	1099.50	1101.00	1103.00	1105.00	1107.50	1110.00	1111.00	1113.50	1114.50	1116.50	1119.00	1121.00	1123.00	1124.00	1126.50	1129.00
423.25	429.00	433.00	440.50	444.50	449.75	453.50	457.25	464.75	468.50	474.50	479.00	485.00	488.75	495.50	499.00	502.25	507.00	512.00	517.00	521.50	525.00	528.50	533.50	538.25	542.00	544.50	548.50	551.00	557.00	560.00	562.75	567.00	569.50	574.50	577.50	581.00	583.75	586.25	591.25	593.75	598.00	601.00	605.50	608.50	614.25	617.00	619.75	623.50	626.00	631.50	633.50	637.50	639.50	641.50	646.50	648.50	652.00	654.00	657.75	660.00	664.75	667.25	669.50	672.50	676.50	680.00	682.50	685.50	688.00	691.50	694.50	696.50	699.50	702.50	704.50	706.50	710.75	713.00	717.00	719.00	722.25	726.00	729.25	731.75	734.00	738.25	740.00	742.50	744.00	746.75	749.25	753.50	755.75	758.25	761.50	763.50	767.50	770.00	772.25	773.75	775.50	780.75	783.25	786.00	788.00	791.50	794.00	799.25	801.75	804.00	806.50	808.75	812.00	814.00	819.00	822.50	827.00	830.25	832.75	836.00	839.50	841.75	844.00	848.00	850.25	853.00	854.50	856.50	860.00	863.50	865.75	868.00	871.00	873.50	876.50	878.50	881.00	882.75	885.50	888.25	889.75	892.50	894.50	898.00	899.50	902.00	904.00	906.00	909.25	910.75	913.50	915.00	917.50	919.25	922.50	924.25	925.50	928.00	929.50	932.50	933.50	935.50	937.00	939.50	941.50	943.25	945.50	947.75	949.25	950.75	954.00	955.75	958.50	960.00	962.75	965.00	967.75	969.50	971.25	974.00	976.00	979.00	981.00	983.00	985.00	987.75	990.50	992.25	994.50	996.50	999.25	1002.00	1004.50	1006.00	1007.50	1010.00	1012.50	1015.00	1016.50	1019.00	1020.50	1023.00	1025.50	1027.25	1029.50	1031.50	1034.50	1035.50	1038.25	1039.75	1041.25	1044.25	1045.75	1048.00	1049.50	1051.75	1053.25	1056.25	1058.00	1059.50	1062.00	1064.00	1066.00	1068.00	1070.75	1072.50	1075.00	1077.25	1078.75	1081.50	1083.50	1085.50	1088.00	1090.00	1091.25	1093.50	1095.00	1097.75	1100.00	1102.50	1104.00	1106.00	1108.00	1110.50	1112.50	1114.00	1116.25	1117.50	1119.50	1121.75	1123.50	1125.50	1127.00	1129.25	1131.50
428.50	434.00	438.00	446.00	450.00	455.00	459.00	462.50	470.00	474.00	480.00	485.00	491.00	495.00	502.00	505.50	509.00	514.00	518.50	524.00	528.50	532.00	535.50	541.00	545.00	549.00	551.00	555.00	557.50	563.50	566.50	569.00	573.00	576.00	581.00	584.00	587.50	590.00	592.50	597.50	600.00	604.00	607.00	611.50	614.50	620.50	623.50	626.50	630.00	633.00	638.00	640.00	644.00	646.00	648.00	653.00	655.00	659.00	661.00	664.50	667.00	671.50	674.00	676.00	679.00	683.00	687.00	689.00	692.00	694.50	698.00	701.00	703.00	706.00	709.00	711.00	713.00	717.00	719.00	723.00	725.00	728.00	732.00	735.00	737.50	740.00	744.00	745.50	748.00	750.00	752.50	755.00	759.00	761.50	764.00	767.00	769.00	773.00	775.00	777.00	778.50	780.00	785.50	788.00	790.00	792.00	795.50	798.00	803.00	805.50	808.00	811.00	814.00	817.00	819.00	824.00	827.50	832.00	835.50	838.00	841.00	844.00	846.50	849.00	853.00	855.50	858.00	859.00	861.00	865.00	868.00	870.50	873.00	876.00	878.00	881.00	883.00	885.00	887.00	890.00	892.50	894.00	897.00	899.00	902.00	904.00	906.00	908.00	910.00	913.50	915.00	918.00	919.00	922.00	924.00	927.00	928.50	929.50	932.00	934.00	937.00	938.00	940.00	941.50	944.00	946.00	947.50	950.00	952.00	953.50	955.00	958.00	960.00	963.00	964.00	967.00	969.00	972.00	974.00	975.50	978.00	980.00	983.00	985.00	987.00	989.00	991.50	994.00	996.00	998.00	1000.00	1003.00	1006.00	1008.00	1009.50	1011.00	1013.00	1016.00	1018.00	1020.00	1022.50	1024.00	1026.50	1029.00	1030.50	1033.00	1035.00	1038.00	1039.00	1041.50	1043.00	1044.50	1047.50	1049.00	1051.00	1053.00	1055.00	1056.50	1059.50	1061.00	1062.50	1065.00	1067.00	1069.00	1071.00	1074.00	1076.00	1078.00	1080.50	1082.00	1085.00	1087.00	1089.00	1091.50	1093.50	1094.50	1097.00	1098.00	1101.00	1103.00	1105.50	1107.00	1109.00	1111.00	1113.50	1115.00	1117.00	1119.00	1120.50	1122.50	1124.50	1126.00	1128.00	1130.00	1132.00	1134.00
428.50	434.00	438.00	446.00	450.00	455.00	459.00	462.50	470.00	474.00	480.00	485.00	491.00	495.00	502.00	505.50	509.00	514.00	518.50	524.00	528.50	532.00	535.50	541.00	545.00	549.00	551.00	555.00	557.50	563.50	566.50	569.00	573.00	576.00	581.00	584.00	587.50	590.00	592.50	597.50	600.00	604.00	607.00	611.50	614.50	620.50	623.50	626.50	630.00	633.00	638.00	640.00	644.00	646.00	648.00	653.00	655.00	659.00	661.00	664.50	667.00	671.50	674.00	676.00	679.00	683.00	687.00	689.00	692.00	694.50	698.00	701.00	703.00	706.00	709.00	711.00	713.00	717.00	719.00	723.00	725.00	728.00	732.00	735.00	737.50	740.00	744.00	745.50	748.00	750.00	752.50	755.00	759.00	761.50	764.00	767.00	769.00	773.00	775.00	777.00	778.50	780.00	785.50	788.00	790.00	792.00	795.50	798.00	803.00	805.50	808.00	811.00	814.00	817.00	819.00	824.00	827.50	832.00	835.50	838.00	841.00	844.00	846.50	849.00	853.00	855.50	858.00	859.00	861.00	865.00	868.00	870.50	873.00	876.00	878.00	881.00	883.00	885.00	887.00	890.00	892.50	894.00	897.00	899.00	902.00	904.00	906.00	908.00	910.00	913.50	915.00	918.00	919.00	922.00	924.00	927.00	928.50	929.50	932.00	934.00	937.00	938.00	940.00	941.50	944.00	946.00	947.50	950.00	952.00	953.50	955.00	958.00	960.00	963.00	964.00	967.00	969.00	972.00	974.00	975.50	978.00	980.00	983.00	985.00	987.00	989.00	991.50	994.00	996.00	998.00	1000.00	1003.00	1006.00	1008.00	1009.50	1011.00	1013.00	1016.00	1018.00	1020.00	1022.50	1024.00	1026.50	1029.00	1030.50	1033.00	1035.00	1038.00	1039.00	1041.50	1043.00	1044.50	1047.50	1049.00	1051.00	1053.00	1055.00	1056.50	1059.50	1061.00	1062.50	1065.00	1067.00	1069.00	1071.00	1074.00	1076.00	1078.00	1080.50	1082.00	1085.00	1087.00	1089.00	1091.50	1093.50	1094.50	1097.00	1098.00	1101.00	1103.00	1105.50	1107.00	1109.00	1111.00	1113.50	1115.00	1117.00	1119.00	1120.50	1122.50	1124.50	1126.00	1128.00	1130.00	1132.00	1134.00
428.50	434.00	438.00	446.00	450.00	455.00	459.00	462.50	470.00	474.00	480.00	485.00	491.00	495.00	502.00	505.50	509.00	514.00	518.50	524.00	528.50	532.00	535.50	541.00	545.00	549.00	551.00	555.00	557.50	563.50	566.50	569.00	573.00	576.00	581.00	584.00	587.50	590.00	592.50	597.50	600.00	604.00	607.00	611.50	614.50	620.50	623.50	626.50	630.00	633.00	638.00	640.00	644.00	646.00	648.00	653.00	655.00	659.00	661.00	664.50	667.00	671.50	674.00	676.00	679.00	683.00	687.00	689.00	692.00	694.50	698.00	701.00	703.00	706.00	709.00	711.00	713.00	717.00	719.00	723.00	725.00	728.00	732.00	735.00	737.50	740.00	744.00	745.50	748.00	750.00	752.50	755.00	759.00	761.50	764.00	767.00	769.00	773.00	775.00	777.00	778.50	780.00	785.50	788.00	790.00	792.00	795.50	798.00	803.00	805.50	808.00	811.00	814.00	817.00	819.00	824.00	827.50	832.00	835.50	838.00	841.00	844.00	846.50	849.00	853.00	855.50	858.00	859.00	861.00	865.00	868.00	870.50	873.00	876.00	878.00	881.00	883.00	885.00	887.00	890.00	892.50	894.00	897.00	899.00	902.00	904.00	906.00	908.00	910.00	913.50	915.00	918.00	919.00	922.00	924.00	927.00	928.50	929.50	932.00	934.00	937.00	938.00	940.00	941.50	944.00	946.00	947.50	950.00	952.00	953.50	955.00	958.00	960.00	963.00	964.00	967.00	969.00	972.00	974.00	975.50	978.00	980.00	983.00	985.00	987.00	989.00	991.50	994.00	996.00	998.00	1000.00	1003.00	1006.00	1008.00	1009.50	1011.00	1013.00	1016.00	1018.00	1020.00	1022.50	1024.00	1026.50	1029.00	1030.50	1033.00	1035.00	1038.00	1039.00	1041.50	1043.00	1044.50	1047.50	1049.00	1051.00	1053.00	1055.00	1056.50	1059.50	1061.00	1062.50	1065.00	1067.00	1069.00	1071.00	1074.00	1076.00	1078.00	1080.50	1082.00	1085.00	1087.00	1089.00	1091.50	1093.50	1094.50	1097.00	1098.00	1101.00	1103.00	1105.50	1107.00	1109.00	1111.00	1113.50	1115.00	1117.00	1119.00	1120.50	1122.50	1124.50	1126.00	1128.00	1130.00	1132.00	1134.00
434.25	440.00	444.00	452.00	455.50	461.00	465.00	468.75	476.50	480.50	486.50	491.00	497.50	501.50	508.75	512.25	515.75	520.50	525.50	530.50	535.50	539.00	542.50	547.50	551.75	555.50	558.00	561.75	564.50	570.00	573.00	575.75	580.00	582.50	588.00	590.50	594.25	596.75	599.25	604.25	606.75	611.00	614.00	618.00	621.00	627.25	630.25	633.00	636.50	639.50	644.50	646.50	650.25	652.50	654.50	659.50	661.50	665.50	667.50	671.00	673.50	678.00	680.50	682.50	686.00	689.50	693.50	695.50	698.50	700.75	704.00	707.00	709.00	712.00	715.00	716.75	718.50	722.75	725.00	728.50	730.50	733.75	737.50	740.50	743.00	745.50	749.50	751.00	753.50	755.50	758.25	760.50	764.50	766.75	769.00	772.50	774.50	778.00	780.00	782.25	783.50	785.00	789.75	792.00	794.50	797.00	800.25	802.75	807.50	810.00	812.50	815.50	818.50	821.50	823.50	828.50	832.25	836.50	840.25	842.50	845.50	848.75	851.25	853.50	857.50	859.75	862.50	864.00	866.25	869.50	872.50	874.75	877.00	880.00	882.50	885.50	887.00	889.50	891.50	894.25	896.75	898.50	901.00	903.00	906.00	908.00	910.50	912.25	914.00	917.75	919.50	922.00	923.50	926.25	928.00	931.50	933.00	934.00	936.50	938.00	941.00	942.50	944.25	945.75	948.00	950.25	951.75	954.00	956.25	957.75	959.25	962.25	964.00	967.00	968.50	971.25	973.50	976.25	978.00	979.75	982.00	984.25	987.00	989.00	991.00	993.00	995.50	998.00	999.75	1002.00	1004.00	1007.00	1010.00	1011.75	1013.00	1014.50	1017.00	1019.50	1022.00	1023.50	1026.00	1027.50	1030.00	1032.50	1034.00	1036.50	1038.00	1041.00	1042.50	1044.75	1046.25	1047.75	1050.75	1052.25	1054.50	1056.00	1058.25	1059.75	1062.75	1064.25	1065.75	1068.00	1070.25	1072.50	1074.00	1077.50	1079.25	1081.50	1084.00	1085.50	1088.00	1090.50	1092.25	1094.50	1096.75	1098.00	1100.50	1101.50	1104.00	1106.50	1108.75	1110.25	1112.00	1114.00	1116.50	1118.50	1120.00	1122.25	1123.50	1125.50	1127.50	1128.75	1131.00	1132.50	1134.75	1137.00
440.00	446.00	450.00	458.00	461.00	467.00	471.00	475.00	483.00	487.00	493.00	497.00	504.00	508.00	515.50	519.00	522.50	527.00	532.50	537.00	542.50	546.00	549.50	554.00	558.50	562.00	565.00	568.50	571.50	576.50	579.50	582.50	587.00	589.00	595.00	597.00	601.00	603.50	606.00	611.00	613.50	618.00	621.00	624.50	627.50	634.00	637.00	639.50	643.00	646.00	651.00	653.00	656.50	659.00	661.00	666.00	668.00	672.00	674.00	677.50	680.00	684.50	687.00	689.00	693.00	696.00	700.00	702.00	705.00	707.00	710.00	713.00	715.00	718.00	721.00	722.50	724.00	728.50	731.00	734.00	736.00	739.50	743.00	746.00	748.50	751.00	755.00	756.50	759.00	761.00	764.00	766.00	770.00	772.00	774.00	778.00	780.00	783.00	785.00	787.50	788.50	790.00	794.00	796.00	799.00	802.00	805.00	807.50	812.00	814.50	817.00	820.00	823.00	826.00	828.00	833.00	837.00	841.00	845.00	847.00	850.00	853.50	856.00	858.00	862.00	864.00	867.00	869.00	871.50	874.00	877.00	879.00	881.00	884.00	887.00	890.00	891.00	894.00	896.00	898.50	901.00	903.00	905.00	907.00	910.00	912.00	915.00	916.50	918.00	922.00	924.00	926.00	928.00	930.50	932.00	936.00	937.50	938.50	941.00	942.00	945.00	947.00	948.50	950.00	952.00	954.50	956.00	958.00	960.50	962.00	963.50	966.50	968.00	971.00	973.00	975.50	978.00	980.50	982.00	984.00	986.00	988.50	991.00	993.00	995.00	997.00	999.50	1002.00	1003.50	1006.00	1008.00	1011.00	1014.00	1015.50	1016.50	1018.00	1021.00	1023.00	1026.00	1027.00	1029.50	1031.00	1033.50	1036.00	1037.50	1040.00	1041.00	1044.00	1046.00	1048.00	1049.50	1051.00	1054.00	1055.50	1058.00	1059.00	1061.50	1063.00	1066.00	1067.50	1069.00	1071.00	1073.50	1076.00	1077.00	1081.00	1082.50	1085.00	1087.50	1089.00	1091.00	1094.00	1095.50	1097.50	1100.00	1101.50	1104.00	1105.00	1107.00	1110.00	1112.00	1113.50	1115.00	1117.00	1119.50	1122.00	1123.00	1125.50	1126.50	1128.50	1130.50	1131.50	1134.00	1135.00	1137.50	1140.00
440.00	446.00	450.00	458.00	461.00	467.00	471.00	475.00	483.00	487.00	493.00	497.00	504.00	508.00	515.50	519.00	522.50	527.00	532.50	537.00	542.50	546.00	549.50	554.00	558.50	562.00	565.00	568.50	571.50	576.50	579.50	582.50	587.00	589.00	595.00	597.00	601.00	603.50	606.00	611.00	613.50	618.00	621.00	624.50	627.50	634.00	637.00	639.50	643.00	646.00	651.00	653.00	656.50	659.00	661.00	666.00	668.00	672.00	674.00	677.50	680.00	684.50	687.00	689.00	693.00	696.00	700.00	702.00	705.00	707.00	710.00	713.00	715.00	718.00	721.00	722.50	724.00	728.50	731.00	734.00	736.00	739.50	743.00	746.00	748.50	751.00	755.00	756.50	759.00	761.00	764.00	766.00	770.00	772.00	774.00	778.00	780.00	783.00	785.00	787.50	788.50	790.00	794.00	796.00	799.00	802.00	805.00	807.50	812.00	814.50	817.00	820.00	823.00	826.00	828.00	833.00	837.00	841.00	845.00	847.00	850.00	853.50	856.00	858.00	862.00	864.00	867.00	869.00	871.50	874.00	877.00	879.00	881.00	884.00	887.00	890.00	891.00	894.00	896.00	898.50	901.00	903.00	905.00	907.00	910.00	912.00	915.00	916.50	918.00	922.00	924.00	926.00	928.00	930.50	932.00	936.00	937.50	938.50	941.00	942.00	945.00	947.00	948.50	950.00	952.00	954.50	956.00	958.00	960.50	962.00	963.50	966.50	968.00	971.00	973.00	975.50	978.00	980.50	982.00	984.00	986.00	988.50	991.00	993.00	995.00	997.00	999.50	1002.00	1003.50	1006.00	1008.00	1011.00	1014.00	1015.50	1016.50	1018.00	1021.00	1023.00	1026.00	1027.00	1029.50	1031.00	1033.50	1036.00	1037.50	1040.00	1041.00	1044.00	1046.00	1048.00	1049.50	1051.00	1054.00	1055.50	1058.00	1059.00	1061.50	1063.00	1066.00	1067.50	1069.00	1071.00	1073.50	1076.00	1077.00	1081.00	1082.50	1085.00	1087.50	1089.00	1091.00	1094.00	1095.50	1097.50	1100.00	1101.50	1104.00	1105.00	1107.00	1110.00	1112.00	1113.50	1115.00	1117.00	1119.50	1122.00	1123.00	1125.50	1126.50	1128.50	1130.50	1131.50	1134.00	1135.00	1137.50	1140.00
440.00	446.00	450.00	458.00	461.00	467.00	471.00	475.00	483.00	487.00	493.00	497.00	504.00	508.00	515.50	519.00	522.50	527.00	532.50	537.00	542.50	546.00	549.50	554.00	558.50	562.00	565.00	568.50	571.50	576.50	579.50	582.50	587.00	589.00	595.00	597.00	601.00	603.50	606.00	611.00	613.50	618.00	621.00	624.50	627.50	634.00	637.00	639.50	643.00	646.00	651.00	653.00	656.50	659.00	661.00	666.00	668.00	672.00	674.00	677.50	680.00	684.50	687.00	689.00	693.00	696.00	700.00	702.00	705.00	707.00	710.00	713.00	715.00	718.00	721.00	722.50	724.00	728.50	731.00	734.00	736.00	739.50	743.00	746.00	748.50	751.00	755.00	756.50	759.00	761.00	764.00	766.00	770.00	772.00	774.00	778.00	780.00	783.00	785.00	787.50	788.50	790.00	794.00	796.00	799.00	802.00	805.00	807.50	812.00	814.50	817.00	820.00	823.00	826.00	828.00	833.00	837.00	841.00	845.00	847.00	850.00	853.50	856.00	858.00	862.00	864.00	867.00	869.00	871.50	874.00	877.00	879.00	881.00	884.00	887.00	890.00	891.00	894.00	896.00	898.50	901.00	903.00	905.00	907.00	910.00	912.00	915.00	916.50	918.00	922.00	924.00	926.00	928.00	930.50	932.00	936.00	937.50	938.50	941.00	942.00	945.00	947.00	948.50	950.00	952.00	954.50	956.00	958.00	960.50	962.00	963.50	966.50	968.00	971.00	973.00	975.50	978.00	980.50	982.00	984.00	986.00	988.50	991.00	993.00	995.00	997.00	999.50	1002.00	1003.50	1006.00	1008.00	1011.00	1014.00	1015.50	1016.50	1018.00	1021.00	1023.00	1026.00	1027.00	1029.50	1031.00	1033.50	1036.00	1037.50	1040.00	1041.00	1044.00	1046.00	1048.00	1049.50	1051.00	1054.00	1055.50	1058.00	1059.00	1061.50	1063.00	1066.00	1067.50	1069.00	1071.00	1073.50	1076.00	1077.00	1081.00	1082.50	1085.00	1087.50	1089.00	1091.00	1094.00	1095.50	1097.50	1100.00	1101.50	1104.00	1105.00	1107.00	1110.00	1112.00	1113.50	1115.00	1117.00	1119.50	1122.00	1123.00	1125.50	1126.50	1128.50	1130.50	1131.50	1134.00	1135.00	1137.50	1140.00
446.50	452.50	456.50	464.00	467.00	472.75	476.50	480.50	488.75	493.00	499.00	503.50	510.50	514.50	521.75	525.25	528.75	533.50	539.00	544.00	549.00	552.50	556.00	561.00	565.25	568.50	571.50	575.00	577.75	583.00	585.75	588.50	593.00	595.00	600.50	603.00	607.00	609.50	612.00	617.25	620.00	624.50	627.50	631.25	634.00	640.25	643.25	645.75	649.50	652.00	657.00	659.50	662.75	665.25	667.50	672.25	674.50	678.00	680.00	683.75	686.00	690.75	693.00	695.25	699.00	702.25	706.00	708.00	711.00	713.00	716.00	719.00	721.00	724.00	727.00	728.50	730.00	734.25	736.50	739.50	741.50	745.25	748.50	751.50	753.75	756.00	760.00	761.75	764.50	766.50	769.75	772.00	776.00	778.00	780.00	783.50	785.50	789.00	791.00	793.50	794.25	795.50	799.50	801.50	804.50	807.00	810.00	812.50	817.00	819.25	821.50	825.00	828.00	831.00	833.50	838.25	842.00	846.50	850.00	852.00	855.50	858.75	861.00	863.00	866.75	869.00	872.00	874.00	876.25	879.00	882.00	883.75	885.50	888.50	891.25	894.00	895.50	898.25	900.00	902.50	905.00	907.00	909.50	911.00	914.50	916.50	919.25	920.75	922.50	926.50	928.25	930.50	932.50	934.75	936.50	940.25	941.75	943.00	945.50	947.00	950.00	951.50	953.00	954.25	956.50	958.75	960.50	962.50	965.00	966.50	968.25	971.25	973.00	976.00	978.00	980.75	983.00	985.75	987.25	989.00	991.50	993.75	996.00	998.00	1000.00	1002.00	1004.25	1006.50	1008.00	1010.50	1012.00	1015.00	1017.50	1019.50	1020.75	1022.25	1025.00	1027.00	1029.50	1031.00	1033.50	1035.00	1037.50	1039.75	1041.00	1043.50	1044.50	1047.50	1049.00	1051.25	1052.75	1054.50	1057.50	1059.00	1061.00	1062.50	1064.75	1066.25	1069.00	1070.50	1072.00	1074.50	1076.50	1079.00	1080.50	1084.00	1085.75	1088.50	1090.75	1092.50	1094.50	1097.25	1098.75	1101.00	1103.25	1104.75	1107.00	1108.00	1110.25	1113.00	1115.00	1116.75	1118.25	1120.00	1122.50	1125.00	1126.00	1128.25	1129.50	1131.50	1133.50	1134.50	1137.00	1138.00	1140.50	1142.50
453.00	459.00	463.00	470.00	473.00	478.50	482.00	486.00	494.50	499.00	505.00	510.00	517.00	521.00	528.00	531.50	535.00	540.00	545.50	551.00	555.50	559.00	562.50	568.00	572.00	575.00	578.00	581.50	584.00	589.50	592.00	594.50	599.00	601.00	606.00	609.00	613.00	615.50	618.00	623.50	626.50	631.00	634.00	638.00	640.50	646.50	649.50	652.00	656.00	658.00	663.00	666.00	669.00	671.50	674.00	678.50	681.00	684.00	686.00	690.00	692.00	697.00	699.00	701.50	705.00	708.50	712.00	714.00	717.00	719.00	722.00	725.00	727.00	730.00	733.00	734.50	736.00	740.00	742.00	745.00	747.00	751.00	754.00	757.00	759.00	761.00	765.00	767.00	770.00	772.00	775.50	778.00	782.00	784.00	786.00	789.00	791.00	795.00	797.00	799.50	800.00	801.00	805.00	807.00	810.00	812.00	815.00	817.50	822.00	824.00	826.00	830.00	833.00	836.00	839.00	843.50	847.00	852.00	855.00	857.00	861.00	864.00	866.00	868.00	871.50	874.00	877.00	879.00	881.00	884.00	887.00	888.50	890.00	893.00	895.50	898.00	900.00	902.50	904.00	906.50	909.00	911.00	914.00	915.00	919.00	921.00	923.50	925.00	927.00	931.00	932.50	935.00	937.00	939.00	941.00	944.50	946.00	947.50	950.00	952.00	955.00	956.00	957.50	958.50	961.00	963.00	965.00	967.00	969.50	971.00	973.00	976.00	978.00	981.00	983.00	986.00	988.00	991.00	992.50	994.00	997.00	999.00	1001.00	1003.00	1005.00	1007.00	1009.00	1011.00	1012.50	1015.00	1016.00	1019.00	1021.00	1023.50	1025.00	1026.50	1029.00	1031.00	1033.00	1035.00	1037.50	1039.00	1041.50	1043.50	1044.50	1047.00	1048.00	1051.00	1052.00	1054.50	1056.00	1058.00	1061.00	1062.50	1064.00	1066.00	1068.00	1069.50	1072.00	1073.50	1075.00	1078.00	1079.50	1082.00	1084.00	1087.00	1089.00	1092.00	1094.00	1096.00	1098.00	1100.50	1102.00	1104.50	1106.50	1108.00	1110.00	1111.00	1113.50	1116.00	1118.00	1120.00	1121.50	1123.00	1125.50	1128.00	1129.00	1131.00	1132.50	1134.50	1136.50	1137.50	1140.00	1141.00	1143.50	1145.00
453.00	459.00	463.00	470.00	473.00	478.50	482.00	486.00	494.50	499.00	505.00	510.00	517.00	521.00	528.00	531.50	535.00	540.00	545.50	551.00	555.50	559.00	562.50	568.00	572.00	575.00	578.00	581.50	584.00	589.50	592.00	594.50	599.00	601.00	606.00	609.00	613.00	615.50	618.00	623.50	626.50	631.00	634.00	638.00	640.50	646.50	649.50	652.00	656.00	658.00	663.00	666.00	669.00	671.50	674.00	678.50	681.00	684.00	686.00	690.00	692.00	697.00	699.00	701.50	705.00	708.50	712.00	714.00	717.00	719.00	722.00	725.00	727.00	730.00	733.00	734.50	736.00	740.00	742.00	745.00	747.00	751.00	754.00	757.00	759.00	761.00	765.00	767.00	770.00	772.00	775.50	778.00	782.00	784.00	786.00	789.00	791.00	795.00	797.00	799.50	800.00	801.00	805.00	807.00	810.00	812.00	815.00	817.50	822.00	824.00	826.00	830.00	833.00	836.00	839.00	843.50	847.00	852.00	855.00	857.00	861.00	864.00	866.00	868.00	871.50	874.00	877.00	879.00	881.00	884.00	887.00	888.50	890.00	893.00	895.50	898.00	900.00	902.50	904.00	906.50	909.00	911.00	914.00	915.00	919.00	921.00	923.50	925.00	927.00	931.00	932.50	935.00	937.00	939.00	941.00	944.50	946.00	947.50	950.00	952.00	955.00	956.00	957.50	958.50	961.00	963.00	965.00	967.00	969.50	971.00	973.00	976.00	978.00	981.00	983.00	986.00	988.00	991.00	992.50	994.00	997.00	999.00	1001.00	1003.00	1005.00	1007.00	1009.00	1011.00	1012.50	1015.00	1016.00	1019.00	1021.00	1023.50	1025.00	1026.50	1029.00	1031.00	1033.00	1035.00	1037.50	1039.00	1041.50	1043.50	1044.50	1047.00	1048.00	1051.00	1052.00	1054.50	1056.00	1058.00	1061.00	1062.50	1064.00	1066.00	1068.00	1069.50	1072.00	1073.50	1075.00	1078.00	1079.50	1082.00	1084.00	1087.00	1089.00	1092.00	1094.00	1096.00	1098.00	1100.50	1102.00	1104.50	1106.50	1108.00	1110.00	1111.00	1113.50	1116.00	1118.00	1120.00	1121.50	1123.00	1125.50	1128.00	1129.00	1131.00	1132.50	1134.50	1136.50	1137.50	1140.00	1141.00	1143.50	1145.00
453.00	459.00	463.00	470.00	473.00	478.50	482.00	486.00	494.50	499.00	505.00	510.00	517.00	521.00	528.00	531.50	535.00	540.00	545.50	551.00	555.50	559.00	562.50	568.00	572.00	575.00	578.00	581.50	584.00	589.50	592.00	594.50	599.00	601.00	606.00	609.00	613.00	615.50	618.00	623.50	626.50	631.00	634.00	638.00	640.50	646.50	649.50	652.00	656.00	658.00	663.00	666.00	669.00	671.50	674.00	678.50	681.00	684.00	686.00	690.00	692.00	697.00	699.00	701.50	705.00	708.50	712.00	714.00	717.00	719.00	722.00	725.00	727.00	730.00	733.00	734.50	736.00	740.00	742.00	745.00	747.00	751.00	754.00	757.00	759.00	761.00	765.00	767.00	770.00	772.00	775.50	778.00	782.00	784.00	786.00	789.00	791.00	795.00	797.00	799.50	800.00	801.00	805.00	807.00	810.00	812.00	815.00	817.50	822.00	824.00	826.00	830.00	833.00	836.00	839.00	843.50	847.00	852.00	855.00	857.00	861.00	864.00	866.00	868.00	871.50	874.00	877.00	879.00	881.00	884.00	887.00	888.50	890.00	893.00	895.50	898.00	900.00	902.50	904.00	906.50	909.00	911.00	914.00	915.00	919.00	921.00	923.50	925.00	927.00	931.00	932.50	935.00	937.00	939.00	941.00	944.50	946.00	947.50	950.00	952.00	955.00	956.00	957.50	958.50	961.00	963.00	965.00	967.00	969.50	971.00	973.00	976.00	978.00	981.00	983.00	986.00	988.00	991.00	992.50	994.00	997.00	999.00	1001.00	1003.00	1005.00	1007.00	1009.00	1011.00	1012.50	1015.00	1016.00	1019.00	1021.00	1023.50	1025.00	1026.50	1029.00	1031.00	1033.00	1035.00	1037.50	1039.00	1041.50	1043.50	1044.50	1047.00	1048.00	1051.00	1052.00	1054.50	1056.00	1058.00	1061.00	1062.50	1064.00	1066.00	1068.00	1069.50	1072.00	1073.50	1075.00	1078.00	1079.50	1082.00	1084.00	1087.00	1089.00	1092.00	1094.00	1096.00	1098.00	1100.50	1102.00	1104.50	1106.50	1108.00	1110.00	1111.00	1113.50	1116.00	1118.00	1120.00	1121.50	1123.00	1125.50	1128.00	1129.00	1131.00	1132.50	1134.50	1136.50	1137.50	1140.00	1141.00	1143.50	1145.00
460.75	466.50	470.00	477.50	480.50	485.75	489.50	493.50	501.25	505.50	512.00	516.50	523.50	527.50	534.75	538.25	541.75	546.50	552.00	557.50	562.00	565.25	568.75	574.00	578.25	581.50	584.00	587.75	590.25	595.75	598.25	601.00	605.00	607.50	612.50	615.50	619.25	622.00	624.50	629.75	632.50	637.00	640.00	644.25	647.00	653.00	655.75	658.25	662.00	664.50	669.50	672.00	675.25	677.75	680.00	684.75	687.00	690.00	692.50	696.00	698.00	703.00	705.00	707.50	711.00	714.25	718.00	720.00	723.00	725.00	728.00	730.50	732.50	736.00	738.50	740.25	742.00	746.00	748.00	751.00	753.00	756.50	759.50	762.50	764.50	766.50	770.25	772.00	775.50	777.50	780.75	783.25	787.00	788.75	790.50	793.50	795.50	799.50	801.50	803.75	804.75	806.00	810.00	812.00	815.00	817.00	820.00	822.25	826.50	828.50	830.75	834.50	838.00	841.00	843.50	848.25	852.00	857.00	860.25	862.50	866.00	869.00	870.75	872.50	876.25	878.50	881.50	883.00	885.50	888.50	891.25	892.75	894.50	897.00	899.75	902.50	904.00	906.75	908.25	910.75	913.50	915.25	918.00	919.50	923.00	925.00	927.75	929.50	931.50	935.25	936.75	939.00	941.00	943.25	945.00	948.75	950.25	951.75	954.50	956.50	959.50	960.00	961.50	962.75	965.50	967.25	969.00	971.50	973.75	975.50	977.50	980.50	982.50	985.50	987.00	990.00	992.00	994.75	996.25	998.00	1001.00	1003.50	1005.50	1007.50	1009.50	1011.50	1013.75	1015.75	1017.25	1019.50	1021.00	1023.50	1025.50	1028.00	1029.50	1031.00	1033.00	1035.25	1037.50	1039.00	1041.25	1042.75	1045.00	1047.00	1048.25	1050.50	1051.50	1054.50	1055.50	1058.00	1059.25	1061.00	1064.00	1065.50	1067.50	1069.00	1071.00	1072.50	1075.25	1076.75	1078.50	1081.00	1083.00	1085.50	1087.50	1090.50	1092.50	1095.50	1097.50	1099.25	1101.50	1104.00	1105.50	1108.00	1110.00	1111.25	1113.50	1114.50	1117.00	1119.50	1121.50	1123.25	1124.75	1126.50	1128.75	1131.00	1132.00	1134.25	1135.50	1137.50	1139.50	1140.50	1143.00	1144.00	1146.25	1148.00
468.50	474.00	477.00	485.00	488.00	493.00	497.00	501.00	508.00	512.00	519.00	523.00	530.00	534.00	541.50	545.00	548.50	553.00	558.50	564.00	568.50	571.50	575.00	580.00	584.50	588.00	590.00	594.00	596.50	602.00	604.50	607.50	611.00	614.00	619.00	622.00	625.50	628.50	631.00	636.00	638.50	643.00	646.00	650.50	653.50	659.50	662.00	664.50	668.00	671.00	676.00	678.00	681.50	684.00	686.00	691.00	693.00	696.00	699.00	702.00	704.00	709.00	711.00	713.50	717.00	720.00	724.00	726.00	729.00	731.00	734.00	736.00	738.00	742.00	744.00	746.00	748.00	752.00	754.00	757.00	759.00	762.00	765.00	768.00	770.00	772.00	775.50	777.00	781.00	783.00	786.00	788.50	792.00	793.50	795.00	798.00	800.00	804.00	806.00	808.00	809.50	811.00	815.00	817.00	820.00	822.00	825.00	827.00	831.00	833.00	835.50	839.00	843.00	846.00	848.00	853.00	857.00	862.00	865.50	868.00	871.00	874.00	875.50	877.00	881.00	883.00	886.00	887.00	890.00	893.00	895.50	897.00	899.00	901.00	904.00	907.00	908.00	911.00	912.50	915.00	918.00	919.50	922.00	924.00	927.00	929.00	932.00	934.00	936.00	939.50	941.00	943.00	945.00	947.50	949.00	953.00	954.50	956.00	959.00	961.00	964.00	964.00	965.50	967.00	970.00	971.50	973.00	976.00	978.00	980.00	982.00	985.00	987.00	990.00	991.00	994.00	996.00	998.50	1000.00	1002.00	1005.00	1008.00	1010.00	1012.00	1014.00	1016.00	1018.50	1020.50	1022.00	1024.00	1026.00	1028.00	1030.00	1032.50	1034.00	1035.50	1037.00	1039.50	1042.00	1043.00	1045.00	1046.50	1048.50	1050.50	1052.00	1054.00	1055.00	1058.00	1059.00	1061.50	1062.50	1064.00	1067.00	1068.50	1071.00	1072.00	1074.00	1075.50	1078.50	1080.00	1082.00	1084.00	1086.50	1089.00	1091.00	1094.00	1096.00	1099.00	1101.00	1102.50	1105.00	1107.50	1109.00	1111.50	1113.50	1114.50	1117.00	1118.00	1120.50	1123.00	1125.00	1126.50	1128.00	1130.00	1132.00	1134.00	1135.00	1137.50	1138.50	1140.50	1142.50	1143.50	1146.00	1147.00	1149.00	1151.00
