1271.50	1270.00	1269.00	1267.00	1264.00	1262.00	1260.50	1259.00	1256.00	1254.00	1252.00	1250.00	1247.00	1244.50	1241.00	1238.00	1236.00	1233.00	1229.50	1227.00	1224.00	1220.00	1217.50	1214.00	1211.00	1207.50	1204.00	1200.00	1197.50	1195.00	1190.00	1187.50	1183.00	1181.00	1177.00	1174.50	1169.50	1166.50	1164.00	1161.00	1159.00	1155.00	1153.00	1150.00	1148.00	1146.00	1142.00	1140.00	1138.00	1136.00	1134.00	1132.50	1129.50	1128.00	1126.50	1124.00	1122.50	1121.00	1119.00	1117.50	1116.50	1115.00	1113.50	1112.50	1111.00	1110.00	1108.50	1107.00	1106.50	1105.50	1105.00	1104.00	1103.00	1102.00	1101.00	1101.00	1101.00	1101.00	1101.00	1101.00	1101.00	1101.50	1102.00	1102.00	1102.50	1103.00	1104.00	1105.00	1106.00	1107.00	1108.00	1108.50	1109.50	1111.00	1111.50	1113.00	1114.00	1115.50	1116.00	1117.50	1118.50	1119.50	1120.00	1121.00	1122.00	1122.00	1123.00	1123.50	1124.00	1125.00	1125.50	1125.00	1125.00	1123.50	1123.00	1122.00	1121.50	1120.50	1120.00	1118.50	1117.00	1115.00	1112.50	1111.00	1108.00	1106.00	1104.50	1102.00	1100.00	1098.00	1094.00	1091.00	1089.00	1085.00	1083.00	1080.00	1076.00	1073.00	1071.00	1069.00	1064.50	1062.00	1059.00	1057.00	1054.00	1052.00	1048.00	1046.00	1044.50	1042.00	1041.00	1038.00	1036.00	1034.00	1032.50	1031.00	1028.50	1027.50	1026.00	1025.00	1024.00	1023.50	1021.50	1021.00	1020.50	1019.00	1019.00	1020.00	1020.00	1020.00	1020.00	1020.00	1020.00	1020.00	1020.00	1019.00	1018.50	1018.00	1017.00	1017.00	1016.00	1016.00	1015.50	1014.00	1010.00	1007.50	1005.00	1000.50	998.00	995.00	992.00	989.00	987.50	986.50	986.00	985.50	985.00	984.00	983.00	982.00	980.50	982.50	987.50	996.50	1001.50	1008.00	1013.00	1019.00	1023.00	1031.00	1042.00	1060.00	1087.00	1105.00	1140.00	1157.00	1182.50	1199.50	1216.00	1257.00	1286.50	1329.00	1358.00	1400.50	1429.00	1485.00	1513.00	1541.00	1588.00	1654.00	1720.00	1785.00	1828.50	1871.50	1957.50	2000.50	2064.00	2107.00	2172.00	2215.50	2301.50	2344.50	2387.50	2452.00	2494.00	2579.00	2618.00	2669.00	2703.00	2737.00	2805.50	2840.00	2892.00	2926.00	2978.00	3009.00
1271.50	1270.00	1269.00	1267.00	1264.00	1262.00	1260.50	1259.00	1256.00	1254.00	1252.00	1250.00	1247.00	1244.50	1241.00	1238.00	1236.00	1233.00	1229.50	1227.00	1224.00	1220.00	1217.50	1214.00	1211.00	1207.50	1204.00	1200.00	1197.50	1195.00	1190.00	1187.50	1183.00	1181.00	1177.00	1174.50	1169.50	1166.50	1164.00	1161.00	1159.00	1155.00	1153.00	1150.00	1148.00	1146.00	1142.00	1140.00	1138.00	1136.00	1134.00	1132.50	1129.50	1128.00	1126.50	1124.00	1122.50	1121.00	1119.00	1117.50	1116.50	1115.00	1113.50	1112.50	1111.00	1110.00	1108.50	1107.00	1106.50	1105.50	1105.00	1104.00	1103.00	1102.00	1101.00	1101.00	1101.00	1101.00	1101.00	1101.00	1101.00	1101.50	1102.00	1102.00	1102.50	1103.00	1104.00	1105.00	1106.00	1107.00	1108.00	1108.50	1109.50	1111.00	1111.50	1113.00	1114.00	1115.50	1116.00	1117.50	1118.50	1119.50	1120.00	1121.00	1122.00	1122.00	1123.00	1123.50	1124.00	1125.00	1125.50	1125.00	1125.00	1123.50	1123.00	1122.00	1121.50	1120.50	1120.00	1118.50	1117.00	1115.00	1112.50	1111.00	1108.00	1106.00	1104.50	1102.00	1100.00	1098.00	1094.00	1091.00	1089.00	1085.00	1083.00	1080.00	1076.00	1073.00	1071.00	1069.00	1064.50	1062.00	1059.00	1057.00	1054.00	1052.00	1048.00	1046.00	1044.50	1042.00	1041.00	1038.00	1036.00	1034.00	1032.50	1031.00	1028.50	1027.50	1026.00	1025.00	1024.00	1023.50	1021.50	1021.00	1020.50	1019.00	1019.00	1020.00	1020.00	1020.00	1020.00	1020.00	1020.00	1020.00	1020.00	1019.00	1018.50	1018.00	1017.00	1017.00	1016.00	1016.00	1015.50	1014.00	1010.00	1007.50	1005.00	1000.50	998.00	995.00	992.00	989.00	987.50	986.50	986.00	985.50	985.00	984.00	983.00	982.00	980.50	982.50	987.50	996.50	1001.50	1008.00	1013.00	1019.00	1023.00	1031.00	1042.00	1060.00	1087.00	1105.00	1140.00	1157.00	1182.50	1199.50	1216.00	1257.00	1286.50	1329.00	1358.00	1400.50	1429.00	1485.00	1513.00	1541.00	1588.00	1654.00	1720.00	1785.00	1828.50	1871.50	1957.50	2000.50	2064.00	2107.00	2172.00	2215.50	2301.50	2344.50	2387.50	2452.00	2494.00	2579.00	2618.00	2669.00	2703.00	2737.00	2805.50	2840.00	2892.00	2926.00	2978.00	3009.00
1271.50	1270.00	1269.00	1267.00	1264.00	1262.00	1260.50	1259.00	1256.00	1254.00	1252.00	1250.00	1247.00	1244.50	1241.00	1238.00	1236.00	1233.00	1229.50	1227.00	1224.00	1220.00	1217.50	1214.00	1211.00	1207.50	1204.00	1200.00	1197.50	1195.00	1190.00	1187.50	1183.00	1181.00	1177.00	1174.50	1169.50	1166.50	1164.00	1161.00	1159.00	1155.00	1153.00	1150.00	1148.00	1146.00	1142.00	1140.00	1138.00	1136.00	1134.00	1132.50	1129.50	1128.00	1126.50	1124.00	1122.50	1121.00	1119.00	1117.50	1116.50	1115.00	1113.50	1112.50	1111.00	1110.00	1108.50	1107.00	1106.50	1105.50	1105.00	1104.00	1103.00	1102.00	1101.00	1101.00	1101.00	1101.00	1101.00	1101.00	1101.00	1101.50	1102.00	1102.00	1102.50	1103.00	1104.00	1105.00	1106.00	1107.00	1108.00	1108.50	1109.50	1111.00	1111.50	1113.00	1114.00	1115.50	1116.00	1117.50	1118.50	1119.50	1120.00	1121.00	1122.00	1122.00	1123.00	1123.50	1124.00	1125.00	1125.50	1125.00	1125.00	1123.50	1123.00	1122.00	1121.50	1120.50	1120.00	1118.50	1117.00	1115.00	1112.50	1111.00	1108.00	1106.00	1104.50	1102.00	1100.00	1098.00	1094.00	1091.00	1089.00	1085.00	1083.00	1080.00	1076.00	1073.00	1071.00	1069.00	1064.50	1062.00	1059.00	1057.00	1054.00	1052.00	1048.00	1046.00	1044.50	1042.00	1041.00	1038.00	1036.00	1034.00	1032.50	1031.00	1028.50	1027.50	1026.00	1025.00	1024.00	1023.50	1021.50	1021.00	1020.50	1019.00	1019.00	1020.00	1020.00	1020.00	1020.00	1020.00	1020.00	1020.00	1020.00	1019.00	1018.50	1018.00	1017.00	1017.00	1016.00	1016.00	1015.50	1014.00	1010.00	1007.50	1005.00	1000.50	998.00	995.00	992.00	989.00	987.50	986.50	986.00	985.50	985.00	984.00	983.00	982.00	980.50	982.50	987.50	996.50	1001.50	1008.00	1013.00	1019.00	1023.00	1031.00	1042.00	1060.00	1087.00	1105.00	1140.00	1157.00	1182.50	1199.50	1216.00	1257.00	1286.50	1329.00	1358.00	1400.50	1429.00	1485.00	1513.00	1541.00	1588.00	1654.00	1720.00	1785.00	1828.50	1871.50	1957.50	2000.50	2064.00	2107.00	2172.00	2215.50	2301.50	2344.50	2387.50	2452.00	2494.00	2579.00	2618.00	2669.00	2703.00	2737.00	2805.50	2840.00	2892.00	2926.00	2978.00	3009.00
1275.50	1274.00	1273.00	1270.50	1268.00	1266.00	1264.50	1263.00	1261.00	1258.00	1256.00	1254.00	1251.00	1249.00	1246.00	1243.00	1241.00	1238.00	1235.00	1233.00	1230.00	1227.00	1225.00	1222.00	1220.00	1217.00	1214.00	1210.50	1208.00	1206.00	1201.00	1198.50	1195.00	1192.00	1189.00	1186.50	1181.50	1179.00	1177.00	1174.00	1172.00	1167.00	1165.00	1162.00	1160.00	1158.00	1154.00	1152.00	1150.00	1148.00	1145.50	1144.00	1141.00	1139.00	1137.50	1135.00	1133.00	1131.00	1130.00	1127.50	1126.00	1124.00	1122.00	1120.50	1119.00	1118.00	1116.50	1115.00	1113.50	1112.50	1111.50	1110.00	1108.50	1108.00	1108.00	1107.00	1107.00	1106.50	1106.00	1106.00	1106.00	1105.50	1105.50	1106.00	1107.00	1107.50	1108.00	1109.00	1109.50	1111.00	1111.50	1112.00	1112.50	1114.50	1115.50	1117.00	1118.00	1119.50	1120.00	1121.50	1122.50	1123.50	1124.00	1125.00	1126.00	1127.00	1127.50	1128.50	1129.00	1130.00	1130.00	1130.00	1130.00	1129.00	1129.00	1129.00	1128.50	1128.00	1128.00	1125.50	1124.00	1122.00	1120.00	1118.50	1115.50	1114.00	1112.50	1110.00	1107.00	1105.00	1102.00	1098.50	1096.00	1093.00	1091.00	1087.50	1084.00	1079.50	1076.50	1073.50	1068.00	1065.50	1061.00	1058.00	1054.50	1051.50	1048.00	1046.00	1044.50	1042.00	1041.00	1037.00	1036.00	1033.50	1032.00	1030.50	1028.00	1026.50	1024.00	1023.00	1020.50	1019.00	1016.00	1014.50	1013.00	1011.00	1009.50	1008.00	1007.00	1005.50	1004.50	1004.00	1002.50	1001.50	1001.00	1000.00	999.50	999.00	998.00	997.50	997.00	996.00	996.00	996.00	995.50	995.00	994.50	993.50	992.50	991.00	990.00	992.00	994.00	998.00	1000.00	1002.00	1004.00	1006.00	1009.00	1010.00	1022.00	1032.50	1043.00	1062.50	1071.50	1086.00	1094.00	1107.00	1115.00	1150.00	1173.50	1196.50	1231.00	1253.00	1297.00	1319.00	1351.50	1372.50	1398.50	1463.50	1496.50	1547.00	1581.00	1631.50	1665.00	1731.50	1764.50	1804.00	1874.00	1944.50	2015.00	2084.50	2131.00	2177.50	2270.00	2316.00	2381.00	2422.00	2485.00	2526.50	2610.00	2652.00	2694.50	2758.00	2800.00	2872.00	2903.00	2950.50	2982.00	3013.50	3077.00	3109.00	3157.00	3190.00	3227.50	3246.00
1275.50	1274.00	1273.00	1270.50	1268.00	1266.00	1264.50	1263.00	1261.00	1258.00	1256.00	1254.00	1251.00	1249.00	1246.00	1243.00	1241.00	1238.00	1235.00	1233.00	1230.00	1227.00	1225.00	1222.00	1220.00	1217.00	1214.00	1210.50	1208.00	1206.00	1201.00	1198.50	1195.00	1192.00	1189.00	1186.50	1181.50	1179.00	1177.00	1174.00	1172.00	1167.00	1165.00	1162.00	1160.00	1158.00	1154.00	1152.00	1150.00	1148.00	1145.50	1144.00	1141.00	1139.00	1137.50	1135.00	1133.00	1131.00	1130.00	1127.50	1126.00	1124.00	1122.00	1120.50	1119.00	1118.00	1116.50	1115.00	1113.50	1112.50	1111.50	1110.00	1108.50	1108.00	1108.00	1107.00	1107.00	1106.50	1106.00	1106.00	1106.00	1105.50	1105.50	1106.00	1107.00	1107.50	1108.00	1109.00	1109.50	1111.00	1111.50	1112.00	1112.50	1114.50	1115.50	1117.00	1118.00	1119.50	1120.00	1121.50	1122.50	1123.50	1124.00	1125.00	1126.00	1127.00	1127.50	1128.50	1129.00	1130.00	1130.00	1130.00	1130.00	1129.00	1129.00	1129.00	1128.50	1128.00	1128.00	1125.50	1124.00	1122.00	1120.00	1118.50	1115.50	1114.00	1112.50	1110.00	1107.00	1105.00	1102.00	1098.50	1096.00	1093.00	1091.00	1087.50	1084.00	1079.50	1076.50	1073.50	1068.00	1065.50	1061.00	1058.00	1054.50	1051.50	1048.00	1046.00	1044.50	1042.00	1041.00	1037.00	1036.00	1033.50	1032.00	1030.50	1028.00	1026.50	1024.00	1023.00	1020.50	1019.00	1016.00	1014.50	1013.00	1011.00	1009.50	1008.00	1007.00	1005.50	1004.50	1004.00	1002.50	1001.50	1001.00	1000.00	999.50	999.00	998.00	997.50	997.00	996.00	996.00	996.00	995.50	995.00	994.50	993.50	992.50	991.00	990.00	992.00	994.00	998.00	1000.00	1002.00	1004.00	1006.00	1009.00	1010.00	1022.00	1032.50	1043.00	1062.50	1071.50	1086.00	1094.00	1107.00	1115.00	1150.00	1173.50	1196.50	1231.00	1253.00	1297.00	1319.00	1351.50	1372.50	1398.50	1463.50	1496.50	1547.00	1581.00	1631.50	1665.00	1731.50	1764.50	1804.00	1874.00	1944.50	2015.00	2084.50	2131.00	2177.50	2270.00	2316.00	2381.00	2422.00	2485.00	2526.50	2610.00	2652.00	2694.50	2758.00	2800.00	2872.00	2903.00	2950.50	2982.00	3013.50	3077.00	3109.00	3157.00	3190.00	3227.50	3246.00
1275.50	1274.00	1273.00	1270.50	1268.00	1266.00	1264.50	1263.00	1261.00	1258.00	1256.00	1254.00	1251.00	1249.00	1246.00	1243.00	1241.00	1238.00	1235.00	1233.00	1230.00	1227.00	1225.00	1222.00	1220.00	1217.00	1214.00	1210.50	1208.00	1206.00	1201.00	1198.50	1195.00	1192.00	1189.00	1186.50	1181.50	1179.00	1177.00	1174.00	1172.00	1167.00	1165.00	1162.00	1160.00	1158.00	1154.00	1152.00	1150.00	1148.00	1145.50	1144.00	1141.00	1139.00	1137.50	1135.00	1133.00	1131.00	1130.00	1127.50	1126.00	1124.00	1122.00	1120.50	1119.00	1118.00	1116.50	1115.00	1113.50	1112.50	1111.50	1110.00	1108.50	1108.00	1108.00	1107.00	1107.00	1106.50	1106.00	1106.00	1106.00	1105.50	1105.50	1106.00	1107.00	1107.50	1108.00	1109.00	1109.50	1111.00	1111.50	1112.00	1112.50	1114.50	1115.50	1117.00	1118.00	1119.50	1120.00	1121.50	1122.50	1123.50	1124.00	1125.00	1126.00	1127.00	1127.50	1128.50	1129.00	1130.00	1130.00	1130.00	1130.00	1129.00	1129.00	1129.00	1128.50	1128.00	1128.00	1125.50	1124.00	1122.00	1120.00	1118.50	1115.50	1114.00	1112.50	1110.00	1107.00	1105.00	1102.00	1098.50	1096.00	1093.00	1091.00	1087.50	1084.00	1079.50	1076.50	1073.50	1068.00	1065.50	1061.00	1058.00	1054.50	1051.50	1048.00	1046.00	1044.50	1042.00	1041.00	1037.00	1036.00	1033.50	1032.00	1030.50	1028.00	1026.50	1024.00	1023.00	1020.50	1019.00	1016.00	1014.50	1013.00	1011.00	1009.50	1008.00	1007.00	1005.50	1004.50	1004.00	1002.50	1001.50	1001.00	1000.00	999.50	999.00	998.00	997.50	997.00	996.00	996.00	996.00	995.50	995.00	994.50	993.50	992.50	991.00	990.00	992.00	994.00	998.00	1000.00	1002.00	1004.00	1006.00	1009.00	1010.00	1022.00	1032.50	1043.00	1062.50	1071.50	1086.00	1094.00	1107.00	1115.00	1150.00	1173.50	1196.50	1231.00	1253.00	1297.00	1319.00	1351.50	1372.50	1398.50	1463.50	1496.50	1547.00	1581.00	1631.50	1665.00	1731.50	1764.50	1804.00	1874.00	1944.50	2015.00	2084.50	2131.00	2177.50	2270.00	2316.00	2381.00	2422.00	2485.00	2526.50	2610.00	2652.00	2694.50	2758.00	2800.00	2872.00	2903.00	2950.50	2982.00	3013.50	3077.00	3109.00	3157.00	3190.00	3227.50	3246.00
1275.50	1274.00	1273.00	1270.50	1268.00	1266.00	1264.50	1263.00	1261.00	1258.00	1256.00	1254.00	1251.00	1249.00	1246.00	1243.00	1241.00	1238.00	1235.00	1233.00	1230.00	1227.00	1225.00	1222.00	1220.00	1217.00	1214.00	1210.50	1208.00	1206.00	1201.00	1198.50	1195.00	1192.00	1189.00	1186.50	1181.50	1179.00	1177.00	1174.00	1172.00	1167.00	1165.00	1162.00	1160.00	1158.00	1154.00	1152.00	1150.00	1148.00	1145.50	1144.00	1141.00	1139.00	1137.50	1135.00	1133.00	1131.00	1130.00	1127.50	1126.00	1124.00	1122.00	1120.50	1119.00	1118.00	1116.50	1115.00	1113.50	1112.50	1111.50	1110.00	1108.50	1108.00	1108.00	1107.00	1107.00	1106.50	1106.00	1106.00	1106.00	1105.50	1105.50	1106.00	1107.00	1107.50	1108.00	1109.00	1109.50	1111.00	1111.50	1112.00	1112.50	1114.50	1115.50	1117.00	1118.00	1119.50	1120.00	1121.50	1122.50	1123.50	1124.00	1125.00	1126.00	1127.00	1127.50	1128.50	1129.00	1130.00	1130.00	1130.00	1130.00	1129.00	1129.00	1129.00	1128.50	1128.00	1128.00	1125.50	1124.00	1122.00	1120.00	1118.50	1115.50	1114.00	1112.50	1110.00	1107.00	1105.00	1102.00	1098.50	1096.00	1093.00	1091.00	1087.50	1084.00	1079.50	1076.50	1073.50	1068.00	1065.50	1061.00	1058.00	1054.50	1051.50	1048.00	1046.00	1044.50	1042.00	1041.00	1037.00	1036.00	1033.50	1032.00	1030.50	1028.00	1026.50	1024.00	1023.00	1020.50	1019.00	1016.00	1014.50	1013.00	1011.00	1009.50	1008.00	1007.00	1005.50	1004.50	1004.00	1002.50	1001.50	1001.00	1000.00	999.50	999.00	998.00	997.50	997.00	996.00	996.00	996.00	995.50	995.00	994.50	993.50	992.50	991.00	990.00	992.00	994.00	998.00	1000.00	1002.00	1004.00	1006.00	1009.00	1010.00	1022.00	1032.50	1043.00	1062.50	1071.50	1086.00	1094.00	1107.00	1115.00	1150.00	1173.50	1196.50	1231.00	1253.00	1297.00	1319.00	1351.50	1372.50	1398.50	1463.50	1496.50	1547.00	1581.00	1631.50	1665.00	1731.50	1764.50	1804.00	1874.00	1944.50	2015.00	2084.50	2131.00	2177.50	2270.00	2316.00	2381.00	2422.00	2485.00	2526.50	2610.00	2652.00	2694.50	2758.00	2800.00	2872.00	2903.00	2950.50	2982.00	3013.50	3077.00	3109.00	3157.00	3190.00	3227.50	3246.00
1275.50	1274.00	1273.00	1270.50	1268.00	1266.00	1264.50	1263.00	1261.00	1258.00	1256.00	1254.00	1251.00	1249.00	1246.00	1243.00	1241.00	1238.00	1235.00	1233.00	1230.00	1227.00	1225.00	1222.00	1220.00	1217.00	1214.00	1210.50	1208.00	1206.00	1201.00	1198.50	1195.00	1192.00	1189.00	1186.50	1181.50	1179.00	1177.00	1174.00	1172.00	1167.00	1165.00	1162.00	1160.00	1158.00	1154.00	1152.00	1150.00	1148.00	1145.50	1144.00	1141.00	1139.00	1137.50	1135.00	1133.00	1131.00	1130.00	1127.50	1126.00	1124.00	1122.00	1120.50	1119.00	1118.00	1116.50	1115.00	1113.50	1112.50	1111.50	1110.00	1108.50	1108.00	1108.00	1107.00	1107.00	1106.50	1106.00	1106.00	1106.00	1105.50	1105.50	1106.00	1107.00	1107.50	1108.00	1109.00	1109.50	1111.00	1111.50	1112.00	1112.50	1114.50	1115.50	1117.00	1118.00	1119.50	1120.00	1121.50	1122.50	1123.50	1124.00	1125.00	1126.00	1127.00	1127.50	1128.50	1129.00	1130.00	1130.00	1130.00	1130.00	1129.00	1129.00	1129.00	1128.50	1128.00	1128.00	1125.50	1124.00	1122.00	1120.00	1118.50	1115.50	1114.00	1112.50	1110.00	1107.00	1105.00	1102.00	1098.50	1096.00	1093.00	1091.00	1087.50	1084.00	1079.50	1076.50	1073.50	1068.00	1065.50	1061.00	1058.00	1054.50	1051.50	1048.00	1046.00	1044.50	1042.00	1041.00	1037.00	1036.00	1033.50	1032.00	1030.50	1028.00	1026.50	1024.00	1023.00	1020.50	1019.00	1016.00	1014.50	1013.00	1011.00	1009.50	1008.00	1007.00	1005.50	1004.50	1004.00	1002.50	1001.50	1001.00	1000.00	999.50	999.00	998.00	997.50	997.00	996.00	996.00	996.00	995.50	995.00	994.50	993.50	992.50	991.00	990.00	992.00	994.00	998.00	1000.00	1002.00	1004.00	1006.00	1009.00	1010.00	1022.00	1032.50	1043.00	1062.50	1071.50	1086.00	1094.00	1107.00	1115.00	1150.00	1173.50	1196.50	1231.00	1253.00	1297.00	1319.00	1351.50	1372.50	1398.50	1463.50	1496.50	1547.00	1581.00	1631.50	1665.00	1731.50	1764.50	1804.00	1874.00	1944.50	2015.00	2084.50	2131.00	2177.50	2270.00	2316.00	2381.00	2422.00	2485.00	2526.50	2610.00	2652.00	2694.50	2758.00	2800.00	2872.00	2903.00	2950.50	2982.00	3013.50	3077.00	3109.00	3157.00	3190.00	3227.50	3246.00
1275.50	1274.00	1273.00	1270.50	1268.00	1266.00	1264.50	1263.00	1261.00	1258.00	1256.00	1254.00	1251.00	1249.00	1246.00	1243.00	1241.00	1238.00	1235.00	1233.00	1230.00	1227.00	1225.00	1222.00	1220.00	1217.00	1214.00	1210.50	1208.00	1206.00	1201.00	1198.50	1195.00	1192.00	1189.00	1186.50	1181.50	1179.00	1177.00	1174.00	1172.00	1167.00	1165.00	1162.00	1160.00	1158.00	1154.00	1152.00	1150.00	1148.00	1145.50	1144.00	1141.00	1139.00	1137.50	1135.00	1133.00	1131.00	1130.00	1127.50	1126.00	1124.00	1122.00	1120.50	1119.00	1118.00	1116.50	1115.00	1113.50	1112.50	1111.50	1110.00	1108.50	1108.00	1108.00	1107.00	1107.00	1106.50	1106.00	1106.00	1106.00	1105.50	1105.50	1106.00	1107.00	1107.50	1108.00	1109.00	1109.50	1111.00	1111.50	1112.00	1112.50	1114.50	1115.50	1117.00	1118.00	1119.50	1120.00	1121.50	1122.50	1123.50	1124.00	1125.00	1126.00	1127.00	1127.50	1128.50	1129.00	1130.00	1130.00	1130.00	1130.00	1129.00	1129.00	1129.00	1128.50	1128.00	1128.00	1125.50	1124.00	1122.00	1120.00	1118.50	1115.50	1114.00	1112.50	1110.00	1107.00	1105.00	1102.00	1098.50	1096.00	1093.00	1091.00	1087.50	1084.00	1079.50	1076.50	1073.50	1068.00	1065.50	1061.00	1058.00	1054.50	1051.50	1048.00	1046.00	1044.50	1042.00	1041.00	1037.00	1036.00	1033.50	1032.00	1030.50	1028.00	1026.50	1024.00	1023.00	1020.50	1019.00	1016.00	1014.50	1013.00	1011.00	1009.50	1008.00	1007.00	1005.50	1004.50	1004.00	1002.50	1001.50	1001.00	1000.00	999.50	999.00	998.00	997.50	997.00	996.00	996.00	996.00	995.50	995.00	994.50	993.50	992.50	991.00	990.00	992.00	994.00	998.00	1000.00	1002.00	1004.00	1006.00	1009.00	1010.00	1022.00	1032.50	1043.00	1062.50	1071.50	1086.00	1094.00	1107.00	1115.00	1150.00	1173.50	1196.50	1231.00	1253.00	1297.00	1319.00	1351.50	1372.50	1398.50	1463.50	1496.50	1547.00	1581.00	1631.50	1665.00	1731.50	1764.50	1804.00	1874.00	1944.50	2015.00	2084.50	2131.00	2177.50	2270.00	2316.00	2381.00	2422.00	2485.00	2526.50	2610.00	2652.00	2694.50	2758.00	2800.00	2872.00	2903.00	2950.50	2982.00	3013.50	3077.00	3109.00	3157.00	3190.00	3227.50	3246.00
1275.50	1274.00	1273.00	1270.50	1268.00	1266.00	1264.50	1263.00	1261.00	1258.00	1256.00	1254.00	1251.00	1249.00	1246.00	1243.00	1241.00	1238.00	1235.00	1233.00	1230.00	1227.00	1225.00	1222.00	1220.00	1217.00	1214.00	1210.50	1208.00	1206.00	1201.00	1198.50	1195.00	1192.00	1189.00	1186.50	1181.50	1179.00	1177.00	1174.00	1172.00	1167.00	1165.00	1162.00	1160.00	1158.00	1154.00	1152.00	1150.00	1148.00	1145.50	1144.00	1141.00	1139.00	1137.50	1135.00	1133.00	1131.00	1130.00	1127.50	1126.00	1124.00	1122.00	1120.50	1119.00	1118.00	1116.50	1115.00	1113.50	1112.50	1111.50	1110.00	1108.50	1108.00	1108.00	1107.00	1107.00	1106.50	1106.00	1106.00	1106.00	1105.50	1105.50	1106.00	1107.00	1107.50	1108.00	1109.00	1109.50	1111.00	1111.50	1112.00	1112.50	1114.50	1115.50	1117.00	1118.00	1119.50	1120.00	1121.50	1122.50	1123.50	1124.00	1125.00	1126.00	1127.00	1127.50	1128.50	1129.00	1130.00	1130.00	1130.00	1130.00	1129.00	1129.00	1129.00	1128.50	1128.00	1128.00	1125.50	1124.00	1122.00	1120.00	1118.50	1115.50	1114.00	1112.50	1110.00	1107.00	1105.00	1102.00	1098.50	1096.00	1093.00	1091.00	1087.50	1084.00	1079.50	1076.50	1073.50	1068.00	1065.50	1061.00	1058.00	1054.50	1051.50	1048.00	1046.00	1044.50	1042.00	1041.00	1037.00	1036.00	1033.50	1032.00	1030.50	1028.00	1026.50	1024.00	1023.00	1020.50	1019.00	1016.00	1014.50	1013.00	1011.00	1009.50	1008.00	1007.00	1005.50	1004.50	1004.00	1002.50	1001.50	1001.00	1000.00	999.50	999.00	998.00	997.50	997.00	996.00	996.00	996.00	995.50	995.00	994.50	993.50	992.50	991.00	990.00	992.00	994.00	998.00	1000.00	1002.00	1004.00	1006.00	1009.00	1010.00	1022.00	1032.50	1043.00	1062.50	1071.50	1086.00	1094.00	1107.00	1115.00	1150.00	1173.50	1196.50	1231.00	1253.00	1297.00	1319.00	1351.50	1372.50	1398.50	1463.50	1496.50	1547.00	1581.00	1631.50	1665.00	1731.50	1764.50	1804.00	1874.00	1944.50	2015.00	2084.50	2131.00	2177.50	2270.00	2316.00	2381.00	2422.00	2485.00	2526.50	2610.00	2652.00	2694.50	2758.00	2800.00	2872.00	2903.00	2950.50	2982.00	3013.50	3077.00	3109.00	3157.00	3190.00	3227.50	3246.00
1275.50	1274.00	1273.00	1270.50	1268.00	1266.00	1264.50	1263.00	1261.00	1258.00	1256.00	1254.00	1251.00	1249.00	1246.00	1243.00	1241.00	1238.00	1235.00	1233.00	1230.00	1227.00	1225.00	1222.00	1220.00	1217.00	1214.00	1210.50	1208.00	1206.00	1201.00	1198.50	1195.00	1192.00	1189.00	1186.50	1181.50	1179.00	1177.00	1174.00	1172.00	1167.00	1165.00	1162.00	1160.00	1158.00	1154.00	1152.00	1150.00	1148.00	1145.50	1144.00	1141.00	1139.00	1137.50	1135.00	1133.00	1131.00	1130.00	1127.50	1126.00	1124.00	1122.00	1120.50	1119.00	1118.00	1116.50	1115.00	1113.50	1112.50	1111.50	1110.00	1108.50	1108.00	1108.00	1107.00	1107.00	1106.50	1106.00	1106.00	1106.00	1105.50	1105.50	1106.00	1107.00	1107.50	1108.00	1109.00	1109.50	1111.00	1111.50	1112.00	1112.50	1114.50	1115.50	1117.00	1118.00	1119.50	1120.00	1121.50	1122.50	1123.50	1124.00	1125.00	1126.00	1127.00	1127.50	1128.50	1129.00	1130.00	1130.00	1130.00	1130.00	1129.00	1129.00	1129.00	1128.50	1128.00	1128.00	1125.50	1124.00	1122.00	1120.00	1118.50	1115.50	1114.00	1112.50	1110.00	1107.00	1105.00	1102.00	1098.50	1096.00	1093.00	1091.00	1087.50	1084.00	1079.50	1076.50	1073.50	1068.00	1065.50	1061.00	1058.00	1054.50	1051.50	1048.00	1046.00	1044.50	1042.00	1041.00	1037.00	1036.00	1033.50	1032.00	1030.50	1028.00	1026.50	1024.00	1023.00	1020.50	1019.00	1016.00	1014.50	1013.00	1011.00	1009.50	1008.00	1007.00	1005.50	1004.50	1004.00	1002.50	1001.50	1001.00	1000.00	999.50	999.00	998.00	997.50	997.00	996.00	996.00	996.00	995.50	995.00	994.50	993.50	992.50	991.00	990.00	992.00	994.00	998.00	1000.00	1002.00	1004.00	1006.00	1009.00	1010.00	1022.00	1032.50	1043.00	1062.50	1071.50	1086.00	1094.00	1107.00	1115.00	1150.00	1173.50	1196.50	1231.00	1253.00	1297.00	1319.00	1351.50	1372.50	1398.50	1463.50	1496.50	1547.00	1581.00	1631.50	1665.00	1731.50	1764.50	1804.00	1874.00	1944.50	2015.00	2084.50	2131.00	2177.50	2270.00	2316.00	2381.00	2422.00	2485.00	2526.50	2610.00	2652.00	2694.50	2758.00	2800.00	2872.00	2903.00	2950.50	2982.00	3013.50	3077.00	3109.00	3157.00	3190.00	3227.50	3246.00
1278.00	1276.50	1275.50	1273.50	1271.00	1269.25	1268.00	1266.75	1264.50	1262.00	1259.50	1257.50	1254.75	1253.00	1250.00	1247.00	1245.25	1242.50	1239.50	1237.50	1234.00	1231.00	1229.00	1226.00	1224.00	1221.00	1218.00	1214.75	1212.50	1210.50	1205.50	1203.25	1200.00	1197.50	1194.00	1191.75	1187.25	1184.75	1182.50	1179.50	1177.50	1172.50	1170.50	1167.50	1165.50	1163.50	1159.50	1157.50	1155.50	1153.50	1150.75	1149.00	1145.75	1144.00	1142.25	1140.00	1137.50	1135.50	1134.00	1131.75	1130.00	1127.75	1125.75	1124.50	1123.00	1122.00	1120.00	1118.50	1117.00	1116.00	1115.00	1113.50	1112.00	1111.50	1111.00	1110.25	1110.00	1109.25	1108.75	1108.50	1108.00	1108.00	1108.25	1108.50	1109.25	1109.75	1110.00	1111.00	1111.25	1112.50	1113.00	1113.75	1114.50	1116.50	1117.50	1118.50	1119.50	1121.00	1121.75	1123.25	1124.00	1125.00	1125.50	1126.50	1127.50	1128.50	1129.00	1130.00	1130.50	1131.00	1131.25	1131.50	1131.50	1131.00	1131.00	1131.50	1131.25	1130.75	1130.00	1127.50	1126.00	1124.50	1122.25	1121.00	1118.25	1116.75	1115.00	1111.50	1107.75	1105.25	1101.50	1098.00	1095.25	1091.50	1089.50	1085.50	1081.50	1077.00	1074.00	1070.75	1064.75	1062.00	1057.00	1054.00	1050.25	1047.75	1044.00	1042.00	1040.25	1037.50	1035.50	1031.50	1030.00	1027.25	1025.75	1024.50	1022.00	1020.50	1018.50	1017.50	1015.50	1014.25	1011.25	1009.75	1008.25	1006.50	1004.50	1002.50	1001.50	999.75	998.50	997.00	995.50	994.50	993.00	991.75	991.00	990.00	988.75	987.75	987.00	988.50	990.75	993.00	995.00	996.25	997.25	999.25	999.75	1001.50	1005.00	1011.25	1015.75	1024.50	1028.50	1032.50	1038.00	1041.50	1050.00	1059.50	1078.75	1092.50	1106.25	1132.75	1145.25	1164.50	1176.50	1196.25	1213.25	1261.00	1287.75	1314.25	1354.00	1379.50	1430.50	1456.50	1495.75	1524.75	1557.75	1629.50	1665.50	1720.00	1756.00	1810.25	1846.00	1918.00	1956.00	1998.00	2066.50	2135.25	2204.00	2272.25	2317.75	2363.50	2453.50	2495.75	2556.00	2595.00	2654.25	2693.75	2773.00	2813.00	2853.25	2913.50	2949.00	3011.00	3039.50	3082.75	3111.75	3141.00	3199.50	3229.25	3273.50	3297.50	3325.75	3341.25
1280.50	1279.00	1278.00	1276.50	1274.00	1272.50	1271.50	1270.50	1268.00	1266.00	1263.00	1261.00	1258.50	1257.00	1254.00	1251.00	1249.50	1247.00	1244.00	1242.00	1238.00	1235.00	1233.00	1230.00	1228.00	1225.00	1222.00	1219.00	1217.00	1215.00	1210.00	1208.00	1205.00	1203.00	1199.00	1197.00	1193.00	1190.50	1188.00	1185.00	1183.00	1178.00	1176.00	1173.00	1171.00	1169.00	1165.00	1163.00	1161.00	1159.00	1156.00	1154.00	1150.50	1149.00	1147.00	1145.00	1142.00	1140.00	1138.00	1136.00	1134.00	1131.50	1129.50	1128.50	1127.00	1126.00	1123.50	1122.00	1120.50	1119.50	1118.50	1117.00	1115.50	1115.00	1114.00	1113.50	1113.00	1112.00	1111.50	1111.00	1110.00	1110.50	1111.00	1111.00	1111.50	1112.00	1112.00	1113.00	1113.00	1114.00	1114.50	1115.50	1116.50	1118.50	1119.50	1120.00	1121.00	1122.50	1123.50	1125.00	1125.50	1126.50	1127.00	1128.00	1129.00	1130.00	1130.50	1131.50	1132.00	1132.00	1132.50	1133.00	1133.00	1133.00	1133.00	1134.00	1134.00	1133.50	1132.00	1129.50	1128.00	1127.00	1124.50	1123.50	1121.00	1119.50	1117.50	1113.00	1108.50	1105.50	1101.00	1097.50	1094.50	1090.00	1088.00	1083.50	1079.00	1074.50	1071.50	1068.00	1061.50	1058.50	1053.00	1050.00	1046.00	1044.00	1040.00	1038.00	1036.00	1033.00	1030.00	1026.00	1024.00	1021.00	1019.50	1018.50	1016.00	1014.50	1013.00	1012.00	1010.50	1009.50	1006.50	1005.00	1003.50	1002.00	999.50	997.00	996.00	994.00	992.50	990.00	988.50	987.50	985.00	983.50	982.50	981.00	979.50	978.00	977.00	981.00	985.50	990.00	994.50	997.50	1000.00	1005.00	1007.00	1012.00	1020.00	1030.50	1037.50	1051.00	1057.00	1063.00	1072.00	1077.00	1091.00	1109.00	1135.50	1152.50	1169.50	1203.00	1219.00	1243.00	1259.00	1285.50	1311.50	1372.00	1402.00	1432.00	1477.00	1506.00	1564.00	1594.00	1640.00	1677.00	1717.00	1795.50	1834.50	1893.00	1931.00	1989.00	2027.00	2104.50	2147.50	2192.00	2259.00	2326.00	2393.00	2460.00	2504.50	2549.50	2637.00	2675.50	2731.00	2768.00	2823.50	2861.00	2936.00	2974.00	3012.00	3069.00	3098.00	3150.00	3176.00	3215.00	3241.50	3268.50	3322.00	3349.50	3390.00	3405.00	3424.00	3436.50
1280.50	1279.00	1278.00	1276.50	1274.00	1272.50	1271.50	1270.50	1268.00	1266.00	1263.00	1261.00	1258.50	1257.00	1254.00	1251.00	1249.50	1247.00	1244.00	1242.00	1238.00	1235.00	1233.00	1230.00	1228.00	1225.00	1222.00	1219.00	1217.00	1215.00	1210.00	1208.00	1205.00	1203.00	1199.00	1197.00	1193.00	1190.50	1188.00	1185.00	1183.00	1178.00	1176.00	1173.00	1171.00	1169.00	1165.00	1163.00	1161.00	1159.00	1156.00	1154.00	1150.50	1149.00	1147.00	1145.00	1142.00	1140.00	1138.00	1136.00	1134.00	1131.50	1129.50	1128.50	1127.00	1126.00	1123.50	1122.00	1120.50	1119.50	1118.50	1117.00	1115.50	1115.00	1114.00	1113.50	1113.00	1112.00	1111.50	1111.00	1110.00	1110.50	1111.00	1111.00	1111.50	1112.00	1112.00	1113.00	1113.00	1114.00	1114.50	1115.50	1116.50	1118.50	1119.50	1120.00	1121.00	1122.50	1123.50	1125.00	1125.50	1126.50	1127.00	1128.00	1129.00	1130.00	1130.50	1131.50	1132.00	1132.00	1132.50	1133.00	1133.00	1133.00	1133.00	1134.00	1134.00	1133.50	1132.00	1129.50	1128.00	1127.00	1124.50	1123.50	1121.00	1119.50	1117.50	1113.00	1108.50	1105.50	1101.00	1097.50	1094.50	1090.00	1088.00	1083.50	1079.00	1074.50	1071.50	1068.00	1061.50	1058.50	1053.00	1050.00	1046.00	1044.00	1040.00	1038.00	1036.00	1033.00	1030.00	1026.00	1024.00	1021.00	1019.50	1018.50	1016.00	1014.50	1013.00	1012.00	1010.50	1009.50	1006.50	1005.00	1003.50	1002.00	999.50	997.00	996.00	994.00	992.50	990.00	988.50	987.50	985.00	983.50	982.50	981.00	979.50	978.00	977.00	981.00	985.50	990.00	994.50	997.50	1000.00	1005.00	1007.00	1012.00	1020.00	1030.50	1037.50	1051.00	1057.00	1063.00	1072.00	1077.00	1091.00	1109.00	1135.50	1152.50	1169.50	1203.00	1219.00	1243.00	1259.00	1285.50	1311.50	1372.00	1402.00	1432.00	1477.00	1506.00	1564.00	1594.00	1640.00	1677.00	1717.00	1795.50	1834.50	1893.00	1931.00	1989.00	2027.00	2104.50	2147.50	2192.00	2259.00	2326.00	2393.00	2460.00	2504.50	2549.50	2637.00	2675.50	2731.00	2768.00	2823.50	2861.00	2936.00	2974.00	3012.00	3069.00	3098.00	3150.00	3176.00	3215.00	3241.50	3268.50	3322.00	3349.50	3390.00	3405.00	3424.00	3436.50
1280.50	1279.00	1278.00	1276.50	1274.00	1272.50	1271.50	1270.50	1268.00	1266.00	1263.00	1261.00	1258.50	1257.00	1254.00	1251.00	1249.50	1247.00	1244.00	1242.00	1238.00	1235.00	1233.00	1230.00	1228.00	1225.00	1222.00	1219.00	1217.00	1215.00	1210.00	1208.00	1205.00	1203.00	1199.00	1197.00	1193.00	1190.50	1188.00	1185.00	1183.00	1178.00	1176.00	1173.00	1171.00	1169.00	1165.00	1163.00	1161.00	1159.00	1156.00	1154.00	1150.50	1149.00	1147.00	1145.00	1142.00	1140.00	1138.00	1136.00	1134.00	1131.50	1129.50	1128.50	1127.00	1126.00	1123.50	1122.00	1120.50	1119.50	1118.50	1117.00	1115.50	1115.00	1114.00	1113.50	1113.00	1112.00	1111.50	1111.00	1110.00	1110.50	1111.00	1111.00	1111.50	1112.00	1112.00	1113.00	1113.00	1114.00	1114.50	1115.50	1116.50	1118.50	1119.50	1120.00	1121.00	1122.50	1123.50	1125.00	1125.50	1126.50	1127.00	1128.00	1129.00	1130.00	1130.50	1131.50	1132.00	1132.00	1132.50	1133.00	1133.00	1133.00	1133.00	1134.00	1134.00	1133.50	1132.00	1129.50	1128.00	1127.00	1124.50	1123.50	1121.00	1119.50	1117.50	1113.00	1108.50	1105.50	1101.00	1097.50	1094.50	1090.00	1088.00	1083.50	1079.00	1074.50	1071.50	1068.00	1061.50	1058.50	1053.00	1050.00	1046.00	1044.00	1040.00	1038.00	1036.00	1033.00	1030.00	1026.00	1024.00	1021.00	1019.50	1018.50	1016.00	1014.50	1013.00	1012.00	1010.50	1009.50	1006.50	1005.00	1003.50	1002.00	999.50	997.00	996.00	994.00	992.50	990.00	988.50	987.50	985.00	983.50	982.50	981.00	979.50	978.00	977.00	981.00	985.50	990.00	994.50	997.50	1000.00	1005.00	1007.00	1012.00	1020.00	1030.50	1037.50	1051.00	1057.00	1063.00	1072.00	1077.00	1091.00	1109.00	1135.50	1152.50	1169.50	1203.00	1219.00	1243.00	1259.00	1285.50	1311.50	1372.00	1402.00	1432.00	1477.00	1506.00	1564.00	1594.00	1640.00	1677.00	1717.00	1795.50	1834.50	1893.00	1931.00	1989.00	2027.00	2104.50	2147.50	2192.00	2259.00	2326.00	2393.00	2460.00	2504.50	2549.50	2637.00	2675.50	2731.00	2768.00	2823.50	2861.00	2936.00	2974.00	3012.00	3069.00	3098.00	3150.00	3176.00	3215.00	3241.50	3268.50	3322.00	3349.50	3390.00	3405.00	3424.00	3436.50
1280.50	1279.00	1278.00	1276.50	1274.00	1272.50	1271.50	1270.50	1268.00	1266.00	1263.00	1261.00	1258.50	1257.00	1254.00	1251.00	1249.50	1247.00	1244.00	1242.00	1238.00	1235.00	1233.00	1230.00	1228.00	1225.00	1222.00	1219.00	1217.00	1215.00	1210.00	1208.00	1205.00	1203.00	1199.00	1197.00	1193.00	1190.50	1188.00	1185.00	1183.00	1178.00	1176.00	1173.00	1171.00	1169.00	1165.00	1163.00	1161.00	1159.00	1156.00	1154.00	1150.50	1149.00	1147.00	1145.00	1142.00	1140.00	1138.00	1136.00	1134.00	1131.50	1129.50	1128.50	1127.00	1126.00	1123.50	1122.00	1120.50	1119.50	1118.50	1117.00	1115.50	1115.00	1114.00	1113.50	1113.00	1112.00	1111.50	1111.00	1110.00	1110.50	1111.00	1111.00	1111.50	1112.00	1112.00	1113.00	1113.00	1114.00	1114.50	1115.50	1116.50	1118.50	1119.50	1120.00	1121.00	1122.50	1123.50	1125.00	1125.50	1126.50	1127.00	1128.00	1129.00	1130.00	1130.50	1131.50	1132.00	1132.00	1132.50	1133.00	1133.00	1133.00	1133.00	1134.00	1134.00	1133.50	1132.00	1129.50	1128.00	1127.00	1124.50	1123.50	1121.00	1119.50	1117.50	1113.00	1108.50	1105.50	1101.00	1097.50	1094.50	1090.00	1088.00	1083.50	1079.00	1074.50	1071.50	1068.00	1061.50	1058.50	1053.00	1050.00	1046.00	1044.00	1040.00	1038.00	1036.00	1033.00	1030.00	1026.00	1024.00	1021.00	1019.50	1018.50	1016.00	1014.50	1013.00	1012.00	1010.50	1009.50	1006.50	1005.00	1003.50	1002.00	999.50	997.00	996.00	994.00	992.50	990.00	988.50	987.50	985.00	983.50	982.50	981.00	979.50	978.00	977.00	981.00	985.50	990.00	994.50	997.50	1000.00	1005.00	1007.00	1012.00	1020.00	1030.50	1037.50	1051.00	1057.00	1063.00	1072.00	1077.00	1091.00	1109.00	1135.50	1152.50	1169.50	1203.00	1219.00	1243.00	1259.00	1285.50	1311.50	1372.00	1402.00	1432.00	1477.00	1506.00	1564.00	1594.00	1640.00	1677.00	1717.00	1795.50	1834.50	1893.00	1931.00	1989.00	2027.00	2104.50	2147.50	2192.00	2259.00	2326.00	2393.00	2460.00	2504.50	2549.50	2637.00	2675.50	2731.00	2768.00	2823.50	2861.00	2936.00	2974.00	3012.00	3069.00	3098.00	3150.00	3176.00	3215.00	3241.50	3268.50	3322.00	3349.50	3390.00	3405.00	3424.00	3436.50
1280.50	1279.00	1278.00	1276.50	1274.00	1272.50	1271.50	1270.50	1268.00	1266.00	1263.00	1261.00	1258.50	1257.00	1254.00	1251.00	1249.50	1247.00	1244.00	1242.00	1238.00	1235.00	1233.00	1230.00	1228.00	1225.00	1222.00	1219.00	1217.00	1215.00	1210.00	1208.00	1205.00	1203.00	1199.00	1197.00	1193.00	1190.50	1188.00	1185.00	1183.00	1178.00	1176.00	1173.00	1171.00	1169.00	1165.00	1163.00	1161.00	1159.00	1156.00	1154.00	1150.50	1149.00	1147.00	1145.00	1142.00	1140.00	1138.00	1136.00	1134.00	1131.50	1129.50	1128.50	1127.00	1126.00	1123.50	1122.00	1120.50	1119.50	1118.50	1117.00	1115.50	1115.00	1114.00	1113.50	1113.00	1112.00	1111.50	1111.00	1110.00	1110.50	1111.00	1111.00	1111.50	1112.00	1112.00	1113.00	1113.00	1114.00	1114.50	1115.50	1116.50	1118.50	1119.50	1120.00	1121.00	1122.50	1123.50	1125.00	1125.50	1126.50	1127.00	1128.00	1129.00	1130.00	1130.50	1131.50	1132.00	1132.00	1132.50	1133.00	1133.00	1133.00	1133.00	1134.00	1134.00	1133.50	1132.00	1129.50	1128.00	1127.00	1124.50	1123.50	1121.00	1119.50	1117.50	1113.00	1108.50	1105.50	1101.00	1097.50	1094.50	1090.00	1088.00	1083.50	1079.00	1074.50	1071.50	1068.00	1061.50	1058.50	1053.00	1050.00	1046.00	1044.00	1040.00	1038.00	1036.00	1033.00	1030.00	1026.00	1024.00	1021.00	1019.50	1018.50	1016.00	1014.50	1013.00	1012.00	1010.50	1009.50	1006.50	1005.00	1003.50	1002.00	999.50	997.00	996.00	994.00	992.50	990.00	988.50	987.50	985.00	983.50	982.50	981.00	979.50	978.00	977.00	981.00	985.50	990.00	994.50	997.50	1000.00	1005.00	1007.00	1012.00	1020.00	1030.50	1037.50	1051.00	1057.00	1063.00	1072.00	1077.00	1091.00	1109.00	1135.50	1152.50	1169.50	1203.00	1219.00	1243.00	1259.00	1285.50	1311.50	1372.00	1402.00	1432.00	1477.00	1506.00	1564.00	1594.00	1640.00	1677.00	1717.00	1795.50	1834.50	1893.00	1931.00	1989.00	2027.00	2104.50	2147.50	2192.00	2259.00	2326.00	2393.00	2460.00	2504.50	2549.50	2637.00	2675.50	2731.00	2768.00	2823.50	2861.00	2936.00	2974.00	3012.00	3069.00	3098.00	3150.00	3176.00	3215.00	3241.50	3268.50	3322.00	3349.50	3390.00	3405.00	3424.00	3436.50
1280.50	1279.00	1278.00	1276.50	1274.00	1272.50	1271.50	1270.50	1268.00	1266.00	1263.00	1261.00	1258.50	1257.00	1254.00	1251.00	1249.50	1247.00	1244.00	1242.00	1238.00	1235.00	1233.00	1230.00	1228.00	1225.00	1222.00	1219.00	1217.00	1215.00	1210.00	1208.00	1205.00	1203.00	1199.00	1197.00	1193.00	1190.50	1188.00	1185.00	1183.00	1178.00	1176.00	1173.00	1171.00	1169.00	1165.00	1163.00	1161.00	1159.00	1156.00	1154.00	1150.50	1149.00	1147.00	1145.00	1142.00	1140.00	1138.00	1136.00	1134.00	1131.50	1129.50	1128.50	1127.00	1126.00	1123.50	1122.00	1120.50	1119.50	1118.50	1117.00	1115.50	1115.00	1114.00	1113.50	1113.00	1112.00	1111.50	1111.00	1110.00	1110.50	1111.00	1111.00	1111.50	1112.00	1112.00	1113.00	1113.00	1114.00	1114.50	1115.50	1116.50	1118.50	1119.50	1120.00	1121.00	1122.50	1123.50	1125.00	1125.50	1126.50	1127.00	1128.00	1129.00	1130.00	1130.50	1131.50	1132.00	1132.00	1132.50	1133.00	1133.00	1133.00	1133.00	1134.00	1134.00	1133.50	1132.00	1129.50	1128.00	1127.00	1124.50	1123.50	1121.00	1119.50	1117.50	1113.00	1108.50	1105.50	1101.00	1097.50	1094.50	1090.00	1088.00	1083.50	1079.00	1074.50	1071.50	1068.00	1061.50	1058.50	1053.00	1050.00	1046.00	1044.00	1040.00	1038.00	1036.00	1033.00	1030.00	1026.00	1024.00	1021.00	1019.50	1018.50	1016.00	1014.50	1013.00	1012.00	1010.50	1009.50	1006.50	1005.00	1003.50	1002.00	999.50	997.00	996.00	994.00	992.50	990.00	988.50	987.50	985.00	983.50	982.50	981.00	979.50	978.00	977.00	981.00	985.50	990.00	994.50	997.50	1000.00	1005.00	1007.00	1012.00	1020.00	1030.50	1037.50	1051.00	1057.00	1063.00	1072.00	1077.00	1091.00	1109.00	1135.50	1152.50	1169.50	1203.00	1219.00	1243.00	1259.00	1285.50	1311.50	1372.00	1402.00	1432.00	1477.00	1506.00	1564.00	1594.00	1640.00	1677.00	1717.00	1795.50	1834.50	1893.00	1931.00	1989.00	2027.00	2104.50	2147.50	2192.00	2259.00	2326.00	2393.00	2460.00	2504.50	2549.50	2637.00	2675.50	2731.00	2768.00	2823.50	2861.00	2936.00	2974.00	3012.00	3069.00	3098.00	3150.00	3176.00	3215.00	3241.50	3268.50	3322.00	3349.50	3390.00	3405.00	3424.00	3436.50
1280.50	1279.00	1278.00	1276.50	1274.00	1272.50	1271.50	1270.50	1268.00	1266.00	1263.00	1261.00	1258.50	1257.00	1254.00	1251.00	1249.50	1247.00	1244.00	1242.00	1238.00	1235.00	1233.00	1230.00	1228.00	1225.00	1222.00	1219.00	1217.00	1215.00	1210.00	1208.00	1205.00	1203.00	1199.00	1197.00	1193.00	1190.50	1188.00	1185.00	1183.00	1178.00	1176.00	1173.00	1171.00	1169.00	1165.00	1163.00	1161.00	1159.00	1156.00	1154.00	1150.50	1149.00	1147.00	1145.00	1142.00	1140.00	1138.00	1136.00	1134.00	1131.50	1129.50	1128.50	1127.00	1126.00	1123.50	1122.00	1120.50	1119.50	1118.50	1117.00	1115.50	1115.00	1114.00	1113.50	1113.00	1112.00	1111.50	1111.00	1110.00	1110.50	1111.00	1111.00	1111.50	1112.00	1112.00	1113.00	1113.00	1114.00	1114.50	1115.50	1116.50	1118.50	1119.50	1120.00	1121.00	1122.50	1123.50	1125.00	1125.50	1126.50	1127.00	1128.00	1129.00	1130.00	1130.50	1131.50	1132.00	1132.00	1132.50	1133.00	1133.00	1133.00	1133.00	1134.00	1134.00	1133.50	1132.00	1129.50	1128.00	1127.00	1124.50	1123.50	1121.00	1119.50	1117.50	1113.00	1108.50	1105.50	1101.00	1097.50	1094.50	1090.00	1088.00	1083.50	1079.00	1074.50	1071.50	1068.00	1061.50	1058.50	1053.00	1050.00	1046.00	1044.00	1040.00	1038.00	1036.00	1033.00	1030.00	1026.00	1024.00	1021.00	1019.50	1018.50	1016.00	1014.50	1013.00	1012.00	1010.50	1009.50	1006.50	1005.00	1003.50	1002.00	999.50	997.00	996.00	994.00	992.50	990.00	988.50	987.50	985.00	983.50	982.50	981.00	979.50	978.00	977.00	981.00	985.50	990.00	994.50	997.50	1000.00	1005.00	1007.00	1012.00	1020.00	1030.50	1037.50	1051.00	1057.00	1063.00	1072.00	1077.00	1091.00	1109.00	1135.50	1152.50	1169.50	1203.00	1219.00	1243.00	1259.00	1285.50	1311.50	1372.00	1402.00	1432.00	1477.00	1506.00	1564.00	1594.00	1640.00	1677.00	1717.00	1795.50	1834.50	1893.00	1931.00	1989.00	2027.00	2104.50	2147.50	2192.00	2259.00	2326.00	2393.00	2460.00	2504.50	2549.50	2637.00	2675.50	2731.00	2768.00	2823.50	2861.00	2936.00	2974.00	3012.00	3069.00	3098.00	3150.00	3176.00	3215.00	3241.50	3268.50	3322.00	3349.50	3390.00	3405.00	3424.00	3436.50
1286.00	1284.00	1283.00	1281.00	1278.50	1277.00	1276.00	1274.75	1272.50	1270.75	1268.00	1266.50	1264.25	1262.75	1260.25	1257.50	1255.75	1253.00	1249.50	1247.50	1244.00	1240.50	1238.50	1235.50	1233.00	1230.00	1227.00	1224.00	1222.00	1220.00	1215.50	1213.50	1210.50	1208.50	1204.75	1202.50	1198.00	1195.50	1193.00	1190.00	1187.50	1183.00	1180.50	1177.50	1175.50	1173.50	1169.50	1167.50	1165.00	1163.00	1160.50	1158.50	1154.75	1153.00	1151.25	1149.00	1146.00	1144.00	1142.00	1139.50	1137.75	1135.50	1133.50	1132.25	1130.50	1129.50	1127.50	1125.50	1124.00	1123.00	1122.00	1120.50	1119.25	1118.50	1117.50	1117.00	1116.25	1115.25	1114.50	1114.00	1113.50	1113.75	1114.00	1114.00	1114.25	1114.50	1114.50	1115.00	1115.25	1116.00	1116.75	1117.50	1118.50	1120.00	1121.00	1121.50	1122.50	1124.00	1124.75	1126.25	1126.75	1127.50	1128.50	1129.50	1130.50	1131.50	1132.00	1132.75	1133.00	1133.50	1133.75	1134.00	1134.00	1134.50	1134.50	1135.00	1134.75	1134.00	1132.50	1130.50	1129.00	1128.00	1126.25	1125.50	1122.75	1120.25	1117.25	1112.50	1107.25	1103.75	1099.00	1094.25	1090.75	1086.00	1083.50	1079.25	1075.00	1070.50	1067.75	1064.75	1058.50	1055.50	1050.50	1048.00	1045.00	1043.25	1039.75	1038.00	1036.00	1033.50	1031.00	1027.00	1025.00	1022.50	1021.00	1019.75	1017.25	1015.75	1014.00	1012.50	1011.00	1010.50	1010.50	1010.50	1010.50	1011.00	1010.50	1010.00	1010.00	1009.25	1009.25	1009.00	1009.25	1009.50	1008.50	1008.50	1008.25	1007.50	1006.75	1007.50	1011.50	1016.50	1023.25	1030.00	1036.00	1040.25	1044.25	1051.25	1056.75	1069.00	1079.00	1093.75	1103.50	1122.50	1131.50	1140.25	1153.50	1161.50	1192.00	1212.50	1243.00	1263.00	1283.00	1322.50	1341.75	1370.50	1390.00	1431.25	1463.00	1530.50	1564.25	1597.75	1648.00	1681.00	1746.00	1779.50	1834.50	1874.00	1915.00	1996.75	2037.00	2097.50	2137.50	2197.50	2237.25	2314.25	2354.75	2396.25	2458.50	2521.25	2584.00	2647.25	2689.25	2731.25	2809.00	2844.50	2897.00	2932.00	2984.50	3020.00	3091.00	3127.00	3161.50	3206.50	3230.50	3275.50	3298.50	3332.50	3356.00	3379.75	3427.25	3450.00	3478.00	3489.00	3504.50	3514.75
1291.50	1289.00	1288.00	1285.50	1283.00	1281.50	1280.50	1279.00	1277.00	1275.50	1273.00	1272.00	1270.00	1268.50	1266.50	1264.00	1262.00	1259.00	1255.00	1253.00	1250.00	1246.00	1244.00	1241.00	1238.00	1235.00	1232.00	1229.00	1227.00	1225.00	1221.00	1219.00	1216.00	1214.00	1210.50	1208.00	1203.00	1200.50	1198.00	1195.00	1192.00	1188.00	1185.00	1182.00	1180.00	1178.00	1174.00	1172.00	1169.00	1167.00	1165.00	1163.00	1159.00	1157.00	1155.50	1153.00	1150.00	1148.00	1146.00	1143.00	1141.50	1139.50	1137.50	1136.00	1134.00	1133.00	1131.50	1129.00	1127.50	1126.50	1125.50	1124.00	1123.00	1122.00	1121.00	1120.50	1119.50	1118.50	1117.50	1117.00	1117.00	1117.00	1117.00	1117.00	1117.00	1117.00	1117.00	1117.00	1117.50	1118.00	1119.00	1119.50	1120.50	1121.50	1122.50	1123.00	1124.00	1125.50	1126.00	1127.50	1128.00	1128.50	1130.00	1131.00	1132.00	1133.00	1133.50	1134.00	1134.00	1135.00	1135.00	1135.00	1135.00	1136.00	1136.00	1136.00	1135.50	1134.50	1133.00	1131.50	1130.00	1129.00	1128.00	1127.50	1124.50	1121.00	1117.00	1112.00	1106.00	1102.00	1097.00	1091.00	1087.00	1082.00	1079.00	1075.00	1071.00	1066.50	1064.00	1061.50	1055.50	1052.50	1048.00	1046.00	1044.00	1042.50	1039.50	1038.00	1036.00	1034.00	1032.00	1028.00	1026.00	1024.00	1022.50	1021.00	1018.50	1017.00	1015.00	1013.00	1011.50	1011.50	1014.50	1016.00	1017.50	1020.00	1021.50	1023.00	1024.00	1024.50	1026.00	1028.00	1030.00	1031.50	1032.00	1033.50	1034.00	1034.00	1034.00	1037.00	1046.00	1052.00	1061.00	1070.00	1077.50	1083.00	1088.50	1097.50	1106.50	1126.00	1138.00	1157.00	1169.50	1194.00	1206.00	1217.50	1235.00	1246.00	1293.00	1316.00	1350.50	1373.50	1396.50	1442.00	1464.50	1498.00	1521.00	1577.00	1614.50	1689.00	1726.50	1763.50	1819.00	1856.00	1928.00	1965.00	2029.00	2071.00	2113.00	2198.00	2239.50	2302.00	2344.00	2406.00	2447.50	2524.00	2562.00	2600.50	2658.00	2716.50	2775.00	2834.50	2874.00	2913.00	2981.00	3013.50	3063.00	3096.00	3145.50	3179.00	3246.00	3280.00	3311.00	3344.00	3363.00	3401.00	3421.00	3450.00	3470.50	3491.00	3532.50	3550.50	3566.00	3573.00	3585.00	3593.00
1291.50	1289.00	1288.00	1285.50	1283.00	1281.50	1280.50	1279.00	1277.00	1275.50	1273.00	1272.00	1270.00	1268.50	1266.50	1264.00	1262.00	1259.00	1255.00	1253.00	1250.00	1246.00	1244.00	1241.00	1238.00	1235.00	1232.00	1229.00	1227.00	1225.00	1221.00	1219.00	1216.00	1214.00	1210.50	1208.00	1203.00	1200.50	1198.00	1195.00	1192.00	1188.00	1185.00	1182.00	1180.00	1178.00	1174.00	1172.00	1169.00	1167.00	1165.00	1163.00	1159.00	1157.00	1155.50	1153.00	1150.00	1148.00	1146.00	1143.00	1141.50	1139.50	1137.50	1136.00	1134.00	1133.00	1131.50	1129.00	1127.50	1126.50	1125.50	1124.00	1123.00	1122.00	1121.00	1120.50	1119.50	1118.50	1117.50	1117.00	1117.00	1117.00	1117.00	1117.00	1117.00	1117.00	1117.00	1117.00	1117.50	1118.00	1119.00	1119.50	1120.50	1121.50	1122.50	1123.00	1124.00	1125.50	1126.00	1127.50	1128.00	1128.50	1130.00	1131.00	1132.00	1133.00	1133.50	1134.00	1134.00	1135.00	1135.00	1135.00	1135.00	1136.00	1136.00	1136.00	1135.50	1134.50	1133.00	1131.50	1130.00	1129.00	1128.00	1127.50	1124.50	1121.00	1117.00	1112.00	1106.00	1102.00	1097.00	1091.00	1087.00	1082.00	1079.00	1075.00	1071.00	1066.50	1064.00	1061.50	1055.50	1052.50	1048.00	1046.00	1044.00	1042.50	1039.50	1038.00	1036.00	1034.00	1032.00	1028.00	1026.00	1024.00	1022.50	1021.00	1018.50	1017.00	1015.00	1013.00	1011.50	1011.50	1014.50	1016.00	1017.50	1020.00	1021.50	1023.00	1024.00	1024.50	1026.00	1028.00	1030.00	1031.50	1032.00	1033.50	1034.00	1034.00	1034.00	1037.00	1046.00	1052.00	1061.00	1070.00	1077.50	1083.00	1088.50	1097.50	1106.50	1126.00	1138.00	1157.00	1169.50	1194.00	1206.00	1217.50	1235.00	1246.00	1293.00	1316.00	1350.50	1373.50	1396.50	1442.00	1464.50	1498.00	1521.00	1577.00	1614.50	1689.00	1726.50	1763.50	1819.00	1856.00	1928.00	1965.00	2029.00	2071.00	2113.00	2198.00	2239.50	2302.00	2344.00	2406.00	2447.50	2524.00	2562.00	2600.50	2658.00	2716.50	2775.00	2834.50	2874.00	2913.00	2981.00	3013.50	3063.00	3096.00	3145.50	3179.00	3246.00	3280.00	3311.00	3344.00	3363.00	3401.00	3421.00	3450.00	3470.50	3491.00	3532.50	3550.50	3566.00	3573.00	3585.00	3593.00
1291.50	1289.00	1288.00	1285.50	1283.00	1281.50	1280.50	1279.00	1277.00	1275.50	1273.00	1272.00	1270.00	1268.50	1266.50	1264.00	1262.00	1259.00	1255.00	1253.00	1250.00	1246.00	1244.00	1241.00	1238.00	1235.00	1232.00	1229.00	1227.00	1225.00	1221.00	1219.00	1216.00	1214.00	1210.50	1208.00	1203.00	1200.50	1198.00	1195.00	1192.00	1188.00	1185.00	1182.00	1180.00	1178.00	1174.00	1172.00	1169.00	1167.00	1165.00	1163.00	1159.00	1157.00	1155.50	1153.00	1150.00	1148.00	1146.00	1143.00	1141.50	1139.50	1137.50	1136.00	1134.00	1133.00	1131.50	1129.00	1127.50	1126.50	1125.50	1124.00	1123.00	1122.00	1121.00	1120.50	1119.50	1118.50	1117.50	1117.00	1117.00	1117.00	1117.00	1117.00	1117.00	1117.00	1117.00	1117.00	1117.50	1118.00	1119.00	1119.50	1120.50	1121.50	1122.50	1123.00	1124.00	1125.50	1126.00	1127.50	1128.00	1128.50	1130.00	1131.00	1132.00	1133.00	1133.50	1134.00	1134.00	1135.00	1135.00	1135.00	1135.00	1136.00	1136.00	1136.00	1135.50	1134.50	1133.00	1131.50	1130.00	1129.00	1128.00	1127.50	1124.50	1121.00	1117.00	1112.00	1106.00	1102.00	1097.00	1091.00	1087.00	1082.00	1079.00	1075.00	1071.00	1066.50	1064.00	1061.50	1055.50	1052.50	1048.00	1046.00	1044.00	1042.50	1039.50	1038.00	1036.00	1034.00	1032.00	1028.00	1026.00	1024.00	1022.50	1021.00	1018.50	1017.00	1015.00	1013.00	1011.50	1011.50	1014.50	1016.00	1017.50	1020.00	1021.50	1023.00	1024.00	1024.50	1026.00	1028.00	1030.00	1031.50	1032.00	1033.50	1034.00	1034.00	1034.00	1037.00	1046.00	1052.00	1061.00	1070.00	1077.50	1083.00	1088.50	1097.50	1106.50	1126.00	1138.00	1157.00	1169.50	1194.00	1206.00	1217.50	1235.00	1246.00	1293.00	1316.00	1350.50	1373.50	1396.50	1442.00	1464.50	1498.00	1521.00	1577.00	1614.50	1689.00	1726.50	1763.50	1819.00	1856.00	1928.00	1965.00	2029.00	2071.00	2113.00	2198.00	2239.50	2302.00	2344.00	2406.00	2447.50	2524.00	2562.00	2600.50	2658.00	2716.50	2775.00	2834.50	2874.00	2913.00	2981.00	3013.50	3063.00	3096.00	3145.50	3179.00	3246.00	3280.00	3311.00	3344.00	3363.00	3401.00	3421.00	3450.00	3470.50	3491.00	3532.50	3550.50	3566.00	3573.00	3585.00	3593.00
1291.50	1289.00	1288.00	1285.50	1283.00	1281.50	1280.50	1279.00	1277.00	1275.50	1273.00	1272.00	1270.00	1268.50	1266.50	1264.00	1262.00	1259.00	1255.00	1253.00	1250.00	1246.00	1244.00	1241.00	1238.00	1235.00	1232.00	1229.00	1227.00	1225.00	1221.00	1219.00	1216.00	1214.00	1210.50	1208.00	1203.00	1200.50	1198.00	1195.00	1192.00	1188.00	1185.00	1182.00	1180.00	1178.00	1174.00	1172.00	1169.00	1167.00	1165.00	1163.00	1159.00	1157.00	1155.50	1153.00	1150.00	1148.00	1146.00	1143.00	1141.50	1139.50	1137.50	1136.00	1134.00	1133.00	1131.50	1129.00	1127.50	1126.50	1125.50	1124.00	1123.00	1122.00	1121.00	1120.50	1119.50	1118.50	1117.50	1117.00	1117.00	1117.00	1117.00	1117.00	1117.00	1117.00	1117.00	1117.00	1117.50	1118.00	1119.00	1119.50	1120.50	1121.50	1122.50	1123.00	1124.00	1125.50	1126.00	1127.50	1128.00	1128.50	1130.00	1131.00	1132.00	1133.00	1133.50	1134.00	1134.00	1135.00	1135.00	1135.00	1135.00	1136.00	1136.00	1136.00	1135.50	1134.50	1133.00	1131.50	1130.00	1129.00	1128.00	1127.50	1124.50	1121.00	1117.00	1112.00	1106.00	1102.00	1097.00	1091.00	1087.00	1082.00	1079.00	1075.00	1071.00	1066.50	1064.00	1061.50	1055.50	1052.50	1048.00	1046.00	1044.00	1042.50	1039.50	1038.00	1036.00	1034.00	1032.00	1028.00	1026.00	1024.00	1022.50	1021.00	1018.50	1017.00	1015.00	1013.00	1011.50	1011.50	1014.50	1016.00	1017.50	1020.00	1021.50	1023.00	1024.00	1024.50	1026.00	1028.00	1030.00	1031.50	1032.00	1033.50	1034.00	1034.00	1034.00	1037.00	1046.00	1052.00	1061.00	1070.00	1077.50	1083.00	1088.50	1097.50	1106.50	1126.00	1138.00	1157.00	1169.50	1194.00	1206.00	1217.50	1235.00	1246.00	1293.00	1316.00	1350.50	1373.50	1396.50	1442.00	1464.50	1498.00	1521.00	1577.00	1614.50	1689.00	1726.50	1763.50	1819.00	1856.00	1928.00	1965.00	2029.00	2071.00	2113.00	2198.00	2239.50	2302.00	2344.00	2406.00	2447.50	2524.00	2562.00	2600.50	2658.00	2716.50	2775.00	2834.50	2874.00	2913.00	2981.00	3013.50	3063.00	3096.00	3145.50	3179.00	3246.00	3280.00	3311.00	3344.00	3363.00	3401.00	3421.00	3450.00	3470.50	3491.00	3532.50	3550.50	3566.00	3573.00	3585.00	3593.00
1291.50	1289.00	1288.00	1285.50	1283.00	1281.50	1280.50	1279.00	1277.00	1275.50	1273.00	1272.00	1270.00	1268.50	1266.50	1264.00	1262.00	1259.00	1255.00	1253.00	1250.00	1246.00	1244.00	1241.00	1238.00	1235.00	1232.00	1229.00	1227.00	1225.00	1221.00	1219.00	1216.00	1214.00	1210.50	1208.00	1203.00	1200.50	1198.00	1195.00	1192.00	1188.00	1185.00	1182.00	1180.00	1178.00	1174.00	1172.00	1169.00	1167.00	1165.00	1163.00	1159.00	1157.00	1155.50	1153.00	1150.00	1148.00	1146.00	1143.00	1141.50	1139.50	1137.50	1136.00	1134.00	1133.00	1131.50	1129.00	1127.50	1126.50	1125.50	1124.00	1123.00	1122.00	1121.00	1120.50	1119.50	1118.50	1117.50	1117.00	1117.00	1117.00	1117.00	1117.00	1117.00	1117.00	1117.00	1117.00	1117.50	1118.00	1119.00	1119.50	1120.50	1121.50	1122.50	1123.00	1124.00	1125.50	1126.00	1127.50	1128.00	1128.50	1130.00	1131.00	1132.00	1133.00	1133.50	1134.00	1134.00	1135.00	1135.00	1135.00	1135.00	1136.00	1136.00	1136.00	1135.50	1134.50	1133.00	1131.50	1130.00	1129.00	1128.00	1127.50	1124.50	1121.00	1117.00	1112.00	1106.00	1102.00	1097.00	1091.00	1087.00	1082.00	1079.00	1075.00	1071.00	1066.50	1064.00	1061.50	1055.50	1052.50	1048.00	1046.00	1044.00	1042.50	1039.50	1038.00	1036.00	1034.00	1032.00	1028.00	1026.00	1024.00	1022.50	1021.00	1018.50	1017.00	1015.00	1013.00	1011.50	1011.50	1014.50	1016.00	1017.50	1020.00	1021.50	1023.00	1024.00	1024.50	1026.00	1028.00	1030.00	1031.50	1032.00	1033.50	1034.00	1034.00	1034.00	1037.00	1046.00	1052.00	1061.00	1070.00	1077.50	1083.00	1088.50	1097.50	1106.50	1126.00	1138.00	1157.00	1169.50	1194.00	1206.00	1217.50	1235.00	1246.00	1293.00	1316.00	1350.50	1373.50	1396.50	1442.00	1464.50	1498.00	1521.00	1577.00	1614.50	1689.00	1726.50	1763.50	1819.00	1856.00	1928.00	1965.00	2029.00	2071.00	2113.00	2198.00	2239.50	2302.00	2344.00	2406.00	2447.50	2524.00	2562.00	2600.50	2658.00	2716.50	2775.00	2834.50	2874.00	2913.00	2981.00	3013.50	3063.00	3096.00	3145.50	3179.00	3246.00	3280.00	3311.00	3344.00	3363.00	3401.00	3421.00	3450.00	3470.50	3491.00	3532.50	3550.50	3566.00	3573.00	3585.00	3593.00
1291.50	1289.00	1288.00	1285.50	1283.00	1281.50	1280.50	1279.00	1277.00	1275.50	1273.00	1272.00	1270.00	1268.50	1266.50	1264.00	1262.00	1259.00	1255.00	1253.00	1250.00	1246.00	1244.00	1241.00	1238.00	1235.00	1232.00	1229.00	1227.00	1225.00	1221.00	1219.00	1216.00	1214.00	1210.50	1208.00	1203.00	1200.50	1198.00	1195.00	1192.00	1188.00	1185.00	1182.00	1180.00	1178.00	1174.00	1172.00	1169.00	1167.00	1165.00	1163.00	1159.00	1157.00	1155.50	1153.00	1150.00	1148.00	1146.00	1143.00	1141.50	1139.50	1137.50	1136.00	1134.00	1133.00	1131.50	1129.00	1127.50	1126.50	1125.50	1124.00	1123.00	1122.00	1121.00	1120.50	1119.50	1118.50	1117.50	1117.00	1117.00	1117.00	1117.00	1117.00	1117.00	1117.00	1117.00	1117.00	1117.50	1118.00	1119.00	1119.50	1120.50	1121.50	1122.50	1123.00	1124.00	1125.50	1126.00	1127.50	1128.00	1128.50	1130.00	1131.00	1132.00	1133.00	1133.50	1134.00	1134.00	1135.00	1135.00	1135.00	1135.00	1136.00	1136.00	1136.00	1135.50	1134.50	1133.00	1131.50	1130.00	1129.00	1128.00	1127.50	1124.50	1121.00	1117.00	1112.00	1106.00	1102.00	1097.00	1091.00	1087.00	1082.00	1079.00	1075.00	1071.00	1066.50	1064.00	1061.50	1055.50	1052.50	1048.00	1046.00	1044.00	1042.50	1039.50	1038.00	1036.00	1034.00	1032.00	1028.00	1026.00	1024.00	1022.50	1021.00	1018.50	1017.00	1015.00	1013.00	1011.50	1011.50	1014.50	1016.00	1017.50	1020.00	1021.50	1023.00	1024.00	1024.50	1026.00	1028.00	1030.00	1031.50	1032.00	1033.50	1034.00	1034.00	1034.00	1037.00	1046.00	1052.00	1061.00	1070.00	1077.50	1083.00	1088.50	1097.50	1106.50	1126.00	1138.00	1157.00	1169.50	1194.00	1206.00	1217.50	1235.00	1246.00	1293.00	1316.00	1350.50	1373.50	1396.50	1442.00	1464.50	1498.00	1521.00	1577.00	1614.50	1689.00	1726.50	1763.50	1819.00	1856.00	1928.00	1965.00	2029.00	2071.00	2113.00	2198.00	2239.50	2302.00	2344.00	2406.00	2447.50	2524.00	2562.00	2600.50	2658.00	2716.50	2775.00	2834.50	2874.00	2913.00	2981.00	3013.50	3063.00	3096.00	3145.50	3179.00	3246.00	3280.00	3311.00	3344.00	3363.00	3401.00	3421.00	3450.00	3470.50	3491.00	3532.50	3550.50	3566.00	3573.00	3585.00	3593.00
1291.50	1289.00	1288.00	1285.50	1283.00	1281.50	1280.50	1279.00	1277.00	1275.50	1273.00	1272.00	1270.00	1268.50	1266.50	1264.00	1262.00	1259.00	1255.00	1253.00	1250.00	1246.00	1244.00	1241.00	1238.00	1235.00	1232.00	1229.00	1227.00	1225.00	1221.00	1219.00	1216.00	1214.00	1210.50	1208.00	1203.00	1200.50	1198.00	1195.00	1192.00	1188.00	1185.00	1182.00	1180.00	1178.00	1174.00	1172.00	1169.00	1167.00	1165.00	1163.00	1159.00	1157.00	1155.50	1153.00	1150.00	1148.00	1146.00	1143.00	1141.50	1139.50	1137.50	1136.00	1134.00	1133.00	1131.50	1129.00	1127.50	1126.50	1125.50	1124.00	1123.00	1122.00	1121.00	1120.50	1119.50	1118.50	1117.50	1117.00	1117.00	1117.00	1117.00	1117.00	1117.00	1117.00	1117.00	1117.00	1117.50	1118.00	1119.00	1119.50	1120.50	1121.50	1122.50	1123.00	1124.00	1125.50	1126.00	1127.50	1128.00	1128.50	1130.00	1131.00	1132.00	1133.00	1133.50	1134.00	1134.00	1135.00	1135.00	1135.00	1135.00	1136.00	1136.00	1136.00	1135.50	1134.50	1133.00	1131.50	1130.00	1129.00	1128.00	1127.50	1124.50	1121.00	1117.00	1112.00	1106.00	1102.00	1097.00	1091.00	1087.00	1082.00	1079.00	1075.00	1071.00	1066.50	1064.00	1061.50	1055.50	1052.50	1048.00	1046.00	1044.00	1042.50	1039.50	1038.00	1036.00	1034.00	1032.00	1028.00	1026.00	1024.00	1022.50	1021.00	1018.50	1017.00	1015.00	1013.00	1011.50	1011.50	1014.50	1016.00	1017.50	1020.00	1021.50	1023.00	1024.00	1024.50	1026.00	1028.00	1030.00	1031.50	1032.00	1033.50	1034.00	1034.00	1034.00	1037.00	1046.00	1052.00	1061.00	1070.00	1077.50	1083.00	1088.50	1097.50	1106.50	1126.00	1138.00	1157.00	1169.50	1194.00	1206.00	1217.50	1235.00	1246.00	1293.00	1316.00	1350.50	1373.50	1396.50	1442.00	1464.50	1498.00	1521.00	1577.00	1614.50	1689.00	1726.50	1763.50	1819.00	1856.00	1928.00	1965.00	2029.00	2071.00	2113.00	2198.00	2239.50	2302.00	2344.00	2406.00	2447.50	2524.00	2562.00	2600.50	2658.00	2716.50	2775.00	2834.50	2874.00	2913.00	2981.00	3013.50	3063.00	3096.00	3145.50	3179.00	3246.00	3280.00	3311.00	3344.00	3363.00	3401.00	3421.00	3450.00	3470.50	3491.00	3532.50	3550.50	3566.00	3573.00	3585.00	3593.00
1291.50	1289.00	1288.00	1285.50	1283.00	1281.50	1280.50	1279.00	1277.00	1275.50	1273.00	1272.00	1270.00	1268.50	1266.50	1264.00	1262.00	1259.00	1255.00	1253.00	1250.00	1246.00	1244.00	1241.00	1238.00	1235.00	1232.00	1229.00	1227.00	1225.00	1221.00	1219.00	1216.00	1214.00	1210.50	1208.00	1203.00	1200.50	1198.00	1195.00	1192.00	1188.00	1185.00	1182.00	1180.00	1178.00	1174.00	1172.00	1169.00	1167.00	1165.00	1163.00	1159.00	1157.00	1155.50	1153.00	1150.00	1148.00	1146.00	1143.00	1141.50	1139.50	1137.50	1136.00	1134.00	1133.00	1131.50	1129.00	1127.50	1126.50	1125.50	1124.00	1123.00	1122.00	1121.00	1120.50	1119.50	1118.50	1117.50	1117.00	1117.00	1117.00	1117.00	1117.00	1117.00	1117.00	1117.00	1117.00	1117.50	1118.00	1119.00	1119.50	1120.50	1121.50	1122.50	1123.00	1124.00	1125.50	1126.00	1127.50	1128.00	1128.50	1130.00	1131.00	1132.00	1133.00	1133.50	1134.00	1134.00	1135.00	1135.00	1135.00	1135.00	1136.00	1136.00	1136.00	1135.50	1134.50	1133.00	1131.50	1130.00	1129.00	1128.00	1127.50	1124.50	1121.00	1117.00	1112.00	1106.00	1102.00	1097.00	1091.00	1087.00	1082.00	1079.00	1075.00	1071.00	1066.50	1064.00	1061.50	1055.50	1052.50	1048.00	1046.00	1044.00	1042.50	1039.50	1038.00	1036.00	1034.00	1032.00	1028.00	1026.00	1024.00	1022.50	1021.00	1018.50	1017.00	1015.00	1013.00	1011.50	1011.50	1014.50	1016.00	1017.50	1020.00	1021.50	1023.00	1024.00	1024.50	1026.00	1028.00	1030.00	1031.50	1032.00	1033.50	1034.00	1034.00	1034.00	1037.00	1046.00	1052.00	1061.00	1070.00	1077.50	1083.00	1088.50	1097.50	1106.50	1126.00	1138.00	1157.00	1169.50	1194.00	1206.00	1217.50	1235.00	1246.00	1293.00	1316.00	1350.50	1373.50	1396.50	1442.00	1464.50	1498.00	1521.00	1577.00	1614.50	1689.00	1726.50	1763.50	1819.00	1856.00	1928.00	1965.00	2029.00	2071.00	2113.00	2198.00	2239.50	2302.00	2344.00	2406.00	2447.50	2524.00	2562.00	2600.50	2658.00	2716.50	2775.00	2834.50	2874.00	2913.00	2981.00	3013.50	3063.00	3096.00	3145.50	3179.00	3246.00	3280.00	3311.00	3344.00	3363.00	3401.00	3421.00	3450.00	3470.50	3491.00	3532.50	3550.50	3566.00	3573.00	3585.00	3593.00
1312.00	1310.00	1308.00	1306.50	1304.00	1302.00	1300.00	1298.50	1296.00	1294.00	1291.00	1290.00	1287.50	1286.00	1283.00	1280.00	1278.00	1274.00	1271.00	1269.00	1266.00	1262.00	1260.00	1256.00	1254.00	1250.00	1246.00	1243.00	1240.50	1238.00	1233.50	1231.00	1228.00	1225.00	1220.50	1217.50	1212.50	1209.50	1206.50	1203.00	1200.00	1195.00	1193.00	1189.00	1187.00	1185.00	1180.00	1178.00	1175.00	1172.00	1169.00	1167.50	1164.00	1162.50	1161.00	1158.00	1156.00	1153.00	1152.00	1149.50	1148.00	1146.00	1144.50	1143.50	1142.00	1141.00	1138.50	1137.00	1135.50	1134.50	1133.50	1133.00	1131.50	1130.00	1129.00	1128.50	1127.50	1126.00	1125.50	1125.00	1125.00	1124.50	1124.00	1124.00	1123.50	1123.00	1123.00	1123.00	1123.00	1124.00	1124.00	1124.50	1125.00	1126.00	1126.00	1127.00	1127.00	1128.00	1128.50	1130.00	1130.50	1131.00	1132.00	1132.00	1134.00	1134.00	1134.50	1135.00	1135.00	1136.00	1136.00	1137.00	1137.00	1137.00	1137.00	1136.50	1135.50	1134.50	1134.00	1132.50	1131.00	1131.00	1129.50	1128.00	1122.50	1119.50	1116.50	1112.00	1107.00	1103.50	1099.00	1093.50	1090.50	1088.00	1086.00	1083.50	1081.00	1078.00	1076.00	1074.00	1071.00	1069.50	1069.00	1069.00	1068.00	1067.50	1065.50	1064.50	1064.00	1063.00	1062.00	1069.00	1073.00	1078.50	1082.00	1085.50	1091.50	1094.50	1098.00	1101.00	1108.00	1114.00	1124.50	1129.50	1134.50	1142.00	1149.00	1155.00	1159.00	1165.50	1170.00	1177.00	1183.00	1187.00	1192.00	1197.50	1201.00	1206.00	1218.00	1227.50	1241.00	1250.00	1263.50	1276.00	1289.00	1297.50	1306.00	1332.00	1347.50	1371.00	1387.00	1411.00	1426.50	1457.50	1473.00	1488.50	1519.00	1545.00	1597.00	1624.00	1663.00	1689.00	1715.50	1768.50	1795.00	1843.00	1881.00	1937.00	1975.00	2050.00	2088.00	2125.50	2182.00	2219.00	2294.00	2332.00	2389.00	2427.00	2465.50	2542.50	2581.50	2640.00	2679.00	2736.50	2771.00	2839.00	2873.00	2907.50	2960.00	3012.50	3065.00	3117.50	3148.50	3175.00	3227.50	3254.50	3295.00	3323.00	3365.00	3393.00	3451.00	3473.50	3488.00	3510.00	3525.00	3555.00	3570.00	3593.50	3608.50	3624.00	3651.00	3657.00	3666.00	3673.00	3682.00	3688.00
1312.00	1310.00	1308.00	1306.50	1304.00	1302.00	1300.00	1298.50	1296.00	1294.00	1291.00	1290.00	1287.50	1286.00	1283.00	1280.00	1278.00	1274.00	1271.00	1269.00	1266.00	1262.00	1260.00	1256.00	1254.00	1250.00	1246.00	1243.00	1240.50	1238.00	1233.50	1231.00	1228.00	1225.00	1220.50	1217.50	1212.50	1209.50	1206.50	1203.00	1200.00	1195.00	1193.00	1189.00	1187.00	1185.00	1180.00	1178.00	1175.00	1172.00	1169.00	1167.50	1164.00	1162.50	1161.00	1158.00	1156.00	1153.00	1152.00	1149.50	1148.00	1146.00	1144.50	1143.50	1142.00	1141.00	1138.50	1137.00	1135.50	1134.50	1133.50	1133.00	1131.50	1130.00	1129.00	1128.50	1127.50	1126.00	1125.50	1125.00	1125.00	1124.50	1124.00	1124.00	1123.50	1123.00	1123.00	1123.00	1123.00	1124.00	1124.00	1124.50	1125.00	1126.00	1126.00	1127.00	1127.00	1128.00	1128.50	1130.00	1130.50	1131.00	1132.00	1132.00	1134.00	1134.00	1134.50	1135.00	1135.00	1136.00	1136.00	1137.00	1137.00	1137.00	1137.00	1136.50	1135.50	1134.50	1134.00	1132.50	1131.00	1131.00	1129.50	1128.00	1122.50	1119.50	1116.50	1112.00	1107.00	1103.50	1099.00	1093.50	1090.50	1088.00	1086.00	1083.50	1081.00	1078.00	1076.00	1074.00	1071.00	1069.50	1069.00	1069.00	1068.00	1067.50	1065.50	1064.50	1064.00	1063.00	1062.00	1069.00	1073.00	1078.50	1082.00	1085.50	1091.50	1094.50	1098.00	1101.00	1108.00	1114.00	1124.50	1129.50	1134.50	1142.00	1149.00	1155.00	1159.00	1165.50	1170.00	1177.00	1183.00	1187.00	1192.00	1197.50	1201.00	1206.00	1218.00	1227.50	1241.00	1250.00	1263.50	1276.00	1289.00	1297.50	1306.00	1332.00	1347.50	1371.00	1387.00	1411.00	1426.50	1457.50	1473.00	1488.50	1519.00	1545.00	1597.00	1624.00	1663.00	1689.00	1715.50	1768.50	1795.00	1843.00	1881.00	1937.00	1975.00	2050.00	2088.00	2125.50	2182.00	2219.00	2294.00	2332.00	2389.00	2427.00	2465.50	2542.50	2581.50	2640.00	2679.00	2736.50	2771.00	2839.00	2873.00	2907.50	2960.00	3012.50	3065.00	3117.50	3148.50	3175.00	3227.50	3254.50	3295.00	3323.00	3365.00	3393.00	3451.00	3473.50	3488.00	3510.00	3525.00	3555.00	3570.00	3593.50	3608.50	3624.00	3651.00	3657.00	3666.00	3673.00	3682.00	3688.00
1312.00	1310.00	1308.00	1306.50	1304.00	1302.00	1300.00	1298.50	1296.00	1294.00	1291.00	1290.00	1287.50	1286.00	1283.00	1280.00	1278.00	1274.00	1271.00	1269.00	1266.00	1262.00	1260.00	1256.00	1254.00	1250.00	1246.00	1243.00	1240.50	1238.00	1233.50	1231.00	1228.00	1225.00	1220.50	1217.50	1212.50	1209.50	1206.50	1203.00	1200.00	1195.00	1193.00	1189.00	1187.00	1185.00	1180.00	1178.00	1175.00	1172.00	1169.00	1167.50	1164.00	1162.50	1161.00	1158.00	1156.00	1153.00	1152.00	1149.50	1148.00	1146.00	1144.50	1143.50	1142.00	1141.00	1138.50	1137.00	1135.50	1134.50	1133.50	1133.00	1131.50	1130.00	1129.00	1128.50	1127.50	1126.00	1125.50	1125.00	1125.00	1124.50	1124.00	1124.00	1123.50	1123.00	1123.00	1123.00	1123.00	1124.00	1124.00	1124.50	1125.00	1126.00	1126.00	1127.00	1127.00	1128.00	1128.50	1130.00	1130.50	1131.00	1132.00	1132.00	1134.00	1134.00	1134.50	1135.00	1135.00	1136.00	1136.00	1137.00	1137.00	1137.00	1137.00	1136.50	1135.50	1134.50	1134.00	1132.50	1131.00	1131.00	1129.50	1128.00	1122.50	1119.50	1116.50	1112.00	1107.00	1103.50	1099.00	1093.50	1090.50	1088.00	1086.00	1083.50	1081.00	1078.00	1076.00	1074.00	1071.00	1069.50	1069.00	1069.00	1068.00	1067.50	1065.50	1064.50	1064.00	1063.00	1062.00	1069.00	1073.00	1078.50	1082.00	1085.50	1091.50	1094.50	1098.00	1101.00	1108.00	1114.00	1124.50	1129.50	1134.50	1142.00	1149.00	1155.00	1159.00	1165.50	1170.00	1177.00	1183.00	1187.00	1192.00	1197.50	1201.00	1206.00	1218.00	1227.50	1241.00	1250.00	1263.50	1276.00	1289.00	1297.50	1306.00	1332.00	1347.50	1371.00	1387.00	1411.00	1426.50	1457.50	1473.00	1488.50	1519.00	1545.00	1597.00	1624.00	1663.00	1689.00	1715.50	1768.50	1795.00	1843.00	1881.00	1937.00	1975.00	2050.00	2088.00	2125.50	2182.00	2219.00	2294.00	2332.00	2389.00	2427.00	2465.50	2542.50	2581.50	2640.00	2679.00	2736.50	2771.00	2839.00	2873.00	2907.50	2960.00	3012.50	3065.00	3117.50	3148.50	3175.00	3227.50	3254.50	3295.00	3323.00	3365.00	3393.00	3451.00	3473.50	3488.00	3510.00	3525.00	3555.00	3570.00	3593.50	3608.50	3624.00	3651.00	3657.00	3666.00	3673.00	3682.00	3688.00
1312.00	1310.00	1308.00	1306.50	1304.00	1302.00	1300.00	1298.50	1296.00	1294.00	1291.00	1290.00	1287.50	1286.00	1283.00	1280.00	1278.00	1274.00	1271.00	1269.00	1266.00	1262.00	1260.00	1256.00	1254.00	1250.00	1246.00	1243.00	1240.50	1238.00	1233.50	1231.00	1228.00	1225.00	1220.50	1217.50	1212.50	1209.50	1206.50	1203.00	1200.00	1195.00	1193.00	1189.00	1187.00	1185.00	1180.00	1178.00	1175.00	1172.00	1169.00	1167.50	1164.00	1162.50	1161.00	1158.00	1156.00	1153.00	1152.00	1149.50	1148.00	1146.00	1144.50	1143.50	1142.00	1141.00	1138.50	1137.00	1135.50	1134.50	1133.50	1133.00	1131.50	1130.00	1129.00	1128.50	1127.50	1126.00	1125.50	1125.00	1125.00	1124.50	1124.00	1124.00	1123.50	1123.00	1123.00	1123.00	1123.00	1124.00	1124.00	1124.50	1125.00	1126.00	1126.00	1127.00	1127.00	1128.00	1128.50	1130.00	1130.50	1131.00	1132.00	1132.00	1134.00	1134.00	1134.50	1135.00	1135.00	1136.00	1136.00	1137.00	1137.00	1137.00	1137.00	1136.50	1135.50	1134.50	1134.00	1132.50	1131.00	1131.00	1129.50	1128.00	1122.50	1119.50	1116.50	1112.00	1107.00	1103.50	1099.00	1093.50	1090.50	1088.00	1086.00	1083.50	1081.00	1078.00	1076.00	1074.00	1071.00	1069.50	1069.00	1069.00	1068.00	1067.50	1065.50	1064.50	1064.00	1063.00	1062.00	1069.00	1073.00	1078.50	1082.00	1085.50	1091.50	1094.50	1098.00	1101.00	1108.00	1114.00	1124.50	1129.50	1134.50	1142.00	1149.00	1155.00	1159.00	1165.50	1170.00	1177.00	1183.00	1187.00	1192.00	1197.50	1201.00	1206.00	1218.00	1227.50	1241.00	1250.00	1263.50	1276.00	1289.00	1297.50	1306.00	1332.00	1347.50	1371.00	1387.00	1411.00	1426.50	1457.50	1473.00	1488.50	1519.00	1545.00	1597.00	1624.00	1663.00	1689.00	1715.50	1768.50	1795.00	1843.00	1881.00	1937.00	1975.00	2050.00	2088.00	2125.50	2182.00	2219.00	2294.00	2332.00	2389.00	2427.00	2465.50	2542.50	2581.50	2640.00	2679.00	2736.50	2771.00	2839.00	2873.00	2907.50	2960.00	3012.50	3065.00	3117.50	3148.50	3175.00	3227.50	3254.50	3295.00	3323.00	3365.00	3393.00	3451.00	3473.50	3488.00	3510.00	3525.00	3555.00	3570.00	3593.50	3608.50	3624.00	3651.00	3657.00	3666.00	3673.00	3682.00	3688.00
1312.00	1310.00	1308.00	1306.50	1304.00	1302.00	1300.00	1298.50	1296.00	1294.00	1291.00	1290.00	1287.50	1286.00	1283.00	1280.00	1278.00	1274.00	1271.00	1269.00	1266.00	1262.00	1260.00	1256.00	1254.00	1250.00	1246.00	1243.00	1240.50	1238.00	1233.50	1231.00	1228.00	1225.00	1220.50	1217.50	1212.50	1209.50	1206.50	1203.00	1200.00	1195.00	1193.00	1189.00	1187.00	1185.00	1180.00	1178.00	1175.00	1172.00	1169.00	1167.50	1164.00	1162.50	1161.00	1158.00	1156.00	1153.00	1152.00	1149.50	1148.00	1146.00	1144.50	1143.50	1142.00	1141.00	1138.50	1137.00	1135.50	1134.50	1133.50	1133.00	1131.50	1130.00	1129.00	1128.50	1127.50	1126.00	1125.50	1125.00	1125.00	1124.50	1124.00	1124.00	1123.50	1123.00	1123.00	1123.00	1123.00	1124.00	1124.00	1124.50	1125.00	1126.00	1126.00	1127.00	1127.00	1128.00	1128.50	1130.00	1130.50	1131.00	1132.00	1132.00	1134.00	1134.00	1134.50	1135.00	1135.00	1136.00	1136.00	1137.00	1137.00	1137.00	1137.00	1136.50	1135.50	1134.50	1134.00	1132.50	1131.00	1131.00	1129.50	1128.00	1122.50	1119.50	1116.50	1112.00	1107.00	1103.50	1099.00	1093.50	1090.50	1088.00	1086.00	1083.50	1081.00	1078.00	1076.00	1074.00	1071.00	1069.50	1069.00	1069.00	1068.00	1067.50	1065.50	1064.50	1064.00	1063.00	1062.00	1069.00	1073.00	1078.50	1082.00	1085.50	1091.50	1094.50	1098.00	1101.00	1108.00	1114.00	1124.50	1129.50	1134.50	1142.00	1149.00	1155.00	1159.00	1165.50	1170.00	1177.00	1183.00	1187.00	1192.00	1197.50	1201.00	1206.00	1218.00	1227.50	1241.00	1250.00	1263.50	1276.00	1289.00	1297.50	1306.00	1332.00	1347.50	1371.00	1387.00	1411.00	1426.50	1457.50	1473.00	1488.50	1519.00	1545.00	1597.00	1624.00	1663.00	1689.00	1715.50	1768.50	1795.00	1843.00	1881.00	1937.00	1975.00	2050.00	2088.00	2125.50	2182.00	2219.00	2294.00	2332.00	2389.00	2427.00	2465.50	2542.50	2581.50	2640.00	2679.00	2736.50	2771.00	2839.00	2873.00	2907.50	2960.00	3012.50	3065.00	3117.50	3148.50	3175.00	3227.50	3254.50	3295.00	3323.00	3365.00	3393.00	3451.00	3473.50	3488.00	3510.00	3525.00	3555.00	3570.00	3593.50	3608.50	3624.00	3651.00	3657.00	3666.00	3673.00	3682.00	3688.00
1312.00	1310.00	1308.00	1306.50	1304.00	1302.00	1300.00	1298.50	1296.00	1294.00	1291.00	1290.00	1287.50	1286.00	1283.00	1280.00	1278.00	1274.00	1271.00	1269.00	1266.00	1262.00	1260.00	1256.00	1254.00	1250.00	1246.00	1243.00	1240.50	1238.00	1233.50	1231.00	1228.00	1225.00	1220.50	1217.50	1212.50	1209.50	1206.50	1203.00	1200.00	1195.00	1193.00	1189.00	1187.00	1185.00	1180.00	1178.00	1175.00	1172.00	1169.00	1167.50	1164.00	1162.50	1161.00	1158.00	1156.00	1153.00	1152.00	1149.50	1148.00	1146.00	1144.50	1143.50	1142.00	1141.00	1138.50	1137.00	1135.50	1134.50	1133.50	1133.00	1131.50	1130.00	1129.00	1128.50	1127.50	1126.00	1125.50	1125.00	1125.00	1124.50	1124.00	1124.00	1123.50	1123.00	1123.00	1123.00	1123.00	1124.00	1124.00	1124.50	1125.00	1126.00	1126.00	1127.00	1127.00	1128.00	1128.50	1130.00	1130.50	1131.00	1132.00	1132.00	1134.00	1134.00	1134.50	1135.00	1135.00	1136.00	1136.00	1137.00	1137.00	1137.00	1137.00	1136.50	1135.50	1134.50	1134.00	1132.50	1131.00	1131.00	1129.50	1128.00	1122.50	1119.50	1116.50	1112.00	1107.00	1103.50	1099.00	1093.50	1090.50	1088.00	1086.00	1083.50	1081.00	1078.00	1076.00	1074.00	1071.00	1069.50	1069.00	1069.00	1068.00	1067.50	1065.50	1064.50	1064.00	1063.00	1062.00	1069.00	1073.00	1078.50	1082.00	1085.50	1091.50	1094.50	1098.00	1101.00	1108.00	1114.00	1124.50	1129.50	1134.50	1142.00	1149.00	1155.00	1159.00	1165.50	1170.00	1177.00	1183.00	1187.00	1192.00	1197.50	1201.00	1206.00	1218.00	1227.50	1241.00	1250.00	1263.50	1276.00	1289.00	1297.50	1306.00	1332.00	1347.50	1371.00	1387.00	1411.00	1426.50	1457.50	1473.00	1488.50	1519.00	1545.00	1597.00	1624.00	1663.00	1689.00	1715.50	1768.50	1795.00	1843.00	1881.00	1937.00	1975.00	2050.00	2088.00	2125.50	2182.00	2219.00	2294.00	2332.00	2389.00	2427.00	2465.50	2542.50	2581.50	2640.00	2679.00	2736.50	2771.00	2839.00	2873.00	2907.50	2960.00	3012.50	3065.00	3117.50	3148.50	3175.00	3227.50	3254.50	3295.00	3323.00	3365.00	3393.00	3451.00	3473.50	3488.00	3510.00	3525.00	3555.00	3570.00	3593.50	3608.50	3624.00	3651.00	3657.00	3666.00	3673.00	3682.00	3688.00
1312.00	1310.00	1308.00	1306.50	1304.00	1302.00	1300.00	1298.50	1296.00	1294.00	1291.00	1290.00	1287.50	1286.00	1283.00	1280.00	1278.00	1274.00	1271.00	1269.00	1266.00	1262.00	1260.00	1256.00	1254.00	1250.00	1246.00	1243.00	1240.50	1238.00	1233.50	1231.00	1228.00	1225.00	1220.50	1217.50	1212.50	1209.50	1206.50	1203.00	1200.00	1195.00	1193.00	1189.00	1187.00	1185.00	1180.00	1178.00	1175.00	1172.00	1169.00	1167.50	1164.00	1162.50	1161.00	1158.00	1156.00	1153.00	1152.00	1149.50	1148.00	1146.00	1144.50	1143.50	1142.00	1141.00	1138.50	1137.00	1135.50	1134.50	1133.50	1133.00	1131.50	1130.00	1129.00	1128.50	1127.50	1126.00	1125.50	1125.00	1125.00	1124.50	1124.00	1124.00	1123.50	1123.00	1123.00	1123.00	1123.00	1124.00	1124.00	1124.50	1125.00	1126.00	1126.00	1127.00	1127.00	1128.00	1128.50	1130.00	1130.50	1131.00	1132.00	1132.00	1134.00	1134.00	1134.50	1135.00	1135.00	1136.00	1136.00	1137.00	1137.00	1137.00	1137.00	1136.50	1135.50	1134.50	1134.00	1132.50	1131.00	1131.00	1129.50	1128.00	1122.50	1119.50	1116.50	1112.00	1107.00	1103.50	1099.00	1093.50	1090.50	1088.00	1086.00	1083.50	1081.00	1078.00	1076.00	1074.00	1071.00	1069.50	1069.00	1069.00	1068.00	1067.50	1065.50	1064.50	1064.00	1063.00	1062.00	1069.00	1073.00	1078.50	1082.00	1085.50	1091.50	1094.50	1098.00	1101.00	1108.00	1114.00	1124.50	1129.50	1134.50	1142.00	1149.00	1155.00	1159.00	1165.50	1170.00	1177.00	1183.00	1187.00	1192.00	1197.50	1201.00	1206.00	1218.00	1227.50	1241.00	1250.00	1263.50	1276.00	1289.00	1297.50	1306.00	1332.00	1347.50	1371.00	1387.00	1411.00	1426.50	1457.50	1473.00	1488.50	1519.00	1545.00	1597.00	1624.00	1663.00	1689.00	1715.50	1768.50	1795.00	1843.00	1881.00	1937.00	1975.00	2050.00	2088.00	2125.50	2182.00	2219.00	2294.00	2332.00	2389.00	2427.00	2465.50	2542.50	2581.50	2640.00	2679.00	2736.50	2771.00	2839.00	2873.00	2907.50	2960.00	3012.50	3065.00	3117.50	3148.50	3175.00	3227.50	3254.50	3295.00	3323.00	3365.00	3393.00	3451.00	3473.50	3488.00	3510.00	3525.00	3555.00	3570.00	3593.50	3608.50	3624.00	3651.00	3657.00	3666.00	3673.00	3682.00	3688.00
1323.00	1321.00	1319.00	1317.25	1314.50	1312.00	1310.00	1308.25	1305.50	1303.00	1300.00	1299.00	1296.00	1294.00	1290.75	1287.50	1285.50	1281.50	1278.50	1276.50	1273.00	1269.50	1267.25	1263.00	1260.50	1256.25	1252.00	1248.25	1245.50	1242.75	1238.00	1235.25	1231.50	1228.50	1224.00	1221.00	1215.00	1212.00	1209.00	1205.00	1202.50	1197.50	1195.50	1192.00	1189.75	1187.50	1183.00	1180.75	1177.50	1175.00	1172.50	1171.00	1167.75	1166.25	1164.75	1162.00	1160.00	1157.50	1156.00	1154.00	1152.75	1151.00	1149.50	1148.25	1146.50	1145.50	1143.50	1142.00	1140.50	1139.75	1139.00	1138.00	1136.50	1135.00	1134.50	1133.50	1132.50	1131.25	1130.75	1130.25	1130.00	1129.25	1129.00	1128.50	1128.00	1127.50	1127.50	1127.50	1127.50	1128.00	1127.50	1127.75	1128.00	1128.75	1129.00	1129.50	1129.50	1130.50	1130.75	1132.00	1132.25	1132.75	1133.50	1133.50	1135.00	1135.00	1135.75	1136.00	1136.25	1137.00	1137.25	1138.00	1138.00	1138.00	1137.50	1136.75	1136.00	1135.00	1134.50	1133.00	1132.00	1131.50	1129.75	1128.00	1123.75	1121.25	1118.75	1115.00	1111.00	1108.25	1104.50	1100.50	1098.50	1096.50	1095.00	1093.00	1091.00	1088.25	1086.50	1084.75	1084.75	1086.25	1089.50	1092.00	1095.25	1097.25	1100.25	1101.75	1103.50	1107.00	1112.00	1126.00	1133.00	1143.00	1149.50	1156.00	1167.75	1173.50	1182.00	1188.50	1199.50	1207.25	1222.00	1229.00	1236.00	1246.50	1256.75	1266.00	1272.50	1282.25	1288.75	1298.50	1307.50	1313.50	1321.50	1330.00	1335.75	1346.00	1360.75	1371.00	1386.50	1396.50	1411.50	1426.00	1440.75	1451.00	1462.75	1492.25	1508.25	1532.50	1549.00	1574.00	1590.50	1623.50	1640.75	1660.00	1694.00	1719.50	1770.00	1796.00	1834.25	1859.75	1885.25	1937.00	1964.25	2010.00	2043.50	2093.75	2127.75	2195.75	2230.25	2264.50	2316.50	2350.50	2419.00	2453.50	2506.00	2541.00	2576.50	2647.50	2683.75	2738.00	2772.50	2821.50	2852.50	2914.50	2945.75	2977.50	3025.50	3074.25	3123.00	3166.75	3192.25	3215.50	3262.50	3286.25	3322.00	3346.50	3383.50	3408.25	3454.50	3472.50	3486.50	3507.50	3522.00	3550.50	3565.00	3587.00	3601.25	3615.25	3637.50	3644.50	3655.00	3662.50	3673.00	3680.00
1334.00	1332.00	1330.00	1328.00	1325.00	1322.00	1320.00	1318.00	1315.00	1312.00	1309.00	1308.00	1304.50	1302.00	1298.50	1295.00	1293.00	1289.00	1286.00	1284.00	1280.00	1277.00	1274.50	1270.00	1267.00	1262.50	1258.00	1253.50	1250.50	1247.50	1242.50	1239.50	1235.00	1232.00	1227.50	1224.50	1217.50	1214.50	1211.50	1207.00	1205.00	1200.00	1198.00	1195.00	1192.50	1190.00	1186.00	1183.50	1180.00	1178.00	1176.00	1174.50	1171.50	1170.00	1168.50	1166.00	1164.00	1162.00	1160.00	1158.50	1157.50	1156.00	1154.50	1153.00	1151.00	1150.00	1148.50	1147.00	1145.50	1145.00	1144.50	1143.00	1141.50	1140.00	1140.00	1138.50	1137.50	1136.50	1136.00	1135.50	1135.00	1134.00	1134.00	1133.00	1132.50	1132.00	1132.00	1132.00	1132.00	1132.00	1131.00	1131.00	1131.00	1131.50	1132.00	1132.00	1132.00	1133.00	1133.00	1134.00	1134.00	1134.50	1135.00	1135.00	1136.00	1136.00	1137.00	1137.00	1137.50	1138.00	1138.50	1139.00	1139.00	1139.00	1138.00	1137.00	1136.50	1135.50	1135.00	1133.50	1133.00	1132.00	1130.00	1128.00	1125.00	1123.00	1121.00	1118.00	1115.00	1113.00	1110.00	1107.50	1106.50	1105.00	1104.00	1102.50	1101.00	1098.50	1097.00	1095.50	1098.50	1103.00	1110.00	1115.00	1122.50	1127.00	1135.00	1139.00	1143.00	1151.00	1162.00	1183.00	1193.00	1207.50	1217.00	1226.50	1244.00	1252.50	1266.00	1276.00	1291.00	1300.50	1319.50	1328.50	1337.50	1351.00	1364.50	1377.00	1386.00	1399.00	1407.50	1420.00	1432.00	1440.00	1451.00	1462.50	1470.50	1486.00	1503.50	1514.50	1532.00	1543.00	1559.50	1576.00	1592.50	1604.50	1619.50	1652.50	1669.00	1694.00	1711.00	1737.00	1754.50	1789.50	1808.50	1831.50	1869.00	1894.00	1943.00	1968.00	2005.50	2030.50	2055.00	2105.50	2133.50	2177.00	2206.00	2250.50	2280.50	2341.50	2372.50	2403.50	2451.00	2482.00	2544.00	2575.00	2623.00	2655.00	2687.50	2752.50	2786.00	2836.00	2866.00	2906.50	2934.00	2990.00	3018.50	3047.50	3091.00	3136.00	3181.00	3216.00	3236.00	3256.00	3297.50	3318.00	3349.00	3370.00	3402.00	3423.50	3458.00	3471.50	3485.00	3505.00	3519.00	3546.00	3560.00	3580.50	3594.00	3606.50	3624.00	3632.00	3644.00	3652.00	3664.00	3672.00
1334.00	1332.00	1330.00	1328.00	1325.00	1322.00	1320.00	1318.00	1315.00	1312.00	1309.00	1308.00	1304.50	1302.00	1298.50	1295.00	1293.00	1289.00	1286.00	1284.00	1280.00	1277.00	1274.50	1270.00	1267.00	1262.50	1258.00	1253.50	1250.50	1247.50	1242.50	1239.50	1235.00	1232.00	1227.50	1224.50	1217.50	1214.50	1211.50	1207.00	1205.00	1200.00	1198.00	1195.00	1192.50	1190.00	1186.00	1183.50	1180.00	1178.00	1176.00	1174.50	1171.50	1170.00	1168.50	1166.00	1164.00	1162.00	1160.00	1158.50	1157.50	1156.00	1154.50	1153.00	1151.00	1150.00	1148.50	1147.00	1145.50	1145.00	1144.50	1143.00	1141.50	1140.00	1140.00	1138.50	1137.50	1136.50	1136.00	1135.50	1135.00	1134.00	1134.00	1133.00	1132.50	1132.00	1132.00	1132.00	1132.00	1132.00	1131.00	1131.00	1131.00	1131.50	1132.00	1132.00	1132.00	1133.00	1133.00	1134.00	1134.00	1134.50	1135.00	1135.00	1136.00	1136.00	1137.00	1137.00	1137.50	1138.00	1138.50	1139.00	1139.00	1139.00	1138.00	1137.00	1136.50	1135.50	1135.00	1133.50	1133.00	1132.00	1130.00	1128.00	1125.00	1123.00	1121.00	1118.00	1115.00	1113.00	1110.00	1107.50	1106.50	1105.00	1104.00	1102.50	1101.00	1098.50	1097.00	1095.50	1098.50	1103.00	1110.00	1115.00	1122.50	1127.00	1135.00	1139.00	1143.00	1151.00	1162.00	1183.00	1193.00	1207.50	1217.00	1226.50	1244.00	1252.50	1266.00	1276.00	1291.00	1300.50	1319.50	1328.50	1337.50	1351.00	1364.50	1377.00	1386.00	1399.00	1407.50	1420.00	1432.00	1440.00	1451.00	1462.50	1470.50	1486.00	1503.50	1514.50	1532.00	1543.00	1559.50	1576.00	1592.50	1604.50	1619.50	1652.50	1669.00	1694.00	1711.00	1737.00	1754.50	1789.50	1808.50	1831.50	1869.00	1894.00	1943.00	1968.00	2005.50	2030.50	2055.00	2105.50	2133.50	2177.00	2206.00	2250.50	2280.50	2341.50	2372.50	2403.50	2451.00	2482.00	2544.00	2575.00	2623.00	2655.00	2687.50	2752.50	2786.00	2836.00	2866.00	2906.50	2934.00	2990.00	3018.50	3047.50	3091.00	3136.00	3181.00	3216.00	3236.00	3256.00	3297.50	3318.00	3349.00	3370.00	3402.00	3423.50	3458.00	3471.50	3485.00	3505.00	3519.00	3546.00	3560.00	3580.50	3594.00	3606.50	3624.00	3632.00	3644.00	3652.00	3664.00	3672.00
1334.00	1332.00	1330.00	1328.00	1325.00	1322.00	1320.00	1318.00	1315.00	1312.00	1309.00	1308.00	1304.50	1302.00	1298.50	1295.00	1293.00	1289.00	1286.00	1284.00	1280.00	1277.00	1274.50	1270.00	1267.00	1262.50	1258.00	1253.50	1250.50	1247.50	1242.50	1239.50	1235.00	1232.00	1227.50	1224.50	1217.50	1214.50	1211.50	1207.00	1205.00	1200.00	1198.00	1195.00	1192.50	1190.00	1186.00	1183.50	1180.00	1178.00	1176.00	1174.50	1171.50	1170.00	1168.50	1166.00	1164.00	1162.00	1160.00	1158.50	1157.50	1156.00	1154.50	1153.00	1151.00	1150.00	1148.50	1147.00	1145.50	1145.00	1144.50	1143.00	1141.50	1140.00	1140.00	1138.50	1137.50	1136.50	1136.00	1135.50	1135.00	1134.00	1134.00	1133.00	1132.50	1132.00	1132.00	1132.00	1132.00	1132.00	1131.00	1131.00	1131.00	1131.50	1132.00	1132.00	1132.00	1133.00	1133.00	1134.00	1134.00	1134.50	1135.00	1135.00	1136.00	1136.00	1137.00	1137.00	1137.50	1138.00	1138.50	1139.00	1139.00	1139.00	1138.00	1137.00	1136.50	1135.50	1135.00	1133.50	1133.00	1132.00	1130.00	1128.00	1125.00	1123.00	1121.00	1118.00	1115.00	1113.00	1110.00	1107.50	1106.50	1105.00	1104.00	1102.50	1101.00	1098.50	1097.00	1095.50	1098.50	1103.00	1110.00	1115.00	1122.50	1127.00	1135.00	1139.00	1143.00	1151.00	1162.00	1183.00	1193.00	1207.50	1217.00	1226.50	1244.00	1252.50	1266.00	1276.00	1291.00	1300.50	1319.50	1328.50	1337.50	1351.00	1364.50	1377.00	1386.00	1399.00	1407.50	1420.00	1432.00	1440.00	1451.00	1462.50	1470.50	1486.00	1503.50	1514.50	1532.00	1543.00	1559.50	1576.00	1592.50	1604.50	1619.50	1652.50	1669.00	1694.00	1711.00	1737.00	1754.50	1789.50	1808.50	1831.50	1869.00	1894.00	1943.00	1968.00	2005.50	2030.50	2055.00	2105.50	2133.50	2177.00	2206.00	2250.50	2280.50	2341.50	2372.50	2403.50	2451.00	2482.00	2544.00	2575.00	2623.00	2655.00	2687.50	2752.50	2786.00	2836.00	2866.00	2906.50	2934.00	2990.00	3018.50	3047.50	3091.00	3136.00	3181.00	3216.00	3236.00	3256.00	3297.50	3318.00	3349.00	3370.00	3402.00	3423.50	3458.00	3471.50	3485.00	3505.00	3519.00	3546.00	3560.00	3580.50	3594.00	3606.50	3624.00	3632.00	3644.00	3652.00	3664.00	3672.00
1334.00	1332.00	1330.00	1328.00	1325.00	1322.00	1320.00	1318.00	1315.00	1312.00	1309.00	1308.00	1304.50	1302.00	1298.50	1295.00	1293.00	1289.00	1286.00	1284.00	1280.00	1277.00	1274.50	1270.00	1267.00	1262.50	1258.00	1253.50	1250.50	1247.50	1242.50	1239.50	1235.00	1232.00	1227.50	1224.50	1217.50	1214.50	1211.50	1207.00	1205.00	1200.00	1198.00	1195.00	1192.50	1190.00	1186.00	1183.50	1180.00	1178.00	1176.00	1174.50	1171.50	1170.00	1168.50	1166.00	1164.00	1162.00	1160.00	1158.50	1157.50	1156.00	1154.50	1153.00	1151.00	1150.00	1148.50	1147.00	1145.50	1145.00	1144.50	1143.00	1141.50	1140.00	1140.00	1138.50	1137.50	1136.50	1136.00	1135.50	1135.00	1134.00	1134.00	1133.00	1132.50	1132.00	1132.00	1132.00	1132.00	1132.00	1131.00	1131.00	1131.00	1131.50	1132.00	1132.00	1132.00	1133.00	1133.00	1134.00	1134.00	1134.50	1135.00	1135.00	1136.00	1136.00	1137.00	1137.00	1137.50	1138.00	1138.50	1139.00	1139.00	1139.00	1138.00	1137.00	1136.50	1135.50	1135.00	1133.50	1133.00	1132.00	1130.00	1128.00	1125.00	1123.00	1121.00	1118.00	1115.00	1113.00	1110.00	1107.50	1106.50	1105.00	1104.00	1102.50	1101.00	1098.50	1097.00	1095.50	1098.50	1103.00	1110.00	1115.00	1122.50	1127.00	1135.00	1139.00	1143.00	1151.00	1162.00	1183.00	1193.00	1207.50	1217.00	1226.50	1244.00	1252.50	1266.00	1276.00	1291.00	1300.50	1319.50	1328.50	1337.50	1351.00	1364.50	1377.00	1386.00	1399.00	1407.50	1420.00	1432.00	1440.00	1451.00	1462.50	1470.50	1486.00	1503.50	1514.50	1532.00	1543.00	1559.50	1576.00	1592.50	1604.50	1619.50	1652.50	1669.00	1694.00	1711.00	1737.00	1754.50	1789.50	1808.50	1831.50	1869.00	1894.00	1943.00	1968.00	2005.50	2030.50	2055.00	2105.50	2133.50	2177.00	2206.00	2250.50	2280.50	2341.50	2372.50	2403.50	2451.00	2482.00	2544.00	2575.00	2623.00	2655.00	2687.50	2752.50	2786.00	2836.00	2866.00	2906.50	2934.00	2990.00	3018.50	3047.50	3091.00	3136.00	3181.00	3216.00	3236.00	3256.00	3297.50	3318.00	3349.00	3370.00	3402.00	3423.50	3458.00	3471.50	3485.00	3505.00	3519.00	3546.00	3560.00	3580.50	3594.00	3606.50	3624.00	3632.00	3644.00	3652.00	3664.00	3672.00
1334.00	1332.00	1330.00	1328.00	1325.00	1322.00	1320.00	1318.00	1315.00	1312.00	1309.00	1308.00	1304.50	1302.00	1298.50	1295.00	1293.00	1289.00	1286.00	1284.00	1280.00	1277.00	1274.50	1270.00	1267.00	1262.50	1258.00	1253.50	1250.50	1247.50	1242.50	1239.50	1235.00	1232.00	1227.50	1224.50	1217.50	1214.50	1211.50	1207.00	1205.00	1200.00	1198.00	1195.00	1192.50	1190.00	1186.00	1183.50	1180.00	1178.00	1176.00	1174.50	1171.50	1170.00	1168.50	1166.00	1164.00	1162.00	1160.00	1158.50	1157.50	1156.00	1154.50	1153.00	1151.00	1150.00	1148.50	1147.00	1145.50	1145.00	1144.50	1143.00	1141.50	1140.00	1140.00	1138.50	1137.50	1136.50	1136.00	1135.50	1135.00	1134.00	1134.00	1133.00	1132.50	1132.00	1132.00	1132.00	1132.00	1132.00	1131.00	1131.00	1131.00	1131.50	1132.00	1132.00	1132.00	1133.00	1133.00	1134.00	1134.00	1134.50	1135.00	1135.00	1136.00	1136.00	1137.00	1137.00	1137.50	1138.00	1138.50	1139.00	1139.00	1139.00	1138.00	1137.00	1136.50	1135.50	1135.00	1133.50	1133.00	1132.00	1130.00	1128.00	1125.00	1123.00	1121.00	1118.00	1115.00	1113.00	1110.00	1107.50	1106.50	1105.00	1104.00	1102.50	1101.00	1098.50	1097.00	1095.50	1098.50	1103.00	1110.00	1115.00	1122.50	1127.00	1135.00	1139.00	1143.00	1151.00	1162.00	1183.00	1193.00	1207.50	1217.00	1226.50	1244.00	1252.50	1266.00	1276.00	1291.00	1300.50	1319.50	1328.50	1337.50	1351.00	1364.50	1377.00	1386.00	1399.00	1407.50	1420.00	1432.00	1440.00	1451.00	1462.50	1470.50	1486.00	1503.50	1514.50	1532.00	1543.00	1559.50	1576.00	1592.50	1604.50	1619.50	1652.50	1669.00	1694.00	1711.00	1737.00	1754.50	1789.50	1808.50	1831.50	1869.00	1894.00	1943.00	1968.00	2005.50	2030.50	2055.00	2105.50	2133.50	2177.00	2206.00	2250.50	2280.50	2341.50	2372.50	2403.50	2451.00	2482.00	2544.00	2575.00	2623.00	2655.00	2687.50	2752.50	2786.00	2836.00	2866.00	2906.50	2934.00	2990.00	3018.50	3047.50	3091.00	3136.00	3181.00	3216.00	3236.00	3256.00	3297.50	3318.00	3349.00	3370.00	3402.00	3423.50	3458.00	3471.50	3485.00	3505.00	3519.00	3546.00	3560.00	3580.50	3594.00	3606.50	3624.00	3632.00	3644.00	3652.00	3664.00	3672.00
1334.00	1332.00	1330.00	1328.00	1325.00	1322.00	1320.00	1318.00	1315.00	1312.00	1309.00	1308.00	1304.50	1302.00	1298.50	1295.00	1293.00	1289.00	1286.00	1284.00	1280.00	1277.00	1274.50	1270.00	1267.00	1262.50	1258.00	1253.50	1250.50	1247.50	1242.50	1239.50	1235.00	1232.00	1227.50	1224.50	1217.50	1214.50	1211.50	1207.00	1205.00	1200.00	1198.00	1195.00	1192.50	1190.00	1186.00	1183.50	1180.00	1178.00	1176.00	1174.50	1171.50	1170.00	1168.50	1166.00	1164.00	1162.00	1160.00	1158.50	1157.50	1156.00	1154.50	1153.00	1151.00	1150.00	1148.50	1147.00	1145.50	1145.00	1144.50	1143.00	1141.50	1140.00	1140.00	1138.50	1137.50	1136.50	1136.00	1135.50	1135.00	1134.00	1134.00	1133.00	1132.50	1132.00	1132.00	1132.00	1132.00	1132.00	1131.00	1131.00	1131.00	1131.50	1132.00	1132.00	1132.00	1133.00	1133.00	1134.00	1134.00	1134.50	1135.00	1135.00	1136.00	1136.00	1137.00	1137.00	1137.50	1138.00	1138.50	1139.00	1139.00	1139.00	1138.00	1137.00	1136.50	1135.50	1135.00	1133.50	1133.00	1132.00	1130.00	1128.00	1125.00	1123.00	1121.00	1118.00	1115.00	1113.00	1110.00	1107.50	1106.50	1105.00	1104.00	1102.50	1101.00	1098.50	1097.00	1095.50	1098.50	1103.00	1110.00	1115.00	1122.50	1127.00	1135.00	1139.00	1143.00	1151.00	1162.00	1183.00	1193.00	1207.50	1217.00	1226.50	1244.00	1252.50	1266.00	1276.00	1291.00	1300.50	1319.50	1328.50	1337.50	1351.00	1364.50	1377.00	1386.00	1399.00	1407.50	1420.00	1432.00	1440.00	1451.00	1462.50	1470.50	1486.00	1503.50	1514.50	1532.00	1543.00	1559.50	1576.00	1592.50	1604.50	1619.50	1652.50	1669.00	1694.00	1711.00	1737.00	1754.50	1789.50	1808.50	1831.50	1869.00	1894.00	1943.00	1968.00	2005.50	2030.50	2055.00	2105.50	2133.50	2177.00	2206.00	2250.50	2280.50	2341.50	2372.50	2403.50	2451.00	2482.00	2544.00	2575.00	2623.00	2655.00	2687.50	2752.50	2786.00	2836.00	2866.00	2906.50	2934.00	2990.00	3018.50	3047.50	3091.00	3136.00	3181.00	3216.00	3236.00	3256.00	3297.50	3318.00	3349.00	3370.00	3402.00	3423.50	3458.00	3471.50	3485.00	3505.00	3519.00	3546.00	3560.00	3580.50	3594.00	3606.50	3624.00	3632.00	3644.00	3652.00	3664.00	3672.00
1334.00	1332.00	1330.00	1328.00	1325.00	1322.00	1320.00	1318.00	1315.00	1312.00	1309.00	1308.00	1304.50	1302.00	1298.50	1295.00	1293.00	1289.00	1286.00	1284.00	1280.00	1277.00	1274.50	1270.00	1267.00	1262.50	1258.00	1253.50	1250.50	1247.50	1242.50	1239.50	1235.00	1232.00	1227.50	1224.50	1217.50	1214.50	1211.50	1207.00	1205.00	1200.00	1198.00	1195.00	1192.50	1190.00	1186.00	1183.50	1180.00	1178.00	1176.00	1174.50	1171.50	1170.00	1168.50	1166.00	1164.00	1162.00	1160.00	1158.50	1157.50	1156.00	1154.50	1153.00	1151.00	1150.00	1148.50	1147.00	1145.50	1145.00	1144.50	1143.00	1141.50	1140.00	1140.00	1138.50	1137.50	1136.50	1136.00	1135.50	1135.00	1134.00	1134.00	1133.00	1132.50	1132.00	1132.00	1132.00	1132.00	1132.00	1131.00	1131.00	1131.00	1131.50	1132.00	1132.00	1132.00	1133.00	1133.00	1134.00	1134.00	1134.50	1135.00	1135.00	1136.00	1136.00	1137.00	1137.00	1137.50	1138.00	1138.50	1139.00	1139.00	1139.00	1138.00	1137.00	1136.50	1135.50	1135.00	1133.50	1133.00	1132.00	1130.00	1128.00	1125.00	1123.00	1121.00	1118.00	1115.00	1113.00	1110.00	1107.50	1106.50	1105.00	1104.00	1102.50	1101.00	1098.50	1097.00	1095.50	1098.50	1103.00	1110.00	1115.00	1122.50	1127.00	1135.00	1139.00	1143.00	1151.00	1162.00	1183.00	1193.00	1207.50	1217.00	1226.50	1244.00	1252.50	1266.00	1276.00	1291.00	1300.50	1319.50	1328.50	1337.50	1351.00	1364.50	1377.00	1386.00	1399.00	1407.50	1420.00	1432.00	1440.00	1451.00	1462.50	1470.50	1486.00	1503.50	1514.50	1532.00	1543.00	1559.50	1576.00	1592.50	1604.50	1619.50	1652.50	1669.00	1694.00	1711.00	1737.00	1754.50	1789.50	1808.50	1831.50	1869.00	1894.00	1943.00	1968.00	2005.50	2030.50	2055.00	2105.50	2133.50	2177.00	2206.00	2250.50	2280.50	2341.50	2372.50	2403.50	2451.00	2482.00	2544.00	2575.00	2623.00	2655.00	2687.50	2752.50	2786.00	2836.00	2866.00	2906.50	2934.00	2990.00	3018.50	3047.50	3091.00	3136.00	3181.00	3216.00	3236.00	3256.00	3297.50	3318.00	3349.00	3370.00	3402.00	3423.50	3458.00	3471.50	3485.00	3505.00	3519.00	3546.00	3560.00	3580.50	3594.00	3606.50	3624.00	3632.00	3644.00	3652.00	3664.00	3672.00
1341.25	1339.00	1337.00	1334.50	1331.50	1328.00	1326.00	1324.00	1321.00	1318.00	1315.00	1313.00	1309.00	1306.50	1302.75	1299.00	1296.75	1293.00	1289.25	1287.00	1283.00	1279.25	1276.50	1272.00	1269.00	1264.50	1260.00	1255.50	1252.75	1250.00	1244.50	1241.50	1237.00	1234.50	1230.00	1227.00	1220.50	1217.50	1214.75	1210.50	1208.50	1203.50	1201.50	1198.25	1195.75	1193.50	1189.00	1186.75	1184.00	1182.00	1180.00	1178.50	1175.75	1174.25	1172.75	1170.50	1168.25	1166.50	1165.00	1163.50	1162.50	1161.00	1159.50	1158.25	1156.50	1155.50	1154.00	1153.00	1151.50	1151.00	1150.50	1149.00	1147.75	1146.50	1146.00	1145.00	1144.00	1142.75	1142.25	1141.50	1140.50	1139.75	1139.25	1138.50	1137.75	1137.25	1137.00	1136.50	1136.50	1136.00	1135.50	1135.25	1135.00	1135.25	1135.50	1135.50	1135.50	1136.00	1136.00	1136.50	1136.50	1136.75	1137.00	1137.50	1138.00	1138.00	1138.75	1139.00	1139.25	1139.75	1140.25	1140.50	1140.00	1139.75	1139.00	1138.00	1137.50	1136.75	1136.00	1134.75	1134.00	1133.50	1131.75	1130.50	1128.25	1127.00	1125.75	1123.50	1121.50	1120.25	1119.50	1119.50	1119.75	1120.50	1120.50	1121.00	1121.50	1121.00	1121.00	1122.75	1131.50	1137.50	1146.50	1152.50	1161.50	1167.25	1178.00	1183.75	1192.25	1208.50	1222.50	1249.00	1262.00	1280.75	1293.25	1305.50	1329.25	1341.25	1359.50	1372.00	1390.25	1402.50	1426.50	1438.25	1449.75	1467.00	1483.75	1500.00	1511.00	1527.25	1538.00	1554.00	1569.50	1579.75	1595.00	1610.50	1621.25	1639.50	1658.50	1670.75	1690.00	1702.50	1720.75	1739.50	1758.00	1770.75	1785.00	1815.25	1830.50	1853.50	1869.00	1892.25	1907.50	1939.25	1957.00	1976.75	2008.00	2029.00	2071.00	2092.50	2124.75	2146.50	2168.00	2210.50	2233.25	2268.50	2292.00	2328.50	2353.00	2403.50	2429.50	2455.50	2497.00	2524.50	2580.50	2608.50	2652.00	2681.00	2710.25	2769.25	2799.00	2840.50	2865.50	2901.00	2925.25	2974.00	2999.00	3024.00	3062.00	3100.75	3137.00	3167.25	3185.75	3204.50	3242.75	3262.00	3290.50	3310.00	3339.50	3358.25	3389.75	3403.75	3417.50	3438.00	3451.50	3479.00	3493.00	3513.00	3526.25	3538.75	3558.75	3568.25	3582.50	3592.00	3605.75	3615.25
1348.50	1346.00	1344.00	1341.00	1338.00	1334.00	1332.00	1330.00	1327.00	1324.00	1321.00	1318.00	1313.50	1311.00	1307.00	1303.00	1300.50	1297.00	1292.50	1290.00	1286.00	1281.50	1278.50	1274.00	1271.00	1266.50	1262.00	1257.50	1255.00	1252.50	1246.50	1243.50	1239.00	1237.00	1232.50	1229.50	1223.50	1220.50	1218.00	1214.00	1212.00	1207.00	1205.00	1201.50	1199.00	1197.00	1192.00	1190.00	1188.00	1186.00	1184.00	1182.50	1180.00	1178.50	1177.00	1175.00	1172.50	1171.00	1170.00	1168.50	1167.50	1166.00	1164.50	1163.50	1162.00	1161.00	1159.50	1159.00	1157.50	1157.00	1156.50	1155.00	1154.00	1153.00	1152.00	1151.50	1150.50	1149.00	1148.50	1147.50	1146.00	1145.50	1144.50	1144.00	1143.00	1142.50	1142.00	1141.00	1141.00	1140.00	1140.00	1139.50	1139.00	1139.00	1139.00	1139.00	1139.00	1139.00	1139.00	1139.00	1139.00	1139.00	1139.00	1140.00	1140.00	1140.00	1140.50	1141.00	1141.00	1141.50	1142.00	1142.00	1141.00	1140.50	1140.00	1139.00	1138.50	1138.00	1137.00	1136.00	1135.00	1135.00	1133.50	1133.00	1131.50	1131.00	1130.50	1129.00	1128.00	1127.50	1129.00	1131.50	1133.00	1136.00	1137.00	1139.50	1142.00	1143.50	1145.00	1150.00	1164.50	1172.00	1183.00	1190.00	1200.50	1207.50	1221.00	1228.50	1241.50	1266.00	1283.00	1315.00	1331.00	1354.00	1369.50	1384.50	1414.50	1430.00	1453.00	1468.00	1489.50	1504.50	1533.50	1548.00	1562.00	1583.00	1603.00	1623.00	1636.00	1655.50	1668.50	1688.00	1707.00	1719.50	1739.00	1758.50	1772.00	1793.00	1813.50	1827.00	1848.00	1862.00	1882.00	1903.00	1923.50	1937.00	1950.50	1978.00	1992.00	2013.00	2027.00	2047.50	2060.50	2089.00	2105.50	2122.00	2147.00	2164.00	2199.00	2217.00	2244.00	2262.50	2281.00	2315.50	2333.00	2360.00	2378.00	2406.50	2425.50	2465.50	2486.50	2507.50	2543.00	2567.00	2617.00	2642.00	2681.00	2707.00	2733.00	2786.00	2812.00	2845.00	2865.00	2895.50	2916.50	2958.00	2979.50	3000.50	3033.00	3065.50	3093.00	3118.50	3135.50	3153.00	3188.00	3206.00	3232.00	3250.00	3277.00	3293.00	3321.50	3336.00	3350.00	3371.00	3384.00	3412.00	3426.00	3445.50	3458.50	3471.00	3493.50	3504.50	3521.00	3532.00	3547.50	3558.50
1348.50	1346.00	1344.00	1341.00	1338.00	1334.00	1332.00	1330.00	1327.00	1324.00	1321.00	1318.00	1313.50	1311.00	1307.00	1303.00	1300.50	1297.00	1292.50	1290.00	1286.00	1281.50	1278.50	1274.00	1271.00	1266.50	1262.00	1257.50	1255.00	1252.50	1246.50	1243.50	1239.00	1237.00	1232.50	1229.50	1223.50	1220.50	1218.00	1214.00	1212.00	1207.00	1205.00	1201.50	1199.00	1197.00	1192.00	1190.00	1188.00	1186.00	1184.00	1182.50	1180.00	1178.50	1177.00	1175.00	1172.50	1171.00	1170.00	1168.50	1167.50	1166.00	1164.50	1163.50	1162.00	1161.00	1159.50	1159.00	1157.50	1157.00	1156.50	1155.00	1154.00	1153.00	1152.00	1151.50	1150.50	1149.00	1148.50	1147.50	1146.00	1145.50	1144.50	1144.00	1143.00	1142.50	1142.00	1141.00	1141.00	1140.00	1140.00	1139.50	1139.00	1139.00	1139.00	1139.00	1139.00	1139.00	1139.00	1139.00	1139.00	1139.00	1139.00	1140.00	1140.00	1140.00	1140.50	1141.00	1141.00	1141.50	1142.00	1142.00	1141.00	1140.50	1140.00	1139.00	1138.50	1138.00	1137.00	1136.00	1135.00	1135.00	1133.50	1133.00	1131.50	1131.00	1130.50	1129.00	1128.00	1127.50	1129.00	1131.50	1133.00	1136.00	1137.00	1139.50	1142.00	1143.50	1145.00	1150.00	1164.50	1172.00	1183.00	1190.00	1200.50	1207.50	1221.00	1228.50	1241.50	1266.00	1283.00	1315.00	1331.00	1354.00	1369.50	1384.50	1414.50	1430.00	1453.00	1468.00	1489.50	1504.50	1533.50	1548.00	1562.00	1583.00	1603.00	1623.00	1636.00	1655.50	1668.50	1688.00	1707.00	1719.50	1739.00	1758.50	1772.00	1793.00	1813.50	1827.00	1848.00	1862.00	1882.00	1903.00	1923.50	1937.00	1950.50	1978.00	1992.00	2013.00	2027.00	2047.50	2060.50	2089.00	2105.50	2122.00	2147.00	2164.00	2199.00	2217.00	2244.00	2262.50	2281.00	2315.50	2333.00	2360.00	2378.00	2406.50	2425.50	2465.50	2486.50	2507.50	2543.00	2567.00	2617.00	2642.00	2681.00	2707.00	2733.00	2786.00	2812.00	2845.00	2865.00	2895.50	2916.50	2958.00	2979.50	3000.50	3033.00	3065.50	3093.00	3118.50	3135.50	3153.00	3188.00	3206.00	3232.00	3250.00	3277.00	3293.00	3321.50	3336.00	3350.00	3371.00	3384.00	3412.00	3426.00	3445.50	3458.50	3471.00	3493.50	3504.50	3521.00	3532.00	3547.50	3558.50
