489.00	473.75	472.00	467.50	469.25	473.00	468.25	457.50	444.50	442.50	442.75	442.75	444.50	448.25	444.50	444.50	444.75	445.25	445.75	447.75	448.75	449.25	450.00	450.25	450.25	454.25	463.00	471.00	472.25	465.25	463.50	460.25	465.25	471.50	462.75	464.50	460.75	460.50	454.50	457.50	453.00	469.00	473.75	465.00	467.50	464.75	461.00	451.00	447.50	432.50	427.00	410.00	393.25	385.75	382.75	383.75	378.25	365.00	354.00	346.00	344.25	340.50	345.25	353.25	361.50	380.00	397.75	419.25	430.25	450.00	455.00	455.50	462.00	470.50	478.25	484.00	501.75	509.00	513.75	529.00	554.25	546.50	522.25	507.75	499.00	495.50	501.50	501.50	516.25	511.00	493.75	471.25	479.00	479.00	478.50	483.25	492.50	508.00	554.00	601.50	625.75	625.50	615.00	580.75	557.00	498.25	468.00	449.25	450.25	458.75	511.50	545.50	540.00	552.25	519.25	496.25	488.50	484.00	479.50	477.00	475.75	473.00	470.50	468.25	468.75	467.50	470.25	484.00	498.00	490.50	467.25	447.00	430.25	422.75	416.50	406.75	407.75	413.75	415.25	427.25	430.75	429.00	411.75	392.75	376.00	372.00	370.75	370.50	371.25	364.50	369.00	368.25	361.25	353.25	352.25	359.25	373.75	394.50	368.50	306.00	289.25	279.75	293.00	299.00	295.25	298.50	311.75	321.25	339.25	344.50	339.50	335.25	342.00	343.00	344.50	348.75	350.25	353.25	364.25	389.00	406.75	434.25	442.25	436.75	420.00	395.75	368.75	362.25	368.25	365.75	368.25	378.00	374.75	375.25	375.25	369.75	360.50	358.50	363.50	364.75	364.75	364.00	360.50	367.75	354.75	340.75	321.75	311.75	283.50	274.50	282.50	297.75	296.00	292.50	290.50	287.50	284.00	280.25	277.75	276.50	275.75	274.75	273.25	270.50	252.00	242.75	226.50	218.75	225.50	239.75	238.75	237.75	235.50	229.75	225.00	225.75	227.00	220.25	218.50	218.75	219.50	216.00	221.25	226.50	232.50	241.00	243.75	251.25	246.25	224.75	202.25	201.00	201.00	200.50	199.50	197.50
550.50	501.50	485.50	469.00	454.00	454.50	456.00	460.00	448.50	441.00	441.00	442.00	442.50	443.00	443.50	443.50	444.50	443.00	444.00	447.00	447.00	447.00	448.00	448.00	450.50	456.00	458.50	461.00	466.00	466.00	465.00	462.50	463.50	467.50	464.50	464.00	462.00	461.00	456.50	450.00	447.50	451.50	459.00	457.00	451.50	449.50	441.00	438.50	433.50	431.00	425.50	410.50	397.00	391.00	377.50	381.50	378.50	377.50	372.50	369.00	377.50	377.50	372.50	358.50	348.50	334.50	334.00	352.50	373.00	416.50	430.00	443.50	458.00	449.50	447.00	478.50	487.00	489.50	493.00	512.00	534.00	523.50	510.50	506.50	500.00	500.00	495.50	499.50	506.50	504.50	487.00	485.00	509.50	505.00	481.00	478.50	499.50	512.50	531.50	583.50	617.00	597.50	598.50	598.00	588.50	544.50	515.00	465.00	446.00	434.50	450.00	506.50	524.00	518.50	515.50	502.50	511.50	502.50	487.00	477.50	478.00	478.00	477.00	475.00	478.00	484.50	483.00	507.50	536.00	522.00	460.00	445.00	445.50	452.00	422.50	416.00	409.50	407.00	421.00	433.50	438.00	437.00	427.00	408.00	393.00	378.00	367.50	362.50	350.50	354.00	366.50	364.50	362.00	358.00	350.50	348.50	353.00	354.00	349.00	326.50	304.00	270.00	280.00	281.50	290.00	309.00	323.00	321.00	331.00	342.50	346.50	346.50	346.00	352.00	350.00	352.50	348.50	337.00	351.50	354.50	357.00	388.50	419.00	415.00	406.00	398.50	382.50	380.00	381.00	370.50	365.00	361.00	366.50	370.00	372.00	370.00	367.00	360.50	360.00	361.50	352.00	353.50	348.00	351.50	348.50	342.50	327.00	316.00	293.50	290.50	286.50	300.00	300.00	298.50	296.50	293.50	291.00	287.00	283.50	278.50	274.00	271.00	267.50	267.00	259.50	258.50	254.50	233.00	215.00	244.50	233.50	226.00	229.00	236.00	241.00	248.50	251.50	250.00	246.00	238.00	230.00	226.00	226.00	230.00	237.00	242.00	248.50	252.00	251.50	246.50	229.50	202.00	201.00	201.00	200.50	198.50
563.25	510.50	504.50	484.25	458.00	453.75	455.50	457.50	447.75	442.25	442.50	442.75	443.50	443.50	443.75	444.25	444.50	443.00	443.50	446.50	446.00	446.00	446.75	447.50	450.50	455.00	457.75	459.50	463.00	463.00	462.00	461.25	462.75	466.00	464.50	463.75	463.50	463.00	457.00	450.50	451.00	450.50	453.00	450.00	445.50	443.00	434.50	431.25	427.25	423.75	418.25	404.00	394.50	392.50	385.25	390.50	391.75	393.00	391.25	390.75	402.00	404.75	392.25	377.75	370.25	355.75	338.25	342.75	358.75	399.75	416.75	440.75	462.00	449.00	438.50	457.50	478.25	489.00	488.25	506.25	529.00	522.00	509.25	507.75	503.75	503.00	495.75	502.25	506.50	500.25	483.50	489.75	513.75	513.25	483.00	479.25	496.75	510.50	523.25	565.50	596.50	587.25	589.25	596.25	598.75	557.00	526.25	482.25	452.00	435.00	442.50	488.00	514.00	518.00	513.00	507.00	522.75	512.50	494.00	479.50	480.00	477.50	478.00	477.25	479.50	483.25	488.25	505.25	529.75	511.25	461.25	449.00	464.25	473.75	431.25	416.00	407.75	406.00	425.75	437.50	439.25	432.00	424.50	408.75	396.00	381.00	371.00	367.00	356.50	351.25	364.75	362.50	361.00	358.25	353.25	348.50	347.75	346.00	340.75	324.50	307.50	274.50	272.75	278.75	286.75	301.00	317.25	319.50	328.75	340.50	346.50	347.75	344.25	352.50	353.75	355.50	351.25	343.00	354.25	355.75	355.00	375.50	401.75	404.00	401.75	393.25	386.75	392.25	382.50	377.25	370.25	362.50	367.25	371.75	372.50	370.50	371.25	368.50	365.25	360.00	347.75	351.00	347.75	345.25	343.25	340.25	326.25	315.75	297.00	290.50	287.00	298.00	298.25	298.00	297.75	295.50	293.00	289.25	286.25	281.25	276.75	273.75	269.00	266.25	262.25	262.00	252.75	237.75	225.75	251.50	241.50	228.75	226.50	233.50	238.50	245.75	248.75	247.75	246.00	240.25	232.75	228.75	225.50	227.00	234.00	239.00	244.50	250.00	251.50	244.00	233.75	212.75	203.00	201.00	200.75	199.00
562.75	528.50	526.50	503.75	469.50	453.75	453.50	456.25	448.00	443.00	443.50	443.75	444.75	445.25	445.50	446.00	445.00	444.00	444.00	446.00	444.75	445.25	445.75	446.25	449.00	452.75	455.75	455.00	454.25	454.25	458.50	457.00	460.50	463.50	462.75	464.25	466.00	467.00	457.75	453.75	457.50	449.75	446.75	441.00	436.50	432.50	425.00	422.50	420.00	416.75	412.25	403.25	402.50	406.00	405.00	408.75	417.00	419.00	420.00	425.00	437.75	440.50	423.25	412.50	408.75	397.50	370.50	346.75	339.50	370.00	388.25	427.25	458.25	449.75	431.00	426.25	452.25	481.25	478.00	491.25	512.75	515.00	507.75	511.00	515.25	509.75	501.50	505.25	507.25	492.00	486.25	502.50	523.25	524.25	495.00	484.50	493.75	505.50	509.00	533.75	559.75	569.50	575.25	593.50	611.00	568.75	534.00	504.75	466.25	437.75	430.50	455.75	490.25	508.00	511.25	520.00	543.25	539.75	510.25	483.25	485.25	478.25	480.00	481.00	480.25	487.25	504.00	505.75	510.75	495.00	464.50	462.50	479.50	495.00	446.50	415.25	405.25	411.50	439.25	450.75	456.50	435.25	424.00	410.50	403.50	389.25	378.50	372.50	363.75	355.00	358.50	358.50	358.75	357.75	355.50	346.75	339.00	334.75	330.25	322.00	311.75	285.50	268.50	271.00	279.25	289.00	307.25	317.25	328.75	341.75	352.75	351.00	343.75	351.50	359.75	361.50	357.00	355.00	361.75	360.50	357.50	362.75	376.75	383.75	391.25	386.00	394.50	412.75	389.50	397.00	388.50	367.00	368.00	375.00	375.50	372.50	377.00	380.50	376.00	364.75	354.25	355.50	349.75	337.00	332.75	333.25	322.50	316.00	303.00	293.25	289.50	294.25	294.25	295.25	296.75	297.50	296.50	294.00	291.50	286.50	282.50	279.50	271.50	263.50	263.50	262.75	251.75	244.25	239.50	261.25	254.50	241.25	226.25	228.50	233.50	240.00	243.00	242.50	243.50	242.00	238.25	234.00	227.50	224.50	226.50	230.00	231.50	236.50	243.50	234.50	234.00	229.50	216.00	203.25	201.25	200.00
528.50	520.25	519.75	502.50	477.25	458.75	450.50	453.50	449.00	443.25	443.25	443.00	443.50	444.75	445.75	446.50	445.75	445.25	445.00	445.50	444.75	446.00	446.50	446.00	447.75	450.25	452.00	451.00	448.50	449.00	458.25	452.00	459.50	462.00	460.00	464.75	468.25	469.25	457.75	456.00	455.25	447.00	445.25	441.00	437.00	430.50	427.75	426.25	424.75	423.50	422.50	418.50	424.25	432.00	428.00	426.75	434.00	434.50	436.75	445.25	456.00	452.75	441.00	435.00	434.50	429.75	419.75	397.00	360.75	352.00	356.50	393.50	426.00	437.00	434.25	422.00	412.50	453.00	458.50	463.25	487.75	502.00	508.25	521.75	533.50	524.00	520.00	513.25	508.75	487.00	497.25	517.50	534.50	533.75	507.00	497.25	495.25	500.25	499.75	513.75	536.75	552.75	562.75	593.75	614.25	572.50	533.50	514.00	485.50	454.50	432.00	434.00	460.25	487.75	512.25	530.25	555.00	560.50	529.25	486.75	486.25	481.25	481.50	483.75	485.00	501.50	517.50	507.25	491.50	484.00	464.75	475.25	468.25	479.25	450.75	416.50	406.00	422.75	455.00	468.75	483.50	450.50	423.50	407.75	406.00	395.25	384.50	374.25	366.50	364.50	351.50	351.75	354.50	358.75	357.50	345.25	335.25	331.00	327.75	319.50	311.75	296.25	278.25	267.00	269.25	281.00	298.00	311.25	328.75	345.75	370.00	364.75	352.50	356.50	363.25	365.00	362.75	363.75	366.25	368.25	363.25	364.00	367.75	371.75	379.25	383.75	402.75	422.50	406.75	422.25	413.75	378.00	368.75	380.00	391.00	399.00	392.75	385.50	383.00	374.75	372.00	371.75	360.75	339.50	330.25	324.25	314.25	313.25	305.25	299.00	292.75	291.00	290.25	290.50	292.00	295.00	295.75	296.50	295.75	291.75	288.50	285.00	274.50	262.00	260.25	258.00	252.50	246.00	240.75	259.25	257.00	251.75	232.25	223.75	228.25	234.00	236.75	236.50	238.00	238.75	239.50	237.25	232.75	228.00	221.50	221.50	221.25	222.00	226.50	222.00	226.00	232.50	231.00	212.75	206.50	201.75
500.75	490.75	495.75	490.00	473.25	461.75	449.50	448.50	448.25	446.25	445.75	442.75	442.00	442.75	443.50	444.50	445.50	445.50	445.25	445.75	445.00	445.50	447.25	447.75	448.25	449.25	451.50	453.75	455.00	453.50	459.25	452.75	461.25	462.00	459.75	465.00	469.00	466.50	456.25	451.75	447.25	448.50	451.50	453.00	450.00	439.50	438.50	435.25	434.75	433.75	434.50	435.00	445.25	461.75	455.00	448.25	441.00	439.00	451.00	464.25	478.25	466.50	453.75	448.50	444.25	443.25	449.00	451.75	421.00	373.00	349.00	353.75	373.25	397.75	416.00	414.50	376.25	405.50	416.00	430.50	466.25	486.50	511.25	537.50	553.75	550.25	550.25	541.75	518.25	488.00	498.50	523.50	543.50	548.25	512.75	514.00	503.00	498.50	494.25	504.25	519.75	536.00	544.50	596.75	621.00	588.00	540.50	527.50	511.50	483.50	448.50	430.50	434.75	466.75	506.00	526.50	551.00	561.75	548.25	494.75	484.00	483.75	485.50	487.75	496.50	510.25	509.00	497.00	482.50	475.25	458.50	468.50	471.75	467.75	447.00	423.00	407.75	430.25	462.25	483.50	488.75	456.25	429.00	406.75	404.25	397.00	387.75	377.50	373.00	368.00	351.00	343.00	348.25	355.50	356.00	345.25	335.50	329.00	325.50	315.50	310.75	301.00	289.50	276.00	265.50	271.75	287.75	300.75	325.25	348.75	388.00	384.75	370.25	369.25	370.25	373.25	371.50	373.00	367.25	369.00	360.75	363.00	368.75	374.00	376.50	382.50	407.25	417.25	410.50	420.75	413.00	386.00	371.75	385.25	413.50	441.00	425.75	390.00	384.00	379.75	378.75	379.75	370.00	354.25	346.75	329.50	312.50	307.50	302.50	301.00	293.75	289.25	288.00	286.50	287.25	289.50	290.75	293.00	295.00	294.75	294.00	290.50	279.00	261.75	257.00	255.25	251.75	246.50	241.50	254.25	253.25	252.00	237.25	219.75	223.00	228.00	230.25	230.50	232.00	233.00	235.00	235.25	234.25	232.50	224.75	221.50	221.75	220.25	218.00	216.00	218.25	225.25	231.75	227.00	219.00	209.00
504.75	481.50	470.50	472.00	464.75	456.75	448.75	446.75	446.75	449.00	450.25	445.00	443.50	444.25	442.00	442.50	444.25	444.75	445.50	446.25	445.75	445.25	446.25	447.00	447.25	449.75	454.75	458.00	461.00	458.50	460.75	459.25	463.00	462.25	460.25	465.25	464.25	460.00	459.00	453.25	452.50	465.25	473.00	482.75	472.50	447.00	441.75	442.50	441.75	442.25	441.75	445.50	458.75	484.50	489.50	482.00	451.00	439.25	460.00	481.00	503.50	485.25	460.50	454.50	451.00	450.00	464.25	483.25	482.00	456.50	414.50	369.50	348.50	357.25	365.25	367.75	347.25	359.00	369.00	400.75	442.75	467.00	505.75	537.25	564.75	583.00	588.00	579.75	534.50	489.75	490.25	515.50	543.25	557.50	523.25	528.50	521.00	505.00	491.75	497.00	507.50	530.00	533.75	594.50	625.25	596.50	547.50	548.25	545.50	505.75	465.50	440.50	422.50	446.00	490.00	511.00	537.50	556.25	563.75	504.50	481.25	480.75	484.75	490.25	503.25	510.75	493.25	484.00	478.75	469.25	454.00	462.50	493.75	488.50	448.50	430.75	414.00	436.75	467.75	486.50	487.75	457.50	441.50	415.50	407.75	401.25	391.00	383.25	382.50	373.50	357.00	342.50	342.25	351.00	351.25	345.25	337.25	329.00	323.00	312.50	310.75	300.75	294.00	285.50	268.75	264.75	278.25	291.75	317.25	353.25	397.00	397.00	387.00	384.50	387.75	392.25	387.25	386.50	374.50	362.25	357.00	363.75	368.50	376.25	376.75	380.00	400.25	406.25	401.50	402.00	393.00	382.00	373.00	388.75	425.00	471.00	468.00	403.25	383.50	380.75	378.50	376.50	368.25	371.75	366.00	347.25	324.00	310.50	305.25	302.50	295.50	288.75	287.25	285.25	284.25	284.25	285.00	286.25	289.00	292.25	294.75	294.50	283.75	261.25	255.25	256.50	251.75	251.00	254.50	256.00	252.75	251.50	239.50	220.50	218.50	222.00	224.00	224.50	226.00	227.00	228.50	229.00	229.25	230.75	229.00	226.50	225.00	222.50	219.50	216.25	214.00	216.25	222.75	233.00	232.75	222.50
501.50	483.75	456.50	452.75	453.25	449.50	447.00	447.00	447.00	450.00	450.50	447.50	447.00	445.25	441.75	442.00	443.00	443.50	444.25	444.50	445.00	445.25	445.25	445.50	445.75	449.50	454.00	457.75	460.00	457.50	460.25	463.75	465.50	462.00	458.75	462.00	458.50	463.50	476.75	472.25	469.50	483.75	499.50	511.75	494.50	452.25	439.50	444.00	446.75	448.00	448.25	452.50	467.75	490.50	518.25	528.50	473.00	442.50	456.00	484.00	513.50	500.50	466.75	461.00	478.50	472.50	482.00	518.25	548.25	546.25	503.00	436.25	385.50	367.25	361.75	365.75	371.00	358.50	349.00	366.00	406.00	437.75	478.75	516.00	556.00	589.50	607.25	586.75	523.75	483.50	478.75	499.25	529.25	550.00	534.50	536.25	540.75	518.50	493.75	492.50	518.00	542.50	537.50	581.25	608.00	584.75	551.50	563.50	571.25	521.25	475.75	454.25	424.25	430.00	469.50	490.50	517.25	545.75	564.50	512.50	476.00	473.00	479.00	486.00	503.50	526.00	498.75	481.50	474.75	465.25	455.50	461.25	492.25	497.00	453.25	436.00	424.00	439.25	481.50	486.75	482.50	466.75	451.50	429.50	416.00	406.00	393.25	388.50	390.00	378.75	362.50	350.25	339.50	344.25	347.00	346.00	339.75	333.50	323.75	311.50	311.75	302.50	295.75	289.75	274.00	266.25	267.75	284.00	308.00	356.75	397.75	399.50	398.50	400.75	410.50	411.00	401.25	393.00	381.00	367.50	371.25	373.50	368.50	373.25	370.00	374.00	384.00	393.00	399.50	398.75	388.50	383.00	373.00	384.00	425.00	487.25	488.00	415.75	384.75	380.25	377.75	373.00	366.25	386.00	374.00	357.50	334.00	319.25	314.25	307.00	298.75	288.00	286.75	285.75	284.00	282.25	281.25	280.75	282.25	286.50	290.25	293.00	287.25	266.00	257.50	256.25	252.00	261.50	274.50	260.25	255.25	252.00	242.50	228.25	220.00	216.00	218.00	219.00	220.25	221.25	222.00	222.25	222.00	224.00	226.75	227.00	225.75	224.00	221.25	218.00	214.50	211.50	213.50	226.00	234.50	233.75
467.50	464.00	448.25	443.75	442.75	443.75	444.25	445.25	446.00	450.25	451.50	448.50	449.50	446.50	443.00	443.00	444.50	443.25	442.50	442.75	444.25	444.75	444.25	444.25	445.00	448.00	452.00	457.00	459.50	457.50	461.00	463.25	464.25	460.00	458.50	459.50	456.00	467.50	502.00	494.25	480.25	491.00	507.50	507.75	488.25	459.50	446.25	444.25	450.75	449.50	447.75	455.00	470.25	486.25	520.75	561.00	502.75	455.25	447.00	473.00	503.50	509.50	481.75	478.25	512.75	495.00	490.00	547.00	600.75	607.50	567.00	494.00	453.50	425.50	426.25	437.00	437.25	392.75	358.00	351.75	366.75	400.25	439.50	481.50	522.25	556.50	573.75	544.25	492.50	467.25	464.75	479.50	507.00	529.50	532.50	536.50	558.75	539.50	502.00	494.00	526.50	555.50	550.50	565.50	578.75	572.25	556.25	557.50	560.00	526.50	486.25	470.00	435.50	422.75	448.00	465.25	490.75	524.75	545.75	516.75	474.25	467.50	476.50	479.75	503.00	555.50	523.50	485.50	468.75	461.75	455.75	453.00	468.50	474.00	453.75	441.75	433.50	434.25	474.50	494.75	475.25	461.75	456.50	447.25	424.25	407.00	393.25	391.75	389.50	384.25	364.00	355.75	343.25	332.75	336.50	342.50	340.25	336.50	328.00	315.25	314.25	305.50	301.00	295.25	282.00	271.50	259.25	269.75	292.00	349.50	397.25	399.00	406.00	412.75	428.00	421.75	405.50	385.00	378.75	386.75	399.00	393.00	375.75	373.25	365.75	370.00	376.00	383.75	395.25	394.75	389.25	386.25	370.75	367.75	411.75	473.75	460.25	411.75	386.75	381.00	376.75	370.25	367.75	388.50	374.50	359.25	335.00	323.75	319.25	312.50	300.50	287.50	286.25	286.00	285.25	283.50	282.00	280.50	278.25	280.50	284.50	287.50	285.50	271.50	260.00	253.50	249.25	264.50	280.00	264.75	259.00	253.75	247.50	238.25	229.50	216.75	213.50	213.50	214.50	215.50	215.75	215.50	214.75	217.25	221.00	222.50	222.75	222.75	221.50	219.75	216.25	212.50	210.25	214.50	223.75	237.00
441.50	443.00	444.50	443.50	441.50	440.00	437.00	436.00	439.50	443.50	448.50	449.00	447.00	448.00	449.50	447.50	446.50	446.00	444.00	443.50	446.00	447.00	445.50	444.50	442.00	442.50	447.00	452.50	456.00	461.00	459.50	461.00	458.50	456.50	457.00	457.00	454.00	460.50	497.00	498.50	485.00	505.00	491.50	467.00	460.00	457.50	459.50	461.00	455.50	453.50	440.00	447.00	459.00	478.00	521.00	560.50	511.00	479.00	453.00	452.00	464.50	496.00	509.00	495.50	517.50	494.00	482.00	535.00	574.00	622.00	612.50	571.00	549.50	507.50	491.00	500.50	465.00	423.00	381.50	371.50	339.50	346.50	384.50	413.50	439.00	484.50	470.00	468.00	450.00	438.00	453.50	484.00	505.00	514.50	521.00	536.00	580.50	572.50	519.00	496.50	510.50	543.00	584.50	564.50	547.50	542.00	536.50	520.50	511.50	506.50	491.00	477.50	455.00	432.00	418.50	430.00	449.00	476.50	494.00	499.00	476.50	456.50	459.00	468.50	502.00	557.00	546.50	488.00	464.00	454.50	455.50	445.00	447.00	451.50	453.50	445.50	445.50	435.00	443.50	478.00	475.50	438.00	429.00	447.50	424.50	403.50	394.50	391.00	382.00	436.50	364.00	356.00	343.50	335.50	326.00	334.50	334.50	334.50	330.50	324.00	314.50	303.50	307.50	299.50	285.50	273.00	263.00	256.50	269.00	295.50	387.50	397.00	402.00	399.00	422.50	457.50	396.50	368.50	372.00	414.00	421.50	412.00	386.50	379.00	382.00	384.00	388.00	400.00	412.00	408.50	405.00	378.50	367.00	356.00	370.00	397.50	393.50	398.50	389.50	376.50	370.00	364.50	361.00	361.00	361.50	357.50	335.50	328.00	323.00	318.00	301.00	286.50	286.00	286.50	287.00	287.00	287.00	287.00	284.00	275.00	275.50	279.00	279.50	275.50	276.00	272.50	245.00	242.50	254.00	270.50	264.50	258.50	254.00	249.00	245.00	236.50	226.00	215.50	208.50	206.50	206.00	205.00	203.50	207.50	213.00	215.00	216.50	217.00	217.00	217.00	216.50	214.50	212.00	208.00	207.00	226.50
443.50	445.00	446.00	444.00	442.50	440.50	438.25	436.50	437.50	440.25	446.00	447.25	447.50	447.50	450.00	449.75	447.75	447.25	445.50	443.75	444.00	445.50	446.25	444.25	441.75	442.75	447.25	452.00	455.25	460.25	461.75	460.00	457.50	457.75	457.50	454.50	452.00	457.75	483.00	487.00	485.75	515.75	502.75	463.75	457.50	456.25	459.50	461.00	456.75	452.75	442.25	445.75	457.75	475.25	516.25	539.25	494.00	471.75	454.75	452.75	458.50	486.00	498.25	491.00	505.25	493.25	484.00	510.25	540.25	582.75	581.50	571.25	555.75	509.75	494.25	498.25	469.25	429.25	390.50	378.25	349.75	338.75	368.00	394.25	410.25	462.00	454.00	451.00	433.75	438.50	464.25	505.00	520.50	528.00	524.25	543.75	581.00	576.25	527.00	504.00	514.25	539.25	584.50	569.75	550.00	531.75	526.00	513.25	504.75	497.50	486.25	476.75	457.50	440.25	417.25	423.00	436.75	459.50	475.25	484.75	470.75	454.00	454.25	463.50	492.00	541.25	543.50	490.75	463.75	453.75	450.50	442.00	442.75	446.50	448.50	446.00	444.75	441.75	437.75	466.00	471.00	438.00	419.00	429.50	415.75	400.25	392.00	388.50	381.00	407.50	362.25	354.25	341.75	336.50	325.75	331.00	335.00	338.00	331.00	325.25	314.50	306.50	309.50	302.25	288.25	275.75	263.75	259.00	268.00	289.75	353.50	382.00	396.00	388.50	400.50	429.50	391.75	368.00	371.00	414.50	422.25	412.25	389.50	384.50	387.50	389.25	389.50	402.50	420.00	425.00	419.25	378.25	367.00	357.75	371.50	387.50	387.25	395.75	392.00	376.00	364.50	363.25	359.75	358.25	358.75	354.50	334.00	328.50	323.25	317.75	302.25	286.00	285.75	286.75	287.50	288.25	288.75	289.75	287.50	277.50	273.75	276.00	277.25	274.50	287.75	289.75	256.25	243.50	247.25	271.75	265.75	259.25	254.50	247.50	244.00	238.25	231.75	223.00	215.25	208.75	204.50	203.00	202.25	204.50	210.25	212.50	214.25	215.25	215.25	215.00	214.75	213.75	212.25	208.75	206.75	220.50
450.00	448.50	449.00	446.50	443.50	446.00	448.50	444.00	440.00	439.00	442.00	440.50	442.50	443.00	446.00	449.50	447.00	449.00	451.50	448.50	445.00	444.50	443.50	441.00	441.50	444.00	448.50	452.50	454.50	457.50	463.50	459.50	457.00	459.50	457.50	448.00	451.00	460.00	465.50	466.50	496.50	543.00	519.50	460.50	454.00	456.00	457.50	459.50	461.00	456.00	452.00	446.50	453.50	461.50	478.50	477.50	472.50	471.00	473.00	458.00	450.50	454.00	461.50	479.50	484.00	490.00	500.00	479.00	476.50	479.00	483.00	507.00	506.00	473.50	465.50	467.00	463.00	427.00	411.00	396.50	372.00	346.50	332.50	343.50	362.00	387.50	402.50	396.00	408.00	437.50	495.50	555.00	576.50	593.00	544.00	576.00	590.00	589.00	558.50	548.50	549.50	534.00	568.50	628.50	580.50	523.50	516.50	509.00	503.00	489.00	482.50	473.00	459.00	454.00	437.50	414.00	414.00	426.50	437.00	450.00	447.50	439.50	441.50	454.50	471.00	491.50	512.50	493.00	460.50	448.50	448.50	440.00	435.00	437.00	437.00	435.00	430.00	431.50	424.00	432.00	442.50	441.00	415.00	399.00	399.50	394.00	392.50	385.50	378.50	369.00	358.50	348.50	337.50	330.50	320.50	317.00	335.50	351.50	350.50	323.50	312.50	319.50	315.50	306.00	294.00	283.50	271.00	266.50	258.50	259.00	294.50	338.00	359.00	352.00	362.00	353.00	367.50	367.00	366.50	401.00	417.50	422.00	401.50	400.00	400.50	402.00	400.00	419.00	457.50	494.50	481.00	407.50	377.50	371.00	377.50	375.50	376.50	379.50	381.50	369.50	357.50	362.50	365.50	354.00	346.50	339.00	333.00	329.50	324.50	319.50	304.00	285.50	285.50	287.50	289.50	291.50	293.50	298.00	299.00	291.00	280.50	270.50	270.50	272.00	295.00	306.00	281.50	258.50	243.00	274.00	266.00	258.50	253.50	243.00	239.00	235.50	234.00	232.50	230.50	224.00	212.00	202.00	200.50	199.50	202.00	205.00	208.00	209.50	210.00	210.00	209.50	210.00	210.00	209.50	207.50	204.00
451.00	451.50	454.50	453.50	450.00	458.50	462.50	447.25	440.00	441.75	442.50	440.75	441.00	442.75	444.50	446.75	447.00	450.00	450.75	449.75	449.25	449.50	444.75	443.00	442.00	443.00	448.00	453.50	455.75	459.00	464.00	459.75	456.50	457.50	455.50	447.75	453.00	461.25	465.00	468.25	511.50	551.75	523.25	455.75	450.00	453.25	454.25	458.25	461.25	454.75	451.50	446.25	452.25	460.75	473.50	475.50	485.50	498.00	496.25	463.50	454.25	459.00	462.25	478.25	489.25	502.00	509.50	481.75	473.75	469.75	472.25	487.75	479.75	457.25	450.50	453.00	442.00	419.00	407.25	394.25	372.75	354.25	338.50	334.00	344.75	368.75	384.00	385.75	398.50	438.75	504.00	558.50	590.50	622.75	546.75	562.25	585.50	589.50	568.50	558.00	565.75	543.50	560.50	638.00	606.25	528.50	517.75	512.00	504.00	492.25	488.25	479.00	466.75	459.25	442.75	425.00	412.00	421.75	432.00	443.00	441.00	437.25	437.75	448.75	466.00	477.25	493.50	483.75	455.25	444.25	447.25	441.50	437.00	442.00	441.25	433.25	426.75	425.50	421.75	420.75	430.75	430.00	413.50	396.00	397.50	393.25	390.25	382.75	374.00	364.25	355.25	347.50	337.00	327.00	319.00	314.25	333.00	347.75	347.75	323.25	312.75	320.75	315.75	304.25	293.75	283.50	272.75	268.00	260.00	256.75	283.75	317.75	341.50	343.25	354.00	346.50	355.00	357.50	352.75	392.50	421.25	432.00	405.75	403.75	403.50	406.25	408.50	432.50	484.50	522.75	512.25	438.25	387.00	370.50	374.00	373.50	372.50	375.50	374.50	366.75	357.50	357.25	357.00	350.50	345.50	337.75	330.75	330.25	323.75	320.50	304.75	285.00	284.75	286.75	289.00	292.00	294.25	299.50	303.75	298.00	286.50	275.00	270.50	271.50	287.25	300.50	284.00	262.50	248.25	273.25	264.75	256.25	251.25	241.50	237.25	233.00	231.25	229.25	227.00	222.75	216.50	209.00	204.75	202.00	200.50	202.25	205.75	207.75	208.00	208.00	208.00	209.00	209.00	208.75	207.50	204.50
456.50	458.00	460.00	464.50	473.50	509.00	511.50	458.50	439.50	444.50	447.00	443.00	443.50	444.50	442.50	443.00	445.00	446.50	446.00	449.50	451.00	448.00	450.50	449.00	448.00	447.00	451.50	458.00	461.50	458.50	461.50	457.00	455.50	457.00	453.50	456.00	471.00	474.50	463.00	466.50	517.50	562.00	559.00	460.00	447.00	449.00	444.50	449.00	449.50	455.00	458.00	448.00	441.50	457.00	472.00	481.50	504.50	554.50	553.50	495.00	485.50	484.50	474.50	486.50	495.00	512.00	507.00	497.00	485.50	458.50	455.00	463.50	462.00	441.50	426.00	417.00	400.00	389.50	390.50	388.50	377.00	371.00	362.50	346.00	332.00	323.00	335.00	355.00	373.00	437.50	512.50	524.50	578.50	634.00	550.50	524.00	550.00	576.00	587.00	571.50	578.50	563.50	545.50	600.00	622.50	531.00	501.50	500.50	497.50	492.00	494.50	494.00	483.50	475.00	459.50	447.00	422.50	403.00	412.00	429.50	440.00	435.00	427.50	432.00	441.00	447.50	449.00	453.00	450.00	433.00	431.50	432.50	441.50	451.50	464.00	465.50	445.50	415.00	408.50	405.00	395.50	404.50	399.50	388.00	392.50	389.00	377.00	370.50	365.00	359.00	347.00	338.50	328.50	321.00	313.50	304.50	316.00	329.00	331.00	324.00	319.00	322.50	314.50	305.50	302.00	293.50	278.50	272.50	263.50	254.50	261.50	275.50	294.00	308.50	331.00	343.50	333.00	334.50	339.00	347.50	390.50	407.00	413.50	415.50	415.00	417.00	431.50	468.00	520.00	518.50	501.50	465.50	417.50	391.50	377.00	369.50	371.00	365.00	366.00	364.00	358.50	350.50	340.00	338.00	340.00	332.00	331.00	337.00	322.00	323.50	306.00	283.50	285.00	286.00	285.00	288.00	292.00	298.00	307.50	332.00	316.00	292.50	279.00	267.50	269.00	276.50	280.50	268.50	260.50	272.00	261.50	252.00	246.50	237.00	232.00	226.50	223.50	219.00	215.00	210.50	208.50	206.00	205.00	210.50	206.50	198.50	197.50	201.50	202.50	202.50	202.50	205.00	206.00	206.00	205.00	204.00
458.50	458.00	457.50	466.00	484.00	521.00	520.50	474.00	444.50	436.50	443.50	449.00	445.00	443.00	443.50	443.00	443.50	444.00	444.50	445.00	446.00	446.50	448.00	449.00	447.50	450.00	452.50	453.00	454.50	460.50	456.50	458.50	456.50	453.50	449.50	460.00	478.00	485.50	469.50	466.50	488.00	521.50	522.50	484.50	456.50	442.50	438.00	446.00	445.50	451.00	455.00	451.00	445.50	448.00	468.50	484.50	496.50	519.50	535.50	507.00	496.00	522.50	493.50	493.50	499.50	512.00	544.50	571.50	562.50	506.00	460.00	449.00	459.50	446.00	428.50	415.50	398.50	390.00	382.00	379.50	375.00	371.00	360.00	348.50	339.00	324.50	317.50	330.50	354.50	408.00	452.50	457.00	526.00	562.50	546.50	515.00	526.00	548.00	569.50	561.50	558.00	547.00	533.00	541.50	551.00	508.00	487.00	486.50	485.00	486.00	486.50	496.00	487.50	482.00	480.50	473.50	449.00	414.50	400.50	425.00	444.50	446.00	434.50	430.50	430.50	435.00	435.50	435.00	441.00	432.00	422.50	425.50	434.50	441.00	503.00	525.50	487.50	439.00	408.50	401.50	393.00	394.00	390.00	381.00	375.50	380.00	376.00	371.00	364.00	358.50	354.50	349.00	324.00	316.00	309.00	302.50	309.00	320.00	320.50	325.00	324.50	325.50	316.50	310.50	304.00	299.50	287.00	279.00	269.50	260.00	251.00	266.00	281.00	287.50	308.50	320.50	310.00	324.00	327.00	347.50	352.00	380.00	406.50	418.50	420.50	423.50	448.00	467.00	470.00	463.00	455.00	447.50	430.00	411.00	392.00	379.50	378.00	372.50	366.50	362.50	360.00	356.00	347.00	335.50	334.50	327.00	334.50	335.00	323.50	320.50	304.50	282.50	287.00	290.50	290.00	288.50	287.00	292.00	297.50	322.50	342.00	319.00	285.50	263.50	269.50	267.00	270.50	265.50	263.50	272.50	263.00	254.00	248.50	237.00	228.00	221.50	218.00	213.00	209.00	203.50	201.00	201.00	201.00	201.50	208.00	204.50	197.50	195.50	200.00	201.00	201.00	201.50	202.00	202.50	201.50	201.50
460.00	459.50	464.50	471.50	492.50	529.50	513.50	475.00	450.50	439.00	441.50	448.50	445.00	446.50	444.50	443.50	444.00	444.00	444.00	443.00	443.00	443.00	444.50	444.50	445.50	448.50	452.00	451.50	451.50	460.00	456.00	453.50	450.50	449.50	450.00	459.50	469.50	478.00	479.50	469.00	461.50	473.00	489.00	487.00	475.00	455.00	439.00	436.00	441.00	445.00	439.50	446.00	449.00	439.00	448.00	465.50	481.00	489.50	512.50	509.50	501.50	551.00	518.50	497.00	497.50	507.50	563.00	592.00	596.00	570.00	499.00	446.50	441.50	438.00	421.50	413.00	406.50	401.50	388.00	379.00	374.50	366.50	364.50	361.50	351.00	333.00	325.00	315.00	334.00	359.00	387.50	407.00	469.50	506.50	531.00	499.00	496.50	518.50	542.50	546.00	542.50	519.50	515.50	508.50	513.50	496.00	484.00	475.50	468.50	473.00	474.00	486.50	479.00	482.50	492.50	493.50	477.50	436.00	404.50	399.50	415.00	442.50	452.00	434.00	427.00	430.50	430.50	430.00	427.00	425.00	415.00	420.50	432.50	444.50	517.50	510.50	494.50	469.50	438.50	410.50	396.50	386.50	383.00	381.50	367.50	366.50	374.00	373.50	361.00	356.50	358.00	354.50	331.00	318.50	308.00	300.00	304.00	314.50	309.50	323.00	323.50	316.00	313.00	303.00	303.50	300.50	293.00	283.50	273.50	262.50	249.00	256.50	280.50	289.00	294.50	295.00	291.50	311.00	312.00	330.50	338.00	386.50	384.50	408.50	392.50	389.00	457.50	461.50	464.50	465.00	461.50	440.00	432.00	412.00	397.50	392.50	387.50	376.00	369.00	361.00	355.50	353.00	346.50	334.00	331.50	330.50	339.00	332.00	322.50	321.50	302.50	283.50	290.50	294.50	296.50	300.00	299.00	288.00	290.00	296.00	306.00	322.50	295.00	265.50	264.00	262.50	264.00	261.50	262.00	274.50	269.00	264.00	257.00	245.50	232.00	217.50	213.00	208.50	205.50	202.50	201.00	200.00	199.50	200.00	202.00	205.50	203.00	196.00	194.50	199.50	201.00	201.00	200.00	200.00	198.50	199.00
459.00	464.50	467.00	471.50	494.50	528.50	515.50	493.50	473.50	452.50	443.00	449.00	447.00	448.50	445.50	444.00	443.00	444.00	444.00	444.00	444.50	445.50	444.00	446.50	443.50	445.50	453.00	453.50	456.00	460.50	456.50	456.50	452.50	451.00	451.50	459.00	464.00	468.50	473.00	472.00	462.00	456.50	465.50	486.50	489.00	472.50	459.00	448.50	438.50	442.50	433.50	440.50	453.50	441.50	440.50	446.00	466.50	479.00	484.00	490.50	491.50	527.50	514.00	501.50	498.00	500.50	537.50	553.00	540.50	525.00	499.50	465.00	439.50	424.00	418.00	419.00	434.00	437.50	408.50	395.00	383.00	374.00	370.00	365.50	359.50	343.50	335.00	312.00	318.50	329.50	343.00	368.00	423.00	476.00	506.00	492.00	482.50	490.00	520.00	538.50	535.00	505.50	496.50	495.00	503.50	486.50	472.00	469.50	459.00	456.00	456.00	459.50	467.50	471.00	492.00	500.00	499.50	471.50	429.00	386.00	395.00	429.00	457.00	446.50	431.00	432.00	431.50	428.50	425.50	421.00	415.00	414.00	424.50	445.00	473.00	472.00	496.50	505.50	472.00	436.50	395.50	385.00	373.50	373.50	364.50	362.50	363.50	366.00	355.50	350.50	351.50	355.00	342.50	324.00	307.00	293.00	292.50	311.50	309.00	322.50	320.00	309.00	301.00	297.50	298.00	298.00	296.50	290.50	274.50	265.00	258.50	256.00	282.50	301.50	288.50	288.50	291.00	311.00	314.00	321.50	333.50	374.50	390.00	406.50	394.00	395.50	459.50	472.50	499.50	523.50	502.00	465.50	451.50	419.50	398.50	399.00	391.00	388.50	387.00	378.00	361.00	350.00	337.50	332.50	329.50	334.50	337.00	333.50	322.50	320.00	305.00	290.00	293.50	297.50	299.50	303.00	304.00	295.50	288.50	286.00	287.00	300.50	296.00	257.50	260.00	255.00	260.50	255.00	257.00	268.50	265.50	258.50	256.00	254.00	242.50	223.50	213.50	204.50	201.00	200.50	199.00	199.00	198.00	198.50	199.50	201.50	202.50	199.50	194.00	192.00	196.50	200.50	201.00	197.50	195.50	195.00
458.50	461.50	466.50	468.50	477.50	507.50	509.50	494.00	478.00	464.50	447.50	443.00	446.00	448.00	445.50	446.50	445.00	447.00	445.00	445.00	444.50	444.50	450.00	465.00	460.50	449.50	449.00	447.00	454.00	458.50	459.00	453.00	451.00	451.50	447.00	445.00	455.50	460.50	467.50	471.00	472.00	471.00	469.00	475.50	501.00	497.00	473.00	474.00	460.00	464.50	456.00	441.00	454.50	445.00	433.50	437.50	456.50	465.50	468.50	470.00	475.00	491.00	493.00	491.00	495.00	498.50	526.50	567.50	569.50	514.00	513.50	475.50	444.00	426.50	425.50	425.00	439.50	458.00	437.50	414.50	395.00	376.50	366.50	358.00	357.50	348.00	344.00	333.50	322.00	313.00	319.50	334.50	375.00	426.50	458.50	464.00	469.50	471.50	489.00	514.50	515.50	491.50	475.00	481.50	484.00	471.50	464.00	460.00	459.50	448.00	440.00	439.50	455.50	465.50	483.00	493.50	502.50	492.00	462.00	398.00	383.50	402.00	429.50	451.00	440.50	437.00	435.00	430.00	424.50	422.00	413.50	409.00	410.00	419.50	453.50	448.50	482.00	501.00	461.00	456.50	414.00	388.50	375.50	361.50	354.50	352.00	357.00	360.50	352.00	345.50	342.50	345.50	346.50	330.50	309.50	296.00	291.50	293.50	305.50	318.00	318.00	302.00	303.00	296.00	290.50	287.50	294.50	291.00	275.00	266.50	262.00	253.00	277.00	299.50	295.00	291.00	292.00	309.50	317.00	318.00	325.50	356.00	376.50	392.50	382.00	396.50	452.50	496.00	528.00	526.50	500.50	484.00	471.50	440.50	409.00	409.50	402.00	421.00	423.50	407.50	387.00	361.00	347.50	335.50	331.00	334.00	331.50	332.00	323.00	323.50	315.50	296.00	296.50	299.00	300.50	303.00	307.00	302.00	294.00	286.50	280.00	277.50	280.50	256.00	249.00	250.50	256.00	253.50	254.00	261.00	257.50	252.50	250.50	252.50	249.50	232.50	222.50	209.50	200.50	199.00	198.00	198.00	197.00	197.00	198.00	199.00	200.00	200.00	197.00	192.50	189.50	193.00	198.50	201.00	200.50	195.00
465.25	463.75	463.00	467.25	495.25	487.50	486.75	481.75	462.50	450.00	448.50	445.00	444.25	448.00	453.50	452.75	450.25	450.25	448.00	446.00	445.25	446.75	448.75	455.00	468.75	471.50	467.00	454.25	446.00	440.75	450.50	454.25	454.25	457.50	454.25	453.25	457.25	459.25	467.50	472.50	477.75	483.25	481.50	473.50	468.00	473.00	474.50	476.25	474.50	467.25	466.75	452.25	447.25	445.00	442.75	436.75	444.75	453.00	466.00	467.00	469.25	469.50	474.25	481.25	487.00	497.50	545.25	633.75	591.75	520.50	517.50	487.50	447.00	430.75	430.25	430.50	426.50	440.50	431.75	422.00	416.75	412.25	386.00	363.25	352.50	343.75	340.00	348.50	337.00	319.50	309.00	307.00	327.00	357.25	399.00	430.75	451.25	453.50	451.25	465.50	468.25	459.00	448.75	451.00	480.25	489.25	461.00	448.75	446.00	441.50	430.50	424.75	437.50	451.50	460.50	472.50	477.75	479.75	478.50	428.75	397.75	374.25	388.00	424.25	443.25	443.75	441.00	432.00	422.50	420.50	415.25	413.25	407.50	408.25	417.50	421.25	432.50	444.00	430.50	419.50	403.00	387.50	379.50	360.00	355.50	349.00	346.50	347.25	342.00	338.75	332.00	328.25	321.75	317.25	309.25	300.75	294.50	287.75	296.25	308.50	307.75	298.00	297.75	294.75	289.00	283.75	279.00	278.25	275.75	269.50	255.75	252.00	249.00	276.25	294.75	298.00	291.75	302.50	306.75	307.25	307.00	329.75	348.75	364.25	368.50	379.25	449.00	474.00	482.50	485.50	484.25	469.75	463.50	451.75	437.00	424.50	436.25	463.00	445.50	428.50	411.50	385.00	366.25	346.50	338.00	330.75	324.50	321.75	317.75	323.00	310.75	292.50	295.00	297.50	299.00	300.75	304.25	307.75	302.00	293.75	284.75	276.50	269.75	264.25	249.00	246.75	249.25	248.00	248.00	253.50	252.75	251.75	248.00	240.75	236.25	224.75	216.50	207.25	201.00	199.00	197.25	196.00	195.50	194.50	195.25	195.00	195.50	195.75	196.75	196.25	193.50	189.75	188.50	191.00	195.75	192.25
470.50	466.50	464.00	471.50	516.00	487.00	474.50	473.00	459.50	448.00	446.50	445.50	445.50	447.00	452.50	455.00	454.00	453.00	449.00	445.50	445.50	447.50	447.50	448.00	459.00	472.00	477.50	468.50	452.50	438.00	451.00	454.50	457.50	459.00	457.00	459.00	457.50	458.50	472.00	479.00	482.00	489.00	490.00	479.00	468.00	467.50	469.00	470.50	472.00	459.00	458.00	454.50	446.50	445.00	445.50	439.00	436.00	447.50	465.00	466.00	465.50	468.00	470.00	476.50	482.50	497.00	557.50	643.50	590.00	522.50	508.50	483.00	446.00	432.50	428.50	428.50	423.00	437.00	435.50	429.00	423.50	417.50	393.50	367.50	351.50	340.50	338.50	347.50	336.50	322.50	314.00	300.50	311.50	331.00	378.50	418.00	448.00	451.00	443.00	450.50	449.00	446.00	439.50	446.00	477.00	502.50	464.00	447.00	441.50	437.00	429.50	419.00	429.00	445.00	455.00	467.00	468.00	469.00	468.50	441.50	404.00	372.00	379.00	412.50	441.50	446.50	442.00	434.00	423.50	419.50	414.50	416.00	408.50	408.50	407.00	409.50	414.50	420.50	418.00	408.50	393.50	384.50	380.00	362.50	356.50	347.50	343.50	343.00	338.00	335.50	332.50	329.00	318.00	313.00	309.50	301.00	293.50	287.50	293.00	307.50	308.50	293.50	291.00	288.50	287.00	284.00	279.00	275.50	272.50	265.00	254.00	250.50	245.50	273.00	288.00	300.00	293.50	298.00	302.50	300.00	301.50	321.50	338.50	354.00	364.50	371.50	444.00	455.00	477.00	472.50	481.50	462.50	459.50	454.00	446.50	430.50	448.00	473.00	445.00	426.50	412.50	390.00	372.00	348.50	338.00	330.50	323.50	319.50	316.00	323.00	310.00	291.00	293.00	295.50	297.50	299.00	302.00	307.50	304.50	296.00	286.00	277.50	269.50	265.00	251.50	243.00	247.50	244.50	246.00	252.00	252.00	251.50	248.00	240.00	231.00	220.50	213.50	205.50	201.00	199.00	197.50	196.00	195.00	194.00	194.50	194.00	194.00	194.00	195.50	196.50	195.00	191.00	188.50	186.00	191.00	190.00
467.25	472.00	469.50	473.25	489.00	481.50	464.75	450.25	445.50	444.00	441.25	441.00	444.00	445.00	447.00	449.25	450.25	448.50	450.25	448.50	445.75	445.75	446.75	447.25	447.75	450.75	463.00	478.25	491.75	459.25	452.50	455.75	460.25	459.50	456.50	455.25	457.25	461.00	479.00	494.25	506.50	507.00	502.50	495.50	481.00	478.50	478.50	464.75	460.25	459.25	460.75	455.00	447.75	446.50	445.25	442.50	433.50	430.25	444.50	455.25	472.25	483.00	474.25	468.25	475.75	500.25	567.00	637.00	614.25	527.00	479.25	454.75	447.75	464.25	461.00	438.50	425.00	423.50	417.50	406.25	394.75	387.50	376.50	371.25	368.00	364.50	355.00	355.75	347.00	335.00	327.75	314.75	300.50	297.75	337.50	369.50	384.25	399.75	419.00	439.75	435.50	427.00	427.00	429.25	469.50	524.00	495.75	483.75	456.25	432.00	427.00	424.75	418.75	423.00	436.50	441.75	446.00	441.25	440.25	425.25	407.50	377.25	368.50	381.00	411.25	445.25	452.50	442.00	426.50	418.25	414.50	414.50	414.00	409.25	405.00	405.00	401.00	395.75	391.50	384.75	373.00	365.50	365.00	363.75	358.25	349.25	340.50	337.50	339.25	341.50	335.75	327.25	313.00	306.50	300.25	293.50	289.00	288.25	286.50	303.50	310.00	295.75	291.25	282.25	276.25	273.25	267.75	263.25	264.50	266.75	262.50	254.25	243.00	261.00	272.50	275.75	280.75	303.75	299.50	314.50	317.00	309.75	316.75	336.75	346.00	352.25	377.75	415.25	460.00	463.75	461.00	444.50	437.50	441.00	440.75	458.25	479.25	436.00	430.75	421.50	411.25	398.25	387.50	363.25	352.25	342.50	324.75	315.25	320.25	321.75	312.50	293.00	288.75	288.50	290.00	292.00	294.50	299.75	302.00	299.25	290.00	279.75	269.00	264.00	255.00	250.75	239.75	242.50	245.25	248.25	248.25	248.00	248.00	245.00	238.25	226.75	219.50	211.50	206.50	202.25	199.00	197.50	195.25	193.50	193.00	192.50	191.25	190.50	191.00	192.00	192.75	192.50	191.00	188.25	185.50	183.25
465.00	472.50	470.00	472.00	472.50	467.00	462.00	449.00	443.00	442.00	440.50	439.00	441.50	444.00	446.50	448.00	448.50	447.50	449.50	449.00	445.00	445.50	448.50	448.00	447.50	447.00	455.50	470.00	493.50	470.50	453.00	456.00	460.00	461.00	457.00	454.00	457.00	462.50	482.00	496.00	516.00	516.00	507.00	498.00	482.50	486.50	492.00	469.00	461.00	461.50	467.50	457.50	446.50	446.50	445.50	442.50	435.50	431.50	432.50	450.50	473.00	488.00	480.00	468.50	474.00	504.50	568.00	631.00	613.50	521.50	476.50	450.50	450.50	480.50	486.50	449.50	425.00	418.50	407.50	404.00	398.00	392.50	383.00	381.50	379.50	384.00	366.50	364.50	358.00	344.00	334.00	323.00	304.50	294.50	325.00	346.50	360.00	379.50	409.50	435.50	432.50	418.50	419.50	423.50	469.50	520.00	512.00	504.00	466.00	431.50	428.00	427.50	415.00	416.50	432.50	429.50	436.50	432.50	429.00	411.50	398.00	375.00	366.50	368.50	398.00	442.00	461.50	447.50	430.00	418.00	414.00	413.50	415.50	412.00	407.00	409.50	408.00	398.50	387.00	378.50	368.00	360.00	360.00	358.50	354.50	348.50	342.50	338.00	341.50	342.50	337.50	326.00	311.50	307.50	299.50	291.50	288.50	287.50	285.50	302.00	309.00	297.50	292.50	281.50	276.00	273.50	265.00	260.00	263.50	267.50	266.50	257.00	242.50	255.50	266.50	265.50	275.00	303.50	298.00	321.00	328.00	315.50	312.00	330.50	338.00	348.00	362.00	403.50	439.00	451.00	451.00	441.00	433.50	440.00	439.50	461.00	474.00	417.00	424.50	420.00	407.50	400.00	394.50	367.00	358.50	347.50	328.50	317.00	323.50	322.00	312.50	295.50	288.50	286.50	287.50	289.50	292.00	297.00	300.00	299.50	291.00	280.50	269.00	265.00	254.00	249.50	240.50	241.50	247.50	247.00	247.00	247.00	247.00	246.50	241.00	230.00	222.50	214.50	209.00	203.50	199.50	198.00	195.50	193.50	193.00	193.00	191.50	189.50	189.50	190.00	191.00	192.00	191.50	189.50	186.50	183.00
478.75	478.00	474.25	481.75	503.00	485.00	453.75	441.25	438.50	445.00	444.75	440.75	440.75	440.50	441.00	441.75	443.00	443.75	444.25	443.75	444.25	447.25	447.50	449.50	445.50	444.50	451.25	457.50	465.75	470.50	460.75	457.00	462.00	461.00	452.25	449.25	456.25	463.00	485.50	500.50	532.25	541.25	537.25	519.25	498.50	511.75	553.25	562.25	507.00	480.00	502.75	491.50	463.00	448.00	443.75	443.00	431.00	429.00	424.00	420.25	439.00	457.50	470.25	468.75	469.25	490.75	531.50	565.00	570.50	548.25	498.50	470.75	476.25	485.50	500.50	471.50	429.00	408.75	439.00	464.00	445.00	423.25	413.25	414.50	447.50	469.75	433.75	416.00	404.75	393.75	379.75	355.25	336.00	324.75	304.00	295.75	329.50	343.75	378.75	396.25	398.00	393.50	403.50	416.75	430.00	451.25	516.25	502.50	475.50	435.50	426.00	430.25	413.00	402.25	411.25	424.00	423.75	413.50	406.50	422.25	438.25	409.75	385.75	359.75	364.75	398.25	431.25	436.75	432.75	425.00	415.25	414.75	413.25	408.25	407.50	413.75	413.00	418.50	421.00	412.75	386.25	361.75	356.25	352.00	349.25	343.50	339.50	340.50	338.25	339.50	336.25	329.75	311.75	305.25	296.50	291.00	288.50	285.75	277.50	296.75	309.50	311.75	300.75	294.25	292.75	283.00	271.50	266.75	261.25	261.50	267.25	264.00	247.50	247.50	250.75	253.75	265.50	280.25	294.25	337.50	334.25	324.00	318.25	323.75	330.75	336.50	346.50	364.50	382.75	391.25	415.00	421.75	433.00	442.00	440.25	444.75	434.25	401.25	408.50	409.25	401.75	402.00	404.25	386.50	372.25	359.25	339.25	330.50	379.75	348.75	338.00	345.50	323.25	288.00	282.25	282.75	285.00	288.75	291.25	291.50	285.00	276.75	267.75	260.75	253.75	251.25	241.25	236.50	238.25	244.75	243.50	243.50	243.50	244.00	243.75	238.50	231.25	222.00	214.50	205.75	201.50	200.00	197.75	196.50	196.00	196.00	195.75	194.50	193.00	190.25	187.50	187.50	187.50	187.50	187.00	185.25
477.50	482.00	478.00	488.00	510.00	493.00	454.50	438.00	435.50	443.50	446.50	441.00	439.50	440.00	440.50	440.50	441.50	440.00	441.00	442.50	444.00	446.00	445.50	448.00	443.00	444.50	452.00	456.50	461.50	462.50	462.50	457.50	464.50	462.00	448.00	445.00	456.00	462.00	486.50	504.00	540.00	548.50	551.00	531.50	504.50	508.50	556.00	595.00	520.50	484.00	512.00	500.50	470.50	450.50	445.50	444.50	430.50	426.50	423.50	416.00	425.00	445.00	457.50	465.00	469.50	483.00	511.00	533.50	544.00	540.00	510.00	485.50	480.00	475.50	485.50	466.50	428.00	410.50	444.00	468.50	444.50	426.50	420.50	425.50	461.50	489.50	449.50	429.50	417.50	411.00	409.50	368.50	339.50	337.50	316.00	299.00	314.50	333.00	371.50	386.00	386.00	386.00	398.00	415.50	415.00	439.00	501.00	497.50	465.50	433.50	423.50	426.50	407.50	395.00	400.50	418.00	421.00	408.50	404.00	440.00	454.00	422.50	390.00	362.50	353.50	383.00	412.50	427.50	428.00	426.00	416.50	416.00	412.50	405.00	405.50	413.50	413.00	422.00	432.50	424.50	395.50	367.00	359.50	354.00	348.00	340.50	338.00	341.50	337.00	337.50	335.50	329.50	312.50	303.00	295.00	289.50	288.00	287.00	277.50	297.00	312.50	316.00	304.00	298.00	296.50	286.50	271.50	267.00	259.50	260.00	268.50	265.50	250.00	241.50	242.00	249.00	261.50	274.50	288.50	339.00	331.00	323.00	318.50	326.00	331.50	335.00	343.50	356.50	370.00	380.50	401.00	416.00	433.00	443.00	441.50	440.50	430.00	407.50	410.00	402.50	401.50	398.00	400.50	389.50	375.00	361.50	345.50	337.50	408.00	371.50	353.50	381.50	350.50	292.50	282.00	280.50	282.50	286.00	288.50	288.50	282.50	274.50	265.50	258.50	251.00	249.50	242.00	237.00	237.00	244.00	242.50	242.00	242.00	243.00	243.00	241.00	234.00	224.50	216.00	206.50	202.00	200.50	198.50	197.50	197.00	197.00	197.00	196.50	195.50	193.00	187.00	186.00	186.00	186.00	186.00	185.50
476.50	478.50	483.50	490.00	508.00	507.50	464.00	439.50	436.50	440.00	443.00	442.50	438.50	439.50	439.00	440.50	443.00	439.50	438.50	438.00	437.50	445.50	440.50	436.00	440.50	450.00	456.00	458.50	462.50	465.00	466.00	463.00	472.00	467.00	458.00	435.50	453.50	461.50	481.00	509.00	565.00	605.00	596.50	559.00	530.00	508.50	558.50	589.50	516.00	462.50	480.50	506.50	478.00	459.00	452.50	451.00	443.00	435.00	427.00	415.50	409.00	420.50	437.00	447.00	457.50	474.00	490.50	490.00	491.00	490.00	492.50	478.50	460.00	457.00	456.00	447.50	427.00	417.00	428.00	437.00	437.00	435.50	435.00	462.00	482.50	492.00	466.00	482.50	503.00	494.00	507.00	439.00	354.00	336.50	334.50	323.50	297.50	315.50	354.00	365.50	368.50	376.00	391.50	403.00	398.50	403.00	432.50	497.50	455.50	433.00	409.50	397.00	390.50	384.50	380.00	406.50	419.00	404.50	417.00	468.50	466.00	434.00	403.50	374.00	352.50	353.50	374.00	395.50	408.50	416.00	420.50	417.00	411.50	401.50	404.00	419.00	426.00	447.50	460.50	447.00	412.50	384.00	373.00	354.00	348.00	343.00	338.50	333.00	331.00	335.50	327.50	324.50	317.00	309.00	295.00	279.50	277.00	281.50	283.50	291.00	310.00	322.50	310.00	297.50	293.50	291.50	274.50	267.50	256.50	257.00	260.50	259.00	257.50	239.00	235.50	240.50	249.00	271.50	285.00	323.50	326.00	320.50	314.00	324.00	324.00	325.00	339.00	352.50	357.50	351.50	389.00	413.00	440.00	452.00	435.00	431.00	409.50	401.00	400.00	390.00	391.00	391.00	385.50	383.50	373.00	365.00	361.00	365.50	389.00	387.00	358.00	381.00	397.50	310.00	292.50	278.00	277.50	280.50	283.00	283.00	277.50	269.50	262.00	256.00	250.00	249.00	246.00	244.00	242.50	243.00	241.50	240.00	240.00	241.00	241.00	241.00	239.50	229.00	219.00	207.50	202.50	202.00	200.00	199.50	199.00	199.00	200.00	200.00	200.50	200.00	195.50	187.00	184.00	183.00	183.00	182.50
484.50	490.00	484.00	476.50	481.00	490.00	475.00	451.50	443.50	441.50	443.00	446.00	447.00	443.50	437.00	437.50	439.00	441.00	440.00	437.50	435.50	433.50	431.00	433.50	441.50	451.50	455.50	458.00	462.00	464.00	470.50	476.00	477.00	470.00	462.00	443.50	448.00	457.50	470.00	498.50	584.00	638.50	589.50	542.00	543.00	514.00	555.00	563.00	501.00	453.00	448.50	489.50	481.00	461.00	459.00	454.50	467.00	462.00	436.00	420.00	410.50	402.50	412.00	429.50	441.50	458.50	484.00	469.50	471.50	473.50	479.00	473.50	467.50	467.00	462.00	461.00	453.50	434.00	431.00	432.50	434.00	427.00	461.50	514.00	489.50	482.00	487.50	551.50	541.50	521.00	524.50	453.50	389.50	351.00	329.50	325.50	306.50	299.00	334.00	346.50	360.00	385.00	406.50	392.50	387.50	394.50	425.50	495.00	456.50	414.00	380.00	370.00	375.00	372.50	371.00	386.00	402.50	405.50	421.00	469.50	466.50	438.50	420.00	384.50	370.50	358.00	343.00	356.50	376.00	392.50	412.50	414.50	407.00	408.00	416.00	434.00	458.00	501.50	477.50	454.50	416.50	391.50	383.50	361.00	352.00	345.00	339.00	334.50	329.00	328.50	326.00	321.50	310.50	304.50	293.50	288.50	278.50	272.00	276.50	279.50	293.50	315.00	309.50	300.50	293.00	296.50	279.50	269.00	255.00	258.50	255.00	256.00	255.00	245.50	233.00	238.00	241.50	258.00	267.00	290.50	306.50	313.00	308.00	309.50	309.00	312.50	344.50	350.50	376.50	369.50	401.50	418.00	445.00	446.50	435.00	423.50	418.00	400.50	389.50	382.50	388.00	388.50	382.00	381.50	371.00	360.50	372.00	376.50	372.50	369.00	354.50	348.50	365.50	338.50	310.50	287.50	275.00	274.50	277.50	277.00	272.50	265.00	258.50	253.00	250.50	248.50	246.50	245.00	243.50	242.00	240.50	239.00	238.00	239.00	239.00	239.00	239.00	234.00	223.50	213.00	208.00	203.50	202.00	201.00	201.00	201.00	201.50	201.50	210.50	231.50	213.50	195.50	189.00	183.50	182.50	180.00
498.50	496.50	494.00	480.00	462.00	462.00	463.00	460.00	451.50	441.50	441.00	447.50	452.00	446.50	436.50	436.50	440.50	441.00	436.00	432.50	432.00	435.00	436.50	441.50	442.50	443.00	450.00	457.50	458.50	459.00	467.50	479.00	478.50	478.50	477.00	466.00	461.00	452.50	454.00	467.50	546.00	585.50	582.50	524.00	527.00	516.50	537.50	554.00	534.50	476.00	449.50	464.00	479.00	460.50	452.50	451.00	483.00	497.00	471.00	448.00	416.50	402.00	397.50	407.50	426.00	450.50	465.00	453.50	448.50	457.00	459.50	463.00	475.50	483.00	479.00	476.00	471.50	451.00	455.50	446.50	435.50	438.50	502.00	559.50	559.00	515.00	524.00	548.50	521.50	528.50	515.50	445.50	400.50	368.00	330.50	316.50	311.00	307.50	320.00	340.00	370.50	423.00	437.00	392.50	382.50	388.50	421.00	461.00	467.50	402.50	358.00	355.00	359.50	357.00	363.00	360.00	376.50	393.50	429.00	460.50	463.50	443.50	416.50	389.00	384.00	386.00	368.50	346.50	346.00	360.50	383.00	391.00	398.50	407.50	426.50	456.50	491.00	511.00	473.00	446.50	413.00	391.50	382.00	362.50	355.00	345.00	340.00	335.50	332.00	330.00	323.00	321.50	307.00	302.50	302.00	294.00	287.50	285.00	270.00	259.50	275.00	295.50	299.50	296.50	292.50	303.00	287.50	268.50	258.50	264.50	260.00	253.50	247.00	247.00	240.00	234.00	234.00	244.00	257.50	266.00	274.50	291.50	300.50	300.00	300.50	308.00	329.00	366.00	426.00	409.00	415.00	431.50	446.00	433.50	411.50	396.00	414.00	401.00	385.00	380.00	379.50	376.00	373.50	375.00	366.50	357.50	371.00	363.00	372.50	362.00	348.50	336.00	339.50	332.00	326.50	302.50	284.50	270.50	271.50	271.00	267.50	261.50	257.00	254.50	252.00	250.50	247.00	244.00	242.50	240.50	239.00	237.50	236.50	236.00	237.00	237.00	237.00	236.00	229.00	218.00	212.00	208.00	201.50	201.00	201.00	203.00	219.00	206.50	221.50	271.00	263.50	211.00	195.00	189.50	188.00	184.00
484.00	485.50	486.50	483.00	468.50	459.50	458.00	455.00	453.00	447.00	444.00	442.00	445.50	448.50	442.50	443.50	440.00	431.50	431.00	434.50	440.00	439.50	442.00	443.50	441.50	443.50	450.50	457.00	461.00	459.00	469.00	476.00	477.00	477.00	482.50	483.50	476.50	466.00	443.50	441.00	479.00	501.50	529.00	510.50	497.00	503.50	502.50	550.50	540.50	502.00	469.50	453.00	463.00	458.00	451.00	451.00	469.00	487.50	489.50	484.50	442.50	403.50	393.50	390.50	403.00	420.50	442.00	447.00	439.50	435.00	430.50	428.50	437.00	451.50	467.50	467.00	469.50	455.50	448.00	438.50	441.50	462.00	524.00	552.50	556.50	532.00	522.50	497.50	484.00	499.00	502.50	460.00	398.50	359.50	343.50	327.00	309.00	306.00	307.50	335.50	376.50	429.50	440.00	378.50	370.00	382.00	399.50	420.50	430.00	389.50	353.00	349.00	342.00	339.00	343.00	346.50	360.50	386.00	422.00	440.50	459.50	466.50	429.50	390.50	379.50	391.00	400.50	381.50	348.00	338.50	354.00	360.50	373.00	384.50	407.50	442.00	477.00	469.50	450.00	418.50	398.50	384.00	376.00	362.00	350.00	344.00	344.50	341.50	337.00	334.50	326.00	319.00	311.50	311.00	308.00	312.50	298.00	284.50	280.50	256.00	269.00	286.00	293.50	287.00	284.50	283.50	282.50	270.00	269.50	282.50	282.00	256.50	242.00	245.00	242.50	233.50	235.00	237.00	246.00	259.00	264.50	280.00	294.50	295.00	300.50	317.50	334.50	385.50	425.50	432.00	454.00	462.00	439.00	416.00	396.50	374.00	390.50	383.00	380.00	381.50	380.00	372.50	368.00	364.50	354.00	351.00	351.00	348.50	364.00	359.00	343.00	326.00	322.00	312.50	309.00	309.00	291.00	272.00	267.00	265.50	263.00	260.00	258.00	257.00	253.50	252.50	250.50	247.00	242.00	239.50	237.50	236.50	235.50	234.50	235.00	235.00	236.00	236.50	234.00	223.00	216.00	212.00	205.00	201.00	201.00	218.00	263.00	229.00	227.50	278.00	296.50	235.50	199.00	195.50	194.00	188.50
463.75	467.25	469.75	468.50	461.50	460.00	458.75	459.25	455.00	452.00	451.25	450.25	448.75	443.50	442.50	441.25	436.25	442.50	448.50	451.25	452.50	443.50	440.75	441.50	441.50	443.25	447.75	453.25	457.75	461.75	466.50	469.00	471.75	471.25	474.25	478.50	477.25	473.75	458.25	453.00	437.00	440.25	458.25	473.25	474.50	474.25	467.25	483.25	496.25	494.50	482.50	459.50	447.75	447.00	445.25	445.00	447.00	452.00	465.50	484.00	506.25	446.50	407.25	399.25	390.75	390.75	398.50	416.75	425.75	425.75	422.25	412.75	402.00	409.25	421.50	432.50	451.50	458.00	456.50	448.50	440.50	452.25	479.00	466.50	467.00	453.00	445.50	433.50	421.50	440.00	463.75	437.00	392.25	368.00	343.25	332.25	304.75	301.25	298.00	320.25	364.75	392.50	407.75	376.50	369.00	372.50	386.50	401.00	404.75	390.50	363.25	345.00	327.75	331.00	323.25	336.25	353.75	392.25	429.50	459.50	466.00	463.50	449.75	398.50	360.50	357.50	379.25	390.50	376.25	349.75	328.25	328.50	331.25	339.25	364.00	384.25	418.50	434.00	415.50	393.50	386.25	376.50	366.50	351.75	347.25	351.00	354.50	351.75	344.50	339.25	331.25	326.50	316.75	312.50	309.25	306.50	297.00	284.50	277.75	267.75	264.75	274.75	277.00	276.25	275.00	272.75	270.00	271.00	268.50	281.25	291.50	272.50	244.50	240.00	240.25	239.00	238.00	239.00	243.00	251.50	259.75	267.50	281.25	286.50	294.75	304.00	321.25	381.50	449.75	486.50	483.25	461.50	429.75	389.25	378.25	374.50	380.25	379.00	372.50	369.50	375.25	379.25	388.50	370.50	350.25	345.50	344.75	341.50	349.50	353.50	344.50	326.00	310.75	299.25	297.25	298.25	288.50	276.25	269.75	265.25	267.25	278.00	295.75	307.00	276.25	259.50	253.25	252.00	246.00	239.75	237.00	235.00	234.00	232.50	233.00	233.50	234.00	234.25	234.50	229.75	222.50	218.25	212.00	208.00	206.00	243.25	278.75	248.75	255.50	271.50	256.50	213.00	201.00	202.50	201.50	195.75
460.00	459.50	463.50	466.50	459.50	455.00	456.50	461.00	455.50	451.50	451.50	455.50	451.50	443.00	441.00	438.00	434.50	447.00	454.00	455.00	454.50	443.50	440.50	441.50	442.50	443.00	446.50	452.00	457.50	460.00	467.50	469.00	470.00	467.50	468.50	475.50	476.00	475.00	463.50	460.00	426.00	428.00	445.50	464.50	470.50	468.50	461.50	465.00	475.00	480.00	481.00	466.50	444.00	442.50	444.00	443.50	444.50	445.00	457.00	477.50	520.00	477.00	414.00	403.00	393.50	387.50	388.00	400.00	413.00	420.00	420.50	413.50	399.50	403.50	410.50	421.00	444.50	459.50	462.50	452.50	439.00	447.50	464.50	446.00	440.50	426.00	423.50	414.50	410.00	419.50	440.00	416.50	386.50	372.00	343.50	330.50	302.00	299.00	297.00	317.50	362.50	380.00	395.00	374.50	366.00	368.50	382.50	398.00	405.50	403.00	373.00	344.50	327.00	333.50	319.50	332.50	349.00	392.50	427.50	460.00	458.00	450.50	451.00	402.00	358.00	347.00	366.00	383.50	379.00	358.00	326.00	320.50	320.00	324.00	349.00	364.50	397.00	420.50	406.00	386.50	383.00	375.00	365.50	349.50	345.50	352.00	359.00	356.50	350.50	343.50	333.00	326.50	318.00	313.00	308.50	305.00	295.00	283.50	278.50	277.00	264.50	271.00	274.50	272.50	274.00	272.50	269.50	273.50	267.50	274.50	288.50	277.00	248.50	240.50	242.00	240.50	244.00	236.50	240.00	250.50	258.00	264.50	280.00	282.50	291.00	301.00	318.00	370.50	451.00	493.00	492.00	459.50	431.00	388.50	370.00	367.00	375.50	384.50	376.00	366.00	369.50	376.50	389.00	370.00	348.50	347.00	346.00	342.00	343.00	349.00	342.50	326.50	310.50	297.50	295.50	295.00	288.50	277.50	270.50	266.50	271.00	286.00	306.50	332.00	292.50	265.00	253.50	252.50	247.00	240.50	236.50	234.50	233.50	232.00	232.00	233.00	233.00	233.50	234.00	231.50	224.50	220.50	214.50	211.00	209.50	245.50	269.00	247.00	270.00	290.00	253.00	209.00	201.00	204.00	203.00	198.00
439.25	439.75	444.25	445.75	449.00	449.75	448.25	448.75	450.75	452.75	450.00	444.50	444.75	450.75	450.00	447.75	445.75	448.50	452.50	458.75	460.25	453.00	448.25	448.25	444.75	442.75	448.75	454.50	458.75	458.00	466.50	468.00	468.25	465.00	464.00	468.00	467.50	464.00	464.00	467.50	469.00	453.75	433.00	447.75	458.50	465.00	464.00	460.50	455.25	451.25	459.75	475.50	455.50	442.50	437.50	439.25	441.25	442.75	444.00	447.75	468.25	489.50	464.25	433.25	399.25	387.50	381.25	370.50	370.25	376.00	381.50	385.25	386.00	387.25	393.25	397.00	403.00	426.25	435.50	433.25	430.25	437.00	432.00	415.00	400.00	399.50	396.00	377.50	378.75	375.75	386.25	388.75	380.00	360.75	325.25	311.00	299.75	290.50	295.00	314.25	360.50	377.25	364.50	365.75	361.00	358.50	363.25	373.50	386.25	393.50	390.25	343.00	316.25	318.50	309.75	315.00	328.00	357.25	383.75	401.50	407.25	403.75	410.25	400.25	358.50	335.50	334.75	350.50	363.25	355.75	336.75	327.75	319.00	319.00	315.50	327.25	346.50	361.25	369.50	376.00	369.75	363.00	359.75	353.75	355.50	364.25	370.00	391.00	396.75	385.75	360.75	342.25	328.25	322.25	317.50	313.00	295.25	289.00	282.00	276.25	269.75	256.25	264.00	263.50	266.75	268.25	264.25	265.00	267.50	266.25	277.75	280.00	266.00	256.00	253.00	248.75	252.75	234.50	229.75	243.00	246.25	251.50	264.75	270.25	279.50	287.25	300.00	351.75	403.75	440.25	456.25	448.50	435.50	418.50	392.75	363.50	360.25	374.50	378.50	368.50	359.50	369.50	378.00	367.50	358.50	353.75	341.25	341.25	352.00	362.25	349.75	330.25	314.75	298.50	293.25	286.50	282.50	276.00	271.50	272.25	282.50	296.00	302.25	316.25	303.50	281.25	258.00	252.00	248.75	243.00	239.00	234.75	232.25	230.00	229.75	230.50	231.50	231.75	232.75	233.00	230.50	227.00	222.00	219.50	215.75	234.75	248.00	243.25	270.00	296.25	255.75	224.00	210.50	211.25	208.00	202.75
434.00	434.00	437.50	439.00	443.00	447.50	445.50	444.00	447.50	453.00	446.50	439.50	445.50	455.50	457.50	454.00	449.50	449.00	450.00	460.50	468.00	457.50	450.00	451.00	446.50	443.00	449.00	455.00	460.00	458.00	466.00	467.00	466.50	463.00	463.50	469.00	466.00	461.50	463.00	467.50	469.50	458.00	438.00	444.50	457.00	463.50	463.50	463.00	455.00	445.00	448.50	460.50	460.50	447.50	436.00	435.50	441.50	444.00	442.50	444.50	454.50	477.50	472.50	453.00	421.00	396.50	390.50	372.00	368.00	368.00	368.00	371.00	375.50	377.50	387.50	389.50	391.50	411.00	418.50	421.50	424.00	428.50	420.50	408.00	394.00	397.00	391.50	368.50	371.00	361.50	367.50	380.00	376.50	358.50	319.50	309.50	300.50	291.50	297.50	314.00	363.50	380.50	359.00	361.00	359.00	355.00	357.00	368.00	380.00	381.00	382.00	344.00	312.50	313.50	311.50	314.50	322.50	347.00	373.50	381.00	384.50	392.00	393.50	395.00	360.50	334.50	327.50	341.00	357.00	354.00	340.00	331.50	320.00	316.50	306.50	319.00	334.50	344.50	361.00	375.50	374.50	365.50	362.50	357.50	361.50	367.00	375.00	400.00	409.00	401.00	373.50	351.50	335.00	323.50	320.50	312.50	296.00	291.00	282.50	278.00	272.50	254.00	259.50	260.50	266.50	267.50	266.50	265.50	265.50	266.50	271.50	276.50	270.00	263.50	254.50	252.00	255.50	237.50	226.00	241.00	242.00	248.00	259.00	269.00	277.50	286.00	295.50	352.00	391.00	420.50	436.50	434.00	433.50	426.00	403.50	366.00	356.50	370.50	378.00	371.50	358.00	367.00	375.50	364.50	359.00	357.00	339.50	338.50	356.50	371.50	355.50	332.50	317.50	300.00	294.50	284.50	280.00	274.50	271.50	274.00	285.50	298.00	302.00	305.50	299.50	284.50	259.00	251.50	248.50	243.00	239.50	235.00	232.00	229.50	229.00	230.00	231.00	231.50	232.50	233.50	232.00	229.00	224.50	222.50	219.00	228.00	242.00	243.00	272.00	293.50	253.50	231.00	217.50	214.00	209.50	203.50
424.25	424.25	424.25	425.25	427.75	430.00	433.75	437.75	436.00	434.75	440.25	447.75	450.50	449.75	451.50	452.50	454.00	455.00	452.00	452.25	457.25	457.25	461.00	464.25	451.75	445.25	452.50	457.25	461.25	458.25	461.50	459.25	459.75	461.75	464.50	461.00	462.00	463.25	461.00	464.25	460.25	456.50	454.50	450.50	445.75	449.75	456.50	460.50	457.75	448.75	447.00	441.25	437.25	437.00	439.75	437.25	430.25	434.75	438.25	438.75	437.25	444.75	450.00	449.25	445.00	437.75	432.50	417.00	404.25	377.00	372.25	374.00	377.75	374.25	374.25	375.50	383.75	394.00	390.00	394.50	400.75	407.50	401.75	393.25	386.25	384.75	376.25	365.25	363.75	358.25	352.00	346.50	339.50	333.50	317.75	311.50	307.75	297.75	293.00	296.50	330.25	357.75	352.25	351.00	348.50	342.50	335.25	356.25	382.50	373.25	359.00	339.00	312.00	302.25	308.25	304.00	307.75	325.25	348.25	351.50	343.75	345.00	354.50	382.75	372.25	343.50	320.25	321.50	333.75	349.50	351.50	343.50	327.75	319.25	309.50	314.50	317.50	322.00	354.00	388.25	394.00	364.50	358.00	360.75	362.25	359.50	366.75	391.25	412.25	416.25	400.75	383.25	367.25	362.50	343.00	315.75	303.25	291.75	288.25	282.75	281.75	268.50	264.00	257.50	259.75	263.25	260.25	256.75	252.50	251.00	259.00	261.50	265.50	265.50	260.75	254.50	251.25	244.50	234.50	236.00	237.75	243.75	252.00	264.25	272.50	272.50	285.75	332.00	368.00	390.50	395.75	396.25	397.50	391.25	387.25	366.00	356.50	378.75	382.75	382.00	371.00	361.75	366.75	358.00	355.50	359.00	338.50	329.25	347.25	364.50	365.00	345.25	332.25	309.75	301.00	292.50	286.75	280.50	277.50	276.75	284.75	294.50	300.75	301.50	294.25	281.25	259.50	252.00	248.00	242.50	238.75	234.75	232.00	228.25	227.75	228.50	229.50	231.00	232.25	234.00	235.75	234.75	233.50	233.75	236.50	240.75	241.75	246.25	269.25	290.50	264.25	244.00	234.50	220.50	213.25	205.50
419.25	420.00	419.25	420.25	419.75	421.25	425.75	428.75	429.50	430.50	437.00	439.50	443.75	446.25	447.50	449.50	451.25	454.00	453.00	450.50	451.00	453.00	458.00	461.75	453.50	447.25	452.25	457.00	460.25	458.75	459.75	459.25	461.25	463.25	466.00	462.50	463.00	465.25	460.00	463.75	456.50	454.00	453.25	454.50	450.00	444.75	446.75	451.25	451.75	451.50	453.75	447.00	440.75	437.50	439.25	436.75	430.00	433.50	438.25	436.25	434.00	433.50	431.75	435.75	442.25	444.50	443.50	448.50	454.00	410.25	389.75	383.00	386.00	382.00	382.50	383.50	388.75	390.50	389.75	393.00	396.50	397.75	392.00	385.75	383.00	377.25	370.25	360.75	354.50	352.50	345.50	335.75	329.50	322.00	318.00	310.50	305.75	302.50	295.00	291.00	306.75	335.50	347.25	347.50	344.50	333.75	328.00	341.00	387.50	379.00	351.75	333.50	315.25	304.25	299.75	296.25	300.25	306.75	322.00	324.50	321.50	319.00	326.25	353.50	362.00	346.00	326.25	315.75	314.00	331.50	347.25	345.75	327.25	314.75	304.75	303.25	307.00	312.75	343.50	388.75	409.25	373.25	360.50	360.75	359.00	357.00	368.00	387.00	408.00	419.00	410.25	392.50	390.50	390.75	369.00	333.75	312.75	294.50	291.50	289.50	289.75	276.75	272.25	263.25	256.75	257.75	258.75	253.25	245.50	244.50	254.50	253.75	260.00	262.75	261.00	256.25	247.75	245.00	241.50	235.25	239.50	241.50	246.75	260.00	263.75	258.00	273.25	312.75	362.50	384.50	393.00	388.25	377.50	367.50	361.75	356.50	365.00	385.50	380.00	381.25	373.00	362.00	362.25	363.75	364.25	356.50	337.50	321.25	336.25	353.25	357.00	348.50	340.75	318.50	307.75	298.50	293.25	286.75	283.00	278.75	282.00	290.25	296.50	298.25	291.00	281.50	262.75	253.50	249.00	242.00	238.00	234.25	231.50	227.75	226.75	226.50	227.75	229.50	231.25	233.75	236.50	237.75	240.00	242.00	250.00	273.00	271.50	259.75	256.50	261.50	251.25	245.25	240.75	227.75	215.50	216.00
419.00	417.25	416.25	416.50	418.75	418.25	420.25	423.25	427.50	431.50	432.75	433.50	437.50	442.50	444.50	447.25	451.75	453.75	452.25	449.75	449.25	451.00	450.50	450.00	448.50	448.50	450.50	454.25	457.25	459.50	460.75	463.50	464.50	468.25	470.25	469.75	471.75	473.00	474.00	474.50	455.00	451.75	451.25	453.75	451.75	447.25	445.25	440.00	437.50	442.75	449.75	446.50	447.75	446.75	440.50	434.50	429.75	432.25	436.75	435.75	430.00	429.00	424.75	424.25	434.50	439.75	447.00	464.75	479.50	446.75	418.00	395.50	386.25	385.00	378.75	378.50	380.00	382.00	387.25	391.75	394.75	393.25	389.00	385.25	383.50	373.25	368.50	360.00	349.75	349.25	343.25	337.00	332.00	323.25	319.75	310.00	306.25	304.75	298.50	295.25	292.75	309.50	330.00	344.75	341.00	327.00	319.00	326.75	365.75	365.25	343.50	331.50	316.25	307.50	295.75	293.00	296.50	295.50	297.00	296.25	298.75	299.00	300.50	313.00	332.50	332.50	328.50	315.00	303.25	309.25	327.75	334.50	325.50	317.00	306.00	297.50	295.00	302.50	327.75	371.50	407.25	382.00	366.50	361.50	358.00	354.75	373.75	393.75	415.25	426.50	411.00	394.75	404.00	407.75	382.00	343.50	311.50	294.75	290.25	296.50	294.50	282.75	274.75	268.75	263.25	253.50	254.25	254.75	246.75	242.75	250.00	250.25	255.00	259.25	259.00	255.50	247.75	245.50	242.25	234.00	239.25	241.00	245.25	254.00	254.75	253.50	265.25	305.25	346.25	366.75	384.75	387.25	372.25	354.00	344.50	346.50	364.25	379.25	376.50	373.50	365.25	356.50	354.25	361.50	362.00	350.25	338.75	324.75	329.25	342.50	350.25	348.75	346.00	327.75	317.00	306.25	300.00	293.25	289.00	283.00	281.00	285.75	290.50	292.25	287.25	282.50	269.25	258.00	250.50	242.75	237.75	233.75	231.00	227.50	225.50	223.00	224.50	227.00	229.50	232.75	236.50	238.75	243.00	246.25	260.50	294.50	282.50	262.75	253.25	240.75	234.50	242.00	243.00	241.50	226.00	227.50
418.00	415.00	414.75	413.75	416.50	416.75	417.75	421.25	425.75	432.25	434.50	434.50	435.75	442.00	442.00	445.00	451.50	457.00	453.50	450.75	446.75	448.00	445.50	443.25	444.00	448.00	450.00	454.00	457.00	459.00	459.75	459.75	462.25	470.75	475.00	476.75	485.50	487.50	499.50	493.75	459.50	452.75	450.75	449.50	447.75	448.50	449.00	436.75	431.75	431.50	434.75	434.50	439.75	445.25	438.75	433.00	430.25	431.50	432.00	430.25	426.50	428.00	424.25	419.00	426.50	438.00	447.75	467.50	482.25	474.75	452.75	417.50	392.00	387.00	376.75	376.50	370.25	369.00	374.00	382.00	383.75	380.25	379.75	379.75	379.25	369.50	365.00	357.75	352.75	349.00	341.75	338.00	332.25	325.00	320.50	314.50	303.50	301.75	300.25	298.00	289.75	291.50	302.75	324.50	326.25	319.00	308.00	310.50	329.25	343.00	328.25	319.50	314.00	308.75	294.00	289.75	293.00	290.75	289.25	288.00	294.00	289.75	284.25	287.00	297.25	305.75	312.50	309.50	302.00	298.00	306.75	315.00	317.50	314.75	306.00	298.00	289.25	292.25	308.25	343.00	388.75	390.75	379.75	366.75	359.75	350.75	369.75	403.50	432.50	458.75	413.25	401.50	406.50	405.25	383.50	346.25	314.75	302.75	293.25	299.25	294.75	286.00	280.00	274.50	267.25	259.25	259.75	266.25	261.00	250.50	242.25	245.25	250.00	255.00	256.25	253.00	247.25	246.00	244.00	230.00	237.00	240.25	244.75	248.50	249.25	250.00	261.00	293.75	320.75	339.00	357.00	367.50	363.00	347.75	338.75	339.25	350.50	357.25	362.75	363.50	356.75	349.75	345.25	352.50	354.25	347.50	338.25	330.75	326.75	335.25	348.50	349.50	350.50	337.75	327.25	316.75	309.25	300.50	295.50	289.50	284.25	283.50	284.75	286.00	283.25	280.00	272.25	264.00	253.75	244.50	238.00	233.25	230.75	227.00	224.25	220.25	220.25	223.50	226.75	231.25	235.75	239.00	243.50	246.75	258.50	275.00	263.00	253.75	249.75	237.25	228.50	235.50	242.75	251.50	243.75	230.00
411.75	408.75	411.75	411.75	412.00	413.50	415.75	419.75	424.00	430.50	435.50	439.00	440.50	442.25	442.25	444.00	447.75	453.75	450.00	448.25	443.50	444.50	441.00	440.75	442.75	445.50	450.00	456.50	460.25	457.00	458.75	456.25	459.50	468.00	473.75	481.50	492.25	499.75	516.50	509.25	484.00	466.00	454.75	445.00	444.25	447.50	445.75	439.00	436.00	434.75	432.00	428.75	427.00	433.75	433.75	431.50	431.25	432.75	427.25	424.00	422.00	423.50	422.50	417.00	419.00	431.00	438.75	456.75	469.00	475.25	464.25	430.25	399.50	387.75	382.00	380.25	368.50	361.00	358.75	364.25	368.00	362.00	366.75	368.00	369.25	362.25	358.75	357.50	360.00	355.75	348.75	343.25	334.00	327.25	328.75	323.75	310.25	304.00	302.00	301.25	293.75	292.00	293.75	299.00	304.75	308.00	299.50	296.00	302.00	316.25	313.75	309.25	305.75	304.25	294.50	290.50	290.75	286.75	283.75	292.25	309.75	305.75	286.25	278.75	275.50	283.25	290.25	297.00	297.25	292.50	292.75	296.50	304.50	305.50	300.00	295.50	291.25	291.75	294.00	318.75	378.25	404.00	400.50	390.25	379.00	349.25	356.75	397.25	431.25	475.75	423.25	407.50	403.25	398.75	377.75	346.25	321.75	308.75	299.75	297.75	294.50	292.50	290.50	284.50	275.50	268.50	269.00	281.00	276.00	268.00	245.50	242.75	242.25	243.75	244.25	243.25	244.00	245.25	244.75	233.00	231.00	235.50	242.75	245.25	247.00	245.50	256.00	274.50	293.75	316.00	323.00	329.25	336.75	336.25	334.50	333.50	336.00	337.75	343.00	348.00	348.25	342.25	338.50	346.00	349.50	348.50	338.75	334.50	326.25	334.25	349.75	350.50	354.50	347.50	337.25	328.00	320.75	310.25	303.25	297.00	290.75	286.50	282.50	280.50	279.25	276.00	269.75	265.00	256.50	247.00	239.50	233.25	230.25	226.25	223.00	218.75	216.75	219.00	223.00	229.00	234.50	238.50	243.75	246.50	252.50	265.00	272.75	265.25	251.00	238.00	226.25	227.00	234.25	251.00	252.50	225.50
407.50	399.75	405.00	407.00	407.50	410.00	414.25	417.50	421.75	427.25	431.75	437.00	442.25	443.75	442.50	443.25	446.00	449.00	444.50	443.00	440.75	440.75	437.75	438.25	440.50	441.50	448.00	455.50	460.50	460.00	459.25	457.25	460.25	463.25	470.00	479.50	490.00	501.25	519.00	519.50	520.75	491.50	465.25	446.75	445.75	446.50	442.25	438.75	438.25	442.25	438.75	432.25	427.50	426.50	426.00	426.75	430.50	432.00	430.00	426.00	422.00	420.75	420.00	414.50	413.00	417.00	422.75	431.50	436.00	437.25	433.00	412.25	399.25	389.00	377.25	372.50	367.50	358.25	351.75	348.75	351.75	346.50	352.25	351.25	352.25	356.75	355.75	359.00	364.50	364.75	361.50	355.25	348.25	341.75	345.25	348.25	342.75	319.25	302.25	303.25	297.50	295.75	296.25	290.50	297.50	301.50	295.00	292.25	290.25	294.00	299.25	302.50	298.75	296.50	293.75	292.50	288.75	284.00	278.50	289.25	316.25	329.75	306.00	282.75	268.00	270.75	274.75	287.25	292.75	288.75	285.25	286.25	293.00	296.25	296.00	296.50	298.25	298.75	293.50	305.75	373.25	410.75	415.00	410.00	395.25	350.25	346.25	381.00	408.00	442.00	435.00	411.50	398.00	393.75	372.75	346.25	324.00	308.25	303.50	294.50	296.25	295.00	297.50	296.00	290.50	276.75	269.00	282.75	283.50	291.25	265.00	251.25	245.50	246.50	241.25	232.75	236.50	241.25	242.50	240.50	230.25	231.75	240.50	242.25	246.00	245.75	250.75	262.25	270.00	292.75	301.75	301.50	310.00	323.00	325.50	329.50	332.75	333.25	332.75	330.75	332.50	332.50	337.00	336.00	338.25	344.25	340.50	339.75	324.75	331.00	348.25	350.00	355.50	357.75	348.00	338.75	332.00	322.25	314.25	305.75	298.50	292.50	285.50	279.50	274.75	272.00	266.00	262.00	256.00	249.25	242.75	235.50	231.25	226.50	222.75	217.75	215.00	214.75	218.75	226.00	233.00	237.50	244.00	246.75	262.00	290.75	309.00	295.25	263.25	239.50	233.50	234.00	226.25	236.75	238.00	211.25
415.25	399.25	400.25	400.75	402.75	407.00	411.00	414.25	418.50	422.50	427.00	429.25	434.00	443.00	445.00	443.75	445.25	447.25	445.50	442.25	440.25	439.25	437.00	437.00	438.25	437.50	442.75	449.75	454.75	460.75	457.25	459.25	459.25	459.00	464.25	473.25	485.50	496.50	514.75	525.25	539.75	512.00	476.50	454.00	451.25	447.25	439.50	435.75	436.50	442.25	439.75	434.75	433.25	425.50	422.25	424.25	426.50	425.50	427.25	428.25	425.00	421.00	417.75	413.75	408.75	408.75	412.00	412.00	408.25	401.00	395.50	383.25	385.25	384.25	370.50	368.25	369.50	366.25	365.50	357.75	349.75	344.00	343.50	340.25	343.25	347.50	349.50	358.50	363.75	363.00	363.75	357.50	353.50	351.00	350.75	365.50	381.50	348.00	305.00	300.00	300.75	302.00	297.50	291.50	296.25	300.50	294.75	293.25	287.50	288.50	291.25	291.75	291.75	292.00	291.75	291.75	287.50	284.00	276.75	278.00	302.25	338.50	325.00	289.75	267.25	263.75	265.50	280.75	291.75	289.25	281.50	283.75	288.75	293.00	293.25	295.75	300.75	301.25	294.25	295.25	356.00	390.75	399.50	394.00	377.75	345.25	336.25	364.75	384.00	409.75	435.25	416.50	393.75	384.75	369.75	346.75	323.00	309.75	305.50	296.00	297.00	290.50	296.75	299.75	297.50	283.25	268.75	275.25	283.00	302.25	289.75	271.25	259.50	261.50	261.00	241.75	234.00	235.50	240.25	240.50	235.75	231.00	238.25	239.50	243.50	245.75	246.00	256.75	256.00	269.75	289.50	295.00	296.25	311.25	312.75	323.25	328.25	338.50	333.50	323.00	318.00	321.25	331.50	324.50	325.25	331.25	337.00	338.50	319.00	325.00	345.25	347.00	353.00	365.25	360.75	349.00	343.25	334.25	325.25	313.25	305.00	298.00	290.50	283.00	271.25	268.25	263.00	259.75	254.75	250.00	245.25	239.25	234.50	228.50	224.25	218.75	215.25	212.25	215.00	223.00	230.75	236.25	243.75	247.00	276.50	310.00	331.75	318.00	277.75	242.00	247.50	250.00	235.75	214.50	213.75	201.50
422.00	403.75	397.75	396.25	400.50	405.25	408.75	411.00	415.50	417.75	423.00	428.75	428.25	439.25	448.25	445.00	443.00	444.75	446.25	444.00	440.50	439.25	438.00	438.00	438.50	437.00	441.00	447.50	451.50	456.25	455.25	460.75	456.00	455.75	459.00	469.50	481.75	490.75	502.00	520.00	539.75	516.50	484.75	465.75	457.00	449.75	442.00	437.50	436.75	441.25	439.50	435.50	434.75	428.25	424.75	424.00	424.75	423.50	419.00	419.50	421.75	420.00	415.50	413.75	411.00	411.00	407.50	402.00	394.75	387.00	382.50	378.00	385.00	381.50	380.75	382.25	388.25	392.50	388.25	381.50	375.00	368.00	361.50	350.75	353.50	346.50	348.25	356.50	358.25	356.25	357.00	355.25	355.00	355.00	351.25	356.25	385.50	369.75	320.75	304.25	304.00	306.50	302.25	291.50	291.00	299.25	300.75	294.00	285.75	289.50	291.25	288.50	293.75	299.75	297.50	292.25	287.75	284.00	278.25	272.50	283.25	322.00	324.50	299.00	274.25	262.25	259.50	270.50	281.75	283.50	277.50	281.75	287.50	291.25	290.50	292.25	298.00	301.50	292.00	284.25	331.25	361.25	364.75	364.50	355.75	339.75	325.50	349.25	366.75	393.25	424.00	419.00	392.75	378.25	370.75	352.50	329.50	315.25	306.25	300.75	296.25	289.50	293.25	294.00	291.25	285.00	270.75	271.25	277.75	292.25	306.50	290.25	270.75	266.25	271.25	264.50	245.50	235.00	236.25	237.75	236.25	232.75	231.25	238.00	241.50	243.50	242.50	251.50	252.00	257.50	273.00	285.50	287.50	298.00	299.50	305.75	313.50	345.50	337.75	325.25	316.25	313.50	318.00	315.50	316.50	319.75	329.75	331.00	311.25	315.75	337.75	341.25	348.00	363.75	365.25	357.00	351.50	341.50	328.00	311.50	304.50	298.75	293.00	287.00	271.50	266.00	261.75	258.75	254.75	250.25	245.25	241.25	237.50	231.50	227.00	221.00	216.75	211.00	211.00	219.50	228.00	234.00	243.00	247.25	271.50	306.75	332.50	323.50	279.50	244.50	252.75	254.00	249.25	206.50	203.25	201.00
424.75	407.25	395.50	394.75	399.25	401.75	405.25	408.50	414.25	416.25	418.75	429.00	428.00	434.00	443.75	445.75	442.50	442.25	444.75	445.25	439.50	438.25	439.75	439.50	438.50	438.25	443.75	448.75	452.00	453.75	453.75	460.50	454.50	454.00	459.25	468.00	479.00	485.75	490.50	513.50	533.50	511.00	488.50	478.75	465.00	453.75	448.75	441.75	438.25	438.00	437.50	437.50	433.00	428.75	427.00	423.50	424.50	424.25	419.50	415.75	416.00	417.00	416.50	418.00	420.25	420.25	409.50	401.50	396.75	394.00	389.50	389.00	401.00	392.50	401.50	407.50	410.75	416.50	405.50	408.25	409.75	406.50	397.25	378.50	376.50	363.00	359.75	360.50	358.00	354.50	354.50	358.25	361.50	361.75	358.00	355.50	359.00	366.25	342.00	320.50	310.50	307.25	308.25	293.25	291.00	295.75	304.50	297.50	286.75	288.00	289.75	292.00	298.75	306.75	308.75	300.50	292.00	285.75	283.00	273.50	269.25	289.25	302.25	296.00	280.00	265.00	259.25	262.00	265.75	269.75	270.75	275.75	283.75	287.50	287.25	290.50	295.50	301.75	295.75	282.50	301.25	338.75	343.75	341.25	349.75	342.75	318.25	333.50	353.25	371.50	403.50	415.25	388.00	381.00	381.75	367.50	344.25	323.25	311.00	306.75	300.00	293.50	291.25	287.75	284.50	283.50	274.25	272.25	273.00	279.50	301.25	293.50	279.50	268.75	265.50	267.25	258.75	239.50	231.25	232.50	236.25	236.50	225.00	236.75	239.25	241.00	240.25	249.75	254.00	256.25	263.50	271.50	277.00	282.25	287.25	287.75	292.75	331.00	331.50	326.00	318.00	310.50	305.75	306.75	309.25	315.75	320.75	321.50	307.75	308.50	328.25	334.25	339.25	355.50	359.75	358.75	354.25	344.00	325.75	305.50	299.25	294.50	290.75	287.75	276.00	267.25	261.00	258.50	255.50	251.25	244.75	240.50	237.75	233.25	229.50	223.00	218.50	211.25	206.75	214.50	223.75	230.00	240.75	247.25	255.00	282.00	316.25	324.00	279.75	244.75	250.50	254.00	253.75	218.75	202.25	198.50
413.00	414.00	396.50	391.50	389.00	399.00	399.50	402.00	415.00	426.50	428.00	425.00	426.50	429.50	429.00	446.50	463.50	451.50	440.00	439.50	436.50	438.00	436.00	433.50	434.00	437.00	445.00	448.50	451.50	452.00	449.00	450.00	452.00	455.00	461.50	469.00	473.50	477.00	483.50	504.00	518.00	504.50	494.00	487.50	476.50	460.00	454.50	445.00	440.00	435.00	434.50	435.00	429.50	427.50	427.00	430.50	430.00	426.00	420.50	421.50	425.50	417.50	423.00	428.00	431.50	429.50	421.50	406.50	408.00	406.50	399.00	412.00	418.00	429.00	450.50	453.50	442.50	453.50	455.00	457.00	453.00	467.50	433.00	422.00	416.00	405.00	393.50	396.00	394.50	381.50	362.00	358.50	366.50	369.00	385.00	366.00	327.50	333.00	342.00	329.00	316.00	314.00	305.00	298.00	305.00	300.50	297.00	292.50	295.00	291.50	286.00	292.50	293.00	294.50	304.00	305.00	302.00	294.50	290.00	280.00	268.50	260.50	263.00	270.00	267.50	260.50	262.50	260.50	258.00	260.50	263.50	267.50	269.00	275.50	277.00	282.50	287.00	295.00	297.50	287.00	276.00	297.50	315.50	331.50	347.00	339.50	310.50	314.50	337.50	341.50	359.50	380.00	378.00	391.50	412.50	396.00	366.00	339.00	328.00	319.00	313.50	307.50	294.50	284.00	280.50	284.00	278.00	275.50	270.00	271.00	273.00	278.00	274.50	267.00	262.50	255.50	256.00	246.00	238.50	231.50	228.00	231.50	220.50	233.00	238.00	239.50	243.50	251.00	256.50	259.00	261.50	262.50	265.00	266.00	271.50	277.00	276.00	280.50	289.00	305.50	311.50	310.50	302.50	300.50	301.50	305.50	306.50	308.00	309.50	308.00	318.00	327.50	325.50	333.50	343.50	352.00	349.00	344.00	332.50	310.50	300.00	293.50	285.50	281.50	276.50	274.00	265.00	258.50	255.00	252.00	246.50	240.50	235.50	231.50	228.50	224.50	221.00	214.50	205.00	203.50	210.50	218.00	231.50	242.00	247.50	246.00	279.50	318.50	295.00	243.50	244.00	254.00	254.00	248.00	211.00	196.00
403.50	405.00	398.25	392.00	388.00	396.75	397.25	402.25	412.00	423.75	429.25	427.00	430.00	433.50	428.75	439.25	454.75	453.50	443.00	439.25	435.00	436.25	436.50	433.50	434.00	437.25	445.25	450.75	454.25	457.00	451.00	449.00	450.50	454.00	460.75	470.50	474.75	477.25	484.25	499.25	521.50	512.75	505.50	500.75	486.00	464.25	455.75	446.25	442.25	437.50	435.25	432.25	427.75	426.00	426.50	429.75	429.50	424.00	421.50	422.00	422.00	417.50	422.75	428.00	431.25	430.50	423.75	410.25	411.25	406.50	406.25	420.25	432.25	454.00	493.75	518.00	504.25	501.00	488.75	483.75	488.50	514.50	468.75	433.50	423.75	413.75	401.25	402.00	404.00	388.25	369.25	363.50	366.75	377.75	390.75	370.50	338.50	328.25	334.50	325.75	317.00	311.50	302.75	298.00	302.75	299.50	298.25	294.75	294.00	291.75	285.50	288.75	292.50	292.75	300.75	302.75	300.50	294.75	289.00	276.00	269.50	263.00	263.75	262.50	262.50	257.75	259.00	260.50	258.00	258.50	260.75	263.25	263.00	265.50	269.50	277.25	280.25	287.25	291.25	288.50	277.50	288.00	304.00	327.50	340.00	332.25	307.50	310.75	330.50	333.50	351.00	366.00	375.75	393.25	412.50	393.75	365.50	346.75	334.75	320.00	314.75	310.75	299.25	288.25	283.25	284.75	278.50	275.25	269.00	268.50	269.25	273.50	271.50	266.75	262.00	256.00	256.50	248.50	240.25	232.75	229.75	226.25	225.75	233.25	238.75	238.75	244.50	251.25	257.25	263.00	264.50	262.00	264.50	263.75	268.75	272.75	274.25	277.50	281.25	292.50	302.75	304.25	300.00	298.25	301.50	303.50	302.25	307.25	310.25	312.50	318.00	326.25	325.50	326.25	331.75	338.50	334.75	333.25	331.75	317.50	302.75	295.75	288.50	282.25	274.00	271.75	265.75	260.50	255.50	251.25	246.00	240.75	236.25	231.00	227.50	223.50	220.25	215.25	206.50	202.25	206.00	211.25	226.00	240.25	249.75	244.75	271.75	313.75	299.25	244.00	238.50	254.00	254.00	250.50	218.00	196.00
390.00	392.75	395.75	390.50	384.75	388.50	392.25	405.00	409.25	417.50	427.00	428.75	432.50	436.50	431.50	429.75	439.25	449.75	449.75	439.75	432.75	434.25	435.50	432.50	432.50	436.00	443.25	451.25	454.50	460.25	453.75	450.25	449.00	452.75	458.25	470.00	474.00	474.50	482.75	490.00	513.25	517.50	519.75	526.00	514.25	482.25	464.25	450.00	446.50	441.25	435.00	428.50	424.50	425.00	424.25	422.75	424.50	421.25	420.50	421.75	417.75	418.75	423.25	428.50	430.75	430.75	424.25	417.75	418.25	416.00	422.25	442.50	480.00	524.50	599.00	635.75	605.75	596.50	554.00	553.00	595.00	632.00	558.50	478.00	454.25	448.00	419.00	408.00	412.50	406.00	388.50	371.50	363.25	386.00	397.00	384.50	356.00	328.50	320.75	318.25	316.75	310.25	302.75	301.00	300.25	298.25	299.25	295.75	294.25	295.25	285.00	282.75	289.00	290.75	295.00	297.75	296.50	294.25	289.50	282.00	278.00	273.50	270.75	260.75	272.25	270.75	267.00	267.75	262.25	257.00	253.75	255.00	254.25	253.00	258.75	266.00	267.50	273.00	280.00	283.75	277.00	273.50	283.00	313.50	322.75	316.75	300.25	305.50	317.00	323.75	335.25	345.75	371.75	387.00	398.50	381.25	363.00	363.75	351.50	329.75	322.00	316.00	307.25	300.75	296.25	290.50	281.50	274.25	271.50	270.00	270.75	270.50	265.25	266.50	262.00	258.50	254.75	248.75	243.00	235.75	234.25	223.75	226.00	231.75	239.00	238.75	244.00	249.50	254.50	263.25	264.50	263.00	267.00	262.00	261.50	264.75	269.00	271.25	271.00	273.00	285.50	291.00	291.75	292.50	296.00	297.25	296.00	305.50	313.00	321.75	321.25	324.25	327.00	321.25	318.25	315.00	311.50	312.50	319.25	321.75	312.75	301.75	296.25	291.00	274.25	267.50	263.50	260.75	256.25	249.25	244.00	239.50	236.00	230.75	225.75	221.25	218.50	215.75	210.50	202.75	201.00	202.50	212.75	233.50	253.00	248.00	255.50	303.75	301.00	237.50	220.25	253.50	254.00	246.50	218.75	195.75
379.00	385.00	387.75	385.00	380.00	380.50	386.00	402.25	411.75	414.25	420.25	425.75	429.75	435.75	431.00	425.50	429.50	438.50	449.50	444.75	433.00	433.75	432.75	431.50	431.00	434.00	441.00	447.75	450.75	456.75	454.00	452.75	451.75	454.50	457.25	467.00	466.50	465.25	477.00	480.25	494.50	507.00	522.75	545.75	551.00	515.75	477.50	457.75	450.75	447.00	439.25	431.00	422.25	420.50	415.25	412.25	414.00	414.25	413.25	415.50	415.50	420.25	424.25	428.00	430.75	429.25	422.50	424.25	424.00	428.75	438.00	480.00	550.75	610.25	695.75	717.75	673.75	674.50	629.75	628.00	661.25	680.50	620.50	545.25	507.00	492.50	448.00	403.25	408.00	411.00	403.00	379.25	361.25	378.00	394.25	395.00	369.00	345.75	320.75	313.25	312.25	310.25	308.00	306.00	302.25	298.75	297.25	295.25	298.50	297.25	284.25	280.25	282.75	287.00	291.50	289.75	291.00	290.50	290.50	293.50	290.00	286.50	282.50	272.50	309.50	315.75	299.75	289.75	279.50	267.75	255.75	258.00	257.00	255.50	256.75	256.25	257.25	263.00	266.75	269.75	271.75	266.75	268.25	293.50	306.50	307.75	298.00	296.25	301.75	316.25	329.50	336.00	366.75	375.75	373.75	361.75	368.00	392.25	389.25	356.00	344.75	330.50	318.25	313.50	310.00	303.25	287.00	275.50	278.75	281.00	280.00	273.25	265.25	264.00	262.25	259.00	254.25	246.50	244.50	239.25	239.75	229.25	217.50	226.25	234.00	239.75	238.75	245.75	252.75	259.50	261.75	270.25	276.50	267.50	257.00	256.00	259.50	262.75	264.00	262.50	269.00	276.00	277.75	284.75	287.75	289.75	295.25	302.25	311.75	322.50	324.50	323.50	329.75	327.25	320.75	306.75	303.00	301.00	302.50	308.75	314.00	311.00	307.25	304.75	287.50	271.00	259.50	256.50	254.50	246.25	241.00	236.25	233.50	229.50	224.75	219.25	216.50	214.25	212.25	205.25	200.75	199.00	202.75	216.75	253.25	253.25	244.25	281.00	285.50	224.25	204.50	239.00	253.50	243.25	208.75	195.50
364.50	372.50	380.75	380.00	374.75	376.00	379.00	394.50	419.50	415.00	415.00	418.75	422.75	436.25	428.25	419.25	423.75	429.75	437.75	443.25	438.50	437.00	434.75	431.25	429.50	432.25	438.25	442.25	447.50	452.25	452.50	452.50	454.75	454.75	456.50	467.00	466.50	464.00	469.75	471.50	488.25	500.00	521.25	564.75	585.75	548.25	495.00	463.50	454.25	453.50	450.50	438.50	423.75	419.25	408.50	408.00	408.00	408.00	408.00	409.00	411.00	414.25	416.50	422.00	426.00	422.50	423.00	427.25	425.75	434.25	456.75	519.00	600.00	669.25	742.00	759.00	726.25	716.25	685.50	675.25	663.00	659.50	645.00	614.50	590.75	522.50	470.00	398.25	403.00	400.00	393.75	379.25	364.50	365.00	376.50	380.25	369.25	356.25	332.00	321.50	315.25	311.50	309.25	310.00	307.50	303.00	298.75	297.25	298.75	294.25	284.75	282.00	282.00	284.75	285.00	283.50	286.50	291.00	294.75	296.75	297.25	293.75	290.50	286.25	348.50	362.50	335.00	315.00	307.75	296.50	277.75	275.75	268.50	263.50	259.50	256.00	254.75	258.25	257.25	256.50	264.75	263.75	262.00	273.25	285.25	302.00	304.50	286.75	284.00	303.75	323.50	327.25	358.00	363.25	354.00	352.50	387.50	416.50	422.50	384.00	383.50	357.50	338.00	328.00	320.00	321.50	298.50	283.25	282.25	287.50	285.50	275.00	268.50	260.50	261.25	256.75	256.00	245.75	246.00	242.00	242.50	234.50	217.50	217.50	224.25	234.25	235.75	238.75	259.00	266.50	263.75	274.25	283.00	276.50	262.00	252.75	252.50	251.25	256.25	258.00	258.50	262.50	264.50	277.00	283.50	285.00	293.25	297.25	300.25	308.50	319.00	323.75	332.25	335.25	329.50	313.50	308.00	302.75	299.25	296.75	300.50	309.50	309.50	306.00	301.00	283.25	263.75	255.00	251.25	243.75	238.75	233.25	230.50	226.25	222.75	217.50	214.50	211.75	210.00	206.00	201.25	198.00	199.25	203.25	245.75	254.00	244.00	238.25	244.00	211.25	200.25	212.25	236.25	246.00	207.25	195.25
357.00	361.00	369.50	373.50	371.25	374.00	373.50	384.50	420.50	420.75	412.50	410.50	413.00	425.50	426.75	417.50	420.00	425.00	427.50	432.25	438.50	439.25	436.25	430.75	425.75	427.25	433.75	438.75	445.00	448.25	451.00	452.25	454.50	452.50	455.25	463.50	466.75	464.75	464.00	467.25	485.00	491.75	514.00	570.00	598.25	571.00	522.25	472.00	457.00	453.50	457.50	444.50	430.50	424.50	408.75	411.75	408.00	408.00	408.00	408.00	408.00	408.00	408.25	415.50	415.50	412.25	421.75	428.25	425.50	446.75	475.00	544.50	628.25	694.75	742.75	775.00	757.75	731.75	701.25	693.75	681.75	677.75	689.25	687.00	681.00	552.50	479.25	394.50	392.00	394.25	383.00	373.00	364.75	361.25	354.50	351.00	349.00	345.75	336.75	334.25	324.75	314.00	309.25	309.50	310.25	308.00	303.00	299.25	295.25	293.25	289.75	289.25	285.25	285.25	282.25	283.75	285.25	295.75	299.75	299.25	298.75	295.75	292.75	299.50	365.00	381.75	353.75	328.00	318.75	316.50	302.25	294.25	278.75	271.00	261.50	259.75	257.25	256.25	256.25	254.50	258.50	260.00	261.75	262.25	262.50	284.00	303.50	284.25	271.25	287.75	308.00	315.00	337.50	343.75	338.00	345.25	378.75	394.75	393.25	389.50	412.50	382.25	360.75	350.50	335.00	336.50	316.50	296.25	285.75	283.50	280.50	272.25	269.00	265.75	258.50	254.50	254.50	246.75	248.25	246.25	246.75	241.50	226.00	215.75	212.75	222.50	233.25	234.75	254.75	263.75	264.25	272.00	276.75	274.25	265.25	251.50	249.25	245.00	248.00	256.50	255.50	254.50	257.50	268.75	278.25	280.50	286.50	290.50	288.25	290.75	308.75	324.50	335.00	343.75	338.75	324.00	318.25	312.00	306.50	299.75	295.25	296.25	297.50	295.75	301.00	293.25	276.50	264.50	253.50	246.00	242.25	235.75	228.75	223.00	219.25	214.50	212.00	209.25	207.50	204.75	201.50	198.25	197.00	200.50	230.75	253.25	248.50	212.00	208.75	202.00	197.75	196.50	207.75	225.50	205.25	194.75
357.00	357.25	360.00	367.50	367.50	371.75	370.25	375.50	407.75	420.25	413.50	406.25	405.75	411.25	420.00	420.50	421.75	424.25	424.75	423.75	429.25	432.75	431.00	428.75	423.50	425.00	433.00	438.50	443.50	447.00	452.75	453.25	456.25	459.75	466.25	464.75	461.00	456.75	457.50	461.50	474.25	477.25	494.00	538.75	568.50	557.75	545.50	490.75	461.50	451.25	457.00	447.75	440.50	434.25	422.75	418.00	411.75	408.00	408.00	409.75	408.00	408.00	413.75	419.00	410.00	410.25	421.50	426.50	425.75	454.25	485.25	557.50	633.25	675.50	704.00	747.75	762.00	743.75	721.00	719.75	719.75	718.50	724.25	713.00	693.75	590.75	506.75	399.00	381.25	390.25	387.75	377.50	364.50	363.75	350.50	340.75	335.25	336.00	335.50	334.00	328.75	318.50	317.00	310.00	307.50	308.00	304.75	304.25	300.25	299.00	298.00	300.75	291.75	292.00	285.50	285.00	284.00	292.75	298.00	299.00	297.75	297.00	295.25	307.50	358.25	383.00	363.75	329.50	310.25	311.75	307.50	301.25	287.50	281.00	266.75	261.25	258.75	256.75	258.75	258.50	256.00	255.00	260.00	258.25	255.75	264.50	287.00	280.50	267.50	271.75	291.75	296.75	308.50	323.25	320.75	325.75	336.75	344.00	337.00	362.75	384.75	376.50	373.50	372.75	354.50	348.00	332.25	310.00	294.50	284.25	277.00	271.75	269.50	271.50	258.25	253.75	250.50	248.75	245.75	243.75	243.00	239.50	232.25	225.00	211.25	212.50	224.75	229.25	242.50	249.00	260.50	270.75	267.25	260.75	256.00	243.25	241.00	241.50	239.50	251.25	252.25	251.00	251.75	261.00	270.50	272.50	279.00	284.50	284.75	284.50	303.75	325.25	338.00	350.50	347.25	335.00	330.00	324.25	318.50	310.00	303.25	295.25	289.25	286.00	290.00	290.25	285.25	278.75	266.50	255.25	252.75	245.50	234.00	223.25	218.00	210.75	207.25	205.75	205.00	202.50	200.75	196.50	195.50	198.75	213.75	240.50	244.75	211.75	201.00	198.00	195.00	192.50	192.75	198.75	197.25	193.00
357.00	357.00	358.00	363.00	363.50	367.50	367.75	371.50	391.25	408.50	413.75	427.00	409.25	403.25	409.25	416.00	422.25	425.25	422.50	419.25	422.00	425.75	425.25	424.75	421.75	427.50	436.75	442.50	446.00	450.75	453.50	457.50	462.25	472.00	485.75	484.50	474.50	460.00	450.00	451.50	460.00	465.50	473.75	497.00	517.50	519.75	548.00	505.50	466.50	452.50	452.25	446.75	444.00	443.00	440.50	429.75	421.25	415.75	412.75	418.00	413.75	408.00	416.25	424.50	414.75	416.75	423.25	422.00	423.50	445.25	477.75	540.00	588.00	618.25	644.00	680.00	731.00	752.75	754.00	764.25	769.50	757.50	725.00	680.75	646.00	601.75	545.50	430.00	381.75	384.50	394.25	391.75	364.50	357.00	350.00	344.00	338.25	338.75	334.25	337.00	337.25	326.00	324.75	318.50	315.50	312.50	316.25	317.00	313.75	311.50	309.00	312.25	304.50	303.00	292.50	288.75	280.75	283.25	293.50	293.75	293.25	298.00	299.50	312.25	344.75	375.00	362.25	326.25	305.25	305.50	303.00	299.25	293.25	287.25	274.75	265.00	261.25	261.50	262.00	256.75	257.25	254.25	255.50	253.75	251.25	254.25	264.50	268.50	267.00	264.75	273.50	277.50	290.00	306.75	304.25	304.50	307.00	306.75	303.25	320.25	327.25	342.75	359.25	376.00	373.25	365.50	353.25	332.25	305.75	289.50	281.00	275.50	273.00	268.25	261.25	260.25	249.00	253.75	248.25	243.75	237.00	231.50	229.00	227.25	220.00	210.75	216.50	225.00	237.50	239.50	254.50	268.00	261.75	254.25	247.25	236.00	235.00	233.50	233.25	245.50	249.25	249.00	248.00	255.75	260.50	263.00	270.75	278.50	283.00	281.25	298.75	323.25	338.75	353.00	352.00	345.00	340.00	333.25	326.00	317.75	312.50	305.25	295.00	286.25	279.25	278.75	280.50	280.25	276.25	269.00	267.25	258.25	245.50	231.50	226.00	213.75	203.50	202.50	202.50	200.75	197.75	193.50	194.25	197.25	202.50	216.25	223.75	208.75	199.75	195.25	192.00	190.00	188.00	188.00	189.50	188.50
357.00	357.00	357.00	357.00	368.00	369.00	370.50	369.50	371.00	381.50	392.50	433.50	436.00	406.00	403.00	406.50	414.00	424.00	419.50	419.00	418.50	419.00	420.00	421.00	421.50	429.50	439.50	449.00	453.00	455.00	454.50	462.50	471.50	489.50	504.00	528.00	529.00	489.50	452.50	449.00	450.50	453.00	456.00	463.50	476.00	484.00	531.00	500.00	471.00	455.00	446.00	446.00	443.50	441.50	437.00	434.50	431.50	426.50	421.50	429.00	435.50	426.50	418.50	419.50	418.50	421.00	421.50	423.50	427.00	430.50	440.50	479.50	525.00	549.50	548.00	564.00	617.50	657.50	705.50	736.50	761.00	734.00	697.00	653.50	623.00	590.00	546.50	502.00	407.00	381.00	384.50	395.50	374.50	358.00	347.00	343.50	336.50	336.50	337.50	346.50	352.00	349.50	337.00	333.00	340.50	340.50	356.50	353.50	338.00	339.50	337.00	332.00	318.50	308.50	305.00	295.00	284.00	272.00	282.50	292.50	290.50	291.50	305.00	319.00	338.50	340.50	333.50	322.50	308.00	304.50	297.50	295.00	292.50	289.50	285.00	272.50	267.50	270.00	265.50	262.00	259.00	259.50	255.00	246.00	245.50	251.50	251.50	249.00	252.50	256.00	251.50	256.00	276.00	283.50	289.50	287.50	283.50	281.50	282.50	285.00	287.50	293.50	306.50	325.00	344.50	359.00	371.00	378.50	339.50	310.50	287.50	279.00	274.00	266.00	266.00	260.50	253.00	256.50	257.50	251.50	246.50	241.50	228.50	220.00	224.00	218.50	204.00	215.50	225.00	228.50	246.00	256.50	256.50	250.50	246.00	234.00	231.00	226.50	226.50	237.00	241.00	242.00	244.50	244.50	245.50	249.00	258.50	267.00	275.50	273.50	285.00	311.50	332.00	353.00	353.00	351.00	346.00	334.00	319.00	307.00	307.50	307.00	305.50	299.50	280.50	275.00	270.50	268.00	270.00	273.00	279.50	283.00	275.50	255.00	252.50	238.50	213.50	201.00	199.50	197.00	194.00	191.50	191.50	193.50	197.00	200.50	202.50	201.50	198.00	193.00	188.50	185.50	184.00	181.50	179.50	179.00
357.00	357.00	357.00	357.00	367.50	370.75	372.25	371.50	371.00	377.00	384.25	408.25	422.75	414.00	404.00	405.75	413.25	421.75	418.25	416.50	415.75	416.25	416.75	418.00	419.75	428.50	439.50	447.75	452.75	454.25	456.25	463.50	472.75	494.50	511.75	540.00	540.50	498.75	456.50	450.75	449.50	450.75	454.50	461.00	471.00	481.25	524.25	500.00	473.25	455.00	450.75	448.00	445.00	443.75	439.75	437.00	430.25	428.25	422.75	426.25	435.25	432.75	423.75	423.00	422.75	423.25	418.75	419.25	422.50	428.50	438.50	467.00	503.00	517.50	511.75	534.25	578.25	611.75	658.00	705.25	739.75	713.00	674.25	632.50	604.75	550.50	533.25	505.25	421.00	385.75	382.75	397.25	379.50	362.50	348.75	345.25	337.75	332.00	340.25	347.25	349.00	348.00	340.00	338.50	343.00	351.00	369.75	371.50	353.75	350.75	350.75	345.25	326.50	312.75	307.50	300.25	289.75	274.25	276.75	288.50	290.50	292.50	304.25	320.00	339.25	336.25	326.00	319.75	310.00	303.50	296.50	293.00	290.25	288.00	288.25	276.00	271.00	270.25	264.25	260.25	258.75	259.00	255.25	248.00	248.75	252.25	248.25	245.75	247.75	251.00	247.00	251.75	268.50	272.00	280.00	283.50	281.25	278.50	280.50	282.50	283.75	288.75	295.00	305.25	324.00	344.75	358.75	366.00	341.25	321.75	296.00	285.50	276.50	266.50	266.50	260.50	254.00	254.25	251.50	250.25	247.00	243.25	232.50	224.25	225.00	221.75	203.75	211.00	219.50	225.75	243.50	251.50	252.25	246.25	245.75	234.00	229.25	227.25	224.75	233.25	237.75	238.25	243.25	242.25	245.00	245.50	255.75	263.25	269.25	270.50	283.50	308.25	326.75	350.75	353.00	351.00	346.50	333.50	316.75	304.50	303.25	302.50	302.75	299.50	282.25	276.50	274.00	270.25	267.75	269.75	275.75	280.00	277.75	268.50	273.00	257.75	224.25	203.00	199.75	196.50	193.25	191.00	190.25	192.00	195.50	199.00	201.25	200.75	197.00	192.25	187.75	184.25	182.75	180.00	178.25	177.00
357.00	357.00	357.00	357.00	359.00	362.50	366.50	374.00	374.00	372.00	372.50	376.50	382.50	407.50	412.00	405.00	403.50	410.00	416.50	415.50	413.50	409.50	411.00	410.00	417.50	426.50	439.00	447.00	454.50	459.00	454.50	463.50	473.50	503.00	532.50	551.00	531.50	504.50	465.00	451.50	448.00	447.00	447.50	449.00	451.00	470.00	504.00	501.00	477.00	451.50	453.00	450.50	452.50	449.00	445.00	438.50	433.50	429.00	424.50	422.50	427.00	449.50	438.00	424.00	427.50	428.50	420.50	413.00	413.00	419.50	431.00	435.00	436.50	444.00	454.50	470.00	478.50	503.00	546.00	595.50	656.50	685.00	626.50	563.50	529.50	472.50	486.50	493.50	438.00	403.00	385.00	400.00	388.50	376.50	357.50	346.00	339.50	332.00	344.50	346.50	341.00	335.50	333.00	333.00	343.50	366.00	394.00	396.50	376.00	378.50	388.00	376.00	343.00	336.50	327.50	316.00	307.50	298.00	278.00	271.50	282.00	293.00	300.50	315.50	329.00	321.50	309.50	308.00	304.50	299.50	295.50	293.50	286.00	288.50	289.50	281.50	275.00	268.50	262.50	261.00	260.50	259.50	259.50	253.00	257.00	256.50	241.00	239.00	238.50	243.00	236.50	240.00	246.50	246.00	251.50	259.50	261.50	263.00	269.00	272.00	274.00	280.00	278.50	280.50	289.00	307.00	322.00	324.00	322.50	320.50	311.50	300.00	289.50	276.00	270.50	270.00	272.50	252.00	255.50	244.50	241.00	245.50	239.00	234.50	227.50	226.00	218.00	205.50	209.00	216.00	231.00	238.00	238.50	236.50	240.50	231.00	230.00	224.50	230.50	230.50	229.50	233.50	238.50	235.50	237.50	235.00	244.00	251.50	254.00	257.00	276.00	296.50	305.50	332.00	349.50	348.50	344.50	339.50	327.50	311.50	304.50	298.50	291.00	288.00	283.50	279.00	287.00	288.50	276.00	260.00	262.50	264.00	262.00	255.50	285.50	301.50	266.50	219.50	201.50	197.00	191.50	189.50	187.00	188.00	192.00	194.50	197.00	198.00	194.00	191.00	186.50	181.50	178.50	176.00	174.50	172.00
357.00	357.00	357.00	357.00	358.00	359.75	362.75	369.75	374.00	372.75	372.50	376.00	379.50	398.75	407.75	403.50	404.25	406.75	412.75	414.75	412.25	409.25	410.75	410.75	418.25	428.50	440.00	447.00	454.00	459.00	455.25	462.00	471.00	497.50	529.00	540.25	518.25	495.50	469.00	456.50	448.50	448.00	448.75	446.25	446.50	462.00	491.25	495.75	479.50	451.75	452.75	452.25	452.50	447.75	442.75	437.00	439.25	431.50	427.00	428.25	426.50	444.00	446.00	430.25	429.00	426.25	420.25	414.25	413.00	416.25	423.25	431.00	435.00	440.00	449.00	464.25	469.50	486.25	523.50	567.25	629.50	666.25	612.25	545.00	516.75	470.25	476.25	487.75	434.25	403.50	389.00	395.00	385.75	377.75	361.25	348.00	343.75	340.00	349.50	351.25	341.75	334.25	333.00	333.00	343.75	364.00	378.75	387.25	377.00	382.00	388.50	374.50	344.50	340.50	330.75	313.00	310.25	300.75	284.00	272.75	284.75	294.50	300.25	313.50	325.75	319.00	312.00	308.50	304.00	298.50	295.75	293.75	287.50	290.25	287.00	281.00	276.25	268.75	264.50	262.50	260.75	258.75	258.25	255.50	257.75	254.25	245.50	242.50	239.50	239.00	234.75	240.25	242.50	243.25	249.50	253.00	255.25	260.25	265.25	269.75	271.50	276.00	272.75	276.75	283.25	298.25	310.75	313.75	316.25	313.75	307.00	301.00	290.25	276.25	273.75	277.00	277.00	259.25	257.75	247.25	242.50	243.75	240.75	238.25	230.00	228.25	221.00	210.00	207.50	215.50	230.25	236.00	237.75	238.50	239.50	228.50	227.50	225.00	235.00	229.00	228.00	232.25	236.50	231.25	233.00	233.25	241.00	246.50	253.25	255.75	274.50	293.25	302.75	325.00	344.50	347.00	342.00	335.75	328.25	318.25	309.25	302.25	294.00	287.75	281.00	277.75	287.75	294.75	285.00	260.75	258.75	259.75	258.75	254.00	276.75	302.75	281.25	231.75	202.50	197.50	192.25	189.75	186.75	186.75	190.50	193.50	196.00	197.25	193.25	190.50	186.50	181.50	178.25	174.75	173.00	170.50
