847.50	1070.00	1068.50	1157.50	1025.50	898.00	1021.00	947.00	956.50	986.00	975.00	965.50	959.00	1022.50	1018.00	1063.00	1167.50	1039.00	887.50	845.00	792.50	801.50	756.50	750.00	804.50	841.50	939.00	971.50	951.50	907.50	842.50	826.00	751.00	797.50	861.50	967.00	1065.00	1112.50	1010.00	1007.50	993.00	900.50	805.00	730.50	871.00	974.00	994.50	898.50	844.50	760.00	763.50	726.00	786.00	841.00	787.50	889.50	911.00	827.50	726.00	758.00	918.50	927.50	933.00	998.00	993.00	1015.00	967.00	908.50	897.50	928.50	949.00	923.50	922.50	963.50	1030.00	1024.50	918.50	873.50	869.00	873.00	851.00	812.00	861.00	844.50	918.00	1011.50	965.00	925.00	926.00	903.50	870.50	788.50	804.50	761.00	743.50	744.00	813.00	855.50	968.50	1032.00	1031.00	1093.50	1195.50	1243.50	1223.50	1013.50	962.00	1027.50	1144.50	1017.50	1059.50	1143.50	1033.00	1051.00	1018.50	968.00	949.00	1083.00	1192.50	1108.00	1112.00	1118.00	1062.00	910.50	808.00	914.00	1044.00	1096.50	1049.50	947.50	894.50	869.50	870.50	857.50	888.00	910.00	891.50	858.50	838.00	884.50	807.50	715.00	679.00	758.00	801.00	747.00	799.50	844.50	875.50	877.00	773.50	791.50	896.00	978.00	823.00	860.50	954.50	1011.00	894.50	756.50	751.50	837.00	880.50	730.50	665.00	885.50	875.00	786.00	785.00	752.50	605.00	663.50	733.50	749.00	714.50	670.00	656.50	677.50	676.00	658.00	622.00	568.50	563.00	565.00	572.50	584.50	595.00	599.00	609.00	633.50	649.00	608.00	571.50	561.50	558.50	577.50	622.00	688.00	748.00	793.50	770.50	756.00	765.50	794.50	838.50	855.50	815.00	740.00	713.50	757.50	841.50	906.00	956.50	969.50	986.50	975.50	961.50	956.00	963.50	984.00	955.50	867.00	820.00	753.50	692.00	671.00	627.50	650.00	799.00	894.50	859.50	770.00	749.50	671.50	616.00	575.00	576.00	636.00	687.00	692.00	694.00	745.00	819.00	963.50	966.00	959.50	990.00	1000.50	916.50	913.50	933.00	893.00	817.50	774.50	760.50	775.50
787.00	882.75	838.00	843.25	843.50	818.75	885.50	867.00	875.00	899.75	929.00	953.25	967.00	958.25	949.75	1017.00	1023.75	983.00	955.25	942.25	856.25	757.00	717.00	751.25	888.50	948.00	1039.00	1079.50	1091.25	1101.75	1036.25	931.00	836.50	789.50	818.50	872.25	971.25	1064.75	1127.25	1086.25	1077.75	977.75	838.00	763.25	889.25	983.00	923.75	861.00	803.75	840.50	867.25	799.50	795.00	928.50	944.75	919.25	871.25	819.75	887.75	850.00	789.00	798.25	841.00	904.50	991.50	927.25	887.50	834.25	820.75	924.25	938.50	886.75	876.00	902.75	958.25	992.50	968.50	930.25	880.50	847.50	798.75	767.50	779.75	795.50	899.75	1003.00	936.50	886.00	885.00	855.50	804.25	754.50	781.00	814.00	821.75	838.25	787.50	781.50	819.50	860.50	912.50	983.25	1013.00	1099.50	1081.25	937.00	911.50	1012.00	994.00	1034.75	1090.75	1155.25	1183.25	1156.75	1093.25	1067.75	953.75	1033.00	1143.75	1067.50	999.50	965.25	925.25	830.75	882.25	888.75	921.00	1024.50	1122.25	1084.50	1066.25	1003.75	932.25	908.50	844.25	827.75	832.25	837.25	789.50	742.50	712.75	696.00	712.75	780.75	845.00	799.75	776.75	834.25	890.00	955.50	916.00	884.00	977.75	939.50	810.00	791.75	902.00	1015.75	940.00	875.00	777.25	705.75	769.50	665.75	688.75	841.25	775.25	791.75	706.00	659.75	581.75	630.25	674.50	649.25	615.00	586.00	573.75	575.50	567.50	558.50	549.25	545.25	535.00	555.50	564.25	575.50	591.25	621.00	655.00	672.50	666.75	647.50	608.50	581.00	566.25	564.25	607.75	680.00	740.50	758.25	736.25	737.25	770.25	825.00	866.50	846.25	836.75	848.00	781.25	745.00	766.25	823.75	887.00	908.50	945.25	980.75	1000.00	988.50	994.50	1028.25	1056.00	1047.50	1000.00	898.75	789.75	706.25	620.00	649.75	897.25	975.00	950.00	895.25	856.00	779.75	698.50	612.75	587.25	600.25	643.75	690.00	760.25	844.50	909.75	919.75	807.50	846.00	929.50	964.75	953.25	895.75	843.75	794.00	768.25	740.75	757.25	824.25
755.25	767.00	779.00	792.75	806.75	797.00	812.25	843.00	928.25	1005.50	1049.00	1038.00	1027.75	986.75	949.75	941.00	935.25	904.50	881.50	885.75	844.00	785.25	794.00	804.50	870.75	944.00	1028.00	1115.75	1190.50	1205.00	1108.50	949.75	835.25	850.00	892.25	874.00	931.50	1036.75	1134.75	1045.25	1028.25	972.50	830.25	799.00	898.00	990.00	937.50	888.00	822.00	949.75	934.00	885.00	865.00	855.75	929.75	950.00	895.75	849.50	931.75	949.00	796.25	817.25	859.50	917.25	1020.50	915.00	878.25	832.00	810.25	898.00	911.00	857.50	849.25	880.00	931.25	985.50	1002.25	970.25	911.25	885.75	842.00	834.25	818.75	816.00	876.25	944.50	908.25	868.00	864.50	825.50	765.00	757.75	837.00	912.25	900.00	912.00	860.75	863.00	801.75	797.50	828.00	878.75	901.75	961.25	945.50	920.50	914.75	970.50	942.25	1010.25	1038.00	1063.50	1121.50	1183.75	1164.50	1103.50	1006.75	1027.75	1158.75	1135.00	1089.50	1039.50	933.00	826.00	920.75	909.00	903.25	1016.75	1110.25	1061.00	1085.50	997.00	960.00	884.50	806.75	786.75	779.25	773.25	749.75	717.50	706.25	728.75	765.75	846.25	858.75	857.75	808.75	792.75	838.50	950.25	989.50	1009.00	1021.75	930.25	879.75	792.00	857.50	967.25	930.50	934.75	851.25	737.00	717.00	639.75	683.75	810.50	709.00	765.25	706.75	643.75	578.50	595.50	609.75	595.75	577.50	564.25	561.00	558.00	558.75	558.75	559.00	553.25	541.00	562.50	570.00	575.00	594.00	625.00	657.00	693.25	721.75	679.50	631.50	603.25	581.50	568.50	595.75	657.75	714.75	710.75	693.75	718.75	785.25	840.75	838.00	809.00	828.75	859.75	805.50	755.00	731.50	752.25	807.25	858.50	911.50	952.50	978.25	975.25	957.75	941.50	946.00	954.00	970.00	935.50	862.75	789.75	681.50	669.75	845.00	915.25	982.25	982.00	942.00	822.75	757.50	629.50	592.00	597.00	659.75	762.75	834.50	893.75	905.25	852.00	764.75	841.75	884.75	908.00	936.75	887.50	851.50	832.50	805.25	766.75	774.25	795.00
734.25	767.50	877.75	875.50	922.25	874.25	854.75	872.00	1037.00	1119.75	1128.00	1095.00	1078.00	1061.75	1019.00	974.25	985.00	932.25	868.25	879.75	865.00	850.00	943.50	905.50	859.50	943.25	1053.75	1172.75	1247.50	1199.00	1097.50	965.00	848.25	909.00	1005.50	965.25	955.25	1064.75	1089.25	963.50	897.50	872.25	849.25	883.75	889.50	990.50	986.25	925.25	834.25	959.75	1016.50	996.50	950.00	821.00	896.50	968.75	946.25	860.00	876.25	962.50	852.50	871.25	952.25	951.25	1011.25	972.50	951.00	901.75	838.50	837.50	856.00	824.75	841.25	866.50	890.75	989.25	1026.50	976.25	895.50	878.25	854.25	891.00	864.75	840.25	854.00	880.75	873.00	837.50	826.50	803.50	773.25	783.25	882.75	980.50	961.75	951.25	934.25	950.50	857.00	834.00	826.75	846.75	880.75	907.00	945.25	1010.00	982.50	1035.25	994.25	1003.75	999.25	1008.00	1024.75	1115.25	1170.00	1160.75	1091.00	1044.25	1175.25	1088.00	1064.75	1035.75	926.75	831.75	903.75	932.50	962.00	1078.25	1079.25	975.75	983.75	924.75	879.75	864.75	859.75	823.25	801.75	753.00	730.50	722.25	736.25	781.50	831.75	940.00	904.00	899.75	876.25	812.50	827.25	927.75	1021.00	1082.25	1013.25	949.25	892.00	799.75	796.00	878.25	846.50	948.50	905.00	853.75	759.75	657.00	656.00	784.25	665.25	669.00	645.00	613.50	588.00	589.00	587.50	584.00	579.75	576.00	573.25	570.50	569.75	566.50	563.50	548.00	543.00	568.75	585.25	589.50	602.75	642.25	672.25	704.50	749.50	695.50	633.75	610.25	590.50	575.75	587.50	621.00	657.00	659.75	653.00	693.25	750.25	777.50	768.00	786.50	821.00	812.75	776.00	748.00	717.00	713.00	743.50	797.00	862.75	915.25	957.00	977.75	950.75	888.25	847.25	826.00	831.25	840.00	831.00	801.75	735.00	707.75	786.75	853.25	948.25	988.25	994.00	918.75	832.75	641.50	596.25	599.75	660.00	755.75	793.00	799.75	778.75	738.50	733.25	786.50	802.25	855.00	891.25	916.25	893.00	874.00	848.25	829.00	807.50	758.50
773.50	862.75	1037.75	966.25	1100.75	1029.25	958.25	908.50	1041.25	1090.75	1102.00	1062.00	1076.50	1137.25	1119.25	1072.75	1091.75	1000.00	893.00	922.25	921.25	924.25	1035.00	974.00	879.50	936.25	1102.75	1241.50	1231.50	1099.75	1030.75	953.00	875.75	939.00	1060.75	1070.75	1036.50	1054.50	1002.25	901.75	852.50	855.50	939.25	1006.50	918.50	1024.00	1008.00	898.25	847.50	927.00	1018.00	1061.25	953.75	834.75	908.50	1010.50	987.50	904.50	845.00	921.75	934.25	929.00	994.75	964.50	950.75	1000.00	1010.75	971.50	888.75	824.00	821.00	806.75	839.25	864.00	899.25	1000.00	1021.50	970.00	847.50	820.50	798.25	842.50	840.75	822.00	819.50	822.75	829.25	786.50	777.75	795.25	818.75	846.50	895.75	984.75	1003.00	973.75	973.00	959.50	919.50	931.25	903.00	875.25	949.50	942.75	1047.50	1094.00	1048.50	1158.50	1060.00	1072.25	1070.75	1055.75	1030.75	1085.75	1184.25	1182.25	1125.25	1112.25	1182.25	1031.25	963.50	952.00	893.50	834.50	869.50	949.50	1033.50	1124.50	1075.50	992.50	899.25	897.50	854.25	922.50	928.75	899.00	813.50	738.25	732.00	746.25	767.75	797.50	825.25	915.25	957.50	985.75	953.50	845.50	865.00	968.00	1027.25	1060.25	967.75	920.25	845.25	801.50	763.50	769.75	766.25	920.75	962.00	949.75	869.00	713.00	644.25	701.25	621.75	612.75	610.75	611.00	600.75	600.50	601.50	603.00	601.50	596.50	590.25	586.75	582.00	571.75	561.75	544.75	542.25	567.00	590.75	614.25	614.75	648.25	691.25	720.00	744.75	700.75	639.75	607.75	588.00	573.25	581.00	595.50	608.00	624.50	626.25	654.75	687.25	697.25	707.75	740.75	758.00	745.75	739.50	736.50	722.25	717.50	720.25	755.25	818.75	879.25	937.00	984.25	946.75	880.75	817.00	769.25	745.50	746.25	746.75	747.50	735.75	732.25	751.50	809.75	898.75	964.50	1023.00	991.00	878.00	670.75	606.50	597.25	623.25	673.00	698.75	708.75	713.50	728.25	753.25	778.00	774.50	802.25	842.00	907.25	908.50	909.25	908.25	897.00	836.75	750.25
923.75	951.50	1128.00	1021.75	1219.25	1121.00	1040.25	966.25	962.50	996.00	1051.50	995.25	1027.25	1150.00	1173.25	1131.25	1103.75	1014.50	925.50	964.75	978.50	976.25	1073.00	1012.75	918.00	950.00	1119.25	1230.00	1196.00	1042.50	972.50	919.25	875.75	915.75	1005.25	1065.25	1103.25	1051.50	954.00	917.75	887.25	940.75	987.50	1074.75	960.75	1047.00	973.50	886.50	869.75	961.50	1036.25	1065.50	954.75	867.75	889.25	986.00	1044.00	972.00	875.25	934.00	950.00	920.00	956.25	977.75	913.75	904.75	967.75	1006.00	925.75	845.75	817.25	850.25	888.00	925.00	985.50	1007.00	1015.25	983.00	873.50	844.25	798.25	764.50	789.00	811.00	806.75	807.50	805.00	741.75	770.25	799.50	869.75	933.00	925.50	992.00	1043.25	1010.50	989.50	955.75	993.50	1005.50	959.75	922.50	1006.50	967.00	1067.50	1137.50	1110.50	1210.25	1094.00	1095.75	1161.00	1146.25	1119.25	1154.00	1196.75	1127.50	1076.00	1161.75	1193.50	1058.25	994.00	1014.50	926.25	843.50	883.00	976.75	1075.75	1110.25	1022.75	987.50	937.75	964.00	899.25	995.75	975.25	920.25	769.00	723.25	740.50	766.50	794.00	796.75	790.50	832.00	957.75	999.75	1004.75	912.00	943.25	982.75	959.75	1000.75	977.00	965.75	852.00	812.50	821.25	753.00	737.00	817.50	899.75	954.00	900.25	706.75	630.00	625.50	620.25	634.25	632.00	629.25	611.25	608.50	612.75	617.75	619.25	617.75	614.00	613.50	610.75	594.50	565.50	544.75	541.25	569.25	597.75	637.25	646.25	655.75	687.25	718.75	751.50	719.50	654.00	610.50	584.75	571.50	574.00	582.00	589.75	607.50	616.50	634.25	649.75	658.00	671.75	684.75	687.75	692.75	703.50	713.75	725.75	727.75	728.75	750.50	794.25	853.00	911.75	966.50	933.25	880.75	819.25	755.50	717.00	704.50	699.25	703.00	739.75	773.75	761.25	759.25	842.00	954.75	1037.75	1055.50	973.00	748.75	638.25	602.25	621.75	684.75	746.25	744.75	765.25	800.25	835.00	856.75	816.50	814.50	816.00	865.75	907.50	920.50	907.75	882.00	806.75	753.50
1068.00	1064.00	1146.00	1209.50	1289.50	1172.00	1133.00	987.50	948.00	948.50	952.00	977.00	955.50	1131.00	1190.00	1117.50	1046.00	1023.50	985.00	1089.50	1102.50	1061.00	1121.00	1175.50	1092.00	1053.50	1109.50	1141.00	1186.00	1132.50	1023.00	968.00	935.00	988.50	954.50	1025.00	1082.00	1134.00	1108.00	1053.00	1006.00	1064.00	1079.50	1083.00	1066.00	1076.50	1025.50	983.00	975.50	1029.00	1108.50	1043.00	1059.00	1023.00	1003.50	1017.50	1060.00	1048.00	1010.00	1041.50	971.00	906.50	850.00	930.50	982.50	856.50	814.00	876.50	860.50	815.00	795.00	935.50	949.00	936.00	940.50	955.00	1034.50	1034.50	997.50	929.50	911.00	886.50	837.50	859.00	867.50	816.50	736.50	702.00	767.00	840.00	938.00	1032.50	1039.00	1069.00	1098.50	1077.00	994.00	989.00	1063.50	1067.00	1012.00	996.50	1027.00	997.50	1049.50	1102.50	1077.00	1156.50	1132.00	1190.00	1197.00	1204.50	1216.50	1160.00	1074.00	1055.50	1063.50	1208.50	1104.00	1205.50	1185.00	1076.00	953.50	918.00	986.50	1039.00	1199.00	1129.50	1020.00	1056.50	1116.00	1067.50	1002.00	1033.00	946.50	842.50	747.00	751.50	858.00	880.00	827.00	846.50	829.00	794.00	802.50	896.50	949.50	928.00	955.50	888.50	842.00	876.00	980.00	1048.50	949.50	952.00	908.00	928.50	948.00	758.00	742.50	773.00	689.00	609.50	615.00	674.00	688.50	670.00	656.00	683.50	644.50	634.00	643.00	662.00	674.50	671.50	662.00	662.50	672.50	628.50	568.50	545.00	554.00	624.50	664.00	675.00	690.00	710.50	699.50	696.50	776.00	714.50	642.00	618.00	591.50	578.00	577.00	580.00	581.50	593.50	604.50	612.00	622.00	639.50	647.00	656.50	660.50	665.50	666.50	673.00	692.50	711.00	753.50	814.50	862.00	868.50	857.00	843.00	847.50	831.50	810.00	773.50	730.50	699.50	689.50	703.00	780.00	862.00	879.00	816.00	790.00	834.50	904.00	1002.00	997.50	773.00	648.00	627.50	678.00	833.00	930.50	899.50	901.00	942.50	939.00	960.50	955.00	907.00	852.50	852.00	928.00	936.50	882.00	811.50	798.50	765.50
1014.25	1058.00	1207.25	1263.75	1250.50	1160.00	1069.50	985.00	985.50	1003.75	979.00	1034.00	986.00	1115.00	1178.75	1072.25	1013.25	1005.50	1012.00	1111.25	1117.50	1081.00	1130.25	1215.50	1161.00	1068.25	1095.75	1112.50	1166.25	1140.50	1091.75	1007.00	943.00	1010.25	1006.50	1048.75	1060.75	1099.25	1134.75	1109.25	1055.00	1070.50	1085.25	1039.25	1047.25	1038.25	1030.75	997.75	971.75	1006.75	1092.25	1026.00	995.25	1020.75	1016.75	1004.00	1037.50	1077.75	1016.25	1041.00	967.25	940.50	845.25	886.75	979.50	910.00	837.50	813.25	830.75	786.50	774.00	894.25	888.25	870.75	888.50	948.75	1037.75	1016.75	978.75	917.25	904.75	879.25	851.75	879.75	877.25	800.25	729.75	705.00	767.75	855.25	949.50	1029.75	1042.50	1050.25	1085.25	1076.25	987.00	1001.75	1054.50	1052.75	1010.75	1006.25	1042.00	1015.75	1069.00	1066.00	1016.75	1109.75	1068.00	1170.75	1143.50	1141.75	1153.25	1137.00	1036.50	1023.25	1106.50	1190.50	1067.75	1177.50	1187.00	1092.75	974.25	938.00	1033.00	1055.75	1154.25	1120.00	1098.50	1126.25	1150.25	1061.00	1007.00	982.75	890.25	800.50	756.75	763.25	894.75	958.50	871.75	839.00	842.25	841.00	826.50	850.50	881.75	876.00	913.00	902.00	812.75	837.00	951.00	1001.50	982.50	994.50	943.00	1004.00	984.75	785.00	697.75	701.00	655.75	637.75	654.25	716.00	728.00	702.75	673.25	697.50	666.25	646.50	659.00	684.75	699.75	688.00	680.50	687.50	689.00	624.00	566.75	552.75	565.75	635.00	679.75	705.00	721.00	744.75	742.75	728.75	780.25	713.00	658.00	633.00	595.00	579.50	578.25	579.50	582.00	607.00	627.00	615.50	620.00	641.75	657.25	664.50	670.25	673.25	678.25	684.25	697.25	708.75	752.00	803.50	851.50	861.75	840.75	805.25	800.50	789.75	777.75	755.00	731.00	697.50	684.25	700.00	778.75	855.50	887.00	855.50	830.75	834.75	878.00	935.75	910.75	736.00	648.00	635.00	690.50	846.50	950.25	953.00	961.75	989.75	993.00	1024.75	984.75	929.50	888.50	869.25	964.50	981.25	894.75	828.25	833.50	780.50
1108.50	1179.50	1314.50	1285.50	1044.00	1055.50	1003.00	1070.00	1060.50	1096.00	1003.50	1033.00	1066.50	1059.00	1144.50	1012.00	945.00	919.50	1043.50	1090.00	1056.00	1056.00	1112.00	1174.50	1173.50	1044.00	1030.00	1057.50	1087.50	1132.50	1188.50	1109.50	992.00	1074.00	1160.00	1116.50	1084.50	998.50	976.50	982.00	969.00	991.50	1117.50	1053.50	893.00	903.50	948.50	920.50	895.00	972.50	1023.50	1007.00	909.50	890.00	911.50	952.00	1053.00	1091.00	980.00	922.50	870.50	929.00	898.50	810.00	871.00	897.00	906.50	759.50	738.00	721.00	709.00	744.50	762.00	832.50	922.00	973.50	1011.00	946.00	921.50	907.50	851.00	779.50	765.00	812.00	867.00	775.00	718.00	701.00	768.00	898.50	941.50	986.50	1005.00	979.00	1016.50	1023.00	962.00	1015.50	987.50	970.00	943.50	1011.00	1047.50	982.50	1020.50	972.00	919.00	1026.00	957.00	1108.50	1021.00	965.00	1033.50	1106.50	989.00	980.50	1118.50	1102.00	1005.00	1121.00	1193.00	1156.50	1089.50	1026.50	1132.00	1103.00	988.00	1001.00	1186.50	1141.50	1073.50	1017.00	920.50	880.50	777.00	841.50	896.50	811.00	918.00	1088.00	1003.00	910.00	859.50	950.50	941.00	895.50	800.00	769.00	796.50	920.50	795.00	764.50	804.00	867.00	946.00	927.50	904.50	990.00	919.50	737.00	626.00	630.50	710.00	827.00	784.50	791.00	910.50	788.50	705.50	740.50	692.00	668.00	699.00	743.50	755.50	721.00	723.00	751.50	685.00	590.00	553.00	555.50	580.50	619.50	655.00	714.50	758.50	798.00	846.00	852.50	821.00	746.00	705.00	653.50	603.00	582.50	581.00	582.50	597.50	683.00	698.00	632.50	616.50	694.00	737.00	726.50	756.50	716.50	687.00	741.50	792.50	787.00	767.50	768.50	784.00	805.00	813.50	792.50	762.50	723.00	708.50	698.00	698.50	701.50	691.50	684.50	711.00	749.00	814.50	846.50	830.50	804.00	787.00	793.50	744.00	653.00	636.50	648.50	702.00	766.00	843.00	921.00	991.50	1038.00	1076.00	1131.50	1116.50	1051.50	971.50	959.00	1077.50	1065.00	941.00	913.50	897.00	801.50
1025.00	1153.75	1238.75	1131.75	1178.25	1226.00	1106.75	1123.50	1071.50	1036.25	991.75	1031.25	1035.50	981.75	1067.00	1051.25	1039.00	951.75	972.25	1042.00	989.75	961.25	1018.50	1067.00	1072.00	990.50	994.50	992.50	1005.25	1068.25	1123.25	1136.75	1136.50	1099.75	1082.75	1090.75	1083.75	1075.50	1013.50	920.75	894.25	911.25	917.50	913.50	882.25	889.25	973.50	931.75	862.00	852.75	877.25	987.50	938.75	852.25	889.00	928.75	951.50	985.25	1023.75	1027.00	921.25	930.75	892.25	837.25	834.25	804.75	811.25	769.75	758.00	740.00	709.00	845.50	873.25	921.75	950.00	920.75	960.25	950.50	843.75	825.25	922.50	905.75	827.25	764.50	756.50	733.00	690.50	724.50	818.25	859.50	854.25	922.25	938.50	903.75	927.75	955.00	930.25	925.75	885.25	859.00	905.75	1001.25	1081.50	1007.50	926.25	880.50	912.25	977.00	920.50	996.50	950.00	985.00	1083.75	1000.00	942.50	965.25	1120.00	1096.00	995.25	1123.50	1108.00	1019.00	1131.00	1181.75	1173.50	1126.50	1018.50	958.00	943.25	927.25	907.75	858.50	815.50	831.75	888.00	1006.00	963.75	816.00	890.00	1028.00	1107.75	1127.25	1003.75	1024.00	1000.00	938.75	885.75	834.50	762.00	776.25	774.75	741.75	734.25	826.00	939.75	885.00	803.75	790.25	749.25	643.00	650.25	780.75	919.00	987.50	933.75	765.75	917.50	870.75	810.75	845.50	728.00	702.00	713.75	750.25	767.50	752.25	758.00	730.00	620.00	545.75	540.75	568.00	613.25	663.25	664.25	662.50	696.75	754.00	843.75	905.25	849.25	804.75	727.50	646.00	607.25	597.25	593.00	595.75	654.75	792.00	807.25	688.75	640.50	686.50	768.75	792.50	841.25	776.75	707.25	712.50	825.25	841.25	807.50	762.00	757.00	779.25	824.25	897.50	844.75	765.00	728.00	704.75	687.75	698.00	730.25	730.50	700.75	708.50	800.25	829.00	815.00	783.50	742.75	690.50	675.50	646.75	635.50	654.50	748.25	870.25	921.50	935.00	967.00	990.75	1049.75	1102.50	1207.25	1237.50	1124.75	1122.00	1150.75	1040.00	964.75	931.00	865.50	871.75
976.00	1120.00	1173.00	1089.50	1231.00	1274.50	1118.50	1134.00	1024.00	973.50	963.50	1054.50	1011.00	964.00	1050.50	1083.50	1092.50	967.50	953.00	1030.00	970.00	935.00	997.50	1053.00	1052.00	981.50	994.50	962.00	1005.50	1106.50	1132.50	1134.00	1194.00	1114.50	1079.00	1127.00	1135.00	1138.50	1039.50	924.50	878.00	887.50	867.00	850.00	870.00	872.00	965.50	951.00	863.00	813.50	808.50	922.00	920.50	848.00	902.00	886.00	900.50	935.50	1007.00	1074.00	952.00	967.00	939.00	870.50	857.00	802.00	788.00	797.00	803.50	788.50	717.00	821.00	863.50	915.00	934.50	891.00	949.00	960.50	837.00	784.50	962.00	962.00	879.50	790.50	753.50	726.00	682.00	740.00	841.00	833.00	826.50	906.00	915.50	878.00	903.50	936.00	912.00	893.00	848.00	832.50	914.00	1012.50	1100.00	1026.50	916.00	866.00	939.50	972.00	912.50	952.00	920.00	998.50	1060.50	957.00	933.50	975.50	1136.50	1103.00	977.00	1105.50	1063.00	967.00	1127.00	1199.50	1147.00	1140.00	1062.50	971.00	871.00	856.00	861.00	813.50	799.00	870.00	922.50	1011.50	971.00	823.50	871.50	966.00	1086.00	1159.00	1057.50	1056.50	1019.50	927.00	907.00	878.50	768.50	734.50	728.00	734.00	714.50	818.00	935.00	919.00	820.50	726.50	683.50	627.50	681.50	821.50	960.50	1068.00	958.00	762.00	919.50	898.00	870.50	889.50	752.50	731.00	735.00	762.00	775.00	764.50	757.50	696.50	590.50	541.00	535.50	570.50	622.50	680.00	682.00	658.00	681.50	739.00	827.00	875.00	813.50	785.50	733.00	653.50	617.00	604.50	598.50	604.50	676.50	825.00	845.00	705.50	652.00	674.00	771.00	823.00	847.00	795.50	724.50	704.50	815.00	860.00	822.00	754.00	745.50	768.00	814.50	928.50	868.50	785.50	740.00	710.00	694.00	707.00	763.50	765.00	707.00	703.00	813.50	838.50	823.00	799.00	754.50	682.50	665.50	646.50	640.50	650.50	742.00	888.50	966.50	983.00	1004.00	1004.00	1009.00	1044.00	1146.00	1220.00	1186.00	1201.50	1194.50	1056.00	962.50	899.00	879.00	911.00
978.75	1089.00	1000.75	1035.75	1146.25	1252.50	1201.50	1122.25	1044.75	958.50	946.00	1071.00	1031.50	922.25	1033.50	1094.50	1035.25	925.50	934.50	1005.50	909.25	894.00	937.75	989.00	960.50	954.75	931.25	931.25	994.50	1014.75	1028.25	1126.00	1240.50	1186.75	1241.75	1268.00	1253.00	1141.25	1039.25	1003.25	1016.25	969.00	962.00	912.50	812.00	821.75	850.25	884.00	916.25	894.50	877.50	808.50	843.25	868.25	857.75	834.25	889.00	937.00	882.75	949.25	908.00	918.75	929.50	944.50	914.00	827.75	846.75	901.50	890.00	859.25	755.50	745.50	779.50	795.25	809.75	870.00	965.00	1004.75	879.50	795.00	815.25	927.75	882.75	812.50	756.75	711.25	668.50	781.50	832.25	785.25	818.25	859.75	799.75	791.50	846.50	872.25	826.50	770.50	804.75	864.50	928.50	971.75	999.50	1000.50	962.75	883.00	936.00	1018.50	965.25	889.00	912.75	992.75	1048.75	934.50	917.25	976.75	1092.25	1040.00	891.75	984.75	1001.25	999.50	1056.25	999.50	1065.75	1154.00	1029.00	899.00	883.00	909.00	853.75	864.00	959.75	1027.25	1065.50	1037.25	844.00	858.25	938.75	1016.25	1083.25	1199.50	1114.25	1148.00	1038.50	913.75	883.75	844.00	814.25	806.00	758.00	733.00	732.50	714.75	780.75	822.00	817.00	695.50	637.75	654.75	759.75	923.25	1000.00	1056.75	923.50	845.50	842.25	940.00	954.00	881.00	799.00	783.25	810.25	815.75	817.50	785.75	698.50	628.00	575.00	555.00	558.00	598.25	636.75	703.50	731.75	714.00	719.75	773.50	835.25	868.75	825.00	741.50	676.75	640.00	620.50	617.00	620.50	627.00	650.25	738.50	829.50	837.25	732.25	672.25	716.00	825.00	910.50	935.75	798.25	728.50	776.75	888.75	891.75	848.25	806.25	760.25	764.00	934.00	905.75	844.50	773.50	726.00	723.25	761.50	795.75	840.25	802.25	761.00	801.25	847.25	815.50	782.25	752.50	706.00	674.00	639.50	634.25	650.00	695.25	767.50	862.00	985.50	1087.50	1106.75	1038.75	1016.00	1081.50	1169.50	1228.50	1280.50	1251.75	1127.25	1019.25	963.75	998.75	1086.50
936.75	973.75	957.00	1038.00	1163.00	1211.25	1089.75	1066.25	1034.50	973.00	905.75	1011.75	1085.00	884.25	906.25	1002.25	1021.00	946.25	864.75	924.25	860.75	866.25	919.25	965.25	909.50	913.00	902.25	930.50	967.00	1009.25	1019.00	1124.00	1204.00	1237.50	1298.25	1344.25	1291.00	1153.75	1059.25	1127.50	1098.50	1017.25	958.00	936.25	856.50	843.75	815.50	836.50	928.00	909.75	877.50	808.25	855.25	939.00	938.50	905.00	950.00	938.25	857.00	865.00	826.50	846.50	913.00	963.75	920.25	866.25	852.75	838.75	830.75	829.25	775.75	723.25	742.50	736.25	812.25	875.00	919.25	981.75	925.00	848.25	757.50	851.75	888.25	844.50	772.25	711.25	667.50	768.25	776.50	759.00	759.25	778.50	729.00	724.00	776.25	805.00	756.75	715.50	787.75	821.25	850.00	910.00	945.50	981.00	946.00	848.25	888.00	982.50	948.50	881.25	936.00	1048.50	1054.25	900.00	926.75	1015.50	1070.00	973.50	902.50	1029.00	1057.00	1028.75	996.25	944.75	1032.25	1137.00	1064.75	925.75	955.75	998.75	878.75	889.50	1032.75	1139.00	1088.50	978.75	842.25	939.25	1025.00	1029.75	1084.75	1196.00	1226.75	1230.25	1065.50	1031.25	963.75	941.50	913.75	861.00	799.75	765.25	825.50	763.00	706.25	710.25	702.75	643.00	654.50	704.00	742.75	837.00	900.25	1015.75	1009.00	942.75	858.00	946.25	922.00	845.00	818.50	819.50	863.00	867.75	832.50	779.50	683.00	605.75	578.75	572.50	584.50	625.00	653.75	694.25	717.50	742.00	751.00	785.75	860.00	903.50	847.00	739.00	665.50	635.75	623.25	622.25	629.75	636.00	645.50	711.75	769.25	879.75	815.25	717.25	691.50	774.75	876.75	952.25	831.75	778.50	750.00	842.50	940.50	928.75	859.25	775.75	758.75	885.25	864.25	805.00	738.75	699.50	732.00	807.50	834.25	858.75	860.25	804.75	833.25	878.75	850.50	813.00	769.25	715.75	688.00	640.25	633.25	650.25	692.25	749.00	824.50	922.75	1031.50	1111.00	1119.25	1093.50	1135.75	1212.75	1286.25	1306.25	1250.00	1149.00	1072.50	1042.00	1102.50	1217.00
892.50	873.50	971.00	1118.25	1238.75	1176.75	985.25	1053.00	1026.50	947.25	880.50	964.75	1067.75	935.00	866.25	880.50	939.25	950.75	833.00	857.00	857.00	882.00	931.25	953.50	886.75	866.50	906.25	998.50	1023.75	1045.25	1057.75	1100.50	1110.25	1190.50	1230.75	1320.50	1261.75	1142.75	1147.75	1186.00	1087.75	992.25	987.25	989.75	917.25	896.25	835.50	794.75	888.50	930.75	885.25	787.00	819.00	916.25	930.25	919.00	947.75	921.25	874.50	824.75	797.50	836.75	904.25	958.75	926.00	867.25	850.25	834.75	832.75	849.75	794.00	739.00	719.50	715.00	815.75	835.75	895.75	974.25	949.75	906.25	773.50	791.50	857.25	815.75	754.75	693.25	660.00	715.75	723.25	720.75	685.00	699.75	688.50	690.50	725.25	749.50	718.75	705.00	752.00	766.25	772.50	812.50	870.75	922.25	903.25	810.75	836.25	917.00	900.50	872.00	923.75	1047.75	1036.00	870.75	936.75	1027.75	1040.25	923.00	931.00	1039.00	1036.25	967.50	937.50	928.00	990.00	1099.25	1108.75	968.75	1009.50	1006.00	875.75	906.25	1028.00	1132.00	1008.75	913.00	902.75	1031.25	1123.00	1046.25	1151.00	1269.75	1303.00	1302.50	1132.50	1145.75	1018.50	1048.00	1015.75	920.50	868.25	828.50	867.00	831.50	748.50	688.50	647.00	640.00	693.25	756.75	721.50	769.25	830.50	946.50	1024.75	999.50	971.75	967.75	903.75	829.00	830.00	830.25	874.75	877.25	823.00	741.25	660.50	598.00	583.75	591.25	611.50	671.25	698.00	723.25	735.75	772.00	808.25	812.00	845.50	898.00	861.75	733.00	656.50	635.75	628.75	628.50	637.75	643.00	653.75	722.75	737.00	840.75	878.00	796.25	705.25	741.25	820.50	933.25	901.75	858.00	764.00	791.50	908.75	928.25	896.25	810.50	762.00	825.75	831.50	748.75	705.00	682.50	718.75	805.25	863.75	903.50	896.75	827.25	877.75	908.75	873.00	820.50	768.25	729.75	699.25	647.50	638.25	646.25	681.00	743.00	803.00	868.25	942.00	1012.25	1098.50	1131.00	1179.75	1251.50	1303.75	1315.00	1264.25	1188.25	1112.50	1074.50	1141.25	1247.50
841.25	836.50	985.50	1140.25	1177.75	1135.50	934.25	1006.00	1051.50	977.75	879.75	909.75	994.50	1022.75	919.75	844.00	850.50	893.00	839.75	835.25	891.00	950.00	942.00	922.50	852.50	857.25	945.50	1010.50	996.25	974.00	1015.00	1031.25	1052.50	1115.25	1129.00	1205.00	1178.50	1142.25	1159.25	1110.00	1022.25	982.50	1024.50	986.00	959.50	981.75	905.75	803.50	803.00	848.00	843.25	755.25	768.25	833.00	839.75	867.75	888.75	886.75	869.75	808.75	813.00	877.75	905.50	934.25	962.50	881.25	897.50	872.00	855.25	845.50	814.50	794.00	753.75	708.25	745.50	787.50	908.50	969.50	900.50	912.50	831.50	756.00	798.00	760.50	712.50	669.25	656.00	661.50	690.75	696.75	665.25	712.75	750.75	744.00	777.75	767.50	753.50	733.00	725.50	750.50	750.75	733.50	800.50	830.50	835.00	764.00	772.25	829.75	831.25	822.75	840.25	937.25	956.50	838.25	898.00	925.50	933.75	879.50	948.75	997.00	971.50	897.75	920.75	967.00	968.75	1074.25	1110.50	965.00	1015.00	969.75	881.25	969.50	1097.50	1114.75	998.25	980.00	960.50	1106.50	1199.75	1123.50	1236.25	1305.25	1235.00	1327.50	1201.00	1206.50	1126.25	1122.00	1080.00	1040.50	984.00	909.25	818.00	804.25	753.50	681.00	641.00	668.25	785.00	836.25	809.75	758.00	763.25	864.75	926.25	975.50	1054.75	988.00	901.25	838.50	862.75	861.50	887.00	879.75	822.00	723.25	639.75	597.75	598.50	611.75	630.25	700.25	739.00	775.25	797.50	824.25	860.00	856.75	841.50	873.50	882.00	747.75	657.50	640.50	633.00	633.75	650.75	657.75	660.25	721.50	757.00	791.75	857.00	847.50	763.75	729.00	772.00	892.00	933.75	928.25	829.50	788.00	843.50	882.25	907.75	888.75	812.25	783.50	802.25	729.25	699.75	715.75	730.00	768.00	824.50	882.75	871.00	849.25	892.25	936.50	869.50	803.75	761.50	727.75	695.25	654.50	645.25	652.25	679.50	731.25	777.50	825.50	881.50	929.00	1000.50	1052.75	1113.75	1167.75	1215.75	1264.25	1263.50	1210.00	1126.00	1066.00	1085.50	1150.75
809.50	824.00	948.25	1092.00	1041.50	1042.50	889.75	950.00	996.75	985.00	875.25	871.50	940.00	1070.75	998.25	880.75	849.25	832.50	819.50	846.50	918.00	985.75	934.75	872.50	816.00	849.50	936.50	951.25	897.75	893.50	925.50	997.50	1037.75	1072.50	1045.00	1099.25	1137.50	1170.25	1137.25	1076.25	1041.00	1056.00	1011.50	958.00	1011.50	1047.50	952.50	857.25	815.50	766.25	761.00	735.25	745.50	761.75	773.25	816.75	816.25	829.00	829.50	801.50	845.25	904.50	901.50	933.75	987.75	942.25	960.50	895.00	880.75	854.25	866.25	862.25	812.75	720.25	692.75	735.50	874.00	963.25	872.75	839.75	833.50	733.00	745.50	728.75	680.75	655.25	649.25	649.75	683.75	694.75	687.75	792.25	881.00	820.75	850.25	826.25	851.00	824.75	743.00	787.50	813.50	780.00	804.75	797.75	784.50	755.00	762.50	770.25	767.75	777.00	766.50	809.50	857.50	807.50	836.25	831.00	831.50	835.25	893.25	902.25	910.50	924.00	983.00	1051.50	1006.00	1075.25	1114.00	981.00	1029.00	957.25	912.75	978.75	1130.00	1114.75	1108.50	1097.50	1030.25	1141.75	1256.50	1247.50	1236.25	1182.50	1121.50	1286.75	1170.75	1231.50	1199.50	1113.25	1045.75	1109.50	1079.00	977.50	851.25	779.75	679.00	648.00	647.00	704.75	835.00	921.75	916.50	784.75	786.50	787.50	820.25	915.50	993.50	979.75	917.75	865.00	878.50	878.50	888.75	881.50	828.00	720.75	628.00	591.75	607.50	632.75	651.25	695.50	728.50	771.00	804.25	849.00	892.50	869.75	830.25	826.25	833.75	745.25	656.00	635.00	630.25	643.50	687.25	693.50	677.25	690.00	754.00	795.50	821.75	850.75	824.00	756.75	737.25	822.25	896.25	927.75	900.25	837.75	839.75	906.00	939.25	942.25	871.25	773.50	778.00	716.00	709.50	778.25	763.25	749.25	783.50	832.75	845.75	885.00	899.25	954.75	854.25	782.75	741.00	700.00	680.25	652.50	643.50	657.00	693.25	743.75	767.25	789.50	825.25	866.75	937.75	990.25	1057.75	1068.50	1124.75	1221.50	1252.00	1207.00	1140.25	1110.25	1090.00	1074.75
843.75	830.50	887.50	1016.25	979.00	928.25	845.75	902.75	929.00	933.75	856.00	862.50	931.50	1099.75	1044.50	917.50	920.50	872.00	798.00	879.75	962.00	947.75	904.75	829.50	810.75	865.50	891.00	898.00	870.25	922.50	920.00	981.00	981.50	1024.00	976.00	1098.75	1137.75	1173.75	1199.50	1134.75	1111.75	1137.00	1043.25	996.25	1037.00	1041.50	923.75	901.75	877.00	793.00	793.75	758.25	724.25	719.00	725.00	747.50	738.00	759.50	786.25	803.75	816.25	834.00	883.50	938.00	930.75	989.25	980.75	950.00	942.25	879.75	854.25	833.50	805.00	762.75	700.75	701.25	815.50	918.75	885.00	810.75	780.25	719.00	717.00	700.00	639.25	630.50	632.25	676.00	708.75	706.00	688.75	827.75	959.75	871.00	863.75	837.00	925.75	878.75	776.25	851.25	912.75	880.75	857.50	836.50	781.25	838.75	841.25	816.75	782.25	807.25	805.50	810.75	825.00	842.75	833.25	807.50	821.75	844.50	889.75	875.25	894.75	965.50	1020.25	1066.50	1074.50	1112.50	1135.50	1069.75	1082.75	973.75	978.25	982.50	1090.00	1120.25	1235.50	1169.50	1112.75	1196.50	1309.75	1297.75	1212.75	1095.25	1046.25	1157.50	1108.00	1244.00	1186.50	1052.00	951.50	1057.00	1096.75	982.25	896.50	835.00	652.00	640.25	658.00	752.00	820.50	940.75	979.25	827.75	856.75	793.00	779.00	854.75	921.75	1000.75	973.50	896.75	852.25	846.00	847.25	836.25	786.25	694.75	621.50	605.00	621.50	644.25	673.75	721.75	747.25	772.75	787.25	836.25	897.50	865.25	816.00	789.75	771.75	713.75	660.75	647.50	641.75	663.75	728.75	728.25	697.25	675.25	714.00	784.50	808.75	828.25	823.00	783.50	741.50	765.25	834.00	869.50	917.75	879.75	849.25	905.75	958.25	948.50	874.25	768.25	750.00	703.75	740.25	837.25	789.75	755.50	796.00	857.75	891.00	930.00	912.75	927.25	820.00	743.00	695.50	664.25	658.50	653.75	651.00	659.50	704.75	772.75	806.00	823.00	827.50	852.50	923.25	975.00	1031.00	1024.00	1082.75	1183.50	1225.50	1201.50	1154.75	1137.50	1111.25	1064.75
932.25	890.25	834.25	953.25	973.75	915.25	848.50	854.25	912.75	905.00	844.75	872.75	951.50	1083.25	1077.00	948.00	963.00	917.75	784.75	880.50	974.75	888.25	845.50	802.25	865.00	959.75	934.25	930.50	937.00	1026.25	1010.00	963.75	920.50	954.00	936.75	1072.00	1088.50	1151.00	1276.50	1231.00	1192.75	1169.75	1066.75	1048.25	1011.75	976.50	906.75	922.75	873.75	822.25	851.75	792.00	728.25	725.50	722.75	706.25	722.25	715.50	743.25	791.00	767.50	761.00	804.75	847.75	882.00	997.00	927.50	930.50	943.50	885.25	851.75	795.00	802.00	834.00	760.50	692.25	740.75	816.00	859.25	861.25	784.75	721.25	701.75	672.75	622.25	588.25	618.00	711.00	754.25	783.00	723.75	810.75	976.50	937.00	870.00	843.00	960.50	873.75	803.50	894.25	973.00	934.50	889.50	870.00	793.00	895.00	935.75	953.50	878.50	863.25	909.75	910.50	862.25	904.00	924.00	904.25	880.50	888.00	984.75	959.00	929.75	918.75	973.75	1018.25	1067.25	1145.00	1114.75	1134.00	1133.00	1017.00	1066.25	1058.25	1105.50	1159.25	1297.25	1204.75	1167.50	1307.50	1407.75	1379.50	1251.25	1090.00	1002.25	990.25	1068.00	1251.25	1220.00	1084.75	958.00	988.00	1104.25	982.50	851.25	802.50	650.75	641.50	661.00	757.25	820.25	915.25	986.50	897.25	926.50	896.25	818.50	839.25	905.25	1024.50	1030.25	903.25	814.75	784.50	773.25	768.25	741.25	666.25	612.25	613.00	633.50	657.00	691.50	744.50	784.75	832.75	836.00	852.50	885.25	863.00	827.25	792.50	748.25	693.50	650.50	648.50	657.75	692.50	753.50	757.50	724.25	683.50	688.25	736.50	770.75	791.50	801.25	796.75	774.50	749.75	768.50	811.50	904.25	898.00	867.75	880.25	941.50	943.25	860.75	800.75	757.25	713.00	777.75	877.75	823.25	777.00	831.25	902.50	939.75	924.25	876.50	878.75	807.50	714.25	659.50	640.75	639.25	649.25	654.50	659.75	697.50	803.25	870.50	875.50	877.00	890.75	934.00	948.25	980.00	1009.50	1075.75	1122.25	1144.25	1141.50	1108.00	1075.00	1051.75	1053.75
988.25	970.50	807.50	891.00	938.75	952.00	864.75	830.25	905.50	887.25	837.75	863.00	919.00	1060.50	1118.25	960.25	929.25	880.25	771.00	847.00	928.50	825.50	787.25	792.00	899.50	1000.25	981.50	971.50	1011.75	1117.00	1074.25	967.50	916.75	914.75	960.25	1057.00	1068.25	1117.00	1229.25	1283.50	1205.50	1146.50	1096.25	1054.75	994.25	983.00	964.75	947.50	889.75	839.25	836.50	795.50	769.25	768.75	771.50	715.25	753.00	721.75	724.75	743.00	760.00	787.50	808.25	817.50	899.50	984.50	873.25	866.25	924.75	953.75	919.50	815.00	861.25	858.25	781.50	711.00	692.25	718.50	798.25	900.75	813.75	718.75	683.50	647.75	594.75	548.00	629.50	762.25	814.50	884.00	821.25	817.25	983.00	1004.25	891.75	874.00	974.75	865.00	820.50	885.25	974.25	955.50	917.00	915.75	821.50	882.75	960.25	1052.50	984.50	886.75	955.25	958.75	926.00	933.50	975.50	1011.75	955.50	918.25	1038.50	1025.75	990.75	919.00	929.00	966.75	995.00	1073.50	1058.75	1152.50	1174.00	1127.50	1177.00	1161.25	1209.00	1274.75	1373.75	1271.25	1296.50	1391.00	1418.00	1424.50	1228.75	1038.75	1018.75	956.75	998.00	1163.50	1244.50	1178.25	1012.50	907.25	1068.50	1034.00	840.75	730.50	653.50	651.00	664.00	717.50	783.50	858.25	905.00	918.75	966.00	991.00	927.00	904.00	924.00	1061.25	1042.25	898.50	813.75	776.75	729.25	713.75	706.25	652.25	612.75	626.75	663.50	706.50	734.00	757.25	789.25	858.50	888.25	904.50	899.25	860.75	819.50	783.25	727.00	684.25	641.75	636.50	664.25	719.00	791.00	791.75	754.25	710.25	699.75	713.25	736.00	765.75	801.50	822.75	819.75	786.50	763.50	775.75	864.50	902.00	920.75	901.75	929.00	939.50	870.25	867.00	801.00	735.50	780.25	874.00	872.75	822.25	865.25	934.25	954.25	893.75	817.25	814.25	796.50	733.75	657.25	635.75	632.75	638.50	647.50	659.00	678.75	788.00	876.50	854.75	881.25	911.75	935.50	932.75	965.50	1015.00	1082.50	1071.75	1074.75	1063.25	1024.75	997.50	994.75	1058.75
1000.50	983.75	814.50	821.75	860.00	890.25	854.50	807.75	871.25	866.25	836.25	874.00	921.75	1066.00	1136.50	992.25	914.00	888.00	772.75	806.75	842.50	775.50	794.50	841.00	864.50	930.25	947.75	950.00	1026.75	1122.25	1092.75	953.00	918.25	895.50	978.25	1115.75	1098.00	1067.50	1158.00	1224.50	1098.50	1067.75	1121.75	1037.50	977.50	994.50	961.00	927.00	885.75	829.25	812.75	828.25	849.50	807.25	811.25	796.75	785.00	740.50	716.00	698.75	747.00	798.25	865.50	883.00	929.75	945.50	856.75	852.75	911.25	973.25	968.25	866.25	923.00	871.75	808.00	760.00	704.00	666.25	744.75	853.50	772.00	689.75	656.25	626.00	600.50	615.25	664.50	760.25	803.50	894.75	878.75	830.50	971.25	1018.50	914.50	891.00	957.25	866.50	830.50	856.00	922.25	942.00	952.25	965.50	853.00	861.00	917.25	1044.50	1031.25	914.00	974.00	952.75	968.50	962.00	969.50	1045.75	1022.75	944.50	1072.25	1064.25	1038.50	996.75	950.00	963.00	983.00	1029.00	1042.75	1168.50	1257.75	1250.00	1226.50	1233.75	1316.25	1305.00	1417.25	1397.00	1447.00	1400.75	1295.75	1317.25	1170.00	978.75	993.75	1010.00	906.50	1012.75	1160.50	1211.25	1063.00	857.75	910.00	969.25	869.75	735.25	667.75	724.25	720.25	713.00	740.50	783.75	808.25	857.75	915.75	1011.00	985.00	982.25	1016.25	1120.25	1013.00	927.75	873.75	842.75	767.50	719.75	692.25	649.75	621.25	642.25	690.75	757.00	802.50	835.25	849.25	880.25	908.50	939.00	913.75	855.75	806.75	777.50	726.50	672.25	646.00	648.50	693.50	771.50	845.75	821.50	770.25	733.25	731.75	742.25	745.50	762.25	797.75	843.50	863.25	846.75	808.25	784.50	803.25	849.00	931.00	948.25	950.50	961.50	908.25	859.75	806.25	764.25	777.00	827.50	881.00	883.50	890.50	935.25	910.25	869.75	821.25	787.25	756.00	718.00	650.25	632.00	631.25	634.50	646.00	668.50	679.00	726.25	788.75	813.75	877.25	908.75	888.75	921.50	964.75	992.75	1040.75	1022.75	1027.75	1017.25	976.25	952.00	972.50	1030.00
1135.00	976.00	864.50	810.50	783.50	784.50	799.00	743.00	775.50	784.50	793.00	862.50	922.50	956.50	987.00	860.00	849.50	900.50	762.50	740.50	748.00	802.50	870.50	926.50	884.00	909.50	1022.00	1024.50	1030.50	975.00	1074.00	1046.00	1004.00	899.00	868.50	999.50	964.00	1041.50	1211.50	1059.00	954.50	969.00	1132.00	1165.50	1000.00	929.00	899.00	864.00	826.00	848.00	942.50	877.50	815.50	832.00	898.50	892.00	792.50	786.00	751.50	695.00	689.50	701.50	795.00	893.50	933.50	918.00	826.00	779.00	794.50	933.00	935.50	847.00	939.00	934.00	856.00	830.00	753.50	619.50	712.50	724.50	679.00	635.00	639.00	642.50	778.00	819.50	742.00	733.00	730.50	813.50	821.00	805.50	888.50	953.00	937.00	973.50	959.50	903.50	891.50	925.00	911.00	940.50	1020.50	972.00	872.50	856.50	875.00	991.00	1060.00	1023.50	1050.00	986.50	990.00	1006.50	990.00	1047.50	1073.50	996.00	1102.50	1036.50	1019.50	993.00	979.50	1020.00	1052.50	1081.50	1116.00	1231.00	1265.50	1211.50	1084.50	1181.50	1291.00	1234.00	1335.50	1307.00	1471.00	1484.00	1280.00	1085.50	1021.00	947.50	900.50	897.00	900.00	826.00	897.00	1076.50	1128.00	984.50	866.50	762.00	743.00	719.50	682.00	827.00	869.00	821.50	805.00	769.50	880.00	908.50	868.00	874.00	887.00	1047.50	1083.00	1033.00	933.00	907.50	1023.00	1009.50	906.50	837.50	748.50	646.50	647.50	692.50	724.00	750.00	778.00	844.50	910.50	993.00	1012.50	975.00	912.00	874.50	836.00	798.50	724.00	664.00	644.00	653.50	712.50	828.50	931.00	914.50	862.50	794.50	792.00	831.50	804.00	799.50	815.00	843.50	881.00	935.00	897.00	852.00	791.50	784.00	898.00	969.00	978.00	935.50	867.50	792.50	799.00	874.50	853.50	820.00	867.00	909.00	873.00	913.50	847.50	805.50	863.50	822.00	748.00	670.00	632.50	626.00	624.50	627.00	642.50	713.00	730.00	721.00	702.50	727.50	792.50	847.00	811.50	892.50	870.00	893.00	952.50	956.50	955.00	933.50	926.50	932.00	991.50	993.50
1105.50	1024.75	920.75	866.00	818.00	791.00	774.50	740.25	751.50	760.75	770.25	847.50	912.50	964.00	949.50	841.50	815.25	859.50	751.00	753.25	793.25	843.25	883.50	947.50	904.25	906.25	1031.50	1042.50	1004.50	937.75	1015.00	1055.75	1027.50	913.75	855.25	945.00	944.50	1057.50	1181.25	1040.50	936.75	947.75	1143.25	1222.25	1010.00	949.00	916.75	881.00	855.25	866.00	914.00	833.50	807.00	870.25	942.50	870.00	789.75	811.00	775.50	723.00	673.75	687.00	764.00	858.75	882.75	881.25	797.25	788.75	834.50	961.75	910.25	820.00	925.50	931.50	827.25	799.25	768.75	656.50	704.50	704.25	663.75	625.75	632.75	662.00	807.50	851.50	778.25	730.25	726.75	793.00	799.75	801.50	866.25	909.50	947.25	1017.25	970.00	892.00	881.75	921.75	931.00	953.00	1036.75	985.75	902.25	887.25	883.00	970.25	1025.50	1038.00	1048.25	1025.25	1039.00	1044.00	1023.25	1057.25	1080.75	1033.75	1093.00	1006.75	970.75	941.50	964.00	986.25	1010.25	1034.75	1082.75	1178.00	1189.00	1210.00	1133.75	1139.50	1222.75	1190.50	1263.00	1264.75	1465.75	1520.75	1302.25	1086.75	1019.25	964.50	910.50	906.50	891.75	828.00	847.25	960.00	1046.75	1023.75	934.75	838.25	766.50	718.50	672.25	791.50	873.25	855.75	851.50	785.75	835.50	881.50	836.75	864.25	903.50	1055.25	1063.00	976.75	872.25	868.75	967.50	983.25	944.25	882.50	776.75	667.50	656.75	713.75	764.50	788.25	804.50	840.75	889.50	969.50	1010.00	1004.75	950.00	904.75	852.25	802.50	723.75	661.00	645.75	658.00	725.50	852.00	956.00	934.25	885.00	819.25	810.25	852.75	835.75	812.00	805.25	826.00	871.75	938.25	922.25	876.75	824.75	791.00	886.00	961.50	940.00	899.75	849.25	817.25	839.75	901.00	865.00	843.00	858.75	876.00	848.75	877.25	852.75	803.00	866.50	833.25	765.50	679.25	637.00	628.75	628.00	632.25	642.50	709.00	761.25	765.75	724.00	718.50	756.00	796.00	800.25	860.25	852.75	875.25	905.00	909.25	924.50	914.50	917.00	924.00	963.50	966.75
941.50	1091.50	1045.00	951.00	842.00	771.50	773.00	821.00	790.50	713.00	730.50	801.50	870.00	960.50	962.00	896.00	791.50	783.00	719.50	823.50	938.50	947.50	928.00	1002.50	973.00	965.50	1002.00	994.50	912.50	840.50	915.50	942.50	956.50	891.00	797.00	959.00	1022.00	1097.50	1097.50	930.00	905.50	957.50	1118.00	1184.50	1078.50	1060.00	1012.50	941.50	911.00	837.00	817.50	887.00	883.50	992.00	951.50	816.50	839.50	877.00	823.00	786.50	715.00	656.50	699.50	747.50	746.00	771.00	743.00	812.00	894.00	1010.50	950.50	781.50	798.00	886.00	874.50	818.50	766.50	730.00	675.00	653.00	625.00	692.50	725.00	702.50	862.00	986.50	898.00	799.00	759.00	765.00	758.00	747.50	749.00	783.50	917.00	983.50	912.00	873.00	872.50	898.00	916.50	942.00	1025.50	1014.50	976.00	993.50	973.50	943.50	936.50	990.00	1008.50	1086.50	1141.00	1118.50	1041.50	1005.50	998.00	1042.50	989.50	937.50	857.00	866.00	950.00	883.50	955.00	948.50	984.00	1020.00	1027.00	1094.50	1093.50	1018.00	1007.50	1107.00	1272.50	1365.50	1533.00	1498.50	1270.50	1121.50	1059.00	1028.00	1018.00	998.50	1047.00	1004.00	870.00	793.50	787.50	876.00	950.50	973.50	893.00	789.50	668.00	702.00	867.50	974.00	994.00	913.50	872.00	849.00	901.50	886.00	925.00	1087.50	1050.00	939.50	885.50	833.00	768.50	814.50	832.00	852.00	763.00	683.00	682.00	788.00	881.00	939.00	926.00	907.50	924.00	927.50	992.50	1088.00	1051.00	974.00	892.50	821.00	737.50	659.50	637.50	678.50	796.50	954.50	1033.00	962.00	907.00	855.50	829.50	861.50	920.00	927.00	892.50	867.50	881.00	972.00	1031.50	988.00	950.00	896.00	857.50	920.50	911.00	884.00	857.00	887.00	961.00	989.00	915.50	910.00	885.00	811.00	781.50	761.50	791.50	790.00	849.00	791.50	715.00	660.00	653.50	650.00	646.50	641.50	643.50	675.00	760.00	836.50	764.00	719.50	714.50	715.50	737.50	754.50	765.50	778.50	786.50	791.00	822.50	856.50	891.00	979.00	922.50	870.50
881.00	993.50	1062.50	966.00	862.50	844.50	847.00	848.00	774.50	718.00	730.00	782.00	823.00	890.00	954.00	951.50	792.00	743.00	766.00	783.50	827.00	863.50	957.00	978.00	1017.00	997.50	944.00	944.50	973.00	872.00	853.00	866.00	965.00	923.00	796.00	936.00	1047.50	1006.50	933.00	872.00	918.00	964.00	1110.00	1160.00	1097.00	1049.50	1012.00	991.50	897.00	877.00	877.50	959.00	936.00	1005.00	961.50	847.00	872.50	910.00	841.50	838.50	755.50	678.00	664.00	673.50	698.00	705.50	714.50	777.00	818.00	934.00	966.50	791.50	738.50	823.50	907.50	830.00	731.50	660.50	654.00	632.50	633.50	784.00	839.50	746.50	802.00	964.50	922.50	914.50	862.00	775.50	733.50	735.50	750.00	772.00	890.00	918.00	911.00	906.00	931.50	899.00	879.00	910.50	950.00	999.00	1021.50	1048.50	1030.00	981.50	999.00	990.50	990.00	1063.50	1114.00	1061.00	1012.00	974.50	927.00	990.00	915.50	940.00	888.50	847.00	910.50	852.00	916.00	902.50	1021.50	974.00	1013.50	984.00	978.00	1003.50	1037.50	1188.00	1295.00	1328.00	1422.50	1393.50	1360.50	1295.00	1218.50	1229.00	1233.00	1195.00	1217.50	1214.50	1084.50	944.50	815.50	755.50	756.00	748.00	748.00	733.50	677.00	682.50	847.50	1080.50	1128.50	979.00	1048.50	942.50	929.00	1016.00	988.00	988.50	994.50	1066.00	1039.00	887.00	783.00	724.50	687.50	696.00	646.50	633.50	674.50	778.50	938.50	1061.50	1078.50	1047.00	1046.50	962.00	980.00	1091.50	1080.00	984.50	899.50	834.00	752.50	677.50	654.50	695.50	830.50	955.50	1046.50	1023.50	986.00	920.00	878.00	844.50	877.00	946.00	968.50	930.00	914.00	979.50	1075.00	1076.50	1059.00	982.00	929.00	954.00	964.50	967.50	952.00	867.00	891.50	976.50	965.00	903.00	882.50	847.50	811.50	788.00	741.50	758.00	795.00	720.50	665.00	657.00	656.50	661.00	675.50	690.00	675.00	665.50	696.50	771.00	758.00	770.50	765.00	748.50	738.00	741.00	762.00	773.50	765.00	792.00	880.50	957.50	911.00	996.00	947.00	831.50
891.00	998.00	1075.50	1037.00	1003.50	905.50	827.50	785.50	746.00	714.00	716.00	747.50	752.50	784.50	850.00	856.00	727.00	715.50	825.50	880.00	815.50	782.00	868.00	880.50	940.50	862.00	845.50	869.50	963.50	924.00	836.00	942.00	1004.50	923.00	794.50	824.50	895.50	876.50	839.50	944.00	1012.50	1008.00	1082.50	1075.00	965.50	981.00	926.00	887.00	894.50	960.50	974.00	974.00	1056.00	939.50	868.50	906.00	911.00	939.00	914.50	843.00	713.50	756.50	680.00	664.00	660.50	631.50	661.50	707.00	751.00	824.50	905.00	900.00	767.50	729.00	791.50	767.00	678.00	646.00	630.00	611.00	644.00	779.00	851.00	841.00	805.00	870.50	970.50	990.00	911.50	865.50	868.00	823.50	810.00	818.50	899.50	985.50	964.00	873.50	904.50	886.50	861.00	864.00	918.50	985.50	1001.50	1023.50	1019.00	1004.00	1033.00	1077.50	1057.50	1056.50	1048.50	958.00	939.00	937.50	869.00	951.00	908.00	918.50	880.50	826.00	899.50	830.50	838.00	936.50	1038.50	927.50	954.50	910.50	1000.00	1048.00	975.00	1063.00	1131.50	1282.00	1308.00	1208.00	1381.00	1428.50	1361.00	1420.00	1379.00	1299.00	1260.50	1175.00	1133.00	1084.50	977.00	831.50	761.50	763.00	783.50	778.00	686.50	684.50	762.50	951.00	1117.50	1127.00	1184.00	1048.00	963.00	1106.50	1170.00	923.00	868.50	980.50	1113.00	1042.00	895.50	836.00	735.00	659.00	615.50	655.00	671.00	677.00	817.00	991.00	1090.00	1142.50	1135.00	1044.00	1078.00	1178.00	1088.50	969.50	899.50	850.00	744.00	682.50	679.00	730.00	875.00	1036.00	1101.00	1059.00	1022.00	979.00	950.50	887.00	879.50	926.00	998.50	1013.50	996.00	988.50	1065.00	1151.50	1099.50	1024.00	989.50	1015.00	968.00	935.00	949.00	912.00	908.50	932.00	933.50	863.50	846.00	866.00	826.50	805.50	758.00	725.50	714.00	675.00	659.50	657.50	663.50	684.50	719.50	759.00	718.00	688.00	689.50	738.00	757.00	794.50	815.00	818.00	781.00	776.50	782.50	862.50	849.50	792.50	865.00	997.00	986.50	983.00	884.50	786.50
954.00	1037.75	996.25	952.50	1009.50	994.50	899.75	920.00	838.00	788.25	736.00	712.50	706.50	717.50	733.75	711.00	706.25	725.75	858.75	935.50	928.25	854.25	928.25	986.50	967.00	907.25	808.75	818.75	869.25	854.50	796.75	913.75	936.00	801.75	759.75	817.75	868.25	942.25	936.00	1011.00	1119.50	1097.00	1017.75	1011.75	1015.75	966.75	974.00	979.75	982.25	1075.25	1027.25	1010.00	1044.75	929.00	905.00	890.25	822.50	802.00	776.75	744.25	789.25	767.75	808.00	820.25	717.75	604.75	642.50	667.00	693.25	731.25	768.75	860.00	805.50	783.75	712.50	688.00	641.25	619.25	614.25	650.00	756.75	737.00	775.75	848.75	909.50	924.25	980.75	916.00	902.50	943.00	1023.25	952.50	859.75	849.50	887.50	951.50	952.75	861.75	845.75	834.25	864.50	862.00	888.00	945.25	940.25	898.00	957.00	945.75	924.00	1043.00	1013.75	988.75	1026.75	950.25	862.75	871.00	821.00	906.00	973.75	932.50	885.00	817.50	822.50	847.75	919.50	919.00	977.75	875.25	850.75	931.50	1019.50	1115.25	1081.00	966.00	1059.25	1128.50	1142.00	1224.75	1313.50	1245.25	1131.00	1160.75	1179.75	1073.50	1073.75	953.00	920.25	848.75	805.50	767.75	757.00	763.25	739.75	727.25	683.75	686.50	796.75	901.75	964.50	1041.75	1022.00	1184.25	1143.00	1222.25	1254.25	1038.75	880.00	830.75	954.00	1046.50	982.50	959.00	828.00	677.75	640.50	825.00	805.50	680.00	730.75	837.25	919.50	1082.00	1171.00	1135.50	1116.50	1163.25	1073.00	1041.75	1001.50	908.50	758.50	697.50	725.25	816.25	905.25	946.75	995.25	1038.25	1051.75	1035.75	998.75	956.00	957.25	946.00	965.50	1006.50	1052.75	1111.25	1146.75	1127.75	1027.75	975.75	934.25	929.25	917.50	898.50	909.75	880.75	862.00	855.25	857.00	829.50	789.75	793.00	778.00	739.75	706.00	685.00	672.00	670.00	674.75	692.00	723.50	751.25	771.25	814.00	779.75	705.25	690.25	738.75	827.50	854.50	879.00	880.75	869.50	833.75	813.25	830.50	859.25	831.50	790.75	832.50	927.75	1010.25	897.00	794.50
1005.00	1032.75	932.50	888.00	969.25	1041.00	996.50	1016.75	872.50	801.50	744.75	715.75	704.00	695.50	686.75	683.50	705.50	715.50	801.50	869.25	909.75	900.25	935.50	1005.00	949.75	909.00	820.00	788.50	807.50	806.50	776.00	850.50	852.75	769.75	747.50	873.50	949.50	1004.75	1013.00	1027.00	1080.00	1067.75	933.00	943.25	1052.25	976.25	923.00	928.00	986.75	1048.25	1012.00	970.50	989.25	951.00	956.75	860.50	835.50	815.00	770.00	819.75	833.00	792.25	879.75	872.00	779.00	666.25	640.25	639.25	658.25	678.00	707.50	761.75	767.75	817.25	751.00	669.00	622.25	609.50	627.25	702.00	824.75	827.50	837.75	863.50	897.75	885.75	951.75	843.50	847.75	970.25	1042.75	918.25	818.00	825.75	865.00	876.25	887.50	834.75	811.00	818.00	873.75	853.50	876.00	916.00	896.50	886.25	949.25	945.50	893.25	937.75	933.25	939.50	971.50	970.25	863.75	813.50	808.50	897.25	1017.00	1007.50	957.00	828.75	815.00	887.75	897.00	915.25	951.75	839.50	873.25	959.00	1062.25	1130.50	1084.25	978.25	966.25	994.00	1138.50	1200.00	1228.00	1256.00	1103.25	1017.75	1028.75	964.25	895.75	834.25	823.50	801.50	801.25	796.75	790.25	765.75	740.75	708.50	689.75	708.00	795.50	852.00	852.75	901.00	939.25	1135.00	1087.75	1133.25	1232.50	1099.75	940.50	802.25	821.75	960.00	905.75	844.75	743.50	639.25	639.00	801.50	789.75	693.50	735.50	829.50	926.75	1060.50	1149.50	1201.50	1176.75	1219.75	1155.25	1123.50	1082.00	977.00	797.25	698.25	735.75	807.75	861.75	861.75	903.50	968.25	1019.00	1068.75	1067.75	1035.00	1017.25	983.75	981.75	1022.25	1063.00	1132.75	1195.25	1141.00	1034.75	991.50	957.75	923.50	888.75	877.00	884.50	874.00	850.25	836.25	830.00	813.75	776.75	754.25	745.75	722.50	695.00	686.75	682.25	682.25	696.75	734.25	779.00	808.50	828.75	835.25	807.75	735.75	701.75	716.00	800.25	871.25	898.75	931.50	909.50	856.00	870.50	851.50	844.00	788.75	763.50	776.75	832.00	957.25	909.50	806.00
1021.00	1011.50	972.75	877.25	919.75	999.50	1004.00	1058.50	901.25	804.50	752.75	689.25	692.00	676.50	661.25	712.50	727.25	725.50	806.25	871.50	914.50	954.50	970.50	953.00	886.25	851.00	812.00	793.25	758.75	742.00	743.50	800.50	778.50	750.50	751.75	836.75	903.00	961.50	1033.50	966.75	1006.50	973.50	905.25	900.75	1048.00	972.00	893.75	841.25	925.00	947.25	951.75	877.00	902.50	929.75	962.25	904.50	892.00	852.25	837.75	917.75	849.75	816.00	924.25	916.00	848.75	740.25	665.00	616.25	618.25	629.25	666.50	676.50	709.50	747.75	727.00	652.00	612.00	603.25	672.50	757.50	839.75	859.75	852.50	898.25	875.50	817.75	894.25	798.25	833.75	970.25	990.50	866.75	777.25	812.50	861.75	855.25	827.25	788.25	795.50	832.75	879.25	828.75	856.25	861.75	833.25	890.75	938.50	926.25	879.50	875.00	865.00	908.25	895.00	933.25	885.00	804.25	815.50	914.00	976.50	992.00	930.50	832.25	815.75	881.25	903.00	962.75	924.75	853.25	967.25	991.00	996.75	1002.75	996.00	1030.25	917.25	926.25	1044.50	1047.25	1122.00	1239.75	1135.00	988.50	925.25	860.50	808.75	850.00	880.25	873.00	896.25	902.50	875.50	821.50	762.75	701.25	747.75	811.75	775.75	805.50	846.25	869.00	919.50	1013.50	973.25	1021.00	1091.25	1111.25	1022.25	832.25	764.00	899.50	827.50	752.50	660.75	611.25	640.75	725.00	729.00	695.25	745.00	832.25	925.75	1029.25	1109.50	1154.75	1143.00	1216.25	1148.25	1055.25	1000.00	933.50	770.25	694.75	757.75	793.00	815.00	811.75	840.50	892.00	939.75	998.50	1056.50	1076.75	1063.75	1057.50	1067.25	1102.75	1134.75	1167.50	1209.00	1152.25	1054.25	1023.00	1046.00	1011.50	937.50	878.50	863.75	860.75	844.50	826.50	816.25	798.25	765.25	736.50	724.75	716.75	707.75	706.50	723.25	729.00	737.25	774.50	835.75	883.50	898.25	852.00	836.25	784.75	722.75	702.50	754.25	839.00	904.00	950.50	937.50	893.25	932.25	896.00	856.00	790.50	752.25	747.00	770.50	859.75	912.00	869.50
951.75	937.50	989.75	905.50	831.00	855.50	932.25	1052.75	976.00	879.25	814.25	705.50	692.50	660.75	700.75	801.25	777.75	761.25	791.00	879.25	939.00	971.75	1061.75	966.25	867.25	831.00	848.75	868.75	767.25	701.25	707.00	753.75	741.50	749.50	759.25	833.00	887.25	943.50	986.00	931.50	1003.25	904.25	872.75	927.25	990.75	931.75	865.75	796.50	851.50	878.50	912.50	822.25	836.75	900.50	968.75	914.00	898.00	848.50	882.25	942.25	873.50	860.25	927.50	933.00	870.00	729.25	672.25	661.75	642.25	604.25	628.50	631.00	655.75	670.00	675.75	626.75	602.25	589.50	704.75	755.75	795.50	780.75	796.00	860.75	868.50	783.50	805.00	794.25	867.75	965.50	923.25	833.50	762.00	803.00	853.25	884.25	821.75	765.25	791.25	866.75	918.75	846.00	800.25	795.50	788.25	867.25	910.00	870.50	852.50	833.75	814.75	884.75	844.25	875.00	888.00	809.00	808.00	902.50	897.75	935.50	852.75	777.00	777.50	837.50	882.00	901.00	854.50	893.00	1036.00	995.00	912.75	927.00	999.25	1030.75	918.75	893.75	924.25	922.75	988.25	1062.25	1030.75	927.75	851.75	812.25	870.25	969.50	978.00	992.25	973.00	932.50	880.25	813.00	739.75	692.75	827.25	959.00	850.25	797.75	898.50	968.50	956.50	896.25	863.75	880.50	914.00	989.00	979.25	831.00	722.75	784.00	729.50	686.25	630.00	619.00	695.25	742.75	726.00	701.50	735.75	802.75	897.00	995.25	1047.00	1011.25	1002.25	1094.50	1089.25	1000.75	906.75	846.25	705.00	683.00	827.75	868.00	852.75	861.25	851.25	848.00	855.25	899.25	964.25	1015.25	1031.00	1070.25	1130.50	1178.00	1201.50	1211.75	1196.75	1139.75	1051.75	1037.25	1070.00	1047.25	997.50	932.50	888.00	849.50	835.00	814.25	800.50	781.00	753.50	730.00	725.75	726.50	721.75	720.50	775.00	806.00	801.50	827.25	905.50	971.25	953.75	874.50	897.75	837.75	753.00	709.25	726.75	817.00	918.00	935.00	994.25	959.25	982.00	934.00	868.00	822.00	767.50	743.00	738.25	759.00	826.75	864.75
831.25	860.75	955.25	953.50	822.50	768.00	884.00	1013.00	1044.50	978.00	879.25	768.00	713.25	668.75	768.50	873.75	821.00	807.25	736.00	812.25	870.50	911.00	1058.00	1029.50	947.75	904.25	913.00	880.00	789.25	726.75	692.00	703.00	709.75	749.25	758.25	828.00	894.25	933.75	907.75	944.00	994.00	903.50	846.25	937.25	908.75	925.50	844.25	785.00	796.75	852.25	844.50	796.25	833.75	938.50	969.00	872.25	838.25	816.50	857.25	896.25	882.00	901.25	889.50	888.75	831.25	729.75	695.00	739.50	726.00	631.75	609.25	591.25	604.00	633.00	643.50	607.50	591.00	575.25	665.50	685.25	735.25	713.75	746.25	769.75	805.50	748.00	788.75	857.75	916.50	975.25	886.50	801.50	742.75	768.00	832.75	914.25	824.25	750.50	780.50	873.75	923.75	888.00	790.25	783.25	788.25	851.50	881.25	806.00	823.25	798.00	778.25	862.75	816.25	860.50	923.25	837.00	777.00	848.75	858.75	882.50	789.75	738.50	750.75	788.00	815.50	810.00	807.25	871.75	948.00	903.75	889.50	983.75	1063.50	1025.75	969.00	936.75	992.75	971.25	929.25	902.00	878.75	844.50	831.50	893.25	1002.00	1070.25	1031.50	1081.00	1005.00	892.50	827.50	762.50	712.00	703.00	851.75	982.50	931.00	810.00	881.75	1016.50	1019.50	855.00	810.75	790.75	797.75	817.50	814.25	773.75	715.00	690.75	662.25	646.50	625.00	638.00	781.25	848.75	768.75	709.50	727.00	768.25	823.00	885.25	926.25	920.75	919.75	978.50	1030.50	1021.50	965.25	890.00	700.00	667.50	863.50	964.75	931.75	966.75	936.50	900.25	864.25	868.75	894.75	944.50	969.75	1036.25	1131.00	1200.00	1229.75	1172.00	1118.75	1088.75	1058.25	1067.25	1050.25	1002.75	966.25	924.75	882.50	833.75	819.50	799.75	783.50	765.75	748.25	739.25	753.00	770.00	756.50	741.75	816.00	870.00	854.50	849.50	928.50	1040.00	1023.00	934.75	956.75	871.75	796.25	733.50	722.75	804.00	888.00	907.75	1009.25	979.00	1032.25	968.50	875.00	833.50	787.25	763.25	753.00	731.75	742.50	768.25
807.50	923.50	979.00	943.00	856.00	817.00	760.00	785.00	860.50	875.00	791.00	728.50	686.50	675.50	793.00	863.50	851.00	876.50	803.00	831.50	905.50	918.50	977.50	972.00	988.50	1083.00	1029.50	914.00	864.50	782.00	766.00	670.00	675.00	705.50	732.00	778.00	801.00	818.00	810.50	875.00	848.00	850.00	800.00	869.00	901.00	923.50	908.50	812.00	780.50	773.00	767.00	857.00	916.50	917.00	874.50	891.00	811.50	727.50	743.50	838.00	802.00	857.50	838.00	858.50	874.00	871.50	808.50	806.50	821.50	781.50	713.50	588.50	579.50	602.00	602.00	586.50	590.50	628.00	631.00	625.00	633.50	646.50	667.00	676.00	717.50	757.50	820.50	932.00	888.50	852.00	847.50	768.50	710.00	785.00	866.00	879.50	867.00	770.50	745.00	796.00	810.50	822.50	781.50	775.50	778.00	862.50	861.00	820.00	909.50	855.00	776.00	799.50	776.00	854.00	951.00	898.50	762.00	756.50	756.50	750.00	738.50	787.50	818.50	846.00	893.00	903.50	883.50	843.00	847.50	875.00	956.50	1114.50	1119.00	1132.00	1080.50	1052.50	1141.00	1097.00	1001.00	914.00	838.00	900.00	1016.50	1026.50	1101.00	1008.50	952.50	1001.00	1046.00	962.50	847.50	763.00	698.50	738.50	873.50	907.00	1001.00	961.00	866.50	974.50	1008.00	885.50	960.00	875.50	867.50	892.00	917.50	961.50	939.50	782.50	729.00	725.00	640.00	642.50	747.50	919.00	845.00	717.50	727.50	763.50	778.50	780.50	789.00	824.50	853.50	907.50	903.50	902.50	903.50	867.00	716.50	660.00	770.00	937.00	1076.00	1128.00	1111.50	990.00	976.50	910.50	883.00	942.00	1002.00	1023.50	1064.50	1148.50	1230.50	1152.50	1041.00	978.50	979.50	1040.50	1088.50	1066.00	975.00	884.50	828.00	778.00	767.00	753.00	756.50	779.50	820.00	822.50	815.50	838.50	820.00	791.50	885.00	944.00	964.50	929.50	931.50	1067.00	1136.00	1084.50	1019.00	940.00	864.00	775.00	723.00	747.50	835.50	934.50	927.50	932.00	1071.00	1012.50	951.50	917.00	879.50	854.50	834.00	768.00	722.00	707.00
849.25	966.75	1035.25	1008.00	922.75	849.75	793.75	779.50	791.50	794.00	762.25	714.50	675.25	678.75	761.00	802.75	813.50	884.25	860.25	866.25	937.75	955.50	947.75	901.75	908.75	1001.25	1024.25	961.75	912.25	828.00	791.75	669.50	669.75	698.00	736.00	787.00	767.00	778.50	776.25	834.75	808.75	807.00	768.75	840.75	865.00	878.75	909.50	826.00	763.25	765.00	820.75	870.75	896.50	879.00	854.75	871.25	806.50	734.25	729.75	829.50	778.50	825.75	806.50	827.00	845.25	862.50	831.25	826.25	819.75	779.50	739.50	646.75	604.25	597.00	597.50	585.25	609.50	680.00	687.75	691.00	650.75	676.00	704.00	726.00	739.25	780.25	836.50	885.25	850.75	809.25	826.00	770.75	711.50	780.75	844.00	838.75	851.75	765.50	720.00	755.50	772.25	801.50	762.50	747.25	762.25	836.00	833.50	807.75	900.75	869.50	780.75	764.50	767.75	870.50	922.50	872.50	759.00	734.00	738.75	733.25	749.00	830.50	869.75	898.75	902.50	898.50	892.25	872.25	868.25	902.75	943.50	1103.50	1135.25	1164.75	1116.25	1110.00	1123.25	1076.50	1020.00	909.50	862.00	956.75	1030.50	1071.75	1107.75	986.50	921.00	937.50	971.25	942.00	836.00	744.50	702.75	739.50	895.50	907.75	996.25	985.25	884.75	985.50	998.25	931.75	974.25	893.50	918.50	981.75	1007.50	998.00	914.50	764.00	787.00	759.00	645.75	637.50	703.50	829.75	828.50	727.75	749.75	824.25	846.00	833.50	815.75	819.25	842.00	893.50	884.00	872.75	858.00	823.25	715.50	666.25	746.00	890.25	1018.00	1070.50	1111.75	1038.25	995.00	907.75	908.25	915.00	1013.75	1066.00	1093.50	1140.75	1198.00	1142.25	1054.75	997.25	963.75	988.50	1031.00	1016.25	951.75	883.50	840.25	780.00	756.75	742.25	753.25	782.75	829.50	852.50	854.50	858.00	824.25	794.75	877.25	933.75	986.50	983.25	957.75	1040.75	1114.25	1112.25	1035.00	968.50	903.50	817.75	766.50	767.75	839.25	918.00	906.00	950.75	1091.25	1047.75	950.25	907.75	876.75	854.00	836.75	776.50	723.50	714.25
859.50	942.50	1012.50	1061.50	1053.00	920.00	912.00	864.00	755.50	704.50	653.00	656.00	652.00	793.00	858.50	854.00	814.50	824.50	906.50	935.50	898.50	866.50	956.50	843.00	744.00	732.50	899.50	953.00	889.00	857.00	838.00	663.00	663.50	722.50	709.50	713.50	701.00	710.00	719.50	812.00	784.00	786.00	679.00	718.50	792.00	795.50	825.00	816.00	737.00	744.50	889.00	812.50	837.50	816.00	816.00	778.00	765.00	764.00	692.00	746.50	711.50	737.00	721.50	767.50	758.50	776.00	808.00	791.50	736.50	694.50	699.00	734.50	664.50	620.00	600.50	578.00	625.50	700.00	764.00	781.00	721.50	721.00	739.00	793.50	801.50	803.50	845.50	747.00	766.00	761.00	716.50	706.50	663.50	726.50	761.00	747.50	792.00	738.50	709.50	733.50	759.50	795.50	792.50	716.50	704.00	745.50	755.50	796.00	846.00	844.00	783.00	714.50	756.00	869.00	848.50	789.00	722.50	696.00	743.00	776.50	821.50	863.00	929.50	945.50	897.50	869.50	902.00	928.00	964.00	1004.50	1036.50	1157.00	1204.50	1242.50	1273.00	1255.50	1072.00	1031.00	995.00	900.00	887.50	1026.50	1114.50	1070.50	996.50	1071.00	1021.00	893.50	820.00	804.50	767.50	721.00	708.00	738.00	897.50	1031.50	1080.00	1014.50	970.50	1033.50	1012.00	963.00	1008.50	1044.50	1066.00	1139.00	1069.50	913.50	762.50	716.00	914.00	850.00	683.50	630.50	647.50	671.00	688.50	705.50	795.00	963.00	1026.50	1054.50	1003.00	925.50	906.50	899.00	876.00	845.00	828.00	791.50	713.00	672.00	693.50	769.00	873.50	973.50	1132.50	1160.50	1059.00	954.00	1007.00	886.00	942.00	1049.00	1182.50	1187.50	1127.00	1067.50	1022.50	990.00	967.50	956.00	926.50	906.50	910.00	908.00	842.50	780.50	770.00	772.50	795.00	846.50	891.50	916.50	929.50	906.00	861.50	833.00	845.50	897.50	985.00	1077.50	1098.00	1043.50	1086.50	1206.50	1185.00	1153.50	1068.00	902.00	811.50	816.50	843.50	880.50	945.50	1023.50	1124.00	1116.50	982.00	902.50	874.50	827.00	787.00	748.50	741.50	752.50
806.75	928.50	887.50	860.50	909.50	904.75	976.25	957.00	875.25	789.50	723.00	651.50	640.25	807.00	914.25	1016.75	922.25	844.75	821.25	898.50	930.00	881.25	851.75	901.25	779.50	706.25	740.00	821.25	866.50	777.00	741.00	651.50	689.00	729.50	685.00	783.00	786.50	866.00	859.75	911.00	895.00	911.50	768.50	699.00	796.75	842.25	785.75	741.50	686.25	713.00	768.00	736.75	766.50	768.75	795.25	702.50	678.75	693.50	684.00	717.50	689.25	726.00	681.00	728.50	695.00	677.75	753.50	804.75	761.00	689.00	652.25	643.25	629.75	605.25	583.25	577.00	620.25	673.25	755.00	804.25	812.50	786.75	793.00	796.50	790.75	762.00	815.00	768.25	728.25	737.00	752.25	712.25	666.75	703.50	717.50	728.75	809.75	725.75	723.75	799.75	834.50	820.00	776.75	743.75	701.50	737.50	766.00	739.25	739.00	748.50	741.50	695.75	743.75	820.25	802.50	741.50	690.50	720.00	842.75	884.75	872.00	879.75	863.50	837.25	818.75	831.50	886.50	968.00	1022.75	1043.75	1127.00	1121.25	1027.50	1123.00	1266.75	1147.25	1135.25	1089.25	991.00	897.00	916.25	1022.00	1084.50	988.00	913.00	906.00	934.75	962.25	953.75	812.75	734.25	730.50	739.50	783.50	895.25	973.50	951.00	907.75	893.00	972.00	1042.00	1019.00	1035.25	1110.75	1059.50	976.50	956.00	818.25	768.25	875.25	839.00	782.25	684.00	656.25	693.75	775.75	714.75	692.50	735.00	797.50	836.25	925.25	1015.25	1084.25	1108.00	1010.75	918.50	950.50	947.75	917.00	774.50	682.75	676.50	744.25	906.00	967.25	1006.25	1130.25	1102.00	1040.50	1052.75	935.25	1015.00	1037.50	1113.50	1211.50	1139.50	1047.00	1033.25	1011.50	1058.25	1050.75	1007.25	954.25	911.75	884.00	842.25	790.75	792.00	823.00	881.50	970.75	1036.00	1022.75	967.75	916.00	864.50	848.75	866.25	903.25	980.25	1062.50	1138.50	1204.00	1202.50	1209.75	1193.25	1149.00	1057.00	954.75	880.25	835.50	830.50	889.50	985.25	1026.50	1063.00	1102.00	1059.75	991.25	926.50	856.00	803.00	798.00	852.75	814.00
788.50	899.50	873.50	814.50	789.50	823.00	906.00	960.50	904.50	772.50	718.00	650.50	643.00	797.50	884.50	1055.00	937.50	861.00	804.00	837.50	886.00	880.00	830.00	893.00	777.50	714.50	696.00	763.50	862.50	796.00	741.50	653.50	702.00	713.50	702.50	851.00	804.00	872.00	901.00	962.50	924.00	932.50	797.50	728.50	776.00	835.50	811.50	781.00	690.50	706.00	742.50	706.50	730.50	766.00	797.50	707.00	653.50	646.00	678.50	736.00	691.50	751.00	670.00	706.00	666.50	658.00	740.50	813.50	772.00	701.00	674.00	631.50	619.00	598.50	575.50	594.00	639.00	688.50	777.50	826.00	851.50	818.00	827.50	806.00	773.00	740.00	817.00	811.50	735.50	713.00	763.50	754.00	712.50	704.00	704.50	728.00	815.50	724.00	723.00	789.00	820.50	816.50	740.00	731.50	700.50	752.00	767.50	705.00	698.00	701.00	707.00	684.50	722.50	769.00	751.00	709.00	682.50	752.00	869.00	916.00	880.50	866.50	835.50	810.00	795.50	831.50	919.50	1033.50	1074.50	1028.50	1094.50	1078.00	966.00	1088.50	1257.50	1113.50	1124.50	1123.00	1006.50	909.00	923.00	1020.50	1089.50	1012.00	911.50	852.50	870.50	938.50	974.50	817.50	733.00	744.50	744.50	757.50	891.00	961.50	905.50	862.50	860.50	978.00	1046.50	1003.50	981.50	1043.50	1007.00	910.50	897.50	794.50	798.00	929.00	802.50	754.50	671.00	654.00	701.00	799.00	738.00	697.50	725.00	760.50	791.00	851.00	942.50	1083.50	1147.50	1035.00	947.50	1002.00	1000.50	977.00	819.50	686.00	676.00	724.50	868.00	916.00	950.50	1094.50	1118.00	1074.50	1050.00	934.00	1029.50	1073.00	1107.50	1204.50	1161.00	1082.00	1059.00	1021.50	1104.50	1099.50	1020.50	933.00	877.00	830.50	804.50	785.50	784.50	825.00	894.00	978.00	1047.50	1030.50	974.50	926.00	877.00	855.50	866.50	904.00	981.50	1052.00	1102.50	1225.50	1247.50	1178.00	1136.00	1094.50	1024.00	928.50	873.50	846.50	855.00	914.00	982.50	997.50	1035.00	1069.00	1068.50	1017.00	933.00	859.00	814.00	824.00	878.00	839.00
883.00	929.00	932.25	937.25	874.25	819.75	774.00	802.50	772.75	721.75	662.00	631.75	680.75	775.50	815.75	949.50	988.50	942.00	820.75	775.50	754.75	763.50	782.50	825.00	867.50	860.00	742.00	741.00	845.00	857.25	777.25	656.00	703.25	766.75	740.25	850.50	910.50	888.50	934.50	845.50	823.50	811.00	868.75	869.50	661.50	719.25	732.25	725.00	679.50	703.00	741.00	765.75	767.75	865.25	864.00	793.00	763.75	683.00	620.75	642.25	670.00	746.50	656.25	630.50	632.75	753.00	804.00	796.50	777.75	698.00	686.00	636.25	587.75	574.75	575.00	665.75	761.00	760.25	780.75	768.25	750.00	730.75	717.75	714.75	686.75	679.50	731.75	723.25	686.50	684.75	692.25	705.50	714.75	689.25	652.50	669.00	716.75	673.75	674.00	697.50	705.00	716.75	683.50	664.25	667.50	704.50	699.00	659.00	637.25	670.75	673.00	675.50	678.50	682.25	683.00	680.75	701.50	757.50	801.00	781.75	771.75	786.00	799.25	815.50	862.50	926.75	956.00	954.50	1010.00	926.25	952.00	941.25	1032.00	1174.00	1160.00	1070.50	992.00	992.50	951.50	962.75	1054.50	1068.50	1070.75	1016.25	1004.25	963.75	904.50	879.00	848.75	765.75	766.25	869.25	880.25	812.25	863.50	849.75	812.75	799.25	865.75	975.00	1018.50	1036.00	1006.50	932.00	905.25	892.50	909.75	883.75	871.50	903.00	788.25	726.75	665.25	652.25	701.00	773.75	749.25	720.00	789.75	868.25	936.50	993.25	977.75	1017.50	1111.75	1047.00	1100.75	1156.00	1122.25	1070.50	942.00	761.00	694.50	695.50	766.50	879.75	967.25	1010.00	1063.25	1141.25	1122.25	1006.75	982.25	1075.00	1128.75	1090.50	1046.75	1028.25	1025.50	1063.75	985.25	902.25	852.00	831.00	829.75	820.00	804.25	758.75	748.75	787.25	842.75	916.00	1015.25	1007.75	941.50	906.25	878.50	881.75	928.50	921.00	958.50	1023.50	1079.00	1149.00	1136.00	1080.50	1032.25	981.25	963.75	944.00	909.75	862.75	835.25	849.25	902.25	930.25	965.75	981.75	1005.25	1036.75	987.25	924.25	919.00	945.25	964.25	940.75
935.00	953.50	924.00	990.00	952.00	880.50	826.50	837.50	754.00	690.00	648.50	631.50	707.50	795.50	825.50	907.50	974.00	948.00	845.50	776.00	759.00	749.00	713.00	735.00	873.00	898.00	763.00	717.00	800.00	824.50	757.50	642.00	679.00	780.00	768.00	795.50	896.50	914.00	946.50	782.50	762.00	764.50	877.50	897.00	665.00	682.50	708.00	683.00	671.50	744.50	771.50	795.00	797.00	904.00	893.50	867.50	814.50	705.50	618.50	600.00	658.50	735.50	649.50	609.50	643.00	769.00	810.50	823.00	824.00	730.00	726.50	650.50	580.00	568.00	578.00	682.50	771.00	760.00	750.00	731.00	705.00	680.50	670.50	669.00	656.00	663.00	691.00	679.50	663.50	683.00	664.50	665.50	681.50	663.50	647.50	646.00	676.00	649.00	647.50	672.50	666.00	690.00	668.50	647.00	654.00	686.00	674.00	653.50	630.50	670.00	672.00	679.00	680.00	679.00	678.50	681.00	695.50	730.00	748.00	732.50	746.50	762.50	792.50	825.50	880.50	928.00	928.00	899.00	932.50	880.00	904.50	952.00	1067.50	1194.50	1098.50	1032.00	978.50	996.00	961.00	970.50	1074.50	1081.50	1028.00	987.50	1003.00	989.50	946.00	923.00	839.50	748.00	785.50	902.00	937.00	856.00	796.50	804.50	788.50	788.50	860.00	955.00	965.00	1046.00	1075.50	965.50	931.00	959.00	995.50	934.50	853.50	839.50	785.50	722.50	666.00	657.50	704.50	771.00	744.00	713.00	783.00	864.50	946.50	1073.00	1060.00	1057.00	1133.00	1062.50	1138.00	1150.00	1080.50	1025.00	932.00	793.00	702.00	701.00	771.00	922.00	1012.50	982.00	1025.50	1149.00	1162.50	1043.00	1003.00	1095.50	1118.00	1045.50	991.00	959.50	962.00	1042.50	954.00	851.50	814.50	824.00	841.00	839.50	831.50	774.50	751.50	771.00	819.50	883.50	977.50	997.00	936.50	903.00	872.50	872.50	931.50	920.00	958.50	1047.50	1126.00	1195.00	1145.00	1061.50	1006.50	958.50	968.50	959.50	915.00	877.00	848.00	833.00	863.50	894.50	936.50	968.50	1015.50	1041.50	981.50	909.00	936.50	987.50	1005.00	985.50
1080.00	1008.50	842.50	837.00	991.50	987.50	965.00	995.50	868.00	756.50	658.50	634.00	694.50	748.50	816.50	856.00	910.00	957.50	898.00	782.00	723.50	745.50	802.50	705.50	741.00	824.00	753.50	712.50	810.00	755.00	705.50	610.50	633.00	836.50	903.50	788.50	822.00	906.50	978.00	864.00	761.50	714.50	727.00	782.50	735.00	654.00	651.00	646.00	744.00	852.00	895.50	862.50	855.00	855.50	836.00	791.50	777.00	731.50	665.00	610.00	612.00	681.00	606.00	579.00	643.50	747.00	811.00	848.50	849.50	791.50	790.50	667.50	581.00	570.00	622.00	688.00	675.50	662.00	670.50	650.00	642.50	673.50	637.00	628.00	625.50	632.00	649.50	634.00	628.50	652.00	624.50	623.50	651.50	639.50	628.50	628.50	640.50	646.50	642.50	661.00	692.50	691.50	677.50	681.00	700.50	695.50	732.50	689.50	690.50	691.00	690.50	687.00	684.00	682.50	680.00	683.00	690.00	708.50	715.00	738.00	815.50	802.00	836.00	931.00	935.50	867.00	865.00	814.00	833.00	898.50	953.00	977.00	1036.50	1174.50	1162.00	1149.50	1126.50	1102.00	1000.50	985.00	1068.50	1100.00	1049.00	926.00	896.50	911.00	917.50	890.50	827.00	764.50	797.00	876.50	881.00	856.00	760.50	772.00	785.50	798.00	835.00	909.50	895.50	981.50	1058.50	995.50	922.00	914.00	980.50	905.50	801.00	755.00	723.50	702.00	668.50	664.50	707.00	795.00	757.50	717.50	810.50	911.50	970.00	1062.00	1084.50	1108.50	1170.00	1140.50	1132.00	1023.50	934.50	899.00	849.00	798.00	704.00	699.50	785.50	990.00	1008.00	985.50	1089.50	1125.50	1089.50	1137.00	1088.00	1137.00	1208.00	1166.00	1110.00	1021.50	906.50	908.50	856.50	843.50	876.50	897.50	891.00	872.50	890.50	802.00	760.50	748.00	792.50	887.50	978.50	1014.00	1003.00	993.50	914.50	880.50	968.50	951.50	943.50	995.00	1103.50	1230.50	1203.50	1127.00	1043.50	981.00	974.50	941.50	899.50	878.50	878.00	885.00	909.00	927.00	946.00	945.50	985.50	1043.00	1062.00	1007.50	1020.00	1007.50	923.00	942.50
1064.50	1032.50	871.00	802.00	796.00	834.50	852.00	874.00	834.00	760.50	648.00	665.50	704.50	721.50	799.00	873.50	975.50	974.00	863.00	833.00	769.50	818.00	868.00	774.50	686.50	686.00	659.00	646.00	730.50	735.50	685.50	602.00	626.00	736.50	854.00	875.00	898.50	921.50	882.50	867.50	883.00	795.50	664.50	645.00	690.00	646.00	641.50	709.00	787.00	881.00	885.00	861.50	815.50	754.50	794.50	700.00	671.00	670.50	642.00	599.00	560.50	610.00	603.00	652.50	725.50	746.50	728.00	724.50	753.50	775.00	761.00	688.00	590.00	581.50	626.00	644.50	604.50	604.50	632.50	615.00	601.50	605.50	603.00	602.50	605.50	607.50	616.50	578.50	603.00	636.50	625.50	626.50	621.00	618.50	644.50	676.50	677.00	680.50	669.50	678.50	711.00	746.50	707.00	755.50	755.50	741.00	711.00	777.00	772.50	788.00	785.00	725.00	702.00	697.50	693.50	693.00	696.00	703.00	706.50	723.00	782.00	780.00	887.50	941.50	883.00	813.50	790.50	798.50	871.50	985.50	1109.00	1109.00	1149.50	1149.50	1075.00	1136.00	1084.00	1078.00	1020.00	1051.00	1095.00	1057.00	1064.00	997.00	972.50	886.00	838.00	801.50	760.50	825.00	864.00	869.00	893.00	853.00	796.00	791.50	816.00	867.00	861.00	850.00	870.50	904.00	954.50	1030.00	983.00	845.50	926.50	913.50	912.00	889.50	725.50	671.50	649.50	659.00	699.50	770.00	750.50	715.00	777.00	863.00	942.50	983.00	962.00	1007.00	1102.00	1203.50	1187.00	1094.50	1040.00	1012.50	986.00	843.00	707.50	704.50	834.50	1010.00	962.00	1057.00	1063.50	1009.50	1062.00	1231.00	1197.50	1177.50	1238.00	1173.00	1127.00	1085.50	942.00	871.00	867.00	933.50	935.50	966.50	969.00	898.50	895.50	831.50	750.50	730.50	749.50	875.00	978.50	1028.00	1007.00	989.50	944.50	922.00	980.50	983.50	972.50	994.50	1061.50	1196.00	1194.00	1119.00	1045.00	972.00	938.50	898.00	870.00	864.00	879.00	919.50	966.00	1001.00	1067.50	1056.00	988.00	991.50	1051.50	1097.00	1115.50	1082.00	969.50	885.00
1005.25	1017.25	850.50	823.75	855.50	839.25	760.50	724.75	701.00	668.00	632.50	671.00	748.00	885.25	870.00	921.75	925.50	952.00	1005.00	901.25	812.50	806.75	772.25	726.00	796.00	780.75	804.50	795.25	691.25	629.00	622.25	669.00	743.25	779.00	768.00	825.75	910.00	889.25	805.00	736.75	741.75	799.25	830.75	795.75	642.00	628.25	662.75	700.25	765.75	862.75	750.25	744.00	742.50	673.50	726.50	792.00	734.25	705.50	675.50	660.00	588.50	561.50	617.25	645.50	629.50	644.50	604.75	596.00	623.50	626.25	609.25	591.50	573.75	575.00	584.75	589.25	574.25	582.00	591.00	596.75	588.50	613.00	608.50	604.75	628.25	620.25	648.75	654.00	659.00	666.00	667.00	695.50	671.50	646.00	701.75	732.75	783.00	766.00	724.50	778.75	800.25	794.75	755.50	782.50	791.50	794.25	744.25	789.00	818.00	826.50	797.75	743.25	729.50	728.75	719.25	717.25	720.25	722.00	705.25	697.75	707.75	720.00	775.25	810.25	788.00	831.00	894.00	960.25	978.00	1002.75	980.50	1025.50	1091.25	985.75	1016.25	1089.25	985.25	1050.50	1111.25	1109.75	1018.00	947.50	979.50	1041.00	1005.50	907.50	862.00	805.75	768.00	863.25	946.00	977.75	1032.00	1002.00	833.00	820.25	877.00	940.75	897.25	824.50	807.00	833.25	832.75	924.75	1005.75	855.00	795.00	858.00	890.25	795.75	675.25	643.00	644.00	654.50	730.25	826.75	777.00	718.25	775.50	843.50	873.50	890.25	930.00	1011.75	1048.50	1104.25	1186.50	1149.25	1093.25	1045.50	964.75	840.50	742.75	734.50	792.00	870.75	862.50	914.50	970.00	1103.00	1152.00	1142.25	1075.00	1176.75	1166.50	1102.00	1057.75	998.50	926.75	921.25	992.25	1008.00	1057.25	1026.25	982.00	925.00	888.00	816.25	767.25	745.25	738.00	779.50	856.25	951.25	1028.50	971.00	909.25	872.25	942.00	976.75	1022.25	1079.50	1113.50	1136.25	1085.00	1019.00	977.00	913.50	887.50	880.00	883.50	892.25	908.25	936.75	1017.00	1070.50	1127.75	1131.00	1049.75	1003.75	983.25	973.75	970.00	956.75	931.75	889.50
944.50	992.00	865.00	883.75	938.50	930.75	830.25	760.50	717.25	667.25	630.00	676.25	753.00	947.50	936.75	868.50	835.00	905.00	1041.00	919.25	833.00	787.25	751.00	766.00	884.00	882.00	882.25	879.00	735.75	609.25	606.25	718.50	803.25	826.00	831.75	866.50	938.00	898.75	824.25	778.50	719.00	720.75	750.50	758.00	625.25	639.75	726.50	737.00	749.00	851.00	759.25	673.25	664.00	666.75	744.75	821.00	781.00	731.75	676.00	630.00	576.75	555.50	597.00	584.50	579.25	604.75	580.50	574.25	592.25	583.50	572.25	566.25	566.00	568.50	580.50	599.50	596.00	615.00	692.50	685.50	637.75	676.25	671.75	649.50	682.50	628.75	664.75	713.50	704.25	698.25	710.75	725.75	726.00	664.50	697.00	717.75	792.75	775.25	735.25	803.50	847.75	809.50	773.00	797.50	813.00	808.75	768.00	763.50	779.50	782.00	756.50	738.50	764.00	773.75	748.00	746.25	765.00	771.50	721.25	706.50	703.25	703.25	733.75	767.00	784.00	887.75	950.50	987.00	974.75	979.25	910.75	966.50	1021.75	922.25	1003.50	1042.50	965.25	1025.75	1109.25	1119.25	1015.50	935.00	929.50	984.50	964.75	890.00	841.50	797.50	779.25	846.50	914.50	975.75	1054.25	971.75	852.25	867.50	900.25	922.75	887.75	825.50	784.50	794.75	784.75	855.25	952.50	905.00	812.75	789.75	828.25	787.75	643.50	630.50	640.50	664.50	758.75	876.50	804.25	710.50	763.00	814.50	832.50	905.50	942.50	974.25	986.25	1053.50	1132.50	1108.50	1055.00	1023.00	949.75	842.75	776.25	778.75	788.75	798.75	807.00	871.50	993.75	1137.50	1095.00	1030.00	1058.00	1210.75	1259.25	1216.75	1131.75	1022.50	985.25	962.75	1042.25	1065.25	1088.75	1034.50	1009.50	974.50	927.00	881.50	833.50	753.00	737.50	746.25	830.50	955.75	1034.00	974.75	877.25	840.25	924.25	978.50	1039.25	1101.50	1150.25	1088.25	1043.25	988.75	968.00	919.50	895.00	886.50	890.00	910.00	948.25	989.75	1029.25	1080.75	1177.50	1186.00	1061.25	1001.25	963.00	937.50	912.25	880.50	857.75	842.75
913.00	991.50	936.25	933.75	910.50	887.25	809.75	775.00	774.50	688.50	626.50	682.00	762.75	945.00	903.00	806.50	828.75	892.75	992.00	919.75	847.75	786.75	753.75	824.50	904.50	897.00	821.00	784.75	726.00	607.00	605.25	678.75	741.00	782.25	813.00	912.75	972.25	907.25	801.50	791.25	788.00	753.75	688.00	678.50	609.25	661.00	790.50	829.50	817.00	874.75	822.25	707.25	663.75	647.00	729.50	747.75	740.25	668.75	602.75	570.50	542.50	540.75	566.00	555.75	561.75	574.00	572.50	564.25	572.00	565.75	564.25	561.75	573.00	593.50	647.00	662.25	635.50	636.00	783.25	769.00	684.25	720.75	718.75	668.00	723.75	653.50	646.75	722.25	711.75	722.50	759.50	749.00	766.25	687.25	674.75	696.25	769.50	780.25	754.00	802.00	866.75	835.25	782.25	805.50	827.50	803.00	786.50	775.25	777.00	769.25	751.50	746.50	806.75	816.25	756.50	764.50	818.00	827.75	741.50	715.25	707.50	708.25	724.00	760.25	783.50	865.25	932.00	929.75	920.50	967.00	890.50	880.75	923.25	881.25	941.25	954.50	959.25	1014.00	1088.00	1077.00	1011.75	945.75	912.25	909.75	901.75	858.25	829.75	795.50	797.50	836.75	898.25	956.25	1055.25	958.00	895.25	958.50	952.50	906.75	872.25	830.25	799.75	773.75	766.75	786.25	872.00	907.50	876.00	796.50	746.00	738.75	630.00	624.00	639.50	676.00	742.75	855.75	843.50	724.00	771.75	850.75	829.50	889.50	899.50	942.25	990.25	1044.25	1081.25	1094.25	1097.25	1084.50	991.75	866.00	809.75	842.25	871.75	857.00	824.00	842.50	933.25	1025.00	972.50	1013.50	1083.25	1188.00	1316.50	1283.00	1156.00	1046.75	1075.75	1040.00	1076.75	1047.00	1036.00	1061.25	1073.50	1017.50	971.25	947.75	889.00	769.00	747.25	744.25	813.00	960.50	1037.25	1006.00	896.75	854.75	913.50	972.00	1049.00	1090.25	1102.75	1023.75	982.25	939.00	942.25	935.50	928.25	912.00	902.50	914.50	951.25	1030.00	1089.00	1091.25	1181.25	1228.50	1083.00	1005.00	971.00	975.50	954.25	906.00	868.00	834.25
894.00	989.50	937.75	910.75	876.75	854.25	820.75	810.00	824.00	697.50	621.00	677.25	769.00	939.25	837.25	805.25	882.75	947.00	983.75	891.00	835.50	812.00	776.25	824.50	797.00	778.50	730.00	718.00	732.75	607.75	603.75	686.50	707.25	802.75	825.25	921.00	931.50	934.50	820.50	750.75	756.25	758.50	716.00	665.00	601.50	655.00	748.75	824.00	874.00	865.25	821.75	770.25	700.00	603.25	634.75	680.50	660.25	597.25	561.25	550.75	537.75	540.50	555.50	554.25	563.25	575.50	574.25	568.50	577.00	576.50	578.50	617.25	629.50	642.00	724.75	722.00	688.25	643.00	758.75	768.75	748.00	752.75	731.50	673.75	740.50	682.00	627.75	699.50	722.25	730.50	792.25	790.75	788.00	715.25	667.00	691.00	762.75	817.00	765.75	771.75	848.50	841.75	781.00	811.25	825.75	795.25	792.75	808.50	839.75	800.75	770.00	790.50	849.25	819.50	749.00	764.25	850.50	853.75	762.50	719.00	707.00	713.00	723.75	744.25	752.00	785.25	821.00	829.00	855.50	908.00	850.25	811.75	852.00	867.50	872.75	885.00	975.25	1015.00	1078.25	1055.75	1020.50	980.25	931.25	905.00	899.25	848.50	810.50	814.00	863.00	856.25	905.50	968.50	1059.25	989.25	976.50	1063.00	1037.50	933.75	888.75	861.25	839.25	807.75	785.75	765.50	790.75	828.50	879.00	864.00	766.75	705.75	623.75	618.25	656.00	723.50	783.25	830.00	868.25	756.50	756.75	837.75	818.50	846.75	893.25	968.50	995.25	988.75	1005.75	1025.50	1047.25	1047.50	950.50	862.25	832.50	900.00	982.75	981.25	903.50	843.00	855.75	931.75	966.00	1107.00	1151.75	1184.75	1312.00	1292.00	1165.25	1083.75	1090.00	1081.75	1062.00	983.25	951.75	1028.25	1059.50	1002.50	960.50	900.00	850.25	781.25	761.75	754.25	789.75	916.25	1005.75	1033.75	943.75	915.50	884.75	954.00	1039.50	1045.25	1055.75	981.25	941.25	935.00	958.75	930.50	967.25	973.50	943.00	931.00	943.75	1014.75	1125.75	1139.25	1195.50	1225.25	1081.25	1029.25	1015.50	1010.50	988.25	937.75	894.75	855.00
896.50	988.50	948.25	915.50	952.00	917.00	826.25	781.50	739.25	654.50	617.50	689.50	770.00	909.25	810.75	806.25	904.75	1051.00	1080.00	933.00	894.75	873.50	857.00	821.25	730.75	754.75	794.75	799.00	745.00	604.75	598.75	782.00	797.25	872.50	894.25	925.00	844.25	899.00	901.00	781.25	743.75	727.25	709.00	661.50	624.50	694.75	735.75	812.50	859.25	821.50	774.50	726.25	681.50	617.00	591.00	643.25	585.75	559.25	550.75	547.50	560.50	561.75	553.25	590.75	605.75	657.25	635.50	625.25	660.25	629.25	624.75	705.00	710.00	682.50	778.00	768.50	733.25	678.25	714.75	754.00	828.25	789.25	725.00	682.25	772.50	739.50	653.50	681.75	738.75	734.00	787.25	819.75	816.75	748.25	667.50	683.00	759.00	836.25	810.25	765.50	816.50	814.25	775.00	823.50	829.50	814.50	809.00	847.00	909.75	841.25	794.25	852.75	881.00	800.50	755.75	764.75	847.25	853.50	796.25	739.00	708.00	709.50	717.75	731.75	740.00	754.50	761.00	768.50	788.25	829.00	852.75	858.00	890.50	939.50	900.50	896.75	951.25	980.50	1050.75	1083.25	1056.50	1039.25	973.00	937.75	980.25	897.25	819.75	833.25	927.50	877.25	891.00	951.25	1055.25	1033.00	1063.25	1145.00	1091.25	986.50	961.00	922.50	899.50	868.50	820.25	767.75	756.50	748.00	794.00	853.50	800.25	714.00	631.00	626.00	672.00	768.50	852.00	879.75	895.50	800.50	740.75	778.75	824.50	842.50	914.00	944.00	934.50	942.25	1010.00	1020.50	972.50	973.00	921.50	854.50	828.50	895.50	1021.25	1094.50	1016.00	889.50	845.50	899.25	972.75	1113.50	1161.25	1206.50	1328.00	1347.00	1257.50	1120.50	1051.25	1044.25	1008.00	978.75	918.50	926.50	939.75	912.00	898.00	847.75	839.50	797.75	770.25	761.75	794.00	921.25	1013.00	1046.00	1016.25	997.75	871.00	931.50	992.25	1006.25	1080.00	991.00	966.00	1022.75	1016.25	926.00	1021.75	1085.50	1008.25	940.50	943.00	990.00	1063.00	1102.75	1175.00	1190.50	1071.75	1070.25	1072.25	1003.00	958.25	913.00	873.50	844.75
984.00	998.50	902.50	865.00	831.00	876.00	915.00	856.00	736.50	642.00	626.00	727.00	840.00	804.50	781.00	850.00	938.50	1002.50	1074.50	943.00	965.50	985.50	1011.00	871.00	749.50	774.00	851.00	831.00	718.00	604.50	592.00	778.00	871.00	759.00	753.50	909.50	865.00	761.00	892.50	859.00	763.50	722.50	677.50	622.50	635.00	752.00	846.50	792.50	706.00	762.50	845.00	797.50	742.50	648.50	573.50	559.00	545.50	545.00	551.50	564.50	697.00	716.50	556.00	580.50	655.50	736.50	797.00	805.50	788.00	707.50	667.00	714.50	777.00	773.00	841.00	778.50	687.50	681.00	649.00	742.50	834.00	771.50	696.00	711.50	774.50	771.00	696.50	667.00	709.00	762.50	808.00	833.00	835.00	756.50	657.00	653.00	783.50	830.00	950.50	877.50	940.00	949.50	819.00	822.00	862.50	877.00	839.50	904.00	919.00	813.50	809.00	863.50	824.50	794.50	857.50	868.50	855.00	902.00	884.00	780.50	724.00	711.00	754.00	820.00	808.50	816.50	870.50	838.00	782.50	808.50	884.00	955.50	982.50	1046.00	1016.00	1032.00	1010.00	963.00	1022.00	1125.50	1161.00	1125.00	1060.00	977.00	963.50	911.00	837.50	824.00	890.00	954.00	987.50	952.50	1039.00	1060.00	1143.50	1202.00	1105.00	1042.50	1026.00	969.50	938.50	950.00	865.00	808.50	849.00	760.00	719.00	703.50	708.00	672.00	634.00	636.00	662.00	715.00	785.00	879.00	910.00	864.50	770.00	754.50	817.50	870.50	840.00	889.00	940.00	1030.50	1107.00	1122.50	1028.00	1044.50	1005.50	911.00	818.50	820.50	879.50	986.00	1030.00	939.50	878.50	875.50	903.00	984.00	1067.00	1190.50	1348.00	1424.00	1367.50	1223.00	1176.00	1120.50	1015.00	994.50	936.00	874.00	888.50	940.00	1004.00	922.00	958.00	881.00	778.00	759.00	798.50	908.00	1008.50	1121.50	1050.00	975.00	890.00	873.50	931.00	968.50	1070.50	1056.50	1054.50	1122.00	1001.00	971.50	1047.50	1127.50	1011.50	908.00	874.50	969.00	1087.00	1122.00	1136.50	1145.00	1136.00	1152.50	1133.00	1051.50	976.50	920.00	866.00	829.00
956.00	972.50	873.25	869.00	784.25	808.00	887.00	875.75	766.25	650.75	622.00	688.00	779.50	785.50	777.00	858.00	915.75	933.00	1015.00	903.50	909.25	959.50	964.25	882.75	791.50	758.25	773.00	781.00	731.00	606.25	590.25	719.75	796.75	727.00	749.25	902.00	872.50	751.00	835.50	867.75	783.25	747.50	680.00	602.75	639.50	716.25	827.50	788.25	693.75	748.25	810.25	791.75	738.00	623.00	566.25	552.25	551.75	560.75	577.75	579.75	708.75	745.25	570.50	568.75	654.25	746.25	809.25	830.75	783.00	686.25	647.50	682.50	743.75	789.25	855.00	780.50	683.50	684.00	649.00	714.00	828.75	782.00	702.75	705.00	773.75	777.00	717.00	687.50	710.25	760.25	801.50	820.50	805.75	749.75	668.25	661.50	833.75	909.00	996.75	930.25	954.50	979.50	845.50	827.25	866.75	885.75	845.25	918.50	894.25	828.25	859.75	897.00	822.25	816.50	901.25	922.75	866.00	930.50	894.75	790.00	729.50	714.25	767.75	865.50	871.50	831.50	899.75	898.50	817.25	806.50	845.50	907.75	943.00	1010.75	1021.75	1022.25	1043.75	1016.50	1061.50	1141.25	1156.25	1109.25	1056.75	965.50	928.00	884.50	831.75	835.25	896.25	978.50	1006.25	962.25	1035.25	1061.75	1104.50	1164.75	1100.50	1028.00	991.75	925.00	894.25	938.50	890.00	865.50	888.25	797.75	759.25	705.25	684.25	660.25	641.25	643.00	656.50	695.00	758.75	837.00	862.75	851.25	775.25	751.25	793.00	843.25	860.50	938.50	986.00	1052.00	1114.25	1163.00	1091.50	1119.75	1067.25	950.50	826.75	796.75	834.75	930.75	972.00	919.75	877.75	876.00	908.75	981.25	1044.75	1146.25	1294.50	1370.00	1322.75	1246.00	1204.00	1145.00	1039.50	994.50	928.50	898.75	949.25	1017.75	1051.25	943.00	935.75	864.00	777.00	761.00	821.00	926.50	1015.50	1106.75	1055.50	991.00	922.00	888.25	945.25	1006.00	1102.25	1119.25	1095.50	1121.75	995.00	974.25	1060.75	1148.50	1042.50	920.00	872.50	961.50	1081.25	1100.00	1143.75	1162.75	1139.25	1153.50	1127.25	1062.25	1010.75	962.00	891.00	839.75
939.00	933.50	819.00	836.00	807.00	736.00	720.50	765.00	717.00	632.50	595.00	625.50	721.00	700.00	749.00	824.00	794.50	850.00	914.50	810.50	860.50	896.00	901.00	809.00	855.00	848.50	725.00	635.00	629.50	596.00	576.50	620.50	634.00	651.50	741.50	816.00	846.50	761.00	688.50	848.00	753.50	716.50	615.00	563.50	668.50	742.50	775.00	720.00	658.00	756.00	732.00	664.00	691.00	592.50	545.00	542.50	578.50	687.50	744.00	700.00	634.00	697.00	623.00	563.00	596.50	727.50	755.00	835.00	807.00	681.50	664.00	641.00	679.50	777.50	825.00	786.00	680.00	689.00	666.00	671.50	800.50	810.50	725.00	698.50	770.00	784.50	745.00	736.50	727.00	712.00	737.50	785.50	746.00	735.50	741.50	673.50	838.50	1010.50	1117.50	1119.50	1058.50	1085.00	925.50	916.00	895.50	944.00	941.00	909.50	880.50	920.00	949.50	896.00	810.50	920.00	1019.00	1011.50	874.50	988.50	956.00	844.00	769.00	740.00	772.50	901.50	1000.50	877.00	910.50	1003.00	927.00	867.00	820.00	819.50	842.00	889.00	936.00	987.00	1075.50	1049.50	1099.50	1135.00	1101.50	1119.50	1094.00	1000.00	915.00	830.00	806.00	859.00	960.50	1005.50	994.50	983.00	1084.50	1088.00	1006.00	1014.50	1066.50	1059.00	1042.00	988.50	875.50	834.50	837.00	838.00	849.00	859.50	812.00	722.50	675.50	656.50	665.00	694.00	684.50	677.50	694.50	743.50	782.50	812.50	802.00	758.00	757.50	787.00	872.00	950.50	997.50	1015.50	1116.00	1250.50	1303.50	1268.00	1073.00	986.00	928.50	824.00	772.00	820.50	924.50	952.50	925.00	884.50	897.00	956.50	997.00	1064.50	1162.50	1201.50	1173.50	1207.50	1122.00	1075.50	1037.50	1013.00	985.00	1021.00	1095.50	1130.00	1048.00	902.00	885.00	803.50	770.50	775.50	852.50	922.00	970.50	968.50	1080.00	1069.00	941.00	921.00	929.50	1014.00	1104.00	1139.00	1090.50	1014.50	980.50	1049.00	1032.00	1149.50	1143.00	963.00	885.00	923.00	955.00	979.00	1108.00	1187.50	1147.50	1222.50	1221.00	1120.50	1039.50	974.50	954.50	926.50
915.00	852.00	806.00	756.50	789.75	759.50	719.00	681.00	644.25	606.25	591.25	610.75	643.50	605.50	641.75	661.75	681.25	783.25	797.50	738.25	829.50	794.50	795.50	819.00	707.75	805.50	837.25	756.50	680.50	614.25	567.75	565.25	629.75	702.25	769.50	863.25	846.50	757.25	681.00	759.25	846.25	786.25	633.75	561.00	744.50	817.50	855.25	733.75	629.00	680.75	706.25	621.00	579.75	544.50	543.75	598.25	650.75	615.50	675.50	756.00	704.00	663.25	698.75	624.75	588.50	620.75	716.50	744.50	747.75	773.50	700.75	777.75	749.00	756.75	831.00	782.00	701.00	722.50	725.75	707.25	748.25	778.00	742.75	727.75	774.75	814.50	777.75	754.75	727.00	747.25	794.75	811.25	779.25	819.50	836.00	763.25	740.50	880.75	1031.00	1086.50	1138.25	1119.00	1012.00	1042.50	1010.50	1091.50	1082.75	1029.00	1066.25	1002.75	956.50	858.75	874.25	960.50	1023.25	1031.75	994.75	996.75	867.00	839.50	787.75	739.50	741.75	797.50	905.25	1013.25	968.50	1025.00	1051.75	954.50	876.25	915.00	937.75	879.00	880.50	915.75	937.25	974.75	1095.50	1120.50	1047.75	1015.75	1006.50	985.75	926.00	851.75	844.25	861.00	891.00	932.75	928.25	949.50	1067.50	1109.75	986.75	970.25	962.00	988.25	999.50	1006.75	987.75	905.75	865.25	807.00	801.25	768.25	751.00	708.50	668.00	662.00	727.75	758.25	784.50	757.50	729.25	776.25	853.75	838.25	850.00	849.75	803.75	777.50	797.25	868.25	910.50	973.50	1102.75	1109.75	1185.25	1250.25	1170.75	1210.25	1055.25	906.50	781.00	764.25	851.25	961.50	1007.50	1002.75	962.50	932.25	974.50	1019.00	1106.25	1165.75	1207.25	1228.75	1176.50	1143.50	1073.75	1037.25	1031.50	1033.50	1016.75	999.50	972.75	914.75	873.50	814.25	798.75	816.00	892.25	937.25	966.75	979.25	1007.75	1053.25	1051.50	1030.00	971.25	1053.75	1130.00	1063.75	1083.50	1083.25	1051.50	1168.00	1153.75	1153.25	1077.25	961.25	893.50	991.00	1091.50	1056.50	1067.50	1169.50	1261.50	1231.75	1147.50	1093.50	1006.25	946.00	980.50	989.25
873.50	805.50	780.00	728.50	757.00	749.50	752.50	723.00	660.00	602.50	587.00	602.00	613.00	563.50	603.00	629.50	662.00	756.00	741.00	699.00	821.50	796.50	728.50	801.00	699.50	785.00	860.00	801.50	728.00	637.00	568.50	544.00	629.50	733.50	796.00	926.00	865.00	787.00	705.50	711.00	803.00	763.50	630.00	557.50	776.00	880.50	897.00	777.00	629.00	617.00	614.50	585.50	555.00	536.50	546.50	634.00	709.00	600.50	623.00	708.00	731.50	672.00	726.00	650.50	617.50	611.50	697.00	697.50	690.00	776.50	698.50	821.00	804.50	780.50	869.00	816.50	718.50	731.00	727.00	710.00	733.50	764.00	740.50	738.00	796.50	852.00	800.00	755.50	724.50	746.00	799.00	820.50	800.50	834.00	828.00	772.50	717.00	848.50	979.50	1020.00	1106.50	1115.50	1052.00	1098.00	1081.00	1138.50	1088.50	1095.50	1133.50	1012.00	934.50	853.50	898.50	1007.00	1045.50	1037.00	1038.50	994.50	831.00	835.00	801.00	744.50	742.00	781.50	871.50	1039.50	1029.50	1014.50	1087.50	980.50	891.50	938.50	988.50	916.00	878.50	882.50	905.50	968.50	1089.50	1129.50	1052.50	990.50	975.00	955.00	904.50	855.50	873.00	887.00	869.50	898.50	909.00	929.00	1052.00	1110.00	990.50	966.50	935.50	931.00	939.00	974.50	990.00	931.50	901.00	830.00	821.00	759.50	729.50	699.00	661.00	660.00	749.00	778.50	815.00	792.50	751.00	768.00	854.00	840.00	856.00	888.00	840.50	778.00	787.50	843.00	878.00	958.50	1063.00	1058.00	1150.00	1265.00	1247.00	1264.50	1088.50	938.50	788.00	751.50	828.50	945.00	1008.00	1053.50	1006.00	929.00	959.50	1023.50	1145.00	1210.00	1245.00	1211.50	1176.50	1174.50	1129.50	1079.50	1042.50	1018.50	984.00	962.00	938.50	894.00	866.00	828.00	821.00	845.00	930.00	974.00	1009.50	1026.00	1014.50	1048.00	1117.00	1070.50	990.50	1086.00	1175.50	1086.50	1121.00	1125.00	1067.00	1160.50	1197.50	1160.00	1070.50	962.00	896.00	1003.00	1134.00	1105.00	1072.50	1146.50	1285.00	1222.50	1099.00	1070.00	998.50	942.50	1010.00	1018.50
1044.50	966.50	915.75	839.50	778.25	917.00	927.75	855.50	784.00	676.75	581.25	606.75	650.25	671.00	677.00	674.25	687.00	693.75	717.25	768.25	796.75	771.25	692.50	661.75	636.25	679.25	713.50	668.75	683.00	652.50	578.00	547.00	566.50	638.25	706.00	864.75	898.75	862.25	766.00	669.75	664.00	640.75	590.25	530.50	653.25	717.75	723.50	658.00	592.25	538.25	528.50	532.50	541.50	553.00	596.50	725.50	782.00	661.25	596.50	700.50	852.00	779.25	768.50	752.25	698.25	627.25	671.50	675.00	701.00	752.25	734.75	802.50	847.50	829.75	832.00	775.50	726.25	747.00	789.00	745.00	807.75	879.50	795.00	787.75	869.50	854.25	787.00	719.75	701.75	739.50	800.00	846.25	892.25	848.75	851.75	884.75	747.50	767.00	851.75	918.00	994.25	1020.50	1035.50	1085.50	1116.00	1113.50	1166.25	1209.25	1208.75	1069.00	925.25	897.00	984.00	964.25	1046.50	1117.00	1059.50	990.75	954.50	932.25	866.75	775.25	734.00	749.50	814.75	986.75	1016.00	987.25	1067.00	1041.75	947.00	977.75	1047.00	1008.50	1017.50	1013.25	991.50	1016.25	1119.25	1156.25	1069.00	1030.75	1001.75	911.25	865.75	895.75	946.50	1005.75	975.00	942.00	1009.00	1046.50	1045.50	1074.25	1041.50	987.50	929.00	887.50	856.00	839.50	849.75	906.00	950.00	910.50	881.75	802.00	732.50	685.50	656.75	696.50	775.50	820.75	883.00	876.50	827.75	785.75	788.00	790.25	821.25	862.75	876.50	802.50	783.50	804.75	825.50	876.25	924.00	950.00	981.75	1019.00	1072.25	1145.50	1056.75	952.00	850.00	773.00	808.00	920.75	1000.50	1088.75	1078.75	1005.75	1001.75	1016.25	1062.50	1126.00	1200.00	1132.75	1012.75	987.00	1018.50	1025.00	974.00	936.50	906.50	892.50	880.00	851.00	833.75	817.50	831.25	896.50	995.00	1030.00	1057.25	1112.75	1157.00	1174.50	1180.00	1078.25	1008.00	1066.50	1119.75	1106.25	1079.75	1176.00	1140.50	1168.50	1198.50	1114.50	1045.25	979.00	920.25	964.25	1018.00	1053.50	1061.25	1097.50	1156.25	1201.00	1175.50	1128.50	1039.25	964.25	997.00	1071.50
1048.00	957.25	883.25	806.50	729.00	830.75	945.00	949.25	900.25	750.00	592.50	624.00	743.75	817.50	800.00	735.25	746.50	744.25	778.50	767.75	740.75	734.50	731.25	681.75	622.75	640.00	691.00	648.25	618.00	616.50	560.00	535.75	521.00	631.50	731.25	777.00	807.75	813.75	743.75	685.25	656.25	616.50	585.50	529.75	577.00	615.75	613.50	561.00	541.50	525.75	522.75	530.50	541.25	579.00	666.00	715.50	806.25	700.50	622.00	698.50	808.75	797.75	778.00	772.00	753.75	681.00	670.75	647.00	656.25	714.25	743.50	726.25	763.50	804.75	821.50	762.00	737.25	756.50	843.25	809.00	832.25	898.25	821.75	809.75	877.50	840.50	764.25	729.50	720.50	708.25	768.25	826.75	901.50	915.75	911.75	911.50	798.25	737.00	821.00	915.75	962.25	974.50	961.00	1021.75	1074.50	1016.50	1076.00	1194.50	1178.00	1055.50	916.75	924.00	1054.00	1012.75	1083.25	1140.00	1025.75	963.25	916.00	877.75	852.25	798.75	747.75	747.25	782.00	861.25	894.50	994.25	1032.25	1031.00	984.25	1016.50	1026.25	1001.25	1051.75	1045.75	1048.75	1066.75	1131.00	1174.75	1079.50	1036.00	997.25	902.00	881.75	932.50	998.25	1048.25	1004.00	965.50	1045.00	1108.25	1066.50	1041.50	1017.25	980.50	978.00	984.00	920.75	862.00	816.00	833.25	872.00	875.00	857.25	794.75	720.00	673.25	659.00	727.00	823.00	835.75	909.25	890.75	837.75	808.50	807.00	809.00	818.00	842.00	867.50	853.75	818.25	802.50	808.75	870.50	926.25	933.25	959.25	987.25	1002.75	1019.75	992.75	979.75	907.25	806.00	798.75	888.75	964.75	1053.25	1094.00	1044.00	1077.75	1084.75	1037.25	1076.00	1181.00	1131.00	1033.25	968.00	969.75	971.00	956.75	939.25	908.75	875.75	850.25	823.50	821.50	824.75	839.50	886.75	948.00	981.75	1041.75	1095.50	1142.50	1179.25	1184.50	1080.00	1016.00	1020.50	1047.00	1060.00	1035.00	1127.25	1086.25	1149.75	1178.00	1127.25	1084.50	1006.75	944.50	975.75	1011.25	1016.25	1063.50	1072.75	1146.75	1140.00	1121.00	1105.25	1041.00	962.25	925.75	985.00
