87.00	87.25	87.50	78.50	74.75	81.75	85.25	73.00	73.00	73.00	73.00	73.50	73.75	78.50	79.75	77.25	74.00	76.25	77.25	76.75	76.75	75.25	75.75	75.25	78.75	82.00	83.25	81.00	78.00	77.25	76.75	75.75	75.25	76.75	81.00	82.00	75.00	73.00	74.75	76.00	75.25	74.75	75.00	74.75	73.75	76.00	77.00	82.00	84.75	82.25	79.00	79.00	86.50	111.00	146.25	145.25	144.25	143.50	142.25	143.25	145.75	146.00	146.75	147.50	146.75	147.00	147.75	146.25	146.25	144.50	141.50	140.50	138.75	135.25	128.75	120.75	119.75	116.25	111.00	106.25	101.50	114.50	120.00	124.25	127.50	129.00	127.75	124.75	122.50	121.50	125.25	128.75	131.00	127.00	126.50	131.75	138.75	136.75	144.00	150.50	152.75	151.75	150.50	144.50	136.75	132.50	123.00	117.25	110.50	106.25	102.75	98.00	85.25	77.50	77.00	77.00	77.00	82.75	93.00	102.25	107.00	110.75	113.75	113.50	110.25	110.50	107.25	106.25	102.75	104.25	105.75	104.00	106.25	105.25	108.00	114.75	112.00	111.00	108.50	103.00	100.25	101.00	100.25	104.25	98.50	99.50	107.00	106.25	108.25	109.25	105.50	107.25	103.25	104.75	110.75	106.75	101.50	104.00	109.00	109.75	104.25	107.00	116.00	116.50	116.75	118.75	113.50	111.00	114.50	113.00	116.00	115.75	111.50	101.00	101.00	101.00	101.00	105.25	114.00	108.00	102.50	102.50	108.50	106.25	103.50	103.50	102.50	104.00	104.25	104.75	105.25	105.00	106.25	108.25	108.75	107.25	107.75	108.50	111.00	107.75	110.75	117.50	127.00	125.00	120.25	113.75	112.75	112.00	133.50	158.75	156.25	163.50	168.25	166.75	170.75	175.75	156.75	155.25	156.00	157.50	161.00	166.50	175.00	177.50	174.25	161.75	162.75	196.25	188.50	166.75	173.50	172.50	179.00	164.25	172.25	186.50	176.25	177.75	170.75	171.50	170.75	167.50	172.75	171.50	180.00	177.00	174.00	177.00	172.75	181.25	175.00	176.25	184.75	176.25	172.25	180.25
84.75	83.25	78.75	76.25	80.00	89.50	81.75	73.00	73.00	73.00	74.00	78.75	81.75	81.75	77.00	75.75	76.50	74.75	74.25	76.00	76.25	77.75	81.25	76.75	78.50	78.50	78.75	78.50	78.00	77.75	77.25	77.25	79.00	79.50	81.00	80.25	77.00	76.00	75.75	74.50	74.50	74.50	74.00	73.00	76.00	79.75	80.50	83.00	84.00	80.25	79.25	80.25	91.50	134.00	149.00	147.25	146.25	145.75	144.50	147.00	146.50	146.00	147.75	147.00	147.50	147.50	148.25	146.75	146.25	144.75	138.00	129.75	131.50	128.50	112.75	109.00	127.50	127.75	126.75	122.75	124.50	126.50	127.00	128.75	127.25	127.75	127.25	124.25	123.50	127.50	129.25	130.75	129.50	127.50	133.75	138.00	135.25	144.75	149.25	152.00	154.00	152.25	148.00	143.25	137.00	133.25	125.50	121.25	114.25	110.00	106.75	100.75	92.00	85.25	78.75	77.00	78.25	97.75	103.50	108.25	108.50	114.75	112.75	113.00	111.00	109.75	111.25	107.50	108.25	106.00	106.50	106.75	107.75	112.00	113.25	117.50	113.75	108.50	105.75	106.25	102.25	100.75	104.00	106.25	99.50	99.75	110.75	111.00	108.75	107.50	102.75	101.75	104.25	110.75	115.00	114.00	106.50	101.75	107.00	113.75	108.75	109.00	112.25	113.00	115.00	114.00	111.75	112.50	115.75	119.00	123.75	116.25	106.00	101.00	101.00	101.00	101.00	103.75	111.50	109.50	103.50	104.00	104.50	104.00	103.75	104.75	104.50	104.25	105.75	107.25	105.25	106.00	105.00	108.25	107.50	107.25	107.25	107.25	108.75	109.00	116.75	122.00	122.75	123.75	116.00	112.00	115.25	128.75	138.75	157.00	158.50	167.00	174.50	168.25	171.00	172.75	155.25	155.50	157.00	158.00	161.75	171.25	175.50	181.75	175.50	162.25	168.75	192.00	171.50	178.75	176.00	171.75	176.25	165.75	183.00	181.50	168.50	176.00	174.75	172.50	171.50	173.50	173.50	175.25	176.00	171.75	175.75	174.50	177.25	181.25	167.25	167.50	167.25	165.50	180.25	187.00
81.25	78.50	77.50	79.50	82.75	84.50	75.25	73.00	73.00	73.25	76.75	81.50	82.00	79.25	77.25	77.50	76.75	73.75	76.00	79.00	79.00	80.00	80.75	77.00	78.75	78.00	78.50	78.00	80.25	80.00	77.75	76.75	78.50	80.50	77.50	75.75	74.50	75.50	74.75	74.25	74.00	74.00	73.50	73.00	78.50	80.50	81.50	82.75	82.75	79.75	79.50	83.25	103.25	137.25	147.75	147.25	148.25	148.25	146.75	146.50	146.00	145.75	146.25	146.75	147.25	147.75	148.50	147.75	147.25	144.75	138.25	128.25	117.25	112.00	101.75	102.25	120.75	128.25	128.50	126.25	130.00	126.25	126.50	127.00	125.75	127.50	128.50	126.00	125.75	126.00	123.25	125.75	126.50	125.75	132.25	133.00	131.75	143.75	149.75	153.75	155.25	152.25	147.50	143.25	139.75	136.50	128.50	124.50	118.50	116.00	112.50	107.50	102.50	96.00	85.25	83.75	88.25	103.25	106.75	108.75	109.00	113.25	114.50	113.25	111.50	108.50	111.25	107.25	109.50	108.25	107.50	104.75	106.00	110.00	111.00	113.00	111.75	112.50	109.25	106.75	104.75	103.75	106.25	105.50	100.75	100.75	108.00	112.25	108.75	105.75	103.75	105.50	110.25	114.50	117.50	118.25	111.25	108.50	113.50	117.00	113.75	114.25	117.50	118.00	119.25	116.75	112.25	113.00	116.25	121.50	125.50	117.00	109.00	101.75	101.00	101.00	101.00	102.00	109.25	110.00	105.50	103.50	103.50	103.75	103.75	105.00	105.75	104.50	105.25	107.50	106.75	106.25	106.25	108.50	108.00	108.25	108.00	107.25	108.50	114.00	123.50	124.50	123.25	123.50	112.75	111.50	122.50	139.25	142.50	155.50	158.25	168.50	175.50	171.00	171.25	170.00	155.00	155.25	157.00	159.00	166.50	174.25	176.50	185.25	174.25	164.00	178.50	182.75	169.00	183.25	172.50	173.75	178.75	170.25	179.00	174.75	170.75	173.25	175.00	172.50	174.00	170.75	174.25	172.25	173.50	176.00	181.25	177.50	179.25	184.75	172.75	165.25	164.75	166.00	182.50	184.25
80.25	78.50	79.00	83.00	80.75	76.75	73.00	73.00	73.00	73.25	77.25	82.00	80.00	77.00	79.50	79.00	74.75	72.00	77.00	82.25	79.00	76.00	78.50	80.25	79.75	78.00	77.75	79.00	82.75	79.75	75.25	74.50	76.25	77.75	73.50	74.25	74.00	73.75	74.00	74.00	74.00	73.75	73.25	73.25	79.25	79.25	81.25	82.75	81.25	79.50	80.25	91.75	118.75	137.50	145.25	147.25	150.00	150.50	149.50	147.00	145.25	144.75	145.00	146.75	147.25	148.50	149.00	149.00	148.50	145.25	138.25	127.75	104.50	99.00	97.25	97.25	109.75	126.50	129.50	129.75	132.50	125.75	125.25	124.75	125.25	128.00	129.25	125.00	123.75	121.50	116.75	120.25	123.25	123.50	126.25	124.75	126.75	142.00	149.00	155.00	155.25	152.00	148.50	144.25	142.25	139.25	131.00	127.00	122.50	120.75	117.50	111.00	105.75	101.00	92.75	94.25	100.00	108.25	109.50	109.25	110.00	111.25	116.25	114.50	112.50	108.75	111.25	108.25	110.75	108.75	106.25	103.50	107.75	112.00	112.50	109.25	109.75	115.50	113.75	107.00	105.25	108.00	109.75	107.00	101.50	102.00	106.50	113.25	111.00	106.00	107.50	111.50	114.75	116.75	120.00	123.00	117.25	116.00	118.75	119.50	118.25	119.50	121.25	120.25	119.25	116.25	113.25	114.75	118.75	122.25	124.50	114.25	108.75	103.25	101.00	101.00	101.00	101.00	106.00	108.75	107.50	102.75	103.00	102.75	104.00	105.00	107.25	105.75	104.75	106.50	108.25	106.00	107.25	106.50	106.50	108.00	108.50	107.75	108.50	120.25	126.25	127.50	126.50	121.75	110.75	112.25	125.50	137.00	142.00	154.00	157.50	166.75	172.75	172.50	173.00	167.00	155.00	155.00	157.25	160.00	171.75	176.00	179.00	186.00	171.00	166.75	187.50	173.50	171.25	184.50	168.75	175.75	181.00	172.75	173.75	173.75	172.75	172.75	171.25	171.25	174.75	169.75	174.50	172.50	173.50	177.50	183.00	177.50	175.75	186.25	176.50	167.00	163.75	166.00	178.00	179.50
79.75	82.25	76.75	74.00	73.00	73.00	73.00	73.00	73.00	73.00	75.00	79.50	80.75	77.50	80.25	76.75	72.00	72.00	75.25	82.25	74.50	74.25	80.00	80.00	83.00	83.00	82.00	80.25	78.00	75.75	73.75	73.00	73.75	73.25	73.25	73.50	73.00	74.00	74.75	74.75	76.00	76.75	76.25	75.00	77.00	79.50	83.00	83.25	80.75	80.00	87.25	115.75	131.50	131.50	141.25	148.50	152.50	152.25	151.25	149.00	145.75	145.50	146.75	149.00	150.50	149.75	147.25	146.75	147.00	143.25	129.25	113.50	97.00	97.00	97.00	97.25	110.25	129.25	131.50	131.75	132.50	129.25	125.25	124.00	125.50	128.25	126.75	122.00	115.75	116.00	114.75	118.00	120.75	122.25	118.50	117.25	123.00	136.25	143.25	149.00	138.50	125.50	130.00	140.50	142.75	139.50	132.00	126.50	121.00	119.25	112.75	106.75	103.00	100.75	98.00	95.75	100.00	108.00	111.50	113.50	112.50	111.75	115.00	112.00	116.25	115.50	113.00	110.25	108.00	105.00	104.50	107.25	109.25	111.50	114.00	116.25	113.00	115.75	118.00	112.00	110.25	112.50	115.00	112.00	107.00	105.25	106.50	110.25	114.75	115.50	113.75	114.00	114.25	115.25	121.00	125.00	121.00	119.25	120.25	120.75	119.50	119.50	120.50	119.25	117.75	117.25	118.25	118.00	116.00	117.50	115.25	104.25	99.50	104.25	101.50	101.00	101.00	101.00	103.50	109.25	110.00	102.75	103.00	107.00	105.75	104.00	105.25	106.00	105.75	106.00	107.25	107.75	106.25	106.75	107.00	107.50	108.00	107.75	108.50	113.00	112.50	124.00	125.50	117.25	112.75	117.25	123.50	134.50	145.00	159.75	166.50	161.25	162.00	167.50	173.75	162.25	155.25	155.50	158.50	161.75	178.50	182.25	185.00	179.50	165.00	174.00	190.00	167.00	176.50	175.00	167.00	181.50	177.25	175.50	176.25	180.00	178.75	174.75	174.00	174.50	174.50	172.25	176.50	178.25	172.25	174.00	182.00	179.00	180.25	172.25	177.25	173.00	162.25	166.00	170.75	182.75
80.25	79.25	73.25	73.00	73.00	73.00	73.00	73.00	73.00	74.50	77.00	80.25	80.50	77.00	80.00	76.50	72.00	72.00	76.50	84.75	78.25	79.25	80.25	82.00	86.00	83.50	79.75	77.00	76.00	75.50	74.75	73.00	73.25	73.25	73.00	73.00	73.75	74.00	75.00	75.75	76.00	75.75	75.25	77.50	79.25	82.00	82.50	82.00	80.25	81.00	89.75	117.50	120.25	126.00	142.75	148.25	153.25	153.00	151.75	149.25	146.75	146.50	148.00	151.25	150.75	148.50	145.75	145.25	144.75	139.00	120.25	104.25	96.75	97.00	98.00	99.00	117.00	132.00	132.50	131.75	136.25	129.25	125.75	124.25	125.25	127.50	126.00	120.25	114.25	113.75	113.25	114.75	118.50	120.25	115.50	115.50	122.50	134.25	140.25	145.50	136.25	119.75	121.50	136.50	142.00	139.00	129.25	123.25	118.75	116.00	108.75	103.50	102.00	97.25	89.75	88.50	94.00	104.75	107.00	111.75	114.25	111.50	114.00	111.00	114.75	115.25	110.75	108.50	107.50	104.75	106.25	109.75	111.50	112.50	112.75	118.25	114.75	115.25	120.25	115.25	113.00	113.00	114.75	112.00	108.75	106.00	106.50	109.00	114.75	115.50	113.50	113.25	116.00	116.50	123.75	125.00	121.25	120.25	121.25	121.00	120.25	120.25	123.25	123.75	121.25	121.25	119.50	112.00	107.00	107.00	107.00	105.50	103.00	102.50	101.25	101.00	101.00	101.25	106.50	110.75	111.50	103.75	102.75	107.00	106.50	104.25	105.00	105.50	106.00	106.00	107.25	110.25	106.50	106.25	107.00	108.25	107.50	108.25	109.25	109.00	110.00	123.00	124.00	117.50	113.00	119.50	128.25	136.50	148.50	165.25	171.00	163.00	161.25	167.00	170.50	161.75	157.50	156.50	158.75	162.75	180.25	186.00	185.25	175.75	165.25	179.50	188.50	169.75	179.25	168.25	169.75	183.00	177.00	173.25	172.75	177.75	179.75	175.50	175.25	174.00	173.25	171.75	174.00	178.25	173.25	178.00	180.75	180.25	179.25	170.75	181.00	176.50	162.50	164.75	175.75	187.75
75.25	73.25	73.00	73.00	73.00	73.00	73.00	74.50	77.50	81.50	81.75	79.50	78.75	77.75	79.00	76.50	73.50	74.50	80.50	80.75	81.75	80.50	78.50	83.00	88.75	75.50	75.25	75.75	75.50	76.00	76.25	73.25	73.00	73.00	73.25	73.00	74.00	75.75	75.00	75.50	74.75	75.50	77.75	80.25	79.75	81.00	81.25	81.50	80.25	83.50	90.50	98.25	122.25	139.75	153.50	153.00	154.00	154.50	153.00	149.75	150.25	151.75	153.50	154.50	151.00	145.75	139.75	128.50	121.75	119.25	108.50	103.50	107.25	110.00	109.25	118.75	135.25	135.00	134.00	135.50	132.25	125.00	125.00	125.25	125.50	124.00	118.75	115.50	111.50	106.75	105.50	110.50	113.50	110.25	114.00	119.00	121.50	129.25	133.50	139.00	137.75	119.00	117.75	130.50	139.75	136.25	124.75	121.50	117.25	108.75	99.25	92.25	87.25	82.50	82.00	82.00	85.75	98.75	100.75	109.25	114.75	113.50	111.75	112.75	110.75	111.50	106.50	104.00	109.75	112.50	113.00	114.25	116.00	114.25	112.75	116.25	117.00	114.50	118.00	116.50	108.75	107.00	107.50	107.75	111.00	112.00	107.50	109.50	114.25	117.00	117.00	118.75	121.75	119.25	126.50	128.50	126.75	125.25	128.75	127.50	126.75	126.25	127.75	129.00	124.25	121.50	108.00	101.00	101.00	101.00	101.00	101.25	101.75	101.00	101.00	101.00	101.75	108.50	113.25	107.75	113.50	106.75	102.50	109.75	109.25	105.00	104.75	105.25	104.50	105.50	107.75	114.00	111.75	111.00	108.75	110.25	110.75	108.75	108.75	109.25	112.25	123.75	119.00	112.25	112.75	125.75	140.75	148.50	157.25	163.00	163.75	171.00	171.50	171.75	163.25	162.25	167.50	161.75	160.00	163.50	175.00	186.75	181.75	176.00	173.75	179.00	175.25	184.25	181.25	166.25	176.75	177.00	174.75	170.50	173.00	175.25	174.75	172.00	175.25	176.25	176.25	173.75	175.75	179.75	179.00	182.25	180.25	172.50	183.00	174.75	182.00	181.50	165.00	165.25	184.75	183.00
76.25	73.00	73.50	74.00	73.75	76.50	80.25	83.00	82.50	81.25	80.50	79.50	79.50	82.75	80.50	80.50	80.75	79.00	77.00	78.75	78.50	78.75	82.50	87.00	78.75	76.00	76.00	76.25	76.75	81.75	80.25	73.75	73.00	73.00	74.25	75.75	76.50	74.50	74.25	75.75	76.25	76.00	79.75	80.00	80.25	80.75	81.50	80.75	81.25	82.00	86.25	93.50	123.50	147.75	154.50	154.75	156.00	155.50	154.25	152.00	152.25	154.50	151.25	149.00	139.50	123.25	114.75	107.25	103.75	107.50	114.50	119.75	129.00	131.50	135.75	143.25	139.25	136.25	133.00	133.50	132.75	127.00	124.50	124.50	124.50	119.75	114.25	109.75	100.75	99.75	103.75	109.25	105.00	105.25	114.25	120.00	121.00	122.50	126.75	132.25	137.25	123.00	117.00	120.50	133.00	132.50	119.50	114.50	110.00	106.75	97.50	89.00	83.75	82.00	82.00	83.50	93.00	105.00	110.25	115.00	114.50	115.75	112.50	108.75	106.25	103.75	108.50	107.00	111.50	118.75	119.50	116.50	118.00	117.25	114.75	123.00	119.25	117.25	118.00	117.50	108.75	104.75	105.50	111.25	114.50	117.25	110.25	112.25	117.50	119.25	119.50	123.50	123.50	120.00	125.00	129.50	134.00	134.50	133.00	130.00	129.50	130.25	129.00	127.50	117.75	107.75	101.00	101.00	101.00	101.00	101.00	101.00	101.00	101.00	104.00	106.00	111.00	113.75	112.00	109.50	110.25	110.75	107.00	105.75	106.75	104.25	104.25	104.75	106.25	109.00	105.50	110.00	106.25	109.50	108.50	109.75	112.50	113.00	111.50	109.75	111.25	116.00	114.25	109.50	113.00	121.00	151.25	162.25	156.75	159.00	158.75	161.75	170.00	172.75	162.50	161.00	165.50	163.75	160.50	161.75	174.75	183.75	180.25	181.00	178.00	166.50	165.75	182.75	178.75	175.25	176.75	174.50	175.75	173.25	174.75	177.00	178.75	172.75	171.25	173.50	176.25	176.75	177.25	178.00	174.25	183.25	180.50	176.50	175.00	172.25	188.75	176.75	165.00	167.75	175.50	182.75
80.00	73.75	78.25	80.25	79.75	81.50	82.75	81.50	81.00	79.50	79.50	80.00	83.00	83.75	81.75	79.50	76.75	75.00	76.25	78.25	77.75	80.00	85.75	82.25	76.75	76.25	76.75	78.00	76.75	78.00	75.75	73.75	75.75	75.25	74.75	75.50	75.00	75.25	74.75	74.50	75.50	77.75	81.25	80.00	79.75	80.25	81.00	82.25	82.50	81.25	84.75	99.00	138.00	155.50	158.00	158.00	158.00	156.25	154.75	146.00	138.25	130.00	126.50	120.50	114.25	106.75	101.75	102.75	111.00	112.25	127.25	134.00	141.50	143.00	145.75	144.00	139.50	134.75	132.75	133.00	131.75	128.25	125.50	124.00	122.50	118.25	112.50	107.50	100.00	100.25	106.75	108.25	103.00	102.00	108.00	114.25	116.75	120.50	124.25	129.75	135.75	124.00	119.50	124.50	133.25	131.75	119.50	116.75	113.75	112.50	102.00	88.00	82.50	83.25	87.50	93.75	101.00	111.25	115.00	117.25	117.75	116.25	113.25	103.50	99.75	101.75	110.50	109.50	111.25	114.50	118.25	118.75	118.00	118.50	115.00	119.50	118.25	116.25	115.50	117.00	112.25	109.00	111.00	114.50	117.25	120.25	114.50	114.50	117.50	118.75	119.50	122.00	122.00	120.75	125.25	132.75	137.25	136.50	135.75	132.00	130.75	129.75	123.75	121.00	112.00	105.00	101.00	101.00	101.00	101.00	101.00	101.00	101.00	101.00	102.75	104.25	108.75	111.00	109.50	109.25	108.50	107.75	103.25	106.50	107.75	103.75	104.00	105.25	109.50	107.00	101.75	105.50	106.50	111.25	109.75	108.25	109.25	113.50	115.25	111.00	112.50	116.75	119.00	110.50	113.75	120.00	152.00	164.00	156.25	156.50	156.50	159.25	169.00	172.25	164.75	160.25	160.50	159.25	158.50	160.50	172.75	182.75	179.25	180.50	180.00	174.75	174.00	177.00	176.00	175.25	174.75	172.75	176.25	172.25	171.50	173.25	178.25	174.50	173.75	174.50	178.00	180.25	179.75	179.25	176.00	180.00	179.50	174.00	167.75	176.00	188.25	178.25	169.50	167.75	178.25	182.50
81.00	74.50	82.75	85.00	84.00	82.25	81.25	80.00	79.75	78.75	79.00	81.75	85.00	83.50	82.50	79.00	74.00	74.75	79.00	79.50	78.75	80.25	85.50	78.50	76.75	77.00	77.75	78.25	74.25	73.50	74.25	75.75	78.75	76.00	73.50	74.00	74.50	75.25	74.25	72.25	74.25	79.00	81.25	79.75	79.25	79.00	80.75	84.25	83.00	80.75	86.50	111.00	154.75	161.75	163.25	162.25	159.75	156.50	151.50	128.25	110.75	100.25	98.75	93.00	94.00	95.75	97.75	107.75	125.25	120.75	143.50	148.25	150.75	149.50	148.75	143.75	138.25	133.75	133.75	133.25	131.00	128.75	126.50	125.00	122.00	117.75	111.75	106.75	101.25	103.25	109.50	108.00	102.75	100.75	104.75	111.25	116.00	119.50	121.75	127.00	133.25	129.00	127.25	135.75	137.75	131.50	121.00	119.50	114.75	112.75	103.00	87.00	84.25	88.25	97.00	104.00	107.50	115.50	119.25	117.75	119.50	117.00	113.25	103.75	103.00	109.00	111.00	111.25	109.50	109.75	115.25	118.75	119.00	119.50	116.75	118.50	119.50	114.50	113.75	115.75	115.50	114.00	116.25	116.25	118.25	120.50	121.00	119.00	122.25	121.75	120.75	122.25	121.75	121.75	126.25	136.50	138.25	138.00	140.50	134.75	131.50	128.25	117.00	111.50	105.50	104.00	101.00	101.00	101.00	101.00	101.00	101.00	101.00	101.00	101.00	101.00	104.50	108.50	108.50	108.50	108.25	106.50	104.50	108.50	106.00	103.25	105.50	108.50	111.00	102.00	98.50	106.75	111.50	113.75	113.00	107.75	106.25	109.75	115.50	114.00	113.50	122.00	122.00	112.25	113.75	123.75	157.00	161.50	156.00	155.00	155.25	158.75	167.50	172.00	166.50	160.25	158.00	155.75	156.75	159.25	169.50	181.25	178.00	178.25	179.50	183.00	183.25	174.25	176.00	176.75	173.25	171.00	177.25	172.25	170.75	172.25	175.50	176.75	176.00	177.75	178.25	181.25	180.25	182.25	181.00	177.00	180.00	167.50	166.75	180.50	184.00	181.50	173.50	169.25	183.50	176.00
75.75	75.75	83.25	81.50	79.75	80.75	80.00	79.75	80.00	81.25	84.50	82.75	83.25	82.75	80.00	81.50	83.00	82.75	82.50	79.50	78.00	77.50	77.50	77.00	79.00	80.00	78.75	74.50	73.00	76.50	81.00	81.25	75.25	73.00	74.75	78.50	77.25	72.25	72.50	73.75	74.50	78.75	79.50	79.00	79.75	79.50	80.25	82.00	80.50	80.50	89.25	117.00	144.75	156.75	162.00	162.50	157.00	147.50	128.50	91.75	85.50	86.25	86.75	89.00	91.50	96.50	104.00	124.00	138.50	137.75	153.25	154.25	153.00	152.75	149.50	142.75	137.25	135.50	135.75	132.75	131.25	129.50	128.50	126.75	123.25	117.75	110.75	107.25	105.50	107.75	106.75	105.00	104.50	107.50	112.25	115.00	110.75	106.75	109.50	122.75	128.75	137.00	139.25	142.50	136.00	133.25	123.75	119.00	112.00	108.25	104.75	99.75	102.00	101.50	108.00	115.25	116.00	116.00	118.50	121.25	119.25	116.75	113.00	112.25	115.50	117.25	113.75	116.25	110.75	111.00	120.25	118.25	118.00	118.00	118.00	119.00	122.75	120.50	121.50	117.75	116.50	119.75	116.25	114.75	116.75	118.75	126.50	128.50	134.00	134.50	132.75	135.25	136.00	130.00	132.25	138.25	135.25	135.25	136.25	130.50	127.25	127.25	112.25	101.25	101.00	101.00	101.00	101.00	101.00	101.00	101.00	101.00	101.00	101.00	101.00	102.00	104.00	107.50	109.00	108.00	108.25	110.00	109.00	107.00	103.00	105.50	115.75	116.50	115.00	106.75	103.75	107.25	108.00	107.25	114.75	107.25	106.50	106.25	113.25	115.00	110.50	113.50	120.25	117.75	121.00	150.50	162.75	161.75	156.00	155.00	155.25	158.75	161.00	166.25	165.25	159.75	154.25	153.50	154.00	156.50	164.50	175.25	175.00	170.50	169.50	180.00	181.25	171.25	169.25	176.00	175.25	172.50	177.75	173.00	174.75	175.25	174.00	175.00	175.25	176.00	177.25	181.00	177.25	184.25	182.50	184.50	180.75	166.25	171.75	178.00	179.75	182.25	176.25	175.75	178.00	166.00
79.75	85.25	81.25	80.75	81.75	80.00	80.50	80.25	81.00	83.25	84.00	81.75	80.50	81.50	79.75	79.25	82.00	79.50	78.00	77.25	78.00	78.50	78.25	81.50	84.50	76.25	74.50	75.25	76.75	79.50	77.50	74.75	74.00	73.75	76.25	75.50	73.00	72.25	73.75	73.25	75.25	78.50	79.50	78.75	77.75	78.25	81.00	81.75	79.50	80.00	82.25	92.50	125.25	144.25	154.75	156.75	130.25	108.50	91.50	82.50	83.25	85.25	86.50	89.50	93.00	106.25	126.75	149.25	151.50	143.75	156.00	155.75	153.50	151.50	147.25	142.50	139.00	136.50	136.75	135.50	133.25	131.75	129.25	126.25	121.75	114.00	102.50	98.75	98.50	97.25	97.00	99.50	104.25	111.00	113.00	109.25	99.75	101.50	113.50	124.75	127.25	135.25	139.25	139.25	136.00	134.00	128.75	123.00	115.00	113.25	110.25	108.25	107.00	105.00	111.00	120.00	121.25	118.75	115.75	117.25	117.00	117.00	115.75	118.00	117.75	118.75	118.25	120.25	115.25	114.50	123.25	122.25	122.25	116.75	113.00	114.75	119.00	116.75	120.00	120.50	118.00	118.25	119.25	117.25	119.75	123.00	127.00	129.25	133.50	136.75	137.25	138.25	140.25	141.75	140.25	134.75	132.75	128.00	128.75	129.00	123.75	120.25	108.75	101.00	101.00	101.00	101.00	101.00	101.00	101.00	101.00	101.00	101.00	101.00	102.75	107.75	109.00	107.00	106.50	109.50	106.75	105.00	103.25	106.25	108.50	110.25	113.50	113.00	116.75	113.50	106.75	102.25	99.00	110.50	108.25	106.25	108.00	107.00	109.75	112.75	111.75	108.00	111.00	126.50	135.25	161.25	159.00	162.25	159.75	154.75	154.50	157.75	160.50	165.50	165.50	156.75	152.75	151.25	152.25	154.50	159.50	170.75	171.75	169.25	173.75	177.00	176.50	174.50	174.50	172.25	176.25	174.25	176.50	173.25	175.50	178.25	174.00	175.25	179.75	179.25	179.75	183.25	183.25	184.50	181.50	186.50	186.25	176.25	173.25	172.75	183.75	187.75	180.25	176.00	172.50	166.25
85.75	83.50	80.75	81.25	82.00	80.50	82.50	83.00	82.50	83.25	83.50	81.50	80.25	80.25	79.25	78.50	79.25	78.75	78.00	77.75	78.75	78.50	78.75	81.75	79.25	76.00	78.75	80.75	78.50	75.75	74.25	74.50	79.25	75.25	74.50	72.50	72.25	72.25	73.25	72.50	78.00	78.25	78.50	78.75	77.25	78.75	81.25	82.50	80.25	79.50	80.50	86.00	112.75	129.50	154.25	150.50	116.00	93.50	84.75	82.00	83.25	84.75	87.50	93.00	101.25	128.25	144.00	156.25	157.00	149.75	158.00	156.25	152.50	151.50	147.75	144.00	139.25	136.50	137.00	134.75	132.75	128.50	124.25	118.50	111.75	105.25	98.00	97.00	97.00	97.00	97.00	99.00	106.00	110.75	111.75	109.75	101.75	108.50	117.50	124.75	127.75	136.25	137.75	137.50	136.50	133.50	131.00	126.25	117.50	114.50	111.25	107.75	110.75	110.50	112.75	120.25	122.75	119.75	119.00	118.50	118.25	117.50	118.75	120.50	119.75	119.25	120.00	122.00	121.00	117.50	121.50	125.00	122.25	118.00	114.75	116.00	121.00	117.75	118.00	117.25	115.50	116.25	119.50	121.25	125.00	128.00	132.75	134.00	136.50	137.75	137.25	137.00	137.25	140.00	137.50	133.50	132.25	126.50	124.25	125.75	123.75	119.25	110.25	101.00	101.00	101.00	101.00	101.00	101.00	101.00	101.00	101.00	101.00	101.50	106.75	110.25	109.50	106.25	107.25	107.50	105.25	107.25	109.50	113.75	112.00	107.50	107.50	107.25	112.25	113.25	101.00	99.75	104.50	110.00	107.25	109.25	114.00	108.25	107.00	108.50	109.75	107.75	108.75	131.25	145.25	160.75	158.50	157.25	159.75	158.00	157.25	157.25	158.50	163.00	164.50	155.00	150.75	150.00	151.75	153.75	156.75	169.25	173.25	171.75	172.75	171.75	171.50	173.75	174.50	178.00	180.50	174.00	177.50	172.75	172.75	177.25	175.50	175.50	180.00	182.25	179.50	181.75	184.50	180.75	174.25	184.75	185.75	180.75	171.50	172.00	185.00	187.75	176.25	183.25	181.00	174.25
85.75	81.25	81.75	82.00	81.50	81.50	83.50	84.75	83.25	82.25	83.00	81.75	80.00	80.00	78.75	78.25	79.25	79.00	78.50	78.50	79.00	78.25	79.00	78.50	77.25	80.75	83.75	82.50	77.50	73.50	75.25	79.25	80.25	75.00	74.25	74.75	76.00	75.00	73.25	73.50	79.50	78.00	77.75	78.50	77.75	78.50	80.75	83.00	81.50	79.25	79.50	82.00	96.25	117.25	150.75	138.00	102.50	84.50	82.00	82.00	82.50	85.00	90.00	100.50	115.25	151.25	159.50	161.00	159.50	153.75	159.00	156.75	152.75	152.25	149.75	144.00	138.00	135.00	134.50	132.25	131.00	121.75	113.50	105.25	100.00	97.25	97.00	97.00	97.00	97.00	97.50	102.00	108.75	111.75	112.75	111.50	103.00	112.75	119.25	125.25	128.50	135.75	136.50	136.50	136.75	134.25	132.00	127.25	120.00	115.75	109.75	105.00	113.25	116.00	116.50	118.25	123.00	119.25	121.75	123.50	120.75	118.25	119.25	121.50	122.00	121.50	121.50	123.50	127.00	122.00	120.25	127.75	122.00	116.75	115.75	118.00	122.75	120.50	121.75	118.00	115.50	117.25	120.00	123.50	129.25	131.75	138.25	138.75	139.50	139.50	136.50	135.50	134.75	137.25	136.25	133.50	132.50	126.25	121.50	124.75	125.50	121.50	114.00	101.50	101.00	101.00	101.00	101.00	101.00	101.00	101.00	101.00	101.00	106.00	109.00	111.00	110.25	107.50	106.50	104.25	103.75	109.00	114.25	119.25	112.75	106.25	106.50	107.00	110.00	108.50	96.25	104.25	110.75	108.00	106.25	113.00	118.50	111.75	106.75	107.00	108.25	108.25	110.75	139.25	149.75	160.50	158.25	152.75	156.00	157.25	155.75	155.25	155.25	158.75	162.50	153.50	148.50	149.00	151.50	153.00	156.75	170.75	174.00	171.50	170.75	166.00	167.00	167.75	168.75	180.75	183.25	176.50	179.50	176.00	173.00	175.75	178.00	177.75	177.50	182.25	180.75	183.25	184.00	174.50	170.00	179.50	184.75	182.00	170.75	171.25	185.50	186.00	174.50	184.75	189.50	184.00
83.50	83.75	82.50	81.25	81.50	81.75	82.25	82.50	82.75	81.50	81.50	81.25	80.50	79.00	79.00	79.25	79.00	79.25	79.50	79.00	78.25	78.50	79.00	81.75	83.50	80.50	77.75	75.75	75.25	80.50	86.75	82.00	73.00	73.00	79.75	84.00	81.75	76.00	78.00	79.50	79.00	76.75	77.75	78.00	76.00	79.50	80.75	83.00	83.00	80.75	80.25	81.00	98.50	126.50	141.50	116.00	88.75	81.50	81.25	81.75	82.75	89.25	96.75	121.25	144.00	160.75	162.25	161.25	155.50	155.00	161.50	160.00	158.00	156.00	150.50	142.75	134.25	125.00	121.50	121.00	122.25	114.50	108.75	101.25	97.00	97.00	97.00	97.00	97.00	97.00	100.25	106.00	110.25	114.75	113.25	108.25	111.25	112.25	118.00	124.75	129.00	133.25	136.50	137.00	137.00	136.75	132.00	126.00	122.25	120.25	108.25	102.25	107.25	117.00	119.00	116.25	119.50	122.75	120.25	125.50	125.25	120.25	119.50	121.25	122.75	124.50	122.25	123.00	126.00	128.75	120.50	122.50	125.75	123.25	120.00	117.00	115.75	117.25	119.75	123.25	123.50	122.25	124.75	128.00	131.25	133.50	137.50	134.50	136.75	142.50	136.50	133.50	134.00	139.75	140.50	135.75	134.75	130.00	123.75	125.50	129.50	125.00	119.00	108.50	101.00	101.00	101.00	102.50	102.75	103.50	102.75	103.00	106.00	112.00	111.25	108.50	107.25	103.75	103.00	103.00	103.00	103.75	106.50	115.50	111.25	103.25	111.25	117.25	114.75	102.25	105.75	110.75	108.00	104.00	104.00	113.00	116.75	115.75	114.50	114.25	124.25	128.50	136.50	146.00	151.00	157.25	157.75	152.25	149.50	149.00	149.25	150.50	153.25	158.25	160.75	154.75	147.00	147.75	154.50	158.00	168.00	171.25	169.50	164.50	165.50	162.75	165.00	159.00	167.25	181.50	180.50	177.50	180.00	180.50	178.25	177.50	183.00	181.50	179.50	178.50	183.25	188.00	183.50	169.75	169.25	177.75	185.25	184.50	170.50	172.00	185.00	187.75	176.25	174.25	190.25	179.00
81.75	82.25	82.00	82.00	81.75	82.00	81.75	81.75	81.50	82.75	81.50	81.00	79.75	78.75	79.25	79.75	79.50	79.50	79.75	79.50	78.75	78.00	77.75	79.00	77.00	74.50	74.50	75.75	80.00	81.75	76.00	73.75	73.00	77.75	81.50	77.00	73.00	74.75	79.50	78.75	77.50	76.00	77.00	78.00	77.25	78.50	79.00	81.50	83.75	82.00	79.75	80.25	90.75	95.00	93.00	83.00	81.25	81.25	81.50	82.75	85.75	98.25	119.00	153.75	161.00	164.50	162.75	162.00	157.00	162.00	164.00	163.00	159.00	156.50	147.75	135.75	127.00	123.00	122.75	118.00	126.50	121.00	112.75	99.25	97.00	97.00	97.00	97.00	97.00	97.00	105.75	111.00	115.75	116.75	112.75	106.75	112.50	112.75	115.25	123.25	126.75	130.25	133.50	135.75	134.50	128.50	132.75	127.00	124.25	123.00	114.25	106.75	102.75	115.00	121.00	119.75	120.00	126.00	123.00	123.75	126.00	126.25	120.75	122.50	125.50	126.00	126.00	124.50	124.75	130.25	123.25	119.50	122.75	127.00	126.50	121.00	114.25	114.25	116.25	121.00	124.00	126.75	127.75	128.25	126.50	125.25	123.25	124.25	136.00	143.50	141.00	140.00	139.25	144.50	142.75	139.50	134.75	126.00	120.00	122.25	126.00	125.25	123.75	116.25	106.00	102.00	101.75	101.75	101.25	108.00	104.75	111.00	112.50	112.00	112.25	106.00	103.25	103.00	103.75	105.25	107.25	109.00	112.00	112.75	109.75	105.50	111.00	115.75	118.25	117.25	116.75	111.00	108.25	104.00	106.00	114.25	121.00	121.50	123.75	125.00	137.25	140.75	146.50	148.00	147.25	151.25	160.00	155.50	153.75	148.75	147.75	149.25	150.00	157.75	160.50	155.50	147.25	151.50	163.25	162.00	167.50	164.25	165.00	162.50	163.25	162.25	161.75	151.25	166.00	174.00	171.00	171.25	171.50	177.25	175.25	171.25	178.50	184.25	181.25	180.00	177.50	183.00	179.25	170.00	175.75	179.50	177.50	180.50	170.00	172.25	183.25	190.25	176.25	178.75	176.00	170.50
82.00	81.75	82.00	81.75	81.75	81.75	81.50	82.00	83.25	82.50	81.25	79.75	79.50	79.00	79.50	80.25	79.25	79.25	80.25	79.25	79.25	79.25	79.00	77.50	75.75	75.25	78.75	77.75	78.00	76.25	73.00	73.00	73.50	78.00	81.00	77.25	75.75	74.25	79.00	77.00	76.50	77.50	77.00	77.25	77.50	77.50	79.75	82.00	83.50	82.00	79.50	80.00	83.00	83.50	81.50	80.75	81.00	81.00	81.50	85.25	90.00	123.25	145.25	163.75	166.50	167.25	165.00	163.50	159.25	163.25	164.50	163.25	158.75	154.25	141.50	130.75	129.25	128.00	125.50	126.25	131.50	122.75	112.00	98.25	97.00	97.00	97.00	97.00	99.50	103.00	110.75	115.75	116.50	111.75	109.75	108.75	112.75	113.50	116.25	122.25	123.25	129.50	132.75	130.50	124.25	127.50	133.75	129.50	126.25	124.50	116.75	106.75	102.75	117.25	125.00	125.25	125.75	124.00	124.00	123.50	125.00	126.25	123.00	123.25	126.25	126.75	125.25	124.50	124.00	127.00	125.25	120.75	124.00	126.25	126.00	122.25	117.50	116.50	116.25	119.50	124.25	127.25	126.75	124.50	121.00	120.50	119.25	124.00	136.75	143.50	143.50	143.25	144.00	142.00	139.25	136.50	133.25	126.00	121.50	121.50	124.25	127.25	126.50	119.00	114.00	109.50	104.00	105.25	106.25	104.25	105.25	114.50	113.00	110.00	109.75	106.75	105.00	103.25	103.75	104.75	105.75	111.00	113.25	110.00	111.25	112.75	111.50	114.50	118.25	117.50	112.00	106.25	105.50	108.25	112.00	115.50	122.25	123.25	124.25	116.00	136.25	142.50	145.50	148.00	148.50	150.25	158.00	155.25	157.00	152.75	148.75	148.25	152.25	158.25	157.75	155.75	149.75	153.00	162.00	159.25	165.50	163.50	163.25	162.50	157.25	148.00	145.50	145.50	156.00	168.00	168.25	168.00	170.75	174.50	171.00	167.75	174.75	182.75	178.25	179.25	179.75	183.00	175.25	175.75	183.00	180.25	179.50	175.75	170.25	174.25	185.25	187.75	182.50	181.75	171.25	169.50
82.00	82.00	82.00	81.00	81.50	81.50	81.50	81.50	84.00	81.00	79.50	79.00	78.50	78.50	79.50	81.50	78.50	80.00	83.00	81.50	81.50	84.50	81.00	76.00	77.00	84.50	82.00	73.50	73.00	75.50	73.00	73.00	73.00	77.50	83.50	83.50	78.00	73.50	78.00	77.50	77.50	76.50	75.50	77.00	78.00	78.00	80.50	81.50	83.50	80.50	79.50	80.00	79.50	80.00	80.50	80.50	81.00	82.00	84.50	90.50	102.50	154.50	168.00	169.00	170.00	172.00	168.50	165.50	164.00	165.00	164.50	162.50	154.50	147.50	134.50	135.00	137.00	132.50	130.00	137.50	133.50	123.00	113.00	109.00	105.00	101.00	99.50	104.50	111.50	114.50	117.50	119.00	112.50	105.50	106.50	111.00	113.00	114.50	114.50	119.00	121.00	119.50	120.00	115.00	114.50	132.50	139.00	136.00	129.00	125.50	118.50	106.50	104.50	121.50	127.50	127.50	131.50	123.50	124.50	125.00	127.00	126.50	126.50	123.00	125.00	127.00	125.50	124.50	127.50	125.50	125.50	126.00	125.50	121.50	120.00	117.00	116.50	125.00	122.00	120.00	127.00	125.50	120.50	116.50	114.00	117.00	120.00	122.00	135.50	140.00	141.50	144.50	141.50	135.00	132.50	134.00	133.50	129.00	125.50	124.00	124.50	126.50	129.50	124.50	117.50	119.00	113.50	114.00	114.50	107.00	107.50	115.50	112.00	107.50	106.00	104.50	104.00	103.00	103.00	103.00	105.50	113.00	111.00	107.00	111.00	120.00	118.50	116.00	117.00	115.00	104.00	104.00	107.50	118.00	118.50	114.00	119.50	124.50	121.00	107.50	122.50	141.00	146.00	148.50	154.00	152.00	152.50	156.00	158.00	153.00	154.00	151.00	155.00	157.50	153.00	155.50	152.50	156.00	159.50	158.00	162.00	162.50	161.00	160.00	142.00	130.00	133.00	140.00	146.00	164.00	166.00	164.50	171.50	172.00	171.00	171.50	178.50	179.00	175.00	181.00	183.00	173.50	172.50	182.50	186.00	186.50	187.50	172.00	174.50	183.00	187.00	184.50	192.50	174.50	170.50	170.00
81.25	81.00	82.00	81.75	81.50	80.25	80.50	81.50	81.75	80.00	79.50	79.75	78.75	79.00	82.25	87.25	82.00	84.25	85.75	84.00	82.75	80.25	76.75	77.25	83.75	83.75	75.50	73.00	73.75	82.25	78.00	76.50	79.50	81.25	79.00	75.50	72.50	74.50	78.50	80.75	76.25	77.25	76.75	78.25	78.75	78.25	80.00	82.00	82.25	80.00	79.00	79.75	80.00	80.25	80.75	81.00	83.00	84.50	87.75	101.00	126.00	162.75	167.25	169.25	173.75	174.50	170.75	167.75	166.00	165.50	163.25	161.75	152.00	145.50	145.25	145.00	141.75	138.25	137.75	141.00	134.75	124.75	117.75	115.50	112.75	110.25	111.50	113.00	113.75	114.00	120.00	116.75	111.25	110.00	111.75	109.00	114.00	114.50	114.50	114.50	114.50	114.25	118.75	123.00	123.75	138.00	142.75	140.25	131.50	127.00	119.75	108.50	104.50	120.00	127.75	127.25	129.75	125.25	126.25	125.75	126.75	128.00	126.00	124.25	123.75	124.25	124.50	126.25	126.25	126.25	124.75	127.75	128.25	121.50	118.00	117.50	118.00	124.75	125.50	119.25	121.00	120.25	118.50	114.50	115.00	117.25	120.00	123.00	137.00	139.50	140.00	143.50	139.50	132.00	132.00	133.75	133.00	131.50	130.25	126.50	124.00	124.25	132.50	123.50	119.25	121.25	116.50	113.75	114.00	108.25	111.00	118.25	114.75	112.50	108.00	103.00	103.00	103.00	103.00	103.00	110.75	114.75	108.75	104.50	106.50	119.25	121.00	117.25	118.75	116.25	104.75	109.25	115.75	118.00	121.50	119.25	120.00	122.00	122.25	113.75	119.00	142.25	145.25	148.25	151.25	153.00	154.75	152.00	150.50	150.25	156.75	153.00	156.75	156.75	151.50	154.75	153.00	156.00	157.00	159.25	161.50	160.75	154.25	139.25	128.25	132.25	137.00	140.25	150.75	163.75	156.50	159.50	169.75	171.25	173.50	177.00	179.50	180.00	181.25	180.75	175.50	170.75	173.25	179.75	182.50	192.25	187.00	173.25	182.75	188.50	187.50	187.25	182.50	171.00	171.75	172.50
80.75	81.25	81.50	82.50	81.00	83.50	81.75	80.00	80.50	81.75	83.00	84.00	82.00	84.00	86.50	85.75	84.75	85.00	82.50	77.75	75.25	75.50	79.00	85.00	84.50	81.50	75.00	74.00	78.25	80.50	79.00	80.50	75.75	72.00	72.25	72.00	73.25	81.25	75.50	77.75	75.25	77.25	77.50	78.25	79.25	79.25	80.25	83.00	81.25	79.75	80.25	80.00	81.25	81.50	82.25	83.75	88.25	91.00	98.00	140.50	159.25	166.25	166.75	169.50	175.25	177.25	175.25	172.00	168.50	167.50	165.25	163.00	158.75	161.75	157.25	152.25	148.50	146.25	145.00	144.50	137.50	128.00	122.25	118.00	114.25	109.25	110.00	110.50	113.75	118.25	119.75	115.50	115.25	115.50	114.50	110.50	113.75	113.25	113.00	115.25	119.00	126.25	132.50	134.75	135.75	137.25	144.50	141.25	132.75	126.50	114.25	102.50	104.50	120.25	131.00	130.75	129.00	127.75	127.75	127.50	127.25	128.00	124.25	122.25	115.25	109.50	114.75	125.75	126.50	125.00	121.75	120.75	120.25	119.50	114.25	112.25	116.00	123.00	128.00	122.75	115.25	111.75	114.25	114.50	114.75	116.25	121.75	128.50	139.50	141.00	139.75	138.00	133.50	130.75	132.00	137.75	140.25	141.25	139.00	130.00	125.25	126.75	133.25	121.00	121.75	128.25	123.75	119.75	117.75	117.00	113.25	116.75	115.50	113.75	108.75	103.50	103.00	103.00	103.00	103.00	113.50	116.00	109.00	101.00	102.50	119.50	120.50	110.50	108.50	106.00	110.50	116.75	113.75	109.50	119.50	122.00	121.00	119.00	118.50	119.25	128.50	142.50	144.75	144.25	144.00	148.50	154.25	150.00	148.00	149.75	155.50	153.50	155.25	155.25	150.50	153.25	149.75	153.50	157.00	158.25	159.75	160.75	152.25	138.25	130.00	140.00	138.50	152.25	160.25	145.00	141.50	158.75	168.50	172.25	177.50	179.25	181.75	181.50	179.00	176.00	172.50	173.25	174.50	175.75	176.50	188.00	176.50	175.75	179.00	182.50	191.00	186.25	172.00	170.25	177.50	182.50
80.00	80.25	79.50	79.50	85.50	81.50	81.50	83.75	81.50	84.00	82.75	79.00	75.75	78.00	80.50	77.50	75.75	73.25	74.50	74.50	79.50	84.50	83.00	77.75	76.75	80.75	78.25	78.25	79.25	78.75	79.75	75.50	72.00	72.00	73.00	77.50	80.50	81.25	76.50	77.25	77.00	76.75	78.75	77.50	78.75	80.25	80.75	81.75	80.25	79.50	80.00	80.50	83.75	83.50	86.75	90.00	97.75	105.50	135.00	162.00	161.75	165.25	166.25	168.75	171.00	171.75	176.50	174.75	173.25	171.50	167.00	165.75	165.50	163.00	157.50	154.00	151.00	150.50	150.00	148.00	141.00	133.50	129.50	122.75	115.00	111.00	114.50	118.00	123.75	122.00	116.50	113.75	112.75	112.00	112.50	111.50	113.00	112.50	113.50	115.25	120.25	128.25	133.00	135.75	134.00	138.00	138.00	140.00	131.00	122.75	113.00	108.50	119.50	127.25	133.25	134.25	132.50	131.75	127.00	125.25	128.25	128.50	118.25	106.50	103.00	103.00	103.00	113.25	125.25	125.25	125.00	121.75	113.50	109.00	114.75	115.50	113.25	117.50	118.75	117.25	115.75	115.50	114.00	114.25	120.00	120.75	128.25	130.50	141.50	143.25	138.50	135.50	133.25	136.25	141.75	146.00	145.75	145.75	141.25	133.75	126.00	128.00	134.50	131.75	131.50	133.25	131.00	125.50	118.00	119.75	116.50	115.50	117.25	114.50	108.00	104.50	103.25	103.00	103.00	103.50	113.50	118.25	113.50	105.25	103.75	121.25	122.00	115.75	108.75	111.25	116.50	115.25	114.50	106.50	111.25	121.00	116.75	112.00	120.50	124.50	136.50	140.75	143.75	142.00	147.25	155.75	153.50	156.00	151.00	149.25	154.75	156.00	152.75	153.00	151.50	151.75	150.50	151.75	150.75	149.50	147.00	152.75	145.25	135.50	130.25	140.75	141.25	151.25	137.75	131.00	131.75	147.50	169.25	173.25	174.75	177.50	176.00	169.50	171.00	168.75	170.50	172.00	175.75	176.25	180.50	186.00	180.50	174.25	174.00	179.00	192.25	180.25	170.75	171.50	185.75	189.75
82.50	82.50	81.00	83.00	88.50	80.50	81.00	85.00	86.50	83.50	81.50	75.50	73.00	73.00	76.00	73.00	73.00	73.00	74.50	77.00	82.00	75.50	74.00	74.00	79.50	83.50	80.50	79.50	83.00	81.00	77.00	73.00	72.00	72.00	81.00	85.00	81.00	76.50	76.50	78.00	77.50	79.50	77.50	77.50	78.50	79.50	79.00	80.50	79.50	79.50	80.00	81.00	85.00	85.50	91.50	98.50	114.50	130.50	152.00	158.50	158.50	163.00	165.00	161.00	148.00	167.50	176.00	176.50	175.50	172.00	169.50	168.00	165.00	161.00	153.00	151.50	152.50	151.50	151.00	148.50	144.50	139.00	133.50	126.00	119.00	116.50	122.50	126.50	122.00	117.00	114.50	112.50	111.50	110.50	111.00	113.00	119.50	115.00	112.50	114.50	115.50	126.00	132.00	136.00	137.00	135.00	142.00	138.00	126.50	118.00	117.50	123.50	125.00	122.50	127.50	128.50	126.50	116.50	105.00	104.50	109.00	123.50	114.00	103.50	103.00	103.00	103.00	106.50	118.50	114.50	119.00	123.00	116.50	108.00	111.50	119.00	117.00	122.00	121.50	115.00	112.00	111.50	113.00	119.50	122.00	129.50	135.50	134.50	141.00	141.00	136.50	135.00	136.00	142.50	146.00	147.50	147.00	145.50	142.00	136.00	126.50	127.50	135.00	136.00	131.00	134.50	137.50	132.00	121.50	121.00	118.00	114.50	114.50	106.00	103.00	104.00	107.00	104.50	105.50	107.00	106.50	112.00	115.00	106.50	107.50	115.50	114.50	113.00	109.50	115.00	110.00	106.00	111.00	103.50	113.50	119.50	114.50	114.00	123.00	129.50	136.00	138.50	141.50	140.50	149.50	157.00	147.50	154.00	155.50	149.00	149.00	157.00	152.50	148.00	147.50	148.50	146.00	147.00	147.00	144.00	137.50	139.50	129.50	128.50	128.50	143.00	147.00	141.00	136.50	131.00	133.00	153.00	173.00	173.00	171.00	175.50	166.00	166.50	176.00	167.00	169.50	167.50	173.50	178.50	184.50	188.50	186.50	173.00	173.50	182.50	191.50	177.50	171.50	172.50	191.00	188.50
81.00	80.75	82.00	87.25	84.25	80.00	80.50	85.75	82.25	79.00	77.00	77.25	77.25	76.25	73.00	73.00	73.00	80.25	82.50	80.75	76.50	74.25	76.50	81.25	81.00	79.50	80.00	79.00	77.75	77.00	77.25	80.00	72.00	73.00	84.25	81.75	78.50	78.00	77.00	76.00	76.25	78.50	76.00	77.50	77.50	78.00	80.75	80.75	79.25	79.25	81.25	82.25	86.00	88.50	99.50	118.75	135.00	155.75	161.25	158.50	155.75	139.75	135.00	119.00	119.25	135.50	163.25	175.50	175.25	172.50	170.50	168.25	162.75	157.75	148.50	142.50	144.25	147.25	150.25	151.25	148.75	143.00	136.25	127.75	121.75	120.50	124.75	123.00	119.00	117.25	119.25	117.00	115.50	119.25	118.25	114.50	116.00	117.00	114.25	116.50	119.75	123.75	130.50	135.25	137.25	139.00	139.75	134.50	126.25	123.50	126.25	127.00	126.50	122.50	114.75	110.75	110.00	104.00	104.00	104.00	104.25	115.00	104.75	103.00	103.75	103.75	103.75	107.00	113.25	109.25	112.25	114.25	114.50	111.00	112.00	118.00	122.50	121.75	123.75	120.50	117.00	117.75	120.00	121.00	126.75	136.00	141.50	138.00	142.25	144.50	141.25	139.75	140.00	143.75	146.25	145.50	144.25	141.25	139.50	135.75	132.25	135.75	140.00	134.75	128.25	131.50	136.00	133.50	130.75	125.75	121.75	119.75	111.50	103.25	103.00	103.00	104.50	108.00	110.75	109.25	99.00	103.75	115.00	117.75	118.75	108.00	108.50	111.75	112.50	111.00	102.75	113.00	111.50	113.50	120.50	123.50	123.00	122.00	125.75	129.75	137.00	139.00	137.50	143.50	151.00	154.50	147.75	149.00	154.25	152.50	152.25	149.00	150.25	147.75	145.75	139.50	143.25	145.25	142.75	140.25	139.75	134.25	130.25	127.50	138.00	146.25	140.75	135.50	137.25	133.00	133.50	153.00	173.00	171.50	170.25	171.75	164.50	176.25	170.75	164.75	165.75	166.50	172.75	179.25	182.75	191.50	187.00	174.00	180.75	187.50	186.25	176.00	173.50	178.75	188.25	179.75
79.75	80.00	81.25	86.75	82.25	80.25	84.00	82.50	81.00	78.25	76.50	79.25	83.00	80.50	73.00	73.00	73.00	87.75	87.75	78.25	76.00	78.00	82.00	78.75	75.00	76.25	81.50	77.75	73.75	78.25	81.50	81.00	72.00	72.00	85.50	79.75	79.75	79.50	76.50	75.50	75.00	77.50	76.00	77.50	77.75	80.00	83.00	82.25	79.75	80.00	82.25	83.25	87.00	90.50	107.50	131.75	146.50	161.50	162.25	153.50	140.50	112.50	107.00	105.75	109.00	119.00	146.00	173.50	174.50	172.00	170.00	166.25	161.25	154.50	145.25	141.00	141.00	143.75	150.00	152.50	150.50	144.25	139.00	131.00	125.50	122.75	122.75	119.75	118.75	119.25	121.50	119.75	118.00	123.50	121.50	116.00	111.25	112.50	112.50	113.00	117.75	121.75	129.00	134.00	136.25	137.25	137.25	134.25	129.25	130.00	128.75	126.25	124.25	121.25	108.75	104.00	104.00	104.00	104.00	104.00	104.25	109.00	104.25	103.50	104.50	104.50	105.25	111.50	110.50	107.75	112.50	111.75	111.75	111.00	112.75	118.75	120.50	115.75	118.50	120.00	119.50	125.25	129.00	123.25	127.50	135.25	141.00	139.75	143.00	146.00	144.25	141.50	139.75	142.50	144.25	143.50	141.75	141.25	139.50	135.75	135.00	139.00	142.50	138.00	133.00	132.25	134.50	134.75	136.50	130.25	122.50	119.50	111.50	103.25	103.00	103.50	107.50	112.25	110.75	109.75	99.75	104.50	118.25	121.00	121.50	109.00	111.25	118.50	117.75	108.00	101.75	114.00	114.00	120.00	122.25	123.25	125.50	124.25	125.25	124.75	138.25	141.00	140.75	147.00	152.00	151.75	150.25	147.25	149.50	152.00	155.25	144.00	146.25	146.25	140.00	132.25	141.50	144.25	142.00	138.25	138.75	137.50	131.50	131.50	143.00	143.50	137.00	136.75	136.25	133.75	133.75	149.50	173.25	169.00	168.75	167.50	167.25	183.00	165.75	163.75	165.00	166.50	173.75	183.00	181.50	190.50	179.75	179.25	188.50	183.75	178.25	176.25	182.25	184.50	180.75	175.75
81.50	82.00	86.25	86.00	82.50	85.50	87.75	80.00	79.00	75.50	73.00	80.75	83.00	80.75	73.50	73.75	79.75	83.25	77.25	73.25	74.50	76.25	75.50	75.00	78.50	84.50	82.75	81.50	76.25	79.75	75.50	72.00	72.00	76.25	80.75	79.00	76.00	76.00	76.75	76.00	77.75	76.25	77.75	79.50	80.75	82.00	83.75	82.75	81.00	81.25	83.25	84.50	88.75	94.50	119.75	137.00	146.25	151.00	154.50	137.25	112.75	102.50	100.75	101.75	105.75	116.00	149.00	172.25	171.25	168.00	165.00	162.25	158.25	151.75	144.00	141.00	141.50	146.25	152.50	155.00	153.25	147.00	142.25	135.50	130.75	127.00	122.50	120.75	123.00	124.25	121.00	117.00	114.00	114.50	117.00	119.25	115.50	115.50	117.50	114.75	115.75	118.75	122.00	129.50	133.00	133.75	138.00	134.50	129.25	127.50	127.00	122.00	113.75	106.50	105.50	107.50	107.00	109.00	108.75	109.00	107.75	105.75	105.00	105.50	106.00	106.50	112.50	111.75	110.00	111.00	119.50	119.25	114.25	110.50	114.50	126.25	123.75	115.00	118.00	120.00	121.50	125.75	128.25	132.25	135.00	138.75	142.25	140.50	140.75	139.25	141.25	141.00	141.75	141.50	142.25	141.00	140.50	142.00	139.00	132.50	129.00	130.25	133.50	131.25	141.25	143.00	141.00	141.25	138.75	132.75	127.00	117.00	111.75	103.75	103.75	107.50	114.75	116.25	109.50	109.00	105.00	107.00	112.75	119.25	121.00	111.00	113.00	116.50	116.25	110.00	105.75	107.00	113.25	121.50	119.00	121.75	126.50	125.00	118.75	115.50	134.00	139.25	145.25	147.75	151.50	151.50	153.75	149.00	148.25	147.75	149.00	146.50	146.50	143.00	135.00	130.00	142.50	144.25	141.50	137.00	137.75	138.50	134.75	135.75	139.25	138.50	135.75	134.75	134.00	130.50	132.75	156.25	172.00	170.00	169.50	165.25	177.25	184.50	164.75	163.50	164.50	167.75	180.75	183.00	180.00	180.00	176.25	187.50	178.75	174.50	174.25	181.25	193.75	179.50	175.50	182.75
82.00	84.25	85.50	83.25	84.25	86.25	82.50	80.50	78.25	76.25	76.50	81.50	76.75	77.25	77.75	79.25	81.25	77.00	73.50	73.00	73.00	73.00	73.75	80.75	84.00	82.50	79.75	81.25	76.75	75.25	72.25	72.00	74.00	82.25	78.00	80.25	76.50	76.50	77.50	77.75	77.75	76.75	77.75	79.25	80.75	82.25	83.25	82.75	81.50	82.25	83.25	85.25	90.25	102.00	129.75	134.25	134.00	140.50	134.75	115.25	103.75	100.00	100.00	102.00	105.75	118.50	161.00	171.75	169.00	166.75	165.75	164.50	159.25	154.25	147.25	144.50	145.50	151.25	156.25	157.00	154.25	148.25	143.25	136.75	133.00	128.00	123.25	123.00	124.25	125.25	120.25	115.50	114.50	114.50	116.00	121.50	118.75	114.75	116.75	114.75	116.75	120.75	121.75	127.50	131.50	135.00	138.25	133.75	127.75	125.50	123.50	117.75	107.00	104.00	107.25	114.25	114.00	119.00	117.00	109.75	106.75	105.75	105.50	107.00	106.50	108.50	114.25	109.75	110.50	117.75	124.75	123.75	118.00	113.75	120.50	127.00	126.75	120.75	121.75	120.00	123.75	124.25	125.75	134.75	139.00	142.00	142.75	141.50	140.00	137.25	141.00	141.75	141.50	141.75	142.00	139.75	140.25	140.75	138.75	133.25	130.00	131.50	129.75	129.25	144.00	144.25	142.50	142.50	139.75	134.50	129.75	119.25	114.25	105.25	105.00	107.50	110.75	114.50	111.00	109.75	104.00	107.50	110.00	121.25	121.50	109.50	111.75	115.75	116.75	113.00	112.50	110.50	116.25	122.75	122.75	124.25	128.00	127.50	120.75	116.00	132.25	142.00	144.50	147.75	149.50	149.25	153.25	151.50	148.50	149.25	147.50	145.50	142.50	137.50	133.00	130.50	144.25	145.00	143.50	140.00	141.25	138.25	137.00	136.75	137.50	135.25	135.00	135.00	134.00	130.25	134.75	161.00	172.75	170.75	169.75	168.75	178.25	182.50	164.50	163.25	164.75	169.75	183.25	181.25	184.50	182.00	185.00	187.00	174.00	174.00	174.00	184.25	192.75	176.75	176.50	187.50
83.50	84.50	82.75	84.25	85.00	83.00	81.50	79.75	76.00	77.75	84.75	80.25	72.75	78.00	83.25	81.00	76.25	73.25	73.00	73.25	73.00	74.50	81.50	86.75	84.00	76.00	75.00	76.50	73.75	72.25	72.75	77.75	80.75	82.50	76.75	80.75	78.25	77.75	77.00	77.75	77.25	77.00	77.50	79.25	81.25	82.00	81.75	82.75	83.00	85.00	85.00	87.25	98.50	106.75	116.50	116.00	116.00	116.50	109.50	100.50	98.50	99.00	101.25	105.00	110.75	135.75	168.00	170.50	169.00	167.50	168.75	167.25	160.75	154.25	150.25	152.50	153.50	156.50	159.00	158.25	155.00	149.50	143.75	138.00	134.25	128.25	126.00	126.00	125.50	125.50	121.25	116.75	117.00	118.75	119.25	122.00	121.25	115.25	116.25	115.00	115.00	119.25	120.25	123.75	129.00	133.50	136.25	131.25	124.50	123.25	118.00	110.75	104.50	104.00	106.00	115.25	117.75	120.25	116.75	108.00	106.50	107.25	106.75	108.25	108.75	111.50	113.50	112.25	116.00	121.25	125.25	127.75	122.00	118.00	125.75	126.25	126.00	127.00	125.50	124.00	128.25	126.00	126.25	136.50	140.25	142.50	143.50	143.00	141.50	139.25	140.25	139.25	140.25	140.00	139.25	133.50	138.00	139.75	138.00	135.50	133.75	134.50	133.50	133.75	141.00	144.25	143.00	142.25	140.00	136.50	130.00	118.75	115.75	110.00	108.50	110.25	111.25	110.00	106.25	105.00	104.25	106.75	110.50	123.25	121.75	109.00	112.50	116.25	112.75	111.25	118.25	117.75	119.50	120.00	123.25	126.00	124.50	124.25	123.50	122.25	134.00	139.75	144.50	147.75	146.75	148.25	150.75	152.25	147.75	148.50	147.75	141.75	134.25	133.00	133.75	133.00	145.00	145.25	144.00	141.50	138.25	136.50	138.00	138.50	137.75	135.75	132.25	136.00	136.25	131.00	134.25	158.75	171.75	171.50	173.50	174.25	176.25	180.25	164.00	162.50	166.25	177.50	184.50	184.00	188.75	181.50	192.25	183.50	172.50	173.75	178.00	187.50	183.25	174.00	181.50	185.00
86.50	85.00	84.00	84.00	79.00	84.00	80.00	77.50	72.00	79.50	89.50	78.50	81.00	86.50	85.00	76.00	73.00	73.00	75.50	83.00	81.50	88.00	91.50	87.50	75.50	72.00	72.00	72.00	72.00	76.00	82.00	88.00	78.00	78.00	76.50	78.00	77.00	77.00	76.50	77.50	75.00	77.50	77.50	79.00	81.50	82.50	78.50	82.50	83.00	85.50	88.00	90.50	102.00	100.00	95.00	97.50	98.50	96.00	95.00	94.50	95.50	100.50	104.50	111.00	127.00	160.00	171.00	170.00	171.50	169.50	171.00	168.00	158.50	146.00	142.50	151.00	156.50	160.00	160.50	158.00	154.50	149.50	144.00	138.50	133.50	131.00	130.50	129.50	126.50	126.00	123.50	119.50	120.00	121.00	120.50	122.00	124.00	117.00	116.50	119.00	115.00	114.00	116.00	117.50	124.50	130.00	132.00	128.00	119.50	116.50	113.50	106.00	104.00	104.00	107.50	114.50	114.50	110.50	110.00	109.00	110.00	111.50	108.50	109.00	112.00	113.50	112.50	120.50	123.00	123.00	125.00	128.00	124.00	123.00	130.00	128.50	126.50	130.00	130.50	131.00	131.50	128.00	129.00	139.50	139.50	141.50	144.50	144.00	142.50	141.00	138.00	137.00	133.50	130.50	133.00	131.50	136.50	136.50	135.00	128.50	126.50	125.50	139.00	140.00	140.50	144.50	142.50	141.00	139.00	137.00	131.00	121.50	117.00	115.00	112.00	113.00	111.00	103.50	101.50	106.00	108.50	107.00	116.50	123.00	122.00	111.50	114.00	111.50	105.50	108.00	118.50	122.00	120.00	113.50	121.00	125.00	114.50	115.50	127.50	133.50	137.50	139.00	145.50	146.50	145.00	147.00	146.00	149.00	146.00	146.00	145.00	140.50	137.50	132.50	134.50	134.50	144.00	145.50	137.00	132.00	132.50	137.50	139.00	140.00	140.00	140.00	137.00	135.50	138.00	132.00	131.50	147.00	166.50	168.00	180.00	169.00	169.00	181.00	164.00	162.00	172.00	187.00	184.50	189.00	180.50	179.50	194.50	178.50	172.50	176.00	190.50	185.00	173.50	173.00	187.50	173.50
83.25	82.50	81.25	79.75	79.00	85.00	79.25	77.00	75.00	81.75	79.00	73.25	74.50	78.75	87.25	79.50	78.75	83.50	87.25	88.25	90.00	90.75	87.00	77.00	72.25	72.00	72.00	72.75	72.50	79.00	83.25	84.75	72.00	76.25	74.75	75.25	76.50	76.75	76.00	77.25	78.00	77.75	77.75	78.00	81.50	82.25	81.50	83.00	82.75	86.25	89.50	92.25	95.50	93.00	92.25	93.25	92.50	92.00	92.50	94.25	97.00	102.25	106.75	118.50	141.75	165.00	170.50	172.25	171.50	170.50	167.50	161.50	149.75	139.25	133.50	138.75	162.00	162.50	161.75	160.25	154.50	150.00	145.50	140.25	136.25	135.00	135.50	134.50	130.50	128.50	124.00	120.75	121.00	121.00	120.50	121.75	123.50	118.25	122.00	124.00	120.50	115.00	119.75	119.75	121.50	125.75	128.00	124.00	118.00	112.50	111.00	105.75	104.00	104.00	109.25	110.25	108.75	108.50	108.25	111.00	114.00	115.00	109.00	110.50	115.50	114.75	119.00	124.00	126.25	127.25	128.00	124.25	116.25	116.25	124.50	132.00	130.50	131.75	130.00	130.00	127.25	128.25	131.50	138.75	140.75	141.50	143.75	144.00	142.00	139.75	135.00	138.75	133.50	124.75	124.50	133.50	138.25	131.75	127.25	124.25	124.50	126.25	136.50	138.00	141.00	141.00	141.00	139.00	137.50	137.75	131.25	125.00	121.25	111.50	106.75	106.25	106.75	105.75	99.75	105.50	109.75	110.00	116.25	121.75	122.00	112.75	116.00	110.75	107.25	113.50	119.75	123.00	120.50	114.75	124.50	121.00	113.25	123.00	136.00	139.00	140.50	142.00	145.00	145.75	147.25	147.00	146.00	148.25	146.50	140.00	138.75	141.75	139.00	134.50	132.00	139.00	142.50	142.25	137.00	135.00	136.00	139.50	138.75	137.25	137.00	137.75	139.25	135.25	134.00	130.50	129.25	140.00	163.00	168.75	173.25	159.75	169.75	185.75	162.00	162.50	177.25	188.75	185.25	179.75	172.75	179.75	192.25	174.00	173.00	180.75	194.50	180.25	172.75	180.00	179.00	169.75
81.00	82.00	77.50	77.50	80.00	86.00	78.25	82.50	83.00	74.50	72.00	72.50	84.50	82.25	91.00	85.50	85.00	87.75	83.25	85.00	87.00	76.75	72.75	72.00	72.00	72.00	72.50	78.75	80.25	84.50	86.25	76.25	72.00	75.25	79.50	78.75	75.75	76.00	79.25	78.00	78.75	78.50	77.75	81.00	82.00	84.25	84.75	82.75	83.25	85.00	86.25	87.50	88.00	88.50	89.00	90.00	90.00	91.00	91.50	97.75	102.50	111.75	129.00	149.25	141.25	152.00	165.50	173.25	174.50	171.00	149.25	144.25	137.25	132.50	133.75	150.25	166.50	163.00	159.25	160.25	158.00	153.00	149.75	145.75	143.25	143.75	143.00	139.75	132.00	128.50	124.25	123.00	124.25	126.25	126.25	125.00	120.25	116.75	117.50	119.25	120.00	119.50	119.50	118.00	118.25	119.75	123.75	121.75	113.25	108.75	105.25	104.00	104.00	104.75	108.00	109.50	108.25	110.25	110.25	111.00	113.75	114.50	109.75	110.50	113.75	116.50	122.50	125.00	128.00	127.00	121.50	116.00	114.50	116.25	117.50	129.75	129.50	128.25	126.25	126.50	130.00	130.25	133.00	136.50	141.00	141.00	144.25	139.00	132.75	132.25	135.25	136.50	133.25	124.25	123.50	132.00	135.00	132.00	129.25	128.25	128.75	132.75	135.00	134.50	134.75	134.75	137.75	138.00	135.50	137.25	133.50	124.25	123.75	113.75	110.75	110.25	111.25	100.50	93.00	94.00	109.75	111.50	121.00	125.75	121.25	112.50	116.00	120.50	119.00	121.75	118.25	116.50	116.25	124.75	121.75	117.50	123.75	130.75	139.75	143.00	142.00	143.25	144.25	143.75	144.00	146.25	148.25	147.00	144.25	140.75	141.00	140.00	135.25	130.75	135.50	138.00	142.50	140.50	138.00	135.75	137.50	136.00	138.00	139.75	138.50	136.00	138.50	133.25	131.75	128.25	128.25	146.25	163.75	167.50	162.25	162.00	180.50	181.50	161.25	168.25	186.00	186.75	186.00	181.00	179.75	183.50	181.50	171.00	171.75	179.25	187.75	178.50	179.00	185.00	170.50	172.00
84.00	81.75	83.50	86.25	85.00	78.50	78.50	81.00	74.25	72.00	72.00	78.75	95.00	86.75	81.00	73.75	79.00	76.50	72.25	73.00	74.75	72.00	72.00	72.25	74.75	80.75	84.75	85.75	82.00	77.75	73.25	72.00	72.75	78.00	78.25	74.25	71.50	76.25	78.75	78.25	77.25	78.75	80.25	80.50	82.00	85.00	84.00	82.25	82.75	83.75	84.50	85.00	86.00	86.50	87.75	88.00	89.25	90.50	94.25	108.75	124.25	157.50	158.25	166.00	166.50	167.75	171.00	172.50	166.50	156.75	139.75	138.25	134.00	132.50	135.75	143.25	152.50	157.50	156.50	161.50	161.50	158.00	156.50	153.50	151.25	148.50	142.00	137.25	131.50	128.25	125.00	125.75	125.50	126.75	127.00	125.25	124.00	118.00	119.25	122.50	120.75	120.25	121.00	116.75	116.75	120.00	124.00	121.50	110.75	107.50	104.75	105.75	109.25	111.75	111.25	110.00	108.50	108.50	111.50	116.25	115.75	114.25	113.00	117.25	115.75	117.25	120.75	120.50	122.50	118.50	113.50	115.25	114.00	113.50	114.25	115.00	114.00	112.00	114.25	123.75	128.50	128.25	132.00	136.75	141.00	140.25	140.25	137.00	136.75	135.75	135.50	134.75	131.75	128.00	131.50	134.50	134.50	131.50	124.75	128.00	133.00	132.50	134.50	135.50	136.25	134.50	134.25	140.75	136.25	133.50	133.00	128.00	123.00	113.50	116.00	116.25	104.50	94.50	93.00	93.75	106.75	113.00	119.75	121.75	120.50	112.25	113.75	117.00	115.75	116.75	118.75	121.00	126.75	128.00	125.00	124.00	120.25	127.00	139.00	145.00	144.50	144.25	144.25	145.50	144.00	141.25	138.75	136.75	142.75	145.50	143.75	139.00	136.00	134.75	135.00	137.00	139.25	139.00	137.50	140.00	138.75	137.75	140.75	150.25	143.00	134.00	138.00	132.75	128.75	127.25	128.50	144.25	166.00	163.50	163.50	177.00	181.00	169.50	167.75	186.00	188.50	181.00	183.75	188.25	188.00	180.75	174.00	170.25	171.25	174.50	179.75	183.00	189.75	172.75	171.75	175.50
82.50	80.50	82.50	80.50	80.50	80.00	85.00	73.00	72.50	72.50	76.00	86.50	91.00	84.00	74.00	72.00	75.50	72.00	72.00	72.00	72.00	72.00	72.00	76.00	84.00	82.50	82.00	80.00	72.50	72.00	72.00	72.00	79.00	78.00	80.00	75.50	76.50	77.50	79.00	79.00	79.00	79.50	80.50	80.00	83.00	84.00	84.00	83.00	83.00	83.50	84.00	85.00	85.50	86.00	87.00	88.00	89.00	92.00	101.50	131.50	155.00	168.50	169.50	171.00	170.50	171.50	171.00	158.00	143.50	138.50	136.00	136.00	136.00	134.50	136.00	137.00	141.50	151.50	162.00	165.50	166.00	162.50	161.50	158.00	153.50	149.00	144.50	138.50	128.50	126.00	128.50	126.50	126.50	127.00	128.50	126.50	127.00	120.50	120.50	125.50	122.00	119.00	120.50	118.00	118.00	121.50	123.50	120.50	114.50	109.00	107.50	108.50	108.00	110.00	113.50	113.50	112.00	114.00	115.00	117.00	116.50	113.00	114.50	119.00	119.50	119.00	121.00	117.00	116.00	114.50	112.00	115.50	117.50	112.00	114.00	115.00	114.50	116.50	120.50	129.00	131.00	132.00	135.50	138.00	139.50	138.50	134.50	130.50	133.00	136.50	134.00	133.00	132.00	134.00	134.00	134.00	132.50	130.50	127.50	127.00	127.50	130.50	134.50	137.50	142.00	140.00	136.50	143.50	139.50	132.50	132.50	128.00	123.00	115.50	117.50	109.50	96.50	94.00	93.00	97.50	104.50	107.50	116.00	118.50	122.50	116.50	116.00	115.50	115.50	116.50	121.00	122.50	131.50	131.50	128.00	123.00	119.50	127.50	140.00	147.00	146.50	144.50	144.50	142.00	132.00	127.00	129.00	139.00	142.50	145.50	143.50	142.50	138.50	134.50	126.50	131.00	141.00	135.00	138.00	137.50	139.50	138.50	143.00	147.00	141.00	132.50	137.00	131.50	128.00	127.50	127.00	135.00	164.50	164.50	173.50	181.50	177.50	169.50	178.00	189.00	182.50	176.00	181.00	190.00	192.50	184.50	175.50	172.50	172.00	172.50	173.50	183.50	189.00	171.50	174.00	176.00
83.75	83.25	83.00	80.00	77.50	83.50	76.75	72.00	72.00	72.75	79.25	85.00	85.00	77.75	73.00	72.00	72.00	72.00	73.00	76.75	76.25	73.50	76.75	83.00	80.75	73.75	72.25	75.75	75.25	76.50	76.50	77.25	76.75	78.50	80.25	76.25	78.25	77.50	78.25	77.25	78.00	79.50	79.50	81.25	84.25	83.50	82.00	81.75	82.25	83.25	84.25	84.50	85.75	86.25	87.00	87.50	90.25	96.50	120.50	161.50	169.50	172.25	173.00	173.00	172.25	166.25	154.50	144.50	137.75	136.00	136.00	135.50	134.50	134.50	135.25	136.25	138.00	147.75	164.75	171.75	171.00	167.50	165.00	159.75	156.00	154.50	147.50	138.25	129.00	131.75	130.00	129.00	130.00	129.50	130.75	131.25	130.50	125.50	122.00	118.00	117.50	116.25	115.50	113.75	115.50	118.00	115.00	113.25	111.75	110.50	111.50	111.00	111.50	112.00	113.75	112.50	113.25	119.50	119.75	119.25	117.50	115.00	114.25	119.50	124.00	125.25	123.25	120.00	119.50	118.00	116.75	117.50	118.50	118.25	119.50	117.25	118.00	120.50	122.50	127.50	130.75	132.00	134.50	136.25	139.75	137.00	132.25	131.75	133.50	135.25	131.75	131.00	132.25	133.50	131.50	129.50	126.75	130.00	131.50	129.25	133.75	137.50	137.75	138.25	142.75	147.50	141.50	138.50	139.50	131.50	130.00	126.00	118.25	112.25	114.50	104.00	94.50	95.00	98.25	100.75	99.75	103.75	118.25	124.00	124.25	122.75	121.75	120.00	122.50	121.25	124.75	130.75	129.00	129.75	127.25	122.25	123.25	132.75	144.50	147.75	147.00	141.75	133.25	129.25	128.75	131.50	135.25	141.25	144.25	145.25	145.75	143.00	137.50	129.00	129.75	134.00	140.00	140.00	139.00	139.50	139.00	139.25	140.00	139.00	137.50	133.75	135.75	133.50	132.25	128.75	127.50	129.75	155.00	166.25	172.25	172.50	169.75	173.00	181.25	179.25	175.25	173.25	176.25	184.25	186.25	179.00	182.75	188.25	173.00	172.75	175.00	185.75	181.25	172.00	177.25	184.50
82.50	83.75	81.50	75.00	74.00	84.00	76.50	72.00	72.00	73.00	72.75	79.75	79.75	72.75	72.00	72.00	72.00	72.25	77.75	85.50	82.25	79.75	84.75	83.50	73.75	71.00	73.00	80.00	77.50	78.25	76.50	75.50	75.50	79.50	79.00	75.75	78.25	79.00	79.00	76.75	77.00	79.75	79.50	83.25	84.00	83.00	81.00	81.50	82.25	83.50	84.25	84.00	85.75	86.25	86.75	87.75	91.00	99.25	136.50	167.00	172.75	175.75	175.75	175.25	172.75	158.50	144.00	139.25	136.25	135.50	135.75	135.75	135.50	135.25	136.25	137.25	139.25	148.50	170.25	176.50	173.50	170.00	166.50	162.50	160.25	158.50	149.25	138.00	128.25	130.50	131.25	133.25	134.50	131.75	133.75	135.75	133.50	128.75	123.75	117.00	116.75	118.75	118.50	116.50	116.50	116.75	111.75	114.75	114.50	112.25	112.00	112.25	114.50	114.75	115.50	113.75	115.25	122.50	121.00	120.75	118.00	115.50	117.00	120.25	122.75	124.25	123.25	121.50	122.00	120.00	118.75	119.00	123.00	126.00	121.00	117.50	120.25	123.25	121.50	125.00	131.00	132.50	134.25	136.00	136.75	134.00	132.50	133.25	133.75	132.75	131.50	127.75	126.75	128.25	125.00	125.00	125.75	132.50	136.25	135.75	140.00	140.50	142.25	142.00	142.75	149.00	145.00	138.00	137.75	130.75	131.25	125.25	115.00	109.00	111.00	100.75	93.75	98.50	103.25	100.25	101.75	103.25	122.25	126.00	123.00	122.50	120.75	121.25	123.75	123.25	128.00	132.25	125.00	127.50	127.25	123.75	127.50	140.75	148.75	148.75	147.25	139.75	128.75	127.75	130.75	138.00	140.50	143.75	145.25	147.00	148.00	144.00	136.75	131.00	134.75	134.25	136.75	142.00	141.00	140.25	140.25	140.50	138.50	135.75	135.00	132.75	132.50	136.25	139.00	132.00	129.00	129.50	154.25	167.25	169.00	170.50	163.25	171.50	175.50	173.25	173.00	173.50	176.50	179.25	179.00	172.25	181.25	193.50	173.25	173.25	178.50	185.25	175.25	173.25	180.75	193.00
81.00	83.00	81.25	77.00	81.00	84.00	81.75	82.25	77.50	72.25	72.75	79.25	73.00	72.00	72.00	72.50	77.75	85.00	88.75	88.25	85.75	85.50	86.00	75.25	71.50	79.00	83.75	78.50	75.00	77.75	76.50	74.50	77.50	79.00	80.25	79.00	79.00	78.50	80.25	81.50	82.00	83.00	82.75	83.00	84.00	81.00	80.75	81.25	82.50	83.25	83.75	84.00	85.00	86.25	86.50	87.50	93.00	107.00	141.00	177.50	178.75	165.50	173.75	174.25	175.00	168.00	155.50	143.25	136.25	135.25	135.75	135.00	135.00	135.75	136.75	139.00	140.25	144.25	156.25	180.00	177.75	174.75	172.75	169.00	166.50	160.75	148.00	134.00	127.50	128.25	136.50	140.25	139.50	136.25	138.00	139.50	135.25	130.25	125.50	123.50	126.25	126.75	125.50	124.75	123.75	121.50	118.25	118.75	117.25	115.25	115.00	115.00	118.75	121.75	119.50	119.50	120.75	123.25	122.50	118.25	117.75	116.25	119.50	122.50	125.50	126.00	123.50	122.25	126.00	121.75	123.75	124.00	126.00	123.75	121.50	119.00	118.25	121.00	123.00	127.50	132.25	132.00	131.75	132.75	135.00	133.75	135.00	135.50	131.50	125.25	124.25	125.50	124.00	123.25	124.00	130.50	135.75	137.75	139.50	139.75	141.00	143.75	148.75	152.50	149.25	151.50	147.50	139.00	134.25	135.75	135.25	126.50	119.25	109.50	105.75	97.50	97.25	101.00	104.25	105.50	102.00	103.25	123.75	123.25	125.00	124.75	125.25	127.00	126.75	132.25	131.00	126.75	120.50	121.25	125.25	134.25	145.50	151.75	151.75	149.25	144.75	134.00	125.75	125.50	127.50	141.50	142.25	143.25	146.50	148.50	148.00	144.50	141.00	141.00	141.00	137.00	135.00	137.75	138.75	139.00	141.50	138.00	141.75	139.25	133.75	133.50	129.00	131.25	133.00	134.75	133.25	132.00	151.25	168.75	170.75	167.50	161.50	168.50	172.75	171.50	172.00	174.50	177.25	177.75	177.25	179.25	188.75	183.00	173.25	177.75	187.25	181.75	173.50	175.25	184.75	191.00
82.50	81.75	81.50	80.75	80.00	78.50	82.00	79.25	73.25	76.50	87.75	79.00	72.00	75.25	83.00	89.00	91.25	81.00	81.50	80.75	73.25	75.50	77.25	71.00	71.00	82.50	76.75	76.50	77.50	77.25	75.00	75.00	80.00	78.25	72.25	74.25	80.25	80.25	77.00	78.75	81.25	82.75	83.25	83.50	81.75	79.75	81.75	82.75	82.75	83.25	83.25	84.50	85.00	85.75	86.25	87.75	94.00	121.50	150.50	178.75	179.75	159.00	136.75	142.25	152.25	174.00	173.50	151.00	137.50	136.25	135.50	134.75	135.25	135.75	137.50	139.75	144.00	151.25	171.75	184.25	181.75	178.50	176.00	174.00	168.00	155.75	140.50	132.75	128.75	129.75	145.75	148.50	145.50	141.25	140.00	140.25	135.50	132.50	131.00	131.00	131.75	130.25	129.00	127.50	126.50	125.00	118.75	118.25	120.00	119.75	120.00	118.75	119.50	124.25	122.75	121.25	120.50	122.50	122.75	121.75	122.50	117.75	124.50	128.50	127.50	127.00	129.25	129.50	127.00	126.50	126.75	126.25	123.50	118.25	117.75	125.50	127.75	127.50	128.00	129.25	131.00	132.00	130.50	132.25	132.50	133.00	136.25	137.00	133.50	126.25	128.50	129.75	127.75	126.25	128.75	137.25	138.50	141.75	141.75	141.50	142.50	144.50	147.00	148.00	147.50	148.00	146.75	140.25	132.25	126.75	129.25	127.75	117.50	111.75	106.00	102.50	96.75	101.75	108.25	109.00	102.50	102.75	113.50	124.25	127.50	125.50	124.75	126.00	126.00	130.25	134.75	126.75	119.25	125.50	134.50	145.25	155.00	156.50	153.75	151.75	143.25	130.25	124.25	126.00	136.25	142.50	140.75	145.00	146.75	147.00	146.75	142.00	135.75	139.75	138.75	139.75	139.50	142.50	141.50	141.50	142.25	141.50	147.25	148.00	145.25	137.25	130.25	135.75	130.75	136.50	139.50	132.00	141.00	164.50	170.75	165.50	166.75	169.50	170.75	170.50	172.50	175.25	176.50	177.50	180.00	183.25	185.25	173.50	171.75	172.75	179.75	179.50	179.75	177.75	177.00	181.75
82.50	80.75	81.25	82.00	80.75	79.75	80.00	83.00	78.50	84.00	88.00	80.50	79.00	84.00	88.50	88.00	82.00	74.25	77.50	73.25	73.25	79.50	75.50	71.50	75.00	80.50	76.00	76.75	74.25	77.50	74.75	75.00	79.50	76.00	70.75	74.50	80.00	79.75	77.50	79.25	81.50	82.25	83.75	85.00	81.25	79.75	82.50	82.50	82.50	83.25	83.50	84.50	85.00	86.00	86.75	88.00	92.50	108.25	125.50	158.00	150.75	131.00	120.50	120.25	130.75	168.00	172.75	152.50	140.25	137.00	136.50	135.50	136.50	138.00	142.50	150.75	164.25	169.00	177.75	185.50	182.75	178.75	177.00	173.25	165.75	152.50	140.00	133.50	130.50	132.75	152.50	153.75	150.50	146.25	143.50	142.00	137.50	137.00	136.25	136.00	135.75	133.25	131.50	130.00	128.50	127.50	118.25	116.50	117.00	118.50	121.75	122.50	120.75	122.00	121.75	119.00	120.00	123.25	123.50	123.75	124.25	119.75	128.00	130.00	129.00	129.25	130.75	131.75	127.25	125.50	126.50	127.25	127.50	123.75	119.50	122.25	125.00	127.75	126.50	124.25	125.00	130.75	131.75	132.75	133.75	134.25	136.25	136.25	134.25	127.25	127.50	127.75	129.00	129.00	135.25	140.00	139.75	142.25	143.00	143.25	144.75	146.75	149.25	150.00	147.25	148.50	146.00	141.00	132.50	121.00	123.25	119.25	111.00	109.50	106.00	98.75	93.00	101.00	108.50	111.50	106.50	102.75	112.00	121.75	125.25	124.25	125.75	126.50	127.25	126.25	135.00	129.75	125.50	134.75	145.00	153.00	156.75	155.75	151.75	151.75	144.00	130.50	128.00	134.50	142.25	143.25	142.25	146.25	146.75	144.25	141.75	141.50	138.00	140.50	139.00	141.75	140.25	141.00	143.00	142.25	142.25	143.00	148.50	152.00	147.75	137.50	139.75	143.75	141.50	140.50	142.75	133.00	135.50	154.25	158.00	154.50	169.75	170.25	168.25	169.00	173.25	174.75	175.50	177.75	179.00	182.00	183.25	174.50	172.75	171.75	175.25	175.50	179.25	174.75	174.25	180.00
82.50	81.75	81.50	83.00	83.50	81.25	79.25	82.50	82.50	87.75	85.25	84.25	86.75	89.50	84.00	76.50	71.50	71.25	76.50	73.50	81.75	84.25	73.50	74.75	79.25	75.50	77.75	78.25	72.75	78.50	73.75	73.50	79.50	76.50	71.00	74.25	79.75	78.50	78.25	79.25	81.50	82.25	83.25	83.25	79.00	80.25	82.00	82.00	82.25	83.25	84.00	84.50	85.25	86.50	87.50	88.50	91.00	97.00	105.50	124.00	114.75	109.75	111.00	113.75	122.50	160.00	173.25	162.25	145.50	138.50	137.75	137.75	141.75	147.50	156.50	171.00	185.25	185.50	184.50	187.25	183.00	180.25	177.25	171.00	163.75	150.75	140.75	134.50	132.25	139.25	158.00	159.25	155.75	151.00	147.75	144.50	141.00	142.00	141.00	141.50	140.00	136.75	134.00	132.25	130.75	129.75	119.25	116.50	117.75	122.75	128.00	128.50	122.50	118.50	122.00	122.00	125.25	127.00	124.75	123.75	125.00	121.00	128.75	129.25	131.75	133.50	136.00	132.75	127.25	125.00	124.25	125.75	128.75	129.75	122.00	118.75	119.75	124.25	123.75	123.25	125.00	131.25	132.50	133.75	135.25	135.00	135.50	135.50	135.75	128.25	126.00	126.75	130.50	132.25	140.25	142.00	141.75	143.75	144.50	145.25	146.75	148.00	148.25	149.50	146.00	148.50	146.75	142.00	131.50	117.00	119.00	109.50	107.00	105.75	103.25	93.50	91.75	100.75	108.25	112.00	112.50	103.75	111.75	120.50	125.25	125.75	129.00	128.50	128.00	122.25	136.50	132.75	132.25	143.25	155.00	158.00	158.00	154.00	150.00	151.50	145.25	134.50	135.25	143.00	145.75	144.50	145.00	146.75	146.00	139.50	138.25	142.50	141.00	141.75	141.50	144.00	141.00	140.50	144.50	143.75	142.25	145.00	150.25	152.75	145.75	143.00	149.25	149.75	148.00	141.00	144.75	135.00	130.75	139.00	139.75	144.75	169.25	169.75	167.50	168.75	173.75	175.00	175.50	178.50	179.00	182.00	182.50	180.00	178.00	172.75	173.75	174.50	175.75	172.75	173.50	179.25
81.50	80.25	81.25	79.50	83.25	78.75	82.75	77.75	78.50	78.25	76.75	82.00	84.00	81.25	69.25	69.00	70.00	83.50	83.25	81.50	79.75	75.00	73.50	79.50	77.50	77.50	79.50	75.75	80.00	74.25	72.50	77.25	77.25	72.75	73.25	79.75	80.75	78.50	79.75	81.00	81.50	82.50	81.75	78.75	78.75	83.50	82.00	82.25	82.75	83.75	84.50	85.00	86.25	86.50	88.50	89.75	91.50	93.75	97.00	101.00	103.50	107.25	109.25	113.25	121.25	157.75	178.25	175.00	155.25	142.75	148.25	164.50	177.50	184.50	185.25	188.50	191.00	192.00	192.25	190.50	187.25	183.50	177.25	169.25	160.50	145.75	136.00	133.50	144.50	162.75	164.00	166.00	161.75	157.25	154.00	149.25	148.50	147.75	147.75	146.75	145.75	141.50	138.00	136.25	134.75	132.00	127.50	124.50	127.75	128.75	129.00	130.50	127.25	119.75	122.75	125.25	126.00	122.75	122.75	122.75	122.25	126.00	126.75	130.50	132.50	135.25	141.00	134.75	126.50	124.75	124.50	125.25	127.00	130.50	125.50	121.50	126.50	128.00	126.25	125.50	128.25	130.50	126.50	127.00	135.00	137.50	138.00	136.75	135.25	129.50	127.50	130.50	130.00	136.25	143.75	144.00	144.00	143.75	143.75	143.50	143.25	142.25	137.25	135.75	140.75	141.25	140.25	140.25	131.75	114.50	113.75	106.75	105.75	101.00	95.75	96.50	103.50	106.75	104.50	104.25	117.75	108.50	109.75	123.75	129.00	128.75	129.00	126.75	122.50	127.50	139.00	132.50	135.00	152.75	160.25	159.75	157.25	154.25	151.25	150.00	145.50	141.75	144.75	147.25	147.00	144.00	141.00	138.50	138.50	141.25	143.00	145.75	146.00	145.75	145.00	144.75	144.50	145.25	147.25	146.50	143.50	145.75	149.75	148.25	147.50	147.75	145.00	138.00	132.75	139.25	150.75	138.00	138.75	135.25	133.75	140.75	148.50	157.25	171.50	172.50	172.50	174.75	176.00	177.50	177.50	174.75	177.50	183.00	187.50	178.25	173.75	173.25	173.50	174.75	175.25	184.25
80.75	82.25	78.50	82.75	84.25	82.00	79.00	72.75	68.00	71.00	79.00	80.25	71.25	70.50	69.75	72.25	83.00	80.00	78.25	74.50	76.75	80.75	80.75	78.00	76.75	71.00	71.75	76.00	77.25	74.75	79.00	80.00	77.25	75.50	80.25	81.50	78.75	78.25	76.75	80.25	82.00	83.25	83.50	78.25	78.50	84.75	82.25	82.00	83.00	84.00	85.25	85.75	87.00	87.00	88.75	90.00	91.50	93.75	97.25	104.00	110.25	119.00	120.75	119.25	135.00	178.25	182.25	178.75	162.25	149.75	174.75	171.00	173.50	184.25	192.00	194.00	195.25	197.50	196.75	194.00	188.50	179.00	171.75	161.75	151.75	142.50	134.75	141.00	167.00	168.75	166.75	167.75	164.75	162.75	161.25	156.00	152.75	149.75	149.75	150.75	150.00	146.00	143.75	141.50	140.00	137.25	127.50	125.75	125.00	125.00	125.75	128.25	128.50	122.50	122.00	123.00	127.00	123.25	122.00	126.50	126.00	129.00	128.75	132.00	135.75	139.50	141.00	136.75	129.50	127.50	126.75	126.75	129.50	127.50	125.75	127.75	127.25	128.25	131.75	128.00	126.25	130.00	128.75	130.00	139.25	140.50	145.75	140.50	134.25	128.50	130.50	131.75	129.50	137.75	142.25	146.00	145.75	144.75	142.00	139.00	133.00	129.25	130.75	132.50	141.50	133.75	133.00	135.00	131.00	113.50	111.00	106.00	103.50	102.75	104.25	112.00	115.25	109.50	100.50	102.25	119.25	115.00	109.00	121.75	127.50	129.25	131.75	128.25	124.25	134.75	132.00	131.00	140.50	159.00	160.50	157.00	152.00	154.50	154.75	153.00	148.50	147.00	149.00	149.00	143.75	138.00	137.00	137.50	138.75	142.00	146.25	147.25	150.25	150.00	148.25	148.25	147.50	149.25	147.75	144.75	139.25	139.75	145.75	143.00	139.25	138.00	137.25	134.00	130.25	131.00	133.00	134.00	140.00	138.50	137.25	135.50	137.00	143.50	171.00	172.50	173.00	173.25	175.00	172.50	174.00	174.75	176.75	179.50	178.00	172.75	170.00	173.50	175.00	174.25	179.00	192.25
81.75	81.50	80.25	82.75	84.00	82.50	78.75	78.75	77.50	80.50	83.25	76.75	69.75	71.25	76.50	79.50	79.75	73.50	74.75	77.75	78.75	76.25	75.00	73.75	72.00	75.25	79.75	78.75	75.00	79.25	80.75	81.25	79.25	79.75	80.50	78.75	78.25	79.50	80.25	81.75	82.50	83.75	84.25	77.75	79.00	83.00	81.75	81.50	82.75	84.00	85.00	85.75	86.75	87.00	88.75	89.75	91.25	94.25	99.25	113.25	130.00	141.75	143.50	139.00	155.25	183.50	184.50	184.00	176.25	167.00	166.25	163.25	171.00	189.50	193.50	189.75	192.25	197.25	197.50	193.50	185.00	172.25	165.00	157.25	153.25	144.50	135.75	152.00	169.50	166.00	165.75	163.25	161.25	165.00	163.50	156.75	155.00	152.00	151.00	152.00	152.50	149.25	146.50	143.25	139.00	133.75	125.25	125.00	125.25	128.25	129.75	130.50	130.00	126.00	124.50	125.50	126.75	122.25	123.00	128.00	128.75	132.00	130.00	133.25	139.25	143.25	141.50	139.25	133.50	131.25	128.75	128.50	131.75	127.50	127.00	127.25	127.00	131.00	132.25	128.50	126.25	130.00	132.25	135.00	140.50	140.75	143.25	138.25	131.75	127.25	129.25	135.00	134.25	138.00	141.50	143.75	142.75	138.75	138.50	141.00	134.25	129.50	129.75	134.00	140.50	132.25	132.00	133.75	129.00	111.00	107.75	103.00	101.25	104.75	105.25	111.50	116.75	110.00	100.00	101.75	118.00	117.25	111.00	119.25	128.25	133.00	132.75	127.75	128.75	134.25	129.75	134.75	141.75	150.75	150.75	149.50	150.00	154.25	156.75	155.25	150.25	146.50	147.50	148.00	142.50	136.75	140.00	141.00	143.00	145.75	146.50	140.75	145.50	151.75	151.50	149.25	149.50	149.75	147.75	145.25	140.75	139.25	142.50	141.00	138.00	137.25	138.25	135.50	134.00	130.75	131.50	133.25	142.25	140.00	136.50	135.50	136.00	145.75	169.50	170.50	172.50	172.00	172.25	169.75	173.25	174.75	174.00	177.50	170.50	170.50	168.25	173.25	175.25	174.00	185.00	187.00
81.50	82.00	80.50	80.50	81.50	79.00	80.50	77.50	83.50	84.50	78.50	78.00	77.00	78.50	82.00	81.50	72.50	77.50	81.50	83.00	74.50	70.00	70.00	74.50	80.50	86.50	80.00	73.00	76.50	83.00	80.00	76.50	79.00	80.00	80.00	80.00	80.50	80.00	83.00	84.00	84.00	83.50	85.00	78.00	80.00	80.50	80.50	81.50	82.50	84.00	85.50	85.00	86.00	87.00	88.00	89.50	91.50	97.00	106.00	138.50	158.50	160.50	164.50	176.00	176.00	163.50	176.00	188.00	186.50	185.00	165.50	164.50	168.00	186.50	189.50	181.00	182.50	191.00	196.00	190.50	179.50	165.00	158.50	154.50	154.50	146.50	137.50	147.00	164.00	161.00	164.00	158.00	160.50	161.00	155.00	149.50	158.00	156.50	152.50	153.00	154.50	151.50	146.00	140.00	132.50	125.50	125.00	125.00	129.00	133.50	133.50	131.50	133.00	132.50	130.50	127.00	127.00	123.50	122.50	127.00	132.00	136.00	133.50	137.00	148.50	148.00	142.00	144.00	138.00	135.50	132.50	134.00	134.50	130.50	129.50	130.00	129.00	130.00	127.50	126.50	131.00	133.50	131.50	139.00	141.50	142.00	140.50	137.50	132.00	129.00	127.50	137.00	139.00	140.50	142.50	141.00	144.00	138.00	135.50	139.00	135.50	132.00	133.50	134.00	137.50	131.00	131.00	132.00	124.00	106.50	103.00	100.00	100.00	102.50	92.00	103.00	116.50	112.00	100.50	100.50	116.50	116.50	111.50	118.50	130.50	137.50	134.00	133.50	134.00	127.50	135.00	137.50	137.00	135.00	139.00	147.00	152.50	155.50	157.00	156.50	150.00	143.50	142.00	143.00	141.00	141.00	139.50	140.50	145.00	146.00	146.00	137.50	139.00	149.00	154.00	152.50	153.50	151.50	146.00	144.00	142.00	141.00	142.50	143.50	139.50	136.00	136.00	136.50	137.00	134.00	146.00	143.00	146.00	139.00	134.50	133.50	132.50	148.00	168.50	168.50	171.50	173.00	171.00	171.00	175.50	177.00	174.00	175.50	168.50	170.00	168.50	174.00	177.50	178.00	187.50	172.00
82.75	82.50	80.75	82.50	78.75	80.50	83.25	79.50	82.00	78.50	74.25	77.75	81.50	80.50	79.00	75.25	76.75	84.00	83.75	80.75	71.50	70.50	74.50	83.25	86.25	75.75	71.50	73.00	80.00	82.25	77.75	77.75	79.00	79.75	80.75	82.00	78.50	77.75	80.75	83.50	84.25	84.50	82.00	78.00	78.75	79.75	80.00	81.25	82.50	83.75	84.25	85.25	86.50	87.25	88.75	89.25	92.75	98.50	116.75	160.75	172.00	181.50	170.75	142.75	137.25	138.75	152.75	168.25	186.25	176.00	160.25	163.00	165.75	177.25	185.25	181.00	184.50	195.50	198.25	191.00	179.50	165.75	156.75	153.25	152.50	143.25	138.75	146.00	168.25	170.00	168.00	163.50	155.00	154.25	152.75	149.00	161.50	158.25	153.50	153.00	154.00	150.75	145.25	136.75	128.75	125.75	126.25	127.50	130.25	136.75	137.00	133.25	133.75	136.00	133.00	130.00	129.25	125.50	127.25	131.25	136.00	139.50	137.25	142.75	150.00	147.25	142.75	141.75	141.50	139.25	137.25	138.75	138.00	134.00	132.50	133.00	131.50	129.50	128.50	131.00	131.25	132.75	134.25	137.25	133.75	133.25	132.00	135.50	133.00	133.25	134.00	141.25	144.50	145.25	145.75	139.50	140.00	144.50	143.75	137.25	131.25	128.50	132.75	133.50	133.50	131.00	129.00	126.50	116.25	104.25	101.50	99.00	100.25	92.75	88.25	103.25	116.75	112.50	102.50	103.75	115.25	110.75	110.25	116.00	131.50	137.25	132.00	130.00	127.50	126.25	137.00	130.25	128.75	132.50	146.00	154.25	156.75	157.00	157.00	155.25	148.75	141.75	140.25	140.00	138.00	131.75	127.25	129.75	134.50	134.75	143.00	140.50	138.50	146.50	154.00	154.50	153.75	149.50	140.00	135.25	134.75	138.00	138.75	141.25	139.25	135.00	135.75	137.00	135.75	135.75	145.00	146.00	141.50	136.25	133.50	132.50	136.25	153.25	169.50	168.25	170.75	171.75	173.25	172.00	170.75	174.25	175.00	175.25	169.00	168.50	169.50	174.25	178.50	188.25	173.75	170.25
81.75	82.25	81.75	81.25	75.00	82.00	83.00	78.50	77.50	76.50	75.25	78.25	80.25	76.75	77.00	73.25	83.00	80.75	75.25	70.75	74.00	80.25	76.75	82.00	87.00	76.75	77.25	75.75	74.00	72.75	70.25	73.75	79.00	78.75	79.75	81.00	78.00	76.00	84.25	85.25	82.25	82.25	77.25	77.75	78.25	79.25	79.75	81.00	81.75	82.75	84.00	85.75	87.00	88.00	89.75	91.00	94.75	103.50	122.75	173.25	184.75	169.75	133.50	122.75	124.75	129.50	135.50	165.50	177.25	160.25	157.00	160.00	170.50	188.75	188.75	188.00	194.75	200.00	197.75	189.25	178.00	163.75	153.00	151.00	147.25	144.75	151.25	171.25	175.00	174.75	173.50	166.50	151.50	152.50	149.75	149.00	165.00	157.00	154.25	155.25	154.25	152.00	147.75	141.50	132.00	130.00	129.50	131.00	131.50	134.50	135.50	134.75	134.25	135.00	130.75	128.25	126.25	130.00	130.75	141.00	143.75	143.25	141.00	147.25	150.75	149.00	144.00	144.50	146.25	144.75	141.25	142.25	139.00	136.75	138.50	135.25	132.75	131.25	132.25	135.25	134.25	133.25	133.50	136.50	134.75	133.00	135.75	135.50	135.25	138.00	139.25	140.25	143.00	147.50	145.50	139.00	135.75	138.00	140.25	138.25	129.00	129.00	133.50	133.25	131.75	132.25	126.50	115.75	107.50	99.75	98.50	99.75	101.75	85.50	90.75	109.75	121.75	116.00	113.50	115.50	111.50	109.75	108.75	113.25	128.25	137.00	128.00	123.00	127.50	134.50	129.00	125.25	127.00	139.50	152.75	155.75	155.25	156.00	154.00	151.50	144.00	135.00	135.75	134.75	131.75	130.50	134.00	137.00	138.25	134.50	134.50	136.00	142.25	152.25	155.75	153.50	144.00	138.25	137.25	142.00	142.00	142.75	140.25	142.00	142.00	139.50	136.50	138.50	138.00	139.25	134.75	134.25	132.25	132.00	132.00	131.50	131.25	143.00	161.75	163.25	169.00	171.00	174.75	173.75	173.00	171.25	173.00	175.75	168.50	167.75	169.50	171.75	180.25	185.25	170.75	170.50
81.00	81.75	81.50	81.75	82.25	80.75	78.50	77.00	76.25	75.50	76.75	76.75	79.25	81.75	81.75	78.75	72.50	70.00	71.50	77.75	78.00	72.00	73.00	85.75	79.50	73.50	78.75	76.50	78.00	74.50	71.75	77.50	79.25	79.25	77.75	78.25	78.25	79.75	84.00	80.00	80.75	77.00	77.00	77.50	77.75	78.75	79.50	80.00	81.00	82.50	83.00	84.25	88.25	88.75	91.25	92.25	95.00	101.00	119.25	152.50	136.00	119.75	117.00	123.25	124.50	129.50	143.50	171.50	158.25	153.75	155.75	161.75	190.25	193.75	191.75	199.50	199.50	196.00	190.50	185.00	175.25	161.75	155.00	151.00	147.25	149.00	171.00	179.25	178.75	178.25	170.50	156.75	152.25	151.75	152.25	159.75	163.00	150.75	159.25	160.25	158.75	155.50	153.00	146.50	139.50	137.50	139.75	137.25	132.50	134.75	138.75	136.50	135.75	135.75	135.50	131.50	129.00	131.00	135.00	141.25	143.50	145.25	144.50	148.00	152.50	152.75	150.25	151.50	151.00	149.75	145.50	143.25	140.75	141.50	141.50	136.75	134.75	136.00	137.00	136.75	135.75	134.75	135.25	140.00	138.25	136.75	135.75	137.75	139.75	141.00	142.25	142.75	144.75	148.50	150.25	147.75	141.25	135.50	133.25	134.00	133.25	133.50	130.75	129.00	132.25	127.50	116.50	109.50	105.00	101.25	100.25	101.25	93.00	85.50	100.50	126.50	129.50	122.50	118.75	117.50	114.00	111.50	106.00	108.75	122.00	135.75	131.25	126.25	127.25	135.50	129.00	132.75	139.00	149.75	154.75	154.75	153.25	154.25	152.00	149.00	143.50	136.25	131.50	130.75	133.00	134.00	130.50	134.50	144.50	141.75	140.00	143.00	151.00	154.75	153.00	145.75	136.50	141.25	143.50	142.00	145.75	144.00	141.00	135.00	134.75	138.25	138.75	135.50	140.00	138.75	137.00	138.25	131.00	127.00	127.25	128.50	131.75	135.25	142.00	149.75	165.25	169.75	171.00	171.50	174.75	174.75	174.75	173.25	167.75	167.75	168.75	174.25	186.00	176.00	180.75	173.25
81.25	80.75	81.50	81.50	80.50	78.25	77.50	78.75	78.25	77.50	79.75	80.00	81.00	81.25	80.75	79.50	70.50	71.00	75.50	77.50	73.00	70.25	78.75	84.25	74.75	77.00	75.75	75.00	79.25	74.75	75.50	80.25	78.00	80.00	77.75	79.50	81.25	83.00	83.00	80.50	79.50	76.75	76.75	77.75	77.75	78.75	79.00	79.75	80.50	82.00	82.50	83.75	88.50	89.75	92.00	93.00	95.00	99.00	110.00	122.50	116.00	113.75	123.25	133.00	127.50	132.75	163.25	174.50	156.25	152.00	156.00	167.50	195.25	192.75	194.50	200.00	196.75	189.25	184.25	182.75	177.25	170.00	160.50	152.00	146.00	147.75	168.75	175.50	179.50	179.25	171.25	161.00	160.25	161.75	161.25	168.75	158.75	151.25	161.25	164.00	162.00	157.50	154.00	148.25	142.25	142.25	142.75	138.25	133.50	136.25	139.00	137.25	136.75	136.25	137.75	132.50	129.75	132.00	136.75	138.25	142.75	146.75	146.00	147.50	151.00	151.50	153.50	154.50	152.50	149.25	146.25	145.25	144.00	142.50	141.50	138.00	136.50	140.00	139.00	138.25	136.75	134.50	138.25	143.25	140.25	137.50	135.50	138.25	141.25	141.25	142.25	144.25	145.00	146.25	146.25	149.50	146.50	138.00	132.75	132.50	133.25	133.50	129.75	126.00	128.25	122.75	111.75	106.50	102.00	101.75	101.00	98.75	89.25	86.00	104.75	131.00	131.50	124.25	119.00	117.50	114.00	109.75	106.00	107.50	120.75	136.50	133.50	125.50	128.75	136.00	134.50	138.50	144.50	152.75	155.25	155.50	152.75	150.25	147.50	143.25	142.75	139.00	132.75	132.25	133.25	132.50	128.75	136.75	141.25	139.50	143.25	149.25	155.50	155.50	150.50	142.50	141.00	146.50	144.00	142.00	143.50	142.00	137.75	129.25	132.25	138.50	138.00	138.50	141.50	139.75	137.75	139.00	134.50	129.50	127.00	128.25	132.75	135.25	139.75	150.00	164.75	168.25	168.50	169.75	172.25	176.00	176.75	171.75	167.25	167.50	170.00	178.75	180.75	174.25	184.25	173.50
80.00	79.25	80.00	79.50	79.00	77.75	78.75	79.50	80.25	82.25	83.50	82.25	79.75	76.75	77.25	75.50	70.75	72.75	74.75	73.25	73.00	75.00	83.25	78.50	76.00	75.00	73.00	75.50	75.00	73.00	75.75	79.00	77.25	79.25	77.75	81.25	82.50	82.75	81.50	78.50	76.75	76.75	76.75	77.50	78.00	79.00	79.25	79.50	80.50	81.75	83.00	84.50	89.00	90.50	93.50	94.75	95.75	97.75	102.50	108.00	108.75	114.75	133.25	146.00	136.25	154.75	186.50	175.50	154.00	149.75	165.00	175.00	192.00	186.50	193.00	197.25	191.75	180.00	177.75	183.00	177.50	163.75	156.00	148.50	143.50	144.00	153.25	156.75	165.75	170.00	169.50	165.75	168.75	172.75	171.75	171.75	152.00	150.50	164.25	168.25	165.75	160.50	155.75	151.00	147.50	146.75	145.25	140.00	136.25	137.00	139.75	137.75	135.00	134.75	134.75	132.50	132.25	128.75	133.25	137.00	142.75	146.25	147.25	147.50	149.25	152.00	158.00	158.25	155.00	149.00	147.75	149.00	146.50	144.00	142.75	140.00	141.00	144.00	142.50	141.50	138.25	137.75	143.25	144.00	139.25	141.75	139.00	139.50	143.00	141.00	142.00	144.00	144.00	144.50	141.75	143.75	145.25	142.50	135.75	130.75	129.25	129.25	129.75	123.00	119.50	115.00	108.75	103.50	99.75	100.50	99.75	93.50	85.75	86.75	106.75	132.25	133.00	125.75	118.75	117.00	113.75	110.00	107.00	108.25	120.25	135.25	131.75	126.50	132.00	138.25	138.75	145.50	150.50	153.75	152.75	153.25	151.00	145.25	141.00	138.25	141.00	140.75	135.25	133.25	130.75	128.75	131.75	141.00	139.25	141.75	146.75	153.25	155.75	152.75	148.00	144.50	146.50	147.75	141.75	139.00	142.25	140.25	133.50	126.75	129.75	134.50	132.25	135.25	139.00	141.00	139.25	138.00	135.75	133.00	129.00	128.25	131.75	138.50	147.25	156.50	165.25	168.50	168.25	168.50	170.75	175.75	176.75	169.00	166.75	170.25	178.75	179.75	173.25	178.50	180.25	171.75
78.50	78.50	78.50	80.00	79.00	78.00	80.50	80.50	78.00	82.50	80.50	76.50	76.00	73.00	72.50	70.50	71.00	70.00	73.50	78.00	77.50	79.00	81.50	69.50	70.00	70.00	79.00	76.00	70.50	71.50	75.00	78.50	77.50	78.00	76.50	79.50	81.50	81.50	77.00	76.00	76.00	76.50	77.00	77.00	78.00	78.50	79.00	80.00	80.50	82.50	84.50	86.50	89.50	91.00	95.00	96.50	96.50	98.00	100.50	103.50	107.50	119.00	141.00	163.00	166.50	196.50	195.00	173.00	147.00	149.00	172.50	176.00	177.50	178.00	189.50	193.50	189.00	178.00	166.00	162.00	163.00	146.00	144.50	142.00	141.00	141.50	142.50	142.00	143.50	146.00	146.00	146.50	150.50	164.50	167.00	156.00	143.50	145.50	163.50	169.50	168.00	163.50	159.50	156.50	154.00	150.50	148.50	145.00	139.00	139.50	139.00	136.00	132.00	132.00	131.50	137.00	136.50	130.50	133.00	137.00	143.00	145.00	147.50	148.00	149.50	155.00	163.00	163.00	158.00	151.00	149.50	150.00	148.50	148.50	146.00	143.50	145.50	147.50	146.50	146.00	144.50	143.50	147.00	139.50	135.50	143.50	142.00	142.00	146.50	143.50	144.50	142.50	142.50	141.50	141.50	136.00	137.50	140.50	140.00	130.00	125.00	126.00	128.00	123.50	109.00	105.00	107.00	104.50	102.50	98.50	97.50	87.50	84.00	86.50	104.50	132.00	133.50	127.50	119.00	117.00	117.00	115.00	113.00	114.50	122.00	129.50	126.50	132.50	139.00	143.00	140.50	145.50	148.50	147.50	145.00	149.00	148.50	141.50	137.00	138.50	142.00	140.50	129.50	126.00	124.50	124.00	141.00	143.00	137.50	151.50	153.50	154.00	148.50	145.00	143.00	143.00	146.00	146.50	139.50	136.00	144.00	138.50	132.50	128.50	132.50	135.00	129.50	133.00	132.00	140.50	140.00	138.50	134.00	135.50	128.50	127.50	131.50	141.50	150.50	161.50	162.50	167.50	167.50	169.00	170.50	174.00	174.50	167.00	168.50	181.00	187.00	175.00	170.00	186.00	172.50	170.00
78.75	80.00	82.75	81.50	80.50	81.00	80.00	81.00	81.00	78.25	75.25	70.75	70.25	71.00	74.00	71.00	74.00	79.25	82.25	81.50	78.00	79.75	77.50	69.00	69.25	77.50	77.75	73.00	71.25	72.00	78.25	78.50	77.00	78.75	77.75	81.25	82.00	80.75	75.75	76.00	76.00	76.25	77.50	77.25	77.75	78.75	79.50	80.50	81.50	83.25	85.00	87.00	89.25	90.00	94.50	97.00	96.75	98.50	99.75	102.50	107.75	143.00	180.75	190.75	195.50	195.75	174.75	148.75	143.75	152.75	175.50	174.00	174.00	179.50	198.25	195.50	186.75	166.75	156.00	152.50	153.75	142.50	141.50	141.00	141.00	141.00	141.50	141.75	142.50	143.00	143.75	143.50	144.25	145.25	144.75	143.25	143.00	145.00	157.25	169.50	167.25	165.25	164.50	162.75	157.75	153.50	148.25	145.00	140.25	141.00	139.75	137.75	135.00	136.00	135.50	134.75	128.75	139.25	140.00	140.25	144.00	146.50	147.25	149.00	150.75	156.25	163.25	165.75	156.50	150.75	149.25	148.25	149.50	150.00	146.00	149.00	150.00	150.00	149.00	147.25	142.50	137.50	139.50	141.50	136.75	146.00	143.50	147.25	148.00	147.00	146.75	141.75	140.75	139.00	142.00	137.25	136.00	137.00	136.75	132.25	132.00	134.75	131.00	125.00	107.00	101.00	103.75	102.00	102.75	97.75	95.00	84.50	83.75	86.00	95.25	120.25	131.75	129.75	122.00	118.00	117.50	117.50	114.75	115.50	118.50	121.00	126.25	134.75	143.00	145.75	144.25	144.25	144.00	143.50	143.75	150.25	151.25	145.50	140.50	141.75	137.00	128.50	127.50	126.50	125.00	127.75	139.00	137.75	142.50	154.75	156.25	147.00	142.50	143.25	141.50	140.25	139.00	140.75	141.50	137.50	138.50	139.00	138.75	136.00	133.50	138.75	137.75	137.00	135.00	136.50	133.00	138.25	138.00	134.00	129.00	130.00	134.25	139.00	153.25	161.25	163.25	162.75	165.50	169.50	172.75	173.50	171.00	168.50	177.25	186.50	182.50	171.25	172.00	181.75	170.75	170.00
82.00	84.75	84.25	81.00	85.25	80.50	79.50	78.75	76.25	74.75	77.25	75.00	70.00	75.00	80.25	82.00	86.50	87.75	80.25	73.00	75.00	82.00	79.25	76.75	78.00	83.50	80.00	74.50	71.50	74.50	79.00	77.75	77.50	79.00	81.25	82.25	80.50	75.75	75.50	76.00	76.00	76.75	77.00	77.25	77.75	78.50	79.50	81.25	81.75	83.25	84.75	85.75	86.50	87.75	91.75	95.00	98.25	99.25	100.50	102.75	108.00	148.50	197.50	185.00	175.50	151.25	138.50	141.25	145.25	156.25	187.25	173.75	169.50	183.00	196.75	187.50	171.50	153.75	149.00	147.25	143.75	142.50	141.25	141.00	141.50	141.00	141.50	141.50	142.25	142.25	142.75	143.00	142.75	142.75	143.00	143.00	143.00	145.25	157.25	171.50	168.50	166.50	166.00	163.75	157.75	152.25	145.75	143.00	143.50	147.00	146.25	142.75	140.25	138.25	136.00	131.50	134.50	146.75	145.75	145.00	143.25	146.50	149.00	150.50	154.00	159.50	166.50	164.75	156.00	152.00	150.75	153.25	152.25	148.50	150.25	152.50	152.75	150.50	146.50	141.75	137.75	137.50	143.00	143.50	145.00	147.50	145.25	143.50	144.75	149.75	144.75	135.25	134.50	142.50	144.50	143.50	139.50	137.75	130.00	117.75	124.75	133.00	124.75	118.00	100.75	99.25	100.00	100.00	101.50	99.00	93.25	84.25	84.50	85.75	91.75	120.25	139.25	135.00	127.75	121.75	116.75	116.25	117.00	115.50	114.25	117.75	132.75	144.00	146.75	147.75	147.75	145.75	145.00	143.75	145.00	148.25	145.50	143.75	138.50	135.25	135.75	131.50	135.00	135.75	131.50	131.50	133.25	145.50	154.00	157.00	153.75	143.00	142.25	139.75	138.50	138.00	137.00	137.50	136.75	132.50	130.75	131.25	134.00	129.00	130.50	140.75	141.00	141.75	142.25	136.00	130.25	133.50	134.75	135.25	129.25	144.25	130.50	128.00	150.00	157.00	161.00	166.00	167.75	166.75	166.00	173.00	170.00	177.25	183.75	181.75	172.50	174.25	181.00	172.00	171.25	171.00
79.75	73.75	77.75	78.00	85.00	78.75	76.25	81.50	80.00	75.50	74.00	72.75	72.50	81.00	86.50	88.00	86.75	76.25	67.50	66.00	72.75	81.75	73.50	78.50	72.25	80.75	73.50	70.00	72.50	77.00	78.25	77.50	77.50	79.75	82.00	80.50	77.50	75.00	75.50	75.50	76.50	76.00	76.25	77.00	77.50	78.50	79.25	80.50	81.50	84.50	85.00	85.50	87.00	87.75	90.50	94.00	100.25	102.00	101.75	103.75	106.75	118.50	142.00	139.50	133.00	142.75	151.00	150.25	157.25	173.25	189.25	173.00	166.25	168.50	175.50	167.25	157.50	149.25	147.00	145.00	143.50	143.00	142.75	142.00	142.00	141.75	141.75	141.50	142.25	142.75	142.75	143.25	143.00	143.50	143.50	143.00	143.50	146.00	157.50	175.00	170.00	166.50	165.25	161.50	155.50	150.50	146.00	145.25	152.50	153.50	151.00	146.75	141.75	139.75	137.00	131.00	135.75	148.75	150.25	144.25	145.00	147.50	149.75	153.50	159.25	165.25	170.00	162.00	155.75	153.75	157.25	160.50	154.50	152.25	157.00	157.25	156.00	153.25	148.25	144.50	142.00	148.25	151.00	149.75	147.00	141.25	138.50	141.75	146.50	146.50	142.25	135.25	126.75	137.00	136.50	145.25	129.50	121.75	101.50	91.25	98.00	109.50	108.25	110.25	98.75	94.00	95.50	100.00	101.75	97.25	90.00	84.25	84.50	87.25	104.00	140.50	144.50	139.00	131.25	125.25	116.75	114.25	113.00	113.00	113.00	117.00	134.00	145.25	147.50	147.75	146.75	145.50	145.75	143.00	145.25	146.00	143.00	139.00	136.00	137.75	134.50	130.50	139.50	136.75	131.75	131.25	141.75	151.00	152.00	154.50	155.75	148.00	146.50	138.00	136.75	138.25	140.50	138.50	136.25	134.75	130.25	134.75	133.75	134.25	139.75	141.50	142.75	136.25	142.75	141.50	137.00	132.25	134.25	133.75	124.75	131.50	124.25	133.50	161.50	167.50	164.50	164.75	167.50	165.75	168.50	172.25	171.50	176.50	176.00	173.50	176.75	183.00	177.25	171.25	171.50	172.00
76.00	74.50	84.50	87.00	85.50	76.50	81.50	79.50	75.00	74.00	70.00	70.00	70.00	70.00	82.00	83.00	76.50	67.00	66.00	67.50	79.00	77.50	70.50	73.00	76.50	79.50	69.00	70.00	72.00	76.00	76.50	76.50	79.50	80.00	82.00	78.50	75.00	75.50	75.00	75.50	75.50	76.00	76.00	77.00	77.00	78.00	79.00	80.50	82.00	84.50	86.00	86.50	87.50	89.50	91.50	98.50	104.00	103.00	102.00	104.50	107.00	111.00	114.00	122.00	150.50	178.00	178.50	180.00	180.00	202.00	182.50	170.00	164.00	161.00	158.50	155.50	152.00	149.50	147.50	145.00	144.00	143.00	143.00	142.50	143.00	142.50	142.50	142.50	143.00	143.00	144.50	143.50	143.00	144.50	144.50	144.00	145.00	149.00	164.50	176.00	172.50	166.50	166.00	161.00	156.00	150.50	148.00	150.00	156.50	154.00	151.50	148.50	143.00	140.50	136.50	137.50	134.00	148.00	152.00	145.00	147.00	148.00	152.50	156.00	161.00	166.50	169.00	162.50	156.00	155.00	160.50	161.00	155.00	156.50	160.00	159.50	158.50	155.50	151.00	149.50	148.00	154.00	154.50	152.00	142.00	138.00	142.00	149.00	146.00	142.00	138.00	136.00	124.50	125.00	116.00	135.50	111.00	93.00	81.00	79.50	79.50	82.00	95.50	107.00	93.50	89.00	89.00	96.50	101.00	96.00	86.50	84.00	85.00	90.00	116.00	147.00	146.50	142.50	135.00	129.50	119.00	116.00	114.50	113.00	113.50	116.00	128.00	143.50	146.50	148.50	144.50	145.00	146.00	139.50	141.00	141.00	142.00	139.00	134.50	137.00	133.00	138.00	143.00	139.00	138.50	139.50	145.50	149.50	149.50	154.50	154.50	149.50	145.00	138.50	135.50	135.50	142.00	139.00	141.00	141.00	130.50	135.50	137.00	136.50	138.50	135.00	140.50	136.00	140.50	144.00	142.00	139.00	136.00	128.00	124.00	124.00	125.50	143.50	164.50	168.50	168.00	166.50	167.00	166.00	170.00	172.00	172.00	171.50	170.00	173.00	179.50	181.50	173.00	171.50	172.00	172.00
78.25	86.50	84.00	81.50	81.75	79.75	82.25	77.75	79.00	82.75	79.00	79.25	80.50	78.00	82.75	79.75	72.50	70.75	72.75	77.00	76.25	71.75	75.50	77.25	77.00	78.50	73.00	71.75	76.25	75.50	76.00	75.25	78.00	81.00	78.75	75.75	75.75	75.25	74.75	75.00	75.25	75.00	75.75	76.00	76.75	78.25	79.75	82.00	85.00	88.25	89.00	87.50	88.75	89.75	93.00	95.75	98.50	99.25	100.50	105.00	107.75	112.25	120.75	155.00	179.75	186.75	180.50	181.00	186.00	188.75	171.25	166.25	161.75	160.25	156.50	152.75	150.75	149.00	147.50	145.50	144.25	143.75	143.50	143.00	143.50	143.25	143.25	143.00	143.25	144.00	146.50	147.00	147.50	148.00	149.25	148.25	150.25	153.00	156.25	170.75	175.50	169.50	165.75	162.00	155.25	152.75	151.50	155.00	158.00	155.75	153.50	149.75	145.25	139.25	138.00	142.00	142.75	144.75	149.50	148.75	148.50	150.50	153.25	156.50	161.50	167.50	168.00	162.25	157.25	158.00	162.75	161.50	156.75	159.75	161.00	160.00	159.25	155.75	156.25	151.75	151.25	157.50	157.25	151.25	138.25	140.50	149.00	152.00	141.75	140.75	135.00	130.75	113.25	95.75	91.50	102.75	94.25	79.25	74.25	73.75	74.50	75.00	87.75	88.50	83.25	81.50	82.00	87.50	97.25	93.25	85.25	84.75	86.50	105.00	121.25	132.00	136.00	144.00	140.50	136.25	126.00	121.00	116.50	114.50	115.00	115.50	125.75	143.00	148.75	150.25	147.25	146.25	143.00	134.50	135.50	139.75	139.00	133.00	130.50	137.00	139.25	146.25	145.00	143.75	144.75	146.00	150.50	150.00	151.00	154.75	151.50	145.00	139.50	136.75	136.50	139.50	141.25	135.25	140.25	139.25	133.25	132.00	130.50	134.00	138.25	135.75	141.25	144.00	141.25	138.75	137.75	142.75	140.75	132.75	130.50	131.00	143.25	156.25	143.25	149.50	163.50	171.25	164.75	165.75	167.50	169.75	171.25	171.00	173.00	175.50	176.25	173.75	170.75	176.00	172.50	172.50
82.25	87.50	78.25	79.25	83.00	78.50	78.00	84.50	84.50	83.50	83.25	88.00	89.25	86.25	82.75	81.25	77.00	75.50	75.50	75.00	74.25	75.25	79.50	75.50	69.00	79.50	71.75	71.50	77.00	78.25	77.00	74.50	77.75	81.25	76.00	75.00	75.75	75.00	74.25	74.50	74.75	75.00	75.25	76.00	77.00	79.25	81.75	84.75	88.75	92.25	92.00	88.75	89.25	90.00	92.75	94.00	96.00	99.25	101.75	106.00	109.00	114.50	126.25	174.50	180.50	184.75	185.25	181.25	174.25	172.00	166.50	164.25	163.00	161.75	156.75	151.75	149.75	148.25	147.25	146.00	145.00	145.25	145.25	144.25	144.25	144.00	143.75	144.00	144.00	145.00	147.50	147.75	150.00	151.50	154.75	154.25	154.50	153.25	155.50	178.00	179.50	172.25	167.25	162.50	156.75	154.75	155.50	157.25	158.50	157.25	154.50	151.00	145.50	136.75	141.50	146.00	146.25	143.00	150.00	150.75	150.75	151.50	156.00	158.25	162.50	169.00	167.75	162.00	159.75	162.25	164.25	161.50	158.25	159.75	160.50	159.75	158.75	157.00	157.75	151.75	151.25	158.25	157.50	148.50	137.75	143.00	144.00	139.00	125.25	131.75	141.00	137.50	105.25	84.75	80.25	77.00	73.75	71.00	70.50	70.50	71.75	71.75	75.00	74.00	76.50	77.25	79.00	85.25	96.50	90.25	84.75	84.75	87.75	112.25	109.50	111.50	123.75	146.00	145.50	142.25	129.50	123.75	117.00	114.75	115.25	115.50	127.25	143.50	150.00	151.50	149.75	147.75	141.00	133.75	138.25	141.50	136.75	130.50	131.75	139.50	146.00	148.00	143.75	146.25	147.00	148.00	155.25	153.75	153.00	155.50	149.25	143.00	137.50	134.75	135.50	140.50	142.25	138.00	138.75	139.00	134.75	131.25	131.50	139.00	143.00	140.25	141.00	150.00	146.50	135.25	135.00	143.00	147.25	139.25	135.25	140.50	152.50	151.50	135.50	143.00	163.25	170.25	164.50	165.00	165.25	168.00	170.50	169.00	171.00	176.00	171.75	169.75	174.00	180.25	171.50	172.00
86.00	81.50	82.50	83.00	80.25	80.00	78.75	79.00	79.75	76.25	81.50	84.00	83.75	82.00	72.00	71.00	71.50	76.00	79.25	83.00	75.75	68.00	71.25	71.75	78.00	77.00	74.25	72.50	76.25	78.25	74.75	74.00	80.25	79.50	75.00	74.75	75.00	74.75	74.25	74.50	74.25	74.50	75.00	76.75	78.75	82.25	86.00	91.75	95.75	100.00	100.50	98.00	96.00	93.50	92.50	93.50	96.50	101.00	106.25	111.75	115.25	120.25	126.00	148.75	164.25	177.75	204.00	197.50	174.75	171.25	169.50	170.25	190.50	180.00	162.25	153.75	150.00	148.75	149.00	148.50	147.50	150.25	150.25	149.25	147.75	147.50	148.25	149.25	149.50	151.25	153.25	155.50	156.25	154.00	157.50	159.75	155.50	157.25	171.25	188.50	184.50	174.75	169.75	164.75	161.00	158.75	161.25	161.25	158.75	156.75	155.50	152.50	143.75	142.75	148.00	150.50	149.00	146.75	147.75	154.75	153.00	153.50	159.50	160.75	162.75	166.50	169.50	166.00	164.25	164.25	163.75	161.00	158.00	159.25	160.00	159.25	158.50	160.25	158.75	147.75	144.00	158.50	149.25	141.50	135.25	129.25	105.00	94.75	92.50	105.75	110.25	109.25	84.75	76.50	72.75	70.25	68.75	67.50	67.00	67.75	68.75	68.75	70.00	71.25	75.50	80.50	87.75	98.00	99.00	85.75	84.50	86.00	87.75	92.25	95.25	102.00	123.25	151.25	151.00	143.00	127.00	122.00	116.75	116.00	119.25	119.00	124.50	138.25	137.75	145.50	148.50	149.75	144.50	139.25	140.00	139.50	140.50	138.00	136.25	139.75	147.25	145.00	147.00	149.50	149.25	149.25	154.25	152.25	151.75	152.50	144.25	138.00	136.25	132.50	129.75	130.00	138.25	143.25	138.25	132.50	127.50	131.25	132.25	135.25	142.00	141.50	137.75	151.00	149.50	136.25	140.75	149.25	147.00	144.75	148.00	154.50	142.50	135.75	143.25	158.50	168.25	163.25	162.50	164.50	164.75	165.25	166.00	166.00	169.00	174.25	169.25	174.25	180.25	179.25	171.00	171.00
