177.00	150.50	133.75	126.25	126.25	123.50	105.25	96.25	103.25	111.00	117.75	114.00	118.75	122.00	116.00	113.50	105.00	104.50	108.00	102.00	102.00	99.00	99.75	98.00	93.50	90.50	92.00	85.25	79.25	76.75	74.50	75.25	78.75	78.75	66.50	60.75	78.75	69.50	61.75	44.25	44.25	45.75	48.50	45.25	44.75	45.50	54.50	46.75	47.00	54.50	56.00	61.25	60.75	61.25	59.25	55.50	52.50	54.75	60.00	70.50	76.50	83.75	87.75	99.50	101.75	99.25	101.00	102.25	103.25	106.25	107.00	100.50	92.50	86.25	87.50	79.50	78.00	80.00	81.75	83.25	85.00	86.00	86.00	86.25	89.25	95.25	95.75	102.25	97.25	89.75	105.00	110.50	114.50	107.50	111.00	107.50	112.50	127.00	133.25	144.25	165.75	161.00	144.50	142.50	147.75	150.50	150.75	151.50	154.50	152.25	152.75	165.00	175.00	160.50	144.25	135.75	139.50	131.50	135.00	145.25	137.00	131.75	126.25	125.25	110.50	99.75	92.25	92.50	86.75	82.50	82.00	82.50	85.50	98.00	110.75	121.25	124.25	127.50	129.75	122.25	119.75	116.50	113.75	112.25	111.50	113.75	103.25	89.50	81.75	83.50	85.00	83.00	78.75	75.50	79.50	84.25	93.50	100.00	105.50	97.50	81.00	64.75	59.00	57.50	57.75	57.25	57.50	57.25	58.25	58.00	58.75	58.75	60.25	57.75	58.75	60.75	59.25	57.75	56.25	52.50	52.25	54.00	61.00	63.75	58.25	53.50	49.25	49.50	49.75	50.75	51.25	51.25	52.25	53.25	52.75	51.75	53.75	54.00	51.50	53.75	52.25	53.50	57.50	53.25	54.00	57.75	65.75	65.00	62.75	67.00	69.50	69.75	74.75	72.00	70.75	70.50	73.25	77.25	71.50	67.00	61.50	58.50	47.50	45.25	49.75	50.25	60.75	72.50	74.50	74.75	69.75	67.75	123.25	125.25	100.25	69.25	51.00	48.50	53.75	51.25	44.50	51.50	50.75	44.00	44.25	44.50	47.00	45.75	45.75	46.25	44.00	49.75	50.25	50.75	60.50	58.00
145.25	126.50	117.75	112.75	108.50	107.00	96.00	98.75	105.50	109.50	114.25	109.00	113.00	115.75	111.00	109.50	100.75	95.75	100.75	101.00	102.75	100.50	98.00	95.50	90.25	88.50	88.25	84.50	78.00	76.25	75.00	76.75	77.75	74.50	63.75	67.00	77.75	67.25	59.75	45.00	44.75	45.25	45.00	45.50	45.00	46.75	54.25	49.25	50.50	50.75	58.00	65.50	63.25	64.25	62.50	59.00	56.00	56.50	58.50	68.75	73.00	77.50	82.50	98.00	106.75	105.75	105.50	104.25	101.25	101.50	103.75	101.50	96.25	90.00	89.25	78.25	77.25	83.75	85.25	81.25	81.50	82.50	84.50	86.50	85.25	88.75	97.50	98.75	100.25	100.25	113.25	113.50	116.25	106.00	114.75	113.00	118.50	124.75	132.25	138.75	162.00	164.25	146.25	146.75	153.00	154.25	152.00	151.00	153.25	154.50	154.00	160.75	170.25	160.75	147.50	141.25	140.50	130.25	123.75	133.50	133.50	135.25	122.75	111.50	101.75	94.00	94.00	97.50	91.75	94.25	88.50	90.50	93.00	107.00	116.50	123.00	125.00	131.75	135.50	133.25	133.25	137.00	126.00	120.25	117.25	119.75	115.50	103.50	90.50	85.00	89.25	87.75	83.25	75.50	79.50	98.50	106.00	107.50	107.50	97.75	79.75	69.00	64.75	61.50	61.75	60.25	59.25	60.75	61.25	60.75	60.25	61.25	63.00	61.25	60.00	58.75	59.00	60.00	62.25	54.25	55.25	55.75	61.25	60.00	57.75	57.25	54.25	54.50	52.50	51.50	53.50	52.75	52.00	52.25	52.25	51.75	52.00	52.00	53.25	55.50	53.25	54.75	56.25	53.25	53.50	57.75	59.50	58.75	59.25	59.75	60.75	60.75	66.25	66.00	71.00	68.50	72.50	74.75	69.50	67.00	64.50	56.25	56.00	51.00	48.25	51.75	59.25	73.75	78.25	81.00	85.50	85.75	128.00	123.25	93.00	80.75	58.00	54.75	56.25	54.50	47.00	48.50	50.00	47.25	46.00	45.25	45.50	44.75	46.50	47.00	46.00	52.75	51.00	48.00	50.25	54.50
116.25	108.75	105.50	104.00	100.00	95.75	91.00	102.00	107.25	109.75	112.50	105.25	106.25	108.75	107.25	106.50	97.75	89.00	92.50	97.75	99.50	100.50	95.50	92.00	89.25	87.25	83.75	83.00	77.50	76.00	74.50	75.00	75.00	71.00	62.25	65.75	70.25	60.50	55.75	46.50	45.50	45.25	44.75	45.25	45.50	46.50	52.25	49.25	52.25	48.25	56.25	64.25	59.50	58.50	60.50	60.25	58.50	59.75	58.00	67.50	72.25	76.75	83.25	96.25	106.25	108.25	106.75	102.50	99.25	95.00	97.75	97.00	95.75	93.25	90.75	77.50	76.75	87.50	87.25	79.00	79.25	81.25	85.50	87.50	85.50	85.00	102.25	102.00	109.50	112.00	115.50	115.50	113.50	105.50	114.50	116.00	120.25	124.50	134.50	134.75	148.75	159.75	150.75	146.75	152.25	152.25	155.50	155.00	153.50	155.25	152.00	156.25	161.25	164.00	152.50	148.00	137.75	131.00	119.50	119.25	126.25	134.25	109.75	97.25	102.00	100.00	101.75	110.25	103.75	108.75	97.75	99.50	100.25	118.75	124.25	125.25	125.50	132.25	141.00	145.75	149.25	147.50	134.00	125.75	119.75	119.75	121.00	113.50	101.50	89.50	97.75	101.50	96.75	84.00	88.00	106.50	111.00	113.50	105.00	95.50	75.50	70.00	67.50	66.00	68.00	64.00	62.50	66.25	65.75	64.25	63.50	64.75	66.75	65.75	61.25	59.00	58.75	60.75	63.50	55.50	59.50	60.25	63.00	58.25	56.50	61.75	64.00	59.75	55.50	53.25	56.75	58.75	54.75	54.75	54.50	55.50	55.75	54.25	57.50	56.00	59.00	60.25	60.50	60.50	57.50	57.00	54.75	53.25	53.25	54.00	52.75	54.00	56.00	60.00	68.25	67.00	69.00	69.00	67.50	64.75	65.25	55.00	56.75	58.25	53.50	54.75	61.25	75.25	80.75	87.75	100.75	91.25	109.25	103.00	78.75	83.00	65.00	57.00	54.50	57.00	49.50	46.50	47.00	50.25	48.00	47.00	45.00	44.75	44.75	44.50	47.75	49.50	49.25	52.50	52.00	53.75
99.75	93.25	95.00	97.00	99.00	94.75	91.75	101.50	103.00	104.75	104.25	101.75	105.75	109.50	110.00	106.25	94.00	91.00	95.00	97.50	97.25	95.00	91.50	91.00	88.00	84.25	79.75	82.50	76.75	73.50	71.25	69.00	64.00	63.25	66.25	78.25	74.25	76.75	65.25	49.25	46.75	45.75	45.00	44.25	44.50	45.50	51.00	45.75	48.50	49.75	51.00	49.25	48.50	50.00	49.50	47.25	46.75	52.25	57.75	63.25	71.25	79.00	82.75	92.50	98.25	99.00	100.25	104.75	99.25	89.00	86.75	87.50	85.25	84.75	80.75	75.25	75.75	77.25	76.50	78.50	80.00	81.25	83.25	85.25	88.25	90.25	101.75	103.25	101.50	108.00	107.00	99.00	98.25	105.00	105.75	109.75	117.75	127.00	134.50	132.50	136.25	147.25	145.00	142.25	143.00	150.50	159.50	167.25	162.75	160.25	157.25	154.25	153.25	160.00	153.75	154.25	148.75	148.00	145.25	127.25	109.00	115.75	117.25	125.25	139.50	119.75	117.50	120.00	122.50	120.00	114.00	108.00	110.25	117.50	126.75	129.25	129.00	138.25	142.50	144.50	147.25	141.75	137.25	127.25	123.25	117.50	111.25	113.25	111.25	93.25	98.25	109.00	103.75	102.50	108.50	112.25	112.25	111.00	104.50	92.75	75.00	75.00	76.75	74.75	73.75	63.75	62.00	61.25	62.00	65.00	63.00	64.75	66.75	73.75	73.50	68.50	61.50	61.00	61.00	62.00	65.00	67.25	65.50	65.25	63.00	69.00	67.50	65.75	61.75	58.25	56.00	60.75	64.25	64.50	66.50	67.75	67.00	66.00	60.50	62.50	74.00	80.25	83.25	90.75	97.00	65.25	61.75	57.00	55.50	60.75	53.50	52.75	54.50	53.00	53.75	53.75	59.00	63.75	64.25	63.25	63.00	66.25	58.75	56.00	60.75	66.25	68.00	75.00	80.50	95.25	92.25	60.25	69.25	72.75	66.50	70.75	59.00	51.50	57.00	52.00	45.75	45.00	54.00	53.25	58.50	48.25	45.00	44.00	46.25	56.75	51.50	49.25	52.25	58.00	50.00	46.50
89.50	91.00	91.50	97.50	98.50	89.50	90.00	97.50	94.00	99.00	97.50	98.50	106.50	110.00	108.00	102.50	93.00	90.00	90.50	97.00	96.00	91.00	88.00	86.50	85.50	82.50	78.00	83.00	76.50	75.00	66.50	69.00	67.50	69.50	71.50	89.00	97.00	97.00	73.50	53.00	48.00	48.00	45.00	45.00	45.00	49.50	46.50	53.00	50.00	46.00	48.50	50.00	54.50	50.50	47.50	47.00	47.00	51.00	61.00	62.50	68.00	75.00	81.00	87.00	90.50	92.00	96.00	99.00	93.50	84.50	87.00	88.00	87.00	84.00	79.00	75.00	73.50	77.50	77.00	79.00	77.50	79.50	80.50	82.50	86.50	96.00	89.50	97.50	93.00	104.00	97.00	94.50	97.00	94.00	97.50	110.50	117.00	118.00	124.00	126.00	134.50	133.00	136.50	139.00	151.50	155.00	142.50	148.00	148.50	155.50	156.00	153.00	152.50	149.00	150.50	159.50	167.50	170.00	166.50	156.00	127.00	149.50	134.00	148.00	150.00	145.00	126.50	135.00	134.00	130.50	125.50	120.00	113.50	123.50	127.00	126.00	124.50	127.00	131.50	133.50	137.50	125.00	135.50	136.50	128.50	118.50	114.00	106.00	112.50	98.00	93.50	100.00	103.00	107.50	112.00	112.00	110.50	109.50	100.50	90.50	87.50	89.00	76.50	72.50	69.50	63.00	64.00	61.00	61.00	61.50	63.00	68.50	73.00	77.50	90.50	88.00	63.00	61.00	61.00	61.50	62.50	63.00	61.00	60.50	61.00	63.50	64.00	64.50	66.00	64.00	64.50	67.50	67.00	66.00	64.50	64.00	63.00	65.50	67.00	72.50	81.50	86.50	88.50	91.00	99.50	86.00	74.50	58.50	60.00	67.00	55.00	52.00	55.50	58.00	54.00	55.50	62.50	63.50	64.00	63.00	60.50	59.50	57.50	57.00	66.50	64.50	68.00	71.50	73.50	79.00	74.50	64.50	69.00	59.00	61.00	58.50	53.50	56.50	58.00	46.00	44.50	48.00	55.00	55.00	55.00	51.00	44.00	48.00	52.00	58.50	57.00	53.00	51.00	50.50	49.00	50.00
81.25	82.25	87.75	93.00	86.50	80.75	87.25	86.00	86.75	93.50	95.25	99.00	105.25	106.00	97.25	87.75	85.25	86.25	92.50	109.50	103.25	90.50	86.00	85.25	88.50	92.50	91.00	77.50	69.75	68.50	69.75	74.25	74.75	76.25	77.75	83.25	85.00	73.25	66.00	54.50	51.50	49.50	48.75	45.75	47.75	47.50	47.75	49.50	46.75	47.00	49.25	46.00	47.50	50.00	50.25	48.25	47.50	48.25	57.50	71.00	65.50	70.75	76.50	82.00	84.50	86.75	89.25	89.50	85.25	82.00	85.75	86.50	85.75	81.50	77.25	73.75	72.25	75.25	75.25	79.75	76.75	77.75	79.25	82.00	84.00	88.50	88.00	86.75	93.25	95.50	94.75	97.00	100.00	105.50	110.75	115.00	119.00	119.75	125.75	124.50	127.75	132.75	129.75	130.25	127.00	141.00	149.25	155.25	152.50	153.75	154.75	154.25	155.25	149.25	155.25	156.75	171.25	172.50	162.25	152.75	140.25	149.50	147.50	143.25	156.00	147.50	134.50	149.50	150.75	147.25	138.25	131.25	126.75	129.75	138.50	138.25	136.25	135.25	133.50	132.75	131.75	127.25	126.00	125.75	122.50	119.50	118.50	110.50	103.25	103.50	97.75	98.25	102.00	105.75	108.50	106.75	110.75	110.75	103.75	98.25	100.75	96.25	80.25	74.25	69.25	65.75	65.50	62.75	63.25	64.00	66.50	82.00	82.75	80.25	87.00	86.25	75.00	65.75	63.25	62.75	61.50	61.25	62.50	63.25	62.75	62.75	63.00	67.00	68.50	69.75	68.25	69.25	70.25	69.50	69.50	69.25	70.25	72.00	74.50	81.75	93.00	97.50	102.00	104.75	98.25	96.25	88.00	68.25	62.75	59.50	62.75	63.75	62.25	63.75	57.75	61.25	57.75	64.50	63.25	64.25	59.75	58.50	52.75	53.25	61.00	63.75	66.50	71.00	74.00	76.00	78.50	67.00	60.00	57.75	48.50	47.75	50.50	55.75	52.75	47.25	47.00	48.75	54.00	54.00	53.00	47.75	44.25	53.00	52.25	56.00	60.75	62.50	61.00	57.25	54.00	49.50
75.25	75.75	78.25	82.75	83.50	77.00	84.00	92.00	95.75	97.50	90.25	94.75	102.25	95.25	83.75	81.75	87.50	89.50	92.00	98.00	98.25	96.00	89.50	89.50	92.00	91.00	79.25	76.50	78.50	79.00	78.50	79.75	80.75	82.50	81.50	74.00	65.75	60.25	63.25	63.25	61.00	52.75	49.00	50.75	49.75	48.25	49.50	48.00	46.25	48.00	49.25	49.50	49.25	50.00	48.00	48.75	48.75	46.75	49.00	65.50	62.75	64.75	72.25	76.25	76.50	80.00	82.25	84.75	81.75	81.00	83.00	82.50	81.75	78.50	75.25	72.00	70.50	76.25	79.50	84.75	76.25	76.75	77.50	78.75	78.50	82.75	84.50	86.00	86.75	86.25	96.75	95.50	94.75	102.00	107.25	114.00	119.50	124.25	123.00	124.25	119.50	116.00	123.25	120.50	126.00	136.75	152.50	161.25	165.00	166.50	165.75	156.50	151.75	149.75	148.00	145.00	145.25	150.00	149.50	152.50	149.50	147.00	154.75	162.00	158.25	163.00	152.75	146.50	154.00	150.75	150.25	149.00	136.50	139.50	141.75	144.75	141.75	137.25	141.25	144.75	146.00	144.25	141.00	139.00	131.25	124.50	118.75	111.75	112.25	102.75	100.25	91.50	95.00	103.25	105.50	106.50	106.25	108.25	108.00	104.75	103.25	97.25	85.75	84.00	72.75	70.00	73.75	64.00	64.50	64.25	67.50	83.75	88.25	86.00	88.75	90.00	91.75	80.50	70.00	73.50	73.75	74.75	74.00	76.25	78.75	71.75	74.75	78.50	87.50	108.75	115.50	102.75	90.00	88.50	84.00	94.50	94.50	86.25	91.50	107.25	118.25	122.75	120.00	110.75	106.00	96.50	89.75	73.75	66.25	60.25	55.25	59.50	65.25	65.50	67.50	68.75	61.00	55.00	58.00	59.25	55.75	57.50	57.75	60.25	64.25	61.50	59.75	59.75	65.75	73.75	72.50	70.25	62.50	60.25	56.00	47.25	45.25	49.25	49.00	46.00	45.50	45.50	46.00	47.75	47.25	46.75	45.25	52.75	58.25	59.50	58.75	58.00	60.50	51.25	50.25	48.75
75.25	74.75	75.75	77.00	78.25	75.50	80.00	87.00	88.50	87.25	83.25	87.75	88.75	85.75	82.75	87.50	94.25	95.25	95.25	98.00	97.25	94.00	87.00	85.75	84.50	82.00	75.75	77.00	79.50	80.50	83.50	84.50	85.75	87.50	87.25	74.00	65.50	64.25	69.00	74.50	72.75	59.50	50.75	51.75	50.50	49.75	49.00	47.50	46.75	47.00	46.75	48.75	47.75	46.75	48.25	48.50	48.50	47.50	47.50	57.75	65.25	64.75	68.50	71.50	73.75	77.00	79.50	82.00	79.00	78.75	80.75	79.25	80.00	78.75	75.00	71.25	69.25	74.75	76.25	80.00	78.75	77.00	77.00	79.00	79.75	82.75	84.50	84.25	85.50	86.75	91.50	91.25	89.75	96.50	105.25	125.75	125.00	122.50	121.25	118.50	108.75	108.00	116.00	114.50	121.25	129.25	143.00	155.50	161.50	169.00	175.50	164.00	156.00	152.25	146.25	140.25	139.50	145.25	146.75	151.00	149.25	148.75	155.25	164.50	163.75	173.50	162.75	147.75	146.00	145.00	149.50	150.25	142.00	140.50	140.50	137.25	134.00	131.00	131.75	135.25	141.25	143.00	144.25	143.25	135.25	126.25	121.50	115.75	115.25	103.50	97.75	92.25	93.25	98.25	99.25	103.00	104.00	103.50	108.50	103.00	100.25	94.25	85.75	82.75	79.75	76.00	80.75	72.75	72.25	66.75	70.25	79.75	88.25	90.25	92.25	92.50	99.00	93.25	76.00	73.50	78.75	85.00	88.00	89.50	92.25	84.50	87.00	88.50	101.75	130.00	146.75	134.00	125.50	113.50	107.50	124.50	113.50	107.00	114.50	130.00	130.00	128.75	124.25	120.50	115.50	100.00	96.50	91.00	77.50	66.00	63.25	63.25	65.50	66.00	66.50	68.00	61.25	56.50	54.75	54.50	54.25	61.25	61.25	59.75	62.25	61.25	60.25	59.25	58.50	66.25	68.25	66.25	64.75	63.00	60.75	51.75	48.75	50.00	50.00	49.50	49.75	46.00	47.25	48.00	47.75	46.50	46.00	54.25	70.00	68.00	64.50	62.00	59.50	55.50	55.00	50.00
75.50	74.75	74.50	73.75	74.00	73.75	74.50	77.00	78.25	76.75	78.75	78.25	76.25	77.75	82.75	91.00	97.75	99.00	99.00	98.75	96.50	90.25	82.50	80.50	79.25	78.75	79.00	77.00	79.50	82.00	86.50	89.00	90.50	90.75	88.75	78.00	68.75	71.50	77.75	81.50	73.75	61.25	53.50	52.00	49.50	49.50	49.25	48.75	47.75	47.25	47.25	46.75	47.00	46.75	48.25	47.75	48.00	48.50	46.75	49.50	63.75	63.75	63.25	67.25	73.00	75.75	78.00	80.00	77.00	75.50	77.75	75.50	78.75	79.50	76.25	71.25	68.75	75.75	72.00	75.25	78.25	77.50	78.25	79.75	81.75	84.50	85.75	84.25	84.75	88.25	90.50	92.50	91.50	99.50	110.00	133.75	127.00	117.25	118.50	115.50	105.50	102.75	107.50	108.50	113.75	123.25	130.25	144.50	148.50	162.50	178.00	168.00	161.75	151.25	144.50	140.00	140.00	144.75	148.50	150.50	148.25	151.75	157.50	168.75	165.25	174.25	163.25	145.25	139.50	139.00	142.00	140.00	139.00	140.75	139.25	131.00	125.00	124.00	123.50	128.50	135.75	137.75	142.25	142.50	133.50	125.50	123.50	118.25	117.00	106.50	99.75	99.00	96.50	94.00	95.75	102.75	103.00	100.75	109.00	106.75	101.25	96.75	92.00	82.00	86.75	81.25	83.50	82.50	80.50	69.00	72.25	77.50	85.25	90.25	95.00	96.50	102.50	101.00	84.50	79.50	85.00	90.50	96.50	97.50	101.00	103.75	99.25	99.25	107.75	135.25	157.00	155.25	155.50	139.25	138.75	147.50	136.25	137.25	137.75	145.50	142.50	132.50	126.00	133.00	127.00	113.25	111.25	107.25	89.50	72.25	72.00	67.75	66.25	65.75	62.00	62.75	58.00	56.75	54.25	52.75	53.75	62.75	61.75	62.25	60.25	60.00	62.25	60.00	53.75	57.50	63.25	62.00	65.00	67.50	63.25	54.00	52.00	52.00	51.25	53.75	56.00	46.75	48.50	51.00	47.75	46.25	46.25	56.75	86.75	75.50	66.50	64.50	59.00	62.75	56.75	51.75
75.00	76.00	75.50	74.25	74.25	74.25	74.50	76.50	73.50	72.75	77.00	82.50	77.25	77.50	86.75	92.50	89.50	85.00	87.75	84.50	83.50	85.50	84.50	82.50	83.25	84.50	84.75	84.25	83.50	86.25	87.75	89.25	92.50	95.00	92.50	82.75	75.75	78.75	87.75	74.00	62.00	55.75	55.00	50.75	49.25	49.25	49.50	49.00	49.00	48.75	47.50	47.50	47.50	47.50	47.75	48.00	48.50	49.25	47.75	50.50	51.75	55.75	60.00	66.50	70.00	72.00	74.75	75.75	74.00	71.00	73.25	72.75	76.25	77.00	75.25	76.25	69.00	74.50	72.75	75.75	76.00	79.50	80.25	81.00	91.75	92.25	87.75	88.25	87.75	89.75	89.25	93.25	97.00	97.00	108.75	119.75	117.50	113.50	111.00	109.50	115.25	113.25	114.00	116.00	114.50	119.25	123.25	134.75	145.00	153.75	151.25	157.25	164.50	160.75	152.50	143.75	136.50	143.50	144.50	149.50	153.50	153.25	178.50	192.25	173.75	169.00	156.50	149.75	141.75	134.75	132.00	128.50	131.50	127.75	122.50	116.75	123.75	119.75	121.00	127.75	133.50	131.75	133.00	133.00	130.00	125.25	126.75	121.25	119.75	114.00	108.50	106.00	103.00	93.50	91.75	96.00	99.25	102.75	104.75	108.00	106.00	107.50	104.75	97.50	84.00	80.50	80.50	77.00	73.50	67.50	69.50	74.50	77.75	81.75	92.25	98.00	103.25	104.75	104.00	101.00	97.00	101.75	109.25	111.50	118.00	132.75	127.75	125.00	125.25	126.00	126.25	147.50	158.00	153.00	155.50	145.50	142.50	149.25	154.75	155.75	162.25	160.50	154.50	147.75	143.25	135.00	128.00	107.25	91.75	79.00	65.75	60.25	57.50	54.75	53.50	53.25	58.75	53.50	52.25	52.50	52.75	55.75	56.75	57.75	57.75	61.00	61.00	62.75	57.25	53.00	61.50	61.50	59.25	62.75	62.50	56.00	52.25	56.00	55.50	49.75	52.50	56.00	56.00	60.75	53.25	47.00	46.75	52.50	82.00	72.00	68.25	69.00	56.50	62.25	61.00	54.75
75.50	75.50	75.00	76.00	78.50	80.00	77.00	80.50	77.50	72.50	71.50	72.50	73.00	74.00	76.50	80.50	79.00	78.00	78.00	78.50	81.00	91.00	86.50	85.00	85.50	85.50	85.50	87.00	88.50	88.00	88.50	90.50	95.50	102.00	103.00	95.50	88.00	82.50	81.50	70.00	65.00	57.50	53.50	49.50	50.00	50.00	49.50	49.50	49.00	49.00	48.00	48.50	48.50	49.00	48.00	48.00	48.00	49.00	50.50	52.00	49.00	60.00	64.00	63.50	66.00	68.50	72.00	72.50	72.50	69.50	70.50	72.50	74.50	75.50	76.50	71.00	70.00	73.50	75.00	75.00	75.50	76.50	78.50	80.50	86.00	87.50	90.50	96.50	89.50	87.00	89.50	93.00	104.50	98.50	109.00	111.50	113.00	113.50	107.00	99.00	109.00	111.00	119.00	121.00	121.50	125.00	126.50	134.00	134.50	140.50	138.00	134.50	137.00	149.00	145.50	138.00	139.00	144.00	150.50	153.00	146.50	147.00	177.00	183.50	180.00	171.50	155.00	149.50	148.50	140.00	140.50	137.00	125.00	120.00	125.00	111.50	111.50	118.00	115.00	116.50	128.50	127.00	128.50	127.00	122.50	121.00	121.00	120.00	119.50	113.00	107.50	101.50	98.00	92.00	90.00	94.50	94.50	96.00	100.00	100.00	103.50	108.50	106.50	85.00	74.00	75.00	73.50	71.00	68.50	71.50	82.00	83.50	82.50	83.50	96.50	103.50	107.50	107.50	109.00	114.50	116.50	110.50	110.00	116.00	117.50	133.00	137.00	136.50	141.00	137.50	135.00	142.50	142.00	146.50	146.50	151.50	152.50	148.00	148.50	153.00	154.50	152.00	154.00	160.00	161.00	151.00	138.50	114.00	104.00	89.00	70.50	56.50	55.00	55.50	53.50	58.50	63.50	61.00	60.50	54.50	53.00	52.00	52.50	51.50	51.50	52.00	50.50	53.00	54.00	52.50	59.00	63.00	56.50	51.00	55.50	53.50	51.00	57.00	54.50	49.00	48.50	54.00	58.00	58.00	56.00	53.50	48.00	53.50	70.50	68.00	67.50	64.00	63.50	66.00	62.50	59.50
76.00	77.00	77.50	81.25	83.00	88.25	90.75	92.75	87.50	83.50	72.00	71.50	72.00	74.00	76.75	76.50	78.25	83.50	86.00	86.25	87.50	90.50	89.75	87.25	84.25	86.50	87.50	88.50	89.75	90.75	92.50	94.75	98.25	105.75	114.50	106.75	91.25	78.25	74.75	67.25	66.75	58.00	52.25	49.50	49.75	50.00	49.75	50.00	49.25	49.25	49.50	49.25	48.50	49.00	48.25	47.75	48.50	48.25	52.50	48.75	48.75	53.75	58.00	61.75	62.00	63.75	67.00	70.25	70.00	68.00	69.00	71.25	72.50	73.25	74.75	70.25	69.75	71.75	72.50	73.00	74.75	75.75	78.00	79.50	78.25	81.00	83.00	90.25	90.25	86.75	88.25	92.25	95.75	94.25	92.25	99.00	101.50	100.00	96.00	99.25	107.00	107.75	105.50	106.50	116.00	120.75	120.75	120.25	127.00	129.25	131.25	137.50	138.25	141.00	141.00	131.75	137.25	142.50	145.00	145.00	144.00	152.75	170.25	170.25	173.00	166.25	161.00	155.50	150.75	144.75	141.00	140.50	128.75	115.50	113.50	113.25	111.75	118.50	118.25	114.50	120.25	121.25	124.25	124.75	122.25	118.25	119.25	114.75	113.50	115.75	109.75	103.00	96.75	91.50	90.75	90.25	89.00	90.50	97.00	103.00	110.00	104.00	92.50	80.00	76.00	77.75	74.00	71.50	73.50	80.00	100.50	106.00	91.25	80.25	79.25	83.25	94.75	93.00	101.00	112.00	109.25	110.25	112.75	117.50	125.00	128.75	130.50	125.00	135.25	139.25	144.50	142.25	139.25	140.25	143.25	148.25	149.25	151.50	150.50	153.25	154.50	163.25	155.50	147.75	145.50	138.25	138.50	110.25	95.50	83.00	66.75	57.00	55.50	57.25	57.75	60.75	61.00	59.50	57.25	58.75	53.75	52.25	53.00	52.00	51.25	51.25	51.50	51.25	51.00	56.25	58.50	59.00	51.50	50.75	54.75	57.25	53.00	50.50	51.25	48.25	48.50	59.75	57.25	60.25	61.25	59.75	54.25	50.75	60.75	61.75	65.00	63.00	69.75	67.25	65.25	65.50
89.25	90.75	89.75	90.50	88.50	83.50	92.00	102.50	102.50	91.75	80.25	70.25	70.75	70.25	72.25	75.50	88.50	95.25	94.75	97.25	98.50	95.50	90.25	88.75	87.75	88.25	90.25	91.50	94.50	97.75	100.50	102.50	104.75	109.25	115.00	109.25	97.00	80.00	71.75	70.75	64.75	57.00	53.25	50.75	50.25	50.00	50.00	50.00	50.50	49.75	50.00	50.50	50.25	49.50	46.50	47.50	49.00	48.50	52.00	50.75	50.50	49.75	56.25	59.00	61.00	62.25	62.25	63.25	66.75	65.50	66.00	68.50	70.00	71.50	70.50	66.75	70.50	72.75	72.75	71.75	73.75	73.25	72.75	73.50	75.25	76.00	80.25	82.75	84.25	85.50	86.50	90.00	90.50	90.75	94.50	94.00	95.75	98.00	100.25	101.25	102.00	103.00	101.25	102.50	107.00	108.25	108.50	114.25	119.00	125.50	124.50	137.25	138.50	136.25	127.25	131.75	140.75	143.25	147.50	149.00	147.75	149.50	157.50	161.50	165.25	168.25	162.75	157.50	159.00	151.00	146.25	147.75	143.50	121.75	116.00	114.00	114.25	110.00	112.25	114.00	109.50	116.00	123.75	126.25	123.25	115.50	114.25	109.50	104.50	107.50	107.75	105.75	102.00	93.50	92.25	91.75	91.75	88.75	92.25	96.25	94.50	87.25	87.00	82.25	85.75	85.75	81.00	77.25	76.25	87.25	108.25	120.00	103.00	85.50	80.25	79.00	86.00	90.25	97.25	100.25	103.75	106.50	114.75	122.75	126.75	116.00	122.50	128.00	135.25	137.25	143.25	143.25	134.00	132.25	134.75	131.00	133.25	139.25	145.25	144.00	141.50	144.25	148.25	149.25	142.50	136.75	128.50	108.25	87.00	78.50	64.50	64.25	60.25	58.25	57.50	56.75	59.50	59.75	61.50	62.75	61.50	57.00	54.25	52.50	51.00	52.25	51.25	51.25	52.25	54.25	59.00	57.50	58.50	58.25	49.50	50.50	53.75	47.50	47.50	48.00	48.50	51.00	58.50	58.50	58.50	56.00	54.25	56.00	58.50	64.00	63.50	65.75	64.50	69.75	60.50	64.50
92.75	91.25	91.00	90.00	89.25	83.75	89.25	98.50	98.25	89.50	79.50	71.50	69.75	69.75	70.75	73.25	81.25	88.00	91.75	95.75	95.75	95.75	94.50	92.50	90.75	89.50	91.25	93.50	96.25	99.75	103.75	106.50	110.00	113.25	114.75	108.75	98.00	80.25	71.50	67.25	61.25	57.75	54.00	52.00	51.00	50.50	50.75	50.75	51.00	50.25	50.50	51.25	50.50	49.75	48.00	47.75	49.75	51.00	50.00	49.75	50.50	51.00	56.50	57.75	64.75	64.25	62.75	58.50	62.50	62.25	62.00	63.25	65.25	68.25	67.50	68.00	71.50	70.25	69.25	68.50	69.75	70.75	72.00	73.75	77.25	78.50	79.75	82.25	82.75	83.00	85.75	88.50	91.25	91.75	95.00	98.50	98.25	99.75	99.50	98.50	96.00	97.25	96.75	97.50	101.75	103.00	107.25	110.25	113.75	115.00	119.75	125.25	129.50	131.50	130.50	137.00	142.75	148.50	153.00	155.75	152.25	152.25	155.75	157.25	159.75	164.25	165.75	162.00	156.00	148.25	147.00	146.75	146.00	126.75	118.75	113.25	110.25	105.75	111.75	114.00	110.75	121.25	129.75	127.25	122.50	113.25	111.50	108.50	104.50	103.75	105.75	108.50	103.00	93.25	93.00	92.00	90.50	89.00	85.00	89.00	85.50	82.75	84.00	82.75	84.25	84.25	83.25	75.75	77.00	95.50	109.75	118.75	103.25	90.25	85.25	86.00	94.75	95.00	100.50	103.00	108.75	113.50	125.75	131.75	123.25	117.75	123.50	130.25	133.25	139.50	150.00	149.25	139.00	133.00	135.00	129.25	127.50	137.00	136.00	135.00	135.25	136.25	138.75	138.75	144.00	141.25	132.00	115.00	89.75	75.50	61.75	62.25	60.75	57.75	56.75	55.00	56.25	56.50	59.75	58.75	58.75	57.50	56.75	58.25	56.75	52.00	51.50	52.50	52.25	52.25	54.50	54.75	55.00	53.50	50.50	50.00	51.75	48.25	47.50	48.25	50.00	51.25	59.25	57.00	56.25	56.00	55.00	56.25	58.50	60.25	63.50	66.00	60.00	67.50	57.00	56.25
93.00	91.00	91.00	89.00	89.50	84.50	87.50	95.50	92.50	85.50	80.00	72.50	69.50	69.00	70.00	70.50	72.50	81.50	89.50	92.50	90.50	94.00	97.00	96.00	93.50	90.50	91.50	94.50	96.50	99.50	104.00	108.00	113.50	115.50	114.00	108.00	98.00	80.00	71.00	64.00	59.50	59.00	55.50	53.00	51.50	51.00	51.00	51.50	51.00	50.50	51.00	52.00	50.50	50.00	49.50	49.00	50.50	53.00	48.50	48.00	49.00	52.00	54.50	57.50	68.50	66.50	64.00	56.00	59.00	59.50	59.00	59.00	61.50	65.50	65.00	69.50	70.50	67.50	66.50	66.50	68.50	69.50	72.50	74.50	78.00	79.50	78.00	79.00	80.50	82.00	84.50	87.00	91.00	91.00	96.00	101.50	97.50	101.50	99.50	96.50	91.50	92.00	94.00	96.00	99.00	99.50	107.50	111.50	116.50	110.50	117.50	114.00	121.50	130.50	134.50	140.00	144.50	151.50	157.00	161.00	155.00	155.50	160.00	156.50	152.00	156.50	162.00	163.00	148.00	141.50	145.50	149.00	146.50	130.50	121.00	111.50	107.00	103.00	115.00	113.00	112.50	125.50	133.50	127.00	122.00	111.50	110.50	110.00	105.50	100.50	105.00	110.00	101.50	93.50	93.00	92.50	89.50	89.00	82.50	84.00	81.00	79.50	81.50	82.50	83.00	84.50	82.50	75.00	77.50	98.50	110.50	114.50	101.50	93.50	89.50	92.50	101.50	94.00	100.50	106.00	114.00	121.50	134.00	138.50	120.50	117.00	125.00	130.50	133.00	139.00	154.50	152.50	142.50	132.50	137.00	130.50	126.00	137.50	128.00	127.00	133.50	134.50	134.50	129.50	143.00	143.50	136.00	115.50	92.00	73.50	61.00	58.50	58.50	57.50	57.00	55.50	53.50	53.00	56.00	53.00	54.00	57.00	58.00	63.50	62.50	52.00	51.50	53.50	52.00	51.00	51.00	51.50	53.50	50.00	51.00	49.50	50.00	49.00	47.00	48.50	51.00	52.00	58.00	57.00	55.50	59.50	56.00	57.50	59.00	59.00	64.50	64.00	55.00	64.00	56.50	53.50
93.25	92.75	92.25	90.25	88.75	85.00	90.00	96.00	92.50	88.50	86.75	80.25	73.00	70.25	69.25	69.50	70.25	72.00	75.25	82.50	82.00	85.00	90.25	95.25	96.00	91.00	90.75	95.00	97.50	98.00	103.25	105.50	110.75	114.00	110.25	102.25	94.00	80.75	74.00	67.50	63.75	60.00	56.00	54.50	52.50	52.00	52.00	52.00	50.75	51.00	51.00	50.50	51.25	50.50	49.75	50.00	50.25	50.75	50.25	47.00	48.75	49.50	49.50	55.50	58.25	55.75	54.00	53.00	54.50	56.25	57.50	60.25	60.50	61.00	62.25	68.50	69.25	70.00	69.50	67.25	70.00	71.25	74.25	76.25	78.50	84.25	83.50	80.75	85.00	84.00	96.50	107.75	106.75	95.25	92.25	92.75	91.00	91.50	91.25	93.25	101.75	101.25	104.25	103.75	115.00	119.00	116.00	122.50	119.25	116.25	119.00	122.75	122.75	126.25	131.75	137.75	148.25	152.75	149.50	147.75	145.50	141.50	143.25	141.75	139.75	144.25	156.00	158.50	156.00	155.00	153.50	147.75	138.25	137.75	132.25	115.50	107.50	108.00	111.50	106.00	108.75	120.00	126.00	121.25	116.25	120.25	117.50	108.00	104.50	99.50	100.75	101.25	98.50	94.25	90.75	90.50	90.25	91.00	91.75	92.25	87.50	79.75	82.00	80.00	79.50	81.75	81.50	77.50	82.75	95.25	100.75	104.75	96.25	89.00	91.50	90.25	109.50	108.50	92.00	98.25	115.00	129.75	124.50	113.50	108.50	114.50	118.25	118.25	119.75	126.75	140.25	143.00	140.00	134.00	130.75	129.25	128.25	138.00	126.00	125.25	129.75	129.50	126.00	128.00	132.25	134.50	123.75	96.50	77.25	67.25	62.50	60.50	59.50	57.75	57.75	58.00	54.25	54.75	56.25	53.50	54.00	53.50	57.50	55.25	57.75	60.00	54.25	51.75	52.50	51.00	51.00	51.50	51.50	50.75	51.00	55.25	53.25	51.75	53.00	53.00	49.50	48.25	50.50	54.50	59.25	59.50	58.00	56.75	51.75	53.00	57.25	64.50	62.25	68.25	61.75	58.75
94.00	93.25	92.00	91.00	89.75	87.25	92.75	90.75	90.00	88.50	87.00	83.25	74.75	69.25	69.00	69.25	69.00	69.00	68.25	70.75	74.25	80.00	84.50	88.75	88.25	85.50	90.00	91.75	94.50	95.75	97.25	99.00	103.75	105.75	103.75	97.75	90.50	83.50	80.25	71.00	71.25	65.25	64.00	64.00	56.50	52.75	52.00	52.25	51.75	51.75	50.25	51.00	50.75	50.25	50.00	50.25	48.50	49.25	49.25	48.50	48.50	51.25	56.25	53.50	56.50	54.75	53.50	55.00	57.00	60.75	61.75	64.25	66.75	66.75	69.00	73.50	70.50	71.25	71.50	69.75	71.00	72.25	73.00	73.75	81.75	78.00	78.75	79.25	82.00	90.75	105.25	101.25	93.00	88.75	90.00	83.00	86.25	93.00	101.50	104.75	116.50	122.25	124.75	115.00	110.75	109.25	120.50	127.25	128.00	127.25	127.25	124.00	129.00	135.25	139.00	146.75	147.50	142.00	136.50	144.50	145.75	134.00	129.50	136.00	137.50	143.25	150.25	163.50	177.50	159.50	150.25	139.25	136.00	135.00	136.00	129.00	122.25	115.25	115.50	98.50	104.75	107.50	109.50	108.00	109.00	107.00	105.50	103.00	99.25	98.50	96.25	96.50	94.50	92.50	92.00	90.50	88.75	89.75	97.50	96.25	85.00	80.75	86.50	86.00	84.50	87.00	85.25	79.75	86.25	86.00	88.50	92.25	97.50	92.50	89.50	91.75	105.50	107.00	96.75	100.50	112.00	119.00	107.25	101.25	104.25	110.25	121.25	118.75	117.00	117.00	116.50	120.25	125.50	124.00	122.75	122.75	136.25	135.50	132.00	131.50	126.25	114.75	109.00	110.75	120.75	125.50	121.50	94.00	72.50	66.25	67.50	73.00	66.50	59.75	58.00	57.75	55.75	56.00	60.50	56.50	53.50	55.50	62.75	59.25	57.75	56.25	55.25	53.25	54.50	55.00	59.00	58.50	56.75	54.75	55.75	55.50	53.50	51.75	53.50	56.50	51.25	47.25	54.00	56.50	57.00	58.50	51.75	49.00	49.75	50.00	54.25	65.50	68.50	67.50	66.50	66.00
99.00	96.00	94.75	93.75	92.25	90.50	89.50	88.25	88.50	88.25	87.25	84.25	77.00	71.25	69.75	70.00	70.25	71.00	68.75	69.25	69.75	75.00	80.25	83.00	80.25	78.50	81.75	87.00	93.75	94.50	95.25	95.75	98.25	99.50	99.00	95.50	89.00	82.75	80.25	78.25	81.75	70.75	67.75	68.25	61.00	61.25	53.00	53.00	52.25	51.75	51.00	51.50	50.75	50.50	50.50	50.25	48.75	49.75	49.50	49.25	49.50	51.75	55.00	58.25	60.50	58.50	58.75	58.00	60.00	64.50	64.75	65.75	67.75	68.75	69.75	74.00	71.50	74.00	73.50	73.50	74.00	73.25	75.00	75.50	77.50	77.50	86.00	88.00	92.75	97.75	93.25	89.50	86.00	87.50	83.75	89.50	92.00	91.25	97.50	103.00	114.00	121.25	125.75	123.50	112.75	110.25	121.25	124.50	131.50	134.75	137.50	139.00	143.25	147.50	145.25	148.75	139.25	132.25	129.75	140.75	146.00	136.75	122.50	132.50	142.00	153.00	161.75	164.50	170.50	161.25	152.50	137.25	132.75	126.25	124.75	123.75	126.50	118.75	110.50	96.50	102.50	104.00	105.00	104.75	107.75	107.75	104.75	102.00	98.25	96.75	95.75	94.25	92.50	96.75	97.50	92.75	89.75	91.00	97.25	98.50	87.25	83.75	88.25	91.00	86.50	88.50	88.00	82.00	85.50	90.50	89.50	89.25	97.25	94.50	94.25	96.00	104.75	104.50	95.00	102.50	111.00	113.25	104.25	101.25	106.75	113.50	118.50	117.00	114.75	114.25	114.00	114.00	111.50	112.50	112.00	116.75	124.00	122.25	121.00	119.00	117.25	109.25	109.75	115.50	118.75	128.00	126.00	100.75	78.00	79.75	75.00	75.00	65.25	59.00	60.50	60.25	68.25	59.25	59.00	57.75	55.75	56.50	59.25	61.00	56.75	54.75	54.75	53.50	58.75	56.00	55.50	57.50	59.00	57.25	61.25	60.25	58.25	53.25	53.25	55.25	51.25	49.25	51.00	54.75	58.50	57.50	51.00	50.75	50.00	51.00	56.00	62.50	63.00	64.75	66.75	68.75
101.25	107.25	107.75	109.75	105.00	99.50	88.75	86.75	87.00	87.50	87.75	87.50	79.25	75.00	72.50	73.25	72.00	72.50	68.25	67.25	67.00	67.75	71.50	73.00	71.25	71.50	75.75	85.00	92.25	93.00	93.75	93.50	93.75	94.00	94.50	92.50	87.00	80.25	79.00	82.50	88.25	79.25	69.00	69.50	67.75	66.25	55.50	53.75	52.75	52.25	52.50	51.75	51.25	50.75	50.25	50.25	50.00	51.00	51.25	51.00	50.50	49.25	50.75	58.25	58.00	61.00	62.50	59.50	60.50	65.25	65.75	66.50	67.75	68.50	69.50	71.50	73.25	73.25	72.75	74.25	74.50	74.00	76.00	77.00	78.00	84.75	96.25	95.50	96.75	91.00	83.25	83.75	85.25	85.75	83.00	96.50	92.50	87.50	92.00	95.25	110.75	114.50	123.50	120.75	112.25	109.25	118.75	119.25	128.00	139.25	146.50	155.00	157.00	155.00	144.25	146.00	138.50	130.50	129.00	140.75	145.75	139.50	117.75	130.50	143.75	157.75	162.25	157.00	155.00	157.50	154.00	137.75	124.25	120.75	115.75	117.50	124.75	112.75	107.50	94.00	100.00	101.50	103.50	109.00	108.00	110.50	106.75	103.75	100.25	96.25	98.00	95.00	93.25	105.00	103.25	94.75	89.25	92.50	98.50	99.75	93.00	88.00	88.25	93.00	89.75	88.75	87.50	86.00	88.00	96.25	90.50	88.25	94.75	95.25	96.00	98.25	99.50	98.00	96.25	102.50	107.25	106.25	106.75	106.75	112.50	115.00	112.75	107.75	110.25	112.75	113.75	115.50	106.50	108.50	103.25	112.25	117.75	114.50	109.00	108.00	108.50	107.75	113.75	121.25	123.25	129.25	126.00	98.25	88.00	94.50	79.25	72.25	61.00	59.00	60.75	61.25	79.75	63.00	56.00	56.25	58.75	56.75	56.00	57.75	55.25	55.25	56.25	57.75	65.00	57.00	52.00	52.50	54.75	55.50	59.00	61.75	58.25	54.50	54.00	56.50	54.50	51.00	50.00	51.25	55.00	54.75	51.00	51.00	50.00	50.50	54.25	57.00	58.00	59.75	66.75	69.25
122.25	148.75	152.25	152.00	147.00	137.75	113.00	96.25	86.75	84.75	84.50	84.25	77.50	71.50	70.25	72.75	70.25	68.00	67.75	67.25	69.25	68.25	69.25	68.75	67.00	66.75	71.75	81.50	89.75	91.00	89.00	90.75	88.25	88.25	87.00	85.00	80.75	76.25	79.25	81.50	83.50	81.75	73.75	78.00	67.00	58.75	57.75	54.50	53.50	53.50	53.25	52.00	52.00	49.75	50.75	50.50	53.25	51.25	52.75	53.50	49.00	48.25	49.50	51.50	64.50	71.50	65.75	59.75	59.75	62.50	64.25	65.75	67.00	68.25	69.50	71.50	71.25	70.25	70.25	72.00	74.00	76.00	81.00	90.00	94.50	104.50	96.75	90.25	81.50	76.75	79.25	79.50	75.25	83.75	92.00	96.50	88.25	83.25	85.00	88.00	97.75	99.75	104.25	99.75	97.50	99.75	107.75	113.25	125.00	139.50	148.50	152.50	148.25	135.50	131.50	138.00	134.75	126.25	135.00	143.50	138.50	124.75	113.50	134.50	131.00	137.25	139.50	131.00	130.25	130.25	130.75	134.50	137.75	144.75	135.50	123.75	114.25	107.00	104.50	95.75	94.25	98.25	102.25	121.00	119.00	115.00	110.75	102.75	100.75	101.00	97.75	99.00	96.75	107.50	103.25	96.75	94.25	103.50	109.25	108.25	92.00	88.50	88.25	91.50	90.25	90.50	87.75	89.75	96.25	93.25	93.00	88.75	90.50	93.00	94.25	95.25	98.50	99.00	100.50	99.00	102.75	103.75	108.25	102.75	108.50	118.50	103.50	102.75	106.00	112.75	116.50	116.50	108.75	111.00	116.75	109.50	116.00	116.75	101.00	104.25	115.75	121.00	123.75	122.00	121.75	126.00	120.00	91.50	96.25	80.50	69.50	67.50	61.75	60.00	59.00	61.75	68.25	62.25	58.00	58.25	64.00	59.00	57.00	57.00	60.50	69.50	72.75	67.75	73.75	70.00	61.75	57.50	51.75	51.75	52.25	56.75	58.50	58.50	53.75	52.50	51.50	51.00	48.75	48.75	49.00	49.25	48.75	48.75	49.00	49.25	53.25	56.50	57.00	56.50	59.00	61.00
125.50	132.50	129.00	133.50	138.50	144.50	137.00	122.00	99.50	89.50	84.00	82.00	82.00	76.50	69.50	66.50	66.50	67.00	67.00	74.50	70.50	68.50	68.00	67.00	66.50	69.50	66.00	76.00	81.50	85.50	85.00	85.50	86.50	86.00	82.00	77.00	74.50	74.50	78.50	80.00	82.00	83.00	90.50	79.00	59.50	56.00	63.00	57.50	53.00	55.00	56.50	52.00	51.50	51.00	51.50	51.50	56.50	56.00	51.00	49.00	48.50	48.00	49.00	54.00	54.00	69.00	73.50	67.00	59.50	61.50	65.00	66.50	67.00	66.50	67.00	69.00	69.50	70.50	71.00	75.00	74.50	78.50	83.50	90.50	99.00	96.50	89.50	82.00	80.00	75.00	75.50	72.00	73.00	81.00	90.50	91.00	83.50	82.50	84.50	86.50	89.50	88.50	89.50	94.50	99.50	100.00	111.00	116.50	121.00	130.00	133.00	143.50	137.50	124.50	121.50	129.00	130.50	125.50	131.00	128.50	127.00	115.50	122.00	123.00	119.50	123.00	124.50	121.00	122.00	124.50	127.50	147.00	152.00	154.50	146.00	125.00	116.00	108.00	102.50	96.50	89.00	91.50	105.00	120.50	123.00	123.00	118.50	105.50	101.50	98.00	97.00	97.50	95.50	105.50	104.00	104.00	101.00	106.00	99.00	102.50	95.00	88.00	88.00	90.50	89.50	90.50	88.00	89.00	98.50	94.50	93.50	90.50	93.00	97.50	99.50	100.50	105.50	108.00	108.50	103.00	102.50	105.00	102.00	101.00	103.50	107.00	105.00	105.00	109.50	113.50	115.00	112.50	108.50	118.50	122.50	114.50	106.50	103.50	101.50	112.50	122.50	127.00	123.00	122.00	120.00	128.50	121.00	103.00	92.50	79.50	82.50	76.00	62.00	61.50	59.00	62.00	66.00	58.50	65.00	67.50	70.50	61.50	56.50	59.00	65.50	63.00	72.00	74.50	84.00	78.00	78.50	68.50	59.50	52.00	58.00	59.00	62.50	64.50	59.00	54.50	53.00	49.50	49.50	49.00	51.00	48.00	48.00	48.00	49.00	49.50	57.50	53.00	54.50	52.00	54.50	51.00
119.25	137.00	137.75	139.50	139.75	136.75	142.50	142.50	131.50	110.50	91.25	85.50	84.00	85.50	75.50	68.75	66.25	66.25	67.50	66.75	67.50	67.50	69.25	67.25	68.00	67.75	63.50	69.75	76.00	78.25	82.50	84.00	85.50	86.25	79.50	76.50	74.25	73.50	75.00	76.50	79.25	88.50	102.75	72.75	58.25	58.75	62.75	59.00	55.50	59.25	58.00	52.50	52.00	51.75	51.00	51.00	52.00	54.00	53.00	49.00	49.00	49.00	49.00	51.00	53.50	54.25	70.00	71.75	69.75	62.75	63.75	62.75	64.25	65.75	66.00	67.25	69.00	72.00	74.25	76.50	77.25	75.00	81.00	90.25	93.75	107.25	94.75	87.75	80.75	77.50	72.25	69.25	73.50	84.00	87.00	90.25	87.25	83.75	82.75	90.50	91.00	87.75	89.50	92.25	99.75	100.00	103.50	101.00	113.75	119.75	125.75	122.00	124.50	125.50	117.75	126.25	115.25	120.25	132.75	136.50	132.00	112.25	119.25	117.50	106.00	108.75	115.50	117.50	122.50	125.00	127.50	140.50	150.75	147.00	141.50	126.00	117.00	108.25	98.00	95.00	86.75	92.75	102.25	108.25	113.00	119.75	114.00	106.75	103.50	95.75	93.25	97.00	92.25	92.25	92.00	95.75	95.75	103.00	106.50	105.75	101.50	90.50	90.00	90.25	89.75	88.25	89.75	91.00	90.75	94.50	92.50	90.75	90.50	98.00	108.50	106.75	103.25	103.50	104.50	104.00	104.25	104.50	106.25	102.50	100.25	107.50	109.00	109.75	110.00	110.00	112.75	111.50	108.50	117.00	118.75	104.25	110.00	107.50	99.50	107.50	118.50	126.00	123.75	118.25	119.75	111.25	110.75	98.50	87.25	75.25	71.75	69.25	63.25	63.75	61.25	64.25	60.75	60.75	64.50	74.25	77.50	60.75	58.00	59.00	74.00	81.00	75.50	72.25	85.75	87.00	81.25	76.25	59.75	55.25	51.75	56.25	59.50	62.75	60.75	56.00	53.25	48.50	49.50	50.00	49.50	48.50	48.50	49.25	49.00	48.25	54.50	50.75	53.25	53.00	49.75	49.50
129.00	138.25	162.25	174.25	169.75	160.75	141.75	135.00	136.00	139.75	113.00	93.75	88.50	88.00	85.25	78.25	70.25	66.50	65.75	65.50	65.50	65.75	66.00	66.50	67.25	69.75	71.25	78.25	77.25	75.25	78.25	81.25	84.50	85.00	80.50	78.50	74.50	73.25	73.25	71.25	73.25	87.50	98.00	67.75	58.00	61.50	58.75	54.25	57.50	54.25	52.25	52.25	53.00	52.25	51.25	51.50	50.75	51.75	51.00	49.25	49.25	49.50	49.75	50.00	54.75	52.75	64.25	71.75	73.75	69.50	66.00	63.25	65.25	66.75	67.00	68.50	69.00	72.25	73.50	74.50	74.75	74.75	77.00	79.75	80.00	93.50	91.75	82.25	81.25	81.75	72.00	68.00	77.50	87.00	86.50	89.75	89.75	89.00	91.50	92.00	93.75	89.50	88.25	90.25	92.75	92.50	92.50	99.25	106.75	113.75	114.75	119.25	115.00	117.00	121.00	127.00	114.25	122.25	127.25	124.00	124.75	117.25	99.75	101.25	104.75	112.75	119.75	128.00	133.50	126.00	124.75	126.25	132.75	132.25	124.00	127.00	125.75	108.00	97.75	90.75	85.50	89.50	94.50	96.50	99.50	105.50	111.00	105.25	106.75	91.25	90.25	88.25	94.00	88.00	85.00	90.25	92.00	97.50	104.75	98.75	95.75	90.50	96.00	96.50	92.75	90.50	89.00	97.75	97.50	92.50	94.00	97.00	97.00	94.75	98.75	99.25	100.50	100.75	103.75	107.25	105.00	107.00	106.25	104.25	99.50	110.50	111.25	112.75	112.75	114.25	113.75	115.00	118.50	114.25	116.75	103.50	99.50	94.75	98.25	97.75	104.50	113.00	113.00	100.50	90.75	80.00	77.00	80.00	83.75	82.50	73.75	65.75	66.50	75.00	78.50	80.50	66.50	69.00	81.00	80.25	74.25	67.00	59.50	57.50	73.50	80.50	83.25	73.75	73.75	73.75	74.00	71.00	60.50	56.00	52.00	51.00	53.75	55.50	57.00	57.50	54.00	48.75	47.25	49.75	50.00	48.25	49.50	51.00	49.50	48.75	50.50	49.75	50.00	49.25	49.50	50.00
150.25	151.25	174.25	180.75	190.75	183.75	166.00	154.25	135.25	135.50	126.75	112.25	93.75	92.00	88.75	83.25	76.25	68.75	67.75	66.75	66.50	66.00	66.00	66.00	66.25	67.75	70.25	73.75	71.75	72.25	77.75	80.75	83.25	83.50	80.25	76.00	71.50	71.75	71.50	73.00	74.50	80.25	85.25	62.00	58.00	61.25	62.75	60.25	56.50	53.00	52.25	52.50	53.00	51.75	51.00	52.00	51.00	51.50	50.00	49.25	49.00	50.00	50.25	50.25	53.50	56.75	61.50	65.25	74.75	73.50	69.25	63.25	65.50	67.00	68.00	69.25	70.00	72.00	73.50	74.25	74.00	74.00	75.25	77.00	78.00	80.00	82.50	77.25	79.00	81.00	69.50	71.00	76.50	81.50	81.00	89.25	87.75	84.75	90.25	90.00	88.25	86.50	84.75	86.50	88.75	90.75	90.00	95.00	97.75	102.50	105.75	110.00	108.50	117.00	118.25	120.00	109.75	115.75	115.50	117.50	117.75	117.75	96.75	96.00	99.75	109.00	119.50	124.00	127.50	123.75	125.75	119.25	119.75	118.75	112.75	120.00	118.75	107.00	100.50	94.75	83.25	86.50	91.75	94.00	98.50	108.50	113.75	104.25	103.00	89.75	85.50	85.25	92.50	85.00	90.75	93.25	90.50	93.25	96.75	93.50	93.00	90.00	95.75	93.25	88.75	88.25	90.25	98.50	99.75	96.00	97.50	100.00	98.00	94.25	96.25	99.75	101.00	101.75	104.00	104.75	103.25	105.25	104.25	107.25	101.75	100.75	107.25	108.50	108.75	111.75	110.50	114.00	118.75	113.25	109.25	97.50	93.50	93.75	102.50	95.25	97.50	93.75	92.50	85.50	81.50	86.50	86.75	81.00	78.25	77.50	78.50	70.00	68.25	81.00	87.50	85.75	64.25	67.25	74.50	71.75	66.00	62.25	63.25	58.50	69.00	73.75	79.50	74.00	73.25	71.00	68.75	67.50	61.75	56.50	54.75	52.75	53.00	56.00	57.75	59.75	58.25	48.75	50.50	48.50	48.50	47.75	48.50	49.25	48.75	48.75	51.00	49.00	50.75	51.25	50.25	50.00
171.00	166.50	187.75	190.00	210.25	208.00	196.00	178.75	148.50	133.00	126.75	129.50	101.75	96.50	92.75	88.00	83.50	73.25	71.00	68.50	67.25	65.50	65.50	65.50	65.50	65.50	68.25	67.25	64.50	71.00	77.00	78.50	81.25	81.00	78.00	72.50	69.00	70.00	71.00	74.50	76.50	71.50	72.50	61.00	58.50	60.75	67.50	67.75	54.75	53.00	52.50	52.50	53.00	52.25	52.00	52.50	51.75	51.00	49.50	49.50	49.25	50.25	50.25	52.00	55.50	60.00	61.00	58.75	72.75	73.00	65.75	63.00	65.00	66.50	68.00	69.75	71.00	72.00	72.75	73.00	72.75	73.00	73.00	74.50	77.00	73.75	75.25	75.00	76.00	77.50	68.25	72.75	75.75	78.00	78.25	86.50	82.75	80.25	85.00	83.25	83.75	82.50	82.00	83.75	85.25	89.50	90.00	93.50	91.75	91.50	92.75	102.25	103.00	107.50	104.75	105.75	105.50	108.50	107.50	116.25	112.75	111.25	95.50	90.50	92.25	102.75	109.75	111.50	113.50	118.50	122.25	112.75	106.00	105.00	104.25	107.75	109.75	106.75	107.00	99.00	85.00	88.75	89.50	89.25	97.00	110.75	116.00	101.75	93.00	87.50	84.50	86.50	86.00	83.00	94.25	96.50	90.00	90.00	89.75	89.75	90.00	88.00	90.00	87.00	87.75	89.25	90.25	96.75	96.75	95.25	95.50	97.75	94.25	93.00	101.25	104.75	107.00	104.75	103.50	100.75	99.00	99.25	101.25	106.50	102.50	92.00	99.50	101.50	101.50	102.75	103.25	105.00	109.50	106.75	99.00	90.75	89.00	96.00	108.00	98.50	92.00	81.25	80.25	82.25	92.75	106.75	107.00	83.75	74.50	72.50	77.50	75.50	68.00	76.00	82.25	79.50	62.00	62.50	63.50	63.50	71.75	66.00	66.00	58.75	61.25	74.75	76.50	72.75	75.00	72.75	68.25	64.75	65.00	62.50	61.25	56.50	52.75	56.25	59.50	61.50	63.25	50.50	52.75	48.25	48.50	48.50	48.25	48.25	48.75	49.50	52.50	50.75	53.50	53.75	54.50	51.25
174.75	172.00	193.00	195.75	202.25	227.75	234.25	212.00	186.00	155.75	131.75	127.25	127.25	118.25	111.25	104.00	93.25	86.50	79.75	73.25	71.25	69.25	64.00	63.75	64.75	64.00	68.25	74.00	69.50	66.75	72.50	72.50	70.25	71.50	72.50	70.00	68.50	70.25	73.00	76.50	79.00	75.25	77.00	72.75	64.00	65.75	72.25	70.50	53.50	54.00	53.25	52.50	53.00	53.75	53.50	52.75	52.25	51.50	50.75	49.75	49.75	50.25	50.75	54.50	54.50	62.25	61.50	60.75	58.75	61.00	59.00	62.25	65.75	66.25	67.50	69.50	70.75	72.50	71.75	72.00	71.25	69.50	72.50	74.00	72.50	70.75	70.50	71.00	72.25	73.50	65.75	67.25	72.00	76.75	79.50	83.00	81.75	76.00	73.25	72.25	69.75	74.00	73.25	75.00	81.50	83.75	84.00	83.25	86.50	88.00	86.25	95.00	96.00	91.50	92.00	92.25	109.00	98.50	100.00	99.25	100.25	98.00	90.25	83.50	96.25	91.50	94.00	91.75	92.75	101.50	106.00	98.75	100.50	99.75	101.25	100.25	93.25	89.00	99.00	88.50	86.25	91.25	84.00	88.25	95.00	105.25	107.50	96.50	84.25	81.00	80.50	81.75	84.00	87.00	87.00	88.50	87.25	88.75	87.75	88.75	90.25	89.25	85.00	86.25	87.50	89.75	88.25	95.00	93.00	90.00	92.00	98.00	92.75	93.25	106.50	109.00	114.00	111.75	108.75	101.00	95.00	99.00	101.25	103.00	99.50	92.00	90.50	102.50	106.00	99.75	93.00	89.50	89.00	87.00	85.50	84.50	88.00	92.50	93.75	85.75	81.50	83.75	87.75	99.25	118.75	120.75	118.50	114.25	108.25	100.75	84.75	75.75	77.00	71.75	66.75	65.50	64.50	65.50	67.00	83.50	88.75	75.50	72.50	60.00	65.25	75.50	79.75	79.75	77.00	70.00	68.25	66.25	65.50	68.50	66.25	58.75	56.00	57.50	56.50	56.25	56.25	53.00	48.00	48.50	48.00	48.75	49.00	48.25	48.50	48.75	51.75	51.50	57.25	57.75	58.75	59.25
173.00	172.00	189.50	201.00	203.50	231.00	242.00	233.00	207.50	184.50	150.50	132.00	119.00	126.00	118.50	109.50	110.50	102.50	98.50	86.50	80.00	71.50	66.50	73.00	66.00	60.50	64.50	73.50	77.50	70.50	65.00	66.00	73.50	77.00	77.50	76.50	75.50	73.00	73.00	76.00	77.50	75.00	72.50	82.50	78.50	75.50	68.00	65.00	54.00	54.00	53.00	53.00	53.50	54.00	54.00	54.00	52.50	51.50	50.50	50.00	50.00	51.50	51.50	51.50	53.00	54.00	63.50	62.00	60.50	55.00	56.50	56.50	75.00	77.00	68.50	68.00	69.00	72.00	72.00	71.50	70.50	68.50	72.00	71.00	69.50	67.50	68.00	68.00	70.00	70.50	65.50	60.50	58.00	59.00	67.50	66.00	64.00	65.50	63.50	62.50	59.50	60.50	61.00	59.00	75.00	75.50	76.50	73.00	75.00	77.50	75.50	87.50	93.00	89.00	86.00	90.00	101.50	94.00	94.00	94.00	92.50	94.00	94.00	84.00	85.00	83.00	84.50	80.50	87.50	96.00	96.50	91.00	92.50	105.00	104.50	98.00	84.00	82.00	90.50	81.00	78.50	82.00	79.50	80.00	80.00	81.50	83.00	85.00	78.00	78.00	77.50	79.50	84.00	92.50	88.50	84.50	85.00	85.00	85.50	85.50	93.00	89.50	85.50	86.50	86.50	89.00	87.50	94.00	90.00	89.50	100.00	103.50	104.50	104.00	107.00	111.00	111.50	112.50	110.50	106.50	99.00	94.50	97.00	99.00	99.00	95.00	91.50	101.00	101.50	94.00	94.00	92.00	94.50	88.00	86.50	85.50	88.50	86.50	82.00	83.50	83.00	85.50	95.50	120.50	117.00	113.50	109.50	113.50	112.50	119.50	110.00	75.50	74.00	70.00	67.00	69.50	65.00	68.00	74.00	78.00	88.50	65.00	65.00	59.00	61.00	70.50	79.50	73.50	68.00	66.50	67.50	69.00	63.50	64.00	62.00	61.50	60.50	63.00	67.00	55.00	57.00	53.00	48.00	48.50	47.50	50.00	51.00	50.50	49.00	53.50	54.50	51.00	53.50	56.00	59.00	58.50
177.75	176.25	180.00	192.75	189.75	218.50	243.00	236.25	224.75	204.75	171.50	155.75	130.00	120.75	126.50	126.50	126.75	122.25	114.25	103.00	102.25	94.25	80.25	73.00	64.75	62.00	65.75	67.00	79.25	79.00	67.75	70.50	77.25	78.00	65.50	79.75	79.50	77.75	74.25	75.75	77.25	77.75	73.75	79.25	80.50	74.00	65.75	58.75	53.50	54.50	54.00	54.00	54.75	53.25	54.25	53.25	53.25	51.00	50.25	51.25	51.75	53.00	56.00	53.00	55.25	60.25	60.00	59.00	57.25	58.25	55.50	52.75	56.00	60.00	60.00	67.25	73.50	73.25	76.75	72.00	68.00	66.75	66.25	65.50	63.00	61.75	62.25	61.50	58.75	58.50	57.50	58.00	59.25	60.00	62.50	63.25	61.50	60.25	58.75	58.50	57.50	58.25	58.25	59.00	61.75	62.75	64.75	66.00	67.75	65.50	64.50	77.75	71.75	71.50	67.75	76.25	82.50	83.50	80.00	83.25	82.75	81.75	78.75	75.75	75.25	75.50	76.25	77.25	81.25	85.25	84.25	80.25	82.25	81.00	82.00	80.75	77.75	82.75	81.25	77.00	77.25	79.25	76.50	74.75	74.25	75.75	80.25	85.00	75.75	75.50	78.00	76.75	77.50	83.25	88.75	83.50	82.00	84.00	85.50	87.00	93.50	94.50	95.25	94.25	93.75	97.25	87.25	98.50	94.00	97.75	101.50	105.00	104.75	104.75	104.25	105.25	106.75	107.00	108.75	107.25	100.00	91.25	99.25	101.75	103.00	96.00	99.75	96.25	92.50	93.00	93.00	92.00	98.75	95.00	92.25	91.50	97.00	90.75	85.50	83.75	83.25	86.75	103.25	118.50	121.00	106.25	106.50	106.00	105.75	112.25	118.50	87.25	74.25	73.00	73.25	70.75	87.25	87.00	83.00	83.00	81.25	74.00	63.50	59.50	59.75	70.25	75.00	67.50	67.50	67.50	66.75	64.50	64.25	63.75	59.25	58.75	58.25	60.75	61.75	55.75	59.25	60.50	48.25	48.00	48.25	48.00	50.25	51.25	52.00	53.25	54.75	52.00	55.50	53.25	51.25	54.00
151.00	189.00	183.75	177.00	186.50	198.25	192.75	188.25	203.50	211.25	200.50	201.50	166.50	153.00	151.00	156.50	152.50	138.00	131.75	125.00	126.75	124.00	114.00	91.00	76.00	66.50	67.50	70.00	76.75	80.50	86.00	78.50	78.00	80.00	80.00	82.50	80.25	75.25	72.75	75.00	77.50	79.00	80.25	74.00	72.25	66.75	64.75	58.25	53.75	55.00	55.25	55.25	55.75	55.00	60.25	56.00	52.75	51.75	50.75	51.00	51.50	52.75	57.00	59.00	52.50	52.75	52.50	53.25	51.75	54.00	59.50	58.25	53.25	53.25	54.00	57.25	60.25	61.50	59.50	57.50	57.75	57.00	59.75	60.25	60.75	63.00	64.00	55.50	57.75	58.00	59.25	61.50	59.25	57.50	61.75	58.75	67.75	64.25	61.75	60.25	58.00	58.50	59.75	61.75	62.50	62.75	68.25	67.25	66.50	63.00	62.25	64.75	65.50	68.75	63.25	66.00	66.00	65.25	64.25	68.00	68.75	71.50	72.50	72.00	71.50	71.75	73.50	74.25	72.00	71.50	72.25	74.75	75.25	75.75	72.00	72.50	74.00	79.50	81.75	75.00	76.00	80.25	78.25	74.00	73.25	74.00	78.00	78.25	75.25	75.25	75.75	76.00	75.50	75.75	76.50	82.00	80.50	80.50	84.50	87.75	90.75	96.25	95.75	94.00	95.25	95.75	92.00	94.00	88.25	88.25	96.25	101.50	103.25	105.00	101.75	101.50	100.25	97.75	100.00	90.50	92.00	97.25	99.50	97.00	96.50	95.50	96.75	95.75	87.50	88.00	89.25	92.25	94.50	94.75	91.50	90.00	89.50	87.25	87.50	84.50	85.50	92.50	107.25	112.50	109.50	99.00	100.25	98.25	100.00	106.50	117.50	99.50	74.75	72.25	69.25	68.50	84.25	84.00	74.25	66.50	64.75	69.00	64.00	60.50	60.00	67.25	68.00	62.50	65.75	70.75	63.75	61.50	60.25	63.50	60.00	60.00	57.00	56.75	55.75	57.50	60.00	59.75	53.00	48.75	49.00	49.50	50.50	52.50	51.25	51.50	56.50	57.00	52.25	52.00	51.75	51.25
126.50	165.75	177.00	176.50	176.25	176.75	175.00	172.25	182.00	203.75	198.25	196.25	177.75	168.75	166.25	168.00	166.50	157.25	154.25	147.00	144.75	138.75	125.75	106.50	85.00	69.75	64.75	68.50	72.25	75.25	82.00	75.75	75.75	72.75	72.00	73.00	73.75	71.50	71.75	73.50	76.50	75.25	74.50	73.50	73.75	68.25	60.50	55.25	54.75	55.25	55.75	56.75	56.50	55.75	59.75	59.50	55.75	52.00	50.75	50.50	51.75	52.25	55.75	60.50	52.75	52.00	52.75	52.00	51.75	53.25	57.25	56.75	55.00	55.00	54.25	57.75	56.50	58.50	58.00	57.00	58.75	57.50	59.75	61.25	58.00	58.25	63.50	55.50	57.00	59.25	61.50	61.00	63.75	62.50	61.25	60.25	66.25	63.50	60.50	60.25	59.00	59.00	64.00	62.75	64.75	63.50	66.75	68.50	68.50	63.75	63.00	64.00	65.00	70.25	64.00	63.25	63.25	63.50	63.50	64.50	64.50	67.50	68.00	68.00	67.75	67.50	69.50	70.50	69.50	68.75	68.75	70.00	70.25	74.75	71.50	71.25	71.75	76.75	79.25	74.00	77.75	80.50	80.75	73.50	73.00	76.25	80.00	76.75	74.75	74.75	75.00	75.50	76.75	75.75	78.50	80.75	80.75	80.75	83.50	87.50	90.25	92.75	91.25	92.00	92.25	93.50	91.75	88.50	83.25	84.50	89.00	93.00	100.75	103.25	99.50	98.75	99.00	94.25	90.25	84.25	88.75	95.25	99.50	99.25	97.75	94.75	88.75	92.00	85.25	86.00	92.50	96.75	97.75	94.00	91.25	90.75	89.50	87.25	85.75	85.75	87.25	91.75	99.50	100.00	99.25	97.25	98.25	100.50	104.00	111.75	115.00	104.75	81.50	76.00	74.00	72.25	73.75	72.25	69.25	68.75	65.75	65.75	63.25	61.75	60.75	62.75	64.25	60.75	63.50	70.00	68.50	63.25	60.50	62.75	60.50	59.50	58.75	57.75	58.50	65.00	63.00	61.50	54.50	52.25	50.75	51.75	51.50	52.50	52.00	52.50	53.75	53.75	52.25	52.50	53.00	52.75
109.00	131.75	152.25	173.50	168.00	161.75	165.25	159.25	165.00	193.00	189.50	183.00	177.50	175.75	177.25	177.75	177.75	173.75	170.75	165.25	160.00	150.00	135.25	118.50	97.25	73.00	64.00	65.50	66.50	69.00	72.25	70.25	70.00	64.50	66.00	64.75	64.50	68.00	68.00	68.25	71.25	72.25	69.25	75.00	76.00	67.00	58.00	55.25	55.75	56.50	57.50	57.50	56.75	55.75	59.00	62.50	61.00	52.50	51.00	50.00	51.25	52.00	56.75	58.50	52.25	51.75	52.25	52.00	51.50	52.50	53.75	54.75	55.75	54.75	55.00	58.75	59.75	58.50	59.25	58.00	57.50	57.00	56.25	56.75	55.00	55.75	61.50	56.50	57.50	63.00	62.25	59.75	64.75	67.50	59.75	62.50	64.25	65.25	61.75	59.50	59.25	60.50	65.75	63.50	65.50	63.00	63.50	66.50	67.50	66.25	66.25	66.00	66.00	72.00	67.75	65.25	63.00	63.25	63.00	63.25	63.50	64.25	64.25	64.50	64.50	64.00	65.50	67.00	66.50	68.50	67.75	65.50	66.00	75.50	71.75	70.75	71.00	73.75	76.00	72.75	81.75	83.00	83.00	72.75	73.25	78.25	82.25	75.50	74.25	74.50	74.25	74.75	76.25	76.00	78.25	83.50	82.25	81.75	81.75	86.00	86.75	85.25	82.75	88.00	87.00	92.75	93.00	81.25	80.00	81.25	83.00	84.50	93.75	101.75	98.50	94.50	95.75	89.00	82.75	80.25	87.50	92.25	99.75	99.00	95.00	89.25	84.75	91.00	84.25	87.00	99.00	100.75	102.00	97.00	93.00	91.75	89.50	86.25	85.25	86.75	90.25	94.00	98.25	97.25	97.50	97.00	100.00	103.25	108.00	115.50	117.00	110.00	91.00	79.75	77.50	76.25	73.25	71.75	70.50	70.25	66.50	67.75	67.25	62.50	61.75	60.25	60.75	60.00	61.50	65.75	67.75	63.00	59.25	61.50	59.00	56.50	58.00	61.25	63.50	71.75	70.50	60.75	55.00	55.25	53.00	52.75	51.75	51.25	51.50	52.50	52.75	52.50	53.75	53.75	53.75	52.75
105.25	115.25	122.00	138.00	149.50	145.25	146.00	143.50	148.75	171.00	177.25	170.00	166.00	171.00	173.50	174.25	177.50	178.50	178.25	175.25	171.25	160.25	143.00	123.00	98.00	79.00	70.50	65.25	65.50	64.25	66.50	67.25	66.75	67.50	71.00	75.50	73.00	74.25	67.75	64.25	62.75	66.00	73.00	76.50	74.75	59.25	63.25	59.25	55.75	58.50	60.50	60.00	58.50	59.75	66.75	66.50	68.25	58.00	52.25	51.50	50.75	51.50	51.25	52.50	51.50	51.75	51.75	51.50	51.50	51.75	51.75	53.25	54.50	53.75	54.25	55.50	58.25	65.00	64.75	65.25	62.25	59.50	61.00	58.50	56.75	61.25	58.00	60.00	59.50	67.25	61.00	59.50	59.75	60.25	58.25	59.50	64.50	63.00	64.00	59.50	60.75	62.50	63.50	68.25	62.00	60.75	63.00	62.00	61.75	64.25	64.00	68.25	69.25	71.00	73.50	65.50	63.00	62.75	64.75	63.00	63.50	64.25	63.75	64.25	65.00	64.50	65.00	65.25	65.75	71.25	72.50	69.75	65.50	67.00	67.75	68.25	70.75	71.25	71.75	74.50	78.75	82.50	79.75	71.75	74.25	73.75	79.75	73.25	73.25	74.75	74.75	77.00	77.75	80.75	81.75	81.25	78.25	79.75	79.75	82.75	77.25	77.75	77.00	82.25	88.75	84.75	90.50	78.25	77.50	80.25	90.25	90.00	91.75	85.00	84.25	87.25	86.50	80.75	82.00	80.50	82.25	91.00	91.25	86.75	83.25	83.00	84.75	85.25	84.25	89.00	96.75	98.25	99.25	98.75	94.75	87.75	88.00	87.75	88.00	89.50	103.75	122.50	125.75	119.00	112.50	107.75	106.75	113.25	113.50	113.50	120.50	125.75	115.50	93.75	82.75	79.00	74.00	73.50	70.50	69.75	68.75	73.00	76.25	62.50	62.50	60.50	61.00	60.50	60.25	60.75	60.25	61.25	57.00	59.25	57.00	57.75	57.75	64.00	64.25	60.25	61.25	57.25	56.50	53.75	51.75	53.00	52.50	51.25	50.00	50.75	53.25	53.00	52.75	53.50	54.00	52.25
102.50	115.00	115.00	121.00	126.50	132.00	130.00	133.00	134.50	133.50	151.00	153.50	157.50	162.00	166.50	171.50	175.00	178.00	177.00	175.50	171.00	161.00	140.50	121.50	101.00	90.00	81.00	74.50	63.50	65.00	65.50	70.50	68.50	69.50	69.50	67.00	68.50	78.50	74.00	71.00	72.50	65.00	75.50	76.50	74.50	70.50	66.50	61.50	56.50	62.00	62.50	61.50	60.50	64.00	70.00	68.50	69.00	68.50	56.50	52.00	52.00	51.50	52.00	51.50	50.50	50.50	52.00	51.50	52.50	55.00	52.50	52.00	51.50	52.50	53.00	53.00	59.00	62.50	61.50	61.50	61.00	62.00	61.00	59.00	60.00	63.00	59.50	65.00	64.50	64.50	61.50	62.00	61.00	60.00	60.00	59.00	62.00	61.50	61.00	59.00	61.00	61.50	60.00	65.50	60.50	60.00	64.00	62.00	62.00	63.50	61.50	66.50	67.50	67.50	70.50	69.00	62.00	62.00	62.00	63.00	63.00	63.50	64.00	64.00	67.00	65.50	66.50	66.50	65.50	66.00	66.50	71.50	66.00	65.50	66.50	67.50	68.00	69.50	70.00	70.50	70.50	75.00	72.50	72.00	72.00	72.50	73.00	72.50	73.50	74.00	76.00	77.00	79.00	86.50	87.50	80.50	78.50	80.00	79.50	81.00	76.50	77.00	76.00	82.00	91.00	85.50	83.00	79.50	77.00	79.00	88.50	91.50	91.50	81.50	79.50	79.00	82.50	81.50	81.00	81.50	82.00	82.00	81.00	81.00	82.00	82.00	82.50	82.50	81.50	85.00	98.00	100.50	98.00	94.00	86.00	87.00	99.50	95.00	99.00	94.50	124.00	139.00	143.00	135.50	124.50	124.50	125.50	147.50	137.50	132.50	123.00	140.50	141.50	121.00	91.00	83.50	76.00	75.50	74.00	73.50	70.50	69.50	65.50	60.00	59.00	60.00	61.50	60.50	60.00	60.00	61.00	62.00	60.00	58.50	62.50	63.50	64.50	65.00	62.50	58.00	54.50	55.00	57.00	55.50	53.00	54.00	56.00	54.00	52.50	50.50	51.00	52.50	52.00	52.50	51.50	53.00
103.00	108.75	114.00	118.25	121.00	118.25	116.00	113.25	109.50	111.00	128.00	129.25	139.25	148.25	156.25	161.75	168.50	172.00	172.50	169.75	164.25	150.00	134.00	120.25	113.00	108.00	104.00	89.25	65.25	65.50	65.25	69.75	71.75	67.00	66.50	66.75	68.00	74.50	80.25	72.25	73.00	69.75	65.25	68.00	67.75	69.25	68.75	63.25	57.75	65.75	73.00	74.25	66.25	67.50	72.25	71.50	70.00	72.25	66.25	53.25	52.75	52.25	51.25	51.50	50.25	50.00	50.50	51.25	53.75	54.75	54.25	53.50	52.50	52.25	52.75	54.00	59.50	64.00	63.75	58.25	56.25	56.25	58.50	56.75	56.50	56.50	58.25	59.75	62.25	61.75	63.25	62.00	61.75	59.50	58.50	58.25	57.75	61.00	60.00	60.25	62.25	61.75	60.50	62.25	60.75	60.75	61.75	62.00	61.75	62.25	61.00	67.25	65.00	62.50	64.00	63.00	62.00	62.25	62.75	64.25	64.75	68.50	64.00	64.00	64.00	64.75	65.00	65.00	65.25	65.25	65.50	65.50	66.75	66.75	66.25	67.00	68.00	67.75	68.50	68.50	69.75	70.25	71.00	71.00	72.50	72.00	71.25	72.25	73.50	75.75	75.75	78.75	78.25	77.25	78.50	81.00	83.50	85.25	78.50	77.00	79.75	76.00	76.00	80.00	82.75	80.75	81.50	86.25	80.25	80.00	85.25	84.50	81.00	79.00	81.75	83.00	85.00	81.75	80.50	82.50	80.00	80.00	80.00	79.75	80.25	80.75	83.75	82.50	82.50	82.75	86.75	89.25	85.75	85.75	86.50	91.25	102.25	103.25	103.50	105.75	102.75	110.25	123.50	133.25	141.50	133.75	133.00	156.25	161.75	157.75	142.00	145.75	147.75	141.25	106.00	92.50	81.00	83.00	81.50	79.50	75.00	63.75	60.25	58.75	59.50	60.00	60.25	60.25	59.50	62.00	67.75	61.75	60.50	58.00	59.25	64.75	65.50	64.00	62.25	55.75	55.25	59.25	58.75	56.25	57.25	57.00	56.00	58.00	56.00	55.75	49.50	50.75	51.25	51.25	52.25	53.00
105.25	106.50	109.25	117.00	118.25	112.00	107.75	104.25	88.75	92.75	111.75	119.75	123.00	136.50	145.00	151.00	158.50	161.75	163.25	159.50	154.50	142.75	137.50	127.25	117.50	113.75	111.75	93.50	67.50	67.00	66.25	72.00	72.25	66.25	66.50	67.25	67.50	70.50	79.50	78.75	73.50	73.75	70.00	64.25	62.75	64.75	61.25	60.00	61.25	69.50	75.50	76.25	69.00	66.25	70.00	72.25	70.25	71.25	69.75	57.75	54.00	52.75	51.75	51.75	50.25	50.50	50.50	51.00	55.75	55.50	59.50	59.75	54.75	52.50	53.00	54.50	57.00	64.50	62.25	58.00	56.50	55.50	57.50	55.50	55.25	56.00	57.00	58.50	62.50	63.00	64.50	63.50	61.75	60.00	59.50	58.25	58.00	62.25	62.00	60.50	61.75	60.75	59.50	60.00	60.50	60.00	60.75	61.25	61.50	62.00	60.75	63.25	63.50	62.75	62.75	62.50	62.00	63.00	64.00	64.75	70.75	75.25	64.50	64.25	64.25	64.25	64.75	64.75	64.75	64.75	65.00	65.75	66.50	66.00	66.25	69.50	69.75	66.75	67.00	67.00	68.50	69.50	71.25	71.50	71.75	71.00	71.00	72.25	73.25	77.75	77.50	79.25	76.00	74.50	75.25	77.50	84.75	87.25	81.75	79.25	85.50	75.75	76.00	76.25	77.50	76.25	79.00	87.50	84.50	78.25	79.75	78.00	78.00	78.50	81.50	85.00	85.00	81.50	82.25	80.00	79.25	79.50	79.75	79.75	80.00	80.75	81.75	82.50	82.50	83.25	85.75	85.50	85.50	86.75	88.00	93.50	103.00	106.50	107.25	108.00	99.75	100.50	116.50	137.00	149.50	142.75	137.00	159.75	162.75	160.75	157.00	148.75	145.00	143.00	111.25	100.75	87.00	88.50	84.50	77.25	72.75	65.00	60.50	59.75	59.50	60.25	60.50	60.75	59.75	62.00	66.50	61.50	59.25	57.25	60.50	63.75	63.75	64.25	62.50	60.00	54.75	59.25	58.50	55.00	56.50	54.00	53.25	58.50	57.75	58.75	51.25	51.25	50.75	50.50	51.75	53.50
111.25	108.00	108.75	110.25	106.25	106.00	111.25	97.00	58.75	59.75	81.50	113.00	106.00	106.00	108.25	125.50	138.75	141.50	142.00	141.50	140.75	138.00	139.00	135.00	125.00	122.25	99.00	86.25	72.25	69.00	68.25	69.50	69.25	68.50	69.00	67.75	68.00	66.50	72.00	89.00	88.50	82.00	79.25	75.50	64.00	57.50	59.00	56.00	60.25	78.50	83.75	79.00	78.50	71.00	63.75	64.00	64.25	70.00	71.25	66.25	58.25	55.50	53.75	52.00	51.50	50.50	50.50	52.50	52.25	54.75	54.00	55.50	59.00	55.50	53.75	52.75	53.00	53.25	53.25	54.00	54.00	54.50	55.00	58.00	57.00	57.50	58.25	58.50	60.50	63.50	64.75	65.50	63.50	62.00	61.00	60.00	59.75	62.75	68.25	66.75	65.00	61.00	60.50	60.50	60.00	60.00	60.25	60.75	61.25	61.50	62.00	61.50	62.00	63.50	62.50	62.75	62.50	62.75	63.00	63.75	69.00	70.50	72.00	70.25	64.25	64.00	65.00	64.75	65.25	65.50	65.00	65.25	66.00	66.75	66.75	67.00	67.25	68.50	70.75	72.50	68.50	67.50	69.25	70.00	69.75	70.50	71.50	72.00	72.25	73.00	73.50	80.75	77.00	75.25	75.00	76.25	82.25	85.50	90.50	84.25	76.50	75.75	76.00	74.00	75.00	76.00	77.50	84.25	82.75	76.50	77.75	77.25	76.75	77.25	78.75	78.00	78.00	85.25	86.75	88.50	81.75	80.75	83.25	80.00	79.50	80.00	80.50	81.50	82.00	82.75	85.00	86.00	87.00	89.50	96.50	106.25	104.50	110.75	102.25	95.00	100.00	109.75	132.75	152.50	150.00	144.50	145.25	158.75	158.00	159.00	158.75	151.00	137.25	127.50	119.25	108.00	98.25	85.50	73.75	64.75	67.75	68.25	64.00	60.50	60.75	60.25	60.00	61.25	60.75	60.50	60.25	60.75	59.00	58.75	59.25	62.50	62.75	56.25	59.00	58.50	56.00	60.50	57.00	58.00	56.75	62.25	64.75	57.00	58.25	58.50	65.75	65.75	56.00	53.00	51.75	51.50
120.50	109.00	108.50	112.50	114.50	114.50	116.00	103.00	62.50	59.00	99.00	105.50	94.00	100.50	108.50	120.00	130.00	126.50	130.50	131.50	135.00	136.50	135.50	136.50	136.50	125.00	95.50	87.50	75.00	71.50	69.00	69.00	69.00	70.00	70.50	67.00	67.50	70.00	73.00	79.00	88.50	90.50	87.50	55.00	37.50	69.50	61.00	57.50	65.50	75.00	83.00	87.00	82.00	72.50	67.50	68.00	64.00	61.00	61.50	61.00	61.00	68.00	63.50	56.50	51.50	51.00	50.50	50.50	53.00	54.00	56.00	61.50	59.00	62.00	61.00	54.00	54.50	54.00	54.00	54.00	54.00	55.00	55.50	55.50	56.50	58.50	58.50	58.50	59.00	62.00	63.00	64.50	64.00	67.00	61.00	63.50	62.00	66.50	69.50	69.00	71.00	70.00	66.50	60.50	59.50	60.50	61.00	61.50	61.00	61.50	61.50	63.00	63.50	62.50	62.50	62.00	63.50	63.00	63.00	63.00	64.50	64.00	64.50	64.50	65.00	64.50	66.00	65.00	66.00	65.50	65.00	66.50	66.00	66.00	66.50	66.50	68.00	72.50	77.50	68.50	68.50	69.00	69.00	69.00	68.50	70.00	71.50	72.00	73.50	72.50	72.50	74.00	77.50	74.00	74.00	83.50	92.00	94.00	92.00	90.00	78.00	77.50	75.00	75.00	74.50	75.50	77.00	84.00	78.00	75.50	76.00	76.00	76.00	76.50	78.50	78.50	78.50	84.00	81.50	80.00	79.00	81.00	82.00	79.50	80.00	79.50	80.00	81.00	82.50	83.00	85.00	86.00	88.00	91.00	98.00	104.00	104.50	102.50	105.50	102.50	104.00	105.50	127.50	147.00	148.00	147.50	147.50	142.00	155.50	156.50	152.00	146.00	140.00	133.00	131.00	131.50	106.00	77.50	69.50	65.00	67.50	68.00	63.50	61.00	60.00	59.50	59.00	62.50	62.00	61.00	59.50	58.50	59.00	59.50	59.50	62.00	66.50	53.00	56.00	52.50	67.50	60.00	60.50	64.00	64.00	66.50	69.50	63.50	63.50	62.00	63.00	63.00	59.00	57.00	53.50	52.00
124.25	121.50	114.75	111.25	114.25	120.25	121.25	77.00	66.75	82.75	130.25	128.00	101.00	106.00	112.25	116.50	122.00	121.75	126.25	133.50	135.25	140.00	142.25	143.00	139.50	120.75	98.25	89.75	75.50	72.25	70.50	71.25	69.50	73.50	71.75	68.00	67.75	72.00	74.00	78.75	79.25	85.00	89.75	73.50	77.00	74.50	58.00	57.00	74.00	69.75	74.25	77.25	80.50	76.00	69.25	73.25	73.50	72.25	71.25	73.50	72.00	73.00	71.25	65.25	60.50	59.25	56.50	54.25	53.25	53.00	54.25	56.75	56.00	58.25	58.50	58.00	61.50	59.50	60.25	62.75	60.00	58.25	57.25	56.75	56.50	57.00	58.75	59.25	59.50	61.75	63.50	64.25	64.50	68.75	61.25	63.75	66.50	71.75	70.00	67.75	71.75	74.00	69.25	64.25	61.50	60.50	60.25	60.75	61.00	61.25	61.50	67.00	67.25	67.00	64.00	63.25	63.75	63.25	64.50	63.75	64.25	64.00	64.25	65.00	65.25	65.25	65.00	65.00	65.25	65.25	65.00	65.75	66.00	66.00	66.50	67.00	67.50	69.75	72.75	70.25	69.25	70.25	68.25	68.75	69.00	68.75	69.25	72.00	71.50	71.75	72.50	73.50	74.50	79.75	77.75	94.25	120.75	116.00	107.75	98.00	83.00	75.00	73.75	74.00	74.25	74.75	75.75	77.25	78.00	76.25	81.75	84.00	77.75	76.25	77.00	77.50	81.00	83.50	81.00	80.25	80.00	81.50	88.00	82.25	87.00	90.75	82.75	81.00	83.25	89.00	91.00	96.50	100.75	98.25	97.25	95.75	102.25	102.25	100.75	100.00	102.50	116.75	130.50	140.00	142.50	151.75	152.25	151.00	157.00	157.00	156.50	155.25	147.75	135.25	126.75	128.50	98.00	75.75	69.25	67.00	65.25	68.25	65.50	65.00	59.75	60.00	59.50	61.75	61.00	60.25	59.25	59.00	57.00	60.50	61.25	60.75	63.25	57.00	56.25	61.50	63.75	55.00	66.25	64.75	64.75	67.00	70.75	64.25	65.00	69.50	64.00	56.75	60.75	60.50	55.50	53.00
135.25	139.25	138.25	118.25	113.50	117.75	125.50	122.25	135.75	144.00	144.00	123.00	102.75	110.00	108.00	119.00	125.75	129.75	133.25	137.75	144.25	151.75	151.75	147.50	140.25	119.25	101.75	95.25	79.00	74.25	72.50	75.25	73.00	71.75	71.00	69.25	68.75	72.25	75.00	81.75	83.25	80.50	74.75	67.00	61.25	60.25	58.00	60.75	72.25	72.50	75.25	74.75	77.25	78.00	71.25	67.50	70.75	74.00	73.25	74.50	76.00	72.50	71.75	70.25	69.50	69.00	67.75	62.50	56.50	57.50	59.25	64.25	64.25	67.75	68.50	65.25	69.50	71.00	74.00	74.50	73.25	64.25	60.75	60.75	65.50	64.00	63.00	72.25	66.25	63.75	63.50	65.00	67.25	68.75	62.00	64.00	68.75	72.50	70.00	68.00	67.00	68.75	68.25	69.25	70.00	63.25	61.25	62.00	60.75	61.00	61.50	65.00	70.50	70.00	72.75	72.50	67.75	67.50	64.00	63.75	66.00	66.00	65.00	64.75	64.75	65.25	64.75	65.25	65.50	66.25	66.50	66.25	66.50	66.50	67.00	67.00	67.00	67.75	69.00	69.25	69.25	70.25	69.25	68.75	68.25	69.25	69.50	72.75	74.50	78.75	81.25	72.00	74.50	78.25	81.50	88.00	106.75	120.50	118.50	102.00	83.75	74.00	73.50	74.00	75.00	76.75	79.50	79.50	87.00	76.00	82.75	88.00	79.75	76.50	79.25	77.75	83.00	79.00	79.25	78.25	79.00	82.50	86.75	98.75	104.75	97.75	91.25	83.25	85.00	101.50	110.75	122.00	124.00	102.25	93.00	96.00	98.00	96.00	98.25	102.75	106.25	119.25	129.00	136.75	135.75	158.75	156.75	156.00	152.50	151.25	150.75	152.75	140.00	131.75	139.75	130.25	88.25	75.50	70.00	67.00	64.75	66.75	65.00	61.25	60.25	60.50	60.75	61.00	66.50	63.75	62.00	53.25	50.25	51.50	65.25	64.75	62.50	63.00	56.00	65.50	55.00	64.50	65.25	63.25	61.50	64.25	70.50	70.00	64.00	58.00	56.25	60.00	62.00	61.50	58.00	54.75
137.25	138.50	138.25	126.00	118.25	117.25	125.25	130.00	139.00	137.75	130.50	120.00	104.50	104.75	105.50	112.00	121.25	128.00	131.75	137.75	144.50	150.50	151.25	149.25	141.50	126.25	106.50	93.25	82.75	75.50	74.25	75.00	75.75	73.00	73.75	75.25	75.50	73.00	72.00	76.00	78.00	81.00	77.00	67.25	73.50	70.75	61.75	64.50	70.25	73.00	74.25	75.00	77.50	80.50	72.50	68.25	69.50	72.50	71.50	72.50	73.75	71.50	70.25	69.25	67.75	68.25	66.75	65.25	62.75	65.00	67.25	68.25	66.50	71.00	71.00	69.50	71.00	72.75	73.25	73.25	74.50	67.50	66.00	66.25	69.00	70.50	71.75	72.75	74.50	70.75	64.50	64.50	64.75	70.75	63.25	63.25	66.00	70.50	69.75	69.50	67.25	66.50	66.25	70.50	71.25	64.75	63.00	63.50	64.00	68.00	66.25	65.50	68.00	66.50	71.75	75.50	72.75	71.25	70.75	74.00	71.50	67.25	66.00	65.00	64.75	65.25	64.75	65.25	65.25	66.00	66.75	66.00	67.00	67.00	67.00	67.00	67.50	68.25	68.50	69.25	69.25	70.00	70.50	68.50	68.75	69.25	69.25	70.25	73.00	76.25	78.25	71.75	77.50	77.75	78.00	82.00	90.25	98.50	100.75	87.75	77.75	74.25	73.75	74.50	76.00	76.00	77.75	79.25	86.50	76.00	80.25	82.00	78.75	76.75	77.75	79.00	80.50	78.00	79.00	79.25	79.75	82.75	90.25	93.75	95.50	96.25	91.25	87.00	88.00	105.75	120.75	132.50	136.50	115.50	98.75	98.00	98.75	99.75	100.00	106.50	113.50	121.75	129.50	139.75	133.00	146.75	144.50	146.50	148.00	146.00	142.75	142.25	135.50	131.50	138.50	135.25	108.75	87.75	75.25	65.75	63.75	67.75	66.25	61.50	62.00	62.75	61.25	60.75	67.50	66.50	57.50	53.25	53.25	50.50	62.50	65.25	64.50	64.25	59.50	66.25	57.75	65.00	65.50	62.25	59.50	62.50	71.25	79.25	78.75	72.75	68.75	65.75	64.50	62.00	62.00	59.50
134.00	137.25	136.25	130.00	125.00	118.50	122.50	130.25	129.75	129.50	125.00	125.25	112.50	104.75	104.00	105.25	112.25	122.25	130.25	138.25	144.50	149.50	150.75	150.50	146.00	134.75	115.25	91.75	88.00	78.25	76.25	77.00	77.50	75.00	77.00	84.25	88.50	81.75	72.50	69.25	69.25	72.75	71.50	74.25	87.25	81.00	64.75	67.50	71.25	73.25	73.75	75.50	76.00	79.75	72.50	71.50	73.00	72.25	72.25	73.75	73.75	71.50	71.50	69.50	67.00	69.50	70.25	69.25	70.75	71.50	72.50	71.50	69.25	71.75	72.75	72.25	72.50	73.25	72.50	72.50	74.50	72.75	72.25	70.50	69.50	74.75	79.25	78.75	81.00	76.75	69.00	64.75	63.50	71.50	64.75	66.00	66.25	68.25	68.25	67.75	66.50	66.25	67.00	73.00	72.50	67.00	67.00	67.75	68.50	74.00	70.00	64.00	65.25	65.50	71.25	76.25	75.25	76.00	76.25	77.00	70.25	67.50	67.50	67.25	65.00	65.00	65.00	65.00	65.00	66.00	66.00	66.25	67.00	67.25	67.00	68.00	68.50	68.50	68.75	69.00	69.75	69.00	71.75	69.25	69.25	69.00	69.00	69.00	71.25	70.75	71.50	72.50	79.00	77.25	73.50	75.50	76.25	77.50	83.25	77.00	73.00	73.75	74.00	74.25	75.75	75.00	76.25	78.50	82.25	77.50	76.50	78.50	79.00	78.75	79.50	79.50	77.75	80.50	81.00	80.00	80.75	83.25	91.00	87.25	87.25	87.25	86.50	93.50	97.50	110.25	119.50	134.25	139.25	123.75	106.25	102.25	107.00	103.50	105.00	117.75	125.25	121.50	126.75	136.00	129.50	132.75	133.50	139.25	143.25	139.75	135.00	133.75	134.50	133.50	128.25	128.25	138.25	108.75	83.75	65.75	65.00	68.25	68.75	61.75	62.50	63.00	62.25	61.75	63.00	64.50	54.25	61.00	56.50	56.25	64.75	65.00	66.50	65.75	65.00	66.75	64.50	62.25	66.50	62.75	63.00	62.00	72.25	84.00	86.00	88.50	87.75	80.25	66.50	63.75	64.00	62.25
134.75	137.75	138.00	135.25	131.75	130.25	123.00	127.50	133.50	133.50	132.75	131.25	128.00	120.75	112.00	104.00	108.00	121.25	129.75	141.75	148.50	154.00	156.25	153.25	150.75	142.50	128.25	102.50	97.25	84.25	78.75	79.50	83.25	81.25	83.50	91.25	103.25	106.00	85.00	74.75	68.25	62.50	73.25	84.50	87.25	86.25	70.50	64.25	71.25	72.50	75.25	75.75	75.75	81.00	76.25	76.50	75.00	73.00	70.75	69.75	70.25	70.50	73.25	74.00	71.50	71.50	72.25	71.00	70.75	71.00	72.25	72.75	72.00	73.00	73.00	73.50	73.00	73.00	71.75	72.75	76.25	77.00	80.50	77.00	73.50	81.75	82.00	83.75	84.25	81.50	76.25	72.00	67.75	70.50	69.50	71.00	70.00	69.00	67.00	67.25	67.00	67.50	68.25	71.50	73.75	67.50	86.00	91.50	86.00	81.50	82.75	77.00	75.75	78.25	73.25	76.75	85.25	85.25	78.50	71.75	65.75	74.00	74.50	70.75	66.25	66.00	65.50	65.25	65.75	66.00	66.00	66.50	67.75	67.25	67.50	68.00	68.50	68.00	68.25	69.25	71.50	68.50	69.75	74.50	71.00	69.50	70.00	69.50	70.00	70.00	70.00	70.50	73.50	74.75	72.50	74.75	75.75	76.00	78.75	80.00	72.75	72.75	73.50	74.25	74.75	74.50	77.50	85.50	84.25	78.50	77.50	76.50	84.25	85.00	81.25	85.25	86.25	84.75	83.25	82.25	85.25	85.50	93.25	90.75	85.00	82.75	85.00	88.00	92.50	104.50	113.50	123.00	132.25	127.00	114.25	115.50	131.00	135.50	140.00	140.50	132.25	121.50	118.25	122.75	124.50	128.75	131.75	136.50	136.50	132.75	132.25	130.50	130.25	128.25	118.25	118.75	139.50	126.50	95.75	77.75	67.50	67.00	69.50	65.25	62.75	65.00	65.25	60.00	58.00	61.50	63.25	62.75	68.25	67.50	68.00	69.00	71.00	70.00	68.50	70.00	67.00	61.50	62.00	64.25	64.00	68.25	82.25	83.25	81.25	77.00	77.50	72.50	65.25	64.00	63.50	61.75
138.00	141.00	143.50	144.50	141.50	134.50	129.50	124.50	128.50	135.00	136.00	135.50	131.00	130.50	128.00	112.00	105.50	114.00	120.00	136.50	142.00	158.50	161.50	154.00	145.00	140.00	127.50	104.50	104.50	94.00	82.00	86.50	94.00	97.50	92.50	88.50	99.00	112.00	86.00	82.50	66.00	65.50	72.50	88.00	86.50	87.00	76.50	64.50	65.00	70.50	71.50	74.00	75.00	87.50	83.50	71.50	70.50	71.00	69.50	70.50	70.00	69.50	71.50	74.50	73.50	74.00	74.00	74.00	71.50	71.00	71.50	72.00	73.00	74.50	73.50	73.00	73.00	72.50	72.50	74.50	75.50	74.50	80.00	85.50	86.00	85.00	84.50	87.00	87.00	81.50	81.50	75.00	69.00	70.50	67.00	68.50	65.50	71.50	68.00	68.00	68.50	69.00	71.00	73.50	76.50	75.00	90.50	96.00	89.50	89.50	90.00	89.00	94.50	90.50	92.50	95.50	97.00	98.00	95.50	88.50	78.50	77.50	77.00	77.50	68.50	67.00	67.00	65.50	65.50	66.00	66.00	66.50	67.00	67.00	67.50	68.00	68.50	68.50	68.50	69.00	70.00	69.50	69.50	72.00	70.50	69.50	70.00	70.00	70.00	70.00	70.00	71.00	70.00	72.50	72.50	78.50	84.00	81.50	84.00	82.50	73.00	73.50	74.50	74.00	74.00	77.50	85.00	75.50	75.00	80.50	79.00	77.50	83.00	87.00	86.00	87.50	82.00	86.00	79.50	81.00	86.00	90.00	87.50	84.50	86.50	85.00	85.00	86.50	88.50	100.50	115.50	122.50	131.00	138.00	145.00	152.50	149.50	156.00	150.50	138.50	128.00	117.50	119.00	124.00	124.50	126.50	130.50	133.50	133.50	132.50	129.00	129.00	128.50	121.00	120.50	121.00	124.00	139.00	118.00	90.00	74.50	67.50	68.50	66.00	69.50	80.50	68.50	64.50	71.00	68.00	65.50	69.50	70.50	70.00	71.50	72.50	77.00	71.00	69.00	71.00	71.00	65.00	67.00	63.00	72.00	74.50	79.50	86.00	73.50	69.50	74.50	77.50	67.00	63.50	66.00	64.00
149.25	152.00	155.75	151.75	149.00	143.50	136.00	129.25	129.00	130.75	137.25	138.75	135.75	135.00	134.25	129.50	111.00	109.00	114.00	132.25	143.50	152.75	157.00	150.50	134.00	128.00	122.50	102.75	101.50	89.50	97.50	103.75	107.50	109.25	108.25	101.75	93.00	99.75	86.50	66.75	62.25	69.25	68.50	76.75	77.75	80.50	77.00	72.50	67.25	70.75	71.25	73.50	74.75	82.75	86.50	72.00	69.75	73.00	74.25	77.75	75.50	70.50	71.50	74.50	76.75	74.75	76.50	75.25	72.00	72.00	73.50	73.75	73.75	73.25	73.00	73.75	73.75	73.25	75.50	75.25	75.50	75.75	83.25	83.50	85.50	84.75	85.25	85.75	85.75	81.25	77.75	70.75	69.25	70.25	70.50	66.25	65.75	71.00	74.75	72.00	70.25	71.25	75.00	75.25	76.75	82.25	85.00	87.25	88.50	90.75	94.00	94.75	97.25	97.25	97.25	98.75	96.75	101.00	97.00	94.00	89.25	81.75	82.00	97.50	77.75	72.00	69.50	67.25	66.50	66.50	66.25	66.50	67.75	67.50	68.00	68.25	68.50	68.50	69.00	69.25	70.00	69.75	70.25	73.75	78.75	70.00	70.50	70.25	70.75	70.75	71.25	71.00	71.50	72.25	78.00	78.00	78.75	77.75	78.25	77.00	74.50	74.00	74.75	74.25	76.00	74.75	77.75	75.25	77.75	86.75	87.00	80.25	78.00	78.25	80.25	81.00	79.75	82.50	79.25	82.25	91.00	92.75	89.50	82.75	84.75	87.00	94.00	91.50	92.50	97.00	111.50	117.75	121.50	124.00	135.00	143.00	144.50	146.75	141.75	132.25	126.00	119.75	116.75	121.25	125.25	126.50	127.75	127.00	129.50	126.75	126.00	127.50	125.50	121.25	121.75	119.00	134.00	141.75	143.75	124.75	96.75	74.75	71.50	77.25	74.75	88.00	79.00	81.00	79.25	79.75	75.50	74.00	73.50	74.00	74.50	76.50	73.25	71.00	72.00	73.75	79.00	80.75	80.25	88.50	94.00	92.50	81.75	79.00	73.25	69.75	80.75	80.25	67.25	62.00	67.50	68.75
171.00	159.50	158.50	154.50	151.50	148.25	140.25	136.00	139.75	135.00	138.25	142.50	139.75	138.50	139.50	140.00	131.50	115.50	114.25	128.75	139.50	141.75	142.00	146.25	140.50	133.00	125.50	110.25	95.75	117.25	130.50	132.00	128.25	125.00	121.75	113.25	103.75	96.00	93.25	60.25	63.25	69.50	68.75	68.50	72.00	75.25	74.75	70.75	69.25	64.50	73.25	73.75	79.75	78.00	74.75	70.00	74.25	76.25	78.50	83.25	85.50	80.00	73.75	74.50	74.75	74.00	74.25	75.75	70.75	71.75	71.75	71.25	71.25	71.50	73.00	74.00	74.75	74.75	75.75	76.00	76.50	77.25	80.50	84.25	85.25	88.75	90.25	89.00	84.50	80.25	83.75	71.75	66.75	65.50	66.00	66.25	68.25	71.25	78.00	76.75	74.00	76.25	79.00	78.75	80.25	82.50	86.50	85.75	71.75	70.00	84.75	97.00	99.00	96.75	91.50	88.75	99.50	105.25	105.25	103.00	105.25	101.50	85.00	90.75	107.00	100.75	83.25	74.75	73.50	73.50	74.50	68.00	67.75	68.00	68.00	68.75	69.00	68.75	69.75	70.00	69.75	70.25	70.25	72.50	76.75	74.00	70.00	70.75	71.75	71.00	71.25	72.25	74.25	72.00	71.75	72.00	71.50	72.00	73.50	74.75	73.50	74.75	74.25	76.50	76.50	74.50	77.00	76.00	76.50	80.25	82.75	81.50	80.00	81.75	79.00	79.00	78.50	79.00	86.50	90.00	91.25	92.00	86.50	85.00	87.00	90.50	89.00	87.50	94.25	101.25	107.25	106.25	111.75	118.25	137.25	144.00	143.50	137.00	130.00	132.50	137.75	136.25	131.50	117.25	124.25	122.25	123.00	125.25	120.25	120.25	124.25	120.75	121.25	123.00	120.25	117.50	124.50	132.00	141.50	138.00	111.50	88.25	83.25	77.25	79.25	92.25	100.75	105.00	104.50	85.50	77.50	76.75	79.25	71.00	67.50	70.75	72.75	74.75	77.25	83.50	85.25	82.25	84.75	103.75	106.75	91.75	86.00	80.00	69.75	72.50	71.25	75.75	65.00	64.25	65.50	65.00
162.50	163.00	160.25	155.75	153.00	149.75	144.75	142.75	144.75	137.75	138.25	145.00	143.50	141.50	142.25	142.50	143.00	131.50	116.75	119.00	125.50	125.25	121.00	122.00	120.25	114.75	113.50	109.00	109.25	124.50	135.75	136.00	136.00	133.50	127.50	117.75	104.75	90.25	83.50	64.50	63.50	67.00	63.75	67.00	71.50	73.00	72.50	71.25	72.50	66.25	71.50	74.25	84.00	78.00	72.75	74.00	77.25	76.75	78.25	82.25	86.25	86.00	81.75	76.25	78.25	77.25	76.25	79.50	73.50	72.25	72.75	73.75	74.50	75.00	75.00	75.75	76.00	76.50	78.25	80.00	78.00	78.25	79.50	83.75	87.00	89.25	90.00	89.75	84.50	83.25	84.25	79.00	70.50	65.50	67.00	68.25	73.25	74.75	79.25	76.50	75.75	78.50	78.50	80.00	83.50	84.00	88.50	83.25	68.75	61.50	73.25	92.50	94.75	94.50	93.25	95.00	106.00	118.25	116.25	117.50	116.25	107.00	94.00	98.75	104.25	112.75	100.25	90.00	86.75	87.25	87.25	73.50	78.00	70.25	68.75	69.25	70.25	69.25	69.75	69.75	70.25	70.50	70.25	72.50	78.25	81.00	72.00	70.75	72.25	71.25	71.00	72.50	72.50	72.00	72.50	72.50	72.50	73.25	73.75	74.75	73.25	74.25	76.25	81.00	79.50	79.50	82.50	76.75	76.25	80.00	79.50	79.00	81.50	81.25	77.50	77.75	77.75	77.75	83.75	84.75	87.50	87.25	84.25	84.00	88.25	90.25	92.75	95.75	95.50	99.50	100.25	106.75	114.50	117.50	128.00	134.50	135.00	130.75	125.00	129.75	139.25	142.75	140.75	125.50	119.25	117.00	119.75	121.25	117.00	115.50	119.50	118.50	117.00	119.75	116.00	110.50	117.00	124.75	131.00	132.75	119.25	94.00	85.25	85.00	90.00	100.25	101.00	99.50	96.00	86.50	83.75	81.25	86.50	84.75	76.75	73.50	76.25	80.00	89.00	95.00	97.25	92.50	87.50	99.00	98.00	90.25	88.00	80.75	72.25	73.75	69.75	69.25	67.75	66.25	65.50	64.75
162.50	167.00	163.50	160.75	157.75	154.75	152.00	149.25	149.00	140.25	142.50	144.50	148.25	146.50	145.75	145.50	144.75	150.25	128.75	108.25	107.75	105.25	103.75	99.25	98.00	102.00	111.25	126.75	125.75	121.50	133.00	132.75	138.25	138.25	127.75	119.00	104.75	84.75	73.50	67.75	64.25	66.50	61.50	63.25	69.75	72.00	69.75	71.25	72.75	66.75	69.75	73.75	82.25	75.00	74.75	77.75	78.25	78.00	78.25	81.75	85.50	87.75	86.00	82.75	82.50	82.75	81.25	80.25	77.00	74.75	74.50	76.25	77.50	77.75	77.50	77.50	77.50	78.00	80.25	82.50	79.75	79.00	79.75	80.75	88.00	90.00	88.75	88.50	84.75	87.75	81.75	81.00	74.25	66.25	68.75	68.00	73.75	79.25	84.25	78.00	79.50	82.75	79.75	81.00	87.50	83.50	85.00	80.25	65.25	58.25	68.25	90.50	90.75	94.00	96.00	102.25	119.75	126.50	122.75	127.50	124.50	115.50	108.25	108.00	101.00	111.25	113.50	106.50	103.25	104.50	101.75	83.25	91.25	77.00	73.25	71.50	71.75	69.75	69.50	69.75	70.75	70.75	70.25	71.00	75.25	78.50	72.50	70.75	71.50	71.50	71.00	72.25	71.75	72.00	73.50	72.50	72.75	74.50	73.25	73.00	73.25	74.00	75.75	83.50	85.25	83.25	87.00	79.50	76.00	83.00	79.50	79.25	79.75	78.50	77.00	77.00	77.25	79.25	78.75	78.75	83.25	82.75	83.25	83.00	87.25	86.75	92.50	99.75	100.00	101.00	101.50	115.25	120.75	120.75	122.75	126.25	124.50	124.00	125.25	129.00	136.00	138.75	144.25	135.25	118.00	112.75	115.00	116.75	115.00	114.75	117.25	116.00	113.50	120.00	110.00	105.75	115.50	123.50	126.25	125.00	124.00	99.50	92.75	91.00	97.00	117.25	108.00	99.50	93.00	91.00	93.50	92.50	93.75	93.50	85.25	81.75	80.50	85.00	101.50	109.25	112.75	105.25	91.25	94.00	96.00	95.25	88.50	80.50	74.25	76.50	69.00	67.25	69.00	67.00	66.25	70.00
170.75	172.75	170.75	168.50	166.25	167.75	161.75	157.50	153.25	144.25	152.00	153.75	149.00	146.25	149.25	150.75	141.50	151.00	155.75	128.00	110.00	103.00	123.25	124.00	126.25	135.75	144.75	152.00	143.75	131.50	125.75	134.25	138.00	141.50	130.75	118.50	107.25	83.00	71.75	69.00	61.00	63.25	64.75	60.25	60.50	62.75	65.25	66.25	69.75	67.50	63.50	67.25	67.50	71.75	77.25	76.25	75.75	75.50	78.75	82.25	84.00	86.75	88.25	87.75	85.25	82.50	84.50	82.50	80.75	77.25	76.50	76.50	77.25	77.50	77.75	78.50	78.75	79.50	80.00	80.75	79.75	79.75	80.50	80.50	88.50	86.50	89.25	89.25	87.50	90.00	84.50	81.75	76.25	69.00	69.00	67.25	71.75	78.00	84.25	81.50	82.00	84.00	92.00	96.25	92.50	77.75	80.25	80.25	69.75	62.75	78.50	91.00	94.00	99.75	107.75	122.25	147.00	142.75	135.25	142.25	140.75	132.25	121.00	118.00	120.00	105.50	115.75	114.00	112.25	114.75	114.50	105.50	110.00	105.75	102.00	88.50	81.50	77.75	70.75	69.75	70.75	71.00	70.75	71.25	72.25	71.25	71.75	71.75	71.25	71.50	71.25	71.75	72.25	72.00	73.00	72.25	74.25	74.75	75.75	74.25	74.00	75.00	74.50	75.25	79.75	86.50	85.25	87.50	88.75	84.50	87.25	88.25	84.50	83.25	78.75	78.00	77.25	80.25	82.25	79.00	80.50	88.25	92.00	90.50	94.00	92.75	88.50	98.00	103.50	105.75	107.75	113.00	115.75	114.00	117.00	119.25	118.50	121.50	116.50	107.25	115.50	117.75	124.00	132.00	119.50	111.25	113.00	118.00	120.00	116.75	111.25	113.50	119.75	113.50	104.75	107.25	118.25	126.25	129.25	133.25	136.00	127.00	127.75	112.75	119.00	126.75	120.75	107.50	97.50	106.25	121.75	128.50	99.50	92.25	87.00	88.00	85.75	92.00	113.00	114.50	112.25	108.00	93.75	106.50	107.25	97.00	89.75	80.75	80.75	82.25	71.50	69.75	67.50	66.75	67.75	76.25
185.50	179.00	177.50	179.00	180.50	181.50	172.50	158.50	151.00	154.00	165.00	169.00	167.50	172.50	153.50	149.00	143.00	157.00	171.50	152.50	130.00	108.50	110.00	130.00	136.00	143.00	153.00	159.50	147.00	132.00	121.00	123.00	132.00	141.50	136.00	119.00	104.50	79.50	75.50	74.00	65.00	60.50	60.50	61.00	61.00	60.50	62.00	62.00	69.00	69.50	64.00	67.50	67.50	70.50	73.00	75.50	74.50	76.00	78.00	80.00	84.00	88.00	89.00	88.00	85.00	85.50	85.00	84.50	83.00	79.50	78.50	78.00	77.50	78.00	79.00	79.00	80.00	79.00	79.00	79.50	80.00	81.00	81.50	81.50	83.50	84.00	90.50	89.50	91.00	90.00	83.50	82.50	80.50	78.00	69.50	68.00	67.50	75.50	85.50	84.50	75.50	91.50	95.50	102.50	95.50	81.00	86.50	85.00	84.00	87.00	86.50	92.50	97.50	110.50	121.00	138.50	153.50	161.50	155.50	154.50	147.00	139.50	130.00	133.50	135.50	110.00	110.50	121.50	113.50	115.00	117.50	111.00	109.50	111.00	102.50	99.00	101.50	94.00	73.00	70.00	71.00	71.00	71.00	71.00	71.50	71.50	71.50	72.00	72.00	71.50	72.00	73.50	79.50	72.50	73.00	72.00	73.50	78.00	75.00	75.00	80.00	74.00	75.00	76.50	81.50	89.50	85.50	86.00	89.50	82.00	82.50	87.50	84.00	84.50	83.00	80.00	78.50	78.00	82.00	79.00	84.50	80.50	86.00	95.50	99.00	101.50	95.50	89.50	102.50	104.50	93.50	98.50	102.50	104.50	112.00	106.00	91.50	94.00	94.50	94.00	93.00	96.00	104.50	126.00	115.00	113.00	111.00	113.50	115.00	113.00	110.50	114.00	112.50	104.50	101.50	104.00	108.00	111.50	125.50	132.00	137.50	141.00	143.50	135.00	136.50	126.50	126.50	122.00	113.50	130.00	141.50	136.50	103.50	95.00	86.50	84.00	84.50	99.00	109.50	113.50	109.50	100.00	100.00	116.00	110.00	98.00	92.00	84.50	82.50	87.00	79.50	72.50	72.50	70.00	68.00	69.50
196.25	195.25	192.75	190.75	186.50	171.50	161.50	161.50	162.25	162.00	169.00	177.75	182.50	176.75	164.50	158.75	148.75	158.25	165.25	161.25	146.25	124.50	107.00	108.75	118.75	138.75	153.00	155.75	153.25	142.25	127.50	123.00	127.75	136.50	135.00	117.50	101.25	80.50	75.75	72.25	66.00	61.00	61.25	62.25	61.50	62.00	62.50	64.50	67.75	64.75	68.25	74.00	69.75	71.25	75.00	74.75	74.75	76.25	78.00	81.25	84.75	88.50	89.25	89.00	87.50	89.75	88.00	86.75	86.00	82.00	79.75	78.50	79.00	78.50	79.25	79.50	78.75	79.75	80.25	81.00	80.50	81.25	82.25	82.50	82.75	82.75	83.75	83.50	84.75	83.25	83.25	83.50	82.25	69.00	69.00	67.50	68.00	76.50	84.75	81.25	79.75	96.75	91.00	84.50	88.75	97.00	87.75	87.25	89.50	91.75	91.00	94.50	101.00	121.00	130.00	137.25	156.50	163.25	165.00	163.75	156.50	152.75	150.00	139.25	142.00	123.50	121.00	123.25	119.00	117.25	120.50	120.00	112.25	111.25	106.75	106.50	98.00	94.75	84.25	73.25	72.00	70.50	70.75	71.00	71.50	72.25	72.00	72.75	73.00	72.00	72.00	72.25	72.25	72.75	73.00	72.75	73.00	75.00	74.25	73.75	82.25	79.00	78.25	78.50	80.00	87.25	85.75	86.25	87.00	79.75	78.25	80.00	86.75	88.00	90.25	87.25	78.75	78.75	79.00	86.75	83.50	79.00	79.75	88.75	99.00	99.00	89.75	89.50	88.25	87.25	88.00	88.50	88.75	88.25	87.75	87.50	90.50	92.75	89.50	91.50	91.25	91.75	94.75	120.00	112.00	110.75	110.25	111.25	111.00	108.50	111.75	111.75	111.75	108.00	104.25	104.25	103.25	104.75	117.75	131.00	130.25	123.75	128.75	136.50	140.00	139.25	142.75	137.75	134.50	146.75	151.75	147.50	110.75	99.50	90.00	86.00	92.00	110.25	115.00	116.25	110.75	104.00	114.00	121.75	117.25	103.25	89.00	85.75	89.75	88.25	87.00	77.75	71.75	68.50	68.25	67.50
201.00	194.50	187.75	181.50	174.50	165.25	169.00	168.50	168.75	168.75	174.00	178.00	187.25	182.25	176.75	168.00	152.50	159.50	166.00	175.25	159.25	135.75	118.25	115.00	110.75	132.00	146.50	157.50	155.50	149.75	138.00	129.00	127.75	136.00	134.75	116.25	101.25	80.25	68.25	64.75	62.25	61.75	62.50	62.75	62.50	62.75	64.00	67.25	69.50	64.25	68.00	73.50	70.25	71.75	76.00	74.50	76.00	77.00	78.00	81.50	85.00	88.25	89.00	89.00	89.00	89.75	88.50	87.25	86.75	82.75	80.50	79.50	79.50	79.50	80.00	79.50	79.25	81.00	81.75	82.00	81.75	82.75	83.25	83.00	81.75	81.75	83.75	83.50	83.00	83.50	84.25	83.50	81.00	68.25	68.75	68.25	68.75	76.50	85.00	79.75	88.25	96.50	87.00	74.25	89.00	96.75	87.25	90.25	91.00	92.50	92.25	96.25	108.75	129.25	130.75	132.50	152.25	162.00	166.00	166.50	160.50	154.00	142.75	134.00	132.25	125.50	122.25	130.25	124.25	117.50	119.00	119.25	113.75	108.50	107.25	104.25	101.00	94.50	85.50	78.25	72.00	71.00	71.50	71.50	71.75	72.50	72.00	72.00	72.75	72.25	71.75	73.50	72.50	73.25	73.00	73.00	73.00	74.00	74.00	73.75	81.75	82.25	78.75	80.00	79.00	84.25	84.50	89.75	85.50	82.50	80.75	84.00	84.50	88.25	90.25	90.75	78.25	78.00	79.00	87.50	84.00	79.00	79.00	81.75	92.75	97.75	84.50	88.00	87.75	85.50	85.75	85.50	87.50	88.75	90.00	88.50	92.50	92.00	89.25	91.00	90.25	90.75	92.50	112.00	110.00	110.00	109.00	108.00	107.75	109.00	110.00	111.00	111.00	108.25	107.25	104.75	103.50	103.75	111.25	125.75	121.00	121.50	132.25	139.50	139.75	139.25	140.25	142.00	141.00	146.25	151.25	150.75	116.00	104.25	90.25	88.75	97.25	107.00	118.50	120.75	116.00	112.25	121.50	125.25	118.25	101.25	93.75	95.00	93.50	91.75	91.25	84.00	76.25	70.50	70.50	69.50
225.50	192.50	188.75	187.50	171.75	179.50	205.25	206.75	198.00	208.50	203.75	202.75	189.75	182.50	175.50	167.00	163.00	180.00	180.00	172.50	161.25	141.50	146.50	146.25	124.25	118.25	140.25	163.50	166.00	158.75	155.25	144.25	125.75	127.00	134.75	119.50	105.25	75.75	62.75	63.50	65.50	63.75	64.50	64.00	63.75	64.75	68.75	71.00	68.75	64.00	67.75	67.50	68.25	72.00	77.00	78.25	79.25	79.75	78.50	80.25	83.50	87.00	89.25	90.00	90.75	90.75	90.50	89.50	86.75	84.25	82.75	81.75	79.75	79.75	80.25	79.50	82.25	82.50	82.00	82.50	83.50	84.00	84.00	83.75	83.25	82.25	82.50	84.25	84.75	85.25	84.25	83.50	79.75	69.25	69.75	68.50	69.75	71.75	81.25	86.50	93.25	106.75	99.25	88.25	89.00	92.00	93.75	93.00	94.00	81.50	91.00	101.25	114.50	124.25	129.50	139.50	147.75	166.25	173.25	174.50	167.75	157.00	145.75	149.00	133.50	144.00	129.00	120.00	134.00	139.25	138.00	123.50	121.00	111.25	114.00	111.00	110.50	104.25	87.50	82.50	78.25	76.25	72.00	71.50	72.00	71.50	72.25	72.25	72.75	73.50	73.00	72.75	72.75	73.50	73.00	73.50	73.00	74.00	74.00	74.00	74.25	78.50	81.25	84.00	83.75	80.50	84.00	88.25	91.00	86.25	86.00	87.25	86.00	89.25	84.00	86.00	79.75	78.25	79.75	80.25	80.75	80.75	79.25	80.75	81.25	83.75	83.50	88.25	89.00	83.50	84.00	85.00	85.25	92.25	98.25	99.75	93.50	89.75	89.25	89.25	90.50	91.00	93.50	106.00	115.75	105.25	104.25	106.00	103.25	108.00	106.25	109.50	104.50	101.75	106.75	99.00	102.75	101.00	101.75	103.50	106.50	114.75	121.25	130.50	135.25	139.75	137.75	141.50	143.75	141.00	137.75	137.00	122.00	106.50	97.50	99.25	107.50	114.75	127.50	128.00	125.75	132.25	136.00	124.00	112.75	109.00	112.75	110.25	104.00	101.75	96.50	94.00	88.00	73.50	71.75	70.50
254.00	217.00	216.50	185.50	179.00	217.00	253.50	248.50	222.50	224.50	229.00	228.50	223.00	205.00	180.50	166.00	158.50	171.50	177.50	168.00	155.00	152.50	165.00	169.00	158.00	125.50	130.50	162.50	167.00	161.00	155.50	150.50	135.50	116.00	118.50	118.50	103.50	75.50	62.50	63.00	69.00	68.00	71.00	71.00	69.50	65.00	69.50	73.00	70.00	64.00	68.00	68.00	67.50	70.00	78.50	85.50	84.50	80.00	78.50	80.00	82.00	85.00	90.00	95.00	95.50	92.50	91.00	90.50	89.00	87.50	83.50	83.00	82.00	79.00	80.00	79.50	80.50	81.50	81.50	83.00	84.00	83.50	84.50	85.00	83.50	83.00	83.50	82.50	84.50	86.00	86.50	85.50	83.50	71.00	72.00	71.50	71.00	71.50	83.50	89.00	96.00	110.00	100.00	89.50	100.00	104.00	101.50	89.00	71.00	57.50	83.00	111.00	122.00	132.00	136.00	140.50	150.50	164.00	168.50	169.50	182.50	166.50	165.00	159.00	140.50	147.00	140.50	115.00	131.00	147.00	133.00	116.50	115.50	112.00	109.00	105.50	99.50	96.50	86.50	85.00	83.00	81.50	72.00	72.50	72.50	73.00	72.00	73.00	73.00	73.50	78.00	73.00	73.00	73.50	73.50	73.00	73.50	74.00	74.00	74.00	74.50	76.50	83.50	88.00	82.00	90.00	88.50	91.50	90.00	84.50	80.00	85.50	87.50	88.50	86.50	82.00	84.50	79.00	79.00	80.00	80.00	81.00	79.00	81.00	81.00	82.00	87.50	94.50	87.50	83.50	83.50	84.00	83.50	85.50	95.50	88.00	88.00	88.00	88.00	89.50	90.50	91.00	92.00	97.50	112.50	99.50	100.00	97.50	97.00	105.50	107.00	111.50	108.50	107.50	103.00	100.50	100.50	100.50	100.50	99.50	102.00	102.50	105.50	117.50	115.00	132.00	134.50	141.50	144.50	140.00	130.50	134.00	122.00	122.00	118.00	114.00	119.00	121.00	125.50	128.50	130.00	145.00	141.50	131.50	133.50	152.50	156.50	141.50	120.00	106.50	96.50	95.00	84.50	77.00	75.50	77.50
293.75	263.00	244.50	186.50	213.00	250.25	294.00	275.50	244.25	255.75	254.50	235.50	216.25	208.00	197.00	166.75	169.25	170.50	170.75	168.00	170.00	173.75	171.50	180.00	176.00	155.75	124.50	152.25	172.25	170.00	155.00	149.75	144.00	134.25	117.25	105.00	105.50	96.75	77.25	64.50	71.50	77.50	72.75	81.75	74.25	69.00	67.75	68.50	71.25	67.00	71.50	72.75	70.00	77.00	85.00	87.25	85.50	77.75	79.00	79.50	81.25	84.25	88.50	95.00	95.50	93.25	90.50	89.25	89.75	88.50	85.50	83.00	81.50	81.00	80.50	79.25	80.00	81.00	81.75	82.50	82.75	83.50	84.75	84.25	84.00	83.00	84.00	85.00	84.50	84.75	86.75	88.25	88.25	70.75	71.75	70.50	71.25	75.00	81.50	89.75	91.75	88.50	90.50	87.50	98.75	111.25	98.50	88.50	61.50	54.25	80.25	104.50	114.25	132.00	126.50	132.75	143.25	156.50	175.75	178.50	178.50	181.50	165.50	159.25	155.25	146.00	136.75	129.75	124.00	118.75	116.75	114.50	104.50	109.75	103.25	98.00	93.75	87.25	86.75	93.25	93.00	88.50	78.50	73.50	72.25	73.00	72.75	73.00	73.50	74.50	74.50	73.25	73.75	74.00	73.75	74.00	74.00	74.75	75.00	74.75	76.00	81.00	84.75	88.00	89.50	89.00	88.75	85.25	86.50	89.75	83.50	81.25	86.50	87.00	82.00	87.00	81.75	79.75	79.00	80.75	80.75	82.75	81.25	80.50	80.50	88.50	92.00	97.00	85.25	83.50	84.25	82.75	82.50	83.00	84.50	86.25	89.00	88.25	88.25	88.75	89.50	91.00	92.00	98.75	113.50	110.50	102.25	100.75	102.00	102.00	104.00	105.50	103.25	98.50	98.75	101.50	102.00	101.75	99.25	100.00	100.25	101.00	102.25	104.25	107.75	121.00	130.50	139.00	143.25	143.50	141.75	143.00	137.50	127.75	129.75	130.75	134.50	131.50	120.50	127.00	134.50	147.00	142.50	151.00	152.00	161.25	161.00	154.50	139.25	129.50	126.25	115.00	93.75	86.00	76.50	76.00
333.00	315.75	266.00	259.00	295.75	305.25	295.00	286.50	268.75	263.00	257.25	242.00	231.00	220.75	197.25	179.00	197.00	197.25	190.50	181.50	181.00	183.75	184.50	182.50	183.75	179.75	160.50	132.00	162.00	167.75	160.50	157.50	154.00	155.75	144.75	120.50	135.25	114.50	88.75	84.50	67.50	80.75	78.75	79.75	79.00	77.25	77.50	72.00	69.25	73.50	67.25	71.00	72.75	84.00	93.25	87.75	84.25	82.25	81.75	81.75	83.25	82.50	85.75	89.25	91.00	91.00	89.50	87.50	87.25	86.75	85.25	83.00	81.25	80.25	79.25	80.50	80.50	83.00	83.00	83.00	83.25	84.50	84.75	83.25	82.00	81.00	81.75	85.00	83.75	84.25	85.25	88.50	88.25	71.50	71.00	71.50	72.50	76.00	84.50	94.00	95.25	92.25	96.75	91.25	106.00	118.50	98.75	95.25	91.00	86.00	97.50	111.25	110.25	122.25	127.00	132.50	150.50	161.50	168.25	173.25	174.75	180.25	184.25	165.00	146.50	144.75	142.00	149.00	136.25	136.50	134.75	134.25	103.25	93.25	91.25	89.25	87.75	91.75	101.50	99.75	96.50	90.50	85.25	76.75	74.00	73.00	73.25	73.50	73.75	74.00	74.25	75.00	76.00	74.75	75.00	75.00	75.00	75.00	76.25	76.00	82.25	86.75	88.00	88.50	87.25	89.50	93.00	87.00	85.25	82.25	89.50	85.25	85.50	89.50	84.00	87.75	81.75	79.50	79.75	81.50	83.00	82.50	82.25	81.25	80.75	82.00	81.50	82.25	82.75	85.00	83.25	82.75	83.00	84.00	85.00	88.25	94.25	100.00	96.00	95.75	94.00	93.25	94.50	98.75	111.75	106.50	98.50	96.25	95.75	96.75	97.25	98.00	102.25	100.75	98.00	101.25	98.25	100.00	102.00	102.00	101.25	103.50	111.25	103.25	104.50	115.75	129.75	137.00	138.50	139.75	142.50	143.75	137.50	131.00	132.75	136.00	137.00	143.00	136.50	148.00	154.50	152.25	154.75	154.50	158.50	154.50	138.00	139.25	132.75	114.00	97.00	93.50	92.50	85.75	82.25	78.75
297.25	284.75	284.00	304.75	320.25	311.75	290.00	267.75	254.25	246.00	234.75	221.00	210.25	199.00	197.00	206.50	204.25	201.75	198.50	205.00	201.75	195.75	192.25	194.75	190.50	186.50	179.00	157.00	147.50	171.50	173.00	170.75	164.75	157.50	150.00	134.25	132.00	116.25	96.00	107.25	88.75	76.00	74.25	80.75	84.00	83.25	77.75	75.25	73.00	72.25	67.50	68.00	70.00	78.25	87.25	85.00	81.75	81.75	82.25	83.00	83.25	83.25	85.50	89.00	87.50	89.00	88.75	87.25	87.25	86.50	85.75	84.00	81.50	80.00	78.50	80.50	81.50	83.25	84.00	83.50	82.50	82.75	81.25	81.25	79.50	79.50	79.25	80.75	79.50	80.25	83.50	87.75	89.00	72.75	71.25	73.00	73.25	74.25	84.50	95.50	98.25	98.00	99.00	97.00	94.00	98.25	102.75	102.75	100.75	103.75	108.50	128.50	127.25	130.50	132.00	135.00	154.50	159.75	160.75	171.25	174.00	177.25	179.50	171.75	155.50	161.25	153.25	151.00	140.50	147.00	147.00	138.00	107.75	98.50	95.75	93.75	93.25	96.00	103.25	100.50	89.75	93.00	84.75	76.75	74.25	73.50	73.75	73.50	73.50	74.00	74.00	77.50	76.50	75.00	75.00	75.25	76.00	75.50	76.25	76.00	83.75	88.00	90.25	89.25	89.50	91.00	92.50	82.75	80.75	82.25	85.25	88.25	87.00	89.50	81.00	87.25	81.25	82.25	80.25	82.00	83.00	82.50	81.50	81.00	81.50	83.75	84.75	82.75	87.25	94.00	87.25	86.75	87.00	89.00	90.25	96.00	108.50	115.25	109.50	108.75	100.25	97.50	98.50	97.25	102.25	100.25	98.50	96.25	96.25	96.75	97.25	97.50	100.00	98.50	97.50	98.00	99.00	100.00	103.00	102.50	102.50	107.75	110.50	104.75	104.75	112.25	123.25	132.00	134.25	136.75	138.00	138.75	134.25	133.25	135.75	135.75	136.75	142.25	142.50	145.75	153.75	155.00	151.75	157.00	154.00	142.75	125.00	121.25	115.00	104.00	94.25	88.75	87.00	81.75	79.50	84.00
