766.25	795.00	808.25	802.50	785.00	769.25	778.25	766.00	766.25	752.75	746.00	741.00	725.75	727.50	741.00	737.50	741.00	729.00	709.00	701.75	709.50	700.50	713.75	734.00	731.50	725.00	725.25	707.50	709.50	695.25	695.50	686.00	689.25	701.50	696.75	700.50	677.25	676.25	680.00	667.75	678.25	665.00	659.00	648.75	648.75	682.25	673.50	688.25	687.75	685.50	689.25	704.75	684.75	693.75	681.00	696.25	680.00	672.00	665.25	646.75	649.50	645.50	632.50	654.00	661.50	664.75	666.00	657.00	657.25	680.25	686.25	655.00	639.00	663.00	679.00	674.25	688.50	708.00	688.75	676.00	660.25	661.75	638.75	626.25	616.25	601.50	601.75	616.00	635.00	645.00	625.25	605.25	616.25	634.00	610.25	601.00	606.00	606.50	595.00	579.00	590.75	579.75	582.75	573.25	558.25	554.00	561.75	542.25	521.50	539.75	519.00	531.25	550.75	560.75	584.00	617.50	606.50	571.00	576.25	569.50	548.00	551.75	527.00	528.00	532.50	538.00	550.25	558.25	569.50	567.50	564.75	559.75	555.25	559.25	571.00	599.00	618.50	619.75	633.00	623.25	603.75	588.25	580.75	582.00	618.50	609.50	543.00	544.50	528.75	517.75	491.25	481.25	471.50	471.75	462.75	489.75	472.25	473.00	492.50	489.75	450.00	435.00	427.00	428.00	427.00	429.00	437.50	418.50	416.50	426.50	430.00	432.75	425.00	431.75	446.00	554.25	558.00	495.50	485.25	476.50	498.00	467.00	453.75	440.75	425.00	430.00	447.00	432.25	436.50	445.50	427.75	416.25	417.75	428.25	436.25	438.75	432.50	431.25	437.00	430.00	425.75	428.50	442.50	454.75	439.50	423.75	428.50	410.50	385.75	380.00	383.25	407.25	402.25	421.75	426.00	412.50	416.25	413.75	422.00	433.00	432.00	409.75	415.50	426.75	400.25	396.50	392.25	385.00	382.00	404.50	428.25	432.50	423.75	414.00	402.50	408.75	414.25	424.00	413.00	404.00	415.75	428.00	427.00	438.50	433.50	441.25	414.50	394.50	400.50	392.75	395.75	414.75	433.75	443.25	426.00	406.25
756.75	782.25	794.25	785.50	765.75	759.25	757.50	769.25	754.75	750.00	750.75	742.75	735.25	724.75	730.50	741.50	738.50	730.50	720.75	720.75	716.50	718.50	712.75	721.00	724.00	712.75	711.25	698.50	698.25	697.50	700.75	690.50	683.50	695.75	695.75	694.25	693.50	688.00	671.75	680.50	692.50	685.00	683.50	655.25	650.00	677.50	672.25	683.00	687.00	682.25	691.50	708.75	696.25	684.25	697.50	678.50	670.75	672.50	668.25	654.00	652.50	633.00	642.25	646.75	661.00	660.25	669.25	668.00	652.50	673.50	672.00	671.00	658.00	655.50	678.25	697.50	708.00	696.00	685.25	668.25	667.75	666.00	653.75	633.00	623.00	608.75	598.50	614.50	620.75	619.50	635.75	628.25	631.50	646.75	623.75	618.00	606.75	590.00	584.25	576.75	578.75	572.25	572.50	577.50	577.50	563.75	558.25	541.50	521.00	536.75	528.50	544.25	570.25	567.00	571.75	588.00	573.75	561.00	570.25	559.00	543.25	536.50	527.75	545.50	558.75	550.25	540.00	535.00	542.50	544.50	547.75	550.00	556.00	565.75	569.75	592.50	592.50	606.50	617.25	635.00	621.25	601.75	599.50	597.25	629.50	629.25	594.75	573.00	544.75	522.75	504.25	493.50	480.50	469.00	461.25	490.50	484.75	464.25	480.50	506.75	471.25	449.50	435.00	428.25	420.50	419.00	424.25	421.25	415.00	411.50	418.00	426.75	433.25	441.75	470.75	560.50	574.25	548.75	521.00	486.00	506.50	457.25	441.25	435.25	421.50	428.00	447.75	437.25	418.75	430.50	421.25	413.75	422.25	425.25	424.00	425.00	424.00	423.00	424.00	427.00	419.75	424.00	448.75	445.50	446.25	417.50	402.25	394.50	385.00	379.75	380.50	416.00	415.50	430.50	425.50	409.75	420.25	409.00	411.00	414.00	416.00	411.00	415.50	430.50	398.00	379.00	376.00	379.75	381.50	394.50	425.25	426.75	420.25	414.00	398.50	405.25	411.25	406.00	409.50	404.50	417.75	419.50	426.25	426.25	435.25	452.00	420.00	396.25	400.00	391.00	400.00	409.00	416.50	441.50	438.00	407.25
756.25	757.00	780.00	777.25	751.00	738.25	743.50	766.50	751.00	752.50	736.25	738.50	746.75	731.50	717.00	724.75	741.50	743.25	733.50	734.50	728.75	731.25	724.25	709.25	717.75	716.75	711.75	695.25	690.00	699.25	692.25	693.75	678.50	686.00	690.50	693.75	686.75	705.00	699.00	689.75	706.00	679.25	685.00	673.25	656.00	663.00	666.50	679.25	683.50	695.00	703.50	717.00	706.75	688.25	703.50	695.75	671.50	677.25	666.75	668.75	653.25	636.25	659.00	651.00	669.50	667.75	685.50	687.25	677.00	663.25	662.75	689.00	681.75	661.75	694.25	709.00	706.25	702.75	685.25	676.75	682.00	636.50	631.00	617.25	612.50	606.25	600.75	597.00	604.75	619.75	625.75	644.25	647.25	651.75	641.00	632.25	604.75	585.75	579.25	581.50	566.25	564.25	560.50	554.25	547.00	533.50	525.50	527.00	530.75	516.25	523.00	534.50	563.75	577.50	577.75	593.50	591.75	569.25	555.25	556.25	535.50	522.25	537.75	544.25	555.75	574.25	565.00	550.00	537.25	540.25	546.75	569.25	585.75	595.75	583.50	577.50	594.50	595.00	615.75	612.00	606.25	597.25	591.50	601.50	622.75	633.50	615.25	572.50	544.00	535.25	528.00	513.00	504.25	482.75	471.75	484.50	487.25	463.50	478.00	511.75	499.25	471.25	452.00	444.50	423.00	415.00	411.00	409.50	416.50	424.25	419.00	417.75	431.50	455.75	495.00	581.50	563.00	542.25	531.75	484.25	455.25	452.75	431.25	427.00	418.25	441.75	459.75	434.00	407.75	417.75	416.75	413.25	416.00	410.75	412.75	422.75	419.50	421.00	409.75	420.50	424.25	427.25	445.00	438.00	423.50	415.25	403.50	392.50	388.50	383.25	379.25	402.00	412.50	427.00	418.00	414.00	423.00	409.00	400.75	397.25	402.50	401.25	409.00	411.50	397.00	382.50	376.25	376.50	376.50	400.00	431.50	427.25	412.25	408.50	396.75	399.50	402.50	407.75	413.50	398.75	422.75	419.75	417.50	419.75	431.75	454.75	423.00	395.00	396.50	393.75	410.00	408.75	414.00	433.75	433.50	406.50
767.25	747.75	761.25	775.75	761.50	739.00	736.25	751.50	733.25	753.25	740.75	737.75	730.00	730.75	716.25	712.00	724.50	729.00	728.25	741.00	729.75	720.25	720.50	717.75	704.50	714.75	702.50	706.75	702.00	692.75	683.50	686.50	686.50	681.00	689.50	682.75	690.75	697.50	705.50	691.50	693.50	683.50	681.00	681.25	666.00	675.50	675.75	687.50	684.50	687.25	708.25	710.75	702.00	697.00	705.25	717.50	683.00	690.50	669.25	662.00	654.25	639.50	649.00	660.50	651.75	671.75	680.50	694.50	681.25	673.50	671.75	682.25	686.75	668.50	704.25	698.25	684.25	680.00	691.25	686.25	666.50	651.75	643.75	633.00	628.25	619.25	619.00	601.75	598.00	605.25	617.50	636.25	630.00	638.75	643.75	657.75	610.75	587.75	584.50	574.25	562.00	548.75	547.00	548.75	535.50	525.25	532.00	544.25	553.75	536.00	518.50	537.25	548.25	563.00	547.50	560.50	582.25	574.50	547.25	542.00	532.50	523.50	543.25	551.50	558.50	568.50	577.25	570.75	550.25	548.00	571.00	583.25	587.00	590.25	587.75	597.50	590.50	618.75	634.25	592.25	587.75	589.25	577.75	590.25	600.75	618.75	629.00	609.25	570.75	564.25	555.00	535.00	512.75	486.00	485.75	482.75	487.50	460.25	470.00	485.00	516.25	503.50	481.75	469.25	434.25	421.50	416.00	416.25	406.00	418.75	415.75	421.75	427.25	476.50	527.00	579.50	564.00	528.75	512.00	493.75	449.25	456.00	433.00	426.50	415.25	424.50	445.25	430.50	403.00	404.50	408.00	409.75	405.25	408.25	413.00	421.00	418.75	416.25	416.75	430.00	439.75	436.50	430.00	422.50	425.75	419.25	408.50	385.50	394.75	387.00	381.50	392.50	399.25	418.25	405.75	409.75	415.00	404.25	392.50	388.00	394.00	402.75	396.75	404.25	403.00	397.00	391.75	384.00	378.50	396.50	424.00	425.25	409.00	399.75	395.00	404.00	405.25	404.25	413.75	396.00	412.00	419.25	419.00	409.25	418.00	438.50	411.75	391.00	386.50	404.00	418.25	427.50	415.00	427.75	427.50	410.75
774.75	758.25	753.25	771.75	760.25	747.25	729.50	744.00	729.00	744.00	735.50	737.25	730.00	724.00	719.00	709.75	723.25	718.50	722.00	741.25	725.50	718.00	712.75	718.50	704.00	717.00	706.75	708.00	695.75	693.00	691.00	682.25	690.00	683.25	685.25	684.50	705.25	696.75	699.50	688.00	683.00	681.00	683.75	673.50	663.50	692.75	687.75	697.50	694.00	688.00	696.25	711.00	701.75	692.25	701.00	713.75	682.00	675.25	659.00	647.00	647.50	650.00	639.50	657.25	657.75	666.00	675.00	693.75	684.25	679.75	671.50	681.25	688.75	682.25	700.50	690.50	681.50	688.75	712.25	679.25	681.00	684.50	665.75	638.50	633.25	626.50	622.75	609.25	599.00	603.25	621.00	638.50	627.00	624.75	648.00	664.00	613.00	583.50	585.50	583.25	564.75	550.00	547.00	548.00	530.75	535.00	547.50	557.50	562.75	547.25	520.50	534.75	535.50	547.25	540.50	548.50	570.75	570.50	550.00	538.75	525.00	528.25	545.00	554.50	563.50	568.50	581.25	579.25	565.50	559.00	590.50	592.25	585.50	577.50	584.25	612.25	600.50	622.25	635.00	589.50	581.75	584.00	573.25	583.50	591.25	609.50	640.50	640.25	580.25	581.75	566.75	538.75	524.00	497.00	496.50	474.75	486.00	456.75	463.25	473.50	504.50	515.75	497.75	480.50	441.25	426.50	420.75	423.00	407.50	413.75	415.75	416.75	422.00	483.00	537.25	560.00	544.00	517.50	522.00	496.00	437.75	454.25	444.75	441.25	418.00	411.00	436.50	426.50	402.75	400.25	404.75	407.00	406.25	409.75	418.50	423.25	417.00	415.25	419.50	433.25	444.75	434.00	414.25	416.25	426.50	416.50	408.25	388.00	402.00	394.25	382.00	382.50	392.00	414.00	401.25	406.25	410.50	403.25	389.00	387.50	393.00	401.50	395.75	396.75	401.00	401.25	398.25	384.75	377.50	398.25	413.75	419.00	403.25	397.00	393.25	404.50	406.75	400.00	412.25	393.25	402.00	411.50	418.75	409.00	411.50	425.50	407.50	389.75	386.75	413.50	421.75	434.75	420.25	427.00	422.75	405.50
781.25	778.00	756.00	747.50	748.50	747.50	731.50	730.25	722.25	721.25	722.25	723.75	734.75	732.75	726.50	719.25	717.25	714.75	713.75	741.75	728.25	733.50	718.00	715.00	703.00	721.25	713.50	709.75	701.50	702.50	704.25	697.25	681.50	682.00	684.50	676.75	686.25	692.25	687.00	687.75	686.50	688.25	682.25	690.25	671.50	670.75	682.00	676.25	689.00	683.75	703.75	701.75	714.00	702.00	700.25	714.25	690.50	670.50	662.50	679.00	669.50	675.00	658.00	646.50	649.50	658.00	668.25	679.25	695.25	701.50	686.00	698.50	697.50	700.75	695.00	693.75	689.75	697.75	715.25	707.75	704.75	695.00	694.75	661.50	649.75	648.00	634.00	625.50	616.25	609.00	596.50	606.25	611.50	622.50	639.25	639.75	612.75	586.75	580.75	601.25	573.00	550.50	546.00	538.75	537.25	552.50	567.00	566.00	551.50	539.50	516.25	526.75	517.75	518.00	519.50	529.00	552.00	573.50	561.00	556.50	530.25	516.25	527.00	547.00	562.25	573.00	596.00	600.25	596.50	586.00	587.00	584.25	578.75	565.75	586.00	609.00	607.75	609.75	615.75	586.25	568.75	572.50	576.75	567.25	572.25	574.00	613.00	624.25	615.25	609.75	580.50	570.75	545.00	514.50	502.00	483.25	482.50	447.50	451.75	473.50	490.25	512.75	488.50	480.25	453.25	436.75	426.25	427.00	415.00	409.50	409.50	415.75	430.00	482.25	506.75	527.00	522.00	499.25	491.00	478.75	436.50	436.50	428.00	436.50	426.00	428.50	416.75	410.25	397.50	393.75	397.50	403.50	415.00	415.75	429.50	424.25	418.50	396.75	405.25	417.75	424.50	424.75	419.00	418.25	420.25	421.00	416.50	399.75	406.00	394.50	392.00	390.75	392.50	392.50	394.75	397.50	401.75	396.50	392.75	391.50	391.25	393.00	409.50	407.00	398.00	393.50	389.50	383.00	384.50	402.25	410.75	411.00	402.75	394.25	391.50	401.75	399.75	406.75	405.00	398.00	411.00	414.75	416.75	412.50	409.00	410.25	392.50	388.50	394.00	432.00	442.25	446.25	434.00	421.00	410.25	403.25
757.25	765.50	757.25	752.25	742.00	729.25	742.00	737.25	732.25	722.00	716.00	709.25	727.00	725.25	729.00	715.25	723.00	717.00	711.75	721.75	721.25	727.75	721.25	714.25	700.00	706.75	719.75	715.00	707.00	708.75	695.50	697.25	690.50	696.50	687.00	684.75	680.75	676.00	671.50	673.25	671.00	681.50	675.50	672.50	670.00	655.75	670.75	676.25	678.00	680.25	683.50	690.25	695.75	708.00	696.25	703.00	710.00	706.50	678.00	697.75	711.75	689.00	697.00	676.00	652.50	650.50	658.50	668.75	670.25	702.00	710.75	718.50	684.50	701.75	696.25	708.75	703.00	712.00	710.50	717.00	708.25	687.25	691.50	683.50	665.75	651.50	646.50	631.00	619.50	605.00	589.00	598.25	608.75	614.00	610.75	598.25	598.00	584.25	574.75	589.00	564.50	538.00	543.25	541.00	546.25	557.25	569.00	570.50	547.50	535.00	519.50	516.25	526.00	517.50	509.75	512.25	534.00	545.75	551.50	564.50	542.25	512.25	512.00	531.25	535.25	553.00	570.75	591.00	609.25	588.50	588.75	569.75	560.00	556.50	578.00	606.50	603.25	601.25	608.75	577.00	563.25	559.00	561.25	554.50	552.00	548.50	572.50	598.25	608.00	620.50	610.75	594.75	561.25	539.00	518.75	502.00	484.25	451.25	442.75	460.25	481.00	525.25	539.50	501.00	479.50	449.25	434.75	428.75	419.25	408.25	398.50	413.50	430.25	436.75	449.00	472.75	486.00	510.50	489.25	458.00	448.50	432.50	436.00	437.25	436.25	442.25	409.75	401.50	390.00	388.25	390.00	394.25	415.50	428.25	426.00	431.75	421.00	398.00	399.50	412.00	421.00	415.50	415.25	420.50	427.75	436.75	424.25	410.00	422.00	399.25	410.50	398.75	398.50	383.75	385.00	389.50	400.25	395.25	396.50	390.75	402.25	405.75	433.00	418.50	407.00	387.50	374.00	373.75	390.50	399.25	402.00	412.25	416.25	403.00	384.00	395.00	401.75	402.50	400.75	394.50	432.50	418.75	407.50	401.00	406.00	403.75	387.75	394.75	404.50	425.75	425.00	440.75	429.75	415.25	404.00	398.00
741.75	750.25	765.00	765.75	748.25	745.25	754.50	763.75	753.75	743.75	728.50	719.50	714.25	707.50	719.50	721.50	712.75	711.00	708.25	716.00	731.25	715.75	714.00	712.00	705.50	706.25	709.00	707.00	714.00	712.75	693.25	684.00	699.25	698.00	695.25	687.75	692.75	698.50	683.25	682.25	672.25	681.75	680.25	676.25	672.00	658.50	666.75	683.75	678.50	683.00	699.75	707.50	700.75	696.25	693.25	699.50	709.50	711.00	693.75	686.50	704.50	699.00	695.50	677.50	675.75	653.50	649.00	660.25	657.50	673.00	703.25	689.75	684.75	693.25	693.25	702.00	706.50	716.75	709.75	705.50	721.50	701.75	670.25	663.75	666.75	647.50	632.25	619.75	607.00	606.50	595.00	616.50	629.50	625.50	614.50	597.00	586.75	573.25	568.25	566.50	561.25	548.75	541.00	539.50	541.75	554.50	570.75	572.75	562.00	552.25	537.50	535.75	529.00	518.00	516.50	507.00	516.75	530.00	539.25	543.50	543.50	513.25	506.75	523.25	534.75	552.50	569.00	590.75	608.25	585.75	583.00	575.75	555.50	563.25	587.75	595.25	588.75	605.75	599.25	578.25	557.00	551.00	548.75	545.75	559.75	540.50	544.75	583.75	581.75	610.00	608.50	596.50	576.50	556.00	547.25	536.00	504.75	468.75	452.25	449.75	484.75	504.25	524.50	515.50	485.75	468.75	439.00	430.75	417.25	404.75	395.75	414.00	440.00	426.50	427.50	440.50	446.50	475.25	469.50	447.50	438.75	450.25	454.50	462.25	455.25	447.25	417.25	396.00	390.00	389.00	393.00	394.00	411.25	433.50	417.25	419.00	417.00	398.25	402.50	420.25	421.50	407.75	412.75	423.25	427.00	439.00	442.75	420.75	419.00	411.75	414.50	412.00	408.00	394.00	380.00	382.50	391.75	393.75	403.25	392.25	405.75	422.00	444.50	428.25	416.00	401.50	383.25	378.75	401.00	396.75	420.25	417.00	411.75	404.25	384.50	384.50	388.25	384.50	394.00	387.25	398.50	390.25	394.25	399.25	390.25	394.25	386.75	389.00	400.50	403.75	410.75	427.50	433.25	409.75	405.50	398.25
741.50	744.25	754.75	757.25	756.75	765.50	755.00	780.00	755.00	740.50	734.50	739.75	728.25	718.50	703.25	710.00	706.75	719.75	710.25	704.00	722.75	727.00	705.50	705.50	709.75	695.50	700.50	707.75	702.75	708.75	700.75	693.75	705.00	693.25	686.75	697.00	689.50	684.25	686.00	676.25	677.50	681.00	674.75	671.75	662.00	666.00	663.75	669.75	692.50	693.00	706.00	701.75	696.75	689.50	691.50	705.00	704.50	719.50	701.00	687.25	701.00	696.50	675.75	669.00	662.25	666.50	681.25	675.00	686.50	657.50	661.50	667.50	668.50	692.25	685.00	696.50	703.00	711.00	711.00	707.00	711.50	714.25	689.00	656.25	678.00	668.25	647.00	631.00	609.75	605.25	592.50	606.25	608.00	613.00	635.25	632.25	604.50	569.25	563.00	565.25	563.25	560.50	551.75	543.75	550.75	561.00	577.50	573.50	558.00	551.00	546.25	543.75	530.00	534.00	528.25	513.00	506.25	520.25	540.00	522.50	520.00	503.25	513.00	528.50	536.50	547.75	574.50	590.50	586.00	577.75	567.00	569.50	546.75	553.50	583.50	586.50	575.25	599.25	586.75	577.50	558.25	546.00	541.25	542.00	556.25	539.75	521.25	556.00	565.50	597.50	594.25	585.50	573.25	551.75	553.00	529.00	524.25	478.75	467.75	464.00	451.75	477.75	516.50	493.50	490.75	464.25	439.25	434.50	415.00	402.00	397.00	393.50	408.50	418.25	433.75	420.75	424.75	421.25	425.25	432.50	424.00	450.75	455.75	469.75	473.50	459.00	428.25	409.25	401.00	390.50	390.00	400.75	404.75	412.00	410.00	402.25	404.00	399.25	409.25	424.75	415.50	404.00	410.50	424.75	431.00	445.50	449.50	438.50	427.25	433.25	438.25	433.00	423.00	421.50	398.75	378.00	378.25	389.25	400.00	393.25	403.75	412.25	437.25	413.75	405.75	401.50	384.00	372.50	395.25	414.75	423.25	430.75	409.25	387.25	376.75	373.25	372.75	374.75	377.25	378.75	375.75	374.25	376.50	384.50	382.50	379.00	383.25	385.25	388.50	399.50	402.50	408.50	415.50	414.25	397.75	389.50
730.00	738.00	750.25	756.75	767.25	774.75	763.75	763.00	758.75	753.00	747.50	731.50	739.00	727.25	703.00	701.50	703.50	715.00	711.75	699.50	708.25	717.75	713.25	703.25	703.75	691.50	694.25	709.75	699.50	706.00	708.00	701.25	702.25	704.25	695.25	696.00	691.75	687.75	691.00	683.50	698.00	688.00	686.50	681.25	686.50	668.50	663.75	667.75	686.25	696.00	690.00	708.00	705.75	706.25	712.25	696.00	703.00	725.75	715.00	717.50	705.75	710.50	704.00	684.25	689.50	681.50	697.50	675.25	697.50	675.50	687.75	675.75	674.75	692.50	686.75	690.25	705.75	711.00	707.75	710.50	704.00	710.00	705.00	666.75	697.00	683.25	644.50	622.25	614.75	618.50	601.25	595.00	598.75	613.50	625.25	647.50	615.50	596.50	570.75	582.50	578.50	552.50	547.50	542.00	558.25	565.50	577.25	579.25	562.50	555.25	546.50	536.75	549.25	555.75	545.50	525.50	510.25	518.25	527.25	509.00	514.00	498.25	513.75	529.00	540.00	548.75	564.75	583.00	578.50	569.00	572.50	565.50	545.00	548.25	561.50	560.75	564.25	578.50	584.25	589.50	567.50	545.25	533.00	536.50	555.00	551.50	531.00	521.75	525.50	547.75	561.75	567.00	548.50	543.25	539.00	533.00	525.25	492.25	490.50	472.00	448.50	447.00	468.25	481.25	486.25	462.50	434.00	431.50	411.50	402.00	394.25	393.75	398.00	404.50	415.75	414.00	414.75	415.75	422.50	431.25	431.25	432.00	441.50	464.50	461.00	463.25	426.00	412.25	410.00	393.50	392.25	394.25	396.50	401.00	401.25	401.25	402.50	399.25	407.25	421.25	423.50	404.75	411.75	426.50	428.75	437.00	450.25	454.25	450.75	447.50	454.50	451.50	427.50	419.50	414.25	389.75	381.25	382.75	389.75	400.50	402.00	408.00	420.50	415.75	426.25	401.50	378.75	372.50	399.00	417.50	442.00	440.50	399.75	377.00	370.25	373.00	373.50	373.50	374.25	374.50	373.00	372.00	371.50	373.50	375.25	378.00	381.00	380.50	382.50	391.25	396.25	397.75	393.25	401.00	397.50	392.00
720.00	736.25	738.50	748.25	761.50	768.50	763.75	744.00	746.25	741.00	754.50	732.25	724.25	724.50	720.75	709.50	697.25	708.75	720.00	709.00	699.25	706.25	704.50	707.50	709.25	707.00	694.25	699.25	695.75	703.25	706.25	705.50	708.75	695.75	695.50	687.00	688.00	700.25	686.75	696.75	704.50	702.25	694.50	690.50	687.25	683.25	676.75	669.50	675.25	691.50	682.00	707.25	720.25	716.75	709.50	703.00	699.25	720.50	704.00	712.00	702.00	693.25	697.25	686.75	703.50	692.50	688.25	701.75	712.25	696.00	698.00	684.25	677.75	681.25	684.00	687.75	704.75	715.50	712.25	718.75	717.25	709.00	708.50	688.00	707.25	685.25	656.75	631.50	639.75	655.25	636.50	606.50	588.50	603.25	613.75	613.25	602.00	592.75	583.75	593.00	581.00	556.25	543.75	543.25	557.75	570.50	586.00	580.00	566.75	573.00	567.75	562.50	566.00	571.00	542.25	528.00	510.75	503.00	509.50	504.75	496.75	504.00	520.25	541.25	548.00	546.50	557.00	562.50	585.25	568.00	557.25	556.25	545.00	530.00	542.50	551.25	546.00	575.00	590.00	572.50	557.50	548.75	539.25	527.75	534.75	548.00	534.25	534.00	514.00	502.00	514.00	525.00	520.25	535.00	538.50	521.25	504.75	496.00	485.50	470.50	439.25	442.00	473.75	477.00	462.75	461.00	421.50	414.50	406.25	400.50	396.00	392.75	395.25	398.00	409.00	414.50	414.25	412.25	404.00	411.25	425.50	423.50	435.25	457.75	451.00	447.00	422.00	404.75	400.00	391.75	386.50	389.00	392.00	395.75	398.50	398.00	403.00	400.25	397.00	412.00	414.00	405.75	426.00	441.25	432.50	435.50	445.75	452.00	451.75	460.00	477.75	452.50	436.00	408.25	401.75	394.75	382.50	377.25	383.25	409.25	393.50	396.25	405.25	401.25	404.50	380.75	378.25	383.50	400.75	401.25	414.50	405.00	380.25	373.50	375.25	380.00	382.00	381.75	380.75	381.00	380.25	383.25	383.50	381.50	384.50	387.25	379.75	378.50	377.25	379.75	382.00	391.75	400.50	391.75	391.50	409.50
720.50	720.00	730.75	762.75	766.25	760.25	771.50	759.75	739.50	722.75	728.25	727.25	716.25	716.75	708.75	714.00	700.00	695.00	706.75	715.75	713.25	700.25	690.50	703.00	702.75	697.50	695.25	690.50	700.00	697.25	707.00	705.00	705.25	700.50	701.25	687.50	682.00	682.75	688.50	705.75	700.50	695.25	698.50	698.75	688.25	699.25	691.50	685.25	675.75	676.75	703.00	714.25	713.50	720.00	711.25	716.00	703.50	694.50	691.25	701.00	714.25	695.50	691.25	699.25	708.75	702.75	698.25	701.25	713.25	706.25	718.25	700.75	715.50	697.00	681.50	681.25	704.25	706.50	701.00	716.25	713.50	720.75	701.00	717.25	713.50	696.50	656.00	640.25	651.50	684.25	650.50	619.50	588.00	610.00	619.25	630.50	612.50	585.75	589.50	584.75	577.50	565.25	550.75	543.00	549.75	554.00	567.50	572.75	586.00	597.25	587.75	582.50	568.25	569.75	558.50	545.75	537.25	528.00	501.75	498.75	496.75	527.50	541.25	535.50	528.50	541.75	547.25	555.25	579.75	566.00	545.75	549.50	531.50	519.75	527.50	530.00	542.00	592.75	594.25	573.00	571.00	568.75	555.50	528.00	515.25	514.00	529.00	555.25	544.50	503.00	495.00	510.75	503.50	498.00	507.00	486.25	488.00	494.25	483.75	470.75	444.00	443.25	458.25	458.00	447.75	445.50	413.00	403.50	399.00	400.00	396.25	393.00	394.00	398.50	417.00	438.75	435.25	429.75	427.75	411.50	399.50	408.00	424.75	440.75	442.00	437.75	423.75	403.50	391.75	385.00	387.50	387.00	392.00	391.50	390.75	392.75	398.50	397.25	395.50	397.25	401.75	406.50	439.00	444.75	441.50	451.75	449.75	445.75	438.25	445.75	467.50	440.50	431.25	413.25	402.50	401.25	386.50	379.50	383.50	406.25	393.25	415.25	410.75	388.25	396.50	383.00	372.50	375.25	378.75	381.00	380.25	370.50	371.25	375.25	373.00	377.75	385.75	388.50	381.75	382.00	385.50	389.50	390.50	389.75	391.25	387.50	380.75	378.50	375.25	377.00	380.00	382.25	386.50	383.25	409.00	425.00
739.00	742.25	744.75	751.50	758.00	753.25	768.75	753.75	738.50	733.25	724.75	723.00	727.25	729.00	717.25	725.50	711.50	699.25	695.25	696.25	707.50	702.00	693.50	702.25	703.75	698.75	690.25	685.50	693.50	692.75	700.25	702.25	698.00	704.25	694.75	685.75	696.25	691.50	702.25	700.75	694.50	690.75	695.00	702.75	691.00	694.00	697.25	690.75	690.75	682.50	701.25	712.25	717.00	706.00	713.00	724.00	722.00	693.25	690.25	682.50	698.25	692.25	683.25	704.75	707.50	705.25	705.50	688.50	679.75	690.50	695.50	693.25	691.50	697.25	695.25	692.25	700.25	693.25	695.00	716.50	722.25	704.00	696.00	707.25	719.25	700.75	657.50	644.50	662.25	688.25	659.50	619.25	600.25	606.00	613.75	635.25	619.00	600.50	584.50	571.50	570.25	576.50	570.75	556.50	558.75	575.00	571.75	580.00	594.75	612.00	602.50	598.25	575.00	559.50	552.75	556.25	547.50	541.75	522.75	508.25	490.00	517.50	527.75	524.00	539.50	545.75	556.25	549.75	575.75	567.50	548.00	530.50	526.25	519.75	516.00	535.00	545.25	602.00	599.75	574.75	577.00	589.50	568.75	538.75	522.50	509.25	511.25	549.50	528.75	493.00	481.75	512.75	511.75	484.00	493.00	488.00	478.50	469.50	486.50	480.75	442.25	443.00	460.75	462.00	453.25	444.75	425.50	409.25	404.50	400.25	399.75	395.25	393.25	390.25	416.50	447.50	445.75	432.75	420.50	405.25	389.25	390.00	402.75	410.75	425.50	422.25	413.00	392.00	386.00	386.75	388.50	384.75	390.00	394.50	391.25	394.50	398.25	396.50	393.25	403.00	416.75	409.75	441.25	437.50	443.50	448.50	450.00	432.00	430.00	434.75	457.25	457.00	428.75	408.50	414.50	414.75	406.25	386.50	386.25	398.25	390.50	413.50	407.00	382.50	376.75	376.50	371.00	374.25	378.00	372.75	369.25	366.00	370.00	377.00	371.50	376.25	386.00	384.00	383.00	383.00	381.50	384.50	385.25	383.50	384.75	380.75	381.25	383.75	376.50	373.50	375.00	378.50	383.50	376.75	415.75	417.00
713.75	732.00	738.25	751.75	744.50	751.50	768.00	755.25	739.00	752.25	743.25	736.00	738.25	742.00	729.50	728.00	720.50	706.00	697.75	688.75	694.75	696.50	691.00	696.25	702.00	698.75	692.25	682.25	689.00	689.00	691.25	699.75	700.00	700.50	695.25	694.25	698.75	706.75	701.25	701.00	703.00	700.00	692.00	695.75	695.00	694.00	693.00	693.75	692.25	682.25	689.25	708.25	711.50	713.75	697.25	722.50	715.50	712.75	709.75	697.75	687.00	689.25	693.75	693.25	695.75	699.25	716.25	700.75	686.50	704.00	711.75	701.50	694.25	686.75	686.75	695.25	691.50	687.75	698.00	710.25	714.00	716.50	708.50	717.50	705.50	688.50	670.75	656.00	655.00	694.00	663.75	621.00	595.00	603.25	605.75	614.75	611.75	599.75	589.25	581.75	587.00	570.75	568.50	566.50	568.50	587.00	586.75	595.25	596.75	604.50	599.00	600.75	591.25	574.75	545.25	532.50	526.25	521.00	515.75	498.75	487.50	515.50	508.75	517.00	535.25	560.75	563.25	570.50	583.75	575.50	549.75	536.50	523.00	511.25	519.00	538.00	551.50	595.50	594.00	559.25	562.50	583.75	579.75	562.00	543.00	529.50	501.75	504.75	518.25	488.50	469.25	476.00	478.25	471.50	476.25	469.50	464.50	468.00	483.75	464.75	437.75	436.50	458.50	471.25	473.00	461.25	443.75	425.00	409.75	396.50	396.25	391.75	391.50	389.75	402.50	433.50	431.50	415.00	401.50	392.25	384.25	387.50	385.25	389.25	406.75	407.50	389.25	381.00	382.00	385.25	383.50	385.00	392.50	386.75	391.25	392.25	397.00	394.25	393.25	409.75	417.50	420.00	433.00	427.25	436.50	434.25	428.25	420.00	416.75	413.25	419.25	440.75	426.25	413.00	427.25	435.50	417.25	386.25	390.00	398.00	381.25	383.25	381.00	372.25	368.50	366.25	367.25	369.75	368.50	369.50	367.25	367.50	370.25	375.50	373.25	377.25	381.25	379.50	376.25	383.25	377.75	376.50	374.75	368.75	373.75	375.25	379.00	382.75	382.50	375.75	375.00	373.50	373.75	371.50	390.75	393.00
706.50	711.75	731.75	738.75	738.00	743.75	749.50	762.75	752.50	767.00	752.75	742.75	751.75	748.50	735.50	722.50	715.75	720.25	705.50	697.75	688.50	687.00	684.25	687.25	694.50	693.75	691.25	684.50	679.25	694.00	697.25	699.25	699.00	697.75	694.75	697.00	700.00	712.00	707.50	706.50	697.25	701.25	695.50	691.50	693.50	688.50	701.75	702.25	709.00	693.75	685.25	706.75	718.75	706.50	691.75	728.50	702.75	700.50	707.50	715.75	694.00	683.50	694.50	702.50	705.00	698.25	693.25	685.50	679.25	688.25	695.25	696.25	706.00	706.50	701.50	707.25	694.50	691.75	692.00	701.75	702.25	685.50	716.25	686.00	682.75	687.25	663.75	649.50	658.75	682.50	664.75	637.50	583.25	589.00	604.50	610.50	619.00	612.75	602.75	600.50	606.25	583.75	589.75	581.00	586.75	589.75	606.75	604.50	598.00	596.00	596.50	589.75	583.50	571.25	555.50	541.75	523.75	518.25	506.00	502.75	487.75	505.00	496.25	509.00	530.25	557.25	571.75	567.75	584.50	563.25	544.00	526.50	512.50	500.50	508.50	514.00	527.25	583.25	556.00	546.50	540.75	571.50	590.75	581.00	566.00	536.00	506.75	494.75	492.00	485.25	470.25	468.75	460.50	460.25	458.00	450.50	447.75	455.75	476.50	486.75	451.50	433.25	447.50	465.25	484.00	463.50	446.75	436.00	412.00	401.25	396.25	395.50	396.00	390.00	390.00	411.75	410.00	393.50	385.00	389.00	392.00	391.75	388.75	386.00	392.75	378.25	379.50	384.00	375.00	379.75	382.00	382.50	382.25	382.75	383.00	390.25	390.00	396.25	391.75	403.50	411.75	427.75	423.00	414.50	423.75	418.25	411.75	409.00	407.50	405.00	405.50	407.25	400.75	405.75	415.50	431.50	429.00	395.50	380.00	373.50	369.25	367.00	367.50	367.25	367.50	366.50	368.50	365.50	366.00	370.25	375.50	378.00	376.00	371.25	369.50	375.75	380.00	377.00	367.25	372.00	365.50	360.75	360.25	360.00	360.00	361.50	367.50	373.00	372.00	372.75	371.25	372.00	367.50	367.75	366.75	368.25
720.00	721.75	718.50	721.25	735.25	735.00	730.25	754.00	751.50	770.50	750.25	750.75	734.75	722.75	719.50	722.50	725.25	706.75	695.25	696.75	691.00	682.75	683.00	681.50	681.00	678.50	679.25	679.50	679.00	687.00	688.00	693.00	694.50	688.50	694.00	695.75	701.25	700.50	703.75	706.50	702.25	702.25	693.00	700.00	695.00	680.25	682.50	701.50	710.75	699.50	682.00	700.00	701.75	706.50	691.00	710.50	710.75	706.25	703.50	701.75	689.00	673.00	683.25	696.50	691.25	703.75	694.00	681.75	696.00	695.25	691.50	692.25	698.00	696.75	693.50	686.50	685.25	687.00	687.50	691.25	693.75	678.75	679.50	668.00	676.25	689.25	665.00	661.75	686.75	708.00	689.75	645.50	591.25	606.25	625.75	622.00	622.00	640.00	633.25	615.50	608.50	602.50	606.75	598.75	606.75	610.00	618.50	610.50	589.00	587.00	577.25	580.75	571.75	573.75	581.75	563.25	546.75	541.00	520.75	493.00	481.50	493.25	497.50	512.00	519.25	536.00	564.00	569.00	569.75	548.25	532.00	527.00	516.25	499.75	493.00	498.75	529.00	547.75	526.50	522.75	546.25	564.00	585.25	586.25	566.75	554.50	541.25	531.75	538.50	535.75	501.25	481.75	466.75	456.00	457.50	450.75	455.50	449.25	460.25	463.75	450.50	435.75	437.50	451.00	458.00	453.50	450.25	434.50	408.25	400.50	396.25	395.75	395.75	394.25	390.00	389.00	390.50	388.50	385.50	392.50	397.00	399.00	394.00	391.75	386.25	382.50	381.00	378.25	375.50	372.75	373.00	378.75	379.50	379.00	380.50	385.00	392.25	391.50	388.50	401.00	419.00	426.50	410.00	404.75	411.00	409.25	404.50	401.25	401.25	402.00	402.50	401.25	399.00	393.75	403.00	412.50	417.00	408.00	392.75	383.25	382.00	375.75	367.25	365.50	367.75	372.25	372.75	370.00	369.25	374.75	379.75	371.50	368.25	367.75	367.50	369.00	372.25	371.75	363.75	362.25	360.50	362.00	363.00	364.50	363.25	362.25	362.25	361.00	362.25	363.25	363.00	362.00	361.75	361.75	362.75	363.75
705.00	693.00	699.75	723.25	719.50	734.75	745.50	726.50	744.00	762.00	744.25	744.00	752.00	741.25	728.75	709.50	700.00	697.00	707.50	708.75	700.75	690.00	702.25	694.25	697.00	688.75	686.75	684.50	681.75	674.25	670.75	680.00	687.50	689.50	694.25	690.75	695.25	706.00	697.00	697.25	697.50	702.50	700.00	700.50	695.75	699.25	684.25	682.50	679.75	685.50	671.00	680.00	688.00	693.75	702.25	689.50	683.50	705.50	707.25	702.75	698.25	686.50	676.00	692.25	694.00	690.75	689.25	676.50	679.25	682.25	689.50	700.25	713.50	704.75	688.25	684.75	683.50	678.50	683.75	681.25	698.50	694.50	695.50	684.00	657.00	663.00	681.25	680.75	704.75	720.25	683.00	670.00	583.00	587.00	643.25	660.25	651.00	649.75	648.25	631.75	633.50	616.00	606.75	609.75	610.50	598.75	597.25	594.00	600.50	605.25	579.25	564.75	547.75	563.75	571.50	568.25	569.75	552.50	520.50	517.50	495.75	479.25	495.25	508.00	525.25	540.50	550.25	554.25	561.75	551.50	536.00	529.50	509.25	490.25	480.75	480.75	539.75	492.00	497.75	531.50	559.75	556.75	532.00	541.75	576.50	562.25	540.25	552.50	542.75	512.75	508.25	505.25	505.25	483.50	482.50	462.00	465.50	487.75	484.75	455.00	445.00	443.00	429.00	432.25	440.50	439.50	435.75	430.25	417.00	403.75	395.50	397.00	394.25	395.75	393.25	388.25	383.50	388.25	388.00	396.75	409.00	418.50	421.50	395.25	386.25	387.25	389.50	379.50	376.00	376.50	376.50	378.00	376.00	377.50	377.00	382.25	389.75	387.50	393.50	399.50	411.00	417.75	395.00	397.50	399.25	398.25	398.50	401.75	405.00	408.75	406.75	400.00	390.00	386.50	383.50	390.50	397.00	399.75	411.25	414.00	379.00	366.75	364.75	369.25	382.75	390.50	384.25	377.00	372.75	367.00	362.25	358.25	360.00	360.00	360.50	360.00	359.50	360.75	360.00	362.25	364.75	383.00	387.75	379.75	384.75	376.25	367.25	366.25	365.75	364.25	372.00	374.75	383.25	413.00	397.25	389.50
670.25	672.25	697.50	704.75	713.00	721.75	744.00	747.75	730.25	745.75	746.75	735.00	745.25	727.00	715.00	707.75	711.00	708.50	710.50	696.00	694.50	702.75	703.75	705.25	699.50	706.00	697.50	687.50	687.00	683.00	678.25	672.25	681.00	682.25	694.00	689.75	697.25	698.50	695.50	701.50	694.75	699.00	703.25	703.75	697.25	711.25	693.50	686.50	688.50	689.25	681.75	667.75	677.25	687.00	705.50	688.75	692.50	699.50	692.75	687.25	693.00	697.00	671.75	684.50	688.00	690.50	669.25	687.25	691.25	688.50	694.75	706.25	707.50	703.25	695.00	699.75	694.25	697.00	696.75	687.50	702.00	682.50	691.50	685.25	665.50	655.75	673.25	679.50	701.75	712.00	689.50	668.75	588.00	604.00	638.75	643.75	646.50	652.75	633.25	635.50	643.50	623.00	605.25	593.75	596.75	593.00	581.25	574.25	577.25	572.75	576.50	570.25	562.75	540.75	547.25	559.25	549.25	551.50	543.75	516.25	498.25	477.75	488.00	494.50	520.50	550.25	570.75	580.25	570.50	540.50	529.00	506.50	497.00	485.00	480.50	466.75	484.50	479.50	494.50	535.75	547.25	545.00	521.25	517.25	562.25	555.25	529.75	537.00	561.25	516.00	476.25	466.25	479.00	483.75	487.75	464.25	464.00	488.00	500.00	478.50	441.00	430.25	423.75	417.00	427.50	429.75	425.75	418.00	407.75	402.25	396.25	397.25	394.25	391.75	390.25	386.25	388.25	394.00	396.50	404.75	410.75	419.75	417.00	399.75	381.25	387.50	382.75	378.25	377.75	375.75	377.25	388.25	383.25	376.75	374.50	375.75	377.25	398.00	393.75	401.75	408.75	414.25	391.50	392.50	390.50	390.00	395.00	399.50	405.75	408.50	402.75	397.50	388.75	385.25	384.00	379.50	385.25	391.50	401.00	387.25	366.00	365.75	370.00	379.25	386.50	382.50	381.75	376.75	363.00	359.50	360.75	362.50	363.50	368.25	373.75	373.50	368.75	366.75	363.00	367.75	374.25	382.75	391.00	394.50	392.25	384.50	378.50	387.75	384.25	374.00	383.75	398.25	394.75	407.25	419.00	451.50
688.25	706.00	714.00	730.50	732.25	742.50	742.00	750.00	732.50	728.00	739.50	728.50	737.00	721.00	706.25	716.50	723.25	729.25	707.00	698.25	706.25	705.00	713.00	716.75	711.75	699.00	693.75	692.50	697.25	686.25	682.25	679.50	674.00	676.25	688.50	685.75	702.50	719.50	685.75	696.00	692.50	697.75	703.00	710.50	703.25	706.50	703.50	699.00	699.75	694.75	691.00	674.00	666.75	674.75	696.00	693.50	683.00	700.75	703.00	697.75	689.50	696.00	677.00	687.75	675.50	684.00	669.25	684.75	702.00	695.25	699.00	710.75	696.50	693.00	691.00	689.75	705.25	712.50	691.25	681.25	700.25	695.50	700.25	709.75	703.25	664.25	655.25	681.25	677.75	698.50	662.00	633.00	587.50	634.75	643.25	641.50	645.25	651.75	636.50	626.75	633.50	623.25	605.75	608.25	606.50	584.75	583.00	577.25	565.50	559.00	548.25	550.25	548.75	535.25	534.25	531.00	534.25	547.75	550.25	522.75	496.00	478.50	477.25	509.50	524.00	550.50	571.25	582.50	575.50	538.50	509.00	503.25	500.00	493.75	487.50	481.75	449.50	483.00	501.00	538.75	526.50	508.75	496.75	514.00	560.25	543.50	511.00	509.50	534.25	489.75	456.75	444.00	458.00	465.00	465.25	470.75	467.75	479.75	491.75	500.75	467.50	455.00	441.25	421.25	406.25	405.25	402.25	401.75	403.00	406.50	398.50	396.50	394.75	394.25	389.75	389.75	391.00	400.00	407.75	426.00	429.50	426.00	427.75	406.50	387.75	386.75	381.75	388.50	382.25	378.25	382.50	385.75	385.25	382.25	376.75	371.00	376.50	407.50	401.75	394.75	396.75	398.50	395.50	390.50	387.25	394.25	397.25	407.50	407.75	405.25	400.75	388.50	386.25	382.00	382.25	378.25	388.00	387.00	370.50	366.00	366.50	371.25	375.25	372.25	379.25	384.00	377.00	362.75	358.50	362.75	366.25	365.00	372.50	377.50	379.25	380.50	386.25	378.50	365.25	382.00	383.50	390.00	403.00	398.25	385.50	395.50	383.75	385.75	397.00	388.25	385.25	404.00	411.00	437.75	454.25	473.25
701.00	753.75	746.75	740.50	726.75	737.75	728.00	726.75	736.25	718.25	722.00	716.00	716.25	712.00	714.00	730.50	721.00	726.00	709.50	707.75	717.25	722.00	713.00	709.25	699.50	699.00	701.00	693.75	693.00	696.25	690.00	681.50	678.25	671.00	675.25	675.25	679.50	695.50	680.25	681.00	694.00	695.75	697.50	688.00	697.25	696.50	692.00	691.00	700.00	705.50	688.00	679.50	670.25	668.75	681.00	700.25	682.00	680.75	695.75	692.50	684.50	690.50	671.75	673.75	673.75	673.50	677.25	678.25	696.00	696.50	690.50	704.00	693.00	695.00	698.25	710.25	711.00	711.25	695.75	699.00	686.50	694.00	683.25	676.75	681.50	661.75	663.75	660.75	659.00	670.00	651.50	612.75	580.25	598.75	620.00	638.75	637.75	640.00	617.75	620.50	616.75	626.25	623.25	613.75	605.25	598.00	593.50	589.25	577.25	564.00	555.50	554.50	544.25	550.50	554.00	536.75	531.75	526.00	536.25	526.25	516.25	486.25	475.00	500.50	516.50	539.25	572.75	576.50	563.75	556.50	544.00	532.25	521.00	511.00	501.50	536.25	443.75	484.50	513.50	504.00	507.50	486.00	476.75	510.00	556.00	547.25	511.75	488.75	487.50	465.25	445.50	438.75	437.25	436.75	442.75	459.50	469.75	473.25	481.50	491.50	471.00	447.75	436.00	426.00	413.25	409.50	410.25	408.00	405.50	403.75	403.25	398.25	397.50	398.75	391.75	392.25	397.25	409.25	421.25	444.00	458.00	446.00	434.00	417.75	392.75	386.75	389.00	386.50	388.00	384.50	387.25	383.50	380.50	380.75	380.25	375.00	371.00	396.50	400.75	386.25	386.75	390.25	392.25	387.50	387.50	393.00	402.25	414.50	416.50	410.50	405.00	394.75	389.50	385.50	377.50	375.75	388.50	385.00	372.00	364.00	366.50	373.25	374.00	372.00	376.75	379.50	363.50	359.25	360.75	371.00	375.50	375.50	373.25	387.25	390.25	388.00	391.75	381.75	381.25	398.75	392.00	384.00	395.50	398.75	390.25	389.50	384.25	393.50	397.50	393.00	388.25	407.25	413.50	465.75	490.50	501.50
678.75	724.75	751.75	732.25	720.00	734.00	716.00	708.75	728.50	725.50	732.00	727.75	712.00	722.25	717.50	732.00	736.00	733.25	714.75	722.00	715.75	722.25	721.75	718.75	701.25	704.75	705.25	695.50	694.50	700.75	682.00	678.75	678.25	673.00	675.25	665.50	671.50	682.75	672.00	688.00	695.75	691.50	694.75	691.25	683.25	700.50	700.00	684.00	686.25	694.25	699.75	687.75	673.25	669.75	673.25	693.75	675.00	669.75	687.50	695.00	680.75	666.25	661.25	661.25	665.00	670.75	678.75	693.00	683.75	688.25	693.00	700.25	687.00	709.25	700.00	706.50	704.00	704.25	696.25	702.75	700.25	687.00	682.00	682.50	682.25	673.50	691.75	684.00	653.75	630.75	632.25	627.75	576.25	569.00	589.75	625.25	630.25	632.25	609.75	624.50	607.25	631.25	622.00	621.50	600.25	601.75	585.25	574.25	579.25	587.50	568.25	575.50	558.50	569.50	559.00	558.25	542.75	533.00	516.75	516.00	506.25	484.00	476.00	485.75	496.50	528.50	558.25	549.50	540.25	544.25	570.25	571.75	530.00	528.00	531.00	528.25	431.50	478.25	486.50	490.75	496.25	486.75	467.25	488.00	519.50	544.00	513.25	493.25	503.00	475.50	444.00	440.75	433.25	431.50	438.00	467.00	485.00	479.75	478.25	485.75	487.75	465.75	450.00	440.50	418.00	414.25	416.00	413.00	414.25	406.75	403.25	401.50	395.50	398.50	392.75	394.75	400.25	421.00	439.00	467.50	479.25	457.50	448.25	421.50	391.75	388.75	384.00	382.75	389.25	389.25	389.25	390.75	383.50	381.50	379.25	374.75	371.00	384.75	387.25	380.25	385.75	386.75	388.00	392.00	394.00	402.00	420.00	433.50	431.50	416.25	419.75	402.00	394.25	393.50	380.00	377.25	390.25	381.25	369.25	367.00	374.50	375.00	371.75	375.25	374.25	364.25	358.75	362.50	364.00	384.25	387.00	389.25	382.50	395.00	410.50	397.50	404.50	404.75	405.75	412.75	412.50	402.75	405.00	405.25	385.25	390.50	387.75	399.25	401.25	406.50	384.75	400.25	405.25	444.25	457.75	493.00
680.00	671.25	719.00	696.25	705.00	725.75	705.50	652.50	712.75	727.75	738.25	734.25	723.25	736.50	731.25	747.75	735.00	727.50	714.50	730.25	724.25	730.75	734.25	720.00	706.25	708.00	706.25	701.25	696.00	687.25	685.25	685.50	682.00	690.25	682.50	674.75	677.75	671.50	668.25	674.75	680.50	687.50	684.50	676.25	681.75	681.75	684.00	688.75	679.50	685.25	686.25	687.50	688.50	684.00	666.25	673.75	690.00	678.25	674.75	687.00	675.25	665.25	677.50	682.25	674.25	684.75	691.75	692.25	686.50	682.25	694.75	677.00	691.75	693.25	702.00	695.25	699.00	700.00	706.00	701.75	718.25	720.00	714.75	700.50	712.75	699.00	698.75	710.00	694.50	646.25	603.25	608.75	573.75	582.00	579.50	595.50	617.75	620.75	607.25	622.00	604.25	622.00	621.25	616.50	604.75	594.00	589.50	586.00	596.50	597.00	583.50	591.00	582.50	587.50	576.50	572.25	558.50	557.75	555.25	536.50	530.00	509.25	481.50	477.00	484.25	497.00	513.25	529.50	518.50	538.50	540.25	527.00	513.25	512.50	487.25	427.75	426.25	475.25	487.75	465.00	479.75	483.50	455.00	469.50	490.75	523.75	503.50	514.25	501.25	476.50	447.50	449.25	433.50	432.50	436.00	450.25	470.25	478.25	486.75	491.00	492.00	474.00	443.25	432.00	417.25	410.50	415.25	419.00	408.00	410.00	408.50	404.25	395.00	399.75	395.50	401.50	415.25	434.50	460.50	481.75	474.00	461.75	447.75	426.25	402.75	395.75	387.00	390.75	392.75	389.50	389.75	389.50	386.50	381.25	378.50	375.25	370.00	376.00	378.00	379.75	379.50	378.00	388.50	410.00	405.00	412.25	411.75	413.75	412.00	399.25	403.00	391.75	390.75	381.75	375.50	373.50	379.50	371.00	369.75	366.75	377.00	376.75	367.75	369.25	366.25	358.25	360.00	365.00	371.75	394.50	403.00	410.25	405.25	405.75	415.00	412.75	429.00	427.50	413.00	416.00	435.50	421.75	412.75	407.50	394.50	399.50	398.25	395.75	400.75	405.00	394.00	400.00	410.25	428.25	442.00	474.25
643.25	648.50	681.00	668.50	700.50	716.75	672.00	609.75	696.25	722.50	711.75	725.75	726.75	727.75	735.25	742.00	729.00	716.00	718.75	736.00	739.50	729.75	730.25	721.00	712.25	706.00	697.50	692.00	691.25	689.25	694.75	691.00	692.00	693.25	684.00	687.25	685.25	681.75	678.25	667.25	669.00	669.75	674.50	669.75	667.50	663.75	665.00	668.75	685.25	694.75	679.00	686.75	690.50	680.75	656.25	658.00	668.00	671.25	673.50	692.75	671.25	662.50	679.75	693.00	682.75	683.75	688.50	698.50	684.25	669.25	668.00	672.75	682.00	681.25	679.25	685.50	697.00	710.00	714.25	699.25	718.75	716.75	716.00	709.75	724.25	715.50	710.50	708.75	698.00	684.50	608.25	591.75	584.25	603.00	601.75	591.00	629.50	625.50	602.25	598.75	598.50	610.75	619.75	626.25	610.00	595.75	591.50	604.50	606.50	604.50	611.75	605.00	596.50	607.00	598.00	588.25	588.00	586.75	560.25	559.50	558.25	526.25	506.00	477.75	457.00	469.25	487.75	503.25	507.50	517.50	513.75	508.50	524.50	532.50	447.25	434.25	419.25	458.25	484.25	447.50	454.25	487.00	448.75	459.25	521.25	544.00	492.50	472.50	467.00	442.25	436.50	433.25	435.50	432.50	446.75	455.00	466.75	483.25	505.75	495.50	478.50	463.00	445.25	429.50	414.75	404.75	408.50	414.00	407.00	403.75	401.00	398.00	398.75	398.75	397.25	418.75	432.75	451.25	491.50	493.00	467.00	448.25	441.00	421.25	403.25	397.50	389.50	396.75	394.75	395.25	392.50	387.00	386.75	385.75	387.00	379.25	376.25	370.25	371.25	377.50	375.00	375.75	392.75	415.50	399.25	389.50	385.00	390.50	389.00	382.75	381.75	383.50	376.50	373.25	368.75	373.00	371.50	364.75	366.00	373.00	365.75	362.00	360.50	357.25	357.25	360.00	364.75	372.50	380.50	409.50	426.25	431.00	427.00	419.25	418.75	421.75	436.50	440.25	419.00	414.75	441.50	425.75	420.25	405.00	396.25	395.50	398.50	402.50	396.25	401.00	404.50	391.50	404.00	415.75	424.25	429.75
585.75	625.00	650.00	682.00	692.25	693.75	665.00	610.25	660.50	692.25	704.75	708.75	678.25	687.50	702.75	725.50	717.75	732.25	736.50	725.25	741.75	737.75	729.25	719.00	710.00	699.25	708.25	696.25	697.25	698.25	700.25	688.00	689.25	691.25	690.00	697.25	691.00	687.00	677.75	679.00	675.50	680.25	679.75	665.50	666.75	669.75	674.75	666.00	661.00	675.50	664.25	661.50	656.75	655.25	657.75	657.25	656.50	654.00	656.75	664.25	656.50	657.75	664.00	677.50	686.75	688.50	684.00	680.75	683.25	674.25	668.50	677.75	705.00	703.50	714.00	710.00	712.50	713.25	724.00	708.00	707.75	725.75	725.25	710.75	706.75	706.50	700.25	701.50	675.50	662.50	605.50	591.75	572.75	574.50	603.25	602.50	618.00	625.50	602.25	590.00	602.25	611.75	621.25	644.75	634.75	610.00	608.75	618.50	613.00	601.75	597.50	598.00	583.00	591.75	588.00	576.25	571.00	566.25	557.75	538.50	534.50	528.75	520.00	494.50	464.75	450.25	455.75	469.25	512.25	487.00	501.75	487.25	495.00	491.75	441.25	415.50	406.75	429.00	450.25	467.75	439.25	449.75	445.50	456.50	519.25	500.00	474.00	451.00	436.25	419.75	415.75	429.50	434.25	433.75	434.75	463.25	487.00	486.75	481.00	466.75	466.75	451.00	449.50	425.25	411.50	407.25	415.25	415.25	406.25	408.25	402.00	397.75	398.75	401.00	410.25	429.50	445.00	475.50	489.50	486.00	475.75	443.75	427.00	417.50	402.50	395.00	395.00	394.50	395.50	399.75	394.75	389.50	388.25	385.75	383.50	381.50	380.50	375.50	372.75	370.00	368.50	379.50	396.75	393.50	392.25	387.00	379.50	378.50	381.75	379.25	376.00	377.50	375.00	371.00	372.00	372.75	365.00	363.50	364.75	364.75	360.75	359.00	363.75	362.50	361.25	360.75	371.25	384.50	395.25	423.25	468.25	479.25	464.75	435.00	430.50	420.50	418.00	421.50	418.25	414.00	445.75	451.25	440.00	421.25	404.00	400.25	405.75	413.00	407.75	406.00	405.00	396.25	404.00	411.00	413.25	423.75
586.00	593.50	633.25	683.50	686.50	679.25	640.00	619.50	660.00	695.00	722.25	702.00	660.50	662.25	692.75	734.50	722.00	738.00	749.50	729.75	747.50	735.50	726.75	718.50	710.50	701.75	713.25	696.25	698.75	696.75	706.00	684.75	688.75	691.75	696.75	694.50	694.00	690.25	672.50	688.25	685.25	690.75	690.50	674.75	677.75	686.75	686.25	672.75	667.00	662.50	667.50	665.00	662.00	660.50	666.50	663.00	658.75	659.25	655.75	654.25	651.25	651.25	654.75	665.25	674.00	687.50	685.50	672.25	688.75	679.75	681.50	676.25	705.25	724.00	723.25	718.75	720.75	701.00	715.75	711.00	706.25	717.75	714.00	709.25	705.50	708.75	704.00	716.50	691.00	693.00	621.50	599.75	572.00	575.00	600.50	599.75	615.00	614.25	597.75	592.50	610.75	629.00	637.75	638.25	632.50	621.75	611.50	617.75	617.00	606.00	587.00	587.50	579.50	582.50	580.00	569.75	560.00	553.25	553.00	543.75	527.25	531.25	524.25	495.00	482.25	453.75	434.25	445.75	491.25	476.00	495.00	474.00	474.25	479.50	431.75	410.50	402.75	415.75	432.50	470.25	436.75	432.50	430.50	455.75	506.50	480.50	459.75	442.50	424.00	413.25	416.00	425.25	430.50	435.75	441.75	463.75	484.75	470.25	465.50	450.75	448.50	447.00	445.00	422.25	409.75	408.75	410.00	411.50	405.50	407.75	403.75	395.75	397.50	410.25	417.00	438.25	455.25	498.00	479.75	472.50	476.25	438.00	421.25	415.50	404.00	394.50	398.25	394.75	395.75	402.25	395.00	387.75	386.25	385.50	384.50	389.50	383.50	378.75	373.50	373.00	365.50	377.25	392.25	388.75	386.75	382.25	378.50	379.00	375.75	374.25	373.00	376.50	373.25	373.50	376.00	370.25	362.75	362.75	359.25	362.25	357.75	360.00	371.50	367.50	365.25	364.75	379.50	396.25	409.50	424.00	472.00	511.75	495.75	443.00	435.75	421.50	411.75	409.75	414.50	411.25	446.50	468.50	453.25	433.75	409.00	401.50	404.75	406.00	411.00	406.75	406.00	400.75	415.75	418.25	415.50	423.25
567.50	601.00	653.75	690.25	668.00	602.25	598.25	620.50	651.75	694.00	717.50	702.25	648.00	673.50	713.75	744.75	746.50	736.75	759.25	741.25	748.75	743.50	728.50	714.25	719.75	711.50	704.25	707.75	697.00	694.00	703.00	687.25	696.75	690.50	682.00	683.50	688.75	680.25	675.25	691.50	682.75	690.75	686.75	675.25	682.25	691.50	685.25	692.50	676.25	678.25	682.00	684.50	683.75	670.25	674.75	674.00	676.50	673.00	667.50	664.50	659.25	653.25	651.50	664.00	679.00	685.25	678.50	679.75	686.75	682.00	697.25	687.00	706.75	727.50	714.75	719.25	717.25	703.25	717.00	722.00	715.75	710.25	712.50	707.25	717.25	715.25	707.75	719.50	715.00	697.00	649.00	631.25	613.25	594.00	574.25	581.00	603.25	596.50	601.50	605.25	615.00	672.75	669.00	630.75	621.50	629.00	624.75	617.75	600.50	598.25	593.00	581.75	572.25	564.00	575.50	575.50	564.25	548.00	537.50	535.25	537.75	546.50	540.75	522.00	508.25	458.50	434.50	422.00	441.50	445.50	465.50	456.25	454.00	491.25	482.25	415.00	400.75	406.75	420.00	461.50	442.25	427.75	435.00	458.00	465.25	446.00	425.75	418.75	414.00	411.50	428.50	439.50	466.75	484.25	487.00	480.50	471.75	470.75	455.00	451.25	443.00	435.00	430.75	424.25	412.25	408.50	409.25	406.75	409.50	404.25	404.75	396.50	397.00	408.50	418.75	448.75	479.00	497.25	477.75	460.00	460.25	429.50	417.00	409.00	404.00	397.75	395.50	394.00	395.00	391.50	391.50	388.25	383.00	382.00	381.50	381.25	385.25	377.25	371.50	372.75	367.75	366.00	382.50	381.50	379.00	376.00	372.75	376.75	374.75	378.00	378.25	373.00	376.00	375.75	366.50	361.50	361.25	360.00	358.75	358.25	364.50	369.00	372.25	371.50	375.00	375.25	387.75	408.25	437.75	425.25	445.50	492.00	495.00	440.50	422.00	414.50	408.25	407.25	411.75	422.75	449.00	474.25	475.75	441.00	413.25	407.75	410.50	418.00	414.00	411.50	404.50	402.00	413.00	419.75	426.25	419.25
562.50	619.50	669.25	673.00	613.75	576.50	628.50	687.25	705.50	699.50	694.00	645.75	642.75	703.25	717.25	725.25	748.00	743.25	762.50	756.75	737.00	741.25	734.75	716.75	700.50	716.25	703.25	702.00	707.50	686.25	691.50	685.50	691.25	690.50	679.75	680.50	681.50	687.25	680.00	694.25	685.25	686.25	680.25	671.50	676.75	688.00	691.25	678.50	680.25	698.50	691.00	685.50	682.75	668.75	682.00	690.50	680.50	681.25	678.00	674.00	656.50	657.00	653.75	651.25	656.50	669.50	665.50	672.50	678.00	683.75	692.75	691.25	709.00	726.75	715.00	714.25	722.25	715.00	724.25	725.00	718.75	715.00	718.75	707.00	717.75	717.75	709.50	707.50	711.50	687.75	635.25	627.75	641.00	612.50	578.25	572.75	575.25	574.00	594.50	600.00	604.50	663.75	655.75	612.75	612.00	627.25	631.25	622.50	602.00	596.25	590.50	590.75	577.75	565.75	557.75	560.50	550.50	556.00	541.50	546.00	546.00	540.75	548.75	549.25	526.50	464.75	460.50	438.75	413.50	417.00	431.25	440.50	446.75	507.25	549.00	418.00	398.50	402.50	418.00	453.50	435.50	420.00	426.25	434.25	419.50	407.75	401.00	402.00	408.00	413.50	453.25	485.75	495.25	506.75	487.50	493.25	475.50	463.50	464.25	461.75	447.75	431.75	424.00	419.25	414.50	412.00	406.00	408.75	415.00	412.50	408.50	396.00	402.00	423.25	429.25	462.25	492.25	499.00	489.50	469.50	442.75	427.75	418.25	405.75	403.00	397.25	391.25	394.75	391.75	387.50	384.75	385.25	382.75	380.50	383.00	381.50	378.25	375.00	376.50	377.50	370.25	368.25	375.50	376.50	370.75	371.75	372.50	377.00	376.00	377.50	373.25	373.25	373.75	367.75	359.25	359.00	357.75	356.00	362.25	369.75	370.75	367.75	373.25	371.75	376.25	373.75	390.00	416.00	449.50	444.00	442.25	466.25	463.50	428.50	409.25	402.75	405.00	402.00	414.50	432.50	452.00	471.50	493.50	448.75	423.50	416.50	420.50	433.25	431.25	421.75	415.50	413.25	410.50	417.25	431.25	431.00
571.00	620.00	644.50	628.75	574.75	577.00	611.25	642.00	691.50	646.50	629.50	653.75	694.00	706.25	681.00	710.25	735.75	750.00	750.25	759.75	743.50	725.00	729.00	712.75	701.25	697.50	703.50	697.75	698.25	686.25	682.50	674.25	675.75	686.00	684.25	669.75	680.00	694.50	688.25	693.00	689.25	677.00	688.75	684.75	681.00	694.00	689.75	686.75	692.25	706.00	706.75	695.75	690.50	680.00	690.25	693.50	681.75	672.50	678.25	673.50	665.00	663.75	659.50	656.00	651.50	664.50	683.00	682.00	675.25	685.25	687.25	707.75	707.75	721.00	712.25	713.50	718.00	724.75	724.75	727.25	724.50	724.50	721.00	705.75	722.25	708.25	701.25	707.75	690.75	666.75	633.75	628.75	608.50	595.50	602.75	590.00	569.25	576.50	587.00	594.25	603.75	634.25	637.75	610.50	606.25	617.75	619.75	620.50	626.75	598.50	580.75	589.00	576.75	570.50	565.50	557.00	551.00	555.00	552.75	567.75	559.25	554.50	555.25	565.50	549.25	531.25	492.50	487.75	438.25	411.50	412.75	410.25	421.25	457.75	474.75	409.00	396.75	406.00	426.75	447.00	425.00	420.50	433.00	421.00	396.25	396.00	400.25	404.50	411.25	418.75	444.50	475.00	506.50	496.50	485.25	488.75	493.25	491.50	485.75	469.00	456.50	452.25	434.75	419.75	416.50	412.75	413.75	413.00	418.50	412.00	407.75	405.50	414.50	434.50	457.25	464.75	466.75	477.00	478.75	460.25	436.50	426.00	418.50	408.75	398.75	391.50	390.50	391.25	386.75	387.50	384.00	381.75	379.75	378.50	381.50	379.00	380.50	378.50	376.50	375.50	373.25	369.25	375.75	373.75	372.50	374.50	370.75	370.50	376.75	374.00	373.00	369.75	369.00	358.00	357.00	359.00	369.25	370.25	371.25	371.50	371.75	374.25	376.75	373.00	374.25	373.25	388.00	411.25	436.75	442.75	430.50	430.50	435.75	414.75	402.25	401.00	404.25	402.00	422.00	442.25	474.00	504.75	510.00	467.75	437.75	421.75	423.00	426.50	430.25	425.50	416.75	414.00	419.00	426.25	437.00	440.00
560.25	595.25	608.25	582.00	573.00	570.50	584.75	630.50	679.25	597.00	641.75	691.50	694.00	700.25	643.25	707.00	718.25	737.75	743.75	756.00	746.75	734.25	721.75	719.75	698.25	689.25	691.00	679.25	689.50	692.50	684.50	680.75	667.50	680.00	669.25	669.75	681.50	682.25	694.50	688.75	688.50	680.50	691.75	686.75	682.75	698.50	687.00	687.75	692.00	708.00	721.50	711.50	694.00	685.25	693.00	686.25	674.50	679.00	695.25	681.50	674.25	671.75	675.50	663.00	651.50	661.25	682.25	687.00	683.75	701.00	690.00	717.00	695.50	715.00	716.00	723.25	718.25	702.00	712.00	713.25	706.75	725.75	704.75	704.25	724.25	717.25	686.75	698.25	694.50	660.50	647.50	647.75	618.50	608.00	612.00	582.75	574.50	579.75	585.00	611.75	625.25	612.00	621.75	603.50	600.25	602.50	614.50	632.50	624.25	590.25	596.25	607.25	580.00	591.00	579.75	554.50	558.00	568.00	559.25	568.25	566.00	562.25	582.75	602.25	620.00	565.50	522.50	504.75	452.00	427.25	429.25	409.50	402.00	401.25	420.00	395.75	393.75	404.25	423.75	423.25	416.75	422.25	446.50	425.00	395.00	397.50	401.25	405.75	413.00	420.75	433.00	455.75	505.00	502.25	497.00	504.75	531.25	518.75	487.50	476.25	466.75	439.25	428.25	421.00	416.75	415.50	416.00	413.25	423.75	405.75	401.00	421.50	435.00	448.50	476.25	449.00	450.25	459.75	458.25	452.25	436.25	418.25	406.25	409.00	393.00	389.25	390.50	387.75	384.75	389.00	384.25	378.00	385.75	388.00	389.25	387.25	384.75	382.25	380.25	372.00	367.75	370.25	370.25	370.00	370.75	371.75	377.25	376.25	380.75	374.75	377.25	374.00	361.50	355.00	357.50	370.75	382.50	374.75	373.50	374.50	374.00	378.00	380.00	377.75	377.00	375.75	384.75	400.25	409.00	408.75	407.25	411.75	409.00	400.50	396.00	406.50	405.25	404.25	423.25	443.25	485.25	523.00	535.25	500.25	448.25	435.75	430.25	446.25	443.75	427.25	418.00	421.75	417.50	426.25	444.25	446.75
540.00	572.25	578.00	556.25	561.75	587.00	625.00	661.75	651.25	588.00	649.75	674.50	684.00	675.50	627.25	678.00	709.00	728.25	733.50	741.50	738.50	746.00	725.00	711.50	697.00	696.00	684.25	678.25	672.25	672.50	669.00	676.50	665.50	667.75	669.75	679.25	675.50	678.50	695.00	691.50	680.50	689.75	695.75	699.25	686.25	689.00	693.75	703.50	689.00	708.00	720.00	710.00	700.00	688.00	698.00	692.25	690.00	697.50	703.75	699.00	684.00	685.00	692.00	688.25	665.75	655.75	671.25	673.25	675.25	691.50	700.75	697.00	717.75	724.75	725.50	728.75	712.75	700.25	691.50	716.50	721.75	715.00	701.25	692.00	706.50	720.00	694.00	683.00	688.25	660.50	630.25	618.50	640.25	627.50	608.25	577.75	590.50	569.50	585.00	590.50	600.50	589.25	596.25	591.75	595.00	621.25	653.50	646.50	615.50	609.25	595.25	594.00	583.75	581.25	569.00	557.50	561.75	565.75	570.75	584.00	567.25	585.00	577.25	578.75	587.50	559.00	525.50	499.75	462.50	454.50	471.75	443.00	438.00	407.00	399.00	393.50	392.00	404.50	427.50	417.25	418.50	434.25	439.75	420.25	393.50	395.50	400.25	402.25	411.25	423.75	442.00	452.50	501.00	504.50	511.25	514.75	523.75	500.50	473.75	455.75	448.75	435.00	441.25	433.25	421.25	418.25	412.00	415.00	424.25	400.25	400.00	425.00	444.50	480.25	496.50	449.50	451.00	461.00	465.50	455.25	429.25	430.00	420.50	407.50	389.00	391.50	388.25	387.00	386.50	384.25	383.25	382.50	392.00	386.50	384.25	384.25	386.00	380.75	382.50	379.75	372.25	368.00	364.75	371.25	371.00	375.25	375.00	376.25	377.25	376.75	371.50	365.00	365.25	356.50	365.00	369.00	376.25	376.75	374.00	378.50	377.25	380.00	381.25	375.50	378.25	378.50	380.75	387.75	393.00	394.00	394.75	400.00	397.50	395.25	401.75	398.50	399.00	402.50	422.75	446.25	500.75	494.25	511.25	516.50	466.00	442.50	432.25	453.25	451.00	427.50	425.75	428.00	422.75	428.00	447.00	469.25
536.75	581.75	557.50	568.50	580.25	602.00	679.25	664.50	606.00	582.00	624.00	622.75	670.25	630.50	616.50	640.00	702.00	709.50	723.75	716.25	722.75	736.00	730.00	710.25	698.75	690.00	686.75	687.25	677.25	672.75	662.00	662.50	675.75	664.50	676.25	674.75	675.25	678.50	686.50	695.25	683.75	695.50	697.50	704.50	699.75	681.25	702.25	693.25	687.25	701.50	717.25	708.75	719.75	695.50	700.25	687.50	692.25	707.50	696.25	709.50	691.50	686.75	668.50	676.75	676.75	650.25	654.50	678.75	696.00	705.25	688.25	691.50	716.00	711.00	716.75	711.50	697.50	699.50	677.50	705.50	732.50	704.00	711.00	685.00	702.75	717.25	707.50	683.75	679.75	658.00	631.25	621.75	608.50	605.00	593.00	578.50	580.50	569.00	570.00	590.00	590.50	582.50	614.75	634.00	619.25	653.25	675.25	658.00	642.00	596.25	592.00	597.00	606.00	612.00	594.50	570.50	561.75	563.50	569.75	591.25	566.00	532.25	526.25	521.00	537.50	540.00	522.50	505.75	478.75	479.50	503.75	475.25	473.75	428.00	420.50	399.50	394.25	395.00	418.50	423.50	437.25	446.25	430.00	402.75	392.50	393.50	397.25	403.00	416.25	429.75	453.75	452.75	487.75	516.00	526.75	519.25	518.25	510.25	481.00	461.50	452.25	445.50	457.25	432.50	434.25	435.25	417.25	409.25	418.00	401.00	403.00	424.50	440.00	477.25	469.25	443.50	455.00	448.00	453.00	457.25	435.00	432.00	405.75	393.25	387.00	384.00	388.25	385.75	386.50	383.75	387.00	384.00	382.75	382.50	383.00	382.50	381.50	381.00	379.25	378.50	373.50	371.50	369.75	374.75	378.25	378.25	376.75	372.75	386.00	376.25	369.00	362.25	359.75	360.50	365.50	374.50	390.50	387.25	378.75	373.75	378.00	377.25	379.50	376.00	376.50	379.50	383.00	382.25	387.00	391.25	388.25	394.50	392.50	393.00	394.75	393.25	396.25	402.25	426.00	456.50	486.00	466.00	503.00	557.25	479.50	440.00	434.75	451.00	453.50	437.00	432.50	427.00	426.25	430.50	444.50	472.75
539.75	547.50	554.75	583.50	620.25	643.75	672.00	637.75	586.00	574.25	583.50	625.75	624.75	608.00	644.00	689.25	706.25	723.00	736.50	731.00	717.25	714.25	708.25	713.00	713.25	700.75	695.25	684.75	689.75	682.00	677.75	668.75	662.25	664.00	669.50	670.75	683.50	677.00	686.50	685.50	692.00	679.75	688.75	690.50	697.25	669.75	684.50	685.50	690.25	698.50	725.50	709.75	700.25	711.25	689.25	703.75	689.25	699.25	697.00	708.75	698.50	684.50	676.00	685.25	679.75	660.25	649.75	671.75	693.50	706.75	697.00	701.25	717.25	687.25	694.25	706.00	682.50	675.50	672.00	664.00	674.00	694.50	691.25	681.50	706.25	717.50	712.25	691.50	694.75	668.25	638.50	633.75	594.50	586.25	585.75	584.25	595.75	584.00	578.00	576.00	573.25	582.50	623.75	644.50	635.50	670.75	689.00	655.25	621.75	610.00	630.00	637.75	622.50	604.75	587.75	590.00	582.25	585.50	568.25	574.00	577.50	512.25	492.50	481.00	486.25	512.50	507.00	500.00	490.25	500.50	511.00	490.75	470.25	441.75	423.50	394.75	393.25	390.50	401.50	420.25	424.50	438.75	437.75	408.00	391.50	391.25	396.50	408.50	429.00	444.50	469.25	461.75	493.25	532.75	544.50	528.00	527.50	511.00	502.75	481.25	456.25	444.75	443.25	439.25	435.50	444.25	412.75	407.75	406.75	399.75	405.00	422.25	430.75	449.50	439.00	429.50	430.50	426.00	428.50	432.50	421.00	404.50	394.00	387.00	389.00	387.75	386.50	385.75	383.00	380.25	382.25	383.00	382.25	383.50	383.00	380.50	380.00	379.50	378.75	377.00	371.50	367.75	370.25	382.50	378.50	376.25	370.25	378.25	375.25	374.00	368.50	367.75	360.50	363.75	369.75	383.00	396.00	393.25	382.25	379.25	373.25	377.50	379.25	378.75	378.00	378.50	380.75	382.50	386.75	390.25	389.00	393.50	392.25	391.25	392.00	394.75	397.25	402.25	421.25	447.75	457.25	456.75	502.00	556.00	484.50	451.00	446.00	451.75	454.50	441.50	440.25	435.75	446.00	454.00	453.50	462.25
574.00	554.50	602.75	638.00	663.25	657.50	642.75	637.00	570.25	599.50	580.75	589.50	587.00	627.50	667.00	698.50	716.50	728.25	725.50	739.25	725.50	699.50	706.50	703.25	712.00	717.50	706.75	695.75	688.25	679.25	677.50	675.25	656.25	658.00	660.50	668.25	671.00	678.25	683.25	678.75	688.25	666.25	683.50	675.75	693.00	668.50	674.00	700.75	695.25	695.00	722.25	710.50	694.25	692.50	692.50	702.25	691.25	693.00	686.25	680.50	685.25	683.25	678.50	671.25	675.00	673.50	654.50	669.00	688.25	685.00	702.50	698.00	702.00	669.25	670.00	689.75	695.25	677.50	652.75	637.75	672.50	698.50	675.25	675.25	695.25	711.75	717.50	698.50	717.00	685.50	640.50	637.00	591.75	593.50	586.25	614.50	613.00	586.50	580.00	598.50	573.75	580.00	637.25	630.25	631.25	670.00	684.75	664.75	629.25	630.25	645.00	652.75	618.50	607.50	600.00	599.00	590.25	597.75	593.50	572.75	579.75	547.75	535.00	505.75	474.25	459.00	468.50	471.00	467.75	473.25	514.25	514.25	452.25	433.25	409.75	395.75	398.50	393.00	408.50	418.00	431.00	431.25	446.75	414.50	392.00	394.75	400.25	411.75	455.75	478.25	490.00	475.50	498.25	532.25	544.75	515.50	517.50	526.25	499.00	477.00	456.25	445.00	450.50	441.00	449.75	440.75	424.00	422.50	415.75	401.00	411.50	430.50	434.75	422.50	425.25	419.25	414.25	408.50	403.00	397.00	391.75	393.75	390.75	387.50	392.75	391.25	387.75	390.50	389.25	385.50	383.50	380.25	383.00	382.00	381.25	381.25	380.00	379.75	377.75	368.75	368.25	364.00	370.25	369.50	361.75	363.50	362.50	363.75	368.00	368.75	364.75	366.00	357.25	362.50	372.75	382.75	382.50	383.75	380.50	378.75	375.75	375.00	376.75	379.00	384.75	378.25	379.75	383.25	383.75	386.50	394.25	392.00	390.50	392.75	399.25	404.00	404.50	404.75	418.50	432.25	434.00	452.00	483.50	535.25	498.00	465.25	458.00	464.00	475.50	451.25	445.00	435.50	450.75	476.50	461.50	470.25
626.75	634.50	650.00	657.50	631.75	624.25	581.50	609.25	553.75	633.50	626.25	627.75	643.50	657.00	703.00	718.50	725.00	720.50	677.00	667.25	682.50	663.50	692.75	690.25	703.75	694.00	705.25	690.25	690.50	674.25	669.50	669.50	667.75	652.75	654.50	659.75	654.50	662.50	674.25	665.00	656.75	652.25	661.25	661.00	675.50	695.75	685.25	681.00	668.00	687.50	718.25	707.50	719.75	721.00	715.00	706.75	712.50	691.75	686.75	689.25	678.50	688.50	683.50	686.25	689.00	667.25	663.25	652.25	663.75	707.00	717.25	696.25	660.75	665.00	654.00	678.25	680.25	656.00	640.75	636.25	676.25	698.75	689.75	668.50	702.25	713.50	713.00	701.25	702.50	674.50	639.25	626.25	618.50	617.25	592.75	609.00	609.75	591.00	600.00	615.50	580.50	579.00	619.50	618.50	628.25	635.75	649.75	674.75	689.25	683.75	676.25	678.00	657.00	649.25	638.25	630.25	617.25	627.25	605.00	602.75	607.00	608.75	599.00	566.25	516.75	492.50	452.50	442.00	440.25	436.50	462.50	448.50	434.00	411.50	394.50	396.00	398.00	387.75	397.50	402.00	410.50	413.75	415.25	405.25	394.50	406.50	411.00	429.00	455.00	478.25	524.25	515.00	511.00	525.75	516.50	481.50	487.75	514.00	495.00	480.00	463.75	453.75	458.50	457.00	450.00	439.25	444.75	438.00	426.25	410.25	403.25	412.25	421.00	411.50	405.00	413.00	405.75	399.25	397.25	395.50	399.50	394.50	387.50	386.50	384.75	384.75	389.25	391.50	387.00	384.25	385.50	385.75	384.50	382.25	380.50	380.25	382.25	374.25	368.00	369.75	370.00	364.25	357.25	355.50	357.00	367.75	367.50	385.00	382.75	365.25	361.50	362.00	362.25	364.75	367.75	371.75	378.00	380.00	375.25	376.50	378.75	376.75	376.25	376.75	381.00	381.00	380.25	382.25	385.25	391.75	388.00	394.00	393.00	401.75	425.50	439.00	440.25	435.50	429.00	428.25	460.50	467.75	466.75	522.00	520.00	492.25	489.75	471.50	493.25	464.25	456.75	452.75	455.25	460.25	469.75	483.75
627.00	627.25	640.75	647.75	588.25	609.50	569.50	546.00	553.00	580.25	607.50	660.75	682.50	704.75	717.00	723.50	733.50	723.25	661.50	657.50	668.00	648.25	657.00	677.50	688.00	684.50	694.25	687.25	693.00	676.75	675.75	670.00	655.75	647.75	644.75	643.75	640.50	644.25	665.50	652.00	644.50	657.75	679.00	688.00	683.00	685.75	662.50	677.50	673.50	684.75	725.25	721.75	722.50	717.50	728.50	717.00	717.25	715.25	700.25	692.50	686.75	674.50	675.00	670.00	672.75	684.00	668.75	663.25	664.75	674.00	675.00	707.75	657.75	649.00	638.50	649.50	655.00	671.50	637.25	659.25	679.00	681.75	671.75	663.50	700.00	716.50	718.50	706.25	713.25	710.25	662.25	629.25	615.25	606.50	602.75	595.75	610.00	603.50	605.50	596.50	572.75	569.50	596.50	606.25	604.75	619.25	650.25	668.50	688.00	687.00	659.25	678.50	678.50	671.00	667.00	665.00	652.50	653.50	616.25	616.25	611.50	641.50	640.75	571.25	530.00	539.50	488.25	458.25	430.00	418.75	414.75	409.25	403.00	400.00	402.25	405.75	424.50	409.50	399.00	388.00	388.75	400.00	408.75	408.00	396.00	410.25	416.25	429.75	436.50	457.25	499.25	521.00	526.00	526.00	514.25	478.50	473.75	475.25	472.50	477.00	460.75	445.50	445.25	438.75	431.75	428.75	426.00	425.50	437.00	431.25	421.50	402.00	396.50	405.00	396.75	401.00	403.25	396.25	399.50	395.25	393.50	390.25	389.00	385.75	381.75	387.25	392.00	391.50	387.25	385.25	388.00	382.75	382.25	379.25	381.75	376.25	378.25	372.25	369.00	369.75	364.50	362.00	355.00	357.50	384.00	392.00	384.50	420.00	427.25	401.50	382.00	367.75	369.50	366.75	369.75	372.50	379.00	378.50	378.50	379.25	374.25	375.00	374.75	377.50	374.25	376.00	378.00	381.00	382.25	384.75	384.50	392.00	397.25	410.25	442.25	471.25	474.00	477.75	463.75	451.00	471.00	511.75	507.25	517.50	537.00	521.50	511.00	476.50	500.50	462.50	462.50	471.25	473.00	473.25	475.00	470.00
622.25	619.00	622.25	631.00	581.50	557.50	543.75	575.00	587.00	594.25	642.50	662.50	675.25	690.75	702.75	703.00	716.50	705.00	664.50	644.25	640.75	656.00	667.50	704.00	714.75	692.50	679.75	682.25	688.25	674.75	664.50	656.75	654.75	658.00	662.75	653.00	644.25	634.00	641.75	650.75	659.00	668.50	678.75	685.75	669.25	669.25	653.25	667.25	664.75	680.00	723.75	710.50	713.50	725.00	718.50	725.75	711.75	709.50	709.25	701.25	690.50	682.25	671.00	676.25	689.50	690.00	692.25	693.50	678.25	633.50	616.25	662.75	666.75	678.50	651.50	627.75	642.25	645.50	632.25	649.25	652.75	692.25	667.50	663.00	692.25	706.75	698.25	702.50	712.00	703.00	657.50	625.00	618.75	634.50	635.00	615.75	617.50	610.75	605.75	587.50	599.50	581.00	580.50	575.25	586.50	616.50	630.25	634.25	660.00	652.50	624.25	640.75	661.00	686.25	664.50	659.50	672.75	667.00	638.75	622.00	638.00	645.50	656.00	563.25	501.25	510.00	519.25	484.25	441.50	430.75	408.50	407.25	405.75	408.50	424.75	426.75	433.75	418.50	411.00	394.50	385.75	394.50	400.75	397.50	396.75	403.25	428.75	445.75	456.00	464.25	496.00	509.00	537.75	541.50	516.50	486.25	479.25	471.75	463.25	459.75	463.50	453.00	455.00	437.75	427.75	429.50	417.00	416.25	423.50	424.50	425.75	412.00	400.50	397.50	399.50	405.25	399.50	397.00	394.50	391.75	392.50	391.50	390.25	389.75	387.25	387.75	391.75	387.00	385.00	383.25	383.25	383.75	380.25	381.25	379.50	377.00	375.00	374.25	369.75	366.00	361.75	359.25	360.50	369.50	386.25	398.25	417.25	428.50	438.75	407.75	383.25	372.25	373.75	371.00	371.25	371.75	380.50	374.50	376.75	378.25	376.25	377.25	372.75	374.00	373.75	377.50	381.25	383.25	386.75	384.25	388.00	395.00	400.25	410.00	438.50	456.75	456.25	468.00	491.00	473.50	504.75	540.75	550.00	536.75	551.50	548.00	514.75	489.25	503.25	474.25	471.50	465.50	476.50	493.00	481.75	461.00
624.00	594.50	564.00	579.00	558.00	530.50	565.00	609.00	631.75	580.00	593.00	611.50	648.25	676.00	694.00	684.50	707.00	707.25	643.50	646.25	628.25	657.25	688.75	718.25	731.75	697.25	686.75	675.25	679.75	678.00	664.50	665.50	659.25	666.75	663.50	657.50	662.25	654.25	629.50	649.75	667.50	679.75	693.50	663.25	646.75	660.50	653.00	671.75	687.00	690.25	699.00	699.25	705.25	726.25	716.50	727.50	719.75	714.00	700.25	709.25	689.00	682.75	698.00	682.00	682.50	699.00	693.75	702.25	702.00	666.50	614.75	616.50	678.50	659.25	635.50	621.00	645.75	630.25	611.75	630.75	641.00	694.25	675.75	661.25	712.25	705.25	704.50	696.75	728.50	725.00	669.00	626.75	639.25	651.50	639.00	645.50	649.50	635.75	622.50	594.50	611.25	603.25	606.00	584.00	577.75	603.75	603.00	573.75	616.00	630.25	547.25	528.00	615.50	649.00	642.50	658.25	678.25	663.75	648.25	643.00	645.75	667.25	643.75	522.50	476.25	485.75	494.50	487.25	468.00	452.50	418.25	414.25	416.00	420.25	445.25	455.75	447.25	428.00	415.75	393.75	384.25	386.00	388.25	391.00	402.00	407.00	441.50	446.50	444.00	451.00	499.00	508.25	525.75	536.75	523.25	489.75	492.50	490.50	509.50	457.00	447.75	450.75	445.75	430.25	423.25	418.50	414.25	419.75	413.75	415.25	410.75	403.25	399.75	397.25	395.75	400.00	396.75	397.00	393.00	391.00	392.00	389.50	387.50	386.75	390.75	392.50	386.00	380.75	382.50	388.00	382.00	378.50	377.00	378.00	375.50	376.25	374.50	373.25	370.75	362.75	358.00	355.50	375.50	384.50	408.00	435.25	454.25	442.25	428.00	400.00	385.00	380.25	377.25	374.00	373.25	374.75	376.25	372.75	374.00	378.25	375.00	372.50	373.25	370.75	373.50	379.50	378.75	386.25	388.50	384.75	387.00	403.00	411.25	415.75	431.50	435.50	443.75	455.00	493.75	531.25	517.50	539.25	566.25	567.75	548.75	558.75	519.00	502.50	506.25	501.75	489.50	467.50	475.50	483.25	471.25	462.50
574.50	540.00	528.75	540.50	541.00	564.00	585.25	632.25	659.25	637.25	595.75	626.50	682.00	679.25	679.75	696.75	672.50	677.25	637.00	619.75	629.50	667.00	683.75	694.00	718.75	705.25	694.50	682.00	674.25	675.50	678.00	668.50	662.75	661.50	666.00	657.00	659.00	651.25	628.25	657.75	687.00	690.25	693.25	694.25	661.00	653.75	661.25	664.50	683.25	708.50	694.00	691.25	712.75	718.75	717.00	726.75	712.50	704.00	708.75	712.50	707.75	692.00	702.00	706.75	699.00	700.25	712.75	708.75	704.75	682.25	638.75	606.50	626.25	644.75	633.00	624.00	624.00	635.50	612.00	637.75	637.00	666.00	662.25	654.50	683.50	694.50	696.00	687.25	721.50	711.75	680.00	658.75	661.50	686.00	671.25	667.00	683.25	642.50	639.75	638.75	618.00	630.25	600.00	572.25	571.75	607.75	607.75	547.75	565.50	517.50	500.00	464.75	486.25	547.75	589.00	621.00	638.00	662.75	610.50	646.75	643.50	657.25	616.50	489.75	455.25	459.00	456.25	452.00	441.75	431.75	423.75	429.25	438.00	442.50	475.50	484.25	458.50	436.00	417.00	404.00	393.50	382.50	392.25	395.50	397.25	411.50	428.50	424.50	435.00	448.00	505.00	520.25	542.50	548.75	539.25	499.00	484.75	471.50	484.25	459.25	441.75	436.25	430.50	423.50	420.25	425.75	434.25	420.50	427.25	440.75	425.50	409.25	402.25	396.75	395.50	392.75	395.50	394.75	390.50	390.50	391.50	391.75	390.25	391.00	388.00	387.25	379.00	378.00	378.00	380.75	382.00	379.50	380.25	380.00	378.25	371.50	372.50	375.50	366.75	360.25	354.50	365.75	396.00	405.75	412.00	435.25	465.75	462.25	423.75	400.25	390.50	385.50	385.00	375.75	373.00	372.50	372.50	375.75	374.75	375.00	375.25	373.25	374.25	373.50	379.50	378.50	378.75	385.50	385.25	391.75	398.75	423.00	437.00	435.50	443.75	445.75	473.25	479.00	481.75	519.00	533.00	536.75	564.75	580.75	548.50	550.50	540.50	519.50	519.00	504.75	494.00	488.50	491.00	479.75	468.25	462.25
528.50	525.00	559.50	534.00	584.50	645.00	641.50	649.50	656.25	674.00	656.25	653.50	665.75	663.25	678.75	704.50	638.50	622.50	613.75	628.75	670.00	665.75	690.75	671.25	703.75	701.75	705.00	697.75	675.75	666.00	663.25	662.50	658.50	653.25	648.50	643.75	629.25	637.00	625.50	645.25	677.50	678.50	661.00	673.00	652.25	673.50	670.50	668.50	677.75	684.50	691.50	702.50	698.00	700.00	730.50	721.75	725.75	715.75	721.00	721.75	711.75	716.00	706.75	713.00	716.50	697.00	699.75	709.25	715.50	709.25	670.00	616.25	598.00	590.75	616.25	622.00	621.75	591.25	598.25	602.50	618.00	690.00	643.75	643.75	652.25	668.25	683.25	688.75	718.50	707.75	714.75	705.00	694.50	684.25	696.50	679.50	678.25	681.75	673.25	658.00	662.25	659.75	636.50	637.50	613.00	527.75	497.25	511.75	473.75	473.75	461.00	434.00	422.75	439.75	530.00	498.50	595.00	665.75	521.75	575.00	587.00	571.00	589.25	493.75	439.00	440.75	430.50	436.50	431.50	435.00	435.25	441.25	469.00	459.75	501.00	499.50	476.25	405.00	406.00	390.00	382.00	395.75	414.25	403.75	403.50	405.75	415.75	436.25	457.50	475.00	493.75	512.25	550.50	575.00	541.25	524.25	506.75	492.50	469.00	450.50	440.00	430.50	426.00	428.00	431.25	427.75	418.75	423.75	421.50	442.75	441.50	426.25	419.50	398.00	395.25	392.75	396.00	397.50	395.75	388.00	387.25	382.50	382.25	383.75	381.25	380.25	374.25	378.50	377.00	374.50	373.00	372.00	370.75	380.75	376.75	370.25	371.00	367.50	363.50	360.00	360.50	369.50	383.50	405.50	457.75	455.00	457.50	482.75	457.00	429.00	411.50	397.00	393.00	378.75	375.75	374.75	374.00	376.25	374.75	376.75	375.50	376.75	380.00	387.00	381.50	382.00	379.50	381.00	392.50	415.75	419.25	464.75	478.25	465.00	509.50	495.00	491.25	531.75	518.25	569.00	550.50	543.25	567.00	573.00	566.00	572.50	563.50	571.00	536.25	550.25	552.50	512.75	489.75	476.00	463.50	454.50
596.75	577.25	598.00	583.75	571.75	613.75	611.75	619.75	646.00	664.00	677.50	676.00	668.00	633.00	630.75	683.00	625.25	605.50	629.25	651.75	652.75	649.75	676.75	661.25	682.00	685.00	692.75	682.50	683.75	682.25	672.75	673.00	664.25	662.00	659.25	644.25	638.00	639.00	628.25	631.00	644.00	646.50	645.75	654.50	649.50	654.75	664.25	660.50	677.25	677.75	705.25	709.00	706.00	707.00	714.75	717.25	720.75	717.25	719.25	707.75	705.75	698.25	702.00	707.25	709.50	709.50	693.75	700.50	702.50	680.50	650.50	616.75	623.50	597.75	594.75	602.00	602.25	593.25	593.00	588.25	616.50	632.00	637.75	661.75	674.75	703.25	707.75	690.50	694.75	694.75	702.25	709.00	704.50	701.75	693.75	683.00	671.50	669.00	675.75	667.00	662.00	656.25	640.25	633.25	619.25	543.75	445.75	434.50	429.50	451.00	432.75	416.00	406.50	418.75	440.50	451.50	507.25	593.25	533.00	463.00	481.25	478.00	503.00	469.00	427.00	436.75	424.25	424.00	429.25	429.00	424.75	433.00	457.25	468.25	483.75	480.75	491.50	408.00	390.50	382.25	386.75	408.75	419.25	415.75	418.25	415.25	427.00	451.50	476.50	519.50	544.75	527.50	543.50	539.00	568.00	541.00	506.50	478.75	467.00	467.00	453.25	437.50	428.00	437.50	434.75	432.00	427.25	435.75	434.00	440.50	445.50	436.00	430.25	403.75	398.50	399.00	396.25	392.50	394.00	393.50	392.00	384.25	380.50	379.75	378.75	377.50	382.75	382.00	379.00	379.50	377.50	376.50	378.50	380.00	374.50	367.25	368.00	367.00	359.50	357.25	373.50	371.50	384.50	396.50	427.75	433.50	446.75	475.00	469.00	441.50	420.00	393.25	385.00	377.00	377.25	376.75	376.25	377.50	376.25	377.25	379.25	380.75	381.75	383.00	384.75	385.50	382.75	388.00	409.50	453.50	444.00	464.00	509.25	540.75	548.00	531.25	566.75	581.50	550.25	564.00	549.50	554.25	577.00	575.00	555.50	564.75	546.50	540.75	535.25	564.25	564.25	517.00	487.75	473.75	471.75	463.75
619.75	610.50	622.00	621.00	592.25	592.00	590.50	620.75	667.75	687.25	685.75	669.25	668.50	622.75	613.75	666.00	616.75	588.75	652.25	667.25	635.25	659.25	678.00	655.50	677.25	683.00	694.00	681.25	691.50	685.00	675.00	674.75	664.75	662.50	657.00	643.75	645.75	653.25	637.00	631.25	624.75	628.50	639.00	652.50	651.50	645.50	661.00	659.75	662.25	672.00	690.50	694.25	697.25	714.25	704.00	723.25	719.25	719.75	716.25	707.75	701.25	695.25	698.50	699.25	702.75	703.00	703.25	721.75	708.50	682.50	641.25	634.75	638.25	610.50	600.50	608.00	599.25	603.75	603.75	588.00	612.25	638.00	660.00	677.25	689.00	698.50	702.00	700.50	701.25	695.00	698.00	708.25	715.50	715.25	705.00	690.75	676.50	687.00	684.00	688.50	670.00	662.50	657.75	612.00	623.50	552.50	452.25	406.25	415.75	432.00	417.50	408.25	406.25	402.25	420.50	441.75	469.25	511.75	523.25	444.75	448.50	454.50	460.50	447.25	417.75	435.25	432.25	420.50	421.75	419.25	417.75	425.75	446.25	463.50	464.00	450.00	480.50	414.00	385.50	385.50	399.00	404.75	418.00	419.75	426.50	427.25	430.75	441.50	460.25	504.00	565.50	538.50	526.25	516.00	598.00	526.75	493.50	472.75	474.50	455.50	445.25	438.00	430.25	438.75	445.00	433.00	430.50	453.00	442.25	437.50	439.50	443.75	436.00	409.25	400.00	396.75	393.75	391.25	393.00	393.50	392.25	389.00	384.75	384.75	381.75	381.50	384.00	384.25	379.50	379.75	379.25	382.25	391.50	376.75	373.50	366.50	369.75	366.75	359.00	362.00	383.00	373.00	381.25	393.75	416.75	425.00	435.75	471.25	485.75	448.50	420.25	390.25	386.50	376.75	377.25	378.25	376.50	377.75	379.00	377.00	383.75	382.75	386.00	384.75	385.25	386.50	385.25	394.00	419.25	458.25	480.00	519.25	543.25	571.00	575.25	558.00	582.75	588.75	562.50	555.25	546.25	551.25	574.50	581.00	547.00	560.25	544.75	514.75	515.75	552.75	556.25	506.75	484.75	481.00	480.75	467.75
593.00	578.50	624.25	646.00	620.25	630.25	616.50	618.75	642.75	676.75	665.75	655.25	681.75	652.75	597.75	602.50	584.25	586.25	655.75	631.00	632.00	667.25	681.75	649.00	656.75	681.50	705.50	694.75	702.50	687.50	686.75	680.00	672.00	663.50	655.25	653.75	655.50	649.25	642.75	645.50	641.50	638.00	628.50	634.25	637.50	647.75	659.25	655.75	655.00	649.25	668.25	673.00	668.50	697.50	689.00	712.25	721.75	727.75	721.25	703.25	703.75	710.25	710.50	716.00	701.50	701.25	717.00	726.00	717.00	687.25	676.00	639.75	647.75	644.50	637.75	660.50	623.50	615.25	624.50	596.25	600.00	615.50	642.75	674.50	691.75	687.50	685.00	694.50	707.50	667.25	676.25	677.50	704.00	701.75	698.00	695.00	692.00	703.00	690.25	683.75	664.00	620.50	598.25	504.50	529.75	535.50	470.75	411.75	406.75	410.25	408.25	404.00	412.75	397.25	402.75	418.25	436.25	457.75	468.75	451.25	434.25	432.75	437.75	423.00	409.75	423.50	438.00	434.00	422.75	418.75	416.75	416.75	427.25	445.25	439.50	430.00	438.00	410.25	396.50	381.00	386.00	392.25	406.50	420.25	427.75	427.75	427.00	438.75	458.75	479.00	518.50	515.00	497.50	503.75	581.50	526.25	505.50	493.00	482.25	471.00	451.75	439.50	444.25	449.25	444.00	441.25	439.00	441.00	429.75	421.75	419.00	424.25	439.25	417.00	403.50	396.50	395.25	395.00	396.00	394.50	393.75	389.75	387.25	387.75	388.25	386.25	383.50	384.75	382.00	386.75	387.75	389.50	385.25	384.50	378.75	370.75	369.25	369.25	355.00	364.75	378.75	381.25	397.00	398.75	406.25	416.25	434.25	518.00	504.75	437.00	406.00	388.00	388.50	378.50	380.25	379.75	379.00	378.25	381.25	380.75	383.50	385.25	389.75	387.00	386.00	388.75	394.00	401.50	418.00	447.75	483.00	552.50	572.00	568.75	579.75	579.75	584.00	576.75	565.50	569.00	552.50	545.75	571.50	576.75	521.25	536.00	518.00	507.75	498.75	529.00	525.50	498.75	484.75	485.00	478.00	466.50
527.00	538.00	597.50	625.75	638.50	658.00	644.50	615.00	609.00	652.25	636.75	653.25	685.75	659.75	633.50	601.25	578.50	611.75	626.25	601.75	640.00	681.75	680.00	634.75	639.25	674.25	687.75	689.50	703.50	698.75	691.00	680.75	673.25	660.50	653.75	672.25	660.75	655.75	648.00	662.25	659.00	651.75	640.75	636.75	624.75	638.25	639.00	644.00	644.75	643.75	659.00	665.25	655.75	672.00	688.75	724.50	725.25	729.75	726.00	695.75	703.50	703.50	719.00	711.25	718.75	718.25	734.25	735.50	730.75	719.00	727.75	652.75	648.50	673.00	665.50	652.50	639.75	645.75	630.25	652.50	631.00	586.25	592.00	681.75	676.75	674.75	686.50	690.25	681.75	673.50	612.75	625.75	675.50	687.00	688.50	692.75	706.75	688.00	679.00	598.00	542.00	486.50	490.50	468.50	452.75	471.00	441.25	409.50	392.75	397.25	407.25	403.75	408.25	399.75	392.50	401.25	414.75	426.25	438.25	427.00	419.00	422.75	416.50	411.50	406.50	416.25	437.25	433.75	418.75	416.75	412.25	414.50	419.75	429.50	434.25	420.00	410.75	398.00	393.25	383.50	392.00	388.75	399.75	407.50	413.25	417.00	424.00	430.75	446.00	469.25	495.75	480.50	485.00	509.25	538.50	535.75	526.00	502.25	490.75	481.25	457.75	448.00	457.00	456.00	437.50	444.25	426.25	426.25	425.75	434.00	425.00	414.00	412.75	405.25	404.75	396.75	397.75	396.25	395.50	393.00	391.75	390.25	391.00	394.50	391.25	390.75	393.75	399.00	394.25	388.75	404.00	407.00	389.75	380.75	373.75	370.00	367.75	360.50	353.25	362.50	370.75	386.25	390.00	393.00	392.75	409.50	439.00	503.50	449.25	407.50	390.50	386.00	381.75	379.25	382.75	383.50	382.25	382.50	384.75	387.25	387.00	386.75	387.00	386.00	388.75	395.75	398.00	398.00	402.75	409.50	421.75	496.25	531.00	553.00	576.75	565.25	559.75	572.25	559.50	555.25	566.50	554.50	565.00	569.50	506.00	508.50	498.25	492.25	500.75	527.25	510.00	491.50	481.25	472.50	463.25	463.00
570.25	574.00	568.25	609.75	636.75	664.00	658.50	649.50	628.25	630.50	628.75	643.50	670.75	684.75	651.25	617.50	571.25	581.00	623.25	597.50	638.50	667.50	661.25	625.00	635.25	649.25	667.75	650.00	668.75	701.25	695.75	683.75	675.50	661.75	671.75	672.75	668.25	665.50	665.75	667.25	652.00	636.75	653.25	656.25	641.00	621.50	624.00	624.75	620.75	626.00	636.50	642.75	647.50	661.00	707.75	727.50	715.75	720.25	717.00	702.25	706.50	716.25	711.75	718.75	714.50	723.00	723.00	730.00	731.00	729.50	725.00	686.75	655.75	705.75	684.75	673.75	657.25	685.75	660.50	682.75	653.25	603.25	590.75	683.75	650.25	662.00	670.50	679.25	690.75	677.25	584.75	569.25	677.25	665.50	655.50	619.00	630.25	591.75	559.25	528.50	505.00	495.00	466.25	445.00	439.25	454.50	430.75	400.25	384.75	393.50	409.00	400.25	414.75	396.75	383.25	387.00	400.00	409.25	417.00	408.00	407.50	410.50	413.50	411.50	403.25	407.00	430.50	427.50	421.25	423.00	405.25	411.50	414.75	421.50	425.50	407.25	401.00	405.00	401.25	380.00	385.00	390.50	404.50	404.50	407.75	420.50	435.50	437.75	444.25	459.00	467.75	471.25	492.00	504.75	530.00	528.75	515.75	486.00	483.75	491.50	466.50	453.25	450.00	448.25	439.00	433.50	430.00	430.00	443.00	454.25	427.50	423.25	420.75	412.75	417.00	402.50	402.25	400.25	401.50	401.50	399.00	395.00	394.25	393.25	392.25	397.25	407.50	428.75	407.25	395.50	413.25	415.25	388.25	378.50	374.25	368.00	361.50	357.25	356.75	360.75	369.50	380.75	378.25	384.00	395.50	408.00	437.50	458.00	427.25	406.00	397.75	388.75	386.00	387.50	392.25	391.00	390.00	394.75	392.75	387.25	388.75	390.25	390.75	389.50	393.00	397.25	401.75	409.50	419.75	465.75	491.00	506.75	525.00	556.25	562.75	571.50	582.50	579.25	584.00	587.25	561.75	561.00	553.00	526.75	510.75	487.25	480.50	491.25	506.25	517.50	510.00	483.75	478.00	471.00	461.25	458.50
584.50	611.25	584.50	562.75	607.50	627.75	643.00	680.75	641.50	675.75	674.25	650.75	660.25	679.25	668.50	628.25	591.25	561.25	575.00	601.00	627.00	636.50	645.75	627.50	616.00	622.25	630.00	656.25	670.75	698.50	682.75	674.00	671.50	673.50	674.25	675.75	667.50	667.75	670.50	660.50	653.00	654.50	658.25	667.25	668.50	638.00	641.00	647.25	632.50	635.75	614.75	626.75	653.75	656.75	713.75	710.25	709.25	700.50	688.25	687.50	682.25	696.50	709.00	698.50	699.50	711.50	718.75	730.75	742.50	728.75	722.75	689.25	664.50	685.50	713.00	707.25	675.25	707.25	723.25	713.75	657.75	584.75	591.00	623.75	609.50	657.50	637.00	679.50	686.00	673.50	554.75	553.00	687.25	675.75	662.25	597.25	531.25	518.50	504.00	481.75	490.75	499.25	466.00	429.25	411.50	407.50	400.50	387.75	379.25	378.50	394.25	379.75	380.25	379.00	383.75	389.25	394.75	414.75	394.50	401.50	406.50	408.00	412.00	421.25	414.50	396.75	401.50	415.25	418.00	407.25	405.00	410.50	407.25	407.50	423.50	402.50	392.25	390.75	390.25	378.50	386.25	389.50	396.25	405.00	412.75	427.75	455.25	467.00	459.00	484.25	512.25	490.75	493.75	534.00	549.25	529.00	499.75	484.50	500.50	472.25	460.50	457.75	461.25	456.75	439.75	441.50	440.00	442.50	462.50	478.50	454.25	440.75	436.75	425.00	427.00	409.00	406.75	406.00	404.75	404.75	402.00	402.25	396.75	397.75	403.00	430.25	421.00	428.25	423.25	404.50	417.50	398.00	390.25	374.00	371.25	370.00	360.25	354.75	358.25	365.75	369.75	369.25	384.75	394.25	409.75	428.75	480.50	469.75	436.50	419.50	413.75	408.75	407.25	412.00	420.25	418.75	418.50	416.75	413.50	401.75	392.00	394.25	400.25	406.25	413.75	422.00	433.50	459.75	531.25	568.50	578.50	591.50	560.50	551.00	556.00	568.00	578.50	595.75	547.50	509.00	503.50	531.00	516.50	493.00	478.75	468.50	477.50	487.50	507.75	504.50	492.50	480.00	471.25	465.50	458.75	450.25
618.00	642.00	628.50	588.00	584.75	603.50	641.50	640.00	650.00	691.75	700.00	673.75	662.25	657.75	610.25	617.00	571.25	551.50	567.25	576.25	605.25	637.50	625.00	616.00	610.75	643.25	651.50	665.00	688.00	692.75	682.75	684.75	682.00	674.25	682.75	688.50	681.50	691.50	694.50	689.25	669.75	664.75	669.75	665.75	654.00	649.50	646.50	651.25	647.25	643.75	636.00	632.25	624.75	638.75	678.50	680.50	700.50	691.75	683.00	700.50	707.25	687.25	700.00	703.25	721.25	725.00	730.25	732.50	728.75	721.00	729.00	718.00	699.00	701.50	704.50	699.00	692.25	709.25	710.25	705.75	679.00	610.25	619.50	588.75	584.50	620.50	617.00	676.25	684.75	615.75	515.25	558.25	661.00	606.25	559.75	521.50	504.75	528.75	529.00	510.25	486.50	472.00	450.25	417.75	404.75	404.25	396.50	392.00	392.75	389.50	376.25	378.50	376.50	377.50	378.75	382.75	382.75	390.00	396.75	410.50	413.75	410.00	401.00	414.75	423.25	398.50	402.50	403.75	407.75	399.00	406.25	405.75	411.00	401.50	411.75	405.75	391.00	383.00	379.25	380.00	384.50	388.25	394.50	410.75	417.00	424.00	449.25	447.00	468.25	479.00	508.25	529.50	541.50	540.00	566.50	516.75	499.50	495.00	497.75	478.75	468.25	464.25	473.75	460.75	457.25	453.25	446.50	447.00	469.00	486.75	458.75	438.75	432.50	436.00	438.25	413.25	409.75	408.75	408.00	408.00	404.50	397.50	396.75	399.50	422.50	455.50	461.50	457.25	441.00	425.00	417.75	414.25	409.25	375.75	372.50	362.50	353.50	359.25	364.75	372.25	378.50	376.50	397.50	408.75	425.00	458.00	493.00	463.75	442.75	435.00	431.50	428.75	428.50	441.00	454.75	460.25	465.00	433.75	422.00	412.50	403.50	404.50	412.25	421.00	433.75	465.50	521.00	562.25	577.00	571.75	586.00	595.75	585.75	573.75	559.75	552.75	565.00	569.75	515.00	495.50	493.00	484.25	500.00	504.00	471.00	464.25	471.25	494.25	513.50	506.50	505.00	482.25	475.75	471.75	465.00	462.00
628.75	648.00	648.25	610.25	595.00	589.50	607.25	629.75	657.75	688.75	703.25	668.50	665.25	659.25	585.50	568.00	552.50	557.75	598.50	593.50	587.75	602.00	597.25	603.50	625.75	645.50	675.00	669.00	683.00	690.50	692.50	693.75	684.50	680.00	689.00	683.25	706.00	707.25	705.50	695.75	678.25	687.75	677.75	666.25	654.75	654.75	658.50	649.00	655.25	650.00	651.75	664.25	625.25	609.25	655.50	632.75	595.50	673.00	680.25	710.75	701.75	691.50	695.50	698.00	706.25	727.50	727.00	732.50	718.25	718.00	723.75	728.00	719.50	710.25	705.75	699.25	702.25	699.50	704.75	690.25	690.50	713.00	706.25	613.00	575.00	589.00	600.25	612.50	681.75	676.75	489.50	508.75	637.50	530.75	497.00	491.00	483.00	490.50	513.25	490.00	481.75	446.75	433.25	415.25	406.25	406.50	395.75	402.25	417.25	412.00	389.25	393.25	377.00	377.75	383.50	386.75	380.00	380.25	398.50	422.25	432.50	418.50	407.50	409.25	410.25	399.00	405.00	401.00	406.50	403.00	411.75	406.00	413.50	401.25	389.00	390.75	384.00	380.50	382.75	390.00	384.50	394.75	396.25	406.25	414.25	421.00	439.50	456.25	464.50	472.75	501.00	561.00	573.25	565.50	547.00	521.25	511.75	521.00	488.75	488.50	484.00	465.25	474.00	467.00	466.75	460.50	461.75	456.25	493.00	483.50	453.50	436.75	435.50	442.00	429.50	419.00	415.50	414.50	412.00	411.00	406.00	399.25	399.00	398.50	435.00	486.25	521.00	482.25	440.50	421.50	425.50	417.00	396.25	371.25	372.50	356.00	357.25	370.25	373.50	376.25	385.00	396.00	421.50	432.50	441.75	468.25	496.50	482.75	466.75	455.25	456.50	459.25	475.25	490.75	488.75	488.25	466.25	443.00	427.25	429.00	421.00	420.25	424.50	442.25	467.50	534.00	597.75	599.75	589.50	571.25	576.50	583.25	583.50	590.00	572.25	558.50	549.75	584.00	532.75	506.00	505.75	478.75	477.25	491.50	471.75	459.00	468.75	488.25	499.50	497.00	514.25	487.00	482.50	482.00	471.25	463.75
608.00	612.00	640.50	621.00	619.25	600.00	626.50	616.75	638.50	649.75	669.25	651.00	636.50	639.50	624.00	591.00	553.75	562.75	627.50	630.00	616.50	597.00	608.50	630.00	624.00	630.75	649.50	668.75	665.75	679.25	691.00	698.00	690.50	681.50	698.00	692.50	711.00	701.00	702.75	697.00	684.00	688.75	682.50	666.50	662.75	668.00	661.75	658.00	655.75	648.25	650.00	663.00	653.00	637.25	613.50	602.50	525.75	580.25	617.25	644.50	696.75	705.25	692.25	697.25	712.25	728.25	725.25	731.75	712.00	717.00	721.00	718.50	718.00	710.00	711.00	703.00	712.50	710.50	717.00	718.25	724.25	723.00	710.75	656.25	607.75	583.75	565.75	585.50	667.25	689.00	506.75	470.00	551.25	499.25	478.75	465.50	492.00	469.00	480.25	463.00	454.50	450.50	439.50	429.25	423.75	418.75	410.50	421.00	434.75	425.25	389.00	399.00	382.50	376.50	377.75	382.25	381.50	381.25	388.50	408.00	413.50	406.25	415.75	403.00	396.75	406.00	406.75	410.50	403.00	402.00	412.25	407.50	404.75	398.75	395.50	387.00	384.50	377.75	385.50	398.50	388.75	394.75	404.25	411.00	429.00	435.25	445.00	449.00	466.75	501.50	525.00	594.25	610.75	558.75	538.00	536.50	532.25	522.00	505.75	501.75	500.00	475.25	481.50	484.75	478.00	472.75	475.50	472.00	482.25	518.50	480.00	444.25	445.00	451.50	440.75	423.75	418.75	419.50	419.00	413.25	406.75	401.50	399.25	406.00	474.00	538.50	501.25	465.50	447.00	453.50	437.50	403.50	395.75	370.75	358.50	364.50	376.00	379.00	384.50	382.50	385.00	405.50	440.25	472.50	467.75	470.25	517.50	513.25	508.00	506.75	513.25	528.75	538.00	546.00	527.25	511.25	512.00	488.75	481.25	483.00	451.75	440.00	444.75	462.50	504.50	555.00	584.25	592.25	583.00	569.50	577.00	582.25	580.00	585.00	564.75	564.50	557.00	567.00	558.50	551.25	520.00	480.00	468.00	476.50	460.50	450.25	457.25	473.25	471.00	484.50	504.50	486.25	478.75	471.75	461.00	449.25
609.50	636.50	662.00	658.25	643.25	617.00	630.00	652.00	652.00	658.25	666.00	636.50	618.50	600.50	616.75	585.75	560.00	597.00	630.75	646.50	635.50	635.75	609.75	639.00	655.50	648.50	653.00	655.25	645.50	661.50	675.75	686.25	703.50	697.50	708.00	698.00	713.25	703.50	695.00	694.00	709.25	695.75	685.50	680.25	675.00	675.25	658.25	665.75	663.50	647.75	640.75	629.75	624.25	617.50	611.75	588.50	511.50	506.00	559.50	549.25	647.00	680.75	712.50	711.50	712.00	731.00	716.50	719.25	711.75	728.25	725.50	720.75	717.25	709.50	708.25	704.25	720.00	722.75	717.25	716.00	731.75	717.00	707.00	715.25	662.00	617.75	534.75	543.75	654.00	675.75	519.25	453.25	459.00	460.50	456.25	458.50	472.25	478.50	459.50	443.25	433.00	440.75	443.00	448.25	437.25	425.75	418.25	415.75	415.50	418.50	398.75	401.75	388.50	382.25	376.25	378.00	379.75	379.25	388.00	386.50	397.00	412.50	404.00	393.75	393.25	401.75	404.50	408.25	412.25	406.25	408.25	405.00	413.50	407.50	421.50	403.75	385.75	383.75	379.75	395.75	393.75	394.75	411.25	415.50	425.25	437.00	476.75	470.25	508.00	541.50	597.00	634.75	565.50	542.25	545.50	560.25	593.50	535.75	540.25	522.50	507.25	489.25	498.50	507.75	495.00	485.75	496.25	489.50	495.50	531.50	503.25	459.00	456.00	477.75	453.50	434.75	429.00	424.50	424.50	430.00	412.00	406.75	408.25	415.75	498.25	534.75	509.00	542.00	536.00	490.75	438.50	412.00	411.00	365.50	358.00	370.50	389.25	379.00	375.25	378.25	381.75	404.00	432.00	425.50	414.75	419.25	472.00	511.50	531.00	536.25	558.75	575.00	561.25	561.25	564.25	567.75	543.75	552.50	571.00	549.25	523.00	497.50	493.00	538.00	575.25	602.00	594.25	582.50	578.00	570.00	569.50	573.25	571.25	572.50	558.75	571.25	559.75	566.75	566.50	582.50	552.50	499.00	465.50	456.75	452.00	445.50	456.00	456.25	449.75	468.50	496.00	479.25	467.50	458.25	453.00	439.00
593.00	616.25	623.75	642.75	641.25	652.50	647.25	659.50	681.50	673.25	666.00	678.25	663.25	613.75	574.75	551.25	571.50	597.25	604.00	608.25	631.50	648.25	639.25	621.25	628.00	633.25	646.25	643.75	653.25	655.25	669.00	673.50	697.00	710.75	710.25	705.25	705.50	703.25	704.00	701.25	696.75	685.00	679.50	676.50	680.00	672.75	668.25	662.75	657.50	653.25	667.75	653.50	650.50	638.75	611.75	577.50	529.25	487.00	503.00	517.75	569.00	626.50	692.75	709.00	715.50	732.50	721.00	711.00	712.50	728.75	718.00	724.25	717.50	705.00	702.25	707.00	698.00	676.25	697.25	711.25	720.00	707.25	697.25	689.50	681.00	670.25	619.25	548.50	579.25	636.75	524.00	451.75	431.50	430.75	430.25	431.00	444.25	448.75	439.75	430.25	429.25	436.25	437.00	451.50	437.75	427.75	410.00	404.75	406.00	410.50	431.50	426.25	398.75	386.00	377.50	375.25	374.00	374.25	378.00	385.00	402.25	407.50	399.75	393.25	395.50	396.00	403.50	412.75	421.00	419.25	412.50	409.75	413.75	412.50	429.00	404.25	383.75	380.50	381.00	391.50	394.50	403.50	418.75	434.00	436.75	450.50	472.75	528.75	564.75	588.50	602.50	576.00	564.75	573.75	568.50	594.00	586.25	544.25	544.75	531.00	569.25	548.00	538.25	528.75	517.50	510.25	523.50	528.75	530.75	524.75	495.25	467.50	473.00	473.00	455.25	453.50	437.50	430.00	440.25	449.00	426.25	427.75	429.25	429.25	481.75	513.50	554.50	573.50	575.00	523.00	488.25	427.50	385.75	352.50	358.75	368.00	375.00	386.75	383.25	376.00	394.75	389.00	397.25	385.75	408.25	427.25	477.75	528.00	527.75	539.50	546.75	556.25	552.50	562.25	574.25	585.25	580.00	574.75	591.25	583.50	566.75	551.00	570.50	580.25	590.00	595.25	599.75	590.75	579.75	568.00	566.50	566.25	586.25	585.25	581.50	586.25	586.50	574.00	566.50	575.00	538.50	504.25	475.00	463.50	458.75	445.50	446.00	442.25	438.50	466.25	481.25	477.25	464.50	448.75	441.50	430.25
556.00	570.50	586.25	603.00	618.75	664.25	667.75	666.75	686.00	640.25	646.75	666.25	647.75	651.75	584.50	546.25	566.50	591.50	634.25	640.00	663.25	662.50	675.00	637.00	626.25	643.50	659.50	680.75	688.75	682.00	670.50	695.25	707.00	712.25	713.00	717.75	694.00	700.75	703.75	693.50	698.00	692.00	683.00	681.00	671.00	680.00	681.50	671.25	673.50	669.00	651.75	656.25	667.50	657.75	620.25	621.25	552.25	481.50	481.25	501.75	540.50	660.50	712.25	707.75	718.50	724.50	730.25	712.00	719.25	722.50	714.00	710.00	716.75	704.50	706.50	718.50	668.00	590.00	651.25	719.50	712.75	693.75	698.25	698.75	668.50	678.75	656.75	620.75	526.75	507.75	491.00	430.50	419.25	416.00	415.00	414.25	424.50	431.50	428.50	417.75	420.50	424.25	427.25	429.00	433.50	433.50	420.75	422.00	431.75	434.25	451.50	445.75	408.50	389.00	377.25	380.25	381.00	376.50	372.00	385.25	396.75	395.00	398.75	409.00	403.50	394.50	396.50	404.25	426.50	442.50	421.25	418.00	413.00	410.00	408.00	395.25	384.25	375.50	379.75	387.25	398.75	407.50	423.00	454.50	475.75	540.75	519.75	559.75	586.75	557.50	536.25	553.50	591.50	620.50	630.50	541.75	559.50	540.00	518.00	519.75	613.00	602.25	559.00	553.25	537.25	525.50	552.25	544.50	539.50	526.75	511.00	478.75	486.25	473.75	462.00	460.25	441.50	435.00	434.75	450.75	441.50	467.00	463.00	446.50	486.25	520.25	543.75	544.75	569.75	573.50	496.00	421.50	386.25	350.00	359.00	374.00	372.50	406.50	436.00	451.00	418.25	403.75	450.25	386.50	456.25	484.50	495.75	532.75	564.75	549.50	558.25	555.25	562.75	562.00	562.50	574.50	590.25	573.00	573.25	577.75	567.00	565.25	577.75	572.75	581.25	571.75	586.00	576.75	574.50	575.00	571.50	559.75	563.25	571.75	575.25	584.25	586.50	568.00	562.25	560.00	506.00	490.00	470.75	468.25	456.25	451.75	447.25	435.75	431.00	448.00	444.50	457.50	446.75	432.00	430.50	425.50
616.25	610.25	618.75	652.75	653.00	674.00	655.25	661.50	676.50	639.00	631.00	623.50	611.00	615.75	576.00	544.75	588.50	593.75	619.50	642.75	654.50	675.25	686.75	663.75	669.25	641.50	668.25	697.00	695.75	688.25	688.75	698.00	702.50	709.50	703.25	714.00	690.25	688.25	702.25	694.00	695.50	689.75	687.50	688.50	673.00	677.75	683.50	679.75	684.75	674.25	670.00	651.25	633.50	640.25	641.00	640.25	566.25	485.75	480.50	503.00	574.75	682.75	726.75	726.25	726.75	715.50	712.75	707.50	713.25	720.75	720.25	708.25	703.50	696.75	706.50	711.75	652.75	559.25	618.75	701.00	705.75	618.50	654.75	697.00	643.50	661.75	575.25	499.75	470.00	445.75	416.50	417.50	417.25	416.50	408.50	417.00	434.50	458.75	454.00	433.00	418.00	416.00	416.25	414.25	415.50	426.50	435.25	440.50	455.00	443.25	433.75	430.50	400.50	389.75	380.75	383.25	381.75	374.00	370.00	380.75	387.50	389.00	405.00	413.75	393.50	395.00	396.50	395.75	414.50	480.25	451.50	447.25	446.00	434.50	401.50	390.00	387.00	374.25	375.00	388.25	400.00	409.25	432.00	445.25	479.75	533.00	586.50	551.75	515.75	511.25	523.50	566.00	611.00	619.25	614.75	509.50	534.50	523.25	478.00	520.50	632.50	602.25	569.25	570.50	565.00	558.50	557.50	554.25	543.00	529.75	515.50	499.00	505.25	472.50	462.75	462.25	476.75	460.25	452.50	463.25	450.75	470.25	483.75	466.00	499.00	541.75	526.25	517.50	537.25	530.25	432.75	373.00	358.00	358.75	376.75	412.75	422.00	465.50	531.25	539.50	512.25	484.50	468.50	405.75	430.75	511.50	461.50	488.50	500.50	508.25	543.00	570.75	566.00	573.00	575.75	579.50	588.50	563.75	540.25	559.25	580.25	557.00	569.50	562.00	570.50	571.00	577.25	566.00	556.25	558.75	566.00	579.75	572.50	576.75	574.25	585.50	579.25	566.25	533.75	512.75	504.25	505.50	473.75	452.00	449.00	448.00	451.50	440.75	433.25	428.50	433.75	438.00	436.25	421.00	417.50	416.00
636.00	641.25	651.00	660.25	655.00	677.75	652.75	644.50	653.75	670.25	666.00	642.75	631.75	577.50	550.50	542.50	557.25	569.50	588.75	636.50	659.00	681.25	670.25	673.00	656.75	649.50	652.25	656.25	655.00	674.75	700.00	703.75	698.75	701.75	697.00	705.75	699.00	688.50	694.75	682.50	683.25	690.25	670.25	696.50	674.75	673.25	670.25	683.00	676.25	679.00	654.25	647.25	638.25	634.25	630.00	626.00	605.50	504.00	480.00	498.75	552.00	659.50	712.00	723.50	720.75	720.50	711.25	706.75	715.75	714.25	726.25	709.00	708.25	697.75	699.75	705.25	622.75	542.25	581.00	656.25	693.50	559.00	581.50	681.25	598.00	579.00	521.00	425.25	420.50	420.50	406.50	402.50	410.25	412.50	410.00	429.75	450.50	467.75	477.50	460.25	436.50	422.00	417.25	408.50	402.50	405.75	422.50	444.75	467.75	449.00	416.25	419.75	410.25	389.75	383.75	386.75	383.50	374.00	369.25	372.75	370.50	387.00	406.00	409.50	392.25	395.25	403.25	402.00	411.50	429.25	460.50	450.50	456.25	447.25	413.00	402.50	393.50	378.00	375.50	386.25	399.75	409.25	427.75	471.00	543.25	554.75	603.75	546.25	499.25	501.50	541.25	571.50	588.00	598.25	622.75	523.75	498.25	473.50	472.75	552.50	613.00	616.75	592.75	601.75	593.75	586.25	565.00	549.00	532.75	519.50	516.25	492.75	484.25	464.50	459.00	471.00	499.75	473.50	468.00	471.00	463.25	487.50	472.50	458.75	470.75	484.75	528.75	550.25	550.50	494.50	371.75	353.00	361.75	411.00	411.25	515.00	509.25	509.75	523.75	540.50	544.75	524.50	465.00	424.00	415.00	455.50	458.25	463.50	489.75	502.50	528.25	553.50	550.25	569.75	547.00	547.00	560.75	553.25	525.75	536.50	572.25	566.25	552.25	541.50	555.00	577.50	557.25	543.25	552.00	554.00	585.75	575.00	559.50	577.00	586.50	599.75	594.75	553.75	504.50	485.25	503.75	511.50	484.50	447.00	438.50	441.00	453.50	442.00	440.00	422.75	423.50	422.50	419.00	416.50	415.25	414.50
