605.00	601.00	597.00	593.00	591.00	588.00	586.00	584.00	581.00	579.50	578.00	576.00	575.50	574.50	571.00	568.50	562.00	557.00	549.50	542.00	536.00	532.00	528.50	524.00	520.00	516.00	513.00	508.00	505.50	501.50	498.00	495.50	492.00	491.00	489.50	487.00	485.00	483.00	481.50	478.50	477.00	474.00	472.00	468.00	464.00	456.50	453.00	449.00	444.00	438.50	434.00	431.00	427.00	424.50	420.00	415.50	413.00	409.00	405.50	403.00	400.50	396.00	394.00	391.00	389.00	386.00	384.00	381.00	379.50	378.00	376.00	374.50	372.00	371.00	369.50	368.50	367.50	366.50	365.50	364.00	363.00	361.50	361.00	360.50	360.00	360.00	360.00	360.00	360.00	361.00	361.00	361.00	361.50	362.00	362.50	363.00	363.00	364.00	364.00	364.00	364.00	364.00	363.00	362.50	362.00	361.00	359.50	358.50	356.00	354.50	353.50	351.00	348.00	345.00	342.00	340.00	337.50	334.00	330.50	327.00	324.00	320.50	318.00	314.50	311.00	309.00	306.00	304.00	301.00	298.00	295.00	293.00	291.00	289.00	287.50	286.00	285.00	284.00	283.50	283.00	283.00	283.00	283.00	284.00	284.50	285.00	286.00	286.00	286.50	287.00	287.00	287.00	288.00	289.50	290.00	291.50	292.50	293.50	294.00	295.50	296.00	297.00	297.00	297.50	298.00	298.50	299.00	299.00	299.00	299.00	299.00	298.00	297.50	297.00	296.00	295.50	295.00	294.00	294.00	293.50	292.00	291.00	290.00	289.00	287.50	286.50	285.50	284.50	284.00	283.00	282.00	280.50	279.00	277.50	276.50	275.00	273.00	271.50	269.00	267.00	265.00	263.50	260.00	258.00	256.00	254.00	254.00	254.00	253.00	253.00	252.50	251.00	251.00	249.50	248.00	247.00	246.50	245.50	244.50	243.50	243.00	242.00	241.00	240.00	241.50	243.00	244.50	247.00	249.00	251.00	253.00	254.50	256.00	258.50	261.00	262.50	265.00	267.00	269.00	271.00	273.50	274.50	276.00	278.00	279.50	281.00	282.00	283.50	284.50	286.00	287.50	288.00	289.00	289.00	289.50	290.00
605.00	601.00	597.00	593.00	591.00	588.00	586.00	584.00	581.00	579.50	578.00	576.00	575.50	574.50	571.00	568.50	562.00	557.00	549.50	542.00	536.00	532.00	528.50	524.00	520.00	516.00	513.00	508.00	505.50	501.50	498.00	495.50	492.00	491.00	489.50	487.00	485.00	483.00	481.50	478.50	477.00	474.00	472.00	468.00	464.00	456.50	453.00	449.00	444.00	438.50	434.00	431.00	427.00	424.50	420.00	415.50	413.00	409.00	405.50	403.00	400.50	396.00	394.00	391.00	389.00	386.00	384.00	381.00	379.50	378.00	376.00	374.50	372.00	371.00	369.50	368.50	367.50	366.50	365.50	364.00	363.00	361.50	361.00	360.50	360.00	360.00	360.00	360.00	360.00	361.00	361.00	361.00	361.50	362.00	362.50	363.00	363.00	364.00	364.00	364.00	364.00	364.00	363.00	362.50	362.00	361.00	359.50	358.50	356.00	354.50	353.50	351.00	348.00	345.00	342.00	340.00	337.50	334.00	330.50	327.00	324.00	320.50	318.00	314.50	311.00	309.00	306.00	304.00	301.00	298.00	295.00	293.00	291.00	289.00	287.50	286.00	285.00	284.00	283.50	283.00	283.00	283.00	283.00	284.00	284.50	285.00	286.00	286.00	286.50	287.00	287.00	287.00	288.00	289.50	290.00	291.50	292.50	293.50	294.00	295.50	296.00	297.00	297.00	297.50	298.00	298.50	299.00	299.00	299.00	299.00	299.00	298.00	297.50	297.00	296.00	295.50	295.00	294.00	294.00	293.50	292.00	291.00	290.00	289.00	287.50	286.50	285.50	284.50	284.00	283.00	282.00	280.50	279.00	277.50	276.50	275.00	273.00	271.50	269.00	267.00	265.00	263.50	260.00	258.00	256.00	254.00	254.00	254.00	253.00	253.00	252.50	251.00	251.00	249.50	248.00	247.00	246.50	245.50	244.50	243.50	243.00	242.00	241.00	240.00	241.50	243.00	244.50	247.00	249.00	251.00	253.00	254.50	256.00	258.50	261.00	262.50	265.00	267.00	269.00	271.00	273.50	274.50	276.00	278.00	279.50	281.00	282.00	283.50	284.50	286.00	287.50	288.00	289.00	289.00	289.50	290.00
605.00	601.00	597.00	593.00	591.00	588.00	586.00	584.00	581.00	579.50	578.00	576.00	575.50	574.50	571.00	568.50	562.00	557.00	549.50	542.00	536.00	532.00	528.50	524.00	520.00	516.00	513.00	508.00	505.50	501.50	498.00	495.50	492.00	491.00	489.50	487.00	485.00	483.00	481.50	478.50	477.00	474.00	472.00	468.00	464.00	456.50	453.00	449.00	444.00	438.50	434.00	431.00	427.00	424.50	420.00	415.50	413.00	409.00	405.50	403.00	400.50	396.00	394.00	391.00	389.00	386.00	384.00	381.00	379.50	378.00	376.00	374.50	372.00	371.00	369.50	368.50	367.50	366.50	365.50	364.00	363.00	361.50	361.00	360.50	360.00	360.00	360.00	360.00	360.00	361.00	361.00	361.00	361.50	362.00	362.50	363.00	363.00	364.00	364.00	364.00	364.00	364.00	363.00	362.50	362.00	361.00	359.50	358.50	356.00	354.50	353.50	351.00	348.00	345.00	342.00	340.00	337.50	334.00	330.50	327.00	324.00	320.50	318.00	314.50	311.00	309.00	306.00	304.00	301.00	298.00	295.00	293.00	291.00	289.00	287.50	286.00	285.00	284.00	283.50	283.00	283.00	283.00	283.00	284.00	284.50	285.00	286.00	286.00	286.50	287.00	287.00	287.00	288.00	289.50	290.00	291.50	292.50	293.50	294.00	295.50	296.00	297.00	297.00	297.50	298.00	298.50	299.00	299.00	299.00	299.00	299.00	298.00	297.50	297.00	296.00	295.50	295.00	294.00	294.00	293.50	292.00	291.00	290.00	289.00	287.50	286.50	285.50	284.50	284.00	283.00	282.00	280.50	279.00	277.50	276.50	275.00	273.00	271.50	269.00	267.00	265.00	263.50	260.00	258.00	256.00	254.00	254.00	254.00	253.00	253.00	252.50	251.00	251.00	249.50	248.00	247.00	246.50	245.50	244.50	243.50	243.00	242.00	241.00	240.00	241.50	243.00	244.50	247.00	249.00	251.00	253.00	254.50	256.00	258.50	261.00	262.50	265.00	267.00	269.00	271.00	273.50	274.50	276.00	278.00	279.50	281.00	282.00	283.50	284.50	286.00	287.50	288.00	289.00	289.00	289.50	290.00
605.00	601.00	597.00	593.00	591.00	588.00	586.00	584.00	581.00	579.50	578.00	576.00	575.50	574.50	571.00	568.50	562.00	557.00	549.50	542.00	536.00	532.00	528.50	524.00	520.00	516.00	513.00	508.00	505.50	501.50	498.00	495.50	492.00	491.00	489.50	487.00	485.00	483.00	481.50	478.50	477.00	474.00	472.00	468.00	464.00	456.50	453.00	449.00	444.00	438.50	434.00	431.00	427.00	424.50	420.00	415.50	413.00	409.00	405.50	403.00	400.50	396.00	394.00	391.00	389.00	386.00	384.00	381.00	379.50	378.00	376.00	374.50	372.00	371.00	369.50	368.50	367.50	366.50	365.50	364.00	363.00	361.50	361.00	360.50	360.00	360.00	360.00	360.00	360.00	361.00	361.00	361.00	361.50	362.00	362.50	363.00	363.00	364.00	364.00	364.00	364.00	364.00	363.00	362.50	362.00	361.00	359.50	358.50	356.00	354.50	353.50	351.00	348.00	345.00	342.00	340.00	337.50	334.00	330.50	327.00	324.00	320.50	318.00	314.50	311.00	309.00	306.00	304.00	301.00	298.00	295.00	293.00	291.00	289.00	287.50	286.00	285.00	284.00	283.50	283.00	283.00	283.00	283.00	284.00	284.50	285.00	286.00	286.00	286.50	287.00	287.00	287.00	288.00	289.50	290.00	291.50	292.50	293.50	294.00	295.50	296.00	297.00	297.00	297.50	298.00	298.50	299.00	299.00	299.00	299.00	299.00	298.00	297.50	297.00	296.00	295.50	295.00	294.00	294.00	293.50	292.00	291.00	290.00	289.00	287.50	286.50	285.50	284.50	284.00	283.00	282.00	280.50	279.00	277.50	276.50	275.00	273.00	271.50	269.00	267.00	265.00	263.50	260.00	258.00	256.00	254.00	254.00	254.00	253.00	253.00	252.50	251.00	251.00	249.50	248.00	247.00	246.50	245.50	244.50	243.50	243.00	242.00	241.00	240.00	241.50	243.00	244.50	247.00	249.00	251.00	253.00	254.50	256.00	258.50	261.00	262.50	265.00	267.00	269.00	271.00	273.50	274.50	276.00	278.00	279.50	281.00	282.00	283.50	284.50	286.00	287.50	288.00	289.00	289.00	289.50	290.00
605.00	601.00	597.00	593.00	591.00	588.00	586.00	584.00	581.00	579.50	578.00	576.00	575.50	574.50	571.00	568.50	562.00	557.00	549.50	542.00	536.00	532.00	528.50	524.00	520.00	516.00	513.00	508.00	505.50	501.50	498.00	495.50	492.00	491.00	489.50	487.00	485.00	483.00	481.50	478.50	477.00	474.00	472.00	468.00	464.00	456.50	453.00	449.00	444.00	438.50	434.00	431.00	427.00	424.50	420.00	415.50	413.00	409.00	405.50	403.00	400.50	396.00	394.00	391.00	389.00	386.00	384.00	381.00	379.50	378.00	376.00	374.50	372.00	371.00	369.50	368.50	367.50	366.50	365.50	364.00	363.00	361.50	361.00	360.50	360.00	360.00	360.00	360.00	360.00	361.00	361.00	361.00	361.50	362.00	362.50	363.00	363.00	364.00	364.00	364.00	364.00	364.00	363.00	362.50	362.00	361.00	359.50	358.50	356.00	354.50	353.50	351.00	348.00	345.00	342.00	340.00	337.50	334.00	330.50	327.00	324.00	320.50	318.00	314.50	311.00	309.00	306.00	304.00	301.00	298.00	295.00	293.00	291.00	289.00	287.50	286.00	285.00	284.00	283.50	283.00	283.00	283.00	283.00	284.00	284.50	285.00	286.00	286.00	286.50	287.00	287.00	287.00	288.00	289.50	290.00	291.50	292.50	293.50	294.00	295.50	296.00	297.00	297.00	297.50	298.00	298.50	299.00	299.00	299.00	299.00	299.00	298.00	297.50	297.00	296.00	295.50	295.00	294.00	294.00	293.50	292.00	291.00	290.00	289.00	287.50	286.50	285.50	284.50	284.00	283.00	282.00	280.50	279.00	277.50	276.50	275.00	273.00	271.50	269.00	267.00	265.00	263.50	260.00	258.00	256.00	254.00	254.00	254.00	253.00	253.00	252.50	251.00	251.00	249.50	248.00	247.00	246.50	245.50	244.50	243.50	243.00	242.00	241.00	240.00	241.50	243.00	244.50	247.00	249.00	251.00	253.00	254.50	256.00	258.50	261.00	262.50	265.00	267.00	269.00	271.00	273.50	274.50	276.00	278.00	279.50	281.00	282.00	283.50	284.50	286.00	287.50	288.00	289.00	289.00	289.50	290.00
600.00	596.50	592.50	589.00	587.00	584.00	582.25	580.00	577.75	576.50	575.00	573.75	573.25	572.25	567.75	565.00	559.00	554.00	546.75	540.00	534.25	530.75	527.75	524.00	520.00	516.50	513.50	509.75	508.25	506.00	504.00	502.75	501.00	500.00	499.25	498.00	496.75	495.00	493.00	488.75	486.00	482.00	479.00	474.25	470.50	463.25	459.75	456.00	450.50	444.75	439.50	436.50	431.50	428.50	424.00	419.00	416.00	411.50	407.00	404.25	401.50	396.75	394.25	390.50	388.50	384.75	382.00	379.00	377.50	376.00	374.00	372.00	370.00	368.50	367.00	366.25	365.75	365.25	364.75	364.00	363.50	362.75	362.50	362.25	362.00	362.25	362.50	363.25	363.50	364.50	364.50	364.50	364.75	365.00	365.50	366.00	366.00	366.50	366.50	366.00	366.00	365.75	364.75	364.25	363.00	362.00	360.25	359.00	356.00	354.50	353.25	350.50	348.00	345.00	342.00	340.00	337.50	334.00	330.75	327.50	325.00	321.25	318.75	315.25	312.00	309.75	306.50	304.50	301.50	298.50	295.50	293.50	291.50	289.50	287.50	286.00	284.50	283.25	282.50	282.00	282.00	282.00	282.00	282.50	282.75	283.00	283.00	283.00	283.25	283.50	283.50	284.00	284.50	285.25	285.50	286.75	287.25	288.00	289.00	290.25	291.00	291.50	292.25	292.75	293.50	293.75	294.25	294.50	294.50	294.50	294.50	294.25	294.25	294.50	294.00	293.75	293.50	292.50	292.50	292.25	291.00	291.00	290.50	289.50	288.75	288.25	287.50	286.50	286.00	285.50	285.00	284.25	283.50	282.50	281.50	280.25	278.50	276.75	274.50	273.00	271.00	269.50	266.75	265.25	263.75	262.00	261.25	260.75	260.00	260.00	259.75	259.00	259.00	257.75	256.50	255.25	254.50	253.50	251.50	250.50	249.50	248.50	248.00	248.00	248.75	249.75	250.75	252.50	254.25	256.00	258.00	259.75	261.25	263.50	266.00	267.50	270.00	271.50	273.25	275.50	277.50	278.50	279.75	282.00	283.50	285.00	285.50	287.00	287.75	288.75	290.00	290.50	291.50	291.50	292.25	292.50
595.00	592.00	588.00	585.00	583.00	580.00	578.50	576.00	574.50	573.50	572.00	571.50	571.00	570.00	564.50	561.50	556.00	551.00	544.00	538.00	532.50	529.50	527.00	524.00	520.00	517.00	514.00	511.50	511.00	510.50	510.00	510.00	510.00	509.00	509.00	509.00	508.50	507.00	504.50	499.00	495.00	490.00	486.00	480.50	477.00	470.00	466.50	463.00	457.00	451.00	445.00	442.00	436.00	432.50	428.00	422.50	419.00	414.00	408.50	405.50	402.50	397.50	394.50	390.00	388.00	383.50	380.00	377.00	375.50	374.00	372.00	369.50	368.00	366.00	364.50	364.00	364.00	364.00	364.00	364.00	364.00	364.00	364.00	364.00	364.00	364.50	365.00	366.50	367.00	368.00	368.00	368.00	368.00	368.00	368.50	369.00	369.00	369.00	369.00	368.00	368.00	367.50	366.50	366.00	364.00	363.00	361.00	359.50	356.00	354.50	353.00	350.00	348.00	345.00	342.00	340.00	337.50	334.00	331.00	328.00	326.00	322.00	319.50	316.00	313.00	310.50	307.00	305.00	302.00	299.00	296.00	294.00	292.00	290.00	287.50	286.00	284.00	282.50	281.50	281.00	281.00	281.00	281.00	281.00	281.00	281.00	280.00	280.00	280.00	280.00	280.00	281.00	281.00	281.00	281.00	282.00	282.00	282.50	284.00	285.00	286.00	286.00	287.50	288.00	289.00	289.00	289.50	290.00	290.00	290.00	290.00	290.50	291.00	292.00	292.00	292.00	292.00	291.00	291.00	291.00	290.00	291.00	291.00	290.00	290.00	290.00	289.50	288.50	288.00	288.00	288.00	288.00	288.00	287.50	286.50	285.50	284.00	282.00	280.00	279.00	277.00	275.50	273.50	272.50	271.50	270.00	268.50	267.50	267.00	267.00	267.00	267.00	267.00	266.00	265.00	263.50	262.50	261.50	258.50	257.50	256.00	255.00	255.00	256.00	256.00	256.50	257.00	258.00	259.50	261.00	263.00	265.00	266.50	268.50	271.00	272.50	275.00	276.00	277.50	280.00	281.50	282.50	283.50	286.00	287.50	289.00	289.00	290.50	291.00	291.50	292.50	293.00	294.00	294.00	295.00	295.00
595.00	592.00	588.00	585.00	583.00	580.00	578.50	576.00	574.50	573.50	572.00	571.50	571.00	570.00	564.50	561.50	556.00	551.00	544.00	538.00	532.50	529.50	527.00	524.00	520.00	517.00	514.00	511.50	511.00	510.50	510.00	510.00	510.00	509.00	509.00	509.00	508.50	507.00	504.50	499.00	495.00	490.00	486.00	480.50	477.00	470.00	466.50	463.00	457.00	451.00	445.00	442.00	436.00	432.50	428.00	422.50	419.00	414.00	408.50	405.50	402.50	397.50	394.50	390.00	388.00	383.50	380.00	377.00	375.50	374.00	372.00	369.50	368.00	366.00	364.50	364.00	364.00	364.00	364.00	364.00	364.00	364.00	364.00	364.00	364.00	364.50	365.00	366.50	367.00	368.00	368.00	368.00	368.00	368.00	368.50	369.00	369.00	369.00	369.00	368.00	368.00	367.50	366.50	366.00	364.00	363.00	361.00	359.50	356.00	354.50	353.00	350.00	348.00	345.00	342.00	340.00	337.50	334.00	331.00	328.00	326.00	322.00	319.50	316.00	313.00	310.50	307.00	305.00	302.00	299.00	296.00	294.00	292.00	290.00	287.50	286.00	284.00	282.50	281.50	281.00	281.00	281.00	281.00	281.00	281.00	281.00	280.00	280.00	280.00	280.00	280.00	281.00	281.00	281.00	281.00	282.00	282.00	282.50	284.00	285.00	286.00	286.00	287.50	288.00	289.00	289.00	289.50	290.00	290.00	290.00	290.00	290.50	291.00	292.00	292.00	292.00	292.00	291.00	291.00	291.00	290.00	291.00	291.00	290.00	290.00	290.00	289.50	288.50	288.00	288.00	288.00	288.00	288.00	287.50	286.50	285.50	284.00	282.00	280.00	279.00	277.00	275.50	273.50	272.50	271.50	270.00	268.50	267.50	267.00	267.00	267.00	267.00	267.00	266.00	265.00	263.50	262.50	261.50	258.50	257.50	256.00	255.00	255.00	256.00	256.00	256.50	257.00	258.00	259.50	261.00	263.00	265.00	266.50	268.50	271.00	272.50	275.00	276.00	277.50	280.00	281.50	282.50	283.50	286.00	287.50	289.00	289.00	290.50	291.00	291.50	292.50	293.00	294.00	294.00	295.00	295.00
595.00	592.00	588.00	585.00	583.00	580.00	578.50	576.00	574.50	573.50	572.00	571.50	571.00	570.00	564.50	561.50	556.00	551.00	544.00	538.00	532.50	529.50	527.00	524.00	520.00	517.00	514.00	511.50	511.00	510.50	510.00	510.00	510.00	509.00	509.00	509.00	508.50	507.00	504.50	499.00	495.00	490.00	486.00	480.50	477.00	470.00	466.50	463.00	457.00	451.00	445.00	442.00	436.00	432.50	428.00	422.50	419.00	414.00	408.50	405.50	402.50	397.50	394.50	390.00	388.00	383.50	380.00	377.00	375.50	374.00	372.00	369.50	368.00	366.00	364.50	364.00	364.00	364.00	364.00	364.00	364.00	364.00	364.00	364.00	364.00	364.50	365.00	366.50	367.00	368.00	368.00	368.00	368.00	368.00	368.50	369.00	369.00	369.00	369.00	368.00	368.00	367.50	366.50	366.00	364.00	363.00	361.00	359.50	356.00	354.50	353.00	350.00	348.00	345.00	342.00	340.00	337.50	334.00	331.00	328.00	326.00	322.00	319.50	316.00	313.00	310.50	307.00	305.00	302.00	299.00	296.00	294.00	292.00	290.00	287.50	286.00	284.00	282.50	281.50	281.00	281.00	281.00	281.00	281.00	281.00	281.00	280.00	280.00	280.00	280.00	280.00	281.00	281.00	281.00	281.00	282.00	282.00	282.50	284.00	285.00	286.00	286.00	287.50	288.00	289.00	289.00	289.50	290.00	290.00	290.00	290.00	290.50	291.00	292.00	292.00	292.00	292.00	291.00	291.00	291.00	290.00	291.00	291.00	290.00	290.00	290.00	289.50	288.50	288.00	288.00	288.00	288.00	288.00	287.50	286.50	285.50	284.00	282.00	280.00	279.00	277.00	275.50	273.50	272.50	271.50	270.00	268.50	267.50	267.00	267.00	267.00	267.00	267.00	266.00	265.00	263.50	262.50	261.50	258.50	257.50	256.00	255.00	255.00	256.00	256.00	256.50	257.00	258.00	259.50	261.00	263.00	265.00	266.50	268.50	271.00	272.50	275.00	276.00	277.50	280.00	281.50	282.50	283.50	286.00	287.50	289.00	289.00	290.50	291.00	291.50	292.50	293.00	294.00	294.00	295.00	295.00
595.00	592.00	588.00	585.00	583.00	580.00	578.50	576.00	574.50	573.50	572.00	571.50	571.00	570.00	564.50	561.50	556.00	551.00	544.00	538.00	532.50	529.50	527.00	524.00	520.00	517.00	514.00	511.50	511.00	510.50	510.00	510.00	510.00	509.00	509.00	509.00	508.50	507.00	504.50	499.00	495.00	490.00	486.00	480.50	477.00	470.00	466.50	463.00	457.00	451.00	445.00	442.00	436.00	432.50	428.00	422.50	419.00	414.00	408.50	405.50	402.50	397.50	394.50	390.00	388.00	383.50	380.00	377.00	375.50	374.00	372.00	369.50	368.00	366.00	364.50	364.00	364.00	364.00	364.00	364.00	364.00	364.00	364.00	364.00	364.00	364.50	365.00	366.50	367.00	368.00	368.00	368.00	368.00	368.00	368.50	369.00	369.00	369.00	369.00	368.00	368.00	367.50	366.50	366.00	364.00	363.00	361.00	359.50	356.00	354.50	353.00	350.00	348.00	345.00	342.00	340.00	337.50	334.00	331.00	328.00	326.00	322.00	319.50	316.00	313.00	310.50	307.00	305.00	302.00	299.00	296.00	294.00	292.00	290.00	287.50	286.00	284.00	282.50	281.50	281.00	281.00	281.00	281.00	281.00	281.00	281.00	280.00	280.00	280.00	280.00	280.00	281.00	281.00	281.00	281.00	282.00	282.00	282.50	284.00	285.00	286.00	286.00	287.50	288.00	289.00	289.00	289.50	290.00	290.00	290.00	290.00	290.50	291.00	292.00	292.00	292.00	292.00	291.00	291.00	291.00	290.00	291.00	291.00	290.00	290.00	290.00	289.50	288.50	288.00	288.00	288.00	288.00	288.00	287.50	286.50	285.50	284.00	282.00	280.00	279.00	277.00	275.50	273.50	272.50	271.50	270.00	268.50	267.50	267.00	267.00	267.00	267.00	267.00	266.00	265.00	263.50	262.50	261.50	258.50	257.50	256.00	255.00	255.00	256.00	256.00	256.50	257.00	258.00	259.50	261.00	263.00	265.00	266.50	268.50	271.00	272.50	275.00	276.00	277.50	280.00	281.50	282.50	283.50	286.00	287.50	289.00	289.00	290.50	291.00	291.50	292.50	293.00	294.00	294.00	295.00	295.00
595.00	592.00	588.00	585.00	583.00	580.00	578.50	576.00	574.50	573.50	572.00	571.50	571.00	570.00	564.50	561.50	556.00	551.00	544.00	538.00	532.50	529.50	527.00	524.00	520.00	517.00	514.00	511.50	511.00	510.50	510.00	510.00	510.00	509.00	509.00	509.00	508.50	507.00	504.50	499.00	495.00	490.00	486.00	480.50	477.00	470.00	466.50	463.00	457.00	451.00	445.00	442.00	436.00	432.50	428.00	422.50	419.00	414.00	408.50	405.50	402.50	397.50	394.50	390.00	388.00	383.50	380.00	377.00	375.50	374.00	372.00	369.50	368.00	366.00	364.50	364.00	364.00	364.00	364.00	364.00	364.00	364.00	364.00	364.00	364.00	364.50	365.00	366.50	367.00	368.00	368.00	368.00	368.00	368.00	368.50	369.00	369.00	369.00	369.00	368.00	368.00	367.50	366.50	366.00	364.00	363.00	361.00	359.50	356.00	354.50	353.00	350.00	348.00	345.00	342.00	340.00	337.50	334.00	331.00	328.00	326.00	322.00	319.50	316.00	313.00	310.50	307.00	305.00	302.00	299.00	296.00	294.00	292.00	290.00	287.50	286.00	284.00	282.50	281.50	281.00	281.00	281.00	281.00	281.00	281.00	281.00	280.00	280.00	280.00	280.00	280.00	281.00	281.00	281.00	281.00	282.00	282.00	282.50	284.00	285.00	286.00	286.00	287.50	288.00	289.00	289.00	289.50	290.00	290.00	290.00	290.00	290.50	291.00	292.00	292.00	292.00	292.00	291.00	291.00	291.00	290.00	291.00	291.00	290.00	290.00	290.00	289.50	288.50	288.00	288.00	288.00	288.00	288.00	287.50	286.50	285.50	284.00	282.00	280.00	279.00	277.00	275.50	273.50	272.50	271.50	270.00	268.50	267.50	267.00	267.00	267.00	267.00	267.00	266.00	265.00	263.50	262.50	261.50	258.50	257.50	256.00	255.00	255.00	256.00	256.00	256.50	257.00	258.00	259.50	261.00	263.00	265.00	266.50	268.50	271.00	272.50	275.00	276.00	277.50	280.00	281.50	282.50	283.50	286.00	287.50	289.00	289.00	290.50	291.00	291.50	292.50	293.00	294.00	294.00	295.00	295.00
590.75	588.00	585.00	582.50	581.00	578.25	576.75	574.00	572.00	570.75	569.00	567.75	566.50	564.75	559.25	556.00	550.50	545.50	538.50	532.50	528.25	526.50	524.75	523.00	520.25	518.00	516.00	513.75	513.25	512.75	512.75	513.00	513.50	513.00	513.25	513.50	512.25	510.50	508.25	502.75	499.00	493.50	490.00	484.25	480.75	473.50	470.00	466.50	460.50	454.50	448.00	444.00	437.75	433.75	428.50	422.75	419.00	414.00	408.50	405.50	402.25	396.25	393.00	388.50	386.00	382.00	378.00	374.75	372.75	371.25	369.00	367.00	365.50	364.50	363.75	363.50	363.25	363.00	363.25	364.00	365.00	365.75	366.50	367.25	368.00	369.00	370.00	371.50	372.00	373.00	373.00	372.75	372.50	372.50	372.75	372.50	372.50	372.50	372.00	370.75	370.25	369.25	367.50	366.50	364.50	363.50	361.25	359.75	356.00	354.50	353.00	350.00	347.50	344.50	341.50	339.50	337.25	333.50	330.50	327.50	325.50	322.00	319.75	316.50	313.50	311.25	308.00	306.00	303.00	300.50	297.50	295.50	293.50	291.00	288.25	286.50	285.00	283.50	282.50	281.75	281.25	280.75	280.00	279.50	279.25	279.00	278.25	278.00	277.75	277.50	277.25	277.50	277.00	277.00	277.00	278.00	278.25	279.00	280.00	281.00	282.00	282.00	283.00	283.50	284.50	285.25	286.00	286.50	287.25	287.75	288.00	288.75	289.25	290.00	290.00	290.75	291.00	291.00	291.25	291.50	291.00	292.00	291.50	291.50	291.50	291.75	291.75	291.50	291.50	291.50	291.50	291.50	291.50	291.25	290.75	290.25	289.50	288.25	287.00	286.00	284.25	283.00	281.00	280.00	279.00	277.50	276.00	275.25	274.50	274.50	274.50	274.50	274.00	273.25	272.00	270.25	269.00	267.75	265.00	263.75	262.00	261.50	261.00	261.50	261.50	262.00	262.50	263.50	265.00	266.50	268.50	270.25	271.75	273.75	275.75	277.25	279.50	280.50	282.00	284.50	286.00	287.00	288.00	290.00	291.25	292.50	293.00	294.25	294.75	295.25	295.75	295.75	296.00	296.00	296.50	296.00
586.50	584.00	582.00	580.00	579.00	576.50	575.00	572.00	569.50	568.00	566.00	564.00	562.00	559.50	554.00	550.50	545.00	540.00	533.00	527.00	524.00	523.50	522.50	522.00	520.50	519.00	518.00	516.00	515.50	515.00	515.50	516.00	517.00	517.00	517.50	518.00	516.00	514.00	512.00	506.50	503.00	497.00	494.00	488.00	484.50	477.00	473.50	470.00	464.00	458.00	451.00	446.00	439.50	435.00	429.00	423.00	419.00	414.00	408.50	405.50	402.00	395.00	391.50	387.00	384.00	380.50	376.00	372.50	370.00	368.50	366.00	364.50	363.00	363.00	363.00	363.00	362.50	362.00	362.50	364.00	366.00	367.50	369.00	370.50	372.00	373.50	375.00	376.50	377.00	378.00	378.00	377.50	377.00	377.00	377.00	376.00	376.00	376.00	375.00	373.50	372.50	371.00	368.50	367.00	365.00	364.00	361.50	360.00	356.00	354.50	353.00	350.00	347.00	344.00	341.00	339.00	337.00	333.00	330.00	327.00	325.00	322.00	320.00	317.00	314.00	312.00	309.00	307.00	304.00	302.00	299.00	297.00	295.00	292.00	289.00	287.00	286.00	284.50	283.50	282.50	281.50	280.50	279.00	278.00	277.50	277.00	276.50	276.00	275.50	275.00	274.50	274.00	273.00	273.00	273.00	274.00	274.50	275.50	276.00	277.00	278.00	278.00	278.50	279.00	280.00	281.50	282.50	283.00	284.50	285.50	286.00	287.00	287.50	288.00	288.00	289.50	290.00	291.00	291.50	292.00	292.00	293.00	292.00	293.00	293.00	293.50	294.00	294.50	295.00	295.00	295.00	295.00	295.00	295.00	295.00	295.00	295.00	294.50	294.00	293.00	291.50	290.50	288.50	287.50	286.50	285.00	283.50	283.00	282.00	282.00	282.00	282.00	281.00	280.50	279.00	277.00	275.50	274.00	271.50	270.00	268.00	268.00	267.00	267.00	267.00	267.50	268.00	269.00	270.50	272.00	274.00	275.50	277.00	279.00	280.50	282.00	284.00	285.00	286.50	289.00	290.50	291.50	292.50	294.00	295.00	296.00	297.00	298.00	298.50	299.00	299.00	298.50	298.00	298.00	298.00	297.00
586.50	584.00	582.00	580.00	579.00	576.50	575.00	572.00	569.50	568.00	566.00	564.00	562.00	559.50	554.00	550.50	545.00	540.00	533.00	527.00	524.00	523.50	522.50	522.00	520.50	519.00	518.00	516.00	515.50	515.00	515.50	516.00	517.00	517.00	517.50	518.00	516.00	514.00	512.00	506.50	503.00	497.00	494.00	488.00	484.50	477.00	473.50	470.00	464.00	458.00	451.00	446.00	439.50	435.00	429.00	423.00	419.00	414.00	408.50	405.50	402.00	395.00	391.50	387.00	384.00	380.50	376.00	372.50	370.00	368.50	366.00	364.50	363.00	363.00	363.00	363.00	362.50	362.00	362.50	364.00	366.00	367.50	369.00	370.50	372.00	373.50	375.00	376.50	377.00	378.00	378.00	377.50	377.00	377.00	377.00	376.00	376.00	376.00	375.00	373.50	372.50	371.00	368.50	367.00	365.00	364.00	361.50	360.00	356.00	354.50	353.00	350.00	347.00	344.00	341.00	339.00	337.00	333.00	330.00	327.00	325.00	322.00	320.00	317.00	314.00	312.00	309.00	307.00	304.00	302.00	299.00	297.00	295.00	292.00	289.00	287.00	286.00	284.50	283.50	282.50	281.50	280.50	279.00	278.00	277.50	277.00	276.50	276.00	275.50	275.00	274.50	274.00	273.00	273.00	273.00	274.00	274.50	275.50	276.00	277.00	278.00	278.00	278.50	279.00	280.00	281.50	282.50	283.00	284.50	285.50	286.00	287.00	287.50	288.00	288.00	289.50	290.00	291.00	291.50	292.00	292.00	293.00	292.00	293.00	293.00	293.50	294.00	294.50	295.00	295.00	295.00	295.00	295.00	295.00	295.00	295.00	295.00	294.50	294.00	293.00	291.50	290.50	288.50	287.50	286.50	285.00	283.50	283.00	282.00	282.00	282.00	282.00	281.00	280.50	279.00	277.00	275.50	274.00	271.50	270.00	268.00	268.00	267.00	267.00	267.00	267.50	268.00	269.00	270.50	272.00	274.00	275.50	277.00	279.00	280.50	282.00	284.00	285.00	286.50	289.00	290.50	291.50	292.50	294.00	295.00	296.00	297.00	298.00	298.50	299.00	299.00	298.50	298.00	298.00	298.00	297.00
586.50	584.00	582.00	580.00	579.00	576.50	575.00	572.00	569.50	568.00	566.00	564.00	562.00	559.50	554.00	550.50	545.00	540.00	533.00	527.00	524.00	523.50	522.50	522.00	520.50	519.00	518.00	516.00	515.50	515.00	515.50	516.00	517.00	517.00	517.50	518.00	516.00	514.00	512.00	506.50	503.00	497.00	494.00	488.00	484.50	477.00	473.50	470.00	464.00	458.00	451.00	446.00	439.50	435.00	429.00	423.00	419.00	414.00	408.50	405.50	402.00	395.00	391.50	387.00	384.00	380.50	376.00	372.50	370.00	368.50	366.00	364.50	363.00	363.00	363.00	363.00	362.50	362.00	362.50	364.00	366.00	367.50	369.00	370.50	372.00	373.50	375.00	376.50	377.00	378.00	378.00	377.50	377.00	377.00	377.00	376.00	376.00	376.00	375.00	373.50	372.50	371.00	368.50	367.00	365.00	364.00	361.50	360.00	356.00	354.50	353.00	350.00	347.00	344.00	341.00	339.00	337.00	333.00	330.00	327.00	325.00	322.00	320.00	317.00	314.00	312.00	309.00	307.00	304.00	302.00	299.00	297.00	295.00	292.00	289.00	287.00	286.00	284.50	283.50	282.50	281.50	280.50	279.00	278.00	277.50	277.00	276.50	276.00	275.50	275.00	274.50	274.00	273.00	273.00	273.00	274.00	274.50	275.50	276.00	277.00	278.00	278.00	278.50	279.00	280.00	281.50	282.50	283.00	284.50	285.50	286.00	287.00	287.50	288.00	288.00	289.50	290.00	291.00	291.50	292.00	292.00	293.00	292.00	293.00	293.00	293.50	294.00	294.50	295.00	295.00	295.00	295.00	295.00	295.00	295.00	295.00	295.00	294.50	294.00	293.00	291.50	290.50	288.50	287.50	286.50	285.00	283.50	283.00	282.00	282.00	282.00	282.00	281.00	280.50	279.00	277.00	275.50	274.00	271.50	270.00	268.00	268.00	267.00	267.00	267.00	267.50	268.00	269.00	270.50	272.00	274.00	275.50	277.00	279.00	280.50	282.00	284.00	285.00	286.50	289.00	290.50	291.50	292.50	294.00	295.00	296.00	297.00	298.00	298.50	299.00	299.00	298.50	298.00	298.00	298.00	297.00
586.50	584.00	582.00	580.00	579.00	576.50	575.00	572.00	569.50	568.00	566.00	564.00	562.00	559.50	554.00	550.50	545.00	540.00	533.00	527.00	524.00	523.50	522.50	522.00	520.50	519.00	518.00	516.00	515.50	515.00	515.50	516.00	517.00	517.00	517.50	518.00	516.00	514.00	512.00	506.50	503.00	497.00	494.00	488.00	484.50	477.00	473.50	470.00	464.00	458.00	451.00	446.00	439.50	435.00	429.00	423.00	419.00	414.00	408.50	405.50	402.00	395.00	391.50	387.00	384.00	380.50	376.00	372.50	370.00	368.50	366.00	364.50	363.00	363.00	363.00	363.00	362.50	362.00	362.50	364.00	366.00	367.50	369.00	370.50	372.00	373.50	375.00	376.50	377.00	378.00	378.00	377.50	377.00	377.00	377.00	376.00	376.00	376.00	375.00	373.50	372.50	371.00	368.50	367.00	365.00	364.00	361.50	360.00	356.00	354.50	353.00	350.00	347.00	344.00	341.00	339.00	337.00	333.00	330.00	327.00	325.00	322.00	320.00	317.00	314.00	312.00	309.00	307.00	304.00	302.00	299.00	297.00	295.00	292.00	289.00	287.00	286.00	284.50	283.50	282.50	281.50	280.50	279.00	278.00	277.50	277.00	276.50	276.00	275.50	275.00	274.50	274.00	273.00	273.00	273.00	274.00	274.50	275.50	276.00	277.00	278.00	278.00	278.50	279.00	280.00	281.50	282.50	283.00	284.50	285.50	286.00	287.00	287.50	288.00	288.00	289.50	290.00	291.00	291.50	292.00	292.00	293.00	292.00	293.00	293.00	293.50	294.00	294.50	295.00	295.00	295.00	295.00	295.00	295.00	295.00	295.00	295.00	294.50	294.00	293.00	291.50	290.50	288.50	287.50	286.50	285.00	283.50	283.00	282.00	282.00	282.00	282.00	281.00	280.50	279.00	277.00	275.50	274.00	271.50	270.00	268.00	268.00	267.00	267.00	267.00	267.50	268.00	269.00	270.50	272.00	274.00	275.50	277.00	279.00	280.50	282.00	284.00	285.00	286.50	289.00	290.50	291.50	292.50	294.00	295.00	296.00	297.00	298.00	298.50	299.00	299.00	298.50	298.00	298.00	298.00	297.00
586.50	584.00	582.00	580.00	579.00	576.50	575.00	572.00	569.50	568.00	566.00	564.00	562.00	559.50	554.00	550.50	545.00	540.00	533.00	527.00	524.00	523.50	522.50	522.00	520.50	519.00	518.00	516.00	515.50	515.00	515.50	516.00	517.00	517.00	517.50	518.00	516.00	514.00	512.00	506.50	503.00	497.00	494.00	488.00	484.50	477.00	473.50	470.00	464.00	458.00	451.00	446.00	439.50	435.00	429.00	423.00	419.00	414.00	408.50	405.50	402.00	395.00	391.50	387.00	384.00	380.50	376.00	372.50	370.00	368.50	366.00	364.50	363.00	363.00	363.00	363.00	362.50	362.00	362.50	364.00	366.00	367.50	369.00	370.50	372.00	373.50	375.00	376.50	377.00	378.00	378.00	377.50	377.00	377.00	377.00	376.00	376.00	376.00	375.00	373.50	372.50	371.00	368.50	367.00	365.00	364.00	361.50	360.00	356.00	354.50	353.00	350.00	347.00	344.00	341.00	339.00	337.00	333.00	330.00	327.00	325.00	322.00	320.00	317.00	314.00	312.00	309.00	307.00	304.00	302.00	299.00	297.00	295.00	292.00	289.00	287.00	286.00	284.50	283.50	282.50	281.50	280.50	279.00	278.00	277.50	277.00	276.50	276.00	275.50	275.00	274.50	274.00	273.00	273.00	273.00	274.00	274.50	275.50	276.00	277.00	278.00	278.00	278.50	279.00	280.00	281.50	282.50	283.00	284.50	285.50	286.00	287.00	287.50	288.00	288.00	289.50	290.00	291.00	291.50	292.00	292.00	293.00	292.00	293.00	293.00	293.50	294.00	294.50	295.00	295.00	295.00	295.00	295.00	295.00	295.00	295.00	295.00	294.50	294.00	293.00	291.50	290.50	288.50	287.50	286.50	285.00	283.50	283.00	282.00	282.00	282.00	282.00	281.00	280.50	279.00	277.00	275.50	274.00	271.50	270.00	268.00	268.00	267.00	267.00	267.00	267.50	268.00	269.00	270.50	272.00	274.00	275.50	277.00	279.00	280.50	282.00	284.00	285.00	286.50	289.00	290.50	291.50	292.50	294.00	295.00	296.00	297.00	298.00	298.50	299.00	299.00	298.50	298.00	298.00	298.00	297.00
586.50	584.00	582.00	580.00	579.00	576.50	575.00	572.00	569.50	568.00	566.00	564.00	562.00	559.50	554.00	550.50	545.00	540.00	533.00	527.00	524.00	523.50	522.50	522.00	520.50	519.00	518.00	516.00	515.50	515.00	515.50	516.00	517.00	517.00	517.50	518.00	516.00	514.00	512.00	506.50	503.00	497.00	494.00	488.00	484.50	477.00	473.50	470.00	464.00	458.00	451.00	446.00	439.50	435.00	429.00	423.00	419.00	414.00	408.50	405.50	402.00	395.00	391.50	387.00	384.00	380.50	376.00	372.50	370.00	368.50	366.00	364.50	363.00	363.00	363.00	363.00	362.50	362.00	362.50	364.00	366.00	367.50	369.00	370.50	372.00	373.50	375.00	376.50	377.00	378.00	378.00	377.50	377.00	377.00	377.00	376.00	376.00	376.00	375.00	373.50	372.50	371.00	368.50	367.00	365.00	364.00	361.50	360.00	356.00	354.50	353.00	350.00	347.00	344.00	341.00	339.00	337.00	333.00	330.00	327.00	325.00	322.00	320.00	317.00	314.00	312.00	309.00	307.00	304.00	302.00	299.00	297.00	295.00	292.00	289.00	287.00	286.00	284.50	283.50	282.50	281.50	280.50	279.00	278.00	277.50	277.00	276.50	276.00	275.50	275.00	274.50	274.00	273.00	273.00	273.00	274.00	274.50	275.50	276.00	277.00	278.00	278.00	278.50	279.00	280.00	281.50	282.50	283.00	284.50	285.50	286.00	287.00	287.50	288.00	288.00	289.50	290.00	291.00	291.50	292.00	292.00	293.00	292.00	293.00	293.00	293.50	294.00	294.50	295.00	295.00	295.00	295.00	295.00	295.00	295.00	295.00	295.00	294.50	294.00	293.00	291.50	290.50	288.50	287.50	286.50	285.00	283.50	283.00	282.00	282.00	282.00	282.00	281.00	280.50	279.00	277.00	275.50	274.00	271.50	270.00	268.00	268.00	267.00	267.00	267.00	267.50	268.00	269.00	270.50	272.00	274.00	275.50	277.00	279.00	280.50	282.00	284.00	285.00	286.50	289.00	290.50	291.50	292.50	294.00	295.00	296.00	297.00	298.00	298.50	299.00	299.00	298.50	298.00	298.00	298.00	297.00
586.00	584.00	582.50	581.00	580.00	577.50	576.00	573.00	569.50	567.00	564.00	560.00	557.50	554.50	546.50	542.00	536.00	533.00	529.00	526.00	523.50	523.00	523.00	524.00	523.00	522.00	521.00	521.00	521.00	521.00	521.00	521.50	522.00	523.00	521.50	520.00	518.00	516.00	514.50	510.50	508.00	504.00	501.00	495.00	490.50	481.50	476.50	472.00	465.00	457.50	450.00	446.00	439.00	435.00	429.00	422.00	418.00	412.00	406.00	402.00	398.50	392.50	389.50	385.00	382.00	379.00	376.00	372.50	371.00	369.00	367.00	365.50	365.00	365.00	365.50	366.00	367.00	368.50	369.50	371.00	372.00	374.50	377.00	379.50	381.00	382.50	385.00	386.00	387.00	387.00	387.00	387.00	386.00	385.00	384.50	383.00	382.00	380.00	379.00	377.50	376.50	375.00	371.00	369.00	366.00	364.00	362.00	360.00	356.00	354.50	353.00	350.00	347.00	344.00	341.00	339.00	337.00	333.00	330.00	327.00	325.00	323.00	321.00	318.50	316.00	314.50	312.00	310.00	307.00	305.00	302.50	301.00	299.00	297.00	295.00	293.00	291.00	289.50	288.00	286.00	284.50	283.50	282.00	282.00	280.50	278.00	276.50	275.50	274.00	272.00	271.00	272.00	272.00	272.00	272.00	272.00	272.00	271.50	271.00	272.50	274.00	275.00	276.00	276.50	278.00	279.00	279.50	281.00	282.50	283.50	284.50	286.50	287.50	289.00	290.00	291.50	292.00	293.50	294.50	295.00	296.00	296.50	297.00	298.00	299.00	299.50	300.50	301.00	301.50	302.00	303.00	303.00	304.00	304.00	304.50	305.00	305.00	305.00	304.00	304.00	303.50	302.50	301.50	300.50	299.50	298.00	297.50	297.00	296.00	295.00	294.50	293.00	293.00	291.50	290.00	287.50	286.00	284.00	280.50	279.00	276.00	275.00	272.50	271.00	273.00	275.00	276.50	279.00	281.50	284.00	285.00	287.00	288.50	290.00	291.50	292.50	293.00	294.00	295.50	297.00	298.50	299.50	300.50	301.00	302.00	302.00	303.00	303.00	303.00	303.00	303.00	303.00	302.00	302.00	300.50	299.00
586.00	584.00	582.50	581.00	580.00	577.50	576.00	573.00	569.50	567.00	564.00	560.00	557.50	554.50	546.50	542.00	536.00	533.00	529.00	526.00	523.50	523.00	523.00	524.00	523.00	522.00	521.00	521.00	521.00	521.00	521.00	521.50	522.00	523.00	521.50	520.00	518.00	516.00	514.50	510.50	508.00	504.00	501.00	495.00	490.50	481.50	476.50	472.00	465.00	457.50	450.00	446.00	439.00	435.00	429.00	422.00	418.00	412.00	406.00	402.00	398.50	392.50	389.50	385.00	382.00	379.00	376.00	372.50	371.00	369.00	367.00	365.50	365.00	365.00	365.50	366.00	367.00	368.50	369.50	371.00	372.00	374.50	377.00	379.50	381.00	382.50	385.00	386.00	387.00	387.00	387.00	387.00	386.00	385.00	384.50	383.00	382.00	380.00	379.00	377.50	376.50	375.00	371.00	369.00	366.00	364.00	362.00	360.00	356.00	354.50	353.00	350.00	347.00	344.00	341.00	339.00	337.00	333.00	330.00	327.00	325.00	323.00	321.00	318.50	316.00	314.50	312.00	310.00	307.00	305.00	302.50	301.00	299.00	297.00	295.00	293.00	291.00	289.50	288.00	286.00	284.50	283.50	282.00	282.00	280.50	278.00	276.50	275.50	274.00	272.00	271.00	272.00	272.00	272.00	272.00	272.00	272.00	271.50	271.00	272.50	274.00	275.00	276.00	276.50	278.00	279.00	279.50	281.00	282.50	283.50	284.50	286.50	287.50	289.00	290.00	291.50	292.00	293.50	294.50	295.00	296.00	296.50	297.00	298.00	299.00	299.50	300.50	301.00	301.50	302.00	303.00	303.00	304.00	304.00	304.50	305.00	305.00	305.00	304.00	304.00	303.50	302.50	301.50	300.50	299.50	298.00	297.50	297.00	296.00	295.00	294.50	293.00	293.00	291.50	290.00	287.50	286.00	284.00	280.50	279.00	276.00	275.00	272.50	271.00	273.00	275.00	276.50	279.00	281.50	284.00	285.00	287.00	288.50	290.00	291.50	292.50	293.00	294.00	295.50	297.00	298.50	299.50	300.50	301.00	302.00	302.00	303.00	303.00	303.00	303.00	303.00	303.00	302.00	302.00	300.50	299.00
586.00	584.00	582.50	581.00	580.00	577.50	576.00	573.00	569.50	567.00	564.00	560.00	557.50	554.50	546.50	542.00	536.00	533.00	529.00	526.00	523.50	523.00	523.00	524.00	523.00	522.00	521.00	521.00	521.00	521.00	521.00	521.50	522.00	523.00	521.50	520.00	518.00	516.00	514.50	510.50	508.00	504.00	501.00	495.00	490.50	481.50	476.50	472.00	465.00	457.50	450.00	446.00	439.00	435.00	429.00	422.00	418.00	412.00	406.00	402.00	398.50	392.50	389.50	385.00	382.00	379.00	376.00	372.50	371.00	369.00	367.00	365.50	365.00	365.00	365.50	366.00	367.00	368.50	369.50	371.00	372.00	374.50	377.00	379.50	381.00	382.50	385.00	386.00	387.00	387.00	387.00	387.00	386.00	385.00	384.50	383.00	382.00	380.00	379.00	377.50	376.50	375.00	371.00	369.00	366.00	364.00	362.00	360.00	356.00	354.50	353.00	350.00	347.00	344.00	341.00	339.00	337.00	333.00	330.00	327.00	325.00	323.00	321.00	318.50	316.00	314.50	312.00	310.00	307.00	305.00	302.50	301.00	299.00	297.00	295.00	293.00	291.00	289.50	288.00	286.00	284.50	283.50	282.00	282.00	280.50	278.00	276.50	275.50	274.00	272.00	271.00	272.00	272.00	272.00	272.00	272.00	272.00	271.50	271.00	272.50	274.00	275.00	276.00	276.50	278.00	279.00	279.50	281.00	282.50	283.50	284.50	286.50	287.50	289.00	290.00	291.50	292.00	293.50	294.50	295.00	296.00	296.50	297.00	298.00	299.00	299.50	300.50	301.00	301.50	302.00	303.00	303.00	304.00	304.00	304.50	305.00	305.00	305.00	304.00	304.00	303.50	302.50	301.50	300.50	299.50	298.00	297.50	297.00	296.00	295.00	294.50	293.00	293.00	291.50	290.00	287.50	286.00	284.00	280.50	279.00	276.00	275.00	272.50	271.00	273.00	275.00	276.50	279.00	281.50	284.00	285.00	287.00	288.50	290.00	291.50	292.50	293.00	294.00	295.50	297.00	298.50	299.50	300.50	301.00	302.00	302.00	303.00	303.00	303.00	303.00	303.00	303.00	302.00	302.00	300.50	299.00
586.00	584.00	582.50	581.00	580.00	577.50	576.00	573.00	569.50	567.00	564.00	560.00	557.50	554.50	546.50	542.00	536.00	533.00	529.00	526.00	523.50	523.00	523.00	524.00	523.00	522.00	521.00	521.00	521.00	521.00	521.00	521.50	522.00	523.00	521.50	520.00	518.00	516.00	514.50	510.50	508.00	504.00	501.00	495.00	490.50	481.50	476.50	472.00	465.00	457.50	450.00	446.00	439.00	435.00	429.00	422.00	418.00	412.00	406.00	402.00	398.50	392.50	389.50	385.00	382.00	379.00	376.00	372.50	371.00	369.00	367.00	365.50	365.00	365.00	365.50	366.00	367.00	368.50	369.50	371.00	372.00	374.50	377.00	379.50	381.00	382.50	385.00	386.00	387.00	387.00	387.00	387.00	386.00	385.00	384.50	383.00	382.00	380.00	379.00	377.50	376.50	375.00	371.00	369.00	366.00	364.00	362.00	360.00	356.00	354.50	353.00	350.00	347.00	344.00	341.00	339.00	337.00	333.00	330.00	327.00	325.00	323.00	321.00	318.50	316.00	314.50	312.00	310.00	307.00	305.00	302.50	301.00	299.00	297.00	295.00	293.00	291.00	289.50	288.00	286.00	284.50	283.50	282.00	282.00	280.50	278.00	276.50	275.50	274.00	272.00	271.00	272.00	272.00	272.00	272.00	272.00	272.00	271.50	271.00	272.50	274.00	275.00	276.00	276.50	278.00	279.00	279.50	281.00	282.50	283.50	284.50	286.50	287.50	289.00	290.00	291.50	292.00	293.50	294.50	295.00	296.00	296.50	297.00	298.00	299.00	299.50	300.50	301.00	301.50	302.00	303.00	303.00	304.00	304.00	304.50	305.00	305.00	305.00	304.00	304.00	303.50	302.50	301.50	300.50	299.50	298.00	297.50	297.00	296.00	295.00	294.50	293.00	293.00	291.50	290.00	287.50	286.00	284.00	280.50	279.00	276.00	275.00	272.50	271.00	273.00	275.00	276.50	279.00	281.50	284.00	285.00	287.00	288.50	290.00	291.50	292.50	293.00	294.00	295.50	297.00	298.50	299.50	300.50	301.00	302.00	302.00	303.00	303.00	303.00	303.00	303.00	303.00	302.00	302.00	300.50	299.00
586.00	584.00	582.50	581.00	580.00	577.50	576.00	573.00	569.50	567.00	564.00	560.00	557.50	554.50	546.50	542.00	536.00	533.00	529.00	526.00	523.50	523.00	523.00	524.00	523.00	522.00	521.00	521.00	521.00	521.00	521.00	521.50	522.00	523.00	521.50	520.00	518.00	516.00	514.50	510.50	508.00	504.00	501.00	495.00	490.50	481.50	476.50	472.00	465.00	457.50	450.00	446.00	439.00	435.00	429.00	422.00	418.00	412.00	406.00	402.00	398.50	392.50	389.50	385.00	382.00	379.00	376.00	372.50	371.00	369.00	367.00	365.50	365.00	365.00	365.50	366.00	367.00	368.50	369.50	371.00	372.00	374.50	377.00	379.50	381.00	382.50	385.00	386.00	387.00	387.00	387.00	387.00	386.00	385.00	384.50	383.00	382.00	380.00	379.00	377.50	376.50	375.00	371.00	369.00	366.00	364.00	362.00	360.00	356.00	354.50	353.00	350.00	347.00	344.00	341.00	339.00	337.00	333.00	330.00	327.00	325.00	323.00	321.00	318.50	316.00	314.50	312.00	310.00	307.00	305.00	302.50	301.00	299.00	297.00	295.00	293.00	291.00	289.50	288.00	286.00	284.50	283.50	282.00	282.00	280.50	278.00	276.50	275.50	274.00	272.00	271.00	272.00	272.00	272.00	272.00	272.00	272.00	271.50	271.00	272.50	274.00	275.00	276.00	276.50	278.00	279.00	279.50	281.00	282.50	283.50	284.50	286.50	287.50	289.00	290.00	291.50	292.00	293.50	294.50	295.00	296.00	296.50	297.00	298.00	299.00	299.50	300.50	301.00	301.50	302.00	303.00	303.00	304.00	304.00	304.50	305.00	305.00	305.00	304.00	304.00	303.50	302.50	301.50	300.50	299.50	298.00	297.50	297.00	296.00	295.00	294.50	293.00	293.00	291.50	290.00	287.50	286.00	284.00	280.50	279.00	276.00	275.00	272.50	271.00	273.00	275.00	276.50	279.00	281.50	284.00	285.00	287.00	288.50	290.00	291.50	292.50	293.00	294.00	295.50	297.00	298.50	299.50	300.50	301.00	302.00	302.00	303.00	303.00	303.00	303.00	303.00	303.00	302.00	302.00	300.50	299.00
584.00	582.50	581.00	579.00	578.00	575.75	574.25	572.00	568.25	566.00	562.50	558.00	554.75	551.00	542.50	537.75	531.00	527.50	524.50	522.00	520.75	521.25	521.75	523.00	523.00	522.50	522.00	522.50	522.50	522.75	523.00	523.25	523.50	524.00	523.00	522.00	520.00	518.00	516.00	510.75	507.75	503.50	500.00	494.25	490.25	481.75	477.25	472.75	465.50	458.50	451.00	446.50	439.75	435.25	429.00	421.75	417.50	411.50	405.50	401.50	398.00	391.50	388.50	384.00	381.00	377.50	375.00	373.00	371.75	370.50	369.00	368.00	367.50	367.50	367.75	368.25	370.00	372.00	373.25	375.00	376.50	379.25	381.50	384.25	385.75	387.25	389.50	390.75	391.50	392.00	392.00	392.25	391.50	390.50	390.00	388.00	387.00	384.00	383.00	380.75	379.25	377.50	373.50	371.50	368.50	366.50	364.00	362.00	357.75	355.75	354.00	351.00	348.00	345.00	342.25	340.50	338.50	335.00	332.50	329.50	328.00	325.50	323.75	321.50	319.00	317.50	315.50	313.50	311.00	309.00	306.25	304.75	303.00	301.00	299.25	297.00	295.50	293.75	292.25	290.50	289.00	288.00	286.50	286.00	284.75	282.50	281.00	280.00	279.00	277.50	276.25	276.00	275.50	275.25	275.00	274.50	274.75	274.75	275.00	275.75	276.50	277.00	278.00	278.50	279.50	280.75	281.50	283.00	284.50	285.50	286.50	288.50	289.50	291.00	292.00	293.50	294.50	295.75	296.50	297.25	298.50	299.50	300.50	301.50	302.75	303.25	304.25	305.00	305.50	306.50	307.00	307.50	308.50	308.75	309.25	309.75	310.00	310.25	310.00	310.00	310.00	309.75	308.50	307.50	306.50	305.50	304.50	304.00	303.00	301.75	300.75	299.00	298.50	296.50	294.50	292.00	290.50	288.50	285.00	283.75	282.00	281.50	280.25	280.00	281.75	283.25	284.50	286.50	288.50	290.00	291.00	292.50	293.50	294.75	296.00	297.00	297.50	298.50	299.75	301.00	302.25	303.00	303.75	304.50	305.00	305.50	306.00	305.50	305.25	304.75	304.50	304.25	303.00	303.00	301.50	300.00
582.00	581.00	579.50	577.00	576.00	574.00	572.50	571.00	567.00	565.00	561.00	556.00	552.00	547.50	538.50	533.50	526.00	522.00	520.00	518.00	518.00	519.50	520.50	522.00	523.00	523.00	523.00	524.00	524.00	524.50	525.00	525.00	525.00	525.00	524.50	524.00	522.00	520.00	517.50	511.00	507.50	503.00	499.00	493.50	490.00	482.00	478.00	473.50	466.00	459.50	452.00	447.00	440.50	435.50	429.00	421.50	417.00	411.00	405.00	401.00	397.50	390.50	387.50	383.00	380.00	376.00	374.00	373.50	372.50	372.00	371.00	370.50	370.00	370.00	370.00	370.50	373.00	375.50	377.00	379.00	381.00	384.00	386.00	389.00	390.50	392.00	394.00	395.50	396.00	397.00	397.00	397.50	397.00	396.00	395.50	393.00	392.00	388.00	387.00	384.00	382.00	380.00	376.00	374.00	371.00	369.00	366.00	364.00	359.50	357.00	355.00	352.00	349.00	346.00	343.50	342.00	340.00	337.00	335.00	332.00	331.00	328.00	326.50	324.50	322.00	320.50	319.00	317.00	315.00	313.00	310.00	308.50	307.00	305.00	303.50	301.00	300.00	298.00	296.50	295.00	293.50	292.50	291.00	290.00	289.00	287.00	285.50	284.50	284.00	283.00	281.50	280.00	279.00	278.50	278.00	277.00	277.50	278.00	279.00	279.00	279.00	279.00	280.00	280.50	281.00	282.50	283.50	285.00	286.50	287.50	288.50	290.50	291.50	293.00	294.00	295.50	297.00	298.00	298.50	299.50	301.00	302.50	304.00	305.00	306.50	307.00	308.00	309.00	309.50	311.00	311.00	312.00	313.00	313.50	314.00	314.50	315.00	315.50	316.00	316.00	316.50	317.00	315.50	314.50	313.50	313.00	311.50	311.00	310.00	308.50	307.00	305.00	304.00	301.50	299.00	296.50	295.00	293.00	289.50	288.50	288.00	288.00	288.00	289.00	290.50	291.50	292.50	294.00	295.50	296.00	297.00	298.00	298.50	299.50	300.50	301.50	302.00	303.00	304.00	305.00	306.00	306.50	307.00	308.00	308.00	309.00	309.00	308.00	307.50	306.50	306.00	305.50	304.00	304.00	302.50	301.00
582.00	581.00	579.50	577.00	576.00	574.00	572.50	571.00	567.00	565.00	561.00	556.00	552.00	547.50	538.50	533.50	526.00	522.00	520.00	518.00	518.00	519.50	520.50	522.00	523.00	523.00	523.00	524.00	524.00	524.50	525.00	525.00	525.00	525.00	524.50	524.00	522.00	520.00	517.50	511.00	507.50	503.00	499.00	493.50	490.00	482.00	478.00	473.50	466.00	459.50	452.00	447.00	440.50	435.50	429.00	421.50	417.00	411.00	405.00	401.00	397.50	390.50	387.50	383.00	380.00	376.00	374.00	373.50	372.50	372.00	371.00	370.50	370.00	370.00	370.00	370.50	373.00	375.50	377.00	379.00	381.00	384.00	386.00	389.00	390.50	392.00	394.00	395.50	396.00	397.00	397.00	397.50	397.00	396.00	395.50	393.00	392.00	388.00	387.00	384.00	382.00	380.00	376.00	374.00	371.00	369.00	366.00	364.00	359.50	357.00	355.00	352.00	349.00	346.00	343.50	342.00	340.00	337.00	335.00	332.00	331.00	328.00	326.50	324.50	322.00	320.50	319.00	317.00	315.00	313.00	310.00	308.50	307.00	305.00	303.50	301.00	300.00	298.00	296.50	295.00	293.50	292.50	291.00	290.00	289.00	287.00	285.50	284.50	284.00	283.00	281.50	280.00	279.00	278.50	278.00	277.00	277.50	278.00	279.00	279.00	279.00	279.00	280.00	280.50	281.00	282.50	283.50	285.00	286.50	287.50	288.50	290.50	291.50	293.00	294.00	295.50	297.00	298.00	298.50	299.50	301.00	302.50	304.00	305.00	306.50	307.00	308.00	309.00	309.50	311.00	311.00	312.00	313.00	313.50	314.00	314.50	315.00	315.50	316.00	316.00	316.50	317.00	315.50	314.50	313.50	313.00	311.50	311.00	310.00	308.50	307.00	305.00	304.00	301.50	299.00	296.50	295.00	293.00	289.50	288.50	288.00	288.00	288.00	289.00	290.50	291.50	292.50	294.00	295.50	296.00	297.00	298.00	298.50	299.50	300.50	301.50	302.00	303.00	304.00	305.00	306.00	306.50	307.00	308.00	308.00	309.00	309.00	308.00	307.50	306.50	306.00	305.50	304.00	304.00	302.50	301.00
582.00	581.00	579.50	577.00	576.00	574.00	572.50	571.00	567.00	565.00	561.00	556.00	552.00	547.50	538.50	533.50	526.00	522.00	520.00	518.00	518.00	519.50	520.50	522.00	523.00	523.00	523.00	524.00	524.00	524.50	525.00	525.00	525.00	525.00	524.50	524.00	522.00	520.00	517.50	511.00	507.50	503.00	499.00	493.50	490.00	482.00	478.00	473.50	466.00	459.50	452.00	447.00	440.50	435.50	429.00	421.50	417.00	411.00	405.00	401.00	397.50	390.50	387.50	383.00	380.00	376.00	374.00	373.50	372.50	372.00	371.00	370.50	370.00	370.00	370.00	370.50	373.00	375.50	377.00	379.00	381.00	384.00	386.00	389.00	390.50	392.00	394.00	395.50	396.00	397.00	397.00	397.50	397.00	396.00	395.50	393.00	392.00	388.00	387.00	384.00	382.00	380.00	376.00	374.00	371.00	369.00	366.00	364.00	359.50	357.00	355.00	352.00	349.00	346.00	343.50	342.00	340.00	337.00	335.00	332.00	331.00	328.00	326.50	324.50	322.00	320.50	319.00	317.00	315.00	313.00	310.00	308.50	307.00	305.00	303.50	301.00	300.00	298.00	296.50	295.00	293.50	292.50	291.00	290.00	289.00	287.00	285.50	284.50	284.00	283.00	281.50	280.00	279.00	278.50	278.00	277.00	277.50	278.00	279.00	279.00	279.00	279.00	280.00	280.50	281.00	282.50	283.50	285.00	286.50	287.50	288.50	290.50	291.50	293.00	294.00	295.50	297.00	298.00	298.50	299.50	301.00	302.50	304.00	305.00	306.50	307.00	308.00	309.00	309.50	311.00	311.00	312.00	313.00	313.50	314.00	314.50	315.00	315.50	316.00	316.00	316.50	317.00	315.50	314.50	313.50	313.00	311.50	311.00	310.00	308.50	307.00	305.00	304.00	301.50	299.00	296.50	295.00	293.00	289.50	288.50	288.00	288.00	288.00	289.00	290.50	291.50	292.50	294.00	295.50	296.00	297.00	298.00	298.50	299.50	300.50	301.50	302.00	303.00	304.00	305.00	306.00	306.50	307.00	308.00	308.00	309.00	309.00	308.00	307.50	306.50	306.00	305.50	304.00	304.00	302.50	301.00
582.00	581.00	579.50	577.00	576.00	574.00	572.50	571.00	567.00	565.00	561.00	556.00	552.00	547.50	538.50	533.50	526.00	522.00	520.00	518.00	518.00	519.50	520.50	522.00	523.00	523.00	523.00	524.00	524.00	524.50	525.00	525.00	525.00	525.00	524.50	524.00	522.00	520.00	517.50	511.00	507.50	503.00	499.00	493.50	490.00	482.00	478.00	473.50	466.00	459.50	452.00	447.00	440.50	435.50	429.00	421.50	417.00	411.00	405.00	401.00	397.50	390.50	387.50	383.00	380.00	376.00	374.00	373.50	372.50	372.00	371.00	370.50	370.00	370.00	370.00	370.50	373.00	375.50	377.00	379.00	381.00	384.00	386.00	389.00	390.50	392.00	394.00	395.50	396.00	397.00	397.00	397.50	397.00	396.00	395.50	393.00	392.00	388.00	387.00	384.00	382.00	380.00	376.00	374.00	371.00	369.00	366.00	364.00	359.50	357.00	355.00	352.00	349.00	346.00	343.50	342.00	340.00	337.00	335.00	332.00	331.00	328.00	326.50	324.50	322.00	320.50	319.00	317.00	315.00	313.00	310.00	308.50	307.00	305.00	303.50	301.00	300.00	298.00	296.50	295.00	293.50	292.50	291.00	290.00	289.00	287.00	285.50	284.50	284.00	283.00	281.50	280.00	279.00	278.50	278.00	277.00	277.50	278.00	279.00	279.00	279.00	279.00	280.00	280.50	281.00	282.50	283.50	285.00	286.50	287.50	288.50	290.50	291.50	293.00	294.00	295.50	297.00	298.00	298.50	299.50	301.00	302.50	304.00	305.00	306.50	307.00	308.00	309.00	309.50	311.00	311.00	312.00	313.00	313.50	314.00	314.50	315.00	315.50	316.00	316.00	316.50	317.00	315.50	314.50	313.50	313.00	311.50	311.00	310.00	308.50	307.00	305.00	304.00	301.50	299.00	296.50	295.00	293.00	289.50	288.50	288.00	288.00	288.00	289.00	290.50	291.50	292.50	294.00	295.50	296.00	297.00	298.00	298.50	299.50	300.50	301.50	302.00	303.00	304.00	305.00	306.00	306.50	307.00	308.00	308.00	309.00	309.00	308.00	307.50	306.50	306.00	305.50	304.00	304.00	302.50	301.00
582.00	581.00	579.50	577.00	576.00	574.00	572.50	571.00	567.00	565.00	561.00	556.00	552.00	547.50	538.50	533.50	526.00	522.00	520.00	518.00	518.00	519.50	520.50	522.00	523.00	523.00	523.00	524.00	524.00	524.50	525.00	525.00	525.00	525.00	524.50	524.00	522.00	520.00	517.50	511.00	507.50	503.00	499.00	493.50	490.00	482.00	478.00	473.50	466.00	459.50	452.00	447.00	440.50	435.50	429.00	421.50	417.00	411.00	405.00	401.00	397.50	390.50	387.50	383.00	380.00	376.00	374.00	373.50	372.50	372.00	371.00	370.50	370.00	370.00	370.00	370.50	373.00	375.50	377.00	379.00	381.00	384.00	386.00	389.00	390.50	392.00	394.00	395.50	396.00	397.00	397.00	397.50	397.00	396.00	395.50	393.00	392.00	388.00	387.00	384.00	382.00	380.00	376.00	374.00	371.00	369.00	366.00	364.00	359.50	357.00	355.00	352.00	349.00	346.00	343.50	342.00	340.00	337.00	335.00	332.00	331.00	328.00	326.50	324.50	322.00	320.50	319.00	317.00	315.00	313.00	310.00	308.50	307.00	305.00	303.50	301.00	300.00	298.00	296.50	295.00	293.50	292.50	291.00	290.00	289.00	287.00	285.50	284.50	284.00	283.00	281.50	280.00	279.00	278.50	278.00	277.00	277.50	278.00	279.00	279.00	279.00	279.00	280.00	280.50	281.00	282.50	283.50	285.00	286.50	287.50	288.50	290.50	291.50	293.00	294.00	295.50	297.00	298.00	298.50	299.50	301.00	302.50	304.00	305.00	306.50	307.00	308.00	309.00	309.50	311.00	311.00	312.00	313.00	313.50	314.00	314.50	315.00	315.50	316.00	316.00	316.50	317.00	315.50	314.50	313.50	313.00	311.50	311.00	310.00	308.50	307.00	305.00	304.00	301.50	299.00	296.50	295.00	293.00	289.50	288.50	288.00	288.00	288.00	289.00	290.50	291.50	292.50	294.00	295.50	296.00	297.00	298.00	298.50	299.50	300.50	301.50	302.00	303.00	304.00	305.00	306.00	306.50	307.00	308.00	308.00	309.00	309.00	308.00	307.50	306.50	306.00	305.50	304.00	304.00	302.50	301.00
578.75	577.50	576.00	574.00	572.50	570.75	569.50	568.00	564.50	562.25	558.00	554.00	551.00	547.75	541.25	538.00	533.00	530.50	528.50	526.50	525.75	526.00	526.00	526.00	526.00	526.00	526.00	526.50	526.75	527.25	527.50	527.25	527.00	526.50	525.50	524.00	521.25	519.00	516.50	510.75	507.50	502.50	499.00	493.75	490.00	482.00	478.00	473.50	466.50	460.00	453.00	448.00	441.00	436.00	429.00	421.50	416.75	410.00	403.50	399.75	396.50	390.25	387.75	384.00	382.00	379.00	377.00	375.75	374.50	374.00	374.00	374.00	374.50	375.00	375.75	376.50	378.50	380.50	381.75	384.00	386.00	389.00	391.50	394.00	395.75	397.25	399.50	401.25	402.50	403.00	402.75	402.75	402.25	401.50	401.00	399.00	398.00	395.00	393.50	390.50	388.50	386.50	382.25	380.00	377.00	374.50	371.25	369.00	364.75	362.50	360.50	357.50	354.50	351.50	348.25	346.25	344.25	341.50	339.75	337.50	336.50	333.75	332.25	330.00	327.50	325.75	324.00	322.50	320.75	319.00	316.75	315.50	314.00	312.00	310.50	308.00	307.00	305.75	304.50	303.25	302.00	301.00	300.00	299.00	297.75	296.00	294.25	293.00	292.25	291.00	289.25	287.50	286.50	286.25	285.75	284.75	284.75	284.75	285.00	284.75	284.50	284.50	285.00	285.50	286.00	287.00	287.75	288.50	289.25	289.75	290.25	291.75	292.50	294.00	295.50	297.75	299.50	301.50	302.50	303.75	305.50	307.00	308.50	309.50	310.75	311.25	312.25	313.25	314.00	315.00	315.50	316.25	317.00	317.75	318.25	318.75	319.50	319.75	320.50	320.50	320.75	321.00	320.25	319.50	318.75	318.00	317.00	316.50	315.50	313.75	312.25	310.50	309.50	307.00	305.00	302.50	301.00	299.25	296.50	295.50	294.50	294.50	294.50	295.00	296.00	296.75	297.50	299.00	300.00	301.00	301.50	302.50	302.75	303.25	304.00	304.75	305.50	306.50	307.25	308.50	309.00	309.25	309.50	310.00	310.00	310.00	310.00	309.25	308.75	308.00	307.25	306.50	305.50	305.00	303.75	302.50
575.50	574.00	572.50	571.00	569.00	567.50	566.50	565.00	562.00	559.50	555.00	552.00	550.00	548.00	544.00	542.50	540.00	539.00	537.00	535.00	533.50	532.50	531.50	530.00	529.00	529.00	529.00	529.00	529.50	530.00	530.00	529.50	529.00	528.00	526.50	524.00	520.50	518.00	515.50	510.50	507.50	502.00	499.00	494.00	490.00	482.00	478.00	473.50	467.00	460.50	454.00	449.00	441.50	436.50	429.00	421.50	416.50	409.00	402.00	398.50	395.50	390.00	388.00	385.00	384.00	382.00	380.00	378.00	376.50	376.00	377.00	377.50	379.00	380.00	381.50	382.50	384.00	385.50	386.50	389.00	391.00	394.00	397.00	399.00	401.00	402.50	405.00	407.00	409.00	409.00	408.50	408.00	407.50	407.00	406.50	405.00	404.00	402.00	400.00	397.00	395.00	393.00	388.50	386.00	383.00	380.00	376.50	374.00	370.00	368.00	366.00	363.00	360.00	357.00	353.00	350.50	348.50	346.00	344.50	343.00	342.00	339.50	338.00	335.50	333.00	331.00	329.00	328.00	326.50	325.00	323.50	322.50	321.00	319.00	317.50	315.00	314.00	313.50	312.50	311.50	310.50	309.50	309.00	308.00	306.50	305.00	303.00	301.50	300.50	299.00	297.00	295.00	294.00	294.00	293.50	292.50	292.00	291.50	291.00	290.50	290.00	290.00	290.00	290.50	291.00	291.50	292.00	292.00	292.00	292.00	292.00	293.00	293.50	295.00	297.00	300.00	302.00	305.00	306.50	308.00	310.00	311.50	313.00	314.00	315.00	315.50	316.50	317.50	318.50	319.00	320.00	320.50	321.00	322.00	322.50	323.00	324.00	324.00	325.00	325.00	325.00	325.00	325.00	324.50	324.00	323.00	322.50	322.00	321.00	319.00	317.50	316.00	315.00	312.50	311.00	308.50	307.00	305.50	303.50	302.50	301.00	301.00	301.00	301.00	301.50	302.00	302.50	304.00	304.50	306.00	306.00	307.00	307.00	307.00	307.50	308.00	309.00	310.00	310.50	312.00	312.00	312.00	312.00	312.00	312.00	311.00	311.00	310.50	310.00	309.50	308.50	307.50	307.00	306.00	305.00	304.00
575.50	574.00	572.50	571.00	569.00	567.50	566.50	565.00	562.00	559.50	555.00	552.00	550.00	548.00	544.00	542.50	540.00	539.00	537.00	535.00	533.50	532.50	531.50	530.00	529.00	529.00	529.00	529.00	529.50	530.00	530.00	529.50	529.00	528.00	526.50	524.00	520.50	518.00	515.50	510.50	507.50	502.00	499.00	494.00	490.00	482.00	478.00	473.50	467.00	460.50	454.00	449.00	441.50	436.50	429.00	421.50	416.50	409.00	402.00	398.50	395.50	390.00	388.00	385.00	384.00	382.00	380.00	378.00	376.50	376.00	377.00	377.50	379.00	380.00	381.50	382.50	384.00	385.50	386.50	389.00	391.00	394.00	397.00	399.00	401.00	402.50	405.00	407.00	409.00	409.00	408.50	408.00	407.50	407.00	406.50	405.00	404.00	402.00	400.00	397.00	395.00	393.00	388.50	386.00	383.00	380.00	376.50	374.00	370.00	368.00	366.00	363.00	360.00	357.00	353.00	350.50	348.50	346.00	344.50	343.00	342.00	339.50	338.00	335.50	333.00	331.00	329.00	328.00	326.50	325.00	323.50	322.50	321.00	319.00	317.50	315.00	314.00	313.50	312.50	311.50	310.50	309.50	309.00	308.00	306.50	305.00	303.00	301.50	300.50	299.00	297.00	295.00	294.00	294.00	293.50	292.50	292.00	291.50	291.00	290.50	290.00	290.00	290.00	290.50	291.00	291.50	292.00	292.00	292.00	292.00	292.00	293.00	293.50	295.00	297.00	300.00	302.00	305.00	306.50	308.00	310.00	311.50	313.00	314.00	315.00	315.50	316.50	317.50	318.50	319.00	320.00	320.50	321.00	322.00	322.50	323.00	324.00	324.00	325.00	325.00	325.00	325.00	325.00	324.50	324.00	323.00	322.50	322.00	321.00	319.00	317.50	316.00	315.00	312.50	311.00	308.50	307.00	305.50	303.50	302.50	301.00	301.00	301.00	301.00	301.50	302.00	302.50	304.00	304.50	306.00	306.00	307.00	307.00	307.00	307.50	308.00	309.00	310.00	310.50	312.00	312.00	312.00	312.00	312.00	312.00	311.00	311.00	310.50	310.00	309.50	308.50	307.50	307.00	306.00	305.00	304.00
575.50	574.00	572.50	571.00	569.00	567.50	566.50	565.00	562.00	559.50	555.00	552.00	550.00	548.00	544.00	542.50	540.00	539.00	537.00	535.00	533.50	532.50	531.50	530.00	529.00	529.00	529.00	529.00	529.50	530.00	530.00	529.50	529.00	528.00	526.50	524.00	520.50	518.00	515.50	510.50	507.50	502.00	499.00	494.00	490.00	482.00	478.00	473.50	467.00	460.50	454.00	449.00	441.50	436.50	429.00	421.50	416.50	409.00	402.00	398.50	395.50	390.00	388.00	385.00	384.00	382.00	380.00	378.00	376.50	376.00	377.00	377.50	379.00	380.00	381.50	382.50	384.00	385.50	386.50	389.00	391.00	394.00	397.00	399.00	401.00	402.50	405.00	407.00	409.00	409.00	408.50	408.00	407.50	407.00	406.50	405.00	404.00	402.00	400.00	397.00	395.00	393.00	388.50	386.00	383.00	380.00	376.50	374.00	370.00	368.00	366.00	363.00	360.00	357.00	353.00	350.50	348.50	346.00	344.50	343.00	342.00	339.50	338.00	335.50	333.00	331.00	329.00	328.00	326.50	325.00	323.50	322.50	321.00	319.00	317.50	315.00	314.00	313.50	312.50	311.50	310.50	309.50	309.00	308.00	306.50	305.00	303.00	301.50	300.50	299.00	297.00	295.00	294.00	294.00	293.50	292.50	292.00	291.50	291.00	290.50	290.00	290.00	290.00	290.50	291.00	291.50	292.00	292.00	292.00	292.00	292.00	293.00	293.50	295.00	297.00	300.00	302.00	305.00	306.50	308.00	310.00	311.50	313.00	314.00	315.00	315.50	316.50	317.50	318.50	319.00	320.00	320.50	321.00	322.00	322.50	323.00	324.00	324.00	325.00	325.00	325.00	325.00	325.00	324.50	324.00	323.00	322.50	322.00	321.00	319.00	317.50	316.00	315.00	312.50	311.00	308.50	307.00	305.50	303.50	302.50	301.00	301.00	301.00	301.00	301.50	302.00	302.50	304.00	304.50	306.00	306.00	307.00	307.00	307.00	307.50	308.00	309.00	310.00	310.50	312.00	312.00	312.00	312.00	312.00	312.00	311.00	311.00	310.50	310.00	309.50	308.50	307.50	307.00	306.00	305.00	304.00
575.50	574.00	572.50	571.00	569.00	567.50	566.50	565.00	562.00	559.50	555.00	552.00	550.00	548.00	544.00	542.50	540.00	539.00	537.00	535.00	533.50	532.50	531.50	530.00	529.00	529.00	529.00	529.00	529.50	530.00	530.00	529.50	529.00	528.00	526.50	524.00	520.50	518.00	515.50	510.50	507.50	502.00	499.00	494.00	490.00	482.00	478.00	473.50	467.00	460.50	454.00	449.00	441.50	436.50	429.00	421.50	416.50	409.00	402.00	398.50	395.50	390.00	388.00	385.00	384.00	382.00	380.00	378.00	376.50	376.00	377.00	377.50	379.00	380.00	381.50	382.50	384.00	385.50	386.50	389.00	391.00	394.00	397.00	399.00	401.00	402.50	405.00	407.00	409.00	409.00	408.50	408.00	407.50	407.00	406.50	405.00	404.00	402.00	400.00	397.00	395.00	393.00	388.50	386.00	383.00	380.00	376.50	374.00	370.00	368.00	366.00	363.00	360.00	357.00	353.00	350.50	348.50	346.00	344.50	343.00	342.00	339.50	338.00	335.50	333.00	331.00	329.00	328.00	326.50	325.00	323.50	322.50	321.00	319.00	317.50	315.00	314.00	313.50	312.50	311.50	310.50	309.50	309.00	308.00	306.50	305.00	303.00	301.50	300.50	299.00	297.00	295.00	294.00	294.00	293.50	292.50	292.00	291.50	291.00	290.50	290.00	290.00	290.00	290.50	291.00	291.50	292.00	292.00	292.00	292.00	292.00	293.00	293.50	295.00	297.00	300.00	302.00	305.00	306.50	308.00	310.00	311.50	313.00	314.00	315.00	315.50	316.50	317.50	318.50	319.00	320.00	320.50	321.00	322.00	322.50	323.00	324.00	324.00	325.00	325.00	325.00	325.00	325.00	324.50	324.00	323.00	322.50	322.00	321.00	319.00	317.50	316.00	315.00	312.50	311.00	308.50	307.00	305.50	303.50	302.50	301.00	301.00	301.00	301.00	301.50	302.00	302.50	304.00	304.50	306.00	306.00	307.00	307.00	307.00	307.50	308.00	309.00	310.00	310.50	312.00	312.00	312.00	312.00	312.00	312.00	311.00	311.00	310.50	310.00	309.50	308.50	307.50	307.00	306.00	305.00	304.00
575.50	574.00	572.50	571.00	569.00	567.50	566.50	565.00	562.00	559.50	555.00	552.00	550.00	548.00	544.00	542.50	540.00	539.00	537.00	535.00	533.50	532.50	531.50	530.00	529.00	529.00	529.00	529.00	529.50	530.00	530.00	529.50	529.00	528.00	526.50	524.00	520.50	518.00	515.50	510.50	507.50	502.00	499.00	494.00	490.00	482.00	478.00	473.50	467.00	460.50	454.00	449.00	441.50	436.50	429.00	421.50	416.50	409.00	402.00	398.50	395.50	390.00	388.00	385.00	384.00	382.00	380.00	378.00	376.50	376.00	377.00	377.50	379.00	380.00	381.50	382.50	384.00	385.50	386.50	389.00	391.00	394.00	397.00	399.00	401.00	402.50	405.00	407.00	409.00	409.00	408.50	408.00	407.50	407.00	406.50	405.00	404.00	402.00	400.00	397.00	395.00	393.00	388.50	386.00	383.00	380.00	376.50	374.00	370.00	368.00	366.00	363.00	360.00	357.00	353.00	350.50	348.50	346.00	344.50	343.00	342.00	339.50	338.00	335.50	333.00	331.00	329.00	328.00	326.50	325.00	323.50	322.50	321.00	319.00	317.50	315.00	314.00	313.50	312.50	311.50	310.50	309.50	309.00	308.00	306.50	305.00	303.00	301.50	300.50	299.00	297.00	295.00	294.00	294.00	293.50	292.50	292.00	291.50	291.00	290.50	290.00	290.00	290.00	290.50	291.00	291.50	292.00	292.00	292.00	292.00	292.00	293.00	293.50	295.00	297.00	300.00	302.00	305.00	306.50	308.00	310.00	311.50	313.00	314.00	315.00	315.50	316.50	317.50	318.50	319.00	320.00	320.50	321.00	322.00	322.50	323.00	324.00	324.00	325.00	325.00	325.00	325.00	325.00	324.50	324.00	323.00	322.50	322.00	321.00	319.00	317.50	316.00	315.00	312.50	311.00	308.50	307.00	305.50	303.50	302.50	301.00	301.00	301.00	301.00	301.50	302.00	302.50	304.00	304.50	306.00	306.00	307.00	307.00	307.00	307.50	308.00	309.00	310.00	310.50	312.00	312.00	312.00	312.00	312.00	312.00	311.00	311.00	310.50	310.00	309.50	308.50	307.50	307.00	306.00	305.00	304.00
575.50	574.00	572.50	571.00	569.00	567.50	566.50	565.00	562.00	559.50	555.00	552.00	550.00	548.00	544.00	542.50	540.00	539.00	537.00	535.00	533.50	532.50	531.50	530.00	529.00	529.00	529.00	529.00	529.50	530.00	530.00	529.50	529.00	528.00	526.50	524.00	520.50	518.00	515.50	510.50	507.50	502.00	499.00	494.00	490.00	482.00	478.00	473.50	467.00	460.50	454.00	449.00	441.50	436.50	429.00	421.50	416.50	409.00	402.00	398.50	395.50	390.00	388.00	385.00	384.00	382.00	380.00	378.00	376.50	376.00	377.00	377.50	379.00	380.00	381.50	382.50	384.00	385.50	386.50	389.00	391.00	394.00	397.00	399.00	401.00	402.50	405.00	407.00	409.00	409.00	408.50	408.00	407.50	407.00	406.50	405.00	404.00	402.00	400.00	397.00	395.00	393.00	388.50	386.00	383.00	380.00	376.50	374.00	370.00	368.00	366.00	363.00	360.00	357.00	353.00	350.50	348.50	346.00	344.50	343.00	342.00	339.50	338.00	335.50	333.00	331.00	329.00	328.00	326.50	325.00	323.50	322.50	321.00	319.00	317.50	315.00	314.00	313.50	312.50	311.50	310.50	309.50	309.00	308.00	306.50	305.00	303.00	301.50	300.50	299.00	297.00	295.00	294.00	294.00	293.50	292.50	292.00	291.50	291.00	290.50	290.00	290.00	290.00	290.50	291.00	291.50	292.00	292.00	292.00	292.00	292.00	293.00	293.50	295.00	297.00	300.00	302.00	305.00	306.50	308.00	310.00	311.50	313.00	314.00	315.00	315.50	316.50	317.50	318.50	319.00	320.00	320.50	321.00	322.00	322.50	323.00	324.00	324.00	325.00	325.00	325.00	325.00	325.00	324.50	324.00	323.00	322.50	322.00	321.00	319.00	317.50	316.00	315.00	312.50	311.00	308.50	307.00	305.50	303.50	302.50	301.00	301.00	301.00	301.00	301.50	302.00	302.50	304.00	304.50	306.00	306.00	307.00	307.00	307.00	307.50	308.00	309.00	310.00	310.50	312.00	312.00	312.00	312.00	312.00	312.00	311.00	311.00	310.50	310.00	309.50	308.50	307.50	307.00	306.00	305.00	304.00
560.00	560.00	561.00	562.00	562.00	560.50	559.50	558.00	556.50	555.00	553.00	550.50	549.00	547.00	544.00	542.50	540.00	539.00	537.00	535.00	532.50	531.00	529.50	528.00	529.00	529.00	529.00	529.00	529.00	529.00	529.00	529.00	528.00	527.00	525.00	522.00	519.00	517.00	515.00	510.50	507.50	503.00	499.00	494.50	491.00	484.00	480.50	477.00	471.00	465.00	458.00	453.00	445.50	441.00	435.00	429.00	425.00	418.00	411.50	408.50	406.00	400.50	398.00	396.00	395.00	393.50	392.00	391.00	391.00	391.50	392.00	392.00	393.00	394.00	396.50	397.50	399.50	401.50	403.00	406.00	407.00	409.50	412.00	414.00	415.50	416.50	418.00	419.50	421.00	422.00	422.50	423.00	423.00	422.50	422.00	421.00	420.00	417.00	416.00	413.00	411.50	410.00	406.50	405.00	402.00	400.00	397.00	394.50	390.00	387.50	385.00	382.00	379.50	377.00	375.00	373.00	371.50	369.00	366.00	363.00	361.00	358.50	357.50	355.50	353.50	352.00	350.00	348.00	346.00	343.00	341.50	340.50	339.50	338.00	337.50	336.00	335.00	334.00	333.50	332.00	330.50	329.50	328.00	326.00	324.50	323.00	320.50	319.00	317.50	316.00	314.50	314.00	313.00	311.50	310.50	308.50	307.50	306.50	306.00	305.00	305.00	304.00	303.50	303.00	303.00	301.50	301.00	301.00	301.00	301.50	302.50	304.50	305.50	307.00	309.00	311.00	313.00	315.00	315.50	316.50	317.00	318.50	320.00	321.00	322.50	324.00	325.50	326.50	327.00	328.00	328.00	329.00	329.00	330.00	330.50	331.00	331.00	332.00	332.00	332.00	332.00	332.00	332.00	332.00	332.00	331.00	330.50	330.00	329.00	327.50	327.00	326.00	325.00	323.50	322.00	319.50	318.50	317.50	316.50	316.00	315.00	315.00	315.00	315.00	315.00	315.00	314.50	314.00	313.00	313.00	312.00	312.00	312.00	312.50	313.00	313.00	313.00	314.00	314.00	314.00	315.00	315.00	315.00	315.00	314.00	313.00	312.00	311.00	310.50	309.50	308.50	307.50	306.00	306.00	306.00	305.00
560.00	560.00	561.00	562.00	562.00	560.50	559.50	558.00	556.50	555.00	553.00	550.50	549.00	547.00	544.00	542.50	540.00	539.00	537.00	535.00	532.50	531.00	529.50	528.00	529.00	529.00	529.00	529.00	529.00	529.00	529.00	529.00	528.00	527.00	525.00	522.00	519.00	517.00	515.00	510.50	507.50	503.00	499.00	494.50	491.00	484.00	480.50	477.00	471.00	465.00	458.00	453.00	445.50	441.00	435.00	429.00	425.00	418.00	411.50	408.50	406.00	400.50	398.00	396.00	395.00	393.50	392.00	391.00	391.00	391.50	392.00	392.00	393.00	394.00	396.50	397.50	399.50	401.50	403.00	406.00	407.00	409.50	412.00	414.00	415.50	416.50	418.00	419.50	421.00	422.00	422.50	423.00	423.00	422.50	422.00	421.00	420.00	417.00	416.00	413.00	411.50	410.00	406.50	405.00	402.00	400.00	397.00	394.50	390.00	387.50	385.00	382.00	379.50	377.00	375.00	373.00	371.50	369.00	366.00	363.00	361.00	358.50	357.50	355.50	353.50	352.00	350.00	348.00	346.00	343.00	341.50	340.50	339.50	338.00	337.50	336.00	335.00	334.00	333.50	332.00	330.50	329.50	328.00	326.00	324.50	323.00	320.50	319.00	317.50	316.00	314.50	314.00	313.00	311.50	310.50	308.50	307.50	306.50	306.00	305.00	305.00	304.00	303.50	303.00	303.00	301.50	301.00	301.00	301.00	301.50	302.50	304.50	305.50	307.00	309.00	311.00	313.00	315.00	315.50	316.50	317.00	318.50	320.00	321.00	322.50	324.00	325.50	326.50	327.00	328.00	328.00	329.00	329.00	330.00	330.50	331.00	331.00	332.00	332.00	332.00	332.00	332.00	332.00	332.00	332.00	331.00	330.50	330.00	329.00	327.50	327.00	326.00	325.00	323.50	322.00	319.50	318.50	317.50	316.50	316.00	315.00	315.00	315.00	315.00	315.00	315.00	314.50	314.00	313.00	313.00	312.00	312.00	312.00	312.50	313.00	313.00	313.00	314.00	314.00	314.00	315.00	315.00	315.00	315.00	314.00	313.00	312.00	311.00	310.50	309.50	308.50	307.50	306.00	306.00	306.00	305.00
560.00	560.00	561.00	562.00	562.00	560.50	559.50	558.00	556.50	555.00	553.00	550.50	549.00	547.00	544.00	542.50	540.00	539.00	537.00	535.00	532.50	531.00	529.50	528.00	529.00	529.00	529.00	529.00	529.00	529.00	529.00	529.00	528.00	527.00	525.00	522.00	519.00	517.00	515.00	510.50	507.50	503.00	499.00	494.50	491.00	484.00	480.50	477.00	471.00	465.00	458.00	453.00	445.50	441.00	435.00	429.00	425.00	418.00	411.50	408.50	406.00	400.50	398.00	396.00	395.00	393.50	392.00	391.00	391.00	391.50	392.00	392.00	393.00	394.00	396.50	397.50	399.50	401.50	403.00	406.00	407.00	409.50	412.00	414.00	415.50	416.50	418.00	419.50	421.00	422.00	422.50	423.00	423.00	422.50	422.00	421.00	420.00	417.00	416.00	413.00	411.50	410.00	406.50	405.00	402.00	400.00	397.00	394.50	390.00	387.50	385.00	382.00	379.50	377.00	375.00	373.00	371.50	369.00	366.00	363.00	361.00	358.50	357.50	355.50	353.50	352.00	350.00	348.00	346.00	343.00	341.50	340.50	339.50	338.00	337.50	336.00	335.00	334.00	333.50	332.00	330.50	329.50	328.00	326.00	324.50	323.00	320.50	319.00	317.50	316.00	314.50	314.00	313.00	311.50	310.50	308.50	307.50	306.50	306.00	305.00	305.00	304.00	303.50	303.00	303.00	301.50	301.00	301.00	301.00	301.50	302.50	304.50	305.50	307.00	309.00	311.00	313.00	315.00	315.50	316.50	317.00	318.50	320.00	321.00	322.50	324.00	325.50	326.50	327.00	328.00	328.00	329.00	329.00	330.00	330.50	331.00	331.00	332.00	332.00	332.00	332.00	332.00	332.00	332.00	332.00	331.00	330.50	330.00	329.00	327.50	327.00	326.00	325.00	323.50	322.00	319.50	318.50	317.50	316.50	316.00	315.00	315.00	315.00	315.00	315.00	315.00	314.50	314.00	313.00	313.00	312.00	312.00	312.00	312.50	313.00	313.00	313.00	314.00	314.00	314.00	315.00	315.00	315.00	315.00	314.00	313.00	312.00	311.00	310.50	309.50	308.50	307.50	306.00	306.00	306.00	305.00
560.00	560.00	561.00	562.00	562.00	560.50	559.50	558.00	556.50	555.00	553.00	550.50	549.00	547.00	544.00	542.50	540.00	539.00	537.00	535.00	532.50	531.00	529.50	528.00	529.00	529.00	529.00	529.00	529.00	529.00	529.00	529.00	528.00	527.00	525.00	522.00	519.00	517.00	515.00	510.50	507.50	503.00	499.00	494.50	491.00	484.00	480.50	477.00	471.00	465.00	458.00	453.00	445.50	441.00	435.00	429.00	425.00	418.00	411.50	408.50	406.00	400.50	398.00	396.00	395.00	393.50	392.00	391.00	391.00	391.50	392.00	392.00	393.00	394.00	396.50	397.50	399.50	401.50	403.00	406.00	407.00	409.50	412.00	414.00	415.50	416.50	418.00	419.50	421.00	422.00	422.50	423.00	423.00	422.50	422.00	421.00	420.00	417.00	416.00	413.00	411.50	410.00	406.50	405.00	402.00	400.00	397.00	394.50	390.00	387.50	385.00	382.00	379.50	377.00	375.00	373.00	371.50	369.00	366.00	363.00	361.00	358.50	357.50	355.50	353.50	352.00	350.00	348.00	346.00	343.00	341.50	340.50	339.50	338.00	337.50	336.00	335.00	334.00	333.50	332.00	330.50	329.50	328.00	326.00	324.50	323.00	320.50	319.00	317.50	316.00	314.50	314.00	313.00	311.50	310.50	308.50	307.50	306.50	306.00	305.00	305.00	304.00	303.50	303.00	303.00	301.50	301.00	301.00	301.00	301.50	302.50	304.50	305.50	307.00	309.00	311.00	313.00	315.00	315.50	316.50	317.00	318.50	320.00	321.00	322.50	324.00	325.50	326.50	327.00	328.00	328.00	329.00	329.00	330.00	330.50	331.00	331.00	332.00	332.00	332.00	332.00	332.00	332.00	332.00	332.00	331.00	330.50	330.00	329.00	327.50	327.00	326.00	325.00	323.50	322.00	319.50	318.50	317.50	316.50	316.00	315.00	315.00	315.00	315.00	315.00	315.00	314.50	314.00	313.00	313.00	312.00	312.00	312.00	312.50	313.00	313.00	313.00	314.00	314.00	314.00	315.00	315.00	315.00	315.00	314.00	313.00	312.00	311.00	310.50	309.50	308.50	307.50	306.00	306.00	306.00	305.00
560.00	560.00	561.00	562.00	562.00	560.50	559.50	558.00	556.50	555.00	553.00	550.50	549.00	547.00	544.00	542.50	540.00	539.00	537.00	535.00	532.50	531.00	529.50	528.00	529.00	529.00	529.00	529.00	529.00	529.00	529.00	529.00	528.00	527.00	525.00	522.00	519.00	517.00	515.00	510.50	507.50	503.00	499.00	494.50	491.00	484.00	480.50	477.00	471.00	465.00	458.00	453.00	445.50	441.00	435.00	429.00	425.00	418.00	411.50	408.50	406.00	400.50	398.00	396.00	395.00	393.50	392.00	391.00	391.00	391.50	392.00	392.00	393.00	394.00	396.50	397.50	399.50	401.50	403.00	406.00	407.00	409.50	412.00	414.00	415.50	416.50	418.00	419.50	421.00	422.00	422.50	423.00	423.00	422.50	422.00	421.00	420.00	417.00	416.00	413.00	411.50	410.00	406.50	405.00	402.00	400.00	397.00	394.50	390.00	387.50	385.00	382.00	379.50	377.00	375.00	373.00	371.50	369.00	366.00	363.00	361.00	358.50	357.50	355.50	353.50	352.00	350.00	348.00	346.00	343.00	341.50	340.50	339.50	338.00	337.50	336.00	335.00	334.00	333.50	332.00	330.50	329.50	328.00	326.00	324.50	323.00	320.50	319.00	317.50	316.00	314.50	314.00	313.00	311.50	310.50	308.50	307.50	306.50	306.00	305.00	305.00	304.00	303.50	303.00	303.00	301.50	301.00	301.00	301.00	301.50	302.50	304.50	305.50	307.00	309.00	311.00	313.00	315.00	315.50	316.50	317.00	318.50	320.00	321.00	322.50	324.00	325.50	326.50	327.00	328.00	328.00	329.00	329.00	330.00	330.50	331.00	331.00	332.00	332.00	332.00	332.00	332.00	332.00	332.00	332.00	331.00	330.50	330.00	329.00	327.50	327.00	326.00	325.00	323.50	322.00	319.50	318.50	317.50	316.50	316.00	315.00	315.00	315.00	315.00	315.00	315.00	314.50	314.00	313.00	313.00	312.00	312.00	312.00	312.50	313.00	313.00	313.00	314.00	314.00	314.00	315.00	315.00	315.00	315.00	314.00	313.00	312.00	311.00	310.50	309.50	308.50	307.50	306.00	306.00	306.00	305.00
551.25	552.00	552.75	554.00	554.50	554.00	554.00	553.50	553.25	552.75	551.50	549.00	547.50	545.75	542.75	541.25	539.00	538.00	536.50	535.00	533.50	532.25	531.25	530.00	530.25	530.00	530.00	529.50	529.50	529.25	528.75	528.25	527.50	526.50	524.75	522.50	520.00	518.00	516.00	511.75	509.00	505.00	501.50	497.50	494.25	487.75	484.50	481.50	476.50	471.50	466.00	462.50	456.50	453.00	448.00	442.00	438.00	431.50	425.75	422.50	419.50	413.50	410.75	408.00	406.50	405.00	404.00	403.50	403.50	403.75	404.00	404.00	404.50	405.50	408.00	409.00	411.00	413.00	414.25	417.00	418.00	420.25	422.50	424.75	426.00	427.00	428.50	429.50	430.50	431.00	431.50	432.00	431.75	431.25	431.00	430.00	429.50	427.00	426.00	424.25	422.75	421.00	417.75	416.00	413.50	411.50	409.00	407.00	403.25	401.25	399.00	396.00	393.25	391.00	388.50	386.50	385.00	382.50	379.75	377.00	375.00	372.25	371.00	368.75	366.25	364.50	362.00	360.00	357.75	355.00	353.50	352.25	351.00	349.50	348.25	346.50	345.50	344.25	343.50	342.00	340.25	339.00	337.50	336.00	334.75	333.50	331.50	330.25	329.00	327.50	326.00	325.00	323.50	322.00	321.00	319.00	318.00	317.00	316.00	314.75	314.00	313.00	312.00	311.25	311.00	310.25	309.75	309.50	309.50	309.75	310.00	310.75	311.25	312.00	313.50	314.75	316.00	317.50	317.75	318.25	318.50	319.50	320.50	322.00	323.75	325.25	327.00	328.50	329.50	331.00	332.00	333.25	333.50	334.50	334.75	335.00	335.50	336.00	336.00	336.50	336.50	336.50	336.00	336.00	336.00	335.00	334.50	334.00	333.00	332.00	331.25	330.50	329.50	328.00	326.50	325.00	324.00	323.00	321.50	320.75	320.00	319.50	318.75	318.50	318.00	317.75	317.00	316.50	315.50	315.00	314.50	314.00	314.00	314.00	314.00	314.25	314.50	315.00	314.75	314.50	314.50	314.50	314.25	314.00	313.00	312.50	311.50	310.75	310.00	308.75	307.75	307.00	306.00	306.00	305.50	305.00
542.50	544.00	544.50	546.00	547.00	547.50	548.50	549.00	550.00	550.50	550.00	547.50	546.00	544.50	541.50	540.00	538.00	537.00	536.00	535.00	534.50	533.50	533.00	532.00	531.50	531.00	531.00	530.00	530.00	529.50	528.50	527.50	527.00	526.00	524.50	523.00	521.00	519.00	517.00	513.00	510.50	507.00	504.00	500.50	497.50	491.50	488.50	486.00	482.00	478.00	474.00	472.00	467.50	465.00	461.00	455.00	451.00	445.00	440.00	436.50	433.00	426.50	423.50	420.00	418.00	416.50	416.00	416.00	416.00	416.00	416.00	416.00	416.00	417.00	419.50	420.50	422.50	424.50	425.50	428.00	429.00	431.00	433.00	435.50	436.50	437.50	439.00	439.50	440.00	440.00	440.50	441.00	440.50	440.00	440.00	439.00	439.00	437.00	436.00	435.50	434.00	432.00	429.00	427.00	425.00	423.00	421.00	419.50	416.50	415.00	413.00	410.00	407.00	405.00	402.00	400.00	398.50	396.00	393.50	391.00	389.00	386.00	384.50	382.00	379.00	377.00	374.00	372.00	369.50	367.00	365.50	364.00	362.50	361.00	359.00	357.00	356.00	354.50	353.50	352.00	350.00	348.50	347.00	346.00	345.00	344.00	342.50	341.50	340.50	339.00	337.50	336.00	334.00	332.50	331.50	329.50	328.50	327.50	326.00	324.50	323.00	322.00	320.50	319.50	319.00	319.00	318.50	318.00	318.00	318.00	317.50	317.00	317.00	317.00	318.00	318.50	319.00	320.00	320.00	320.00	320.00	320.50	321.00	323.00	325.00	326.50	328.50	330.50	332.00	334.00	336.00	337.50	338.00	339.00	339.00	339.00	340.00	340.00	340.00	341.00	341.00	341.00	340.00	340.00	340.00	339.00	338.50	338.00	337.00	336.50	335.50	335.00	334.00	332.50	331.00	330.50	329.50	328.50	326.50	325.50	325.00	324.00	322.50	322.00	321.00	320.50	319.50	319.00	318.00	317.00	317.00	316.00	316.00	315.50	315.00	315.50	316.00	316.00	315.50	315.00	314.00	314.00	313.50	313.00	312.00	312.00	311.00	310.50	309.50	308.00	307.00	306.50	306.00	306.00	305.00	305.00
542.50	544.00	544.50	546.00	547.00	547.50	548.50	549.00	550.00	550.50	550.00	547.50	546.00	544.50	541.50	540.00	538.00	537.00	536.00	535.00	534.50	533.50	533.00	532.00	531.50	531.00	531.00	530.00	530.00	529.50	528.50	527.50	527.00	526.00	524.50	523.00	521.00	519.00	517.00	513.00	510.50	507.00	504.00	500.50	497.50	491.50	488.50	486.00	482.00	478.00	474.00	472.00	467.50	465.00	461.00	455.00	451.00	445.00	440.00	436.50	433.00	426.50	423.50	420.00	418.00	416.50	416.00	416.00	416.00	416.00	416.00	416.00	416.00	417.00	419.50	420.50	422.50	424.50	425.50	428.00	429.00	431.00	433.00	435.50	436.50	437.50	439.00	439.50	440.00	440.00	440.50	441.00	440.50	440.00	440.00	439.00	439.00	437.00	436.00	435.50	434.00	432.00	429.00	427.00	425.00	423.00	421.00	419.50	416.50	415.00	413.00	410.00	407.00	405.00	402.00	400.00	398.50	396.00	393.50	391.00	389.00	386.00	384.50	382.00	379.00	377.00	374.00	372.00	369.50	367.00	365.50	364.00	362.50	361.00	359.00	357.00	356.00	354.50	353.50	352.00	350.00	348.50	347.00	346.00	345.00	344.00	342.50	341.50	340.50	339.00	337.50	336.00	334.00	332.50	331.50	329.50	328.50	327.50	326.00	324.50	323.00	322.00	320.50	319.50	319.00	319.00	318.50	318.00	318.00	318.00	317.50	317.00	317.00	317.00	318.00	318.50	319.00	320.00	320.00	320.00	320.00	320.50	321.00	323.00	325.00	326.50	328.50	330.50	332.00	334.00	336.00	337.50	338.00	339.00	339.00	339.00	340.00	340.00	340.00	341.00	341.00	341.00	340.00	340.00	340.00	339.00	338.50	338.00	337.00	336.50	335.50	335.00	334.00	332.50	331.00	330.50	329.50	328.50	326.50	325.50	325.00	324.00	322.50	322.00	321.00	320.50	319.50	319.00	318.00	317.00	317.00	316.00	316.00	315.50	315.00	315.50	316.00	316.00	315.50	315.00	314.00	314.00	313.50	313.00	312.00	312.00	311.00	310.50	309.50	308.00	307.00	306.50	306.00	306.00	305.00	305.00
542.50	544.00	544.50	546.00	547.00	547.50	548.50	549.00	550.00	550.50	550.00	547.50	546.00	544.50	541.50	540.00	538.00	537.00	536.00	535.00	534.50	533.50	533.00	532.00	531.50	531.00	531.00	530.00	530.00	529.50	528.50	527.50	527.00	526.00	524.50	523.00	521.00	519.00	517.00	513.00	510.50	507.00	504.00	500.50	497.50	491.50	488.50	486.00	482.00	478.00	474.00	472.00	467.50	465.00	461.00	455.00	451.00	445.00	440.00	436.50	433.00	426.50	423.50	420.00	418.00	416.50	416.00	416.00	416.00	416.00	416.00	416.00	416.00	417.00	419.50	420.50	422.50	424.50	425.50	428.00	429.00	431.00	433.00	435.50	436.50	437.50	439.00	439.50	440.00	440.00	440.50	441.00	440.50	440.00	440.00	439.00	439.00	437.00	436.00	435.50	434.00	432.00	429.00	427.00	425.00	423.00	421.00	419.50	416.50	415.00	413.00	410.00	407.00	405.00	402.00	400.00	398.50	396.00	393.50	391.00	389.00	386.00	384.50	382.00	379.00	377.00	374.00	372.00	369.50	367.00	365.50	364.00	362.50	361.00	359.00	357.00	356.00	354.50	353.50	352.00	350.00	348.50	347.00	346.00	345.00	344.00	342.50	341.50	340.50	339.00	337.50	336.00	334.00	332.50	331.50	329.50	328.50	327.50	326.00	324.50	323.00	322.00	320.50	319.50	319.00	319.00	318.50	318.00	318.00	318.00	317.50	317.00	317.00	317.00	318.00	318.50	319.00	320.00	320.00	320.00	320.00	320.50	321.00	323.00	325.00	326.50	328.50	330.50	332.00	334.00	336.00	337.50	338.00	339.00	339.00	339.00	340.00	340.00	340.00	341.00	341.00	341.00	340.00	340.00	340.00	339.00	338.50	338.00	337.00	336.50	335.50	335.00	334.00	332.50	331.00	330.50	329.50	328.50	326.50	325.50	325.00	324.00	322.50	322.00	321.00	320.50	319.50	319.00	318.00	317.00	317.00	316.00	316.00	315.50	315.00	315.50	316.00	316.00	315.50	315.00	314.00	314.00	313.50	313.00	312.00	312.00	311.00	310.50	309.50	308.00	307.00	306.50	306.00	306.00	305.00	305.00
542.50	544.00	544.50	546.00	547.00	547.50	548.50	549.00	550.00	550.50	550.00	547.50	546.00	544.50	541.50	540.00	538.00	537.00	536.00	535.00	534.50	533.50	533.00	532.00	531.50	531.00	531.00	530.00	530.00	529.50	528.50	527.50	527.00	526.00	524.50	523.00	521.00	519.00	517.00	513.00	510.50	507.00	504.00	500.50	497.50	491.50	488.50	486.00	482.00	478.00	474.00	472.00	467.50	465.00	461.00	455.00	451.00	445.00	440.00	436.50	433.00	426.50	423.50	420.00	418.00	416.50	416.00	416.00	416.00	416.00	416.00	416.00	416.00	417.00	419.50	420.50	422.50	424.50	425.50	428.00	429.00	431.00	433.00	435.50	436.50	437.50	439.00	439.50	440.00	440.00	440.50	441.00	440.50	440.00	440.00	439.00	439.00	437.00	436.00	435.50	434.00	432.00	429.00	427.00	425.00	423.00	421.00	419.50	416.50	415.00	413.00	410.00	407.00	405.00	402.00	400.00	398.50	396.00	393.50	391.00	389.00	386.00	384.50	382.00	379.00	377.00	374.00	372.00	369.50	367.00	365.50	364.00	362.50	361.00	359.00	357.00	356.00	354.50	353.50	352.00	350.00	348.50	347.00	346.00	345.00	344.00	342.50	341.50	340.50	339.00	337.50	336.00	334.00	332.50	331.50	329.50	328.50	327.50	326.00	324.50	323.00	322.00	320.50	319.50	319.00	319.00	318.50	318.00	318.00	318.00	317.50	317.00	317.00	317.00	318.00	318.50	319.00	320.00	320.00	320.00	320.00	320.50	321.00	323.00	325.00	326.50	328.50	330.50	332.00	334.00	336.00	337.50	338.00	339.00	339.00	339.00	340.00	340.00	340.00	341.00	341.00	341.00	340.00	340.00	340.00	339.00	338.50	338.00	337.00	336.50	335.50	335.00	334.00	332.50	331.00	330.50	329.50	328.50	326.50	325.50	325.00	324.00	322.50	322.00	321.00	320.50	319.50	319.00	318.00	317.00	317.00	316.00	316.00	315.50	315.00	315.50	316.00	316.00	315.50	315.00	314.00	314.00	313.50	313.00	312.00	312.00	311.00	310.50	309.50	308.00	307.00	306.50	306.00	306.00	305.00	305.00
542.50	544.00	544.50	546.00	547.00	547.50	548.50	549.00	550.00	550.50	550.00	547.50	546.00	544.50	541.50	540.00	538.00	537.00	536.00	535.00	534.50	533.50	533.00	532.00	531.50	531.00	531.00	530.00	530.00	529.50	528.50	527.50	527.00	526.00	524.50	523.00	521.00	519.00	517.00	513.00	510.50	507.00	504.00	500.50	497.50	491.50	488.50	486.00	482.00	478.00	474.00	472.00	467.50	465.00	461.00	455.00	451.00	445.00	440.00	436.50	433.00	426.50	423.50	420.00	418.00	416.50	416.00	416.00	416.00	416.00	416.00	416.00	416.00	417.00	419.50	420.50	422.50	424.50	425.50	428.00	429.00	431.00	433.00	435.50	436.50	437.50	439.00	439.50	440.00	440.00	440.50	441.00	440.50	440.00	440.00	439.00	439.00	437.00	436.00	435.50	434.00	432.00	429.00	427.00	425.00	423.00	421.00	419.50	416.50	415.00	413.00	410.00	407.00	405.00	402.00	400.00	398.50	396.00	393.50	391.00	389.00	386.00	384.50	382.00	379.00	377.00	374.00	372.00	369.50	367.00	365.50	364.00	362.50	361.00	359.00	357.00	356.00	354.50	353.50	352.00	350.00	348.50	347.00	346.00	345.00	344.00	342.50	341.50	340.50	339.00	337.50	336.00	334.00	332.50	331.50	329.50	328.50	327.50	326.00	324.50	323.00	322.00	320.50	319.50	319.00	319.00	318.50	318.00	318.00	318.00	317.50	317.00	317.00	317.00	318.00	318.50	319.00	320.00	320.00	320.00	320.00	320.50	321.00	323.00	325.00	326.50	328.50	330.50	332.00	334.00	336.00	337.50	338.00	339.00	339.00	339.00	340.00	340.00	340.00	341.00	341.00	341.00	340.00	340.00	340.00	339.00	338.50	338.00	337.00	336.50	335.50	335.00	334.00	332.50	331.00	330.50	329.50	328.50	326.50	325.50	325.00	324.00	322.50	322.00	321.00	320.50	319.50	319.00	318.00	317.00	317.00	316.00	316.00	315.50	315.00	315.50	316.00	316.00	315.50	315.00	314.00	314.00	313.50	313.00	312.00	312.00	311.00	310.50	309.50	308.00	307.00	306.50	306.00	306.00	305.00	305.00
533.00	535.00	537.25	539.50	541.00	542.75	544.00	545.00	545.75	546.25	546.00	544.75	544.25	543.50	541.75	541.00	539.50	538.50	537.75	536.50	536.25	535.50	535.00	534.50	534.25	533.50	533.50	532.50	532.25	531.50	530.75	530.00	529.50	529.00	527.75	526.50	524.75	523.00	521.25	517.75	515.75	513.00	511.00	507.75	505.25	500.25	497.75	495.25	491.50	487.75	484.50	482.50	478.75	476.50	473.00	468.00	464.75	459.50	454.75	451.75	449.00	444.00	441.75	438.50	437.00	435.00	434.00	432.75	432.25	432.00	432.00	432.50	433.00	433.50	435.25	436.00	437.50	438.75	439.50	441.50	442.50	444.25	446.00	448.00	448.75	449.50	451.00	451.25	452.00	451.50	451.75	452.00	451.50	451.00	451.00	450.00	450.00	448.50	447.50	446.50	445.25	443.75	441.25	439.75	438.00	436.50	434.50	433.00	429.75	428.00	426.00	423.00	420.50	418.00	415.25	413.50	411.75	409.50	406.75	404.00	402.50	399.50	398.00	395.50	392.50	390.50	387.50	385.50	382.75	380.00	377.75	376.00	374.50	372.50	370.75	369.00	368.00	366.50	365.50	364.25	363.00	362.00	360.50	360.00	358.75	357.50	356.00	355.00	354.00	352.50	351.00	349.50	348.00	346.00	345.00	342.50	341.50	340.50	339.00	337.00	335.50	334.50	333.25	332.50	331.50	330.75	330.00	329.00	328.25	327.75	327.25	326.75	326.50	326.50	326.50	326.50	326.50	326.50	326.50	326.50	326.50	327.00	327.50	328.50	329.50	330.25	331.50	332.75	333.75	336.00	337.50	339.25	340.50	341.75	342.25	342.75	344.00	344.50	344.50	345.00	345.00	345.00	344.50	344.50	344.50	343.50	343.00	342.50	341.50	341.00	340.00	339.00	338.50	336.75	335.00	334.00	333.00	331.75	329.50	328.50	327.50	326.50	325.00	324.00	322.25	321.50	320.50	319.50	318.50	317.50	317.00	316.00	315.75	314.75	313.75	313.75	313.50	313.50	313.25	312.50	312.00	311.75	311.00	310.50	309.50	309.00	308.00	307.50	306.50	305.25	304.50	304.25	304.00	304.00	303.50	303.50
523.50	526.00	530.00	533.00	535.00	538.00	539.50	541.00	541.50	542.00	542.00	542.00	542.50	542.50	542.00	542.00	541.00	540.00	539.50	538.00	538.00	537.50	537.00	537.00	537.00	536.00	536.00	535.00	534.50	533.50	533.00	532.50	532.00	532.00	531.00	530.00	528.50	527.00	525.50	522.50	521.00	519.00	518.00	515.00	513.00	509.00	507.00	504.50	501.00	497.50	495.00	493.00	490.00	488.00	485.00	481.00	478.50	474.00	469.50	467.00	465.00	461.50	460.00	457.00	456.00	453.50	452.00	449.50	448.50	448.00	448.00	449.00	450.00	450.00	451.00	451.50	452.50	453.00	453.50	455.00	456.00	457.50	459.00	460.50	461.00	461.50	463.00	463.00	464.00	463.00	463.00	463.00	462.50	462.00	462.00	461.00	461.00	460.00	459.00	457.50	456.50	455.50	453.50	452.50	451.00	450.00	448.00	446.50	443.00	441.00	439.00	436.00	434.00	431.00	428.50	427.00	425.00	423.00	420.00	417.00	416.00	413.00	411.50	409.00	406.00	404.00	401.00	399.00	396.00	393.00	390.00	388.00	386.50	384.00	382.50	381.00	380.00	378.50	377.50	376.50	376.00	375.50	374.00	374.00	372.50	371.00	369.50	368.50	367.50	366.00	364.50	363.00	362.00	359.50	358.50	355.50	354.50	353.50	352.00	349.50	348.00	347.00	346.00	345.50	344.00	342.50	341.50	340.00	338.50	337.50	337.00	336.50	336.00	336.00	335.00	334.50	334.00	333.00	333.00	333.00	333.00	333.50	334.00	334.00	334.00	334.00	334.50	335.00	335.50	338.00	339.00	341.00	343.00	344.50	345.50	346.50	348.00	349.00	349.00	349.00	349.00	349.00	349.00	349.00	349.00	348.00	347.50	347.00	346.00	345.50	344.50	343.00	343.00	341.00	339.00	337.50	336.50	335.00	332.50	331.50	330.00	329.00	327.50	326.00	323.50	322.50	321.50	320.00	319.00	318.00	317.00	316.00	315.50	314.00	312.50	312.00	311.00	311.00	311.00	310.00	310.00	309.50	308.50	308.00	307.00	306.00	305.00	304.50	303.50	302.50	302.00	302.00	302.00	302.00	302.00	302.00
523.50	526.00	530.00	533.00	535.00	538.00	539.50	541.00	541.50	542.00	542.00	542.00	542.50	542.50	542.00	542.00	541.00	540.00	539.50	538.00	538.00	537.50	537.00	537.00	537.00	536.00	536.00	535.00	534.50	533.50	533.00	532.50	532.00	532.00	531.00	530.00	528.50	527.00	525.50	522.50	521.00	519.00	518.00	515.00	513.00	509.00	507.00	504.50	501.00	497.50	495.00	493.00	490.00	488.00	485.00	481.00	478.50	474.00	469.50	467.00	465.00	461.50	460.00	457.00	456.00	453.50	452.00	449.50	448.50	448.00	448.00	449.00	450.00	450.00	451.00	451.50	452.50	453.00	453.50	455.00	456.00	457.50	459.00	460.50	461.00	461.50	463.00	463.00	464.00	463.00	463.00	463.00	462.50	462.00	462.00	461.00	461.00	460.00	459.00	457.50	456.50	455.50	453.50	452.50	451.00	450.00	448.00	446.50	443.00	441.00	439.00	436.00	434.00	431.00	428.50	427.00	425.00	423.00	420.00	417.00	416.00	413.00	411.50	409.00	406.00	404.00	401.00	399.00	396.00	393.00	390.00	388.00	386.50	384.00	382.50	381.00	380.00	378.50	377.50	376.50	376.00	375.50	374.00	374.00	372.50	371.00	369.50	368.50	367.50	366.00	364.50	363.00	362.00	359.50	358.50	355.50	354.50	353.50	352.00	349.50	348.00	347.00	346.00	345.50	344.00	342.50	341.50	340.00	338.50	337.50	337.00	336.50	336.00	336.00	335.00	334.50	334.00	333.00	333.00	333.00	333.00	333.50	334.00	334.00	334.00	334.00	334.50	335.00	335.50	338.00	339.00	341.00	343.00	344.50	345.50	346.50	348.00	349.00	349.00	349.00	349.00	349.00	349.00	349.00	349.00	348.00	347.50	347.00	346.00	345.50	344.50	343.00	343.00	341.00	339.00	337.50	336.50	335.00	332.50	331.50	330.00	329.00	327.50	326.00	323.50	322.50	321.50	320.00	319.00	318.00	317.00	316.00	315.50	314.00	312.50	312.00	311.00	311.00	311.00	310.00	310.00	309.50	308.50	308.00	307.00	306.00	305.00	304.50	303.50	302.50	302.00	302.00	302.00	302.00	302.00	302.00
523.50	526.00	530.00	533.00	535.00	538.00	539.50	541.00	541.50	542.00	542.00	542.00	542.50	542.50	542.00	542.00	541.00	540.00	539.50	538.00	538.00	537.50	537.00	537.00	537.00	536.00	536.00	535.00	534.50	533.50	533.00	532.50	532.00	532.00	531.00	530.00	528.50	527.00	525.50	522.50	521.00	519.00	518.00	515.00	513.00	509.00	507.00	504.50	501.00	497.50	495.00	493.00	490.00	488.00	485.00	481.00	478.50	474.00	469.50	467.00	465.00	461.50	460.00	457.00	456.00	453.50	452.00	449.50	448.50	448.00	448.00	449.00	450.00	450.00	451.00	451.50	452.50	453.00	453.50	455.00	456.00	457.50	459.00	460.50	461.00	461.50	463.00	463.00	464.00	463.00	463.00	463.00	462.50	462.00	462.00	461.00	461.00	460.00	459.00	457.50	456.50	455.50	453.50	452.50	451.00	450.00	448.00	446.50	443.00	441.00	439.00	436.00	434.00	431.00	428.50	427.00	425.00	423.00	420.00	417.00	416.00	413.00	411.50	409.00	406.00	404.00	401.00	399.00	396.00	393.00	390.00	388.00	386.50	384.00	382.50	381.00	380.00	378.50	377.50	376.50	376.00	375.50	374.00	374.00	372.50	371.00	369.50	368.50	367.50	366.00	364.50	363.00	362.00	359.50	358.50	355.50	354.50	353.50	352.00	349.50	348.00	347.00	346.00	345.50	344.00	342.50	341.50	340.00	338.50	337.50	337.00	336.50	336.00	336.00	335.00	334.50	334.00	333.00	333.00	333.00	333.00	333.50	334.00	334.00	334.00	334.00	334.50	335.00	335.50	338.00	339.00	341.00	343.00	344.50	345.50	346.50	348.00	349.00	349.00	349.00	349.00	349.00	349.00	349.00	349.00	348.00	347.50	347.00	346.00	345.50	344.50	343.00	343.00	341.00	339.00	337.50	336.50	335.00	332.50	331.50	330.00	329.00	327.50	326.00	323.50	322.50	321.50	320.00	319.00	318.00	317.00	316.00	315.50	314.00	312.50	312.00	311.00	311.00	311.00	310.00	310.00	309.50	308.50	308.00	307.00	306.00	305.00	304.50	303.50	302.50	302.00	302.00	302.00	302.00	302.00	302.00
523.50	526.00	530.00	533.00	535.00	538.00	539.50	541.00	541.50	542.00	542.00	542.00	542.50	542.50	542.00	542.00	541.00	540.00	539.50	538.00	538.00	537.50	537.00	537.00	537.00	536.00	536.00	535.00	534.50	533.50	533.00	532.50	532.00	532.00	531.00	530.00	528.50	527.00	525.50	522.50	521.00	519.00	518.00	515.00	513.00	509.00	507.00	504.50	501.00	497.50	495.00	493.00	490.00	488.00	485.00	481.00	478.50	474.00	469.50	467.00	465.00	461.50	460.00	457.00	456.00	453.50	452.00	449.50	448.50	448.00	448.00	449.00	450.00	450.00	451.00	451.50	452.50	453.00	453.50	455.00	456.00	457.50	459.00	460.50	461.00	461.50	463.00	463.00	464.00	463.00	463.00	463.00	462.50	462.00	462.00	461.00	461.00	460.00	459.00	457.50	456.50	455.50	453.50	452.50	451.00	450.00	448.00	446.50	443.00	441.00	439.00	436.00	434.00	431.00	428.50	427.00	425.00	423.00	420.00	417.00	416.00	413.00	411.50	409.00	406.00	404.00	401.00	399.00	396.00	393.00	390.00	388.00	386.50	384.00	382.50	381.00	380.00	378.50	377.50	376.50	376.00	375.50	374.00	374.00	372.50	371.00	369.50	368.50	367.50	366.00	364.50	363.00	362.00	359.50	358.50	355.50	354.50	353.50	352.00	349.50	348.00	347.00	346.00	345.50	344.00	342.50	341.50	340.00	338.50	337.50	337.00	336.50	336.00	336.00	335.00	334.50	334.00	333.00	333.00	333.00	333.00	333.50	334.00	334.00	334.00	334.00	334.50	335.00	335.50	338.00	339.00	341.00	343.00	344.50	345.50	346.50	348.00	349.00	349.00	349.00	349.00	349.00	349.00	349.00	349.00	348.00	347.50	347.00	346.00	345.50	344.50	343.00	343.00	341.00	339.00	337.50	336.50	335.00	332.50	331.50	330.00	329.00	327.50	326.00	323.50	322.50	321.50	320.00	319.00	318.00	317.00	316.00	315.50	314.00	312.50	312.00	311.00	311.00	311.00	310.00	310.00	309.50	308.50	308.00	307.00	306.00	305.00	304.50	303.50	302.50	302.00	302.00	302.00	302.00	302.00	302.00
523.50	526.00	530.00	533.00	535.00	538.00	539.50	541.00	541.50	542.00	542.00	542.00	542.50	542.50	542.00	542.00	541.00	540.00	539.50	538.00	538.00	537.50	537.00	537.00	537.00	536.00	536.00	535.00	534.50	533.50	533.00	532.50	532.00	532.00	531.00	530.00	528.50	527.00	525.50	522.50	521.00	519.00	518.00	515.00	513.00	509.00	507.00	504.50	501.00	497.50	495.00	493.00	490.00	488.00	485.00	481.00	478.50	474.00	469.50	467.00	465.00	461.50	460.00	457.00	456.00	453.50	452.00	449.50	448.50	448.00	448.00	449.00	450.00	450.00	451.00	451.50	452.50	453.00	453.50	455.00	456.00	457.50	459.00	460.50	461.00	461.50	463.00	463.00	464.00	463.00	463.00	463.00	462.50	462.00	462.00	461.00	461.00	460.00	459.00	457.50	456.50	455.50	453.50	452.50	451.00	450.00	448.00	446.50	443.00	441.00	439.00	436.00	434.00	431.00	428.50	427.00	425.00	423.00	420.00	417.00	416.00	413.00	411.50	409.00	406.00	404.00	401.00	399.00	396.00	393.00	390.00	388.00	386.50	384.00	382.50	381.00	380.00	378.50	377.50	376.50	376.00	375.50	374.00	374.00	372.50	371.00	369.50	368.50	367.50	366.00	364.50	363.00	362.00	359.50	358.50	355.50	354.50	353.50	352.00	349.50	348.00	347.00	346.00	345.50	344.00	342.50	341.50	340.00	338.50	337.50	337.00	336.50	336.00	336.00	335.00	334.50	334.00	333.00	333.00	333.00	333.00	333.50	334.00	334.00	334.00	334.00	334.50	335.00	335.50	338.00	339.00	341.00	343.00	344.50	345.50	346.50	348.00	349.00	349.00	349.00	349.00	349.00	349.00	349.00	349.00	348.00	347.50	347.00	346.00	345.50	344.50	343.00	343.00	341.00	339.00	337.50	336.50	335.00	332.50	331.50	330.00	329.00	327.50	326.00	323.50	322.50	321.50	320.00	319.00	318.00	317.00	316.00	315.50	314.00	312.50	312.00	311.00	311.00	311.00	310.00	310.00	309.50	308.50	308.00	307.00	306.00	305.00	304.50	303.50	302.50	302.00	302.00	302.00	302.00	302.00	302.00
