2692.25	2691.25	2691.00	2690.75	2690.50	2689.50	2688.00	2688.00	2688.00	2687.25	2687.25	2687.50	2687.00	2686.50	2686.75	2686.25	2685.75	2685.75	2686.00	2686.00	2686.00	2686.50	2688.25	2688.25	2689.50	2686.50	2687.75	2686.50	2686.00	2686.75	2686.25	2686.75	2686.25	2686.00	2686.25	2688.00	2690.50	2695.25	2699.50	2702.00	2707.25	2712.50	2714.50	2723.00	2728.00	2738.75	2748.50	2753.00	2766.00	2768.50	2781.25	2788.00	2802.00	2812.25	2815.00	2825.50	2844.50	2841.00	2827.50	2809.25	2798.00	2784.50	2771.50	2758.00	2753.00	2743.50	2732.25	2726.50	2722.75	2715.50	2698.75	2690.50	2675.75	2668.00	2669.75	2669.25	2671.50	2676.25	2690.50	2721.50	2730.00	2743.50	2752.00	2759.50	2763.00	2765.75	2768.50	2768.00	2768.00	2767.00	2767.50	2766.50	2769.25	2771.75	2777.75	2781.00	2783.75	2788.00	2790.75	2787.00	2784.00	2775.50	2772.25	2770.25	2772.25	2771.50	2769.25	2766.00	2768.25	2766.25	2763.75	2757.50	2751.75	2749.00	2747.25	2747.75	2747.75	2748.75	2750.00	2749.50	2747.25	2747.25	2747.25	2747.75	2748.25	2748.25	2747.50	2747.50	2747.00	2747.00	2748.50	2754.00	2762.50	2766.50	2768.75	2770.00	2773.00	2776.50	2778.00	2779.75	2782.50	2785.25	2788.75	2791.50	2796.50	2801.50	2810.00	2816.00	2821.25	2825.50	2829.00	2832.75	2835.50	2841.50	2844.50	2849.00	2852.25	2856.25	2862.00	2866.75	2871.00	2874.75	2880.25	2886.25	2895.50	2901.25	2908.50	2915.75	2923.75	2930.25	2934.50	2942.25	2951.50	2973.75	2985.25	3000.50	3023.50	3040.75	3052.25	3069.25	3089.00	3105.75	3139.75	3150.25	3159.50	3174.50	3177.00	3183.25	3192.75	3195.50	3194.25	3202.00	3210.00	3243.50	3215.00	3221.75	3200.50	3195.75	3201.75	3206.75	3218.25	3224.75	3234.75	3243.00	3257.50	3279.75	3294.50	3300.25	3296.75	3294.50	3312.75	3389.75	3459.25	3614.00	3845.25	4108.75	4126.00	4252.75	4359.00	4559.00	4775.00	5023.50	5028.50	4867.00	5006.50	5097.00	5354.25	5283.00	5492.00	5355.50	5259.75	5006.00	4783.75	4704.75	4792.25	4886.75	4774.50	4580.50	4478.75	4600.00	4474.25	4474.50	4723.75	4876.75	5013.50	5089.75	5100.50	5175.50	5167.75	5014.00	4923.50	4706.75	4596.75	4602.50	4775.50	4898.75
2691.00	2691.75	2691.25	2690.50	2690.50	2689.25	2688.75	2688.00	2687.75	2687.75	2687.25	2687.25	2687.00	2686.75	2686.50	2686.00	2686.00	2685.75	2686.00	2686.00	2686.00	2686.00	2686.00	2686.00	2686.00	2686.25	2686.25	2686.00	2685.75	2686.00	2686.00	2686.25	2686.00	2686.00	2686.00	2686.25	2686.50	2688.75	2695.50	2698.75	2703.00	2707.75	2711.00	2719.50	2721.50	2729.50	2738.75	2747.50	2758.75	2764.50	2772.50	2779.50	2790.50	2805.00	2816.00	2818.75	2840.50	2858.25	2848.00	2826.50	2811.50	2794.75	2784.25	2765.25	2755.50	2752.50	2743.75	2732.25	2727.25	2718.00	2710.00	2694.50	2685.75	2676.00	2670.00	2669.50	2668.00	2669.00	2672.25	2694.50	2717.50	2727.75	2736.75	2745.75	2755.25	2755.25	2757.50	2761.50	2761.25	2760.75	2760.25	2760.50	2760.25	2762.00	2766.00	2775.00	2777.75	2783.25	2785.50	2789.25	2787.00	2781.25	2771.75	2770.50	2766.50	2770.25	2768.50	2768.50	2765.75	2766.00	2764.25	2757.00	2749.50	2747.00	2747.00	2747.50	2747.50	2748.50	2749.25	2749.00	2747.75	2748.25	2748.00	2747.25	2748.00	2748.00	2748.50	2749.25	2748.50	2750.50	2757.25	2761.75	2768.50	2771.00	2771.00	2776.00	2775.50	2778.00	2779.75	2781.75	2783.50	2786.25	2790.75	2793.25	2797.50	2803.00	2811.75	2816.75	2822.75	2827.75	2831.00	2834.00	2837.00	2842.00	2844.75	2849.00	2852.25	2857.00	2863.25	2868.75	2873.50	2877.50	2884.00	2889.25	2898.00	2903.25	2911.00	2918.00	2926.00	2933.00	2937.25	2945.50	2951.00	2963.75	2981.75	3015.25	3020.25	3041.00	3062.75	3079.00	3104.75	3112.00	3121.50	3130.50	3138.75	3144.25	3159.00	3190.50	3205.50	3218.75	3235.50	3266.25	3266.00	3310.25	3242.75	3194.50	3192.00	3193.00	3202.00	3207.75	3220.50	3227.25	3237.75	3244.75	3254.50	3268.50	3272.75	3274.75	3280.25	3296.00	3320.25	3383.50	3431.00	3517.00	3631.50	3853.00	3961.75	4134.00	4361.00	4455.25	4663.25	4618.25	4644.25	4759.25	4871.00	5016.00	5223.00	5141.50	5228.25	5185.25	5039.25	4895.75	4892.00	4887.25	5074.50	4974.00	4698.25	4542.25	4508.50	4656.50	4636.25	4517.50	4679.25	4921.50	5007.25	4974.25	4994.00	5147.75	5165.25	4995.00	4823.75	4798.00	4893.50	4807.50	4737.25	4743.75
2689.75	2691.75	2691.25	2691.75	2690.50	2690.00	2690.00	2688.75	2687.75	2688.50	2688.25	2688.00	2687.50	2687.00	2686.25	2686.50	2686.00	2686.00	2686.00	2686.00	2686.75	2686.00	2686.00	2686.00	2686.00	2686.00	2686.00	2686.00	2686.00	2686.00	2686.00	2686.00	2686.00	2686.00	2685.25	2685.25	2685.75	2687.00	2689.25	2695.75	2699.25	2704.75	2707.00	2713.25	2717.75	2722.75	2729.25	2739.25	2748.50	2757.00	2762.50	2769.75	2784.00	2799.25	2809.00	2818.25	2831.50	2860.75	2864.75	2848.50	2830.50	2809.25	2796.50	2776.25	2763.00	2754.50	2752.25	2739.00	2728.75	2726.25	2716.00	2708.50	2690.50	2685.50	2674.50	2670.50	2668.00	2666.50	2666.75	2673.00	2681.75	2709.25	2718.75	2726.75	2736.75	2745.25	2745.75	2748.50	2748.50	2749.50	2750.25	2751.00	2754.25	2755.25	2760.00	2765.00	2770.50	2776.25	2781.75	2785.75	2787.75	2784.00	2780.50	2774.25	2770.00	2766.75	2770.75	2768.00	2764.00	2762.00	2762.75	2757.75	2750.00	2747.25	2748.00	2747.00	2746.75	2748.50	2748.50	2749.00	2749.00	2749.00	2750.75	2748.25	2754.25	2753.25	2757.25	2760.75	2762.50	2766.00	2761.75	2761.25	2773.50	2774.50	2775.25	2777.00	2779.50	2780.50	2781.00	2782.75	2784.75	2787.75	2792.25	2795.25	2799.75	2803.75	2811.00	2816.50	2822.50	2827.75	2832.25	2836.00	2839.25	2844.25	2846.50	2850.00	2854.00	2858.75	2864.75	2870.50	2876.00	2880.50	2886.50	2892.25	2900.00	2905.25	2913.00	2920.50	2928.25	2935.25	2939.50	2947.50	2953.50	2964.75	2973.00	2983.25	2999.00	3026.00	3068.00	3113.75	3136.75	3143.75	3124.25	3104.25	3106.50	3122.00	3197.75	3217.50	3225.25	3295.50	3335.75	3387.25	3330.75	3327.25	3258.00	3180.75	3188.75	3195.00	3204.00	3210.25	3222.00	3228.25	3237.00	3243.50	3249.75	3259.50	3270.25	3282.00	3289.00	3293.00	3319.25	3384.50	3429.75	3493.50	3554.75	3669.50	3809.75	3998.75	4241.75	4355.00	4322.25	4257.75	4398.50	4656.75	4674.25	4824.50	4801.50	4939.00	5184.50	5163.25	5191.75	5112.25	4900.50	4964.75	5103.50	5115.25	4756.50	4569.75	4600.50	4758.75	4778.75	4751.25	4551.75	4855.25	4972.25	4888.00	4933.25	5038.00	5070.25	4982.25	4959.00	4911.25	5024.25	4996.50	4953.25	4847.00
2692.00	2692.00	2692.75	2692.75	2691.25	2691.00	2691.00	2691.00	2690.75	2690.00	2689.50	2689.00	2688.75	2688.50	2687.75	2687.25	2687.25	2687.00	2686.75	2686.50	2686.00	2686.25	2686.00	2686.25	2686.00	2686.00	2686.00	2686.00	2686.25	2686.00	2685.75	2686.00	2685.50	2685.50	2685.75	2685.25	2685.50	2686.25	2687.50	2689.75	2694.00	2699.75	2703.50	2710.25	2714.00	2717.00	2720.50	2729.50	2741.50	2745.75	2755.50	2760.50	2771.25	2785.75	2796.75	2807.50	2819.50	2841.75	2868.00	2865.25	2855.75	2833.75	2818.25	2793.50	2778.75	2763.25	2755.00	2747.50	2735.75	2729.00	2723.50	2715.50	2704.75	2693.50	2682.50	2674.00	2669.00	2666.00	2665.25	2666.50	2671.75	2678.00	2689.75	2705.75	2716.75	2723.00	2729.25	2731.25	2733.50	2736.75	2738.75	2739.25	2741.75	2743.75	2747.50	2757.00	2761.50	2769.75	2775.00	2783.50	2786.25	2787.25	2784.00	2779.00	2772.50	2765.00	2769.25	2771.75	2768.75	2764.50	2762.25	2761.00	2755.00	2749.00	2748.25	2747.25	2748.50	2749.00	2750.00	2752.25	2755.00	2756.25	2757.25	2757.75	2754.75	2754.25	2750.25	2751.75	2754.25	2755.50	2760.75	2769.25	2768.50	2774.75	2777.75	2783.00	2788.50	2789.50	2790.50	2788.75	2788.75	2790.75	2794.75	2798.25	2803.00	2806.25	2813.00	2819.00	2826.00	2832.00	2837.50	2841.75	2845.25	2849.75	2852.25	2855.75	2858.75	2863.00	2868.75	2873.50	2878.75	2883.25	2889.50	2895.75	2904.25	2909.00	2915.00	2921.75	2929.75	2936.75	2941.50	2949.00	2954.50	2965.50	2974.25	2983.50	2991.50	3000.50	3018.00	3051.50	3080.00	3067.25	3072.75	3082.00	3099.25	3114.25	3159.00	3224.25	3230.50	3342.00	3355.75	3330.50	3270.75	3258.75	3218.75	3194.00	3191.75	3196.50	3209.00	3221.50	3240.25	3259.25	3268.25	3251.25	3247.75	3259.50	3267.25	3271.00	3273.75	3282.75	3311.75	3367.25	3403.25	3446.50	3488.25	3568.25	3676.50	3774.75	4036.25	4122.75	3990.75	4141.75	4334.50	4360.50	4464.75	4477.00	4521.75	4823.00	4952.25	4886.25	5004.00	5075.75	4827.00	4640.75	4795.25	5017.50	4794.75	4689.50	4581.75	4716.00	4768.75	4733.50	4535.75	4746.50	4803.00	4812.25	4820.00	4908.25	4877.50	4895.75	4935.75	4974.75	5050.00	5122.25	5107.50	5110.75
2692.50	2693.50	2694.00	2694.00	2693.00	2691.50	2691.00	2691.00	2692.00	2691.00	2691.00	2689.50	2690.00	2690.00	2689.00	2688.00	2688.00	2688.00	2687.00	2687.00	2686.50	2686.00	2686.00	2686.00	2685.50	2686.00	2686.00	2686.00	2686.00	2686.00	2686.00	2686.00	2685.50	2685.00	2685.50	2685.00	2685.50	2685.00	2686.00	2688.00	2689.50	2696.00	2699.50	2706.00	2708.50	2714.50	2716.50	2720.50	2730.50	2738.00	2747.00	2751.50	2761.00	2771.50	2785.00	2796.00	2808.00	2819.50	2853.00	2867.50	2865.50	2852.50	2836.00	2812.00	2793.00	2774.50	2758.00	2753.00	2741.50	2731.50	2725.50	2721.50	2715.50	2703.50	2689.50	2683.50	2673.50	2667.00	2664.50	2664.00	2666.00	2673.00	2675.50	2686.50	2706.50	2713.00	2712.50	2718.50	2724.50	2727.50	2728.00	2730.50	2734.00	2735.00	2738.50	2748.00	2756.00	2765.00	2770.50	2779.00	2786.50	2787.50	2793.00	2783.00	2780.00	2770.50	2764.50	2767.00	2771.50	2770.50	2764.00	2762.50	2757.50	2750.50	2748.50	2748.00	2753.00	2753.00	2752.50	2754.00	2757.50	2755.00	2755.00	2753.50	2752.50	2752.00	2751.00	2752.00	2753.00	2750.00	2752.00	2756.50	2761.00	2769.00	2774.50	2779.50	2789.50	2799.50	2801.00	2802.50	2802.50	2800.50	2804.50	2808.50	2813.50	2817.50	2821.50	2825.50	2829.50	2837.00	2843.00	2848.50	2851.00	2856.50	2857.50	2861.00	2862.50	2865.50	2872.00	2876.00	2881.50	2886.00	2892.50	2897.50	2906.50	2912.00	2917.50	2924.50	2930.50	2937.50	2942.00	2948.50	2954.50	2965.50	2974.00	2982.00	2990.50	2998.50	3011.00	3036.50	3096.50	3106.00	3124.00	3101.50	3125.50	3156.50	3157.50	3150.00	3172.50	3221.00	3219.00	3394.00	3545.50	3461.50	3298.50	3255.00	3215.50	3213.00	3227.00	3245.00	3269.50	3293.00	3311.50	3335.50	3248.00	3252.00	3257.50	3257.50	3263.00	3278.00	3303.00	3346.50	3374.00	3408.00	3448.50	3523.00	3595.50	3655.50	3786.50	3815.00	3891.00	4046.00	4052.50	4161.50	4416.50	4298.50	4189.00	4435.00	4723.00	4761.50	5055.50	4926.00	4742.00	4526.50	4649.00	4975.00	4923.50	4820.50	4577.50	4683.00	4753.00	4695.00	4560.00	4621.50	4692.50	4750.50	4761.50	4816.50	4771.00	4813.00	4889.50	4939.50	4999.00	5085.50	5215.00	5254.00
2697.75	2696.75	2696.75	2698.25	2696.00	2694.00	2693.50	2693.50	2693.00	2692.75	2692.25	2691.75	2691.50	2691.75	2691.50	2691.00	2690.75	2690.00	2688.25	2687.50	2687.50	2687.25	2686.50	2686.00	2686.00	2686.00	2686.00	2686.25	2686.00	2686.00	2686.00	2686.00	2685.00	2685.00	2685.25	2685.25	2685.25	2685.25	2686.00	2687.00	2687.75	2690.50	2694.75	2701.25	2704.75	2709.50	2714.25	2715.50	2722.00	2728.00	2736.75	2741.75	2749.00	2760.00	2769.75	2778.00	2789.25	2802.75	2826.75	2854.00	2856.50	2856.25	2844.25	2825.00	2805.25	2784.75	2765.75	2754.50	2744.50	2732.25	2726.25	2725.50	2717.75	2713.50	2697.75	2686.50	2681.00	2671.50	2666.25	2662.75	2663.75	2668.50	2672.75	2678.25	2689.75	2704.75	2708.00	2712.00	2714.00	2718.00	2723.75	2726.00	2727.25	2729.50	2734.00	2741.00	2748.25	2758.50	2765.50	2774.75	2783.25	2789.75	2791.00	2792.25	2785.50	2780.75	2768.00	2765.75	2765.75	2766.00	2764.00	2762.50	2760.75	2752.50	2747.50	2749.50	2757.75	2758.25	2756.75	2753.75	2752.00	2751.00	2750.00	2750.75	2750.25	2751.75	2752.50	2753.00	2754.75	2752.25	2752.75	2753.50	2754.50	2755.50	2761.00	2768.25	2775.25	2794.75	2802.50	2806.75	2809.50	2812.50	2817.25	2820.75	2824.50	2827.00	2840.00	2842.75	2844.00	2853.75	2860.50	2866.75	2873.25	2879.50	2874.50	2870.00	2869.75	2872.25	2876.25	2880.75	2884.75	2889.25	2895.50	2901.25	2908.25	2912.75	2919.00	2925.50	2932.25	2938.50	2942.25	2949.50	2953.75	2963.50	2970.75	2978.25	2985.25	2989.50	2996.75	3026.25	3083.75	3116.25	3151.25	3139.25	3115.25	3142.25	3164.00	3187.00	3222.50	3416.00	3417.75	3450.50	3555.50	3511.00	3412.75	3333.75	3322.75	3283.50	3267.50	3290.50	3324.75	3356.25	3398.25	3406.25	3296.75	3241.25	3242.75	3253.00	3299.75	3274.25	3289.75	3320.75	3340.25	3368.75	3407.00	3468.25	3528.00	3576.00	3658.75	3679.50	3755.75	3845.25	3897.50	4008.25	4157.50	4225.25	4102.50	4331.75	4525.25	4585.75	4785.00	4682.00	4663.00	4360.75	4459.25	4804.00	5024.00	4773.00	4716.75	4860.75	4832.25	4699.25	4650.25	4721.25	4708.25	4709.00	4720.25	4757.50	4797.25	4866.00	4906.25	4943.00	5042.25	5138.50	5196.25	5130.50
2711.50	2707.25	2704.25	2703.50	2704.00	2700.25	2697.00	2697.00	2697.50	2696.25	2695.50	2694.50	2693.75	2693.75	2696.00	2695.25	2694.50	2694.00	2693.25	2689.75	2688.50	2688.75	2688.50	2687.50	2686.75	2686.25	2686.25	2686.00	2686.00	2685.75	2685.50	2685.75	2685.00	2685.00	2685.00	2685.00	2685.25	2685.75	2685.50	2686.00	2686.00	2687.25	2690.75	2696.50	2699.50	2703.25	2708.00	2711.00	2713.75	2714.75	2722.50	2729.00	2737.25	2740.50	2753.75	2762.50	2767.00	2773.00	2785.00	2812.25	2829.00	2843.25	2843.25	2834.00	2819.25	2799.50	2776.50	2764.25	2750.25	2734.50	2726.25	2723.50	2725.00	2718.25	2710.00	2691.75	2685.75	2681.75	2673.25	2664.25	2663.25	2663.50	2667.25	2673.25	2677.50	2685.75	2697.25	2702.50	2710.00	2712.25	2711.25	2716.25	2721.75	2726.25	2727.50	2735.75	2740.00	2749.50	2755.50	2768.75	2777.75	2787.75	2794.00	2794.50	2797.00	2792.50	2782.00	2770.25	2770.25	2763.50	2766.00	2761.75	2761.00	2759.00	2747.75	2750.25	2758.25	2762.75	2758.25	2752.50	2748.00	2748.00	2747.00	2749.25	2749.75	2755.50	2754.50	2755.75	2756.00	2754.75	2753.50	2755.25	2758.25	2757.75	2756.25	2755.75	2759.75	2782.50	2790.75	2797.25	2800.75	2805.25	2813.75	2817.50	2823.75	2825.00	2831.25	2835.75	2837.75	2835.25	2840.50	2850.00	2863.50	2881.50	2897.50	2902.00	2889.75	2884.25	2886.50	2889.50	2892.75	2896.25	2901.50	2908.75	2919.50	2930.00	2936.50	2938.00	2940.75	2944.25	2946.25	2950.00	2954.50	2965.00	2976.50	2979.50	2991.50	2999.75	3001.25	3022.25	3055.25	3083.50	3115.50	3110.00	3121.50	3143.00	3172.75	3207.25	3261.75	3399.75	3418.75	3506.25	3606.75	3608.75	3594.75	3465.25	3392.75	3368.25	3331.00	3373.75	3432.00	3428.25	3555.50	3479.50	3377.00	3253.50	3226.25	3227.25	3275.75	3302.25	3276.25	3283.00	3296.00	3320.75	3356.75	3401.00	3454.75	3511.75	3566.25	3586.25	3634.50	3688.00	3692.25	3753.25	3867.00	3944.25	3963.25	4136.50	4352.50	4136.25	4235.00	4315.25	4520.50	4231.50	4327.00	4615.75	4938.00	4738.75	4957.75	5068.00	4927.75	4818.75	4822.25	4933.25	4896.75	4829.75	4700.50	4762.00	4818.50	4891.50	4936.00	5003.00	5061.75	5070.25	5065.75	5027.50
2720.75	2715.75	2712.75	2710.25	2708.50	2705.25	2701.25	2699.50	2699.50	2699.25	2699.75	2698.50	2697.50	2697.00	2698.25	2698.25	2697.75	2697.00	2696.25	2694.25	2691.00	2690.00	2690.00	2689.50	2688.75	2687.25	2687.00	2686.00	2686.00	2686.00	2685.25	2685.50	2685.00	2685.00	2685.00	2685.00	2685.00	2686.00	2685.50	2686.00	2686.00	2686.25	2688.25	2693.75	2696.50	2700.00	2704.00	2707.00	2712.00	2712.25	2717.00	2721.50	2729.75	2734.00	2744.00	2753.00	2759.00	2763.50	2769.75	2784.50	2804.00	2828.50	2833.00	2832.00	2822.25	2805.75	2784.25	2769.50	2753.25	2735.25	2727.50	2723.00	2723.50	2719.25	2712.00	2700.25	2689.25	2684.25	2680.25	2666.25	2663.50	2663.00	2664.50	2669.50	2674.25	2679.25	2686.50	2693.75	2703.25	2707.00	2711.00	2710.75	2715.75	2720.75	2724.25	2731.25	2735.50	2743.25	2750.00	2762.00	2773.50	2783.00	2792.50	2795.00	2796.50	2796.75	2788.75	2777.75	2771.25	2765.50	2765.75	2762.25	2760.00	2761.00	2751.25	2751.50	2755.75	2759.00	2760.75	2754.00	2752.00	2748.75	2749.50	2754.50	2753.75	2757.00	2756.00	2755.75	2755.00	2753.75	2753.75	2754.50	2758.00	2760.25	2759.75	2759.00	2761.75	2772.50	2780.75	2786.50	2788.75	2794.00	2798.25	2799.00	2802.50	2803.75	2809.25	2825.75	2826.75	2818.00	2826.75	2833.25	2847.75	2863.25	2869.25	2889.00	2891.50	2890.75	2895.50	2899.50	2902.00	2906.25	2911.50	2924.75	2944.00	2954.00	2955.75	2955.25	2953.25	2950.75	2951.00	2954.75	2959.75	2980.75	2996.00	2997.50	3008.25	3015.00	3016.50	3031.75	3054.50	3069.75	3088.25	3113.00	3117.25	3137.00	3169.75	3210.75	3258.00	3477.50	3556.00	3607.50	3747.00	3704.00	3676.50	3567.50	3499.50	3429.25	3366.50	3404.75	3534.50	3504.25	3595.00	3566.75	3454.25	3308.00	3228.00	3216.75	3234.75	3288.25	3253.50	3260.00	3271.50	3294.50	3326.25	3373.25	3431.75	3480.00	3519.75	3539.75	3571.25	3607.25	3623.00	3673.75	3764.00	3831.00	3832.00	4047.50	4124.25	4123.50	4038.00	4069.00	4273.25	4105.25	4242.50	4527.25	4950.25	4779.25	5050.00	5161.75	4964.75	4891.75	4899.50	5031.00	4991.25	4844.50	4683.25	4810.75	4821.75	4878.25	4932.00	4986.75	5035.50	5033.75	4975.00	4893.50
2729.75	2724.75	2721.50	2718.25	2715.25	2710.75	2706.75	2703.50	2702.00	2702.00	2702.50	2702.50	2702.00	2701.50	2700.50	2700.50	2700.25	2699.50	2698.25	2697.75	2694.75	2691.75	2691.50	2691.25	2690.75	2689.25	2688.50	2686.50	2686.00	2685.50	2685.75	2685.75	2685.50	2685.00	2685.00	2685.25	2685.25	2686.00	2685.75	2686.00	2685.75	2685.50	2686.00	2692.25	2693.75	2697.00	2700.75	2704.25	2708.75	2711.00	2714.75	2714.50	2722.50	2727.50	2734.50	2742.00	2749.75	2757.00	2762.75	2765.25	2777.50	2811.75	2822.50	2826.25	2821.75	2811.50	2794.75	2776.50	2755.75	2735.50	2726.50	2724.25	2722.25	2720.00	2714.50	2708.75	2695.00	2685.25	2684.75	2670.25	2663.50	2663.00	2663.00	2665.50	2672.25	2675.25	2678.25	2684.75	2694.50	2699.50	2710.75	2710.25	2710.25	2714.50	2719.25	2727.00	2731.75	2736.75	2743.50	2755.50	2768.00	2780.50	2788.25	2794.75	2795.25	2797.25	2795.00	2786.50	2772.25	2767.00	2765.00	2763.75	2760.00	2759.25	2753.50	2752.75	2755.25	2757.50	2763.50	2758.75	2757.25	2751.50	2752.50	2759.75	2757.00	2758.25	2757.25	2755.75	2754.75	2754.75	2754.75	2755.50	2756.75	2760.00	2761.00	2762.75	2771.25	2764.75	2771.75	2777.00	2780.25	2785.50	2785.25	2784.50	2782.50	2782.25	2789.25	2814.50	2818.50	2807.00	2816.25	2819.25	2828.75	2848.50	2850.25	2864.50	2877.00	2884.50	2896.50	2898.75	2905.75	2915.75	2922.25	2932.75	2951.00	2965.50	2974.50	2974.50	2968.50	2959.25	2958.25	2964.00	2972.50	2994.00	3007.00	3009.75	3014.75	3018.25	3023.00	3035.25	3052.50	3060.75	3078.00	3101.75	3108.25	3128.75	3162.50	3205.50	3248.75	3473.75	3692.50	3740.75	3903.25	3815.75	3731.00	3687.00	3624.75	3512.50	3380.25	3423.50	3540.25	3565.75	3562.75	3562.00	3487.25	3357.25	3236.50	3207.25	3205.00	3230.25	3223.75	3238.25	3248.75	3270.50	3299.75	3352.25	3410.00	3442.00	3473.25	3512.00	3508.00	3547.50	3564.00	3598.25	3670.75	3729.00	3733.25	3922.25	3891.00	4080.25	3967.25	3885.00	4055.00	3980.25	4195.50	4534.50	4967.75	4875.75	5088.00	5217.50	5003.75	4937.75	4957.50	5111.50	5050.25	4825.00	4661.25	4816.75	4826.00	4894.00	4942.00	4955.50	5026.25	5072.25	5037.75	4937.25
2741.75	2737.00	2734.25	2732.25	2730.00	2726.50	2722.25	2718.25	2716.25	2712.75	2710.00	2708.00	2709.00	2708.50	2707.00	2706.00	2704.00	2702.75	2700.75	2699.75	2698.50	2696.75	2695.00	2693.75	2692.75	2692.00	2691.25	2689.50	2687.75	2685.75	2685.25	2685.50	2685.25	2685.75	2685.25	2685.50	2685.75	2686.00	2686.00	2686.00	2685.75	2685.75	2685.75	2689.50	2690.75	2692.50	2695.50	2699.25	2704.25	2705.75	2710.50	2712.50	2714.50	2721.25	2722.75	2726.75	2734.75	2743.50	2750.00	2757.00	2757.25	2764.50	2779.00	2791.25	2797.25	2802.25	2797.50	2784.25	2763.50	2738.25	2725.50	2722.25	2718.00	2719.75	2716.75	2715.25	2706.25	2693.50	2686.00	2680.25	2669.75	2663.00	2662.25	2663.00	2666.25	2671.75	2674.50	2676.00	2682.00	2686.50	2697.00	2703.25	2707.00	2709.00	2711.75	2715.50	2718.75	2726.00	2730.50	2741.25	2753.75	2771.00	2783.25	2789.75	2795.25	2796.00	2794.75	2792.00	2785.00	2778.50	2769.50	2763.75	2762.25	2759.25	2757.50	2758.00	2759.50	2763.75	2766.50	2767.25	2763.75	2762.00	2761.00	2763.25	2759.00	2759.75	2760.50	2760.00	2759.75	2758.00	2759.75	2758.00	2756.00	2756.75	2761.00	2761.00	2764.75	2775.00	2774.00	2772.75	2774.00	2773.00	2775.00	2773.25	2771.00	2770.25	2773.75	2786.50	2816.25	2823.50	2821.75	2825.75	2830.75	2831.75	2841.50	2852.75	2863.75	2862.25	2877.25	2879.75	2880.75	2884.75	2886.25	2887.00	2890.00	2892.25	2925.50	2944.75	2946.25	2952.75	2979.25	2988.50	2996.25	3000.25	3003.00	3005.50	3010.00	3014.00	3018.50	3029.00	3041.25	3049.75	3067.50	3077.25	3094.25	3115.75	3144.00	3183.00	3223.25	3346.00	3530.00	3806.25	3916.00	3906.00	3769.00	3713.25	3530.00	3422.25	3313.25	3314.25	3337.75	3396.50	3368.50	3343.50	3360.50	3309.00	3227.75	3196.25	3194.00	3189.50	3196.75	3209.75	3220.25	3240.50	3267.50	3309.75	3352.75	3375.50	3398.00	3428.00	3442.50	3472.75	3483.00	3500.00	3528.25	3577.75	3581.50	3632.50	3654.50	3715.75	3823.50	3777.00	3830.75	3831.25	4067.50	4377.00	4879.25	5073.00	4976.25	5119.25	5096.00	5013.00	5052.00	5130.25	5033.50	4792.75	4533.00	4650.25	4730.75	4823.50	4874.75	4956.25	5089.25	5187.00	5009.25	4921.75
2750.00	2743.50	2740.00	2737.50	2736.75	2734.25	2730.50	2727.50	2725.50	2722.00	2718.75	2714.75	2712.00	2711.00	2710.00	2709.50	2707.50	2706.00	2704.25	2702.75	2701.00	2699.50	2697.50	2696.00	2695.00	2693.50	2693.00	2691.00	2689.25	2687.25	2685.50	2685.75	2685.50	2686.00	2685.75	2685.50	2686.00	2685.75	2686.00	2686.00	2685.50	2686.00	2685.25	2687.50	2690.50	2690.00	2692.00	2696.00	2701.25	2702.50	2707.25	2709.50	2713.25	2718.25	2719.75	2721.00	2727.75	2737.25	2742.50	2752.00	2753.50	2753.00	2754.75	2763.75	2776.50	2785.25	2787.50	2782.75	2769.00	2738.50	2724.25	2718.00	2717.00	2719.75	2718.00	2716.75	2712.00	2701.25	2689.00	2682.75	2676.00	2663.75	2662.75	2662.25	2663.00	2667.50	2672.75	2673.25	2677.00	2681.00	2687.50	2695.25	2702.50	2705.00	2709.00	2710.50	2711.00	2717.00	2721.25	2730.00	2742.75	2761.75	2777.75	2786.00	2792.00	2796.25	2795.50	2792.75	2785.25	2784.50	2778.50	2763.00	2762.00	2760.50	2759.50	2762.50	2763.50	2765.25	2768.50	2771.00	2767.75	2766.75	2766.50	2765.75	2759.75	2761.00	2762.50	2763.75	2762.25	2760.00	2761.00	2758.00	2755.00	2753.50	2759.75	2762.75	2759.50	2770.25	2770.00	2770.50	2767.50	2768.25	2771.50	2769.00	2768.25	2769.00	2771.75	2783.25	2815.75	2832.75	2831.00	2828.50	2834.50	2837.00	2839.50	2846.50	2855.75	2860.25	2866.50	2869.25	2869.00	2870.50	2870.50	2871.00	2875.50	2874.50	2881.25	2890.50	2903.25	2918.75	2962.50	3006.75	2996.00	3010.00	3006.25	3006.50	3008.25	3012.25	3018.00	3024.75	3034.00	3043.50	3057.75	3068.50	3086.50	3108.25	3133.50	3167.75	3206.75	3293.75	3392.50	3614.25	3753.75	3854.50	3738.25	3620.25	3459.25	3367.75	3282.00	3259.25	3261.25	3263.50	3278.00	3284.50	3276.25	3220.00	3211.75	3190.00	3188.25	3183.75	3186.25	3196.00	3204.75	3222.00	3248.00	3284.75	3320.25	3337.25	3352.75	3365.00	3381.25	3434.25	3438.25	3451.50	3483.25	3509.75	3502.00	3514.75	3521.50	3554.00	3627.00	3709.00	3728.50	3764.25	3965.25	4206.25	4767.75	4880.50	4883.75	5027.50	5056.00	5042.00	5046.50	5026.75	5019.00	4741.00	4456.75	4697.75	4824.75	4901.25	4922.75	5030.25	5138.75	5182.50	4976.50	4912.50
2764.00	2759.50	2755.00	2749.75	2746.75	2744.50	2741.75	2738.25	2735.75	2733.00	2731.75	2728.00	2724.25	2721.25	2716.75	2716.25	2714.25	2712.50	2709.00	2706.50	2704.75	2703.00	2703.00	2700.00	2698.75	2697.00	2696.25	2693.75	2692.00	2690.25	2687.75	2685.75	2685.00	2685.25	2686.00	2686.00	2685.75	2685.75	2685.50	2685.25	2685.00	2685.00	2685.25	2685.50	2687.75	2689.75	2692.50	2693.50	2696.75	2699.75	2701.25	2704.75	2710.50	2712.75	2715.25	2719.50	2719.00	2723.25	2730.50	2743.00	2748.00	2750.00	2753.25	2754.75	2757.75	2759.50	2759.25	2767.50	2774.25	2758.75	2729.00	2719.25	2721.50	2717.75	2716.75	2716.50	2716.00	2709.25	2701.25	2685.50	2681.25	2672.75	2665.00	2662.50	2662.50	2663.50	2666.50	2669.50	2671.00	2672.50	2679.25	2681.75	2686.75	2692.00	2695.50	2701.75	2704.00	2707.00	2708.25	2713.00	2720.00	2736.75	2758.50	2774.50	2782.00	2787.25	2793.50	2793.50	2789.75	2783.75	2782.00	2773.00	2764.00	2763.50	2762.50	2764.25	2763.25	2767.75	2772.50	2776.50	2772.50	2771.00	2768.00	2772.00	2770.00	2769.00	2768.25	2767.75	2769.00	2767.50	2769.25	2767.50	2759.75	2758.25	2758.75	2764.50	2762.00	2757.00	2757.00	2764.00	2765.00	2765.25	2769.00	2767.75	2767.50	2769.25	2776.00	2784.50	2804.00	2822.25	2815.50	2807.50	2817.00	2834.00	2830.25	2828.50	2833.50	2849.00	2851.75	2856.00	2858.50	2862.25	2875.75	2880.00	2877.75	2879.25	2879.75	2881.25	2888.00	2891.25	2906.75	2933.50	2930.75	2957.25	2973.75	2986.00	3006.50	2986.00	2994.00	3014.50	3019.00	3029.00	3045.00	3056.25	3075.75	3095.75	3119.75	3150.50	3181.75	3241.50	3293.75	3381.00	3475.75	3597.25	3656.25	3453.25	3367.00	3318.25	3267.75	3239.75	3207.75	3196.50	3193.50	3186.25	3183.75	3173.75	3179.25	3181.00	3180.25	3177.50	3177.50	3180.75	3185.25	3195.75	3215.50	3243.25	3267.75	3280.00	3290.00	3300.75	3310.00	3377.00	3376.00	3393.75	3418.50	3428.75	3417.00	3415.25	3413.25	3437.00	3458.75	3524.00	3587.75	3673.25	3815.50	4044.25	4409.75	4595.75	4784.25	4839.25	4856.75	4859.00	4875.00	4807.75	4689.50	4461.50	4339.50	4872.25	5011.00	5054.00	5063.75	4963.75	4990.50	5007.75	4881.75	4926.00
2772.75	2770.00	2766.50	2764.00	2763.00	2759.75	2754.50	2752.50	2751.00	2748.25	2743.75	2738.75	2734.75	2731.50	2728.50	2727.50	2725.25	2723.00	2720.00	2717.50	2714.00	2712.00	2709.50	2706.25	2702.25	2700.25	2700.25	2698.00	2695.75	2693.25	2691.50	2688.50	2684.25	2684.00	2685.00	2686.00	2685.25	2685.75	2685.00	2685.00	2685.00	2685.00	2685.00	2684.75	2685.50	2687.50	2692.00	2694.50	2693.00	2696.00	2698.50	2700.00	2705.75	2710.25	2712.25	2715.00	2718.00	2717.50	2722.25	2734.50	2739.25	2747.50	2748.00	2748.25	2747.50	2751.75	2751.25	2753.25	2763.50	2767.50	2761.50	2734.75	2720.75	2719.25	2716.75	2714.50	2717.75	2719.50	2711.50	2695.00	2684.00	2680.50	2674.25	2665.25	2662.50	2663.00	2663.75	2663.75	2667.00	2669.50	2668.75	2674.00	2679.25	2681.00	2680.50	2684.50	2689.75	2694.75	2699.75	2704.00	2703.50	2707.50	2728.00	2754.00	2768.75	2777.25	2787.25	2789.50	2792.75	2791.50	2784.75	2780.25	2776.50	2765.75	2766.50	2765.75	2766.25	2770.50	2776.25	2779.25	2777.50	2774.25	2779.00	2778.50	2776.25	2776.00	2774.50	2773.00	2772.75	2773.75	2776.75	2774.50	2767.00	2762.75	2762.25	2760.00	2763.00	2759.75	2758.00	2762.25	2767.25	2771.00	2770.00	2773.50	2779.50	2779.25	2774.50	2778.75	2788.50	2802.50	2815.25	2809.25	2820.50	2819.25	2820.00	2827.00	2833.25	2843.00	2846.25	2856.75	2863.75	2865.25	2872.75	2866.50	2888.00	2884.50	2893.75	2895.50	2897.75	2894.00	2893.50	2895.00	2901.75	2913.25	2923.75	2936.00	2948.00	2957.75	2970.50	2989.50	3006.75	3017.75	3036.50	3047.50	3065.00	3085.25	3106.25	3131.25	3152.50	3195.75	3229.25	3293.25	3323.00	3359.25	3416.25	3353.00	3331.00	3302.75	3257.00	3230.25	3191.25	3179.00	3168.75	3161.00	3161.25	3166.75	3171.25	3173.25	3170.75	3169.00	3168.25	3167.75	3169.50	3175.25	3187.00	3203.25	3218.75	3226.75	3240.00	3248.00	3269.50	3299.00	3323.25	3338.00	3352.75	3356.50	3346.25	3335.50	3343.75	3376.25	3400.00	3417.00	3458.25	3539.00	3682.75	3911.75	4388.00	4631.75	4787.75	4669.50	4609.50	4688.75	4743.00	4483.75	4283.75	4324.50	4494.00	4799.25	4976.50	5142.00	5169.25	4976.75	4764.50	4833.25	4722.25	4856.75
2775.50	2769.75	2766.50	2765.75	2766.25	2763.00	2760.25	2760.75	2759.00	2757.25	2754.75	2749.75	2743.00	2740.25	2734.75	2733.00	2729.75	2726.75	2725.25	2723.75	2722.25	2721.50	2718.00	2715.00	2711.25	2706.25	2705.25	2701.00	2699.00	2696.50	2694.50	2691.25	2684.75	2684.75	2684.25	2685.25	2685.00	2685.25	2685.00	2685.00	2685.00	2685.00	2685.00	2685.25	2685.75	2687.00	2690.25	2693.75	2692.75	2694.25	2698.00	2700.00	2702.25	2708.75	2712.25	2713.50	2717.50	2716.25	2721.50	2729.00	2736.25	2742.25	2744.25	2746.25	2749.25	2748.75	2745.50	2747.00	2755.00	2762.00	2762.25	2753.50	2732.00	2719.75	2715.50	2716.50	2716.75	2719.00	2716.75	2701.25	2689.50	2681.25	2678.25	2669.25	2664.00	2663.25	2663.50	2663.75	2665.25	2667.25	2667.00	2666.75	2673.75	2676.25	2677.50	2680.25	2681.50	2683.75	2690.25	2694.50	2695.75	2701.00	2710.75	2731.75	2755.50	2768.00	2782.50	2786.75	2789.75	2792.25	2788.50	2780.50	2780.00	2774.00	2771.50	2770.00	2768.50	2775.50	2779.00	2780.75	2781.50	2783.25	2785.75	2785.00	2781.25	2781.00	2775.75	2777.25	2775.75	2775.50	2776.00	2777.25	2772.00	2768.50	2764.75	2760.50	2760.75	2761.50	2761.50	2765.50	2768.75	2774.75	2776.50	2776.00	2779.00	2785.00	2781.50	2787.00	2790.75	2799.75	2816.25	2819.75	2820.25	2819.75	2819.75	2829.50	2833.00	2840.75	2842.25	2850.25	2857.75	2862.50	2867.50	2868.75	2884.50	2887.75	2894.50	2899.75	2902.75	2902.50	2901.50	2901.50	2900.00	2919.25	2927.00	2937.75	2945.75	2955.00	2967.50	2985.50	3001.00	3012.75	3032.00	3042.25	3059.25	3079.00	3098.00	3120.00	3139.00	3175.50	3201.00	3301.75	3341.75	3343.75	3362.75	3336.25	3310.75	3284.50	3248.25	3225.75	3190.75	3177.00	3166.00	3159.00	3159.75	3164.00	3167.25	3168.25	3166.50	3165.50	3165.75	3163.25	3162.00	3165.25	3173.75	3185.00	3195.25	3201.50	3215.75	3223.25	3242.25	3268.25	3290.50	3304.25	3315.75	3317.75	3310.00	3303.75	3317.25	3344.50	3359.25	3377.75	3404.50	3454.25	3569.25	3793.00	4130.75	4358.25	4634.50	4493.25	4507.50	4704.50	4490.50	4237.00	4272.00	4617.75	4748.00	4896.75	5050.75	5097.50	5098.50	4944.50	4699.00	4697.50	4681.50	4773.50
2769.50	2769.75	2765.25	2764.25	2763.75	2763.75	2765.25	2766.50	2766.00	2765.75	2766.25	2762.25	2756.00	2756.25	2752.50	2746.50	2741.75	2740.00	2736.50	2732.75	2731.00	2730.75	2730.25	2725.25	2723.50	2716.25	2713.00	2707.75	2703.50	2699.75	2696.00	2691.75	2689.00	2685.75	2685.50	2684.25	2684.50	2685.25	2685.00	2685.00	2685.00	2685.00	2685.00	2685.25	2686.00	2686.50	2688.50	2690.75	2695.75	2693.75	2696.75	2699.25	2700.75	2704.75	2711.25	2715.25	2718.50	2719.25	2719.50	2727.50	2729.25	2741.50	2742.25	2744.25	2745.00	2747.25	2748.00	2747.75	2748.00	2756.50	2753.00	2752.75	2756.75	2731.50	2718.00	2717.00	2716.75	2715.50	2718.75	2714.50	2703.25	2686.00	2682.00	2674.25	2664.75	2663.50	2664.75	2665.00	2665.00	2665.75	2667.75	2667.00	2667.00	2671.00	2670.75	2675.50	2676.25	2678.00	2677.50	2683.00	2685.00	2688.25	2697.75	2703.50	2714.25	2739.50	2770.50	2779.00	2785.75	2788.50	2792.00	2787.00	2783.00	2784.75	2779.50	2771.25	2775.75	2778.25	2781.50	2787.25	2791.25	2791.00	2790.25	2792.75	2791.25	2789.50	2782.00	2782.75	2779.00	2779.50	2778.00	2775.25	2775.25	2771.50	2769.50	2766.00	2761.50	2764.25	2763.50	2764.00	2766.25	2769.25	2774.75	2777.25	2782.50	2783.25	2789.25	2796.50	2802.50	2801.00	2814.00	2821.75	2810.00	2815.50	2814.50	2821.00	2824.00	2831.00	2840.75	2847.50	2854.25	2868.25	2878.25	2873.75	2869.50	2879.00	2881.00	2885.50	2901.75	2909.75	2912.00	2914.50	2915.25	2920.75	2926.00	2930.25	2939.25	2951.50	2962.75	2976.75	2994.50	3007.00	3023.50	3033.50	3049.50	3067.75	3084.00	3101.00	3116.25	3138.50	3148.25	3316.75	3429.00	3445.50	3418.50	3354.50	3320.50	3295.50	3260.00	3226.00	3191.50	3178.50	3166.00	3158.25	3157.00	3159.75	3161.50	3161.50	3161.50	3161.00	3162.50	3160.25	3157.00	3154.75	3154.75	3158.00	3164.00	3174.50	3185.00	3189.75	3204.00	3227.75	3240.50	3248.75	3254.50	3257.25	3255.50	3259.75	3273.25	3288.75	3298.25	3315.00	3330.75	3366.50	3447.00	3569.75	3957.00	4261.50	4424.75	4254.00	4409.25	4593.75	4123.75	4196.50	4512.25	5024.75	4999.50	5029.50	5115.00	5078.00	4849.25	4784.00	4715.00	4564.75	4563.50	4619.00
2764.75	2764.25	2764.00	2762.25	2763.00	2762.00	2761.00	2763.25	2764.25	2766.00	2767.00	2765.25	2764.75	2764.75	2758.25	2753.25	2751.25	2746.25	2742.00	2742.50	2742.50	2744.00	2745.25	2742.25	2738.50	2731.75	2727.75	2718.75	2712.50	2705.75	2700.75	2696.25	2691.00	2689.50	2687.00	2686.50	2685.75	2685.25	2685.00	2685.00	2684.75	2685.00	2685.00	2685.75	2686.50	2687.00	2688.00	2690.50	2693.50	2694.75	2694.75	2698.25	2700.75	2703.25	2709.50	2715.25	2720.25	2723.00	2723.25	2729.25	2728.75	2740.75	2745.25	2749.25	2745.75	2751.00	2758.00	2763.75	2760.50	2760.00	2746.75	2743.25	2749.50	2740.75	2728.75	2724.00	2718.75	2714.25	2716.50	2720.00	2710.50	2699.75	2690.00	2680.50	2672.50	2662.25	2658.75	2662.00	2667.00	2666.75	2668.75	2668.25	2664.00	2666.50	2666.50	2667.25	2673.00	2673.25	2675.25	2677.75	2678.75	2682.25	2686.25	2696.25	2703.25	2702.00	2748.25	2767.50	2780.25	2785.50	2788.75	2791.25	2787.00	2783.75	2787.50	2777.50	2778.75	2780.25	2785.00	2790.00	2794.25	2797.00	2796.50	2797.50	2799.00	2799.25	2787.50	2785.50	2784.75	2782.75	2781.00	2778.00	2776.50	2776.00	2772.00	2767.50	2764.75	2765.00	2762.25	2765.00	2765.00	2772.75	2774.75	2772.50	2781.75	2792.75	2792.50	2798.75	2807.25	2808.25	2804.75	2812.00	2811.50	2816.25	2816.50	2823.25	2825.00	2834.50	2836.25	2850.00	2854.25	2860.50	2869.00	2859.50	2863.25	2875.50	2867.00	2871.00	2887.00	2906.25	2915.25	2918.25	2920.50	2922.50	2919.50	2916.75	2924.25	2943.25	2956.25	2974.25	2989.50	3000.25	3016.50	3027.00	3041.75	3057.50	3071.00	3085.00	3095.25	3110.00	3115.50	3163.50	3242.75	3367.50	3482.00	3411.00	3315.00	3363.50	3368.50	3280.00	3200.25	3182.00	3166.50	3159.00	3155.00	3155.50	3155.75	3158.75	3157.25	3157.00	3158.75	3157.50	3154.25	3152.50	3151.50	3151.25	3152.25	3156.25	3168.25	3175.50	3183.25	3198.25	3205.75	3209.75	3213.25	3216.75	3219.50	3225.75	3234.50	3248.75	3261.25	3272.75	3284.00	3303.75	3348.50	3437.00	3760.00	3944.25	4210.00	4108.00	4247.75	4415.50	4059.25	4397.75	4652.25	4934.25	4967.00	5014.50	5076.25	5110.50	4955.25	4690.25	4592.25	4527.50	4474.25	4502.50
2759.00	2757.25	2755.75	2754.00	2753.75	2756.50	2753.75	2756.50	2758.25	2760.75	2762.50	2764.50	2764.75	2762.75	2756.50	2755.00	2748.50	2744.50	2747.25	2748.00	2746.25	2747.50	2748.25	2743.50	2744.50	2749.50	2748.00	2735.75	2726.00	2717.00	2710.00	2703.25	2696.25	2693.50	2689.50	2686.50	2686.75	2685.75	2685.00	2684.75	2685.25	2685.25	2685.25	2685.75	2687.50	2688.25	2688.25	2690.00	2693.50	2694.50	2694.75	2696.75	2701.00	2704.00	2709.25	2714.00	2720.75	2724.50	2727.25	2730.00	2731.75	2741.00	2748.25	2750.25	2757.50	2756.50	2757.50	2758.75	2761.75	2764.75	2755.25	2747.75	2744.25	2745.00	2738.00	2732.00	2720.25	2718.50	2719.00	2721.50	2720.00	2710.00	2703.75	2691.75	2681.50	2671.50	2664.75	2662.50	2661.00	2659.50	2658.75	2659.25	2659.00	2657.00	2661.25	2665.00	2666.50	2672.50	2672.00	2675.25	2677.50	2679.50	2685.50	2691.00	2701.75	2706.25	2706.25	2722.75	2762.50	2776.00	2784.50	2790.25	2790.75	2786.75	2786.75	2789.25	2777.25	2783.00	2782.75	2789.25	2796.25	2799.00	2800.25	2800.25	2796.75	2796.75	2786.50	2786.00	2786.00	2786.25	2785.75	2783.75	2779.75	2778.00	2776.75	2769.75	2764.50	2764.50	2765.00	2773.00	2775.25	2777.75	2780.75	2772.25	2779.25	2788.00	2800.75	2799.00	2801.75	2807.75	2815.00	2819.00	2816.00	2819.00	2824.25	2828.00	2829.00	2829.75	2830.75	2839.50	2849.50	2846.50	2851.00	2855.75	2855.00	2874.00	2882.25	2869.75	2881.50	2895.50	2911.25	2920.00	2923.00	2928.00	2930.25	2925.00	2920.25	2941.75	2954.25	2971.25	2982.50	2995.25	3012.00	3020.75	3033.25	3047.25	3057.75	3068.00	3075.25	3085.75	3090.00	3124.25	3158.25	3217.00	3340.75	3385.00	3294.50	3359.50	3454.50	3356.25	3228.75	3199.00	3169.75	3160.75	3154.25	3153.00	3153.75	3155.25	3154.00	3152.25	3150.50	3151.50	3151.75	3151.50	3151.25	3150.25	3149.00	3149.25	3153.50	3158.50	3166.25	3176.25	3181.50	3183.25	3185.50	3189.00	3192.75	3197.00	3202.75	3217.75	3226.25	3236.75	3245.00	3255.25	3303.50	3376.75	3603.75	3805.00	4013.75	3997.75	4046.00	4070.50	4039.25	4348.50	4562.25	4762.25	4797.75	5020.00	4937.25	4959.00	4935.50	4822.50	4732.25	4608.25	4444.25	4424.00
2746.50	2746.00	2746.75	2745.00	2744.75	2747.00	2746.25	2741.25	2741.50	2744.50	2747.00	2749.75	2750.50	2750.00	2748.00	2747.00	2742.50	2742.50	2743.25	2742.50	2739.25	2737.50	2737.75	2743.50	2748.50	2754.50	2754.25	2750.25	2744.75	2736.75	2726.75	2718.75	2704.50	2697.75	2691.75	2688.25	2687.75	2686.75	2686.25	2686.00	2685.75	2686.25	2686.25	2687.50	2688.25	2689.00	2689.50	2690.75	2693.50	2695.00	2696.25	2696.50	2701.00	2705.00	2709.25	2713.75	2720.00	2723.50	2730.75	2735.50	2739.00	2744.25	2752.00	2754.75	2756.75	2756.50	2759.00	2757.50	2758.25	2764.50	2767.25	2762.25	2751.25	2751.50	2746.50	2731.25	2725.00	2719.75	2721.25	2720.00	2724.25	2723.25	2715.25	2705.00	2695.25	2687.25	2680.25	2675.75	2672.00	2669.50	2664.50	2664.25	2665.00	2663.50	2662.75	2666.75	2668.25	2671.50	2673.25	2675.25	2675.75	2678.00	2684.50	2692.00	2698.75	2704.75	2707.00	2706.75	2715.25	2729.50	2750.00	2779.00	2787.75	2789.50	2789.50	2789.25	2789.00	2782.25	2781.25	2786.75	2791.75	2795.25	2797.25	2797.75	2796.75	2792.75	2784.50	2780.00	2777.50	2776.50	2780.50	2778.00	2775.75	2774.00	2771.25	2768.00	2765.00	2761.25	2761.00	2763.25	2764.25	2770.25	2773.50	2772.00	2779.25	2782.25	2792.75	2799.25	2801.75	2810.00	2815.75	2823.25	2826.25	2831.00	2842.50	2839.50	2839.25	2844.50	2835.25	2837.50	2851.75	2860.50	2861.75	2857.50	2857.50	2866.75	2870.50	2878.00	2889.75	2888.50	2888.50	2909.75	2925.00	2932.75	2935.00	2937.25	2935.50	2941.00	2951.75	2960.50	2970.25	2990.25	3002.75	3013.75	3026.75	3035.00	3042.50	3050.00	3054.50	3064.00	3074.25	3100.00	3122.25	3157.50	3199.00	3277.75	3303.25	3354.75	3416.25	3382.75	3360.25	3274.75	3203.50	3183.25	3165.25	3154.00	3153.00	3152.50	3152.25	3151.25	3150.00	3151.25	3151.25	3151.50	3151.00	3151.25	3150.25	3149.25	3149.00	3150.00	3151.00	3155.25	3160.00	3163.00	3164.50	3167.50	3172.75	3177.00	3180.50	3190.50	3198.00	3206.75	3220.00	3239.75	3281.25	3335.00	3457.25	3602.75	3698.00	3755.75	3815.25	3932.75	4242.00	4427.00	4666.25	4938.75	4724.00	4822.00	4719.50	4876.25	4944.00	4808.50	4676.75	4658.50	4495.50	4406.00
2740.75	2740.50	2742.75	2741.00	2739.25	2741.50	2743.25	2736.50	2731.00	2733.50	2735.75	2738.00	2739.00	2739.50	2739.00	2739.50	2737.00	2735.75	2735.25	2733.25	2731.00	2729.75	2733.75	2741.50	2744.00	2747.25	2749.25	2753.25	2752.25	2746.50	2737.25	2729.00	2711.50	2703.00	2695.00	2691.25	2687.50	2688.00	2687.00	2687.00	2686.25	2686.75	2687.25	2688.50	2688.50	2689.50	2690.25	2691.75	2693.50	2695.00	2697.50	2697.50	2702.25	2705.50	2710.25	2714.00	2720.25	2723.75	2732.00	2739.50	2743.00	2748.75	2755.50	2755.75	2755.25	2760.25	2762.75	2759.50	2755.75	2760.25	2772.00	2771.00	2761.00	2756.50	2752.75	2736.75	2730.25	2725.50	2722.00	2719.75	2724.25	2729.50	2722.50	2711.00	2703.50	2696.50	2689.50	2685.75	2678.75	2676.75	2672.50	2670.25	2670.00	2669.50	2667.25	2666.75	2669.75	2671.25	2673.50	2676.50	2676.50	2677.25	2685.75	2692.50	2698.50	2704.75	2711.00	2707.75	2710.50	2712.00	2719.25	2751.00	2777.75	2787.50	2789.50	2787.25	2791.50	2789.50	2782.00	2784.50	2788.00	2791.50	2787.75	2792.25	2796.25	2792.25	2785.25	2781.00	2777.75	2773.00	2774.25	2772.25	2770.50	2772.75	2768.75	2765.75	2761.00	2760.75	2762.50	2765.00	2766.00	2768.75	2768.50	2768.50	2770.75	2773.75	2789.00	2791.75	2799.00	2807.50	2812.50	2821.25	2825.75	2834.75	2841.00	2843.00	2837.75	2852.75	2837.25	2834.75	2839.75	2856.25	2878.75	2873.00	2863.50	2877.25	2875.25	2882.25	2900.00	2892.00	2885.75	2906.00	2924.00	2937.50	2939.25	2940.50	2944.00	2945.50	2947.00	2955.00	2969.25	2987.50	3000.50	3012.25	3022.00	3027.75	3034.75	3040.75	3044.50	3056.25	3070.75	3095.25	3114.25	3141.50	3173.00	3226.75	3280.75	3367.50	3439.75	3458.75	3474.00	3366.75	3251.25	3209.50	3176.25	3156.00	3153.00	3152.00	3151.75	3151.25	3151.50	3151.50	3151.50	3151.00	3151.50	3151.50	3151.75	3150.25	3149.00	3149.00	3149.00	3150.00	3152.25	3154.50	3154.25	3155.25	3161.50	3167.75	3171.50	3182.00	3187.75	3197.75	3217.75	3244.50	3277.00	3318.25	3437.00	3556.50	3629.25	3682.75	3802.75	4056.75	4443.75	4589.00	4771.25	4892.50	4692.00	4669.75	4634.00	4825.50	4874.75	4708.75	4582.00	4647.50	4506.25	4406.50
2733.50	2739.25	2736.50	2736.25	2731.25	2735.50	2733.00	2735.00	2728.25	2723.25	2723.75	2725.50	2726.00	2725.75	2726.00	2725.25	2723.00	2722.00	2721.00	2720.25	2720.50	2720.50	2721.50	2724.75	2727.25	2729.75	2734.75	2746.25	2745.50	2745.50	2744.50	2740.00	2722.50	2712.75	2701.00	2695.00	2690.50	2689.00	2688.75	2688.25	2687.75	2687.25	2687.50	2689.75	2689.00	2691.00	2692.75	2693.50	2695.00	2696.25	2698.25	2700.25	2704.75	2706.75	2712.50	2716.75	2721.75	2724.25	2734.50	2745.00	2747.50	2756.00	2763.25	2757.25	2760.25	2761.75	2760.25	2761.50	2760.75	2759.00	2761.50	2766.50	2765.00	2763.50	2758.25	2745.50	2739.25	2732.50	2729.00	2726.50	2721.75	2727.75	2731.25	2726.50	2711.75	2702.25	2698.75	2700.75	2695.75	2691.25	2685.75	2682.75	2680.25	2678.25	2677.25	2674.25	2674.75	2676.50	2677.50	2680.50	2682.50	2685.50	2689.75	2696.00	2703.00	2708.75	2717.25	2718.00	2711.25	2713.25	2714.25	2716.00	2725.25	2746.25	2754.75	2777.00	2784.25	2788.25	2787.50	2781.50	2778.25	2780.75	2782.25	2785.75	2787.25	2783.75	2785.00	2783.50	2781.00	2775.00	2773.25	2773.75	2771.00	2770.25	2768.25	2764.50	2762.25	2758.50	2762.00	2767.75	2772.25	2773.50	2770.25	2769.50	2769.00	2768.50	2771.75	2779.75	2788.00	2797.50	2811.75	2821.75	2827.25	2833.50	2831.75	2838.50	2842.50	2848.25	2838.00	2838.25	2841.25	2848.75	2865.75	2885.00	2896.25	2894.50	2896.50	2902.25	2903.50	2901.50	2896.75	2903.50	2916.25	2934.25	2944.50	2946.75	2950.25	2953.75	2957.75	2957.00	2972.00	2980.25	2994.00	3002.75	3016.50	3026.00	3029.00	3032.25	3038.25	3052.00	3067.25	3090.25	3108.00	3131.50	3153.25	3178.75	3200.00	3233.75	3300.25	3378.25	3616.00	3528.50	3333.25	3267.00	3203.50	3162.00	3158.25	3154.50	3152.25	3151.75	3151.50	3151.25	3151.25	3151.50	3151.50	3151.50	3151.25	3151.25	3150.75	3150.75	3150.00	3149.75	3149.25	3150.25	3150.75	3151.25	3154.25	3157.75	3163.00	3173.75	3177.75	3192.50	3214.25	3244.75	3286.00	3325.50	3438.50	3505.50	3658.25	3762.00	3896.75	4091.50	4295.75	4518.25	4730.00	4747.75	4627.50	4483.75	4595.75	4726.25	4730.25	4567.50	4479.00	4595.50	4495.75	4403.50
2726.25	2734.00	2734.50	2731.50	2732.25	2731.50	2729.00	2729.00	2725.25	2721.50	2721.25	2720.00	2722.25	2719.00	2718.25	2718.00	2715.50	2714.75	2713.00	2712.50	2711.75	2712.50	2712.75	2714.00	2716.00	2720.50	2721.75	2728.50	2738.50	2740.25	2739.75	2735.75	2728.75	2718.25	2708.75	2700.00	2693.25	2688.50	2688.25	2688.25	2687.75	2687.00	2687.50	2689.75	2689.75	2691.00	2693.50	2695.75	2696.25	2697.25	2699.75	2702.25	2705.50	2712.50	2714.75	2720.00	2722.75	2727.25	2736.75	2749.75	2750.50	2760.50	2764.50	2759.75	2762.00	2767.75	2770.50	2769.75	2766.25	2761.25	2761.50	2761.75	2761.25	2766.25	2762.50	2753.75	2742.75	2738.25	2735.75	2730.50	2724.50	2723.75	2726.75	2729.25	2723.25	2712.50	2710.75	2710.00	2711.75	2707.75	2700.25	2697.00	2693.25	2690.75	2688.50	2686.25	2683.75	2684.00	2684.25	2686.25	2689.25	2692.75	2697.25	2703.75	2710.00	2712.75	2713.75	2720.25	2719.00	2714.25	2714.75	2716.25	2716.75	2717.25	2716.25	2721.75	2733.25	2747.25	2755.75	2755.25	2752.75	2760.75	2769.00	2776.25	2783.25	2779.75	2779.75	2780.25	2778.00	2779.00	2778.50	2771.75	2774.25	2771.75	2770.50	2769.50	2764.75	2760.75	2763.00	2767.25	2769.50	2774.00	2773.00	2770.50	2769.00	2766.50	2770.50	2767.25	2770.00	2775.25	2806.25	2835.00	2839.50	2841.00	2848.75	2846.50	2856.50	2859.50	2854.50	2859.50	2855.00	2858.00	2869.75	2872.25	2891.00	2911.00	2923.75	2926.75	2920.25	2907.50	2904.50	2905.25	2910.25	2928.00	2947.00	2953.25	2957.50	2958.75	2963.00	2965.00	2970.75	2976.00	2986.00	2996.50	3012.25	3021.75	3025.00	3030.25	3037.50	3053.50	3066.50	3087.50	3102.50	3120.25	3135.25	3155.75	3166.25	3181.75	3211.75	3258.00	3482.25	3609.25	3450.50	3378.50	3253.75	3177.50	3166.00	3161.00	3155.75	3151.75	3151.75	3151.25	3151.00	3151.75	3151.25	3151.25	3151.50	3151.50	3151.50	3151.25	3151.25	3151.00	3149.75	3150.00	3150.50	3150.50	3152.00	3154.50	3158.75	3165.25	3169.00	3183.00	3204.25	3242.00	3289.00	3329.00	3417.00	3554.50	3779.75	3898.50	4051.00	3981.50	4250.00	4600.00	4818.00	4738.00	4567.75	4485.25	4584.50	4656.25	4594.00	4472.50	4407.50	4537.75	4401.75	4349.25
2720.75	2729.00	2734.00	2732.75	2729.00	2731.50	2728.75	2727.50	2725.25	2719.25	2718.50	2716.00	2716.75	2716.25	2715.00	2714.00	2711.75	2710.50	2709.50	2708.75	2708.25	2709.00	2709.00	2709.75	2710.25	2712.00	2715.25	2721.75	2727.50	2733.50	2737.25	2733.75	2727.50	2720.00	2711.00	2703.25	2694.25	2689.75	2686.50	2688.25	2687.25	2687.50	2687.25	2689.25	2691.00	2691.50	2693.50	2696.50	2697.00	2697.75	2700.00	2701.75	2705.25	2711.25	2716.00	2721.25	2724.50	2728.00	2736.50	2751.00	2754.25	2763.00	2763.50	2764.00	2765.25	2772.25	2774.25	2772.50	2770.25	2766.25	2764.50	2763.25	2759.50	2763.75	2767.50	2759.50	2746.00	2740.00	2737.00	2731.75	2726.25	2722.50	2723.25	2724.50	2721.25	2716.50	2714.75	2715.00	2719.00	2717.50	2710.75	2708.50	2705.00	2700.50	2696.50	2694.75	2693.75	2692.75	2692.50	2693.75	2696.00	2699.75	2704.00	2709.25	2713.50	2711.50	2714.75	2719.00	2720.00	2717.50	2718.00	2718.75	2717.25	2716.75	2717.00	2718.00	2719.00	2728.50	2739.25	2745.50	2750.00	2757.00	2762.75	2768.50	2779.50	2779.00	2776.50	2776.75	2776.50	2776.50	2779.25	2777.25	2776.50	2774.25	2769.75	2767.75	2764.25	2761.50	2764.75	2765.25	2764.25	2769.25	2771.00	2771.00	2772.75	2770.25	2770.50	2769.00	2766.25	2764.50	2789.00	2815.75	2823.00	2831.50	2839.25	2842.75	2844.00	2847.25	2863.75	2875.25	2872.50	2875.50	2885.00	2887.50	2904.00	2916.00	2927.50	2924.75	2929.75	2928.50	2926.75	2914.50	2922.75	2932.00	2940.50	2953.50	2960.50	2962.75	2967.00	2970.75	2973.75	2977.25	2985.25	2992.50	3007.75	3022.50	3029.25	3032.75	3039.00	3055.00	3067.75	3087.50	3103.00	3118.75	3132.75	3148.25	3155.25	3165.25	3193.50	3224.50	3382.25	3503.25	3556.50	3473.25	3326.75	3198.50	3178.00	3164.00	3158.25	3153.50	3151.50	3151.50	3151.25	3152.00	3151.50	3151.25	3151.25	3151.25	3151.25	3151.25	3151.25	3151.00	3150.00	3149.75	3151.00	3151.25	3152.25	3155.00	3157.75	3162.25	3165.50	3178.25	3201.00	3237.00	3280.50	3320.50	3404.75	3536.00	3744.25	3891.25	4006.00	4068.00	4279.75	4632.00	4801.25	4792.00	4578.75	4456.00	4543.25	4608.00	4613.75	4484.25	4380.50	4481.75	4399.50	4329.75
2719.75	2720.50	2731.75	2733.75	2727.50	2726.00	2728.25	2726.25	2724.50	2717.00	2715.00	2715.00	2713.00	2711.50	2711.00	2711.00	2707.25	2706.50	2706.00	2706.25	2706.50	2706.25	2705.50	2704.50	2705.00	2705.00	2704.00	2710.25	2717.25	2719.50	2722.75	2722.75	2723.50	2721.25	2711.75	2707.00	2696.50	2690.25	2687.25	2685.50	2687.25	2687.25	2688.00	2688.00	2689.25	2691.75	2693.00	2695.25	2697.75	2698.50	2700.50	2701.50	2705.25	2712.75	2717.00	2722.75	2726.50	2728.50	2736.50	2752.50	2756.25	2769.00	2764.75	2769.00	2774.75	2777.25	2777.50	2778.00	2774.75	2772.50	2770.00	2769.75	2762.50	2759.25	2766.75	2768.75	2756.00	2741.75	2733.75	2730.25	2727.25	2723.00	2719.75	2721.25	2720.25	2718.00	2718.25	2719.25	2719.50	2722.50	2719.75	2718.75	2717.25	2714.50	2708.25	2706.25	2704.25	2708.50	2708.00	2708.00	2708.75	2711.50	2715.25	2715.00	2711.25	2713.50	2719.00	2719.50	2722.50	2725.25	2726.50	2723.50	2721.50	2719.00	2715.50	2719.25	2723.25	2720.50	2724.25	2732.00	2738.25	2750.00	2755.75	2758.50	2768.75	2773.75	2777.75	2775.25	2778.00	2779.00	2773.00	2776.75	2776.50	2776.00	2775.00	2760.50	2757.50	2762.00	2760.75	2758.50	2762.25	2763.25	2769.75	2770.25	2768.75	2773.00	2772.75	2770.75	2768.50	2763.50	2767.50	2785.50	2790.25	2830.50	2836.00	2834.25	2833.50	2833.50	2857.00	2891.50	2904.25	2890.75	2881.75	2888.50	2902.75	2909.50	2912.50	2903.50	2907.50	2918.50	2929.25	2951.50	2954.00	2949.50	2947.75	2958.25	2971.25	2972.50	2973.75	2977.75	2981.75	2982.50	2991.00	2997.25	3012.00	3033.00	3042.50	3039.50	3042.25	3054.00	3064.75	3081.25	3104.25	3126.25	3144.25	3154.00	3151.25	3151.75	3174.50	3198.50	3284.50	3374.50	3518.00	3586.50	3432.00	3252.50	3211.50	3177.25	3164.50	3157.25	3153.75	3151.50	3152.00	3152.00	3151.75	3151.25	3151.50	3151.00	3151.00	3151.00	3151.00	3151.00	3150.00	3149.00	3151.75	3152.00	3152.25	3155.25	3156.75	3159.50	3160.75	3173.75	3193.50	3222.50	3266.75	3315.25	3410.50	3493.75	3644.50	3739.50	3923.25	4101.25	4334.00	4430.00	4575.00	4582.75	4549.75	4346.50	4536.25	4551.25	4609.00	4537.75	4373.50	4309.75	4361.75	4325.00
2725.75	2725.25	2728.25	2734.50	2729.25	2717.25	2727.25	2725.50	2723.75	2717.50	2714.75	2713.25	2713.25	2711.50	2709.25	2708.75	2705.50	2706.00	2706.25	2705.75	2704.75	2704.00	2703.25	2702.50	2702.25	2702.00	2702.50	2703.50	2705.25	2712.00	2716.25	2715.75	2715.50	2716.00	2713.50	2704.50	2695.00	2691.25	2689.25	2684.75	2685.00	2686.75	2686.25	2686.50	2687.50	2689.75	2691.25	2693.25	2697.25	2698.25	2699.25	2701.75	2704.25	2709.25	2716.00	2722.00	2726.00	2728.50	2735.50	2752.25	2757.25	2770.00	2765.25	2774.75	2780.75	2781.00	2787.75	2791.75	2789.75	2778.00	2772.25	2769.50	2771.00	2764.25	2767.25	2770.00	2757.25	2743.25	2735.75	2728.25	2724.00	2721.25	2719.75	2719.25	2718.00	2717.75	2719.50	2719.25	2717.50	2720.75	2723.75	2723.50	2721.50	2718.75	2717.75	2714.25	2714.00	2714.25	2715.50	2719.00	2720.00	2721.50	2722.00	2721.00	2716.75	2719.00	2720.75	2724.75	2730.50	2731.25	2731.25	2732.00	2725.75	2723.50	2721.50	2720.50	2719.75	2719.50	2718.50	2722.00	2727.50	2747.00	2757.25	2757.50	2761.25	2775.50	2779.75	2777.00	2776.75	2781.25	2778.25	2772.75	2775.50	2775.75	2776.00	2773.25	2769.25	2763.75	2757.75	2761.75	2763.00	2767.25	2769.75	2771.75	2777.00	2780.25	2781.25	2775.75	2770.00	2768.75	2768.00	2777.50	2782.25	2809.00	2826.75	2852.75	2840.00	2839.00	2851.00	2878.00	2894.25	2909.50	2887.25	2889.75	2903.25	2900.50	2903.00	2907.75	2922.00	2920.25	2928.00	2955.75	2967.00	2970.00	2971.25	2973.75	2982.75	2985.75	2980.75	2983.25	2987.75	2990.50	2996.00	3004.00	3015.75	3033.50	3047.00	3049.00	3048.50	3055.75	3064.25	3077.50	3094.75	3123.25	3144.25	3167.25	3167.00	3147.25	3168.25	3190.00	3253.75	3318.00	3438.00	3555.25	3453.25	3355.75	3265.00	3196.50	3172.50	3160.50	3155.75	3153.25	3152.50	3152.75	3152.00	3151.50	3152.00	3151.00	3151.00	3151.00	3151.00	3151.00	3150.00	3149.00	3150.50	3151.50	3152.50	3154.25	3155.00	3157.50	3161.00	3174.25	3188.25	3218.25	3265.75	3311.75	3405.00	3485.75	3617.75	3733.50	3952.25	4172.75	4384.00	4492.25	4330.25	4244.00	4374.50	4191.75	4367.75	4389.75	4568.25	4603.50	4493.75	4396.00	4249.75	4239.75
2731.25	2731.25	2729.00	2732.75	2733.25	2715.75	2726.50	2725.50	2723.50	2718.25	2714.25	2713.50	2712.50	2710.75	2707.50	2706.25	2706.50	2706.50	2705.75	2704.75	2704.00	2702.50	2701.50	2701.00	2700.50	2700.25	2700.50	2702.25	2702.75	2703.25	2708.00	2711.75	2711.75	2710.75	2707.50	2703.50	2693.00	2690.50	2689.25	2684.75	2684.25	2685.00	2685.75	2685.75	2686.00	2686.75	2688.50	2691.00	2694.25	2697.50	2698.25	2700.50	2701.75	2707.25	2712.75	2719.25	2725.50	2728.25	2734.25	2750.00	2758.75	2763.00	2766.50	2777.50	2781.75	2787.50	2797.50	2801.50	2803.50	2800.50	2778.75	2771.75	2772.00	2771.00	2763.50	2764.50	2763.75	2753.00	2737.75	2728.50	2724.00	2720.00	2717.00	2716.75	2714.75	2717.75	2719.75	2719.75	2723.25	2726.25	2728.50	2728.50	2729.25	2728.00	2728.00	2723.00	2721.50	2721.25	2720.50	2721.00	2723.75	2723.50	2722.00	2722.75	2721.25	2719.25	2728.25	2732.75	2736.00	2733.50	2734.00	2730.50	2730.00	2726.00	2724.00	2722.50	2719.75	2718.75	2721.50	2722.50	2730.00	2740.00	2757.25	2762.00	2759.00	2768.75	2779.00	2779.00	2776.00	2781.75	2781.00	2776.00	2771.50	2778.00	2775.00	2778.50	2777.75	2766.00	2756.00	2762.00	2762.00	2769.50	2768.75	2770.75	2772.75	2780.25	2780.25	2778.25	2769.75	2774.75	2793.50	2790.00	2781.25	2799.25	2806.00	2842.00	2839.75	2836.75	2855.75	2865.25	2875.00	2903.50	2912.75	2903.25	2905.50	2912.25	2909.75	2910.75	2928.00	2929.25	2935.00	2950.25	2960.25	2982.25	2987.00	2981.75	2973.75	2978.75	2978.75	2990.25	2996.00	2998.50	3001.50	3003.75	3015.00	3032.25	3042.50	3049.75	3053.75	3060.75	3068.00	3080.00	3091.75	3107.50	3126.50	3145.75	3151.00	3148.25	3158.75	3178.50	3240.75	3338.25	3568.75	3635.00	3532.50	3369.00	3269.75	3214.00	3181.75	3166.25	3159.50	3153.75	3153.00	3152.50	3152.25	3151.75	3151.75	3151.25	3151.00	3150.00	3150.50	3151.00	3149.25	3149.00	3149.75	3151.25	3152.50	3153.75	3155.25	3159.00	3164.75	3178.00	3194.75	3223.00	3263.75	3304.25	3387.75	3448.25	3562.25	3728.25	3985.50	4357.25	4401.25	4249.75	4297.50	4169.25	4265.00	4098.50	4152.25	4348.50	4399.50	4608.50	4683.75	4528.25	4310.50	4194.00
2723.00	2731.00	2728.50	2723.75	2730.00	2714.50	2719.50	2726.00	2724.25	2720.75	2714.50	2712.25	2712.75	2711.75	2709.00	2706.50	2706.75	2705.75	2705.50	2704.50	2703.00	2702.00	2700.75	2700.00	2699.75	2699.25	2698.75	2699.25	2700.00	2701.50	2702.50	2703.75	2705.00	2703.75	2700.25	2698.75	2693.50	2688.50	2687.00	2686.50	2686.00	2685.00	2686.25	2687.75	2687.25	2687.00	2686.50	2687.50	2689.50	2693.00	2697.25	2699.25	2701.25	2703.50	2707.50	2714.50	2720.50	2725.50	2730.75	2742.00	2753.00	2762.00	2770.00	2772.25	2783.50	2792.50	2799.75	2806.00	2807.50	2810.75	2798.25	2781.00	2773.75	2770.25	2768.75	2763.50	2760.00	2753.00	2744.25	2725.50	2721.50	2719.25	2715.75	2713.75	2710.50	2715.50	2718.25	2719.50	2723.50	2726.50	2733.25	2738.00	2741.00	2742.00	2743.75	2744.00	2742.00	2736.00	2733.50	2730.50	2730.50	2730.25	2729.00	2729.75	2729.75	2730.50	2733.25	2738.25	2741.50	2742.75	2738.75	2733.75	2727.75	2723.50	2720.50	2721.25	2719.00	2718.75	2720.50	2721.50	2728.00	2738.25	2754.75	2762.00	2767.25	2765.25	2776.75	2777.75	2777.75	2779.75	2782.25	2783.75	2778.00	2776.25	2777.00	2773.75	2778.25	2773.50	2772.75	2775.00	2776.00	2777.75	2774.50	2768.00	2775.25	2776.25	2781.25	2775.75	2774.50	2774.25	2791.25	2795.50	2793.75	2793.25	2796.25	2819.25	2830.25	2844.50	2854.50	2866.00	2872.25	2885.75	2909.75	2919.50	2918.75	2921.00	2920.75	2920.00	2934.00	2951.50	2963.25	2975.50	2979.00	2985.00	2979.75	2974.00	2973.75	2976.75	2977.75	2992.75	3010.75	3013.50	3014.50	3014.75	3021.00	3038.75	3053.75	3062.75	3063.75	3068.75	3073.75	3081.75	3090.00	3103.75	3123.75	3144.50	3150.00	3153.50	3157.50	3170.75	3237.50	3319.00	3459.50	3652.25	3604.00	3419.50	3353.25	3267.00	3208.00	3185.75	3171.75	3157.75	3154.25	3152.75	3152.00	3151.75	3151.50	3151.00	3151.00	3150.50	3150.75	3149.00	3149.00	3149.00	3149.75	3151.00	3153.25	3154.75	3157.00	3163.50	3170.75	3185.75	3205.50	3232.00	3265.25	3298.75	3360.00	3408.50	3483.50	3571.50	3859.75	4084.25	4122.00	4075.50	4004.00	4259.75	4314.00	4060.00	4101.00	4211.00	4340.75	4524.75	4539.75	4581.00	4327.25	4187.00
2716.25	2722.00	2720.75	2717.50	2725.25	2712.25	2715.25	2726.00	2724.75	2722.50	2717.25	2712.50	2713.00	2712.25	2710.00	2707.25	2706.50	2705.00	2705.00	2704.00	2703.25	2701.50	2700.25	2699.25	2699.00	2698.50	2698.25	2698.00	2698.50	2700.25	2703.00	2702.50	2700.00	2701.25	2697.25	2696.50	2693.00	2688.50	2686.25	2686.75	2686.25	2685.75	2686.75	2687.50	2688.00	2688.25	2687.50	2686.25	2687.00	2689.50	2693.75	2697.25	2700.50	2702.50	2706.00	2711.25	2717.75	2723.25	2728.00	2737.75	2747.00	2759.75	2767.25	2769.00	2782.50	2792.50	2802.00	2807.75	2808.75	2813.50	2809.50	2793.00	2779.00	2770.75	2770.50	2764.75	2760.00	2754.50	2745.50	2727.75	2721.25	2718.50	2716.25	2711.00	2708.50	2711.75	2716.00	2717.75	2721.75	2725.25	2734.75	2741.75	2746.75	2749.75	2753.00	2754.25	2754.50	2747.75	2745.25	2740.25	2739.25	2740.00	2737.75	2736.25	2737.00	2738.00	2735.25	2739.75	2743.50	2744.50	2741.25	2735.50	2728.00	2723.00	2721.25	2719.75	2718.50	2717.75	2720.75	2722.50	2725.50	2739.25	2751.50	2760.25	2768.25	2771.25	2773.25	2780.75	2778.75	2779.25	2783.00	2784.75	2784.00	2778.25	2776.00	2778.00	2781.25	2781.25	2784.50	2781.75	2780.25	2779.50	2780.50	2772.00	2771.00	2774.00	2781.50	2776.50	2775.50	2775.50	2787.00	2793.00	2794.75	2793.25	2794.75	2820.00	2832.50	2848.00	2862.75	2870.00	2876.25	2880.50	2892.50	2914.25	2923.50	2927.75	2925.00	2931.75	2933.50	2949.75	2971.50	2982.00	2981.50	2982.75	2973.50	2971.50	2975.50	2976.00	2977.00	2986.00	3011.25	3022.75	3024.00	3023.50	3024.50	3040.50	3059.75	3069.50	3071.50	3076.00	3080.50	3085.00	3092.00	3104.75	3120.50	3146.75	3157.25	3162.00	3162.75	3174.75	3241.75	3314.75	3438.25	3616.25	3599.25	3423.75	3342.00	3257.00	3224.25	3198.25	3180.25	3164.00	3157.75	3153.50	3152.50	3152.00	3151.50	3151.00	3150.75	3150.00	3149.75	3149.00	3149.00	3149.00	3150.00	3151.25	3154.25	3155.25	3157.75	3165.25	3174.25	3188.75	3210.00	3237.75	3271.50	3301.50	3355.75	3394.00	3456.50	3521.00	3727.25	3985.25	3903.75	3939.25	3948.25	4268.75	4191.75	4154.50	4191.50	4241.00	4361.75	4438.25	4449.25	4564.50	4332.25	4185.25
2722.75	2721.00	2719.25	2719.25	2718.75	2717.50	2715.50	2721.00	2722.50	2723.75	2722.50	2714.25	2713.00	2712.75	2711.00	2709.50	2707.75	2707.25	2705.25	2703.75	2703.50	2701.75	2700.25	2698.50	2698.00	2697.50	2696.50	2697.00	2697.50	2698.00	2699.25	2700.75	2700.50	2700.00	2698.00	2696.25	2692.75	2690.00	2686.75	2686.00	2686.25	2686.00	2687.00	2687.00	2687.50	2688.75	2689.50	2689.00	2687.25	2686.50	2688.50	2690.75	2696.00	2699.50	2704.75	2709.75	2714.50	2717.00	2721.75	2729.50	2735.25	2752.00	2757.50	2767.50	2776.25	2787.00	2800.25	2808.50	2813.75	2822.00	2826.50	2816.25	2787.25	2780.75	2776.00	2771.75	2764.00	2759.75	2754.50	2738.75	2727.50	2719.25	2714.50	2710.25	2709.75	2708.50	2710.25	2712.00	2717.75	2720.50	2731.75	2739.75	2749.25	2758.50	2765.75	2766.25	2766.25	2764.75	2764.00	2761.00	2757.25	2754.50	2752.75	2747.25	2745.00	2744.00	2745.50	2745.00	2745.00	2742.00	2742.50	2734.25	2728.25	2725.50	2721.50	2717.75	2712.00	2715.25	2717.25	2721.75	2726.00	2736.75	2751.25	2759.00	2764.75	2771.50	2775.50	2777.25	2777.75	2780.75	2781.75	2785.75	2786.00	2784.25	2782.00	2780.25	2784.50	2782.25	2786.25	2787.50	2780.25	2781.75	2776.25	2774.25	2775.00	2772.75	2776.25	2783.75	2779.25	2780.50	2797.50	2812.75	2809.50	2799.75	2800.50	2812.25	2836.00	2861.50	2891.75	2891.75	2891.00	2890.75	2892.25	2901.00	2907.25	2918.00	2925.00	2939.75	2941.50	2942.25	2951.00	2963.25	2971.00	2970.25	2969.00	2973.50	2976.50	2979.50	2981.75	2983.25	2989.25	3016.00	3040.50	3039.50	3035.75	3039.50	3063.00	3079.50	3085.00	3089.25	3093.25	3098.50	3103.25	3113.25	3125.50	3148.75	3165.75	3176.75	3177.25	3185.75	3232.25	3278.75	3478.25	3543.50	3500.50	3414.00	3318.50	3267.75	3242.00	3210.00	3193.25	3176.00	3166.50	3159.25	3156.50	3158.25	3157.50	3157.25	3154.25	3151.00	3150.50	3151.75	3153.50	3153.75	3155.75	3156.50	3157.75	3158.25	3159.50	3167.25	3178.25	3192.00	3213.00	3242.50	3279.25	3312.00	3369.00	3409.00	3456.50	3495.00	3573.25	3696.75	3800.00	3848.25	3899.00	3988.50	3938.00	4161.25	4237.75	4306.00	4294.50	4251.00	4427.50	4513.75	4304.00	4176.25
2728.25	2727.00	2724.75	2722.75	2720.00	2719.00	2716.25	2717.75	2722.25	2724.00	2726.00	2717.50	2713.25	2713.75	2711.25	2710.00	2709.00	2708.25	2706.25	2704.00	2703.50	2702.25	2700.25	2698.50	2698.00	2697.00	2696.00	2696.50	2697.00	2697.25	2697.75	2698.75	2700.00	2701.25	2700.00	2698.25	2693.50	2691.50	2688.00	2686.25	2686.25	2686.25	2687.00	2687.00	2687.50	2688.00	2689.00	2689.00	2688.75	2687.00	2686.50	2687.50	2691.75	2696.75	2700.50	2705.25	2709.25	2715.50	2719.00	2724.50	2730.50	2742.50	2752.75	2765.00	2770.00	2781.75	2795.25	2807.50	2815.75	2826.00	2838.00	2832.25	2801.00	2786.50	2779.25	2772.50	2767.00	2760.75	2758.50	2746.50	2736.00	2721.75	2716.00	2710.75	2710.00	2708.00	2707.75	2708.00	2716.25	2719.00	2726.50	2736.25	2749.75	2763.00	2770.50	2767.75	2767.50	2767.75	2768.75	2768.50	2765.25	2763.75	2762.00	2756.25	2752.00	2748.25	2750.75	2750.75	2747.50	2744.75	2742.75	2734.25	2727.75	2724.00	2720.25	2713.50	2707.00	2711.00	2715.75	2721.75	2726.00	2734.00	2748.75	2759.00	2763.00	2768.25	2777.50	2778.50	2775.75	2780.00	2781.25	2784.00	2786.00	2785.25	2789.00	2782.50	2784.75	2782.25	2785.25	2787.25	2786.00	2783.50	2775.25	2773.75	2771.00	2769.25	2773.75	2783.50	2781.50	2783.50	2798.00	2812.75	2817.75	2815.50	2812.50	2816.50	2837.00	2873.50	2885.75	2892.75	2896.00	2892.75	2894.50	2900.50	2908.50	2914.75	2933.25	2952.50	2953.00	2947.50	2951.25	2955.25	2961.50	2965.00	2969.25	2975.75	2980.00	2983.00	2984.75	2988.25	2992.75	3006.50	3048.25	3049.25	3043.75	3039.50	3061.50	3085.00	3092.00	3097.25	3101.25	3107.00	3111.75	3119.25	3130.50	3150.75	3167.25	3181.50	3187.75	3195.75	3225.00	3259.75	3394.25	3495.75	3498.75	3504.25	3369.75	3295.50	3271.25	3216.75	3203.00	3184.25	3171.25	3164.00	3162.75	3165.75	3165.00	3164.25	3160.50	3155.50	3153.00	3153.75	3157.00	3158.50	3159.25	3159.00	3159.50	3160.00	3161.75	3169.50	3180.25	3193.00	3214.25	3242.25	3276.00	3310.00	3369.25	3412.25	3461.25	3495.50	3544.00	3638.00	3869.25	3997.75	3941.75	3927.50	3975.50	3983.75	4051.75	4206.50	4169.00	4170.00	4373.50	4416.00	4341.50	4165.75
2738.75	2737.25	2735.75	2733.50	2730.75	2726.00	2723.00	2719.50	2719.00	2720.50	2728.25	2722.75	2715.50	2714.75	2713.00	2710.75	2709.75	2708.75	2707.25	2705.50	2703.75	2702.50	2700.75	2699.25	2697.75	2697.00	2696.00	2696.00	2696.00	2696.25	2696.50	2697.25	2697.50	2698.00	2698.00	2696.50	2695.25	2692.00	2688.00	2686.50	2686.25	2687.00	2687.00	2687.00	2687.00	2687.50	2687.75	2686.75	2687.00	2687.75	2686.75	2686.50	2687.25	2692.25	2695.25	2700.00	2705.00	2711.50	2713.75	2719.00	2724.00	2732.50	2740.75	2758.75	2766.00	2774.75	2786.00	2802.50	2812.75	2827.00	2840.25	2846.75	2840.25	2816.00	2787.50	2775.75	2772.25	2766.00	2760.00	2756.00	2744.75	2729.00	2719.25	2711.50	2705.75	2708.25	2705.75	2704.00	2714.00	2717.75	2717.50	2724.25	2741.25	2760.25	2772.50	2772.25	2776.25	2779.25	2780.00	2779.50	2777.00	2771.00	2768.75	2764.50	2762.75	2760.00	2756.50	2761.75	2755.50	2751.75	2752.25	2739.25	2728.00	2721.75	2716.00	2709.75	2706.75	2705.75	2710.00	2718.00	2727.75	2734.50	2741.25	2751.00	2765.50	2764.50	2774.50	2778.50	2779.25	2777.75	2779.75	2780.25	2788.00	2789.25	2790.00	2792.50	2788.00	2790.25	2786.25	2787.75	2789.75	2789.50	2781.25	2782.00	2776.50	2772.50	2766.50	2772.00	2778.00	2780.25	2797.50	2805.75	2809.25	2833.75	2849.75	2844.50	2850.00	2865.00	2867.25	2880.75	2894.00	2891.50	2895.75	2898.25	2911.25	2920.75	2934.00	2974.50	2966.00	2972.25	2960.75	2972.00	2971.75	2969.75	2976.75	2980.25	2987.75	2988.50	2990.00	2991.75	2998.50	3003.00	3024.50	3057.25	3056.25	3048.75	3059.50	3089.50	3098.25	3107.75	3112.50	3118.25	3122.75	3129.25	3137.50	3155.50	3170.50	3182.25	3195.75	3207.25	3235.50	3256.25	3313.50	3394.75	3433.25	3511.75	3423.25	3336.25	3293.25	3233.75	3215.50	3190.00	3179.75	3174.75	3179.00	3178.75	3177.50	3177.50	3170.25	3164.25	3158.25	3156.25	3157.75	3161.75	3162.00	3162.50	3162.25	3163.00	3164.75	3173.00	3181.75	3194.00	3214.25	3239.75	3270.25	3298.75	3351.50	3390.25	3442.50	3472.00	3507.50	3600.75	3918.00	4056.50	4179.50	4168.75	4216.25	4135.75	4138.00	4100.50	4118.00	4211.50	4157.75	4219.50	4276.00	4145.50
2750.75	2748.00	2746.25	2744.75	2743.00	2737.25	2733.25	2727.25	2725.25	2721.25	2724.25	2724.75	2719.75	2717.00	2714.75	2711.25	2710.00	2709.75	2708.00	2707.00	2704.75	2703.75	2701.75	2700.00	2698.50	2697.00	2696.50	2696.00	2695.50	2695.25	2696.00	2696.25	2697.25	2697.25	2696.50	2695.75	2693.75	2691.25	2687.75	2686.75	2687.25	2687.25	2687.00	2686.50	2686.50	2687.25	2687.25	2686.00	2685.25	2685.75	2687.00	2687.00	2686.50	2688.00	2690.00	2693.75	2699.50	2703.75	2708.00	2714.75	2718.75	2727.00	2731.25	2745.50	2757.00	2766.00	2776.75	2791.75	2808.50	2823.75	2838.00	2855.25	2858.50	2856.50	2814.75	2781.00	2778.00	2771.00	2765.50	2758.75	2748.25	2737.50	2728.75	2718.50	2712.75	2717.25	2701.75	2699.50	2709.00	2715.00	2715.75	2714.25	2723.00	2743.50	2767.50	2775.00	2781.00	2786.25	2790.75	2787.50	2786.25	2782.25	2779.25	2774.75	2769.50	2765.00	2760.75	2761.00	2763.75	2760.00	2752.75	2745.50	2730.50	2716.50	2710.75	2706.50	2703.00	2700.75	2701.25	2709.00	2723.00	2732.25	2739.50	2742.75	2758.50	2767.50	2770.50	2776.25	2779.25	2778.25	2778.25	2781.75	2786.50	2790.50	2790.00	2793.25	2794.00	2788.25	2787.00	2788.50	2791.75	2798.75	2792.75	2792.50	2794.00	2790.50	2772.75	2768.75	2777.00	2783.75	2793.25	2805.00	2823.50	2811.25	2824.75	2833.00	2844.75	2855.50	2859.00	2871.00	2886.50	2889.75	2892.25	2905.75	2915.25	2924.00	2933.00	2945.00	2957.25	2977.50	2980.00	2987.50	2991.00	2985.50	2976.50	2983.75	2992.00	2995.75	2997.00	2996.25	3000.75	3005.75	3013.25	3020.25	3051.25	3060.00	3061.75	3081.00	3100.50	3116.75	3123.75	3130.00	3134.25	3140.50	3147.75	3163.75	3179.25	3193.50	3200.25	3211.50	3242.50	3258.00	3290.00	3324.25	3392.25	3481.25	3419.50	3318.00	3284.50	3298.50	3261.00	3211.25	3209.50	3203.25	3198.75	3195.25	3193.00	3190.50	3185.00	3181.00	3182.25	3162.25	3160.25	3161.00	3165.75	3165.50	3165.75	3167.75	3170.50	3177.25	3183.50	3193.50	3212.75	3236.25	3263.50	3287.50	3334.50	3367.75	3406.75	3428.00	3448.75	3503.00	3744.75	3936.25	4093.75	4239.00	4446.50	4309.75	4507.25	4386.00	4294.75	4243.50	4279.00	4251.50	4155.00	4184.25
2761.75	2758.75	2756.00	2753.75	2752.25	2749.25	2744.50	2739.25	2735.50	2730.75	2726.75	2726.75	2725.75	2722.25	2717.50	2716.00	2711.25	2709.25	2708.75	2708.00	2706.25	2704.75	2703.00	2701.00	2700.00	2697.50	2696.50	2695.25	2695.00	2695.25	2695.25	2696.00	2697.00	2697.75	2695.75	2695.25	2692.75	2690.50	2687.75	2687.00	2688.00	2688.00	2687.50	2687.00	2686.50	2686.25	2686.75	2685.75	2685.00	2685.00	2685.50	2685.75	2686.50	2687.00	2688.00	2689.00	2691.75	2696.75	2701.00	2710.75	2714.25	2720.00	2724.00	2731.75	2740.75	2752.75	2764.00	2778.50	2793.50	2811.25	2832.75	2846.75	2862.50	2872.00	2858.75	2814.25	2786.00	2778.75	2773.75	2761.75	2755.75	2745.50	2736.75	2726.75	2720.75	2708.50	2701.00	2698.75	2699.75	2707.00	2711.50	2712.00	2713.25	2717.50	2737.00	2772.25	2780.00	2789.50	2795.25	2794.75	2798.25	2795.75	2792.75	2789.75	2781.00	2776.50	2767.75	2764.75	2760.75	2755.75	2749.50	2742.25	2732.00	2712.75	2706.75	2700.25	2694.75	2694.75	2695.25	2700.00	2711.25	2723.75	2733.00	2739.00	2747.00	2755.25	2767.75	2769.00	2774.25	2778.50	2777.25	2774.00	2777.50	2784.25	2790.25	2791.50	2795.50	2791.50	2788.00	2788.75	2791.50	2795.75	2802.50	2805.50	2799.50	2803.25	2797.00	2789.75	2801.00	2800.00	2800.75	2807.75	2823.50	2816.50	2818.75	2829.00	2850.50	2855.25	2863.75	2867.75	2878.25	2884.50	2892.50	2896.75	2913.75	2927.25	2933.50	2945.75	2959.75	2972.25	2983.50	2982.75	2993.25	3002.50	2985.00	2976.00	2973.50	2989.00	3000.00	3007.75	3008.50	3011.00	3015.25	3021.75	3034.25	3053.25	3065.00	3078.25	3095.25	3123.25	3139.00	3145.00	3149.00	3155.25	3162.50	3175.25	3190.50	3206.25	3215.00	3220.75	3249.00	3263.00	3336.75	3325.50	3364.50	3407.25	3419.75	3398.25	3373.50	3370.00	3407.75	3343.00	3321.25	3272.00	3248.50	3224.75	3217.25	3213.75	3218.75	3239.75	3250.00	3178.00	3168.50	3164.00	3166.50	3169.50	3170.25	3174.00	3176.75	3181.50	3185.50	3194.50	3208.75	3227.25	3249.75	3270.50	3309.25	3335.75	3363.50	3375.00	3387.75	3430.50	3612.25	3767.50	3873.50	4109.50	4370.75	4554.25	4458.75	4454.00	4490.75	4522.00	4514.25	4540.75	4277.50	4092.25
2768.25	2765.00	2761.00	2758.00	2755.25	2753.75	2750.00	2745.25	2741.50	2735.75	2731.00	2727.50	2727.75	2725.00	2719.50	2717.75	2714.00	2708.75	2708.75	2708.75	2707.00	2705.50	2704.00	2701.75	2700.50	2697.75	2696.50	2695.50	2695.00	2695.00	2695.00	2695.50	2696.50	2697.75	2696.00	2695.25	2692.75	2690.50	2688.25	2687.00	2688.50	2687.75	2687.75	2687.00	2686.50	2686.00	2686.50	2685.75	2685.50	2684.75	2684.75	2685.50	2686.00	2686.50	2686.75	2687.00	2688.75	2692.50	2696.75	2704.50	2709.75	2718.50	2719.50	2725.25	2730.00	2742.50	2753.50	2769.00	2784.25	2800.75	2827.50	2838.50	2859.75	2870.75	2879.50	2848.75	2801.00	2781.00	2778.75	2765.75	2758.50	2752.75	2742.25	2730.75	2720.25	2708.50	2701.50	2699.25	2697.25	2703.00	2710.00	2710.00	2712.50	2713.00	2718.75	2756.00	2777.00	2788.25	2796.25	2797.00	2801.75	2803.25	2801.50	2799.25	2788.00	2784.50	2773.50	2770.50	2765.00	2761.25	2751.00	2746.25	2737.50	2718.00	2706.75	2697.50	2692.50	2692.75	2692.00	2696.75	2706.25	2717.75	2726.75	2735.25	2742.00	2749.00	2763.75	2766.00	2769.75	2775.75	2776.25	2774.25	2774.75	2774.75	2786.50	2787.50	2794.50	2798.25	2791.00	2789.50	2793.50	2794.00	2801.75	2803.75	2800.50	2804.75	2814.75	2810.75	2820.25	2820.50	2804.00	2808.00	2817.25	2825.50	2830.25	2837.00	2845.25	2854.50	2873.25	2868.25	2877.50	2894.75	2898.25	2894.75	2910.25	2924.00	2936.25	2941.25	2957.50	2979.00	2995.75	2989.50	2994.00	3008.75	2993.25	2983.75	2974.75	2981.25	2992.50	3014.25	3014.50	3015.50	3015.75	3023.50	3032.50	3041.75	3057.00	3080.00	3092.75	3122.00	3145.50	3154.50	3158.00	3164.25	3171.50	3182.25	3194.50	3211.75	3224.50	3230.25	3256.25	3272.25	3361.00	3377.25	3347.00	3389.25	3408.25	3433.50	3428.75	3432.50	3426.75	3399.25	3344.75	3282.25	3287.50	3255.50	3234.75	3238.25	3243.75	3260.25	3262.25	3211.00	3182.75	3169.50	3167.25	3170.00	3172.25	3176.50	3179.00	3183.00	3186.00	3194.50	3206.25	3221.75	3241.50	3260.25	3292.75	3316.25	3338.25	3345.50	3363.75	3408.00	3541.00	3683.25	3833.75	4029.00	4059.25	4687.75	4437.75	4283.50	4390.50	4507.25	4518.50	4492.25	4360.25	4105.25
2767.00	2767.75	2769.75	2766.75	2763.00	2756.50	2753.50	2750.25	2745.75	2740.25	2734.50	2727.75	2725.50	2726.00	2722.25	2718.00	2715.75	2711.50	2710.00	2709.75	2708.00	2706.25	2704.75	2703.00	2701.50	2699.00	2697.50	2696.00	2695.00	2695.00	2695.00	2695.50	2695.75	2696.75	2696.00	2695.75	2695.00	2691.00	2688.50	2687.25	2687.75	2688.25	2688.00	2687.00	2686.75	2686.25	2686.00	2685.75	2685.25	2684.00	2684.00	2684.00	2684.75	2684.50	2685.25	2686.00	2687.00	2689.00	2691.25	2696.25	2700.25	2707.50	2712.50	2720.00	2722.00	2727.25	2735.75	2749.25	2764.25	2781.00	2802.75	2818.00	2841.50	2855.25	2877.25	2880.00	2849.50	2809.50	2786.00	2775.00	2768.25	2758.75	2750.50	2739.75	2724.75	2714.75	2709.25	2706.25	2698.50	2701.00	2710.00	2711.50	2711.25	2713.00	2715.00	2726.50	2742.00	2767.75	2780.00	2796.75	2803.75	2808.00	2808.75	2806.00	2800.50	2800.75	2785.75	2778.75	2769.00	2763.50	2761.75	2745.00	2738.75	2728.00	2715.75	2695.25	2693.50	2684.50	2679.25	2680.00	2689.75	2706.75	2717.25	2724.25	2733.75	2739.25	2752.25	2763.50	2765.75	2769.25	2775.00	2776.75	2772.25	2768.75	2776.75	2787.00	2789.75	2798.25	2795.25	2793.00	2793.25	2795.50	2800.50	2799.50	2804.50	2808.75	2809.50	2816.25	2830.50	2843.50	2839.00	2832.50	2833.00	2814.00	2825.25	2834.50	2850.00	2848.75	2860.25	2864.00	2860.00	2875.75	2886.75	2892.50	2913.25	2916.25	2926.50	2935.25	2949.75	2977.75	2990.00	3020.75	3020.50	3004.75	2995.00	2996.00	2994.00	3021.25	3017.00	3015.00	3023.00	3026.75	3024.75	3022.75	3031.00	3037.50	3043.25	3062.25	3081.50	3107.50	3140.50	3168.00	3173.75	3179.00	3185.50	3196.25	3204.25	3216.75	3243.50	3244.75	3263.00	3276.50	3313.50	3408.75	3407.75	3418.50	3440.75	3436.00	3469.00	3492.75	3458.25	3394.25	3377.50	3365.25	3358.25	3307.75	3293.75	3325.50	3373.50	3410.00	3461.50	3498.75	3283.00	3190.00	3181.75	3176.75	3175.75	3178.25	3181.00	3184.75	3188.50	3197.25	3207.00	3217.50	3230.50	3243.00	3267.00	3283.75	3300.00	3310.75	3330.75	3364.25	3439.50	3589.50	3664.00	3746.25	3912.75	4467.00	4467.25	4327.25	4212.25	4158.00	4274.25	4239.75	4183.25	4264.25
2773.00	2764.75	2767.00	2771.25	2766.75	2762.75	2754.75	2752.50	2748.00	2741.75	2736.00	2729.00	2722.50	2725.25	2721.75	2718.25	2714.75	2715.00	2710.50	2710.00	2709.00	2707.50	2705.50	2703.50	2702.25	2700.00	2699.00	2697.00	2696.00	2695.25	2695.00	2695.25	2695.75	2696.25	2695.75	2696.00	2694.75	2691.75	2688.25	2687.00	2687.50	2687.00	2687.50	2687.25	2687.00	2686.25	2686.00	2686.00	2684.25	2684.00	2684.00	2684.00	2684.00	2684.00	2684.25	2685.00	2685.25	2686.25	2688.00	2690.25	2692.75	2698.00	2701.00	2709.50	2718.25	2717.75	2718.75	2729.75	2741.00	2763.00	2777.50	2790.25	2815.50	2832.50	2852.75	2870.25	2867.75	2856.25	2823.75	2782.00	2773.50	2764.75	2755.50	2748.00	2732.50	2722.25	2718.75	2712.25	2708.25	2704.75	2706.50	2710.75	2711.75	2713.00	2713.75	2720.25	2726.50	2740.50	2752.50	2769.00	2789.75	2804.50	2807.25	2805.25	2807.25	2806.75	2794.50	2788.75	2777.75	2771.75	2769.75	2761.25	2749.25	2733.75	2725.00	2703.00	2692.25	2678.75	2672.75	2668.50	2663.75	2685.75	2704.00	2711.75	2723.50	2729.50	2742.50	2752.00	2764.25	2767.50	2769.25	2776.75	2776.50	2771.75	2770.50	2782.50	2791.25	2797.00	2799.75	2798.75	2800.50	2794.75	2803.75	2801.50	2807.00	2809.50	2812.00	2806.25	2820.25	2847.50	2879.00	2866.25	2864.75	2818.00	2812.25	2854.75	2855.25	2849.25	2851.50	2860.00	2864.75	2869.25	2873.00	2885.50	2895.00	2907.75	2915.75	2923.75	2943.00	2953.50	2959.50	2982.00	2998.75	3009.00	3004.75	3021.00	3023.00	3026.25	3047.25	3023.25	3024.00	3030.25	3035.75	3028.25	3028.50	3031.50	3038.00	3048.25	3081.00	3095.75	3114.25	3153.75	3177.75	3193.00	3199.25	3209.00	3217.25	3224.25	3246.75	3261.50	3263.00	3275.25	3303.75	3328.00	3378.25	3413.00	3438.50	3447.50	3478.75	3517.25	3474.75	3483.00	3475.50	3429.50	3373.25	3347.25	3378.75	3386.25	3412.00	3429.00	3453.25	3508.75	3459.50	3234.75	3206.00	3190.50	3181.00	3181.00	3184.25	3188.25	3192.00	3199.50	3208.75	3217.50	3227.25	3235.00	3249.75	3262.00	3277.50	3287.75	3302.25	3321.00	3350.75	3424.50	3527.25	3593.50	3698.00	3878.00	4048.50	4124.50	4296.75	4037.00	3965.50	4072.50	3771.00	4022.00
2773.25	2768.75	2767.75	2770.00	2768.50	2762.75	2756.50	2752.25	2747.75	2741.75	2735.75	2727.75	2721.50	2723.75	2721.75	2718.25	2716.50	2716.75	2712.75	2711.50	2709.50	2708.25	2706.00	2703.75	2702.75	2701.00	2700.25	2698.00	2697.00	2696.25	2695.50	2695.50	2696.00	2696.00	2696.00	2696.00	2694.25	2691.25	2688.75	2686.75	2687.25	2686.75	2686.50	2687.25	2687.00	2686.25	2686.00	2686.00	2684.00	2684.00	2684.00	2684.00	2684.00	2684.00	2684.00	2684.50	2684.75	2685.50	2687.00	2688.00	2689.75	2694.50	2696.75	2702.75	2710.00	2713.25	2714.50	2719.50	2728.50	2749.00	2763.25	2775.50	2796.25	2813.25	2835.00	2852.25	2858.25	2857.75	2843.25	2795.00	2780.25	2767.50	2759.00	2750.25	2737.50	2724.00	2720.75	2715.75	2711.00	2708.25	2705.75	2708.50	2711.25	2712.75	2714.25	2716.75	2721.00	2735.50	2743.00	2758.00	2771.00	2786.25	2796.25	2798.75	2803.75	2806.25	2796.25	2790.50	2781.75	2778.00	2771.50	2768.00	2760.75	2742.50	2732.50	2711.50	2692.25	2683.00	2671.75	2667.00	2659.25	2671.75	2691.75	2704.00	2715.25	2722.00	2736.50	2745.25	2758.00	2767.75	2769.25	2775.50	2777.50	2777.25	2774.50	2781.00	2790.50	2796.00	2800.00	2801.75	2799.25	2801.25	2803.75	2800.75	2808.75	2810.00	2812.50	2810.00	2815.50	2842.00	2881.00	2888.25	2886.75	2849.00	2830.25	2854.50	2872.75	2853.00	2848.25	2856.00	2868.50	2873.00	2874.00	2885.25	2891.25	2900.25	2910.75	2922.00	2950.50	2965.25	2963.50	2967.75	2978.50	3008.75	3019.25	3026.50	3047.00	3044.25	3042.50	3041.25	3031.75	3031.00	3037.00	3042.50	3043.75	3037.75	3038.00	3046.25	3063.00	3088.50	3111.75	3137.25	3160.75	3190.00	3205.75	3216.75	3223.75	3230.75	3245.50	3256.75	3268.00	3276.00	3300.00	3317.25	3341.50	3382.50	3420.25	3439.25	3463.75	3489.75	3470.00	3471.00	3454.00	3428.25	3401.25	3380.25	3409.50	3429.25	3441.75	3459.25	3472.75	3610.50	3560.00	3278.75	3224.50	3195.00	3183.00	3183.25	3187.00	3191.00	3194.25	3200.75	3209.50	3217.50	3226.75	3234.50	3248.75	3260.25	3275.25	3286.25	3300.25	3315.75	3337.50	3370.25	3443.75	3484.75	3522.75	3614.75	3731.00	3838.50	3883.00	3844.75	3744.50	3817.75	3647.75	3821.50
2773.25	2771.00	2769.75	2771.25	2770.00	2762.75	2754.50	2751.25	2747.50	2740.25	2733.00	2726.25	2722.50	2722.50	2717.50	2716.25	2715.50	2716.25	2715.25	2713.25	2709.75	2708.75	2707.75	2704.75	2704.25	2702.25	2701.25	2699.50	2698.50	2698.00	2697.00	2696.25	2696.00	2696.00	2696.25	2696.00	2694.00	2691.50	2689.50	2687.25	2686.75	2686.75	2686.00	2686.25	2686.25	2686.25	2686.00	2686.00	2684.25	2684.00	2684.00	2684.00	2684.00	2684.00	2684.00	2684.00	2684.00	2684.25	2686.00	2686.75	2687.00	2689.25	2691.50	2695.50	2700.00	2704.00	2707.75	2710.75	2711.75	2724.25	2742.00	2751.25	2768.75	2781.00	2801.50	2823.50	2838.50	2845.25	2841.00	2827.75	2800.75	2773.75	2765.50	2756.25	2745.25	2729.00	2720.25	2715.50	2712.75	2714.00	2706.50	2714.00	2711.75	2713.50	2715.50	2715.75	2717.50	2728.75	2734.50	2750.50	2760.50	2763.25	2771.50	2782.50	2793.25	2799.00	2795.50	2794.00	2788.50	2782.00	2773.75	2769.25	2770.25	2751.25	2735.00	2725.25	2699.25	2691.75	2679.00	2665.50	2657.25	2656.75	2666.00	2681.25	2702.00	2707.25	2723.00	2733.50	2744.50	2758.25	2769.75	2773.00	2781.50	2779.50	2785.25	2782.75	2789.25	2800.50	2799.00	2805.00	2807.25	2806.25	2806.75	2806.75	2808.00	2808.75	2812.50	2810.50	2814.00	2832.75	2871.75	2892.75	2900.00	2894.50	2885.75	2860.25	2873.00	2879.00	2851.00	2840.75	2850.25	2854.75	2871.75	2887.75	2901.50	2904.50	2913.50	2926.50	2950.25	2971.75	2969.75	2974.50	2971.25	2990.00	3025.50	3039.50	3041.50	3076.00	3054.75	3059.25	3059.25	3059.75	3041.00	3052.50	3062.00	3073.50	3069.50	3064.50	3066.75	3081.25	3101.25	3130.50	3141.25	3168.75	3202.25	3228.50	3236.25	3241.75	3255.75	3263.00	3270.25	3287.00	3299.50	3308.00	3328.75	3353.75	3372.50	3386.00	3410.75	3419.50	3476.50	3422.50	3436.50	3471.00	3453.25	3433.50	3462.50	3484.25	3486.00	3489.00	3539.75	3694.00	3618.75	3334.75	3271.25	3221.75	3194.75	3188.00	3191.75	3196.00	3198.75	3203.75	3210.00	3217.75	3226.25	3233.50	3247.50	3260.00	3276.75	3288.00	3301.75	3314.75	3321.50	3311.00	3370.75	3649.75	3661.50	3570.50	3483.75	3458.25	3572.00	3720.00	3801.00	3685.75	3560.50	3630.75
2768.00	2771.25	2770.75	2772.25	2767.75	2763.75	2755.75	2749.00	2745.00	2737.50	2729.75	2723.75	2721.50	2722.75	2720.00	2717.00	2716.75	2717.50	2716.00	2714.25	2711.50	2709.50	2707.50	2705.75	2705.00	2703.25	2702.00	2700.75	2699.75	2699.50	2698.25	2697.25	2697.00	2696.75	2697.00	2696.50	2694.25	2691.50	2689.50	2687.50	2686.75	2687.00	2686.00	2686.00	2686.50	2685.75	2686.00	2686.00	2684.50	2684.00	2684.00	2684.00	2684.00	2684.00	2684.00	2684.00	2684.00	2684.00	2684.00	2685.50	2686.75	2687.25	2688.00	2691.75	2694.00	2697.75	2703.75	2705.50	2709.00	2709.75	2721.25	2733.00	2750.25	2761.75	2778.00	2796.50	2816.50	2831.75	2834.25	2835.25	2823.50	2786.00	2778.00	2763.25	2750.25	2736.25	2727.50	2718.75	2714.50	2715.00	2709.00	2708.50	2712.75	2713.00	2716.25	2717.50	2716.75	2719.50	2725.00	2739.00	2746.50	2757.50	2765.25	2771.25	2783.25	2788.00	2791.50	2793.00	2791.25	2785.50	2776.50	2769.75	2769.00	2755.50	2743.25	2731.75	2714.00	2696.50	2690.25	2671.50	2660.50	2656.00	2657.50	2664.00	2683.75	2698.00	2712.00	2721.25	2730.50	2745.25	2765.75	2775.00	2784.75	2785.75	2791.25	2794.50	2793.25	2799.50	2808.25	2809.00	2809.25	2809.50	2810.00	2813.75	2813.75	2812.00	2809.50	2810.50	2812.25	2823.00	2864.00	2885.75	2893.25	2877.25	2875.50	2869.50	2873.50	2884.25	2882.75	2856.25	2849.75	2855.25	2866.75	2884.75	2912.25	2921.00	2924.75	2930.50	2940.25	2958.50	2969.00	2973.50	2977.75	2985.00	2993.25	3009.50	3032.50	3046.25	3050.50	3052.25	3091.25	3083.50	3074.00	3061.25	3060.75	3063.75	3080.50	3095.25	3102.75	3093.75	3108.25	3122.50	3135.75	3149.00	3171.75	3216.50	3239.50	3247.50	3262.50	3277.00	3280.75	3282.00	3300.50	3303.75	3319.25	3343.25	3356.50	3364.25	3372.75	3388.50	3414.25	3423.50	3447.75	3494.25	3456.50	3474.75	3501.75	3528.75	3507.00	3526.75	3557.25	3682.25	3653.75	3363.25	3306.00	3313.00	3214.75	3193.50	3196.00	3200.25	3202.50	3206.75	3211.75	3217.50	3225.25	3232.25	3245.75	3257.50	3274.50	3285.50	3298.25	3310.25	3309.00	3313.00	3371.00	3718.50	3845.50	3857.50	3774.00	3818.75	3732.00	3865.50	4172.75	4140.50	3757.25	3668.25
2769.50	2775.00	2772.75	2771.50	2769.00	2763.25	2756.00	2747.50	2743.00	2738.75	2728.00	2721.00	2718.75	2719.00	2718.50	2716.75	2717.25	2716.75	2716.00	2714.25	2714.00	2711.50	2708.00	2706.75	2706.00	2704.75	2703.50	2702.00	2701.25	2700.50	2699.75	2699.00	2698.00	2698.00	2697.25	2696.75	2694.00	2691.50	2689.50	2687.50	2687.00	2687.00	2686.50	2687.00	2686.00	2686.00	2686.00	2686.00	2684.75	2684.00	2684.00	2684.00	2684.00	2684.00	2684.00	2684.00	2684.00	2684.00	2684.00	2684.00	2684.00	2685.25	2686.50	2687.50	2691.00	2693.75	2696.50	2702.25	2703.25	2707.50	2709.25	2714.50	2731.75	2740.50	2758.50	2771.75	2791.00	2809.75	2818.25	2824.75	2829.50	2811.25	2797.50	2776.75	2757.50	2737.50	2729.75	2723.25	2715.50	2713.25	2713.25	2709.25	2712.50	2712.25	2716.00	2719.75	2719.75	2720.50	2724.00	2733.00	2739.75	2750.25	2759.50	2764.75	2770.25	2777.00	2783.75	2784.50	2782.75	2783.00	2775.50	2775.75	2771.25	2760.25	2745.75	2726.25	2717.00	2698.50	2692.25	2678.50	2664.00	2657.75	2656.00	2657.75	2672.75	2682.00	2703.50	2710.75	2719.00	2725.00	2743.50	2773.25	2786.50	2794.50	2798.00	2804.00	2806.50	2801.50	2807.00	2813.50	2814.50	2811.75	2814.25	2812.00	2811.00	2812.25	2812.25	2810.75	2810.25	2812.50	2829.50	2851.25	2854.25	2839.00	2849.75	2854.75	2853.00	2861.50	2897.75	2885.75	2875.00	2876.50	2867.00	2874.50	2903.00	2915.25	2925.00	2924.25	2939.75	2943.25	2948.50	2954.25	2969.50	2994.00	3011.00	2995.25	3004.25	3015.50	3020.75	3031.75	3070.75	3101.50	3108.00	3101.25	3087.75	3074.25	3073.00	3086.00	3098.00	3110.25	3123.50	3151.25	3158.50	3140.50	3149.00	3188.25	3221.25	3240.50	3260.75	3275.00	3303.50	3303.00	3299.00	3303.00	3314.75	3334.25	3345.75	3354.75	3362.75	3371.00	3381.00	3439.50	3454.00	3469.25	3490.00	3522.00	3525.00	3560.00	3568.50	3608.00	3760.25	3827.25	3639.00	3406.50	3362.00	3341.50	3311.75	3212.25	3209.00	3227.25	3235.00	3228.00	3215.50	3219.50	3224.75	3230.75	3242.75	3253.50	3268.75	3279.75	3291.50	3302.50	3296.00	3312.50	3341.25	3538.75	3850.75	4116.50	4044.50	4085.50	4026.50	4091.75	4235.75	4030.50	3852.00	3805.25
2770.75	2776.75	2775.00	2773.25	2769.00	2764.25	2757.75	2746.75	2743.25	2740.25	2735.25	2724.75	2718.00	2716.50	2716.50	2716.25	2715.25	2718.00	2716.25	2714.50	2714.50	2714.75	2712.25	2709.75	2708.00	2706.50	2705.00	2703.75	2703.00	2702.00	2701.25	2700.50	2699.00	2698.50	2697.25	2696.50	2694.00	2691.75	2689.75	2687.50	2686.75	2686.75	2686.25	2686.25	2686.50	2686.00	2686.00	2686.00	2685.75	2684.75	2684.50	2684.75	2685.00	2684.25	2684.50	2684.00	2684.25	2685.25	2685.25	2685.50	2684.75	2684.00	2685.50	2687.25	2688.00	2689.50	2692.00	2694.50	2698.75	2701.75	2703.75	2705.50	2709.50	2718.75	2735.25	2749.75	2761.00	2775.75	2784.75	2794.25	2802.00	2804.50	2806.75	2788.25	2764.25	2746.50	2729.25	2726.00	2719.00	2717.25	2717.75	2714.00	2715.75	2717.50	2718.00	2720.25	2722.25	2723.50	2725.25	2730.75	2737.50	2745.25	2749.25	2758.00	2761.50	2765.25	2772.75	2771.75	2774.50	2774.50	2779.00	2777.50	2769.00	2760.00	2746.50	2727.75	2717.75	2702.00	2695.75	2685.75	2675.00	2663.25	2659.25	2658.00	2669.50	2680.75	2698.75	2706.50	2711.50	2717.75	2721.50	2734.50	2771.75	2793.50	2802.00	2811.00	2816.25	2814.50	2812.50	2813.75	2815.50	2818.00	2815.00	2812.50	2815.25	2808.75	2810.50	2808.75	2810.00	2808.50	2813.25	2820.00	2823.00	2829.75	2848.75	2868.25	2875.00	2883.00	2884.75	2898.00	2902.25	2888.25	2883.50	2875.00	2877.00	2892.50	2910.75	2925.50	2941.50	2947.75	2940.75	2948.00	2955.00	2977.50	3002.50	3011.00	3023.25	3025.00	3021.50	3037.25	3056.00	3061.50	3083.25	3119.25	3124.00	3105.00	3093.50	3089.50	3094.00	3108.75	3115.50	3155.75	3206.00	3199.00	3168.75	3168.75	3183.75	3200.25	3224.00	3246.50	3284.50	3300.25	3310.50	3310.50	3316.00	3331.00	3339.50	3346.50	3352.00	3364.25	3378.75	3408.00	3427.50	3480.00	3515.50	3535.75	3536.75	3553.75	3568.00	3603.75	3706.00	3825.50	3607.75	3447.00	3448.00	3392.75	3404.50	3362.75	3292.25	3256.50	3320.50	3398.25	3318.00	3234.00	3225.75	3230.00	3239.25	3247.50	3260.25	3268.75	3279.25	3286.00	3281.50	3293.25	3305.25	3398.50	3541.75	4036.25	4240.50	4299.75	4195.25	4326.00	4449.00	4371.25	4194.75	4077.25
2773.00	2776.25	2776.50	2774.75	2769.75	2765.75	2759.50	2748.75	2744.50	2739.50	2737.50	2727.25	2719.75	2716.00	2716.25	2716.00	2715.00	2716.75	2715.50	2714.50	2714.25	2714.75	2713.00	2710.50	2709.25	2707.25	2706.00	2704.75	2703.75	2703.00	2701.50	2701.25	2699.25	2699.25	2697.25	2696.50	2694.25	2692.25	2690.50	2688.00	2687.00	2686.50	2686.00	2686.75	2686.00	2686.25	2686.00	2686.00	2686.00	2685.75	2685.50	2686.00	2686.50	2685.50	2685.50	2685.50	2685.75	2686.75	2686.75	2687.00	2686.25	2684.00	2686.25	2687.25	2687.25	2687.75	2689.50	2691.75	2693.50	2698.75	2701.00	2703.00	2702.75	2708.00	2721.25	2736.25	2746.75	2759.50	2767.25	2777.50	2783.25	2793.50	2794.75	2791.00	2772.75	2755.25	2734.50	2726.50	2722.75	2722.50	2720.00	2720.00	2720.50	2718.50	2720.75	2720.75	2722.25	2725.00	2727.25	2731.75	2735.75	2739.50	2743.50	2755.00	2763.50	2763.00	2767.75	2766.50	2767.25	2771.00	2776.75	2773.50	2764.50	2755.00	2744.50	2731.50	2720.25	2702.50	2701.75	2689.75	2680.00	2667.75	2661.25	2661.25	2671.25	2682.50	2699.50	2704.25	2709.25	2716.25	2718.00	2721.75	2745.25	2775.50	2797.50	2810.25	2816.25	2824.25	2820.75	2813.25	2812.75	2818.50	2816.50	2814.75	2817.00	2809.75	2808.50	2806.50	2808.50	2806.75	2811.75	2815.50	2820.50	2830.25	2846.50	2875.75	2884.00	2895.75	2905.00	2900.00	2914.25	2892.00	2878.00	2882.25	2875.00	2881.25	2896.75	2917.50	2931.00	2931.25	2934.50	2944.25	2954.75	2971.25	2987.50	3002.75	3026.75	3041.25	3044.00	3043.25	3065.25	3068.00	3067.75	3111.25	3135.75	3123.50	3112.75	3106.50	3099.00	3113.00	3123.50	3132.00	3188.75	3212.50	3208.00	3169.00	3172.75	3186.25	3216.50	3231.50	3266.25	3280.00	3305.25	3314.25	3327.75	3338.25	3336.50	3342.00	3349.00	3364.00	3377.50	3402.50	3431.00	3475.25	3489.75	3531.50	3586.00	3609.00	3611.50	3628.00	3732.00	3826.25	3645.00	3466.75	3471.75	3447.25	3460.25	3504.50	3378.00	3275.00	3306.00	3454.25	3479.00	3280.75	3235.00	3231.25	3238.00	3244.00	3254.25	3261.75	3270.25	3276.00	3274.50	3280.75	3292.75	3366.50	3445.75	3779.50	4029.50	4152.25	4153.50	4312.75	4541.25	4580.00	4445.25	4307.75
2777.25	2776.75	2773.00	2773.00	2773.75	2768.25	2765.25	2757.00	2750.75	2744.00	2740.25	2732.00	2725.00	2719.75	2715.75	2715.50	2715.25	2715.75	2715.00	2715.50	2714.75	2713.50	2712.75	2710.25	2710.00	2708.75	2707.75	2706.25	2705.25	2704.25	2703.50	2702.50	2700.50	2699.25	2697.75	2695.75	2695.00	2693.75	2691.75	2689.50	2687.75	2686.75	2686.25	2686.25	2686.25	2686.50	2686.25	2686.50	2686.75	2687.50	2687.00	2687.00	2687.50	2687.50	2687.50	2687.75	2687.75	2687.50	2687.75	2687.00	2687.75	2686.75	2687.75	2687.75	2687.75	2688.00	2688.50	2689.75	2692.50	2694.75	2698.25	2697.25	2699.00	2700.25	2707.00	2716.25	2730.00	2739.50	2750.25	2755.50	2761.75	2768.50	2770.50	2776.00	2779.00	2766.25	2748.25	2735.50	2721.75	2725.75	2719.50	2725.25	2725.25	2723.75	2725.50	2728.25	2729.75	2731.25	2731.50	2734.75	2736.00	2736.75	2743.25	2751.00	2755.00	2761.25	2764.00	2765.50	2769.75	2770.00	2766.50	2754.50	2756.25	2748.25	2738.00	2732.50	2725.25	2705.75	2700.25	2694.50	2686.75	2678.25	2671.50	2671.50	2678.50	2689.25	2704.75	2706.25	2711.50	2715.50	2719.25	2723.50	2730.50	2737.50	2747.50	2780.75	2788.75	2804.50	2809.25	2809.00	2809.75	2808.00	2810.75	2810.50	2813.75	2812.00	2809.00	2807.00	2805.25	2802.00	2805.00	2812.75	2817.00	2833.75	2845.25	2873.25	2889.50	2906.75	2950.25	2943.75	2933.25	2923.50	2900.50	2893.25	2891.25	2881.00	2889.00	2909.50	2930.25	2932.25	2933.25	2946.00	2958.25	2978.50	2985.75	2997.25	3004.75	3013.25	3040.75	3053.75	3060.25	3070.75	3081.50	3094.00	3115.75	3118.25	3118.75	3118.25	3125.25	3128.50	3132.00	3140.75	3146.50	3162.75	3200.50	3200.00	3190.50	3195.00	3201.50	3207.00	3229.00	3243.75	3264.75	3275.00	3296.75	3316.50	3319.00	3334.50	3342.00	3361.00	3384.75	3418.00	3423.75	3435.75	3467.00	3488.75	3537.50	3544.25	3585.75	3643.50	3612.75	3708.50	3575.25	3476.50	3544.50	3531.50	3508.00	3460.75	3469.25	3460.25	3347.75	3365.75	3461.75	3407.50	3304.75	3251.25	3237.25	3241.00	3245.75	3251.25	3259.50	3264.00	3264.75	3265.25	3273.50	3338.50	3398.25	3562.50	3687.25	3841.00	4058.50	4314.50	4252.25	4430.75	4629.25	4682.00
2779.25	2782.50	2772.00	2765.25	2770.25	2772.00	2768.50	2762.75	2759.00	2750.75	2743.00	2735.50	2728.25	2722.50	2716.50	2717.50	2715.00	2715.00	2715.00	2715.50	2715.50	2715.00	2713.75	2711.50	2711.00	2710.00	2709.50	2706.50	2706.00	2704.75	2703.75	2703.00	2700.75	2699.00	2697.75	2696.25	2695.75	2694.75	2692.75	2690.25	2688.75	2686.75	2686.25	2686.00	2686.00	2686.50	2687.00	2687.75	2687.75	2687.50	2687.50	2687.50	2688.00	2688.75	2688.25	2688.25	2688.25	2688.00	2688.00	2687.75	2687.75	2688.00	2688.00	2688.00	2688.25	2688.25	2688.25	2688.00	2689.00	2692.00	2694.00	2697.00	2697.00	2695.75	2697.25	2699.25	2710.50	2720.75	2726.25	2728.25	2739.50	2747.25	2750.50	2755.00	2761.75	2765.75	2759.25	2754.50	2728.00	2722.25	2716.75	2723.25	2728.50	2727.75	2730.25	2737.00	2738.25	2740.00	2741.00	2739.50	2740.50	2740.75	2743.75	2749.00	2751.50	2751.50	2758.50	2757.50	2762.25	2760.50	2759.50	2732.00	2736.50	2743.00	2737.50	2733.00	2722.00	2705.50	2700.75	2698.25	2691.00	2685.75	2683.75	2683.50	2688.25	2696.75	2708.75	2713.25	2717.00	2721.25	2724.25	2731.50	2735.75	2738.25	2742.50	2754.25	2757.25	2767.00	2773.50	2780.25	2789.75	2794.75	2799.75	2801.75	2804.50	2806.25	2804.75	2807.50	2805.75	2791.00	2791.25	2803.25	2813.00	2827.75	2842.75	2861.00	2869.25	2881.50	2907.75	2956.25	2968.50	2948.50	2923.25	2931.25	2922.25	2912.50	2899.00	2897.75	2915.50	2927.25	2936.50	2949.00	2960.25	2990.25	3000.00	3006.75	3022.25	3024.25	3025.25	3040.00	3051.50	3072.00	3093.50	3104.25	3100.50	3099.25	3121.75	3126.75	3130.25	3157.25	3177.00	3165.75	3164.25	3178.00	3198.50	3232.25	3231.00	3226.25	3227.75	3218.25	3224.50	3237.00	3254.75	3254.25	3261.50	3279.75	3291.25	3295.25	3302.25	3317.25	3341.00	3385.50	3415.50	3423.75	3423.75	3454.00	3506.50	3496.25	3518.50	3516.75	3548.50	3519.50	3484.00	3441.75	3467.75	3457.50	3459.00	3453.75	3506.50	3537.00	3506.75	3364.00	3339.00	3326.50	3355.75	3443.25	3275.50	3241.75	3239.00	3242.50	3249.00	3252.50	3254.75	3254.00	3257.50	3312.00	3362.75	3468.25	3515.75	3609.50	3795.75	4008.75	4034.00	4235.75	4256.25	4440.00
2778.50	2780.50	2776.50	2771.25	2767.75	2771.50	2770.00	2766.50	2761.00	2757.25	2749.25	2741.00	2736.00	2730.25	2722.25	2723.25	2716.50	2715.25	2716.50	2715.75	2716.25	2715.75	2714.75	2712.50	2711.75	2711.00	2710.00	2707.25	2706.00	2705.50	2704.00	2703.25	2701.00	2700.00	2698.25	2697.00	2696.50	2695.25	2693.50	2691.00	2689.25	2687.25	2686.00	2686.25	2686.50	2686.75	2687.25	2688.00	2688.00	2688.00	2688.00	2688.00	2688.25	2689.00	2688.50	2688.50	2688.00	2688.25	2688.25	2688.00	2688.25	2688.00	2688.25	2688.00	2688.50	2688.25	2688.00	2688.25	2688.00	2690.25	2693.00	2695.50	2696.50	2695.50	2694.00	2695.50	2702.25	2709.25	2712.75	2719.75	2722.00	2733.50	2739.75	2741.50	2747.75	2756.75	2755.75	2754.00	2738.25	2729.50	2718.00	2718.75	2726.25	2731.25	2733.00	2736.25	2739.50	2742.75	2742.75	2742.50	2741.75	2743.00	2746.75	2749.25	2752.00	2751.75	2755.75	2753.50	2754.75	2752.50	2753.25	2729.50	2724.75	2731.50	2732.50	2726.50	2720.25	2702.25	2698.00	2695.25	2691.50	2688.25	2686.50	2688.50	2695.25	2700.00	2711.50	2717.00	2723.50	2727.75	2732.75	2738.50	2743.25	2744.00	2742.75	2752.50	2756.75	2765.75	2769.75	2779.00	2784.00	2792.50	2798.25	2795.00	2798.00	2802.25	2801.25	2802.75	2803.25	2796.25	2796.00	2803.25	2813.00	2824.25	2838.50	2867.00	2867.75	2874.00	2892.50	2926.25	2966.50	2966.00	2926.00	2923.50	2936.50	2930.75	2917.00	2908.75	2913.50	2922.00	2930.75	2948.50	2955.50	2990.25	3009.75	3016.50	3028.75	3041.25	3046.25	3049.25	3058.00	3063.75	3080.75	3096.75	3107.50	3111.75	3126.50	3142.00	3143.75	3163.75	3186.25	3192.00	3188.50	3194.50	3208.00	3239.75	3255.00	3263.25	3250.75	3242.25	3236.75	3233.50	3239.50	3243.25	3258.00	3279.25	3290.00	3298.25	3307.00	3322.25	3335.00	3367.50	3386.50	3403.75	3412.00	3445.75	3491.00	3482.50	3501.00	3501.25	3481.75	3457.00	3431.75	3420.00	3444.00	3437.75	3467.50	3414.00	3451.50	3522.25	3534.75	3369.50	3315.75	3306.50	3346.75	3426.00	3362.25	3292.00	3234.25	3237.00	3243.00	3247.50	3249.25	3248.50	3248.50	3292.25	3335.75	3412.25	3448.00	3526.75	3632.75	3788.00	3932.00	4149.50	4105.25	4245.75
2778.50	2778.50	2777.75	2776.50	2769.75	2768.25	2770.75	2770.00	2763.25	2760.50	2756.00	2748.00	2743.25	2738.00	2730.50	2729.25	2721.00	2716.50	2717.75	2717.50	2717.00	2716.00	2715.75	2713.50	2712.25	2712.00	2710.25	2708.25	2706.50	2706.00	2704.75	2704.00	2701.25	2700.75	2699.00	2698.00	2697.50	2696.25	2694.50	2692.00	2690.00	2687.50	2686.50	2686.75	2687.00	2687.00	2687.25	2687.75	2688.00	2688.50	2688.75	2688.75	2688.50	2689.25	2688.50	2688.50	2688.25	2688.50	2688.50	2688.50	2688.75	2688.25	2688.75	2688.25	2688.75	2688.25	2687.75	2688.00	2687.50	2688.25	2690.75	2693.25	2695.75	2696.00	2690.00	2693.25	2696.00	2699.75	2702.50	2711.00	2713.50	2720.25	2729.50	2727.50	2732.25	2745.25	2749.25	2746.00	2744.50	2734.25	2720.75	2718.00	2722.50	2732.25	2732.50	2733.50	2738.50	2745.00	2743.50	2745.00	2743.75	2745.25	2748.25	2748.25	2752.25	2752.00	2752.00	2750.75	2748.00	2745.25	2744.25	2733.25	2724.50	2712.75	2723.50	2721.50	2713.75	2700.75	2694.50	2693.25	2691.50	2689.75	2689.75	2692.50	2700.75	2702.75	2714.75	2722.25	2729.25	2736.00	2741.50	2744.75	2750.00	2750.50	2748.00	2751.50	2756.75	2766.75	2767.50	2780.25	2783.75	2791.25	2797.00	2794.50	2790.00	2801.50	2802.75	2802.25	2804.25	2807.50	2808.00	2810.50	2821.25	2825.75	2837.25	2874.75	2874.75	2867.75	2888.00	2901.25	2939.75	2974.00	2941.75	2921.50	2930.00	2938.25	2936.75	2924.75	2917.25	2921.25	2930.50	2948.00	2953.00	2988.75	3016.25	3027.00	3042.00	3057.00	3077.00	3057.00	3064.00	3062.25	3067.50	3087.50	3112.25	3133.50	3132.00	3138.50	3150.50	3166.00	3184.75	3218.75	3211.50	3204.50	3210.25	3233.00	3258.50	3288.25	3285.25	3273.00	3251.50	3241.75	3244.25	3245.75	3261.00	3281.25	3289.00	3303.50	3315.00	3333.00	3341.00	3365.25	3374.25	3383.50	3400.00	3432.00	3452.25	3458.75	3478.75	3483.50	3450.00	3419.50	3400.25	3400.00	3430.50	3435.25	3494.50	3393.50	3436.75	3457.00	3531.25	3355.25	3289.25	3292.00	3375.50	3391.75	3377.75	3353.25	3244.75	3233.00	3238.00	3242.50	3243.50	3243.25	3240.50	3269.25	3302.75	3361.50	3395.75	3462.00	3535.00	3629.75	3809.75	4009.00	3979.25	4087.75
2780.50	2780.75	2778.50	2781.25	2777.25	2769.25	2769.00	2776.00	2771.25	2765.50	2762.00	2758.25	2755.00	2753.25	2749.50	2746.50	2739.75	2734.50	2728.25	2722.50	2721.25	2719.00	2718.00	2716.25	2715.25	2713.75	2712.00	2711.00	2709.25	2708.25	2707.00	2705.50	2703.50	2701.75	2700.50	2699.00	2698.00	2697.25	2696.00	2693.50	2691.50	2689.00	2687.25	2687.25	2687.00	2686.75	2687.00	2687.75	2689.00	2689.00	2689.00	2689.25	2689.00	2689.50	2689.50	2689.25	2688.75	2689.25	2689.00	2689.75	2688.75	2689.00	2689.00	2689.00	2689.00	2687.75	2688.00	2688.50	2688.50	2688.25	2689.00	2689.50	2692.75	2694.00	2690.50	2686.50	2689.75	2692.25	2694.50	2699.25	2701.75	2705.00	2709.00	2710.75	2709.25	2720.00	2731.00	2734.75	2733.25	2733.25	2718.75	2720.25	2716.75	2722.75	2727.75	2732.50	2736.25	2748.75	2751.75	2755.50	2756.25	2754.25	2753.25	2751.25	2752.25	2750.75	2747.50	2742.25	2741.25	2739.00	2733.50	2722.50	2711.25	2700.75	2708.25	2710.00	2702.50	2695.25	2693.00	2693.50	2692.50	2692.25	2696.00	2698.00	2703.25	2707.75	2718.75	2729.25	2741.50	2750.75	2752.00	2755.00	2761.50	2763.75	2761.50	2760.50	2759.25	2767.25	2770.75	2780.25	2787.50	2795.00	2801.75	2799.75	2792.25	2801.50	2808.25	2806.75	2814.75	2815.75	2821.50	2833.00	2846.50	2844.75	2842.00	2873.25	2883.75	2867.75	2872.75	2877.25	2893.25	2916.00	2935.75	2939.75	2950.00	2943.25	2951.00	2952.25	2937.50	2923.75	2931.50	2958.75	2964.00	2992.75	3017.50	3015.50	3034.00	3046.75	3050.75	3048.00	3053.00	3055.50	3076.50	3081.00	3087.25	3091.25	3111.50	3126.00	3129.50	3148.50	3169.50	3222.50	3231.00	3207.50	3210.25	3226.00	3244.25	3262.50	3306.00	3318.00	3297.25	3278.75	3267.25	3260.25	3266.25	3279.25	3285.75	3292.75	3314.25	3336.75	3355.75	3386.25	3409.25	3407.75	3409.50	3420.75	3434.50	3442.25	3452.00	3451.75	3427.50	3408.00	3390.00	3371.25	3359.50	3354.25	3387.00	3374.75	3426.50	3382.25	3430.50	3319.50	3256.75	3320.25	3410.50	3383.25	3338.25	3279.25	3245.50	3228.50	3231.00	3232.50	3234.00	3233.50	3231.25	3233.00	3249.00	3300.75	3333.75	3390.25	3455.25	3505.00	3569.25	3700.50	3832.75	3941.25
