5238.75	5304.50	5143.75	4945.50	4990.75	4895.00	4876.50	4880.50	4895.00	4907.25	4902.25	4919.75	4919.00	4953.50	5001.25	5023.00	5203.75	5333.50	5440.50	5494.25	5352.00	5357.50	5198.75	5180.00	5270.75	5189.00	4966.75	4816.25	4742.00	4781.00	4875.25	5030.25	5039.75	5080.75	5135.50	5363.75	5431.50	5391.50	5399.00	5423.50	5591.00	5513.25	5514.25	5550.00	5565.75	5539.25	5431.75	5361.75	5312.50	5239.00	5183.25	5170.25	5177.75	5087.25	5142.00	5075.00	5004.25	5111.75	5220.25	5203.50	5229.75	5236.25	5117.00	5199.00	5182.25	5015.00	4740.50	4626.25	4601.00	4697.75	4748.00	4855.00	4748.50	4707.75	4754.00	4733.00	4784.25	4827.25	4770.25	4913.00	4877.25	4802.00	4962.00	5017.25	5002.25	5121.00	5210.00	5277.25	5403.50	5117.00	4920.50	4887.75	4869.75	4776.50	4715.25	4676.75	4675.25	4677.00	4674.00	4682.50	4712.75	4720.50	4740.25	4779.25	4808.75	4856.25	4931.25	5029.25	5288.50	5381.25	5257.25	5088.00	5064.25	4890.75	4741.75	4713.75	4744.50	4750.25	4779.25	4790.25	4801.50	4809.00	4808.50	4815.75	4773.50	4743.75	4746.25	4718.75	4833.75	5002.75	5168.75	5066.50	4994.75	5175.25	5119.25	5117.50	4997.25	4899.25	5042.00	4878.25	4746.00	4615.25	4504.75	4591.75	4660.25	4752.25	4857.50	5118.75	5230.00	5128.75	5139.25	5366.75	5463.00	5372.00	5498.75	5297.25	5037.25	5162.50	5333.25	5634.75	5592.50	5578.75	5358.00	5460.25	5471.25	5390.50	5512.00	5492.50	5438.75	5506.50	5490.75	5455.50	5462.00	5448.00	5455.25	5439.00	5266.50	5118.75	5025.00	4879.75	4799.75	4766.25	4742.25	4738.00	4824.50	5111.00	5225.75	5197.00	5304.50	5323.75	5322.00	5353.75	5442.25	5482.50	5375.50	5479.50	5546.50	5418.50	5454.50	5357.75	5195.50	5142.25	5252.25	5393.75	5497.75	5413.00	5525.25	5480.75	5478.50	5432.00	5290.50	5267.00	5032.25	5181.00	5327.75	5338.00	5289.50	5365.25	5340.00	5458.75	5435.25	5382.75	5415.25	5305.00	5077.75	4961.75	4710.75	4706.00	4842.25	5055.75	4940.75	4707.50	4848.00	4856.00	4823.00	5205.00	5323.75	5033.75	5070.25	5386.25	5437.50	5140.50	4837.50	4665.50	5081.75	5502.25	5403.75	5204.50	5286.25	5514.75	5357.50	5094.00	4950.00	4767.00	4776.25	5278.50
5088.50	5133.25	5329.00	5204.75	5275.00	5052.75	4937.75	4923.00	4916.00	4928.25	4920.25	4931.50	4946.25	4963.50	4974.25	5004.00	5053.00	5102.75	5194.75	5355.25	5564.25	5371.50	5188.50	5114.50	5125.00	5201.50	5049.75	4897.25	4778.00	4784.00	4874.75	4961.50	5009.50	5096.25	5142.25	5243.00	5359.50	5522.00	5511.25	5610.50	5605.25	5347.00	5370.75	5571.50	5517.25	5505.25	5439.75	5436.00	5378.25	5195.00	5208.50	5276.75	5194.00	5184.75	5209.75	5182.75	5258.00	5468.50	5438.25	5375.75	5299.75	5527.75	5390.75	5410.00	5349.50	5100.50	4821.00	4724.50	4706.75	4742.50	4768.25	4973.00	4904.25	4869.00	4932.75	4863.25	4954.25	4940.25	4825.50	4875.25	5112.75	4964.50	4950.75	4927.25	5055.00	5191.25	5344.75	5579.00	5466.25	5204.50	5093.75	5041.75	5035.50	4889.75	4770.00	4709.00	4694.00	4695.50	4687.00	4692.75	4705.75	4736.25	4758.00	4814.25	4860.75	4918.50	4963.00	5030.75	5173.75	5242.50	5138.75	4960.50	4847.50	4814.25	4679.25	4679.25	4737.75	4763.00	4832.00	4803.75	4754.00	4773.50	4796.25	4839.25	4918.25	4848.25	4801.25	4732.75	4747.00	4882.25	5011.50	5219.25	5332.50	5192.50	5014.75	4969.75	4779.50	4791.25	4963.00	4869.25	4823.00	4632.00	4515.50	4701.50	4867.25	4926.50	5037.75	4998.75	5145.25	4967.75	5322.50	5482.00	5344.25	5468.50	5576.50	5339.00	5123.25	5218.25	5442.50	5554.50	5445.50	5648.75	5510.75	5549.25	5492.50	5515.00	5486.00	5498.50	5393.00	5365.50	5347.50	5317.50	5253.75	5264.25	5283.75	5461.00	5249.75	5076.25	4982.50	4910.75	4828.50	4685.75	4663.50	4665.50	4713.75	4953.75	5019.50	5191.75	5331.50	5325.25	5421.00	5265.25	5567.75	5426.75	5396.00	5613.50	5527.75	5383.00	5316.50	5454.00	5409.50	5401.75	5478.25	5462.00	5508.50	5497.50	5427.00	5483.00	5320.00	5284.75	5142.75	5044.50	5012.25	5167.50	5294.75	5380.00	5381.25	5420.50	5415.00	5363.25	5301.00	5363.50	5267.25	5145.00	5018.00	4907.50	4708.00	4842.75	5073.50	5276.25	5048.25	4742.75	4797.00	4976.00	4759.25	5102.75	5279.50	5257.50	5126.00	5441.50	5362.25	5131.00	4912.50	4746.00	5119.00	5480.75	5560.50	5358.50	5339.00	5513.50	5256.00	5149.50	5298.75	4809.50	4995.50	5331.50
5026.75	5126.00	5277.50	5417.75	5250.50	5086.00	5000.00	4969.25	4957.75	4961.50	4960.00	4936.50	4965.00	4968.25	4953.25	4979.50	5008.25	5049.50	5093.75	5286.75	5468.00	5387.50	5202.75	5087.50	5089.25	5183.25	5114.00	4924.75	4812.00	4766.75	4807.50	4849.75	4925.50	5036.50	5015.50	5166.00	5359.00	5381.25	5493.25	5444.75	5337.00	5330.50	5480.75	5549.50	5559.25	5435.25	5346.50	5281.75	5264.75	5320.50	5357.00	5238.75	5180.25	5329.25	5372.50	5314.00	5221.50	5433.75	5624.25	5582.25	5338.50	5715.25	5625.00	5490.25	5556.25	5223.25	4922.50	4831.75	4842.00	4918.75	4925.50	4983.25	4995.50	5018.75	5099.00	4949.25	5026.50	5057.00	5029.00	4955.25	5150.00	5327.75	5231.75	5003.00	5169.50	5299.25	5417.00	5649.00	5609.25	5396.75	5317.25	5177.50	5108.25	4947.25	4903.25	4836.75	4731.00	4715.25	4750.25	4747.00	4718.50	4778.75	4795.25	4874.00	4977.75	5144.00	5159.25	5148.25	5146.50	5092.25	5010.75	4801.25	4703.25	4677.00	4656.50	4694.75	4762.75	4763.50	4838.75	4812.75	4759.25	4787.50	4857.25	4861.50	5045.00	4893.25	4817.75	4822.75	4770.50	4857.00	4984.25	5067.50	5110.75	4974.50	4884.00	4961.00	4836.50	4706.00	4751.25	4664.50	4598.00	4575.00	4584.00	4643.50	4694.50	5008.25	5027.00	4921.75	5083.00	4959.00	5240.50	5218.50	5173.50	5334.25	5511.00	5522.00	5304.25	5202.75	5314.00	5350.25	5427.00	5564.75	5362.50	5212.25	5128.50	5222.75	5336.50	5204.50	5192.50	5250.50	5197.75	5222.25	5162.00	5104.50	5150.50	5332.75	5203.50	5008.00	4882.50	4788.75	4717.25	4625.00	4604.25	4611.00	4669.00	4946.50	5223.50	5381.25	5507.75	5459.00	5235.25	5342.25	5552.00	5360.50	5338.50	5461.50	5410.75	5361.50	5283.25	5271.25	5322.00	5316.00	5361.50	5374.25	5426.00	5412.25	5310.75	5377.25	5178.00	5118.50	5028.50	5001.00	5021.00	5090.25	5145.00	5152.00	5153.25	5204.25	5240.50	5182.75	5111.50	5181.00	5246.75	5100.75	4967.50	4850.75	4764.75	4965.00	5264.75	5174.50	4923.50	4700.50	4806.25	5067.75	4891.00	4932.00	5155.50	5449.50	5290.75	5402.75	5336.50	5143.50	4872.00	4773.50	5077.25	5196.00	5390.50	5436.50	5467.75	5474.00	5283.00	5414.50	5279.25	4913.25	5227.75	5433.25
5067.25	5115.75	5174.25	5244.75	5196.00	5129.75	5124.50	5020.00	5082.75	5026.25	5013.75	4958.25	4981.00	5000.75	4982.50	4976.75	4997.25	5092.25	5159.75	5172.00	5203.00	5156.25	5133.50	5066.75	5127.25	5245.00	5146.75	4954.50	4867.50	4803.00	4795.50	4797.50	4805.50	4861.75	4948.00	5138.75	5214.25	5235.50	5359.00	5274.75	5200.25	5410.00	5379.75	5362.25	5504.75	5489.00	5385.00	5407.00	5404.00	5577.25	5422.25	5211.75	5353.50	5539.00	5586.00	5544.00	5285.75	5468.25	5798.50	5720.00	5347.25	5664.75	5814.75	5589.75	5629.25	5301.75	5055.75	4993.50	4983.00	5079.25	5155.25	5237.75	5202.25	5232.25	5134.25	5100.75	5191.50	5288.00	5108.75	5140.00	5364.25	5480.75	5428.50	5058.50	5321.00	5413.00	5590.50	5638.00	5648.25	5519.25	5396.50	5299.75	5152.00	4984.75	4877.00	4842.75	4783.50	4747.75	4749.00	4757.00	4749.25	4736.00	4819.00	4984.00	5149.00	5243.50	5180.00	5137.75	5081.25	4999.25	4826.00	4644.00	4606.25	4611.75	4633.50	4668.00	4690.25	4732.00	4829.25	4849.25	4790.00	4764.25	4867.00	4919.25	4972.50	4955.75	4928.00	4911.50	4832.50	4927.75	5014.75	5013.00	4934.00	4835.25	4790.50	4883.00	4862.50	4762.00	4610.75	4566.50	4610.75	4756.25	4773.50	4575.25	4590.00	4770.00	4795.50	4775.00	4873.00	4803.50	4924.00	4968.50	5131.75	5383.75	5506.75	5518.50	5483.50	5406.25	5435.50	5487.25	5537.75	5512.25	5354.75	5315.25	5105.50	5006.50	5148.00	5047.75	5167.00	5157.00	5089.75	5142.50	5093.50	4990.75	5017.00	5072.00	5006.25	4888.25	4800.00	4687.00	4625.00	4568.00	4557.00	4566.50	4644.50	5003.25	5364.75	5434.25	5333.50	5318.75	5169.00	5291.00	5465.50	5286.00	5211.25	5285.25	5311.00	5311.75	5271.00	5225.25	5216.25	5226.50	5220.25	5222.25	5240.00	5243.25	5234.50	5198.00	5081.25	5041.00	5007.75	5002.00	5007.50	5044.25	5082.25	5066.75	5041.50	5148.00	5216.00	5125.25	4998.50	5084.25	5236.25	5163.50	5004.50	4806.75	4854.00	5058.25	5301.00	5110.00	4888.25	4681.25	4820.75	5090.00	5136.75	4919.00	5138.75	5375.75	5494.25	5400.75	5209.75	5068.00	4863.75	4796.75	5211.50	5182.75	5398.00	5374.75	5485.00	5453.50	5395.50	5432.75	5255.75	4965.75	5213.25	5459.00
5126.25	5294.00	5371.00	5487.25	5430.75	5404.00	5310.75	5209.50	5272.25	5163.75	5060.50	5016.25	4980.50	5078.50	5220.75	5102.75	5018.50	5049.75	5119.00	5083.25	5097.75	5079.25	5073.50	5068.00	5226.00	5423.75	5371.75	5108.00	4921.00	4849.50	4871.25	4859.00	4840.25	4834.00	4881.00	4955.50	5026.00	5084.00	5147.25	5190.75	5182.00	5400.75	5327.75	5245.00	5347.75	5410.50	5401.75	5480.25	5555.75	5463.25	5321.75	5271.00	5490.00	5606.25	5770.00	5681.25	5328.25	5609.50	5839.25	5821.00	5438.75	5743.25	5829.50	5687.25	5700.50	5432.75	5237.50	5309.25	5189.25	5360.25	5255.75	5446.75	5487.50	5417.00	5231.50	5441.25	5355.00	5456.75	5164.75	5397.25	5354.00	5546.00	5396.75	5110.75	5409.25	5627.00	5746.50	5385.00	5329.00	5327.25	5197.50	5149.25	5062.00	4974.00	4926.25	4956.25	4936.00	4879.75	4689.00	4700.50	4713.25	4782.75	4954.00	5092.00	5081.75	4950.50	4890.50	4865.00	4865.50	4746.50	4624.25	4582.00	4582.00	4591.75	4617.00	4633.50	4667.00	4735.00	4780.25	4774.00	4734.00	4746.00	4797.25	4865.75	5009.00	5102.75	5081.50	5045.50	5016.25	5036.50	5134.00	5124.75	5002.25	4903.25	4783.50	4752.25	4699.00	4650.75	4603.50	4617.00	4691.75	4817.25	4835.50	4761.25	4728.25	4681.75	4792.25	4849.25	4923.25	4980.00	5180.50	5276.25	5216.25	5330.50	5498.75	5591.50	5631.50	5624.00	5559.00	5619.25	5714.75	5480.50	5554.00	5297.75	5261.00	5080.50	4933.50	4962.00	5099.75	4986.00	5005.00	5099.00	5028.00	5000.50	4902.75	4915.25	4879.50	4814.50	4748.00	4622.50	4577.00	4531.25	4522.00	4530.00	4599.50	4848.75	5147.75	5154.25	5208.00	5119.75	5205.25	5299.50	5323.50	5217.75	5123.75	5160.50	5194.75	5197.50	5211.75	5228.50	5212.50	5183.75	5159.75	5141.75	5133.25	5119.75	5123.25	5109.75	5045.25	5018.25	5017.00	5012.00	5010.75	5048.75	5065.00	5016.75	4990.00	5105.25	5193.75	5118.00	4972.75	4976.25	5061.25	4980.75	4832.75	4777.50	4931.00	5072.25	5175.25	5053.25	4842.00	4693.25	4863.25	5077.00	5334.00	5015.25	5062.50	5368.25	5345.75	5260.00	5202.25	5100.75	4866.75	4827.25	5248.00	5335.50	5445.50	5463.00	5534.50	5497.50	5470.50	5408.25	5171.75	5030.50	5114.00	5421.50
5237.50	5318.50	5512.00	5697.50	5682.00	5679.00	5490.50	5344.50	5179.00	5123.00	5063.00	5033.50	5025.50	5108.50	5488.00	5321.00	5157.00	5206.50	5234.50	5069.00	5076.00	5080.00	5077.00	5081.00	5215.00	5372.00	5297.50	5093.50	4964.50	4879.00	4905.50	4892.00	4854.50	4881.00	4836.50	4865.50	4919.00	4981.50	5076.00	5142.00	5180.00	5264.00	5282.50	5206.50	5202.00	5244.00	5384.00	5544.00	5611.00	5332.50	5428.50	5352.50	5534.00	5704.50	5679.00	5832.00	5385.50	5517.00	5843.00	5845.00	5545.00	5730.00	5809.50	5755.50	5745.50	5484.00	5337.00	5487.00	5318.00	5619.00	5394.00	5535.50	5637.00	5455.00	5381.00	5530.00	5455.00	5635.50	5211.00	5499.50	5490.00	5542.50	5424.50	5225.50	5426.50	5846.00	5688.00	5508.50	5458.50	5494.00	5304.50	5298.00	5113.50	5028.50	5094.00	5118.50	4992.50	4775.50	4668.00	4666.50	4688.50	4870.00	4958.00	4891.50	4776.00	4669.00	4646.00	4613.50	4611.00	4590.00	4580.00	4580.00	4580.00	4583.50	4607.50	4621.00	4642.00	4659.00	4679.50	4679.00	4727.00	4765.00	4789.00	4828.00	5037.50	5188.50	5181.00	5206.00	5253.00	5163.50	5192.00	5266.00	5121.50	5058.00	4903.00	4801.50	4734.00	4671.50	4635.50	4711.00	4824.50	4897.50	4995.00	5064.00	4838.00	4747.50	4837.50	5112.00	5228.00	5207.00	5386.50	5413.00	5366.00	5498.00	5397.00	5612.00	5513.50	5564.50	5659.50	5548.00	5642.50	5629.00	5615.00	5410.50	5321.00	5204.00	4997.50	4881.00	5061.50	4941.50	4995.50	5077.00	4987.00	4991.50	4846.00	4816.00	4783.50	4735.00	4691.00	4598.50	4550.50	4505.00	4501.50	4501.00	4538.00	4700.50	4829.50	5114.50	5246.50	5024.00	5260.50	5270.00	5206.00	5113.00	5041.00	5079.00	5131.50	5161.50	5195.00	5237.00	5236.00	5191.00	5139.00	5092.50	5074.00	5060.50	5053.50	5046.00	5023.00	5014.00	5038.50	5043.50	5028.50	5053.50	5046.00	4956.00	4949.00	5007.00	5081.00	5115.00	5045.50	4875.00	4895.50	4823.50	4771.00	4916.00	4958.50	5226.50	5267.50	5102.00	4797.50	4761.50	4974.00	5170.00	5379.00	5257.50	5212.50	5334.00	5295.00	5124.00	5141.50	4967.00	4832.00	4854.00	5024.00	5227.50	5254.50	5269.00	5407.00	5502.00	5486.50	5246.00	5167.00	5191.50	5094.00	5374.50
5318.25	5548.50	5593.00	5737.50	5512.75	5384.75	5281.00	5246.75	5207.75	5177.25	5143.50	5085.25	5068.50	5077.00	5325.75	5510.25	5361.25	5303.00	5359.75	5133.75	5100.75	5103.25	5097.00	5095.00	5168.50	5257.25	5267.50	5126.75	4948.75	4893.75	4931.00	4921.75	4858.50	4909.00	4870.75	4846.25	4866.00	4928.50	5040.25	5103.50	5160.50	5140.25	5170.00	5170.00	5164.00	5287.00	5448.75	5555.00	5494.50	5394.00	5567.25	5579.00	5445.75	5765.50	5704.25	5724.25	5434.75	5684.50	5677.00	5828.25	5653.25	5683.75	5805.75	5871.00	5714.50	5501.75	5406.75	5542.75	5450.00	5640.50	5415.00	5618.25	5643.00	5523.50	5450.25	5519.75	5546.50	5579.25	5306.25	5558.00	5491.75	5521.25	5464.50	5292.00	5459.25	5710.00	5617.50	5631.25	5586.00	5533.75	5492.25	5277.00	5122.75	5105.00	5226.75	5268.00	4886.50	4694.25	4664.75	4667.75	4731.00	4873.25	4776.50	4676.00	4608.75	4583.00	4580.50	4580.00	4580.00	4580.00	4580.00	4580.00	4580.00	4580.75	4599.00	4615.00	4725.50	4733.00	4697.50	4755.50	4843.75	4877.75	4916.25	4974.25	5214.25	5244.25	5293.75	5321.00	5435.00	5403.75	5262.50	5387.75	5219.50	5037.00	4939.00	4898.00	4804.50	4841.25	4725.50	4913.75	5009.75	5119.25	5234.25	5158.50	5158.00	4858.50	4853.50	4988.75	5203.50	5297.00	5382.25	5480.50	5551.75	5581.50	5535.25	5609.75	5470.25	5654.50	5680.75	5465.50	5461.75	5461.00	5635.00	5411.50	5258.00	5075.75	4966.25	4823.50	4937.00	4911.25	4906.25	4970.25	4980.00	5004.50	4830.25	4780.00	4767.00	4715.75	4665.25	4607.25	4541.50	4494.75	4488.25	4487.50	4517.00	4598.25	4754.50	5167.00	5083.25	5100.75	5193.50	5094.75	5027.50	4985.50	4966.75	5011.75	5078.75	5146.50	5198.25	5245.00	5238.75	5162.75	5104.50	5061.25	5043.50	5033.00	5028.00	5023.25	5022.75	5068.50	5142.75	5132.50	5081.50	5068.50	5094.75	4984.50	4917.25	4934.25	4975.75	4971.00	4988.75	4847.50	4807.75	4790.25	4905.75	5092.25	5147.50	5311.75	5215.25	4978.75	4768.75	4905.50	5048.00	5085.25	5197.00	5275.75	5302.75	5445.25	5312.50	5040.25	4971.25	4940.25	4904.00	4790.75	5024.75	5118.75	5152.50	5198.00	5300.00	5489.50	5423.75	5254.75	5375.00	5380.50	5183.50	5283.75
5220.75	5474.00	5631.75	5742.50	5353.50	5291.50	5321.00	5334.00	5289.50	5267.75	5227.50	5136.00	5102.25	5041.50	5282.75	5524.25	5327.00	5289.75	5466.00	5181.75	5120.50	5122.25	5117.50	5112.75	5173.00	5194.00	5172.00	5067.75	4945.25	4923.50	4949.25	4938.25	4862.00	4924.00	4900.50	4863.00	4853.50	4898.75	5011.00	5075.75	5121.00	5048.50	5099.50	5119.25	5139.00	5274.75	5483.75	5586.25	5536.00	5496.00	5590.50	5663.25	5463.00	5597.75	5788.00	5691.75	5453.25	5790.25	5740.50	5740.50	5661.50	5831.25	5713.75	5891.00	5702.25	5529.50	5435.75	5523.00	5567.50	5586.00	5427.75	5650.75	5566.00	5571.00	5427.50	5476.75	5563.50	5511.75	5368.50	5560.75	5386.50	5443.50	5497.50	5319.75	5484.25	5647.25	5594.75	5656.00	5671.00	5621.25	5505.75	5245.75	5154.50	5156.00	5345.50	5278.00	4842.50	4681.50	4665.00	4682.25	4763.00	4809.25	4665.50	4580.00	4580.00	4580.00	4580.00	4580.00	4580.00	4580.00	4580.00	4580.00	4580.00	4580.00	4595.25	4616.75	4782.50	4787.00	4750.75	4790.50	4934.75	5003.25	5076.75	5134.00	5312.75	5280.75	5382.75	5343.75	5528.25	5538.00	5318.75	5475.50	5211.25	5063.25	5002.25	4993.25	4935.00	5054.25	4761.75	5002.25	5152.50	5304.75	5331.50	5345.75	5393.75	4961.50	4963.25	4963.00	5026.75	5121.50	5280.50	5321.25	5496.75	5573.00	5554.75	5587.75	5445.25	5610.50	5663.75	5527.25	5308.25	5390.00	5601.25	5400.50	5228.75	5014.50	4873.25	4800.75	4803.25	4876.25	4840.25	4866.25	4980.50	5024.50	4837.25	4764.50	4773.75	4781.50	4728.50	4641.50	4544.25	4486.00	4478.25	4479.75	4507.50	4565.25	4694.00	5066.75	5087.00	5206.50	5016.00	4944.00	4896.75	4894.25	4958.25	5007.00	5062.50	5190.50	5249.00	5273.00	5245.25	5120.75	5067.75	5039.00	5030.25	5024.25	5021.00	5019.75	5044.25	5142.00	5202.25	5193.50	5143.00	5088.00	5104.75	4999.25	4932.50	4890.50	4885.50	4879.50	4914.25	4822.75	4833.75	4838.50	4926.50	5209.00	5352.75	5370.75	5264.75	4996.75	4774.75	4850.50	4933.00	4929.25	5096.00	5124.50	5270.25	5488.50	5269.50	5014.75	4977.25	5054.50	5052.25	4836.25	5124.75	5268.25	5311.75	5345.50	5365.50	5504.25	5378.00	5313.00	5455.00	5444.50	5211.50	5310.00
5322.50	5301.00	5425.75	5484.00	5346.75	5427.50	5677.00	5575.75	5561.50	5505.50	5514.25	5324.75	5186.50	5088.25	5102.50	5239.25	5207.50	5270.00	5340.00	5176.25	5163.00	5153.00	5215.75	5270.50	5278.00	5185.50	5106.25	5034.50	5008.75	4984.00	4983.25	4927.00	4876.75	4942.75	4933.75	4919.75	4876.50	4893.00	4950.75	5001.50	5021.00	5025.75	5064.00	5088.25	5137.75	5248.25	5417.25	5605.75	5573.50	5694.00	5646.00	5674.00	5642.25	5584.00	5667.25	5748.75	5638.25	5657.00	5782.50	5775.00	5659.75	5801.25	5751.50	5806.00	5659.50	5505.25	5524.50	5567.00	5581.00	5548.25	5576.00	5572.75	5480.75	5395.75	5320.50	5339.50	5409.75	5322.75	5458.25	5405.25	5307.25	5454.75	5443.25	5428.75	5457.25	5600.50	5474.75	5677.50	5539.00	5419.00	5361.00	5371.00	5272.25	5309.00	5417.50	5165.25	4797.25	4670.50	4693.75	4684.25	4724.50	4688.50	4593.25	4580.00	4580.00	4580.00	4580.00	4580.00	4580.00	4580.00	4580.00	4580.00	4580.00	4580.00	4706.00	4718.25	4844.75	4845.00	4794.50	4916.75	5030.75	5189.00	5334.50	5317.25	5407.00	5343.50	5494.50	5531.75	5506.50	5584.75	5525.25	5533.25	5208.25	5429.25	5214.50	5207.75	5332.75	5311.50	5042.75	4898.25	5371.75	5441.25	5528.75	5394.50	5202.25	5211.00	5183.50	5131.00	5191.75	5191.25	5200.00	5191.75	5330.25	5321.50	5340.00	5344.50	5342.75	5365.25	5331.00	5261.75	5164.00	5144.00	5188.25	5116.50	5151.25	5198.50	5071.25	4931.50	4799.50	4774.00	4762.50	4865.50	5030.75	4962.75	4976.25	4870.25	4747.50	4712.75	4748.50	4665.25	4580.50	4467.50	4464.25	4466.00	4485.75	4524.50	4601.00	4978.50	5087.75	4913.50	4916.00	5025.50	4891.50	5042.75	5278.00	5313.25	5276.50	5281.50	5231.75	5170.50	5138.00	5065.00	5043.00	5037.50	5036.75	5035.50	5073.50	5078.00	5043.75	5108.75	5103.00	5150.50	5197.25	5210.25	5153.50	5117.25	5005.25	4948.75	4977.00	5004.50	4867.00	4911.00	5094.75	5020.75	4883.50	5112.00	5434.75	5334.00	5048.25	4928.50	4826.25	4905.00	4830.00	4895.00	4996.00	5110.00	5200.00	5444.50	5320.25	5190.50	5214.25	5161.50	5076.50	4901.00	4967.25	5130.75	5399.25	5524.50	5491.75	5428.75	5443.25	5462.00	5503.25	5420.50	5311.25	5409.25
5645.50	5548.50	5502.75	5469.25	5480.25	5446.75	5758.75	5783.50	5805.25	5753.00	5740.25	5511.75	5356.75	5145.50	5088.75	5164.00	5181.25	5234.50	5228.75	5215.50	5210.50	5187.50	5191.00	5211.50	5304.50	5280.25	5271.50	5221.00	5117.75	5019.25	5009.00	4920.50	4905.75	4974.00	4966.50	4972.25	4913.25	4892.75	4941.00	4940.25	4995.25	5007.25	5034.50	5062.25	5117.50	5262.75	5385.50	5454.50	5464.50	5588.75	5671.25	5783.75	5694.25	5753.25	5643.25	5732.25	5805.00	5699.75	5712.50	5828.50	5804.50	5747.50	5768.25	5663.00	5780.00	5620.75	5490.00	5524.25	5508.00	5497.75	5555.50	5462.25	5407.00	5244.75	5170.25	5274.00	5347.25	5240.75	5180.75	5143.25	5366.25	5529.25	5361.50	5247.25	5313.00	5582.75	5494.25	5286.75	5378.00	5328.25	5210.00	5241.75	5221.00	5346.75	5438.00	5168.25	4734.75	4669.00	4704.75	4797.00	4752.25	4634.75	4586.50	4580.00	4580.00	4580.00	4580.00	4580.00	4580.00	4580.00	4580.00	4580.00	4580.00	4596.00	4773.00	4908.00	5078.25	4902.00	4804.00	4933.00	5197.00	5444.00	5440.25	5483.25	5493.00	5403.75	5574.75	5589.75	5481.50	5585.75	5676.25	5571.00	5354.50	5653.75	5285.25	5436.25	5495.25	5403.25	5077.75	4942.25	5253.50	5603.25	5605.25	5178.75	5349.75	5551.25	5265.75	5363.00	5563.75	5455.50	5289.75	5226.25	5663.00	5524.25	5665.75	5602.00	5415.00	5466.50	5296.00	5397.75	5393.75	5291.50	5248.25	5102.25	4961.50	5163.75	5193.75	5090.00	4924.00	4748.25	4703.25	4839.00	4884.75	4825.75	4994.25	4906.00	4801.00	4654.75	4667.75	4676.00	4575.00	4453.00	4452.25	4454.00	4469.25	4497.00	4536.50	4867.25	4834.50	5075.75	5250.25	5361.00	5117.50	5017.75	5356.75	5356.50	5234.75	5125.00	5109.25	5108.75	5103.75	5103.25	5098.25	5057.00	5076.25	5072.25	5196.00	5264.50	5032.75	5044.50	5084.00	5101.50	5127.75	5299.00	5317.75	5180.75	5151.25	5219.75	5232.50	4982.25	4852.00	4952.00	5214.00	5167.50	4926.50	5042.00	5378.50	5230.50	4942.75	4914.25	4854.25	5140.50	4995.75	4834.00	4985.75	5222.50	5224.50	5304.75	5362.00	5306.50	5165.25	5003.75	4979.50	4963.00	4910.75	5046.00	5211.00	5263.00	5274.25	5278.25	5400.50	5572.25	5590.00	5461.00	5443.50	5410.25
5727.00	5812.75	5772.50	5710.00	5656.25	5625.75	5602.25	5692.75	5760.00	5601.50	5463.25	5293.50	5279.75	5142.25	5160.50	5288.50	5310.75	5255.00	5258.00	5275.00	5250.25	5229.25	5234.00	5257.25	5274.25	5329.00	5238.50	5161.25	5124.00	5060.25	5020.75	4912.50	4931.50	5031.75	5021.25	5065.25	5084.00	4971.50	4921.00	4973.50	4976.75	4972.75	5015.75	5040.25	5156.75	5227.75	5292.75	5323.75	5350.75	5448.25	5594.75	5672.75	5555.25	5679.25	5760.50	5721.00	5763.50	5749.50	5733.50	5819.75	5720.00	5653.00	5686.00	5560.00	5540.50	5495.50	5387.25	5398.25	5428.25	5364.75	5555.75	5435.25	5341.00	5256.25	5163.25	5101.75	5157.50	5137.25	5130.00	5271.25	5354.00	5508.75	5339.00	5314.25	5134.75	5323.75	5553.25	5192.00	5116.50	5177.00	5104.25	5123.75	5198.50	5444.75	5411.50	5167.50	4750.25	4675.00	4747.00	4905.75	4805.50	4695.75	4646.25	4588.50	4580.00	4580.00	4580.00	4580.00	4580.00	4580.00	4580.00	4580.00	4580.00	4752.25	4982.00	5093.50	5230.50	4999.00	4904.50	5108.00	5361.25	5496.50	5498.00	5530.25	5601.25	5482.00	5526.00	5688.75	5557.00	5609.50	5693.25	5655.75	5543.75	5603.75	5418.25	5432.50	5212.25	5153.75	5030.75	5208.00	5388.25	5597.75	5648.00	5282.50	5639.25	5649.75	5374.00	5513.75	5694.50	5524.75	5221.50	5384.50	5718.25	5712.25	5631.00	5517.75	5592.50	5535.00	5397.75	5511.00	5352.00	5169.50	5074.00	5022.25	4896.50	4984.50	5050.25	5028.75	4967.00	4871.75	4661.25	4724.25	4734.00	4790.00	4862.25	4726.25	4780.75	4760.25	4649.00	4587.25	4525.00	4446.25	4442.75	4446.25	4463.00	4483.00	4512.00	4712.50	5159.50	5334.25	5385.75	5367.75	5338.50	5113.75	5354.25	5342.75	5207.75	5228.25	5314.25	5329.75	5281.75	5244.75	5178.50	5095.50	5119.00	5136.25	5279.50	5269.25	5055.00	5044.25	5225.00	5249.50	5270.75	5333.75	5323.50	5359.00	5407.75	5150.75	5077.75	4934.50	4967.75	4914.00	5109.50	5246.75	5172.50	5065.00	5420.75	5346.00	5119.00	5008.00	4851.00	5039.00	5164.00	5035.25	4933.75	5071.75	5142.75	5287.75	5284.25	5257.00	5102.50	5174.25	5245.00	5178.25	5017.50	4959.75	5050.25	5108.75	5196.50	5253.50	5362.00	5461.25	5534.00	5388.75	5431.75	5375.50
5436.25	5701.50	5964.50	6021.50	5957.00	5879.50	5694.50	5661.00	5635.75	5453.75	5231.50	5103.75	5155.25	5200.00	5414.50	5420.00	5578.50	5321.75	5295.50	5308.75	5363.00	5359.25	5315.50	5366.00	5430.75	5586.75	5390.25	5240.50	5164.00	5072.25	4980.25	4936.00	4970.50	5020.75	5064.25	5119.25	5188.75	5145.00	4926.25	4925.25	5014.50	5006.25	5022.75	5057.50	5211.00	5192.00	5216.50	5275.25	5342.00	5420.75	5592.50	5433.75	5548.25	5749.00	5837.75	5643.25	5753.75	5601.25	5601.50	5806.00	5545.00	5666.00	5732.50	5722.00	5530.25	5472.50	5398.00	5319.00	5236.25	5159.25	5359.50	5432.75	5405.75	5283.50	5149.50	5087.00	5000.50	4953.75	5223.50	5464.25	5256.50	5367.75	5275.25	5314.50	5092.75	5295.50	5412.00	5209.25	5081.50	5007.50	5001.75	5111.50	5314.50	5506.25	5269.50	5139.75	4740.25	4689.50	4722.75	4878.50	4880.75	4880.50	4849.25	4636.50	4580.50	4580.00	4580.00	4580.00	4580.00	4580.00	4580.00	4580.00	4583.25	4883.50	5033.75	5170.25	5154.25	4987.00	4931.75	5135.75	5379.50	5466.00	5469.50	5565.75	5654.50	5516.50	5547.50	5679.50	5701.00	5656.50	5706.00	5561.75	5472.50	5443.00	5301.00	5171.25	5518.50	5367.25	5189.50	5467.50	5504.00	5656.50	5695.00	5356.00	5647.50	5759.50	5511.25	5589.00	5733.00	5467.25	5324.50	5678.75	5640.00	5806.25	5470.50	5706.00	5775.25	5439.00	5528.50	5577.25	5477.50	5327.75	5242.25	4985.50	4863.75	4884.50	4946.50	4907.75	4875.50	4863.50	4628.50	4617.00	4629.25	4654.25	4670.00	4610.75	4672.00	4755.25	4751.50	4582.50	4502.00	4443.00	4434.50	4437.50	4451.25	4467.50	4489.50	4725.50	5304.25	5521.25	5443.75	5377.00	5365.25	5285.50	5363.25	5244.75	5266.00	5349.75	5450.75	5265.75	5244.00	5222.50	5189.25	5110.75	5155.00	5177.25	5339.00	5283.50	5105.25	5055.75	5098.00	5171.75	5249.25	5280.25	5222.50	5394.50	5397.00	5252.00	5196.00	5141.75	5248.50	5051.75	4911.00	5138.75	5398.50	5376.00	5415.75	5457.00	5055.25	4902.50	4903.00	5141.50	5234.50	5249.75	4975.00	4999.75	5036.25	5116.50	5179.25	5233.25	5255.00	5426.50	5561.75	5354.00	5074.00	4993.25	5231.75	5293.25	5408.00	5442.50	5403.75	5564.00	5507.25	5366.50	5292.00	5244.75
5491.50	5556.00	5735.75	5938.25	6083.75	5984.25	5751.25	5533.00	5493.75	5254.00	5234.00	5392.25	5358.75	5454.25	5712.00	5626.25	5506.50	5374.75	5368.75	5361.75	5392.50	5456.50	5401.25	5410.50	5424.25	5384.00	5437.00	5308.00	5202.25	5058.75	4977.75	4998.75	5033.75	4989.50	5095.00	5127.00	5079.75	5055.50	5041.00	5063.25	5021.00	5018.00	5085.00	5093.50	5168.25	5179.25	5237.00	5318.50	5352.50	5346.00	5391.75	5375.75	5516.00	5559.25	5588.75	5641.75	5768.50	5570.25	5531.25	5672.50	5430.50	5660.00	5611.75	5610.75	5659.00	5585.75	5454.50	5408.75	5397.75	5188.75	5139.25	5251.50	5294.25	5340.50	5310.75	5144.00	4950.00	4886.25	5045.25	5201.25	5056.00	5126.00	5133.00	5169.50	4978.25	5085.00	5107.25	5041.25	5038.50	4928.50	4910.25	4996.25	5275.00	5482.25	5279.25	5008.50	4768.75	4711.75	4705.50	4808.00	4943.75	5071.50	4999.00	4745.25	4645.00	4580.50	4580.00	4580.00	4580.00	4580.00	4580.00	4580.00	4581.75	4798.75	4907.75	4994.25	5090.00	5117.25	4949.00	5006.00	5289.25	5375.25	5420.50	5538.00	5732.25	5642.25	5628.00	5706.75	5643.50	5661.00	5618.00	5633.75	5557.00	5435.50	5327.50	5248.25	5487.75	5395.50	5270.75	5573.00	5608.00	5739.50	5687.50	5384.75	5663.75	5764.75	5582.50	5689.00	5768.00	5532.25	5403.75	5685.50	5683.50	5679.25	5571.75	5911.25	5672.00	5472.00	5620.50	5373.75	5292.50	5343.50	5254.75	5137.25	4946.00	4830.00	4858.75	4892.25	4795.25	4793.25	4817.75	4701.00	4636.50	4603.25	4568.25	4565.00	4542.75	4537.00	4559.50	4640.50	4592.00	4450.50	4426.75	4427.50	4435.25	4445.25	4473.75	4646.25	5082.00	5333.75	5482.50	5419.25	5328.50	5319.00	5411.00	5284.75	5342.50	5485.75	5437.25	5279.00	5421.00	5414.75	5366.50	5146.25	5222.25	5293.50	5420.50	5356.75	5141.00	5066.25	5061.00	5137.25	5143.00	5155.00	5222.25	5352.75	5424.50	5373.25	5316.00	5256.25	5148.75	5036.25	5066.50	5166.50	5455.25	5521.25	5430.50	5442.75	5256.50	5018.75	4861.00	4987.00	5064.00	5176.75	5116.75	5168.75	5251.75	5151.25	5248.75	5371.25	5429.75	5461.25	5341.50	5254.00	5126.50	5048.25	5224.25	5384.75	5536.00	5606.75	5477.25	5492.25	5412.00	5261.50	5234.75	5163.25
5573.00	5609.75	5692.25	5754.50	5993.75	6036.75	5770.75	5491.75	5317.00	5197.00	5430.00	5699.75	5530.50	5502.25	5842.75	5573.50	5409.25	5450.75	5441.75	5408.25	5408.50	5360.50	5311.25	5281.25	5211.75	5247.50	5298.25	5209.50	5111.75	5052.75	5011.00	5044.00	5051.25	5008.00	5114.75	5146.25	5032.00	5061.50	5114.50	5195.00	5034.50	5005.00	5041.75	5089.00	5206.00	5221.00	5275.75	5338.75	5292.75	5237.00	5269.00	5333.25	5384.00	5417.25	5459.75	5621.75	5637.00	5599.25	5444.25	5497.75	5400.25	5692.25	5630.75	5489.25	5499.75	5442.50	5356.00	5361.50	5345.75	5256.50	5020.50	5178.25	5145.00	5230.50	5362.75	5243.50	4945.00	4842.00	4949.75	5053.25	4942.50	4976.75	5035.50	4965.00	4878.75	4918.25	4942.50	4903.00	4965.50	4839.75	4826.25	4935.00	5211.75	5364.75	5184.25	4912.50	4770.25	4722.00	4715.25	4815.75	4902.50	5083.25	5112.00	4838.50	4729.25	4594.50	4580.00	4580.00	4580.00	4580.00	4580.00	4580.00	4580.00	4689.75	4818.50	4891.50	5056.75	5143.75	4987.00	5021.25	5267.00	5397.50	5396.25	5508.50	5686.00	5679.00	5709.50	5644.75	5528.25	5599.75	5626.75	5568.75	5499.00	5427.25	5268.50	5299.50	5366.25	5555.75	5337.00	5496.75	5684.00	5741.25	5671.25	5412.25	5663.25	5818.50	5667.50	5735.75	5735.25	5526.50	5391.25	5593.50	5761.00	5660.75	5687.25	5830.00	5544.00	5584.50	5540.00	5289.00	5203.50	5097.25	5032.00	5030.25	4947.25	4812.25	4816.25	4909.25	4801.75	4762.75	4912.25	4798.50	4755.25	4698.00	4650.75	4652.25	4603.00	4534.75	4475.00	4617.75	4628.00	4481.25	4423.00	4421.00	4425.25	4432.25	4466.50	4603.25	4877.75	5145.50	5350.50	5368.25	5156.75	5149.75	5353.50	5349.75	5364.50	5501.50	5434.75	5323.75	5468.00	5521.00	5339.25	5171.00	5304.50	5342.00	5500.75	5422.25	5147.50	5078.75	5055.75	5064.00	5109.50	5142.50	5173.50	5256.25	5443.00	5349.25	5356.75	5256.75	5067.25	5040.00	5265.25	5185.50	5327.00	5509.00	5399.50	5417.50	5310.25	4960.25	4838.50	4911.50	5043.75	5119.75	5119.50	5193.75	5331.75	5250.25	5241.25	5393.75	5451.50	5342.75	5230.75	5224.75	5202.50	5082.75	5175.50	5328.00	5508.75	5625.75	5542.75	5437.25	5347.00	5246.75	5245.00	5150.50
5828.00	5755.00	5817.25	5739.25	5689.25	5705.50	5532.75	5381.00	5329.25	5535.25	5697.75	5962.00	5696.25	5582.75	5864.25	5580.25	5592.00	5627.50	5498.75	5382.25	5406.75	5400.50	5351.25	5315.25	5238.75	5220.25	5158.00	5092.00	5112.25	5147.25	5095.75	5089.25	5052.75	5052.00	5095.75	5213.75	5110.50	5268.25	5384.25	5424.75	5253.50	5122.50	5169.00	5071.75	5051.00	5162.75	5198.25	5201.25	5238.50	5322.00	5374.25	5483.25	5576.75	5582.75	5636.00	5667.50	5634.00	5469.75	5296.75	5406.75	5580.00	5746.50	5664.50	5653.50	5592.25	5467.00	5265.50	5300.75	5276.75	5213.25	5090.00	5034.25	5069.25	4973.75	5013.25	5143.50	4954.50	4742.00	4801.75	4902.75	4740.00	4781.75	4767.75	4716.25	4803.75	4754.00	4701.00	4549.25	4568.75	4641.25	4751.00	4942.00	5179.75	5148.00	4957.00	4837.50	4753.75	4734.50	4741.00	4764.00	4855.00	5068.75	5246.00	5066.00	4930.75	4792.00	4676.50	4580.00	4580.00	4580.00	4580.00	4580.00	4580.00	4623.25	4720.75	4828.75	4940.50	4999.50	5087.00	5188.50	5353.75	5499.25	5371.00	5466.00	5607.75	5651.25	5685.00	5587.75	5485.50	5486.25	5599.25	5410.25	5274.00	5245.75	5238.25	5271.00	5401.50	5576.50	5453.00	5410.25	5642.00	5774.75	5681.75	5504.75	5575.25	5728.00	5803.75	5674.50	5612.25	5554.00	5367.00	5539.00	5697.50	5668.00	5741.50	5738.50	5597.25	5637.50	5469.00	5456.50	5277.50	5209.25	5181.75	5221.75	5155.25	4886.00	4786.25	4897.25	4845.50	4726.25	4817.25	4750.75	4894.00	4816.50	4807.00	4867.00	4794.00	4681.75	4509.25	4482.75	4556.00	4478.50	4418.75	4434.75	4414.25	4423.00	4450.25	4522.00	4642.75	4737.50	5094.50	5210.00	5191.00	5221.50	5271.00	5400.50	5409.25	5517.75	5432.50	5423.00	5513.50	5391.75	5201.50	5235.75	5407.75	5460.25	5529.00	5454.75	5221.50	5113.25	5076.00	5068.75	5110.75	5208.25	5240.75	5277.25	5319.00	5335.75	5296.50	5095.00	4972.00	5084.00	5343.25	5271.50	5297.25	5367.75	5193.50	5123.50	5046.00	4859.00	4905.50	4991.25	4968.00	5044.00	5089.50	5239.00	5347.25	5345.50	5333.50	5514.25	5555.75	5324.50	5455.25	5421.75	5268.75	5176.50	5184.75	5225.50	5320.00	5388.75	5588.75	5469.25	5353.25	5378.50	5329.00	5160.75
6190.00	5973.50	5986.00	5841.00	5895.50	5857.25	5528.50	5286.75	5351.00	5586.25	5802.25	5995.25	5888.00	5846.00	5895.00	5755.75	5834.00	5596.00	5408.00	5147.00	5337.75	5454.25	5395.00	5374.75	5371.50	5328.25	5216.50	5112.00	5193.75	5216.25	5195.75	5071.50	5099.00	5098.50	5135.00	5267.75	5237.00	5193.75	5345.50	5465.75	5338.50	5160.50	5412.75	5346.00	5195.00	5052.75	5198.25	5317.25	5358.75	5380.75	5410.75	5556.00	5756.25	5659.50	5527.75	5594.25	5582.75	5355.25	5321.00	5544.00	5605.50	5587.25	5548.75	5650.25	5512.50	5598.25	5321.00	5147.75	5115.00	5157.00	5065.50	4907.25	4881.75	4866.00	4819.25	4992.50	4894.00	4620.00	4691.25	4807.75	4594.75	4571.00	4547.25	4620.25	4709.75	4661.75	4558.00	4495.00	4576.25	4666.75	4877.50	5117.50	5333.50	5246.50	4927.75	4804.50	4761.50	4752.00	4770.25	4801.00	4884.50	5010.00	5158.50	5279.75	5170.75	5079.50	4898.50	4587.50	4580.00	4580.00	4580.00	4580.00	4580.00	4580.50	4660.50	4753.00	4831.50	4943.75	5265.25	5426.25	5457.25	5488.25	5373.25	5399.00	5584.25	5609.00	5554.50	5676.75	5639.50	5442.75	5368.75	5298.25	5213.50	5142.75	5088.75	5150.00	5432.00	5497.75	5589.00	5378.00	5547.00	5748.75	5743.00	5607.00	5690.75	5721.25	5659.50	5739.25	5646.75	5557.00	5547.25	5430.50	5468.50	5520.00	5694.00	5647.50	5495.25	5437.25	5540.50	5418.25	5370.50	4981.50	5035.25	5141.00	5007.50	4817.50	4758.75	4842.50	4932.50	4827.50	4656.50	4791.25	4819.75	4685.75	4758.25	4863.00	4717.75	4589.50	4474.00	4441.00	4435.50	4432.50	4431.50	4457.50	4406.75	4420.75	4449.00	4478.25	4532.75	4754.50	4955.25	5221.25	5333.25	5329.50	5362.00	5313.50	5442.75	5405.00	5434.75	5458.50	5379.00	5238.50	5218.75	5262.75	5347.50	5438.75	5509.25	5473.50	5363.25	5196.75	5105.75	5085.25	5102.75	5112.75	5166.75	5207.50	5212.25	5279.50	5260.00	5070.75	5006.25	5113.25	5279.25	5347.75	5293.00	5223.00	5035.00	4952.50	4869.00	4908.75	5042.50	5175.75	5049.25	5021.25	5096.75	5168.25	5213.50	5265.00	5303.00	5434.00	5467.25	5355.75	5642.25	5575.25	5278.75	5307.50	5227.50	5312.25	5514.75	5405.00	5519.00	5445.25	5369.25	5301.25	5257.50	5264.50
6049.75	6066.75	6096.50	5966.50	6088.00	6100.75	5770.25	5396.00	5275.25	5389.00	5548.00	5696.25	5734.00	5891.00	5979.75	5870.75	5692.00	5361.00	5058.00	5140.50	5480.00	5704.00	5714.00	5544.25	5433.75	5357.00	5226.50	5232.00	5390.00	5365.50	5223.25	5142.25	5203.00	5195.75	5210.00	5256.50	5333.50	5311.50	5294.75	5500.50	5416.25	5287.00	5453.00	5463.75	5335.00	5129.25	5148.00	5237.00	5314.75	5338.50	5326.50	5427.00	5449.25	5484.25	5462.25	5447.25	5489.00	5358.25	5237.00	5356.75	5429.25	5450.75	5393.00	5386.00	5325.50	5302.75	5170.00	5039.50	4969.00	4816.00	4793.25	4766.75	4773.25	4731.75	4667.00	4810.75	4722.75	4492.50	4625.00	4646.25	4455.75	4434.75	4469.25	4469.25	4516.00	4534.00	4553.25	4464.25	4475.00	4736.50	4902.00	5132.25	5280.75	5070.00	4880.75	4819.25	4782.25	4770.00	4812.25	4882.25	4903.00	5001.25	5186.00	5457.00	5387.25	5320.00	5111.00	4764.00	4585.00	4580.00	4580.00	4580.00	4580.00	4580.00	4588.25	4632.75	4825.00	5075.50	5392.50	5510.75	5445.25	5383.50	5253.75	5286.00	5493.25	5475.50	5532.75	5674.50	5541.25	5463.25	5315.75	5228.25	5170.50	5111.50	5082.75	5058.75	5159.50	5372.75	5535.50	5583.00	5512.75	5618.75	5682.00	5701.00	5668.00	5663.50	5588.25	5723.75	5741.50	5656.25	5645.00	5601.75	5516.75	5651.25	5537.50	5547.75	5490.75	5260.75	5354.00	5280.00	5111.25	5138.00	4886.50	4851.75	4892.75	5019.50	4812.00	4852.00	4944.75	4931.75	4774.00	4677.75	4631.75	4718.75	4792.25	4712.25	4611.75	4490.50	4446.75	4438.00	4430.25	4418.75	4425.00	4416.25	4401.25	4412.50	4435.25	4462.25	4518.75	4640.50	4931.75	5158.50	5389.50	5319.25	5332.00	5328.75	5353.25	5310.50	5407.00	5416.00	5289.00	5372.00	5389.50	5300.75	5347.75	5282.25	5331.00	5410.25	5413.75	5321.25	5196.75	5119.75	5193.00	5158.75	5177.50	5181.25	5258.25	5328.00	5328.75	5274.50	5165.75	5061.00	5113.25	5220.00	5081.25	5101.00	5033.75	4893.00	4927.25	5037.00	5108.25	5201.25	5182.25	5121.75	5147.00	5234.25	5262.50	5340.75	5450.25	5427.50	5542.00	5446.75	5582.25	5506.25	5412.75	5558.25	5361.75	5415.25	5479.25	5498.75	5519.25	5450.75	5396.25	5377.75	5377.00	5439.25
6218.75	6084.75	5943.00	5843.00	5794.50	5998.50	5809.25	5381.75	5330.00	5460.50	5741.00	5894.00	5948.75	5939.50	5919.75	5551.75	5358.50	5140.75	4942.25	5171.75	5520.25	5728.25	5730.00	5657.75	5416.75	5320.75	5257.75	5461.25	5630.00	5536.25	5178.25	5337.00	5338.00	5292.00	5327.25	5270.75	5382.50	5480.25	5406.50	5633.50	5730.50	5561.75	5667.00	5563.50	5254.00	5160.50	5276.25	5202.75	5211.75	5225.25	5244.25	5266.00	5308.00	5363.75	5377.75	5381.50	5436.75	5445.75	5290.25	5176.25	5272.00	5301.25	5290.00	5242.50	5191.25	5111.00	4960.50	4938.75	4863.00	4712.50	4590.25	4589.75	4622.50	4579.25	4463.75	4549.25	4495.25	4426.75	4468.50	4511.75	4353.25	4323.00	4411.25	4324.50	4356.75	4444.25	4330.25	4390.00	4432.50	4848.50	4988.25	5144.00	5130.00	4975.75	4860.75	4829.00	4797.75	4806.75	4934.75	4935.25	4937.75	5017.25	5204.75	5353.50	5510.25	5479.50	5330.00	5041.50	4650.00	4595.50	4580.00	4580.00	4580.00	4580.00	4580.00	4590.25	4814.25	5185.75	5395.75	5474.00	5518.25	5290.00	5145.00	5172.25	5363.00	5481.25	5649.00	5510.50	5522.50	5353.50	5304.00	5125.50	5050.50	4996.25	4941.25	4907.50	5042.75	5154.50	5406.50	5626.75	5591.75	5546.50	5607.75	5767.75	5603.25	5539.00	5517.00	5551.50	5595.00	5639.50	5590.50	5637.00	5486.00	5658.00	5501.00	5463.50	5437.75	5146.25	5094.75	5129.25	4943.25	5046.00	5021.00	4725.25	4935.25	5098.50	4841.00	4799.50	4794.50	4886.00	4886.25	4757.00	4573.75	4635.75	4639.25	4501.75	4472.50	4481.25	4521.25	4592.25	4513.75	4424.75	4409.25	4404.25	4399.00	4401.75	4416.25	4438.75	4495.00	4633.25	4906.00	5123.25	5513.00	5327.25	5176.00	5140.50	5186.75	5313.00	5360.50	5328.00	5311.75	5470.00	5473.25	5349.75	5431.50	5327.50	5284.50	5276.25	5226.25	5427.75	5350.25	5183.25	5266.50	5274.25	5225.50	5257.25	5238.25	5367.75	5476.00	5263.00	5155.75	5127.75	5227.75	5232.75	5127.75	4983.75	4956.50	4896.00	4920.25	4964.25	5037.00	5062.50	5157.00	5208.00	5188.50	5288.25	5347.00	5463.75	5583.75	5459.50	5479.50	5567.00	5549.25	5443.25	5426.25	5541.00	5514.25	5494.00	5373.75	5502.00	5483.00	5390.00	5354.25	5309.50	5377.00	5383.75
6406.50	6160.50	6130.50	5972.00	5735.25	5670.75	5635.25	5474.00	5329.75	5424.00	5685.25	5857.50	6006.00	6036.75	6003.25	5581.00	5367.25	5146.75	4865.25	4891.50	5153.25	5317.25	5398.75	5611.50	5480.00	5437.75	5365.00	5454.00	5595.00	5475.00	5226.75	5423.50	5408.75	5340.75	5398.25	5294.00	5374.25	5470.50	5552.25	5612.75	5561.50	5485.25	5555.25	5550.75	5230.00	5371.00	5509.25	5463.75	5360.25	5256.00	5350.50	5296.50	5335.00	5295.75	5289.50	5266.00	5329.25	5392.00	5404.50	5339.75	5189.50	5167.50	5157.25	5137.25	5072.75	4961.25	4861.50	4749.50	4677.50	4612.75	4607.25	4597.25	4523.25	4437.25	4559.00	4492.75	4423.75	4360.25	4288.25	4308.25	4293.75	4243.00	4321.00	4390.50	4290.50	4264.75	4325.75	4429.50	4447.00	4866.00	5053.00	5213.50	5216.75	4973.25	4871.25	4842.75	4836.25	4929.75	4941.25	4905.75	4970.50	5064.00	5187.25	5144.50	5266.75	5145.75	5105.50	4992.25	4734.00	4649.00	4591.25	4580.00	4580.00	4580.00	4580.00	4580.00	4811.50	5158.00	5362.25	5385.00	5433.00	5336.75	5139.25	5108.00	5222.50	5539.00	5529.25	5356.50	5274.00	5138.00	5049.00	4986.25	4931.00	4856.25	4816.50	4824.25	4915.75	4999.50	5178.75	5417.50	5554.25	5615.50	5590.00	5696.75	5528.75	5419.25	5524.25	5599.25	5640.50	5693.00	5430.50	5583.25	5571.50	5417.75	5379.25	5278.75	5185.00	5041.75	4928.00	4922.25	4872.25	4865.50	4886.75	4706.75	4826.50	5053.50	4878.75	4762.25	4718.75	4708.00	4701.00	4748.00	4721.50	4573.00	4525.75	4507.75	4616.00	4712.75	4702.25	4745.50	4616.00	4485.75	4411.00	4401.25	4396.25	4393.50	4398.00	4409.50	4445.50	4559.50	4779.75	5025.50	5278.50	5182.00	5130.25	5201.00	5188.25	5387.75	5460.75	5375.25	5339.25	5546.00	5438.75	5401.50	5479.75	5404.50	5359.00	5366.25	5134.25	5098.00	5349.00	5245.50	5323.25	5358.75	5232.25	5326.75	5337.50	5359.50	5521.00	5285.00	5286.25	5379.75	5264.75	5135.25	5056.50	4996.25	4967.75	4973.75	4957.50	4980.50	5088.00	5157.25	5198.75	5255.25	5247.00	5230.50	5300.50	5566.50	5527.25	5347.00	5275.25	5475.25	5506.50	5426.25	5310.50	5466.25	5296.25	5265.00	5314.00	5448.75	5472.50	5428.75	5352.50	5198.50	5218.25	5341.50
6381.75	6205.50	6231.75	5903.50	6021.25	5953.25	6046.25	5750.50	5380.50	5450.00	5776.50	5868.75	5869.75	6081.75	5825.00	5363.00	5113.75	4997.50	4851.75	4757.75	4853.75	4875.25	5211.75	5595.00	5530.25	5285.00	5310.25	5699.00	5723.00	5541.75	5354.75	5416.00	5385.00	5171.00	5207.50	5187.25	5492.75	5535.25	5642.25	5707.50	5504.75	5420.25	5297.50	5425.50	5219.00	5469.25	5429.50	5414.25	5410.50	5309.00	5389.25	5360.25	5364.50	5353.75	5397.00	5335.00	5182.00	5213.00	5261.00	5257.75	5266.00	5177.50	5115.25	5084.00	5022.25	4956.50	4857.00	4706.25	4649.50	4746.50	4663.25	4615.00	4597.50	4526.50	4651.00	4595.75	4531.75	4486.75	4393.00	4258.50	4213.75	4179.75	4213.25	4294.00	4236.50	4213.50	4295.25	4315.00	4395.75	4815.75	5041.25	5218.25	5230.50	4969.25	4895.50	4862.25	4882.25	4969.25	4929.75	4905.75	4963.75	4896.75	5009.00	4961.50	4957.00	4865.00	4802.25	4705.50	4602.75	4580.25	4580.00	4580.00	4580.00	4580.00	4580.00	4580.00	4809.00	5102.00	5272.75	5355.00	5391.50	5195.00	5059.50	5061.00	5054.25	5324.25	5256.50	5020.00	4995.00	4918.75	4862.50	4837.50	4828.00	4760.25	4781.00	4777.25	4841.00	4898.00	4994.00	5218.50	5347.00	5433.25	5520.50	5467.75	5274.50	5530.50	5587.50	5630.25	5519.75	5500.00	5369.50	5574.50	5489.25	5310.00	5229.75	5152.25	5069.75	4966.50	4902.50	4810.75	4793.75	4719.50	4709.25	4678.50	4654.75	4936.25	4900.50	4751.75	4796.25	4778.75	4749.00	4624.00	4603.25	4517.25	4518.50	4602.25	4745.50	4746.50	4738.25	4627.75	4643.25	4524.75	4413.75	4396.25	4392.00	4388.75	4387.00	4396.25	4419.25	4451.00	4540.50	4705.75	5328.25	5417.50	5277.25	5355.00	5268.75	5392.75	5503.25	5452.25	5361.75	5562.25	5528.50	5419.50	5513.25	5460.75	5352.25	5293.00	5049.00	4902.75	5178.75	5225.00	5299.75	5450.25	5362.25	5367.25	5404.00	5362.00	5484.75	5322.25	5235.75	5192.00	5197.25	5048.75	4984.00	4945.25	5207.25	5039.00	5029.00	4958.00	5034.00	5095.00	5235.25	5194.75	5190.75	5127.00	5193.50	5340.50	5405.50	5284.00	5178.75	5315.25	5265.25	5302.25	5255.25	5351.25	5119.75	5329.25	5433.25	5346.00	5458.25	5407.25	5429.50	5210.50	5132.00	5303.75
6491.50	6258.75	6138.50	5980.25	6186.25	6153.50	6163.75	5778.75	5430.50	5454.75	5791.00	5915.75	5895.50	6038.00	5657.75	5355.50	5147.00	4979.25	4890.00	4884.25	4783.50	4727.00	5059.75	5295.25	5336.50	5075.25	5238.50	5536.25	5673.75	5623.25	5390.75	5493.25	5370.25	5188.50	5056.25	5220.50	5408.00	5560.75	5650.75	5712.00	5492.25	5549.00	5432.00	5403.75	5214.25	5352.75	5396.50	5414.25	5397.50	5340.00	5406.00	5403.75	5383.50	5362.00	5392.00	5443.25	5330.00	5230.50	5148.00	5115.50	5123.75	5097.25	5116.25	5070.25	5006.00	4895.00	4780.75	4693.25	4732.00	4730.00	4678.50	4543.00	4568.00	4614.00	4654.25	4615.00	4590.75	4549.50	4477.25	4394.25	4354.25	4228.00	4166.25	4209.50	4181.25	4195.75	4239.00	4288.25	4404.25	4798.75	5031.25	5174.75	5215.50	5037.75	4949.50	4893.75	4915.75	4954.00	4899.25	4936.00	5001.75	4922.25	4912.00	4859.00	4829.50	4738.50	4682.50	4603.50	4580.25	4580.00	4580.00	4580.00	4580.00	4580.00	4580.00	4580.00	4711.25	5005.00	5155.25	5170.75	5164.25	5068.75	5028.75	5003.50	4956.75	5092.50	5019.75	4879.00	4875.75	4863.75	4809.50	4794.25	4797.50	4750.25	4755.25	4756.50	4827.50	4863.75	4972.50	5162.50	5296.75	5438.75	5496.50	5296.50	5325.25	5543.75	5573.00	5644.50	5547.25	5488.50	5326.50	5442.50	5332.25	5230.50	5162.50	5129.25	5031.50	4954.75	4913.50	4901.75	4860.00	4847.25	4814.75	4813.00	4715.50	4838.25	4874.00	4693.75	4691.50	4706.25	4670.25	4589.50	4542.50	4540.00	4603.25	4681.00	4697.25	4631.75	4640.00	4554.50	4569.25	4515.00	4413.25	4392.25	4389.00	4386.00	4384.75	4391.75	4434.75	4485.00	4550.25	4678.00	5389.75	5521.75	5355.25	5345.75	5344.00	5355.75	5462.00	5453.50	5382.25	5464.00	5504.25	5476.50	5492.25	5426.50	5317.75	5209.25	5070.25	4895.00	5110.25	5095.50	5204.00	5442.50	5371.75	5322.00	5323.50	5410.50	5416.75	5334.25	5304.25	5166.75	5132.00	5139.00	5059.25	4988.00	5248.25	5106.50	5034.25	5011.75	5005.50	5053.25	5133.75	5127.75	5180.25	5075.25	5121.25	5224.75	5245.75	5187.75	5115.75	5180.00	5140.50	5208.25	5158.00	5177.75	5101.25	5268.50	5411.00	5396.25	5473.25	5389.50	5371.50	5157.25	5072.00	5187.50
6219.50	6220.00	6354.75	6285.00	6447.75	6444.00	5996.25	5748.50	5484.50	5557.50	5598.75	5660.50	5754.25	5923.50	5738.25	5607.50	5371.00	5138.00	5209.50	5182.25	4932.75	4746.50	4812.50	4912.00	4974.75	4918.75	5080.00	5220.25	5530.50	5553.25	5425.50	5641.50	5515.50	5342.50	5021.50	5300.00	5472.25	5500.75	5507.25	5455.50	5391.25	5394.25	5445.00	5344.00	5285.50	5375.25	5394.50	5463.50	5482.25	5433.00	5444.25	5483.00	5444.50	5428.25	5416.25	5398.50	5444.00	5314.50	5238.00	5131.25	5064.50	5216.75	4928.75	4915.50	4866.75	4936.00	4881.75	4912.00	4867.25	4788.00	4787.00	4615.50	4726.25	4729.25	4728.00	4659.50	4543.00	4492.50	4515.25	4487.50	4445.75	4368.25	4169.25	4136.50	4131.75	4220.50	4263.75	4319.75	4374.50	4661.75	4885.00	5057.75	5251.50	5098.25	4993.75	5004.75	4962.75	4971.00	4884.00	5029.25	5088.25	4960.75	4827.25	4696.25	4680.75	4604.25	4580.00	4580.00	4580.00	4580.00	4580.00	4580.00	4580.00	4580.00	4580.00	4580.00	4585.75	4691.50	4862.75	4822.25	4909.50	4960.50	4963.00	4898.25	4768.25	4791.50	4777.75	4767.00	4782.25	4830.50	4762.75	4740.00	4738.00	4722.75	4720.50	4727.50	4749.25	4798.50	4898.75	5009.25	5095.25	5225.00	5235.75	5343.25	5540.00	5629.25	5537.00	5573.50	5543.75	5464.00	5276.00	5288.25	5238.00	5110.25	5056.25	4964.00	5016.00	5090.25	5092.50	5153.50	4978.75	5127.00	5024.75	5010.25	4915.00	4728.75	4702.75	4610.75	4580.75	4565.75	4542.50	4576.25	4648.25	4644.25	4712.75	4735.00	4681.25	4604.50	4531.50	4549.75	4472.50	4471.25	4410.00	4385.75	4383.75	4382.00	4381.25	4386.00	4469.00	4536.75	4673.00	4751.50	5268.50	5474.00	5331.00	5297.75	5415.50	5374.50	5414.50	5441.50	5538.25	5420.50	5513.25	5526.25	5342.00	5229.50	5115.50	5020.00	5063.75	4875.00	4852.75	4780.25	5057.75	5260.00	5250.50	5085.75	5075.75	5419.25	5217.25	5267.75	5416.50	5368.50	5268.75	5321.75	5117.25	5061.25	5278.25	5176.00	5063.50	5077.25	5132.25	5113.50	5135.75	5183.25	5241.50	5017.00	5000.00	5049.50	5075.75	5048.75	5018.75	5025.00	5002.50	5044.00	5045.00	4993.75	5109.25	5167.25	5191.75	5192.00	5453.00	5386.75	5273.75	5154.50	5106.75	4943.25
5759.75	5927.50	6155.50	6095.00	5962.00	5872.25	5734.50	5655.75	5533.25	5735.25	5691.00	5629.25	5710.75	5944.00	5774.75	5521.00	5488.00	5268.50	5269.25	5130.25	5094.25	5006.75	4612.00	4805.00	4843.25	4949.25	5065.75	5383.25	5681.00	5635.50	5490.00	5371.00	5231.50	4993.00	5122.00	5451.50	5766.50	5673.75	5522.00	5492.75	5373.25	5336.75	5301.00	5227.50	5334.50	5406.00	5350.00	5353.75	5334.75	5302.00	5329.00	5338.00	5362.50	5432.50	5442.50	5406.00	5343.50	5323.50	5265.25	5228.75	5200.50	5366.25	5063.25	5232.25	5187.50	5230.50	5093.50	4961.50	4882.75	4752.75	4744.00	4805.75	4771.75	4687.50	4574.25	4434.50	4324.75	4281.50	4344.00	4302.75	4303.00	4253.00	4157.75	4092.75	4151.75	4209.75	4247.25	4338.25	4401.75	4681.75	4970.75	5080.50	5199.50	5164.50	5142.75	5122.25	5027.50	4993.25	4893.00	5017.00	4989.00	4933.00	4799.75	4627.75	4606.00	4581.25	4580.00	4580.00	4580.00	4580.00	4580.00	4580.00	4580.00	4580.00	4580.00	4580.00	4580.00	4584.25	4666.00	4728.50	4864.00	4912.25	4840.25	4726.25	4682.50	4690.25	4729.00	4712.25	4746.50	4787.00	4754.50	4718.50	4754.75	4737.50	4701.75	4706.00	4721.25	4752.75	4843.50	4980.50	5072.00	5171.75	5145.00	5217.00	5403.50	5494.25	5478.50	5408.25	5375.25	5339.00	5261.50	5225.00	5204.00	5083.25	5019.00	4967.25	4873.25	4902.00	5063.25	5078.75	5018.50	5088.00	5133.00	5145.25	5084.75	4873.75	4716.50	4640.50	4593.50	4604.25	4624.75	4722.75	4749.00	4773.75	4846.75	4791.75	4752.00	4740.00	4576.50	4460.00	4429.25	4424.75	4389.00	4379.75	4378.75	4378.25	4377.50	4384.50	4462.00	4555.25	4782.50	4893.50	5315.25	5615.75	5430.00	5313.75	5376.25	5498.00	5470.25	5470.25	5522.50	5479.25	5502.75	5486.50	5353.50	5203.50	5073.00	5042.25	5055.50	4897.25	4648.25	4839.50	5121.25	4945.25	5114.25	4933.00	4907.00	5292.75	5142.25	5003.75	5228.50	5343.00	5298.75	5174.00	5059.50	5120.25	5201.25	5197.00	5217.75	5165.00	5197.00	5300.25	5357.50	5348.25	5231.00	5049.25	4940.00	4918.25	4920.25	4932.50	4961.25	4916.25	4898.75	4913.25	4928.75	4894.75	5030.25	5000.50	5024.75	5130.25	5409.50	5363.75	5346.75	5265.00	5238.75	4955.25
5533.50	5910.25	6123.75	6002.25	5853.75	5896.75	5955.50	5762.25	5651.75	5876.00	5991.00	5771.75	5776.75	5945.00	5938.75	5332.25	5391.00	5179.50	5011.00	5004.00	5183.00	5042.25	4591.00	4588.25	5074.75	5300.75	5200.25	5500.25	5663.00	5390.75	5251.00	5137.75	4933.50	5042.50	5389.50	5604.25	5712.50	5578.25	5445.25	5634.00	5537.75	5434.75	5372.25	5270.25	5221.50	5240.00	5151.75	5094.25	4981.00	4926.75	4957.25	5017.50	5093.75	5119.25	5180.00	5258.25	5404.75	5383.50	5331.50	5337.75	5315.75	5273.50	5245.75	5284.25	5172.50	5072.75	4964.75	4859.25	4817.50	4853.25	4917.25	4979.75	4857.50	4714.50	4451.00	4493.75	4371.75	4240.75	4192.00	4168.50	4153.00	4131.00	4123.75	4071.00	4175.75	4181.50	4228.25	4300.25	4338.50	4623.75	4902.00	5034.25	5189.25	5230.00	5285.75	5270.50	5122.50	5232.00	5094.75	4872.50	4928.00	4878.25	4682.25	4582.00	4580.00	4580.00	4580.00	4580.00	4580.00	4580.00	4580.00	4580.00	4580.00	4580.00	4580.00	4580.00	4580.00	4580.00	4620.00	4738.00	4882.00	4870.00	4785.75	4695.00	4655.00	4675.75	4691.50	4673.25	4717.00	4746.00	4718.25	4712.50	4825.75	4818.75	4684.75	4687.25	4700.75	4755.75	4854.75	4962.25	5028.25	5047.50	5061.75	5044.75	5130.50	5233.50	5271.25	5333.25	5276.25	5204.00	5255.25	5200.00	5147.75	5082.50	4954.25	4900.50	4837.50	4801.25	4946.00	4929.75	4814.50	4824.75	4876.00	4907.50	4920.00	4944.00	4926.25	4796.00	4729.50	4742.25	4742.25	4787.75	4688.75	4819.00	4866.00	4734.25	4692.25	4775.75	4573.75	4421.25	4406.25	4390.75	4375.50	4375.50	4375.50	4375.75	4374.00	4389.50	4461.00	4566.25	4896.75	5109.25	5468.25	5465.25	5368.75	5352.00	5422.00	5445.50	5454.00	5507.75	5500.00	5484.50	5421.25	5402.75	5434.75	5357.00	5287.00	5267.25	5182.00	4931.25	4611.50	4810.50	4972.25	4755.75	4996.00	4825.50	4750.50	5087.50	4969.25	4841.00	4962.75	5010.00	5041.75	5072.75	5201.50	5093.00	5093.75	5169.25	5360.50	5217.00	5321.00	5557.00	5467.00	5354.50	5227.75	5062.00	4956.25	4880.25	4841.25	4807.25	4809.25	4814.00	4809.25	4842.75	4822.75	4824.50	4866.25	4885.25	4929.25	5054.25	5278.50	5255.75	5212.25	5061.00	5071.00	4901.00
5492.75	5950.00	6053.50	5996.25	6125.50	6315.25	6229.00	6033.00	5734.00	5833.25	6073.75	5847.50	5690.75	5978.00	5726.75	5189.75	5251.50	5257.25	5173.50	4964.50	4863.75	4835.25	4577.75	4630.75	4992.00	5229.75	5292.75	5385.25	5627.50	5454.75	5340.75	5084.25	5003.25	4765.25	4933.25	5204.50	5259.00	5343.00	5101.75	5386.00	5571.00	5582.75	5497.00	5455.00	5329.00	5151.25	5059.00	4958.75	4941.25	4904.25	4862.00	4782.75	4749.25	4785.25	4791.25	4905.50	5084.25	5138.75	5192.50	5297.75	5292.00	5234.25	5088.25	5022.25	4975.25	4904.50	4952.00	5002.75	4995.75	5049.25	5050.50	4955.25	4794.25	4721.75	4639.00	4783.25	4560.00	4444.75	4378.25	4321.25	4322.25	4212.00	4090.25	4074.00	4217.50	4235.50	4248.75	4421.00	4511.00	4658.25	4926.00	5224.25	5446.25	5480.00	5611.75	5516.75	5317.75	5386.50	5408.25	5137.00	4870.25	4776.50	4646.00	4581.00	4580.00	4580.00	4580.00	4580.00	4580.00	4580.00	4580.00	4580.00	4580.00	4580.00	4580.00	4580.00	4580.00	4580.00	4608.50	4748.00	4842.00	4842.75	4794.00	4749.00	4658.75	4640.00	4662.75	4731.25	4818.50	4796.50	4698.50	4677.25	4713.50	4705.00	4670.25	4674.00	4684.50	4716.25	4789.50	4873.00	4882.50	4911.25	4958.50	4999.50	5019.00	5154.00	5154.00	5167.50	5155.75	5083.75	5125.50	5166.25	5126.25	5047.50	4934.00	4885.75	4846.50	4760.50	4908.75	4935.25	4828.00	4741.00	4756.75	4710.50	4707.25	4830.25	4968.25	5021.50	4857.00	4832.75	4674.25	4677.50	4550.75	4641.25	4617.25	4621.50	4547.25	4513.25	4452.50	4395.00	4387.25	4379.50	4374.00	4373.00	4372.75	4373.00	4372.25	4408.75	4503.00	4633.25	4907.50	5281.50	5542.00	5676.25	5419.00	5323.75	5380.00	5429.50	5486.00	5552.25	5503.25	5472.25	5519.25	5361.25	5262.25	5208.75	5176.75	5110.75	4994.50	4818.75	4594.25	4765.75	4780.00	4641.25	4804.75	4764.50	4663.50	4798.75	4799.75	4801.00	4775.50	4796.50	4836.00	4859.00	4855.50	4854.75	4942.75	4963.50	5276.75	5302.25	5405.50	5680.25	5598.00	5438.50	5390.75	5188.75	5054.50	5073.00	5037.25	4911.75	4818.00	4820.00	4753.50	4747.25	4752.00	4801.00	4869.00	4914.25	5032.25	5158.25	5298.00	5123.75	5034.50	4923.00	4900.25	4811.50
5601.50	5821.00	5651.25	5867.50	6323.25	6346.00	6169.00	5914.75	5751.00	5923.25	5996.75	5849.50	5586.50	5646.50	5639.75	5195.00	5027.50	5186.50	5283.75	5123.50	4899.00	4793.75	4518.75	4665.25	4848.25	4982.50	5168.75	5406.25	5626.75	5602.50	5384.75	5271.50	5193.25	4903.00	4683.00	4708.00	4822.50	4888.50	4715.00	4950.50	5203.25	5368.25	5622.75	5700.75	5496.00	5409.00	5271.50	5340.00	5161.75	5332.75	5172.00	4887.75	4770.50	4697.75	4737.75	4867.75	4930.75	5020.50	5085.75	5154.25	5204.00	5115.00	5001.50	5046.25	5029.25	4959.75	5083.25	5179.25	5158.00	5179.25	5124.50	4926.75	4777.00	4956.00	4825.00	5017.25	4782.75	4650.50	4609.50	4570.50	4519.00	4439.00	4205.25	4152.50	4327.75	4342.75	4325.75	4424.25	4574.75	4827.25	4919.75	5098.50	5303.50	5544.50	5572.25	5449.00	5126.50	5190.50	5181.50	5135.50	4944.25	4722.50	4641.75	4584.00	4580.00	4580.00	4580.00	4580.00	4580.00	4580.00	4580.00	4580.00	4580.00	4580.00	4580.00	4580.00	4580.00	4580.00	4599.50	4649.25	4723.00	4814.25	4874.75	4740.75	4674.75	4636.50	4664.25	4691.00	4732.75	4709.00	4668.75	4653.75	4652.75	4656.50	4660.75	4662.75	4665.50	4677.25	4699.75	4742.25	4785.25	4836.75	4901.50	4974.75	4958.50	5067.75	5150.75	5111.75	5082.75	5023.50	4963.75	4967.25	4978.00	4902.50	4814.00	4796.50	4782.75	4736.25	4995.75	5125.50	5021.25	4768.50	4677.75	4667.00	4656.75	4940.00	5110.00	4994.25	4787.25	4732.50	4642.00	4489.00	4446.25	4457.25	4455.25	4468.75	4438.75	4399.50	4394.25	4386.25	4382.25	4378.25	4374.75	4371.75	4371.00	4371.00	4377.25	4440.75	4580.25	4725.25	5015.25	5403.00	5647.25	5595.00	5522.00	5347.25	5396.75	5513.50	5554.25	5565.25	5493.25	5374.25	5400.50	5342.25	5154.75	5100.50	5054.00	4968.50	4791.75	4699.00	4620.50	4784.00	4815.25	4610.50	4627.25	4585.75	4557.50	4670.75	4691.50	4865.25	4779.75	4703.25	4760.00	4734.25	4725.00	4769.75	4839.25	4922.00	5367.25	5514.50	5486.00	5691.75	5581.75	5486.75	5309.00	5206.75	4994.25	4953.25	5050.50	5021.50	4967.25	4994.00	4892.00	4759.75	4681.50	4797.75	4870.50	4962.75	5136.00	5275.00	5343.00	5159.50	5062.75	5006.25	4839.25	4898.00
5352.25	5444.25	5573.00	5843.50	6237.25	6177.75	6033.50	5936.00	5870.00	6180.50	6148.25	5915.25	5664.50	5394.75	5232.25	5166.75	4973.25	4846.75	4875.00	4673.25	4708.75	4692.75	4630.00	4921.25	5089.75	5339.75	5513.00	5540.00	5555.75	5580.50	5387.25	5357.00	5361.00	5151.75	5077.00	4848.75	4636.75	4591.75	4451.50	4491.25	4738.50	4876.50	5142.25	5326.00	5418.50	5596.75	5726.50	5562.00	5475.25	5623.00	5406.00	5045.00	5025.75	4734.00	4941.75	5090.25	5197.25	5204.00	5297.00	5350.25	5308.25	5227.75	5087.00	5234.75	5129.50	5124.50	5323.25	5422.75	5384.00	5345.75	5272.50	5116.00	4987.00	4917.75	4920.25	5125.50	4877.00	4700.75	4672.75	4591.75	4518.75	4538.75	4278.50	4177.50	4269.25	4283.50	4274.50	4399.25	4477.75	4645.00	4767.50	4964.25	5199.75	5348.00	5474.50	5457.75	5132.00	5186.25	5096.75	4968.75	4798.75	4692.50	4641.75	4580.00	4580.00	4580.00	4580.00	4580.00	4580.00	4580.00	4580.00	4580.00	4580.00	4580.00	4580.00	4580.00	4580.25	4585.50	4601.50	4626.75	4691.00	4777.00	4774.00	4727.00	4637.50	4629.50	4628.50	4650.75	4692.50	4649.75	4661.00	4658.75	4646.00	4648.75	4653.75	4656.50	4663.75	4672.75	4689.50	4718.75	4757.50	4807.75	4860.75	4869.00	4891.50	4991.50	5043.25	5077.75	5092.00	5088.25	5033.50	4989.25	4957.25	4958.00	4983.50	4941.50	4815.00	4689.25	4857.25	4983.75	4852.25	4883.75	4843.25	4702.50	4608.25	4776.75	4922.50	4768.00	4610.75	4600.25	4549.00	4455.00	4495.25	4486.00	4465.50	4458.75	4431.75	4398.50	4394.25	4388.25	4384.50	4378.25	4374.00	4370.75	4368.50	4369.75	4389.25	4467.50	4636.25	4806.25	5129.00	5438.25	5615.00	5665.50	5610.50	5415.50	5405.25	5480.50	5567.50	5541.50	5499.50	5430.50	5333.50	5194.25	5119.50	4962.25	4925.00	4897.50	4694.50	4547.75	4650.00	4631.25	4584.25	4561.75	4553.75	4622.25	4651.25	4587.50	4674.50	4694.25	4680.50	4652.50	4645.50	4654.00	4682.00	4734.75	4848.75	4961.00	5384.25	5662.00	5660.25	5401.50	5396.25	5454.50	5204.50	5177.25	5047.50	4860.00	4957.75	5081.25	5223.50	5271.25	5082.00	4900.75	4755.25	4660.75	4757.25	4888.00	5116.50	5276.50	5317.25	5231.25	5233.75	5053.00	4816.25	4979.25
5295.00	5379.50	5484.00	5728.50	6089.50	6141.50	6164.00	6074.00	5913.50	6215.00	6281.50	5998.00	5763.00	5396.00	5050.50	5035.50	5021.00	4728.00	4659.50	4467.50	4442.50	4522.50	4687.50	5031.00	5198.00	5533.00	5683.00	5626.50	5414.00	5576.00	5472.50	5395.00	5500.50	5259.00	5211.50	5094.50	4823.00	4559.00	4346.50	4358.00	4507.50	4692.50	4883.50	5038.00	5277.50	5574.50	5781.00	5741.00	5579.00	5661.50	5550.00	5138.00	5250.50	4789.50	4997.50	5179.50	5341.50	5293.50	5390.50	5450.50	5408.50	5309.50	5127.50	5291.50	5145.00	5203.50	5428.50	5543.00	5487.50	5429.50	5320.00	5191.00	5052.00	4911.00	4948.50	5111.00	4845.00	4763.00	4666.50	4545.50	4401.50	4488.50	4286.50	4099.00	4151.00	4200.50	4245.00	4288.50	4374.00	4505.00	4685.50	4889.00	5177.50	5401.00	5585.00	5413.50	5235.50	5414.00	5281.50	5047.50	4772.50	4688.50	4643.50	4580.00	4580.00	4580.00	4580.00	4580.00	4580.00	4580.00	4580.00	4580.00	4580.00	4580.00	4580.00	4580.00	4580.50	4588.00	4603.00	4624.50	4684.00	4715.50	4724.00	4701.00	4628.50	4627.50	4627.00	4661.50	4719.00	4643.50	4674.00	4668.50	4644.00	4646.50	4651.00	4656.50	4665.00	4675.00	4690.00	4715.50	4756.00	4795.00	4819.50	4840.00	4863.00	4972.50	4998.00	5019.50	5052.50	5087.00	5049.50	5028.00	5029.50	5056.00	5087.00	5057.00	4885.00	4695.00	4900.50	5024.50	4823.00	5004.00	4951.50	4741.50	4598.50	4754.00	4854.00	4700.50	4561.50	4518.50	4443.00	4457.00	4564.50	4551.00	4515.50	4507.00	4456.00	4397.50	4394.00	4388.50	4384.50	4378.00	4374.00	4370.00	4367.50	4370.00	4393.50	4466.00	4634.00	4812.00	5152.50	5466.50	5511.00	5626.00	5641.00	5459.00	5446.50	5513.00	5598.50	5576.50	5574.00	5553.50	5402.50	5182.00	5169.00	4949.50	4853.50	4828.00	4651.50	4551.00	4600.50	4571.00	4466.00	4498.50	4579.00	4727.00	4743.50	4615.50	4687.50	4623.50	4614.50	4623.00	4619.50	4632.00	4664.50	4737.00	4889.00	4973.00	5294.00	5520.50	5560.50	5219.50	5301.50	5503.00	5127.50	5127.00	5029.00	4845.50	4951.50	5118.00	5319.50	5412.50	5117.00	4950.50	4813.00	4625.00	4745.50	4887.50	5148.50	5329.50	5315.50	5284.00	5297.50	5011.50	4802.50	4965.00
5610.00	5676.75	5696.50	5656.00	5961.75	6202.00	6409.00	6145.25	5958.50	6174.25	6035.75	5743.75	5656.75	5333.00	5073.25	4792.00	4815.00	4778.75	4701.00	4841.50	4774.25	4559.50	4635.25	4952.75	5158.75	5312.50	5679.00	5708.75	5316.75	5323.00	5451.75	5194.25	5203.50	5007.25	4834.50	4679.50	4692.50	4571.00	4317.75	4240.25	4610.00	4687.50	4625.50	4726.50	4906.25	5117.00	5281.75	5490.25	5670.25	5513.75	5469.00	5435.50	5352.00	4808.00	4803.25	5140.50	5385.75	5399.50	5446.25	5484.75	5449.75	5302.75	5336.25	5274.00	5198.25	5199.00	5462.25	5652.50	5682.00	5460.00	5315.00	5158.25	5019.75	4950.25	4951.00	5025.00	4872.00	4823.00	4708.00	4621.75	4410.00	4387.25	4260.25	4084.25	4165.75	4162.50	4172.00	4375.25	4485.75	4774.50	4875.50	5108.50	5471.50	5594.75	5614.00	5592.75	5437.50	5639.75	5288.00	5043.50	4771.00	4664.25	4622.25	4580.00	4580.00	4580.00	4580.00	4580.00	4580.00	4580.00	4580.00	4580.75	4580.25	4581.25	4582.25	4583.25	4587.50	4595.75	4610.25	4628.00	4657.75	4673.50	4662.75	4634.50	4627.50	4628.25	4627.75	4669.25	4682.25	4641.75	4635.25	4639.75	4641.25	4644.25	4651.00	4657.25	4671.00	4691.50	4717.25	4740.75	4783.00	4790.50	4811.50	4830.50	4870.75	4920.25	4962.00	5004.75	5072.25	5143.75	5178.75	5152.00	5161.25	5232.75	5294.25	5182.00	4935.50	4754.00	4724.75	4777.75	4719.25	4855.75	4903.00	4783.00	4605.75	4884.00	4901.75	4720.00	4542.00	4508.50	4526.50	4677.25	4769.00	4662.25	4543.00	4601.75	4540.75	4489.00	4405.00	4387.25	4383.25	4378.00	4374.00	4370.50	4366.75	4367.50	4391.75	4469.75	4641.50	4790.75	5142.75	5503.75	5607.50	5631.00	5646.50	5507.00	5507.25	5554.25	5555.50	5540.25	5538.50	5477.50	5311.00	5114.00	5034.75	4834.75	4705.50	4690.25	4581.25	4524.75	4518.50	4473.00	4511.75	4581.75	4650.50	4754.50	4704.50	4631.50	4639.50	4591.75	4593.25	4597.25	4606.00	4656.50	4703.00	4715.25	4798.75	4923.50	5095.50	5281.00	5298.00	5053.50	5169.00	5351.75	5150.50	5024.25	4954.00	4781.50	4873.50	5065.00	5197.25	5254.75	5160.50	5015.25	4865.75	4639.25	4699.25	4860.00	5073.75	5310.50	5347.25	5288.00	5180.25	4945.00	4769.25	4895.75
6196.25	6232.25	6150.50	6124.00	6107.75	6216.75	6421.00	6057.50	6047.00	6239.25	5946.00	5443.50	5217.25	4968.25	4841.25	4887.00	5023.50	5090.75	5136.25	5274.75	5109.00	4812.50	4424.25	4818.00	4847.75	4976.75	5428.00	5520.75	5109.50	5248.50	5584.75	5256.50	5016.75	4797.50	4688.75	4369.75	4176.75	4130.75	4168.25	4280.00	4538.50	4822.75	4920.75	4945.75	4948.50	5069.50	5114.50	5298.00	5248.00	5258.75	5163.00	5349.75	5423.00	4715.25	4512.25	5071.50	5214.50	5149.25	5251.00	5618.75	5493.50	5630.75	5395.00	5519.75	5361.00	5311.25	5425.50	5563.50	5670.00	5532.75	5397.75	5219.00	5120.75	5160.25	5093.00	5131.00	4964.50	4798.25	4604.50	4557.00	4552.50	4554.75	4395.50	4108.25	4085.00	4085.50	4166.75	4287.50	4502.75	4914.00	5059.25	5286.25	5604.25	5476.75	5357.00	5540.25	5850.75	5806.00	5239.25	5039.75	4781.50	4666.75	4635.00	4588.75	4583.25	4581.00	4580.00	4580.00	4580.00	4580.50	4583.25	4586.25	4594.25	4600.75	4595.50	4599.75	4604.75	4610.75	4612.25	4648.75	4686.75	4668.25	4674.50	4626.25	4644.25	4633.50	4628.50	4629.00	4630.25	4631.50	4633.50	4636.00	4640.25	4643.25	4652.25	4661.00	4676.00	4687.50	4705.00	4722.75	4743.25	4766.00	4783.50	4811.00	4831.75	4881.75	4926.50	4981.00	5039.75	5156.50	5251.75	5265.00	5307.00	5359.00	5475.75	5249.25	4981.00	4835.00	4747.25	4655.75	4619.00	4571.50	4602.75	4601.00	4620.00	4820.25	4742.00	4556.00	4539.00	4705.50	4756.00	4914.25	4857.75	4717.25	4604.25	4640.00	4579.25	4469.25	4403.50	4384.00	4381.00	4376.50	4372.25	4369.25	4365.50	4364.00	4380.00	4443.75	4578.00	4716.00	5106.50	5412.25	5661.00	5709.75	5618.75	5463.50	5465.75	5552.75	5497.50	5392.75	5345.75	5410.00	5221.50	4997.25	4868.50	4739.00	4644.50	4561.00	4570.75	4514.50	4452.50	4432.75	4508.75	4638.00	4648.00	4722.75	4710.75	4638.50	4620.75	4580.25	4570.50	4575.25	4617.00	4689.25	4762.75	4762.25	4722.00	4770.50	4872.75	4973.00	4994.50	4857.75	4969.00	5250.00	5263.25	5078.50	4983.25	4880.50	4758.00	4853.75	4985.00	5172.50	5175.00	4954.50	4774.50	4613.00	4654.50	4815.50	5020.25	5173.75	5251.00	5221.75	5104.00	4855.50	4739.00	4830.50
5751.75	5901.25	6105.75	6534.25	6592.75	6597.00	6343.00	6240.75	6038.00	5835.50	5550.50	5292.50	5334.75	5494.00	5170.00	5318.00	5430.00	5414.50	5461.25	5310.75	5014.25	4812.00	4409.50	4594.75	4629.75	4823.25	4970.50	5088.50	4873.50	4957.75	5128.00	4963.50	4971.00	4519.75	4293.50	4211.50	4072.75	4266.75	4468.25	4650.75	4696.75	4808.75	4973.75	5225.00	5422.00	5447.50	5452.00	5402.50	5271.75	5009.25	4878.25	4867.25	4902.75	4628.75	4359.50	4730.00	4867.50	5078.50	5404.75	5526.75	5619.75	5698.25	5694.00	5698.00	5536.75	5603.25	5689.00	5666.25	5669.25	5769.00	5570.75	5433.25	5357.25	5364.75	5241.75	5133.00	4930.50	4784.00	4639.75	4529.25	4326.25	4271.00	4199.25	4138.00	4030.25	4063.25	4207.50	4374.50	4488.25	4771.50	5084.25	5393.00	5559.25	5488.75	5258.25	5392.25	5463.75	5395.00	5146.25	5021.50	4797.75	4697.25	4668.00	4612.00	4600.25	4596.50	4592.00	4585.25	4584.50	4586.50	4588.75	4593.75	4603.75	4610.50	4619.75	4625.75	4628.75	4629.50	4623.00	4624.75	4648.00	4630.25	4644.50	4638.25	4645.00	4640.50	4636.25	4636.25	4634.50	4631.75	4633.00	4635.25	4637.75	4641.25	4651.25	4661.25	4675.25	4686.50	4701.75	4720.75	4745.25	4766.25	4780.75	4819.00	4850.25	4927.75	4962.50	4989.75	5044.50	5122.00	5123.25	5139.25	5211.75	5316.00	5440.75	5329.25	5172.50	5106.00	5065.25	5021.00	4916.00	4955.00	4775.50	4616.50	4553.75	4680.00	4571.75	4528.50	4655.25	4789.50	4904.00	4970.75	4779.00	4678.25	4646.50	4651.75	4571.25	4445.00	4410.75	4395.50	4387.00	4374.25	4371.00	4367.75	4364.50	4362.50	4369.50	4424.75	4527.00	4638.50	4942.50	5369.75	5628.50	5697.25	5554.00	5497.50	5372.50	5405.25	5410.25	5491.50	5334.25	5112.75	5054.25	4890.75	4819.75	4725.00	4613.50	4510.25	4493.75	4471.25	4423.00	4496.50	4589.75	4617.00	4610.50	4705.00	4730.25	4741.00	4728.00	4626.00	4572.25	4574.00	4599.00	4709.50	4839.75	4815.75	4706.75	4660.00	4675.25	4735.25	4752.00	4755.00	4838.50	4921.50	5105.25	5188.00	5137.25	5044.25	4824.25	4727.25	4869.50	5038.50	5151.00	4977.25	4708.25	4560.50	4562.50	4673.50	4798.50	4914.25	5133.00	5228.00	5077.00	4854.00	4720.75	4727.50
5384.00	5874.75	6110.25	6513.00	6217.50	6184.75	6298.50	6428.25	6022.25	5745.50	5523.75	5611.25	5835.50	5830.50	5489.25	5700.50	5852.50	5754.75	5703.25	5518.00	5361.75	5114.50	4640.00	4354.75	4482.75	4592.50	4626.50	4895.25	4857.75	4672.25	4529.50	4409.50	4428.25	4255.75	4204.75	4028.25	4194.25	4462.25	4667.75	5004.75	5124.75	5061.50	5076.25	5150.25	5338.50	5317.25	5377.75	5461.75	5453.00	5207.25	4907.00	4508.00	4389.75	4288.00	4454.75	4828.00	4888.75	4919.75	5070.50	5160.50	5348.25	5284.50	5293.25	5299.50	5321.00	5383.25	5656.75	5991.00	6053.50	6140.75	5923.25	5589.00	5519.25	5434.00	5377.50	5227.00	5035.75	4883.50	4522.00	4358.25	4380.25	4418.75	4138.75	4027.00	3985.50	4062.75	4142.50	4260.50	4319.75	4544.75	4880.75	5189.25	5494.00	5274.50	5125.50	5128.75	5089.75	5025.25	5045.50	4905.50	4780.50	4724.25	4688.75	4633.50	4621.00	4614.00	4609.75	4597.25	4594.75	4593.25	4594.00	4601.25	4616.75	4629.25	4630.50	4630.75	4639.00	4639.75	4635.75	4629.75	4632.25	4635.25	4645.00	4653.50	4657.00	4653.00	4655.25	4647.75	4643.75	4637.50	4635.50	4635.00	4647.50	4656.25	4653.50	4661.50	4676.75	4687.50	4704.50	4724.75	4746.75	4764.25	4779.25	4811.75	4837.25	4864.50	4881.75	4907.50	4937.50	4995.25	5117.75	5149.75	5290.00	5395.50	5266.75	5284.50	5228.00	5039.50	5019.00	5087.25	4957.00	4943.00	4842.50	4604.75	4535.00	4515.00	4526.50	4612.00	4664.25	4722.75	4862.00	4944.75	4853.50	4722.25	4599.75	4587.75	4534.50	4448.00	4433.75	4415.25	4401.50	4383.50	4369.00	4366.00	4364.00	4361.50	4364.25	4394.75	4468.50	4538.00	4754.25	5040.50	5532.75	5562.25	5465.75	5441.75	5277.50	5359.75	5421.75	5347.75	5320.25	4972.50	4805.00	4761.50	4758.50	4655.75	4559.00	4514.00	4439.00	4423.25	4440.50	4555.50	4563.75	4518.50	4615.25	4639.75	4631.75	4681.50	4721.25	4782.50	4707.75	4628.75	4706.00	4775.50	5004.50	5008.50	4795.50	4688.25	4583.75	4566.75	4577.25	4664.50	4669.00	4745.25	4829.50	5091.25	4942.25	4826.50	4704.00	4700.50	4864.50	5004.25	5153.50	5031.50	4719.75	4554.00	4506.50	4608.25	4706.75	4845.75	5041.75	5180.75	5175.75	4929.75	4761.00	4628.50
5340.00	5721.50	6058.75	6412.75	6227.50	6086.00	5947.50	6125.75	6071.50	5872.00	5772.50	6012.25	6249.00	5943.50	5872.50	5984.50	6162.50	5994.50	5652.00	5293.75	5129.50	5022.50	4796.50	4772.75	4320.75	4282.25	4478.25	4607.75	4844.75	4865.75	4759.50	4535.25	4414.75	4275.25	4253.00	4052.00	4330.75	4549.00	4671.00	4967.50	5420.00	5465.50	5379.00	5345.00	5227.50	4999.25	4874.25	4947.50	5088.00	4954.25	4719.75	4431.00	4248.50	4210.75	4481.00	4933.25	5195.50	5223.50	5238.50	5314.00	5173.25	4986.00	4922.25	4907.75	4993.50	5065.75	5253.75	5488.50	5673.00	5723.00	5548.50	5253.75	5080.75	4935.75	4882.25	4762.25	4639.00	4555.25	4617.00	4687.50	4655.50	4546.75	4313.75	4094.75	4032.25	4219.25	4324.00	4418.25	4515.25	4786.75	4831.25	5052.25	5390.75	5380.75	5431.50	5448.00	5387.00	5350.50	5059.75	4929.50	4768.00	4725.75	4687.50	4653.00	4641.00	4634.50	4622.25	4610.75	4603.50	4603.75	4608.00	4617.00	4637.75	4648.50	4646.75	4638.50	4651.25	4651.75	4650.75	4648.75	4647.25	4648.00	4654.25	4661.00	4663.50	4662.25	4659.50	4657.75	4658.00	4704.25	4713.75	4728.75	4809.75	4816.75	4762.00	4758.00	4767.25	4738.50	4738.75	4749.75	4758.25	4761.50	4784.75	4828.25	4851.00	4906.50	4909.75	5021.00	4997.75	5135.50	5216.75	5171.75	5138.25	5053.75	4951.75	4920.50	4879.50	4805.75	4827.75	4859.50	4794.25	4596.75	4555.00	4617.25	4842.75	4825.25	4812.00	4677.00	4953.50	5146.50	4976.00	5118.00	4882.50	4733.00	4606.25	4584.50	4545.75	4508.50	4465.25	4498.00	4433.75	4381.25	4367.50	4364.00	4362.25	4360.25	4361.25	4377.25	4440.50	4508.50	4661.25	4819.50	5248.00	5287.25	5243.75	5258.75	5257.00	5305.50	5281.00	5088.25	5015.75	4866.75	4705.75	4649.75	4655.75	4603.50	4538.75	4496.25	4427.00	4408.25	4434.00	4483.75	4495.75	4520.75	4610.00	4619.25	4577.25	4623.75	4611.75	4584.00	4611.50	4603.25	4689.25	4726.25	4822.00	4998.50	4947.00	4841.00	4709.00	4575.50	4526.25	4557.25	4577.25	4600.50	4697.25	4901.75	4903.75	4765.75	4682.00	4608.00	4700.25	4901.00	5075.75	4951.75	4704.25	4557.25	4474.50	4518.00	4674.50	4787.00	4858.25	5020.25	5158.75	4990.00	4809.00	4584.00
5734.00	5834.75	6093.75	6460.00	6183.25	6057.50	5899.75	5847.00	6007.75	6201.50	6195.50	6285.75	6262.25	6295.25	6195.75	6045.50	6014.75	5915.50	5709.25	5295.00	5165.50	5120.50	5218.50	5123.75	4713.00	4535.25	4309.75	4435.00	4748.25	4978.50	5087.50	4985.75	4832.75	4750.25	4582.00	4063.25	4162.25	4294.00	4421.00	4578.75	5127.25	5244.75	5257.25	5433.25	5276.75	5048.50	4867.50	4686.25	4966.00	4985.50	4644.75	4279.25	4115.00	4178.75	4320.50	4614.25	4963.00	5072.75	5203.00	5291.75	5255.50	4921.75	4812.50	5096.50	5223.25	5199.00	5276.25	5394.75	5565.25	5462.25	5348.50	5225.50	5315.75	5128.25	5076.00	4940.00	4838.25	4817.50	4873.75	4584.75	4359.00	4249.25	4129.00	4051.00	4111.75	4170.75	4324.50	4464.75	4535.75	4917.50	5166.00	5361.00	5447.25	5556.25	5666.50	5847.50	5628.00	5782.50	5344.50	5068.25	4771.75	4726.75	4696.50	4667.75	4659.00	4642.25	4628.25	4618.00	4614.25	4617.75	4625.25	4642.75	4650.00	4658.00	4651.50	4655.25	4665.75	4666.50	4668.75	4663.50	4661.25	4660.00	4662.50	4670.00	4675.00	4674.00	4671.25	4669.75	4668.00	4663.00	4657.25	4653.00	4661.50	4672.00	4658.00	4661.50	4714.00	4749.50	4797.75	4839.25	4839.25	4839.75	4855.75	4926.25	4959.75	5039.75	4966.50	5118.25	5119.50	5138.50	5179.00	5016.25	4896.25	4845.75	4813.00	4797.50	4740.50	4653.00	4648.00	4656.50	4607.50	4529.00	4696.50	4855.50	4977.50	4831.50	4671.25	4720.75	5095.50	5247.50	5290.75	5381.25	4955.75	4692.25	4686.00	4688.00	4680.25	4615.25	4529.25	4472.50	4451.25	4375.50	4364.75	4361.25	4359.50	4358.25	4360.25	4375.00	4415.75	4477.25	4636.50	4726.75	4942.25	5014.00	5200.50	5290.00	5307.75	5414.50	5381.75	5162.50	4960.75	4694.00	4607.75	4568.75	4618.75	4607.75	4576.50	4528.00	4403.75	4408.25	4385.50	4415.25	4422.00	4463.50	4494.50	4512.00	4544.50	4591.25	4595.75	4541.00	4537.75	4636.75	4656.25	4628.00	4756.25	4857.25	4953.00	4920.75	4805.75	4608.25	4499.75	4510.00	4556.50	4643.75	4750.00	4961.50	5064.25	4867.00	4724.50	4564.50	4574.00	4757.50	4882.00	4899.00	4631.25	4498.75	4451.25	4475.25	4582.50	4609.00	4781.75	4922.00	5075.75	4984.75	4840.25	4703.25
6210.25	6055.50	6082.25	6480.00	6362.75	6081.50	5776.50	5775.00	6037.00	6383.75	6472.25	6260.50	6062.25	5772.00	5656.75	5593.75	5765.75	5774.75	5719.00	5475.75	5344.00	5358.25	5554.75	5544.50	5311.25	5016.25	4615.50	4314.50	4383.75	4618.25	4878.25	5352.50	5371.50	5070.25	4710.00	4068.75	4253.75	4548.00	4739.25	4772.25	5049.00	4882.75	4935.25	5211.50	5251.50	4851.00	4843.50	4619.25	4771.75	5153.75	4975.00	4358.00	4076.00	4356.75	4453.25	4571.75	4684.00	4688.50	4768.75	4744.50	4763.00	4564.75	4989.25	5357.75	5466.00	5598.00	5565.25	5502.75	5720.25	5573.75	5641.75	5564.75	5443.25	5492.00	5281.75	5228.00	5150.25	5197.00	5023.50	4859.00	4771.00	4651.75	4146.75	4155.25	4107.25	4191.00	4242.00	4416.25	4499.00	5042.00	5447.00	5541.50	5739.25	5732.50	5720.00	5898.25	5848.25	5673.50	5159.00	4961.75	4789.75	4737.25	4704.50	4676.00	4666.00	4670.50	4649.00	4633.50	4637.25	4630.25	4643.00	4657.25	4658.00	4662.25	4661.00	4666.25	4673.25	4675.75	4677.50	4669.50	4672.75	4671.75	4673.50	4681.50	4688.00	4688.00	4685.00	4681.75	4678.50	4671.50	4662.75	4654.75	4650.50	4647.00	4646.00	4646.00	4646.00	4646.00	4649.00	4682.25	4803.25	4818.25	4800.00	4923.00	4991.50	5062.75	5009.50	5053.50	5199.50	5136.25	5277.75	5210.75	5141.75	5081.75	4946.25	4869.50	4749.25	4719.50	4731.25	4673.50	4658.50	4635.75	4922.25	4987.75	4995.75	4794.25	4767.50	4685.00	4800.00	4880.75	5152.50	5368.75	4973.25	4778.75	4820.50	4704.00	4733.50	4702.75	4734.00	4518.50	4413.75	4372.75	4363.25	4360.75	4357.75	4357.50	4362.75	4389.25	4417.75	4454.00	4557.50	4665.00	4920.25	5180.00	5414.50	5496.75	5369.50	5379.50	5248.75	5154.00	4959.25	4665.25	4585.25	4546.00	4556.50	4560.50	4560.75	4482.50	4426.50	4389.00	4378.50	4389.50	4420.50	4490.50	4533.50	4561.25	4611.75	4613.00	4563.75	4534.25	4570.75	4594.50	4557.00	4561.75	4632.00	4777.75	4760.25	4734.75	4632.50	4552.25	4493.00	4487.25	4528.00	4602.00	4726.25	4944.50	4983.00	4873.75	4712.50	4528.25	4504.00	4619.75	4758.50	4832.50	4591.50	4476.75	4434.50	4435.25	4479.25	4576.00	4714.25	4882.50	5089.25	5062.75	4954.75	4811.00
6145.50	5971.50	5595.50	5836.75	6058.00	5916.25	5623.00	5677.75	6069.00	6500.00	6385.00	6316.75	6115.25	5497.00	5213.00	5095.00	5300.75	5414.50	5341.00	5145.00	5099.00	5125.75	5219.50	5413.75	5655.25	5434.00	5154.00	4733.00	4318.25	4231.00	4539.25	5018.50	5067.50	4827.00	4478.25	3985.75	4096.25	4550.00	5076.00	5224.00	4718.00	4636.25	4877.25	5117.25	5208.50	4808.50	4609.75	4397.00	4323.50	4678.75	4627.00	4248.50	4269.00	4697.75	4801.00	4804.75	4582.00	4487.50	4476.75	4438.25	4445.00	4536.00	4892.75	5061.00	5337.00	5740.00	5920.25	5994.25	6044.50	5643.75	5704.50	5578.00	5522.25	5531.00	5449.25	5403.25	5354.25	5339.75	5248.50	5027.75	4937.00	4742.25	4216.75	4421.25	4307.25	4116.25	4168.25	4259.75	4360.50	4857.75	5250.75	5460.75	5592.00	5760.75	5864.25	5783.00	5561.00	5359.75	5172.00	4945.50	4783.50	4730.25	4712.25	4697.25	4692.75	4715.00	4676.25	4650.50	4653.75	4637.50	4656.00	4659.75	4662.25	4667.00	4671.00	4674.75	4682.50	4687.25	4723.00	4697.00	4686.50	4680.50	4684.00	4695.50	4702.50	4701.00	4698.75	4695.00	4690.00	4680.00	4667.25	4657.50	4651.00	4646.75	4646.00	4646.00	4646.00	4646.00	4646.00	4646.00	4693.75	4824.25	4760.00	4852.00	4871.25	4950.75	5119.75	5164.50	5252.75	5330.75	5502.50	5531.00	5387.75	5073.75	4890.75	4866.75	4861.25	4839.00	4831.25	4713.25	4615.75	4670.25	4716.75	4874.75	4910.00	4943.75	4970.50	4786.75	4840.25	4909.75	5048.00	4980.75	4759.50	4862.00	4859.50	4691.75	4637.00	4638.25	4688.25	4524.50	4415.50	4378.50	4363.50	4359.50	4356.75	4356.25	4366.00	4394.25	4426.25	4442.50	4528.25	4652.75	4881.25	5076.25	5236.50	5424.75	5401.25	5325.00	5174.00	4969.50	4803.00	4629.25	4512.25	4477.00	4470.00	4487.00	4484.75	4394.50	4374.50	4371.00	4378.25	4421.25	4488.25	4581.00	4623.50	4642.00	4660.75	4681.00	4633.25	4544.50	4535.50	4528.25	4517.50	4527.00	4542.50	4572.50	4608.25	4676.75	4584.50	4503.25	4472.00	4479.50	4535.75	4585.25	4686.00	4761.50	4804.25	4913.25	4836.75	4551.25	4430.75	4532.25	4706.00	4805.25	4574.50	4458.50	4418.75	4418.75	4463.00	4600.50	4768.25	4890.50	5028.75	5144.50	4955.50	4737.00
5953.75	5943.75	5293.00	4960.50	5174.75	5328.50	5258.75	5288.75	5791.00	6245.25	6243.50	6167.00	6096.75	5657.75	5352.00	5041.25	4936.50	4897.75	4859.00	4737.50	4689.75	4716.25	5002.25	5083.75	5348.00	5291.75	5211.00	4939.25	4682.75	4327.50	4150.00	4517.50	4562.75	4556.25	4465.50	4255.75	4067.50	4433.50	4776.00	4933.75	4391.25	4587.00	5031.50	5258.25	5214.25	4983.50	4696.00	4504.00	4252.25	4286.75	4193.75	4105.25	4300.50	4782.50	5034.25	4947.00	4491.00	4457.50	4516.75	4630.75	4724.50	4635.50	4680.75	4801.50	4990.00	5207.50	5451.50	5707.75	5555.75	5291.25	5168.75	5031.50	5032.75	4983.50	4948.50	4913.75	4913.25	4873.75	4863.75	4650.00	4444.00	4318.25	4032.25	4409.75	4379.00	4251.25	4296.50	4442.50	4392.75	4579.50	4825.25	4973.00	5193.00	5466.75	5761.00	5792.25	5571.25	5569.00	5338.00	5074.00	4840.25	4774.25	4773.25	4798.75	4798.25	4767.25	4726.25	4685.50	4663.50	4650.50	4653.75	4659.50	4667.75	4674.50	4682.00	4686.00	4694.75	4700.25	4747.00	4763.00	4728.25	4711.25	4697.75	4709.75	4721.00	4720.25	4717.75	4711.25	4711.50	4702.00	4670.50	4658.50	4649.75	4646.25	4646.75	4647.25	4646.25	4646.00	4646.00	4670.25	4751.50	4730.00	4756.00	4747.75	4777.50	4916.75	5054.25	5153.50	5193.25	5267.75	5265.75	5331.00	5284.75	5140.75	5176.25	5179.25	5176.00	5209.25	5069.25	4779.75	4601.50	4682.00	4681.00	4752.50	4775.75	4902.00	4909.75	4802.00	4822.00	4964.25	5058.75	4894.25	4904.75	4879.75	4761.75	4783.25	4724.75	4691.00	4548.00	4454.50	4458.75	4383.25	4358.75	4356.25	4355.50	4355.25	4362.25	4387.50	4413.50	4432.00	4516.75	4606.25	4890.00	5211.75	5269.00	5158.75	5292.00	5140.00	5078.50	4859.25	4668.50	4582.75	4530.25	4458.25	4422.25	4430.50	4465.75	4426.00	4358.50	4366.75	4425.75	4497.50	4640.75	4829.75	4875.00	4841.50	4891.50	4929.00	4882.00	4711.00	4713.50	4631.75	4628.75	4573.50	4519.75	4516.75	4552.75	4517.50	4535.50	4554.75	4479.00	4451.25	4515.50	4500.75	4562.25	4558.50	4649.75	4657.75	4660.75	4546.50	4403.00	4460.50	4545.25	4600.50	4507.00	4437.50	4400.75	4401.00	4470.50	4563.00	4659.00	4788.25	4921.00	4953.25	4851.75	4628.75
5983.50	5987.25	5584.25	4766.25	4546.75	4813.00	4845.25	4616.50	5103.75	5431.50	5863.00	6054.50	5943.00	5362.75	5193.50	5058.25	5000.25	4851.50	4710.00	4612.75	4553.50	4515.00	4526.75	4709.25	5029.25	5004.00	4836.75	4625.00	4442.75	4191.50	3979.25	3893.50	3892.50	3944.50	3897.25	3877.00	3882.75	4174.50	4399.50	4439.50	4428.25	4726.00	4948.50	5163.50	5058.50	4693.50	4575.00	4185.00	4091.25	4247.00	4576.50	4529.00	4512.50	4771.00	4922.50	4592.25	4351.50	4760.75	5104.50	5241.00	5278.25	4963.25	4823.50	4768.50	4792.75	4957.00	5181.50	5332.50	5217.00	4990.75	4911.25	4659.75	4656.00	4636.25	4651.50	4608.25	4613.50	4501.25	4510.00	4685.00	4468.25	4275.50	4057.75	4119.00	4092.00	4151.25	4147.50	4442.25	4468.50	4545.25	4767.75	5006.75	5310.00	5614.50	5920.75	5944.00	5959.25	5768.00	5503.00	5142.00	4944.25	4829.25	4875.25	4914.75	4887.25	4814.00	4763.00	4712.00	4680.50	4659.25	4662.00	4671.50	4679.00	4687.00	4695.25	4697.25	4707.25	4713.50	4720.75	4723.50	4864.00	4949.75	4796.00	4749.50	4749.25	4740.00	4737.00	4730.75	4769.75	4805.75	4764.75	4763.75	4709.75	4675.25	4676.50	4650.25	4648.00	4646.00	4654.75	4757.50	4795.75	4751.50	4717.25	4726.00	4707.75	4903.00	4943.00	5044.25	5031.50	5104.25	5111.00	5075.50	5216.25	5374.50	5361.75	5365.00	5418.25	5492.00	5211.50	5000.00	4641.75	4795.50	4847.50	4917.75	4845.50	4906.50	4898.25	4898.50	4843.75	4887.25	4970.75	4935.00	4897.00	4898.75	4839.25	4839.00	4842.00	4755.25	4568.00	4566.50	4554.50	4382.25	4370.75	4358.25	4354.75	4354.00	4359.50	4375.25	4397.00	4426.75	4502.25	4605.75	4905.25	5076.75	4957.75	5126.00	5355.50	5144.00	4978.25	4776.00	4549.25	4469.75	4490.25	4448.50	4391.50	4471.00	4593.00	4609.75	4355.25	4463.75	4608.00	4636.25	4823.00	5104.00	5279.75	5201.00	5236.50	5378.75	5277.75	5061.75	5204.00	4983.25	4988.25	4949.75	4736.50	4634.25	4638.50	4581.25	4498.75	4463.25	4444.00	4433.25	4441.00	4419.25	4413.75	4423.00	4450.00	4431.75	4423.00	4396.50	4384.50	4391.25	4449.50	4502.25	4465.25	4436.75	4385.75	4384.25	4460.25	4499.00	4578.25	4715.25	4739.50	4656.75	4653.00	4539.00
5228.75	5473.25	5487.75	4822.00	4424.50	4542.75	4830.00	4438.50	4521.00	4771.25	5204.00	5862.75	6083.25	6013.50	5764.25	5280.00	5064.00	4953.50	4972.50	5064.25	4938.75	4765.25	4434.00	4515.50	4965.75	5084.50	5148.00	4964.50	4762.50	4512.50	4351.00	4124.25	4162.75	4140.75	4097.50	3940.00	3877.25	3822.75	3840.75	3893.75	4333.25	4410.25	4668.50	4888.00	4919.25	4517.50	4107.00	3971.75	4081.75	4327.75	4414.00	4631.75	4673.75	4761.75	4969.00	4648.25	4506.75	4731.00	4902.75	5007.50	5231.75	5302.75	5260.25	5238.75	4965.50	4973.25	5142.75	5206.25	5095.75	4951.25	4812.75	4818.50	4596.00	4514.00	4533.50	4417.75	4453.75	4351.00	4245.00	4286.75	4592.25	4418.75	4071.00	4362.00	4460.00	4542.50	4468.75	4375.00	4337.00	4488.50	4648.25	4979.50	5556.50	5861.00	6057.75	6152.75	6078.75	6021.50	5490.25	5283.50	5018.00	4873.75	4932.25	4897.00	4867.00	4817.25	4796.25	4737.25	4679.75	4672.25	4672.75	4684.00	4694.25	4700.50	4712.25	4714.25	4716.50	4723.75	4735.00	4746.00	4812.50	4938.25	4896.50	4791.25	4775.25	4760.75	4757.50	4746.75	4738.75	4724.75	4739.75	4776.75	4712.75	4679.00	4660.00	4653.50	4649.25	4650.25	4672.00	4769.50	4711.75	4679.50	4685.75	4668.00	4670.25	4747.75	4797.00	4859.00	4905.00	4940.75	4931.50	4913.50	4950.25	5035.75	4982.50	4999.75	5099.00	5234.50	5093.00	4869.25	4640.50	5031.50	5145.00	5250.50	5169.50	5124.50	5079.50	5090.75	5052.75	5046.75	5107.75	4978.50	4980.25	4976.75	4931.75	4957.75	4898.75	4761.50	4651.75	4636.50	4575.00	4457.25	4418.25	4384.75	4365.50	4354.25	4354.25	4367.25	4405.50	4444.75	4510.00	4568.00	4751.75	4812.00	4950.00	5213.00	5304.00	5113.75	4891.00	4696.25	4554.75	4452.75	4395.50	4377.50	4373.25	4415.25	4579.25	4497.50	4360.00	4468.00	4634.75	4755.50	4816.00	4974.50	5222.75	5354.00	5326.25	5265.25	5235.25	5205.00	5200.75	5146.00	5121.75	5090.50	5079.25	4970.75	4835.25	4838.00	4699.25	4736.75	4639.75	4540.00	4496.25	4533.25	4512.00	4437.75	4409.50	4404.00	4400.00	4391.75	4377.00	4370.25	4373.50	4376.00	4455.25	4544.00	4401.00	4369.25	4448.25	4464.00	4508.50	4669.25	4695.50	4519.25	4530.25	4452.00
4499.50	4905.50	5208.25	4700.00	4350.25	4342.25	4620.00	4542.00	4330.25	4649.00	4778.50	5306.00	5782.00	5742.00	5526.75	5570.50	5548.75	5399.25	5266.00	5298.25	5167.75	4927.50	4443.75	4246.75	4695.00	4933.75	5255.50	5128.75	5075.75	4813.25	4594.25	4479.50	4555.00	4726.50	4618.75	4138.00	4330.50	4190.50	3770.50	3644.75	3740.25	4018.75	4409.25	4601.75	4322.00	3992.50	3774.50	3709.75	3760.75	3803.75	3875.75	4009.50	4106.75	4282.75	4538.50	4329.50	4376.00	4543.75	4812.50	5052.25	5388.00	5583.50	5501.25	5480.00	5161.25	5126.25	5315.75	5259.50	5286.25	5082.50	5025.25	5065.50	4810.25	4785.75	4660.75	4533.25	4718.00	4491.25	4430.00	4371.75	4167.25	4494.25	4102.75	4523.00	4777.75	4857.50	4835.75	4633.50	4408.00	4514.75	4680.00	4949.75	5292.50	5517.75	5702.50	5870.75	6153.00	6026.75	5497.00	5555.00	5179.00	4955.25	4935.75	4871.50	4892.25	4882.25	4856.75	4781.75	4719.00	4731.00	4723.50	4712.25	4707.50	4738.75	4734.00	4733.25	4732.75	4733.25	4745.00	4783.75	4953.00	5001.50	4831.75	4785.00	4782.25	4782.00	4776.25	4763.25	4751.25	4731.50	4712.00	4695.25	4681.25	4671.00	4659.50	4653.25	4649.50	4648.50	4647.75	4718.50	4751.50	4716.75	4682.50	4646.75	4644.00	4694.25	4731.25	4748.25	4782.75	4799.50	4818.00	4801.25	4800.00	4844.25	4825.75	4783.25	4772.75	4868.25	4849.25	4785.50	4589.50	4941.75	5089.50	5197.00	5330.75	5375.50	5448.50	5503.50	5480.50	5409.50	5235.25	5149.75	5168.75	4984.00	4996.25	5055.50	4960.50	4773.75	4709.25	4604.00	4542.25	4505.25	4461.50	4415.25	4380.00	4357.75	4353.25	4358.25	4405.50	4443.50	4503.75	4552.50	4843.75	4854.75	5009.50	5236.00	5342.00	5009.50	4760.50	4601.75	4531.25	4438.00	4382.50	4355.75	4360.50	4364.25	4498.50	4469.75	4347.25	4377.75	4456.25	4504.50	4633.50	4846.50	4979.00	5136.00	5120.75	4927.75	5033.25	5164.25	5208.50	5343.50	5201.50	5179.75	5153.75	5014.75	5062.25	5207.00	5055.50	5246.75	5088.25	4777.00	4685.75	4752.75	4791.25	4575.75	4590.50	4574.00	4514.50	4527.25	4490.75	4426.75	4364.25	4350.75	4389.25	4504.50	4510.25	4379.25	4362.25	4389.00	4524.00	4659.75	4631.50	4484.75	4416.50	4375.00
4254.25	4585.75	5190.75	5126.75	4591.75	4326.25	4289.00	4401.75	4279.50	4552.50	4608.25	5050.25	5401.75	5285.50	5131.75	5137.50	5096.75	5040.00	4999.00	4934.25	4860.50	4759.00	4285.50	4245.00	4983.75	4963.25	4940.50	4961.75	5039.25	5034.75	4803.25	4855.75	4916.00	5009.25	4732.50	4398.75	4677.25	4538.25	4150.75	4044.75	3800.25	3624.75	3986.75	4274.25	3808.75	3801.50	3998.00	4198.25	4347.25	4203.50	4137.25	4041.00	4040.25	4025.50	4135.75	4305.50	4682.50	4917.50	5174.50	5334.00	5484.00	5535.25	5424.00	5564.25	5472.50	5371.25	5114.75	5128.75	5434.50	5303.25	5415.25	5265.00	4915.50	4945.25	4816.25	4814.25	4784.00	4586.25	4751.50	4486.25	4140.75	4133.00	4037.50	4305.75	4479.25	4672.00	4812.50	4704.50	4477.50	4578.00	4668.25	4946.00	5320.50	5586.00	5635.75	5897.75	6092.00	5962.25	5834.25	5706.50	5288.75	5054.00	4929.00	4911.75	4976.50	4963.75	4974.00	4895.00	4799.50	4778.75	4761.75	4744.25	4727.50	4741.50	4752.00	4755.00	4756.00	4754.25	4759.75	4770.50	4790.75	4809.50	4818.50	4804.50	4804.75	4802.75	4793.75	4778.75	4765.25	4749.00	4726.50	4697.75	4680.25	4668.75	4660.00	4659.25	4658.75	4656.75	4652.00	4647.25	4667.50	4711.25	4745.75	4754.00	4744.50	4698.75	4682.50	4721.50	4784.50	4850.00	4820.50	4769.75	4827.50	4857.50	4918.75	4879.25	4735.00	4696.50	4685.25	4601.00	4638.50	4733.00	4782.00	4818.25	4881.50	4953.25	5057.25	5150.75	5317.50	5303.50	5294.75	5352.00	5401.50	5325.25	5257.75	5087.75	4984.00	4886.25	4769.25	4636.50	4607.50	4534.75	4478.25	4427.75	4395.00	4365.75	4354.50	4353.75	4389.50	4421.50	4485.25	4555.50	4896.00	5058.75	5059.50	5221.75	5108.50	4834.50	4743.25	4674.50	4627.00	4468.25	4413.00	4351.50	4344.25	4339.25	4339.50	4339.25	4341.00	4367.75	4438.50	4477.25	4567.75	4701.25	4759.75	4817.50	4759.75	4699.50	4735.50	4889.50	4896.50	4967.00	4926.00	5020.50	5092.75	5119.25	5243.75	5406.00	5264.25	5339.00	5143.00	5104.75	4980.50	4997.25	5007.75	4846.75	4971.25	4983.50	4925.75	5003.00	4972.00	4706.25	4473.50	4390.50	4368.50	4398.50	4406.50	4400.75	4415.75	4393.50	4512.25	4652.50	4676.50	4608.00	4523.75	4364.25
4433.50	4801.50	5014.75	5142.25	5046.75	4508.00	4153.25	4143.50	4186.00	4339.00	4657.50	5023.25	5123.75	5088.00	4979.00	4876.25	4798.50	4724.25	4670.75	4596.25	4541.25	4384.00	4078.25	4309.50	4679.50	4593.50	4626.50	4811.00	5012.75	5040.25	4840.25	5067.75	5303.00	5214.25	4730.25	4727.25	5001.75	4835.50	4575.50	4587.75	4242.25	3900.50	3661.25	3930.50	3765.50	4016.50	4404.00	4699.25	4891.25	4665.50	4511.25	4636.75	4641.00	4233.75	4501.25	4443.50	4589.75	4941.75	5197.75	5301.25	5483.50	5203.50	5187.75	5398.25	5384.25	5169.25	4884.00	4966.75	5329.00	5655.00	5596.25	5241.75	5029.25	5159.75	5076.75	5031.50	4832.50	4755.50	4658.50	4620.50	4356.00	4137.75	3980.50	4138.25	4271.00	4482.00	4593.50	4833.75	4641.25	4598.50	4739.50	4863.00	5091.00	5641.50	5929.75	6195.25	6362.50	6287.25	5702.25	5361.75	5207.75	5100.00	4916.50	5000.75	5043.75	5074.25	5093.25	4974.75	4890.25	4837.75	4810.75	4780.25	4758.00	4758.00	4770.25	4776.25	4780.25	4779.25	4779.00	4785.75	4795.75	4808.50	4818.25	4823.75	4825.50	4824.25	4832.50	4871.00	4914.25	4889.00	4809.50	4706.25	4677.00	4667.50	4672.00	4677.75	4679.50	4675.75	4667.00	4656.75	4649.25	4648.75	4657.75	4665.25	4688.00	4737.75	4666.75	4658.25	4667.75	4764.25	4861.00	4807.75	4756.50	4827.00	4921.00	4963.25	4867.00	4664.25	4607.50	4617.50	4792.25	4978.00	4992.75	5035.75	5083.50	5182.00	5242.75	5242.25	5153.75	5091.75	5160.50	5313.00	5422.00	5339.75	5368.75	5111.25	4908.75	4762.50	4707.75	4654.00	4598.25	4546.75	4490.75	4427.50	4391.25	4370.00	4357.50	4352.50	4364.00	4392.00	4477.75	4559.00	4749.50	4854.75	5013.75	5064.00	4863.50	4682.00	4626.75	4564.00	4688.50	4613.75	4561.50	4455.50	4365.75	4387.50	4344.75	4328.00	4331.00	4357.00	4440.50	4460.00	4516.00	4686.75	4644.75	4657.75	4651.75	4558.50	4587.00	4635.50	4668.00	4693.50	4712.25	4802.25	4915.50	5016.50	5211.50	5260.75	5242.50	5170.25	5105.00	5125.75	5210.00	5116.00	5177.50	5178.50	5080.50	5152.00	5147.75	5258.50	5154.75	4814.50	4572.00	4447.50	4419.50	4399.75	4384.25	4330.50	4381.50	4368.50	4363.00	4518.50	4531.75	4684.25	4715.25	4373.00
4328.25	4481.25	4656.50	4854.75	5148.50	4766.50	4121.00	4050.25	4132.50	4470.25	4859.75	5366.00	5486.50	5487.00	5321.25	4969.50	4952.75	4851.75	4619.00	4314.50	4178.50	4062.75	3969.25	3974.50	4227.25	4333.50	4608.75	5090.00	5323.50	5364.75	5003.00	5178.50	5323.50	5004.25	4685.25	4857.75	5281.50	5013.75	5015.50	4892.00	4698.00	4339.00	3603.00	3597.50	3920.25	4219.50	4208.50	4639.00	5002.25	4967.00	4710.75	4847.25	4862.25	4214.25	4706.25	4887.25	4685.00	4787.25	5159.00	5475.75	5334.75	4876.25	4948.00	5225.50	5175.00	4915.75	4694.25	4727.25	5015.50	5332.25	5489.00	5192.25	5278.00	5328.00	5358.75	5142.00	5048.75	4719.25	4421.00	4417.75	4244.50	4108.00	4049.75	4280.25	4264.50	4373.75	4512.00	4873.75	4790.25	4773.75	4793.00	5195.00	5143.00	5335.25	5716.50	6109.00	6216.00	6018.25	5400.50	5431.25	5480.00	5091.25	4917.25	5063.50	5130.75	5153.75	5176.75	5096.25	4974.50	4905.50	4861.75	4827.50	4807.25	4777.00	4789.75	4795.00	4802.00	4803.50	4798.50	4798.50	4808.00	4820.00	4831.75	4839.75	4842.75	4900.00	5058.25	4995.25	5149.00	5001.25	4809.00	4732.00	4694.75	4686.75	4690.75	4698.75	4700.75	4695.25	4684.50	4673.25	4661.00	4656.25	4654.75	4652.00	4648.75	4651.25	4648.00	4648.75	4653.00	4675.25	4712.25	4735.25	4652.75	4643.50	4674.25	4664.75	4627.50	4586.75	4618.75	4661.00	4652.75	4807.50	4941.25	5014.25	5054.75	5174.50	5235.75	5283.00	5121.75	5267.00	5397.50	5369.00	5150.50	5101.00	5082.25	4928.25	4793.50	4739.00	4713.50	4667.75	4620.75	4576.25	4496.00	4448.00	4408.25	4380.75	4366.75	4358.75	4351.75	4373.00	4451.25	4529.25	4765.75	4887.50	4998.50	4927.50	4822.50	4792.50	4721.25	4524.25	4522.25	4676.25	4556.50	4573.50	4492.25	4636.50	4515.50	4367.50	4330.00	4356.50	4408.00	4443.25	4579.25	4696.75	4647.00	4574.75	4680.25	4542.25	4511.25	4735.75	4643.25	4571.00	4589.25	4650.25	4756.50	4824.00	4931.00	4985.75	4920.25	4917.00	4826.25	4857.00	4921.25	4858.25	4981.75	5003.50	4925.75	4769.25	4803.25	4881.25	4992.50	4858.75	4598.75	4496.75	4522.50	4513.50	4545.50	4360.25	4321.50	4331.00	4335.00	4460.50	4436.50	4506.00	4607.00	4384.50
3950.00	4058.00	4359.00	4365.50	4738.75	5015.50	4332.75	3979.75	4092.50	4508.50	4878.50	5100.25	5193.75	5779.00	5913.75	5297.25	5329.25	5271.50	4895.75	4301.25	4378.75	4513.75	4213.75	3840.00	4268.50	4414.75	4711.75	5099.25	5517.75	5483.50	5190.00	5517.75	5448.25	5120.75	4721.75	4879.50	5112.25	5222.00	5373.50	5311.25	4656.50	4157.75	3493.75	3522.25	4083.25	4453.00	4327.50	4391.75	4881.25	5192.75	4907.25	5060.25	5007.00	4338.75	4495.25	4834.50	5154.50	5067.00	5055.75	4992.75	4849.25	4649.25	4791.75	5006.25	5084.00	5051.50	4790.50	4349.25	4583.25	5002.00	5299.00	5452.25	5560.25	5498.50	5237.75	5125.00	5011.00	4712.50	4407.00	4380.00	4075.75	3892.00	4292.50	4637.75	4602.50	4570.50	4586.75	4819.50	4970.75	5086.25	5035.25	5497.50	5462.00	5190.00	5398.75	5624.25	6143.50	5956.00	5526.00	5290.50	5192.25	5016.00	5019.00	5031.75	5198.75	5251.00	5285.25	5198.00	5070.50	4976.50	4930.25	4905.50	4859.25	4803.75	4810.50	4816.75	4826.00	4830.00	4823.25	4816.00	4824.75	4833.00	4845.50	4856.25	4860.00	4997.75	5180.50	5226.50	5168.75	4942.75	4823.00	4814.25	4832.75	4798.25	4717.25	4723.75	4724.50	4716.50	4706.50	4690.75	4674.75	4666.75	4662.75	4658.50	4656.75	4672.00	4683.00	4697.25	4709.25	4692.75	4655.50	4653.50	4652.75	4645.00	4643.00	4622.75	4627.00	4663.75	4685.75	4713.00	4702.50	4731.75	4775.00	4810.75	4840.50	4880.50	4923.25	4975.50	4995.50	5119.25	5309.00	5380.50	5338.75	5319.50	5054.50	4897.50	4876.25	4894.75	4872.50	4822.75	4741.50	4630.75	4569.75	4536.75	4491.25	4442.25	4396.75	4382.50	4354.50	4359.00	4432.00	4497.00	4735.75	4965.25	5107.25	5027.50	4942.75	4938.75	4786.25	4541.50	4461.75	4684.50	4535.50	4674.25	4546.75	4650.75	4616.25	4416.50	4426.25	4530.25	4596.50	4499.50	4615.75	4791.50	4581.75	4565.75	4477.50	4462.50	4461.25	4692.75	4589.25	4482.25	4465.00	4542.50	4664.00	4713.25	4767.00	4762.75	4719.50	4715.50	4653.25	4654.25	4659.75	4638.50	4712.25	4727.50	4698.00	4582.75	4636.75	4642.25	4704.75	4652.25	4588.75	4507.00	4601.50	4619.00	4460.25	4410.50	4335.75	4311.50	4314.50	4349.00	4359.50	4434.25	4512.50	4389.50
3900.75	3744.75	3801.50	3881.00	4517.25	4793.75	4618.25	4099.75	3922.50	4357.75	4576.50	4627.25	4728.25	5289.75	5937.75	5648.75	5481.00	5130.00	4577.50	4776.00	5147.25	5010.00	4393.75	3903.00	4309.75	4630.00	5201.50	5883.75	6115.00	5885.25	5747.75	5632.25	5447.75	5094.75	4851.25	5198.75	5351.00	5382.75	5299.75	5062.25	4497.25	4183.00	3569.25	3502.75	3937.00	4443.00	4830.75	4533.50	4614.25	5224.00	5242.25	5381.75	5078.50	4523.50	4594.25	4995.75	5320.00	5435.50	5147.25	4839.50	4517.50	4331.00	4513.00	4579.00	4565.75	4695.75	4754.25	4334.50	4281.75	4919.75	5139.75	5121.25	5301.75	5460.75	5235.75	4924.75	4765.00	4662.25	4596.75	4401.25	3999.25	3910.50	4321.00	4433.25	4528.75	4677.00	4831.00	4787.00	5017.75	5464.50	5255.50	5566.75	5851.75	5461.75	5409.00	5481.75	5676.75	5773.50	5499.00	5346.25	5118.50	5288.75	5357.25	5064.00	5198.00	5332.50	5407.50	5316.75	5203.75	5105.50	5082.00	5029.50	4913.75	4857.75	4847.75	4857.00	4859.75	4867.50	4862.25	4842.00	4848.75	4854.00	4865.50	4875.50	4883.00	5010.50	5282.50	5314.50	5196.25	5047.00	4935.25	5019.75	5014.25	4893.50	4765.00	4757.00	4754.75	4746.75	4732.00	4709.00	4690.50	4679.75	4676.25	4678.25	4687.75	4688.00	4707.50	4730.00	4750.50	4737.25	4674.50	4769.25	4758.50	4745.50	4729.75	4753.00	4790.50	4868.75	4903.75	4932.50	4965.25	4997.75	4978.75	5064.75	5021.00	5186.00	5212.25	5281.50	5342.25	5266.25	5191.75	5256.50	5340.50	5230.00	5131.50	5109.25	5050.25	5033.50	5019.75	4921.50	4928.00	4765.25	4757.50	4724.00	4637.25	4579.75	4477.25	4443.25	4411.50	4383.75	4394.75	4449.25	4723.25	4884.25	4941.50	4959.50	4834.00	4846.25	4876.50	4600.50	4532.25	4474.00	4441.50	4495.00	4463.00	4514.00	4494.00	4455.75	4425.25	4493.50	4571.75	4480.75	4670.75	4739.50	4467.75	4537.75	4460.00	4402.00	4429.50	4525.00	4405.75	4388.75	4393.75	4474.50	4574.25	4643.50	4686.00	4731.50	4698.75	4588.75	4537.50	4502.25	4483.25	4493.75	4520.25	4538.00	4520.25	4469.50	4450.50	4450.25	4477.00	4482.75	4517.25	4564.25	4528.25	4473.00	4540.25	4534.75	4470.00	4375.25	4346.00	4339.00	4322.75	4319.25	4334.00	4413.25
4152.25	3877.00	3449.50	3492.50	4227.75	4411.50	4560.25	4109.00	3710.25	3931.75	4039.00	4105.00	4411.25	5138.00	5863.25	5729.00	5337.50	4794.50	4618.50	5376.75	5334.00	4959.25	4617.00	4052.25	4077.00	4669.50	5360.25	6084.00	5954.50	5712.75	5679.75	5727.75	5669.25	5524.50	5430.75	5444.25	5373.25	5281.25	5254.25	5028.75	4606.25	4070.75	3438.50	3620.00	3941.50	4350.50	4824.00	5017.00	4696.00	5074.00	5421.00	5514.00	5154.50	4617.00	4739.75	5190.25	5429.25	5248.75	4820.75	4595.25	4419.25	4313.75	4145.25	4155.50	4154.25	4154.00	4233.25	4108.00	4190.25	4460.75	4584.00	4731.25	5035.75	5187.00	5300.75	5078.50	4746.25	4475.25	4372.75	4597.25	4226.25	3867.00	4361.00	4602.75	4777.50	4815.00	4904.00	5034.00	4974.00	5580.25	5485.25	5379.75	5648.25	5639.75	5432.00	5295.75	5288.75	5660.50	5783.50	5527.25	5405.00	5520.00	5362.00	5138.25	5153.00	5373.75	5506.50	5485.50	5418.50	5287.00	5247.50	5128.00	5011.75	4952.75	4916.75	4914.75	4907.75	4910.25	4910.75	4880.50	4875.75	4877.75	4888.75	4897.50	4907.25	4994.50	5136.75	5361.75	5424.25	5317.50	5131.00	5106.50	5132.75	4933.25	4854.00	4803.00	4786.50	4777.25	4755.25	4724.75	4705.50	4692.00	4694.75	4731.75	4742.75	4733.25	4780.75	4793.00	4801.75	4763.25	4701.25	4776.25	4930.50	4907.00	4893.00	4918.75	4962.75	4989.00	4986.75	5030.00	5138.50	5226.00	5225.25	5289.00	5247.75	5297.25	5476.50	5447.50	5448.25	5432.50	5409.75	5390.75	5402.75	5302.25	5324.00	5294.00	5206.25	5202.00	5191.25	5111.75	5081.00	4919.75	4990.00	4936.75	4880.00	4752.00	4556.00	4639.00	4572.25	4467.00	4365.00	4398.75	4742.50	4903.00	4780.50	4804.00	4669.50	4617.50	4582.50	4418.75	4396.75	4331.75	4323.50	4320.00	4318.00	4318.25	4316.00	4319.50	4318.50	4319.25	4338.25	4401.75	4681.00	4453.25	4355.00	4407.50	4392.25	4354.00	4349.00	4315.75	4343.25	4335.75	4348.00	4468.75	4588.25	4546.50	4555.00	4749.00	4727.00	4639.50	4632.00	4476.50	4406.75	4402.75	4418.75	4407.25	4481.00	4402.00	4382.00	4372.25	4378.00	4419.50	4559.75	4737.00	4577.00	4432.75	4519.00	4496.25	4511.75	4427.75	4432.50	4487.25	4388.00	4302.75	4325.00	4432.75
