409.50	407.00	403.50	407.00	400.25	393.00	396.00	430.75	421.50	414.75	410.75	407.00	402.75	409.25	423.25	415.50	424.50	419.25	428.75	423.50	428.00	429.25	426.75	428.50	423.50	413.00	425.75	433.50	427.75	429.00	431.75	427.25	411.75	408.75	406.25	401.25	407.75	414.50	409.50	404.75	404.50	396.75	398.00	396.75	403.00	394.25	392.25	397.00	402.00	403.25	409.50	408.00	410.25	412.50	413.25	411.75	415.50	418.00	411.50	415.00	418.00	423.50	427.50	426.25	419.50	419.25	415.75	420.00	421.75	423.00	419.50	428.25	423.25	425.75	429.25	426.50	421.75	419.25	420.00	419.50	419.75	422.00	417.50	416.25	419.50	421.75	418.75	414.00	407.50	411.25	406.25	405.25	405.50	400.50	400.75	403.25	403.75	405.00	405.75	409.50	408.50	405.75	403.25	401.25	398.75	397.00	396.00	393.00	389.00	386.00	386.25	389.50	390.00	398.25	393.25	393.50	389.25	384.00	388.75	388.25	390.25	386.25	385.00	390.50	395.25	398.50	389.75	391.00	385.00	384.00	382.25	383.25	386.75	390.50	383.75	382.00	382.75	388.50	386.75	386.75	396.75	404.75	412.50	414.75	412.00	406.75	406.00	399.00	394.25	389.75	390.50	391.75	391.50	395.75	400.75	398.25	399.25	399.75	402.50	405.00	415.75	417.25	404.25	391.00	392.75	394.00	396.50	393.25	392.25	390.25	395.50	399.00	394.25	395.75	399.75	395.00	395.75	398.00	406.75	407.50	399.25	389.00	385.00	380.50	383.50	381.50	381.25	385.75	389.00	384.50	382.00	381.75	377.50	378.00	371.75	374.75	373.75	381.50	378.00	379.25	381.25	381.50	379.75	380.25	371.25	371.75	374.50	378.50	379.50	378.25	374.00	382.00	382.25	386.25	379.25	378.25	379.50	377.25	375.25	378.50	381.75	380.00	379.75	386.00	384.25	378.50	381.50	388.25	388.00	385.25	381.50	373.25	371.25	371.00	371.00	383.50	390.75	375.50	371.50	371.25	372.00	369.50	368.25	367.25	372.50	371.75	376.00	380.50	376.75	375.00	377.25	381.75	376.50	374.00	377.50	373.25
406.75	411.00	410.25	411.50	398.75	392.00	398.75	418.75	410.75	405.25	404.50	403.75	402.00	407.50	419.25	408.75	420.25	418.75	421.50	411.25	418.25	424.75	425.75	430.25	423.75	417.75	430.50	438.00	433.00	427.25	430.25	427.75	408.50	404.00	401.25	401.50	407.75	409.25	409.25	402.75	396.75	395.50	402.25	398.50	402.00	394.75	395.00	398.75	408.25	411.00	414.00	413.00	412.25	412.00	414.50	413.75	421.75	419.75	416.00	413.00	414.00	418.25	426.25	424.50	419.50	421.25	421.25	424.50	430.25	431.75	430.75	430.50	426.25	427.50	423.75	422.00	420.00	419.25	422.25	420.75	421.00	422.00	418.00	419.00	421.25	425.25	422.50	414.75	412.50	413.25	407.50	409.00	409.50	402.50	400.25	403.00	403.25	403.50	402.50	403.75	404.75	400.75	396.50	394.25	388.75	384.50	385.00	386.50	384.00	383.75	382.00	381.75	385.00	389.50	385.50	386.00	384.25	381.50	384.75	384.00	382.00	378.00	377.50	393.50	399.75	392.75	381.25	388.75	391.00	384.50	390.75	388.00	390.50	392.50	387.50	378.25	381.50	396.00	390.75	391.50	395.75	403.50	412.25	413.25	411.75	406.25	402.50	399.50	394.25	393.75	392.75	393.00	390.50	393.75	400.25	397.25	398.50	397.25	399.25	402.00	407.50	406.50	395.50	391.50	389.75	391.25	393.75	390.25	390.00	390.75	397.25	391.25	391.75	390.50	393.75	396.50	395.50	395.50	395.25	397.25	392.00	384.75	378.50	379.75	382.50	381.50	384.50	386.25	384.50	378.50	380.25	379.75	378.50	372.50	373.00	375.50	379.75	379.00	375.75	378.75	373.00	374.25	376.50	382.50	371.50	372.25	375.75	383.75	381.00	374.75	376.25	379.75	382.25	384.25	373.75	377.75	376.75	373.25	373.75	374.00	374.50	381.00	380.25	395.25	382.00	379.75	383.75	386.25	383.50	378.25	381.50	376.50	371.00	371.00	371.00	382.25	397.50	382.00	374.75	367.75	374.25	366.25	364.50	368.25	370.75	372.25	375.25	377.75	378.25	374.00	375.25	381.50	376.25	371.50	374.75	376.00
403.75	406.00	411.00	410.25	398.25	397.50	409.25	413.00	410.50	406.25	405.75	402.00	402.25	413.25	416.75	410.50	422.00	426.00	411.50	418.50	429.25	428.75	429.75	426.00	424.25	422.00	434.25	434.50	430.25	422.25	425.25	420.00	408.00	406.75	408.75	411.75	403.75	404.25	398.75	393.75	397.25	411.00	413.25	401.75	393.00	395.25	400.50	406.75	406.25	413.25	415.75	416.50	413.00	409.75	406.75	407.00	425.25	422.25	413.75	412.25	413.50	411.25	413.50	408.00	407.25	413.25	412.50	418.00	424.50	421.75	427.00	437.25	441.75	431.75	428.00	423.00	421.75	422.25	421.75	423.50	432.75	427.00	422.25	417.50	415.25	417.25	417.00	414.25	412.75	415.25	412.50	413.25	409.50	410.00	409.75	408.25	407.75	405.50	404.25	401.50	401.50	394.00	389.25	385.25	383.25	386.00	382.50	382.50	381.25	380.00	377.00	377.00	377.25	377.75	377.00	380.00	382.50	378.75	381.50	377.25	377.25	378.25	389.50	398.00	387.50	380.75	388.00	386.50	384.00	387.75	396.25	397.75	388.00	392.75	385.00	381.00	390.00	389.00	399.25	397.50	410.00	409.00	407.75	405.25	403.75	400.75	395.00	395.00	395.25	394.00	394.00	397.50	395.00	392.75	401.00	400.25	397.25	391.50	393.50	395.50	399.50	405.00	393.75	387.75	387.00	390.00	387.25	389.50	391.75	392.75	391.75	389.75	387.75	390.00	385.00	386.25	384.00	387.00	383.25	389.00	389.50	382.25	379.00	379.00	381.00	380.00	384.75	382.25	381.25	384.75	378.75	374.25	372.75	373.25	372.50	377.50	380.00	378.50	374.75	373.00	373.75	371.00	374.75	372.00	374.00	379.00	381.50	380.00	373.00	371.25	371.25	375.50	381.75	379.25	371.50	372.25	371.00	371.00	371.00	371.75	372.00	372.00	387.50	381.50	381.00	384.50	383.75	381.25	379.75	381.25	387.75	387.00	371.25	371.00	371.00	387.75	396.25	382.50	375.75	372.50	365.75	364.00	364.75	369.50	370.25	371.75	371.75	373.25	372.75	374.75	373.75	374.50	372.25	372.50	372.50	375.50
403.50	397.50	412.00	405.50	398.50	400.50	412.00	415.50	405.00	403.50	406.50	402.00	405.00	414.50	415.50	417.00	421.00	417.50	413.00	422.50	418.00	425.00	425.50	422.50	418.00	427.50	426.00	421.00	425.00	422.50	421.00	415.50	414.50	411.00	412.50	415.50	406.00	404.50	395.50	393.00	402.50	412.50	402.50	396.50	400.00	410.00	410.50	404.50	410.50	413.50	410.00	404.50	406.00	400.00	400.00	405.00	420.00	419.00	409.50	417.00	415.50	409.00	416.50	412.50	412.50	418.50	419.50	416.00	418.00	423.00	422.00	429.50	426.00	422.00	420.00	428.50	428.00	430.50	430.00	427.00	428.50	431.00	429.50	420.00	418.00	416.50	415.50	412.50	404.50	405.50	413.50	414.00	416.00	410.50	416.00	414.50	413.50	410.00	411.50	400.00	394.00	387.00	381.50	378.50	393.00	393.00	392.00	391.50	391.50	386.00	379.00	377.50	378.00	379.00	377.00	377.50	378.00	377.00	379.50	384.50	381.50	380.00	389.00	384.50	381.50	378.50	380.50	384.00	382.50	383.00	391.50	388.50	391.50	401.50	401.50	395.50	393.00	395.00	394.00	401.00	406.00	413.00	410.50	403.00	401.50	398.00	395.50	402.00	396.00	392.50	396.50	400.50	393.50	393.00	395.50	398.00	399.00	388.00	388.00	389.50	390.50	396.00	390.00	394.00	387.50	386.50	388.50	395.50	389.50	388.50	391.50	390.50	393.00	384.00	380.00	388.00	383.50	384.00	377.50	384.50	383.50	379.00	377.50	382.50	380.50	383.00	382.50	387.00	387.00	388.50	377.00	371.00	373.00	371.00	372.00	380.50	380.50	380.00	374.50	385.50	377.00	371.50	371.50	372.50	384.00	389.00	389.00	376.50	372.00	371.50	371.00	371.00	371.00	371.00	371.00	371.00	375.00	372.50	377.00	384.00	378.00	375.00	391.00	386.00	384.00	383.00	384.50	383.00	381.00	385.00	382.00	372.50	371.00	371.00	371.50	387.50	393.00	399.00	375.00	374.00	368.00	364.00	365.00	369.00	366.50	367.50	368.00	367.00	364.50	366.00	372.50	371.50	377.00	374.00	374.00	373.00
407.25	408.25	413.00	411.00	414.25	410.00	417.25	413.00	407.75	407.25	406.00	405.25	408.00	415.00	415.50	409.50	419.25	413.25	410.75	411.75	424.75	424.25	424.25	417.50	411.50	416.50	409.50	405.75	407.50	405.75	403.50	405.75	413.25	420.50	415.25	412.25	401.00	405.00	412.50	412.50	411.50	410.50	404.25	399.75	405.50	415.00	417.00	409.00	414.00	414.50	406.25	404.00	402.50	405.00	409.50	414.75	421.50	410.25	407.25	411.75	411.75	415.75	411.00	409.00	413.00	415.25	415.25	415.50	416.25	417.50	418.75	421.50	420.75	421.25	423.50	426.00	426.75	428.75	428.25	429.00	429.25	429.50	423.00	419.75	419.25	416.75	411.50	409.75	409.50	411.25	411.00	406.25	412.00	407.25	408.75	408.25	406.75	407.00	403.25	400.25	394.75	388.50	391.50	389.50	394.00	396.50	401.50	401.25	393.50	384.00	379.25	377.25	380.00	380.75	377.25	377.50	381.75	383.00	385.50	384.50	381.25	381.00	379.75	379.25	381.25	377.00	381.25	394.00	399.75	394.50	400.25	393.25	394.25	400.75	403.75	397.50	390.00	395.50	396.25	401.75	403.00	404.75	402.25	399.00	399.00	393.00	400.25	399.50	396.50	393.00	393.75	395.50	387.50	388.50	388.25	386.25	384.75	385.75	386.25	385.50	387.50	389.00	387.50	390.75	384.00	384.25	394.75	389.00	391.00	387.25	389.00	385.50	398.50	381.00	386.50	386.25	385.25	380.00	378.50	385.75	385.50	380.50	379.75	381.75	380.75	384.00	387.25	386.00	387.50	383.50	375.75	371.00	372.50	371.00	374.00	377.00	377.75	381.25	385.25	379.00	375.75	372.25	371.75	377.00	390.50	390.00	380.50	371.25	371.00	371.25	371.00	371.00	371.00	373.00	380.25	386.50	378.75	375.25	383.75	385.75	380.00	384.75	381.50	382.25	385.75	386.25	389.00	388.50	392.75	396.50	390.50	375.25	371.00	371.00	371.75	386.25	395.25	400.50	377.50	376.50	367.75	364.00	364.00	364.25	364.75	365.50	364.50	364.00	364.00	366.25	375.75	378.25	375.25	371.25	365.75	369.00
403.50	398.00	404.25	414.00	413.75	406.00	409.25	416.00	408.50	409.50	408.00	406.25	408.50	417.00	415.75	410.50	408.00	403.25	405.50	409.50	412.25	411.00	413.75	419.50	416.00	411.25	403.50	403.00	403.00	403.00	403.00	403.00	405.00	422.00	417.75	409.50	418.50	416.75	415.75	420.00	414.75	408.75	417.25	420.00	422.50	422.75	417.75	409.00	409.25	408.75	414.00	415.75	418.00	416.00	411.00	414.25	416.00	411.25	409.50	415.25	415.25	408.75	410.50	415.25	414.00	411.75	414.75	412.50	408.00	414.00	416.00	416.00	424.75	429.50	426.00	424.75	427.25	427.25	421.75	423.25	420.00	428.50	426.75	422.00	418.50	408.00	404.50	408.50	413.75	419.00	410.00	404.00	407.75	411.50	409.00	412.00	405.25	412.75	409.25	397.00	393.00	398.75	402.75	404.75	404.75	402.75	399.75	399.00	391.25	383.25	382.25	388.25	393.50	395.50	388.00	389.25	392.00	384.25	382.50	377.25	377.25	377.50	381.50	377.25	377.25	382.00	387.50	397.25	396.75	398.00	395.25	394.75	392.50	394.25	394.75	392.00	390.00	395.25	401.00	400.25	392.50	394.75	396.75	399.00	397.00	390.00	403.25	400.50	400.00	397.50	394.25	389.75	385.75	382.25	384.25	381.00	386.00	385.25	387.25	388.75	390.00	393.25	394.50	390.75	391.00	389.00	389.00	393.25	392.00	389.00	386.75	386.25	386.00	387.75	384.25	380.25	381.25	379.50	379.25	381.00	376.50	378.75	380.00	379.50	382.00	389.25	384.25	384.75	385.25	378.50	377.25	384.75	377.00	371.00	373.75	379.00	376.50	378.00	372.00	371.50	371.00	371.50	374.00	374.25	381.25	381.00	373.00	371.00	371.00	371.75	377.50	374.50	372.75	375.50	388.50	377.50	372.75	375.50	381.00	381.00	382.00	376.25	382.50	385.75	384.50	383.50	384.50	385.75	386.25	386.25	374.50	372.50	371.00	371.00	371.00	380.50	390.00	394.00	384.75	376.50	364.50	364.25	364.75	364.00	365.00	366.25	370.50	367.75	364.50	364.50	366.75	372.00	368.25	371.00	368.00	364.25
397.50	398.00	407.25	410.25	409.25	402.00	405.00	411.75	412.75	407.25	407.50	406.00	408.50	420.75	414.25	406.75	404.75	404.00	404.50	404.25	408.50	406.00	412.75	422.25	416.50	410.75	404.25	407.50	405.75	403.00	403.00	404.00	408.50	414.00	419.50	417.75	418.00	415.00	419.00	417.50	406.25	410.75	417.25	419.75	415.50	412.75	409.50	408.50	406.25	408.00	419.25	427.00	427.50	422.25	421.50	418.25	419.25	422.00	421.00	423.25	415.50	407.50	410.50	413.75	416.00	415.00	411.75	412.25	407.50	415.00	417.75	420.75	427.00	430.00	428.00	428.75	431.50	429.50	422.50	420.50	422.00	425.00	417.75	412.00	413.00	404.75	406.25	410.25	418.00	414.00	405.75	400.50	403.50	409.50	408.75	409.75	407.00	414.50	411.75	402.00	399.50	401.25	407.00	410.75	408.75	405.75	400.00	402.50	399.25	388.75	388.50	395.25	391.25	393.75	384.50	383.75	384.00	380.50	377.50	377.00	379.50	377.25	382.25	377.25	381.25	386.75	389.75	396.25	390.50	395.00	395.75	399.50	398.75	393.75	390.00	386.50	387.00	395.00	396.25	397.75	392.00	400.00	400.25	399.00	394.75	396.50	402.50	400.25	400.50	400.25	397.75	391.00	389.00	386.00	386.00	383.00	382.75	387.25	388.75	389.25	391.00	391.25	392.75	390.50	391.50	390.00	391.25	391.00	394.00	394.25	387.25	383.75	383.00	385.25	382.75	380.75	380.75	383.00	381.25	380.00	373.75	379.50	379.50	379.00	381.75	385.00	383.50	386.75	384.00	380.00	377.00	380.50	372.00	371.25	373.75	375.00	374.25	374.50	373.25	371.00	371.00	371.25	372.25	372.75	375.75	375.25	371.50	373.00	374.50	372.25	376.50	374.75	374.50	381.25	378.50	373.00	371.00	373.25	377.25	384.50	380.25	377.50	380.75	382.50	383.00	385.50	390.25	389.25	386.50	380.75	371.00	371.00	371.75	376.75	374.50	381.25	384.75	385.50	378.25	374.75	375.00	372.50	368.75	364.25	366.50	368.50	369.25	368.75	367.25	366.50	366.50	366.75	368.50	371.25	371.50	369.50
400.75	406.75	406.25	406.00	403.75	407.50	403.75	413.50	417.50	403.75	404.25	406.00	411.25	425.50	413.25	405.25	403.75	406.00	405.25	403.00	408.50	407.50	420.00	422.25	415.25	412.25	404.50	408.25	406.00	403.00	403.00	405.25	411.00	409.25	419.25	424.75	411.50	421.25	420.50	414.75	395.25	412.00	413.25	410.00	407.50	403.50	411.25	406.25	407.50	408.50	421.50	430.75	430.50	422.50	429.50	419.25	423.00	430.25	429.25	425.00	415.00	408.25	409.75	413.50	415.75	417.50	411.00	413.50	407.50	416.25	422.00	429.75	429.75	431.00	431.75	433.25	436.00	428.50	421.00	414.50	417.25	412.50	415.75	402.00	407.25	405.50	410.25	412.25	414.00	409.75	403.75	398.25	399.00	407.25	408.50	410.50	408.00	409.25	408.75	403.25	402.50	402.75	407.50	408.75	408.50	404.75	400.00	398.25	395.50	384.25	389.00	393.75	386.25	384.75	383.50	378.50	377.00	377.00	377.00	377.25	381.25	379.25	382.75	378.75	384.00	388.50	392.25	395.50	388.75	393.75	400.25	407.00	406.25	395.50	387.75	382.50	386.00	394.00	392.00	398.25	395.75	407.00	406.25	401.00	398.00	403.00	398.50	398.25	397.25	398.25	396.75	390.25	390.75	389.50	383.25	380.50	377.00	387.75	387.25	388.75	393.50	389.75	390.50	388.75	390.00	391.25	389.00	391.50	398.25	394.75	385.25	382.75	383.00	382.00	381.75	381.75	382.00	384.25	382.50	379.25	372.75	378.75	379.25	379.75	380.25	381.00	384.75	386.75	383.75	380.75	375.00	371.50	371.00	371.25	376.75	372.75	371.25	371.50	375.50	371.50	371.75	372.00	371.00	371.25	371.00	371.25	371.75	380.50	375.25	371.50	371.00	372.75	374.25	376.75	371.00	371.00	373.50	374.50	377.00	385.00	379.50	379.50	379.25	382.25	386.25	390.75	398.50	397.75	392.75	376.00	371.00	371.00	371.75	380.75	384.25	377.75	375.25	375.00	371.25	370.00	386.00	379.25	374.25	366.75	372.75	379.75	375.75	377.50	371.75	372.50	376.75	370.00	371.50	371.75	375.25	376.50
399.25	401.25	397.75	398.00	406.00	415.75	408.25	412.00	412.50	408.50	407.00	407.00	412.50	410.25	409.25	408.00	404.25	405.25	403.00	403.00	410.75	423.25	423.75	419.50	415.75	415.00	416.25	409.75	408.25	403.25	409.00	412.50	410.25	414.00	416.50	422.75	407.50	410.00	414.25	409.00	396.00	410.25	412.50	404.75	417.75	416.50	415.50	413.50	416.50	414.25	423.50	425.50	419.25	419.75	420.75	427.00	426.25	437.25	431.25	424.50	413.50	415.75	411.75	416.50	412.75	420.75	423.50	417.00	415.50	418.75	429.50	435.00	427.25	429.50	432.00	434.25	428.25	424.25	406.75	403.50	415.50	410.75	407.25	399.75	397.25	401.75	403.50	408.50	411.50	408.75	404.25	400.00	407.00	418.00	408.50	410.00	406.00	404.75	403.25	408.50	411.00	403.75	404.75	401.25	398.50	393.25	391.75	390.50	389.25	381.50	386.75	395.75	386.25	387.00	384.00	382.25	378.75	377.50	378.75	381.50	377.00	379.75	379.75	378.25	384.50	386.00	392.00	390.75	400.25	402.50	405.75	406.50	403.00	397.00	396.50	385.50	386.25	387.75	392.75	398.50	402.00	404.50	399.75	401.00	403.00	400.00	394.75	397.75	393.75	390.00	390.75	386.00	386.50	384.50	382.50	381.00	381.00	385.75	387.50	390.25	390.25	389.00	389.50	390.00	390.00	389.50	386.25	398.25	391.25	384.75	385.00	385.25	382.75	380.00	379.00	381.50	382.50	381.00	379.00	381.50	375.75	379.50	380.75	382.75	379.75	388.50	387.50	380.25	375.00	372.00	373.50	371.00	371.00	376.75	376.00	371.00	374.75	377.00	371.50	371.25	371.00	371.00	371.00	371.00	377.00	377.00	375.00	373.00	371.00	371.25	371.00	372.75	371.25	373.75	371.50	374.50	371.75	376.00	382.25	377.50	379.00	377.75	384.50	384.50	390.75	393.00	397.75	395.50	377.25	371.50	371.00	371.50	373.25	380.00	388.25	383.00	388.50	383.25	372.50	381.50	373.50	372.75	370.25	373.00	379.25	382.00	385.75	387.25	373.00	378.25	381.25	381.00	380.25	382.00	387.00	384.50
400.00	394.75	392.00	397.75	408.00	416.50	415.00	420.50	411.75	404.25	404.00	404.25	412.25	411.50	408.75	409.50	405.00	405.00	403.00	405.75	414.75	417.50	412.50	408.75	403.25	413.25	412.25	415.00	420.25	411.50	414.25	417.25	415.00	418.50	410.00	412.00	404.50	407.50	401.75	395.75	411.25	414.00	425.00	427.75	424.50	430.50	430.00	417.50	421.00	418.00	421.50	420.25	420.50	422.75	427.50	428.50	432.75	422.50	430.50	422.25	409.00	412.25	408.00	410.25	416.00	416.25	419.25	428.00	438.00	431.25	415.25	416.00	413.75	415.50	413.50	416.75	413.00	403.00	411.00	401.75	403.00	414.25	405.25	399.50	407.00	400.00	403.50	407.50	413.00	414.00	409.25	408.25	405.25	413.50	414.50	405.75	399.00	407.00	396.00	402.25	406.00	396.75	407.25	399.50	403.50	400.75	397.75	391.50	392.50	385.25	392.50	402.50	386.50	378.00	382.50	380.00	388.00	394.25	393.75	386.50	377.00	377.50	383.00	383.25	381.75	383.50	389.00	396.75	406.00	400.50	397.25	396.50	394.25	398.25	394.50	391.75	386.00	385.50	386.25	391.75	394.25	399.75	396.75	402.00	400.25	392.00	390.25	388.25	390.25	386.75	386.50	386.50	383.50	384.00	384.50	383.25	384.00	389.00	386.75	385.50	386.50	387.75	388.75	389.00	387.25	387.25	403.00	393.00	385.00	384.50	385.25	384.75	380.75	379.50	378.25	380.75	379.50	382.75	388.00	388.50	375.50	374.25	375.00	371.25	373.50	380.50	377.00	376.50	371.00	371.00	371.00	371.00	371.50	372.25	371.00	373.00	376.25	374.25	372.00	371.00	371.00	371.00	371.00	371.50	371.25	371.00	371.25	371.50	371.25	371.50	374.75	372.00	371.00	371.00	371.00	371.00	373.25	374.75	376.00	377.75	379.75	382.00	378.75	386.75	399.00	403.25	409.00	403.25	377.50	372.50	372.50	383.75	381.25	387.25	394.25	391.25	404.75	386.50	385.25	383.50	371.25	366.25	370.50	376.50	377.75	378.50	379.50	380.75	385.50	387.00	384.75	399.50	392.25	390.00	390.75	386.75
406.75	406.75	400.25	402.00	409.75	411.00	411.00	423.00	411.00	408.00	404.75	408.25	413.25	416.25	416.50	411.50	408.25	405.25	403.25	410.00	416.25	413.75	412.50	406.75	405.75	408.25	410.25	413.25	418.75	414.25	414.75	417.50	416.00	422.25	411.75	408.75	407.25	401.25	399.00	397.25	413.75	418.00	421.50	431.50	428.50	426.75	428.50	420.75	422.00	422.00	424.00	427.00	427.25	427.75	429.75	428.50	427.00	415.50	414.00	408.50	407.75	408.00	406.25	407.00	416.75	418.75	424.25	425.25	423.00	416.50	408.25	406.25	407.00	416.00	415.00	414.25	406.75	403.25	403.75	401.50	400.00	403.75	399.50	399.00	400.75	397.25	401.00	408.00	414.50	411.50	404.25	414.25	408.75	410.25	407.00	406.50	395.00	403.25	396.00	398.50	403.50	390.50	398.25	403.50	397.00	390.25	392.50	391.75	388.00	388.00	387.00	396.75	386.75	377.75	386.25	391.00	399.75	407.75	397.50	382.00	378.00	378.00	382.50	383.25	382.00	386.25	390.00	398.25	400.25	395.50	394.75	394.00	396.75	400.50	396.75	392.25	390.25	384.25	384.75	383.25	390.25	395.75	393.75	394.75	390.50	388.50	389.75	394.00	390.00	383.75	382.75	383.25	384.25	382.75	385.75	383.00	385.75	387.75	386.00	385.00	386.50	388.75	390.00	388.50	385.25	384.00	402.50	389.50	385.75	385.50	385.00	382.50	379.25	378.25	379.75	383.50	382.00	383.25	385.25	383.25	379.50	379.00	375.25	371.00	371.00	374.50	372.25	372.50	371.00	371.25	372.25	374.00	377.25	374.00	374.25	371.75	373.00	375.25	372.00	371.00	371.00	371.00	371.00	371.00	371.00	371.00	371.00	371.25	371.50	371.50	372.50	374.75	371.00	376.25	371.25	371.00	373.25	372.75	377.00	380.00	379.50	378.75	375.25	380.00	392.75	396.00	391.00	384.25	372.25	384.25	384.25	378.50	380.75	389.75	389.50	390.25	393.25	388.75	391.00	382.50	374.25	369.75	374.00	381.75	384.00	381.50	382.00	391.50	397.50	394.75	387.75	394.25	388.00	387.25	391.25	390.00
412.00	421.25	408.50	406.50	409.50	417.00	417.25	415.25	405.75	408.50	405.75	410.75	416.25	418.25	418.00	410.50	413.25	405.75	405.50	411.00	415.00	409.75	412.75	411.00	408.25	404.75	411.25	412.75	414.75	417.00	419.50	420.25	422.50	422.75	413.25	408.00	407.75	397.75	397.75	409.50	413.75	419.75	420.75	431.25	435.25	416.00	426.75	429.00	426.50	423.50	430.00	435.25	434.00	428.00	424.50	421.00	421.00	411.50	406.00	407.50	408.25	406.50	406.25	406.25	414.25	418.75	421.25	414.75	404.25	401.00	402.50	403.50	407.00	416.25	420.50	415.50	404.25	402.75	399.25	399.25	400.25	401.25	399.75	398.00	396.00	396.50	406.25	415.50	419.25	416.25	406.00	415.75	424.00	409.50	400.25	399.75	396.00	404.25	400.25	401.25	404.75	382.50	389.50	402.50	393.00	387.25	390.75	393.50	395.50	389.25	387.50	389.50	386.25	378.00	386.50	398.25	407.50	415.75	396.25	382.00	383.00	382.50	383.00	380.50	381.50	386.50	388.75	392.25	392.50	390.00	390.75	389.50	398.75	401.75	398.00	397.75	391.75	380.75	380.25	383.00	387.25	391.25	389.00	390.75	394.00	399.50	392.25	395.75	386.75	379.75	380.50	383.25	385.50	383.50	384.75	383.75	386.00	384.75	384.25	383.75	387.00	389.25	389.75	387.25	383.75	381.00	402.75	387.75	386.25	387.50	383.75	379.75	377.50	379.75	381.50	381.50	381.75	382.75	381.50	381.50	385.50	383.25	374.25	371.00	371.00	371.00	371.00	371.00	371.00	371.75	374.75	377.00	382.50	378.50	377.00	372.25	371.25	374.50	371.00	371.00	371.00	371.00	371.00	371.00	371.00	371.00	371.00	371.00	372.00	371.00	375.75	376.25	371.00	379.50	371.75	371.00	372.00	371.50	375.75	376.25	376.25	376.50	372.25	371.00	378.75	377.00	371.75	371.00	375.50	390.50	383.25	377.50	395.25	394.00	388.00	384.50	384.50	390.50	392.00	381.00	374.25	372.75	380.25	392.25	388.00	383.75	388.25	397.50	399.75	389.00	384.50	385.75	385.50	383.25	390.25	388.75
425.25	428.50	414.50	416.25	421.50	420.50	411.00	402.00	407.75	405.25	413.75	414.75	413.75	413.25	413.50	410.00	409.00	413.00	407.75	415.75	411.25	406.50	403.25	409.75	400.25	407.25	417.50	426.50	432.50	427.75	430.75	427.25	423.25	422.75	416.00	412.00	401.75	403.50	403.75	408.75	420.75	430.00	428.25	424.00	424.75	425.25	435.00	430.75	422.25	418.25	413.75	417.75	419.50	411.50	406.00	409.00	426.25	431.00	413.25	407.50	406.00	406.50	406.00	407.00	410.75	414.25	414.50	414.25	412.00	413.00	414.00	417.75	421.00	419.50	412.00	411.75	412.50	407.25	404.50	417.00	405.75	405.25	406.00	406.50	404.75	411.50	414.75	415.75	419.00	424.50	420.75	413.75	418.75	413.25	409.50	406.25	413.50	402.25	395.75	396.00	404.50	401.75	396.50	402.50	404.25	410.75	400.00	394.75	389.50	384.75	388.50	388.25	377.75	386.50	395.50	400.00	402.75	390.50	389.00	387.00	389.50	383.75	387.75	381.75	384.50	384.50	384.00	382.00	379.75	382.25	386.25	389.50	388.25	393.75	398.00	394.25	381.50	384.25	382.75	386.50	382.75	383.75	387.00	393.75	410.75	406.25	386.25	384.00	382.50	384.50	383.25	385.75	384.50	384.75	382.00	381.50	381.75	381.75	384.75	384.25	386.00	387.75	388.25	387.00	384.50	387.75	396.75	385.75	387.00	384.50	379.00	377.75	380.50	386.75	384.00	375.75	376.00	383.25	382.25	383.75	381.75	376.75	372.25	371.25	371.00	371.00	371.00	371.25	371.25	372.25	373.50	375.25	372.50	383.25	379.75	377.00	372.00	371.25	371.00	371.00	371.00	371.00	371.00	371.00	371.00	371.00	373.00	381.50	379.75	383.75	382.75	372.75	378.50	375.50	372.50	375.00	375.25	374.50	371.00	371.00	377.75	372.75	371.00	371.00	371.00	372.00	371.00	374.00	372.25	377.25	383.00	400.25	407.75	392.25	386.50	382.75	383.25	381.75	378.25	375.50	376.75	378.50	388.75	386.25	389.50	389.00	389.00	388.25	382.75	378.75	379.25	378.75	379.50	385.00	378.50	379.50
421.00	413.50	413.00	422.00	426.00	412.00	402.50	402.00	405.00	413.50	416.00	420.00	419.00	419.50	411.00	417.50	417.00	419.00	410.00	411.50	408.00	408.50	404.50	409.00	402.00	403.00	413.50	425.00	442.50	439.00	433.50	421.50	415.00	412.50	417.00	413.50	406.50	420.00	408.00	410.50	421.00	424.50	424.00	438.00	444.50	443.50	434.50	429.00	419.50	413.50	414.50	415.00	427.50	415.50	410.50	414.50	427.50	420.50	408.00	406.00	406.00	406.00	412.00	417.00	411.50	415.00	420.00	421.00	420.00	419.50	421.00	424.00	419.50	423.50	417.00	414.50	409.50	410.00	412.00	412.50	408.50	417.50	418.50	415.50	420.50	419.50	426.50	422.50	423.00	420.50	420.50	419.00	411.00	411.50	408.50	418.00	424.50	402.00	394.50	405.50	418.50	416.50	414.00	403.00	405.00	401.50	396.50	398.50	392.50	381.50	389.50	384.50	388.50	396.00	397.50	392.00	386.00	392.00	393.50	391.00	391.50	384.50	388.00	386.50	383.50	376.50	379.00	377.00	374.50	379.00	396.00	393.00	393.00	390.00	387.50	387.00	383.50	379.00	381.00	377.50	374.50	381.00	384.50	387.00	397.00	393.00	390.00	386.00	384.50	384.00	379.00	382.00	381.50	382.00	379.50	389.50	386.50	386.00	386.00	386.00	384.00	387.50	388.00	387.00	386.50	402.00	388.00	382.50	386.50	387.00	381.50	382.50	380.00	383.00	391.00	377.50	372.50	389.50	380.00	379.00	377.00	375.50	371.00	371.00	371.00	371.00	371.00	372.00	374.00	371.00	371.00	371.00	371.50	373.50	374.00	372.50	371.00	371.00	371.00	371.00	371.00	371.00	371.00	371.50	371.00	371.00	380.00	378.00	379.50	381.00	372.00	386.50	378.00	380.50	381.50	380.50	380.50	385.50	371.00	377.50	375.50	371.00	371.00	371.00	371.00	374.50	384.50	385.00	379.00	381.50	385.50	394.50	389.00	384.50	376.00	386.00	381.00	378.50	377.00	377.50	383.50	386.50	383.00	394.50	390.50	379.00	379.50	385.00	377.50	375.50	375.00	378.00	379.50	382.00	389.00	388.00
413.50	413.50	422.75	427.00	416.25	402.75	407.50	403.00	412.25	408.00	409.75	419.75	418.00	414.50	410.50	416.25	418.00	419.75	411.75	413.75	410.75	407.75	400.75	400.00	397.75	402.25	410.00	428.25	436.25	435.75	430.25	420.50	410.25	412.50	415.75	405.75	402.00	411.00	413.00	424.25	422.50	427.75	431.25	442.50	449.25	440.75	431.25	420.25	409.75	414.00	422.00	422.00	421.75	418.25	409.25	411.25	417.25	412.75	408.25	407.50	412.00	412.50	417.25	416.25	416.25	415.75	423.25	427.25	422.50	420.25	419.00	420.25	415.75	407.50	409.75	412.00	412.75	415.00	418.00	422.00	423.00	425.50	415.75	421.50	423.75	427.25	427.00	426.25	426.75	430.50	420.00	413.00	413.50	424.00	429.50	424.75	410.25	401.25	395.25	420.75	433.50	416.00	410.50	405.25	404.25	392.75	393.50	392.75	385.75	386.50	380.00	380.00	396.00	402.00	396.25	389.25	391.75	388.75	390.75	388.50	387.00	385.75	389.00	388.00	387.00	378.00	379.00	379.75	376.50	383.00	388.00	384.00	380.00	379.25	376.25	380.75	382.25	376.25	375.25	374.25	374.75	373.00	377.50	383.50	390.00	383.00	377.25	377.75	379.00	377.25	380.25	386.00	379.75	382.50	383.25	391.00	392.75	388.25	385.50	384.25	382.75	384.25	382.50	384.00	387.75	390.25	382.00	382.00	380.75	380.25	380.50	388.75	380.75	376.00	377.00	372.50	372.25	377.00	376.75	375.00	372.25	372.25	371.00	371.00	371.00	371.00	371.00	374.75	375.50	376.50	374.50	371.25	371.00	371.75	373.00	371.00	371.00	371.00	371.00	371.00	371.00	371.00	371.00	372.00	377.50	379.75	384.25	382.75	380.00	374.25	375.25	396.25	380.75	382.50	387.25	388.25	387.50	374.25	371.00	373.25	371.25	371.00	371.00	371.75	375.00	373.50	380.50	372.75	371.50	377.75	380.25	379.00	379.25	377.00	380.75	385.50	382.50	378.00	379.75	382.00	382.75	381.75	382.25	389.50	382.25	378.50	382.25	380.00	376.25	381.75	384.25	387.25	387.00	391.00	397.50	395.25
418.00	425.50	429.00	419.50	413.75	409.50	413.00	405.25	412.25	412.00	410.00	416.75	415.00	410.00	409.00	418.25	419.00	419.00	407.00	410.75	412.50	402.50	398.25	398.75	401.00	406.25	412.00	423.50	433.50	426.25	422.50	414.00	406.75	409.50	409.75	405.00	404.75	411.75	415.50	424.50	423.50	425.00	437.00	445.25	450.75	435.75	430.00	411.00	408.50	416.25	428.25	418.50	413.00	411.25	408.75	415.25	415.00	414.25	412.75	415.25	419.00	421.00	421.50	418.25	419.75	417.50	427.25	429.25	423.25	419.75	419.00	418.50	416.50	405.50	411.25	415.75	414.75	412.75	421.75	426.00	428.00	423.00	414.75	422.25	428.00	435.25	429.00	431.00	425.75	428.00	413.25	413.50	413.25	423.75	437.75	429.50	408.25	402.25	400.50	427.00	422.25	416.25	412.00	403.50	398.75	389.50	388.50	386.00	385.75	387.00	377.75	378.75	396.50	402.00	397.00	390.75	390.25	385.50	385.50	384.50	383.00	388.75	386.25	386.00	383.00	381.75	378.00	383.75	382.00	388.00	386.00	380.25	376.75	376.75	375.00	374.50	378.00	380.50	383.75	374.00	377.50	373.25	375.75	378.00	386.25	378.00	376.75	374.50	375.75	378.50	382.00	387.50	380.25	382.50	386.25	388.75	392.75	387.75	383.25	381.50	381.50	382.00	381.00	382.50	386.75	385.75	381.75	380.75	380.25	380.25	385.00	388.75	377.50	371.75	372.25	371.00	371.50	375.25	375.25	372.25	371.00	372.25	371.00	371.00	371.00	371.00	372.50	378.00	378.75	380.25	377.00	371.50	371.00	371.50	377.00	371.00	371.00	371.00	371.00	372.25	371.25	371.00	371.00	374.50	383.00	386.75	387.25	389.25	382.50	375.00	383.50	393.00	386.75	383.00	384.50	388.25	384.25	374.00	371.00	371.00	371.25	371.00	371.00	373.25	375.00	379.25	383.00	373.00	373.50	386.50	378.50	378.75	376.75	378.00	383.50	383.50	381.50	378.25	382.25	380.50	378.75	377.75	383.75	382.00	381.25	379.50	380.75	377.25	377.50	385.75	385.75	385.25	388.75	395.75	398.25	392.50
429.50	420.25	416.50	419.25	421.25	410.50	408.75	407.50	418.25	415.50	407.00	416.25	409.50	409.50	413.25	420.25	422.75	415.75	404.00	407.25	406.25	398.75	399.75	403.50	403.00	410.75	413.75	422.00	413.00	412.00	412.00	405.50	399.50	402.50	400.50	406.50	415.75	419.00	421.75	425.25	422.50	426.50	435.25	434.00	436.50	423.00	421.25	410.00	416.25	411.00	417.75	416.25	417.25	414.00	417.00	417.25	421.00	422.25	427.50	423.50	421.75	429.00	431.00	428.75	428.75	426.25	429.00	420.75	420.25	417.00	414.50	413.50	411.75	411.00	419.50	427.75	420.25	411.50	425.00	434.00	438.00	421.25	419.50	437.50	440.00	444.00	429.25	434.00	428.00	425.00	423.50	414.00	414.50	429.25	439.25	426.00	418.00	413.50	412.75	425.75	423.50	422.50	413.25	400.25	397.00	388.00	381.75	378.75	381.50	380.75	382.25	386.00	383.50	385.00	387.75	387.25	382.50	381.00	381.25	377.25	377.00	386.00	385.00	383.00	377.00	379.25	384.25	386.75	395.75	388.00	393.25	381.25	377.75	388.25	383.50	381.00	382.25	382.75	378.50	375.25	376.00	373.75	372.50	372.00	372.00	372.00	373.75	372.25	374.50	376.25	379.00	377.25	379.25	385.25	387.50	385.75	387.00	383.75	381.25	382.00	381.25	380.50	380.25	382.00	380.25	381.25	379.75	378.75	385.00	387.75	392.25	379.00	371.25	371.00	371.25	372.00	373.75	372.50	371.50	371.00	371.00	371.00	371.00	371.00	371.00	371.00	375.50	380.00	375.00	375.50	373.00	371.00	371.00	388.00	389.75	371.00	371.25	373.00	371.00	371.00	371.00	371.00	372.50	382.75	393.00	389.75	390.00	388.75	384.00	386.25	386.25	398.25	398.25	380.50	385.75	387.50	380.50	374.00	371.25	375.75	392.50	382.50	372.25	371.50	375.75	382.25	380.00	384.75	386.25	383.00	378.25	377.00	380.50	384.00	385.50	389.50	391.75	385.00	381.75	381.00	376.25	378.50	379.50	385.00	385.75	382.00	377.00	378.75	382.00	385.25	387.00	387.00	391.25	392.50	397.25	392.00
415.50	410.00	419.50	429.50	422.00	412.00	416.50	418.50	414.50	420.50	420.00	419.00	408.50	410.50	419.50	424.00	426.50	415.00	401.50	406.00	401.50	406.00	409.50	408.00	405.00	418.50	419.00	416.50	410.50	410.50	406.50	401.50	397.00	402.00	409.00	415.00	430.00	428.00	431.50	433.00	418.50	413.50	422.00	427.00	432.50	425.00	421.00	427.50	424.50	412.00	409.50	414.00	420.00	416.50	423.50	424.50	426.50	426.00	429.50	423.00	429.50	440.00	437.00	434.50	433.50	423.50	420.00	419.00	418.00	416.00	417.00	425.00	413.00	421.00	428.50	432.50	424.50	414.00	440.50	447.50	440.00	426.00	429.00	442.00	434.00	425.00	430.50	437.50	432.00	429.50	435.00	423.50	423.00	429.50	431.50	425.00	423.00	417.00	412.00	419.00	421.00	416.50	403.00	404.00	396.00	384.00	383.50	385.00	384.00	381.00	390.50	384.00	401.00	395.50	383.50	381.00	379.00	378.00	382.00	378.00	375.00	384.50	384.50	381.00	380.00	386.50	384.50	395.00	401.00	393.00	389.00	376.50	381.00	384.00	386.00	384.50	385.50	385.50	373.00	387.50	389.50	381.00	380.00	373.00	375.50	377.50	373.50	374.50	377.00	373.50	377.50	380.50	382.50	380.50	385.00	384.00	384.00	384.00	383.50	384.50	384.50	380.00	378.00	378.00	377.50	381.50	382.00	381.50	387.50	383.50	389.00	375.00	371.00	371.00	371.00	371.00	371.00	371.00	371.00	371.00	371.00	371.00	371.00	371.00	371.00	371.00	371.00	373.00	373.00	371.00	371.50	371.50	371.00	389.50	375.00	375.50	377.50	377.00	371.00	371.00	373.00	373.00	383.50	386.50	390.00	388.50	390.50	381.50	384.50	385.00	394.00	394.00	385.50	379.50	383.00	385.00	372.00	371.50	372.50	389.50	389.00	382.50	379.50	393.50	385.00	382.00	386.00	383.50	381.50	384.00	381.00	380.50	383.50	388.00	398.00	392.50	389.50	380.00	389.50	380.50	380.00	383.00	385.00	388.00	388.00	382.50	380.50	383.00	386.00	377.00	385.00	389.50	390.00	400.00	395.50	390.00
417.75	415.75	422.75	429.00	420.75	420.50	419.25	416.00	410.50	414.50	416.50	413.50	406.75	410.75	416.75	426.75	417.50	411.50	400.75	399.75	400.00	409.50	407.25	402.50	409.75	420.75	422.75	418.00	415.75	411.75	406.50	402.50	399.00	412.75	419.00	426.25	429.25	423.75	431.25	426.00	414.00	429.00	430.00	431.25	431.50	431.75	436.00	426.00	434.25	428.00	416.25	421.50	422.00	418.75	420.75	427.75	426.00	431.50	433.25	436.00	436.25	436.25	430.00	420.25	422.25	431.25	425.75	419.00	415.75	418.25	423.00	420.75	423.25	425.50	434.75	434.50	422.25	425.00	447.75	446.50	436.75	428.75	442.25	452.00	441.75	438.50	441.75	431.00	434.75	427.75	429.75	435.75	433.75	430.00	431.75	429.25	420.00	417.00	413.50	414.00	413.50	404.00	403.75	398.25	394.50	389.00	384.00	386.00	387.25	379.50	390.75	392.00	398.25	390.00	382.25	379.75	378.75	381.00	378.50	382.50	383.75	378.50	383.50	383.25	398.00	389.25	399.50	403.50	401.25	395.75	374.25	379.75	383.25	389.25	389.00	386.75	385.50	386.00	386.50	390.25	386.50	378.75	380.00	377.50	376.25	377.50	374.25	376.50	374.25	378.00	379.00	383.50	383.25	378.50	383.50	383.75	385.25	387.25	384.50	384.75	386.00	381.50	380.75	384.75	380.00	382.25	383.00	384.00	385.00	397.00	393.25	375.00	371.00	371.00	371.00	371.00	371.00	371.00	371.00	371.00	371.00	371.25	371.25	371.00	371.25	371.75	374.50	374.50	371.25	371.00	371.25	371.00	373.75	371.50	372.25	377.75	379.00	374.00	371.00	371.50	373.50	376.00	382.50	388.75	392.00	392.75	389.00	386.00	387.75	387.25	390.75	389.50	385.75	383.50	380.00	374.75	371.00	372.50	382.25	387.25	394.25	386.00	383.25	383.00	381.00	385.25	383.75	380.75	380.00	380.50	380.75	385.50	389.00	388.25	388.75	389.25	385.00	389.25	386.75	380.25	380.75	382.75	386.75	386.00	385.75	386.75	387.00	383.25	386.50	383.75	392.50	393.50	391.50	396.00	395.75	395.00
412.00	414.75	421.75	429.75	420.75	413.75	413.00	421.50	412.75	417.25	414.50	417.25	408.25	410.75	414.00	413.75	407.75	405.50	397.75	398.25	401.00	404.25	405.00	411.25	415.75	430.00	429.75	419.50	411.75	418.50	415.75	414.75	406.50	415.00	423.50	425.25	420.25	420.50	414.25	419.25	424.00	430.50	431.00	434.75	424.00	449.00	442.25	464.50	453.75	436.00	426.00	419.75	425.75	430.50	431.50	429.00	426.75	438.00	439.75	435.00	430.75	432.50	433.75	417.00	422.75	428.50	415.25	415.75	419.00	435.75	440.00	437.75	427.25	428.00	436.75	429.75	423.75	436.75	434.50	432.75	430.25	438.00	444.25	438.00	441.00	440.25	426.75	426.50	431.25	428.00	428.25	441.25	426.75	415.75	418.00	418.00	424.25	420.25	412.75	411.00	420.50	401.75	396.50	391.00	390.75	394.25	399.00	390.50	384.50	386.00	392.00	388.75	390.25	387.00	382.00	378.50	376.00	381.00	383.25	381.00	382.25	380.50	376.00	386.00	389.00	383.25	388.75	389.75	382.75	377.00	386.50	390.25	393.75	398.00	400.00	405.25	402.25	393.75	388.25	383.75	384.00	378.25	378.25	383.25	379.75	387.25	382.25	374.75	373.00	375.25	377.50	378.50	375.50	375.50	377.25	379.25	385.25	384.00	382.00	383.50	383.00	382.25	385.25	384.75	384.75	382.50	380.50	382.00	387.00	407.50	384.50	373.00	371.00	371.00	371.00	371.00	371.00	371.00	371.00	371.00	371.00	371.75	375.75	376.75	371.00	371.25	376.00	377.25	371.00	371.00	371.50	373.25	371.75	371.00	375.50	374.50	373.00	374.00	376.75	378.00	388.50	387.50	388.75	393.75	397.75	396.75	395.00	393.25	395.50	390.75	390.75	386.75	385.75	381.75	371.00	373.00	374.50	379.00	387.25	394.50	384.25	382.50	382.75	384.75	385.50	380.00	386.25	384.00	383.25	388.75	393.75	384.00	388.50	383.25	384.75	388.00	385.75	384.00	383.50	382.00	384.75	385.25	383.25	382.25	387.25	391.50	386.25	386.25	389.75	388.75	397.00	387.25	395.75	399.75	398.75	396.00
416.00	417.25	425.75	426.75	417.25	413.00	413.00	416.00	428.75	429.00	423.25	424.50	408.50	408.50	411.00	410.25	406.25	407.25	398.75	405.25	406.00	405.00	407.75	414.00	416.50	428.75	423.75	416.00	408.25	414.50	412.50	407.75	402.25	420.25	422.75	423.00	414.50	411.25	405.50	416.25	421.75	426.50	428.00	425.00	423.75	439.00	448.50	455.75	451.25	444.50	433.50	435.25	433.00	434.50	431.50	434.25	435.25	441.25	436.75	436.50	431.00	428.25	426.25	426.00	430.75	432.00	425.25	426.75	431.50	439.50	444.25	445.75	430.50	430.75	432.25	426.25	426.75	438.75	432.75	430.25	433.75	437.25	441.25	437.00	438.00	433.25	428.50	431.00	432.50	431.50	433.75	431.50	420.75	420.25	418.00	422.00	422.00	415.25	407.50	413.75	417.25	402.00	393.00	386.75	396.00	395.50	391.75	385.25	387.75	387.75	387.25	386.00	386.75	385.25	380.75	377.75	379.25	382.50	383.50	382.25	381.75	380.75	381.25	390.25	392.75	391.75	387.25	384.75	385.00	383.25	397.25	399.75	401.00	398.50	403.75	407.50	400.00	390.50	389.00	380.00	377.25	374.50	373.25	379.75	383.50	386.00	378.75	374.50	372.75	376.50	376.50	381.25	372.25	372.25	374.25	383.25	385.75	381.00	380.75	382.00	380.75	381.00	384.00	384.75	387.50	384.50	380.00	381.00	391.50	399.00	378.00	371.50	371.00	373.75	373.50	375.50	372.25	371.25	371.25	374.50	371.00	375.75	378.75	374.50	371.50	371.75	378.25	382.25	373.50	371.25	373.25	373.00	372.00	372.75	376.50	372.00	376.00	374.50	384.00	387.00	395.75	392.00	396.00	401.50	399.75	395.50	393.00	391.50	398.25	397.25	395.00	388.75	385.75	384.75	374.25	376.75	378.50	380.25	389.75	394.25	385.75	380.50	380.25	391.50	392.50	384.25	384.25	384.25	391.00	386.00	390.75	379.00	381.25	378.50	379.50	382.25	382.25	387.75	386.50	387.25	388.75	387.50	385.00	382.75	383.50	385.75	384.25	386.50	385.75	387.25	388.50	386.25	394.50	398.75	395.50	391.50
418.00	418.75	426.75	420.25	409.25	410.00	416.25	417.75	442.00	434.75	425.50	425.00	407.75	409.00	411.00	406.25	405.50	405.75	403.75	413.25	410.75	404.00	409.50	414.25	423.25	420.00	413.75	408.00	404.25	409.25	407.00	400.00	398.25	419.75	418.50	418.25	406.00	400.25	398.25	407.25	415.25	432.00	426.50	413.75	425.00	434.25	443.50	440.25	450.25	450.00	439.75	451.25	440.75	436.75	443.00	444.75	443.50	438.75	436.75	440.00	431.50	420.75	422.25	433.00	437.50	441.50	438.50	440.50	442.00	437.50	445.00	443.50	435.50	432.00	429.00	425.75	425.75	433.00	431.75	430.00	436.75	437.00	439.50	435.00	430.50	431.75	433.25	441.50	428.00	432.50	429.00	420.50	419.75	424.75	414.75	415.00	416.00	416.75	406.75	411.50	409.00	391.00	392.25	386.00	398.75	391.50	384.75	387.50	389.75	386.50	383.00	383.50	386.50	386.00	381.00	379.50	383.75	378.75	378.25	385.50	386.50	386.75	389.25	393.50	400.75	399.50	389.00	392.25	390.50	388.75	401.75	402.75	397.75	396.00	399.75	395.00	392.50	389.50	385.75	375.75	375.50	374.75	375.50	377.00	384.25	380.00	375.00	372.75	373.00	376.00	375.75	382.00	371.50	372.75	373.00	382.75	382.25	378.25	380.75	382.25	378.25	378.50	382.25	382.50	384.75	382.00	380.00	382.25	395.25	386.50	373.25	371.00	371.00	377.50	377.00	376.25	373.00	377.00	377.25	381.00	374.25	381.25	374.75	371.75	372.00	376.25	386.50	385.50	375.25	374.25	373.25	371.25	374.50	380.75	377.25	375.75	379.25	377.50	392.00	397.75	399.25	395.00	401.25	404.75	396.75	394.75	389.50	386.25	399.50	405.00	403.75	393.25	388.00	387.50	377.50	379.50	379.50	383.50	390.25	396.25	383.50	378.75	378.50	398.50	393.25	382.50	378.75	382.25	388.75	380.50	381.25	376.00	376.00	376.00	377.25	377.00	384.25	394.25	386.50	391.25	392.00	389.75	384.50	380.75	385.25	387.50	389.00	384.25	382.25	384.25	389.00	387.75	393.25	397.25	394.25	388.75
422.50	422.75	412.00	408.75	422.50	418.00	421.00	431.00	431.50	432.00	420.50	413.50	406.75	414.75	408.00	403.00	397.75	405.00	414.50	414.75	412.25	405.75	412.00	420.25	420.50	409.25	405.25	403.00	399.00	402.00	397.00	394.50	395.75	409.00	406.00	400.50	398.00	398.00	400.00	413.00	443.25	439.00	419.25	413.00	417.75	429.75	435.50	430.50	438.50	441.75	438.25	448.00	443.00	444.25	435.25	438.75	441.75	439.00	436.00	430.25	427.75	426.50	437.25	449.75	459.75	462.50	439.75	437.25	446.75	448.00	444.00	444.00	438.25	436.75	437.50	423.50	422.50	428.25	433.75	436.25	435.75	433.25	433.25	429.00	427.25	431.00	445.75	442.50	419.00	420.50	422.75	427.75	421.00	415.00	417.25	421.50	419.50	408.00	402.50	411.75	403.00	405.50	405.25	389.75	393.25	396.50	399.50	394.25	388.75	383.25	382.50	383.00	386.25	386.25	381.50	384.00	386.00	379.00	383.00	391.25	394.00	403.50	403.75	399.25	396.50	394.25	389.25	388.00	383.75	385.00	385.50	385.25	385.00	388.50	391.00	389.75	386.00	382.00	379.75	374.25	376.25	384.25	390.00	386.00	387.50	383.75	379.50	377.25	377.75	380.00	381.50	385.00	377.75	373.25	371.00	373.25	375.50	378.25	379.75	383.75	376.00	375.75	383.75	386.75	380.00	375.00	377.00	385.25	389.75	371.00	371.00	371.00	371.00	379.00	379.25	373.75	386.50	398.25	392.25	384.00	385.75	381.25	375.75	373.75	378.50	388.00	386.50	374.75	374.50	373.00	372.50	378.00	385.25	391.75	386.25	386.00	374.50	389.00	400.50	396.25	398.50	397.75	402.25	398.00	393.75	387.25	386.25	386.00	396.75	397.50	397.50	389.50	390.75	389.75	385.50	385.50	376.50	390.75	391.50	393.50	378.00	384.50	386.00	383.75	380.25	381.00	379.25	383.00	379.00	376.00	376.50	382.75	377.50	379.75	387.25	382.25	384.75	389.25	387.75	392.75	388.75	380.75	381.75	389.25	389.50	391.75	397.00	393.00	384.50	389.25	389.75	393.00	395.50	393.50	387.00	382.00
417.50	407.75	407.50	416.00	420.25	429.00	435.00	445.50	441.25	423.50	413.50	408.00	413.75	407.50	408.50	399.00	404.50	410.75	413.75	420.25	425.75	424.25	422.50	408.25	407.25	407.50	407.50	405.00	397.00	389.50	388.75	402.75	405.25	408.25	409.25	415.75	402.75	398.00	399.50	405.50	430.00	416.25	414.50	434.50	448.00	452.00	444.00	433.50	438.25	431.75	428.50	433.75	438.00	440.25	430.00	437.75	433.75	434.00	435.75	432.75	429.50	434.50	448.75	462.25	459.50	443.25	434.75	448.25	467.75	459.00	450.50	449.00	445.50	443.25	435.50	429.25	423.00	430.25	441.00	439.25	437.00	426.25	437.75	438.25	435.00	435.25	434.25	427.00	419.50	427.50	430.75	424.50	413.00	413.00	421.75	416.25	414.25	403.50	409.50	404.25	392.25	397.75	397.25	398.75	398.75	397.25	394.00	393.25	385.50	384.75	385.25	384.00	386.75	386.00	381.25	388.75	385.75	388.00	388.00	398.75	411.25	403.50	398.75	401.25	398.75	396.25	393.00	388.50	385.25	388.25	385.50	384.00	383.00	384.00	384.50	384.75	387.25	375.75	381.75	383.50	389.75	387.25	382.75	382.50	383.00	381.25	376.50	379.50	382.25	384.00	386.75	381.25	379.00	375.50	374.75	371.00	371.00	373.25	371.75	373.75	373.25	373.50	372.00	372.25	376.50	373.75	376.00	383.50	381.75	371.00	371.00	371.00	375.75	383.50	373.75	376.00	392.25	391.00	387.75	385.50	383.75	386.25	386.25	386.25	388.25	385.75	371.50	376.00	373.00	372.00	382.50	387.25	393.00	386.75	387.50	379.00	380.25	389.25	392.50	392.25	395.50	397.50	407.75	396.75	390.25	383.00	388.50	391.75	394.75	397.25	395.50	393.25	393.50	387.00	393.50	385.00	387.00	394.00	389.75	386.00	388.75	386.50	381.25	378.50	384.75	384.75	380.25	377.00	379.50	376.00	382.25	392.00	384.50	390.50	388.00	377.25	380.00	385.50	384.25	387.00	381.50	388.25	387.50	390.25	392.75	395.00	394.25	389.00	387.25	389.25	389.00	387.50	385.00	391.75	379.50	394.00
413.50	407.25	411.75	411.25	422.75	433.75	440.50	440.50	436.25	416.00	413.00	414.25	414.50	409.50	408.75	405.00	410.50	415.50	416.50	421.00	425.50	421.50	408.50	401.00	400.25	404.00	404.00	397.00	389.75	393.25	400.75	412.00	416.25	404.50	400.25	409.00	425.00	412.00	420.00	406.25	412.50	403.50	414.75	436.75	454.75	448.75	437.25	432.00	430.00	427.75	432.25	435.00	444.50	446.75	445.25	444.25	441.50	441.00	440.75	438.00	434.25	442.50	446.25	455.00	450.75	440.00	438.25	452.75	463.50	458.75	455.50	446.75	441.50	436.75	430.75	427.75	422.25	431.00	440.00	441.25	444.00	429.25	439.50	438.00	440.75	442.75	434.25	423.25	421.00	423.75	428.75	425.50	414.75	415.00	414.50	412.75	417.50	403.25	405.50	401.00	394.75	397.00	400.00	399.00	399.75	395.25	396.00	393.75	388.75	387.50	388.75	386.25	386.25	384.00	388.75	390.00	388.75	394.75	392.00	401.00	415.75	404.50	403.50	403.50	401.25	399.75	396.00	391.25	387.00	388.50	383.50	381.75	379.75	381.25	381.75	381.75	383.00	379.00	380.25	386.75	390.50	383.00	377.75	378.00	376.75	380.00	381.25	383.00	379.50	380.50	382.75	379.00	377.00	377.50	373.25	371.00	371.00	371.25	371.00	372.50	375.25	371.75	371.00	371.00	373.00	373.50	373.50	374.75	375.75	371.00	371.00	371.00	374.50	377.75	372.50	372.75	382.50	383.00	381.75	382.50	386.75	387.25	388.75	390.75	384.25	378.50	375.00	381.25	377.25	380.75	388.00	388.00	393.00	390.25	389.25	380.50	381.50	387.75	392.25	395.50	394.50	393.25	398.00	394.75	387.00	386.00	390.75	392.25	394.25	393.00	389.75	390.75	388.25	391.00	386.00	386.00	392.25	397.00	392.50	388.50	384.00	384.25	382.00	378.75	378.75	380.75	380.00	384.75	380.75	377.25	384.50	387.50	386.25	384.50	380.25	381.50	382.25	383.00	383.50	386.50	383.50	387.50	386.25	388.50	393.75	393.25	393.00	388.25	387.75	392.50	387.50	386.25	384.75	385.75	380.25	395.25
409.75	409.50	412.00	411.00	424.50	434.75	441.75	434.25	432.00	411.50	416.75	416.00	411.00	410.75	407.00	410.75	412.75	417.25	420.75	419.50	421.25	408.75	399.50	401.00	399.00	398.75	391.75	393.75	389.00	404.50	410.25	412.25	412.25	395.50	392.75	393.50	420.25	417.25	445.00	431.00	412.50	401.50	411.25	437.75	448.00	438.75	426.00	423.75	423.75	428.00	437.50	438.50	452.00	460.00	465.50	456.00	447.75	446.50	438.50	435.75	435.50	438.75	442.00	446.00	441.50	439.00	442.00	449.00	448.25	455.00	450.00	434.75	431.25	428.75	429.00	427.75	419.75	435.00	432.50	438.50	440.25	434.50	441.00	440.00	442.25	441.75	432.75	423.00	420.00	417.25	425.50	424.75	412.00	416.00	411.50	411.75	418.00	397.50	396.00	399.75	396.75	403.25	404.25	397.00	400.75	396.00	399.25	395.75	392.25	388.50	392.50	391.75	384.50	384.75	394.75	392.00	394.75	398.50	397.50	402.00	409.00	406.50	402.75	403.25	403.75	400.25	396.25	391.00	388.50	386.50	379.50	379.00	378.00	380.50	381.00	380.00	380.00	383.25	382.25	381.75	387.50	380.75	382.75	381.75	379.25	378.50	381.00	380.00	378.00	378.75	381.75	380.50	377.25	376.00	371.50	371.00	371.00	371.00	371.00	371.50	373.50	371.00	371.00	371.00	373.00	374.25	371.25	371.00	380.25	372.25	371.50	371.00	372.50	380.00	372.25	371.25	371.50	376.75	380.00	386.25	390.50	387.00	386.75	387.00	375.75	373.75	384.25	383.25	383.25	389.25	392.00	390.25	394.25	393.00	395.25	383.75	382.25	387.75	394.00	398.50	393.00	391.25	388.00	395.75	384.50	386.50	392.75	390.00	391.75	392.50	384.75	388.00	389.00	391.25	378.25	387.50	400.00	401.00	399.00	391.25	378.75	380.50	380.75	378.75	380.25	379.50	382.75	390.50	377.50	378.00	379.75	386.25	386.00	376.75	378.75	383.50	380.00	383.25	385.00	388.00	387.00	384.25	390.00	390.50	391.75	392.25	391.25	385.25	388.25	389.50	382.75	388.50	390.50	384.50	384.50	394.75
403.00	411.00	421.75	426.75	427.75	431.75	436.50	425.75	421.25	418.50	415.00	409.00	404.25	410.25	410.25	411.75	414.50	420.50	418.75	416.00	409.25	394.50	399.50	392.50	388.75	388.75	382.25	388.25	386.25	385.00	391.00	395.25	396.00	400.75	407.00	405.50	416.75	425.75	424.75	422.25	430.25	427.50	416.25	420.00	433.00	434.25	420.50	431.00	424.25	425.75	429.25	441.00	453.00	444.50	442.00	446.50	444.25	428.00	428.25	432.50	444.00	438.75	436.25	441.50	439.25	436.25	443.25	440.25	437.00	431.75	428.00	422.25	421.25	424.00	423.25	427.75	414.25	428.50	428.25	439.25	430.00	435.25	436.50	442.50	429.75	422.25	417.50	424.75	418.75	415.00	414.00	407.75	418.00	412.50	408.25	407.25	405.25	403.25	409.25	403.00	400.75	399.00	397.25	395.75	406.00	403.25	398.75	391.50	386.25	390.25	391.50	390.00	389.25	390.25	395.75	399.00	401.75	402.25	405.00	405.50	404.25	398.25	395.75	398.00	398.75	394.50	392.00	393.00	387.75	382.50	378.50	376.00	378.25	379.25	384.50	385.25	382.25	385.00	386.75	373.00	381.00	381.75	381.75	382.00	385.25	383.50	383.25	381.25	380.75	383.50	383.50	377.50	372.50	371.75	371.50	371.00	371.00	371.00	371.00	371.00	371.00	371.00	371.00	371.00	372.25	371.00	371.00	371.00	382.00	373.75	371.00	372.00	376.50	374.00	373.00	380.50	376.75	385.50	388.00	387.25	388.50	389.25	388.00	384.50	374.50	385.25	387.25	385.50	390.75	392.25	394.25	396.50	397.00	398.25	391.25	398.50	388.25	390.00	393.25	393.00	393.50	389.25	386.75	387.75	385.00	382.25	385.00	391.00	393.75	393.75	386.75	383.00	390.75	377.75	391.75	401.25	404.50	395.00	391.25	389.00	379.75	376.25	379.75	385.50	381.75	391.75	392.25	378.50	376.00	376.00	377.75	385.25	378.50	376.00	379.00	376.75	376.50	384.50	388.75	386.75	381.00	387.00	393.00	390.75	390.75	392.50	386.75	384.75	384.75	385.75	391.50	399.00	393.75	382.50	382.50	387.75
418.50	423.00	422.50	429.00	433.50	430.00	432.00	420.50	420.00	415.50	415.50	403.00	407.00	408.50	412.00	414.50	418.00	417.50	415.00	414.00	408.00	392.00	387.00	399.00	406.00	385.50	380.00	380.50	390.00	410.00	405.00	399.50	405.00	413.50	418.50	413.50	415.00	417.00	430.00	436.00	427.50	430.50	429.00	416.50	425.50	432.00	418.50	443.00	430.00	425.00	431.50	442.00	446.00	439.50	443.50	433.00	428.50	430.00	435.00	449.50	450.00	440.00	431.00	432.50	435.50	432.50	434.00	434.50	426.00	425.50	422.50	425.50	435.00	446.50	428.50	411.00	404.50	417.00	423.00	429.00	429.50	431.00	420.50	425.50	418.50	413.00	416.00	424.50	416.50	418.50	421.00	407.50	420.00	411.00	400.50	403.50	408.00	410.00	411.00	403.00	397.00	396.00	394.50	402.50	398.50	397.00	392.00	387.00	388.50	390.50	390.00	391.00	395.50	400.00	400.50	402.00	404.00	405.50	410.00	406.00	407.50	397.00	394.50	395.50	395.00	393.50	394.50	393.00	382.00	380.00	377.50	378.50	381.00	380.50	381.00	381.50	387.50	376.50	385.50	373.50	392.00	388.50	387.00	390.50	397.50	394.50	388.00	381.00	382.50	392.50	384.50	374.00	373.00	371.00	375.50	371.00	371.00	371.00	371.00	371.00	371.00	371.00	371.00	372.00	372.00	371.00	371.00	373.50	374.50	371.00	372.50	382.50	373.00	371.50	374.50	380.50	388.50	386.50	387.00	386.50	386.00	390.00	387.50	383.00	386.00	399.00	392.00	391.50	392.50	393.50	401.00	399.00	395.00	396.00	393.50	394.00	386.50	390.50	389.50	390.50	391.50	389.50	384.00	384.50	381.00	383.00	388.50	394.00	393.00	392.00	390.00	387.00	377.50	393.50	402.50	395.00	400.00	390.00	391.50	385.50	384.00	386.00	382.00	385.00	389.50	395.00	385.50	377.00	376.00	376.50	387.00	387.00	383.50	379.50	376.50	380.00	376.50	376.00	379.50	382.50	381.00	395.50	388.00	387.00	389.50	385.50	384.50	383.50	382.00	394.50	396.50	386.00	379.00	379.00	381.50	384.50
423.75	426.25	431.75	437.75	431.00	431.00	433.50	417.50	417.75	412.75	405.50	399.75	408.00	412.75	415.50	414.75	414.75	408.25	397.00	392.25	387.50	385.75	392.75	396.75	386.25	382.50	394.50	393.50	409.00	408.25	410.25	408.75	414.25	409.25	414.25	410.50	416.50	418.00	427.00	429.50	430.00	423.75	422.25	422.25	419.75	417.50	424.25	435.50	437.00	435.75	436.75	442.50	445.25	448.00	443.50	439.25	435.00	433.75	450.50	452.00	438.75	431.75	426.75	426.50	424.25	428.75	426.75	425.00	423.50	423.50	432.75	447.75	448.75	452.25	428.75	419.50	413.50	412.00	423.00	424.75	427.00	421.25	420.50	415.75	419.75	423.00	423.50	420.75	415.00	417.50	409.50	415.75	416.00	403.50	397.50	401.75	405.25	410.00	408.25	398.25	396.75	395.25	397.50	400.25	394.25	393.50	387.75	387.25	389.50	389.75	392.50	393.75	398.25	403.00	404.25	406.50	409.75	412.25	412.75	404.50	402.25	397.25	395.50	393.50	393.25	397.25	389.00	384.75	382.50	380.00	379.00	380.75	382.25	378.50	376.00	380.25	374.75	373.50	376.50	397.50	397.25	389.25	389.75	393.00	396.50	394.25	386.00	386.75	377.00	373.75	374.50	376.00	375.00	372.25	372.00	371.00	371.00	371.25	371.00	373.00	371.00	371.00	371.00	371.00	371.25	371.75	376.00	379.75	376.50	382.25	377.25	379.75	375.75	380.50	387.75	387.25	383.75	388.00	385.50	387.00	393.25	382.75	377.50	378.00	387.75	387.75	401.25	401.25	394.50	400.00	396.00	393.75	394.00	391.25	396.50	395.25	388.75	389.25	389.75	390.25	388.75	383.50	383.75	381.25	383.00	386.75	387.25	382.75	382.25	383.00	383.50	384.00	394.75	410.75	393.25	384.50	387.00	390.25	387.00	388.75	383.00	390.50	393.00	397.00	388.50	381.75	378.25	376.00	376.00	379.50	384.25	387.25	388.25	381.00	377.25	377.25	378.50	379.50	384.75	386.00	388.25	385.25	384.00	388.25	388.00	387.50	390.50	384.25	382.00	386.50	382.75	379.50	378.50	379.50	383.00	386.50
427.75	434.00	433.25	434.25	435.50	431.75	428.50	415.00	417.25	404.25	399.00	408.50	415.75	414.25	411.25	405.75	404.25	387.00	386.75	395.50	392.00	380.50	382.25	388.75	390.50	391.75	401.00	420.75	419.75	422.00	434.25	442.25	436.25	429.00	421.00	412.75	414.50	412.75	421.75	428.50	432.50	439.00	432.00	425.75	415.75	425.25	441.50	436.00	449.75	454.25	458.00	458.75	458.00	450.75	436.25	433.25	438.50	445.00	450.75	434.75	437.00	449.25	422.25	431.25	445.25	454.50	442.50	440.00	427.00	433.25	448.00	454.00	439.50	428.50	424.00	422.50	415.75	430.00	412.25	410.25	418.25	415.00	412.00	428.00	430.50	428.50	425.50	422.50	416.00	418.00	411.00	405.25	400.00	396.25	401.75	404.75	403.00	402.25	399.25	398.00	397.50	396.75	396.00	399.00	396.00	391.00	386.50	389.75	389.75	392.00	397.00	395.75	399.50	405.25	406.75	409.25	423.00	415.25	406.00	407.25	403.75	399.50	401.75	403.50	402.00	392.50	384.00	381.75	384.75	381.00	383.25	385.25	386.00	380.50	372.50	371.50	371.00	381.25	400.75	395.00	391.50	384.75	383.50	380.00	378.50	376.00	371.25	371.75	371.00	371.00	373.25	372.75	371.50	371.00	371.00	371.00	371.75	371.00	371.75	377.00	375.25	371.00	371.00	371.00	371.00	375.75	376.50	375.50	381.00	372.75	374.25	378.00	374.75	383.50	380.00	383.75	385.50	385.75	389.50	390.25	387.75	382.75	375.75	383.50	384.25	386.50	400.00	400.25	398.25	407.00	403.00	399.25	394.75	391.50	393.50	385.50	384.75	383.75	384.75	383.50	381.75	381.50	381.00	386.25	392.00	389.75	388.00	384.50	386.00	389.75	397.00	406.75	408.00	397.25	388.00	389.50	386.00	385.50	385.00	386.00	403.00	405.50	393.75	386.25	381.00	376.00	378.25	376.25	376.00	381.50	380.00	386.50	387.00	378.75	383.25	388.25	391.50	383.75	390.75	395.00	387.25	383.00	389.25	391.25	392.25	392.00	384.50	378.50	380.25	382.75	380.00	379.25	378.00	382.75	385.25	385.75
427.75	432.75	431.50	433.00	432.25	426.50	420.25	415.75	416.50	402.00	405.50	409.25	410.00	409.25	399.50	397.75	401.25	390.50	390.75	391.50	389.75	380.50	382.25	388.00	386.50	388.75	399.50	411.00	413.50	416.75	427.25	434.25	437.00	429.75	425.75	421.75	428.50	420.00	433.25	440.75	438.25	435.25	425.50	421.00	414.25	439.25	456.50	443.00	452.50	452.50	455.00	459.50	461.75	452.00	431.75	430.25	444.00	440.00	447.00	445.75	440.25	440.50	421.50	445.50	451.00	456.50	449.50	441.25	427.00	430.50	433.25	433.75	431.50	419.00	424.00	419.25	415.75	426.00	416.50	414.50	415.50	411.75	415.25	433.25	430.75	430.00	427.00	418.50	414.75	414.50	408.25	404.50	400.25	405.75	411.25	407.50	402.25	401.75	403.00	400.00	399.00	399.25	394.50	399.75	394.00	388.75	389.75	394.25	396.50	400.50	402.25	398.75	400.50	410.00	414.25	414.50	417.00	416.00	411.50	409.25	405.00	408.25	417.25	415.50	402.75	389.00	383.25	381.00	386.50	386.00	385.50	387.00	382.00	375.50	373.25	375.25	377.50	379.50	389.75	389.50	392.00	389.00	386.25	374.00	372.25	373.00	373.50	376.25	379.00	376.75	373.75	372.25	371.25	371.25	371.75	371.25	371.00	371.50	372.25	375.50	375.00	371.50	371.00	371.00	371.00	371.25	372.00	375.75	377.25	376.50	373.75	377.50	380.50	382.75	387.00	387.75	388.75	393.50	398.75	395.00	395.50	385.75	378.75	386.75	385.50	390.75	397.50	395.75	395.50	405.00	400.75	395.50	396.50	401.25	394.25	390.50	386.00	383.00	383.25	382.50	381.25	382.75	384.75	392.25	397.50	396.00	394.75	386.50	384.00	394.75	396.75	398.50	392.25	385.75	383.75	390.75	390.25	388.25	383.25	390.25	404.25	394.75	388.25	383.00	379.00	379.00	380.00	376.25	376.00	379.00	379.75	384.00	381.50	378.50	383.50	387.00	390.25	386.25	389.50	389.75	387.00	390.25	390.25	393.75	392.25	388.50	380.50	378.00	379.50	386.75	381.25	381.75	380.50	381.00	384.50	387.50
424.50	432.50	431.00	431.00	427.00	423.50	414.00	417.00	416.00	403.50	410.50	405.00	405.50	405.50	390.00	394.00	401.50	397.00	394.00	381.00	388.50	382.00	379.00	379.00	379.00	381.50	391.50	403.00	405.50	413.00	423.50	433.50	444.50	435.00	425.50	428.00	442.00	426.50	446.00	453.00	437.00	424.50	422.00	420.50	415.50	451.00	458.50	446.00	451.00	447.00	443.50	454.00	456.00	450.50	430.50	430.00	450.00	438.50	442.00	451.50	439.00	436.50	422.50	453.00	448.00	457.50	453.00	439.00	427.50	427.50	425.50	425.50	432.00	417.00	423.00	416.50	412.50	422.00	423.00	424.50	414.00	405.50	422.00	434.50	430.00	432.50	429.50	417.00	414.00	412.00	402.50	406.00	402.50	415.00	415.50	406.50	402.00	402.00	408.50	400.50	399.00	400.00	393.00	400.00	390.00	386.50	392.50	398.50	402.00	406.50	405.50	401.50	403.00	411.50	420.00	419.00	412.00	417.50	417.00	409.00	406.00	415.00	427.50	419.50	398.50	388.00	381.00	379.00	384.50	390.00	387.50	387.00	377.50	371.50	375.00	379.50	384.00	376.00	378.00	391.00	402.00	403.00	399.50	376.00	371.00	375.00	376.00	380.00	387.00	382.50	372.00	372.50	371.50	371.50	372.50	371.50	371.00	372.00	372.50	373.50	371.00	372.00	371.00	371.00	371.00	371.00	373.00	374.00	376.50	382.00	374.00	371.00	384.00	384.50	397.00	388.00	391.00	402.50	407.00	399.00	401.00	386.50	381.00	386.50	389.00	393.00	395.00	393.00	394.00	396.50	396.50	389.00	393.50	409.00	391.50	396.00	391.00	385.00	383.50	383.00	381.50	384.50	388.50	397.50	403.00	399.50	401.00	391.00	381.00	393.00	394.50	389.00	382.50	379.00	382.50	391.00	393.00	392.50	381.50	387.00	400.50	385.50	386.50	384.00	377.00	382.00	380.00	376.00	376.00	376.00	377.50	385.50	377.00	376.50	378.50	384.50	385.50	389.00	384.50	387.50	382.50	395.00	389.50	398.50	390.50	385.50	378.50	378.00	379.50	390.00	382.50	384.00	383.00	378.50	383.50	389.50
430.00	430.50	423.75	426.25	424.50	416.50	414.50	409.00	406.75	392.50	390.00	390.75	397.25	396.75	398.75	396.50	396.75	387.25	384.25	384.75	393.25	386.50	385.00	392.50	400.00	398.00	390.25	401.00	400.50	403.50	412.50	422.25	418.75	426.75	442.25	437.25	416.50	419.25	421.00	418.50	412.00	409.75	409.75	413.25	412.00	428.00	432.75	433.75	433.50	440.00	444.75	455.25	454.75	452.00	431.25	432.00	443.25	437.75	445.50	442.50	435.75	434.75	423.00	440.25	446.50	448.50	437.75	427.50	419.50	426.75	428.25	428.75	425.00	416.25	416.00	407.25	413.50	421.75	424.00	421.75	421.50	411.00	414.00	418.75	415.00	422.50	426.25	415.75	414.50	408.00	407.00	408.75	407.50	409.00	406.75	401.75	400.50	402.00	403.25	402.00	401.00	392.50	388.75	388.75	389.50	395.25	404.25	408.25	409.25	410.00	406.00	404.25	413.00	420.75	431.75	418.00	416.25	414.25	411.25	410.00	412.25	421.75	427.50	421.00	396.75	385.00	382.50	382.00	390.50	392.25	389.25	382.75	375.00	371.75	374.50	379.00	379.00	395.75	393.00	393.25	395.50	389.25	382.25	372.75	372.50	373.25	381.50	383.50	378.50	383.00	374.25	376.75	374.50	380.00	382.50	374.75	374.00	379.25	379.25	379.25	381.00	385.25	384.00	378.75	373.00	373.50	371.50	371.25	375.50	372.25	371.50	380.75	386.00	394.75	394.50	403.75	409.75	406.25	390.75	402.00	401.50	390.25	384.00	395.75	393.25	392.25	394.25	385.50	394.25	395.00	390.00	401.00	404.50	394.75	388.75	392.75	387.00	386.75	389.00	395.25	389.75	389.00	401.50	402.00	411.25	399.00	393.00	383.25	380.25	384.00	383.50	385.75	391.25	409.00	387.75	384.75	394.50	383.75	378.50	385.00	380.75	381.00	380.00	376.25	376.25	377.25	376.25	376.50	376.25	376.25	381.50	386.50	393.25	384.25	378.00	384.00	384.50	379.25	380.50	386.75	384.75	386.75	391.00	393.00	397.00	387.25	381.00	379.50	380.50	379.50	379.50	379.50	380.75	380.75	383.50	386.50
415.25	412.75	414.50	415.75	413.25	407.50	403.25	388.75	382.25	386.50	403.25	402.25	402.50	393.00	383.25	379.75	388.00	387.50	392.50	389.25	382.00	383.25	400.25	414.75	406.00	398.50	395.25	399.50	399.25	403.00	404.75	415.00	432.75	435.25	427.00	416.50	417.75	412.00	407.25	411.25	403.75	404.75	408.00	415.00	420.25	424.75	434.50	436.50	433.50	434.50	437.50	441.50	441.75	433.75	428.75	432.75	432.50	427.50	430.50	430.25	427.75	432.75	423.75	429.50	437.00	427.25	431.50	422.00	425.25	426.00	424.75	426.50	437.00	429.75	409.50	410.25	418.50	419.75	427.00	421.25	417.75	417.75	418.50	418.00	414.50	413.25	411.25	414.75	413.25	405.50	413.50	411.75	406.25	405.25	403.25	403.25	400.50	400.25	403.00	403.00	398.50	391.00	390.25	395.50	403.00	409.50	410.50	410.50	410.75	410.25	415.50	419.25	418.25	425.00	431.50	422.25	414.50	414.00	416.75	418.00	413.00	413.25	407.75	398.25	394.75	395.00	389.75	389.50	393.00	388.75	385.25	374.75	371.00	374.50	376.00	377.00	381.00	380.50	384.00	386.00	383.50	381.00	375.75	374.25	375.75	381.50	377.75	379.75	376.50	377.50	377.25	372.50	376.75	379.25	378.00	385.00	387.00	388.25	386.75	395.50	394.50	390.50	386.50	387.25	395.50	398.50	397.75	401.00	391.50	382.25	372.25	385.00	391.00	389.00	391.75	399.00	401.75	402.00	396.50	405.50	407.25	390.75	395.00	399.00	398.00	389.50	390.50	393.50	403.00	405.75	400.25	390.50	392.50	401.50	396.75	409.25	405.25	400.25	403.00	403.00	407.25	404.00	404.75	406.75	408.75	398.25	386.75	379.25	384.25	389.50	403.00	396.50	404.25	416.25	390.00	389.25	394.50	385.25	377.75	380.25	380.00	378.75	376.25	376.75	378.50	376.50	378.75	379.75	385.75	381.25	387.00	398.00	399.25	389.25	390.75	393.50	390.00	382.25	392.00	394.25	380.00	382.00	388.75	398.75	392.50	383.00	378.25	382.00	389.25	386.50	387.25	383.75	384.25	383.75	378.25	382.50
405.00	400.25	395.50	387.25	391.25	393.25	386.75	386.25	385.25	387.25	393.25	393.00	390.50	391.25	390.50	387.00	388.75	391.50	393.50	389.25	391.25	401.75	404.50	402.25	399.25	401.75	396.00	397.50	398.50	400.00	403.50	411.50	420.25	418.50	418.50	416.00	403.00	402.00	405.75	410.00	416.50	417.75	418.75	422.50	418.50	426.25	425.00	430.25	438.00	436.00	428.00	411.50	406.50	411.75	415.00	418.50	423.25	425.50	425.50	430.50	433.00	425.25	428.75	429.25	429.25	426.25	424.25	427.50	432.00	434.25	441.00	450.75	456.75	432.50	414.00	412.75	415.75	416.75	415.75	412.50	412.75	414.75	417.25	439.50	436.75	423.75	415.75	410.25	401.25	400.00	400.75	402.00	402.00	400.75	404.00	405.75	400.25	398.00	398.25	395.75	391.75	396.50	399.75	411.75	416.50	417.75	416.75	420.25	424.25	427.75	426.50	419.75	434.75	436.00	430.00	427.50	423.75	423.25	416.75	407.00	415.25	410.00	406.50	407.50	406.00	395.50	387.00	385.75	386.25	380.00	376.75	373.25	381.75	385.75	388.50	394.75	394.00	395.75	396.00	393.50	387.25	384.25	388.75	393.50	387.00	389.25	388.50	388.50	387.75	373.50	382.50	404.00	410.25	410.50	405.75	394.25	398.75	394.75	396.00	395.25	398.75	400.75	394.75	396.75	387.25	390.50	396.50	392.75	384.50	376.75	373.75	385.25	391.00	399.25	396.50	406.75	415.25	400.50	411.50	403.25	388.50	384.75	389.25	389.75	390.00	398.75	402.00	397.75	407.50	410.00	405.50	401.75	412.50	419.25	429.00	419.50	403.50	402.75	408.25	412.00	410.25	411.25	408.25	415.00	410.25	401.50	382.50	385.75	395.50	406.25	401.75	398.25	406.50	390.25	387.50	387.50	389.75	390.75	384.25	382.25	378.50	381.50	388.00	393.50	394.25	399.25	384.50	388.75	388.50	384.50	383.00	396.50	386.25	385.75	390.50	391.50	387.25	379.50	385.50	379.50	378.00	378.00	378.50	378.25	378.00	383.75	385.50	394.25	394.25	392.50	401.25	394.75	395.50	388.75	385.75	382.25
394.00	395.00	391.00	392.00	399.00	394.50	396.00	392.00	395.50	396.00	400.00	400.50	390.50	394.00	403.50	409.00	397.00	400.00	409.00	407.00	403.50	400.00	409.00	411.00	401.50	402.00	400.50	403.50	403.00	403.50	406.00	410.50	410.50	418.00	425.00	414.00	405.00	407.50	421.00	454.50	449.00	437.00	437.00	435.00	426.50	422.50	421.50	424.50	428.00	423.50	419.00	409.50	415.00	402.50	406.00	407.50	415.00	421.00	423.00	425.00	419.50	419.50	431.50	436.00	440.50	429.50	435.50	445.00	449.50	443.00	447.00	438.00	434.50	432.00	419.00	426.50	413.00	422.50	416.50	414.00	415.50	421.50	436.00	431.00	416.50	405.50	398.00	396.00	394.50	396.00	403.50	408.00	410.00	412.50	413.50	411.50	402.00	401.50	405.00	393.00	398.50	405.00	406.00	412.50	414.00	413.50	419.50	424.50	423.00	428.50	422.50	427.00	434.50	436.00	438.00	439.00	434.00	425.50	418.00	410.00	414.00	409.50	410.00	405.00	396.00	389.50	393.00	386.00	384.00	386.50	381.00	395.50	404.00	398.00	395.50	396.50	393.50	396.50	399.00	389.00	389.00	386.00	386.50	387.50	394.50	400.50	394.50	391.00	382.00	379.50	405.00	414.00	398.00	405.00	406.00	402.50	396.00	395.00	396.50	399.00	399.00	402.00	413.00	407.00	397.00	395.00	392.00	386.00	376.00	372.50	377.00	381.50	389.50	401.00	390.50	406.50	389.00	392.00	385.50	374.50	379.50	383.50	378.00	383.50	398.50	404.50	409.00	410.00	409.00	408.00	408.50	423.00	434.50	434.50	439.50	415.50	400.00	406.00	408.00	405.50	406.00	413.00	412.50	414.00	395.50	384.00	382.50	401.50	402.50	405.50	398.00	396.50	403.00	389.00	389.00	388.50	394.00	393.00	386.50	377.50	380.00	389.50	392.50	391.00	400.00	398.00	393.00	393.00	385.50	382.00	384.50	385.00	379.50	393.50	394.00	389.00	383.50	381.50	382.00	379.50	378.00	383.00	389.50	391.50	392.50	402.50	393.50	392.00	393.00	393.50	394.50	388.00	392.00	386.00	386.00	380.00
392.75	395.75	401.00	401.50	403.50	411.75	410.00	404.50	402.00	397.00	391.50	393.00	391.50	395.25	398.75	402.50	403.25	406.25	409.50	408.75	403.00	402.75	412.25	407.75	407.50	406.25	410.25	410.25	410.25	406.75	405.75	408.00	416.00	425.50	427.25	418.50	407.00	405.50	437.00	452.50	463.00	437.25	428.00	424.50	418.00	414.75	421.00	424.75	423.75	415.00	397.75	403.75	408.75	413.75	411.25	413.75	414.50	415.75	411.75	412.00	413.25	417.25	421.00	419.75	421.25	425.00	429.50	431.25	429.75	427.50	428.50	424.50	424.75	419.75	419.50	417.00	417.00	417.00	420.25	428.75	429.25	428.75	423.50	405.50	401.00	397.25	396.25	402.50	412.75	414.25	410.25	408.75	407.50	411.75	410.50	406.50	400.75	401.50	397.00	397.25	408.25	408.75	416.25	424.00	419.50	422.25	424.75	430.00	429.75	420.75	418.25	416.00	421.00	426.00	428.25	426.25	419.00	407.75	404.75	408.25	410.25	410.50	408.50	406.50	397.25	390.00	387.25	382.00	393.75	389.50	399.25	402.50	399.75	392.25	393.00	391.75	392.50	397.75	397.75	391.50	391.25	392.75	394.00	398.50	408.50	409.75	397.25	391.25	384.75	391.50	398.50	393.00	395.00	398.25	396.25	393.75	388.00	392.25	392.75	397.75	396.75	401.25	404.25	398.00	391.75	389.25	382.75	380.50	381.75	379.50	374.50	381.25	382.25	382.00	383.50	379.25	379.50	380.00	383.50	382.00	386.00	391.25	392.25	403.25	411.75	408.25	414.00	415.50	417.50	424.25	425.75	436.75	434.75	434.00	434.00	414.00	399.50	407.50	403.25	403.00	410.75	413.75	410.75	398.25	379.75	381.00	391.00	391.50	403.00	395.50	393.25	390.50	390.25	393.00	395.25	398.50	391.25	384.75	383.25	385.75	387.50	394.25	389.25	391.50	394.50	390.00	391.50	393.75	391.75	386.75	382.25	383.00	386.75	393.25	386.25	386.50	383.75	392.75	388.25	380.00	388.25	393.75	398.25	397.75	399.50	396.50	391.00	395.75	395.25	393.75	390.50	388.50	386.00	384.75	380.50	382.25
402.75	410.50	404.75	402.75	413.50	413.75	405.50	400.50	397.25	395.75	389.50	394.25	396.25	396.00	400.50	407.25	409.75	402.50	395.75	396.50	397.50	397.00	401.00	403.25	407.75	410.25	411.00	410.00	406.50	408.50	406.50	415.75	415.25	414.50	412.75	405.75	402.00	407.00	435.00	451.25	449.75	428.50	421.00	414.75	415.00	416.50	418.00	410.50	403.75	398.00	391.00	395.75	408.50	405.00	399.00	402.00	408.00	407.25	409.25	408.75	411.00	411.50	413.50	413.00	414.50	418.50	420.50	422.75	418.75	423.00	427.00	426.75	419.50	418.50	420.50	423.75	418.50	418.00	423.25	424.50	417.25	412.00	409.25	401.00	403.50	408.25	409.50	409.50	408.00	405.50	404.75	405.00	405.25	401.75	398.50	394.50	395.75	401.00	405.50	413.50	418.50	419.50	421.50	425.75	423.75	422.75	422.25	423.00	406.75	409.50	413.75	416.75	419.75	421.75	426.75	428.00	420.00	413.00	407.75	409.50	406.50	412.75	413.75	404.75	395.00	391.50	393.25	388.50	384.00	386.50	406.00	405.25	397.50	395.00	393.25	396.50	397.25	395.00	396.50	396.25	398.25	404.00	417.75	414.50	414.50	407.25	396.50	391.75	397.00	409.00	398.50	392.00	391.75	390.25	388.25	383.75	382.25	383.25	386.50	387.00	386.25	388.25	386.75	383.25	382.00	381.75	380.00	380.75	377.75	377.00	377.25	380.00	374.00	393.75	385.75	384.50	385.50	393.50	396.25	400.00	406.00	407.00	412.25	413.00	409.25	404.75	411.25	413.75	426.50	432.00	419.50	414.75	413.25	417.75	415.50	393.00	395.50	404.25	398.75	401.75	401.00	395.25	387.50	379.00	380.50	405.00	399.25	401.75	397.25	393.00	389.50	390.50	394.25	395.50	398.00	394.25	384.50	385.00	385.25	389.25	395.50	395.50	388.25	391.25	387.25	386.50	390.00	391.25	392.00	383.00	386.00	393.00	390.25	386.25	384.00	389.75	395.00	398.75	394.25	392.50	392.00	397.25	393.25	388.50	392.00	391.00	392.25	391.75	397.25	399.00	396.50	389.75	389.50	388.25	386.00	381.00
414.75	419.25	407.50	405.00	413.50	408.25	398.75	395.50	394.00	392.75	396.00	396.50	397.75	402.00	406.50	406.25	402.75	397.25	394.25	398.25	400.75	399.00	402.75	401.50	404.50	407.75	404.50	401.00	398.25	400.00	400.75	411.00	408.50	408.25	408.00	404.75	411.00	427.25	430.25	436.50	436.75	432.25	427.50	412.50	409.75	409.75	408.50	399.75	397.00	394.75	397.50	402.00	404.25	397.25	395.00	400.50	408.00	409.25	412.50	412.50	414.00	417.00	418.50	418.25	421.50	422.00	424.50	421.75	413.50	417.25	421.50	425.75	422.25	424.25	425.75	421.25	416.25	415.75	413.00	412.50	410.25	410.75	408.50	401.50	402.75	408.00	410.75	409.50	409.25	407.00	410.00	410.00	409.25	410.00	401.75	399.75	410.00	412.25	415.75	414.75	415.50	415.00	418.25	418.50	411.25	411.00	412.00	407.25	405.75	412.25	414.50	416.25	417.00	421.75	422.75	419.50	413.25	412.75	409.50	404.25	401.50	405.75	400.75	393.00	387.50	386.50	384.75	379.00	382.50	389.00	396.25	392.75	391.50	393.25	394.25	398.00	397.50	395.25	398.50	398.50	401.00	409.00	418.50	416.75	417.25	415.75	400.25	401.00	404.75	405.50	395.75	394.00	392.00	391.50	391.00	386.50	391.50	391.00	390.00	389.50	388.50	389.75	386.25	384.25	386.75	385.75	382.75	385.00	381.25	380.75	378.75	378.50	384.25	395.75	380.00	383.00	390.00	399.75	404.25	408.75	411.00	406.50	409.75	408.75	401.50	403.00	402.75	404.25	414.00	413.25	404.25	399.25	398.75	402.75	405.75	396.25	396.50	398.75	394.50	398.00	393.75	390.00	390.75	390.50	387.75	395.25	392.00	394.75	392.00	390.25	391.75	391.75	395.00	400.00	398.00	391.50	384.00	382.75	388.00	394.25	397.25	397.25	391.00	387.25	385.00	389.00	390.75	390.50	387.00	385.50	387.00	382.50	385.00	384.25	390.75	400.00	398.25	396.75	389.75	387.50	387.50	390.25	388.00	391.25	391.00	389.50	396.50	403.75	409.75	410.50	405.00	398.75	392.00	389.00	383.25	381.75
418.00	418.50	407.75	407.75	408.50	396.75	389.50	386.75	388.00	392.25	399.00	395.75	398.00	408.00	411.00	400.00	395.75	392.00	395.50	399.25	397.50	397.50	400.00	396.50	400.00	405.25	401.00	393.25	392.00	392.00	392.50	399.00	397.75	400.50	404.75	408.75	420.25	434.25	413.50	408.25	415.50	431.75	427.25	406.00	402.00	405.00	401.00	391.50	392.25	400.75	410.50	415.00	415.75	411.75	401.75	405.25	411.25	412.00	419.25	417.75	419.00	426.75	417.25	418.00	419.00	415.75	417.50	415.50	408.50	410.00	413.25	425.00	425.50	427.00	427.25	416.75	412.50	413.00	405.75	408.50	410.50	410.00	404.75	404.00	404.50	409.25	414.50	416.00	410.00	407.00	409.75	410.25	416.50	415.50	405.25	404.75	415.75	417.00	414.00	407.50	405.25	406.75	408.75	404.25	397.75	399.00	399.50	400.25	410.00	414.50	414.75	415.00	417.00	418.50	415.50	412.25	408.25	409.00	408.00	399.25	398.50	395.25	390.00	388.50	386.25	379.75	372.50	376.00	385.25	384.25	386.50	387.75	390.50	393.00	396.50	397.25	396.00	395.75	398.50	399.75	403.50	415.00	418.75	421.00	423.00	422.75	410.25	408.00	404.25	400.50	397.25	400.00	397.50	398.00	399.50	396.00	401.00	397.75	395.25	393.00	391.75	392.50	386.00	385.00	388.00	386.75	387.75	386.00	381.25	376.75	376.25	377.50	391.25	390.00	381.00	385.00	392.50	406.50	409.75	411.75	408.50	402.50	405.75	401.75	400.00	404.25	399.50	395.50	398.50	393.25	394.00	393.50	391.00	397.50	400.50	398.25	400.25	397.00	393.75	389.25	388.75	393.25	396.00	400.75	395.75	388.25	385.75	386.75	387.75	391.50	394.75	392.50	399.25	402.50	397.00	389.75	383.75	382.50	392.50	396.00	395.25	394.50	388.25	385.50	387.50	391.75	392.75	389.75	383.00	386.25	391.00	379.75	380.25	385.00	396.50	410.75	401.25	394.75	386.25	383.50	388.00	389.50	389.50	397.50	397.50	390.75	400.25	410.50	413.00	416.00	412.75	402.25	395.25	391.00	384.50	384.25
400.75	404.25	402.50	403.75	392.00	380.25	381.00	385.50	387.00	390.00	391.75	398.75	404.25	405.50	400.00	393.50	398.50	399.50	397.50	391.75	388.50	395.75	406.25	408.25	406.75	410.25	407.50	404.25	403.00	403.50	410.00	412.25	411.25	419.00	421.00	408.50	415.75	410.25	404.50	404.50	407.00	411.50	404.25	406.00	407.00	405.75	404.50	398.50	400.25	405.75	415.00	417.25	415.00	415.50	416.25	409.75	406.25	407.00	404.25	409.25	415.25	420.25	427.75	433.00	431.25	426.50	421.50	419.75	420.75	419.25	422.25	422.75	414.75	413.00	413.50	415.50	414.25	413.00	408.25	404.75	407.25	404.00	405.75	405.50	405.25	406.25	406.00	402.50	404.25	408.25	412.25	419.75	418.25	411.00	407.00	405.00	412.00	409.00	409.75	417.50	412.75	410.00	405.75	402.25	399.25	405.50	412.00	408.25	406.75	410.75	416.50	418.25	416.50	412.25	409.75	408.00	406.25	403.00	402.25	401.00	392.00	386.00	384.75	384.00	383.25	376.00	378.25	383.75	379.75	380.50	394.25	387.50	392.75	398.50	399.25	398.25	397.75	397.25	397.75	404.00	411.50	418.75	424.00	424.50	424.00	423.50	406.75	404.50	401.75	402.00	404.50	409.75	408.00	407.50	406.50	404.00	400.25	393.50	393.25	393.75	394.25	387.00	382.75	381.75	375.75	380.50	384.00	382.50	377.50	372.50	376.00	389.50	389.25	391.75	379.00	388.50	390.00	407.25	414.50	409.25	408.75	413.25	409.75	404.25	402.25	406.25	413.50	413.25	410.25	410.75	409.75	393.25	392.25	393.25	394.50	400.00	398.00	390.25	383.50	395.75	400.25	391.25	390.75	394.00	397.25	395.50	391.75	385.25	389.25	394.75	392.00	396.50	399.50	397.25	389.25	383.25	387.25	390.25	393.25	388.75	387.00	383.75	390.25	394.00	393.75	387.75	384.75	384.00	380.75	383.25	380.25	379.00	383.50	394.75	397.50	396.25	395.75	396.00	389.75	390.00	393.50	397.50	397.25	401.50	400.75	391.00	399.50	413.75	415.25	410.00	411.00	395.25	394.25	392.75	398.75	397.00
398.50	397.50	398.50	393.50	379.50	380.50	386.00	387.00	387.00	391.00	402.50	402.50	399.00	394.50	392.00	393.50	398.00	407.50	400.00	387.00	392.50	402.50	409.50	410.50	409.50	400.50	402.00	413.00	416.50	416.50	416.00	419.50	428.50	432.50	434.50	435.00	459.50	446.00	441.00	448.50	438.50	436.50	431.50	432.50	419.00	417.50	420.50	414.00	409.00	412.00	416.00	416.00	407.00	405.00	406.00	409.50	415.50	420.50	423.50	420.50	432.00	445.50	453.50	451.00	447.00	445.00	443.50	438.50	426.00	415.50	408.50	408.50	410.50	414.00	415.50	418.00	411.50	406.00	402.00	399.00	399.50	404.00	405.00	408.00	405.50	407.50	411.00	404.50	419.50	422.00	410.50	408.50	413.50	408.50	401.50	404.50	406.00	419.00	419.50	415.00	407.50	403.00	402.00	408.00	408.50	408.50	407.00	408.00	410.00	413.50	420.00	415.50	413.00	411.00	410.50	411.50	411.00	414.00	405.00	399.00	394.50	388.00	385.00	381.50	380.50	379.50	374.00	376.50	383.50	392.50	397.50	385.00	386.00	388.50	392.50	398.00	401.00	398.00	400.50	415.00	420.50	420.00	422.00	420.50	420.00	418.50	405.50	409.00	405.00	405.50	406.50	407.00	409.00	413.00	411.50	415.00	404.50	397.50	398.50	397.00	394.50	390.50	382.00	375.00	379.50	395.00	383.50	380.50	377.00	374.50	384.00	403.00	397.00	389.00	383.50	396.50	398.00	416.00	417.00	408.50	410.50	412.50	412.00	407.00	399.00	406.00	413.00	416.50	412.50	403.50	402.00	411.00	405.00	392.00	403.00	398.00	393.00	392.00	401.50	398.00	387.50	381.50	390.00	391.00	395.50	398.00	393.50	387.50	391.00	396.00	394.00	398.50	396.00	399.50	391.50	385.00	393.00	393.50	385.00	380.50	378.50	388.50	398.00	397.50	389.50	381.50	379.00	382.00	387.00	379.50	379.00	379.00	381.00	388.50	391.00	391.00	394.50	404.50	402.50	390.50	391.00	395.50	396.50	395.00	409.50	404.00	393.00	411.00	406.00	403.00	409.00	388.50	390.50	397.50	406.00	394.00
404.00	401.50	396.75	387.25	380.25	384.75	378.75	384.75	386.00	393.25	397.75	395.00	388.25	384.75	387.75	395.00	406.00	415.00	401.25	397.50	406.50	419.00	414.75	404.25	393.75	402.00	406.25	428.00	426.75	423.50	422.00	421.25	421.25	428.00	437.50	438.00	436.25	438.25	436.50	442.00	439.75	434.00	432.75	426.50	419.25	421.75	420.25	413.50	411.50	414.00	410.75	405.50	404.00	410.25	413.00	417.75	426.25	435.25	436.50	436.00	438.00	448.50	456.00	447.25	443.25	446.50	441.00	427.50	411.25	399.00	394.75	397.75	399.75	399.50	399.50	398.00	397.50	399.75	399.25	400.75	403.75	410.50	409.50	411.25	404.25	404.75	406.00	405.75	428.25	418.00	415.00	414.75	411.25	406.25	396.25	400.50	415.00	415.50	412.75	403.25	402.75	408.75	403.75	404.75	406.25	403.75	406.75	408.75	410.75	413.00	412.50	411.25	411.50	406.25	408.50	413.00	412.75	404.75	406.25	398.75	396.00	389.25	386.75	383.00	381.50	376.75	376.25	380.50	385.50	384.75	382.00	384.50	387.00	385.00	387.25	392.75	396.50	397.25	400.75	413.00	414.00	415.50	419.50	418.75	414.75	411.00	405.25	406.75	406.25	405.25	404.50	409.75	414.25	411.00	412.75	415.25	402.00	397.50	399.25	399.50	396.50	388.00	379.50	376.00	398.75	408.00	394.75	389.75	381.25	388.50	397.75	395.75	391.75	388.25	395.50	401.25	401.00	410.00	405.25	405.75	402.00	397.75	405.25	406.00	404.00	395.50	401.25	399.00	403.50	399.25	403.00	405.50	398.75	391.25	391.50	395.75	398.00	401.75	400.25	393.50	386.00	380.25	385.25	389.50	392.00	392.00	385.75	389.00	390.50	388.25	392.50	395.00	399.00	400.75	382.75	386.75	389.75	390.00	383.75	384.00	383.50	390.50	393.50	394.00	390.25	387.75	380.00	385.25	384.75	379.75	379.25	380.75	389.00	389.00	392.50	386.25	390.50	397.50	386.25	387.25	387.75	390.75	400.00	400.00	402.50	404.25	401.75	394.50	391.25	398.25	398.00	388.25	391.75	403.75	403.25	396.00
383.75	383.50	386.50	384.75	381.75	380.75	381.50	380.75	386.50	382.00	385.75	389.75	388.00	388.50	393.75	401.50	409.50	406.00	405.50	408.25	407.50	408.00	400.75	393.50	394.25	397.75	401.25	417.50	421.25	418.75	414.50	412.00	416.50	420.75	423.75	427.25	426.00	427.75	429.25	428.00	424.00	423.75	439.50	445.25	429.00	424.75	419.75	416.50	419.00	415.00	406.25	405.25	411.75	417.50	423.75	423.00	427.00	432.25	433.25	433.25	439.50	447.50	448.00	448.00	439.75	432.75	426.75	412.50	401.00	395.00	404.25	411.75	418.00	416.75	410.00	412.75	393.25	395.25	394.75	401.50	399.25	405.00	403.50	400.00	406.75	414.75	417.00	408.00	418.75	423.75	410.50	400.75	401.25	399.75	404.75	408.25	411.25	407.75	398.50	399.00	395.25	398.75	401.50	409.25	407.50	398.00	401.50	405.00	406.75	406.00	405.50	406.50	396.00	396.25	399.25	414.00	400.50	402.00	404.25	399.50	401.25	389.75	390.50	382.00	384.25	386.50	385.50	383.75	387.50	390.25	384.75	384.00	385.50	385.00	386.75	392.50	396.75	402.25	396.75	398.75	401.75	406.00	410.25	414.00	407.50	405.75	403.25	405.00	402.50	401.00	401.00	412.25	413.75	408.50	407.75	406.25	402.75	397.00	398.00	395.75	392.00	380.00	382.00	387.50	394.50	392.25	385.75	383.75	384.00	391.00	392.00	387.50	385.50	391.00	399.75	399.50	399.00	403.50	404.25	400.50	397.50	392.50	399.25	405.25	397.50	392.75	402.25	395.25	401.75	400.25	400.25	400.00	395.50	389.00	389.50	389.75	394.00	403.75	394.50	390.25	380.00	385.75	391.75	393.25	388.75	386.00	387.25	391.50	386.75	385.00	387.75	396.00	392.25	383.75	386.50	390.00	390.00	380.75	387.00	387.00	393.75	396.25	390.50	386.75	382.25	380.00	382.00	379.75	381.75	379.25	379.00	387.00	386.00	383.75	381.75	384.00	391.00	388.75	388.25	388.50	391.75	393.50	393.00	397.25	395.50	397.50	399.25	402.50	406.00	402.00	394.75	387.50	389.50	397.00	394.75	394.00
377.00	373.50	373.25	374.25	376.25	381.25	387.50	392.75	391.50	384.50	390.75	393.75	395.00	397.00	398.75	395.75	388.25	388.50	387.00	389.75	391.50	389.25	389.00	390.50	391.50	394.25	396.50	401.25	409.25	408.00	407.50	409.25	412.25	410.00	410.75	412.75	414.50	418.50	430.00	435.50	427.50	430.25	424.25	423.00	420.50	425.50	419.50	418.50	412.75	407.00	409.25	410.50	411.75	419.75	424.25	427.25	429.00	431.50	437.25	444.00	449.25	451.00	449.00	438.25	435.50	421.25	404.25	394.75	393.50	401.75	409.00	410.75	411.00	408.50	402.00	402.00	403.50	401.00	400.50	401.00	400.25	393.50	390.50	405.75	414.75	410.25	403.00	400.25	403.00	399.75	407.50	395.75	398.25	400.00	399.50	400.00	401.00	407.25	404.00	400.00	404.50	407.25	405.75	400.00	413.75	404.00	397.50	390.00	391.75	398.25	402.00	394.75	390.75	388.00	402.75	408.00	398.75	399.25	393.25	397.25	390.50	386.25	388.75	391.25	402.50	401.00	394.00	394.25	399.25	401.00	392.00	384.75	387.75	391.50	396.25	401.75	395.75	392.00	392.50	393.25	399.00	400.75	403.00	403.50	396.75	400.25	398.50	401.00	402.50	398.25	399.75	404.00	401.75	400.75	401.50	405.50	406.50	401.75	401.25	397.50	390.75	381.50	378.75	379.50	382.75	387.25	387.00	382.50	379.75	381.00	383.50	383.75	383.50	387.50	386.50	389.25	389.25	398.25	391.75	391.75	385.75	395.25	395.25	397.75	389.25	394.00	391.75	394.50	398.50	401.00	394.75	395.25	396.00	395.25	387.75	385.75	389.50	388.50	381.50	382.25	390.50	389.50	400.50	395.00	388.25	389.00	392.25	390.00	384.50	383.25	387.00	390.25	383.00	378.75	384.50	381.75	383.75	389.75	386.75	386.75	395.00	396.25	396.00	386.75	389.50	398.50	393.25	397.00	387.50	379.50	383.00	386.25	387.50	384.50	384.25	388.50	389.25	393.75	388.50	385.00	387.50	386.50	391.50	393.00	395.50	400.00	402.25	399.50	398.50	400.00	406.00	407.00	401.25	394.50	392.75	387.00
381.50	387.00	387.00	383.50	386.00	399.50	404.50	397.00	400.50	383.50	382.00	374.00	376.50	373.50	377.00	384.00	391.00	399.50	396.00	398.00	400.50	400.00	406.00	406.00	401.50	403.50	409.00	407.00	410.50	414.50	416.50	427.50	435.00	438.00	438.00	433.50	420.00	424.50	420.50	415.50	415.00	418.00	419.00	424.00	420.00	416.00	412.50	409.50	420.00	417.50	420.00	418.00	417.50	432.00	438.00	441.50	437.00	440.00	442.00	442.00	441.50	444.50	438.50	440.50	434.00	404.50	396.00	393.50	396.50	404.00	408.50	419.00	412.00	406.50	409.50	415.50	415.50	417.00	404.50	396.50	388.00	387.00	389.50	389.50	392.50	394.00	401.00	403.50	408.50	410.00	398.50	395.00	402.00	405.50	401.50	401.00	397.00	409.50	406.50	412.00	419.00	414.50	407.00	403.00	402.00	395.50	389.50	386.00	399.50	402.50	394.50	391.50	393.00	387.50	388.00	395.50	395.00	398.50	393.00	399.50	383.50	387.50	374.00	388.50	405.00	407.50	395.00	396.00	394.00	391.50	390.50	384.00	388.00	399.50	404.50	394.50	389.00	396.00	394.00	396.50	398.50	399.50	399.50	399.50	393.00	396.50	397.00	400.50	400.00	396.50	399.50	404.50	400.00	396.50	400.00	403.00	403.50	406.50	405.00	398.50	385.00	379.50	382.00	380.50	376.00	390.00	382.00	375.50	375.50	381.50	387.00	390.00	393.50	390.50	387.00	377.00	378.50	391.00	385.00	388.00	388.50	392.50	391.00	393.00	389.00	397.50	394.00	392.00	395.50	391.50	391.00	394.50	397.50	396.50	387.00	400.00	396.00	388.50	382.50	388.50	391.50	392.00	393.00	387.50	382.50	390.00	388.50	385.00	389.50	390.50	383.50	385.50	378.00	384.50	382.00	383.00	382.50	395.00	392.50	397.50	414.50	406.50	391.50	392.00	394.50	394.00	382.00	382.50	380.00	386.00	397.00	393.50	393.00	394.00	401.00	394.00	396.00	394.50	387.50	394.00	393.50	386.00	390.50	394.00	395.50	409.50	404.50	396.50	396.00	404.50	397.00	397.00	399.00	400.50	395.50	393.00
387.75	395.25	389.50	386.25	388.50	390.25	384.75	375.50	374.00	372.75	372.00	378.50	381.00	385.50	391.00	398.75	405.75	410.25	414.00	413.50	411.50	415.25	416.50	417.50	415.25	413.00	415.50	419.00	424.75	428.25	428.75	435.75	442.25	450.00	449.00	446.00	438.50	440.00	446.75	448.00	434.00	429.75	427.00	425.25	423.50	418.75	413.75	410.25	411.25	413.75	419.75	422.25	423.50	430.75	439.75	443.00	445.75	442.00	439.75	440.25	440.25	438.00	433.50	425.75	416.00	399.50	396.25	401.25	405.50	408.75	409.25	408.50	405.00	405.00	426.00	426.75	417.25	405.75	398.75	395.00	393.75	393.75	389.00	387.00	388.00	394.50	406.50	400.25	405.00	398.50	398.25	394.00	395.50	396.25	393.25	395.75	403.50	405.50	401.75	403.75	406.75	402.25	402.50	409.50	407.25	408.50	398.00	393.25	393.75	398.50	392.50	392.25	391.50	390.00	392.00	391.75	388.50	383.50	388.75	390.75	384.75	391.25	383.75	385.25	400.25	401.50	387.75	387.25	387.50	388.50	389.50	388.00	390.75	399.75	395.75	392.25	391.75	391.25	395.75	394.75	394.25	391.75	391.00	391.75	394.50	403.25	408.50	405.50	394.25	392.25	397.00	405.50	401.50	396.50	395.50	399.00	395.00	390.75	383.75	377.75	378.75	379.50	382.50	384.25	383.75	384.25	381.00	374.50	377.00	383.00	386.25	390.50	391.75	383.25	379.00	380.50	377.75	378.25	377.00	378.00	382.50	379.50	387.25	387.75	388.75	392.75	389.00	387.75	385.50	393.00	392.75	394.00	391.25	395.75	395.75	386.00	382.25	382.25	385.75	389.00	393.50	392.25	389.50	388.00	386.00	389.00	384.00	385.50	387.75	387.25	388.25	381.50	378.75	392.25	387.00	385.50	385.75	400.50	403.75	412.25	408.75	395.25	397.25	391.25	386.25	379.75	380.00	384.25	387.50	397.00	398.25	394.50	403.50	400.25	403.00	399.50	403.50	393.75	393.25	395.25	394.50	395.25	388.25	386.75	390.50	391.50	390.25	387.75	387.50	391.25	390.25	393.75	394.25	395.25	387.75	390.00
380.50	376.25	377.50	383.75	378.25	372.00	373.25	372.75	373.25	383.50	389.00	397.50	400.75	400.00	395.25	404.50	412.25	405.25	403.75	402.50	408.50	420.75	413.25	415.00	413.75	432.00	427.00	431.75	422.25	427.25	427.75	434.75	438.00	441.25	450.50	453.75	441.25	442.50	441.75	441.25	442.25	438.00	433.00	434.25	433.75	428.00	431.75	426.75	424.50	423.25	424.25	424.25	429.75	434.50	430.25	436.50	440.00	438.25	439.00	437.75	440.75	442.00	429.00	407.00	395.25	397.00	402.00	400.50	394.00	394.50	396.75	395.75	397.75	401.50	413.00	414.50	408.75	398.25	397.75	404.25	415.50	405.50	404.25	408.75	407.25	405.00	394.00	390.00	389.50	387.00	387.25	387.00	389.00	391.75	391.75	397.25	403.75	400.75	402.75	407.00	410.50	415.50	418.00	419.75	415.75	405.00	401.25	398.25	399.75	393.75	392.25	391.75	392.25	390.50	394.25	392.50	391.25	398.75	394.00	386.75	385.50	384.25	388.00	372.50	390.00	389.75	381.00	383.50	382.25	380.50	386.00	388.25	386.00	382.50	383.50	386.50	394.00	398.75	395.00	384.00	382.25	380.00	382.50	392.50	398.75	404.75	414.00	408.00	389.50	390.50	393.25	393.75	390.50	392.00	393.50	390.50	385.50	375.25	375.00	375.25	375.25	378.50	382.75	388.00	391.50	383.50	383.50	382.50	378.00	383.75	383.50	382.75	387.50	383.75	379.75	379.50	377.00	377.25	378.25	379.00	382.00	379.25	377.50	377.25	378.00	381.00	387.00	391.25	393.25	390.75	386.50	378.25	378.75	382.50	379.25	385.75	388.00	390.50	388.75	394.25	390.50	387.00	388.00	390.25	394.25	388.00	385.50	385.50	389.00	392.75	398.50	385.25	388.25	389.50	380.25	381.75	405.25	414.75	411.75	402.75	390.00	388.75	391.75	381.00	379.00	379.75	392.50	388.75	390.25	397.50	396.00	404.00	403.75	398.75	400.75	403.00	392.50	387.75	389.50	391.00	389.50	399.00	393.75	383.75	387.75	390.50	392.50	394.00	393.75	394.50	392.50	391.25	396.00	392.50	392.25	400.50
384.50	382.50	382.00	384.75	383.25	382.00	384.50	388.25	385.50	393.00	397.25	401.00	401.75	401.50	406.75	408.50	406.75	410.50	397.50	403.00	405.50	411.00	408.50	406.00	409.00	426.00	420.75	427.50	420.75	428.25	428.75	434.25	439.25	439.00	445.75	451.50	441.00	439.50	439.50	439.75	445.00	441.50	437.50	441.00	440.75	431.75	431.75	431.00	429.75	431.00	436.25	435.50	436.50	439.75	438.00	442.25	444.50	449.25	445.25	438.75	442.50	432.25	414.25	400.50	401.00	404.75	407.75	406.50	400.25	398.00	398.25	398.00	400.50	402.50	404.50	409.50	409.00	404.50	403.00	409.75	410.75	406.00	411.50	418.75	416.50	413.00	398.25	396.75	397.00	395.00	394.75	392.00	393.25	394.75	393.75	399.00	403.00	403.75	407.50	409.00	411.75	413.25	412.25	410.25	406.25	402.75	400.25	397.00	397.50	392.75	390.50	391.50	391.00	390.25	392.00	389.50	388.25	391.00	394.25	385.75	382.25	385.25	387.25	371.00	384.25	383.25	377.50	377.25	375.50	374.50	378.75	382.50	381.00	377.25	378.25	384.00	390.00	385.75	383.00	382.00	379.25	380.75	379.25	388.00	395.75	400.00	406.75	403.00	388.25	387.50	388.25	386.25	386.25	387.00	387.00	388.00	383.00	375.00	375.00	376.25	376.75	378.25	385.00	388.25	389.25	387.75	389.25	388.75	385.25	390.50	386.25	380.75	382.75	382.50	379.25	378.25	377.00	378.00	386.25	383.75	384.25	378.50	379.00	378.50	378.00	381.00	384.75	391.00	390.75	385.25	381.50	380.25	384.75	383.25	387.50	399.00	400.50	395.25	391.75	394.75	386.25	386.25	399.25	395.75	398.50	390.75	388.75	389.00	390.25	406.25	398.00	388.25	391.00	392.00	380.00	389.00	406.50	421.00	413.75	398.50	390.50	392.50	389.25	380.50	384.75	394.75	399.75	398.75	395.75	395.00	397.50	401.50	396.00	401.00	403.25	400.00	396.50	397.25	393.50	392.50	392.75	394.00	390.75	388.25	387.75	388.50	391.25	390.75	389.00	391.00	390.25	391.75	390.75	395.25	396.25	399.50
392.50	393.00	391.75	392.00	393.25	395.25	399.00	402.75	395.50	397.00	397.75	400.00	398.50	404.50	414.00	411.50	404.00	413.00	399.00	407.00	409.50	407.50	404.25	402.75	406.00	409.25	411.50	419.50	419.25	424.50	425.75	432.00	437.00	437.25	439.75	441.25	441.00	438.75	440.25	440.75	446.00	451.75	452.75	447.75	443.00	438.75	431.50	427.00	428.25	435.75	444.75	446.00	448.75	447.25	445.25	445.00	450.75	455.75	449.00	440.50	438.50	419.00	403.00	403.00	409.25	413.75	413.75	414.25	411.00	407.50	407.75	407.25	406.25	407.00	407.25	412.00	418.50	412.50	406.50	409.00	409.75	407.75	412.00	414.25	416.00	413.00	405.00	404.50	406.00	404.25	406.00	400.25	399.25	396.50	396.00	397.75	403.25	407.75	410.25	408.50	410.50	406.50	404.00	407.50	401.00	404.75	397.25	394.25	392.00	392.25	392.00	395.00	391.25	390.75	390.00	386.50	384.50	385.75	389.50	389.00	384.25	387.75	384.50	377.75	380.25	377.50	372.00	370.25	371.25	367.75	372.25	376.50	373.75	370.00	374.75	379.75	380.50	375.50	376.25	381.25	380.50	384.25	378.75	383.25	389.75	394.50	400.75	393.50	385.75	382.50	383.75	385.00	386.25	384.75	385.75	388.00	379.00	375.00	375.50	376.25	381.25	385.75	389.50	392.50	388.75	390.00	395.50	389.75	391.25	398.50	395.50	383.75	379.00	379.25	381.00	377.25	377.00	381.00	391.50	385.50	381.00	379.00	383.25	385.50	380.75	377.75	383.75	385.50	382.25	379.75	380.00	385.50	398.25	389.00	399.00	408.00	408.75	403.75	391.00	390.00	385.25	391.50	408.00	403.00	400.50	394.50	394.25	390.50	397.50	416.25	393.75	392.50	393.50	397.50	382.75	396.00	404.75	418.50	415.25	392.75	397.00	390.00	384.50	383.25	393.25	407.50	404.50	404.50	396.00	394.75	399.75	395.50	397.00	401.25	399.50	398.25	400.75	405.00	398.00	395.50	400.25	394.25	388.00	391.00	390.00	387.25	386.25	384.25	387.25	387.00	387.25	392.50	394.50	399.00	399.50	402.25
398.50	399.50	400.00	389.00	400.50	405.00	400.00	392.75	397.75	398.25	399.25	392.50	400.50	399.75	403.50	401.75	397.25	402.75	400.25	409.50	411.75	408.00	405.50	410.50	413.00	409.25	408.25	409.75	410.25	412.50	419.00	427.50	425.75	433.00	437.25	433.25	440.50	440.75	442.75	445.50	447.25	448.50	451.75	442.75	435.00	436.00	436.75	431.00	434.75	430.25	433.00	439.00	447.00	444.75	442.75	446.50	452.25	448.25	441.75	433.25	417.75	410.75	404.25	414.25	422.00	426.25	423.50	429.00	425.50	419.25	416.00	413.25	416.50	417.25	417.75	420.50	416.00	410.50	415.50	413.00	412.00	413.00	416.50	412.50	411.50	409.50	415.00	407.50	407.50	409.50	407.75	407.25	406.75	399.50	400.00	405.75	405.50	406.50	405.75	413.00	416.00	415.75	416.25	414.25	407.50	406.00	403.50	403.00	400.25	402.25	401.75	397.50	387.50	387.75	387.25	387.75	389.50	386.25	388.50	382.75	383.00	380.00	382.50	382.50	383.75	374.25	375.00	373.75	366.25	364.50	365.00	361.75	360.75	366.50	369.75	374.25	374.75	374.75	375.50	398.75	394.00	394.25	383.50	378.00	379.50	385.75	388.75	384.75	383.00	379.75	382.50	384.50	386.25	385.25	385.75	375.75	375.00	375.25	375.00	377.50	389.75	393.75	390.75	397.50	398.25	394.25	394.25	398.50	398.50	402.75	397.25	393.75	389.00	378.00	379.25	382.50	378.50	386.50	390.25	388.75	395.75	389.25	380.00	381.75	380.75	377.25	380.75	380.00	380.00	390.00	391.00	392.25	399.25	394.00	402.25	399.00	404.00	403.00	395.25	391.75	395.50	400.50	396.00	396.50	410.75	406.25	396.75	387.50	402.50	393.00	385.25	390.50	397.75	382.50	389.00	396.25	400.75	404.75	415.00	388.50	379.25	379.00	388.00	396.50	401.25	396.75	396.75	390.50	393.25	394.25	404.00	397.00	395.50	396.50	398.75	399.25	398.75	403.25	392.25	395.00	389.00	386.00	383.75	388.25	392.50	390.50	390.75	385.00	397.75	393.75	391.50	403.00	410.75	412.50	415.25	411.50
402.25	400.25	395.00	384.75	400.00	403.75	400.25	396.75	400.00	397.50	397.00	394.25	397.25	397.50	399.00	401.00	402.00	408.00	402.00	409.50	411.00	406.50	405.75	413.50	415.50	411.50	414.25	417.50	415.25	414.00	415.00	420.00	419.50	425.50	433.25	432.75	438.00	443.00	449.25	451.00	449.25	448.50	448.75	442.50	436.50	440.25	441.75	437.25	435.75	434.00	436.50	438.75	439.25	441.25	441.25	448.50	451.75	448.00	437.75	423.00	411.50	406.25	408.25	417.25	422.50	421.25	422.75	427.75	422.75	425.00	427.75	427.50	425.50	424.75	419.75	418.25	417.50	413.00	413.00	411.00	414.50	416.25	420.25	412.00	410.25	414.00	416.00	407.50	413.00	417.50	407.50	405.00	401.75	396.75	400.00	403.75	404.25	406.50	411.00	423.50	418.75	415.00	414.00	410.25	406.50	406.50	407.00	407.50	402.00	405.50	396.75	390.50	384.00	383.50	382.75	388.25	390.25	390.75	390.25	384.50	387.00	380.50	380.75	380.25	381.00	370.50	372.00	366.75	369.25	364.25	362.50	360.50	361.00	366.75	368.50	370.25	372.25	373.50	377.50	393.25	393.75	389.50	382.00	378.00	376.25	379.25	390.75	392.50	382.25	382.25	387.50	386.25	389.00	385.25	381.00	375.00	375.75	377.50	376.50	377.25	388.75	393.50	393.50	396.75	397.00	396.50	398.75	403.25	404.25	403.50	395.00	392.50	387.25	378.75	385.25	385.25	387.00	384.75	387.25	391.25	396.25	393.25	390.75	383.75	378.50	377.50	382.25	385.75	381.75	390.50	393.75	390.75	385.50	401.00	409.75	394.25	400.50	400.25	393.00	389.75	396.50	403.50	393.00	397.25	416.25	403.75	393.75	387.00	397.00	391.00	385.75	387.50	394.00	378.25	388.00	394.50	391.25	400.75	401.50	382.25	379.00	379.50	394.00	395.00	400.75	395.50	391.50	392.25	397.00	399.00	405.25	398.50	396.75	394.75	398.75	398.25	403.75	406.75	398.00	403.75	385.25	383.75	385.00	389.00	389.25	389.50	398.25	394.25	398.25	397.00	393.25	400.50	407.75	405.25	410.50	408.50
398.00	400.50	392.50	387.25	397.50	402.50	403.50	402.75	400.25	399.75	398.00	397.75	398.25	398.75	401.25	403.50	408.00	410.00	411.75	417.50	420.00	412.75	409.25	419.25	422.50	420.50	423.50	423.75	423.50	424.25	419.25	418.75	421.25	420.50	424.00	426.25	431.75	440.75	448.50	452.00	451.75	458.75	450.50	444.00	440.00	446.25	447.25	441.00	436.75	440.00	445.00	445.00	440.00	442.25	441.25	446.50	451.50	448.75	430.50	411.00	401.25	401.00	415.00	415.75	421.00	421.25	424.25	429.50	427.25	434.50	439.00	440.00	439.75	437.50	433.75	430.50	427.75	422.25	420.00	414.00	421.50	422.25	423.00	409.50	411.25	415.00	412.25	408.00	411.00	417.50	409.00	401.75	396.75	395.00	401.50	403.75	410.25	414.50	420.00	423.00	416.75	411.75	407.75	408.00	409.50	410.00	410.50	409.50	403.00	402.00	391.00	389.75	388.25	385.25	383.00	387.75	389.25	390.50	385.00	385.25	387.50	388.75	378.75	380.00	379.75	369.00	369.50	370.50	372.25	367.75	366.00	366.50	372.00	378.75	376.75	373.75	373.50	375.00	377.00	381.25	390.00	389.75	383.75	381.25	378.50	384.00	397.25	398.50	385.25	385.75	392.25	391.00	384.75	381.25	378.50	381.25	383.75	380.75	380.00	380.50	389.00	395.75	400.50	400.75	401.25	401.75	409.25	401.75	402.75	395.75	392.75	394.50	381.25	378.25	384.75	387.50	387.75	380.50	383.00	389.75	392.75	392.75	390.25	382.75	383.50	385.25	384.75	386.25	390.75	396.25	394.25	387.00	380.00	407.50	407.00	401.50	405.25	405.25	387.50	387.50	391.25	399.75	397.75	401.75	406.75	400.50	394.50	390.25	394.50	395.75	387.25	391.75	392.50	384.25	397.00	399.50	391.50	394.25	386.50	380.50	379.25	383.25	394.25	395.75	402.50	394.00	391.25	393.75	393.75	401.00	400.25	397.25	400.25	398.50	396.75	401.50	411.25	405.50	403.00	401.50	396.75	402.75	402.50	399.25	394.00	390.25	398.25	395.50	395.00	393.50	392.25	400.75	400.25	404.50	408.00	407.50
