3137.00	3137.00	3137.00	3137.00	3137.00	3137.00	3137.00	3137.00	3137.00	3137.00	3137.00	3137.00	3137.00	3138.00	3138.00	3138.00	3138.00	3138.50	3139.00	3139.00	3139.00	3139.00	3140.00	3140.00	3140.00	3140.00	3141.00	3142.00	3143.00	3143.00	3143.50	3144.00	3144.50	3145.00	3145.00	3145.00	3145.00	3144.50	3144.00	3144.00	3144.00	3144.00	3144.00	3144.00	3143.00	3143.00	3143.00	3143.00	3143.00	3143.00	3143.00	3143.00	3143.00	3143.00	3143.00	3143.00	3143.00	3143.00	3144.00	3144.00	3144.00	3144.00	3144.00	3144.00	3144.00	3144.00	3144.00	3144.00	3144.00	3144.00	3144.00	3144.00	3145.00	3145.00	3145.00	3145.00	3145.00	3145.00	3145.00	3145.00	3145.00	3146.00	3146.00	3146.00	3146.00	3146.00	3146.00	3146.00	3146.00	3146.00	3146.00	3146.00	3146.00	3145.50	3145.00	3145.50	3145.00	3145.00	3145.00	3145.00	3145.00	3145.00	3145.00	3145.00	3146.00	3146.00	3146.00	3145.00	3145.00	3145.00	3144.00	3144.00	3144.00	3144.00	3144.00	3144.00	3144.00	3144.00	3144.00	3144.00	3144.00	3144.00	3143.00	3143.00	3143.00	3143.00	3143.00	3143.00	3143.00	3143.00	3143.50	3144.00	3144.00	3144.00	3144.00	3145.00	3145.00	3145.00	3145.00	3145.00	3145.00	3145.00	3145.00	3145.00	3146.00	3146.00	3146.00	3146.50	3148.00	3148.50	3149.00	3150.00	3150.50	3152.00	3152.00	3153.00	3153.00	3154.00	3154.00	3154.00	3154.00	3154.50	3155.00	3155.00	3155.00	3155.00	3155.00	3155.00	3155.00	3156.00	3156.00	3156.50	3157.00	3157.00	3157.50	3158.00	3158.00	3158.00	3158.00	3158.50	3159.00	3159.00	3159.00	3159.00	3159.00	3159.00	3159.00	3159.00	3159.00	3159.00	3159.00	3159.00	3159.00	3159.00	3159.00	3159.00	3159.50	3160.00	3160.00	3160.00	3160.00	3160.00	3160.00	3160.00	3160.00	3161.00	3161.00	3161.00	3161.00	3161.00	3161.00	3161.00	3161.00	3161.00	3160.00	3160.00	3160.00	3160.00	3159.50	3159.00	3159.00	3159.50	3160.00	3160.00	3160.00	3160.50	3161.00	3161.00	3161.00	3162.00	3162.00	3162.00	3162.00	3162.00	3162.00	3162.00	3163.00	3163.00	3163.00	3163.00	3163.00	3163.00	3163.00	3163.00	3163.00	3163.00	3162.50	3162.00	3162.00	3162.00	3162.00	3162.00	3162.00	3161.50	3161.00	3161.00
3137.00	3137.00	3137.00	3137.00	3137.00	3137.00	3137.00	3137.00	3137.00	3137.00	3137.00	3137.00	3137.00	3138.00	3138.00	3138.00	3138.00	3138.50	3139.00	3139.00	3139.00	3139.00	3140.00	3140.00	3140.00	3140.00	3141.00	3142.00	3143.00	3143.00	3143.50	3144.00	3144.50	3145.00	3145.00	3145.00	3145.00	3144.50	3144.00	3144.00	3144.00	3144.00	3144.00	3144.00	3143.00	3143.00	3143.00	3143.00	3143.00	3143.00	3143.00	3143.00	3143.00	3143.00	3143.00	3143.00	3143.00	3143.00	3144.00	3144.00	3144.00	3144.00	3144.00	3144.00	3144.00	3144.00	3144.00	3144.00	3144.00	3144.00	3144.00	3144.00	3145.00	3145.00	3145.00	3145.00	3145.00	3145.00	3145.00	3145.00	3145.00	3146.00	3146.00	3146.00	3146.00	3146.00	3146.00	3146.00	3146.00	3146.00	3146.00	3146.00	3146.00	3145.50	3145.00	3145.50	3145.00	3145.00	3145.00	3145.00	3145.00	3145.00	3145.00	3145.00	3146.00	3146.00	3146.00	3145.00	3145.00	3145.00	3144.00	3144.00	3144.00	3144.00	3144.00	3144.00	3144.00	3144.00	3144.00	3144.00	3144.00	3144.00	3143.00	3143.00	3143.00	3143.00	3143.00	3143.00	3143.00	3143.00	3143.50	3144.00	3144.00	3144.00	3144.00	3145.00	3145.00	3145.00	3145.00	3145.00	3145.00	3145.00	3145.00	3145.00	3146.00	3146.00	3146.00	3146.50	3148.00	3148.50	3149.00	3150.00	3150.50	3152.00	3152.00	3153.00	3153.00	3154.00	3154.00	3154.00	3154.00	3154.50	3155.00	3155.00	3155.00	3155.00	3155.00	3155.00	3155.00	3156.00	3156.00	3156.50	3157.00	3157.00	3157.50	3158.00	3158.00	3158.00	3158.00	3158.50	3159.00	3159.00	3159.00	3159.00	3159.00	3159.00	3159.00	3159.00	3159.00	3159.00	3159.00	3159.00	3159.00	3159.00	3159.00	3159.00	3159.50	3160.00	3160.00	3160.00	3160.00	3160.00	3160.00	3160.00	3160.00	3161.00	3161.00	3161.00	3161.00	3161.00	3161.00	3161.00	3161.00	3161.00	3160.00	3160.00	3160.00	3160.00	3159.50	3159.00	3159.00	3159.50	3160.00	3160.00	3160.00	3160.50	3161.00	3161.00	3161.00	3162.00	3162.00	3162.00	3162.00	3162.00	3162.00	3162.00	3163.00	3163.00	3163.00	3163.00	3163.00	3163.00	3163.00	3163.00	3163.00	3163.00	3162.50	3162.00	3162.00	3162.00	3162.00	3162.00	3162.00	3161.50	3161.00	3161.00
3137.50	3137.50	3137.50	3137.50	3137.50	3137.50	3137.50	3137.50	3137.50	3137.50	3137.50	3137.50	3137.50	3138.00	3138.25	3138.50	3138.50	3138.75	3139.00	3139.50	3139.50	3139.50	3140.50	3140.50	3140.75	3141.00	3141.50	3142.50	3143.00	3143.50	3143.75	3144.25	3144.75	3145.25	3145.50	3145.50	3145.50	3145.25	3145.00	3144.75	3144.50	3144.50	3144.00	3143.50	3143.00	3143.00	3143.00	3143.00	3143.00	3143.00	3143.00	3143.00	3143.00	3143.00	3143.00	3143.00	3143.00	3143.50	3144.00	3144.00	3144.00	3144.00	3144.00	3144.00	3144.00	3144.00	3144.00	3144.00	3144.00	3144.25	3144.50	3144.50	3145.00	3145.00	3145.00	3145.00	3145.00	3145.00	3145.25	3145.50	3145.50	3146.00	3146.00	3146.00	3146.00	3146.00	3146.00	3146.00	3146.00	3146.00	3146.00	3146.00	3146.00	3145.75	3145.50	3145.75	3145.50	3145.50	3145.50	3145.50	3145.50	3145.50	3145.50	3145.50	3146.00	3146.50	3146.50	3145.75	3145.50	3145.50	3145.00	3145.00	3144.50	3144.50	3144.50	3144.25	3144.00	3144.00	3144.00	3144.00	3144.00	3144.00	3143.00	3143.00	3143.00	3143.00	3143.00	3143.00	3143.00	3143.00	3143.75	3144.00	3144.00	3144.25	3144.50	3145.00	3145.00	3145.00	3145.00	3145.00	3145.25	3145.50	3145.50	3145.50	3146.00	3146.50	3146.50	3147.00	3148.25	3148.75	3149.25	3150.50	3151.00	3152.00	3152.00	3153.00	3153.00	3154.00	3154.25	3154.50	3154.50	3154.75	3155.25	3155.50	3155.50	3155.50	3155.50	3155.50	3155.50	3156.00	3156.25	3156.75	3157.25	3157.50	3157.75	3158.00	3158.50	3158.50	3158.50	3158.75	3159.25	3159.50	3159.50	3159.50	3159.50	3159.50	3159.50	3159.50	3159.50	3159.50	3159.50	3159.50	3159.50	3159.75	3160.00	3160.00	3160.00	3160.00	3160.50	3160.50	3160.50	3160.50	3160.75	3161.00	3161.00	3161.50	3161.25	3161.00	3161.00	3161.00	3161.00	3160.50	3160.50	3160.50	3160.00	3159.75	3159.50	3159.50	3159.25	3159.00	3159.00	3159.25	3159.50	3160.00	3160.25	3160.75	3161.00	3161.00	3161.25	3162.00	3162.00	3162.00	3162.00	3162.50	3162.50	3162.50	3163.00	3163.50	3163.50	3163.50	3163.50	3163.50	3163.50	3163.50	3163.50	3163.50	3163.25	3163.00	3163.00	3162.50	3162.50	3162.50	3162.50	3161.75	3161.50	3161.50
3138.00	3138.00	3138.00	3138.00	3138.00	3138.00	3138.00	3138.00	3138.00	3138.00	3138.00	3138.00	3138.00	3138.00	3138.50	3139.00	3139.00	3139.00	3139.00	3140.00	3140.00	3140.00	3141.00	3141.00	3141.50	3142.00	3142.00	3143.00	3143.00	3144.00	3144.00	3144.50	3145.00	3145.50	3146.00	3146.00	3146.00	3146.00	3146.00	3145.50	3145.00	3145.00	3144.00	3143.00	3143.00	3143.00	3143.00	3143.00	3143.00	3143.00	3143.00	3143.00	3143.00	3143.00	3143.00	3143.00	3143.00	3144.00	3144.00	3144.00	3144.00	3144.00	3144.00	3144.00	3144.00	3144.00	3144.00	3144.00	3144.00	3144.50	3145.00	3145.00	3145.00	3145.00	3145.00	3145.00	3145.00	3145.00	3145.50	3146.00	3146.00	3146.00	3146.00	3146.00	3146.00	3146.00	3146.00	3146.00	3146.00	3146.00	3146.00	3146.00	3146.00	3146.00	3146.00	3146.00	3146.00	3146.00	3146.00	3146.00	3146.00	3146.00	3146.00	3146.00	3146.00	3147.00	3147.00	3146.50	3146.00	3146.00	3146.00	3146.00	3145.00	3145.00	3145.00	3144.50	3144.00	3144.00	3144.00	3144.00	3144.00	3144.00	3143.00	3143.00	3143.00	3143.00	3143.00	3143.00	3143.00	3143.00	3144.00	3144.00	3144.00	3144.50	3145.00	3145.00	3145.00	3145.00	3145.00	3145.00	3145.50	3146.00	3146.00	3146.00	3146.00	3147.00	3147.00	3147.50	3148.50	3149.00	3149.50	3151.00	3151.50	3152.00	3152.00	3153.00	3153.00	3154.00	3154.50	3155.00	3155.00	3155.00	3155.50	3156.00	3156.00	3156.00	3156.00	3156.00	3156.00	3156.00	3156.50	3157.00	3157.50	3158.00	3158.00	3158.00	3159.00	3159.00	3159.00	3159.00	3159.50	3160.00	3160.00	3160.00	3160.00	3160.00	3160.00	3160.00	3160.00	3160.00	3160.00	3160.00	3160.00	3160.50	3161.00	3161.00	3160.50	3160.00	3161.00	3161.00	3161.00	3161.00	3161.50	3162.00	3162.00	3162.00	3161.50	3161.00	3161.00	3161.00	3161.00	3160.00	3160.00	3160.00	3160.00	3159.50	3159.00	3159.00	3159.00	3159.00	3159.00	3159.00	3159.00	3160.00	3160.50	3161.00	3161.00	3161.00	3161.50	3162.00	3162.00	3162.00	3162.00	3163.00	3163.00	3163.00	3163.00	3164.00	3164.00	3164.00	3164.00	3164.00	3164.00	3164.00	3164.00	3164.00	3164.00	3164.00	3164.00	3163.00	3163.00	3163.00	3163.00	3162.00	3162.00	3162.00
3138.00	3138.25	3138.50	3138.50	3138.00	3138.00	3138.25	3138.50	3138.50	3138.50	3138.50	3138.50	3138.50	3138.50	3138.75	3139.25	3139.50	3139.50	3139.50	3140.50	3140.50	3140.75	3141.50	3141.75	3142.25	3142.50	3143.00	3143.50	3143.50	3144.50	3144.50	3145.00	3145.50	3145.75	3146.00	3146.00	3146.00	3146.00	3145.75	3145.25	3145.00	3144.50	3144.00	3143.00	3143.00	3143.00	3143.00	3142.50	3142.50	3142.50	3142.50	3142.75	3143.00	3143.00	3143.00	3143.00	3143.50	3144.00	3144.00	3144.00	3144.00	3144.00	3144.00	3144.00	3144.00	3144.50	3144.50	3144.50	3144.50	3144.75	3145.00	3145.00	3145.00	3145.00	3145.25	3145.50	3145.50	3145.50	3145.75	3146.00	3146.00	3146.00	3146.00	3146.00	3146.00	3146.00	3146.00	3146.00	3146.50	3146.50	3146.00	3146.00	3146.00	3146.00	3146.00	3146.00	3146.00	3146.50	3146.50	3146.50	3146.50	3146.50	3146.50	3146.50	3146.50	3147.00	3147.00	3146.75	3146.50	3146.50	3146.50	3146.00	3145.50	3145.50	3145.00	3144.75	3144.50	3144.25	3144.00	3144.00	3144.00	3144.00	3143.50	3143.50	3143.50	3143.50	3143.50	3143.50	3143.50	3143.50	3144.00	3144.00	3144.25	3144.75	3145.00	3145.00	3145.00	3145.25	3145.50	3145.50	3145.75	3146.00	3146.50	3146.50	3146.50	3147.00	3147.25	3147.75	3148.50	3149.00	3149.50	3151.00	3151.50	3152.00	3152.00	3153.00	3153.25	3154.00	3154.50	3155.00	3155.50	3155.50	3155.75	3156.00	3156.00	3156.00	3156.00	3156.00	3156.00	3156.00	3156.75	3157.00	3157.25	3158.00	3158.00	3158.00	3159.00	3159.00	3159.00	3159.25	3159.75	3160.00	3160.00	3160.00	3160.00	3160.00	3160.00	3160.00	3160.00	3160.00	3160.25	3160.50	3160.50	3160.75	3161.00	3161.50	3161.25	3161.00	3161.50	3161.50	3161.50	3162.00	3161.75	3162.00	3162.00	3162.00	3161.75	3161.50	3161.50	3161.25	3161.00	3160.25	3160.00	3160.00	3160.00	3159.50	3159.00	3159.00	3159.00	3159.00	3159.00	3159.50	3159.50	3160.00	3160.75	3161.00	3161.25	3161.50	3161.75	3162.00	3162.50	3162.50	3162.50	3163.50	3163.50	3163.50	3163.50	3164.00	3164.50	3164.50	3164.00	3164.00	3164.00	3164.00	3164.00	3164.00	3164.00	3164.00	3164.00	3163.50	3163.50	3163.50	3163.50	3163.00	3162.50	3162.50
3138.00	3138.50	3139.00	3139.00	3138.00	3138.00	3138.50	3139.00	3139.00	3139.00	3139.00	3139.00	3139.00	3139.00	3139.00	3139.50	3140.00	3140.00	3140.00	3141.00	3141.00	3141.50	3142.00	3142.50	3143.00	3143.00	3144.00	3144.00	3144.00	3145.00	3145.00	3145.50	3146.00	3146.00	3146.00	3146.00	3146.00	3146.00	3145.50	3145.00	3145.00	3144.00	3144.00	3143.00	3143.00	3143.00	3143.00	3142.00	3142.00	3142.00	3142.00	3142.50	3143.00	3143.00	3143.00	3143.00	3144.00	3144.00	3144.00	3144.00	3144.00	3144.00	3144.00	3144.00	3144.00	3145.00	3145.00	3145.00	3145.00	3145.00	3145.00	3145.00	3145.00	3145.00	3145.50	3146.00	3146.00	3146.00	3146.00	3146.00	3146.00	3146.00	3146.00	3146.00	3146.00	3146.00	3146.00	3146.00	3147.00	3147.00	3146.00	3146.00	3146.00	3146.00	3146.00	3146.00	3146.00	3147.00	3147.00	3147.00	3147.00	3147.00	3147.00	3147.00	3147.00	3147.00	3147.00	3147.00	3147.00	3147.00	3147.00	3146.00	3146.00	3146.00	3145.00	3145.00	3145.00	3144.50	3144.00	3144.00	3144.00	3144.00	3144.00	3144.00	3144.00	3144.00	3144.00	3144.00	3144.00	3144.00	3144.00	3144.00	3144.50	3145.00	3145.00	3145.00	3145.00	3145.50	3146.00	3146.00	3146.00	3146.00	3147.00	3147.00	3147.00	3147.00	3147.50	3148.00	3148.50	3149.00	3149.50	3151.00	3151.50	3152.00	3152.00	3153.00	3153.50	3154.00	3154.50	3155.00	3156.00	3156.00	3156.00	3156.00	3156.00	3156.00	3156.00	3156.00	3156.00	3156.00	3157.00	3157.00	3157.00	3158.00	3158.00	3158.00	3159.00	3159.00	3159.00	3159.50	3160.00	3160.00	3160.00	3160.00	3160.00	3160.00	3160.00	3160.00	3160.00	3160.00	3160.50	3161.00	3161.00	3161.00	3161.00	3162.00	3162.00	3162.00	3162.00	3162.00	3162.00	3163.00	3162.00	3162.00	3162.00	3162.00	3162.00	3162.00	3162.00	3161.50	3161.00	3160.50	3160.00	3160.00	3160.00	3159.50	3159.00	3159.00	3159.00	3159.00	3159.00	3160.00	3160.00	3160.00	3161.00	3161.00	3161.50	3162.00	3162.00	3162.00	3163.00	3163.00	3163.00	3164.00	3164.00	3164.00	3164.00	3164.00	3165.00	3165.00	3164.00	3164.00	3164.00	3164.00	3164.00	3164.00	3164.00	3164.00	3164.00	3164.00	3164.00	3164.00	3164.00	3164.00	3163.00	3163.00
3138.00	3138.50	3139.00	3139.00	3138.00	3138.00	3138.50	3139.00	3139.00	3139.00	3139.00	3139.00	3139.00	3139.00	3139.00	3139.50	3140.00	3140.00	3140.00	3141.00	3141.00	3141.50	3142.00	3142.50	3143.00	3143.00	3144.00	3144.00	3144.00	3145.00	3145.00	3145.50	3146.00	3146.00	3146.00	3146.00	3146.00	3146.00	3145.50	3145.00	3145.00	3144.00	3144.00	3143.00	3143.00	3143.00	3143.00	3142.00	3142.00	3142.00	3142.00	3142.50	3143.00	3143.00	3143.00	3143.00	3144.00	3144.00	3144.00	3144.00	3144.00	3144.00	3144.00	3144.00	3144.00	3145.00	3145.00	3145.00	3145.00	3145.00	3145.00	3145.00	3145.00	3145.00	3145.50	3146.00	3146.00	3146.00	3146.00	3146.00	3146.00	3146.00	3146.00	3146.00	3146.00	3146.00	3146.00	3146.00	3147.00	3147.00	3146.00	3146.00	3146.00	3146.00	3146.00	3146.00	3146.00	3147.00	3147.00	3147.00	3147.00	3147.00	3147.00	3147.00	3147.00	3147.00	3147.00	3147.00	3147.00	3147.00	3147.00	3146.00	3146.00	3146.00	3145.00	3145.00	3145.00	3144.50	3144.00	3144.00	3144.00	3144.00	3144.00	3144.00	3144.00	3144.00	3144.00	3144.00	3144.00	3144.00	3144.00	3144.00	3144.50	3145.00	3145.00	3145.00	3145.00	3145.50	3146.00	3146.00	3146.00	3146.00	3147.00	3147.00	3147.00	3147.00	3147.50	3148.00	3148.50	3149.00	3149.50	3151.00	3151.50	3152.00	3152.00	3153.00	3153.50	3154.00	3154.50	3155.00	3156.00	3156.00	3156.00	3156.00	3156.00	3156.00	3156.00	3156.00	3156.00	3156.00	3157.00	3157.00	3157.00	3158.00	3158.00	3158.00	3159.00	3159.00	3159.00	3159.50	3160.00	3160.00	3160.00	3160.00	3160.00	3160.00	3160.00	3160.00	3160.00	3160.00	3160.50	3161.00	3161.00	3161.00	3161.00	3162.00	3162.00	3162.00	3162.00	3162.00	3162.00	3163.00	3162.00	3162.00	3162.00	3162.00	3162.00	3162.00	3162.00	3161.50	3161.00	3160.50	3160.00	3160.00	3160.00	3159.50	3159.00	3159.00	3159.00	3159.00	3159.00	3160.00	3160.00	3160.00	3161.00	3161.00	3161.50	3162.00	3162.00	3162.00	3163.00	3163.00	3163.00	3164.00	3164.00	3164.00	3164.00	3164.00	3165.00	3165.00	3164.00	3164.00	3164.00	3164.00	3164.00	3164.00	3164.00	3164.00	3164.00	3164.00	3164.00	3164.00	3164.00	3164.00	3163.00	3163.00
3139.00	3139.00	3139.00	3139.00	3139.00	3139.00	3139.00	3139.50	3139.50	3139.00	3139.00	3139.00	3140.00	3140.00	3140.00	3140.00	3140.00	3141.00	3141.00	3142.00	3142.00	3142.50	3143.00	3143.00	3143.50	3144.00	3144.00	3145.00	3145.00	3145.00	3145.50	3146.00	3146.00	3146.00	3146.00	3146.00	3146.00	3146.00	3145.00	3145.00	3144.50	3144.00	3143.50	3143.00	3143.00	3142.00	3142.00	3142.00	3142.00	3142.00	3142.00	3142.00	3142.50	3143.00	3143.50	3144.00	3144.00	3144.00	3144.00	3144.00	3144.00	3144.00	3144.50	3145.00	3145.00	3145.00	3145.00	3145.00	3145.00	3145.00	3145.00	3145.50	3146.00	3146.00	3146.00	3146.00	3146.00	3146.00	3146.00	3146.00	3146.50	3147.00	3147.00	3147.00	3147.00	3147.00	3147.00	3147.00	3147.00	3147.00	3147.00	3147.00	3147.00	3147.00	3147.00	3147.00	3147.00	3147.00	3147.00	3147.00	3147.00	3147.00	3147.50	3148.00	3148.00	3148.00	3148.00	3148.00	3148.00	3147.50	3147.00	3147.00	3147.00	3146.00	3146.00	3146.00	3145.50	3145.00	3145.00	3145.00	3145.00	3145.00	3145.00	3144.00	3144.00	3144.00	3144.00	3144.00	3144.00	3144.00	3145.00	3145.00	3145.00	3145.00	3145.50	3146.00	3146.00	3146.00	3147.00	3147.00	3147.00	3147.00	3147.00	3147.00	3148.00	3148.00	3148.50	3149.00	3149.50	3150.00	3150.50	3151.00	3151.50	3152.00	3153.00	3153.00	3153.50	3154.00	3155.00	3155.00	3155.00	3155.50	3156.00	3156.00	3156.00	3156.00	3156.00	3156.00	3156.00	3156.00	3157.00	3157.00	3157.00	3157.00	3158.00	3159.00	3159.00	3159.00	3159.00	3159.50	3160.00	3160.00	3160.00	3161.00	3161.00	3161.00	3161.00	3161.00	3161.00	3161.00	3161.00	3162.00	3162.00	3162.00	3162.00	3162.50	3163.00	3163.00	3163.00	3163.00	3164.00	3164.00	3164.00	3164.00	3164.00	3164.00	3164.00	3163.00	3163.00	3162.50	3162.00	3161.50	3161.00	3161.00	3161.00	3160.00	3160.00	3160.50	3161.00	3161.00	3161.00	3161.00	3161.00	3162.00	3162.00	3162.00	3162.50	3163.00	3163.00	3163.00	3164.00	3164.00	3165.00	3165.00	3165.00	3165.00	3165.00	3165.00	3165.00	3165.00	3166.00	3166.00	3165.50	3165.00	3165.00	3165.00	3165.00	3165.00	3165.00	3164.50	3164.00	3164.00	3164.00	3164.00	3164.00	3164.00
3139.00	3139.00	3139.00	3139.00	3139.50	3139.50	3139.50	3139.75	3139.75	3139.50	3139.50	3139.50	3140.50	3140.50	3140.50	3140.50	3140.50	3141.50	3141.50	3142.50	3142.50	3143.00	3143.50	3143.75	3144.25	3144.50	3144.50	3145.50	3145.50	3145.50	3145.75	3146.00	3146.00	3146.00	3146.00	3146.00	3145.50	3145.50	3144.75	3144.50	3144.00	3143.50	3143.25	3143.00	3143.00	3142.00	3142.00	3142.00	3142.00	3142.00	3142.50	3142.50	3142.75	3143.00	3143.75	3144.00	3144.00	3144.00	3144.25	3144.50	3144.50	3144.50	3144.75	3145.00	3145.00	3145.00	3145.00	3145.25	3145.50	3145.50	3145.50	3145.75	3146.00	3146.00	3146.00	3146.00	3146.25	3146.50	3146.50	3146.50	3146.75	3147.00	3147.00	3147.00	3147.00	3147.00	3147.00	3147.00	3147.00	3147.00	3147.00	3147.00	3147.00	3147.00	3147.00	3147.50	3147.50	3147.50	3147.50	3147.50	3147.50	3147.50	3147.75	3148.00	3148.00	3148.50	3148.50	3148.50	3148.50	3148.25	3148.00	3147.50	3147.50	3147.00	3146.50	3146.50	3146.25	3145.75	3145.50	3145.50	3145.50	3145.50	3145.50	3145.00	3145.00	3145.00	3145.00	3145.00	3144.50	3145.00	3145.50	3145.50	3145.50	3145.50	3145.75	3146.50	3146.50	3146.50	3147.00	3147.00	3147.00	3147.00	3147.00	3147.00	3148.00	3148.00	3148.75	3149.00	3149.75	3150.00	3150.50	3151.00	3151.50	3152.00	3153.00	3153.00	3153.50	3154.00	3154.50	3154.50	3155.00	3155.25	3155.50	3155.75	3156.00	3156.00	3156.00	3156.00	3156.00	3156.00	3157.00	3157.00	3157.00	3157.00	3158.00	3159.00	3159.00	3159.00	3159.00	3159.50	3160.00	3160.25	3160.50	3161.00	3161.00	3161.00	3161.00	3161.00	3161.25	3161.50	3161.50	3162.00	3162.00	3162.50	3162.50	3162.75	3163.00	3163.25	3163.50	3163.50	3164.00	3164.00	3164.50	3164.50	3164.50	3164.25	3164.00	3163.50	3163.50	3163.00	3162.50	3162.25	3162.00	3161.50	3161.50	3161.00	3161.00	3161.25	3161.50	3161.50	3161.50	3161.50	3162.00	3162.50	3162.75	3163.00	3163.25	3163.50	3163.75	3164.00	3164.50	3164.50	3165.50	3165.50	3165.50	3165.50	3165.50	3165.50	3165.50	3165.50	3166.00	3166.00	3165.75	3165.50	3165.25	3165.00	3165.00	3165.00	3165.00	3164.75	3164.50	3164.00	3164.00	3164.00	3164.00	3164.00
3139.00	3139.00	3139.00	3139.00	3140.00	3140.00	3140.00	3140.00	3140.00	3140.00	3140.00	3140.00	3141.00	3141.00	3141.00	3141.00	3141.00	3142.00	3142.00	3143.00	3143.00	3143.50	3144.00	3144.50	3145.00	3145.00	3145.00	3146.00	3146.00	3146.00	3146.00	3146.00	3146.00	3146.00	3146.00	3146.00	3145.00	3145.00	3144.50	3144.00	3143.50	3143.00	3143.00	3143.00	3143.00	3142.00	3142.00	3142.00	3142.00	3142.00	3143.00	3143.00	3143.00	3143.00	3144.00	3144.00	3144.00	3144.00	3144.50	3145.00	3145.00	3145.00	3145.00	3145.00	3145.00	3145.00	3145.00	3145.50	3146.00	3146.00	3146.00	3146.00	3146.00	3146.00	3146.00	3146.00	3146.50	3147.00	3147.00	3147.00	3147.00	3147.00	3147.00	3147.00	3147.00	3147.00	3147.00	3147.00	3147.00	3147.00	3147.00	3147.00	3147.00	3147.00	3147.00	3148.00	3148.00	3148.00	3148.00	3148.00	3148.00	3148.00	3148.00	3148.00	3148.00	3149.00	3149.00	3149.00	3149.00	3149.00	3149.00	3148.00	3148.00	3148.00	3147.00	3147.00	3147.00	3146.50	3146.00	3146.00	3146.00	3146.00	3146.00	3146.00	3146.00	3146.00	3146.00	3146.00	3145.00	3146.00	3146.00	3146.00	3146.00	3146.00	3146.00	3147.00	3147.00	3147.00	3147.00	3147.00	3147.00	3147.00	3147.00	3147.00	3148.00	3148.00	3149.00	3149.00	3150.00	3150.00	3150.50	3151.00	3151.50	3152.00	3153.00	3153.00	3153.50	3154.00	3154.00	3154.00	3155.00	3155.00	3155.00	3155.50	3156.00	3156.00	3156.00	3156.00	3156.00	3156.00	3157.00	3157.00	3157.00	3157.00	3158.00	3159.00	3159.00	3159.00	3159.00	3159.50	3160.00	3160.50	3161.00	3161.00	3161.00	3161.00	3161.00	3161.00	3161.50	3162.00	3162.00	3162.00	3162.00	3163.00	3163.00	3163.00	3163.00	3163.50	3164.00	3164.00	3164.00	3164.00	3165.00	3165.00	3165.00	3164.50	3164.00	3164.00	3164.00	3163.50	3163.00	3163.00	3163.00	3162.00	3162.00	3162.00	3162.00	3162.00	3162.00	3162.00	3162.00	3162.00	3163.00	3163.00	3163.50	3164.00	3164.00	3164.00	3164.50	3165.00	3165.00	3165.00	3166.00	3166.00	3166.00	3166.00	3166.00	3166.00	3166.00	3166.00	3166.00	3166.00	3166.00	3166.00	3165.50	3165.00	3165.00	3165.00	3165.00	3165.00	3165.00	3164.00	3164.00	3164.00	3164.00	3164.00
3139.00	3139.00	3139.00	3139.00	3140.00	3140.00	3140.00	3140.00	3140.00	3140.00	3140.00	3140.00	3141.00	3141.00	3141.00	3141.00	3141.00	3142.00	3142.00	3143.00	3143.00	3143.50	3144.00	3144.50	3145.00	3145.00	3145.00	3146.00	3146.00	3146.00	3146.00	3146.00	3146.00	3146.00	3146.00	3146.00	3145.00	3145.00	3144.50	3144.00	3143.50	3143.00	3143.00	3143.00	3143.00	3142.00	3142.00	3142.00	3142.00	3142.00	3143.00	3143.00	3143.00	3143.00	3144.00	3144.00	3144.00	3144.00	3144.50	3145.00	3145.00	3145.00	3145.00	3145.00	3145.00	3145.00	3145.00	3145.50	3146.00	3146.00	3146.00	3146.00	3146.00	3146.00	3146.00	3146.00	3146.50	3147.00	3147.00	3147.00	3147.00	3147.00	3147.00	3147.00	3147.00	3147.00	3147.00	3147.00	3147.00	3147.00	3147.00	3147.00	3147.00	3147.00	3147.00	3148.00	3148.00	3148.00	3148.00	3148.00	3148.00	3148.00	3148.00	3148.00	3148.00	3149.00	3149.00	3149.00	3149.00	3149.00	3149.00	3148.00	3148.00	3148.00	3147.00	3147.00	3147.00	3146.50	3146.00	3146.00	3146.00	3146.00	3146.00	3146.00	3146.00	3146.00	3146.00	3146.00	3145.00	3146.00	3146.00	3146.00	3146.00	3146.00	3146.00	3147.00	3147.00	3147.00	3147.00	3147.00	3147.00	3147.00	3147.00	3147.00	3148.00	3148.00	3149.00	3149.00	3150.00	3150.00	3150.50	3151.00	3151.50	3152.00	3153.00	3153.00	3153.50	3154.00	3154.00	3154.00	3155.00	3155.00	3155.00	3155.50	3156.00	3156.00	3156.00	3156.00	3156.00	3156.00	3157.00	3157.00	3157.00	3157.00	3158.00	3159.00	3159.00	3159.00	3159.00	3159.50	3160.00	3160.50	3161.00	3161.00	3161.00	3161.00	3161.00	3161.00	3161.50	3162.00	3162.00	3162.00	3162.00	3163.00	3163.00	3163.00	3163.00	3163.50	3164.00	3164.00	3164.00	3164.00	3165.00	3165.00	3165.00	3164.50	3164.00	3164.00	3164.00	3163.50	3163.00	3163.00	3163.00	3162.00	3162.00	3162.00	3162.00	3162.00	3162.00	3162.00	3162.00	3162.00	3163.00	3163.00	3163.50	3164.00	3164.00	3164.00	3164.50	3165.00	3165.00	3165.00	3166.00	3166.00	3166.00	3166.00	3166.00	3166.00	3166.00	3166.00	3166.00	3166.00	3166.00	3166.00	3165.50	3165.00	3165.00	3165.00	3165.00	3165.00	3165.00	3164.00	3164.00	3164.00	3164.00	3164.00
3139.50	3139.50	3139.50	3139.50	3140.00	3140.25	3140.50	3140.50	3140.50	3140.50	3140.50	3141.00	3141.50	3141.50	3141.75	3142.00	3142.00	3142.75	3143.00	3143.50	3144.00	3144.25	3145.00	3145.25	3145.75	3146.00	3146.00	3146.50	3146.50	3146.50	3146.50	3146.50	3146.00	3146.00	3145.50	3145.50	3145.00	3145.00	3144.25	3144.00	3143.50	3143.00	3143.00	3143.00	3142.50	3142.00	3142.00	3142.00	3142.00	3142.00	3143.00	3143.25	3143.50	3143.50	3144.00	3144.25	3144.50	3144.50	3144.75	3145.00	3145.50	3145.50	3145.50	3145.50	3145.50	3145.50	3145.50	3145.75	3146.00	3146.25	3146.50	3146.25	3146.00	3146.00	3146.50	3146.50	3146.75	3147.00	3147.00	3147.00	3147.00	3147.00	3147.00	3147.00	3147.00	3147.00	3147.00	3147.00	3147.00	3147.00	3147.00	3147.00	3147.50	3147.50	3147.50	3148.00	3148.00	3148.00	3148.00	3148.00	3148.00	3148.00	3148.00	3148.00	3148.00	3149.00	3149.00	3149.00	3149.00	3149.00	3149.00	3148.50	3148.50	3148.50	3148.00	3147.75	3147.50	3147.00	3146.50	3146.50	3146.50	3146.50	3146.50	3146.50	3146.50	3146.50	3146.50	3146.50	3146.50	3147.00	3147.00	3147.00	3146.75	3146.50	3146.50	3147.00	3147.00	3147.00	3147.00	3147.00	3147.00	3147.25	3147.50	3147.50	3148.00	3148.00	3149.00	3149.00	3150.00	3150.00	3150.25	3151.00	3151.25	3152.00	3152.50	3152.75	3153.25	3153.50	3153.75	3154.00	3154.50	3154.50	3154.50	3154.75	3155.00	3155.25	3155.50	3155.50	3155.50	3156.00	3156.50	3156.75	3157.00	3157.00	3158.00	3158.50	3159.00	3159.00	3159.00	3159.50	3160.25	3160.75	3161.00	3161.00	3161.00	3161.50	3161.50	3161.50	3161.75	3162.00	3162.50	3162.50	3162.50	3163.00	3163.25	3163.50	3163.50	3163.75	3164.50	3164.50	3164.50	3164.50	3165.00	3165.00	3165.00	3164.75	3164.50	3164.50	3164.50	3164.25	3163.75	3163.50	3163.50	3163.00	3163.00	3163.00	3163.00	3163.00	3163.00	3163.00	3163.00	3163.00	3163.50	3164.00	3164.25	3164.75	3165.00	3165.00	3165.25	3165.50	3166.00	3166.00	3166.50	3166.50	3166.50	3166.50	3166.50	3166.50	3166.50	3166.50	3166.50	3166.50	3166.25	3166.00	3165.75	3165.50	3165.25	3165.00	3165.00	3165.00	3165.00	3164.50	3164.50	3164.25	3164.00	3164.00
3140.00	3140.00	3140.00	3140.00	3140.00	3140.50	3141.00	3141.00	3141.00	3141.00	3141.00	3142.00	3142.00	3142.00	3142.50	3143.00	3143.00	3143.50	3144.00	3144.00	3145.00	3145.00	3146.00	3146.00	3146.50	3147.00	3147.00	3147.00	3147.00	3147.00	3147.00	3147.00	3146.00	3146.00	3145.00	3145.00	3145.00	3145.00	3144.00	3144.00	3143.50	3143.00	3143.00	3143.00	3142.00	3142.00	3142.00	3142.00	3142.00	3142.00	3143.00	3143.50	3144.00	3144.00	3144.00	3144.50	3145.00	3145.00	3145.00	3145.00	3146.00	3146.00	3146.00	3146.00	3146.00	3146.00	3146.00	3146.00	3146.00	3146.50	3147.00	3146.50	3146.00	3146.00	3147.00	3147.00	3147.00	3147.00	3147.00	3147.00	3147.00	3147.00	3147.00	3147.00	3147.00	3147.00	3147.00	3147.00	3147.00	3147.00	3147.00	3147.00	3148.00	3148.00	3148.00	3148.00	3148.00	3148.00	3148.00	3148.00	3148.00	3148.00	3148.00	3148.00	3148.00	3149.00	3149.00	3149.00	3149.00	3149.00	3149.00	3149.00	3149.00	3149.00	3149.00	3148.50	3148.00	3147.50	3147.00	3147.00	3147.00	3147.00	3147.00	3147.00	3147.00	3147.00	3147.00	3147.00	3148.00	3148.00	3148.00	3148.00	3147.50	3147.00	3147.00	3147.00	3147.00	3147.00	3147.00	3147.00	3147.00	3147.50	3148.00	3148.00	3148.00	3148.00	3149.00	3149.00	3150.00	3150.00	3150.00	3151.00	3151.00	3152.00	3152.00	3152.50	3153.00	3153.00	3153.50	3154.00	3154.00	3154.00	3154.00	3154.00	3154.00	3154.50	3155.00	3155.00	3155.00	3156.00	3156.00	3156.50	3157.00	3157.00	3158.00	3158.00	3159.00	3159.00	3159.00	3159.50	3160.50	3161.00	3161.00	3161.00	3161.00	3162.00	3162.00	3162.00	3162.00	3162.00	3163.00	3163.00	3163.00	3163.00	3163.50	3164.00	3164.00	3164.00	3165.00	3165.00	3165.00	3165.00	3165.00	3165.00	3165.00	3165.00	3165.00	3165.00	3165.00	3165.00	3164.50	3164.00	3164.00	3164.00	3164.00	3164.00	3164.00	3164.00	3164.00	3164.00	3164.00	3164.00	3164.00	3165.00	3165.00	3165.50	3166.00	3166.00	3166.00	3166.00	3167.00	3167.00	3167.00	3167.00	3167.00	3167.00	3167.00	3167.00	3167.00	3167.00	3167.00	3167.00	3166.50	3166.00	3166.00	3166.00	3165.50	3165.00	3165.00	3165.00	3165.00	3165.00	3165.00	3164.50	3164.00	3164.00
3140.00	3140.00	3140.00	3140.00	3140.00	3140.50	3141.00	3141.00	3141.00	3141.00	3141.00	3142.00	3142.00	3142.00	3142.50	3143.00	3143.00	3143.50	3144.00	3144.00	3145.00	3145.00	3146.00	3146.00	3146.50	3147.00	3147.00	3147.00	3147.00	3147.00	3147.00	3147.00	3146.00	3146.00	3145.00	3145.00	3145.00	3145.00	3144.00	3144.00	3143.50	3143.00	3143.00	3143.00	3142.00	3142.00	3142.00	3142.00	3142.00	3142.00	3143.00	3143.50	3144.00	3144.00	3144.00	3144.50	3145.00	3145.00	3145.00	3145.00	3146.00	3146.00	3146.00	3146.00	3146.00	3146.00	3146.00	3146.00	3146.00	3146.50	3147.00	3146.50	3146.00	3146.00	3147.00	3147.00	3147.00	3147.00	3147.00	3147.00	3147.00	3147.00	3147.00	3147.00	3147.00	3147.00	3147.00	3147.00	3147.00	3147.00	3147.00	3147.00	3148.00	3148.00	3148.00	3148.00	3148.00	3148.00	3148.00	3148.00	3148.00	3148.00	3148.00	3148.00	3148.00	3149.00	3149.00	3149.00	3149.00	3149.00	3149.00	3149.00	3149.00	3149.00	3149.00	3148.50	3148.00	3147.50	3147.00	3147.00	3147.00	3147.00	3147.00	3147.00	3147.00	3147.00	3147.00	3147.00	3148.00	3148.00	3148.00	3148.00	3147.50	3147.00	3147.00	3147.00	3147.00	3147.00	3147.00	3147.00	3147.00	3147.50	3148.00	3148.00	3148.00	3148.00	3149.00	3149.00	3150.00	3150.00	3150.00	3151.00	3151.00	3152.00	3152.00	3152.50	3153.00	3153.00	3153.50	3154.00	3154.00	3154.00	3154.00	3154.00	3154.00	3154.50	3155.00	3155.00	3155.00	3156.00	3156.00	3156.50	3157.00	3157.00	3158.00	3158.00	3159.00	3159.00	3159.00	3159.50	3160.50	3161.00	3161.00	3161.00	3161.00	3162.00	3162.00	3162.00	3162.00	3162.00	3163.00	3163.00	3163.00	3163.00	3163.50	3164.00	3164.00	3164.00	3165.00	3165.00	3165.00	3165.00	3165.00	3165.00	3165.00	3165.00	3165.00	3165.00	3165.00	3165.00	3164.50	3164.00	3164.00	3164.00	3164.00	3164.00	3164.00	3164.00	3164.00	3164.00	3164.00	3164.00	3164.00	3165.00	3165.00	3165.50	3166.00	3166.00	3166.00	3166.00	3167.00	3167.00	3167.00	3167.00	3167.00	3167.00	3167.00	3167.00	3167.00	3167.00	3167.00	3167.00	3166.50	3166.00	3166.00	3166.00	3165.50	3165.00	3165.00	3165.00	3165.00	3165.00	3165.00	3164.50	3164.00	3164.00
3140.00	3140.50	3141.00	3141.00	3141.00	3141.00	3141.50	3142.00	3142.00	3142.00	3142.00	3143.00	3143.00	3143.00	3143.50	3144.00	3144.00	3145.00	3145.00	3146.00	3146.00	3146.50	3147.00	3147.00	3147.50	3148.00	3148.00	3148.00	3148.00	3147.00	3147.00	3147.00	3146.00	3146.00	3146.00	3146.00	3145.00	3145.00	3144.00	3143.50	3143.00	3143.00	3143.00	3143.00	3143.00	3143.00	3142.50	3142.00	3143.00	3143.00	3143.00	3143.50	3144.00	3144.50	3145.00	3145.00	3145.00	3146.00	3146.00	3146.00	3146.00	3146.00	3146.00	3146.00	3146.00	3146.00	3147.00	3147.00	3147.00	3147.00	3147.00	3147.00	3147.00	3147.00	3147.00	3147.00	3147.00	3147.00	3147.00	3148.00	3148.00	3148.00	3148.00	3148.00	3148.00	3148.00	3148.00	3148.00	3148.00	3148.00	3148.00	3148.00	3148.00	3148.00	3148.00	3148.00	3148.00	3149.00	3149.00	3149.00	3149.00	3149.00	3149.00	3149.00	3149.00	3149.00	3150.00	3150.00	3150.00	3150.00	3150.00	3150.00	3150.00	3150.00	3150.00	3149.50	3149.00	3149.00	3149.00	3149.00	3149.00	3149.00	3149.00	3149.00	3149.00	3149.00	3149.00	3149.00	3149.00	3149.00	3149.00	3149.00	3149.00	3149.00	3149.00	3149.00	3148.00	3148.00	3148.00	3148.00	3148.00	3148.00	3148.00	3148.00	3148.00	3148.00	3149.00	3149.00	3149.00	3149.50	3150.00	3151.00	3151.00	3152.00	3152.00	3152.00	3152.00	3153.00	3153.00	3153.00	3154.00	3154.00	3154.00	3154.00	3154.00	3154.00	3154.00	3154.00	3155.00	3155.00	3155.50	3156.00	3156.00	3157.00	3157.50	3158.00	3158.00	3159.00	3159.00	3159.50	3160.00	3160.50	3161.00	3161.00	3161.00	3162.00	3162.00	3162.00	3162.50	3163.00	3163.00	3163.00	3164.00	3164.00	3164.00	3164.50	3165.00	3165.00	3165.00	3165.00	3166.00	3166.00	3166.00	3166.00	3166.00	3166.00	3166.00	3166.00	3166.00	3165.50	3165.00	3165.00	3165.00	3165.00	3165.00	3165.00	3165.00	3165.50	3166.00	3166.00	3166.00	3166.00	3166.00	3167.00	3166.00	3166.00	3166.50	3167.00	3167.00	3167.00	3168.00	3168.00	3168.00	3168.00	3168.00	3168.00	3168.00	3168.00	3168.00	3168.00	3168.00	3167.50	3167.00	3167.00	3167.00	3166.00	3166.00	3166.00	3165.00	3165.00	3165.00	3165.00	3165.00	3165.00	3165.00	3164.50
3140.00	3140.50	3141.00	3141.00	3141.00	3141.00	3141.50	3142.00	3142.00	3142.00	3142.00	3143.00	3143.00	3143.00	3143.50	3144.00	3144.00	3145.00	3145.00	3146.00	3146.00	3146.50	3147.00	3147.00	3147.50	3148.00	3148.00	3148.00	3148.00	3147.00	3147.00	3147.00	3146.00	3146.00	3146.00	3146.00	3145.00	3145.00	3144.00	3143.50	3143.00	3143.00	3143.00	3143.00	3143.00	3143.00	3142.50	3142.00	3143.00	3143.00	3143.00	3143.50	3144.00	3144.50	3145.00	3145.00	3145.00	3146.00	3146.00	3146.00	3146.00	3146.00	3146.00	3146.00	3146.00	3146.00	3147.00	3147.00	3147.00	3147.00	3147.00	3147.00	3147.00	3147.00	3147.00	3147.00	3147.00	3147.00	3147.00	3148.00	3148.00	3148.00	3148.00	3148.00	3148.00	3148.00	3148.00	3148.00	3148.00	3148.00	3148.00	3148.00	3148.00	3148.00	3148.00	3148.00	3148.00	3149.00	3149.00	3149.00	3149.00	3149.00	3149.00	3149.00	3149.00	3149.00	3150.00	3150.00	3150.00	3150.00	3150.00	3150.00	3150.00	3150.00	3150.00	3149.50	3149.00	3149.00	3149.00	3149.00	3149.00	3149.00	3149.00	3149.00	3149.00	3149.00	3149.00	3149.00	3149.00	3149.00	3149.00	3149.00	3149.00	3149.00	3149.00	3149.00	3148.00	3148.00	3148.00	3148.00	3148.00	3148.00	3148.00	3148.00	3148.00	3148.00	3149.00	3149.00	3149.00	3149.50	3150.00	3151.00	3151.00	3152.00	3152.00	3152.00	3152.00	3153.00	3153.00	3153.00	3154.00	3154.00	3154.00	3154.00	3154.00	3154.00	3154.00	3154.00	3155.00	3155.00	3155.50	3156.00	3156.00	3157.00	3157.50	3158.00	3158.00	3159.00	3159.00	3159.50	3160.00	3160.50	3161.00	3161.00	3161.00	3162.00	3162.00	3162.00	3162.50	3163.00	3163.00	3163.00	3164.00	3164.00	3164.00	3164.50	3165.00	3165.00	3165.00	3165.00	3166.00	3166.00	3166.00	3166.00	3166.00	3166.00	3166.00	3166.00	3166.00	3165.50	3165.00	3165.00	3165.00	3165.00	3165.00	3165.00	3165.00	3165.50	3166.00	3166.00	3166.00	3166.00	3166.00	3167.00	3166.00	3166.00	3166.50	3167.00	3167.00	3167.00	3168.00	3168.00	3168.00	3168.00	3168.00	3168.00	3168.00	3168.00	3168.00	3168.00	3168.00	3167.50	3167.00	3167.00	3167.00	3166.00	3166.00	3166.00	3165.00	3165.00	3165.00	3165.00	3165.00	3165.00	3165.00	3164.50
3140.50	3140.75	3141.00	3141.00	3141.50	3141.50	3141.75	3142.25	3142.50	3142.50	3142.50	3143.25	3143.50	3144.00	3144.25	3144.50	3145.00	3145.50	3146.00	3146.50	3146.50	3147.00	3147.50	3147.50	3147.75	3148.00	3148.00	3148.00	3148.00	3147.50	3147.25	3147.00	3146.50	3146.25	3146.00	3146.00	3145.00	3144.75	3144.00	3143.75	3143.50	3143.00	3143.00	3143.00	3143.00	3143.00	3142.75	3142.50	3143.25	3143.50	3143.50	3143.75	3144.25	3144.75	3145.50	3145.50	3145.50	3146.00	3146.00	3146.00	3146.00	3146.00	3146.25	3146.50	3146.50	3146.50	3147.00	3147.00	3147.00	3147.00	3147.00	3147.00	3147.00	3147.00	3147.00	3147.00	3147.50	3147.50	3147.50	3148.00	3148.00	3148.00	3148.00	3148.00	3148.00	3148.00	3148.00	3148.00	3148.00	3148.00	3148.00	3148.00	3148.00	3148.00	3148.00	3148.00	3148.25	3149.00	3149.00	3149.00	3149.00	3149.00	3149.00	3149.00	3149.00	3149.00	3150.00	3150.00	3150.00	3150.00	3150.00	3150.00	3150.00	3150.00	3150.00	3149.75	3149.50	3149.50	3149.50	3149.50	3149.50	3149.50	3150.00	3150.00	3150.00	3150.00	3150.00	3149.50	3149.50	3149.50	3149.50	3149.50	3149.50	3149.50	3149.25	3149.00	3148.50	3148.50	3148.00	3148.00	3148.00	3148.00	3148.00	3148.00	3148.00	3148.50	3149.00	3149.00	3149.25	3149.75	3150.00	3150.50	3151.00	3151.50	3151.50	3152.00	3152.00	3153.00	3153.00	3153.00	3153.50	3153.50	3153.75	3154.00	3154.00	3154.00	3154.00	3154.00	3154.50	3155.00	3155.50	3156.00	3156.00	3157.00	3157.25	3158.00	3158.00	3158.75	3159.00	3159.50	3160.00	3160.25	3160.50	3160.50	3161.00	3161.50	3161.75	3162.00	3162.25	3162.50	3162.75	3163.00	3164.00	3164.00	3164.00	3164.50	3165.00	3165.00	3165.00	3165.00	3166.00	3166.00	3166.00	3166.00	3166.00	3166.50	3166.50	3166.50	3166.50	3166.25	3166.00	3165.50	3165.50	3165.50	3165.50	3166.00	3166.00	3166.25	3166.50	3166.50	3166.50	3166.50	3167.00	3167.50	3167.00	3167.00	3167.25	3167.50	3167.50	3167.50	3168.00	3168.25	3168.50	3168.50	3168.50	3168.50	3168.50	3168.50	3168.50	3168.50	3168.00	3167.75	3167.50	3167.25	3167.00	3166.50	3166.50	3166.25	3165.50	3165.50	3165.25	3165.00	3165.00	3165.00	3165.00	3164.75
3141.00	3141.00	3141.00	3141.00	3142.00	3142.00	3142.00	3142.50	3143.00	3143.00	3143.00	3143.50	3144.00	3145.00	3145.00	3145.00	3146.00	3146.00	3147.00	3147.00	3147.00	3147.50	3148.00	3148.00	3148.00	3148.00	3148.00	3148.00	3148.00	3148.00	3147.50	3147.00	3147.00	3146.50	3146.00	3146.00	3145.00	3144.50	3144.00	3144.00	3144.00	3143.00	3143.00	3143.00	3143.00	3143.00	3143.00	3143.00	3143.50	3144.00	3144.00	3144.00	3144.50	3145.00	3146.00	3146.00	3146.00	3146.00	3146.00	3146.00	3146.00	3146.00	3146.50	3147.00	3147.00	3147.00	3147.00	3147.00	3147.00	3147.00	3147.00	3147.00	3147.00	3147.00	3147.00	3147.00	3148.00	3148.00	3148.00	3148.00	3148.00	3148.00	3148.00	3148.00	3148.00	3148.00	3148.00	3148.00	3148.00	3148.00	3148.00	3148.00	3148.00	3148.00	3148.00	3148.00	3148.50	3149.00	3149.00	3149.00	3149.00	3149.00	3149.00	3149.00	3149.00	3149.00	3150.00	3150.00	3150.00	3150.00	3150.00	3150.00	3150.00	3150.00	3150.00	3150.00	3150.00	3150.00	3150.00	3150.00	3150.00	3150.00	3151.00	3151.00	3151.00	3151.00	3151.00	3150.00	3150.00	3150.00	3150.00	3150.00	3150.00	3150.00	3149.50	3149.00	3149.00	3149.00	3148.00	3148.00	3148.00	3148.00	3148.00	3148.00	3148.00	3149.00	3149.00	3149.00	3149.50	3150.00	3150.00	3150.00	3151.00	3151.00	3151.00	3152.00	3152.00	3153.00	3153.00	3153.00	3153.00	3153.00	3153.50	3154.00	3154.00	3154.00	3154.00	3154.00	3154.00	3155.00	3155.50	3156.00	3156.00	3157.00	3157.00	3158.00	3158.00	3158.50	3159.00	3159.50	3160.00	3160.00	3160.00	3160.00	3161.00	3161.00	3161.50	3162.00	3162.00	3162.00	3162.50	3163.00	3164.00	3164.00	3164.00	3164.50	3165.00	3165.00	3165.00	3165.00	3166.00	3166.00	3166.00	3166.00	3166.00	3167.00	3167.00	3167.00	3167.00	3167.00	3167.00	3166.00	3166.00	3166.00	3166.00	3167.00	3167.00	3167.00	3167.00	3167.00	3167.00	3167.00	3168.00	3168.00	3168.00	3168.00	3168.00	3168.00	3168.00	3168.00	3168.00	3168.50	3169.00	3169.00	3169.00	3169.00	3169.00	3169.00	3169.00	3169.00	3168.00	3168.00	3168.00	3167.50	3167.00	3167.00	3167.00	3166.50	3166.00	3166.00	3165.50	3165.00	3165.00	3165.00	3165.00	3165.00
3141.00	3141.00	3141.00	3141.00	3142.00	3142.25	3142.50	3142.75	3143.25	3143.50	3143.50	3144.00	3144.50	3145.25	3145.50	3145.50	3146.00	3146.50	3147.00	3147.50	3147.50	3147.75	3148.25	3148.50	3148.50	3148.50	3148.50	3148.50	3148.50	3148.00	3147.75	3147.50	3147.25	3146.75	3146.50	3146.00	3145.25	3144.75	3144.50	3144.25	3144.00	3143.50	3143.25	3143.00	3143.00	3143.25	3143.50	3143.50	3143.75	3144.25	3144.50	3145.00	3145.25	3145.50	3146.00	3146.00	3146.00	3146.00	3146.00	3146.50	3146.50	3146.50	3146.75	3147.00	3147.00	3147.00	3147.00	3147.00	3147.25	3147.50	3147.50	3147.50	3147.50	3147.50	3147.50	3147.50	3148.00	3148.00	3148.00	3148.00	3148.00	3148.00	3148.50	3148.50	3148.25	3148.00	3148.00	3148.00	3148.00	3148.00	3148.00	3148.50	3148.50	3148.50	3148.50	3148.50	3148.75	3149.00	3149.00	3149.00	3149.00	3149.00	3149.00	3149.00	3149.00	3149.25	3150.00	3150.00	3150.00	3150.00	3150.00	3150.00	3150.00	3150.50	3150.50	3150.50	3150.50	3150.50	3150.50	3150.50	3150.50	3150.50	3151.50	3151.50	3151.50	3151.50	3151.50	3151.00	3151.00	3151.00	3150.50	3150.50	3150.25	3150.00	3149.75	3149.50	3149.50	3149.00	3148.50	3148.50	3148.50	3148.50	3148.50	3148.50	3148.50	3149.00	3149.00	3149.00	3149.50	3150.00	3150.00	3150.00	3150.75	3151.00	3151.00	3152.00	3152.00	3153.00	3153.00	3153.00	3153.00	3153.00	3153.25	3153.50	3153.75	3154.00	3154.00	3154.00	3154.00	3154.50	3155.25	3155.75	3156.00	3156.50	3156.75	3157.50	3158.00	3158.25	3158.75	3159.25	3159.50	3159.50	3160.00	3160.00	3160.50	3161.00	3161.25	3161.50	3161.75	3162.00	3162.75	3163.00	3163.50	3164.00	3164.00	3164.50	3165.00	3165.00	3165.00	3165.25	3166.00	3166.00	3166.00	3166.25	3166.50	3167.00	3167.00	3167.00	3167.00	3167.00	3167.00	3167.00	3167.00	3167.00	3167.00	3167.50	3167.50	3167.50	3167.50	3167.50	3167.50	3167.50	3168.00	3168.00	3168.50	3168.50	3168.50	3168.50	3168.50	3168.50	3168.50	3168.75	3169.00	3169.50	3169.50	3169.25	3169.00	3169.00	3169.00	3169.00	3168.50	3168.50	3168.25	3167.75	3167.50	3167.50	3167.00	3166.75	3166.50	3166.00	3165.75	3165.50	3165.50	3165.00	3165.00	3165.00
3141.00	3141.00	3141.00	3141.00	3142.00	3142.50	3143.00	3143.00	3143.50	3144.00	3144.00	3144.50	3145.00	3145.50	3146.00	3146.00	3146.00	3147.00	3147.00	3148.00	3148.00	3148.00	3148.50	3149.00	3149.00	3149.00	3149.00	3149.00	3149.00	3148.00	3148.00	3148.00	3147.50	3147.00	3147.00	3146.00	3145.50	3145.00	3145.00	3144.50	3144.00	3144.00	3143.50	3143.00	3143.00	3143.50	3144.00	3144.00	3144.00	3144.50	3145.00	3146.00	3146.00	3146.00	3146.00	3146.00	3146.00	3146.00	3146.00	3147.00	3147.00	3147.00	3147.00	3147.00	3147.00	3147.00	3147.00	3147.00	3147.50	3148.00	3148.00	3148.00	3148.00	3148.00	3148.00	3148.00	3148.00	3148.00	3148.00	3148.00	3148.00	3148.00	3149.00	3149.00	3148.50	3148.00	3148.00	3148.00	3148.00	3148.00	3148.00	3149.00	3149.00	3149.00	3149.00	3149.00	3149.00	3149.00	3149.00	3149.00	3149.00	3149.00	3149.00	3149.00	3149.00	3149.50	3150.00	3150.00	3150.00	3150.00	3150.00	3150.00	3150.00	3151.00	3151.00	3151.00	3151.00	3151.00	3151.00	3151.00	3151.00	3151.00	3152.00	3152.00	3152.00	3152.00	3152.00	3152.00	3152.00	3152.00	3151.00	3151.00	3150.50	3150.00	3150.00	3150.00	3150.00	3149.00	3149.00	3149.00	3149.00	3149.00	3149.00	3149.00	3149.00	3149.00	3149.00	3149.00	3149.50	3150.00	3150.00	3150.00	3150.50	3151.00	3151.00	3152.00	3152.00	3153.00	3153.00	3153.00	3153.00	3153.00	3153.00	3153.00	3153.50	3154.00	3154.00	3154.00	3154.00	3154.00	3155.00	3155.50	3156.00	3156.00	3156.50	3157.00	3158.00	3158.00	3158.50	3159.00	3159.00	3159.00	3160.00	3160.00	3160.00	3161.00	3161.00	3161.00	3161.50	3162.00	3163.00	3163.00	3163.00	3164.00	3164.00	3164.50	3165.00	3165.00	3165.00	3165.50	3166.00	3166.00	3166.00	3166.50	3167.00	3167.00	3167.00	3167.00	3167.00	3167.00	3167.00	3168.00	3168.00	3168.00	3168.00	3168.00	3168.00	3168.00	3168.00	3168.00	3168.00	3168.00	3168.00	3168.00	3169.00	3169.00	3169.00	3169.00	3169.00	3169.00	3169.00	3169.00	3169.00	3170.00	3170.00	3169.50	3169.00	3169.00	3169.00	3169.00	3169.00	3169.00	3168.50	3168.00	3168.00	3168.00	3167.00	3167.00	3167.00	3166.00	3166.00	3166.00	3166.00	3165.00	3165.00	3165.00
3141.00	3141.00	3141.00	3141.00	3142.00	3142.50	3143.00	3143.00	3143.50	3144.00	3144.00	3144.50	3145.00	3145.50	3146.00	3146.00	3146.00	3147.00	3147.00	3148.00	3148.00	3148.00	3148.50	3149.00	3149.00	3149.00	3149.00	3149.00	3149.00	3148.00	3148.00	3148.00	3147.50	3147.00	3147.00	3146.00	3145.50	3145.00	3145.00	3144.50	3144.00	3144.00	3143.50	3143.00	3143.00	3143.50	3144.00	3144.00	3144.00	3144.50	3145.00	3146.00	3146.00	3146.00	3146.00	3146.00	3146.00	3146.00	3146.00	3147.00	3147.00	3147.00	3147.00	3147.00	3147.00	3147.00	3147.00	3147.00	3147.50	3148.00	3148.00	3148.00	3148.00	3148.00	3148.00	3148.00	3148.00	3148.00	3148.00	3148.00	3148.00	3148.00	3149.00	3149.00	3148.50	3148.00	3148.00	3148.00	3148.00	3148.00	3148.00	3149.00	3149.00	3149.00	3149.00	3149.00	3149.00	3149.00	3149.00	3149.00	3149.00	3149.00	3149.00	3149.00	3149.00	3149.50	3150.00	3150.00	3150.00	3150.00	3150.00	3150.00	3150.00	3151.00	3151.00	3151.00	3151.00	3151.00	3151.00	3151.00	3151.00	3151.00	3152.00	3152.00	3152.00	3152.00	3152.00	3152.00	3152.00	3152.00	3151.00	3151.00	3150.50	3150.00	3150.00	3150.00	3150.00	3149.00	3149.00	3149.00	3149.00	3149.00	3149.00	3149.00	3149.00	3149.00	3149.00	3149.00	3149.50	3150.00	3150.00	3150.00	3150.50	3151.00	3151.00	3152.00	3152.00	3153.00	3153.00	3153.00	3153.00	3153.00	3153.00	3153.00	3153.50	3154.00	3154.00	3154.00	3154.00	3154.00	3155.00	3155.50	3156.00	3156.00	3156.50	3157.00	3158.00	3158.00	3158.50	3159.00	3159.00	3159.00	3160.00	3160.00	3160.00	3161.00	3161.00	3161.00	3161.50	3162.00	3163.00	3163.00	3163.00	3164.00	3164.00	3164.50	3165.00	3165.00	3165.00	3165.50	3166.00	3166.00	3166.00	3166.50	3167.00	3167.00	3167.00	3167.00	3167.00	3167.00	3167.00	3168.00	3168.00	3168.00	3168.00	3168.00	3168.00	3168.00	3168.00	3168.00	3168.00	3168.00	3168.00	3168.00	3169.00	3169.00	3169.00	3169.00	3169.00	3169.00	3169.00	3169.00	3169.00	3170.00	3170.00	3169.50	3169.00	3169.00	3169.00	3169.00	3169.00	3169.00	3168.50	3168.00	3168.00	3168.00	3167.00	3167.00	3167.00	3166.00	3166.00	3166.00	3166.00	3165.00	3165.00	3165.00
3141.00	3141.50	3141.50	3141.50	3142.00	3142.50	3143.00	3143.50	3143.75	3144.00	3144.00	3144.75	3145.00	3145.75	3146.00	3146.25	3146.50	3147.25	3147.50	3148.00	3148.25	3148.50	3148.75	3149.00	3149.00	3149.00	3149.00	3149.00	3149.00	3148.50	3148.50	3148.25	3147.75	3147.25	3147.00	3146.00	3145.75	3145.50	3145.00	3144.75	3144.50	3144.50	3144.25	3144.00	3144.00	3144.00	3144.25	3144.50	3144.50	3144.75	3145.50	3146.25	3146.50	3146.50	3146.50	3146.50	3146.50	3146.50	3146.50	3147.00	3147.00	3147.00	3147.00	3147.00	3147.25	3147.50	3147.50	3147.50	3147.75	3148.00	3148.00	3148.00	3148.00	3148.00	3148.00	3148.00	3148.00	3148.00	3148.25	3148.50	3148.50	3148.50	3149.00	3149.00	3148.75	3148.50	3148.50	3148.50	3148.50	3148.50	3148.50	3149.00	3149.00	3149.00	3149.00	3149.00	3149.00	3149.00	3149.00	3149.00	3149.00	3149.00	3149.00	3149.00	3149.00	3149.50	3150.00	3150.00	3150.00	3150.00	3150.00	3150.50	3150.50	3151.00	3151.00	3151.00	3151.00	3151.00	3151.00	3151.00	3151.00	3151.50	3152.00	3152.00	3152.00	3152.00	3152.00	3152.00	3152.00	3152.00	3151.50	3151.25	3150.75	3150.50	3150.50	3150.00	3150.00	3149.50	3149.00	3149.00	3149.00	3149.00	3149.00	3149.00	3149.00	3149.00	3149.00	3149.00	3149.50	3150.00	3150.25	3150.50	3150.75	3151.00	3151.50	3152.00	3152.25	3153.00	3153.00	3153.00	3153.00	3153.00	3153.00	3153.00	3153.25	3153.50	3154.00	3154.00	3154.00	3154.00	3155.00	3155.25	3155.75	3156.00	3156.75	3157.00	3158.00	3158.25	3158.75	3159.00	3159.00	3159.25	3160.00	3160.00	3160.00	3160.50	3161.00	3161.25	3161.75	3162.00	3162.50	3163.00	3163.00	3163.50	3163.75	3164.25	3164.50	3164.75	3165.00	3165.50	3166.00	3166.00	3166.00	3166.50	3167.00	3167.00	3167.00	3167.00	3167.50	3167.50	3167.50	3168.00	3168.00	3168.00	3168.00	3168.00	3168.50	3168.50	3168.50	3168.50	3168.50	3168.50	3168.50	3168.50	3169.00	3169.00	3169.00	3169.00	3169.00	3169.50	3169.50	3169.50	3169.50	3170.00	3170.00	3169.75	3169.50	3169.50	3169.50	3169.50	3169.25	3169.00	3168.75	3168.50	3168.25	3168.00	3167.50	3167.25	3167.00	3166.50	3166.50	3166.00	3166.00	3165.50	3165.50	3165.50
3141.00	3142.00	3142.00	3142.00	3142.00	3142.50	3143.00	3144.00	3144.00	3144.00	3144.00	3145.00	3145.00	3146.00	3146.00	3146.50	3147.00	3147.50	3148.00	3148.00	3148.50	3149.00	3149.00	3149.00	3149.00	3149.00	3149.00	3149.00	3149.00	3149.00	3149.00	3148.50	3148.00	3147.50	3147.00	3146.00	3146.00	3146.00	3145.00	3145.00	3145.00	3145.00	3145.00	3145.00	3145.00	3144.50	3144.50	3145.00	3145.00	3145.00	3146.00	3146.50	3147.00	3147.00	3147.00	3147.00	3147.00	3147.00	3147.00	3147.00	3147.00	3147.00	3147.00	3147.00	3147.50	3148.00	3148.00	3148.00	3148.00	3148.00	3148.00	3148.00	3148.00	3148.00	3148.00	3148.00	3148.00	3148.00	3148.50	3149.00	3149.00	3149.00	3149.00	3149.00	3149.00	3149.00	3149.00	3149.00	3149.00	3149.00	3149.00	3149.00	3149.00	3149.00	3149.00	3149.00	3149.00	3149.00	3149.00	3149.00	3149.00	3149.00	3149.00	3149.00	3149.00	3149.50	3150.00	3150.00	3150.00	3150.00	3150.00	3151.00	3151.00	3151.00	3151.00	3151.00	3151.00	3151.00	3151.00	3151.00	3151.00	3152.00	3152.00	3152.00	3152.00	3152.00	3152.00	3152.00	3152.00	3152.00	3152.00	3151.50	3151.00	3151.00	3151.00	3150.00	3150.00	3150.00	3149.00	3149.00	3149.00	3149.00	3149.00	3149.00	3149.00	3149.00	3149.00	3149.00	3149.50	3150.00	3150.50	3151.00	3151.00	3151.00	3152.00	3152.00	3152.50	3153.00	3153.00	3153.00	3153.00	3153.00	3153.00	3153.00	3153.00	3153.00	3154.00	3154.00	3154.00	3154.00	3155.00	3155.00	3155.50	3156.00	3157.00	3157.00	3158.00	3158.50	3159.00	3159.00	3159.00	3159.50	3160.00	3160.00	3160.00	3160.00	3161.00	3161.50	3162.00	3162.00	3162.00	3163.00	3163.00	3163.00	3163.50	3164.00	3164.00	3164.50	3165.00	3165.50	3166.00	3166.00	3166.00	3166.50	3167.00	3167.00	3167.00	3167.00	3168.00	3168.00	3168.00	3168.00	3168.00	3168.00	3168.00	3168.00	3169.00	3169.00	3169.00	3169.00	3169.00	3169.00	3169.00	3169.00	3169.00	3169.00	3169.00	3169.00	3169.00	3170.00	3170.00	3170.00	3170.00	3170.00	3170.00	3170.00	3170.00	3170.00	3170.00	3170.00	3169.50	3169.00	3169.00	3169.00	3168.50	3168.00	3168.00	3167.50	3167.00	3167.00	3167.00	3166.00	3166.00	3166.00	3166.00	3166.00
3141.00	3142.00	3142.00	3142.00	3142.00	3142.50	3143.00	3144.00	3144.00	3144.00	3144.00	3145.00	3145.00	3146.00	3146.00	3146.50	3147.00	3147.50	3148.00	3148.00	3148.50	3149.00	3149.00	3149.00	3149.00	3149.00	3149.00	3149.00	3149.00	3149.00	3149.00	3148.50	3148.00	3147.50	3147.00	3146.00	3146.00	3146.00	3145.00	3145.00	3145.00	3145.00	3145.00	3145.00	3145.00	3144.50	3144.50	3145.00	3145.00	3145.00	3146.00	3146.50	3147.00	3147.00	3147.00	3147.00	3147.00	3147.00	3147.00	3147.00	3147.00	3147.00	3147.00	3147.00	3147.50	3148.00	3148.00	3148.00	3148.00	3148.00	3148.00	3148.00	3148.00	3148.00	3148.00	3148.00	3148.00	3148.00	3148.50	3149.00	3149.00	3149.00	3149.00	3149.00	3149.00	3149.00	3149.00	3149.00	3149.00	3149.00	3149.00	3149.00	3149.00	3149.00	3149.00	3149.00	3149.00	3149.00	3149.00	3149.00	3149.00	3149.00	3149.00	3149.00	3149.00	3149.50	3150.00	3150.00	3150.00	3150.00	3150.00	3151.00	3151.00	3151.00	3151.00	3151.00	3151.00	3151.00	3151.00	3151.00	3151.00	3152.00	3152.00	3152.00	3152.00	3152.00	3152.00	3152.00	3152.00	3152.00	3152.00	3151.50	3151.00	3151.00	3151.00	3150.00	3150.00	3150.00	3149.00	3149.00	3149.00	3149.00	3149.00	3149.00	3149.00	3149.00	3149.00	3149.00	3149.50	3150.00	3150.50	3151.00	3151.00	3151.00	3152.00	3152.00	3152.50	3153.00	3153.00	3153.00	3153.00	3153.00	3153.00	3153.00	3153.00	3153.00	3154.00	3154.00	3154.00	3154.00	3155.00	3155.00	3155.50	3156.00	3157.00	3157.00	3158.00	3158.50	3159.00	3159.00	3159.00	3159.50	3160.00	3160.00	3160.00	3160.00	3161.00	3161.50	3162.00	3162.00	3162.00	3163.00	3163.00	3163.00	3163.50	3164.00	3164.00	3164.50	3165.00	3165.50	3166.00	3166.00	3166.00	3166.50	3167.00	3167.00	3167.00	3167.00	3168.00	3168.00	3168.00	3168.00	3168.00	3168.00	3168.00	3168.00	3169.00	3169.00	3169.00	3169.00	3169.00	3169.00	3169.00	3169.00	3169.00	3169.00	3169.00	3169.00	3169.00	3170.00	3170.00	3170.00	3170.00	3170.00	3170.00	3170.00	3170.00	3170.00	3170.00	3170.00	3169.50	3169.00	3169.00	3169.00	3168.50	3168.00	3168.00	3167.50	3167.00	3167.00	3167.00	3166.00	3166.00	3166.00	3166.00	3166.00
3141.00	3142.00	3142.00	3142.00	3142.50	3143.00	3143.00	3144.00	3144.00	3144.00	3144.00	3145.00	3145.00	3146.00	3146.00	3146.50	3147.00	3147.00	3148.00	3148.00	3148.50	3149.00	3149.00	3149.00	3149.00	3149.00	3149.00	3149.00	3149.00	3149.00	3148.50	3148.00	3148.00	3148.00	3148.00	3148.00	3147.00	3146.50	3146.00	3146.00	3146.00	3146.00	3146.00	3146.00	3146.00	3146.00	3146.00	3146.00	3146.50	3147.00	3147.00	3147.00	3147.00	3147.00	3147.00	3147.00	3147.00	3147.00	3147.00	3147.00	3147.00	3147.50	3148.00	3148.00	3148.00	3148.00	3148.00	3148.00	3148.00	3148.00	3148.50	3149.00	3149.00	3149.00	3149.00	3149.00	3149.00	3149.00	3149.00	3149.00	3149.00	3149.00	3149.00	3149.00	3149.00	3149.00	3149.00	3149.00	3149.00	3149.00	3149.00	3149.00	3149.00	3149.00	3149.00	3149.00	3149.00	3149.00	3149.00	3149.00	3149.00	3149.00	3149.00	3149.00	3149.00	3149.50	3150.00	3150.00	3150.00	3150.00	3150.00	3150.00	3150.00	3150.00	3150.00	3150.00	3150.50	3151.00	3151.00	3151.00	3151.00	3151.00	3151.00	3151.00	3151.00	3151.00	3152.00	3152.00	3152.00	3151.00	3151.00	3151.00	3151.00	3151.00	3151.00	3151.00	3151.00	3150.00	3150.00	3150.00	3149.50	3149.00	3149.00	3149.00	3149.00	3149.00	3149.00	3149.50	3150.00	3150.00	3150.50	3151.00	3152.00	3152.00	3152.00	3152.00	3152.50	3153.00	3153.00	3153.00	3153.00	3153.00	3153.00	3153.00	3153.00	3153.00	3153.00	3153.00	3154.00	3154.00	3155.00	3155.50	3156.00	3156.00	3157.00	3158.00	3158.00	3158.50	3159.00	3159.00	3159.00	3159.50	3160.00	3160.00	3160.00	3160.00	3161.00	3161.00	3161.00	3161.00	3162.00	3162.00	3162.00	3163.00	3163.00	3164.00	3164.00	3164.50	3165.00	3165.50	3166.00	3166.00	3166.00	3166.50	3167.00	3167.00	3167.00	3168.00	3168.00	3168.00	3168.00	3168.00	3168.00	3169.00	3169.00	3169.00	3169.00	3169.00	3169.00	3169.00	3169.00	3169.00	3169.00	3169.00	3169.00	3169.00	3169.00	3169.00	3169.50	3170.00	3170.00	3170.00	3170.00	3170.00	3170.00	3170.00	3170.00	3170.00	3170.00	3170.00	3170.00	3170.00	3169.50	3169.00	3169.00	3169.00	3168.00	3168.00	3168.00	3167.50	3167.00	3167.00	3167.00	3166.50	3166.00	3166.00
3141.00	3142.00	3142.00	3142.00	3142.50	3143.00	3143.00	3144.00	3144.00	3144.00	3144.00	3145.00	3145.00	3146.00	3146.00	3146.50	3147.00	3147.00	3148.00	3148.00	3148.50	3149.00	3149.00	3149.00	3149.00	3149.00	3149.00	3149.00	3149.00	3149.00	3148.50	3148.00	3148.00	3148.00	3148.00	3148.00	3147.00	3146.50	3146.00	3146.00	3146.00	3146.00	3146.00	3146.00	3146.00	3146.00	3146.00	3146.00	3146.50	3147.00	3147.00	3147.00	3147.00	3147.00	3147.00	3147.00	3147.00	3147.00	3147.00	3147.00	3147.00	3147.50	3148.00	3148.00	3148.00	3148.00	3148.00	3148.00	3148.00	3148.00	3148.50	3149.00	3149.00	3149.00	3149.00	3149.00	3149.00	3149.00	3149.00	3149.00	3149.00	3149.00	3149.00	3149.00	3149.00	3149.00	3149.00	3149.00	3149.00	3149.00	3149.00	3149.00	3149.00	3149.00	3149.00	3149.00	3149.00	3149.00	3149.00	3149.00	3149.00	3149.00	3149.00	3149.00	3149.00	3149.50	3150.00	3150.00	3150.00	3150.00	3150.00	3150.00	3150.00	3150.00	3150.00	3150.00	3150.50	3151.00	3151.00	3151.00	3151.00	3151.00	3151.00	3151.00	3151.00	3151.00	3152.00	3152.00	3152.00	3151.00	3151.00	3151.00	3151.00	3151.00	3151.00	3151.00	3151.00	3150.00	3150.00	3150.00	3149.50	3149.00	3149.00	3149.00	3149.00	3149.00	3149.00	3149.50	3150.00	3150.00	3150.50	3151.00	3152.00	3152.00	3152.00	3152.00	3152.50	3153.00	3153.00	3153.00	3153.00	3153.00	3153.00	3153.00	3153.00	3153.00	3153.00	3153.00	3154.00	3154.00	3155.00	3155.50	3156.00	3156.00	3157.00	3158.00	3158.00	3158.50	3159.00	3159.00	3159.00	3159.50	3160.00	3160.00	3160.00	3160.00	3161.00	3161.00	3161.00	3161.00	3162.00	3162.00	3162.00	3163.00	3163.00	3164.00	3164.00	3164.50	3165.00	3165.50	3166.00	3166.00	3166.00	3166.50	3167.00	3167.00	3167.00	3168.00	3168.00	3168.00	3168.00	3168.00	3168.00	3169.00	3169.00	3169.00	3169.00	3169.00	3169.00	3169.00	3169.00	3169.00	3169.00	3169.00	3169.00	3169.00	3169.00	3169.00	3169.50	3170.00	3170.00	3170.00	3170.00	3170.00	3170.00	3170.00	3170.00	3170.00	3170.00	3170.00	3170.00	3170.00	3169.50	3169.00	3169.00	3169.00	3168.00	3168.00	3168.00	3167.50	3167.00	3167.00	3167.00	3166.50	3166.00	3166.00
3141.50	3142.00	3142.00	3142.50	3142.75	3143.00	3143.00	3144.00	3144.00	3144.00	3144.00	3145.00	3145.00	3145.75	3146.00	3146.25	3147.00	3147.00	3148.00	3148.00	3148.25	3148.75	3149.00	3149.00	3149.00	3149.00	3149.00	3149.00	3149.00	3149.00	3148.75	3148.25	3148.00	3148.00	3148.00	3148.00	3147.50	3147.25	3146.50	3146.50	3146.50	3146.50	3146.00	3146.00	3146.50	3146.50	3146.50	3146.50	3147.00	3147.50	3147.50	3147.50	3147.50	3147.50	3147.50	3147.50	3147.50	3147.50	3147.50	3147.50	3147.50	3147.75	3148.25	3148.50	3148.50	3148.50	3148.50	3148.50	3148.50	3148.50	3148.75	3149.00	3149.00	3149.00	3149.00	3149.00	3149.00	3149.00	3149.00	3149.00	3149.00	3149.00	3149.00	3149.00	3149.00	3149.00	3149.00	3149.00	3149.00	3149.00	3149.00	3149.00	3149.00	3149.00	3149.00	3149.00	3149.00	3149.00	3149.00	3149.00	3149.00	3149.00	3149.00	3149.00	3149.00	3149.25	3149.50	3149.75	3150.00	3150.00	3150.00	3150.00	3150.00	3150.00	3150.00	3150.00	3150.25	3150.50	3150.50	3150.50	3150.50	3150.50	3150.50	3150.50	3150.50	3150.75	3151.50	3151.50	3151.50	3151.00	3151.00	3151.00	3151.00	3151.00	3151.00	3151.00	3151.00	3150.50	3150.00	3150.00	3149.75	3149.50	3149.50	3149.50	3149.50	3149.50	3149.50	3149.75	3150.50	3150.50	3150.75	3151.00	3152.00	3152.00	3152.00	3152.00	3152.50	3153.00	3153.00	3153.00	3153.00	3153.00	3153.00	3153.00	3153.00	3153.00	3153.50	3153.50	3154.00	3154.50	3155.00	3155.50	3156.00	3156.50	3157.25	3158.00	3158.50	3158.75	3159.00	3159.25	3159.50	3159.75	3160.00	3160.00	3160.50	3160.50	3161.00	3161.00	3161.00	3161.50	3162.00	3162.00	3162.00	3163.00	3163.00	3164.00	3164.25	3164.75	3165.00	3165.75	3166.00	3166.50	3166.50	3166.75	3167.00	3167.25	3167.50	3168.00	3168.00	3168.00	3168.00	3168.00	3168.25	3169.00	3169.00	3169.00	3169.00	3169.00	3169.00	3169.00	3169.00	3169.00	3169.00	3169.00	3169.00	3169.00	3169.00	3169.25	3169.75	3170.00	3170.00	3170.00	3170.50	3170.50	3170.50	3170.50	3170.50	3170.25	3170.00	3170.00	3170.00	3170.00	3169.50	3169.00	3169.00	3169.00	3168.00	3168.00	3168.00	3167.50	3167.00	3167.00	3167.00	3166.75	3166.50	3166.25
3142.00	3142.00	3142.00	3143.00	3143.00	3143.00	3143.00	3144.00	3144.00	3144.00	3144.00	3145.00	3145.00	3145.50	3146.00	3146.00	3147.00	3147.00	3148.00	3148.00	3148.00	3148.50	3149.00	3149.00	3149.00	3149.00	3149.00	3149.00	3149.00	3149.00	3149.00	3148.50	3148.00	3148.00	3148.00	3148.00	3148.00	3148.00	3147.00	3147.00	3147.00	3147.00	3146.00	3146.00	3147.00	3147.00	3147.00	3147.00	3147.50	3148.00	3148.00	3148.00	3148.00	3148.00	3148.00	3148.00	3148.00	3148.00	3148.00	3148.00	3148.00	3148.00	3148.50	3149.00	3149.00	3149.00	3149.00	3149.00	3149.00	3149.00	3149.00	3149.00	3149.00	3149.00	3149.00	3149.00	3149.00	3149.00	3149.00	3149.00	3149.00	3149.00	3149.00	3149.00	3149.00	3149.00	3149.00	3149.00	3149.00	3149.00	3149.00	3149.00	3149.00	3149.00	3149.00	3149.00	3149.00	3149.00	3149.00	3149.00	3149.00	3149.00	3149.00	3149.00	3149.00	3149.00	3149.00	3149.50	3150.00	3150.00	3150.00	3150.00	3150.00	3150.00	3150.00	3150.00	3150.00	3150.00	3150.00	3150.00	3150.00	3150.00	3150.00	3150.00	3150.00	3150.50	3151.00	3151.00	3151.00	3151.00	3151.00	3151.00	3151.00	3151.00	3151.00	3151.00	3151.00	3151.00	3150.00	3150.00	3150.00	3150.00	3150.00	3150.00	3150.00	3150.00	3150.00	3150.00	3151.00	3151.00	3151.00	3151.00	3152.00	3152.00	3152.00	3152.00	3152.50	3153.00	3153.00	3153.00	3153.00	3153.00	3153.00	3153.00	3153.00	3153.00	3154.00	3154.00	3154.00	3155.00	3155.00	3155.50	3156.00	3157.00	3157.50	3158.00	3159.00	3159.00	3159.00	3159.50	3160.00	3160.00	3160.00	3160.00	3161.00	3161.00	3161.00	3161.00	3161.00	3162.00	3162.00	3162.00	3162.00	3163.00	3163.00	3164.00	3164.50	3165.00	3165.00	3166.00	3166.00	3167.00	3167.00	3167.00	3167.00	3167.50	3168.00	3168.00	3168.00	3168.00	3168.00	3168.00	3168.50	3169.00	3169.00	3169.00	3169.00	3169.00	3169.00	3169.00	3169.00	3169.00	3169.00	3169.00	3169.00	3169.00	3169.00	3169.50	3170.00	3170.00	3170.00	3170.00	3171.00	3171.00	3171.00	3171.00	3171.00	3170.50	3170.00	3170.00	3170.00	3170.00	3169.50	3169.00	3169.00	3169.00	3168.00	3168.00	3168.00	3167.50	3167.00	3167.00	3167.00	3167.00	3167.00	3166.50
3142.50	3142.50	3142.50	3143.00	3143.00	3143.00	3143.25	3144.00	3144.00	3144.00	3144.00	3144.50	3145.00	3145.25	3145.50	3145.75	3146.50	3147.00	3147.50	3147.50	3148.00	3148.25	3148.75	3149.00	3149.00	3149.00	3149.00	3149.00	3149.00	3149.00	3149.00	3148.75	3148.50	3148.25	3148.00	3148.00	3148.00	3148.00	3147.50	3147.50	3147.50	3147.50	3147.00	3147.00	3147.50	3147.50	3147.50	3147.50	3147.75	3148.00	3148.50	3148.50	3148.50	3148.50	3148.50	3148.50	3148.50	3148.50	3148.00	3148.50	3148.50	3148.50	3148.75	3149.00	3149.00	3149.00	3149.00	3149.00	3149.00	3149.00	3149.00	3149.00	3149.00	3149.00	3149.00	3149.00	3149.00	3149.25	3149.50	3149.50	3149.50	3149.50	3149.50	3149.50	3149.50	3149.50	3149.50	3149.50	3149.50	3149.50	3149.50	3149.50	3149.50	3149.50	3149.50	3149.50	3149.50	3149.50	3149.50	3149.00	3149.00	3149.00	3149.00	3149.00	3149.00	3149.00	3149.00	3149.25	3149.50	3149.50	3149.50	3149.50	3149.50	3149.50	3149.50	3149.50	3149.75	3149.75	3149.50	3150.00	3150.00	3150.00	3150.00	3150.00	3150.00	3150.25	3150.50	3150.50	3150.50	3150.50	3150.75	3151.00	3151.00	3151.00	3151.00	3151.00	3151.00	3150.75	3150.00	3150.00	3150.00	3150.00	3150.00	3150.00	3150.00	3150.50	3150.50	3150.50	3151.00	3151.00	3151.00	3151.00	3152.00	3152.00	3152.00	3152.00	3152.25	3152.50	3152.50	3152.50	3152.50	3152.75	3153.00	3153.00	3153.00	3153.25	3154.00	3154.50	3154.50	3155.00	3155.25	3155.75	3156.25	3157.50	3158.00	3158.50	3159.00	3159.50	3159.50	3159.75	3160.25	3160.50	3160.50	3160.50	3161.00	3161.00	3161.00	3161.00	3161.00	3162.00	3162.00	3162.00	3162.00	3163.00	3163.25	3164.00	3164.50	3165.00	3165.00	3166.00	3166.50	3167.00	3167.00	3167.00	3167.50	3167.75	3168.00	3168.00	3168.00	3168.00	3168.00	3168.00	3168.25	3168.50	3168.50	3169.00	3169.00	3169.00	3169.00	3169.00	3169.00	3169.00	3169.00	3169.00	3169.00	3169.00	3169.25	3169.75	3170.00	3170.00	3170.00	3170.00	3171.00	3171.00	3171.00	3171.00	3171.00	3170.75	3170.50	3170.50	3170.00	3170.00	3169.75	3169.25	3169.00	3169.00	3168.25	3168.00	3168.00	3167.75	3167.25	3167.00	3167.00	3167.00	3167.00	3166.75
3143.00	3143.00	3143.00	3143.00	3143.00	3143.00	3143.50	3144.00	3144.00	3144.00	3144.00	3144.00	3145.00	3145.00	3145.00	3145.50	3146.00	3147.00	3147.00	3147.00	3148.00	3148.00	3148.50	3149.00	3149.00	3149.00	3149.00	3149.00	3149.00	3149.00	3149.00	3149.00	3149.00	3148.50	3148.00	3148.00	3148.00	3148.00	3148.00	3148.00	3148.00	3148.00	3148.00	3148.00	3148.00	3148.00	3148.00	3148.00	3148.00	3148.00	3149.00	3149.00	3149.00	3149.00	3149.00	3149.00	3149.00	3149.00	3148.00	3149.00	3149.00	3149.00	3149.00	3149.00	3149.00	3149.00	3149.00	3149.00	3149.00	3149.00	3149.00	3149.00	3149.00	3149.00	3149.00	3149.00	3149.00	3149.50	3150.00	3150.00	3150.00	3150.00	3150.00	3150.00	3150.00	3150.00	3150.00	3150.00	3150.00	3150.00	3150.00	3150.00	3150.00	3150.00	3150.00	3150.00	3150.00	3150.00	3150.00	3149.00	3149.00	3149.00	3149.00	3149.00	3149.00	3149.00	3149.00	3149.00	3149.00	3149.00	3149.00	3149.00	3149.00	3149.00	3149.00	3149.00	3149.50	3149.50	3149.00	3150.00	3150.00	3150.00	3150.00	3150.00	3150.00	3150.00	3150.00	3150.00	3150.00	3150.00	3150.50	3151.00	3151.00	3151.00	3151.00	3151.00	3151.00	3150.50	3150.00	3150.00	3150.00	3150.00	3150.00	3150.00	3150.00	3151.00	3151.00	3151.00	3151.00	3151.00	3151.00	3151.00	3152.00	3152.00	3152.00	3152.00	3152.00	3152.00	3152.00	3152.00	3152.00	3152.50	3153.00	3153.00	3153.00	3153.50	3154.00	3155.00	3155.00	3155.00	3155.50	3156.00	3156.50	3158.00	3158.50	3159.00	3159.00	3160.00	3160.00	3160.00	3160.50	3161.00	3161.00	3161.00	3161.00	3161.00	3161.00	3161.00	3161.00	3162.00	3162.00	3162.00	3162.00	3163.00	3163.50	3164.00	3164.50	3165.00	3165.00	3166.00	3167.00	3167.00	3167.00	3167.00	3168.00	3168.00	3168.00	3168.00	3168.00	3168.00	3168.00	3168.00	3168.00	3168.00	3168.00	3169.00	3169.00	3169.00	3169.00	3169.00	3169.00	3169.00	3169.00	3169.00	3169.00	3169.00	3169.50	3170.00	3170.00	3170.00	3170.00	3170.00	3171.00	3171.00	3171.00	3171.00	3171.00	3171.00	3171.00	3171.00	3170.00	3170.00	3170.00	3169.50	3169.00	3169.00	3168.50	3168.00	3168.00	3168.00	3167.50	3167.00	3167.00	3167.00	3167.00	3167.00
3143.00	3143.00	3143.00	3143.00	3143.00	3143.00	3143.50	3144.00	3144.00	3144.00	3144.00	3144.00	3145.00	3145.00	3145.00	3145.50	3146.00	3147.00	3147.00	3147.00	3148.00	3148.00	3148.50	3149.00	3149.00	3149.00	3149.00	3149.00	3149.00	3149.00	3149.00	3149.00	3149.00	3148.50	3148.00	3148.00	3148.00	3148.00	3148.00	3148.00	3148.00	3148.00	3148.00	3148.00	3148.00	3148.00	3148.00	3148.00	3148.00	3148.00	3149.00	3149.00	3149.00	3149.00	3149.00	3149.00	3149.00	3149.00	3148.00	3149.00	3149.00	3149.00	3149.00	3149.00	3149.00	3149.00	3149.00	3149.00	3149.00	3149.00	3149.00	3149.00	3149.00	3149.00	3149.00	3149.00	3149.00	3149.50	3150.00	3150.00	3150.00	3150.00	3150.00	3150.00	3150.00	3150.00	3150.00	3150.00	3150.00	3150.00	3150.00	3150.00	3150.00	3150.00	3150.00	3150.00	3150.00	3150.00	3150.00	3149.00	3149.00	3149.00	3149.00	3149.00	3149.00	3149.00	3149.00	3149.00	3149.00	3149.00	3149.00	3149.00	3149.00	3149.00	3149.00	3149.00	3149.50	3149.50	3149.00	3150.00	3150.00	3150.00	3150.00	3150.00	3150.00	3150.00	3150.00	3150.00	3150.00	3150.00	3150.50	3151.00	3151.00	3151.00	3151.00	3151.00	3151.00	3150.50	3150.00	3150.00	3150.00	3150.00	3150.00	3150.00	3150.00	3151.00	3151.00	3151.00	3151.00	3151.00	3151.00	3151.00	3152.00	3152.00	3152.00	3152.00	3152.00	3152.00	3152.00	3152.00	3152.00	3152.50	3153.00	3153.00	3153.00	3153.50	3154.00	3155.00	3155.00	3155.00	3155.50	3156.00	3156.50	3158.00	3158.50	3159.00	3159.00	3160.00	3160.00	3160.00	3160.50	3161.00	3161.00	3161.00	3161.00	3161.00	3161.00	3161.00	3161.00	3162.00	3162.00	3162.00	3162.00	3163.00	3163.50	3164.00	3164.50	3165.00	3165.00	3166.00	3167.00	3167.00	3167.00	3167.00	3168.00	3168.00	3168.00	3168.00	3168.00	3168.00	3168.00	3168.00	3168.00	3168.00	3168.00	3169.00	3169.00	3169.00	3169.00	3169.00	3169.00	3169.00	3169.00	3169.00	3169.00	3169.00	3169.50	3170.00	3170.00	3170.00	3170.00	3170.00	3171.00	3171.00	3171.00	3171.00	3171.00	3171.00	3171.00	3171.00	3170.00	3170.00	3170.00	3169.50	3169.00	3169.00	3168.50	3168.00	3168.00	3168.00	3167.50	3167.00	3167.00	3167.00	3167.00	3167.00
3143.00	3143.00	3143.00	3143.00	3143.00	3143.00	3143.50	3144.00	3144.00	3144.00	3144.00	3144.00	3145.00	3145.00	3145.00	3145.50	3146.00	3147.00	3147.00	3147.00	3148.00	3148.00	3148.50	3149.00	3149.00	3149.00	3149.00	3149.00	3149.00	3149.00	3149.00	3149.00	3149.00	3148.50	3148.00	3148.00	3148.00	3148.00	3148.00	3148.00	3148.00	3148.00	3148.00	3148.00	3148.00	3148.00	3148.00	3148.00	3148.00	3148.00	3149.00	3149.00	3149.00	3149.00	3149.00	3149.00	3149.00	3149.00	3148.00	3149.00	3149.00	3149.00	3149.00	3149.00	3149.00	3149.00	3149.00	3149.00	3149.00	3149.00	3149.00	3149.00	3149.00	3149.00	3149.00	3149.00	3149.00	3149.50	3150.00	3150.00	3150.00	3150.00	3150.00	3150.00	3150.00	3150.00	3150.00	3150.00	3150.00	3150.00	3150.00	3150.00	3150.00	3150.00	3150.00	3150.00	3150.00	3150.00	3150.00	3149.00	3149.00	3149.00	3149.00	3149.00	3149.00	3149.00	3149.00	3149.00	3149.00	3149.00	3149.00	3149.00	3149.00	3149.00	3149.00	3149.00	3149.50	3149.50	3149.00	3150.00	3150.00	3150.00	3150.00	3150.00	3150.00	3150.00	3150.00	3150.00	3150.00	3150.00	3150.50	3151.00	3151.00	3151.00	3151.00	3151.00	3151.00	3150.50	3150.00	3150.00	3150.00	3150.00	3150.00	3150.00	3150.00	3151.00	3151.00	3151.00	3151.00	3151.00	3151.00	3151.00	3152.00	3152.00	3152.00	3152.00	3152.00	3152.00	3152.00	3152.00	3152.00	3152.50	3153.00	3153.00	3153.00	3153.50	3154.00	3155.00	3155.00	3155.00	3155.50	3156.00	3156.50	3158.00	3158.50	3159.00	3159.00	3160.00	3160.00	3160.00	3160.50	3161.00	3161.00	3161.00	3161.00	3161.00	3161.00	3161.00	3161.00	3162.00	3162.00	3162.00	3162.00	3163.00	3163.50	3164.00	3164.50	3165.00	3165.00	3166.00	3167.00	3167.00	3167.00	3167.00	3168.00	3168.00	3168.00	3168.00	3168.00	3168.00	3168.00	3168.00	3168.00	3168.00	3168.00	3169.00	3169.00	3169.00	3169.00	3169.00	3169.00	3169.00	3169.00	3169.00	3169.00	3169.00	3169.50	3170.00	3170.00	3170.00	3170.00	3170.00	3171.00	3171.00	3171.00	3171.00	3171.00	3171.00	3171.00	3171.00	3170.00	3170.00	3170.00	3169.50	3169.00	3169.00	3168.50	3168.00	3168.00	3168.00	3167.50	3167.00	3167.00	3167.00	3167.00	3167.00
3143.00	3143.00	3143.00	3143.00	3143.00	3143.50	3144.00	3144.00	3144.00	3144.00	3144.00	3144.00	3144.00	3144.50	3145.00	3145.00	3145.00	3146.00	3147.00	3147.00	3147.00	3147.50	3148.00	3148.00	3148.00	3149.00	3149.00	3149.00	3149.00	3149.00	3149.00	3149.00	3149.00	3149.00	3149.00	3148.00	3148.00	3148.00	3148.00	3148.00	3148.00	3149.00	3149.00	3149.00	3149.00	3149.00	3149.00	3150.00	3149.50	3149.00	3149.00	3149.00	3149.00	3149.00	3149.00	3149.00	3149.00	3149.00	3149.00	3149.00	3149.00	3149.00	3149.00	3149.00	3149.00	3149.00	3149.00	3149.00	3149.00	3149.00	3149.00	3149.00	3149.00	3149.00	3149.50	3150.00	3150.00	3150.00	3150.00	3150.00	3150.00	3150.00	3150.00	3150.00	3150.00	3150.00	3150.00	3150.00	3150.00	3150.00	3150.00	3150.00	3150.00	3150.00	3150.00	3150.00	3150.00	3150.00	3150.00	3150.00	3150.00	3149.00	3149.00	3149.00	3149.00	3149.00	3149.00	3149.00	3149.00	3149.00	3149.00	3149.00	3149.00	3149.00	3149.00	3149.00	3149.00	3149.00	3149.00	3149.00	3149.00	3149.00	3149.00	3149.00	3149.00	3149.50	3150.00	3150.00	3150.00	3150.00	3150.00	3150.00	3150.00	3150.00	3150.00	3150.00	3150.00	3150.00	3150.00	3150.00	3150.00	3150.00	3151.00	3151.00	3151.00	3151.00	3151.00	3151.00	3151.00	3151.00	3151.50	3152.00	3152.00	3152.00	3152.00	3152.00	3152.00	3152.00	3152.00	3152.00	3152.00	3152.00	3152.00	3152.50	3153.50	3154.00	3154.00	3155.00	3155.50	3156.00	3156.50	3157.00	3157.50	3158.00	3159.50	3160.00	3160.00	3160.50	3161.00	3161.00	3161.00	3161.00	3161.00	3161.00	3161.00	3161.00	3162.00	3162.00	3162.00	3162.00	3162.50	3163.00	3163.00	3163.50	3164.00	3164.50	3165.00	3165.00	3166.00	3166.00	3167.00	3167.00	3167.00	3167.50	3168.00	3168.00	3168.00	3168.00	3168.00	3168.00	3168.00	3168.00	3168.00	3168.00	3168.00	3168.00	3168.00	3169.00	3169.00	3169.00	3169.00	3169.00	3169.00	3169.00	3169.00	3169.50	3170.00	3170.00	3170.00	3170.00	3170.00	3170.50	3171.00	3171.00	3171.00	3171.00	3171.00	3171.00	3171.00	3171.00	3171.00	3170.50	3170.00	3170.00	3170.00	3169.00	3169.00	3169.00	3169.00	3168.00	3168.00	3167.00	3167.00	3167.00	3167.00	3167.00
3143.00	3143.00	3143.00	3143.00	3143.00	3143.50	3144.00	3144.00	3144.00	3144.00	3144.00	3144.00	3144.00	3144.50	3145.00	3145.00	3145.00	3146.00	3147.00	3147.00	3147.00	3147.50	3148.00	3148.00	3148.00	3149.00	3149.00	3149.00	3149.00	3149.00	3149.00	3149.00	3149.00	3149.00	3149.00	3148.00	3148.00	3148.00	3148.00	3148.00	3148.00	3149.00	3149.00	3149.00	3149.00	3149.00	3149.00	3150.00	3149.50	3149.00	3149.00	3149.00	3149.00	3149.00	3149.00	3149.00	3149.00	3149.00	3149.00	3149.00	3149.00	3149.00	3149.00	3149.00	3149.00	3149.00	3149.00	3149.00	3149.00	3149.00	3149.00	3149.00	3149.00	3149.00	3149.50	3150.00	3150.00	3150.00	3150.00	3150.00	3150.00	3150.00	3150.00	3150.00	3150.00	3150.00	3150.00	3150.00	3150.00	3150.00	3150.00	3150.00	3150.00	3150.00	3150.00	3150.00	3150.00	3150.00	3150.00	3150.00	3150.00	3149.00	3149.00	3149.00	3149.00	3149.00	3149.00	3149.00	3149.00	3149.00	3149.00	3149.00	3149.00	3149.00	3149.00	3149.00	3149.00	3149.00	3149.00	3149.00	3149.00	3149.00	3149.00	3149.00	3149.00	3149.50	3150.00	3150.00	3150.00	3150.00	3150.00	3150.00	3150.00	3150.00	3150.00	3150.00	3150.00	3150.00	3150.00	3150.00	3150.00	3150.00	3151.00	3151.00	3151.00	3151.00	3151.00	3151.00	3151.00	3151.00	3151.50	3152.00	3152.00	3152.00	3152.00	3152.00	3152.00	3152.00	3152.00	3152.00	3152.00	3152.00	3152.00	3152.50	3153.50	3154.00	3154.00	3155.00	3155.50	3156.00	3156.50	3157.00	3157.50	3158.00	3159.50	3160.00	3160.00	3160.50	3161.00	3161.00	3161.00	3161.00	3161.00	3161.00	3161.00	3161.00	3162.00	3162.00	3162.00	3162.00	3162.50	3163.00	3163.00	3163.50	3164.00	3164.50	3165.00	3165.00	3166.00	3166.00	3167.00	3167.00	3167.00	3167.50	3168.00	3168.00	3168.00	3168.00	3168.00	3168.00	3168.00	3168.00	3168.00	3168.00	3168.00	3168.00	3168.00	3169.00	3169.00	3169.00	3169.00	3169.00	3169.00	3169.00	3169.00	3169.50	3170.00	3170.00	3170.00	3170.00	3170.00	3170.50	3171.00	3171.00	3171.00	3171.00	3171.00	3171.00	3171.00	3171.00	3171.00	3170.50	3170.00	3170.00	3170.00	3169.00	3169.00	3169.00	3169.00	3168.00	3168.00	3167.00	3167.00	3167.00	3167.00	3167.00
3143.50	3143.50	3143.50	3143.50	3143.50	3143.75	3144.00	3144.00	3144.00	3144.00	3144.00	3144.00	3144.00	3144.75	3145.00	3145.00	3145.00	3146.00	3146.50	3147.00	3147.00	3147.50	3148.00	3148.00	3148.00	3149.00	3149.00	3149.00	3149.00	3149.00	3149.00	3149.00	3149.00	3149.00	3149.00	3148.50	3148.50	3148.50	3148.75	3149.00	3149.00	3149.50	3149.50	3149.50	3149.50	3149.50	3149.50	3150.00	3149.75	3149.50	3149.50	3149.50	3149.50	3149.50	3149.50	3149.50	3149.50	3149.50	3149.50	3149.50	3149.50	3149.50	3149.50	3149.50	3149.50	3149.50	3149.50	3149.50	3149.50	3149.50	3149.50	3149.50	3149.50	3149.50	3149.75	3150.00	3150.00	3150.00	3150.00	3150.00	3150.00	3150.00	3150.00	3150.00	3150.00	3150.00	3150.00	3150.00	3150.00	3150.00	3150.00	3150.00	3150.00	3150.00	3150.00	3150.00	3150.00	3150.00	3150.00	3150.00	3150.00	3149.50	3149.50	3149.25	3149.00	3149.00	3149.00	3149.00	3149.00	3149.00	3149.00	3149.00	3149.00	3149.00	3149.00	3149.00	3149.00	3149.00	3149.00	3149.00	3149.00	3149.00	3149.00	3149.00	3149.00	3149.50	3150.00	3150.00	3150.00	3150.00	3150.00	3150.00	3150.00	3150.00	3150.00	3150.00	3150.00	3150.00	3150.50	3150.50	3150.50	3150.50	3151.00	3151.00	3151.00	3151.00	3151.00	3151.25	3151.50	3151.50	3151.75	3152.00	3152.00	3152.00	3152.00	3152.00	3152.00	3152.00	3152.00	3152.00	3152.00	3152.00	3152.25	3152.75	3153.50	3154.00	3154.00	3155.00	3155.50	3156.50	3157.00	3157.50	3158.00	3158.50	3159.50	3160.00	3160.00	3160.75	3161.00	3161.00	3161.00	3161.00	3161.00	3161.50	3161.50	3161.50	3162.00	3162.25	3162.50	3162.50	3162.75	3163.00	3163.50	3163.75	3164.25	3165.00	3165.50	3165.50	3166.00	3166.25	3167.00	3167.50	3167.50	3167.75	3168.00	3168.00	3168.00	3168.00	3168.00	3168.00	3168.00	3168.00	3168.00	3168.00	3168.00	3168.00	3168.00	3168.50	3168.50	3168.75	3169.00	3169.00	3169.00	3169.00	3169.00	3169.50	3170.00	3170.00	3170.00	3170.00	3170.00	3170.50	3171.00	3171.00	3171.00	3171.00	3171.00	3171.00	3171.00	3171.00	3171.00	3170.50	3170.00	3170.00	3170.00	3169.00	3169.00	3169.00	3169.00	3168.00	3168.00	3167.00	3167.00	3167.00	3167.00	3167.00
3144.00	3144.00	3144.00	3144.00	3144.00	3144.00	3144.00	3144.00	3144.00	3144.00	3144.00	3144.00	3144.00	3145.00	3145.00	3145.00	3145.00	3146.00	3146.00	3147.00	3147.00	3147.50	3148.00	3148.00	3148.00	3149.00	3149.00	3149.00	3149.00	3149.00	3149.00	3149.00	3149.00	3149.00	3149.00	3149.00	3149.00	3149.00	3149.50	3150.00	3150.00	3150.00	3150.00	3150.00	3150.00	3150.00	3150.00	3150.00	3150.00	3150.00	3150.00	3150.00	3150.00	3150.00	3150.00	3150.00	3150.00	3150.00	3150.00	3150.00	3150.00	3150.00	3150.00	3150.00	3150.00	3150.00	3150.00	3150.00	3150.00	3150.00	3150.00	3150.00	3150.00	3150.00	3150.00	3150.00	3150.00	3150.00	3150.00	3150.00	3150.00	3150.00	3150.00	3150.00	3150.00	3150.00	3150.00	3150.00	3150.00	3150.00	3150.00	3150.00	3150.00	3150.00	3150.00	3150.00	3150.00	3150.00	3150.00	3150.00	3150.00	3150.00	3150.00	3149.50	3149.00	3149.00	3149.00	3149.00	3149.00	3149.00	3149.00	3149.00	3149.00	3149.00	3149.00	3149.00	3149.00	3149.00	3149.00	3149.00	3149.00	3149.00	3149.00	3149.00	3149.00	3149.50	3150.00	3150.00	3150.00	3150.00	3150.00	3150.00	3150.00	3150.00	3150.00	3150.00	3150.00	3150.00	3151.00	3151.00	3151.00	3151.00	3151.00	3151.00	3151.00	3151.00	3151.00	3151.50	3152.00	3152.00	3152.00	3152.00	3152.00	3152.00	3152.00	3152.00	3152.00	3152.00	3152.00	3152.00	3152.00	3152.00	3152.50	3153.00	3153.50	3154.00	3154.00	3155.00	3155.50	3157.00	3157.50	3158.00	3158.50	3159.00	3159.50	3160.00	3160.00	3161.00	3161.00	3161.00	3161.00	3161.00	3161.00	3162.00	3162.00	3162.00	3162.00	3162.50	3163.00	3163.00	3163.00	3163.00	3164.00	3164.00	3164.50	3165.50	3166.00	3166.00	3166.00	3166.50	3167.00	3168.00	3168.00	3168.00	3168.00	3168.00	3168.00	3168.00	3168.00	3168.00	3168.00	3168.00	3168.00	3168.00	3168.00	3168.00	3168.00	3168.00	3168.00	3168.50	3169.00	3169.00	3169.00	3169.00	3169.00	3169.50	3170.00	3170.00	3170.00	3170.00	3170.00	3170.50	3171.00	3171.00	3171.00	3171.00	3171.00	3171.00	3171.00	3171.00	3171.00	3170.50	3170.00	3170.00	3170.00	3169.00	3169.00	3169.00	3169.00	3168.00	3168.00	3167.00	3167.00	3167.00	3167.00	3167.00
3144.50	3144.25	3144.00	3144.00	3144.00	3144.00	3144.00	3144.00	3144.00	3144.00	3144.00	3144.00	3144.50	3145.00	3145.00	3145.00	3145.00	3146.00	3146.00	3147.00	3147.25	3147.75	3148.00	3148.00	3148.00	3149.00	3149.00	3149.00	3149.00	3149.00	3149.00	3149.25	3149.50	3149.50	3149.50	3149.50	3149.50	3149.50	3149.75	3150.00	3150.25	3150.50	3150.50	3150.50	3150.50	3150.50	3150.50	3150.50	3150.50	3150.50	3150.50	3150.50	3150.25	3150.00	3150.00	3150.00	3150.00	3150.00	3150.00	3150.00	3150.00	3150.00	3150.00	3150.00	3150.00	3150.00	3150.00	3150.00	3150.00	3150.00	3150.00	3150.00	3150.00	3150.00	3150.00	3150.00	3150.25	3150.50	3150.50	3150.50	3150.50	3150.50	3150.50	3150.50	3150.50	3150.50	3150.50	3150.25	3150.00	3150.00	3150.00	3150.00	3150.00	3150.00	3150.00	3150.00	3150.00	3150.00	3150.00	3150.00	3150.00	3150.00	3150.00	3149.75	3149.50	3149.50	3149.50	3149.50	3149.25	3149.00	3149.00	3149.00	3149.00	3149.00	3149.00	3149.00	3149.00	3149.25	3149.25	3149.00	3149.00	3149.25	3149.50	3149.50	3149.50	3149.75	3150.00	3150.00	3150.00	3150.00	3150.25	3150.50	3150.25	3150.00	3150.00	3150.50	3150.50	3150.50	3151.00	3151.00	3151.00	3151.00	3151.00	3151.00	3151.50	3151.50	3151.50	3151.75	3152.00	3152.00	3152.00	3152.00	3152.00	3152.00	3152.00	3152.00	3152.00	3152.00	3152.00	3152.00	3152.00	3152.00	3152.50	3153.00	3153.50	3154.00	3154.50	3155.00	3156.00	3157.00	3157.75	3158.00	3158.50	3159.00	3159.75	3160.00	3160.50	3161.00	3161.00	3161.25	3161.50	3161.50	3161.50	3162.00	3162.00	3162.00	3162.50	3162.75	3163.00	3163.00	3163.50	3163.50	3164.00	3164.50	3164.75	3165.50	3166.00	3166.25	3166.50	3167.00	3167.50	3168.00	3168.00	3168.00	3168.00	3168.00	3168.00	3168.00	3168.00	3168.00	3168.00	3168.00	3168.00	3168.00	3168.00	3168.00	3168.00	3168.00	3168.00	3168.25	3168.50	3169.00	3169.00	3169.00	3169.00	3169.50	3170.00	3170.00	3170.00	3170.00	3170.00	3170.50	3171.00	3171.00	3171.00	3171.00	3171.00	3171.00	3171.00	3171.00	3171.00	3170.50	3170.00	3170.00	3170.00	3169.50	3169.00	3169.00	3169.00	3168.00	3168.00	3167.50	3167.50	3167.00	3167.00	3167.00
3145.00	3144.50	3144.00	3144.00	3144.00	3144.00	3144.00	3144.00	3144.00	3144.00	3144.00	3144.00	3145.00	3145.00	3145.00	3145.00	3145.00	3146.00	3146.00	3147.00	3147.50	3148.00	3148.00	3148.00	3148.00	3149.00	3149.00	3149.00	3149.00	3149.00	3149.00	3149.50	3150.00	3150.00	3150.00	3150.00	3150.00	3150.00	3150.00	3150.00	3150.50	3151.00	3151.00	3151.00	3151.00	3151.00	3151.00	3151.00	3151.00	3151.00	3151.00	3151.00	3150.50	3150.00	3150.00	3150.00	3150.00	3150.00	3150.00	3150.00	3150.00	3150.00	3150.00	3150.00	3150.00	3150.00	3150.00	3150.00	3150.00	3150.00	3150.00	3150.00	3150.00	3150.00	3150.00	3150.00	3150.50	3151.00	3151.00	3151.00	3151.00	3151.00	3151.00	3151.00	3151.00	3151.00	3151.00	3150.50	3150.00	3150.00	3150.00	3150.00	3150.00	3150.00	3150.00	3150.00	3150.00	3150.00	3150.00	3150.00	3150.00	3150.00	3150.00	3150.00	3150.00	3150.00	3150.00	3150.00	3149.50	3149.00	3149.00	3149.00	3149.00	3149.00	3149.00	3149.00	3149.00	3149.50	3149.50	3149.00	3149.00	3149.50	3150.00	3150.00	3150.00	3150.00	3150.00	3150.00	3150.00	3150.00	3150.50	3151.00	3150.50	3150.00	3150.00	3151.00	3151.00	3151.00	3151.00	3151.00	3151.00	3151.00	3151.00	3151.00	3152.00	3152.00	3152.00	3152.00	3152.00	3152.00	3152.00	3152.00	3152.00	3152.00	3152.00	3152.00	3152.00	3152.00	3152.00	3152.00	3152.00	3152.00	3152.50	3153.00	3153.50	3154.00	3155.00	3155.00	3156.50	3157.00	3158.00	3158.00	3158.50	3159.00	3160.00	3160.00	3161.00	3161.00	3161.00	3161.50	3162.00	3162.00	3162.00	3162.00	3162.00	3162.00	3163.00	3163.00	3163.00	3163.00	3164.00	3164.00	3164.00	3165.00	3165.00	3165.50	3166.00	3166.50	3167.00	3167.50	3168.00	3168.00	3168.00	3168.00	3168.00	3168.00	3168.00	3168.00	3168.00	3168.00	3168.00	3168.00	3168.00	3168.00	3168.00	3168.00	3168.00	3168.00	3168.00	3168.00	3168.00	3169.00	3169.00	3169.00	3169.00	3169.50	3170.00	3170.00	3170.00	3170.00	3170.00	3170.50	3171.00	3171.00	3171.00	3171.00	3171.00	3171.00	3171.00	3171.00	3171.00	3170.50	3170.00	3170.00	3170.00	3170.00	3169.00	3169.00	3169.00	3168.00	3168.00	3168.00	3168.00	3167.00	3167.00	3167.00
3145.00	3144.50	3144.00	3144.00	3144.00	3144.00	3144.00	3144.00	3144.00	3144.00	3144.00	3144.00	3145.00	3145.00	3145.00	3145.00	3145.00	3146.00	3146.00	3147.00	3147.50	3148.00	3148.00	3148.00	3148.00	3149.00	3149.00	3149.00	3149.00	3149.00	3149.00	3149.50	3150.00	3150.00	3150.00	3150.00	3150.00	3150.00	3150.00	3150.00	3150.50	3151.00	3151.00	3151.00	3151.00	3151.00	3151.00	3151.00	3151.00	3151.00	3151.00	3151.00	3150.50	3150.00	3150.00	3150.00	3150.00	3150.00	3150.00	3150.00	3150.00	3150.00	3150.00	3150.00	3150.00	3150.00	3150.00	3150.00	3150.00	3150.00	3150.00	3150.00	3150.00	3150.00	3150.00	3150.00	3150.50	3151.00	3151.00	3151.00	3151.00	3151.00	3151.00	3151.00	3151.00	3151.00	3151.00	3150.50	3150.00	3150.00	3150.00	3150.00	3150.00	3150.00	3150.00	3150.00	3150.00	3150.00	3150.00	3150.00	3150.00	3150.00	3150.00	3150.00	3150.00	3150.00	3150.00	3150.00	3149.50	3149.00	3149.00	3149.00	3149.00	3149.00	3149.00	3149.00	3149.00	3149.50	3149.50	3149.00	3149.00	3149.50	3150.00	3150.00	3150.00	3150.00	3150.00	3150.00	3150.00	3150.00	3150.50	3151.00	3150.50	3150.00	3150.00	3151.00	3151.00	3151.00	3151.00	3151.00	3151.00	3151.00	3151.00	3151.00	3152.00	3152.00	3152.00	3152.00	3152.00	3152.00	3152.00	3152.00	3152.00	3152.00	3152.00	3152.00	3152.00	3152.00	3152.00	3152.00	3152.00	3152.00	3152.50	3153.00	3153.50	3154.00	3155.00	3155.00	3156.50	3157.00	3158.00	3158.00	3158.50	3159.00	3160.00	3160.00	3161.00	3161.00	3161.00	3161.50	3162.00	3162.00	3162.00	3162.00	3162.00	3162.00	3163.00	3163.00	3163.00	3163.00	3164.00	3164.00	3164.00	3165.00	3165.00	3165.50	3166.00	3166.50	3167.00	3167.50	3168.00	3168.00	3168.00	3168.00	3168.00	3168.00	3168.00	3168.00	3168.00	3168.00	3168.00	3168.00	3168.00	3168.00	3168.00	3168.00	3168.00	3168.00	3168.00	3168.00	3168.00	3169.00	3169.00	3169.00	3169.00	3169.50	3170.00	3170.00	3170.00	3170.00	3170.00	3170.50	3171.00	3171.00	3171.00	3171.00	3171.00	3171.00	3171.00	3171.00	3171.00	3170.50	3170.00	3170.00	3170.00	3170.00	3169.00	3169.00	3169.00	3168.00	3168.00	3168.00	3168.00	3167.00	3167.00	3167.00
3146.00	3146.00	3146.00	3146.00	3146.00	3145.50	3145.00	3145.00	3145.00	3145.00	3145.00	3145.00	3145.00	3145.50	3146.00	3146.00	3146.00	3146.00	3147.00	3147.00	3147.50	3148.00	3148.00	3148.00	3148.50	3149.00	3149.00	3149.00	3150.00	3150.00	3150.00	3150.00	3150.00	3150.00	3150.00	3150.00	3150.50	3151.00	3151.00	3151.00	3151.00	3152.00	3152.00	3152.00	3152.00	3152.00	3152.00	3152.00	3152.00	3152.00	3152.00	3151.00	3151.00	3151.00	3151.00	3151.00	3151.00	3151.00	3150.50	3150.00	3150.00	3150.00	3150.00	3150.00	3150.00	3150.00	3150.00	3150.00	3150.50	3151.00	3151.00	3151.00	3151.00	3151.00	3151.00	3151.00	3151.00	3151.00	3151.00	3151.00	3151.00	3151.00	3151.00	3151.00	3151.00	3151.00	3151.00	3151.00	3151.00	3151.00	3151.00	3151.00	3151.00	3151.00	3151.00	3151.00	3151.00	3151.00	3151.00	3151.00	3151.00	3151.00	3151.00	3151.00	3151.00	3151.00	3151.00	3150.00	3150.00	3150.00	3150.00	3150.00	3150.00	3150.00	3150.00	3150.00	3150.00	3150.50	3151.00	3151.00	3151.00	3150.50	3150.00	3151.00	3151.00	3151.00	3151.00	3151.00	3151.00	3151.00	3151.00	3151.00	3151.00	3151.00	3151.00	3151.00	3151.00	3151.00	3151.00	3151.00	3151.00	3151.50	3152.00	3152.00	3152.00	3152.00	3152.00	3152.00	3152.00	3152.00	3152.00	3152.00	3152.00	3152.00	3152.00	3152.00	3152.00	3152.00	3152.00	3152.00	3152.00	3152.00	3152.50	3153.00	3154.00	3154.00	3155.00	3156.00	3156.50	3157.00	3158.00	3158.00	3158.50	3159.00	3160.00	3160.00	3161.00	3161.00	3161.00	3161.50	3162.00	3162.00	3162.00	3162.00	3162.00	3162.00	3163.00	3163.00	3163.00	3163.00	3164.00	3165.00	3165.00	3165.50	3166.00	3166.50	3167.00	3167.00	3167.00	3168.00	3168.00	3168.00	3168.50	3169.00	3169.00	3168.50	3168.00	3168.00	3168.00	3168.00	3168.00	3168.00	3168.00	3168.00	3168.00	3168.00	3168.00	3168.00	3168.00	3168.00	3168.00	3169.00	3169.00	3169.00	3169.50	3170.00	3170.00	3170.00	3170.00	3171.00	3171.00	3171.00	3171.00	3171.00	3171.00	3171.00	3171.00	3171.00	3171.00	3171.00	3170.50	3170.00	3170.00	3170.00	3170.00	3170.00	3169.50	3169.00	3168.00	3168.00	3168.00	3168.00	3167.00	3167.00	3167.00	3167.00
3146.00	3146.00	3146.00	3146.00	3146.00	3145.50	3145.00	3145.00	3145.00	3145.00	3145.00	3145.00	3145.00	3145.50	3146.00	3146.00	3146.00	3146.00	3147.00	3147.00	3147.50	3148.00	3148.00	3148.00	3148.50	3149.00	3149.00	3149.00	3150.00	3150.00	3150.00	3150.00	3150.00	3150.00	3150.00	3150.00	3150.50	3151.00	3151.00	3151.00	3151.00	3152.00	3152.00	3152.00	3152.00	3152.00	3152.00	3152.00	3152.00	3152.00	3152.00	3151.00	3151.00	3151.00	3151.00	3151.00	3151.00	3151.00	3150.50	3150.00	3150.00	3150.00	3150.00	3150.00	3150.00	3150.00	3150.00	3150.00	3150.50	3151.00	3151.00	3151.00	3151.00	3151.00	3151.00	3151.00	3151.00	3151.00	3151.00	3151.00	3151.00	3151.00	3151.00	3151.00	3151.00	3151.00	3151.00	3151.00	3151.00	3151.00	3151.00	3151.00	3151.00	3151.00	3151.00	3151.00	3151.00	3151.00	3151.00	3151.00	3151.00	3151.00	3151.00	3151.00	3151.00	3151.00	3151.00	3150.00	3150.00	3150.00	3150.00	3150.00	3150.00	3150.00	3150.00	3150.00	3150.00	3150.50	3151.00	3151.00	3151.00	3150.50	3150.00	3151.00	3151.00	3151.00	3151.00	3151.00	3151.00	3151.00	3151.00	3151.00	3151.00	3151.00	3151.00	3151.00	3151.00	3151.00	3151.00	3151.00	3151.00	3151.50	3152.00	3152.00	3152.00	3152.00	3152.00	3152.00	3152.00	3152.00	3152.00	3152.00	3152.00	3152.00	3152.00	3152.00	3152.00	3152.00	3152.00	3152.00	3152.00	3152.00	3152.50	3153.00	3154.00	3154.00	3155.00	3156.00	3156.50	3157.00	3158.00	3158.00	3158.50	3159.00	3160.00	3160.00	3161.00	3161.00	3161.00	3161.50	3162.00	3162.00	3162.00	3162.00	3162.00	3162.00	3163.00	3163.00	3163.00	3163.00	3164.00	3165.00	3165.00	3165.50	3166.00	3166.50	3167.00	3167.00	3167.00	3168.00	3168.00	3168.00	3168.50	3169.00	3169.00	3168.50	3168.00	3168.00	3168.00	3168.00	3168.00	3168.00	3168.00	3168.00	3168.00	3168.00	3168.00	3168.00	3168.00	3168.00	3168.00	3169.00	3169.00	3169.00	3169.50	3170.00	3170.00	3170.00	3170.00	3171.00	3171.00	3171.00	3171.00	3171.00	3171.00	3171.00	3171.00	3171.00	3171.00	3171.00	3170.50	3170.00	3170.00	3170.00	3170.00	3170.00	3169.50	3169.00	3168.00	3168.00	3168.00	3168.00	3167.00	3167.00	3167.00	3167.00
3146.00	3146.00	3146.00	3146.00	3146.00	3145.50	3145.00	3145.00	3145.00	3145.00	3145.00	3145.00	3145.00	3145.50	3146.00	3146.00	3146.00	3146.00	3147.00	3147.00	3147.50	3148.00	3148.00	3148.00	3148.50	3149.00	3149.00	3149.00	3150.00	3150.00	3150.00	3150.00	3150.00	3150.00	3150.00	3150.00	3150.50	3151.00	3151.00	3151.00	3151.00	3152.00	3152.00	3152.00	3152.00	3152.00	3152.00	3152.00	3152.00	3152.00	3152.00	3151.00	3151.00	3151.00	3151.00	3151.00	3151.00	3151.00	3150.50	3150.00	3150.00	3150.00	3150.00	3150.00	3150.00	3150.00	3150.00	3150.00	3150.50	3151.00	3151.00	3151.00	3151.00	3151.00	3151.00	3151.00	3151.00	3151.00	3151.00	3151.00	3151.00	3151.00	3151.00	3151.00	3151.00	3151.00	3151.00	3151.00	3151.00	3151.00	3151.00	3151.00	3151.00	3151.00	3151.00	3151.00	3151.00	3151.00	3151.00	3151.00	3151.00	3151.00	3151.00	3151.00	3151.00	3151.00	3151.00	3150.00	3150.00	3150.00	3150.00	3150.00	3150.00	3150.00	3150.00	3150.00	3150.00	3150.50	3151.00	3151.00	3151.00	3150.50	3150.00	3151.00	3151.00	3151.00	3151.00	3151.00	3151.00	3151.00	3151.00	3151.00	3151.00	3151.00	3151.00	3151.00	3151.00	3151.00	3151.00	3151.00	3151.00	3151.50	3152.00	3152.00	3152.00	3152.00	3152.00	3152.00	3152.00	3152.00	3152.00	3152.00	3152.00	3152.00	3152.00	3152.00	3152.00	3152.00	3152.00	3152.00	3152.00	3152.00	3152.50	3153.00	3154.00	3154.00	3155.00	3156.00	3156.50	3157.00	3158.00	3158.00	3158.50	3159.00	3160.00	3160.00	3161.00	3161.00	3161.00	3161.50	3162.00	3162.00	3162.00	3162.00	3162.00	3162.00	3163.00	3163.00	3163.00	3163.00	3164.00	3165.00	3165.00	3165.50	3166.00	3166.50	3167.00	3167.00	3167.00	3168.00	3168.00	3168.00	3168.50	3169.00	3169.00	3168.50	3168.00	3168.00	3168.00	3168.00	3168.00	3168.00	3168.00	3168.00	3168.00	3168.00	3168.00	3168.00	3168.00	3168.00	3168.00	3169.00	3169.00	3169.00	3169.50	3170.00	3170.00	3170.00	3170.00	3171.00	3171.00	3171.00	3171.00	3171.00	3171.00	3171.00	3171.00	3171.00	3171.00	3171.00	3170.50	3170.00	3170.00	3170.00	3170.00	3170.00	3169.50	3169.00	3168.00	3168.00	3168.00	3168.00	3167.00	3167.00	3167.00	3167.00
3146.00	3146.00	3146.00	3146.00	3146.00	3146.00	3146.00	3146.00	3146.00	3146.00	3146.00	3146.00	3146.00	3146.00	3146.50	3147.00	3147.00	3147.00	3147.00	3147.00	3148.00	3148.00	3148.00	3148.50	3149.00	3149.00	3149.00	3149.00	3150.00	3150.00	3150.00	3150.00	3150.00	3150.50	3151.00	3151.00	3151.00	3151.00	3152.00	3152.00	3152.00	3152.00	3152.00	3152.00	3152.00	3152.00	3152.00	3152.00	3152.00	3152.00	3152.00	3152.00	3152.00	3151.50	3151.00	3151.00	3151.00	3151.00	3151.00	3151.00	3151.00	3151.00	3151.00	3151.00	3151.00	3151.00	3151.00	3151.00	3151.00	3151.00	3151.00	3151.00	3151.00	3151.00	3151.00	3151.00	3151.00	3151.00	3151.00	3152.00	3151.50	3151.00	3151.00	3151.00	3151.00	3151.00	3151.00	3151.00	3151.00	3151.00	3151.00	3151.00	3151.00	3151.00	3151.00	3151.00	3151.00	3151.00	3151.00	3151.00	3151.00	3151.00	3151.00	3151.00	3151.00	3151.00	3151.00	3151.00	3151.00	3151.00	3151.00	3151.00	3151.00	3151.00	3151.00	3151.00	3151.50	3152.00	3152.00	3152.00	3152.00	3152.00	3152.00	3152.00	3152.00	3152.00	3152.00	3152.00	3152.00	3152.00	3152.00	3152.00	3152.00	3151.50	3151.00	3151.00	3151.00	3151.00	3151.00	3151.00	3151.50	3152.00	3152.00	3152.00	3152.00	3152.00	3152.00	3152.00	3153.00	3153.00	3153.00	3152.00	3152.00	3152.00	3152.00	3152.00	3152.00	3152.00	3152.00	3152.00	3152.00	3152.50	3153.00	3153.00	3154.00	3154.50	3155.00	3155.00	3156.50	3157.00	3158.00	3158.50	3159.00	3159.00	3160.00	3161.00	3161.00	3161.00	3161.00	3161.50	3162.00	3162.00	3162.00	3162.00	3162.00	3163.00	3163.00	3163.00	3163.00	3164.00	3164.50	3165.00	3166.00	3166.00	3166.50	3167.00	3167.50	3168.00	3168.00	3168.50	3169.00	3169.00	3169.00	3169.00	3169.00	3169.00	3169.00	3169.00	3169.00	3169.00	3169.00	3168.00	3168.00	3168.00	3168.00	3168.00	3168.00	3168.50	3169.00	3169.00	3169.00	3169.50	3170.00	3170.00	3170.00	3170.00	3170.50	3171.00	3171.00	3171.00	3171.00	3171.00	3171.00	3171.00	3171.00	3171.00	3171.00	3171.00	3171.00	3171.00	3170.50	3170.00	3170.00	3170.00	3170.00	3170.00	3169.50	3169.00	3168.00	3168.00	3168.00	3168.00	3167.00	3167.00	3167.00	3167.00
3146.00	3146.00	3146.00	3146.00	3146.00	3146.00	3146.00	3146.00	3146.00	3146.00	3146.00	3146.00	3146.00	3146.00	3146.50	3147.00	3147.00	3147.00	3147.00	3147.00	3148.00	3148.00	3148.00	3148.50	3149.00	3149.00	3149.00	3149.00	3150.00	3150.00	3150.00	3150.00	3150.00	3150.50	3151.00	3151.00	3151.00	3151.00	3152.00	3152.00	3152.00	3152.00	3152.00	3152.00	3152.00	3152.00	3152.00	3152.00	3152.00	3152.00	3152.00	3152.00	3152.00	3151.50	3151.00	3151.00	3151.00	3151.00	3151.00	3151.00	3151.00	3151.00	3151.00	3151.00	3151.00	3151.00	3151.00	3151.00	3151.00	3151.00	3151.00	3151.00	3151.00	3151.00	3151.00	3151.00	3151.00	3151.00	3151.00	3152.00	3151.50	3151.00	3151.00	3151.00	3151.00	3151.00	3151.00	3151.00	3151.00	3151.00	3151.00	3151.00	3151.00	3151.00	3151.00	3151.00	3151.00	3151.00	3151.00	3151.00	3151.00	3151.00	3151.00	3151.00	3151.00	3151.00	3151.00	3151.00	3151.00	3151.00	3151.00	3151.00	3151.00	3151.00	3151.00	3151.00	3151.50	3152.00	3152.00	3152.00	3152.00	3152.00	3152.00	3152.00	3152.00	3152.00	3152.00	3152.00	3152.00	3152.00	3152.00	3152.00	3152.00	3151.50	3151.00	3151.00	3151.00	3151.00	3151.00	3151.00	3151.50	3152.00	3152.00	3152.00	3152.00	3152.00	3152.00	3152.00	3153.00	3153.00	3153.00	3152.00	3152.00	3152.00	3152.00	3152.00	3152.00	3152.00	3152.00	3152.00	3152.00	3152.50	3153.00	3153.00	3154.00	3154.50	3155.00	3155.00	3156.50	3157.00	3158.00	3158.50	3159.00	3159.00	3160.00	3161.00	3161.00	3161.00	3161.00	3161.50	3162.00	3162.00	3162.00	3162.00	3162.00	3163.00	3163.00	3163.00	3163.00	3164.00	3164.50	3165.00	3166.00	3166.00	3166.50	3167.00	3167.50	3168.00	3168.00	3168.50	3169.00	3169.00	3169.00	3169.00	3169.00	3169.00	3169.00	3169.00	3169.00	3169.00	3169.00	3168.00	3168.00	3168.00	3168.00	3168.00	3168.00	3168.50	3169.00	3169.00	3169.00	3169.50	3170.00	3170.00	3170.00	3170.00	3170.50	3171.00	3171.00	3171.00	3171.00	3171.00	3171.00	3171.00	3171.00	3171.00	3171.00	3171.00	3171.00	3171.00	3170.50	3170.00	3170.00	3170.00	3170.00	3170.00	3169.50	3169.00	3168.00	3168.00	3168.00	3168.00	3167.00	3167.00	3167.00	3167.00
3146.50	3146.50	3146.50	3146.50	3146.50	3146.50	3146.50	3146.50	3146.50	3146.50	3146.50	3146.50	3146.50	3146.50	3147.00	3147.50	3147.50	3147.50	3147.50	3147.50	3148.25	3148.50	3148.50	3148.75	3149.00	3149.50	3149.50	3149.50	3150.00	3150.25	3150.50	3150.50	3150.50	3150.75	3151.50	3151.50	3151.50	3151.50	3152.00	3152.00	3152.00	3152.00	3152.00	3152.00	3152.00	3152.50	3152.50	3152.50	3152.00	3152.00	3152.00	3152.00	3152.00	3151.75	3151.50	3151.25	3151.00	3151.00	3151.00	3151.00	3151.00	3151.00	3151.00	3151.00	3151.00	3151.00	3151.00	3151.00	3151.00	3151.00	3151.00	3151.25	3151.50	3151.50	3151.50	3151.50	3151.50	3151.50	3151.50	3152.00	3151.75	3151.50	3151.50	3151.50	3151.50	3151.50	3151.50	3151.50	3151.50	3151.50	3151.50	3151.50	3151.50	3151.50	3151.50	3151.50	3151.50	3151.50	3151.50	3151.50	3151.50	3151.50	3151.50	3151.50	3151.50	3151.50	3151.50	3151.50	3151.50	3151.50	3151.50	3151.75	3152.00	3152.00	3151.75	3151.50	3152.00	3152.50	3152.50	3152.50	3152.50	3152.50	3152.50	3152.50	3152.50	3152.50	3152.50	3152.50	3152.50	3152.50	3152.50	3152.50	3152.25	3151.75	3151.50	3151.50	3151.50	3151.50	3151.50	3151.50	3151.75	3152.00	3152.00	3152.00	3152.00	3152.00	3152.00	3152.00	3153.00	3153.00	3153.00	3152.50	3152.00	3152.00	3152.00	3152.00	3152.00	3152.00	3152.00	3152.00	3152.00	3152.50	3153.00	3153.25	3154.00	3154.25	3155.00	3155.00	3156.25	3157.00	3157.75	3158.25	3158.50	3159.00	3159.75	3160.50	3160.50	3160.75	3161.00	3161.50	3162.00	3162.00	3162.00	3162.00	3162.00	3163.00	3163.00	3163.25	3163.50	3164.00	3164.50	3165.00	3166.00	3166.50	3166.75	3167.50	3168.00	3168.50	3168.50	3168.75	3169.00	3169.00	3169.00	3169.00	3169.00	3169.00	3169.00	3169.00	3169.00	3169.00	3169.00	3168.50	3168.50	3168.50	3168.50	3168.50	3168.50	3168.75	3169.25	3169.50	3169.50	3169.75	3170.00	3170.50	3170.50	3170.50	3170.75	3171.00	3171.00	3171.00	3171.00	3171.00	3171.00	3171.00	3171.00	3171.00	3171.00	3171.00	3171.00	3171.00	3170.75	3170.25	3170.00	3170.00	3170.00	3170.00	3169.25	3169.00	3168.00	3168.00	3168.00	3168.00	3167.00	3167.00	3167.00	3167.00
3147.00	3147.00	3147.00	3147.00	3147.00	3147.00	3147.00	3147.00	3147.00	3147.00	3147.00	3147.00	3147.00	3147.00	3147.50	3148.00	3148.00	3148.00	3148.00	3148.00	3148.50	3149.00	3149.00	3149.00	3149.00	3150.00	3150.00	3150.00	3150.00	3150.50	3151.00	3151.00	3151.00	3151.00	3152.00	3152.00	3152.00	3152.00	3152.00	3152.00	3152.00	3152.00	3152.00	3152.00	3152.00	3153.00	3153.00	3153.00	3152.00	3152.00	3152.00	3152.00	3152.00	3152.00	3152.00	3151.50	3151.00	3151.00	3151.00	3151.00	3151.00	3151.00	3151.00	3151.00	3151.00	3151.00	3151.00	3151.00	3151.00	3151.00	3151.00	3151.50	3152.00	3152.00	3152.00	3152.00	3152.00	3152.00	3152.00	3152.00	3152.00	3152.00	3152.00	3152.00	3152.00	3152.00	3152.00	3152.00	3152.00	3152.00	3152.00	3152.00	3152.00	3152.00	3152.00	3152.00	3152.00	3152.00	3152.00	3152.00	3152.00	3152.00	3152.00	3152.00	3152.00	3152.00	3152.00	3152.00	3152.00	3152.00	3152.00	3152.50	3153.00	3153.00	3152.50	3152.00	3152.50	3153.00	3153.00	3153.00	3153.00	3153.00	3153.00	3153.00	3153.00	3153.00	3153.00	3153.00	3153.00	3153.00	3153.00	3153.00	3152.50	3152.00	3152.00	3152.00	3152.00	3152.00	3152.00	3152.00	3152.00	3152.00	3152.00	3152.00	3152.00	3152.00	3152.00	3152.00	3153.00	3153.00	3153.00	3153.00	3152.00	3152.00	3152.00	3152.00	3152.00	3152.00	3152.00	3152.00	3152.00	3152.50	3153.00	3153.50	3154.00	3154.00	3155.00	3155.00	3156.00	3157.00	3157.50	3158.00	3158.00	3159.00	3159.50	3160.00	3160.00	3160.50	3161.00	3161.50	3162.00	3162.00	3162.00	3162.00	3162.00	3163.00	3163.00	3163.50	3164.00	3164.00	3164.50	3165.00	3166.00	3167.00	3167.00	3168.00	3168.50	3169.00	3169.00	3169.00	3169.00	3169.00	3169.00	3169.00	3169.00	3169.00	3169.00	3169.00	3169.00	3169.00	3169.00	3169.00	3169.00	3169.00	3169.00	3169.00	3169.00	3169.00	3169.50	3170.00	3170.00	3170.00	3170.00	3171.00	3171.00	3171.00	3171.00	3171.00	3171.00	3171.00	3171.00	3171.00	3171.00	3171.00	3171.00	3171.00	3171.00	3171.00	3171.00	3171.00	3171.00	3170.50	3170.00	3170.00	3170.00	3170.00	3169.00	3169.00	3168.00	3168.00	3168.00	3168.00	3167.00	3167.00	3167.00	3167.00
