615.00	615.00	615.00	615.00	615.00	615.00	615.00	615.00	615.00	615.00	615.00	615.00	615.00	615.00	615.00	615.00	615.00	615.00	615.00	615.00	615.00	615.00	615.00	615.00	615.00	615.00	615.00	681.00	898.75	933.00	968.00	1031.75	1055.25	1043.50	1082.75	1079.50	1068.75	1056.00	1043.25	1033.50	1043.50	1057.25	1072.50	1136.25	1177.00	1105.50	1099.75	1102.75	1084.75	1078.75	1061.50	1062.50	1073.00	1089.50	1099.25	1133.50	1139.75	1138.00	1108.75	1091.25	1082.50	1082.75	1078.75	1089.50	1106.25	1106.50	1121.75	1132.25	1139.25	1142.25	1162.50	1137.25	1129.25	1116.75	1113.00	1102.00	1095.25	1096.00	1085.00	1087.25	1124.50	1094.25	1096.75	1102.75	1102.00	1086.50	1084.25	1075.50	1083.50	1084.00	1094.75	1090.50	1081.00	1083.00	1081.25	1075.00	1066.00	1069.75	1064.75	1050.25	1046.50	1044.75	1042.50	1042.00	1036.00	1044.25	1050.50	1034.50	1036.00	1036.50	1038.75	1038.25	1038.75	1038.25	1038.50	1038.75	1037.25	1035.75	1035.25	1034.75	1035.25	1035.25	1036.50	1036.00	1036.75	1042.75	1042.75	1040.00	1038.25	1037.00	1034.50	1034.00	1034.00	1034.00	1034.00	1034.00	1034.75	1034.00	1034.00	1034.00	1034.00	1034.00	1034.00	1034.00	1034.00	1036.00	1035.75	1034.00	1034.00	1034.00	1034.00	1034.00	1034.00	1034.00	1034.00	1034.00	1035.00	1040.75	1037.75	1040.25	1046.00	1046.00	1042.50	1045.75	1046.75	1049.00	1048.00	1051.00	1054.25	1059.75	1051.75	1060.00	1057.25	1055.25	1056.00	1063.75	1054.25	1067.25	1064.00	1065.00	1058.00	1058.50	1048.25	1050.75	1057.00	1060.50	1050.75	1045.75	1051.25	1061.00	1054.75	1049.50	1040.00	1040.50	1038.75	1039.25	1034.00	1034.50	1039.50	1047.50	1058.25	1053.75	1049.50	1039.00	1034.75	1034.00	1035.50	1034.75	1034.00	1034.00	1035.00	1044.25	1042.00	1036.25	1034.00	1034.00	1034.00	1034.00	1034.00	1034.00	1034.00	1034.00	1034.00	1034.00	1034.00	1034.00	1034.00	1034.00	1035.00	1035.50	1034.75	1036.25	1037.00	1040.75	1052.00	1055.00	1062.50	1059.00	1071.50	1080.25	1091.75	1096.50	1100.00	1096.75	1087.50	1096.50	1086.50	1071.25	1064.50	1063.75	1056.50	1064.25	1063.50	1050.75	1042.50	1041.75
615.00	615.00	615.00	615.00	615.00	615.00	615.00	615.00	615.00	615.00	615.00	615.00	615.00	615.00	615.00	615.00	615.00	615.00	615.00	615.00	615.00	615.00	615.00	615.00	615.00	662.00	736.50	861.75	960.25	999.00	1024.00	1015.75	1047.75	1063.75	1082.25	1068.50	1077.75	1058.50	1046.50	1037.50	1051.25	1082.75	1094.25	1124.00	1130.00	1108.00	1132.50	1127.75	1124.50	1090.00	1068.75	1074.50	1076.75	1088.00	1106.00	1134.00	1130.50	1139.50	1109.50	1104.00	1091.25	1105.75	1091.50	1092.50	1095.75	1119.50	1129.00	1159.50	1177.00	1172.00	1261.75	1223.75	1172.50	1155.00	1136.25	1155.50	1178.50	1135.50	1115.50	1122.75	1117.50	1086.50	1099.00	1092.75	1096.50	1084.25	1071.25	1078.50	1091.25	1094.25	1096.50	1084.50	1077.50	1069.00	1075.75	1070.25	1065.25	1061.00	1053.75	1048.50	1044.50	1043.75	1043.00	1043.00	1038.50	1039.75	1038.25	1037.75	1041.25	1041.75	1041.25	1041.75	1042.50	1041.50	1041.50	1041.00	1039.50	1040.25	1039.00	1038.00	1037.25	1036.50	1036.50	1036.75	1036.25	1036.75	1037.25	1037.50	1037.50	1037.75	1035.75	1035.50	1036.00	1036.75	1035.75	1037.00	1036.50	1034.00	1034.00	1034.00	1034.00	1034.00	1034.00	1034.00	1034.00	1034.00	1034.00	1034.00	1034.00	1034.00	1034.00	1034.00	1034.00	1034.00	1034.00	1038.00	1044.25	1043.75	1042.75	1046.75	1049.75	1050.50	1050.00	1049.75	1048.75	1054.75	1054.75	1058.75	1057.25	1057.25	1055.00	1055.00	1049.25	1050.00	1053.25	1051.50	1053.25	1057.25	1053.75	1059.00	1064.25	1057.75	1055.25	1062.00	1062.25	1063.00	1057.50	1050.75	1060.75	1062.50	1057.00	1045.75	1041.00	1038.25	1036.00	1036.75	1034.00	1034.25	1038.50	1046.00	1051.75	1042.75	1046.75	1044.00	1035.50	1034.00	1034.00	1034.00	1034.00	1034.25	1034.25	1060.00	1045.50	1043.25	1034.75	1034.00	1034.00	1034.25	1036.50	1038.25	1035.00	1034.00	1034.75	1037.50	1036.00	1035.75	1038.75	1040.00	1035.00	1035.75	1034.00	1036.75	1044.25	1048.25	1047.75	1049.00	1052.25	1056.00	1071.50	1077.50	1090.00	1097.50	1103.25	1095.00	1078.00	1079.25	1076.25	1075.50	1063.75	1071.25	1058.00	1051.75	1051.25	1044.25	1042.25	1042.50
615.00	615.00	615.00	615.00	615.00	615.00	615.00	615.00	615.00	615.00	615.00	615.00	615.00	615.00	615.00	615.00	615.00	615.00	615.00	615.00	615.00	615.00	615.00	615.00	639.25	884.25	921.25	910.25	986.50	1016.75	1037.75	1048.50	1054.00	1078.00	1063.50	1056.75	1059.75	1085.25	1073.75	1038.75	1051.50	1083.00	1094.50	1106.25	1116.25	1117.00	1168.00	1137.75	1117.75	1092.00	1074.25	1099.00	1083.00	1080.50	1125.50	1127.00	1096.00	1106.50	1093.50	1104.50	1107.25	1095.25	1111.00	1105.75	1113.75	1114.25	1119.00	1126.00	1136.75	1141.00	1236.00	1265.50	1266.50	1209.50	1217.25	1239.50	1236.25	1208.00	1122.75	1108.00	1086.00	1090.75	1097.00	1085.00	1091.50	1086.00	1069.50	1085.75	1093.75	1090.50	1082.50	1070.25	1077.75	1060.75	1066.00	1076.25	1063.00	1047.75	1045.00	1044.00	1043.75	1043.25	1043.75	1040.75	1040.00	1041.00	1041.75	1041.50	1041.75	1042.50	1044.00	1044.25	1043.00	1041.50	1041.50	1041.25	1041.00	1041.00	1041.25	1039.75	1040.00	1038.75	1037.25	1037.00	1036.75	1036.50	1037.25	1038.00	1038.50	1037.50	1037.25	1037.25	1037.00	1037.00	1036.75	1037.00	1036.50	1034.00	1034.00	1034.00	1034.00	1034.00	1034.00	1034.00	1034.00	1034.00	1034.00	1034.00	1034.00	1034.00	1034.00	1034.00	1034.00	1034.00	1034.25	1041.50	1047.75	1047.00	1051.00	1058.25	1060.25	1058.75	1061.50	1058.00	1054.00	1058.00	1059.75	1056.25	1054.25	1050.25	1051.75	1046.75	1043.50	1050.00	1048.50	1045.50	1051.50	1049.75	1054.50	1057.75	1064.75	1068.00	1062.50	1068.75	1068.75	1065.00	1057.50	1060.25	1067.50	1068.00	1068.75	1046.25	1048.50	1043.75	1044.75	1035.75	1034.25	1038.00	1039.75	1041.25	1036.75	1037.00	1036.00	1041.75	1034.50	1034.00	1034.00	1034.00	1034.00	1050.25	1036.75	1040.50	1034.25	1034.00	1034.00	1034.00	1034.00	1044.50	1089.00	1065.25	1040.00	1035.25	1040.25	1046.25	1038.00	1039.50	1048.50	1048.50	1042.50	1038.75	1035.50	1035.00	1040.00	1041.25	1043.25	1052.75	1058.50	1066.00	1080.00	1076.25	1081.75	1086.75	1096.00	1084.75	1071.00	1060.75	1059.00	1073.50	1061.00	1075.00	1061.75	1046.25	1042.00	1042.00	1041.75	1042.75
615.00	615.00	615.00	615.00	615.00	615.00	615.00	615.00	615.00	615.00	615.00	615.00	615.00	615.00	615.00	615.00	615.00	615.00	615.00	615.00	615.00	615.00	615.00	753.25	904.25	980.25	983.75	948.00	1022.75	1035.25	1044.25	1060.75	1064.25	1078.75	1066.50	1068.00	1083.75	1091.50	1076.00	1038.50	1046.75	1058.50	1065.00	1090.25	1128.25	1109.25	1169.50	1121.25	1092.25	1094.75	1080.00	1089.25	1133.00	1096.00	1098.75	1098.25	1090.50	1093.75	1093.50	1097.00	1098.50	1102.00	1103.50	1125.00	1171.25	1217.50	1209.50	1160.00	1123.25	1131.25	1132.25	1139.50	1187.00	1184.25	1182.75	1190.75	1147.75	1137.75	1099.75	1076.00	1077.25	1082.75	1101.50	1082.75	1089.75	1101.25	1072.75	1071.50	1075.50	1086.75	1073.50	1059.75	1070.75	1067.25	1059.00	1057.25	1050.00	1044.25	1043.75	1043.00	1043.25	1042.75	1042.00	1041.00	1040.75	1042.75	1042.75	1042.75	1043.00	1044.00	1044.50	1043.75	1043.50	1043.00	1042.75	1045.25	1045.50	1041.25	1040.75	1040.50	1040.00	1039.00	1037.75	1036.75	1037.25	1037.25	1037.75	1038.50	1037.00	1034.25	1034.25	1035.50	1035.75	1037.00	1037.25	1037.00	1036.75	1035.25	1034.25	1034.00	1034.00	1034.00	1034.00	1034.00	1034.00	1034.00	1034.00	1034.00	1034.00	1034.00	1034.00	1034.00	1034.00	1034.00	1041.00	1042.50	1042.75	1044.25	1048.50	1053.50	1059.25	1069.75	1065.25	1060.00	1060.00	1054.25	1052.25	1047.75	1052.75	1047.00	1051.25	1047.25	1042.75	1044.00	1041.50	1044.25	1045.25	1049.00	1054.00	1059.75	1075.25	1075.50	1068.00	1068.25	1057.50	1064.50	1066.50	1067.75	1073.25	1068.00	1060.25	1050.25	1046.75	1044.25	1044.00	1036.50	1035.50	1041.50	1043.00	1037.50	1034.25	1043.00	1034.75	1034.00	1034.00	1034.00	1034.00	1034.00	1034.25	1050.50	1035.50	1034.00	1034.25	1035.00	1034.75	1034.50	1034.25	1057.50	1101.50	1069.50	1042.50	1041.00	1049.00	1048.50	1038.75	1038.25	1041.00	1051.25	1058.50	1049.25	1042.50	1038.25	1036.25	1038.00	1043.00	1045.75	1052.50	1061.50	1086.75	1093.75	1099.00	1104.00	1105.25	1090.75	1078.00	1069.75	1059.50	1059.50	1054.75	1064.00	1052.75	1046.25	1042.25	1042.75	1042.25	1043.50
615.00	615.00	615.00	615.00	615.00	615.00	615.00	615.00	615.00	615.00	615.00	615.00	615.00	615.00	615.00	615.00	615.00	615.00	615.00	615.00	615.00	615.00	615.50	927.25	1004.00	1000.25	1006.25	986.00	1036.00	1061.75	1053.25	1052.50	1056.25	1078.00	1074.00	1080.25	1085.75	1076.25	1057.50	1040.50	1048.50	1061.25	1063.25	1081.50	1112.25	1092.50	1125.25	1105.50	1088.00	1099.25	1091.00	1092.50	1164.00	1091.50	1123.25	1117.75	1107.50	1105.00	1099.75	1090.50	1096.75	1117.50	1106.25	1134.50	1224.75	1279.25	1215.75	1156.75	1144.00	1144.75	1112.00	1105.25	1129.25	1129.25	1120.75	1119.00	1117.25	1109.75	1086.50	1073.50	1083.75	1085.25	1099.75	1085.50	1081.50	1091.50	1074.00	1066.25	1073.00	1083.50	1069.50	1061.75	1063.25	1065.00	1053.25	1046.75	1046.25	1044.50	1044.25	1043.50	1043.00	1042.25	1042.00	1043.00	1041.50	1043.00	1043.50	1045.25	1043.75	1045.25	1044.75	1043.75	1043.25	1044.25	1044.00	1047.25	1050.25	1042.50	1041.00	1040.75	1040.25	1039.25	1038.00	1037.00	1037.50	1037.75	1038.00	1038.25	1035.50	1034.00	1034.00	1034.00	1034.00	1036.00	1037.75	1036.75	1036.75	1036.75	1034.75	1034.00	1034.00	1034.00	1034.00	1034.00	1034.00	1034.00	1034.00	1034.00	1034.00	1034.00	1034.00	1034.00	1034.00	1034.25	1044.00	1042.00	1042.00	1043.00	1046.75	1053.75	1061.00	1073.50	1060.25	1056.25	1061.50	1049.25	1048.75	1044.00	1049.25	1043.25	1050.00	1043.50	1041.00	1041.50	1043.75	1046.25	1046.50	1051.00	1057.50	1062.50	1076.25	1072.75	1068.75	1060.00	1053.00	1060.25	1067.75	1071.25	1073.25	1071.75	1061.50	1051.25	1041.50	1037.50	1036.00	1034.25	1034.50	1035.50	1040.75	1040.25	1034.00	1039.00	1034.25	1034.00	1034.00	1034.00	1034.00	1034.00	1034.25	1034.00	1034.00	1034.00	1035.50	1040.25	1040.75	1036.25	1034.50	1079.50	1072.00	1060.25	1044.50	1046.25	1053.00	1049.00	1040.00	1038.25	1037.00	1050.25	1062.00	1057.25	1047.50	1041.50	1036.25	1039.25	1043.50	1046.75	1052.25	1059.00	1084.25	1098.25	1104.50	1100.75	1101.75	1094.00	1084.50	1073.25	1067.50	1051.75	1049.75	1061.25	1046.50	1043.00	1041.50	1042.75	1042.75	1043.00
615.00	615.00	615.00	615.00	615.00	615.00	615.00	615.00	615.00	615.00	615.00	615.00	615.00	615.00	615.00	615.00	615.00	615.00	615.00	615.00	615.50	670.00	778.50	985.25	1019.25	1028.75	985.25	1018.75	1066.50	1079.25	1078.75	1073.75	1070.50	1078.50	1091.50	1098.25	1084.00	1071.50	1051.00	1047.75	1053.75	1067.50	1080.50	1072.25	1083.00	1088.25	1088.00	1090.75	1099.25	1121.25	1118.25	1107.50	1119.00	1094.50	1126.25	1122.00	1139.50	1115.00	1104.25	1110.50	1134.75	1158.75	1131.00	1135.00	1167.50	1196.75	1218.25	1198.25	1193.75	1195.75	1111.50	1097.75	1109.75	1095.50	1098.75	1094.25	1094.75	1087.00	1072.25	1079.75	1079.00	1101.25	1100.75	1083.25	1070.00	1072.50	1066.25	1067.25	1075.00	1083.50	1079.50	1061.00	1055.75	1053.00	1047.50	1045.50	1045.50	1045.00	1044.75	1044.75	1044.50	1044.50	1044.50	1044.25	1042.25	1046.25	1046.50	1047.00	1045.75	1045.25	1044.75	1044.50	1046.25	1049.50	1052.50	1051.25	1056.75	1047.50	1043.25	1041.50	1041.50	1040.75	1039.00	1038.75	1039.25	1037.75	1038.50	1038.50	1034.00	1034.00	1034.00	1034.00	1034.00	1034.00	1034.50	1034.50	1034.75	1035.50	1034.75	1034.00	1034.00	1034.00	1034.00	1034.00	1034.00	1034.00	1034.00	1034.00	1034.00	1034.00	1034.00	1034.50	1034.25	1035.25	1038.25	1039.25	1043.25	1047.00	1052.50	1059.50	1062.00	1069.25	1059.75	1053.25	1057.50	1052.75	1044.50	1042.75	1043.75	1043.00	1046.25	1039.25	1039.75	1044.75	1049.50	1054.75	1055.50	1056.00	1060.00	1061.25	1056.50	1060.25	1056.75	1058.50	1045.00	1050.75	1062.25	1070.75	1060.75	1057.00	1055.50	1047.25	1041.75	1038.50	1036.25	1034.25	1034.00	1037.50	1044.00	1038.00	1034.00	1034.00	1034.00	1034.00	1034.00	1034.00	1034.00	1034.00	1034.00	1034.00	1038.25	1053.25	1059.75	1092.25	1099.00	1050.25	1039.50	1046.75	1047.00	1048.75	1051.00	1057.75	1052.25	1043.25	1043.75	1050.25	1043.25	1042.50	1047.25	1058.25	1054.75	1048.00	1041.50	1041.75	1046.75	1053.50	1065.00	1071.00	1078.00	1090.00	1102.75	1087.50	1084.25	1082.00	1077.50	1077.00	1068.75	1054.75	1048.00	1060.50	1053.00	1042.50	1041.00	1042.25	1043.00	1041.50
615.00	615.00	615.00	615.00	615.00	615.00	615.00	615.00	615.00	615.00	615.00	615.00	615.00	615.00	615.00	615.00	615.00	615.00	615.00	615.50	690.25	894.25	953.00	996.00	1022.00	1009.00	1012.75	1060.75	1079.75	1077.00	1082.25	1084.75	1082.75	1083.75	1094.75	1088.50	1083.75	1075.50	1068.00	1058.50	1067.75	1103.50	1106.00	1096.50	1104.00	1095.25	1104.00	1107.50	1114.00	1127.75	1117.00	1114.25	1113.25	1091.50	1126.00	1168.25	1151.50	1122.75	1112.25	1139.50	1207.50	1153.25	1121.75	1127.25	1149.75	1177.25	1226.25	1162.75	1132.75	1133.00	1097.25	1101.25	1095.25	1082.25	1087.25	1081.00	1079.00	1075.25	1068.00	1080.75	1084.00	1101.00	1096.00	1081.00	1079.00	1064.75	1064.75	1066.00	1083.25	1078.75	1078.25	1058.25	1052.25	1048.75	1045.75	1045.75	1044.50	1047.50	1048.75	1049.00	1048.25	1048.00	1046.25	1047.75	1043.00	1047.00	1047.50	1046.50	1045.75	1045.50	1045.75	1046.50	1051.50	1066.00	1068.75	1063.50	1054.00	1047.25	1044.75	1043.25	1042.50	1044.25	1042.25	1038.75	1044.50	1038.75	1039.00	1038.00	1034.00	1034.00	1034.00	1034.00	1034.00	1034.00	1034.00	1034.00	1034.00	1034.00	1034.00	1034.00	1034.00	1034.00	1034.00	1034.00	1034.00	1034.00	1034.00	1034.00	1034.75	1040.75	1038.50	1039.50	1041.00	1035.25	1037.50	1041.50	1046.75	1053.50	1057.25	1056.75	1062.00	1063.25	1056.50	1056.00	1046.75	1049.25	1041.25	1039.75	1041.00	1040.50	1040.50	1038.50	1041.50	1045.00	1046.75	1060.50	1061.00	1057.50	1063.75	1055.25	1048.50	1056.00	1049.50	1052.00	1040.75	1047.25	1057.00	1069.25	1058.00	1048.25	1045.50	1046.75	1040.50	1039.00	1034.00	1034.00	1034.00	1034.25	1034.75	1034.00	1034.00	1034.00	1034.00	1034.00	1034.00	1034.00	1034.00	1034.00	1034.00	1038.75	1092.00	1136.00	1173.75	1243.50	1107.25	1055.50	1064.50	1038.00	1036.75	1043.75	1057.50	1064.50	1056.50	1049.25	1051.25	1059.75	1050.50	1051.00	1044.75	1055.50	1060.50	1058.75	1049.00	1047.25	1060.25	1055.50	1055.75	1060.50	1068.25	1084.00	1090.75	1083.75	1075.00	1076.75	1063.75	1064.25	1062.25	1052.00	1044.50	1054.50	1051.50	1044.25	1042.50	1042.50	1043.25	1041.50
615.00	615.00	615.00	615.00	615.00	615.00	615.00	615.00	615.00	615.00	615.00	615.00	617.00	617.50	618.25	618.75	616.25	622.00	732.50	806.00	911.25	979.50	1014.50	1016.25	1032.00	1027.00	1069.50	1056.75	1053.00	1071.50	1090.75	1088.25	1087.00	1078.75	1091.25	1081.25	1087.75	1078.00	1072.75	1075.00	1139.50	1183.00	1143.50	1119.75	1117.25	1096.25	1108.75	1125.50	1141.75	1152.50	1211.00	1159.25	1131.25	1139.50	1214.75	1220.75	1145.50	1116.25	1114.50	1142.50	1204.00	1142.75	1111.75	1141.50	1188.00	1182.25	1172.00	1114.50	1101.25	1093.00	1092.50	1091.50	1088.75	1079.25	1082.75	1084.25	1070.50	1073.00	1071.50	1085.00	1086.25	1082.25	1077.50	1074.50	1071.75	1066.00	1068.25	1076.25	1080.75	1080.50	1075.50	1072.75	1058.50	1052.50	1045.00	1044.75	1046.00	1048.00	1048.75	1048.75	1048.75	1048.50	1047.00	1046.25	1046.00	1047.75	1047.50	1046.75	1045.75	1046.25	1046.50	1048.50	1053.50	1062.25	1067.25	1063.50	1059.00	1050.00	1047.25	1044.75	1047.50	1047.50	1050.50	1039.75	1041.25	1046.50	1041.50	1037.50	1034.00	1034.00	1034.00	1034.00	1034.00	1034.00	1034.00	1034.00	1034.00	1034.00	1034.00	1034.00	1034.00	1034.00	1034.00	1034.00	1034.00	1034.00	1034.00	1034.50	1037.50	1047.75	1044.75	1040.75	1044.25	1041.50	1041.00	1045.00	1048.50	1051.25	1050.75	1053.00	1059.50	1055.25	1044.75	1044.50	1042.00	1043.50	1036.00	1035.00	1034.50	1035.75	1035.75	1041.00	1042.00	1050.25	1051.75	1056.50	1047.50	1051.25	1056.75	1051.50	1043.75	1051.50	1050.25	1040.50	1036.75	1040.75	1050.00	1061.25	1053.00	1049.50	1039.00	1039.75	1034.25	1035.50	1034.00	1034.00	1034.00	1034.00	1034.00	1034.00	1034.00	1034.00	1034.00	1034.00	1034.00	1035.25	1034.00	1035.25	1037.50	1052.50	1076.50	1095.00	1124.00	1123.50	1089.00	1065.00	1055.75	1042.00	1039.25	1045.25	1052.00	1057.50	1053.75	1055.25	1059.00	1059.75	1057.50	1057.75	1055.00	1054.00	1057.25	1064.75	1057.75	1050.25	1058.25	1068.25	1073.25	1074.25	1079.25	1085.25	1085.25	1075.75	1065.25	1065.75	1056.75	1051.25	1050.25	1047.50	1044.00	1050.25	1043.75	1042.50	1043.25	1043.25	1044.25	1050.00
615.00	615.00	615.00	615.00	615.00	615.00	615.00	615.00	615.00	616.50	619.75	621.75	623.00	623.50	622.25	626.75	645.50	726.75	952.00	1002.00	1002.50	1030.50	1045.50	1026.25	1017.00	1043.00	1044.50	1045.50	1063.75	1098.25	1116.50	1098.25	1070.50	1081.25	1096.25	1107.50	1093.00	1086.75	1091.25	1111.00	1228.00	1252.75	1230.75	1143.25	1121.75	1130.00	1159.00	1146.00	1158.00	1178.00	1326.75	1226.50	1226.25	1229.50	1200.75	1162.75	1129.00	1107.75	1105.25	1115.75	1130.50	1114.50	1105.25	1124.50	1157.00	1136.00	1099.75	1103.50	1101.50	1092.00	1079.25	1084.00	1084.50	1087.75	1077.25	1072.75	1075.00	1084.00	1084.00	1087.25	1075.50	1074.25	1070.75	1080.50	1064.50	1061.50	1068.50	1075.50	1076.00	1075.00	1078.00	1079.75	1068.50	1055.00	1044.25	1044.50	1046.25	1047.75	1049.00	1048.75	1048.25	1047.25	1045.00	1046.50	1047.75	1047.25	1047.75	1046.75	1046.00	1046.00	1047.25	1048.00	1053.25	1054.50	1059.00	1061.75	1062.75	1048.50	1048.25	1048.25	1058.00	1049.75	1050.75	1041.50	1042.75	1045.00	1044.00	1045.50	1038.25	1034.75	1034.00	1034.75	1034.00	1034.00	1034.00	1034.00	1034.00	1034.00	1034.00	1034.00	1034.00	1034.00	1034.00	1034.00	1034.00	1034.00	1034.00	1035.50	1035.75	1046.50	1046.75	1038.00	1042.00	1049.50	1049.75	1044.50	1048.75	1047.25	1046.00	1051.50	1057.75	1051.50	1040.75	1037.75	1039.75	1036.75	1034.00	1034.00	1037.00	1043.00	1036.75	1042.75	1044.25	1055.00	1055.00	1045.00	1039.25	1051.00	1054.00	1042.25	1046.75	1047.50	1049.00	1048.50	1034.50	1036.00	1042.75	1046.25	1047.00	1041.50	1037.25	1034.50	1034.00	1034.00	1034.00	1034.00	1034.00	1034.00	1034.00	1034.00	1034.00	1034.00	1034.00	1034.00	1034.25	1041.25	1036.50	1037.00	1041.50	1049.25	1057.25	1119.50	1184.00	1216.50	1168.50	1072.75	1052.00	1042.25	1042.75	1046.25	1053.50	1059.75	1059.50	1059.75	1066.50	1067.25	1065.25	1061.50	1061.25	1059.00	1055.50	1064.75	1071.50	1059.75	1054.25	1060.25	1071.75	1073.75	1093.75	1103.00	1097.75	1083.25	1064.00	1049.25	1047.50	1042.50	1042.00	1039.00	1039.25	1041.75	1043.25	1043.25	1043.75	1042.25	1042.00	1041.00
615.00	615.00	615.00	615.00	615.00	615.00	615.00	615.00	616.50	621.25	624.00	627.50	629.00	633.00	633.00	669.25	821.25	930.25	997.25	1018.25	1034.75	1042.75	1058.75	1038.50	1032.50	1066.25	1065.25	1069.25	1080.75	1085.00	1081.00	1082.50	1074.25	1085.25	1089.00	1105.00	1100.50	1104.25	1108.00	1154.50	1266.75	1268.00	1236.00	1214.75	1137.75	1202.75	1239.50	1193.75	1221.25	1187.25	1209.50	1197.00	1175.50	1165.00	1126.00	1118.25	1113.00	1110.50	1103.25	1113.50	1105.75	1120.00	1106.75	1101.25	1112.50	1109.50	1118.50	1131.75	1129.25	1099.00	1089.25	1081.25	1075.00	1074.25	1075.50	1069.75	1073.00	1073.75	1078.25	1083.25	1079.00	1073.00	1067.00	1073.25	1062.50	1064.75	1076.75	1079.50	1070.50	1071.50	1076.25	1081.75	1069.50	1052.25	1043.75	1044.00	1046.00	1047.75	1046.75	1046.50	1046.25	1045.75	1048.25	1047.00	1046.75	1047.25	1047.00	1046.50	1046.00	1046.75	1046.75	1051.00	1054.00	1056.75	1055.75	1064.25	1060.00	1052.25	1054.75	1052.25	1058.50	1053.50	1052.25	1043.50	1041.75	1046.75	1046.00	1043.00	1052.75	1046.00	1040.50	1038.75	1039.50	1034.00	1034.00	1034.00	1034.00	1034.00	1034.00	1034.00	1034.00	1034.00	1034.00	1034.00	1034.00	1034.00	1036.00	1038.50	1036.75	1037.75	1038.25	1037.00	1044.75	1045.25	1048.75	1043.50	1045.50	1045.00	1050.00	1055.50	1057.00	1049.00	1040.25	1037.75	1036.50	1035.25	1034.00	1034.00	1038.00	1043.00	1039.75	1038.50	1042.00	1054.25	1055.25	1037.25	1035.00	1041.75	1043.25	1036.00	1041.75	1040.00	1043.75	1046.25	1035.25	1034.00	1036.25	1042.75	1042.50	1035.25	1036.00	1034.00	1034.00	1034.00	1034.00	1034.00	1034.00	1034.00	1034.00	1034.00	1034.00	1034.00	1035.75	1036.50	1035.50	1043.50	1040.00	1039.00	1044.50	1049.25	1060.75	1071.25	1089.50	1096.50	1089.00	1067.25	1054.50	1045.75	1055.50	1056.50	1053.75	1062.00	1068.25	1073.00	1069.75	1077.75	1066.75	1068.75	1074.50	1069.50	1068.75	1066.25	1082.00	1067.00	1070.00	1075.00	1067.75	1083.50	1093.25	1098.50	1087.25	1076.75	1063.00	1052.25	1050.00	1043.25	1046.25	1041.75	1039.00	1042.75	1042.25	1043.25	1043.75	1043.25	1043.50	1044.25
615.00	615.00	615.00	615.00	615.00	615.00	615.00	618.75	625.25	628.25	627.75	629.50	636.75	647.75	710.50	859.50	961.50	1002.00	1022.25	1024.75	1032.50	1036.25	1046.50	1062.25	1055.25	1049.25	1055.00	1074.25	1068.75	1065.25	1070.00	1072.00	1077.25	1078.50	1103.00	1096.25	1099.25	1109.50	1141.00	1246.25	1304.50	1305.25	1307.50	1164.75	1189.50	1280.75	1271.75	1276.00	1238.25	1169.75	1142.00	1137.00	1129.00	1116.25	1105.00	1115.00	1102.50	1096.75	1108.00	1119.25	1116.00	1158.00	1115.00	1090.75	1102.00	1118.00	1151.75	1166.50	1144.75	1106.00	1100.00	1087.00	1089.75	1081.25	1077.25	1068.50	1072.25	1072.25	1074.00	1083.75	1068.00	1071.75	1073.50	1066.50	1060.50	1067.75	1082.75	1071.50	1064.50	1071.25	1080.00	1083.25	1068.25	1057.75	1045.50	1044.25	1046.75	1046.50	1045.00	1045.00	1046.00	1046.50	1045.75	1045.75	1045.75	1046.00	1046.75	1048.00	1047.25	1046.25	1046.75	1047.50	1053.25	1061.75	1062.25	1065.75	1062.25	1056.75	1056.75	1063.00	1061.00	1049.25	1044.50	1041.50	1040.50	1046.00	1055.00	1046.75	1057.00	1051.25	1041.75	1044.75	1047.50	1037.00	1037.25	1037.00	1035.25	1034.00	1034.00	1034.00	1034.00	1034.00	1034.00	1034.00	1034.00	1034.50	1037.50	1039.50	1036.00	1034.25	1034.00	1035.75	1044.75	1038.75	1044.50	1042.00	1041.25	1045.00	1046.25	1051.00	1051.00	1044.25	1040.00	1042.50	1034.50	1034.00	1034.00	1034.00	1035.75	1040.50	1042.00	1044.50	1043.25	1046.00	1044.50	1034.00	1034.00	1034.50	1035.50	1034.00	1034.00	1034.00	1035.50	1042.25	1035.25	1034.00	1036.25	1044.75	1039.25	1034.00	1034.00	1034.00	1034.00	1034.00	1034.00	1034.00	1034.00	1034.00	1034.00	1034.00	1034.25	1034.00	1036.00	1040.25	1039.00	1047.25	1042.75	1040.75	1050.50	1057.25	1076.50	1068.25	1066.75	1064.00	1065.00	1066.00	1061.00	1052.75	1062.00	1071.75	1060.25	1066.75	1075.25	1079.25	1075.00	1085.75	1074.25	1084.75	1085.25	1083.25	1073.50	1068.25	1084.00	1072.00	1080.25	1090.00	1073.50	1079.75	1099.75	1082.50	1068.75	1061.00	1056.25	1064.25	1059.00	1049.75	1059.25	1045.75	1048.00	1043.75	1042.25	1042.75	1042.25	1043.00	1043.75	1051.00
615.00	615.50	615.00	615.00	615.00	615.00	615.00	628.00	631.75	632.75	631.75	634.25	667.25	799.75	915.00	957.50	1006.50	1025.75	1046.25	1033.25	1052.50	1055.75	1061.25	1070.75	1066.75	1053.50	1063.75	1066.25	1075.75	1081.75	1076.50	1082.00	1084.25	1093.75	1090.00	1089.75	1106.25	1125.25	1171.00	1306.75	1328.50	1348.00	1220.00	1151.25	1236.75	1258.50	1207.50	1195.75	1173.25	1151.00	1134.75	1127.00	1127.75	1123.00	1123.75	1105.75	1098.75	1100.75	1108.00	1109.25	1120.00	1141.50	1135.75	1103.25	1106.25	1134.50	1163.75	1152.75	1115.75	1104.00	1099.25	1091.25	1085.75	1088.50	1078.00	1070.00	1080.00	1084.00	1077.25	1079.75	1073.75	1065.50	1072.50	1065.25	1067.50	1072.50	1085.50	1071.25	1074.50	1080.75	1075.50	1080.50	1067.75	1063.50	1045.50	1045.00	1046.00	1044.25	1045.25	1045.00	1044.50	1045.75	1046.50	1048.00	1048.25	1049.00	1048.25	1057.00	1056.00	1057.50	1052.00	1047.25	1051.00	1055.50	1055.25	1059.75	1066.50	1064.50	1064.00	1059.50	1053.75	1048.50	1047.00	1051.25	1043.50	1041.75	1047.00	1050.00	1055.50	1048.75	1047.75	1053.50	1044.50	1040.00	1037.50	1046.75	1048.25	1039.00	1036.00	1034.00	1034.00	1034.00	1034.00	1034.00	1034.00	1034.00	1034.00	1034.75	1034.25	1035.00	1037.50	1036.25	1038.50	1038.00	1038.50	1039.25	1041.25	1056.25	1058.75	1059.00	1061.50	1049.25	1046.25	1040.00	1035.00	1034.00	1034.00	1034.25	1036.75	1040.25	1037.00	1037.75	1037.00	1034.75	1034.00	1034.00	1034.00	1034.00	1034.00	1034.00	1034.00	1034.00	1034.00	1034.00	1034.00	1034.00	1040.50	1040.00	1036.25	1034.00	1034.00	1034.00	1034.00	1034.00	1034.00	1034.00	1034.00	1034.00	1034.00	1034.00	1039.00	1039.75	1039.75	1043.25	1044.00	1050.75	1047.00	1043.50	1046.75	1061.75	1077.50	1072.00	1062.00	1054.00	1056.00	1066.00	1064.25	1060.00	1059.50	1057.50	1063.00	1066.00	1075.00	1083.75	1082.75	1090.00	1095.25	1108.75	1112.50	1089.00	1080.50	1071.25	1084.00	1087.00	1096.25	1091.75	1082.75	1095.75	1090.00	1079.50	1078.25	1078.50	1069.75	1073.25	1058.75	1061.00	1068.50	1060.25	1056.00	1043.25	1042.50	1042.25	1041.75	1042.25	1041.25	1046.25
616.00	620.25	629.00	633.25	632.75	632.00	630.25	639.25	640.75	643.75	645.00	675.50	883.50	1002.75	989.50	1000.25	1008.00	1034.50	1056.75	1055.00	1052.00	1055.25	1065.25	1073.50	1074.50	1073.00	1069.75	1071.00	1077.75	1084.50	1092.75	1092.50	1093.25	1103.50	1097.00	1102.50	1112.25	1143.25	1214.25	1317.00	1343.50	1224.75	1153.50	1202.50	1206.50	1171.00	1166.00	1150.00	1147.75	1130.50	1127.75	1120.25	1120.00	1115.00	1110.75	1102.50	1096.00	1098.75	1104.75	1111.00	1109.50	1117.25	1124.75	1089.25	1112.50	1125.75	1120.75	1117.25	1098.25	1100.00	1092.50	1096.00	1078.00	1075.00	1067.00	1070.25	1075.50	1078.25	1092.00	1084.50	1095.50	1073.00	1074.50	1062.00	1067.75	1073.25	1074.00	1064.25	1072.00	1078.25	1083.25	1069.25	1063.50	1063.00	1047.75	1045.00	1045.75	1046.50	1047.50	1046.50	1046.50	1047.00	1050.00	1056.50	1062.75	1063.25	1054.00	1067.00	1070.50	1064.25	1056.25	1048.75	1050.75	1053.25	1053.50	1056.75	1057.50	1057.50	1062.00	1061.25	1050.00	1049.25	1053.50	1059.50	1047.25	1043.25	1045.50	1049.00	1060.00	1056.50	1053.00	1061.25	1047.00	1047.50	1039.00	1042.75	1049.25	1053.75	1048.75	1039.50	1035.00	1034.00	1034.00	1034.00	1034.00	1034.00	1034.00	1034.00	1034.00	1038.50	1043.50	1044.50	1038.25	1038.50	1041.00	1048.75	1045.25	1051.25	1058.25	1064.25	1062.50	1048.00	1042.50	1035.75	1034.00	1034.00	1034.00	1034.00	1034.00	1035.75	1034.00	1034.00	1034.00	1034.00	1034.00	1034.00	1034.00	1034.00	1034.00	1034.00	1034.00	1034.00	1034.00	1034.00	1034.00	1034.00	1034.00	1034.00	1034.00	1034.00	1034.00	1034.00	1034.00	1034.00	1034.00	1034.00	1034.00	1034.00	1034.00	1034.00	1039.50	1047.25	1046.75	1046.25	1050.25	1052.50	1056.00	1053.00	1051.00	1063.75	1071.00	1063.75	1052.00	1046.75	1052.25	1055.00	1055.50	1050.75	1047.50	1048.00	1057.25	1054.25	1062.00	1071.25	1081.75	1098.00	1103.25	1116.25	1123.00	1120.00	1106.25	1081.25	1079.50	1096.25	1106.00	1103.75	1090.75	1098.25	1092.25	1098.25	1091.75	1085.00	1079.75	1071.25	1067.00	1070.25	1071.00	1068.25	1051.75	1042.00	1041.75	1042.50	1044.00	1042.25	1045.25	1053.25
622.25	626.50	645.50	654.75	660.00	657.00	655.25	653.25	651.50	661.00	678.00	832.25	999.75	1043.00	1023.25	1014.50	1013.25	1030.00	1041.00	1042.75	1048.50	1061.75	1062.50	1067.50	1065.00	1076.75	1074.50	1075.25	1083.50	1084.50	1122.50	1122.75	1089.50	1087.00	1099.75	1108.75	1128.00	1151.75	1239.75	1348.75	1241.25	1171.00	1168.75	1291.75	1208.75	1155.25	1149.25	1140.00	1136.00	1120.00	1110.75	1114.75	1101.25	1113.50	1105.75	1113.00	1093.25	1093.00	1097.00	1108.50	1123.25	1101.25	1101.75	1089.50	1106.50	1098.75	1091.00	1104.00	1100.50	1090.00	1078.00	1083.25	1082.25	1074.50	1065.25	1078.00	1090.00	1093.00	1095.00	1083.00	1079.50	1087.50	1077.50	1062.00	1064.75	1071.50	1060.00	1060.75	1067.00	1071.75	1087.50	1066.25	1070.00	1052.50	1048.00	1044.25	1047.75	1048.75	1048.25	1047.50	1047.75	1050.00	1052.00	1062.50	1067.75	1072.25	1057.75	1074.00	1074.75	1070.50	1060.50	1052.75	1053.75	1051.50	1053.00	1052.50	1053.50	1059.50	1059.00	1051.25	1050.75	1057.75	1062.00	1056.25	1052.50	1048.00	1043.00	1051.50	1056.00	1059.00	1061.00	1063.75	1055.50	1057.00	1044.25	1041.75	1052.25	1052.75	1059.00	1050.00	1038.25	1036.25	1035.25	1034.00	1034.00	1035.00	1034.00	1034.00	1034.00	1034.75	1043.25	1054.25	1048.25	1040.25	1047.50	1057.75	1055.75	1053.75	1048.50	1054.25	1049.50	1044.75	1034.75	1034.00	1034.00	1034.00	1034.00	1034.00	1034.00	1034.00	1034.00	1034.00	1034.00	1034.00	1034.00	1034.00	1034.00	1034.00	1034.00	1034.00	1034.00	1034.00	1034.00	1034.00	1034.00	1034.00	1034.00	1034.00	1034.00	1034.00	1034.00	1034.00	1034.00	1034.00	1034.00	1034.00	1034.75	1034.25	1036.75	1035.25	1035.50	1038.25	1040.50	1045.75	1051.25	1048.50	1046.50	1045.75	1050.25	1054.00	1049.75	1052.25	1043.75	1044.75	1044.00	1051.25	1056.25	1042.00	1043.25	1045.50	1047.00	1048.75	1054.25	1063.50	1072.75	1082.00	1085.50	1098.00	1096.25	1109.75	1103.25	1090.75	1086.25	1090.50	1099.25	1113.00	1112.00	1105.25	1110.75	1110.50	1101.25	1095.75	1088.00	1071.75	1064.50	1054.00	1061.00	1055.00	1055.25	1041.00	1041.75	1043.25	1042.75	1043.75	1045.75	1056.75
638.50	655.00	663.75	649.00	655.50	666.25	664.75	663.00	660.75	674.25	735.00	933.50	1037.25	1050.50	1035.25	1012.00	1019.50	1031.50	1035.25	1034.75	1051.50	1059.75	1056.75	1060.50	1053.50	1061.75	1064.50	1080.75	1086.25	1099.50	1098.50	1094.25	1101.75	1093.25	1100.75	1112.50	1133.25	1163.25	1295.75	1360.25	1206.25	1171.50	1195.75	1291.00	1189.00	1152.75	1134.75	1148.00	1134.00	1117.50	1109.50	1112.75	1104.25	1106.00	1114.25	1122.25	1094.75	1090.75	1101.00	1117.75	1134.00	1107.50	1108.00	1089.50	1080.75	1084.00	1084.25	1100.50	1105.00	1103.50	1080.50	1087.00	1071.75	1077.00	1063.75	1074.00	1087.50	1088.50	1090.00	1091.00	1080.00	1074.50	1067.25	1059.00	1057.75	1064.00	1056.50	1074.50	1073.00	1074.75	1076.50	1062.25	1057.75	1050.25	1045.00	1044.25	1047.25	1046.75	1047.75	1047.50	1047.25	1050.00	1055.75	1061.50	1067.25	1078.00	1065.75	1070.00	1079.75	1065.75	1055.25	1057.25	1061.50	1061.25	1060.50	1062.00	1059.25	1061.00	1057.25	1051.25	1058.25	1069.00	1062.00	1057.25	1058.50	1045.50	1046.25	1043.75	1055.25	1052.25	1064.00	1067.25	1064.50	1061.00	1055.25	1040.50	1042.00	1053.00	1060.25	1058.25	1042.00	1046.00	1040.50	1035.75	1034.25	1034.75	1034.00	1034.00	1034.00	1034.00	1039.25	1053.25	1056.50	1048.75	1054.00	1054.25	1049.75	1047.50	1042.25	1053.75	1044.25	1034.50	1034.00	1034.00	1034.00	1034.00	1034.00	1034.00	1034.00	1034.00	1034.00	1034.00	1034.00	1034.00	1034.00	1034.00	1034.00	1034.00	1034.00	1034.00	1034.00	1034.00	1034.00	1034.00	1034.00	1034.00	1034.00	1034.00	1034.00	1034.00	1034.00	1034.00	1034.00	1034.00	1034.00	1034.00	1036.75	1036.75	1042.75	1040.50	1035.75	1044.25	1043.25	1046.75	1047.25	1040.75	1038.25	1046.25	1047.00	1046.25	1040.25	1043.00	1039.25	1045.25	1042.25	1045.50	1043.25	1040.50	1054.00	1051.75	1051.25	1049.50	1052.25	1057.00	1063.00	1069.25	1074.75	1073.75	1072.25	1097.75	1108.00	1103.75	1099.25	1097.50	1106.75	1109.25	1123.00	1124.00	1115.25	1111.50	1090.50	1086.00	1072.00	1058.25	1050.75	1045.25	1047.25	1046.00	1049.75	1040.50	1042.25	1042.00	1041.00	1046.75	1052.00	1052.00
662.75	663.00	677.25	683.75	667.00	672.00	677.00	675.75	673.50	727.00	930.00	974.25	1022.00	1054.25	1064.75	1078.00	1020.75	1022.25	1036.25	1048.00	1042.75	1049.50	1047.25	1048.75	1053.00	1060.00	1062.75	1077.75	1086.75	1109.25	1095.50	1091.00	1100.75	1096.00	1102.75	1113.25	1154.50	1180.75	1319.50	1323.25	1221.00	1205.00	1229.50	1323.00	1194.50	1170.25	1160.25	1158.00	1141.00	1137.50	1155.00	1161.75	1112.50	1094.25	1110.25	1097.75	1088.75	1088.75	1130.75	1177.50	1147.00	1098.00	1094.25	1091.25	1079.50	1085.25	1087.25	1100.50	1102.50	1095.00	1092.75	1093.50	1077.75	1069.25	1062.50	1070.50	1077.00	1080.25	1092.00	1081.50	1081.00	1067.75	1065.50	1061.25	1057.00	1056.75	1059.50	1067.75	1072.25	1078.25	1073.25	1061.00	1057.00	1046.50	1044.00	1045.25	1049.75	1048.50	1048.25	1048.25	1048.25	1053.25	1061.00	1062.25	1069.50	1078.50	1076.25	1071.75	1083.50	1074.25	1059.50	1055.75	1069.50	1064.75	1067.00	1071.50	1062.75	1071.50	1066.75	1058.75	1056.50	1071.00	1070.25	1066.00	1056.75	1047.25	1059.75	1055.00	1047.00	1054.00	1058.25	1067.00	1068.00	1073.00	1061.50	1046.50	1045.00	1046.50	1051.75	1059.75	1047.00	1053.75	1044.50	1039.50	1035.75	1034.50	1034.00	1034.00	1034.00	1034.00	1038.00	1043.75	1048.00	1044.50	1045.00	1039.25	1037.75	1036.75	1037.00	1042.50	1037.00	1034.00	1034.00	1034.00	1034.00	1034.00	1034.00	1034.00	1034.00	1034.00	1034.00	1034.00	1034.00	1034.00	1034.00	1034.00	1034.00	1034.00	1034.00	1034.00	1034.00	1034.00	1034.00	1034.00	1034.00	1034.00	1034.00	1034.00	1034.00	1034.00	1034.00	1034.00	1034.00	1034.25	1038.00	1035.50	1044.75	1042.50	1046.00	1042.00	1038.75	1041.75	1046.50	1046.75	1044.50	1046.50	1037.75	1038.75	1043.75	1040.00	1038.25	1037.00	1036.75	1039.50	1038.00	1038.25	1039.00	1050.00	1054.50	1058.25	1058.25	1057.25	1063.25	1065.25	1071.25	1080.50	1075.25	1057.50	1067.00	1091.75	1091.25	1092.25	1106.75	1111.50	1115.50	1119.75	1120.50	1123.50	1108.50	1101.25	1091.75	1081.50	1073.25	1071.00	1058.75	1048.00	1041.50	1040.25	1041.25	1039.50	1041.50	1041.75	1039.75	1045.75	1059.75	1070.00
666.25	668.75	685.00	690.75	669.75	675.25	683.50	686.50	694.00	876.75	1036.25	1015.50	1033.25	1056.75	1080.25	1123.75	1040.25	1024.50	1039.50	1039.50	1052.00	1057.00	1050.50	1053.50	1058.25	1065.75	1078.25	1074.75	1106.00	1099.50	1086.50	1094.75	1100.00	1104.50	1109.00	1118.50	1166.25	1207.00	1306.25	1248.00	1238.00	1267.50	1291.75	1283.50	1194.00	1162.00	1172.25	1155.25	1136.25	1168.50	1234.00	1231.25	1138.50	1102.50	1112.75	1101.00	1093.50	1095.50	1167.50	1190.75	1134.75	1096.00	1091.50	1076.75	1085.25	1093.25	1097.00	1100.00	1089.75	1083.00	1081.75	1095.00	1087.75	1080.50	1065.00	1067.50	1085.00	1091.25	1092.75	1089.75	1096.25	1074.75	1065.00	1056.75	1054.75	1055.25	1052.00	1056.75	1071.25	1073.00	1063.00	1055.50	1050.75	1041.75	1046.25	1049.50	1050.25	1050.50	1049.25	1048.50	1052.75	1054.50	1064.00	1076.00	1074.25	1068.00	1076.25	1064.50	1075.00	1079.25	1058.75	1056.25	1077.75	1069.25	1074.50	1079.25	1072.75	1080.25	1082.25	1067.50	1058.75	1070.25	1069.00	1060.25	1052.25	1049.25	1064.50	1065.50	1053.00	1049.25	1056.75	1060.00	1060.75	1073.75	1060.50	1059.25	1054.00	1046.00	1049.25	1061.75	1054.50	1055.25	1049.00	1043.25	1034.25	1034.00	1034.00	1034.00	1034.00	1034.00	1034.00	1034.00	1035.25	1036.00	1034.50	1034.00	1034.00	1034.00	1034.00	1034.00	1034.00	1034.00	1034.00	1034.00	1034.00	1034.00	1034.00	1034.00	1034.00	1034.00	1034.00	1034.00	1034.00	1034.00	1034.00	1034.00	1034.00	1034.00	1034.00	1034.00	1034.00	1034.00	1034.00	1034.00	1034.00	1034.00	1034.00	1034.00	1034.00	1034.00	1034.00	1034.00	1034.00	1034.00	1034.25	1034.75	1047.25	1042.50	1039.00	1043.25	1044.25	1044.00	1040.25	1042.50	1038.00	1038.25	1035.25	1039.75	1044.75	1034.50	1034.50	1034.00	1034.50	1037.50	1036.50	1046.50	1043.25	1052.00	1059.00	1060.25	1070.00	1070.00	1072.00	1067.00	1075.75	1091.50	1081.00	1054.50	1063.75	1077.75	1072.00	1069.75	1096.75	1127.50	1119.00	1103.75	1099.00	1112.75	1108.25	1101.25	1092.50	1085.25	1073.25	1066.50	1062.50	1059.00	1050.50	1041.25	1039.50	1041.25	1042.00	1039.75	1038.00	1042.75	1055.00	1069.25
672.25	681.75	696.25	679.75	665.50	688.75	691.75	746.00	861.50	999.50	1059.00	1049.50	1067.50	1062.75	1076.00	1100.25	1045.00	1027.25	1039.00	1041.00	1053.25	1056.00	1063.50	1105.25	1138.75	1084.00	1126.50	1094.25	1082.50	1081.50	1085.25	1087.00	1102.50	1104.50	1111.25	1115.75	1158.75	1219.25	1292.00	1187.00	1245.00	1277.25	1334.75	1262.00	1187.25	1174.00	1151.25	1150.50	1181.50	1218.75	1273.50	1243.00	1141.25	1114.75	1099.00	1105.00	1100.25	1085.50	1107.75	1118.50	1098.25	1097.00	1093.75	1075.75	1082.75	1090.00	1099.00	1099.25	1102.50	1093.00	1083.25	1084.00	1081.00	1083.50	1065.25	1064.25	1082.50	1082.75	1084.50	1082.50	1082.00	1074.00	1067.75	1060.50	1053.25	1052.50	1049.25	1050.25	1057.50	1056.50	1061.50	1049.50	1044.50	1044.25	1046.75	1050.50	1050.25	1050.75	1051.00	1052.00	1060.75	1061.75	1065.00	1064.25	1067.75	1066.00	1066.25	1060.00	1063.75	1073.25	1069.75	1060.25	1067.25	1079.25	1082.75	1085.25	1083.00	1082.25	1087.50	1067.75	1068.25	1072.50	1068.00	1064.50	1062.75	1052.25	1069.00	1064.50	1062.50	1055.75	1055.50	1061.50	1064.25	1067.25	1071.25	1061.50	1059.75	1049.00	1049.50	1059.25	1069.75	1062.00	1054.50	1049.50	1038.00	1034.00	1034.00	1034.00	1034.00	1034.00	1034.00	1034.00	1034.00	1034.00	1034.00	1034.00	1034.00	1034.00	1034.00	1034.00	1034.00	1034.00	1034.00	1034.00	1034.00	1034.00	1034.00	1034.00	1034.00	1034.00	1034.00	1034.00	1034.00	1034.00	1034.00	1034.00	1034.00	1034.00	1034.00	1034.00	1034.00	1034.00	1034.00	1034.00	1034.00	1034.00	1034.00	1034.00	1034.00	1034.00	1034.00	1034.00	1034.00	1034.00	1034.00	1034.00	1037.75	1035.75	1034.25	1036.25	1036.75	1040.75	1036.00	1039.00	1035.75	1034.00	1034.75	1038.00	1035.75	1035.25	1034.50	1037.00	1038.75	1044.75	1045.75	1052.75	1052.50	1053.25	1068.50	1056.50	1063.00	1057.50	1062.50	1057.75	1063.25	1082.75	1077.25	1053.75	1051.00	1057.75	1060.50	1069.50	1086.50	1124.25	1116.00	1102.00	1087.00	1096.50	1088.50	1089.00	1079.00	1081.50	1086.50	1072.50	1060.25	1056.00	1047.00	1041.25	1040.25	1042.25	1042.50	1040.75	1042.50	1048.00	1054.25	1061.00
687.25	709.75	707.50	683.75	676.75	701.00	716.25	906.00	1020.50	1038.25	1053.50	1075.00	1074.25	1068.25	1110.00	1155.00	1041.50	1034.00	1064.50	1048.50	1056.75	1065.00	1077.25	1089.75	1108.25	1081.25	1089.00	1097.75	1084.00	1092.50	1092.75	1103.50	1102.50	1100.75	1103.25	1101.50	1147.75	1181.50	1190.00	1174.00	1247.25	1234.50	1232.00	1223.00	1183.00	1184.00	1180.75	1160.25	1277.50	1339.00	1279.75	1240.00	1144.50	1124.25	1100.75	1116.50	1103.25	1082.00	1081.00	1084.50	1086.00	1095.25	1101.00	1075.25	1079.50	1084.50	1089.50	1106.00	1096.25	1086.00	1087.50	1076.75	1067.25	1070.75	1062.50	1068.50	1078.25	1082.50	1071.75	1067.25	1076.00	1067.75	1059.00	1056.00	1055.50	1053.00	1051.75	1049.50	1050.50	1050.50	1049.00	1042.75	1043.25	1043.00	1043.25	1043.75	1045.25	1048.25	1049.00	1054.75	1067.25	1066.00	1068.00	1056.00	1066.75	1071.25	1057.25	1053.50	1057.50	1059.75	1078.25	1068.00	1061.00	1066.25	1081.50	1074.25	1076.25	1078.00	1081.00	1084.50	1076.75	1075.75	1075.25	1069.75	1058.50	1056.00	1074.25	1065.50	1063.25	1064.75	1057.75	1060.50	1068.25	1076.00	1077.50	1066.75	1057.50	1051.00	1053.50	1056.25	1069.25	1062.25	1053.50	1048.75	1038.00	1034.00	1034.00	1034.00	1034.00	1034.00	1034.00	1034.00	1034.00	1034.00	1034.00	1034.00	1034.00	1034.00	1034.00	1034.00	1034.00	1034.00	1034.00	1034.00	1034.00	1034.00	1034.00	1034.00	1034.00	1034.00	1034.00	1034.00	1034.00	1034.00	1034.00	1034.00	1034.00	1034.00	1034.00	1034.00	1034.00	1034.00	1034.00	1034.00	1034.00	1034.00	1034.00	1034.00	1034.00	1034.00	1034.00	1034.00	1034.00	1034.00	1034.00	1034.00	1034.00	1034.00	1034.00	1034.00	1034.25	1036.00	1034.25	1034.50	1034.00	1034.00	1034.00	1034.00	1034.00	1041.50	1037.00	1041.00	1051.50	1049.75	1048.50	1051.50	1049.25	1053.25	1059.50	1047.00	1054.25	1048.50	1053.00	1057.50	1051.00	1063.75	1063.00	1055.25	1045.00	1048.50	1060.50	1070.00	1075.00	1113.50	1101.50	1086.25	1077.25	1072.50	1085.00	1085.75	1062.25	1069.75	1079.00	1067.75	1061.00	1059.00	1046.50	1040.25	1041.25	1041.00	1040.50	1040.75	1042.75	1047.25	1059.75	1059.75
696.00	719.25	716.00	691.75	686.00	730.00	819.00	1006.75	1049.75	1056.50	1062.50	1104.50	1091.25	1074.00	1082.00	1090.50	1045.00	1041.25	1101.50	1091.25	1054.00	1067.75	1080.25	1076.50	1104.50	1092.75	1094.50	1103.25	1098.00	1099.50	1099.50	1100.00	1092.25	1095.50	1093.75	1107.75	1118.25	1132.75	1169.75	1249.25	1235.75	1223.25	1195.75	1199.50	1179.25	1182.00	1179.00	1199.00	1284.00	1311.25	1291.00	1204.75	1126.25	1121.50	1110.75	1088.75	1084.75	1083.75	1078.25	1082.00	1091.75	1092.00	1094.00	1071.00	1081.25	1095.25	1095.00	1101.25	1102.00	1093.75	1084.00	1077.75	1080.25	1067.00	1058.00	1063.75	1075.50	1082.25	1083.00	1069.25	1065.75	1060.50	1056.25	1055.75	1055.25	1054.50	1052.75	1047.50	1048.50	1046.00	1044.00	1045.25	1047.50	1048.00	1047.00	1046.75	1045.75	1044.50	1044.50	1047.25	1052.25	1053.00	1054.75	1055.00	1057.25	1059.25	1052.50	1058.50	1069.00	1073.25	1079.00	1082.25	1067.00	1065.75	1067.25	1066.75	1072.25	1073.25	1078.25	1084.50	1087.00	1082.75	1085.75	1077.25	1058.75	1058.75	1069.25	1057.25	1063.00	1071.75	1069.75	1062.00	1069.25	1075.25	1074.25	1058.50	1054.25	1057.00	1063.25	1056.75	1060.25	1064.75	1058.50	1047.25	1038.25	1035.25	1034.00	1034.00	1034.00	1034.00	1034.00	1034.00	1034.00	1034.00	1034.00	1034.00	1034.00	1034.00	1034.00	1034.00	1034.00	1034.00	1034.00	1034.00	1034.00	1034.00	1034.00	1034.00	1034.00	1034.00	1034.00	1034.00	1034.00	1034.00	1034.00	1034.00	1034.00	1034.00	1034.00	1034.00	1034.00	1034.00	1034.00	1034.00	1034.00	1034.00	1034.00	1034.00	1034.00	1034.00	1034.00	1034.00	1034.00	1034.00	1034.00	1034.00	1034.00	1034.00	1034.00	1034.00	1034.00	1034.00	1034.25	1034.00	1034.00	1034.00	1034.50	1034.00	1034.00	1040.25	1042.25	1046.00	1052.50	1045.00	1040.75	1044.00	1042.25	1041.00	1044.25	1048.00	1055.00	1048.25	1045.00	1050.25	1046.50	1058.50	1059.50	1051.25	1046.75	1047.50	1056.25	1062.50	1065.50	1078.00	1085.25	1077.50	1077.50	1075.25	1071.25	1074.75	1055.75	1058.00	1070.75	1068.50	1053.75	1046.25	1043.25	1042.75	1041.75	1040.00	1039.75	1040.75	1041.25	1045.00	1060.00	1071.25
694.50	711.25	721.75	699.50	694.50	832.75	982.25	1067.25	1063.50	1066.75	1071.25	1103.75	1091.25	1091.50	1074.25	1064.25	1056.00	1044.00	1085.50	1108.75	1063.75	1065.50	1072.25	1085.25	1086.50	1104.50	1103.00	1106.75	1097.50	1088.25	1093.00	1088.75	1088.25	1088.25	1102.00	1102.75	1115.25	1124.25	1187.00	1209.25	1216.25	1184.25	1174.75	1178.50	1149.75	1152.50	1179.00	1209.75	1197.50	1222.00	1188.00	1156.00	1105.50	1108.25	1096.25	1093.25	1087.50	1084.00	1078.00	1077.75	1087.25	1092.50	1076.00	1070.75	1079.25	1091.25	1086.75	1100.75	1094.75	1089.75	1087.50	1083.75	1065.75	1064.75	1060.75	1075.00	1079.25	1074.50	1098.00	1076.00	1061.00	1056.50	1054.25	1053.50	1052.50	1054.25	1051.00	1048.25	1045.00	1046.00	1047.50	1047.00	1050.00	1052.50	1050.25	1049.50	1050.50	1051.25	1046.25	1044.00	1044.00	1045.00	1047.75	1049.25	1049.75	1050.75	1052.75	1060.25	1075.25	1087.50	1081.25	1082.50	1069.75	1077.25	1077.25	1070.50	1080.00	1087.50	1082.25	1081.75	1086.75	1090.75	1080.25	1067.75	1061.00	1063.50	1073.50	1065.00	1072.25	1081.00	1082.00	1070.50	1070.50	1068.00	1060.50	1054.25	1058.50	1063.00	1065.75	1065.50	1066.00	1062.75	1054.75	1047.25	1044.25	1045.00	1034.00	1034.00	1034.00	1034.00	1034.00	1034.00	1034.00	1034.00	1034.00	1034.00	1034.00	1034.00	1034.00	1034.00	1034.00	1034.00	1034.00	1034.00	1034.00	1034.00	1034.00	1034.00	1034.00	1034.00	1034.00	1034.00	1034.00	1034.00	1034.00	1034.50	1034.00	1034.00	1034.00	1034.00	1034.00	1034.00	1034.00	1034.00	1034.00	1034.00	1034.00	1034.00	1034.00	1034.00	1034.00	1034.00	1034.00	1034.00	1034.00	1034.00	1034.00	1034.00	1034.00	1034.00	1034.00	1034.00	1034.00	1034.00	1034.00	1034.00	1036.25	1034.50	1035.00	1040.75	1049.75	1046.50	1044.00	1037.75	1037.50	1041.25	1038.25	1036.50	1044.00	1047.75	1051.75	1054.00	1042.00	1038.75	1042.50	1045.50	1053.50	1044.00	1040.75	1047.00	1054.25	1059.00	1058.00	1064.50	1069.75	1064.25	1074.75	1080.00	1058.75	1061.50	1054.50	1048.00	1058.50	1067.50	1058.50	1046.75	1039.25	1040.75	1042.25	1040.00	1039.75	1039.50	1038.50	1042.25	1056.50	1072.75
710.25	724.75	731.50	712.00	740.25	943.25	1012.50	1041.75	1048.50	1067.50	1077.50	1092.00	1090.00	1119.00	1150.00	1087.75	1059.00	1046.75	1068.75	1070.75	1058.00	1062.25	1064.00	1089.25	1099.75	1099.50	1100.50	1106.75	1088.00	1083.75	1078.50	1087.75	1092.00	1085.75	1101.75	1105.00	1117.00	1128.50	1145.50	1154.50	1174.50	1184.75	1238.00	1218.50	1142.00	1169.75	1217.50	1260.50	1208.50	1201.00	1161.75	1129.75	1100.00	1093.50	1090.75	1098.75	1087.25	1092.75	1081.00	1078.25	1088.75	1078.00	1068.00	1081.50	1082.00	1081.25	1100.00	1098.00	1086.25	1079.00	1090.50	1080.50	1068.75	1058.00	1063.75	1087.75	1086.50	1066.25	1074.75	1068.75	1057.75	1056.00	1055.00	1054.50	1053.75	1050.25	1045.25	1047.50	1049.00	1049.75	1050.25	1050.75	1050.75	1051.25	1052.25	1052.00	1051.75	1053.25	1050.75	1048.75	1049.50	1045.25	1045.75	1045.75	1046.50	1049.00	1056.50	1063.50	1076.00	1084.75	1078.50	1079.75	1074.50	1075.25	1081.50	1083.00	1078.75	1089.25	1088.50	1086.75	1092.50	1088.25	1074.00	1069.25	1070.50	1072.25	1077.25	1065.75	1070.50	1073.75	1081.00	1076.50	1075.50	1070.75	1059.75	1060.50	1069.75	1066.25	1071.75	1070.75	1066.50	1055.25	1049.75	1047.75	1057.50	1055.00	1035.25	1034.00	1034.00	1034.00	1034.00	1034.00	1034.00	1034.00	1034.00	1034.00	1034.00	1034.00	1034.00	1034.00	1034.00	1034.00	1034.00	1034.00	1034.00	1034.00	1034.00	1034.00	1034.00	1034.00	1034.00	1034.00	1034.00	1034.00	1034.25	1039.75	1037.75	1037.75	1038.00	1043.50	1041.50	1040.50	1034.00	1034.00	1034.00	1034.00	1034.00	1034.00	1034.00	1034.00	1034.00	1034.00	1034.00	1034.00	1034.00	1034.00	1034.00	1034.00	1034.00	1034.00	1034.00	1034.25	1034.00	1034.00	1035.25	1038.75	1043.50	1042.00	1040.75	1049.25	1049.25	1040.25	1038.25	1035.50	1035.25	1036.25	1035.75	1036.75	1040.50	1042.00	1050.00	1046.75	1040.25	1037.25	1039.50	1045.00	1051.00	1045.25	1039.00	1043.50	1047.50	1055.00	1060.25	1062.25	1061.00	1063.75	1070.75	1073.00	1054.25	1049.75	1053.75	1043.25	1047.25	1061.00	1049.75	1042.50	1040.50	1039.25	1040.25	1039.75	1039.25	1039.25	1038.75	1041.50	1048.50	1056.75
717.00	726.75	753.75	737.25	870.00	961.50	989.00	1039.00	1046.25	1067.25	1082.50	1082.25	1096.25	1123.50	1201.00	1095.75	1061.75	1058.50	1054.50	1054.50	1057.50	1077.25	1069.75	1083.25	1087.75	1088.25	1104.75	1092.00	1090.25	1079.75	1076.25	1079.25	1089.75	1088.25	1113.50	1114.75	1121.75	1123.50	1145.75	1158.25	1160.25	1224.75	1277.50	1215.50	1141.25	1163.00	1194.50	1253.75	1228.25	1235.50	1155.75	1118.50	1096.25	1090.25	1080.75	1088.50	1091.00	1078.50	1072.25	1083.00	1083.00	1066.00	1069.25	1082.50	1097.75	1094.25	1093.50	1102.25	1098.75	1089.25	1076.25	1081.25	1062.75	1057.00	1066.50	1086.50	1081.25	1065.25	1065.75	1063.75	1056.00	1055.75	1057.50	1056.00	1053.75	1048.25	1046.50	1049.25	1049.50	1049.00	1050.25	1052.25	1052.75	1052.25	1051.75	1052.50	1052.00	1056.75	1051.25	1054.75	1056.50	1048.75	1046.25	1045.25	1044.75	1045.00	1049.50	1079.75	1064.75	1078.25	1063.50	1073.00	1074.00	1081.50	1081.00	1082.75	1091.75	1085.25	1094.25	1101.25	1094.00	1079.25	1080.00	1075.50	1077.00	1081.50	1084.50	1071.50	1072.25	1078.75	1084.00	1081.50	1075.25	1070.00	1059.75	1059.75	1066.00	1063.75	1075.50	1075.25	1071.50	1056.75	1066.00	1057.50	1061.75	1049.75	1037.25	1034.00	1034.00	1034.00	1034.00	1034.00	1034.00	1034.00	1034.00	1034.00	1034.00	1034.00	1034.00	1034.00	1034.00	1034.00	1034.00	1034.00	1034.00	1034.00	1034.00	1035.50	1035.25	1034.00	1034.00	1034.00	1034.00	1034.00	1034.00	1034.75	1039.00	1045.75	1043.50	1047.00	1052.75	1040.50	1034.00	1034.25	1034.00	1034.00	1034.00	1034.00	1034.00	1034.00	1034.00	1034.00	1034.00	1034.00	1034.00	1034.00	1034.00	1034.00	1034.00	1034.00	1034.00	1037.50	1034.75	1036.25	1040.50	1041.00	1044.75	1048.25	1050.00	1049.00	1041.00	1041.25	1035.50	1034.00	1034.00	1034.25	1034.00	1034.50	1037.50	1047.25	1046.75	1039.25	1037.50	1037.00	1039.25	1042.25	1045.25	1038.50	1039.25	1047.75	1051.00	1056.00	1056.50	1052.75	1060.00	1064.25	1063.75	1058.75	1050.75	1048.75	1046.75	1041.50	1040.25	1054.75	1054.25	1051.00	1042.75	1038.75	1038.25	1039.75	1039.75	1039.50	1044.25	1050.25	1048.75	1048.50
829.25	835.00	842.00	850.00	964.50	991.50	995.75	1052.50	1065.25	1059.50	1081.50	1094.75	1086.50	1091.00	1113.50	1082.00	1053.00	1057.75	1047.25	1047.50	1055.50	1059.00	1074.75	1082.00	1081.75	1094.25	1081.50	1100.25	1076.75	1067.50	1073.75	1081.25	1093.25	1099.50	1136.75	1137.25	1157.50	1154.50	1163.75	1179.50	1177.75	1163.25	1196.00	1150.75	1162.00	1148.00	1192.25	1181.50	1210.75	1199.25	1139.50	1108.25	1094.00	1095.75	1098.75	1080.75	1079.25	1071.50	1075.50	1086.50	1072.25	1070.75	1076.75	1084.75	1097.00	1104.25	1104.75	1113.00	1104.50	1092.50	1078.75	1069.00	1058.75	1059.25	1071.50	1072.50	1064.25	1057.75	1056.25	1055.25	1056.50	1058.00	1056.50	1054.00	1048.25	1047.25	1051.00	1051.25	1058.00	1060.75	1058.25	1054.75	1051.25	1053.00	1052.50	1053.00	1054.00	1065.50	1059.25	1056.25	1065.50	1057.25	1048.75	1052.75	1050.75	1048.00	1045.50	1049.25	1049.50	1056.25	1054.00	1058.50	1075.50	1071.75	1074.50	1069.50	1077.75	1079.50	1085.25	1090.50	1097.75	1096.50	1094.00	1088.00	1090.25	1095.75	1082.50	1074.25	1080.00	1077.25	1082.00	1082.00	1071.75	1071.25	1067.25	1069.50	1064.75	1076.75	1078.25	1067.75	1062.00	1068.50	1071.75	1066.50	1066.00	1054.25	1040.75	1038.75	1037.25	1034.00	1034.00	1034.00	1034.00	1034.00	1034.00	1034.00	1034.00	1034.00	1034.00	1034.00	1034.00	1034.00	1036.00	1037.50	1040.50	1042.75	1038.00	1038.00	1035.25	1034.00	1034.50	1035.00	1034.00	1034.00	1034.00	1045.75	1063.75	1075.75	1061.00	1054.50	1040.75	1039.00	1048.50	1040.00	1038.25	1035.25	1034.00	1034.00	1034.00	1034.00	1034.00	1034.00	1034.00	1034.00	1034.00	1034.00	1034.00	1034.00	1034.00	1034.00	1034.00	1035.00	1038.00	1037.00	1035.75	1035.00	1035.75	1041.00	1046.50	1035.50	1035.00	1041.25	1038.00	1035.25	1034.50	1035.75	1036.00	1040.75	1042.75	1051.75	1043.25	1036.00	1036.50	1035.25	1038.75	1042.50	1044.25	1036.75	1038.50	1043.75	1048.25	1051.25	1049.25	1054.50	1054.25	1047.75	1059.00	1062.75	1041.75	1041.75	1041.50	1040.75	1036.00	1038.00	1042.25	1042.25	1040.75	1039.75	1038.50	1042.00	1039.50	1041.25	1042.00	1052.00	1067.50	1073.75
950.00	934.00	903.00	905.75	1008.00	1017.00	1003.25	1046.50	1056.75	1064.25	1086.00	1089.50	1082.25	1088.50	1092.50	1078.75	1055.50	1049.00	1050.75	1046.25	1055.25	1059.25	1076.50	1087.25	1081.75	1094.25	1080.00	1112.25	1075.00	1074.75	1072.00	1081.25	1098.00	1112.50	1142.75	1152.00	1174.50	1162.50	1174.25	1191.25	1187.00	1142.25	1158.50	1140.00	1158.25	1149.25	1212.75	1154.00	1176.00	1166.25	1130.50	1105.00	1093.50	1100.75	1106.50	1085.50	1072.75	1069.25	1076.00	1084.00	1072.25	1068.50	1068.25	1083.25	1093.00	1096.50	1121.50	1116.75	1102.00	1095.25	1087.50	1075.75	1057.50	1060.75	1077.25	1074.25	1058.50	1056.50	1055.25	1056.25	1057.75	1057.75	1057.25	1053.00	1045.75	1049.25	1055.00	1057.00	1065.25	1070.75	1067.50	1062.25	1052.25	1051.75	1052.00	1053.50	1055.25	1061.75	1064.50	1057.25	1058.75	1058.25	1051.25	1055.50	1052.75	1050.25	1048.25	1044.25	1044.75	1048.50	1055.25	1057.25	1077.00	1068.75	1070.75	1066.25	1071.75	1082.00	1092.00	1084.50	1096.50	1099.25	1096.25	1090.25	1096.50	1095.00	1076.00	1072.75	1077.50	1085.00	1081.50	1074.25	1075.25	1078.50	1070.00	1068.25	1068.00	1083.25	1080.25	1066.75	1069.75	1076.75	1076.50	1079.75	1076.75	1061.75	1041.50	1039.50	1040.50	1035.00	1034.00	1034.00	1034.00	1034.00	1034.00	1034.00	1034.00	1034.00	1034.00	1034.00	1034.00	1034.00	1039.75	1040.00	1041.50	1045.75	1038.50	1037.25	1036.50	1034.50	1035.75	1036.25	1034.25	1034.25	1034.25	1059.75	1086.50	1094.00	1069.50	1051.00	1046.50	1043.00	1050.50	1038.25	1046.00	1038.75	1034.50	1034.00	1034.00	1034.00	1034.00	1034.00	1034.00	1034.00	1034.00	1034.00	1034.00	1034.00	1034.00	1034.00	1034.00	1034.00	1035.25	1034.75	1034.00	1034.25	1035.25	1040.00	1044.50	1035.50	1034.00	1038.00	1035.00	1035.50	1034.25	1036.00	1037.75	1038.75	1039.75	1046.25	1038.00	1035.75	1035.25	1035.00	1041.25	1042.00	1040.00	1036.00	1037.25	1045.00	1052.25	1051.50	1045.75	1052.25	1049.50	1044.25	1054.25	1057.25	1040.75	1035.75	1037.75	1041.25	1036.25	1036.50	1039.50	1039.00	1039.50	1039.00	1039.00	1045.50	1041.00	1046.00	1044.00	1051.50	1076.50	1079.75
1052.50	1000.75	973.50	966.50	1026.25	1017.00	1034.25	1049.50	1066.75	1073.00	1081.25	1085.00	1097.00	1105.00	1119.25	1152.50	1075.00	1054.50	1054.00	1056.00	1065.50	1057.75	1062.75	1070.00	1074.75	1084.75	1082.25	1091.25	1070.50	1090.75	1086.00	1084.25	1092.50	1106.75	1129.25	1159.50	1183.75	1184.50	1187.75	1182.75	1159.75	1136.00	1127.00	1125.50	1166.50	1216.00	1213.00	1143.50	1127.75	1115.00	1103.50	1118.25	1110.00	1089.25	1084.75	1074.00	1068.00	1068.75	1070.75	1076.00	1068.50	1064.50	1072.50	1081.25	1087.50	1092.00	1129.75	1114.00	1091.50	1086.00	1082.00	1068.25	1056.25	1072.75	1081.00	1068.25	1057.00	1056.25	1056.50	1056.00	1056.25	1054.75	1054.25	1048.00	1047.25	1053.00	1061.75	1079.25	1072.25	1078.25	1083.25	1070.75	1058.25	1053.75	1055.25	1053.25	1054.00	1055.75	1062.75	1063.50	1057.00	1065.00	1057.50	1060.25	1057.00	1059.00	1051.50	1049.50	1044.75	1044.50	1051.75	1056.50	1071.50	1067.00	1061.50	1065.75	1067.25	1069.75	1076.50	1082.75	1076.50	1084.25	1085.50	1082.25	1089.25	1084.50	1084.50	1085.00	1074.75	1083.75	1087.50	1080.25	1084.25	1083.50	1080.25	1068.00	1068.00	1082.25	1087.50	1074.75	1079.25	1095.50	1098.50	1113.25	1077.25	1056.50	1045.25	1049.50	1049.00	1039.50	1034.00	1034.00	1034.00	1034.00	1034.00	1034.00	1034.00	1034.00	1034.00	1034.00	1034.00	1034.00	1036.50	1034.50	1038.75	1041.75	1037.00	1037.00	1037.50	1039.00	1041.00	1039.25	1040.00	1034.75	1035.50	1084.00	1098.25	1073.75	1058.00	1050.50	1056.50	1052.75	1047.00	1038.75	1049.25	1049.75	1037.75	1034.25	1034.00	1034.00	1034.00	1034.00	1034.00	1034.00	1034.00	1034.00	1034.00	1034.00	1034.00	1034.00	1034.00	1034.00	1034.00	1034.00	1034.00	1035.00	1038.25	1040.25	1037.25	1038.00	1034.25	1035.25	1034.50	1034.00	1034.00	1035.00	1036.50	1036.25	1037.25	1038.00	1040.75	1037.50	1036.25	1035.50	1036.75	1036.75	1037.75	1035.25	1036.00	1040.75	1042.75	1042.75	1043.50	1051.50	1048.75	1040.75	1048.00	1046.25	1050.50	1043.75	1034.25	1034.00	1035.00	1037.25	1037.75	1038.00	1038.25	1038.75	1040.25	1048.25	1048.25	1051.00	1058.00	1058.75	1066.50	1070.75
1066.25	993.75	1025.25	1029.25	1044.75	1034.25	1047.75	1077.00	1094.75	1079.75	1088.25	1097.50	1095.25	1101.75	1117.00	1148.50	1100.00	1068.25	1056.50	1045.75	1050.50	1053.75	1052.00	1056.25	1060.50	1079.00	1062.25	1070.50	1075.25	1100.50	1115.50	1084.75	1096.50	1112.25	1145.50	1176.75	1161.50	1185.25	1187.75	1158.75	1136.25	1147.00	1120.75	1154.00	1249.75	1202.25	1172.50	1171.25	1120.75	1100.00	1093.25	1094.75	1092.25	1080.25	1070.75	1064.75	1066.25	1069.25	1066.00	1069.25	1067.50	1064.50	1074.50	1079.25	1072.50	1080.75	1100.00	1092.00	1096.25	1086.75	1065.25	1061.25	1057.00	1075.50	1068.00	1060.00	1057.25	1056.25	1057.50	1055.00	1054.75	1051.25	1048.25	1046.50	1051.50	1063.50	1062.25	1074.00	1088.50	1072.50	1081.75	1073.25	1063.50	1057.50	1055.00	1061.25	1061.25	1054.50	1054.25	1066.50	1066.00	1071.25	1054.25	1066.25	1061.75	1062.25	1065.00	1054.25	1049.25	1045.00	1047.50	1050.00	1059.50	1060.25	1061.25	1060.25	1069.75	1060.75	1065.50	1066.75	1068.50	1075.75	1079.25	1077.00	1083.25	1072.00	1084.25	1086.25	1078.75	1081.50	1091.75	1085.75	1091.25	1086.75	1081.25	1072.00	1076.00	1082.50	1095.75	1093.50	1090.75	1091.25	1092.25	1091.00	1063.25	1052.00	1057.25	1065.75	1055.25	1042.50	1036.25	1035.50	1036.25	1039.75	1037.00	1035.00	1034.00	1034.00	1034.00	1034.00	1034.00	1034.00	1034.00	1034.00	1035.75	1036.25	1036.50	1038.00	1040.50	1045.75	1051.25	1051.50	1042.75	1034.00	1036.00	1125.50	1102.75	1064.75	1060.00	1061.00	1060.75	1061.50	1048.25	1044.25	1055.25	1053.25	1037.50	1044.25	1041.00	1038.25	1034.25	1034.00	1034.00	1034.00	1034.00	1034.00	1034.00	1034.00	1034.00	1034.00	1034.00	1034.00	1034.00	1034.00	1034.00	1034.00	1034.00	1034.00	1034.00	1034.00	1034.00	1034.00	1034.00	1034.00	1034.00	1034.00	1034.00	1034.00	1036.50	1037.50	1039.25	1037.75	1037.00	1037.00	1035.50	1035.75	1036.75	1036.25	1036.00	1037.00	1037.25	1041.50	1050.25	1051.50	1045.25	1039.50	1042.25	1040.25	1044.25	1044.25	1034.25	1034.75	1036.75	1037.25	1036.75	1038.00	1039.75	1039.50	1042.00	1039.75	1040.75	1050.50	1063.00	1054.25	1046.25	1053.50
1081.00	1059.50	1051.50	1059.25	1061.25	1049.00	1059.75	1101.75	1093.00	1087.00	1088.25	1099.25	1100.75	1094.25	1128.50	1185.25	1129.00	1075.50	1061.25	1051.25	1047.00	1051.75	1054.75	1060.00	1062.25	1069.25	1062.75	1095.50	1091.00	1101.25	1102.00	1099.00	1106.00	1115.00	1134.25	1150.75	1156.75	1180.50	1220.50	1211.00	1157.25	1122.00	1113.50	1169.25	1186.00	1147.75	1146.50	1169.25	1119.00	1095.75	1087.75	1083.00	1073.50	1073.25	1063.00	1060.75	1060.25	1063.00	1064.25	1066.50	1062.50	1065.75	1065.50	1068.00	1068.25	1079.75	1075.50	1083.00	1096.00	1093.50	1063.75	1059.75	1057.00	1063.75	1062.25	1059.75	1058.50	1055.50	1055.00	1052.75	1051.75	1048.00	1055.75	1056.50	1053.75	1069.25	1079.50	1069.00	1088.00	1081.75	1082.75	1074.25	1068.25	1059.50	1055.50	1055.75	1064.75	1061.50	1056.50	1068.25	1070.00	1066.25	1058.75	1074.25	1073.25	1068.75	1071.25	1059.75	1053.75	1050.25	1045.50	1046.75	1052.25	1052.50	1063.00	1057.00	1062.50	1060.25	1064.25	1068.75	1072.75	1078.50	1075.00	1071.50	1072.75	1069.00	1077.25	1088.75	1089.25	1092.00	1095.50	1097.00	1100.50	1083.75	1087.50	1076.00	1088.50	1088.25	1096.00	1091.75	1080.75	1080.00	1074.25	1065.75	1054.75	1052.25	1062.25	1069.75	1052.75	1039.00	1037.75	1040.00	1039.50	1042.25	1046.00	1045.25	1041.00	1041.00	1037.25	1034.75	1034.00	1034.00	1034.00	1034.00	1034.75	1036.25	1035.25	1035.75	1038.00	1044.75	1055.50	1056.75	1043.75	1034.50	1034.50	1085.50	1062.50	1061.00	1068.50	1056.25	1050.50	1057.75	1054.75	1049.00	1063.75	1051.50	1046.00	1054.25	1048.50	1040.00	1035.75	1034.00	1034.25	1035.00	1034.00	1034.00	1034.00	1034.00	1034.00	1034.00	1034.00	1034.00	1034.00	1034.00	1034.00	1034.00	1034.00	1034.00	1034.00	1034.00	1034.00	1034.00	1034.00	1034.00	1034.00	1034.00	1034.00	1034.25	1036.50	1037.00	1036.50	1035.75	1035.25	1036.75	1037.25	1035.75	1035.75	1036.75	1037.25	1038.00	1042.25	1044.25	1048.50	1046.75	1036.50	1034.25	1041.75	1038.25	1039.00	1037.00	1035.00	1037.50	1038.25	1038.00	1038.25	1038.00	1037.75	1039.00	1042.50	1037.00	1038.75	1044.25	1054.25	1046.25	1037.50	1040.50
1111.00	1088.00	1058.00	1077.50	1079.50	1073.00	1063.50	1076.75	1089.50	1097.50	1099.25	1087.25	1091.00	1103.75	1102.75	1115.50	1124.00	1110.50	1066.00	1056.00	1048.50	1062.75	1063.50	1081.75	1079.25	1069.00	1069.50	1068.50	1106.75	1114.50	1110.50	1116.50	1111.75	1131.00	1153.00	1154.75	1158.75	1204.00	1258.25	1198.75	1153.75	1141.00	1117.00	1146.75	1226.50	1154.25	1117.75	1105.00	1096.50	1087.25	1077.25	1071.75	1059.25	1057.50	1063.50	1065.50	1062.00	1064.25	1061.25	1057.75	1061.75	1060.50	1063.50	1061.75	1060.00	1060.50	1069.50	1068.50	1070.00	1065.00	1058.50	1058.50	1053.25	1059.25	1058.75	1060.00	1055.75	1050.00	1052.25	1049.75	1049.00	1066.25	1068.00	1071.00	1069.00	1069.75	1079.25	1083.50	1074.50	1075.25	1078.75	1073.25	1064.25	1056.75	1057.75	1063.25	1063.75	1069.00	1068.50	1064.75	1070.50	1074.25	1081.00	1075.25	1072.25	1064.25	1061.25	1055.75	1066.00	1054.75	1050.50	1045.25	1045.25	1051.75	1055.50	1050.50	1057.75	1069.25	1071.00	1072.25	1076.25	1075.75	1063.50	1061.75	1070.25	1079.00	1091.25	1094.00	1081.75	1087.50	1094.75	1094.00	1098.25	1098.50	1094.25	1087.50	1090.75	1106.00	1102.25	1079.00	1068.00	1062.00	1056.75	1054.00	1049.50	1048.50	1047.00	1045.00	1042.25	1038.00	1039.50	1048.25	1048.50	1046.50	1047.00	1054.75	1053.75	1050.00	1043.00	1041.75	1038.75	1036.75	1037.50	1038.25	1034.00	1035.50	1037.00	1037.25	1044.25	1046.50	1060.50	1056.25	1040.75	1035.75	1034.00	1034.25	1038.50	1054.25	1053.75	1041.25	1039.00	1042.25	1043.00	1050.50	1059.25	1057.75	1064.75	1068.50	1060.00	1047.50	1044.50	1035.25	1043.25	1038.75	1037.50	1034.00	1034.00	1034.00	1034.00	1034.00	1034.00	1034.00	1034.00	1034.00	1034.00	1034.00	1034.00	1034.00	1034.00	1034.00	1034.00	1034.00	1034.00	1034.00	1034.00	1034.00	1034.00	1034.75	1034.25	1037.25	1037.00	1035.00	1035.00	1036.50	1037.50	1037.50	1037.75	1035.50	1037.50	1041.00	1042.75	1039.75	1037.25	1041.25	1036.00	1034.00	1034.00	1034.00	1034.00	1034.25	1035.25	1037.00	1036.50	1038.00	1037.50	1036.75	1037.75	1039.75	1039.25	1037.00	1035.25	1035.00	1036.50	1035.25	1035.00	1039.50
1092.50	1073.00	1073.50	1092.50	1088.75	1090.50	1083.50	1079.25	1099.25	1096.50	1108.00	1111.00	1103.50	1101.50	1096.75	1102.50	1093.75	1090.75	1076.00	1060.00	1053.50	1073.75	1071.50	1086.50	1089.00	1095.00	1093.75	1074.75	1113.75	1122.00	1132.50	1128.25	1126.25	1146.50	1170.50	1154.00	1164.25	1173.00	1203.25	1155.50	1129.75	1117.25	1106.75	1155.50	1215.50	1140.25	1170.75	1126.75	1095.00	1088.75	1076.00	1066.00	1061.75	1075.75	1079.50	1079.50	1077.25	1064.00	1068.25	1069.75	1062.25	1058.00	1058.00	1057.25	1056.50	1055.75	1053.50	1053.75	1053.50	1053.75	1056.00	1054.75	1055.00	1057.75	1057.00	1054.75	1052.25	1051.75	1054.25	1055.50	1055.00	1054.25	1057.50	1068.00	1077.00	1071.75	1076.50	1076.75	1066.50	1072.25	1080.75	1070.75	1064.00	1065.75	1065.75	1067.25	1066.25	1076.25	1073.25	1064.75	1076.50	1076.00	1086.25	1076.25	1075.75	1075.00	1062.75	1061.00	1064.00	1059.75	1060.25	1048.50	1046.25	1045.00	1046.00	1050.25	1060.50	1070.75	1069.50	1066.50	1076.00	1076.75	1066.00	1062.50	1067.00	1078.50	1082.75	1086.75	1076.50	1077.75	1087.25	1096.75	1114.25	1100.50	1101.00	1108.25	1104.00	1094.75	1080.50	1074.50	1080.50	1079.75	1066.00	1051.75	1047.00	1045.25	1045.00	1044.75	1041.25	1039.00	1042.50	1056.50	1073.50	1055.75	1049.75	1060.00	1062.75	1057.00	1062.00	1053.25	1042.25	1038.75	1040.00	1041.75	1035.25	1034.00	1035.75	1039.50	1048.00	1056.75	1062.50	1061.00	1047.00	1038.75	1034.25	1034.00	1034.25	1037.00	1039.75	1034.75	1038.25	1043.25	1048.25	1049.25	1068.25	1071.00	1085.25	1073.75	1058.75	1050.00	1040.50	1040.50	1053.00	1049.50	1045.50	1038.50	1036.50	1034.00	1034.00	1034.00	1034.00	1034.00	1034.00	1034.00	1034.00	1034.00	1034.00	1034.00	1034.00	1034.00	1034.00	1034.00	1034.00	1034.00	1034.00	1034.00	1034.00	1036.00	1035.50	1038.00	1037.50	1035.00	1035.00	1035.00	1036.00	1036.75	1037.25	1037.25	1041.75	1041.00	1038.75	1037.25	1037.25	1042.50	1038.00	1036.00	1034.50	1034.00	1034.00	1035.00	1036.00	1036.50	1037.25	1038.00	1036.75	1036.25	1037.00	1039.50	1038.00	1036.75	1035.25	1035.00	1035.00	1035.00	1035.75	1038.75
1094.00	1078.50	1083.00	1111.25	1110.50	1095.50	1090.50	1078.25	1081.25	1100.50	1115.25	1119.25	1102.75	1107.00	1106.00	1099.00	1082.25	1074.00	1070.25	1062.50	1058.00	1071.75	1093.00	1085.50	1094.00	1108.75	1111.00	1094.00	1085.00	1093.50	1114.50	1123.50	1147.25	1153.75	1166.25	1155.25	1139.00	1145.50	1151.50	1122.25	1118.00	1104.00	1096.25	1130.75	1146.25	1115.00	1122.50	1110.75	1088.50	1084.75	1067.25	1060.75	1082.25	1095.25	1096.00	1097.00	1087.00	1068.75	1077.50	1090.50	1084.25	1068.75	1064.75	1062.00	1061.50	1061.50	1059.25	1056.50	1054.50	1051.50	1051.00	1050.75	1052.50	1053.00	1050.50	1049.75	1053.50	1055.25	1054.75	1053.75	1053.50	1050.25	1051.25	1053.00	1062.75	1062.25	1071.75	1068.25	1065.25	1071.25	1068.75	1078.25	1076.25	1073.75	1077.75	1068.50	1072.00	1081.50	1083.25	1066.75	1072.25	1078.25	1088.75	1087.25	1076.75	1065.75	1069.75	1068.50	1062.25	1064.50	1068.00	1058.75	1049.00	1046.00	1045.50	1046.00	1051.00	1058.00	1056.00	1070.75	1065.00	1072.00	1063.00	1062.75	1071.75	1083.00	1070.50	1082.00	1079.25	1080.50	1090.25	1110.50	1122.75	1113.00	1119.25	1127.00	1107.50	1089.25	1087.75	1092.50	1133.25	1123.50	1063.00	1051.00	1046.50	1051.25	1054.25	1052.00	1040.75	1043.25	1048.50	1056.25	1065.25	1055.75	1048.75	1059.75	1075.50	1074.50	1070.50	1055.00	1047.25	1046.00	1043.50	1045.50	1035.75	1034.00	1035.75	1039.50	1045.50	1056.25	1064.00	1055.50	1050.50	1040.00	1034.50	1034.00	1035.50	1035.50	1034.75	1039.25	1048.75	1051.00	1055.75	1061.75	1070.75	1066.00	1088.00	1070.25	1053.75	1044.50	1039.00	1041.25	1050.00	1062.50	1051.50	1047.50	1038.75	1034.00	1034.00	1034.00	1034.00	1034.00	1034.00	1034.00	1034.00	1034.00	1034.00	1034.00	1034.00	1034.00	1034.00	1034.00	1034.00	1034.00	1034.00	1034.00	1034.00	1035.75	1037.00	1038.00	1037.50	1035.50	1036.25	1035.00	1036.25	1037.25	1037.00	1037.25	1038.00	1036.75	1036.50	1036.50	1037.50	1041.00	1035.25	1036.00	1036.50	1035.50	1035.25	1036.25	1036.50	1036.00	1037.25	1036.75	1036.00	1034.50	1036.25	1039.50	1037.25	1035.50	1035.00	1035.00	1035.00	1036.25	1037.00	1038.25
1095.75	1086.00	1107.00	1131.75	1124.00	1115.75	1100.75	1094.25	1093.00	1095.25	1105.00	1116.25	1118.25	1103.00	1132.50	1120.75	1089.25	1080.75	1072.00	1081.50	1058.75	1063.00	1084.50	1088.00	1099.50	1103.00	1119.75	1101.50	1101.75	1091.25	1096.50	1132.50	1130.75	1133.50	1156.00	1160.75	1139.75	1189.25	1164.25	1123.25	1123.25	1107.50	1096.75	1105.00	1113.50	1103.75	1090.75	1094.00	1077.00	1072.25	1066.00	1067.25	1079.25	1089.50	1100.50	1097.50	1087.00	1071.25	1071.25	1088.50	1093.00	1076.75	1067.50	1066.75	1066.50	1063.75	1064.00	1062.75	1063.00	1063.50	1053.75	1056.25	1058.25	1055.00	1051.50	1055.50	1058.75	1062.25	1060.25	1055.75	1055.50	1053.25	1054.25	1057.25	1053.00	1057.00	1060.75	1061.25	1064.00	1069.75	1061.25	1071.75	1076.25	1072.00	1073.00	1068.50	1073.25	1073.00	1080.00	1079.50	1077.00	1077.50	1085.75	1090.75	1073.00	1067.50	1079.25	1078.25	1070.00	1069.00	1075.25	1066.00	1057.50	1050.75	1046.00	1046.00	1046.50	1051.50	1063.00	1070.75	1059.50	1069.75	1059.25	1061.75	1075.25	1071.25	1066.00	1067.25	1072.50	1086.25	1106.25	1117.25	1140.25	1145.00	1135.50	1116.50	1118.00	1102.25	1121.00	1105.25	1104.00	1095.50	1062.50	1050.50	1053.00	1059.50	1052.50	1046.50	1040.50	1042.75	1050.00	1056.75	1068.50	1060.75	1055.00	1062.25	1074.75	1070.75	1057.75	1053.50	1059.25	1051.50	1052.00	1048.00	1037.00	1034.00	1034.50	1039.00	1045.50	1052.25	1064.25	1063.75	1053.25	1037.75	1034.50	1036.50	1036.75	1036.75	1038.75	1045.00	1052.75	1055.50	1060.75	1053.25	1054.00	1059.75	1073.25	1069.75	1059.00	1051.50	1040.50	1045.25	1050.50	1063.00	1057.00	1047.75	1034.75	1034.00	1034.00	1034.00	1034.00	1034.00	1034.00	1034.00	1034.00	1034.00	1034.00	1034.00	1034.00	1034.00	1034.00	1034.00	1034.00	1034.00	1034.00	1034.00	1034.00	1034.00	1036.50	1037.75	1037.50	1037.50	1037.50	1037.25	1037.00	1037.25	1036.75	1037.25	1037.50	1037.25	1037.00	1037.75	1037.25	1035.75	1035.25	1034.00	1035.00	1035.75	1035.50	1034.00	1034.50	1036.50	1037.50	1034.50	1034.00	1034.00	1035.25	1038.25	1037.50	1037.25	1037.50	1036.50	1042.25	1051.50	1041.75	1037.75
1094.50	1091.50	1130.00	1137.00	1129.50	1109.75	1098.00	1099.50	1103.75	1093.00	1109.00	1128.00	1124.25	1105.00	1118.50	1101.25	1086.50	1081.00	1082.00	1070.75	1061.50	1069.25	1074.75	1097.00	1098.50	1107.00	1111.75	1127.25	1116.75	1101.50	1104.25	1127.75	1122.25	1128.00	1140.00	1154.25	1126.00	1138.25	1130.50	1116.75	1134.00	1105.25	1091.00	1088.25	1091.50	1092.00	1083.00	1070.25	1062.75	1066.75	1077.75	1075.00	1076.75	1092.25	1094.00	1105.75	1093.25	1073.75	1076.00	1093.75	1094.50	1073.25	1070.50	1070.50	1068.75	1067.50	1069.50	1067.25	1072.50	1082.75	1060.50	1056.50	1065.25	1077.75	1065.50	1065.75	1069.75	1075.75	1063.50	1063.00	1057.25	1054.25	1051.50	1058.00	1060.25	1054.25	1053.00	1056.25	1058.00	1068.75	1061.50	1071.00	1063.50	1060.50	1067.50	1072.00	1076.25	1081.00	1087.50	1086.50	1086.00	1083.00	1093.50	1085.00	1071.00	1072.25	1088.00	1091.75	1080.25	1078.00	1079.50	1074.00	1056.25	1051.50	1050.00	1046.00	1046.00	1050.75	1062.25	1064.25	1057.75	1067.50	1057.00	1062.00	1066.75	1058.25	1066.25	1066.75	1079.25	1092.00	1107.25	1095.75	1108.25	1115.50	1102.75	1125.75	1099.50	1083.50	1097.25	1084.25	1079.50	1068.75	1053.25	1051.00	1062.75	1057.75	1056.00	1049.00	1042.00	1044.75	1052.00	1058.75	1076.00	1072.75	1061.00	1071.00	1076.00	1063.25	1058.50	1059.75	1063.75	1061.75	1046.25	1041.00	1036.75	1036.00	1034.50	1037.75	1043.00	1049.50	1057.50	1046.00	1038.00	1040.75	1038.00	1037.00	1036.50	1036.75	1037.00	1036.50	1038.75	1046.00	1058.25	1047.75	1050.50	1064.50	1059.25	1055.00	1058.75	1045.00	1043.25	1045.25	1045.00	1060.75	1066.75	1057.75	1040.00	1036.50	1034.00	1034.00	1034.00	1034.25	1034.50	1034.25	1035.00	1034.00	1034.00	1034.00	1034.00	1034.00	1034.00	1034.00	1034.00	1034.00	1034.75	1035.75	1034.50	1034.00	1037.75	1037.75	1037.75	1037.50	1037.50	1037.75	1037.75	1037.50	1037.25	1037.25	1037.50	1037.00	1037.25	1036.75	1035.25	1035.00	1036.00	1034.75	1034.25	1035.50	1034.25	1034.00	1034.25	1036.25	1037.25	1034.00	1034.00	1034.00	1034.50	1035.50	1037.50	1050.00	1049.25	1042.00	1059.25	1075.00	1056.25	1049.75
1103.25	1123.75	1155.50	1141.75	1138.25	1132.25	1116.00	1103.50	1106.25	1104.25	1113.25	1118.50	1114.25	1112.50	1118.75	1097.75	1099.50	1095.00	1080.50	1076.75	1078.25	1080.25	1070.25	1088.75	1107.00	1133.25	1127.75	1131.25	1149.25	1134.50	1141.50	1135.50	1117.50	1162.25	1158.00	1157.75	1124.25	1114.00	1119.00	1111.75	1104.25	1085.50	1084.50	1080.75	1080.50	1077.25	1075.25	1065.75	1069.75	1074.25	1077.75	1077.25	1078.50	1077.50	1088.25	1100.50	1089.00	1082.25	1076.75	1090.25	1098.00	1085.00	1081.25	1072.25	1070.75	1068.75	1069.50	1075.25	1078.00	1087.50	1072.25	1057.25	1074.00	1080.50	1076.75	1083.75	1083.50	1068.75	1070.50	1067.00	1068.50	1054.25	1053.50	1055.25	1060.50	1058.75	1056.50	1055.50	1054.50	1057.25	1057.00	1057.50	1063.50	1070.50	1075.00	1075.00	1074.50	1084.00	1088.75	1078.50	1079.50	1075.50	1079.00	1085.50	1078.75	1080.75	1086.25	1092.75	1092.00	1087.50	1066.75	1067.00	1062.25	1058.00	1057.00	1055.00	1048.50	1047.00	1052.75	1053.75	1055.75	1056.00	1054.25	1059.25	1060.00	1063.25	1077.75	1070.25	1067.00	1076.00	1073.50	1077.50	1081.00	1085.25	1092.00	1107.50	1092.25	1077.25	1077.75	1068.50	1063.50	1058.50	1055.50	1062.00	1074.25	1070.00	1060.25	1051.25	1042.25	1050.25	1058.75	1066.00	1068.75	1071.75	1067.75	1080.25	1080.50	1072.50	1062.75	1066.50	1070.75	1068.25	1050.25	1045.75	1037.75	1037.00	1037.00	1037.25	1046.75	1054.50	1053.50	1048.75	1052.50	1044.75	1038.75	1036.00	1037.50	1037.25	1035.75	1035.75	1039.00	1047.00	1048.25	1045.00	1050.25	1052.25	1048.75	1047.75	1056.25	1055.25	1058.50	1053.00	1058.00	1056.75	1063.75	1059.25	1042.50	1039.00	1034.00	1034.25	1034.00	1036.75	1041.50	1037.50	1036.75	1034.75	1037.00	1035.75	1034.00	1034.00	1034.00	1034.00	1034.25	1035.00	1039.00	1047.00	1042.00	1035.75	1036.75	1036.75	1039.75	1039.50	1037.75	1037.50	1037.75	1038.50	1037.25	1037.25	1037.00	1037.50	1037.25	1034.25	1035.00	1036.25	1036.25	1036.25	1035.00	1036.00	1034.50	1034.00	1035.50	1036.25	1035.50	1034.00	1035.25	1035.50	1036.25	1041.00	1044.75	1052.50	1062.00	1057.50	1057.25	1074.50	1098.75	1080.50
1126.75	1192.00	1150.25	1161.00	1161.00	1138.25	1117.75	1118.75	1121.75	1129.50	1127.25	1125.00	1156.50	1124.50	1118.25	1099.75	1110.50	1101.75	1089.50	1086.00	1081.00	1090.00	1087.75	1098.25	1112.00	1128.50	1145.50	1139.00	1158.00	1155.75	1137.00	1152.75	1119.50	1126.75	1167.50	1129.75	1121.25	1099.25	1103.25	1096.00	1083.25	1078.50	1079.25	1075.50	1072.00	1070.50	1067.00	1065.75	1074.75	1093.25	1112.00	1092.50	1092.50	1083.00	1095.75	1101.50	1093.25	1089.25	1081.25	1073.50	1092.00	1099.25	1086.50	1079.50	1085.00	1074.50	1081.50	1082.50	1085.75	1081.75	1062.50	1071.50	1078.00	1087.25	1079.25	1091.25	1079.75	1071.00	1076.00	1076.00	1070.75	1055.50	1054.00	1054.25	1060.00	1062.75	1067.00	1062.75	1059.50	1060.00	1056.50	1052.25	1058.25	1068.75	1067.75	1061.00	1066.50	1082.75	1087.75	1068.50	1072.00	1069.75	1076.25	1089.50	1086.00	1087.00	1091.50	1101.75	1087.75	1078.25	1068.00	1070.50	1068.25	1068.50	1061.25	1061.50	1061.25	1046.50	1046.50	1046.50	1047.00	1050.00	1054.50	1061.25	1067.50	1067.00	1071.75	1058.75	1060.75	1063.00	1075.50	1085.75	1082.75	1103.25	1090.00	1112.50	1109.75	1099.75	1087.00	1066.00	1068.25	1065.75	1065.75	1069.50	1075.25	1065.50	1056.00	1046.75	1042.75	1055.50	1060.50	1076.25	1068.75	1060.25	1068.50	1077.25	1086.75	1072.00	1067.25	1069.75	1061.25	1058.00	1045.50	1041.00	1037.50	1037.50	1037.25	1037.75	1042.00	1044.00	1057.75	1060.00	1057.00	1041.25	1041.50	1043.75	1041.25	1038.00	1036.25	1034.00	1034.00	1034.50	1042.50	1039.50	1040.25	1041.00	1039.25	1041.50	1046.75	1051.50	1061.50	1066.50	1064.50	1052.00	1048.25	1056.50	1039.75	1034.00	1034.50	1040.75	1035.25	1043.75	1063.25	1055.75	1046.50	1043.00	1046.50	1043.75	1034.00	1034.00	1034.00	1034.00	1035.25	1039.25	1048.25	1046.50	1038.00	1036.25	1035.50	1034.00	1037.50	1042.75	1042.50	1038.00	1037.75	1038.00	1037.00	1036.50	1037.25	1037.50	1037.75	1036.00	1035.50	1036.50	1036.50	1036.75	1035.00	1034.25	1036.50	1035.75	1038.75	1039.75	1036.50	1036.25	1037.25	1035.00	1035.00	1036.50	1053.00	1070.75	1082.50	1083.50	1071.75	1064.25	1094.25	1112.25
1166.50	1169.00	1166.00	1168.50	1164.50	1148.50	1127.50	1129.00	1120.50	1143.50	1128.00	1127.00	1181.50	1186.50	1120.00	1112.75	1113.75	1108.00	1095.50	1086.25	1097.00	1099.25	1101.75	1106.25	1122.00	1124.25	1140.00	1164.50	1181.75	1185.75	1134.25	1138.50	1168.00	1115.75	1111.75	1109.00	1116.50	1107.25	1098.50	1084.50	1078.25	1075.00	1072.25	1072.25	1068.50	1066.75	1065.75	1076.00	1082.50	1096.50	1139.00	1170.25	1105.25	1094.50	1094.25	1110.50	1099.50	1096.25	1086.00	1078.00	1082.00	1093.75	1084.75	1089.50	1092.25	1075.75	1090.75	1088.50	1085.50	1074.75	1064.50	1081.50	1079.75	1083.25	1088.50	1092.75	1080.00	1079.00	1072.75	1082.00	1071.00	1059.25	1054.50	1053.25	1054.75	1061.75	1072.75	1072.25	1068.25	1071.00	1060.00	1056.50	1054.50	1056.75	1057.75	1069.75	1074.00	1071.50	1070.75	1062.50	1062.50	1078.50	1083.25	1088.25	1093.75	1095.75	1107.75	1101.00	1088.25	1078.75	1076.25	1086.00	1079.75	1069.00	1060.00	1070.50	1071.00	1050.75	1054.00	1046.50	1046.00	1047.25	1054.75	1067.75	1067.75	1055.50	1055.50	1059.25	1074.00	1076.75	1073.25	1084.25	1093.00	1105.25	1103.50	1121.00	1117.00	1110.75	1082.25	1082.25	1079.75	1068.00	1073.00	1074.75	1070.75	1064.75	1056.00	1048.00	1043.50	1045.75	1055.25	1059.00	1052.75	1058.75	1066.50	1074.50	1082.00	1086.50	1080.50	1076.75	1068.75	1055.25	1053.00	1050.50	1041.25	1038.25	1037.50	1038.00	1037.75	1039.75	1059.75	1060.25	1057.00	1050.25	1057.50	1052.50	1045.50	1040.25	1039.75	1035.75	1034.00	1034.00	1034.75	1034.75	1034.25	1039.25	1043.00	1052.00	1053.50	1058.25	1067.75	1075.00	1056.50	1051.00	1044.50	1042.75	1036.75	1034.75	1037.75	1046.00	1038.75	1043.50	1067.00	1062.00	1059.50	1056.00	1053.50	1040.75	1034.00	1034.00	1034.00	1035.50	1038.25	1042.00	1050.25	1045.75	1038.25	1049.75	1038.50	1034.00	1044.00	1046.75	1045.75	1038.25	1038.25	1038.75	1036.50	1035.00	1035.75	1037.75	1036.75	1037.00	1037.25	1037.25	1037.75	1038.50	1037.25	1035.50	1037.75	1044.75	1042.50	1037.50	1036.75	1039.00	1046.25	1039.50	1035.00	1038.75	1060.75	1079.75	1082.50	1093.25	1094.50	1077.00	1080.00	1092.00
1178.50	1176.00	1174.50	1163.50	1158.75	1152.50	1150.25	1141.00	1126.75	1149.50	1133.75	1125.75	1154.50	1231.50	1133.50	1131.75	1115.75	1123.00	1105.00	1086.25	1105.50	1102.75	1114.50	1102.50	1129.50	1113.75	1120.25	1201.50	1133.00	1130.50	1119.50	1122.75	1136.25	1108.25	1113.00	1096.50	1132.75	1116.00	1108.00	1100.25	1073.00	1068.25	1076.00	1078.50	1076.00	1067.75	1077.25	1092.75	1096.25	1087.50	1101.00	1138.00	1140.50	1115.25	1092.25	1096.50	1107.25	1085.00	1093.00	1083.50	1076.50	1092.50	1095.50	1092.75	1086.75	1078.75	1096.75	1086.75	1070.50	1069.00	1071.25	1070.00	1087.00	1083.75	1094.75	1098.50	1086.25	1087.50	1076.25	1092.25	1079.25	1066.00	1056.00	1054.25	1054.25	1058.25	1074.00	1074.75	1079.25	1081.50	1065.25	1062.75	1062.50	1059.00	1054.50	1061.00	1066.50	1062.75	1060.00	1066.25	1075.00	1071.00	1077.25	1076.25	1087.25	1105.75	1110.00	1092.00	1076.00	1080.00	1074.50	1091.75	1085.75	1072.00	1062.00	1068.50	1070.75	1050.75	1060.50	1057.50	1051.00	1047.00	1047.50	1053.25	1054.00	1050.00	1061.00	1067.75	1080.25	1069.25	1080.25	1089.75	1099.75	1108.00	1101.75	1105.25	1103.50	1089.75	1079.00	1089.50	1081.00	1072.50	1071.75	1076.75	1066.25	1056.75	1056.75	1051.50	1043.75	1043.50	1046.75	1049.75	1051.75	1061.50	1065.00	1069.00	1070.00	1076.25	1089.75	1086.75	1077.00	1056.25	1068.50	1053.00	1045.00	1047.00	1039.00	1038.25	1037.75	1037.00	1051.50	1049.75	1062.00	1066.00	1062.00	1054.25	1049.75	1047.00	1038.75	1036.50	1036.25	1035.00	1034.00	1034.75	1042.00	1045.00	1049.50	1053.50	1057.00	1060.00	1067.00	1070.50	1065.00	1055.25	1053.75	1047.25	1037.00	1037.00	1038.00	1044.25	1046.25	1039.50	1042.75	1049.75	1064.75	1056.75	1050.00	1039.00	1034.00	1034.00	1034.00	1038.00	1047.25	1051.50	1055.50	1050.50	1044.25	1052.50	1036.00	1034.00	1037.00	1039.25	1043.25	1039.75	1040.75	1038.75	1035.75	1035.00	1036.50	1037.50	1037.00	1037.00	1037.25	1038.75	1039.00	1040.50	1039.75	1040.75	1043.25	1053.00	1042.25	1037.75	1044.75	1048.50	1053.75	1041.25	1038.75	1040.50	1052.25	1059.50	1078.25	1093.75	1105.00	1097.00	1089.00	1084.25
1175.75	1167.25	1177.25	1166.75	1168.25	1154.50	1156.25	1149.75	1137.00	1135.25	1147.75	1144.75	1148.00	1182.00	1214.00	1256.25	1167.25	1168.25	1107.25	1101.75	1100.75	1113.25	1115.25	1113.25	1110.00	1116.50	1115.00	1121.75	1118.50	1108.25	1114.25	1117.25	1106.50	1100.75	1094.00	1104.25	1152.00	1123.25	1102.50	1094.25	1074.00	1080.25	1093.75	1098.50	1101.00	1076.25	1084.50	1079.00	1093.50	1099.25	1098.25	1110.50	1163.75	1140.00	1110.75	1096.50	1105.00	1097.25	1094.50	1083.25	1074.75	1087.50	1099.50	1089.00	1082.75	1095.00	1098.00	1076.50	1076.25	1073.75	1081.75	1072.50	1077.25	1087.75	1093.25	1090.50	1091.75	1084.75	1090.50	1093.00	1086.00	1064.00	1062.00	1058.50	1055.50	1055.25	1062.75	1070.25	1078.50	1082.75	1069.00	1066.50	1078.25	1069.25	1059.00	1054.50	1061.00	1061.50	1068.50	1071.75	1081.50	1075.00	1078.00	1082.50	1088.25	1091.00	1088.75	1083.25	1090.75	1095.25	1079.00	1088.25	1078.00	1067.25	1068.75	1072.25	1067.00	1052.50	1067.50	1091.00	1073.25	1054.25	1049.50	1047.75	1047.75	1048.75	1059.25	1058.75	1064.25	1063.75	1080.25	1086.50	1086.25	1094.00	1101.75	1093.75	1088.75	1093.50	1089.75	1095.50	1085.25	1083.75	1082.75	1067.75	1065.00	1059.75	1051.00	1045.25	1050.00	1044.00	1046.75	1056.75	1059.50	1070.00	1078.75	1089.50	1087.50	1087.25	1092.50	1079.75	1072.25	1065.75	1070.50	1064.00	1056.25	1049.00	1039.50	1037.25	1037.00	1037.00	1043.50	1048.00	1052.75	1072.25	1071.25	1066.50	1059.75	1046.50	1047.75	1042.50	1036.25	1036.75	1035.50	1034.50	1045.50	1048.50	1053.50	1053.75	1049.25	1055.25	1051.00	1057.50	1055.50	1060.75	1056.25	1046.25	1041.00	1043.25	1041.75	1047.75	1064.00	1050.50	1048.25	1050.00	1058.75	1048.25	1041.50	1034.75	1034.00	1034.00	1034.00	1034.75	1040.00	1043.50	1056.75	1056.75	1052.25	1046.00	1038.00	1042.50	1034.00	1036.25	1044.50	1051.00	1045.25	1039.75	1035.75	1035.50	1036.75	1035.25	1037.00	1037.00	1037.00	1038.75	1039.00	1039.00	1039.25	1039.50	1045.25	1040.25	1043.00	1049.50	1054.25	1069.00	1054.50	1045.25	1051.25	1045.75	1053.25	1070.00	1070.25	1080.00	1091.50	1094.75	1107.25	1107.75
1184.25	1162.75	1164.50	1164.00	1162.25	1160.75	1162.25	1156.75	1152.75	1142.50	1155.00	1152.75	1160.75	1185.75	1188.00	1266.00	1195.25	1143.50	1115.25	1122.00	1115.25	1109.50	1122.50	1116.50	1104.25	1105.75	1101.75	1118.50	1105.25	1104.75	1121.00	1131.50	1115.00	1099.25	1079.25	1082.00	1090.75	1083.75	1075.00	1071.50	1080.25	1093.50	1098.00	1107.50	1102.25	1087.75	1101.00	1094.25	1084.00	1086.75	1094.75	1097.75	1111.50	1112.00	1110.50	1099.50	1107.25	1100.50	1093.75	1084.50	1077.25	1092.75	1097.25	1085.25	1086.25	1092.75	1092.25	1076.75	1084.00	1093.75	1092.25	1085.00	1073.00	1082.00	1079.50	1091.75	1100.75	1093.75	1096.75	1083.75	1075.00	1081.00	1073.75	1065.50	1059.75	1055.25	1057.25	1070.50	1069.00	1083.50	1071.75	1077.50	1076.25	1072.75	1072.25	1063.00	1055.00	1059.25	1072.50	1072.00	1086.00	1082.25	1088.25	1095.50	1078.50	1077.75	1092.75	1096.25	1108.25	1111.75	1096.25	1099.50	1079.75	1070.25	1073.50	1081.75	1072.50	1059.50	1071.25	1097.00	1100.50	1066.50	1065.00	1055.00	1053.25	1049.25	1048.00	1048.50	1055.50	1063.00	1076.25	1073.75	1078.25	1084.50	1096.00	1079.25	1079.25	1090.75	1098.25	1093.25	1086.00	1079.50	1076.25	1071.00	1051.25	1050.25	1051.25	1047.75	1053.00	1049.75	1046.75	1052.50	1067.00	1077.75	1073.25	1077.00	1081.50	1082.75	1090.50	1087.50	1075.75	1067.50	1063.25	1061.25	1052.25	1041.00	1043.25	1037.75	1037.75	1036.75	1043.50	1045.75	1055.25	1073.00	1071.50	1080.75	1065.25	1055.00	1061.50	1056.75	1036.25	1036.50	1037.00	1036.00	1037.00	1039.50	1044.75	1041.75	1043.00	1048.50	1041.00	1044.50	1047.50	1058.75	1057.25	1051.50	1047.75	1047.50	1045.50	1056.25	1063.75	1064.75	1053.00	1058.25	1064.50	1052.50	1044.75	1040.50	1037.25	1034.00	1034.00	1035.00	1038.00	1046.25	1052.00	1060.00	1069.50	1044.00	1048.75	1044.75	1037.25	1043.75	1050.75	1049.50	1042.50	1035.00	1035.25	1035.50	1036.50	1035.00	1035.25	1036.50	1037.00	1037.50	1037.25	1037.25	1036.75	1037.50	1039.25	1039.75	1042.75	1056.50	1056.50	1061.75	1058.00	1061.50	1065.75	1058.50	1059.00	1082.75	1080.75	1079.25	1075.50	1085.75	1096.75	1103.25
1182.00	1158.50	1157.75	1158.50	1151.75	1159.75	1161.75	1155.50	1152.00	1140.50	1161.00	1150.00	1145.75	1140.00	1150.75	1158.25	1129.75	1131.50	1117.25	1125.75	1120.50	1110.75	1112.75	1116.50	1106.00	1087.25	1135.25	1116.75	1091.75	1118.00	1210.25	1176.25	1117.75	1086.75	1074.50	1085.75	1074.25	1074.00	1090.00	1080.50	1088.00	1082.25	1092.75	1103.25	1111.25	1092.25	1100.25	1107.75	1093.00	1099.00	1087.00	1101.75	1106.50	1102.25	1115.75	1110.50	1109.00	1097.00	1091.00	1083.50	1084.75	1091.50	1103.25	1089.50	1089.75	1094.00	1076.00	1082.25	1092.50	1103.50	1089.50	1084.25	1072.75	1081.25	1087.00	1091.50	1100.50	1096.00	1082.25	1081.25	1077.25	1094.25	1078.25	1069.25	1062.75	1058.75	1055.00	1062.75	1069.25	1074.50	1079.00	1090.25	1085.75	1083.75	1078.00	1071.75	1065.00	1056.25	1058.00	1065.25	1069.50	1085.25	1087.75	1072.75	1073.75	1088.75	1085.25	1093.25	1106.25	1096.50	1104.25	1093.75	1082.50	1079.75	1084.25	1075.25	1063.50	1079.25	1061.50	1093.25	1085.75	1078.75	1064.00	1061.75	1071.25	1059.75	1059.00	1048.50	1058.25	1070.75	1073.00	1063.25	1074.00	1069.50	1071.75	1069.75	1076.25	1084.50	1094.25	1081.25	1079.25	1069.50	1063.25	1058.75	1053.25	1060.75	1065.50	1058.75	1056.25	1062.50	1057.75	1046.75	1052.25	1059.50	1059.50	1063.75	1066.50	1069.50	1080.50	1089.50	1085.75	1083.00	1057.50	1054.00	1045.25	1046.75	1048.75	1038.00	1038.50	1037.75	1048.00	1054.00	1058.25	1057.25	1060.25	1070.00	1070.00	1065.25	1059.75	1051.50	1038.00	1036.00	1037.25	1036.50	1037.00	1036.25	1037.25	1035.25	1035.00	1036.25	1036.00	1041.75	1044.75	1047.75	1052.00	1056.75	1057.75	1058.75	1052.25	1058.25	1079.25	1067.50	1069.25	1065.50	1070.25	1058.25	1048.75	1041.25	1036.75	1034.50	1035.00	1035.00	1039.50	1041.00	1051.75	1064.75	1105.75	1051.50	1056.25	1046.50	1039.00	1048.75	1056.00	1052.75	1039.50	1035.25	1035.50	1035.00	1035.00	1035.00	1035.00	1035.50	1036.00	1037.00	1038.00	1037.25	1037.50	1038.25	1037.75	1039.75	1045.50	1054.50	1047.00	1050.25	1047.00	1056.50	1049.75	1063.25	1061.25	1066.00	1072.50	1086.75	1091.25	1087.00	1085.00	1091.25
1164.50	1144.75	1157.50	1146.75	1154.50	1153.50	1142.50	1141.75	1139.75	1140.75	1185.00	1165.25	1147.75	1157.50	1132.25	1131.50	1148.25	1130.00	1120.50	1125.25	1110.50	1121.75	1119.75	1123.25	1121.25	1079.25	1084.75	1078.25	1087.75	1119.75	1197.50	1189.00	1095.75	1075.75	1096.75	1135.75	1088.25	1089.25	1111.50	1100.75	1103.00	1094.50	1086.25	1105.00	1104.00	1103.75	1098.75	1104.75	1105.00	1103.75	1103.50	1094.75	1106.75	1119.25	1117.75	1116.75	1108.00	1109.00	1099.00	1085.50	1087.00	1100.00	1108.50	1097.00	1095.25	1092.25	1076.25	1089.50	1099.50	1104.25	1098.75	1086.00	1077.00	1078.50	1085.00	1087.75	1093.75	1086.75	1087.00	1093.25	1085.75	1094.50	1085.00	1079.50	1069.25	1062.25	1058.25	1054.00	1071.00	1077.75	1081.25	1091.50	1097.50	1084.00	1074.00	1087.00	1073.25	1061.75	1055.50	1074.75	1075.25	1074.75	1073.50	1070.75	1078.00	1095.00	1076.25	1088.75	1097.25	1084.50	1106.50	1090.25	1100.25	1094.00	1079.25	1067.00	1063.75	1072.00	1064.75	1095.00	1093.25	1082.00	1062.00	1066.50	1077.75	1062.50	1065.50	1052.50	1052.25	1069.00	1061.00	1062.00	1061.50	1062.00	1064.75	1071.25	1081.00	1089.50	1090.75	1080.75	1071.50	1074.25	1066.50	1057.25	1054.75	1064.50	1066.00	1074.25	1065.75	1073.25	1070.25	1051.75	1047.75	1052.25	1059.00	1064.50	1077.50	1075.75	1084.75	1083.50	1076.25	1084.50	1072.50	1061.75	1047.00	1055.25	1049.50	1038.75	1038.50	1038.00	1040.00	1043.75	1045.75	1050.75	1056.50	1063.75	1056.50	1054.25	1055.25	1050.50	1037.00	1036.25	1037.00	1037.00	1037.00	1035.50	1035.00	1034.00	1034.00	1034.00	1034.00	1039.25	1042.00	1049.25	1056.00	1063.25	1062.25	1061.75	1065.00	1055.75	1073.50	1070.00	1077.50	1080.75	1062.75	1055.00	1048.00	1039.50	1035.75	1043.00	1042.50	1035.75	1046.50	1048.00	1049.50	1055.00	1078.50	1111.25	1051.75	1043.75	1043.75	1046.25	1054.00	1053.75	1038.50	1038.00	1036.50	1038.25	1038.75	1035.50	1036.00	1035.50	1037.25	1037.00	1037.75	1038.00	1037.50	1038.00	1038.00	1038.25	1040.25	1039.00	1040.75	1046.75	1041.00	1046.25	1041.50	1056.50	1057.50	1069.00	1065.00	1078.50	1087.75	1097.75	1094.00	1105.50
1157.75	1144.25	1142.00	1146.00	1156.75	1138.75	1130.00	1137.00	1125.50	1136.50	1138.25	1152.50	1154.00	1157.00	1139.25	1135.75	1147.00	1133.75	1095.50	1102.75	1097.00	1104.50	1121.50	1125.50	1086.25	1081.75	1081.00	1081.50	1079.25	1098.50	1141.75	1105.25	1075.25	1080.00	1113.50	1120.00	1106.50	1105.50	1138.75	1194.00	1153.50	1100.25	1100.25	1094.50	1105.25	1109.00	1112.50	1115.75	1121.25	1111.75	1118.50	1101.75	1103.75	1111.00	1121.00	1113.50	1112.50	1102.50	1095.50	1087.25	1093.00	1091.75	1097.75	1109.25	1107.50	1095.00	1085.00	1083.50	1097.25	1103.00	1093.25	1087.75	1076.75	1082.25	1088.50	1091.50	1099.25	1099.75	1090.75	1107.25	1107.25	1087.50	1085.75	1083.75	1075.50	1062.75	1059.25	1057.50	1066.00	1071.50	1073.00	1087.75	1103.00	1104.75	1088.75	1077.25	1068.75	1069.50	1055.75	1063.00	1062.00	1062.75	1065.00	1065.00	1069.25	1072.50	1073.00	1088.00	1085.75	1085.75	1101.25	1098.50	1114.00	1094.50	1077.25	1073.25	1074.00	1067.50	1069.25	1084.50	1083.25	1076.50	1068.25	1071.00	1084.75	1074.25	1066.25	1061.00	1048.00	1055.25	1053.50	1055.00	1063.00	1065.50	1068.50	1072.25	1074.75	1088.75	1080.25	1074.75	1067.00	1064.75	1058.75	1063.25	1059.75	1065.00	1073.00	1079.00	1076.50	1073.50	1070.00	1063.25	1055.00	1050.75	1068.25	1079.25	1093.00	1088.00	1088.00	1079.75	1066.50	1076.50	1062.50	1052.50	1056.50	1058.50	1046.00	1038.50	1039.00	1038.75	1042.25	1042.25	1042.25	1049.25	1055.00	1066.75	1056.50	1051.25	1045.75	1043.25	1041.50	1038.25	1036.25	1036.25	1037.00	1036.75	1036.75	1035.00	1036.75	1043.00	1038.75	1037.00	1042.25	1046.25	1051.75	1055.50	1048.50	1056.00	1069.50	1069.00	1073.75	1077.50	1076.00	1079.00	1069.25	1055.50	1050.25	1046.00	1037.75	1048.50	1041.75	1036.00	1038.75	1041.50	1045.75	1050.25	1054.25	1089.75	1057.25	1042.75	1045.75	1052.25	1054.00	1044.25	1040.50	1042.25	1037.00	1046.00	1052.50	1037.00	1036.25	1035.75	1037.50	1037.75	1038.00	1038.00	1038.00	1037.75	1039.00	1038.00	1038.50	1038.75	1039.00	1036.00	1035.75	1035.75	1036.75	1042.50	1049.75	1064.00	1066.00	1071.25	1077.75	1089.50	1092.75	1099.00
1152.75	1139.00	1142.50	1151.75	1150.25	1132.75	1118.00	1136.50	1114.75	1122.25	1120.00	1133.00	1164.00	1133.50	1126.75	1114.00	1099.75	1091.00	1086.50	1086.00	1087.50	1090.25	1099.50	1091.00	1078.50	1085.25	1084.75	1088.00	1078.75	1076.50	1078.50	1078.50	1077.00	1079.00	1081.75	1090.25	1092.50	1100.50	1169.50	1207.50	1124.75	1113.50	1112.50	1111.00	1118.50	1118.75	1113.00	1115.25	1129.75	1129.50	1124.50	1104.75	1103.00	1107.00	1119.75	1115.25	1101.50	1093.50	1094.00	1090.75	1104.00	1092.75	1101.50	1097.75	1110.25	1095.00	1081.75	1088.25	1101.75	1102.25	1092.75	1084.50	1078.25	1079.25	1092.75	1098.75	1108.75	1107.75	1093.50	1147.50	1159.50	1083.50	1073.75	1075.00	1066.25	1062.00	1061.50	1060.25	1057.75	1071.25	1078.00	1085.00	1103.75	1103.00	1086.50	1088.25	1071.25	1077.25	1059.25	1062.00	1066.75	1070.00	1067.50	1073.00	1073.25	1076.75	1070.75	1074.00	1086.75	1092.25	1091.75	1103.25	1101.00	1083.75	1084.75	1073.50	1085.00	1066.50	1065.75	1073.50	1084.75	1087.00	1072.25	1071.75	1081.50	1084.25	1075.25	1068.75	1048.25	1052.50	1063.25	1066.75	1072.25	1078.25	1076.25	1078.25	1080.00	1085.50	1080.00	1076.00	1074.75	1068.00	1064.50	1070.25	1070.50	1071.75	1071.75	1082.00	1080.25	1089.50	1080.75	1073.00	1064.00	1048.50	1061.00	1080.00	1080.75	1090.00	1091.50	1076.25	1067.25	1060.75	1054.00	1059.25	1064.75	1065.75	1052.50	1041.00	1038.50	1038.00	1051.50	1051.50	1051.25	1049.50	1049.50	1070.50	1060.50	1056.50	1044.50	1042.25	1051.75	1043.00	1035.75	1037.25	1037.25	1037.50	1038.75	1038.75	1038.50	1047.00	1052.25	1037.50	1038.50	1038.00	1040.25	1042.25	1045.25	1054.75	1065.00	1069.25	1065.50	1072.00	1067.50	1078.75	1073.75	1063.75	1053.75	1051.00	1044.00	1055.00	1050.25	1040.75	1043.75	1039.00	1047.25	1058.00	1051.25	1063.50	1057.75	1045.00	1048.50	1052.75	1049.25	1040.25	1048.75	1053.00	1042.75	1047.75	1055.25	1041.25	1036.25	1035.75	1037.00	1038.00	1038.00	1038.00	1038.50	1038.75	1039.00	1038.75	1039.00	1038.75	1040.25	1035.25	1035.00	1039.00	1047.25	1041.25	1043.25	1051.75	1056.50	1063.25	1075.50	1091.25	1095.50	1080.50
1128.25	1118.00	1136.50	1136.00	1135.00	1118.50	1122.00	1122.25	1108.00	1116.75	1092.25	1113.25	1125.50	1130.00	1112.75	1118.25	1097.00	1089.50	1089.50	1088.00	1083.25	1083.00	1082.75	1083.00	1093.25	1102.00	1096.00	1098.50	1095.25	1083.50	1081.25	1081.75	1084.50	1091.75	1101.00	1089.00	1085.25	1093.00	1099.75	1097.75	1094.75	1100.50	1102.25	1102.75	1108.00	1105.50	1113.00	1117.00	1110.75	1120.00	1121.00	1116.75	1115.00	1105.00	1121.50	1112.50	1102.75	1100.25	1102.00	1092.50	1107.00	1095.00	1100.50	1113.00	1113.25	1100.75	1093.75	1086.00	1090.50	1102.50	1095.75	1093.75	1084.25	1081.25	1086.25	1088.75	1101.25	1107.75	1115.00	1124.25	1123.50	1080.25	1073.00	1067.00	1068.50	1068.00	1062.50	1060.00	1061.25	1068.50	1078.75	1089.25	1090.75	1095.00	1083.00	1078.75	1077.75	1070.00	1061.25	1062.25	1078.00	1083.50	1076.00	1085.50	1092.50	1093.50	1086.00	1082.25	1094.50	1087.75	1092.25	1091.75	1091.75	1095.75	1089.25	1085.25	1085.00	1073.75	1067.00	1080.25	1083.00	1092.25	1081.75	1078.75	1087.00	1083.00	1069.25	1060.50	1048.75	1051.50	1059.50	1062.50	1065.25	1073.00	1069.00	1074.25	1081.25	1094.75	1085.75	1078.50	1074.00	1067.25	1068.50	1076.50	1070.25	1080.00	1080.25	1085.25	1085.50	1083.25	1077.75	1071.25	1066.50	1051.50	1058.25	1070.25	1078.25	1078.00	1082.50	1085.00	1076.50	1067.50	1062.00	1068.50	1076.00	1067.00	1053.75	1045.50	1038.00	1038.50	1049.75	1060.50	1066.50	1064.75	1062.00	1074.00	1068.50	1057.00	1048.25	1056.00	1056.00	1048.50	1037.00	1037.75	1036.75	1045.25	1050.25	1044.25	1037.00	1043.25	1056.25	1044.25	1043.50	1041.75	1046.00	1043.25	1051.50	1055.50	1058.25	1058.75	1058.50	1064.25	1055.00	1063.25	1072.50	1065.50	1068.50	1056.75	1045.00	1058.25	1055.25	1040.00	1048.25	1051.00	1052.00	1055.25	1055.50	1067.25	1056.25	1049.75	1060.50	1064.50	1057.50	1044.50	1053.50	1059.75	1053.75	1054.25	1046.50	1038.00	1035.00	1035.50	1037.25	1038.00	1039.00	1042.75	1038.75	1038.50	1039.00	1040.00	1040.00	1040.25	1041.25	1042.00	1043.50	1043.50	1053.25	1060.00	1058.00	1051.75	1060.50	1071.25	1087.00	1090.00	1083.50	1071.75
1105.75	1113.75	1131.25	1127.25	1127.50	1108.75	1124.75	1117.00	1109.50	1101.25	1079.25	1091.25	1098.50	1124.50	1110.25	1122.50	1087.75	1094.75	1098.50	1104.75	1091.00	1083.00	1081.25	1085.00	1105.00	1115.25	1108.00	1090.25	1111.50	1091.00	1083.50	1087.00	1092.25	1101.00	1115.75	1101.25	1084.00	1079.75	1085.00	1087.25	1089.00	1092.75	1092.50	1091.25	1094.50	1100.00	1109.75	1111.50	1103.00	1112.75	1120.50	1122.50	1120.75	1108.50	1124.00	1117.00	1105.50	1103.75	1102.00	1095.50	1105.75	1102.25	1094.25	1119.50	1121.75	1096.00	1097.50	1086.25	1088.00	1100.75	1100.75	1092.75	1084.00	1085.75	1091.25	1093.50	1099.50	1098.50	1126.25	1107.75	1089.50	1071.25	1065.75	1068.25	1076.50	1073.25	1062.00	1059.50	1067.75	1078.25	1070.50	1079.25	1085.25	1090.50	1076.25	1070.00	1083.75	1069.25	1062.50	1062.50	1078.75	1078.50	1086.25	1083.75	1081.50	1095.00	1085.50	1082.00	1083.25	1080.00	1092.50	1086.50	1083.00	1096.50	1092.25	1094.00	1086.75	1073.25	1070.25	1075.00	1078.25	1093.25	1087.00	1078.75	1081.25	1072.25	1064.50	1057.00	1049.25	1051.50	1061.00	1056.00	1059.50	1074.75	1073.50	1073.25	1078.50	1100.75	1085.75	1072.50	1072.25	1067.75	1077.00	1081.00	1076.00	1082.00	1090.50	1092.00	1093.50	1088.75	1081.50	1072.75	1061.00	1055.75	1058.50	1071.00	1072.00	1072.25	1081.50	1082.75	1071.25	1065.25	1069.75	1075.00	1078.50	1069.50	1053.00	1045.25	1038.50	1038.75	1047.50	1057.50	1065.75	1069.75	1071.50	1067.00	1059.50	1052.50	1053.00	1062.50	1054.00	1054.50	1038.25	1038.25	1036.50	1049.25	1054.50	1041.50	1037.75	1043.25	1052.75	1050.50	1052.75	1046.75	1054.50	1044.25	1057.25	1056.50	1049.00	1058.25	1051.75	1051.25	1054.75	1057.50	1067.50	1073.50	1074.50	1051.50	1048.00	1059.25	1058.50	1041.50	1045.25	1049.00	1059.25	1062.50	1061.75	1073.25	1052.25	1055.25	1073.50	1074.75	1059.00	1045.50	1058.75	1059.00	1056.50	1050.00	1037.75	1037.75	1035.25	1035.00	1036.25	1039.25	1043.50	1049.50	1038.50	1039.25	1039.00	1040.00	1041.00	1041.00	1041.50	1044.00	1051.50	1049.50	1055.75	1069.00	1070.75	1058.50	1068.25	1081.75	1093.75	1087.00	1074.00	1065.50
1097.00	1121.00	1118.25	1113.50	1117.00	1111.25	1119.25	1110.00	1106.25	1084.50	1074.00	1072.50	1078.50	1097.75	1101.00	1094.25	1088.75	1090.50	1092.25	1119.25	1115.75	1111.50	1103.50	1108.00	1089.50	1113.75	1117.00	1096.75	1107.75	1106.25	1100.00	1095.00	1107.00	1102.75	1113.75	1107.75	1091.25	1081.00	1079.50	1081.50	1084.25	1080.25	1080.75	1088.25	1105.25	1107.25	1110.50	1098.75	1097.75	1107.00	1121.25	1125.50	1127.50	1117.25	1124.00	1120.25	1115.00	1106.50	1097.75	1092.75	1095.75	1109.25	1108.75	1108.50	1118.25	1110.50	1099.25	1096.50	1087.75	1094.75	1102.25	1088.50	1089.00	1092.00	1094.00	1099.75	1099.25	1084.00	1097.75	1087.75	1077.75	1071.50	1073.75	1081.00	1087.50	1074.75	1063.50	1060.75	1075.00	1085.25	1078.75	1073.75	1080.50	1093.00	1085.50	1094.50	1090.25	1073.25	1063.75	1057.25	1061.25	1072.50	1080.25	1073.00	1079.00	1080.00	1070.75	1079.25	1075.00	1072.75	1078.75	1079.25	1084.50	1096.25	1100.00	1098.25	1093.75	1078.75	1085.50	1076.25	1081.00	1091.75	1090.75	1078.00	1072.25	1066.50	1065.50	1065.50	1050.50	1050.00	1059.00	1067.00	1069.00	1076.75	1083.75	1079.50	1089.50	1094.00	1088.50	1081.50	1074.50	1070.00	1075.50	1079.50	1081.00	1089.75	1098.75	1088.75	1081.25	1082.75	1077.75	1071.00	1064.25	1056.50	1061.50	1062.75	1069.25	1075.00	1090.00	1086.50	1078.75	1066.25	1075.00	1078.25	1066.00	1072.00	1064.25	1048.50	1038.75	1039.00	1043.25	1048.50	1054.50	1051.50	1061.00	1065.25	1058.50	1058.75	1064.50	1061.00	1046.25	1042.75	1039.50	1038.00	1037.00	1053.75	1057.25	1044.75	1040.50	1048.50	1052.75	1061.75	1063.25	1059.75	1057.25	1044.25	1044.50	1043.50	1043.25	1046.75	1051.75	1059.75	1071.00	1074.75	1086.25	1077.00	1064.50	1053.50	1063.00	1056.75	1054.75	1042.25	1043.75	1046.00	1050.25	1058.00	1060.50	1067.50	1056.50	1060.50	1076.25	1077.00	1058.25	1051.00	1067.50	1063.00	1051.75	1044.00	1036.50	1035.00	1035.25	1035.00	1039.00	1051.25	1058.00	1048.50	1046.50	1045.50	1040.25	1040.00	1040.75	1041.50	1041.75	1042.25	1045.50	1048.75	1050.50	1058.75	1071.00	1075.50	1077.00	1083.25	1084.75	1077.00	1081.25	1064.50
