589.00	597.50	599.25	562.25	549.25	543.00	532.00	527.25	528.25	531.00	537.25	542.50	549.75	551.75	552.25	547.50	539.00	529.75	524.75	522.75	520.25	513.50	518.25	508.75	506.25	505.00	507.25	508.75	505.75	507.00	500.00	492.00	484.75	482.00	480.50	483.25	485.00	479.25	475.75	485.00	482.25	473.50	485.50	485.50	491.50	492.75	488.75	490.25	477.75	469.00	495.25	504.25	506.25	509.75	509.00	510.00	512.75	517.75	521.00	517.50	518.25	514.25	512.50	519.00	524.50	536.00	549.25	555.00	534.75	545.75	559.50	555.25	543.00	557.00	562.75	529.00	517.00	529.50	530.25	547.75	571.50	538.25	535.25	517.75	526.75	516.50	500.50	502.75	536.25	520.25	542.75	557.25	555.50	545.00	525.25	535.50	544.00	570.75	601.50	637.50	651.50	683.25	682.75	657.75	630.25	630.75	613.75	626.75	620.00	614.50	621.25	649.75	634.25	662.50	676.00	678.25	650.00	623.75	625.25	585.00	568.50	579.25	600.00	594.00	595.75	626.00	647.00	647.50	620.00	633.00	649.00	649.75	636.75	670.50	687.25	672.00	665.25	672.50	693.25	722.25	704.00	741.00	760.75	741.00	713.75	694.00	692.00	691.00	702.00	671.25	668.25	660.50	670.50	687.25	658.50	654.75	630.75	648.50	657.50	674.75	660.50	669.00	692.00	703.50	733.50	757.75	729.25	712.00	714.00	699.75	698.00	696.00	722.25	706.75	698.00	686.00	722.00	706.00	704.00	701.75	747.00	747.00	746.00	713.25	721.75	758.75	760.00	770.75	724.25	678.25	708.75	670.75	634.00	654.75	690.00	755.75	817.75	770.00	726.25	701.75	662.50	641.25	628.00	616.50	625.00	640.75	661.00	659.25	694.25	707.25	729.50	759.25	788.50	825.25	805.50	768.25	792.25	778.00	767.50	785.50	780.75	820.25	804.00	872.25	878.75	881.00	853.00	835.00	887.00	857.00	834.75	819.50	827.50	765.25	791.50	828.00	861.50	850.25	903.75	928.00	906.50	914.00	920.25	839.00	846.00	833.50	848.75	899.00	913.00	916.50	927.25	882.00	918.25	952.75	969.50	970.75
564.50	568.75	572.25	559.00	553.50	543.00	526.75	526.75	527.25	533.00	544.00	551.00	550.00	554.75	557.25	554.75	547.50	542.25	533.50	527.00	522.00	520.25	519.75	512.75	510.75	509.25	510.00	511.00	510.50	507.75	501.00	498.75	492.50	489.00	484.00	479.00	482.00	485.50	482.50	475.00	476.00	470.25	481.25	482.50	489.50	491.25	486.00	490.00	482.50	474.75	495.25	508.50	510.50	515.00	515.25	514.25	519.25	533.25	538.75	534.00	525.50	518.75	515.50	518.75	522.75	528.50	539.25	540.00	528.25	537.00	540.25	527.00	547.50	556.00	540.00	523.00	531.25	552.00	559.00	560.25	559.25	515.00	527.00	537.00	513.50	498.00	522.00	529.50	543.75	538.00	540.50	564.25	568.25	538.00	536.00	548.25	561.25	559.75	562.50	642.25	680.50	669.50	655.75	639.50	653.00	644.00	625.25	606.00	618.75	596.50	626.50	646.75	627.00	645.50	655.75	664.75	643.25	616.25	598.75	580.50	596.50	596.00	591.50	600.25	605.50	615.00	639.00	670.50	628.25	618.00	627.00	625.75	628.75	665.75	659.00	650.50	660.75	664.00	679.25	695.75	704.25	741.50	739.50	724.00	722.75	731.25	727.00	721.00	715.00	704.50	693.50	679.50	666.50	664.25	660.00	652.50	634.25	667.50	696.50	704.25	702.75	694.00	701.00	718.00	738.00	749.00	739.25	721.00	727.00	719.50	699.25	690.00	685.75	688.00	674.25	696.50	697.25	677.50	692.25	713.00	740.75	743.50	731.75	716.25	710.75	740.25	723.50	752.50	743.75	720.75	711.75	685.75	646.00	646.00	696.75	751.75	826.00	793.50	702.50	685.00	665.00	671.25	651.00	625.75	636.50	674.50	694.00	728.50	743.25	751.75	784.00	763.00	782.25	798.25	815.00	803.75	796.75	795.00	796.75	810.25	787.25	827.00	824.75	893.25	908.00	901.75	888.25	853.00	896.75	897.75	864.50	798.75	783.25	788.00	816.50	855.25	906.75	888.75	931.25	931.00	878.25	886.25	885.25	825.75	855.25	859.50	884.00	908.75	867.75	877.00	873.75	870.75	906.50	925.00	968.50	965.00
551.25	548.00	552.25	543.75	540.25	539.25	536.75	540.50	538.75	547.00	557.00	567.00	559.75	559.25	561.75	559.00	555.00	552.25	544.00	536.25	531.00	528.75	521.50	518.25	513.75	510.25	509.00	508.25	506.00	503.50	490.00	487.25	486.25	486.25	484.25	484.75	492.50	500.00	494.00	485.75	482.50	469.00	477.00	479.25	485.25	486.25	486.50	488.50	472.50	479.25	499.00	507.00	517.00	526.50	528.00	525.50	530.00	550.50	559.50	549.50	532.50	526.75	519.75	515.75	517.25	517.75	521.50	525.00	528.50	525.75	517.50	532.50	545.75	553.25	540.75	512.50	527.50	549.25	551.25	543.00	537.50	512.00	517.75	536.00	502.25	497.50	511.75	515.50	515.00	540.25	570.25	580.50	570.75	548.50	537.75	563.50	575.75	571.75	602.25	672.00	683.00	670.25	660.75	658.50	669.75	664.75	628.25	617.25	605.50	599.75	612.50	613.25	616.00	660.25	655.75	640.75	647.75	631.50	619.75	590.25	583.25	580.75	603.75	667.25	627.50	640.50	632.00	669.75	646.00	644.75	639.00	651.50	631.50	636.75	662.00	655.25	683.75	679.25	671.75	676.25	718.00	731.00	728.50	719.50	698.25	719.75	719.75	699.50	684.75	715.00	706.75	703.00	701.25	678.75	664.00	641.25	633.25	673.75	716.50	720.50	710.25	712.50	703.50	717.50	746.50	755.00	757.75	733.50	747.00	732.75	717.25	707.50	693.25	697.00	690.00	672.00	697.75	675.00	687.25	713.75	722.00	754.00	740.50	734.50	702.75	707.25	710.75	727.50	745.50	745.50	711.00	685.25	645.75	642.00	701.25	754.25	826.00	730.75	671.75	675.50	693.25	699.75	685.50	639.25	632.75	661.75	675.50	720.50	784.50	759.00	804.00	769.75	772.00	784.75	793.50	822.00	858.75	836.25	836.25	829.25	806.50	825.75	851.00	925.75	901.75	850.50	881.75	905.50	884.75	911.75	883.00	822.75	781.50	787.00	816.50	869.25	915.50	883.75	889.75	929.75	887.75	872.75	847.50	856.50	899.75	924.25	931.75	902.00	858.25	843.75	881.75	891.25	913.25	912.50	960.00	956.00
554.25	549.50	546.00	552.75	551.00	529.25	528.75	544.00	549.00	561.75	588.00	593.00	571.50	566.75	564.00	559.50	555.00	553.75	550.00	542.00	539.25	531.25	525.00	524.25	518.25	509.00	501.75	499.75	497.75	494.25	497.25	500.00	500.25	505.50	500.25	496.75	500.75	501.75	501.00	490.75	475.75	475.50	478.75	478.50	490.00	489.75	484.75	488.25	469.75	490.50	497.50	497.00	512.00	526.25	524.75	528.50	538.75	563.00	563.75	547.50	542.50	532.25	518.25	507.25	506.75	507.00	507.75	516.25	522.00	521.75	517.50	514.00	530.50	535.00	520.25	507.25	523.25	551.50	545.75	521.00	510.50	496.00	496.75	499.75	497.50	498.75	530.00	546.75	531.00	533.00	542.25	561.00	573.25	565.00	539.25	582.25	589.00	592.50	600.25	681.00	684.50	682.00	667.75	681.00	645.00	629.25	625.75	612.50	598.00	589.75	600.50	601.75	632.50	639.00	640.25	612.25	622.00	622.50	603.50	588.75	584.75	610.50	633.00	677.50	667.25	651.25	640.50	661.25	694.75	679.25	656.25	683.50	666.00	673.25	662.75	666.50	674.00	693.00	696.75	695.50	722.75	717.00	699.50	696.00	684.25	676.00	671.75	668.00	679.25	690.50	677.50	659.50	686.75	680.75	640.75	632.50	646.25	660.00	674.75	705.25	733.50	753.00	765.75	749.50	759.00	794.75	779.00	752.00	769.50	747.25	723.00	699.75	716.25	720.50	716.50	675.50	674.00	671.25	663.75	689.50	702.00	721.00	731.75	739.75	706.50	689.50	706.25	733.25	732.00	735.25	704.75	694.75	659.25	665.50	696.00	748.00	765.00	726.50	666.75	642.50	666.75	651.75	645.50	621.50	649.00	692.25	687.50	742.75	809.75	809.75	816.25	814.25	817.50	820.50	809.75	829.25	848.00	834.25	853.25	870.00	852.25	858.75	890.25	902.50	877.00	843.25	886.00	881.00	909.25	931.00	878.00	798.50	763.50	814.25	846.00	856.00	868.25	844.00	859.00	926.25	897.25	856.75	821.50	915.50	924.25	940.50	946.75	923.00	878.50	841.75	891.00	921.00	945.25	940.50	930.75	916.50
563.50	574.50	571.25	563.00	555.25	536.75	522.00	534.25	550.50	567.00	596.00	594.00	579.25	583.75	568.25	555.25	551.25	550.75	550.00	544.75	541.25	536.00	530.75	520.75	516.25	507.75	500.00	503.75	502.00	503.25	506.00	502.75	502.50	515.25	503.00	492.50	491.25	487.50	492.25	477.00	468.25	466.75	470.00	479.50	487.00	493.00	484.00	477.00	467.75	479.25	486.25	489.50	512.00	518.50	510.00	516.75	533.00	560.00	545.25	529.75	536.75	524.50	509.25	500.75	501.50	495.25	501.50	511.75	519.25	525.00	523.25	500.25	506.00	498.50	493.00	513.50	522.00	533.00	520.25	505.25	495.50	497.75	499.00	496.25	503.50	508.25	540.00	567.00	547.25	546.25	547.00	552.75	566.25	556.75	544.25	551.00	559.00	568.00	578.25	653.25	700.75	699.25	677.75	668.00	632.75	665.75	640.75	606.25	585.25	576.50	592.50	607.75	648.25	625.25	607.50	606.75	586.25	608.00	582.75	570.50	570.75	588.75	617.00	660.25	656.25	689.25	670.25	687.75	728.75	687.00	710.25	732.00	706.25	700.50	677.00	673.00	675.75	717.25	724.50	719.75	752.25	722.25	713.00	703.75	675.25	686.75	666.50	657.75	640.25	639.00	641.75	631.00	667.50	675.00	623.00	642.25	655.50	662.50	658.00	667.25	688.50	721.00	763.25	770.75	796.75	802.75	831.75	811.50	792.25	758.00	742.00	719.75	739.50	731.25	704.50	680.50	689.75	679.00	667.25	663.25	675.00	690.50	723.50	737.50	719.00	700.00	716.25	720.50	725.75	722.00	692.25	676.50	620.50	693.25	747.50	709.75	713.75	719.00	670.50	642.00	672.50	621.00	613.50	611.00	645.50	673.25	685.00	772.00	798.25	830.50	833.75	831.50	833.50	821.00	805.00	809.00	811.25	835.50	865.00	882.75	911.75	890.25	885.00	904.75	880.25	846.50	845.75	865.50	869.25	896.25	847.75	795.50	751.25	826.25	833.50	842.25	809.50	829.75	867.50	926.75	916.25	894.00	817.25	917.25	939.00	944.25	929.00	890.00	842.00	852.00	885.50	901.00	906.75	905.25	940.25	914.75
573.25	574.00	586.00	564.75	555.00	544.25	530.75	532.75	555.25	563.50	566.00	565.50	577.00	590.00	569.50	553.25	546.75	548.25	550.50	546.75	542.50	537.25	535.00	517.75	512.00	507.75	502.50	506.75	509.00	508.25	508.75	504.25	505.50	505.25	501.75	503.25	498.25	499.00	492.00	485.25	490.25	476.50	466.25	473.50	483.25	492.50	488.50	473.75	473.25	474.75	485.00	492.75	500.25	496.25	500.25	515.75	531.00	540.50	530.00	518.25	523.25	519.00	505.25	499.00	496.50	493.25	500.25	508.25	514.75	519.50	505.75	490.75	489.50	490.50	488.25	496.00	491.50	502.75	497.75	494.25	493.75	517.00	515.00	506.00	517.00	527.00	540.25	563.25	559.50	551.50	564.75	572.25	592.50	587.75	550.75	567.50	570.00	583.50	594.50	690.75	742.00	721.25	733.25	685.00	655.00	653.00	617.25	614.25	613.00	582.00	604.25	639.75	649.00	614.50	595.25	581.50	565.50	588.25	572.50	589.00	593.00	599.25	627.75	633.50	644.75	680.75	686.25	682.25	690.50	658.00	690.50	725.00	707.50	714.50	704.75	700.50	677.50	720.50	747.50	738.75	764.25	744.50	740.75	716.75	707.25	685.75	682.00	676.00	674.75	637.25	644.75	624.75	625.25	658.00	619.25	677.00	722.25	703.25	695.00	687.00	721.75	726.75	711.25	726.00	774.25	808.00	800.00	798.75	787.00	766.50	811.75	770.00	762.50	730.25	701.00	708.25	703.00	707.25	692.50	672.50	669.50	687.75	716.75	740.50	725.50	696.00	702.25	713.75	733.75	719.25	693.50	665.50	640.00	621.00	652.00	675.25	666.75	679.50	681.25	648.25	643.25	616.25	618.00	633.75	663.25	707.00	703.00	728.50	774.25	819.25	798.50	788.50	791.00	797.50	791.50	795.75	817.00	845.50	875.25	890.00	903.50	877.00	855.75	906.00	861.00	831.25	841.25	856.50	863.50	866.00	796.50	781.50	749.75	764.25	798.75	811.00	815.50	862.00	909.25	914.25	896.00	881.25	813.25	900.50	926.25	905.00	884.00	853.75	829.25	848.75	845.50	845.75	862.00	874.50	925.25	936.75
562.25	563.25	579.50	570.25	565.25	538.75	525.75	544.00	566.25	563.00	549.25	553.00	580.25	581.25	559.75	547.00	546.00	549.00	554.00	550.75	546.75	536.00	535.25	526.25	522.00	516.75	513.00	514.50	518.75	516.25	512.75	505.50	507.50	506.50	509.75	502.25	504.50	507.25	507.50	503.00	507.50	492.75	477.75	466.75	479.50	478.00	472.00	465.00	465.50	477.75	482.25	485.25	486.75	488.75	502.00	527.00	531.50	528.75	523.75	508.25	515.50	509.00	504.25	498.75	494.75	492.75	503.75	507.25	511.00	505.25	491.00	490.00	489.50	493.75	489.25	489.25	492.00	490.75	492.50	501.50	507.75	536.50	530.50	517.50	519.00	535.75	527.25	554.50	553.75	570.00	572.25	585.50	617.00	595.75	561.50	565.50	627.25	664.50	661.25	718.25	737.50	706.00	702.50	693.75	719.50	689.25	663.75	708.25	636.50	575.00	660.75	654.75	657.00	619.75	587.50	556.25	561.00	556.50	566.75	569.50	572.00	583.25	611.25	616.25	619.00	639.25	660.00	672.75	628.75	655.25	672.75	651.75	651.00	670.25	683.50	715.25	693.00	712.50	741.50	772.00	767.50	779.25	745.75	734.75	694.50	686.00	705.50	702.00	672.00	677.50	678.00	660.75	640.75	636.50	611.75	636.00	680.75	685.25	680.50	711.50	708.00	694.50	707.25	740.00	730.50	741.00	756.25	801.75	794.50	741.25	776.00	789.00	801.50	756.50	713.00	729.25	727.00	723.00	693.00	694.50	667.00	657.25	685.50	718.25	719.50	696.50	694.00	727.25	720.75	715.00	729.25	698.25	663.50	642.50	620.50	622.50	644.00	652.75	680.50	661.00	620.00	609.00	614.75	632.75	697.50	702.50	700.50	769.00	817.00	850.50	804.25	780.50	767.25	787.25	782.25	816.00	832.50	844.75	883.25	879.00	866.50	861.25	840.75	869.75	889.25	833.75	820.25	843.75	824.50	849.75	811.50	774.50	740.75	767.50	811.75	848.25	824.25	858.75	912.00	898.50	850.50	828.50	813.50	881.75	876.00	853.75	828.75	835.50	808.25	842.25	854.75	856.00	893.00	903.75	952.50	964.50
560.25	554.50	556.25	552.00	547.25	535.00	528.50	546.00	558.00	548.25	543.00	549.50	556.75	550.00	548.25	552.25	560.00	556.50	553.25	548.50	546.75	538.25	535.75	530.50	528.00	527.25	526.50	523.50	524.50	521.25	515.00	512.25	511.75	512.50	507.00	504.00	506.75	506.75	502.25	503.75	496.25	482.75	478.00	463.25	464.25	468.25	472.75	477.75	489.50	493.25	482.75	488.25	493.75	502.75	513.75	518.25	511.25	515.50	512.75	498.00	503.00	498.75	490.50	490.75	486.75	491.00	498.25	498.50	496.75	491.50	502.50	514.75	501.50	501.25	498.75	500.25	511.25	512.50	513.25	521.25	535.25	546.00	534.00	520.75	512.75	532.25	538.00	536.75	549.00	549.75	549.25	557.00	572.25	584.75	591.25	581.50	606.25	760.00	721.25	671.25	664.00	654.50	676.25	676.00	722.75	703.25	753.00	723.50	652.00	567.50	604.25	644.75	622.25	590.00	563.25	571.50	577.25	574.50	565.00	595.50	590.75	600.00	595.25	605.50	584.00	600.00	611.25	620.25	612.50	632.75	651.75	672.75	667.75	658.75	691.00	735.50	724.25	733.75	754.50	787.25	763.25	752.25	734.50	727.50	698.75	717.75	708.25	678.50	678.25	698.50	670.25	652.25	657.50	632.25	607.25	653.25	662.00	652.75	661.00	691.25	676.00	663.50	675.50	692.00	686.25	709.75	726.50	724.00	721.00	732.25	742.75	766.00	770.25	755.25	730.00	725.00	721.75	720.75	718.25	716.25	689.25	672.75	662.75	694.50	696.25	711.00	689.00	701.75	699.25	714.25	733.75	736.00	753.75	762.50	728.25	676.50	620.25	621.50	641.25	613.00	622.25	641.25	641.25	648.25	695.50	757.50	732.25	779.25	807.00	799.50	767.00	774.00	766.00	770.75	788.50	793.25	810.75	845.75	869.50	869.00	872.00	862.50	839.25	836.50	858.75	825.75	797.50	841.50	827.25	815.75	788.50	747.50	793.50	814.75	848.25	878.00	876.00	889.00	917.75	903.75	880.00	854.25	791.25	847.50	869.50	824.00	799.75	815.50	844.75	892.00	914.50	920.75	935.75	937.75	949.00	954.25
556.00	549.50	538.75	539.50	545.25	542.00	539.50	536.75	544.50	535.00	546.75	547.00	535.25	536.50	550.50	567.50	576.75	563.25	552.25	546.50	546.00	541.50	537.25	528.00	528.50	530.50	530.50	526.25	523.50	524.00	520.75	520.00	513.00	507.50	504.50	510.50	506.75	487.50	483.25	489.00	482.50	478.25	465.25	461.00	467.75	472.25	477.75	481.75	491.50	507.50	501.00	507.00	510.50	515.00	515.75	513.50	507.75	498.75	499.25	486.50	494.25	497.50	491.75	483.25	488.50	496.25	488.75	487.50	494.25	490.50	504.00	512.50	510.50	526.75	522.50	498.25	512.50	539.25	538.25	546.00	552.75	542.25	532.50	527.00	511.75	533.75	553.25	559.50	572.75	563.75	569.00	568.50	580.50	599.25	593.50	631.75	650.75	791.75	711.50	679.50	661.25	643.25	645.00	632.75	668.00	639.00	674.50	654.00	610.50	567.00	570.50	621.75	583.25	558.00	552.00	633.75	598.25	604.50	618.50	618.75	660.75	635.00	638.50	634.25	589.25	611.00	596.25	631.00	617.00	628.00	693.00	707.50	687.00	666.50	703.75	740.50	749.25	742.75	766.75	768.25	776.00	733.25	740.50	727.00	704.50	731.75	704.75	714.75	718.25	670.25	672.50	678.50	692.50	657.25	625.75	614.75	613.25	642.50	680.00	687.25	660.75	641.50	644.50	649.25	678.50	706.50	692.75	668.75	671.50	702.50	733.75	751.75	749.50	739.25	727.25	721.00	722.50	705.75	697.75	708.25	718.50	696.75	658.75	660.25	686.50	722.75	713.75	678.00	692.25	724.25	743.75	770.00	793.50	787.25	785.50	707.25	617.00	610.75	612.25	643.75	653.00	675.50	682.00	668.50	659.75	739.75	758.00	747.75	743.50	742.75	735.00	762.25	750.00	753.25	777.00	787.00	799.25	868.75	845.50	850.75	886.75	887.25	840.50	786.50	802.00	799.50	788.50	842.25	845.50	799.50	777.75	754.75	822.50	854.50	925.50	900.25	938.75	951.00	890.50	859.00	840.25	820.75	779.50	836.50	845.75	809.25	798.25	848.75	868.00	909.50	940.25	956.50	930.00	925.75	932.25	920.75
551.25	548.25	555.50	554.25	550.50	552.75	548.25	529.50	528.00	546.75	554.50	546.00	530.00	538.25	560.75	582.00	590.00	563.50	547.00	545.50	540.50	544.00	543.50	531.50	523.25	528.50	537.00	535.00	535.50	535.50	532.75	531.00	522.25	517.75	512.00	510.00	502.50	487.25	476.25	475.50	472.75	469.75	467.75	474.00	476.75	478.00	481.00	486.25	493.75	511.00	517.00	516.00	514.25	515.50	511.25	511.00	508.25	499.00	492.00	484.00	487.25	489.75	500.75	489.25	488.25	514.00	502.50	500.50	502.00	498.00	497.75	508.75	508.50	524.25	533.00	516.75	500.50	522.00	526.00	534.75	543.25	552.75	544.75	532.25	514.75	516.00	521.75	531.50	542.25	555.50	558.00	586.00	583.75	580.75	594.25	685.25	737.25	851.00	801.50	761.75	688.50	658.75	647.50	613.75	612.25	597.75	599.50	581.75	579.00	579.25	560.50	586.75	577.00	600.00	629.25	645.00	713.50	663.75	641.00	645.25	638.75	664.25	652.00	674.25	622.00	652.75	624.00	628.50	650.75	612.75	648.00	686.50	658.50	703.00	707.50	723.75	752.00	753.75	774.25	792.00	803.75	765.00	755.25	737.75	727.00	724.00	704.50	717.75	704.50	690.00	691.00	698.50	706.00	671.25	625.25	605.00	603.25	633.50	661.50	665.00	640.00	624.50	653.00	685.75	694.75	695.75	687.00	654.25	661.50	692.25	706.50	720.00	739.25	755.75	765.00	760.25	744.75	715.75	711.00	694.50	693.50	700.25	682.00	660.25	680.00	722.00	718.75	678.25	692.75	729.00	725.25	723.75	686.75	672.00	631.75	612.75	612.75	619.50	656.75	682.25	683.00	697.25	709.75	729.25	698.75	722.50	749.00	719.75	718.25	733.00	740.25	763.00	782.25	769.75	794.50	819.50	840.75	855.75	841.25	837.75	865.00	858.75	862.50	790.25	782.50	775.75	774.75	805.00	801.75	785.25	776.50	760.75	819.00	848.00	866.00	859.25	941.75	931.50	873.25	847.50	852.50	817.25	775.75	820.75	824.50	792.25	800.25	816.75	854.50	858.75	887.75	937.50	934.00	890.75	909.00	930.00
553.00	556.50	558.50	554.50	555.50	543.25	539.50	534.25	526.75	554.50	563.25	547.50	526.25	531.00	555.75	575.50	585.75	561.50	538.25	536.00	532.00	541.75	544.25	537.75	525.75	526.25	536.75	536.75	543.75	540.50	537.50	535.50	531.00	531.75	519.25	503.75	495.00	484.75	479.00	471.50	466.25	460.00	473.00	480.00	481.75	481.25	487.75	503.50	506.00	518.50	517.00	511.50	507.50	507.25	504.25	496.25	494.25	495.25	495.50	485.25	481.00	479.75	493.00	487.50	483.50	491.25	497.25	501.75	504.00	501.75	502.50	505.75	512.00	513.00	526.75	532.25	505.25	501.75	519.00	532.00	537.50	557.25	556.00	543.00	534.25	526.00	541.00	520.75	526.25	518.75	537.00	547.00	558.50	578.75	599.75	776.00	843.75	910.50	890.75	762.75	698.25	657.50	631.00	642.75	622.75	612.25	620.75	587.00	580.25	587.75	549.25	565.75	632.50	599.75	621.25	671.75	715.75	668.25	675.50	690.00	642.25	655.25	662.25	685.00	668.00	672.75	639.00	622.75	650.00	616.75	641.75	693.00	678.00	676.00	709.25	733.75	771.75	781.25	797.75	823.75	832.00	802.50	732.50	717.75	752.00	715.25	711.00	718.50	736.25	708.50	689.50	687.50	668.75	663.00	623.00	640.50	634.75	611.75	631.00	667.75	628.00	640.00	659.25	692.75	682.00	682.00	655.75	657.00	683.25	703.75	718.50	725.50	716.00	733.75	758.25	756.50	757.50	740.00	718.75	696.50	691.75	698.50	679.00	654.25	668.50	706.25	720.75	678.00	679.75	708.75	690.75	702.50	643.00	641.50	626.50	611.50	609.75	602.50	652.25	683.00	686.50	685.00	690.75	707.50	713.75	699.25	713.75	728.50	733.50	744.50	781.75	802.50	835.50	825.50	810.25	836.25	874.75	840.00	824.75	829.00	839.75	825.25	850.25	798.75	808.75	787.50	758.75	758.25	742.75	767.50	732.75	792.25	805.25	841.75	833.00	857.00	891.75	925.75	886.75	863.75	903.25	842.75	778.00	816.50	786.75	789.00	839.75	859.50	844.75	860.50	901.50	940.25	893.25	873.25	935.75	939.00
567.25	564.50	560.00	558.00	552.75	550.25	549.00	543.25	527.00	530.00	535.00	531.50	519.25	522.50	537.75	559.25	582.75	565.75	543.25	529.50	524.00	539.75	542.75	534.25	528.00	521.25	532.50	532.75	538.75	535.50	529.75	530.00	527.50	530.00	522.00	502.50	488.75	480.25	481.50	479.25	471.75	459.75	468.75	474.75	481.50	485.50	502.25	520.00	517.50	517.75	516.25	512.25	501.25	499.25	497.25	488.75	488.75	494.25	494.50	484.50	485.75	489.75	491.25	497.50	508.50	496.25	499.50	495.75	500.75	502.50	508.00	511.75	516.75	517.25	521.75	523.50	511.75	525.25	512.25	511.25	509.25	530.50	547.75	559.00	549.50	532.50	546.50	532.00	544.00	532.25	530.00	558.25	567.75	587.25	619.75	786.25	907.75	898.25	897.00	853.50	815.50	760.00	665.50	645.25	622.00	600.75	599.00	586.00	571.25	577.75	552.00	563.00	619.50	710.25	707.75	700.75	708.25	720.50	679.50	677.50	685.75	696.75	705.00	710.75	683.25	708.25	639.50	647.00	681.00	639.25	630.00	661.75	682.25	682.75	696.75	743.75	755.50	755.50	778.00	803.75	826.50	812.75	782.75	786.00	750.75	755.25	768.00	755.25	787.50	742.50	724.25	684.00	655.50	637.75	669.50	651.25	628.75	605.50	632.00	650.75	613.75	640.50	678.25	707.50	679.75	656.25	652.00	661.25	678.75	687.75	706.75	730.50	736.25	735.50	751.75	738.25	727.50	719.00	704.25	698.75	696.25	705.75	689.00	653.00	662.25	688.25	713.75	681.00	660.00	678.25	679.25	692.00	693.25	702.50	672.00	649.00	641.00	622.00	645.00	662.25	662.75	665.25	670.25	673.50	698.75	703.50	725.75	764.75	748.50	753.75	773.25	789.50	838.50	839.50	843.75	849.75	883.50	870.00	841.75	818.25	814.50	825.00	838.00	850.75	828.75	789.00	765.00	742.25	734.75	733.00	742.25	765.25	792.75	807.25	836.50	822.00	850.00	854.25	910.75	893.50	924.00	863.00	820.75	793.75	780.75	808.75	852.50	853.75	828.00	864.75	912.00	888.50	873.75	901.50	949.25	931.25
574.25	564.75	563.25	563.25	560.25	555.25	548.00	545.00	536.00	521.75	515.25	520.50	515.00	512.00	530.00	558.25	581.25	565.00	541.75	531.25	518.00	537.00	542.00	531.50	529.00	518.25	525.00	529.00	534.00	531.25	525.50	525.75	526.75	528.75	522.50	503.00	488.25	477.25	477.00	481.25	476.25	457.00	460.00	469.00	479.25	488.00	506.00	520.75	518.25	512.00	510.25	511.50	502.00	494.25	492.75	483.75	484.00	493.00	490.25	483.75	493.75	498.75	501.00	505.00	510.75	502.50	505.25	499.75	503.00	502.00	510.00	516.75	520.75	522.75	521.50	519.50	512.75	539.25	518.25	514.25	511.50	514.75	533.75	554.50	545.50	534.25	548.00	541.00	556.75	547.50	529.75	572.00	579.75	593.25	673.00	848.25	917.50	890.75	897.25	903.00	894.50	793.25	666.50	648.00	611.75	602.00	621.25	602.25	573.00	560.00	547.50	553.75	626.25	757.50	742.50	699.50	695.25	728.00	688.50	678.00	710.25	727.00	734.25	736.25	696.25	703.75	639.75	662.75	701.75	644.75	627.75	661.25	687.50	692.25	677.50	725.25	725.75	729.25	767.50	817.50	827.75	836.00	814.00	818.25	774.25	797.50	791.25	778.00	821.50	775.00	764.50	714.00	669.25	647.25	692.75	656.25	633.25	606.25	622.00	628.75	605.00	626.75	662.25	698.00	678.00	643.00	651.25	651.50	667.75	699.50	718.00	741.00	750.25	750.00	760.75	738.50	720.50	706.00	701.00	705.75	682.75	697.75	692.50	656.25	662.50	689.50	708.00	678.25	656.00	677.50	683.50	695.75	727.75	739.75	686.25	652.50	635.75	638.00	641.25	660.00	655.25	683.25	677.75	671.25	706.75	710.50	742.50	796.50	755.50	766.25	774.50	799.25	839.00	826.00	843.75	865.25	887.25	882.00	852.75	831.75	810.50	826.75	835.50	885.75	823.00	772.25	767.00	760.00	746.50	718.50	760.50	779.50	809.25	793.50	812.50	808.50	831.75	850.50	916.50	925.75	931.75	904.75	848.25	766.50	779.50	817.75	863.00	831.50	827.50	862.75	882.25	852.75	881.00	927.00	940.50	901.75
577.50	565.00	563.00	559.75	562.50	557.25	544.00	535.00	528.25	530.75	522.75	538.00	526.50	509.00	527.25	557.25	570.00	554.25	531.75	522.25	514.50	538.00	546.00	537.75	532.75	527.50	516.75	520.50	524.25	529.00	521.50	518.50	523.75	519.25	519.25	515.00	499.50	484.75	475.50	479.75	473.25	456.75	456.75	476.25	479.00	492.00	507.75	514.75	503.75	506.25	496.25	505.75	505.50	503.50	486.50	477.25	478.25	481.00	481.25	481.00	486.25	491.00	495.00	497.75	501.50	507.75	509.25	505.00	504.75	508.75	518.00	523.25	527.50	526.50	527.50	528.75	519.50	533.00	520.00	524.50	532.50	509.25	520.00	546.75	552.50	548.75	559.50	553.25	564.25	567.00	537.75	555.75	569.50	597.50	641.00	864.75	915.75	900.25	883.00	892.75	890.75	723.75	644.50	624.75	623.00	625.25	638.25	604.75	589.50	562.50	547.75	566.75	642.50	693.75	696.50	661.25	701.75	735.25	723.50	698.75	682.00	709.25	757.75	737.25	727.25	682.50	653.25	668.75	655.25	649.75	657.75	681.50	709.75	695.50	704.00	703.25	710.75	739.00	760.00	783.75	833.50	839.25	846.75	853.00	819.50	841.00	824.50	836.50	859.50	820.50	809.25	754.50	723.50	677.50	700.75	659.75	630.00	609.75	589.00	608.00	595.25	631.25	632.25	651.00	680.25	668.25	630.75	639.50	677.25	683.00	686.75	719.50	730.25	759.00	783.25	758.25	739.75	748.25	727.00	714.50	685.50	674.25	662.50	640.50	667.25	704.25	703.50	660.25	665.50	693.75	697.00	727.25	790.75	795.75	686.50	660.25	666.25	677.00	642.50	635.00	655.50	683.00	698.25	713.25	734.00	731.25	742.25	794.00	782.00	773.50	807.75	815.50	815.50	824.50	848.00	864.50	881.50	869.25	841.50	825.25	809.75	791.75	819.50	873.25	840.25	818.75	814.25	797.00	758.25	722.50	739.50	772.50	811.75	792.50	789.50	820.00	849.00	865.50	910.50	922.00	901.50	905.75	866.25	766.25	769.75	824.25	807.50	815.25	859.50	868.75	846.25	848.00	902.25	928.00	903.50	870.00
575.00	563.25	561.00	552.75	549.75	544.75	540.75	545.75	539.25	533.75	523.00	533.50	540.75	510.25	515.00	538.75	553.75	563.00	542.75	519.25	518.00	541.50	551.50	547.25	539.00	532.25	519.75	512.75	511.75	520.50	517.50	511.50	513.25	502.50	504.25	513.75	495.50	481.25	470.25	464.75	454.75	458.00	463.25	476.25	493.50	503.00	510.25	502.00	504.00	497.75	489.00	498.25	499.75	501.25	485.00	479.00	486.25	490.50	483.50	484.00	489.50	487.50	493.50	494.00	496.50	509.75	515.25	514.25	509.25	516.50	524.50	530.00	532.25	533.25	537.75	534.50	530.50	537.00	524.50	526.25	537.75	522.50	510.25	522.25	533.00	565.25	578.50	574.00	581.25	584.75	552.50	560.75	566.75	578.00	603.25	746.25	875.00	914.50	881.75	880.00	900.25	793.25	678.25	630.00	589.50	613.25	642.00	612.50	594.00	570.75	541.50	585.00	705.25	668.25	638.25	652.25	676.00	712.25	719.00	739.75	748.50	724.00	739.75	728.50	707.50	682.50	660.25	651.50	673.75	728.75	667.00	696.50	707.25	701.00	731.50	741.00	708.25	735.00	756.00	781.25	838.75	826.25	837.00	844.00	855.50	872.25	863.75	854.50	845.50	853.25	817.50	806.50	740.00	704.75	727.25	665.75	650.50	625.75	618.25	612.75	595.25	622.25	623.25	631.00	661.25	661.75	627.75	635.75	668.50	647.00	654.50	674.50	686.75	720.50	766.00	752.00	744.75	750.75	736.25	718.25	687.75	670.25	665.50	661.50	652.75	687.25	690.25	649.00	659.25	672.75	704.00	766.75	818.75	855.25	741.75	670.25	625.25	654.50	670.25	656.50	676.75	702.25	710.00	729.00	774.50	756.50	768.25	775.50	795.00	793.00	802.00	805.50	811.00	821.75	852.00	868.00	878.00	888.50	861.00	836.75	812.50	782.50	807.25	843.50	824.50	837.25	850.50	792.75	776.50	727.00	724.25	765.25	801.75	770.50	790.75	816.25	820.50	803.50	838.75	893.00	847.25	848.25	873.00	776.75	776.75	773.75	791.75	833.50	860.25	833.75	851.50	864.50	919.75	886.00	869.50	847.50
588.00	575.00	558.25	556.25	555.25	553.25	552.25	547.75	540.75	535.00	537.50	531.75	551.00	542.50	511.25	530.75	549.25	561.75	543.50	517.25	510.75	531.00	534.25	548.75	543.25	536.75	533.75	520.50	506.50	512.75	526.50	521.00	504.00	498.50	508.25	512.25	498.00	490.00	471.75	460.25	458.50	472.50	474.00	475.75	493.50	510.25	516.75	506.00	493.00	490.25	489.75	484.75	491.50	483.00	476.00	479.25	493.50	509.00	504.00	484.25	493.00	495.50	494.25	500.75	504.50	505.75	518.00	520.50	516.50	520.25	534.25	543.25	542.25	552.75	556.25	553.25	548.50	542.75	532.25	527.00	538.25	534.75	518.50	514.50	525.25	542.25	557.25	571.25	593.50	589.75	565.50	560.00	567.25	590.00	606.00	683.50	816.75	900.50	865.75	874.25	890.00	793.00	625.25	602.50	558.50	576.25	616.75	577.50	565.75	539.75	553.50	636.50	684.75	652.75	620.75	662.00	720.75	706.50	717.75	745.00	792.25	792.25	759.25	706.75	697.25	680.75	675.75	666.00	654.75	722.75	723.75	710.00	746.50	713.50	727.50	762.50	747.50	729.00	742.75	760.00	824.25	813.00	816.25	828.50	841.25	854.25	851.25	842.00	849.25	847.00	819.00	801.00	768.00	726.25	706.00	686.75	646.25	645.50	635.25	617.25	608.00	594.25	620.50	610.50	614.75	615.75	614.25	624.50	644.75	650.25	682.25	677.25	688.50	704.50	736.50	724.00	709.50	709.25	703.75	716.75	705.25	706.50	689.75	701.50	665.25	651.00	682.25	647.25	681.00	690.25	698.50	748.00	779.00	849.00	833.25	775.25	664.75	617.25	647.75	662.00	696.00	737.00	741.25	765.25	763.75	746.00	762.75	789.25	788.25	784.25	792.25	824.00	841.00	854.00	870.00	855.25	876.75	882.25	849.25	826.00	819.75	796.50	794.50	820.50	826.00	819.50	831.75	780.00	752.00	732.50	719.00	773.25	775.00	759.25	786.50	788.00	805.75	812.00	858.25	918.75	867.75	818.00	832.50	784.00	769.75	793.00	840.00	871.50	840.75	849.50	882.25	873.50	889.75	858.00	842.25	864.25
597.00	566.25	567.50	563.75	563.25	554.75	552.00	546.00	543.50	543.00	548.50	539.75	530.00	534.25	511.25	521.75	539.75	542.50	528.00	510.50	499.25	517.25	528.00	543.25	548.00	544.25	538.00	525.00	505.25	495.75	509.50	512.75	503.25	499.25	509.50	503.50	487.25	485.00	469.25	461.25	465.75	477.50	478.00	476.75	497.75	508.00	514.50	505.00	497.25	486.75	485.75	481.50	489.75	477.75	480.25	495.25	503.00	519.00	518.25	491.50	492.50	505.50	502.50	501.00	507.75	507.50	521.25	523.50	529.25	532.50	546.00	557.25	556.75	564.75	577.50	583.00	569.50	551.75	534.75	531.75	545.50	544.50	534.25	532.75	514.75	518.25	550.50	562.75	572.75	581.50	592.75	591.75	561.50	569.50	579.50	699.00	836.50	888.50	872.50	853.25	822.25	651.50	596.25	595.00	552.50	557.00	606.50	578.75	559.50	534.50	577.75	580.00	600.00	614.00	626.50	677.75	693.50	672.00	693.25	718.75	774.25	823.25	814.00	732.00	720.75	703.50	673.25	660.25	670.00	661.50	693.50	692.25	755.75	734.25	745.50	748.00	772.00	747.00	768.75	791.25	819.75	805.50	805.25	822.50	839.00	823.25	813.00	802.25	810.50	835.50	824.75	784.25	794.25	726.50	689.25	690.00	663.25	674.50	644.00	640.25	633.75	606.75	598.75	633.50	621.00	635.25	636.75	622.75	653.75	648.00	668.00	689.25	708.75	732.75	737.50	725.50	722.75	704.25	691.75	677.75	684.25	676.75	665.75	661.75	652.75	633.75	674.25	655.25	656.75	664.00	686.25	701.75	749.25	750.00	765.00	844.75	664.25	614.75	666.75	664.25	697.25	749.50	744.50	745.50	733.00	739.25	775.50	798.25	767.75	789.75	814.50	828.25	851.50	872.00	859.25	834.50	854.75	869.75	851.75	812.50	816.75	809.75	778.00	815.25	806.50	827.75	811.50	783.75	750.25	714.50	703.25	744.25	730.75	732.25	743.25	765.50	831.00	839.75	867.00	911.00	869.75	809.50	835.00	836.75	762.25	865.25	887.75	883.00	820.25	856.25	824.00	805.25	835.00	840.00	862.25	852.25
581.50	577.25	576.00	573.25	567.50	569.25	563.00	553.00	557.75	559.25	549.00	530.50	529.50	519.50	513.25	510.00	536.25	534.50	501.75	495.75	496.75	521.75	534.50	538.00	539.75	538.00	529.75	516.00	505.00	503.00	493.75	492.25	486.50	492.00	500.25	489.00	475.00	473.75	457.50	461.50	468.00	473.75	475.00	474.75	492.50	505.50	506.50	498.25	489.25	484.00	482.50	499.75	493.00	485.50	472.50	482.25	501.75	518.00	517.75	493.25	500.00	516.00	517.00	506.75	513.25	516.00	520.00	525.50	539.75	543.00	561.00	575.00	573.50	577.00	601.00	616.50	589.75	553.50	549.75	551.75	561.00	559.00	543.75	526.25	528.75	546.25	529.25	528.25	547.00	571.25	589.75	605.50	588.50	592.25	611.25	615.25	735.00	860.50	864.00	846.00	796.00	649.25	574.75	558.75	545.75	540.75	564.25	563.00	552.50	529.00	596.00	583.00	584.25	605.75	616.50	638.75	653.75	663.00	674.50	720.25	795.25	813.00	827.00	718.75	703.50	694.00	681.50	694.50	691.50	658.50	694.75	728.50	771.00	742.75	766.25	751.00	771.50	769.50	763.25	808.00	788.50	787.00	823.00	832.25	849.25	838.00	829.25	818.50	797.00	794.00	797.50	781.75	768.25	698.50	666.25	665.00	659.00	657.00	637.50	663.50	628.25	618.50	594.50	627.25	634.50	639.50	655.00	636.75	652.50	675.00	681.00	705.00	711.25	728.25	761.25	739.50	722.50	708.75	703.50	690.50	676.50	667.25	666.00	676.00	667.75	644.75	656.50	650.75	644.25	665.25	681.50	690.75	677.75	692.00	679.75	742.25	623.75	649.25	686.50	688.75	702.75	714.00	712.50	700.75	727.50	757.25	772.50	788.50	763.25	773.00	792.75	804.50	836.50	840.75	823.00	825.50	821.50	856.25	853.50	825.00	797.50	793.00	774.50	796.25	801.75	802.75	817.00	792.00	756.25	712.50	699.75	722.00	734.75	746.75	770.75	769.75	828.25	849.00	868.50	894.75	881.25	823.25	809.50	847.75	774.00	864.00	872.50	818.75	849.75	845.00	802.75	817.25	836.50	872.75	875.50	885.00
584.75	600.25	589.25	580.75	591.00	583.75	563.50	564.50	569.25	563.50	550.25	535.00	536.00	531.50	516.00	516.00	529.00	510.50	498.75	505.50	517.00	522.75	531.00	537.25	527.00	530.25	519.75	519.00	520.25	511.00	495.00	483.75	474.50	479.75	492.75	489.50	473.50	460.75	454.00	472.75	477.25	476.50	476.25	482.00	498.25	508.50	496.75	492.75	488.50	481.25	473.50	493.00	481.00	469.00	480.25	484.50	496.25	516.75	515.75	495.50	504.00	522.00	528.00	515.25	525.50	533.75	534.25	529.50	545.50	555.50	576.00	599.75	602.50	596.25	617.75	635.50	591.50	572.50	577.25	579.00	574.00	553.25	531.00	539.50	544.00	565.25	533.75	538.50	540.00	571.50	597.50	611.75	601.50	641.75	644.50	690.25	663.50	842.00	833.50	801.75	731.75	610.50	570.00	577.75	571.00	552.00	543.50	521.75	527.75	523.50	541.25	556.50	591.50	614.75	622.50	657.00	673.50	681.50	687.50	790.00	826.50	780.75	774.50	744.75	707.50	684.00	701.75	721.25	693.75	654.75	689.25	760.75	774.25	749.75	771.00	776.50	790.00	799.25	809.25	798.25	781.00	814.50	820.50	812.00	846.00	857.75	871.00	849.50	827.00	791.25	765.25	791.25	761.75	713.75	690.25	666.00	684.25	660.00	678.75	682.25	617.75	602.50	591.25	628.25	640.75	671.00	676.25	673.25	670.75	688.75	701.25	666.75	670.50	686.75	711.25	756.00	752.25	741.00	710.50	683.00	696.75	698.25	689.75	695.00	678.75	647.25	632.75	628.75	648.25	695.25	703.50	673.75	639.00	625.25	630.25	625.50	604.00	642.50	665.75	690.75	675.50	686.00	683.75	684.50	717.50	784.75	799.75	768.00	751.25	763.25	779.00	803.00	838.00	834.75	801.50	819.25	821.50	833.50	838.75	815.00	821.25	817.50	791.50	761.25	775.75	798.00	817.75	807.50	785.75	724.00	689.50	732.25	749.00	755.75	758.00	791.25	807.00	867.00	918.00	937.50	878.75	796.50	783.00	775.50	761.00	831.50	817.00	775.00	772.75	780.50	806.75	850.50	845.00	834.00	919.25	898.00
602.00	619.25	604.75	590.25	586.50	575.25	565.75	562.75	555.75	543.00	540.00	533.50	542.75	536.50	522.25	507.50	510.25	514.25	507.00	528.75	525.25	539.25	546.75	553.75	535.75	524.25	525.00	527.50	516.50	511.50	507.75	492.25	485.75	475.00	470.25	477.75	480.75	471.50	465.50	457.75	474.50	490.00	494.50	499.75	518.50	509.75	494.50	489.00	488.25	481.00	465.25	472.50	478.00	485.50	492.00	498.75	499.25	509.75	515.25	508.50	501.00	527.75	541.00	531.00	523.25	538.75	558.75	554.75	563.75	574.75	602.75	626.00	638.50	643.50	641.75	637.00	604.00	609.75	616.75	613.75	581.75	548.25	546.75	573.25	566.75	585.75	551.50	552.00	546.50	543.00	571.50	611.00	627.25	677.50	753.25	753.00	726.00	817.00	763.00	704.00	663.00	636.75	607.00	610.00	582.00	581.00	559.50	527.00	539.25	554.25	553.75	585.25	593.50	585.25	585.00	607.50	627.00	669.00	697.50	793.75	769.25	762.75	779.00	800.25	723.50	704.75	718.75	707.50	693.50	663.50	689.00	750.25	796.00	778.50	810.50	809.50	805.50	793.50	778.00	764.50	790.25	815.00	827.50	798.00	846.75	873.00	852.00	861.75	836.00	786.75	768.25	772.00	751.50	750.75	705.25	699.25	704.75	690.25	681.25	682.25	624.75	625.50	592.75	617.00	623.75	661.25	668.25	648.25	669.25	652.50	651.00	658.50	684.25	703.25	739.50	770.00	756.25	743.25	732.50	714.75	722.50	720.50	704.75	689.75	686.50	680.00	646.00	629.50	627.50	688.25	704.00	643.75	632.50	614.25	668.00	693.25	663.00	649.25	651.25	649.50	657.50	663.25	686.50	714.00	745.25	784.50	805.25	773.00	742.00	763.50	786.00	804.25	822.00	815.00	785.75	789.75	810.25	839.75	841.50	841.50	830.25	813.00	787.50	748.75	761.25	786.00	813.25	807.75	781.00	719.00	686.50	713.50	721.00	737.75	748.25	780.50	834.25	870.00	886.50	911.00	890.75	833.00	823.25	767.75	756.00	763.75	752.50	755.50	784.50	798.50	817.75	853.75	919.25	895.75	916.25	939.25
635.50	642.25	611.50	587.00	577.25	565.25	557.00	550.25	541.50	548.00	552.00	545.00	560.75	543.50	526.00	511.00	513.25	505.75	508.25	527.25	523.75	543.00	552.25	567.50	550.75	540.25	552.00	538.50	521.75	527.00	516.50	504.50	495.25	484.75	477.00	464.00	458.75	456.75	467.00	452.00	462.25	489.25	507.75	516.25	525.25	519.50	500.00	484.75	486.00	494.00	465.75	483.75	485.25	489.25	494.00	499.00	502.50	508.50	509.25	511.00	503.25	533.75	551.25	553.75	540.50	550.00	556.50	572.75	588.50	606.50	635.00	646.00	633.50	645.75	647.50	653.00	660.00	658.25	694.50	632.75	586.50	566.25	606.00	668.25	609.00	612.25	569.75	553.00	579.00	552.75	548.75	618.00	667.50	726.25	785.25	773.00	791.25	759.00	636.50	615.50	611.25	606.00	603.75	593.00	581.75	560.75	551.75	526.75	526.25	554.50	579.50	584.75	550.00	561.75	563.50	590.75	583.25	633.00	668.75	770.50	749.25	727.00	742.75	776.75	724.50	735.75	723.25	728.50	691.50	699.50	706.75	748.50	806.50	786.75	812.50	812.25	818.00	802.75	757.75	770.00	808.50	812.00	823.00	789.50	819.75	843.75	835.75	823.25	831.50	781.50	752.25	744.00	741.50	777.50	734.00	691.75	663.50	657.25	647.50	641.50	626.75	610.25	586.00	609.50	633.75	663.75	678.75	633.25	641.25	625.00	642.50	686.50	721.25	814.50	882.00	852.50	792.25	763.25	820.00	740.50	701.00	691.50	682.50	665.75	660.00	659.75	647.50	655.50	621.50	675.75	717.75	669.50	660.50	631.50	657.25	704.50	733.00	692.25	693.25	662.00	676.50	683.00	697.25	728.25	751.00	800.75	794.75	760.00	737.25	750.75	764.00	790.00	801.75	776.25	763.00	794.25	833.00	838.00	821.00	837.50	804.50	791.75	771.50	744.25	761.75	803.75	821.50	804.00	763.75	718.25	684.50	731.00	754.00	759.00	758.25	781.25	841.25	848.25	859.50	880.25	879.00	814.25	828.75	776.25	749.50	744.75	744.75	782.50	825.50	840.00	833.75	880.50	921.25	918.50	857.25	921.75
642.00	621.50	603.25	588.25	579.00	571.25	566.00	557.25	559.75	567.50	558.00	561.25	550.25	535.00	522.00	488.75	494.25	498.75	516.00	518.00	524.25	529.00	538.00	567.75	566.00	554.25	552.50	546.25	537.75	527.00	509.75	505.00	493.00	491.50	492.75	481.75	472.25	457.00	452.00	464.25	477.25	497.25	507.75	509.50	508.25	510.75	496.50	483.00	478.50	472.75	464.75	482.75	477.75	480.25	487.00	495.50	503.00	510.00	512.00	516.75	510.25	515.00	522.50	534.50	535.25	555.75	568.25	571.25	592.25	617.75	640.25	623.25	616.75	636.75	641.25	676.00	717.75	737.00	721.25	649.75	600.00	601.75	649.25	767.75	670.25	623.50	602.50	563.00	580.75	550.75	556.75	598.00	660.00	680.75	745.75	790.25	806.75	741.50	642.00	585.75	564.75	556.25	560.00	560.00	544.75	545.25	525.00	517.75	519.50	533.50	542.25	537.50	540.50	578.75	591.75	629.75	596.00	612.00	647.00	695.25	716.25	702.00	799.00	815.75	767.50	766.00	719.00	742.25	710.00	689.00	711.25	761.75	819.50	814.50	813.00	791.75	783.00	770.25	749.00	752.50	788.50	787.25	804.25	775.00	791.25	815.75	843.25	808.75	813.25	792.50	776.75	745.00	732.75	752.50	749.75	714.00	685.50	669.00	648.50	629.50	620.50	619.25	587.25	600.00	637.75	673.75	637.25	611.50	622.00	640.25	658.25	767.25	866.25	950.75	972.75	967.00	899.25	785.75	749.75	720.50	702.75	694.25	689.50	685.25	676.75	663.00	669.75	630.25	632.00	662.00	698.25	630.00	621.00	634.50	684.50	723.25	771.75	730.00	729.25	688.50	680.00	707.25	713.75	736.50	772.00	790.25	789.00	769.25	742.75	732.50	767.75	772.25	766.00	755.50	769.75	786.75	827.00	823.25	804.25	813.75	805.50	794.00	783.00	747.50	762.50	788.00	787.75	768.00	731.75	705.75	688.75	717.75	771.50	796.00	810.00	801.00	834.50	867.00	832.50	835.25	824.50	785.75	820.75	775.25	764.75	730.00	760.00	803.75	875.75	874.25	869.00	897.75	864.75	844.25	848.75	877.75
638.25	636.50	617.50	605.25	590.50	580.00	575.25	572.00	574.50	584.75	574.25	572.25	534.50	516.50	508.50	486.75	489.25	510.50	516.50	513.50	517.25	519.50	531.00	569.75	581.25	561.75	555.75	550.00	537.00	522.25	506.00	498.00	487.00	485.75	488.25	486.50	484.50	472.75	451.75	467.75	480.50	502.00	499.00	500.25	491.50	504.75	501.75	490.50	475.75	480.50	462.50	482.00	474.00	482.25	488.75	492.50	504.00	512.50	518.50	526.00	532.00	534.75	535.50	539.00	548.75	532.25	563.00	577.75	601.50	610.50	614.50	592.50	623.50	664.50	681.50	704.00	745.50	758.50	738.75	700.00	630.00	628.00	678.50	725.00	682.25	625.50	611.75	573.50	592.75	588.00	599.50	605.50	583.50	620.25	705.25	794.00	812.00	757.50	620.00	593.75	588.25	557.75	554.25	536.75	535.00	534.00	518.50	527.25	524.00	523.00	534.25	540.50	549.50	553.00	575.00	664.25	649.25	647.50	668.25	722.75	784.25	726.50	827.00	816.00	776.25	739.25	744.00	753.50	713.50	690.25	709.25	740.00	797.75	810.50	807.50	782.75	766.50	771.25	759.75	729.00	754.75	783.75	781.75	760.00	770.25	814.75	832.50	799.50	788.50	807.50	788.50	771.00	746.25	738.75	778.75	751.75	692.75	664.25	652.75	620.50	604.25	592.50	605.00	631.25	641.00	655.50	613.00	618.00	643.25	665.50	686.00	867.75	938.25	985.00	1009.50	1015.25	981.75	853.50	733.00	738.00	726.75	723.25	712.75	700.25	660.50	650.00	642.00	625.00	662.25	694.50	704.50	607.75	632.00	667.50	707.50	759.25	832.25	808.00	771.00	717.75	697.50	717.50	751.00	751.00	777.75	757.00	755.75	755.50	743.25	728.75	788.50	755.75	766.00	770.00	772.50	808.50	818.25	820.00	791.75	778.50	768.75	759.00	751.50	745.25	776.50	766.75	762.50	757.00	728.50	692.25	720.25	748.00	772.50	822.25	832.75	801.50	819.25	838.25	826.50	807.50	784.75	770.50	790.75	759.00	753.75	742.50	763.75	784.25	836.75	867.25	878.25	844.75	801.00	801.50	864.75	899.00
677.50	674.25	650.25	630.00	606.75	604.75	600.00	590.00	609.50	616.25	594.75	568.25	538.00	528.50	527.00	519.75	504.50	485.50	501.75	505.00	509.75	521.00	532.25	561.50	571.75	554.00	532.75	524.25	516.25	497.75	489.50	488.00	491.00	477.25	467.50	476.25	475.00	467.50	453.50	455.50	472.00	494.50	486.00	478.50	484.25	484.00	487.75	488.25	493.75	477.75	462.50	467.75	480.25	487.75	491.75	496.25	500.75	503.75	509.75	511.50	519.25	534.50	549.50	557.75	570.75	553.50	559.25	565.00	575.25	578.00	583.00	604.50	627.00	692.75	731.00	749.25	758.25	772.75	779.00	760.00	679.00	666.00	712.75	736.75	757.75	756.50	686.75	706.75	707.50	696.00	716.00	742.50	649.25	720.50	728.75	739.00	795.25	767.50	718.50	663.00	616.75	605.00	592.25	592.75	572.25	566.50	561.50	539.00	519.50	520.00	544.25	568.25	606.75	609.75	616.75	611.25	613.75	666.75	705.00	804.75	803.25	775.00	848.75	798.75	770.75	792.75	821.75	799.50	737.50	745.75	765.25	787.00	780.75	777.50	773.25	780.25	794.00	765.00	748.50	723.50	758.00	772.75	766.75	732.25	768.25	793.00	818.75	811.00	776.75	773.25	765.00	747.50	741.50	727.25	768.25	759.00	717.25	669.50	653.00	643.50	627.75	619.00	592.50	595.25	606.25	607.50	601.50	637.50	647.25	662.00	683.75	899.25	955.75	988.75	1010.50	1032.25	1023.25	978.50	784.00	741.25	735.75	717.00	716.25	714.00	651.75	620.25	605.75	599.50	593.75	715.25	654.25	613.75	643.50	688.75	712.50	734.00	811.75	789.75	767.75	770.25	773.25	768.00	783.50	814.75	804.00	744.75	742.75	731.25	701.75	720.50	732.00	756.75	782.00	808.25	786.00	819.50	849.00	821.75	809.25	828.25	800.25	776.50	746.50	747.75	779.00	784.50	755.00	731.25	695.25	681.00	711.25	733.00	742.75	800.50	802.75	806.75	827.50	841.50	845.25	809.00	768.00	744.25	777.75	714.00	703.25	733.25	736.25	798.75	831.25	878.00	844.00	809.50	792.50	783.00	840.50	871.25
650.75	667.00	665.25	645.50	635.25	630.75	619.00	612.00	623.75	638.25	614.00	588.75	555.50	560.25	533.00	509.25	490.25	487.50	512.25	513.00	517.00	525.75	532.00	565.75	570.25	549.75	536.75	517.25	515.25	500.50	483.00	469.00	464.25	450.75	451.75	475.00	461.50	452.50	460.25	455.50	452.25	483.75	478.25	477.50	472.00	468.00	461.75	457.75	475.00	462.00	476.25	485.75	486.75	484.25	485.25	486.25	487.25	490.00	490.50	498.50	516.50	528.00	541.50	551.50	562.25	563.00	547.00	567.75	578.75	599.00	606.50	607.50	626.75	684.50	729.25	745.25	747.50	772.25	776.75	764.75	732.25	757.00	697.75	706.25	774.50	806.00	814.00	807.00	798.75	809.75	796.75	704.75	710.50	788.75	804.75	780.25	779.00	767.25	702.75	656.00	631.25	613.75	619.25	603.25	591.50	557.00	526.50	520.50	513.50	518.00	538.25	553.25	584.75	624.75	630.50	630.25	644.00	713.25	781.00	842.00	783.75	767.00	854.50	852.50	793.50	838.25	821.50	774.50	755.00	801.50	793.25	807.00	778.50	764.75	758.50	745.75	745.50	739.75	714.75	716.00	741.50	735.00	759.00	722.50	783.25	769.75	783.50	809.50	776.50	788.00	770.25	744.00	718.50	717.25	747.00	744.75	722.00	697.50	686.25	656.75	656.75	635.75	596.25	582.75	588.25	624.25	606.00	607.50	625.00	657.75	702.75	908.75	966.75	987.00	1002.25	1036.00	1039.75	1011.50	855.75	772.75	715.00	674.00	673.75	696.00	657.00	621.75	597.75	593.50	597.00	689.25	627.50	664.00	647.75	710.75	751.50	755.50	841.75	810.00	755.00	740.50	757.50	746.00	769.25	797.25	799.75	746.00	725.75	713.50	708.00	731.75	760.25	789.25	782.25	828.75	809.50	819.75	855.50	827.00	817.75	832.00	800.50	775.75	739.25	756.75	800.00	787.50	752.00	737.50	727.50	674.25	681.00	693.25	733.75	780.75	817.75	829.50	829.00	837.50	820.75	779.75	762.25	741.25	734.75	702.50	709.75	746.00	772.25	777.25	782.25	820.25	803.25	786.50	793.00	763.00	796.00	839.75
611.50	619.75	632.00	634.50	640.50	636.25	629.25	633.75	634.75	643.75	631.00	614.00	601.25	581.50	549.25	524.00	492.00	493.75	521.00	517.75	512.00	523.50	534.25	574.00	568.75	538.00	522.50	506.50	515.00	504.50	482.75	466.75	455.00	458.25	459.00	459.00	452.75	466.75	477.25	478.75	464.50	466.75	466.50	478.00	460.25	465.75	470.50	467.75	463.25	467.25	485.75	480.50	475.75	476.00	477.50	479.00	486.50	494.00	497.25	501.25	506.25	511.50	524.50	527.00	535.75	553.75	554.00	572.75	586.00	597.00	624.75	647.25	670.25	700.25	726.25	745.00	736.50	762.00	754.00	750.50	760.50	763.25	762.50	740.00	760.25	802.75	836.75	835.75	818.75	831.00	827.25	783.25	733.25	772.00	800.50	820.75	804.50	710.50	676.25	635.75	617.75	596.50	570.00	554.75	558.00	544.75	507.25	514.25	516.00	521.75	559.00	586.00	597.50	596.25	605.00	666.75	672.75	729.75	840.00	792.25	731.75	755.50	837.25	882.00	867.25	885.25	872.00	826.50	806.00	852.00	826.25	790.75	783.75	810.00	791.75	746.50	721.25	728.00	718.75	707.75	701.00	719.50	736.75	709.50	758.75	765.50	743.50	796.50	786.00	746.75	768.75	749.75	720.25	714.50	728.75	746.50	763.75	721.25	669.50	655.50	637.50	626.25	608.00	600.00	593.25	629.00	644.75	635.50	662.00	661.00	735.00	948.50	977.75	991.25	995.00	1021.25	1039.25	1021.75	898.25	786.50	722.25	690.25	667.25	659.00	624.50	602.75	607.25	607.00	595.75	633.00	609.25	641.75	639.75	711.00	778.75	792.50	815.50	767.00	725.75	722.00	738.50	760.75	771.75	741.25	737.00	705.00	718.50	694.25	712.25	718.50	730.75	769.50	804.00	839.50	839.50	843.75	846.00	808.50	821.50	824.00	800.75	801.25	762.50	756.50	788.00	775.50	773.75	749.25	718.00	681.50	675.50	689.50	730.00	761.00	809.75	797.50	788.00	806.00	826.25	793.25	777.75	773.25	751.50	703.75	707.75	746.25	771.00	757.00	803.50	826.50	774.50	765.75	777.00	767.75	783.00	790.00
569.75	570.50	584.75	592.00	619.75	603.50	593.00	606.00	605.75	614.75	632.50	629.25	611.25	577.25	539.50	512.50	487.50	491.75	517.50	510.00	508.50	521.50	528.75	581.00	571.25	545.75	527.50	513.50	500.25	510.75	495.75	481.25	452.00	467.25	477.25	470.00	470.25	472.75	483.75	478.50	468.75	474.75	458.50	455.75	458.00	480.00	496.00	491.75	479.75	465.75	464.50	467.75	472.50	475.25	479.75	484.50	483.75	490.50	495.50	506.75	511.25	510.75	508.75	523.50	532.25	540.00	559.25	562.00	573.25	577.75	606.50	648.00	691.75	725.50	746.00	745.00	720.00	744.00	724.75	741.00	744.75	750.25	778.50	793.25	790.75	788.25	836.75	839.25	812.50	829.50	839.00	797.25	768.50	786.75	799.75	808.75	801.25	680.25	631.50	611.25	605.25	580.50	572.75	567.75	557.50	531.00	512.25	508.50	526.50	529.50	587.50	590.00	564.00	594.75	596.00	675.00	650.50	681.75	744.25	684.00	707.75	743.50	843.50	896.25	912.00	913.50	913.00	883.00	869.00	866.75	811.50	825.75	806.50	836.75	769.75	747.25	738.50	760.75	745.00	724.00	695.25	696.25	723.00	699.25	736.75	741.75	725.00	786.50	783.25	734.25	745.50	751.75	733.25	710.00	724.00	739.25	754.00	735.75	673.25	648.25	649.75	633.00	603.00	574.50	587.25	628.75	628.25	618.25	626.50	664.00	721.75	945.00	972.00	991.75	990.25	1001.75	1024.50	1012.75	886.75	775.75	736.00	699.50	695.75	664.00	661.25	628.25	639.25	631.75	614.00	605.25	648.75	696.00	717.25	719.25	800.75	794.75	767.50	761.75	709.00	739.00	776.75	771.00	773.25	712.25	690.50	711.50	701.50	689.50	725.00	733.00	745.50	743.50	750.00	793.00	806.25	835.50	848.00	802.25	790.00	809.75	805.50	809.50	760.50	722.75	746.00	778.75	795.00	750.25	723.75	688.00	663.00	692.75	723.25	748.25	753.50	756.50	746.00	762.75	805.00	790.00	809.00	769.75	759.75	699.75	702.75	763.75	750.75	730.50	801.75	766.50	744.75	744.50	768.00	804.75	836.00	822.50
604.00	587.25	560.75	561.25	573.50	566.25	552.50	562.50	565.25	581.50	593.25	588.00	583.75	571.50	536.75	514.00	496.50	481.25	495.50	493.50	494.75	510.75	526.50	570.75	551.00	527.00	512.75	501.00	487.75	504.50	481.75	480.75	452.50	460.25	473.25	474.50	484.25	487.00	496.50	485.50	470.50	474.75	470.25	455.75	467.75	484.00	500.75	509.25	491.00	478.75	469.25	478.50	483.50	482.75	488.00	493.25	492.75	492.50	495.25	503.25	510.75	515.00	519.50	530.00	540.50	546.00	559.00	570.25	599.50	596.75	602.00	632.50	671.00	713.25	746.00	748.50	721.75	705.00	719.75	724.50	715.00	747.00	771.75	789.75	817.75	815.25	838.75	824.25	808.25	835.00	846.50	815.50	794.75	794.50	750.75	736.75	704.75	718.25	663.00	616.75	586.50	602.00	592.75	581.00	558.75	535.00	527.25	506.75	512.25	530.25	543.75	538.25	550.25	633.25	644.25	622.75	617.75	654.00	686.25	765.50	807.00	808.25	874.75	903.50	892.25	893.75	916.00	916.00	891.50	886.25	833.25	845.50	849.00	806.75	756.00	782.75	755.50	769.75	769.25	745.50	692.75	686.00	706.50	689.50	721.00	699.50	723.75	764.50	773.25	728.00	720.50	741.50	733.00	703.25	716.25	725.75	735.50	686.00	648.00	626.75	630.50	638.25	615.50	599.00	587.50	610.50	602.50	611.00	627.00	655.25	701.50	836.75	925.00	979.75	993.50	991.75	1011.75	1012.75	913.50	781.50	727.75	725.00	713.00	693.75	664.25	608.00	604.00	597.00	605.50	658.25	703.75	720.00	763.25	769.75	799.50	723.25	714.25	696.50	707.25	718.75	757.75	741.50	741.00	704.75	688.75	684.25	681.50	688.25	722.00	728.75	746.00	770.00	777.25	781.00	809.50	834.50	844.75	787.25	769.00	781.75	778.25	759.25	740.50	722.25	769.00	792.75	795.00	748.50	713.50	689.00	661.25	673.25	714.75	715.50	726.25	749.50	775.00	802.00	791.25	767.50	763.00	750.50	717.25	691.75	729.75	757.50	732.75	719.00	767.25	792.50	780.75	777.00	796.25	813.75	849.75	820.25
593.00	603.00	591.50	566.75	548.25	539.00	531.25	535.50	546.25	542.50	551.25	553.25	559.25	574.75	551.75	524.50	510.00	510.00	479.00	488.25	484.50	505.75	518.50	570.50	562.50	534.50	520.25	503.50	478.25	489.75	477.25	461.75	449.25	454.25	463.75	472.50	484.50	487.25	494.00	491.00	474.50	472.00	468.50	473.25	459.75	480.00	499.75	512.75	512.25	495.00	477.50	469.25	478.25	484.50	490.00	495.25	502.25	502.00	502.00	506.75	513.25	521.00	528.75	534.00	550.25	578.50	576.00	579.75	612.00	622.50	617.50	644.25	686.00	722.75	743.75	738.75	718.00	688.50	717.25	694.50	730.50	752.75	755.00	779.25	830.25	843.25	818.75	798.75	813.50	835.75	852.00	832.25	807.00	794.00	700.00	647.00	633.75	670.50	647.00	611.00	582.50	595.50	593.50	575.25	573.00	561.75	553.00	506.75	511.50	522.00	534.50	536.75	547.25	568.25	587.00	594.75	638.50	674.25	715.25	838.00	884.50	881.00	899.00	898.25	877.75	896.50	916.50	917.25	889.25	896.75	877.25	880.25	900.75	802.75	769.25	810.00	769.00	766.75	743.25	712.50	707.00	680.25	673.00	670.00	674.25	702.00	740.25	757.00	771.75	717.75	704.50	713.00	710.25	689.75	743.50	751.25	757.25	676.75	627.75	623.00	598.50	621.50	607.25	581.00	588.75	614.25	637.00	619.25	642.50	632.50	670.50	745.00	890.75	960.00	990.75	988.25	1004.00	1007.00	910.75	793.00	760.00	747.00	735.75	714.25	643.25	646.75	629.25	593.00	593.75	759.00	735.50	753.75	741.25	742.50	809.50	731.00	665.25	679.75	734.50	745.50	746.00	715.25	733.25	694.75	665.25	690.50	714.25	711.00	697.50	707.50	725.25	748.75	806.00	829.75	832.50	832.00	840.25	799.50	784.00	772.50	781.25	764.75	733.50	723.25	747.50	775.25	779.75	767.00	736.75	707.75	673.00	663.00	688.25	705.00	716.50	727.50	756.25	786.25	775.75	749.50	728.75	711.00	714.50	718.50	735.00	743.00	708.25	719.00	728.50	775.25	781.00	788.25	816.00	823.50	822.75	817.00
571.00	567.00	572.00	578.50	587.75	579.75	575.00	551.00	534.00	527.00	524.25	527.50	538.00	559.50	549.50	517.25	515.25	518.00	500.25	485.50	475.50	512.25	530.75	572.25	560.75	525.25	511.00	505.25	487.75	474.00	480.25	465.25	464.75	456.00	452.00	464.00	472.25	478.50	488.00	494.50	481.75	483.75	478.75	485.00	468.25	466.75	479.25	499.75	510.50	499.25	488.50	479.50	474.50	480.50	482.50	490.25	497.00	506.00	511.00	514.00	524.00	534.25	542.75	551.50	572.25	605.50	596.50	601.00	626.25	645.25	643.75	652.50	680.50	720.25	729.50	707.25	681.50	678.25	690.25	704.75	742.00	773.50	775.25	801.75	816.00	832.25	797.00	779.25	812.50	826.75	826.50	843.75	820.25	782.50	711.75	619.50	597.50	610.75	611.25	594.25	566.75	584.75	585.75	580.75	564.50	566.50	535.00	505.00	523.00	537.50	529.50	555.50	588.25	608.75	591.25	624.25	650.25	712.00	757.50	868.25	898.75	896.25	898.25	876.00	897.75	915.50	918.50	917.75	895.75	883.00	882.75	895.25	898.25	824.00	780.00	812.50	766.00	778.50	769.00	730.25	709.75	715.25	688.00	691.75	668.00	692.75	723.25	723.50	757.75	737.50	722.00	697.25	687.25	689.00	745.50	762.75	752.00	697.25	643.50	619.25	597.25	598.25	580.50	579.50	594.50	602.25	636.00	639.00	648.25	661.00	686.75	750.25	833.00	930.75	978.00	973.75	989.25	985.75	864.75	753.75	776.50	760.25	738.25	721.00	676.50	685.50	698.75	641.75	630.25	674.00	668.25	727.00	699.50	712.25	802.00	761.25	665.00	676.50	726.25	753.25	744.75	708.00	708.50	685.00	664.25	707.25	728.25	741.00	735.00	714.75	715.75	744.50	774.00	778.50	804.75	821.50	806.75	804.50	775.50	752.25	747.75	737.75	713.50	720.25	743.75	760.75	782.50	770.50	715.50	692.25	676.75	653.25	688.25	702.00	695.25	717.50	740.25	767.75	807.50	805.00	775.75	723.00	696.75	711.00	705.50	713.50	727.75	738.25	742.25	759.50	786.25	805.75	812.75	828.00	848.50	841.25
580.25	567.25	546.50	561.75	585.75	601.75	608.25	582.00	560.50	543.75	512.25	505.75	520.50	537.75	548.25	530.00	510.25	499.00	507.25	484.00	474.00	507.00	529.25	549.25	551.75	516.50	495.75	484.50	473.75	464.00	479.50	471.25	467.50	459.25	453.75	469.00	472.25	481.75	487.75	488.50	488.50	494.75	494.25	494.25	477.00	480.75	470.50	482.50	487.50	494.00	497.00	488.50	486.00	492.25	486.00	479.75	489.00	507.00	513.00	514.00	519.00	528.00	535.00	554.75	581.50	623.00	623.25	617.75	647.75	671.50	684.50	700.00	708.00	725.50	722.50	686.50	651.50	708.50	736.00	724.75	731.25	790.00	808.50	813.50	808.00	829.50	790.75	764.00	801.75	813.50	806.00	858.50	837.00	771.00	678.00	632.25	594.25	568.50	557.50	573.00	563.75	585.75	569.75	552.00	530.75	527.50	515.75	528.25	540.50	530.50	530.25	574.00	634.25	644.50	621.25	645.25	693.50	758.50	784.50	879.00	900.25	880.75	869.75	877.75	912.25	919.75	898.00	902.50	915.00	910.25	908.00	879.00	889.50	804.00	788.25	804.00	784.00	802.00	779.50	735.00	739.50	740.75	714.75	708.50	684.50	660.25	704.75	707.00	724.75	739.00	720.25	701.75	689.75	682.00	733.75	742.50	724.75	664.00	644.75	646.25	629.00	601.25	571.25	603.00	635.75	634.50	604.75	633.50	643.00	663.75	709.50	709.75	715.50	841.75	945.50	929.75	948.00	942.50	798.75	720.50	792.25	782.00	759.75	731.50	714.75	700.75	718.25	695.75	669.00	661.75	613.75	691.25	654.25	696.25	784.00	734.00	719.75	639.00	694.25	724.75	725.00	707.75	672.75	661.00	670.00	706.00	742.25	742.50	754.75	744.50	731.00	726.75	740.50	757.50	799.25	830.00	791.75	782.25	789.50	751.50	747.50	751.25	698.75	700.75	727.50	779.50	793.25	746.00	714.00	699.50	713.50	672.25	659.25	698.75	707.50	728.00	736.75	791.75	853.50	836.00	769.75	729.00	708.25	697.75	731.00	748.75	754.75	767.25	776.50	782.00	778.50	791.00	819.75	832.50	866.00	895.75
557.25	578.25	556.25	529.50	538.50	559.25	572.75	563.25	543.50	546.00	543.00	530.75	509.00	515.75	537.75	532.75	526.00	507.75	481.50	488.25	500.25	510.75	511.25	536.00	552.00	531.00	505.25	489.75	484.75	468.50	470.75	474.50	465.50	452.50	455.75	462.75	460.75	469.00	472.50	470.50	473.50	495.00	506.50	508.00	488.75	495.75	485.25	473.50	485.50	485.00	495.25	499.00	500.50	507.75	497.75	485.75	488.25	509.25	509.50	512.75	521.75	532.50	539.50	560.25	588.00	624.25	653.00	655.00	658.75	681.75	695.50	705.75	719.75	725.50	712.25	681.75	646.25	704.25	734.25	741.50	751.00	777.50	811.00	820.50	790.25	813.25	795.50	770.75	758.50	769.00	794.00	853.50	841.50	802.75	703.50	634.50	604.00	578.25	562.50	548.00	563.50	580.25	588.00	574.75	564.00	549.25	509.50	527.25	526.00	517.75	555.25	585.50	612.50	647.25	648.00	645.00	760.75	801.75	846.75	882.50	877.00	858.00	864.00	882.50	915.75	922.25	892.00	898.50	924.75	926.50	918.00	879.75	868.75	851.00	844.75	845.00	832.75	792.00	738.75	725.00	714.00	711.50	729.00	725.50	685.75	654.75	674.75	691.00	710.75	741.00	731.00	708.00	694.75	675.25	706.00	720.00	706.00	646.75	620.75	630.25	603.75	577.00	573.00	584.25	620.25	646.25	650.50	641.25	669.50	693.50	722.25	684.50	702.25	764.25	804.00	851.00	860.50	853.25	726.50	703.00	754.25	753.00	746.00	731.25	718.50	694.75	683.50	688.50	665.50	630.50	605.75	623.00	647.25	718.00	756.75	726.50	663.00	683.25	646.50	681.00	671.50	671.25	673.25	674.00	682.25	698.00	714.00	727.25	740.25	759.75	768.75	745.00	760.00	785.25	808.00	804.25	780.25	758.00	767.50	758.50	728.75	719.25	691.75	706.00	716.50	752.00	787.25	753.75	720.75	690.00	679.75	659.50	667.00	693.50	700.50	716.00	733.00	741.50	850.25	838.75	751.50	710.00	698.00	733.50	759.25	782.25	783.25	792.00	794.50	803.75	797.25	815.50	838.00	852.00	863.50	896.50
535.25	559.00	535.00	510.00	512.50	530.25	548.25	545.75	526.00	539.75	556.00	543.75	516.75	503.75	527.25	529.75	527.75	508.25	483.25	501.50	510.75	505.75	504.75	535.50	550.25	533.00	502.25	480.75	481.25	472.75	459.50	474.75	467.25	452.00	452.50	455.00	455.50	468.50	468.00	462.25	471.25	493.25	512.50	515.25	496.50	501.25	491.00	475.00	491.00	489.50	493.75	502.50	511.75	520.00	505.25	493.75	484.75	501.00	500.00	506.00	517.25	538.00	551.00	557.50	583.50	627.00	664.25	668.25	671.50	684.75	692.50	700.00	719.00	724.00	706.75	678.50	644.25	694.50	717.00	725.50	754.50	788.00	814.50	817.00	782.25	806.00	788.25	778.75	747.00	738.00	785.75	836.25	838.00	795.00	692.50	628.75	613.25	582.00	566.75	549.50	564.25	574.25	589.00	583.75	581.50	545.50	509.75	516.25	517.75	523.75	574.75	573.25	584.00	611.75	619.00	655.00	761.25	821.00	868.75	875.25	853.50	843.75	874.75	889.00	919.75	924.75	891.50	898.50	925.00	928.25	918.50	870.25	855.00	880.00	887.75	881.00	843.25	784.75	726.25	712.25	703.50	691.25	704.00	734.00	677.00	651.25	658.75	680.50	720.75	750.75	731.25	715.00	699.50	674.75	693.25	725.50	697.25	650.25	616.25	613.25	606.50	585.75	568.75	587.25	628.75	645.75	680.25	644.75	684.75	720.75	713.50	669.75	700.00	735.25	712.00	772.25	780.50	779.00	708.25	701.25	734.25	723.50	736.00	718.25	714.25	699.00	690.50	690.75	665.00	643.75	631.50	636.75	664.75	693.50	722.00	685.50	635.75	742.00	646.00	654.75	663.00	677.50	679.00	665.50	672.50	695.75	705.75	718.25	733.50	758.25	787.25	768.00	782.75	788.25	793.00	807.25	768.25	755.75	755.75	751.25	744.25	697.50	684.00	703.00	709.50	757.50	792.75	750.75	717.75	689.50	672.50	655.75	668.75	677.50	708.25	719.50	742.25	722.00	822.00	845.00	723.00	703.00	699.75	752.00	766.75	787.50	797.00	788.75	792.50	798.00	809.50	832.25	848.00	853.25	847.50	865.00
551.00	528.00	537.00	534.50	522.00	526.75	520.75	518.75	510.75	529.00	545.50	524.50	517.00	504.75	502.00	510.75	520.25	508.75	485.50	512.50	517.00	492.50	505.50	520.25	543.25	525.00	496.25	487.75	476.25	467.00	452.75	478.50	479.00	463.00	463.00	445.25	458.50	460.50	457.50	463.75	475.25	484.75	495.00	512.75	512.75	498.75	480.00	483.50	487.25	500.50	492.50	498.00	514.00	531.25	519.75	508.00	490.75	497.75	503.50	518.75	527.00	542.75	567.75	572.25	590.25	638.25	648.75	660.50	681.25	685.50	688.50	708.25	721.25	713.00	700.00	672.75	640.25	681.25	683.00	710.25	749.75	791.25	798.25	780.00	790.75	804.50	757.75	763.00	742.25	734.50	762.50	799.25	816.50	764.75	675.25	601.75	585.00	575.50	564.00	549.25	578.75	573.50	574.25	559.00	570.75	526.50	509.75	532.00	531.75	520.00	535.00	542.75	566.75	587.00	601.25	705.75	782.25	851.75	867.50	847.25	833.25	852.50	896.25	908.75	924.50	925.25	892.00	890.75	916.75	923.25	920.25	881.75	872.75	850.00	888.25	869.50	829.25	789.25	755.25	740.50	729.00	703.00	679.00	684.75	672.00	649.00	653.00	681.25	701.25	772.25	747.75	710.25	687.75	671.25	701.75	722.50	671.50	635.00	634.50	611.75	589.50	576.00	572.00	584.75	636.50	665.25	670.75	676.00	698.50	692.50	674.25	660.75	679.00	715.00	709.75	683.25	683.50	707.25	716.25	696.75	723.00	684.00	722.25	746.00	730.75	712.25	728.00	725.75	700.25	708.00	703.50	642.00	631.75	637.25	705.50	641.75	641.00	726.75	667.75	684.25	708.25	750.00	716.50	683.00	681.50	685.25	703.50	730.50	739.50	754.75	781.25	784.75	772.00	761.00	755.50	776.00	784.75	745.00	763.25	712.25	720.25	696.00	685.00	727.75	744.00	737.00	742.50	731.00	698.50	683.00	677.00	653.00	663.00	665.00	704.75	734.75	716.25	697.75	805.50	864.75	761.75	694.50	773.75	746.25	747.50	748.25	763.25	761.50	765.25	774.75	798.00	814.75	840.25	865.50	830.25	849.50
578.00	554.50	558.50	541.75	539.00	533.75	505.50	517.00	501.00	501.50	516.25	489.25	495.50	510.75	490.75	490.25	498.00	498.75	481.25	498.00	476.75	480.50	494.00	511.00	535.25	526.75	509.50	504.75	483.00	472.75	448.50	466.00	482.00	472.25	460.00	449.25	460.75	452.25	454.00	456.50	461.50	468.75	475.25	503.75	523.75	501.25	483.75	494.50	489.00	502.00	499.50	502.75	514.50	541.50	536.75	519.75	498.25	509.75	524.50	537.25	543.25	549.75	566.00	592.50	606.00	617.00	642.25	664.00	676.75	667.25	678.75	703.00	713.50	703.50	678.75	670.25	637.25	658.75	682.00	714.75	754.00	792.00	801.50	772.50	802.75	803.50	748.50	727.25	723.50	757.75	775.75	778.50	779.25	748.50	669.00	604.50	584.00	560.00	545.00	542.50	571.00	563.75	542.75	532.00	576.25	556.75	527.00	507.50	513.00	517.50	536.75	541.00	553.50	582.75	621.25	709.75	782.25	832.50	824.00	806.25	836.25	869.00	904.50	907.25	901.75	917.25	890.75	878.25	902.75	907.25	896.50	901.25	890.50	839.25	881.25	860.50	809.00	782.75	736.00	714.75	710.00	714.25	674.25	668.00	646.50	636.00	655.75	703.25	717.25	769.50	740.50	708.75	705.50	678.75	700.50	716.25	689.75	625.50	632.50	619.00	583.00	562.25	577.25	601.50	641.50	649.25	643.25	682.50	678.75	696.50	637.25	663.75	695.00	723.25	714.25	681.75	668.50	687.25	686.00	698.75	699.25	674.75	710.25	760.25	738.75	737.75	745.75	739.50	740.50	785.50	736.50	624.50	604.50	725.75	726.00	672.50	677.00	699.25	695.50	719.75	744.00	793.50	742.25	717.00	703.75	692.00	714.75	719.25	752.00	763.75	776.00	778.75	794.00	767.25	749.00	728.75	767.75	732.75	767.25	731.50	689.50	668.00	689.50	724.50	732.50	708.00	742.75	756.75	706.25	682.00	663.50	647.50	650.00	662.00	689.50	728.50	719.00	687.75	741.00	790.50	748.50	676.25	694.00	707.75	719.50	737.00	744.00	753.75	772.00	781.25	786.75	809.25	830.00	830.00	799.00	811.50
593.75	582.75	566.25	547.00	569.00	553.00	529.50	546.00	526.50	509.25	495.50	503.00	499.75	489.00	495.75	482.50	476.50	484.00	479.75	480.00	469.75	474.25	477.00	499.75	513.25	510.50	513.75	494.50	481.25	478.75	458.75	446.25	467.75	467.00	456.75	449.50	449.00	454.75	466.25	465.00	474.25	481.00	482.50	507.25	511.25	496.75	500.75	507.00	497.50	504.50	512.75	519.25	521.00	536.75	546.50	538.50	518.50	506.75	531.00	531.75	537.50	554.50	574.00	597.25	594.50	626.75	658.50	671.75	663.50	647.75	674.50	695.25	693.50	680.50	672.75	654.75	632.25	665.50	679.25	703.75	735.00	773.75	780.50	761.75	783.50	791.25	754.75	714.00	748.75	777.00	801.75	755.25	723.75	684.00	644.50	611.00	598.50	578.25	562.25	543.25	555.25	565.25	555.25	534.25	542.50	558.75	505.75	515.25	521.50	536.75	542.50	574.50	556.50	577.00	600.00	698.00	765.50	798.00	769.75	829.00	848.00	871.25	908.00	893.75	884.25	902.00	889.00	861.25	886.75	885.75	865.25	872.25	874.50	837.50	868.75	849.75	788.25	757.00	729.50	718.50	684.25	673.75	668.00	682.50	662.00	634.25	660.50	687.00	707.00	753.00	751.00	722.75	698.75	669.00	686.50	695.75	682.50	625.25	609.50	592.75	577.25	570.25	592.25	617.00	618.50	632.50	654.00	665.75	645.25	647.50	644.75	678.75	695.00	725.75	710.50	672.50	659.25	664.00	697.75	716.00	670.75	665.25	688.75	745.75	730.75	721.50	740.25	758.00	746.25	707.75	687.00	663.00	611.25	661.00	704.00	721.50	714.75	720.50	728.50	732.25	809.00	817.50	768.75	784.50	713.00	713.75	743.25	712.50	727.00	731.00	749.00	782.25	779.50	767.25	751.50	750.75	737.75	737.00	731.00	734.75	714.75	695.50	675.00	682.00	691.75	722.00	725.75	734.75	714.75	713.00	692.25	652.50	667.25	679.00	693.00	703.00	721.25	703.00	667.50	679.00	667.50	695.75	711.00	709.75	719.00	747.50	752.50	767.00	773.25	775.50	787.00	796.25	785.75	785.75	814.00	845.25
609.25	598.00	562.50	572.50	587.00	570.75	551.00	557.50	540.25	524.75	525.50	543.25	516.25	520.00	521.50	503.25	505.50	506.50	483.00	475.00	476.25	484.00	470.25	491.50	487.25	495.25	506.25	483.75	460.00	453.25	456.00	444.25	455.75	451.75	444.00	442.25	455.00	457.00	468.00	468.25	481.25	492.75	493.50	515.50	513.25	504.25	511.50	520.00	512.00	509.75	523.75	529.25	536.50	532.00	548.50	551.25	534.75	503.00	509.00	520.75	528.00	558.00	583.50	586.75	586.75	638.50	659.50	674.75	662.75	640.00	664.75	684.00	684.50	672.25	661.50	645.75	628.75	658.00	673.75	702.75	726.75	758.25	751.25	757.25	756.50	755.00	741.00	697.75	753.50	773.25	790.75	741.50	687.75	662.75	633.50	598.00	588.00	577.00	577.75	553.00	543.25	554.25	560.00	548.75	509.75	504.50	509.25	510.25	534.25	551.25	573.75	570.00	579.25	588.75	602.50	643.75	755.00	749.75	814.00	856.00	872.50	890.50	894.50	871.25	855.00	877.25	894.25	866.00	882.25	873.25	852.75	842.25	840.00	859.50	875.00	867.50	819.50	785.50	738.25	739.00	685.50	683.75	692.50	685.75	678.75	640.50	646.00	684.50	707.75	734.25	767.00	722.50	716.50	673.50	708.50	712.00	636.50	617.25	599.25	606.75	579.00	566.75	580.25	581.00	614.50	651.25	632.00	630.25	605.25	632.75	680.00	716.50	705.25	728.50	729.25	703.75	674.00	648.75	685.25	704.75	643.25	659.00	680.50	704.50	698.75	677.75	690.75	767.50	718.25	702.75	725.50	640.75	597.00	675.25	747.00	743.75	747.75	747.50	774.25	756.75	848.25	864.25	785.75	775.50	708.25	730.25	756.50	726.25	737.25	729.75	761.50	794.50	784.75	755.50	766.00	776.00	746.25	711.75	704.50	691.50	691.25	693.75	678.50	668.50	695.25	718.25	700.00	713.25	698.25	705.75	668.75	644.50	677.50	672.25	707.25	687.75	699.75	699.50	674.00	670.00	665.00	671.25	674.50	685.50	692.25	691.50	712.25	739.75	732.50	742.75	759.00	787.00	759.25	789.75	806.50	833.75
617.75	592.50	561.75	579.75	590.50	582.00	570.00	566.00	547.25	541.50	549.50	545.75	520.00	517.00	522.75	534.75	524.25	501.50	506.50	520.50	518.75	470.25	463.75	466.75	480.50	497.00	494.00	479.50	460.25	443.25	438.00	436.75	441.00	446.75	450.50	453.00	465.75	471.50	482.00	487.25	486.75	506.25	521.00	537.75	529.75	509.50	516.00	530.75	524.00	524.25	534.00	536.25	547.50	551.75	557.25	559.00	553.50	534.50	534.75	549.00	557.25	552.50	566.50	578.25	607.75	634.25	657.00	668.50	657.50	632.50	654.00	668.75	662.25	663.75	652.50	634.25	646.75	666.00	673.25	684.25	706.50	729.75	747.50	762.75	745.00	718.50	719.25	689.50	729.00	739.00	775.75	744.75	671.75	636.75	618.75	597.50	581.25	568.75	556.00	549.00	536.25	536.50	561.50	559.25	502.25	515.75	522.25	518.75	528.75	537.25	540.75	534.50	558.25	604.75	617.25	674.25	692.25	735.50	821.25	851.00	863.50	887.25	892.25	882.00	861.50	850.50	877.50	868.75	864.50	884.25	875.00	850.25	840.50	826.00	831.50	835.25	798.00	788.00	744.50	714.00	725.25	717.75	716.50	679.50	664.75	638.75	641.00	682.75	687.00	710.25	740.00	721.00	709.25	667.50	686.25	698.00	652.75	644.75	622.00	613.75	595.00	572.00	563.00	573.00	599.50	600.00	604.50	618.00	639.75	672.75	687.50	687.50	668.50	691.00	716.50	692.25	676.25	652.75	653.50	678.25	640.25	657.25	689.25	668.75	674.00	667.75	694.00	774.00	759.00	661.25	641.00	625.75	607.75	697.75	715.75	721.25	739.75	709.75	748.75	736.75	789.75	844.00	816.50	790.00	722.50	732.75	756.25	736.00	753.00	741.50	755.75	775.25	812.25	782.25	745.00	742.75	735.25	723.75	731.00	714.25	697.50	701.25	676.50	676.25	697.75	690.00	682.00	703.00	678.75	692.00	649.50	639.75	658.00	651.00	666.00	668.50	684.00	662.25	661.00	697.00	698.00	728.00	718.00	723.50	707.25	699.00	710.25	722.00	712.25	727.75	743.75	749.75	774.75	778.75	813.50	833.00
628.50	594.75	576.75	592.00	607.75	605.75	598.75	580.75	570.00	561.50	554.75	546.25	540.25	536.00	527.75	533.50	517.75	525.50	517.00	516.00	499.50	487.50	476.75	455.75	479.50	489.75	498.25	496.00	473.25	454.00	436.00	451.00	469.00	492.50	496.25	481.00	468.00	473.00	476.00	497.00	508.00	525.00	539.00	543.75	528.75	519.00	527.25	532.75	528.25	524.00	521.00	526.00	540.75	553.75	557.00	562.25	562.25	554.75	547.50	563.75	582.75	589.25	594.50	595.50	611.25	641.75	664.50	661.50	629.00	623.75	653.00	664.00	651.75	640.75	634.25	626.75	645.50	656.75	676.25	699.25	716.00	716.75	746.00	739.25	728.50	706.25	682.25	698.50	741.75	757.50	764.50	702.25	650.75	623.25	607.25	594.25	580.25	572.25	560.00	548.00	540.00	529.25	540.25	552.00	511.00	503.50	507.50	541.50	535.50	540.75	551.25	565.00	545.25	581.75	595.50	681.25	774.50	804.75	845.50	865.00	871.75	886.75	896.75	895.25	866.25	837.00	857.25	850.00	864.75	892.25	884.50	854.75	837.25	775.50	819.50	787.75	785.00	762.00	762.25	745.00	755.00	737.00	710.50	661.00	648.50	635.50	624.75	646.25	653.25	709.50	716.75	696.75	712.75	666.25	673.50	683.75	639.75	636.75	622.00	596.25	588.75	567.25	582.75	586.25	581.75	582.25	599.75	610.75	632.75	664.75	635.50	649.25	653.50	694.50	720.00	694.75	697.75	696.25	654.50	633.50	637.75	679.50	722.00	676.75	650.75	653.75	668.25	748.25	764.00	660.00	631.75	605.25	721.00	785.50	712.75	689.00	710.75	711.25	708.50	712.50	748.75	796.50	810.25	800.00	737.00	755.25	762.50	762.00	778.00	770.00	779.75	778.50	786.50	770.00	764.75	756.00	770.75	773.75	773.00	732.75	726.25	718.75	681.75	679.25	677.50	664.50	660.00	664.75	647.00	649.00	640.75	653.50	652.50	660.75	663.25	655.50	652.00	663.75	658.00	664.00	698.00	724.00	749.50	755.50	758.50	725.50	720.75	749.25	736.75	732.50	727.25	730.00	786.00	799.75	789.00	812.25
617.25	582.00	601.00	619.00	628.00	619.50	612.00	591.50	568.50	560.50	543.00	538.00	531.25	530.00	519.75	514.25	509.00	520.25	504.25	492.50	491.00	483.00	479.50	460.50	462.50	470.75	497.50	500.00	472.25	444.75	447.25	466.50	464.25	490.25	509.25	498.75	472.25	459.00	468.00	483.00	497.00	520.75	525.50	537.00	536.00	532.00	526.00	515.00	502.00	497.00	492.50	502.25	510.75	521.75	540.50	549.75	541.50	545.00	559.50	560.00	571.75	594.25	591.00	600.75	623.00	646.75	657.75	656.75	629.75	612.25	633.25	654.25	654.00	641.00	608.25	626.75	632.00	649.75	676.75	691.75	695.00	707.75	717.25	715.50	691.75	678.00	688.75	712.75	746.75	757.50	746.00	691.50	659.25	638.50	622.25	604.50	591.25	567.25	558.50	543.50	531.25	528.00	519.25	525.00	508.50	507.00	503.25	525.50	536.75	551.75	576.00	589.50	565.75	607.25	628.00	711.75	779.50	809.25	829.50	845.00	844.25	873.00	862.75	860.75	836.25	837.25	852.25	828.00	860.25	888.25	886.50	861.75	839.75	811.25	784.25	780.00	756.00	738.50	754.75	731.00	730.50	702.00	697.00	693.50	666.00	660.25	634.50	621.00	651.25	673.25	709.50	667.25	651.75	645.50	699.00	692.00	625.00	611.75	601.25	599.75	616.50	588.00	558.25	577.75	604.25	618.00	626.25	603.25	606.75	614.75	653.25	689.25	674.25	695.50	707.75	680.00	663.50	652.75	649.75	627.50	615.25	668.75	726.00	712.00	647.25	639.00	662.50	723.00	731.50	682.00	643.50	634.75	721.00	698.75	673.50	695.50	722.25	736.50	750.00	722.50	737.25	788.75	812.50	838.75	767.50	766.00	788.50	794.25	797.25	791.50	802.00	771.50	777.25	715.50	747.25	761.00	728.50	780.50	751.25	730.25	729.00	715.50	685.00	643.75	665.75	643.25	657.25	660.50	668.00	676.25	660.25	660.50	691.00	696.00	710.75	692.75	660.50	691.75	700.25	673.25	673.25	712.00	717.50	751.50	767.00	763.50	743.50	769.75	769.25	757.25	749.00	741.25	755.25	757.25	798.25	827.00
597.75	595.75	610.75	632.25	634.25	605.50	590.25	574.50	544.00	540.00	526.50	516.75	507.25	515.50	506.00	495.75	493.75	492.00	492.25	515.00	524.50	513.50	514.00	462.75	458.25	457.50	476.75	496.50	486.50	465.50	439.25	447.50	458.25	486.75	493.25	480.00	457.75	464.50	479.00	492.25	507.50	511.25	507.25	523.00	536.75	521.50	512.00	503.00	481.50	478.75	477.00	483.50	496.25	500.50	523.50	527.00	532.00	562.00	577.75	580.00	560.75	570.75	579.50	601.50	624.25	642.25	639.50	637.00	629.00	605.50	623.25	635.75	633.75	623.75	604.50	636.25	652.50	656.75	655.50	675.75	703.50	702.25	691.00	702.50	673.25	646.00	689.75	708.25	745.00	743.00	700.25	685.25	656.75	620.00	600.25	581.25	568.75	560.25	551.50	536.50	532.75	534.75	528.50	512.00	519.75	522.00	520.75	546.50	548.00	568.00	575.75	609.00	584.00	601.75	678.25	765.25	787.75	807.25	810.25	810.75	828.25	855.25	856.50	829.50	819.25	845.25	846.50	817.75	863.75	883.25	861.50	846.00	858.75	820.00	838.75	822.75	760.25	732.75	718.25	721.75	697.75	657.25	648.25	690.50	671.75	668.75	632.00	616.50	648.50	675.50	704.75	690.50	673.25	655.25	674.25	700.00	650.25	614.25	590.25	572.75	580.50	568.00	572.00	586.25	615.50	640.25	635.25	626.00	628.75	609.00	669.00	727.75	721.00	694.25	679.00	671.50	690.25	658.50	612.50	603.75	595.00	628.00	666.00	717.50	659.00	639.75	659.75	708.25	738.25	671.50	709.50	623.50	622.75	714.00	711.75	724.50	717.75	758.00	750.50	744.50	730.25	750.25	780.50	828.75	774.25	794.25	805.75	806.00	782.25	787.00	805.75	750.75	761.00	723.50	711.50	722.00	695.00	744.00	729.50	692.25	704.75	713.25	695.50	632.25	647.75	632.25	634.00	649.75	676.00	693.75	673.75	655.00	685.00	742.00	712.25	723.75	660.00	686.25	722.50	687.00	670.75	685.00	708.75	729.75	729.50	768.50	777.50	782.50	805.75	779.75	792.75	789.50	763.50	786.00	831.00	841.50
625.00	624.25	638.25	620.25	607.75	591.75	577.75	555.25	541.25	538.25	525.50	525.25	526.75	508.50	511.25	522.00	515.00	520.75	509.75	525.50	513.50	496.00	494.00	489.25	476.25	457.00	468.25	488.00	480.25	477.75	448.25	442.25	471.75	484.25	473.50	457.50	452.00	461.00	467.50	490.25	510.00	504.50	485.75	505.75	508.50	496.00	502.00	497.25	489.50	478.25	490.00	508.00	526.75	536.00	531.50	529.75	539.25	554.25	564.00	580.25	583.00	574.25	584.25	615.75	635.75	644.25	628.00	615.25	607.50	604.25	620.75	609.00	600.75	597.50	603.50	643.50	662.75	680.00	683.75	689.25	700.00	694.75	676.25	680.50	651.75	654.25	685.50	706.25	740.50	744.50	706.75	652.50	636.00	623.25	600.00	596.50	587.25	562.00	560.50	561.75	565.25	556.50	536.75	506.50	534.50	542.00	529.50	534.00	532.25	552.25	582.75	613.25	629.75	652.75	713.00	771.25	786.00	794.75	810.00	819.50	836.75	859.00	843.75	818.25	826.50	848.75	832.00	802.75	868.25	866.75	826.25	804.50	835.00	850.25	856.50	828.50	788.00	762.75	732.00	710.25	688.25	660.75	681.25	674.75	641.25	657.75	640.50	616.00	612.75	651.75	680.50	674.75	678.00	642.25	665.00	675.25	646.75	616.50	598.00	595.00	573.00	549.00	571.50	586.25	619.75	647.00	659.00	634.50	661.00	617.00	648.00	683.25	701.00	708.25	683.00	684.00	676.00	666.50	643.25	648.25	604.50	607.25	676.00	673.25	629.25	643.50	671.00	723.75	744.75	689.75	721.50	640.50	669.75	708.25	753.00	743.00	737.25	769.00	772.25	748.75	748.00	784.75	797.00	802.25	757.75	756.25	777.25	773.75	754.25	779.75	800.50	738.50	713.75	696.25	692.25	727.00	687.75	688.75	714.25	679.00	683.75	675.50	681.50	637.75	643.00	669.50	671.75	659.00	681.50	705.50	703.75	672.00	689.75	725.75	731.50	741.75	679.50	703.25	709.50	698.75	694.25	682.50	684.75	709.50	704.75	731.00	741.25	768.00	812.50	795.75	823.00	812.75	759.75	761.50	811.75	815.00
636.00	631.50	623.00	594.75	594.25	567.00	554.25	542.75	567.00	573.00	545.25	541.50	531.75	513.75	524.75	534.00	520.75	522.25	517.75	526.25	522.00	508.00	488.75	480.00	468.50	449.50	450.00	475.00	470.50	455.50	439.00	444.75	477.25	465.25	454.50	442.75	460.25	461.00	464.00	488.75	501.75	497.25	481.25	486.25	499.00	480.25	487.25	482.75	473.00	471.75	492.75	502.00	520.75	536.75	532.75	547.00	558.50	570.50	574.50	577.00	589.00	591.50	586.25	610.00	636.50	646.25	637.00	621.50	586.00	612.25	608.25	579.00	594.00	614.75	619.75	645.25	668.50	684.75	684.75	674.75	673.50	690.75	676.50	658.50	642.25	673.75	691.25	692.50	721.25	739.00	722.50	666.50	654.75	640.50	613.75	631.25	605.50	596.25	585.75	569.50	567.50	562.25	544.25	504.25	496.00	497.50	506.00	521.25	539.75	569.75	568.00	601.00	705.50	753.00	780.00	797.00	799.25	809.50	824.75	841.50	843.75	841.00	824.75	798.75	841.25	849.00	809.50	800.00	841.50	849.25	816.75	780.00	814.75	826.75	849.25	827.50	798.75	808.00	756.50	728.50	697.50	718.00	696.25	706.25	623.25	642.50	658.25	629.75	613.75	629.75	665.25	676.50	689.00	632.00	671.50	673.00	690.00	644.25	631.50	599.25	583.50	549.00	566.25	594.50	606.00	614.25	646.00	654.50	676.75	644.75	622.25	650.75	664.75	703.25	745.50	769.25	728.50	707.75	681.00	675.00	625.00	584.25	641.00	636.50	650.25	640.50	648.00	721.75	713.00	656.50	644.75	647.75	704.25	733.75	776.00	760.75	755.00	769.25	772.75	768.25	752.75	801.25	814.50	778.00	730.75	724.00	753.50	743.25	762.75	779.75	811.25	758.25	676.75	678.25	710.25	736.50	687.75	657.25	707.75	681.50	653.00	658.50	649.50	631.25	669.50	701.00	707.50	696.25	697.00	712.00	711.00	698.25	701.00	708.00	768.00	758.75	714.25	726.75	743.50	714.75	684.75	691.25	727.75	724.75	718.25	733.25	729.00	759.50	791.00	809.50	829.25	830.50	797.50	772.25	778.00	788.75
601.00	590.25	585.00	577.75	569.75	560.75	560.00	568.75	577.50	588.50	559.00	554.25	534.25	525.50	525.00	528.25	532.00	523.25	500.50	504.00	514.00	501.50	480.75	483.75	458.00	467.50	459.25	459.75	479.00	467.25	436.75	446.25	437.00	437.00	436.75	436.75	442.00	437.75	441.75	463.00	479.00	481.25	484.75	477.00	494.25	472.50	477.25	470.50	470.00	475.50	486.00	499.50	505.50	518.00	535.75	540.50	550.75	567.75	579.50	590.00	594.50	602.75	600.50	612.25	627.25	634.75	627.50	614.75	582.50	599.75	591.50	597.25	618.25	636.25	643.75	657.75	670.25	679.00	675.00	663.25	652.50	676.50	675.00	658.50	643.00	660.50	667.00	674.00	699.50	721.75	736.00	689.00	673.50	638.25	657.25	632.50	612.50	595.50	585.25	576.00	557.00	538.75	542.50	543.00	504.50	497.00	539.25	545.50	548.25	567.50	592.50	626.00	722.50	808.25	807.75	802.50	793.75	814.75	830.25	841.00	843.75	822.00	798.00	785.25	840.75	840.00	784.25	780.75	822.25	827.00	796.75	754.00	772.00	808.75	840.50	829.00	815.75	797.50	765.75	774.00	720.75	706.25	700.75	637.75	626.50	624.50	629.00	621.25	629.25	610.75	636.75	653.50	670.00	619.00	656.50	668.25	691.75	655.00	614.50	587.25	560.75	561.50	592.75	583.75	591.00	611.25	642.75	665.00	700.75	683.75	649.25	653.00	664.25	701.25	798.75	865.00	825.00	726.50	665.50	649.25	623.50	583.00	613.25	604.50	653.25	677.50	743.25	727.75	670.00	716.00	705.50	612.50	623.25	675.25	742.75	751.00	772.00	776.75	824.50	806.50	782.00	784.25	817.50	778.25	732.00	711.75	740.75	739.00	758.00	775.75	785.00	746.25	694.25	668.00	678.00	702.00	676.75	649.50	672.25	690.50	648.00	619.50	630.75	641.50	648.50	679.25	666.25	672.75	684.75	695.25	706.50	703.25	711.75	724.50	785.25	776.50	750.00	759.00	785.00	741.25	700.75	698.50	736.75	724.25	746.50	728.50	756.00	759.75	790.50	843.50	848.00	838.50	787.00	808.75	791.75	801.50
593.75	587.25	590.00	596.00	592.25	586.50	594.25	594.25	602.50	591.25	574.50	553.50	543.75	528.50	534.75	534.75	543.00	536.25	498.75	486.00	496.50	499.50	478.50	455.50	465.50	492.00	475.75	452.00	453.25	467.50	436.25	439.25	451.00	453.00	447.00	438.00	439.00	429.75	431.50	453.75	457.25	488.00	494.25	471.50	475.75	459.00	458.75	462.50	471.25	481.50	494.50	513.75	524.25	527.00	558.50	567.75	574.50	577.25	575.00	593.75	601.75	605.75	611.75	615.00	612.25	618.75	619.75	619.25	583.00	576.75	584.50	625.50	642.00	649.25	652.00	658.25	661.50	673.00	672.00	663.50	648.00	655.00	660.00	639.25	658.00	676.00	680.50	682.25	685.75	704.75	733.00	723.50	680.00	658.25	672.00	620.00	593.25	594.75	573.00	576.00	577.50	551.25	516.50	500.50	497.00	501.25	551.75	558.75	569.00	568.25	601.00	628.00	731.25	815.25	804.50	791.25	779.75	795.50	808.25	819.25	838.50	815.50	770.25	766.25	829.75	836.00	794.75	742.75	798.25	805.00	783.00	733.50	735.25	806.00	806.00	815.75	812.25	798.50	802.00	824.00	713.50	668.75	645.00	638.25	641.25	632.00	633.00	612.25	607.25	609.25	620.25	608.75	648.75	632.25	628.50	654.50	682.50	630.50	591.75	572.00	550.25	569.50	571.00	581.00	600.75	618.50	628.25	645.00	701.75	708.25	684.50	658.00	666.50	698.00	794.25	895.25	814.50	688.00	652.50	636.00	610.00	598.75	582.75	604.50	628.75	677.75	791.25	673.25	629.00	613.75	602.00	597.50	640.75	673.00	673.25	712.50	739.75	784.75	821.75	848.00	800.50	805.00	797.00	732.00	711.00	705.50	732.00	723.00	734.75	774.25	753.25	708.50	685.25	683.50	657.50	674.25	656.25	664.75	639.00	665.75	642.50	633.25	642.25	652.00	649.00	702.50	709.25	684.00	665.25	676.50	681.75	688.25	693.25	731.50	791.00	810.50	808.50	820.25	778.25	733.50	722.25	703.25	738.00	747.00	765.75	738.50	760.50	769.25	792.25	853.50	850.25	806.50	805.25	809.50	814.00	813.25
612.75	605.75	613.25	624.00	619.75	603.00	598.25	619.50	624.00	601.25	583.00	578.75	549.00	541.50	555.50	561.50	553.75	537.50	505.25	492.00	486.75	480.75	465.00	479.25	486.25	510.75	503.25	478.75	444.50	451.00	445.25	460.50	477.75	474.75	464.50	457.75	447.75	429.50	435.50	473.75	469.75	482.25	490.25	468.75	457.50	462.00	472.00	480.00	495.75	506.00	507.00	529.50	546.75	539.00	555.75	579.00	584.00	591.25	591.00	598.00	602.75	601.75	611.50	600.00	599.75	604.25	592.00	607.25	579.00	561.00	583.50	617.75	621.25	627.00	637.50	648.50	660.75	661.50	663.25	661.50	655.25	638.75	649.50	629.75	654.75	673.25	699.50	712.00	717.25	725.25	750.00	730.00	693.75	677.00	643.25	602.00	578.50	569.25	564.25	552.00	557.25	550.75	520.25	489.75	515.50	517.50	536.00	546.00	572.25	600.00	629.25	683.00	745.25	807.25	806.50	785.25	782.00	809.75	821.00	823.75	832.00	822.75	782.00	748.50	792.50	802.75	797.25	711.75	788.25	788.50	756.75	711.75	726.75	742.75	739.50	801.25	829.00	827.75	819.25	834.25	717.25	703.50	655.00	651.25	649.25	656.25	632.50	616.25	648.25	663.75	655.00	633.50	613.25	633.25	638.50	654.75	663.00	628.50	602.00	572.25	546.25	569.75	580.25	595.50	605.50	630.75	653.50	670.50	678.75	727.25	728.00	671.25	692.75	700.50	765.50	855.50	778.75	707.25	667.25	671.50	639.00	612.25	574.75	615.25	632.50	701.00	778.75	641.75	609.00	564.50	661.75	669.00	663.25	747.00	728.75	694.25	725.25	772.75	778.50	769.75	736.50	749.75	763.75	735.50	717.75	693.50	730.50	708.50	728.25	746.50	762.25	734.75	738.75	696.50	707.00	650.75	670.50	668.00	637.75	624.00	628.50	665.00	686.00	682.25	685.75	704.00	739.50	705.50	689.25	681.75	675.50	700.50	719.00	718.50	767.75	813.50	821.50	821.75	783.25	770.50	739.50	710.50	749.50	777.50	784.50	754.25	780.00	784.50	806.75	829.50	835.00	832.75	822.25	834.25	819.75	840.50
642.75	626.00	638.25	648.75	643.25	622.50	597.50	629.50	643.50	610.25	613.00	587.75	560.25	558.50	574.75	572.75	544.00	518.75	508.00	509.75	510.75	492.50	466.25	505.50	493.25	518.50	524.00	502.50	447.50	446.25	444.50	458.75	468.75	474.75	458.00	435.75	433.25	442.00	456.25	468.25	461.75	470.00	484.50	471.25	453.50	467.00	476.50	480.00	510.75	524.75	521.00	531.50	557.50	562.25	569.25	577.00	588.00	594.00	591.50	603.75	603.25	587.75	588.50	584.00	600.75	585.50	571.75	596.50	558.50	553.75	586.50	603.00	618.25	624.00	626.25	649.50	655.50	651.25	652.25	647.00	650.25	631.00	626.75	634.75	654.25	668.75	693.75	714.00	742.25	751.50	767.50	745.00	728.75	680.50	642.50	599.75	583.50	551.00	533.50	521.50	511.50	521.50	503.50	491.50	518.25	526.75	545.00	561.50	573.50	613.00	691.50	740.75	789.50	797.50	801.00	765.50	783.00	805.75	807.75	801.00	807.25	831.00	801.50	754.00	742.25	776.00	752.25	692.00	778.00	738.00	761.00	697.00	697.25	731.75	764.25	766.50	773.25	844.25	836.00	812.50	716.75	678.00	652.00	671.00	659.25	654.50	634.00	625.25	662.00	690.75	666.25	640.50	616.25	643.50	654.50	662.00	647.00	624.50	616.50	594.25	543.75	560.50	580.50	595.00	623.50	657.75	660.50	705.25	747.75	731.50	742.25	702.25	727.50	706.75	784.50	787.75	656.00	647.50	644.00	657.75	618.00	587.00	569.75	599.50	638.00	727.00	783.25	660.50	627.00	588.00	708.50	748.50	748.00	757.00	790.00	737.00	750.25	759.00	743.75	721.75	702.75	728.75	722.75	743.25	724.00	688.50	705.00	718.50	738.00	747.25	764.75	768.50	764.25	749.25	696.75	679.50	735.50	711.50	673.00	631.75	632.00	701.25	719.25	698.50	694.25	728.50	775.75	726.50	711.00	696.00	674.25	690.00	723.50	727.75	751.50	814.75	790.50	816.25	815.50	776.75	769.00	727.50	787.75	787.75	788.75	767.50	783.50	809.25	797.50	821.75	848.25	850.50	851.75	846.00	836.00	872.00
647.25	638.25	632.25	611.75	615.50	631.00	622.75	633.25	642.00	625.00	615.75	606.00	591.00	580.50	581.00	564.00	537.75	520.00	496.25	490.75	484.50	474.50	475.00	503.75	511.75	517.50	522.75	498.75	461.75	449.50	446.00	450.50	465.50	454.00	440.25	434.00	436.25	453.00	462.50	456.50	459.25	465.25	468.25	456.00	455.25	471.25	472.25	482.00	498.25	511.75	541.25	543.25	545.50	551.75	555.75	546.75	572.50	578.50	569.50	595.75	604.75	591.25	558.25	578.00	579.00	568.25	554.50	572.50	553.75	568.00	591.00	612.25	634.50	646.75	650.50	655.75	648.25	644.00	647.00	632.25	622.25	624.25	630.75	635.25	647.25	658.50	672.25	688.25	725.75	740.25	757.25	752.75	721.75	675.00	639.00	607.50	579.50	563.00	559.50	546.50	522.25	498.75	498.00	508.75	525.50	538.75	549.75	565.00	576.75	598.00	652.25	726.25	792.50	812.00	791.25	749.50	746.25	775.50	783.25	789.25	803.25	822.25	810.75	768.25	729.50	714.75	716.00	698.50	761.00	700.00	699.25	677.25	665.00	691.75	735.75	721.50	745.50	823.00	853.50	778.25	685.00	674.50	671.25	669.25	655.25	641.25	634.25	637.25	662.50	710.75	713.75	675.75	631.00	619.75	626.50	654.00	684.25	634.50	617.25	586.00	547.75	581.00	606.00	613.75	644.50	680.00	689.00	722.00	776.75	773.50	759.25	761.50	764.75	731.25	657.25	658.25	641.00	620.50	615.25	636.50	600.25	566.75	578.25	619.00	636.50	721.50	775.75	704.75	628.50	597.00	735.50	778.75	784.00	733.75	796.75	758.00	763.25	763.00	687.75	686.25	700.00	718.25	703.75	717.50	730.75	682.00	707.25	743.50	743.75	765.25	788.25	801.00	739.50	724.75	721.25	748.25	717.50	672.25	644.50	628.00	619.75	653.75	672.50	682.75	702.25	726.75	800.00	743.25	714.50	699.75	693.00	689.25	699.50	741.75	755.50	780.00	794.25	816.25	829.50	796.75	738.75	729.75	750.00	769.75	764.00	774.50	780.00	805.75	823.50	838.00	866.50	898.75	908.50	887.25	856.25	873.50
631.00	636.50	612.25	585.00	600.50	631.75	639.25	640.25	627.25	617.75	628.00	620.25	597.50	583.25	572.75	572.75	549.75	525.75	491.25	478.00	473.00	471.25	485.50	495.75	518.75	524.75	514.25	485.00	461.75	442.25	444.75	439.75	449.50	439.75	436.25	441.25	433.50	444.75	457.25	450.25	464.50	459.00	454.25	446.00	458.75	469.00	468.50	485.25	501.00	508.50	542.50	541.25	530.75	536.25	534.50	526.75	561.75	552.50	556.50	586.75	601.25	592.25	555.00	574.25	564.00	552.50	538.50	547.50	556.75	572.25	583.75	612.00	639.75	657.00	659.75	655.25	649.25	634.75	641.50	625.25	610.50	635.50	645.75	639.25	636.00	642.25	658.75	674.00	712.00	727.00	748.00	756.25	729.00	684.75	654.75	613.00	583.75	583.00	569.75	547.75	524.00	503.75	513.75	531.75	539.75	550.00	549.25	561.25	563.25	581.50	612.00	699.50	781.50	802.50	782.25	746.75	717.25	773.00	790.50	799.75	799.75	817.00	804.75	779.25	766.50	697.75	684.50	711.25	767.00	710.75	665.75	659.00	648.75	674.75	697.50	704.00	742.25	811.75	856.75	774.25	684.50	695.50	692.50	673.75	666.00	650.00	635.75	667.25	681.50	688.50	683.25	674.50	651.00	625.25	639.75	670.00	687.75	641.75	620.75	597.75	549.75	584.00	605.50	617.50	658.75	672.50	672.25	687.50	734.00	815.25	791.00	810.75	823.25	729.25	631.00	625.25	617.50	619.75	597.25	627.25	589.00	565.75	577.00	609.75	648.50	719.50	762.25	696.25	688.75	592.00	720.75	760.25	792.50	715.75	767.25	753.75	737.50	743.75	663.25	675.00	716.50	706.50	690.25	700.25	699.50	674.50	714.75	732.75	743.75	752.00	797.75	789.50	732.50	724.75	756.75	755.50	694.00	656.25	637.25	664.00	634.75	653.50	667.50	699.75	687.00	730.75	803.25	774.75	715.50	706.25	705.00	690.25	702.25	741.00	748.25	766.25	801.25	809.75	845.25	816.75	754.50	736.00	752.00	797.00	776.75	783.25	777.75	789.75	829.50	852.00	889.25	924.00	945.25	898.25	880.25	877.25
606.25	610.00	588.25	584.00	617.25	634.75	619.50	611.50	592.75	592.00	602.00	598.75	578.25	548.25	542.25	564.25	546.25	517.50	483.75	485.75	499.25	485.75	492.00	500.00	515.75	526.00	514.50	499.50	461.00	449.25	458.50	451.50	450.50	451.75	458.50	464.00	440.25	431.50	439.00	455.00	464.00	458.00	442.25	448.00	460.75	462.50	467.00	481.75	512.50	526.25	527.25	512.75	508.25	520.25	507.00	508.00	516.50	529.25	544.25	574.25	590.50	571.25	544.50	570.25	545.00	525.00	541.00	543.75	549.00	569.25	594.50	622.25	643.75	653.25	657.25	642.75	642.00	618.75	622.00	612.75	626.50	641.00	649.25	655.00	658.50	652.00	660.00	671.75	697.00	708.00	736.25	776.25	760.50	717.50	670.00	621.25	607.50	602.75	589.75	570.75	556.25	519.25	508.25	533.25	530.75	536.25	540.50	532.50	542.75	575.75	614.75	692.75	775.50	800.75	794.75	745.25	708.25	785.50	806.25	817.75	821.50	831.50	827.00	816.50	792.50	740.50	673.50	695.75	754.50	742.25	715.25	639.75	612.00	629.00	650.00	708.00	747.50	792.25	843.00	785.75	729.00	751.00	726.00	742.75	692.00	642.75	656.00	689.00	688.75	677.50	667.25	654.75	652.00	622.50	600.25	639.50	682.00	658.25	615.50	589.25	566.50	600.25	609.50	617.75	627.00	645.50	681.50	772.75	794.25	830.25	778.50	755.25	769.50	729.00	643.00	601.50	583.25	578.00	593.75	604.75	566.00	532.75	576.50	586.25	626.75	648.50	684.50	683.75	660.25	616.75	606.75	660.00	719.25	701.00	686.50	723.50	658.00	672.50	671.25	701.50	709.00	681.00	673.75	673.50	665.50	679.50	693.75	706.50	721.00	737.00	756.00	783.75	771.50	745.50	724.25	701.00	690.50	661.00	649.75	698.50	685.25	679.00	690.00	728.75	714.75	726.75	772.00	803.75	743.50	725.25	715.75	690.00	703.75	723.50	772.25	780.75	795.50	830.00	847.00	837.75	794.50	754.00	742.75	813.75	819.75	807.50	794.25	792.75	825.00	867.50	890.25	923.75	930.50	900.50	887.50	876.25
559.50	566.50	562.50	583.25	604.50	607.00	580.75	584.25	570.75	581.00	560.00	564.50	567.25	544.75	519.75	528.75	523.00	493.00	484.50	497.00	514.00	503.25	505.50	518.00	526.00	523.00	510.25	480.50	456.50	469.50	480.50	477.00	471.00	481.75	474.50	468.75	453.25	443.25	432.00	452.75	456.75	452.75	443.50	445.75	456.00	460.00	475.50	489.00	517.50	537.25	517.50	496.50	487.25	497.75	492.50	499.00	516.25	554.25	566.25	583.50	585.00	556.75	533.50	544.50	510.50	532.50	573.75	585.25	572.75	579.75	611.50	629.00	634.25	632.75	631.00	625.75	623.00	595.00	595.50	608.75	629.00	649.00	651.00	655.75	666.75	670.75	676.50	674.00	683.50	706.75	737.00	778.00	764.50	744.75	708.50	655.75	642.00	610.25	591.00	570.50	550.00	532.50	499.00	501.50	503.50	509.00	511.25	547.25	563.25	575.75	598.50	660.25	750.25	795.00	782.25	757.50	686.50	759.75	794.50	811.25	812.25	832.00	843.25	839.75	801.25	789.75	713.25	638.75	728.25	688.75	719.25	606.50	603.00	631.25	637.00	719.25	764.25	788.00	823.00	778.75	794.25	778.75	786.25	736.75	670.00	649.50	693.25	692.25	690.25	672.50	709.25	719.00	676.25	629.50	615.75	634.75	655.75	671.25	624.00	580.00	585.50	647.75	612.25	598.75	626.50	644.75	648.00	699.50	700.25	746.00	729.75	679.75	635.25	664.25	622.75	634.50	598.00	573.00	561.50	570.75	545.50	534.00	570.25	569.50	600.00	580.75	597.75	623.25	570.00	705.75	721.50	637.50	597.25	621.25	649.75	654.00	632.50	666.25	682.50	676.75	665.00	657.50	664.75	661.75	668.00	691.00	714.25	716.00	731.50	766.00	773.50	769.75	774.25	723.00	687.50	679.25	681.25	699.50	636.50	672.50	688.00	673.00	691.75	709.25	722.25	716.50	738.75	793.00	763.75	721.00	704.25	706.25	695.75	727.75	749.25	744.00	772.25	799.75	807.50	812.50	829.00	792.75	755.75	792.50	818.25	825.50	802.00	798.25	804.25	844.25	894.25	934.25	903.75	882.00	881.00	856.00
591.75	567.25	570.50	549.25	550.00	564.50	554.50	552.75	553.00	552.50	531.25	547.25	528.75	522.25	508.75	502.25	495.25	496.25	506.50	524.25	541.25	522.50	533.00	525.75	514.50	502.50	492.75	486.00	469.50	469.25	483.50	485.25	482.00	484.75	486.00	483.00	464.75	452.50	437.25	436.00	445.25	446.00	440.50	446.00	451.50	459.25	470.25	475.75	503.25	517.25	498.50	497.25	476.25	475.75	507.00	534.75	547.50	561.25	567.50	565.75	571.00	552.75	526.75	508.25	522.25	547.00	573.50	593.00	602.00	592.75	612.50	625.00	627.00	633.25	619.00	607.75	594.25	606.00	611.50	629.75	627.50	641.25	651.50	660.50	673.75	679.50	695.25	703.75	710.75	727.00	735.25	771.00	772.50	767.00	734.00	671.00	646.25	598.50	571.25	558.25	547.75	520.75	492.00	497.25	502.50	503.75	534.75	563.75	578.50	586.25	613.50	657.25	752.75	779.75	783.50	762.75	674.25	764.00	755.75	746.50	736.25	761.00	796.50	830.00	761.25	737.75	722.50	681.50	655.00	631.00	653.75	588.25	609.75	673.25	683.50	700.75	733.75	790.50	846.75	843.75	835.00	830.00	800.00	751.25	670.50	670.00	703.00	701.50	710.75	689.00	682.00	686.00	652.25	614.25	601.50	608.25	669.75	651.00	587.25	562.75	595.00	626.75	582.25	597.75	606.25	608.75	618.50	645.25	649.50	710.25	711.50	631.75	618.00	619.00	642.75	590.50	598.25	581.50	534.00	529.00	519.75	529.75	538.00	552.00	562.25	537.00	552.25	536.50	594.50	637.25	686.00	722.75	685.25	674.25	698.00	669.75	649.25	646.25	654.25	673.50	656.75	674.75	696.75	674.25	699.75	692.25	714.50	743.50	765.50	786.50	765.25	751.50	747.25	738.50	728.75	701.50	673.25	667.75	654.00	630.00	654.00	644.50	687.25	729.50	729.00	727.75	742.25	766.50	766.25	723.75	725.25	730.25	723.25	710.00	719.00	725.00	768.00	764.25	788.75	811.50	843.00	839.50	803.75	799.50	825.75	840.00	834.50	827.25	819.00	858.00	893.00	911.75	881.00	853.75	870.25	854.00
616.50	605.25	613.25	564.75	533.25	527.25	525.50	520.00	518.00	516.00	513.00	508.00	504.00	512.50	508.25	505.25	517.75	515.75	528.25	552.00	570.25	552.00	556.25	514.25	496.75	499.00	509.50	499.00	484.50	476.00	477.50	478.25	484.25	470.75	469.50	461.75	458.00	437.75	431.25	429.00	431.00	433.25	437.75	448.75	449.50	454.25	455.25	467.00	501.50	496.75	485.00	479.50	469.75	482.50	522.75	556.25	554.50	557.50	547.50	532.50	530.25	518.25	497.00	507.50	539.25	555.50	600.75	616.50	624.75	619.75	621.50	618.50	609.50	619.25	611.25	581.25	589.50	618.75	628.50	647.25	650.25	639.75	648.00	663.50	678.50	686.75	715.25	716.25	709.25	714.50	719.50	748.25	746.75	763.25	747.00	665.25	618.25	578.75	567.75	563.75	546.75	521.75	494.00	495.50	533.50	520.00	527.25	545.00	552.25	574.25	610.75	676.50	758.75	753.50	754.75	765.00	666.25	719.75	757.50	715.00	672.25	674.25	763.50	832.25	793.50	764.00	764.75	701.25	679.00	608.50	594.25	581.00	607.50	679.25	747.00	736.00	751.25	804.75	856.25	870.25	882.75	867.50	775.50	717.25	698.75	729.75	733.00	740.00	751.50	678.25	670.75	647.00	648.75	634.25	596.75	594.50	645.00	650.25	599.25	595.50	570.75	563.00	591.25	619.00	610.75	606.75	622.25	648.50	676.75	687.25	724.25	593.00	597.75	578.75	638.25	628.00	575.50	550.75	521.00	526.25	536.25	531.75	539.75	525.00	552.25	557.50	546.75	593.50	580.50	720.25	602.75	624.25	706.25	740.75	820.75	775.25	682.50	652.00	654.00	712.25	678.25	686.00	702.25	678.50	698.25	710.25	722.25	757.75	775.25	769.00	732.50	717.75	743.00	751.25	715.25	704.50	659.50	656.25	631.25	621.00	632.25	659.75	695.50	744.75	706.50	700.25	705.75	764.00	756.75	722.00	743.25	750.50	731.00	724.00	731.00	725.50	712.25	729.25	808.75	828.00	823.25	827.25	809.00	812.00	816.25	819.75	840.50	857.50	818.00	838.25	868.00	876.50	845.25	829.50	811.00	811.50
