2600.49	2721.94	3014.31	3221.60	3426.33	3438.92	3295.72	2619.53	2526.20	2861.83	2588.99	2191.64	1603.41	1981.74	1450.03	1907.20	2433.60	2806.92	2768.94	2178.47	1614.12	1962.86	2186.32	1937.30	1626.43	2075.53	3124.86	3039.81	2482.26	2234.34	1428.98	1994.38	2201.00	2994.25	2955.85	2034.71	1338.38	1537.70	2577.76	2808.31	2574.90	2785.11	2532.72	1979.34	1533.55	1625.22	2201.19	2578.11	2497.67	2301.64	2394.95	2009.86	1974.50	1981.16	1961.59	1926.49	1959.73	2012.64	2049.00	2201.28	2125.45	2045.10	1842.92	1998.99	2092.08	1864.64	1852.14	1922.17	1864.41	2047.30	2202.56	1979.52	2046.26	2197.58	2236.95	2187.28	2124.92	2059.20	1974.97	1768.28	1792.08	1687.47	1662.11	1587.53	1690.72	1787.38	1999.25	2018.08	1922.05	1831.52	1710.66	1591.50	1530.11	1501.08	1471.56	1444.77	1432.28	1404.45	1503.06	1517.81	1678.31	1839.64	1749.47	1664.62	1726.69	1823.00	1723.47	1578.20	1563.84	1476.72	1304.38	1246.95	1238.47	1284.78	1147.19	1430.44	1465.20	1333.08	1152.35	1218.15	1092.05	920.91	987.89	883.56	1080.48	868.45	925.08	990.48	819.24	944.28	997.80	980.89	974.64	957.16	851.41	1008.89	922.44	748.03	761.94	818.38	883.28	1087.65	1031.12	1058.06	1091.11	979.33	867.07	805.70	754.60	755.03	726.67	783.67	781.75	797.39	931.17	968.45	952.23	1045.15	986.08	910.39	877.14	743.88	661.36	702.13	774.00	646.82	571.88	550.82	593.24	638.12	700.50	546.34	500.11	511.15	450.75	410.06	471.24	610.49	713.53	656.56	567.34	503.83	705.56	727.80	772.25	715.17	600.17	512.54	405.92	348.19	352.30	309.55	255.51	272.38	296.86	215.31	328.12	369.96	487.53	441.28	256.22	193.58	277.74	315.04	538.88	498.67	546.69	1040.39	809.40	673.05	956.03	1071.62	925.58	693.80	608.06	460.94	389.17	393.53	601.21	340.21	349.96	502.67	414.86	367.77	366.76	345.56	297.38	269.34	264.99	245.09	267.98	243.89	229.09	238.20	256.92	262.33	256.03	255.89	263.44	262.66	260.71	278.87	261.97	188.69	197.12	164.12	142.28	227.22	280.61	259.89	299.95	285.69	174.33	148.86	123.31	165.86
2679.27	2842.95	3279.55	3500.11	3461.53	3473.49	2596.14	2292.39	2332.91	2806.57	2634.47	2165.62	1866.72	1602.56	1551.10	2426.11	2927.75	2781.88	2417.77	1772.23	1880.70	2141.55	2222.81	1541.88	2123.70	2900.33	2790.64	3271.20	2359.64	1874.39	1362.78	1621.20	2379.16	2967.25	2539.98	2003.26	1761.89	1237.49	1861.11	2013.53	3227.80	3207.64	2199.09	1487.72	1328.33	2086.98	2637.74	2675.92	2447.16	2348.73	2180.34	1833.14	2002.21	1934.04	1933.06	1974.88	1971.88	1901.28	1972.09	2226.81	2149.88	2084.97	1898.31	2192.80	2243.97	2017.78	1968.67	1932.97	1922.74	1929.82	1982.80	1866.51	1927.12	2083.74	2067.25	1972.58	1904.67	1923.81	1699.08	1742.70	1633.61	1608.20	1523.28	1577.62	1759.14	1881.47	1855.50	1841.39	1839.14	1720.01	1615.94	1594.81	1591.09	1480.48	1418.92	1391.17	1401.44	1428.07	1612.23	1630.66	1673.47	1810.48	1742.58	1657.28	1664.92	1753.96	1714.39	1645.24	1534.67	1378.31	1227.45	1146.75	1314.25	1251.19	1118.28	1363.81	1474.01	1314.91	1111.55	1013.48	947.38	943.28	970.41	915.88	1077.81	877.79	973.35	918.06	891.01	1020.83	1053.42	982.07	844.56	783.11	744.50	727.22	731.08	899.00	875.45	893.78	945.11	1056.28	1048.17	1069.00	1077.99	1081.67	864.23	885.39	951.96	904.52	670.58	634.14	894.01	1031.38	1256.60	1183.97	1092.19	1138.38	1026.08	992.19	858.22	796.08	750.72	820.53	944.61	755.53	758.70	663.00	626.70	508.00	494.75	447.44	440.84	426.12	470.46	592.10	633.52	757.22	703.62	587.86	518.46	632.39	673.49	698.22	641.10	712.35	582.49	459.39	415.47	329.24	293.64	262.80	270.24	229.28	248.22	214.19	333.39	367.64	431.53	363.45	188.26	244.45	353.58	488.99	668.06	774.31	678.30	1071.03	720.83	807.89	732.36	787.28	810.00	753.47	413.23	348.69	377.34	359.01	377.83	351.01	313.95	355.75	361.20	348.86	337.47	345.47	329.86	305.12	298.93	281.41	249.28	234.34	232.80	244.20	253.35	249.48	247.61	259.09	252.19	265.20	273.45	282.31	267.14	225.84	257.95	154.31	155.84	180.15	213.58	200.72	205.86	225.01	183.45	116.23	107.64	120.41
2804.81	2906.28	2781.26	2969.17	2856.81	2246.39	2512.93	3055.84	2485.62	2257.39	2412.11	2280.19	1837.26	1617.76	1522.99	2186.49	2778.53	2402.25	1925.39	2072.40	2544.78	1890.69	1786.67	1431.58	1946.72	2920.53	3331.35	3361.41	2477.05	2071.30	1481.41	1214.80	2137.67	2629.09	3134.99	2672.04	1729.05	985.31	1428.88	2364.14	3238.78	3529.44	2727.28	2269.91	1311.92	1858.50	2419.14	2727.23	2390.38	2258.28	1844.39	1866.84	1954.86	1931.85	1975.60	2000.43	2047.66	1817.02	1986.83	2330.69	2420.11	2213.76	1923.06	2270.24	2373.35	2314.62	2169.58	2014.39	1974.92	1885.09	1965.41	1969.44	1903.31	1936.58	1980.65	1922.22	1860.19	2034.09	1818.93	1747.30	1654.89	1606.00	1598.51	1663.09	1627.69	1759.27	1724.83	1700.55	1734.70	1701.78	1698.50	1652.22	1588.31	1517.62	1453.09	1440.26	1421.36	1385.77	1510.61	1683.03	1591.56	1611.31	1666.80	1620.89	1659.14	1727.59	1656.81	1646.52	1560.06	1414.01	1261.74	1111.08	1196.95	1266.65	1145.11	1231.62	1396.70	1120.55	993.10	1008.67	960.30	958.19	1033.02	906.51	953.14	1062.83	1073.12	859.71	1013.60	1000.64	1048.20	987.14	849.95	939.16	1005.73	1004.01	1049.74	1088.72	1017.88	1006.74	948.14	972.20	1056.40	1048.19	1102.58	1128.74	1077.86	1015.94	977.73	710.03	651.32	706.09	890.51	1028.70	1005.25	927.64	957.56	1101.56	1082.30	1014.08	968.09	864.31	829.01	941.44	1022.42	876.88	880.30	738.91	676.40	549.26	529.74	467.91	406.88	468.07	573.95	663.30	797.76	691.70	587.89	500.38	599.99	675.08	648.90	659.24	525.77	529.11	508.26	440.19	411.08	397.07	311.49	239.94	258.02	231.78	236.73	294.56	386.56	507.38	517.39	295.55	210.45	330.84	348.70	534.62	756.01	1511.70	1243.47	1160.33	621.82	744.80	639.91	677.61	915.68	515.83	331.25	320.78	328.61	335.70	342.17	346.69	317.36	323.41	319.50	317.38	303.64	318.35	354.59	277.73	278.36	271.85	237.80	255.09	254.19	238.06	237.31	243.75	251.36	270.78	263.86	298.54	306.38	285.68	261.23	220.01	192.31	169.08	167.28	157.22	169.78	150.16	162.12	171.52	130.56	93.66	106.03	104.28
2821.55	2954.16	2532.17	2430.87	2432.33	1880.38	2589.22	2729.78	2269.17	1884.42	2008.81	1872.78	2058.22	1729.25	1489.33	2261.24	2739.03	2475.08	2117.06	2246.30	2244.72	1774.72	1304.94	1849.45	1658.36	2389.09	3191.30	3165.50	2987.00	2534.14	1883.30	1361.76	1571.61	2548.10	3107.42	2714.65	1780.83	986.28	1933.81	2528.69	2731.66	2861.50	2695.93	2575.86	1529.64	1644.05	1816.95	2554.70	2197.17	1936.55	1777.83	2010.40	1939.06	1974.11	2024.34	2061.14	2025.50	1948.69	2133.69	2514.51	2517.43	2253.15	1906.50	2245.09	2408.28	2432.31	2266.22	2094.60	2072.72	1851.07	1997.64	2036.91	1948.39	1943.31	2015.18	1870.86	1819.03	1805.51	1832.01	1655.03	1592.49	1667.92	1701.20	1514.07	1546.08	1716.12	1587.76	1590.60	1624.24	1680.32	1781.42	1690.62	1525.15	1505.69	1530.21	1563.19	1527.92	1481.08	1488.99	1804.61	1641.28	1518.45	1666.47	1579.12	1562.69	1685.26	1618.22	1492.70	1414.99	1321.49	1290.20	1184.24	1074.15	1234.38	1183.80	1154.22	1235.69	1002.74	1075.67	1043.19	1082.99	977.53	1132.34	994.26	1009.61	1458.67	1114.72	937.27	1087.30	1065.47	1085.05	992.47	817.76	1001.35	1046.25	1051.89	1079.97	1209.20	1205.33	1088.25	1020.11	1011.81	1087.35	1101.92	1158.78	1029.09	1033.93	1008.12	837.83	696.32	926.28	846.86	953.42	1006.25	941.20	849.50	973.53	1051.81	1058.69	1021.97	1071.55	991.56	959.72	940.42	959.41	902.72	831.60	819.78	695.35	650.53	507.78	439.06	459.06	621.90	671.84	696.22	692.51	622.01	588.19	584.87	683.03	755.77	705.42	645.95	644.47	633.86	545.58	417.81	404.97	437.86	326.64	251.72	277.53	231.97	322.44	334.47	317.62	402.31	447.61	208.59	252.72	408.14	506.28	706.53	969.38	1325.61	1439.62	963.50	749.10	586.12	671.25	730.95	654.99	351.45	320.72	314.33	327.45	376.94	323.75	348.89	286.49	284.51	307.61	280.45	290.08	366.18	342.41	316.62	270.61	244.03	259.39	269.94	246.41	248.34	262.33	275.61	278.28	274.36	309.97	340.69	291.58	286.69	233.42	166.61	163.06	160.97	149.12	174.70	179.28	117.50	107.88	138.11	110.59	93.41	97.22	104.58
2498.09	2576.67	2580.88	2260.33	2174.89	1731.42	2189.23	2616.77	2424.45	2062.31	1755.19	1663.47	1456.85	1577.65	1512.44	1894.55	2352.49	2312.25	2409.53	2032.59	1781.86	1557.41	1314.25	1979.02	1743.61	2263.44	2509.08	3024.75	3395.18	2621.50	1967.91	1819.14	1322.20	1937.99	2285.53	2489.41	2151.86	1073.42	1556.40	2471.97	2434.89	2678.24	2995.06	2937.14	2029.55	1513.08	1440.11	2002.00	1762.35	1805.45	2070.99	2116.86	2068.40	2173.28	2156.12	1955.42	1835.95	2052.12	2111.56	2302.70	2403.64	2223.30	2012.10	2180.88	2459.22	2503.49	2388.40	2221.54	2034.75	1845.52	1985.42	2126.04	1997.60	1933.60	1811.81	1953.05	2021.74	1889.25	1665.39	1852.32	1912.94	1610.28	1743.14	1788.89	1616.14	1595.20	1702.10	1754.47	1673.44	1590.88	1723.16	1709.27	1798.33	1670.99	1824.62	1788.80	1589.22	1426.74	1505.64	1745.97	1592.88	1575.79	1622.56	1448.92	1491.92	1498.33	1430.53	1332.17	1333.08	1342.61	1288.95	1185.91	1139.00	1119.30	1198.65	1277.10	1102.19	1063.17	1113.10	1079.47	1081.81	1185.37	1241.47	1017.17	1084.38	1427.83	1077.30	1037.66	1213.11	1174.17	1128.44	996.80	746.50	762.59	868.61	962.94	1095.34	1183.11	1211.01	1100.42	1044.74	1061.17	1116.55	1138.16	1038.64	1016.27	979.60	898.75	757.22	907.22	1013.55	931.05	953.22	950.25	948.20	838.19	954.32	1034.22	946.39	1103.09	1041.78	917.05	812.85	776.53	789.71	739.92	661.97	799.30	620.75	509.83	463.00	490.08	570.88	763.55	646.78	610.30	703.05	680.44	736.65	626.26	627.17	635.03	573.60	522.34	530.50	468.86	459.65	412.03	371.36	346.67	258.52	291.45	254.26	281.67	382.08	506.25	466.42	305.56	320.50	242.11	375.08	394.44	449.31	662.23	809.40	1080.74	1102.25	651.54	671.50	601.64	556.02	704.39	383.10	321.09	307.62	306.87	309.09	347.87	315.27	310.84	312.57	272.53	273.90	277.39	323.76	308.42	326.15	314.01	261.59	253.81	270.22	314.05	303.19	259.63	312.54	312.12	304.55	309.56	440.85	375.10	294.28	245.03	189.94	200.49	310.14	268.64	240.53	149.87	144.50	129.33	131.05	128.62	108.89	99.03	86.55	154.44
2398.55	1965.52	2178.73	1953.43	2414.37	1733.80	2104.89	2636.56	2454.97	2704.08	2470.03	2067.72	1521.00	2245.97	1783.69	1846.06	2167.25	2482.86	2236.05	1782.53	1454.28	1343.16	1405.38	1994.61	1985.22	1733.98	2163.26	3076.86	3399.58	3059.99	2726.22	2102.61	1535.98	1216.64	1620.86	1788.62	1523.95	1142.11	1886.89	2708.78	2516.55	2754.34	3052.05	3186.05	2267.39	1900.12	1480.44	2139.89	1608.40	2160.68	2288.54	2292.78	2327.11	2324.98	1851.72	1753.69	1966.95	2184.66	2158.73	2153.47	2227.92	2154.57	1975.31	2019.59	2408.10	2439.51	2370.23	2164.10	2036.06	2021.01	1963.70	2222.51	2112.58	1907.07	1968.89	1993.36	2054.76	1835.36	1800.11	1891.78	1835.28	1699.30	1757.53	1789.82	1638.23	1484.31	1519.10	1511.77	1419.45	1428.20	1572.28	1734.70	1900.81	1924.39	2017.61	1882.91	1643.40	1437.40	1575.87	1545.91	1464.30	1413.72	1475.40	1317.16	1397.06	1431.95	1334.62	1273.49	1277.86	1248.88	1218.17	1177.65	1233.39	1279.70	1342.62	1276.80	1148.81	1066.55	1218.41	1240.02	1234.20	1233.58	1230.95	1090.33	1104.80	1369.94	1303.76	1382.17	1299.78	1250.36	1172.94	1010.60	794.41	945.19	913.25	1015.40	1160.50	1280.45	1280.78	1189.64	1135.05	1141.14	1191.83	1160.08	1083.38	1022.48	1015.76	803.84	1008.60	983.08	861.31	879.92	852.60	828.89	791.50	764.92	798.03	788.24	803.19	780.25	739.24	738.45	638.08	614.90	593.16	587.61	591.24	543.17	578.83	550.42	535.99	707.78	793.97	774.17	648.31	715.51	734.22	701.83	764.88	744.26	682.49	593.51	534.45	459.47	402.75	381.34	387.37	390.72	364.80	335.74	399.48	505.64	346.33	328.55	422.59	602.55	410.88	406.30	282.33	322.36	438.61	698.04	733.67	590.82	647.15	1032.47	760.28	529.64	644.80	599.17	541.05	420.93	322.86	308.69	313.33	295.97	311.61	292.38	296.23	303.88	304.47	316.03	279.64	285.94	296.76	289.75	316.69	287.63	253.44	266.64	279.95	426.97	343.50	265.33	360.66	316.71	387.50	482.45	450.73	439.03	276.36	204.76	190.99	217.97	315.22	414.21	387.72	255.01	152.97	113.67	111.88	106.42	95.69	86.97	92.25	166.20
2394.05	1883.31	1636.06	1790.33	2318.78	2072.66	1619.10	2084.18	1893.36	2529.00	1982.65	1653.51	1620.90	2469.43	1951.45	2239.60	1959.81	2254.33	1943.95	1667.73	1285.70	1627.12	1718.83	1924.71	2445.01	1987.35	2212.58	2485.26	2983.14	3100.51	2448.30	1551.78	1277.53	1037.31	1180.83	1871.03	1347.90	1213.95	1961.14	2878.03	2682.97	2541.56	2811.64	2855.80	2192.95	1717.97	1579.16	1873.48	1517.06	1809.66	2148.47	2236.94	2197.44	2051.53	1646.08	1712.30	1910.30	1991.14	2139.01	2169.88	2278.53	2200.50	1999.25	2079.22	2373.47	2282.99	2198.21	2116.91	2151.70	2101.92	2030.28	2267.99	2150.08	1975.78	2070.91	2041.43	2146.81	1982.18	2110.09	2067.89	2053.72	2064.98	2014.95	1784.14	1657.78	1628.15	1651.17	1513.29	1545.21	1542.53	1359.52	1566.40	1735.12	1767.18	1951.25	1870.67	1737.27	1445.64	1454.59	1448.54	1395.55	1372.61	1376.53	1270.75	1385.82	1384.84	1319.08	1291.28	1246.81	1243.08	1201.51	1217.69	1263.67	1297.57	1282.62	1221.31	1159.50	1105.76	1116.08	1251.93	1282.68	1296.86	1339.85	1218.92	1155.85	1373.45	1440.16	1414.03	1328.19	1265.94	1235.11	1070.72	914.67	1072.19	966.31	1054.95	1140.20	1308.25	1260.64	1180.06	1264.26	1172.78	1250.52	1249.55	1101.38	1124.44	983.39	794.87	828.30	763.85	765.65	754.87	763.95	747.19	741.51	659.72	624.03	719.28	706.66	677.26	671.78	669.30	604.52	666.49	725.01	716.61	756.08	649.56	686.17	646.32	686.69	790.90	803.38	707.71	811.33	807.20	787.94	629.12	675.50	699.33	594.74	591.77	427.70	419.81	416.53	463.39	417.03	470.64	400.20	375.11	478.19	466.24	405.50	361.77	509.14	625.59	480.17	460.00	288.33	430.22	485.45	609.66	969.25	579.16	703.38	1095.00	838.77	589.83	566.76	525.75	617.75	364.14	321.22	317.22	331.70	301.56	326.11	297.51	288.45	344.95	315.47	371.34	312.42	261.17	275.31	258.30	284.14	279.51	292.28	270.11	312.31	519.56	297.00	284.20	347.05	346.05	462.80	495.30	365.39	339.01	412.00	305.45	245.08	230.14	265.94	398.27	418.11	354.64	222.06	117.19	98.87	102.80	88.67	77.08	97.02	140.36
2011.70	1831.33	1940.15	1685.50	1876.97	1877.85	1549.33	1925.99	1757.95	2046.36	2292.30	1583.00	1985.75	2825.91	2114.95	2350.36	2101.58	1989.83	2259.36	1700.23	1295.23	1731.67	2127.70	2188.34	2264.90	2279.49	2641.36	2370.87	2988.28	3116.49	2542.01	1878.21	1709.94	1611.48	1220.61	1304.94	1529.72	1086.47	1826.64	2961.39	2506.33	2550.28	2827.01	2767.24	2352.25	2023.05	1647.84	1558.01	2162.72	1615.38	1628.39	1663.81	1710.30	1573.75	1844.36	2178.38	1865.90	2134.57	2204.03	2267.94	2346.66	2369.84	2178.43	2117.44	2302.90	2282.20	2197.64	2198.92	2197.47	2153.30	2152.06	2298.17	2317.64	2265.31	2110.76	2072.61	2220.11	2275.25	2314.20	2421.45	2260.26	2285.56	2204.89	1963.73	1862.52	1787.76	1736.20	1584.14	1495.60	1583.11	1500.10	1469.85	1562.22	1530.88	1758.41	1747.08	1754.55	1529.08	1356.74	1413.99	1407.94	1334.08	1392.34	1232.47	1363.25	1327.70	1302.72	1268.40	1244.12	1223.64	1247.74	1277.66	1261.36	1254.26	1255.02	1230.49	1211.64	1022.72	1089.75	1294.89	1274.74	1311.56	1347.67	1315.05	1298.58	1351.47	1347.83	1288.22	1307.47	1184.19	1192.25	1152.69	1051.69	1018.11	990.02	969.75	1107.55	1321.06	1278.56	1287.38	1173.83	1278.50	1301.86	1285.62	1086.61	1046.77	945.14	714.10	684.99	793.64	816.25	873.67	871.19	835.95	813.00	707.48	671.81	818.61	756.41	732.44	783.53	619.83	685.70	843.30	933.16	874.86	810.64	792.69	731.16	719.80	742.89	720.78	710.25	796.39	775.53	816.72	707.58	548.15	625.25	632.31	505.83	466.85	453.41	491.04	422.25	365.63	336.20	446.86	492.19	412.83	337.34	476.64	461.50	431.14	410.11	445.75	593.02	514.38	265.73	352.61	554.11	638.05	1120.36	883.70	776.09	1072.10	845.34	762.14	723.48	654.20	460.10	361.19	331.70	329.81	323.20	305.33	293.16	296.89	302.25	366.42	344.26	380.89	318.56	292.66	309.99	275.06	274.42	260.48	303.86	293.59	423.41	453.00	269.23	288.44	326.66	398.50	443.11	421.41	325.05	324.88	416.86	404.80	239.26	211.66	274.78	431.06	371.86	306.22	300.75	162.06	96.31	83.80	81.47	83.14	92.62	96.95
2448.45	2059.43	1643.03	1393.59	1408.63	1756.89	1444.14	1507.86	1529.07	1424.41	1551.17	1767.55	2089.45	2864.86	2139.56	2091.68	2120.84	1807.70	1723.92	1431.24	1373.44	2145.80	2400.22	2225.30	2330.86	2315.37	2854.31	2488.78	2985.17	3185.33	2834.25	2335.42	2057.22	1820.22	1320.19	1071.28	917.66	839.59	1495.90	2754.19	2083.19	2312.84	2852.18	2754.72	2568.57	2309.75	1931.10	2265.72	2490.82	1894.86	1965.55	2116.92	1798.98	1785.39	2100.12	2073.00	1866.55	1881.72	2359.56	2373.13	2390.86	2351.53	2257.69	2259.84	2372.23	2271.22	2211.28	2234.17	2213.80	2250.95	2233.83	2333.47	2516.30	2527.08	2232.23	2115.20	2276.36	2227.69	2308.33	2348.53	2226.23	2087.81	2109.55	2182.12	2150.56	1974.36	1862.30	1833.11	1579.59	1658.99	1588.74	1420.97	1399.76	1344.14	1520.03	1546.83	1505.75	1454.45	1320.69	1293.20	1308.32	1304.39	1230.12	1160.25	1283.45	1242.73	1296.50	1272.35	1253.86	1256.33	1315.74	1288.68	1245.88	1233.72	1247.80	1216.65	1123.24	1195.22	1263.61	1274.27	1311.25	1379.14	1408.03	1363.19	1358.22	1412.17	1380.28	1287.78	1159.34	1021.52	1117.59	1070.75	1000.48	1099.45	1215.03	1108.97	1053.51	1320.19	1360.86	1291.78	1191.80	1343.62	1337.49	1239.75	1129.89	1082.16	870.89	750.48	794.62	875.64	931.53	976.55	928.11	854.86	801.70	728.00	764.62	824.67	833.23	972.40	943.95	914.00	876.54	886.51	891.10	887.15	782.86	708.28	653.32	663.42	639.18	639.91	640.15	641.10	738.08	750.83	648.02	553.07	536.55	512.33	465.91	631.66	541.61	420.27	412.14	379.92	350.59	426.30	473.44	459.51	340.66	457.67	394.46	349.34	466.39	520.51	653.06	409.12	328.33	301.62	489.25	558.38	784.30	983.32	843.86	977.69	839.03	884.61	735.56	795.06	586.21	359.24	323.94	312.36	304.58	299.11	290.75	294.22	328.53	376.91	369.69	402.88	361.13	307.35	353.78	317.77	284.06	265.66	298.67	346.36	399.50	321.14	282.38	273.69	324.54	313.70	306.31	235.97	227.74	218.72	277.49	413.93	321.36	305.61	363.83	244.67	190.02	159.72	172.73	160.95	103.19	86.09	76.64	76.08	81.55	80.94
2273.75	2268.47	1822.11	1616.44	1469.09	1541.47	1299.81	1537.72	2104.67	1853.30	1517.64	2513.14	2633.81	2524.04	1908.16	1730.67	1976.18	1925.54	1427.87	1226.90	1573.55	2590.77	2525.97	2320.86	2307.78	2230.28	2816.17	2623.55	2984.53	3076.63	2833.41	2094.92	1627.28	1320.00	1577.91	1467.80	1062.11	751.40	1241.23	2447.30	1783.99	2482.24	2982.83	2773.89	2655.94	2344.69	2159.41	2273.06	2473.16	2185.33	2282.75	2107.45	1878.62	2050.26	2240.09	2026.64	2251.31	1850.86	2141.72	2261.14	2398.66	2254.69	2353.42	2400.77	2400.97	2212.48	2207.58	2210.27	2244.30	2325.02	2276.11	2290.83	2444.12	2601.42	2302.38	2204.55	2301.95	2193.25	2091.24	2168.22	2173.99	2066.87	2028.95	2079.79	2084.85	2059.72	1943.81	1746.76	1583.36	1860.44	1703.98	1661.86	1625.28	1475.38	1400.95	1423.69	1471.38	1481.08	1446.33	1324.30	1355.25	1285.60	1149.44	1204.85	1167.20	1194.62	1332.88	1295.93	1298.03	1299.67	1336.95	1300.08	1247.33	1205.12	1247.42	1192.39	1119.31	1320.68	1212.58	1186.07	1286.81	1362.69	1390.01	1354.75	1324.59	1351.80	1309.61	1181.45	1069.11	1091.15	1156.16	1124.40	1078.22	1232.78	1343.17	1230.59	1120.27	1234.02	1235.53	1267.28	1206.44	1194.09	1265.55	1220.00	1122.47	967.54	867.71	880.37	899.19	937.14	978.01	924.19	870.78	832.57	772.65	721.99	851.67	969.86	955.40	969.49	913.08	898.17	887.81	888.20	854.50	792.79	773.90	702.41	705.11	723.19	695.39	714.72	661.97	706.45	821.97	822.47	680.06	675.39	742.91	617.36	440.15	453.79	521.65	636.89	476.70	437.01	344.16	395.97	461.49	444.58	345.72	462.53	406.80	350.17	439.71	557.78	656.01	415.05	320.51	296.20	372.91	563.52	837.39	948.89	762.61	854.40	622.38	601.19	467.25	635.75	539.00	367.36	327.05	316.39	312.06	303.30	300.66	347.11	562.22	493.27	361.19	453.45	357.68	317.67	342.55	336.53	274.41	279.06	286.98	358.38	373.58	297.83	296.25	300.97	312.36	319.28	191.23	163.12	169.97	178.11	198.75	253.51	338.13	308.22	437.64	218.50	167.77	188.97	221.22	141.17	98.97	89.47	85.98	74.62	78.91	69.41
2112.75	2183.08	2188.57	2211.55	1605.40	1407.59	1795.24	2148.28	2023.27	1695.95	1408.95	2280.88	2374.72	2596.42	2105.47	1604.86	1869.81	1899.33	1454.44	1214.63	1731.14	2319.85	2326.26	2143.25	2282.75	2527.34	2806.36	2722.50	2910.67	2811.62	2699.70	2272.86	1723.24	1539.55	2018.17	1696.77	1580.88	933.53	884.36	1733.15	1627.48	2368.59	2736.09	2328.44	2366.51	2301.78	2338.49	2425.53	2403.49	2538.30	1994.55	1902.31	1837.14	2198.98	2010.05	2305.47	1989.32	1945.17	2032.08	1887.19	2328.41	2396.06	2252.23	2248.81	2625.94	2252.70	2194.24	2187.86	2232.45	2357.47	2301.28	2099.69	2162.06	2357.17	2379.23	2197.67	2403.02	2405.14	2297.43	1995.14	2064.92	2075.93	1894.12	1929.94	2050.19	1888.32	1731.42	1653.42	1801.59	1845.74	1850.27	1711.70	1614.44	1500.06	1422.53	1363.88	1492.33	1401.51	1452.14	1416.09	1533.48	1385.53	1350.50	1283.51	1221.00	1399.08	1419.20	1450.23	1419.82	1453.53	1368.67	1272.20	1119.14	1166.28	1142.92	1133.53	1177.47	1112.34	1124.70	1300.44	1325.99	1327.88	1306.64	1321.70	1316.69	1302.70	1274.95	1279.24	1198.84	1257.41	1256.55	1186.40	1137.74	1202.77	1369.57	1303.12	1220.03	1119.56	1196.94	1264.69	1199.02	1133.27	1242.76	1194.28	1060.69	960.24	978.28	940.52	966.39	1006.84	943.73	961.89	984.06	1046.44	808.58	788.72	980.92	877.85	799.91	674.77	677.94	678.49	819.54	887.92	907.81	893.44	834.12	759.86	806.66	819.78	867.12	758.95	674.30	661.33	650.38	690.29	757.78	638.77	602.89	527.44	561.32	693.83	649.26	504.15	433.41	348.06	369.64	443.56	494.94	462.78	357.55	355.71	317.41	365.11	454.77	676.86	560.92	371.79	397.40	362.41	394.08	669.70	1037.25	1038.34	965.29	858.61	582.09	664.42	558.34	417.75	519.69	552.39	346.92	328.59	340.03	331.19	457.08	534.53	581.74	412.85	381.84	454.82	369.95	340.45	331.02	311.28	286.06	278.97	321.36	346.60	339.22	308.39	306.31	471.48	562.97	376.08	189.64	151.73	158.06	153.47	161.52	161.81	197.45	260.76	359.17	376.54	342.62	363.33	214.20	130.44	96.59	89.25	82.62	76.44	73.98	69.86
1871.30	1736.16	1885.73	2088.80	1400.95	1785.73	1867.81	2297.50	2051.53	2185.95	1437.78	1515.04	1908.83	2170.88	2098.72	1564.80	1679.84	1305.06	1227.51	1274.61	2066.38	2718.97	2546.80	2166.86	2502.41	2732.69	2569.14	2662.58	2665.72	2683.19	2599.89	2565.14	2577.34	2164.61	2270.86	1856.49	1864.80	1366.77	808.36	1332.69	1421.35	2004.25	2054.44	2141.15	2687.04	2292.12	2416.49	2303.75	2479.20	2285.75	2046.55	1844.58	2122.40	2000.72	2411.27	2045.74	2003.56	2475.72	2242.61	2080.01	2384.42	2241.17	2130.38	2425.78	2616.24	2294.78	2204.38	2175.19	2175.72	2234.30	2321.03	2116.14	2010.11	2039.17	2126.87	2007.64	2110.26	2287.02	2551.40	2192.94	1926.80	1974.58	1921.83	1857.44	1900.09	1790.54	1695.08	1775.24	1854.08	1733.97	1717.38	1699.88	1551.31	1434.97	1471.41	1578.56	1502.36	1422.00	1306.39	1407.80	1458.16	1432.45	1332.53	1309.70	1406.83	1346.77	1480.52	1503.74	1437.34	1380.45	1324.67	1163.02	1246.67	1245.39	1248.89	1252.62	1232.91	1212.26	1250.66	1302.37	1321.36	1275.38	1312.47	1368.32	1333.83	1367.81	1307.90	1336.73	1327.15	1333.61	1303.50	1312.28	1179.88	1155.42	1198.05	1218.49	1056.08	1185.19	1318.81	1322.53	1240.94	1091.20	1102.51	1096.26	1023.46	945.34	898.61	871.03	911.61	903.40	973.82	970.76	970.00	942.69	839.14	889.15	944.52	743.98	635.71	689.67	666.91	591.29	624.53	714.25	794.61	880.93	781.22	780.95	1009.39	854.64	872.17	756.79	638.37	615.72	541.25	646.97	763.55	660.25	647.56	719.75	661.36	641.03	563.62	597.28	427.91	358.00	433.97	467.73	469.16	489.80	332.11	324.92	325.74	304.53	459.64	575.00	617.72	366.14	387.28	356.14	375.88	605.94	957.04	839.55	1111.53	933.67	620.58	480.36	510.06	456.34	863.61	607.14	364.19	349.51	369.64	348.89	472.27	601.42	525.89	427.88	441.08	433.59	377.97	351.33	290.89	271.38	277.01	321.42	546.39	426.11	336.22	350.50	341.26	621.53	667.30	392.06	275.91	151.91	147.38	142.06	137.08	145.05	162.91	174.78	231.89	283.20	274.99	270.74	182.40	122.92	123.81	96.50	92.03	84.39	75.31	73.02
1800.20	1830.75	1607.98	1518.53	1485.88	1887.28	2036.12	2531.36	2104.57	1928.16	1487.03	1645.25	1382.01	1779.44	1905.23	1551.58	1370.66	1158.00	1121.22	1292.45	1832.28	2779.17	2612.50	2255.55	2406.95	2485.14	2403.89	2320.86	2568.74	2489.99	2543.03	2409.59	2642.20	2235.28	2168.05	2164.44	2031.17	1948.60	1280.56	919.64	1289.37	1705.54	1722.28	2860.22	2665.48	2386.58	2491.44	2434.76	2457.88	2132.66	1948.24	1864.66	2077.78	2037.58	2399.78	1835.85	2322.91	2478.41	2212.19	2075.81	2105.99	2153.62	2244.15	2492.83	2569.55	2392.05	2300.53	2230.53	2251.39	2239.99	2251.19	2184.52	2083.48	2026.55	1974.74	1943.38	1923.30	2082.39	2389.17	2364.27	2065.69	1920.75	1834.24	1816.71	1918.50	1903.19	1930.25	1895.38	1928.06	1977.25	1936.22	1780.78	1618.34	1504.09	1453.53	1631.42	1603.39	1411.39	1370.49	1377.95	1539.02	1372.80	1424.36	1385.89	1403.95	1262.55	1389.23	1399.33	1271.99	1243.83	1209.80	1212.11	1308.78	1295.86	1242.26	1221.92	1241.01	1261.49	1174.91	1265.16	1289.64	1327.55	1377.26	1375.99	1372.92	1393.13	1366.66	1284.88	1334.86	1383.88	1318.22	1228.55	1066.90	1060.53	1092.76	1058.26	988.01	1131.33	1213.95	1299.50	1212.15	1071.44	1037.70	991.98	1007.66	989.58	1024.24	869.45	785.17	949.97	892.87	857.25	959.22	875.20	788.67	883.53	715.25	671.39	716.07	691.14	634.95	734.06	710.61	741.57	865.82	787.49	703.31	955.00	977.22	987.14	986.89	847.80	771.01	724.61	626.75	714.40	695.55	643.68	608.31	720.83	732.89	674.31	563.44	512.21	390.92	447.62	502.58	431.78	408.50	357.11	301.32	366.45	300.33	358.88	426.44	500.16	479.77	378.25	401.61	357.38	457.44	570.41	761.23	771.31	947.72	839.22	667.16	463.34	440.16	647.09	966.36	547.88	372.59	387.04	408.44	389.86	506.86	565.61	522.32	487.42	440.61	419.80	392.77	362.33	274.44	326.99	305.17	413.15	670.86	552.16	373.42	382.72	392.58	716.44	643.97	426.51	284.38	165.49	148.03	138.83	132.67	136.84	143.86	166.26	158.59	187.47	209.79	202.67	152.80	140.14	139.00	108.28	108.74	100.00	84.97	104.28
2034.25	2061.76	2196.58	1911.99	1741.12	2024.32	2055.58	2371.41	1993.22	1774.73	1712.98	1883.40	1517.11	1333.49	1659.86	1359.99	1370.70	1612.89	1351.20	1375.88	2014.53	2764.27	2334.19	2152.17	2185.07	2224.91	2418.55	2164.30	2397.02	2314.56	2162.99	2507.59	2411.82	2356.30	2154.88	2046.11	2212.23	2219.08	1634.48	896.99	1366.27	1670.49	2420.04	2838.86	2606.50	2459.19	2625.20	2762.04	2338.31	1970.03	1848.86	1896.61	1942.66	2034.53	2288.76	1975.89	2068.30	2500.01	2296.00	2123.82	2156.95	2237.98	2237.12	2379.44	2523.28	2446.44	2402.00	2354.12	2301.09	2291.67	2266.97	2093.64	2184.24	2326.31	2285.66	2090.70	1900.97	1849.52	2142.41	2142.45	2114.25	1818.19	1814.59	1789.34	1724.68	1811.40	1905.02	1920.78	1961.09	1939.87	1935.28	1773.83	1652.08	1512.75	1552.95	1726.78	1667.61	1521.69	1566.39	1575.10	1693.01	1495.88	1463.34	1369.94	1296.90	1283.13	1238.33	1259.19	1294.94	1392.75	1400.55	1212.92	1271.12	1275.11	1245.36	1210.97	1246.81	1241.99	1307.19	1311.14	1277.88	1384.47	1392.92	1338.17	1324.44	1408.64	1350.08	1211.24	1227.14	1179.55	1106.14	1049.75	1126.55	1206.75	1214.97	1102.82	1030.38	1173.45	1251.19	1164.49	1154.15	1061.50	1021.44	1074.91	979.38	919.86	908.64	833.44	912.14	819.99	809.94	772.97	963.14	761.71	749.61	673.08	711.42	792.22	790.20	689.90	806.14	879.50	731.45	675.08	671.94	699.27	936.22	972.46	846.44	958.72	1080.20	994.11	815.53	677.72	605.78	720.36	821.08	667.92	596.22	688.03	797.36	607.90	414.03	410.16	467.59	451.80	403.17	406.47	433.81	363.25	325.14	369.45	323.60	394.57	409.28	426.28	461.52	365.16	356.24	368.50	474.41	665.46	631.42	726.42	823.61	623.98	542.86	683.15	613.51	822.95	763.08	446.86	358.77	331.53	318.08	372.87	463.97	540.94	525.31	485.19	417.31	402.99	336.01	309.51	297.81	322.36	316.45	463.47	631.39	540.89	456.10	416.62	373.62	441.92	355.08	305.35	224.19	194.14	140.27	130.91	121.31	141.64	222.38	171.81	158.05	134.72	141.02	135.01	120.19	136.22	123.31	117.69	110.11	107.64	111.16	168.65
1802.89	2143.31	2083.94	2285.15	2302.39	1933.53	1547.97	1761.80	2014.05	2038.69	1897.85	1665.64	1345.42	1246.30	1379.39	1353.40	1753.76	2095.59	1848.03	1515.72	2300.26	2450.67	2011.36	2134.61	2105.75	2104.51	2289.15	2191.13	2131.65	2136.12	2154.44	2387.03	2456.89	2597.66	2318.76	1957.03	2359.84	2389.17	1790.42	1002.75	1643.05	1544.53	2418.77	2799.42	2634.47	2548.75	2750.25	2787.66	2309.19	2047.48	1905.36	1996.42	1916.15	2130.81	2312.64	2173.72	1962.78	2067.38	2275.80	2060.78	2215.74	2258.97	2318.95	2408.94	2368.12	2391.94	2380.34	2372.12	2232.00	2010.76	1862.82	1680.00	1900.06	2101.62	2266.88	2312.34	2340.08	1967.22	1946.11	1988.19	1921.31	1978.36	1849.08	1838.61	1721.50	1821.58	1840.55	1875.97	1859.19	1792.33	2045.08	1853.50	1743.48	1799.95	1686.30	1730.82	1683.88	1651.90	1746.45	1604.35	1775.50	1571.78	1473.89	1375.76	1329.76	1373.88	1397.05	1343.30	1377.67	1367.35	1329.87	1265.44	1283.45	1241.73	1252.11	1224.19	1295.23	1313.06	1342.73	1254.82	1238.08	1278.73	1281.67	1308.35	1274.42	1334.20	1243.65	1175.18	1151.01	1067.57	1169.95	1214.33	1172.93	1266.93	1219.61	1146.40	1127.05	1327.55	1302.72	1189.06	1071.92	1054.48	978.25	1028.80	931.49	891.96	811.34	946.66	1035.15	913.22	959.53	844.74	836.11	648.71	668.66	707.27	818.65	816.44	771.42	819.18	724.23	833.30	732.00	654.08	646.91	837.56	865.81	962.89	907.38	829.88	916.99	962.90	805.17	817.04	701.91	641.62	678.54	525.74	524.91	597.64	569.78	394.11	547.41	525.47	526.72	463.92	429.60	495.77	433.54	356.64	400.14	405.98	337.33	346.72	351.78	511.97	479.55	400.01	412.36	412.32	388.74	545.03	640.14	671.73	754.35	515.56	563.51	679.26	719.94	724.51	458.35	376.92	340.64	325.58	342.84	341.98	487.60	568.71	524.52	475.77	400.12	400.51	339.94	305.67	296.30	350.54	373.74	916.31	743.50	397.81	354.92	505.06	315.97	342.23	223.38	183.97	191.50	172.38	128.76	122.97	128.67	215.72	331.12	191.00	136.51	124.44	122.38	116.53	110.19	131.30	137.19	103.77	95.28	102.62	102.22	111.80
1541.00	1881.84	1709.59	1916.39	2263.47	2193.67	1547.23	1384.60	1645.28	2289.39	1885.38	1529.42	1353.60	1148.11	1733.05	1658.28	1827.00	2367.10	2101.51	1836.27	2456.85	2278.09	1881.30	1960.06	2107.61	2116.72	2383.38	2187.49	2083.20	1912.19	2054.11	2279.81	2417.23	2730.52	2249.18	1951.72	2519.30	2610.08	2141.08	1188.06	1425.12	1636.26	1726.03	2580.65	2695.53	2604.26	2546.91	2541.89	2347.64	2014.38	2079.11	1937.98	1973.03	2237.69	2386.09	2244.55	2214.39	2190.17	2261.47	2132.53	2159.71	2273.73	2320.25	2237.14	2348.81	2237.89	2158.74	2217.89	2202.66	1945.47	1848.16	1765.64	1713.86	1923.59	2134.16	2203.22	2151.00	2297.72	1975.13	1885.03	1848.36	1809.12	1820.51	1800.50	1769.53	1903.57	1630.36	1818.09	1762.82	1666.61	1826.98	1949.40	1911.68	2009.14	1865.36	1899.72	1875.33	1830.11	1801.87	1886.77	1733.11	1606.81	1435.98	1403.05	1389.20	1438.57	1405.33	1386.89	1421.72	1351.49	1353.75	1216.45	1301.99	1294.80	1279.14	1247.12	1307.61	1466.94	1424.76	1293.06	1216.02	1289.14	1292.66	1298.11	1261.24	1214.11	1111.90	1058.55	1207.49	1273.21	1236.43	1291.95	1268.11	1361.75	1252.73	1113.53	1152.70	1326.90	1366.97	1160.25	1041.78	1012.03	896.55	942.86	902.94	877.90	873.01	1045.59	981.47	905.20	901.08	877.55	861.65	665.64	830.42	821.17	838.01	727.97	757.52	746.64	705.36	881.98	948.74	913.25	789.97	685.31	719.39	845.76	939.94	734.78	665.59	869.53	952.68	929.24	904.35	782.25	653.80	717.56	714.42	546.77	389.41	423.72	558.26	647.56	569.97	491.56	441.59	485.92	410.11	376.14	409.56	344.92	324.19	360.27	507.08	607.55	474.52	480.41	484.31	513.81	405.78	619.30	751.03	581.67	871.26	583.44	616.70	673.39	898.99	482.68	395.79	351.50	362.45	494.20	340.88	366.44	477.01	584.09	585.88	546.25	449.04	354.47	301.45	351.67	493.72	457.59	343.89	799.44	1028.20	433.20	225.70	390.73	310.42	218.33	172.47	160.49	182.05	164.20	160.11	158.74	131.31	300.30	190.17	350.00	162.89	119.45	116.92	114.41	114.75	129.38	140.64	110.83	96.88	93.17	90.94	99.03
1352.50	1703.05	1736.87	1438.61	1613.78	1777.98	1865.95	1441.02	1759.06	2366.69	2004.20	1564.30	1353.20	1277.09	1414.92	1637.45	1692.19	2444.42	2248.58	2283.41	2204.01	2032.59	1807.67	1861.62	2057.61	2187.91	2412.23	2164.86	1991.03	1885.15	1739.53	2033.35	2605.76	2575.50	2050.89	1954.43	2161.34	2414.89	2430.75	1639.17	1086.72	2071.15	2097.76	2454.80	2820.37	2750.12	2704.70	2456.26	2034.90	2134.95	2006.62	1957.99	2083.30	2400.30	2646.01	2568.62	2204.64	2061.55	2255.94	2257.10	2242.32	2271.45	2313.35	2259.01	2086.45	2071.89	1911.71	1836.59	1834.94	1861.83	1720.09	1803.09	1811.07	1887.53	2039.92	2189.86	1968.44	2022.31	2377.36	2078.31	1953.92	1869.24	1975.69	1883.36	1790.41	1902.28	1868.26	1666.34	1620.39	1461.91	1739.42	1948.86	1826.36	1894.26	1808.36	1944.53	2044.78	1948.77	1932.28	1909.98	1791.78	1595.92	1391.44	1490.12	1564.30	1537.28	1413.72	1384.64	1378.39	1360.70	1233.91	1235.41	1410.19	1414.39	1322.39	1280.03	1345.80	1492.41	1423.72	1250.74	1250.96	1284.94	1284.52	1272.13	1253.35	1116.02	1037.97	1151.17	1234.24	1277.78	1353.30	1399.15	1321.50	1324.67	1171.14	1251.49	1136.00	1409.64	1445.97	1211.39	1105.01	1085.82	915.11	939.56	856.65	857.47	992.22	1019.12	947.47	985.31	873.26	852.82	761.09	686.81	896.75	924.37	841.86	881.79	853.50	779.08	830.39	1064.39	1061.27	896.06	738.00	700.92	636.36	760.26	741.17	804.06	726.47	766.03	991.97	921.75	815.39	811.89	738.00	672.81	691.58	463.30	470.74	482.47	503.47	684.75	588.08	699.61	538.98	662.80	453.33	382.38	475.43	333.67	381.54	400.28	486.30	489.81	522.44	493.30	496.81	542.76	452.35	426.08	527.92	488.11	731.06	619.14	494.05	759.14	758.64	438.62	387.02	433.42	612.38	762.99	365.61	390.90	449.67	572.39	565.72	509.81	452.29	346.99	366.64	831.25	1007.03	765.41	391.00	639.05	946.47	493.25	273.12	173.72	260.76	168.50	160.36	147.94	187.03	130.30	170.41	160.12	114.56	116.08	134.47	386.48	301.24	121.17	95.24	110.23	108.81	109.09	145.55	124.45	122.14	103.59	89.53	109.53
1280.28	1390.72	1322.12	1380.38	1327.81	1206.53	1288.91	1293.42	1480.67	1645.06	1411.28	1269.17	1150.11	1308.42	1312.10	1398.51	1605.69	2091.00	2065.16	2208.47	2122.22	1984.03	1806.51	1865.94	2163.42	2029.00	2158.25	2184.66	1868.00	1828.35	1868.80	2207.60	2705.12	2347.83	2249.56	2217.24	2545.95	2072.05	2433.82	1692.39	1088.59	2174.95	2580.17	2296.38	2638.81	2826.11	2618.50	2281.86	2083.59	2159.69	1945.03	2127.70	2203.06	2466.73	2464.57	2423.66	2255.16	1968.92	2338.84	2270.39	2296.36	2279.62	2250.42	2184.17	1986.72	2215.30	1944.41	1744.99	1805.22	1810.53	1776.64	1787.56	1892.22	1863.39	1723.64	1933.56	1833.03	2066.20	2281.26	2191.84	1915.89	1904.81	1895.84	1863.52	1887.40	1944.95	1971.20	1803.61	1657.72	1527.13	1653.80	1767.20	1730.34	1755.34	1723.24	1914.53	2007.30	1851.86	1830.08	1792.58	1761.49	1629.30	1460.95	1548.89	1526.03	1504.69	1465.92	1390.72	1416.80	1404.28	1381.20	1246.60	1353.17	1342.86	1356.83	1313.14	1330.22	1375.74	1290.69	1277.30	1298.13	1286.42	1255.76	1211.23	1153.09	1140.06	1103.25	1117.89	1227.53	1360.99	1468.33	1458.50	1325.89	1192.05	1042.89	1109.73	1120.31	1428.65	1527.84	1276.91	1063.09	1005.51	1008.33	962.97	864.19	920.05	1053.94	1035.89	948.75	978.28	896.61	836.14	680.36	750.75	900.03	956.43	869.45	870.42	879.30	863.80	1081.30	1177.00	1111.83	980.97	888.31	888.01	884.49	689.72	722.15	1059.83	776.72	705.80	636.16	834.26	879.61	655.95	597.58	548.38	438.38	569.23	599.88	467.44	616.78	547.42	534.19	595.64	635.64	643.25	438.64	422.08	504.71	356.06	403.45	525.83	511.30	589.29	511.89	555.01	517.40	478.67	412.12	454.44	406.01	418.44	584.74	510.21	537.83	943.44	775.26	433.47	484.77	685.94	655.49	578.95	416.11	476.12	457.00	583.89	564.89	484.36	383.44	320.89	561.38	1120.61	1287.78	831.97	445.17	532.98	775.53	375.54	321.99	170.69	155.42	160.97	169.19	136.36	160.42	155.34	156.25	142.83	111.56	98.38	121.03	337.80	470.20	244.49	147.66	102.28	96.39	97.56	129.12	120.34	103.94	106.89	106.61	113.70
1273.61	1233.10	1160.70	1173.67	1283.17	1311.47	1358.75	1275.00	1375.49	1179.00	1196.45	1184.09	1544.26	1079.44	1185.01	1305.36	1626.09	1900.41	2172.93	1948.01	1961.15	1886.05	1854.12	1881.05	1881.33	1857.30	1839.14	1858.07	2021.75	2135.02	2073.53	1936.05	2350.62	2549.81	2551.72	2667.36	2681.27	1936.51	1850.66	1615.92	939.81	1670.88	2561.80	2373.18	2541.38	2556.55	2365.02	2294.31	2300.69	2051.58	1970.85	2137.61	2211.35	2187.36	2190.25	2229.06	1900.74	1945.66	2012.70	2073.02	2276.45	2241.51	2227.53	2049.40	2103.24	2173.44	2089.92	1994.47	2182.64	2196.10	1935.62	2074.45	2088.16	1651.24	1804.62	1664.38	1895.92	2268.08	2202.11	2061.97	2091.72	1922.48	1836.14	1839.25	1863.64	1858.14	1944.83	1957.05	1706.78	1533.86	1547.43	1566.61	1828.98	1634.34	1619.70	1705.44	1800.22	1752.50	1749.95	1648.00	1655.16	1668.42	1612.33	1623.72	1587.72	1561.08	1482.26	1568.92	1447.74	1396.00	1279.77	1236.72	1315.78	1438.03	1421.24	1303.90	1268.25	1255.30	1232.61	1261.55	1288.38	1260.20	1211.56	1119.98	1109.62	1141.45	1090.77	1190.35	1351.51	1492.19	1571.51	1530.55	1385.24	1169.28	1115.25	1143.60	1111.89	1222.50	1190.61	1060.20	1024.78	1089.09	1073.14	1000.55	846.39	990.42	1007.96	883.68	812.44	800.23	725.12	693.42	689.64	846.74	840.50	828.79	826.61	887.65	935.32	1197.08	1371.76	1179.17	1145.75	1084.36	1003.44	998.52	963.92	737.89	901.80	1150.49	1049.78	913.74	741.64	637.00	598.38	747.37	778.36	581.64	607.52	672.50	586.05	560.26	508.75	442.49	522.62	720.04	744.12	559.06	446.51	430.91	353.14	318.03	367.36	511.48	777.56	639.83	490.35	582.12	499.79	454.02	404.00	432.12	404.89	443.40	464.78	450.83	720.61	799.05	544.22	586.55	795.22	816.80	844.53	655.11	510.99	545.51	421.42	467.69	485.30	455.78	336.72	450.56	829.51	1145.26	974.57	708.81	531.99	585.09	838.05	513.55	475.88	176.86	151.28	160.75	164.09	143.12	120.16	122.09	109.20	111.56	98.88	94.17	137.74	202.94	419.56	349.12	184.33	100.05	83.81	86.56	106.77	91.92	87.28	84.48	79.83	86.55
1459.86	1482.08	1380.42	1361.81	1210.74	1629.94	1451.31	1409.38	1672.20	1408.67	1179.24	1374.68	1732.61	1207.53	1349.38	1358.03	1696.00	2147.78	2173.61	2014.64	1910.05	1875.17	1829.12	1798.34	1844.14	1984.97	1822.95	1861.81	2093.83	2131.32	2066.94	1911.56	2653.08	2816.00	2673.56	2597.52	2430.60	2673.89	2379.72	1592.64	1243.35	1175.83	1991.00	2277.28	2479.74	2474.02	2493.94	2465.24	2315.09	2026.94	2031.03	2205.89	2196.28	2034.78	2060.20	1966.89	1875.60	2092.18	1909.80	2021.02	2296.38	2270.80	2069.78	1994.44	1947.55	2101.58	2143.24	2041.94	2017.66	1973.85	2101.30	2091.44	2138.65	1820.31	1871.88	1745.33	1776.97	2168.08	2081.47	2118.45	2113.56	1951.38	1942.84	1897.89	1845.05	1908.58	1881.65	1968.03	1783.37	1656.66	1552.59	1483.74	1564.89	1443.00	1457.16	1725.97	1944.24	1801.09	1696.33	1614.66	1563.16	1528.99	1516.62	1615.69	1667.90	1561.45	1537.36	1436.62	1404.83	1408.91	1295.44	1298.75	1421.80	1456.26	1333.56	1290.82	1277.26	1255.92	1271.49	1278.49	1326.70	1263.28	1168.20	1118.13	1139.78	1119.36	1138.09	1248.89	1334.61	1365.78	1423.90	1269.11	1238.22	1112.13	1087.22	1211.01	1163.14	1361.20	1185.51	1185.45	1208.56	1075.62	1085.92	1011.89	903.92	962.01	977.65	830.94	697.45	664.75	692.05	713.06	873.42	1017.58	928.67	925.15	1018.41	996.38	1252.45	1425.16	1532.85	1028.58	945.31	969.97	801.83	734.86	708.08	681.60	1079.22	1161.24	933.66	832.47	679.39	925.28	649.70	817.95	777.64	605.91	694.44	733.16	560.19	509.66	449.97	613.76	638.30	805.62	695.44	569.81	437.28	485.88	442.14	365.89	494.62	576.75	515.86	470.66	504.70	573.28	512.20	442.38	447.25	492.81	551.58	557.58	479.15	435.92	594.19	541.55	555.67	932.30	1193.55	1080.36	1179.97	1010.25	533.90	445.62	383.51	370.84	429.11	345.33	320.56	514.86	767.22	896.58	730.55	533.33	584.14	607.49	604.69	459.17	546.83	196.25	145.09	123.97	129.56	123.94	115.31	111.78	125.39	129.67	115.11	116.28	102.78	250.48	340.56	232.75	115.14	109.81	86.86	85.58	89.33	86.92	109.78	91.98	93.28	106.02
1695.16	1732.70	1670.28	1455.48	1211.67	1547.98	1542.26	1737.64	1842.22	1643.08	1258.53	1241.02	1408.70	1162.53	1294.48	1519.23	2033.31	2088.76	2059.17	2061.38	1911.84	1701.11	1748.39	1895.36	1810.53	1774.68	1924.06	2055.43	2017.42	1822.56	1776.64	2122.16	2666.59	2897.34	2955.33	2762.51	2507.23	2364.65	2217.00	1205.58	1146.39	1278.51	1771.78	1962.00	2252.20	2469.22	2486.47	2403.14	2208.05	2127.39	2102.27	2268.81	2264.12	2175.70	2296.51	2038.94	1800.44	1989.53	2082.96	2107.83	2143.09	2022.42	1928.64	1897.22	1973.23	2123.26	2001.84	1927.74	2036.75	1967.53	2048.58	2174.03	2296.75	1852.17	1825.34	2009.86	1748.70	2083.17	2265.76	2099.45	2002.81	1930.44	1841.82	1768.08	1723.00	1640.20	1892.44	1795.62	1848.06	1635.36	1629.30	1601.05	1519.40	1426.17	1642.51	1824.88	1837.73	1763.14	1613.84	1431.53	1477.89	1373.03	1375.94	1565.15	1556.44	1555.86	1530.48	1462.97	1385.17	1337.99	1227.53	1301.74	1410.72	1347.59	1314.80	1281.92	1245.57	1250.25	1274.83	1258.11	1249.22	1237.84	1176.08	1107.85	1129.02	1150.86	1193.25	1268.36	1311.59	1218.97	1144.03	1152.72	1121.20	1085.84	1072.05	1261.74	1240.88	1412.06	1281.28	1165.97	1187.03	1103.99	1046.10	951.28	999.01	955.00	909.98	740.92	661.40	719.78	864.52	827.94	904.22	1112.51	1015.96	901.94	954.81	1037.20	1527.86	1744.34	1106.72	900.64	856.88	832.39	731.64	701.92	679.42	864.44	1237.39	1030.64	840.36	835.43	1031.60	955.97	670.36	767.17	660.02	711.04	639.47	530.40	616.31	477.03	481.50	672.61	809.48	845.55	693.14	518.30	555.76	539.75	389.75	402.60	666.32	766.91	543.97	530.16	519.79	541.15	505.66	495.81	577.14	668.53	936.96	888.05	489.50	570.25	505.30	522.53	686.24	846.92	1099.67	1407.13	1269.24	967.06	723.75	430.40	369.38	332.51	360.82	347.72	565.65	606.08	887.08	867.36	456.31	377.73	479.94	466.73	504.67	406.30	478.83	204.78	152.95	148.84	140.59	125.56	118.53	107.98	119.50	137.91	125.72	113.97	104.17	122.50	229.48	123.92	99.14	113.36	108.95	84.22	84.12	81.92	100.44	86.78	87.44	111.50
1767.45	1922.90	1894.12	1752.61	1317.45	1349.99	1624.19	2001.78	2247.12	1592.80	1544.01	1279.25	1502.53	1251.24	1111.06	1417.58	2024.49	2241.03	1995.81	1991.24	1854.55	1561.50	1689.64	1778.35	1743.36	1752.74	1874.67	2044.72	1890.51	1601.47	1777.27	2104.44	2615.97	2863.81	2874.17	2629.58	2567.67	2623.55	2306.25	1261.90	1669.78	1214.90	1703.62	1901.35	2362.42	2414.61	2193.01	2156.35	2296.91	2177.07	2249.86	2443.36	2328.26	2421.17	2247.86	2102.09	1838.43	2115.27	2139.28	2072.83	1981.86	1954.38	1997.91	1958.73	2059.17	2104.65	1940.62	1976.27	2127.22	2077.05	2167.56	2305.65	2106.50	1945.31	1864.27	2150.81	1882.44	1691.20	2184.94	2082.48	2082.30	2016.67	1678.68	1671.51	1713.51	1802.99	1631.83	1667.03	1709.19	1778.75	1533.56	1488.16	1419.67	1366.59	1554.15	1704.80	1774.18	1693.61	1572.33	1482.45	1346.51	1353.70	1414.03	1369.69	1469.09	1381.39	1486.70	1402.72	1281.76	1266.15	1400.78	1352.92	1380.42	1371.52	1316.02	1271.00	1241.75	1256.00	1258.94	1230.05	1220.13	1209.98	1168.50	1117.81	1140.67	1196.78	1285.70	1280.89	1237.10	1147.73	1206.23	1270.53	1275.08	1138.41	1063.51	1182.45	1316.14	1509.52	1379.69	1277.01	1174.93	1092.09	1036.31	958.76	1009.62	849.80	739.97	717.25	676.30	786.62	1010.64	915.01	961.59	1087.80	970.64	1045.24	1012.53	1226.14	1736.64	1319.77	1042.97	980.55	926.41	857.92	700.11	735.50	665.95	940.99	983.18	992.24	1021.84	1060.27	864.62	751.25	611.26	675.50	780.56	678.42	577.09	610.48	525.90	415.46	486.76	701.69	785.26	619.95	495.88	550.95	542.14	429.66	431.30	451.06	723.75	648.17	569.22	577.89	489.62	569.99	650.07	586.61	597.30	892.25	1157.35	963.72	539.06	701.70	474.03	617.49	917.89	1135.95	1271.60	1140.23	906.31	775.20	637.25	422.26	334.86	316.80	342.75	667.97	987.20	1006.49	1220.11	864.20	381.38	318.36	344.81	296.89	305.61	238.17	290.06	182.49	161.56	170.31	143.16	114.14	117.34	115.45	125.52	135.12	120.05	121.14	123.05	94.23	105.33	90.22	106.22	138.20	145.86	144.36	101.33	123.16	111.53	84.30	102.83	99.31
1501.92	1640.30	1558.17	1458.49	1254.95	1521.16	1497.33	2024.88	2303.00	1636.86	1680.41	1340.33	1547.07	1293.30	1319.97	1245.12	1778.62	2137.84	1901.09	1592.31	1590.36	1590.60	1592.12	1719.58	1768.19	1928.79	2268.19	2454.64	2116.00	1681.04	1400.14	2256.31	2671.03	2640.51	2759.38	2809.98	2292.62	2360.45	2084.03	1249.44	1830.22	1265.99	1786.67	2252.80	2179.60	2181.50	2264.11	2541.12	2578.42	2474.69	2522.07	2444.95	2412.14	2368.27	1945.97	1934.31	2090.13	2104.85	2273.38	2182.03	2078.17	2073.19	1978.67	2066.49	2115.44	2001.20	2068.36	2094.55	2168.50	2214.33	2169.14	2191.14	1965.16	2049.59	2185.66	2420.15	1993.47	1504.58	1714.55	2062.72	2200.27	2235.88	1999.64	1604.42	1299.24	1474.86	1688.19	1385.45	1526.80	1844.22	1688.35	1529.62	1498.48	1405.50	1306.62	1530.66	1693.20	1482.28	1543.58	1377.64	1290.97	1330.42	1272.78	1278.41	1281.38	1310.94	1313.26	1350.19	1355.95	1428.28	1393.86	1368.30	1425.19	1334.51	1305.80	1251.69	1245.32	1281.76	1260.37	1233.19	1211.66	1190.42	1167.97	1126.60	1122.10	1191.28	1327.33	1339.56	1370.22	1393.00	1397.19	1485.14	1313.92	1125.84	1045.34	1164.22	1288.81	1485.50	1523.47	1383.41	1157.60	1044.60	989.72	953.89	934.66	825.74	800.53	751.70	721.83	797.23	845.04	957.47	1049.22	1085.99	1020.73	913.62	1184.80	1612.52	1505.81	1235.22	1233.07	1092.34	1030.08	886.83	736.92	754.72	750.25	887.97	811.53	946.53	903.44	1045.95	875.26	889.24	728.10	568.01	674.78	574.78	543.36	554.64	422.39	426.49	633.11	779.93	684.17	527.83	442.73	525.86	468.55	494.53	504.36	464.00	533.12	588.51	531.58	494.30	507.15	523.39	679.55	724.78	708.08	830.64	1315.26	971.85	513.75	686.94	552.82	620.42	964.49	1106.11	1309.05	1013.72	992.72	920.39	827.12	695.22	435.92	350.80	415.50	981.00	1409.37	1222.63	829.06	622.19	321.02	251.19	265.72	271.23	163.14	163.66	174.42	165.16	181.44	185.71	148.44	108.34	114.30	128.22	137.75	141.36	114.31	103.72	105.45	102.39	94.44	91.69	103.42	125.66	119.48	126.42	93.66	106.97	98.12	85.78	90.45	115.28
1305.43	1385.91	1578.56	1449.60	1688.71	1618.66	1808.82	2186.50	2170.86	1997.36	1792.42	1428.10	1748.92	1496.06	1455.39	1215.69	1822.50	1893.38	1903.09	1653.77	1777.39	1759.99	1721.42	1815.59	1889.85	1973.09	2241.22	2197.58	1973.56	1327.97	1194.94	1856.38	2416.83	2766.01	2555.62	2562.68	1640.16	1572.28	1928.51	1196.66	1889.67	1411.67	1604.59	1783.92	2213.19	2396.26	2585.75	2614.78	2705.53	2396.91	2498.51	2388.31	2413.97	2157.47	1818.34	1891.28	2094.17	2144.00	2316.44	2185.17	2122.23	2128.69	2062.75	2052.42	2128.83	2117.92	2101.28	2046.67	2142.87	2109.67	2184.61	2138.95	2042.78	2131.27	2320.88	2170.00	2176.95	1505.31	1228.49	1734.42	2216.33	2281.06	2269.63	2057.80	1534.49	1228.12	1670.25	1510.01	1437.76	1859.81	1702.90	1505.64	1449.58	1336.24	1305.80	1329.88	1444.01	1371.78	1398.58	1323.45	1282.92	1243.06	1217.58	1286.87	1397.00	1467.80	1491.33	1460.49	1478.39	1436.47	1360.24	1347.96	1393.05	1311.95	1299.58	1258.28	1262.88	1320.59	1262.89	1239.64	1206.26	1214.16	1169.39	1110.94	1103.17	1193.17	1387.83	1416.06	1539.25	1528.72	1446.85	1503.17	1364.73	1132.88	1103.92	1104.80	1294.39	1327.69	1512.07	1247.83	1098.47	1022.86	934.25	980.08	1020.28	844.81	791.70	760.53	743.51	786.84	836.06	929.14	1082.92	1079.47	1083.55	939.29	1256.17	1485.76	1664.20	1346.26	1214.58	947.75	1109.74	787.50	793.45	807.78	752.64	764.85	712.32	732.95	873.24	1168.28	970.83	847.35	757.51	594.94	651.38	637.91	612.91	492.19	435.74	546.92	731.50	718.05	582.74	484.60	403.06	425.42	478.33	542.92	474.36	406.39	519.08	519.66	510.11	487.88	520.44	576.45	833.71	907.45	1043.47	1308.89	1278.76	850.20	549.62	562.09	526.49	706.89	1029.05	1136.84	1402.91	1457.34	1107.32	1168.02	1013.22	703.15	502.89	386.81	499.37	969.36	1469.09	1413.05	1081.05	536.99	234.45	203.44	236.69	226.04	211.09	171.36	158.58	167.66	180.80	191.67	155.77	108.62	113.89	129.92	135.49	138.99	124.53	106.53	153.55	154.61	104.86	102.81	102.80	147.20	120.72	113.08	114.44	117.55	101.83	97.62	96.50	145.82
1706.88	1791.20	1889.68	1507.44	1695.53	2058.60	1880.93	2105.58	2331.72	1952.25	1562.42	1556.64	1665.11	1659.12	1757.26	1327.73	1851.99	1905.97	1797.50	1448.39	1885.97	1861.08	1920.86	2009.27	1963.50	1691.23	1923.48	1494.12	1382.94	1574.99	1560.58	1367.33	2261.26	2334.07	2243.58	1485.72	1381.26	1401.95	1323.17	1802.50	2204.98	1543.38	1286.15	2080.86	2489.83	2767.70	2452.39	2545.83	2392.57	2423.00	2440.22	2462.56	2408.62	2100.28	1789.25	1963.55	2063.42	2235.51	2182.13	2116.83	2131.53	2173.56	2172.20	2228.20	2188.56	2071.05	2007.84	2028.05	2149.36	2081.27	2149.90	2001.56	2004.68	2033.62	2187.65	1958.16	1767.61	1515.16	1252.92	1333.50	1401.93	2014.27	2230.36	2001.31	1729.99	1364.69	1609.84	1544.61	1274.06	1722.36	1716.06	1735.42	1565.06	1364.39	1259.92	1265.64	1234.62	1208.36	1306.59	1408.17	1303.34	1245.99	1255.80	1355.99	1417.95	1439.30	1434.95	1444.28	1442.60	1393.12	1338.97	1348.60	1372.33	1274.68	1286.64	1270.86	1287.11	1280.52	1285.38	1263.69	1255.44	1249.86	1181.31	1081.38	1087.94	1193.33	1440.88	1548.02	1491.25	1467.91	1377.59	1284.26	1178.33	1129.78	1105.78	1106.39	1199.06	1339.05	1446.25	1297.00	1094.14	1020.82	893.99	924.28	1008.47	903.36	851.50	823.65	739.31	822.20	928.01	990.74	1011.11	1051.98	1111.84	1097.95	1344.15	1505.55	1498.94	1206.64	999.25	809.25	857.75	870.38	918.08	799.03	789.92	846.89	618.78	678.85	1068.11	1050.73	861.25	709.48	634.84	761.69	757.55	664.92	563.24	472.12	497.10	645.47	814.64	605.72	561.81	739.86	470.41	424.97	454.69	522.86	411.92	471.05	494.12	456.06	495.89	602.45	489.64	615.22	737.19	917.06	1161.40	1193.26	1310.22	758.67	677.67	601.86	601.26	830.08	1078.00	990.81	1479.76	1648.31	1305.31	1104.89	857.33	554.55	473.50	384.80	662.39	1034.47	1148.80	1214.57	834.36	428.06	244.92	236.81	225.46	203.45	266.06	177.09	147.39	141.14	139.19	143.36	147.80	112.22	116.80	145.97	138.86	133.14	132.55	141.31	280.89	197.92	115.36	143.51	119.80	235.25	202.46	218.69	135.62	115.86	95.56	99.22	104.03	142.11
2230.67	2158.69	2119.94	1806.95	1631.47	1890.20	2166.53	2374.26	1994.66	1779.28	1697.45	1800.12	1873.64	2105.08	1865.40	1482.94	1940.00	1780.17	1623.30	1386.50	1801.58	1942.76	1950.03	2126.49	2190.63	1431.88	1283.42	1672.64	1581.97	2213.78	1510.31	1621.50	2107.61	1480.94	1305.02	1406.82	2027.85	2537.67	2522.08	2802.76	2249.08	1675.22	1346.00	2380.50	2817.74	3129.44	2720.92	2454.26	2563.14	2777.05	2726.92	2429.35	2252.51	2212.14	1933.17	2027.05	2067.44	2142.05	2077.28	2050.05	2140.14	2194.39	2201.97	2167.99	2067.01	1973.13	2002.33	2032.28	2059.55	2228.39	2086.75	2146.06	2116.58	2098.74	2047.20	1748.84	2086.62	1638.59	1237.45	1270.98	1573.20	1704.23	1985.36	1960.82	1888.06	1497.97	1719.62	1532.53	1168.05	1321.85	1672.17	1807.42	1732.68	1384.82	1366.60	1333.52	1422.25	1477.30	1446.62	1393.31	1295.67	1252.72	1316.74	1361.05	1412.75	1447.39	1451.03	1439.97	1388.39	1367.69	1352.41	1319.74	1288.31	1269.74	1283.64	1287.74	1320.97	1294.89	1363.81	1329.53	1318.36	1258.28	1136.89	1094.39	1089.42	1356.53	1470.98	1481.48	1299.09	1256.62	1206.62	1165.88	1144.97	1132.86	1164.19	1049.12	1168.74	1242.64	1331.12	1154.76	1009.88	948.92	830.94	949.42	950.44	887.49	945.83	779.67	828.75	880.58	877.38	1041.70	946.15	832.71	934.28	1208.95	1213.75	1477.86	1300.35	1233.42	1090.67	868.54	1012.76	856.29	846.05	828.64	852.53	709.11	573.52	690.69	910.65	779.45	708.56	732.44	884.26	802.45	707.97	610.33	611.43	570.81	558.53	682.84	884.69	691.89	719.15	791.36	639.85	608.31	494.52	402.38	389.83	443.93	455.33	445.19	574.69	468.38	481.12	532.20	855.19	1137.51	1174.42	1030.39	1437.23	874.99	829.97	685.23	676.27	684.47	808.36	1080.94	1446.83	1710.19	1370.34	920.51	646.50	499.23	406.09	413.16	874.96	1088.98	1128.20	673.12	835.21	417.58	269.62	240.14	283.25	218.84	156.69	165.00	138.74	129.30	124.14	119.05	125.45	119.33	124.30	139.08	156.08	149.48	161.58	302.93	438.38	272.16	188.69	411.40	233.71	292.72	342.76	253.60	134.26	129.81	110.27	118.30	114.64	141.72
2346.77	2375.44	2107.22	1724.06	1637.42	2231.30	2185.64	2284.74	1998.32	2011.42	2018.02	1957.42	1880.61	2003.03	1586.95	1671.30	2095.78	1807.58	1490.58	1300.10	1582.33	1796.62	1740.69	1781.19	1491.81	1708.20	1725.95	2331.28	2057.61	2284.92	1480.71	1737.47	2104.42	1261.01	1977.51	1466.14	2793.36	3221.95	3125.64	3160.54	2290.77	1595.92	1339.53	2040.74	2841.11	3326.19	3155.22	2714.32	2416.31	2710.95	2653.00	2448.77	2415.08	2374.47	1982.59	1996.38	2109.70	2127.24	2047.30	2002.45	2033.70	2139.70	2224.22	2162.06	2012.47	1969.77	2297.11	2109.85	2173.97	2272.05	2069.02	2159.34	2041.92	1845.97	1729.53	1961.72	2147.98	1698.81	1202.59	1592.91	1748.22	1455.36	1467.11	1822.33	1846.11	1489.75	1489.91	1644.05	1157.01	1262.47	1468.08	1519.06	1673.72	1498.58	1430.22	1461.32	1553.45	1473.69	1373.64	1261.06	1252.12	1268.22	1334.17	1387.00	1432.39	1441.72	1395.44	1389.43	1384.83	1397.17	1337.03	1285.16	1280.42	1285.12	1288.98	1302.24	1306.63	1326.03	1411.01	1362.47	1234.64	1185.75	1081.83	1063.62	1090.06	1305.56	1341.53	1373.38	1283.70	1277.50	1245.91	1187.00	1110.62	1175.73	1165.64	1073.34	1200.44	1324.70	1403.81	1468.73	1338.50	1071.14	844.85	965.85	972.83	821.80	861.97	816.27	947.26	847.92	913.25	998.84	1017.44	968.03	855.01	1010.98	1228.36	1273.39	948.70	1323.70	1061.58	893.75	893.15	808.38	685.15	643.50	698.00	656.76	558.65	899.97	832.44	782.16	842.38	800.81	879.78	798.72	698.32	685.44	602.35	576.86	668.59	732.48	684.73	930.44	781.95	815.81	807.67	615.63	445.20	418.00	401.81	460.24	396.81	440.80	497.08	414.25	467.38	629.85	1012.75	1339.27	1335.99	1305.36	1374.69	905.89	681.00	720.62	698.83	701.78	830.97	991.97	1217.66	1702.61	1301.25	790.44	546.67	479.13	436.94	585.48	971.62	1370.34	1168.48	485.89	571.86	537.00	194.33	181.19	237.38	175.14	178.41	213.74	135.87	129.80	133.50	132.94	116.42	118.89	124.66	140.08	157.58	176.06	295.59	523.00	492.69	337.69	411.36	511.28	259.98	260.56	411.01	401.31	226.64	255.53	300.49	221.16	125.80	152.50
2455.25	2178.53	2088.68	1880.30	1874.31	2175.44	2261.47	2282.00	2058.83	1891.44	1975.67	1944.38	1888.70	1823.44	1431.22	1696.12	1960.49	1697.20	1636.30	1187.03	1473.11	1635.97	1185.11	1444.91	1708.31	2427.85	2409.45	2410.12	2531.17	2739.88	2398.94	1490.38	1219.28	1463.01	1487.53	1527.30	2051.45	2944.60	3470.05	2831.97	2072.62	1544.09	1441.17	2068.00	2664.25	3541.64	3390.72	2719.28	2464.61	2484.56	2511.38	2486.74	2405.30	2175.19	1908.09	2074.25	2071.06	2054.99	2047.61	2061.17	2198.55	2270.44	2217.12	2137.08	1994.08	2103.24	2474.98	2089.50	2032.81	2123.80	1995.10	2169.42	1945.94	1909.14	1821.91	1741.28	2308.97	1805.94	1406.83	1423.97	1321.51	1654.72	1788.98	1509.31	1664.67	1674.28	1317.80	1539.05	1182.81	984.09	1158.31	1264.93	1380.12	1527.69	1570.56	1464.51	1440.55	1468.00	1435.92	1287.97	1263.78	1284.17	1351.62	1379.95	1404.93	1384.33	1381.95	1352.81	1367.72	1381.03	1337.25	1297.61	1283.39	1285.97	1294.64	1334.81	1312.47	1344.28	1378.58	1319.95	1306.85	1202.63	1071.43	1030.47	1143.95	1282.70	1279.74	1333.17	1328.49	1396.15	1284.47	1292.43	1111.20	1147.80	1057.30	1032.11	1184.17	1347.08	1294.59	1329.95	1246.38	1046.13	855.17	975.10	956.45	826.06	793.35	903.93	1023.22	893.75	927.05	887.89	937.95	917.05	764.51	869.36	1186.84	1029.07	820.20	1141.32	902.14	826.01	840.55	769.06	719.19	540.67	518.51	525.44	553.72	756.39	948.45	973.10	918.00	793.49	803.34	712.17	687.75	686.84	624.15	713.97	752.94	592.54	621.80	736.40	645.70	725.06	566.78	466.25	416.47	476.28	422.91	466.64	450.41	474.51	419.22	428.40	572.21	857.94	1144.20	1293.83	1409.37	1585.35	1450.62	864.98	1029.97	807.40	794.37	838.78	1006.03	1177.43	1373.55	1336.08	947.47	584.49	531.38	459.45	745.61	927.77	1295.61	1540.56	1113.53	603.84	303.86	451.41	265.75	171.69	173.44	158.20	182.81	171.41	138.61	136.56	140.06	143.95	123.20	119.69	115.50	150.69	237.91	273.48	401.31	598.97	761.02	497.56	554.18	547.53	551.81	327.54	539.03	547.26	401.26	399.72	478.09	532.97	236.81	190.20
2576.72	2428.39	2217.60	1799.87	2057.05	1901.72	2123.62	1976.89	1754.49	1699.05	1690.31	1967.03	2044.59	1403.27	1365.35	1878.92	1849.14	1721.67	1752.25	1229.05	1571.38	1110.78	1177.20	1858.38	2407.69	2400.90	2505.95	2475.27	2936.10	2935.96	2782.12	1804.97	1954.47	2079.12	1479.00	2735.26	2989.33	3376.15	3634.77	3043.78	2654.57	1784.98	1337.75	1578.75	2494.05	3528.89	3350.17	2704.45	2530.33	2552.39	2619.82	2364.61	2120.23	1947.35	1794.61	2061.17	1866.65	2237.86	2192.47	2168.28	2224.03	2209.80	2086.06	2049.62	2008.24	2345.86	2498.66	2072.02	1930.12	1817.94	2146.22	2171.69	1852.15	1923.21	1781.38	1915.53	2388.42	2125.95	1689.73	1348.52	1388.76	1714.18	2022.86	1514.97	1105.28	1315.64	1095.99	1072.81	1030.91	1023.88	1500.35	1506.75	1390.07	1298.38	1546.09	1514.06	1406.22	1384.61	1446.97	1348.12	1259.61	1279.38	1319.31	1374.95	1376.43	1366.33	1332.64	1374.78	1375.01	1365.19	1319.78	1288.23	1276.72	1301.45	1344.38	1338.93	1305.89	1376.15	1358.09	1350.59	1270.06	1144.36	1075.72	1010.68	1237.24	1272.28	1251.80	1314.75	1314.53	1274.11	1192.08	1162.47	1076.14	1087.84	999.34	1049.05	1172.05	1327.40	1193.45	1173.67	1122.34	995.80	847.99	844.31	852.74	818.13	804.47	962.08	990.03	872.53	854.28	816.81	824.55	774.00	712.61	1025.90	1112.12	1125.18	761.41	993.94	703.53	716.03	813.28	754.84	654.60	619.24	488.55	510.65	811.42	931.81	1099.52	1027.17	932.26	816.03	774.22	829.40	856.58	701.25	756.56	767.25	618.01	522.22	554.62	499.33	554.45	588.45	462.44	423.23	552.51	592.31	437.67	493.22	610.95	471.15	420.34	466.01	727.26	1240.92	893.11	1238.97	1444.03	1683.35	1525.02	1181.47	1122.38	916.64	916.72	952.86	1248.44	1510.31	1559.80	1083.05	677.34	720.67	486.66	506.92	838.75	1309.80	1572.25	1458.39	834.76	436.94	256.86	523.11	420.62	348.26	152.69	186.61	255.06	167.33	149.50	157.49	190.19	135.19	136.52	147.25	124.78	154.59	267.94	498.97	665.41	602.51	977.86	717.94	834.14	767.09	564.83	514.66	470.64	538.17	693.86	804.11	864.92	873.36	592.98	274.30
2377.86	2116.05	2038.92	1939.72	2201.76	2025.64	1931.88	1783.31	1696.08	1603.20	1724.62	1835.45	1792.14	1320.35	2024.81	1922.01	1708.39	1565.80	1770.66	1166.45	1192.28	1431.78	1601.44	1662.77	2335.34	2347.09	2502.42	2387.15	2717.11	2924.05	2487.01	2077.20	2420.14	2284.50	1673.51	2775.59	3562.73	3580.34	3643.08	3359.42	2625.75	1627.94	1635.58	1323.61	2187.00	3089.21	2836.55	2637.65	2701.56	2629.03	2347.25	2105.09	1846.44	1913.27	2026.60	2074.47	1930.36	2206.44	2147.16	2092.62	2060.36	2064.26	2028.28	1987.47	1973.42	2398.94	2341.78	1982.86	1837.40	2123.45	1996.82	1981.92	1896.58	2058.94	1836.99	2134.80	2422.09	2233.45	1762.77	1648.33	1690.78	1836.75	1660.69	1568.75	1165.72	1171.95	1488.73	1179.02	1106.47	937.31	1556.42	1552.23	1479.26	1417.97	1335.06	1478.94	1369.26	1299.92	1302.03	1326.67	1267.66	1266.42	1318.09	1359.31	1341.50	1299.89	1354.23	1330.67	1332.48	1304.36	1283.97	1267.08	1257.86	1293.39	1343.95	1307.17	1285.33	1372.33	1337.24	1317.36	1232.99	1160.02	1022.33	1065.00	1255.70	1218.37	1266.38	1260.64	1299.27	1335.42	1253.14	1119.37	1086.07	987.31	1073.51	1159.22	1118.33	1335.85	1242.25	1269.50	1090.80	949.40	902.42	924.86	783.62	787.28	933.42	1032.67	825.17	749.46	731.12	706.71	738.64	652.91	813.92	971.75	1069.94	1023.89	1004.40	744.48	670.44	612.28	674.47	758.67	850.32	628.84	509.36	671.25	1003.25	841.04	954.45	866.47	819.03	810.65	689.17	751.30	792.36	839.31	823.11	652.89	531.66	524.94	617.50	526.26	470.42	428.93	518.51	513.60	537.31	624.30	452.59	680.32	536.16	442.99	470.08	551.64	1002.40	854.53	811.05	1047.31	1519.72	1639.25	1337.35	1132.38	988.97	951.42	1029.05	1059.81	1504.50	1271.60	1318.10	1010.84	994.17	819.53	516.14	599.89	994.92	1566.33	1468.95	1606.77	863.23	370.19	296.78	654.06	543.89	419.36	163.39	244.72	234.40	152.36	161.80	159.53	167.28	142.11	147.59	126.75	147.56	213.47	442.15	429.50	504.20	752.67	1124.67	1130.74	938.28	868.91	651.86	695.80	424.97	449.88	548.33	682.95	817.41	939.96	589.47	500.30
2240.22	2176.89	2529.45	2060.70	2249.17	2088.97	1870.69	1694.91	1704.48	1617.91	1671.31	1723.45	1698.95	1364.78	2106.99	1864.53	1737.00	1686.10	1347.36	1208.90	1296.08	1853.51	2196.53	1985.16	2347.20	2577.10	2361.99	2520.17	2554.64	2860.72	2547.08	2497.72	2312.23	1837.68	2205.74	3292.16	3694.69	3175.30	2710.92	3041.72	2605.30	1796.73	1578.22	1234.31	1687.16	2624.95	2715.53	2810.81	2767.50	2687.73	2320.88	2024.83	1883.97	1926.91	2166.30	1994.78	2066.27	2032.99	2142.92	2046.45	2064.39	2131.47	2046.94	1997.70	1986.73	2169.33	2155.40	2021.37	1921.00	2122.94	1844.01	1882.45	1995.37	1860.33	1838.88	2127.38	2141.85	1983.11	2124.59	1971.72	1871.50	1786.82	1414.61	1246.66	1041.86	1480.42	1257.78	1308.15	1168.23	948.24	1229.25	1444.25	1475.63	1441.58	1372.31	1340.41	1391.53	1328.44	1204.50	1206.67	1251.83	1237.94	1315.64	1351.36	1297.83	1233.99	1307.78	1368.39	1337.58	1272.87	1236.95	1261.84	1229.92	1290.49	1318.70	1245.01	1316.55	1344.28	1283.56	1199.32	1145.26	1069.53	984.86	1184.55	1253.64	1205.51	1196.88	1259.90	1314.65	1352.52	1196.80	1150.50	998.70	893.10	1174.91	1189.14	1084.34	1185.56	1178.23	1021.61	1031.12	931.12	944.47	1040.17	1002.12	924.72	1087.00	906.17	817.82	645.71	683.56	692.41	567.35	743.31	851.63	938.62	1145.43	956.92	867.45	626.44	580.90	506.84	592.54	707.71	733.36	640.53	484.76	946.39	962.91	775.69	776.80	712.74	689.30	647.28	563.32	717.05	776.69	835.36	677.12	571.85	576.97	627.81	532.39	513.14	478.94	577.08	612.70	740.76	530.64	532.35	552.89	657.13	494.07	503.26	465.05	619.89	1015.64	588.19	653.04	982.95	1533.50	1577.82	974.11	1008.93	922.25	870.25	1226.43	1582.63	1236.66	1144.82	908.31	1187.73	692.60	513.86	525.27	726.19	1312.23	1108.62	1038.19	1263.31	702.00	239.48	343.89	704.01	604.62	273.78	158.44	205.26	187.31	154.55	171.42	162.53	208.14	157.22	152.59	210.92	127.47	167.25	349.91	369.46	451.26	818.03	1098.72	1156.69	894.86	671.14	685.22	602.83	598.60	527.45	609.75	713.78	795.08	704.30	571.70	329.14
2207.73	2466.95	2305.25	2312.03	2257.34	2135.73	1820.71	1633.60	1652.87	1557.41	1579.20	1641.03	1546.36	1379.94	1773.02	1846.65	1904.45	1884.28	1548.27	1245.99	1662.33	2124.28	2341.85	2229.12	2597.56	2653.39	2306.00	2323.63	2514.22	2673.84	2656.42	2654.25	2441.69	1672.64	2373.15	2804.31	3009.42	2964.79	2989.66	2410.58	2256.95	1877.92	1465.76	1436.94	1658.00	2460.41	3080.12	2883.97	2650.62	2543.83	2386.90	2225.00	2192.72	2080.47	1967.60	1974.95	2064.31	2050.91	2178.08	2117.19	2150.95	2140.14	2123.70	2159.81	2024.43	2095.18	2155.72	2129.71	2010.78	1920.76	1951.94	2017.20	2097.55	1773.75	1732.15	1991.94	1969.72	2140.22	1964.61	1806.31	1671.05	1519.25	1681.89	1597.83	1114.51	1296.05	1337.90	1289.06	1209.87	1012.10	828.14	1394.90	1460.92	1424.25	1419.20	1387.30	1319.99	1280.31	1212.25	1156.09	1206.39	1232.72	1279.65	1354.95	1192.33	1239.70	1331.73	1386.20	1381.80	1264.59	1243.84	1278.22	1221.33	1260.25	1329.41	1240.74	1334.99	1297.38	1210.39	1117.73	1072.74	996.73	1038.89	1270.33	1200.41	1173.84	1236.75	1254.35	1285.92	1329.39	1125.44	1021.50	931.76	929.16	1161.41	1110.08	1070.25	1037.28	1146.76	1018.66	967.91	881.51	957.65	1070.70	1191.05	984.97	962.03	761.14	764.64	570.57	572.31	741.83	718.81	638.30	835.31	900.58	946.67	1059.00	758.49	599.34	642.36	648.85	548.55	588.45	537.70	522.61	564.44	1021.26	850.74	791.45	819.88	679.83	522.12	522.77	660.45	732.84	832.94	860.11	705.20	597.32	741.81	730.20	696.75	584.71	645.81	654.11	676.67	837.53	563.59	635.06	654.20	745.70	503.47	535.83	551.33	739.48	796.56	496.39	878.36	1117.67	1316.62	1139.55	778.92	1090.11	797.66	804.01	1028.10	1378.37	962.81	1008.72	849.88	958.89	601.61	481.25	593.74	1012.05	1467.69	685.89	459.02	528.28	418.68	218.33	425.89	713.11	424.39	168.33	211.09	281.16	202.81	172.92	175.08	268.64	569.74	206.49	368.46	304.03	148.36	150.83	499.39	497.80	544.32	820.69	1022.04	1109.15	914.12	718.47	820.38	681.63	682.36	615.58	569.33	591.50	545.32	518.50	362.31	294.86
2382.39	2461.78	2498.47	2562.64	2499.70	2077.01	1780.77	1650.86	1589.42	1561.28	1543.95	1618.47	1458.83	1344.95	1424.61	1587.92	1655.06	1663.25	1508.47	1244.70	1645.73	2108.59	2470.74	2371.49	2602.29	2552.47	2358.75	2242.11	2330.20	2530.11	2771.94	2599.47	2422.94	1601.67	2189.42	2622.60	2506.17	2656.03	3010.36	2874.91	2598.55	1875.40	1572.18	1899.91	1582.30	2309.16	2928.51	2589.67	2626.68	2535.76	2392.00	2230.50	2082.02	1930.09	1951.14	2017.91	2072.44	2199.86	2278.50	2229.98	2186.16	2168.78	2104.67	2129.81	2104.41	2099.30	2113.82	2046.52	1900.63	2016.86	2057.64	2088.45	2049.83	1761.13	1684.59	1790.86	1843.67	1994.83	1997.01	1981.33	1766.25	1736.67	1898.25	1763.69	1153.52	1392.01	1311.65	1295.53	1102.07	948.50	910.64	1250.03	1351.49	1346.05	1413.69	1432.25	1365.47	1324.00	1159.92	1181.83	1111.19	1207.12	1279.67	1273.08	1158.51	1247.90	1338.11	1462.61	1461.33	1262.51	1258.24	1285.58	1231.86	1242.99	1307.35	1235.14	1354.06	1253.89	1145.81	1050.35	1018.11	989.26	1150.32	1268.78	1177.28	1183.11	1214.73	1218.72	1362.83	1394.06	1120.85	1044.06	866.18	967.13	1179.26	1092.75	980.33	1016.86	1110.83	1042.39	943.14	870.81	953.75	1056.85	1270.62	1227.89	1205.72	838.10	625.15	562.06	542.20	691.11	776.55	507.22	816.44	877.83	962.85	1025.06	713.25	492.44	540.00	590.74	513.24	559.61	568.64	449.64	490.56	773.11	897.13	887.23	705.24	751.81	466.58	619.14	688.15	547.86	695.11	941.37	800.12	632.02	839.42	966.58	710.14	671.24	771.02	662.44	733.38	676.26	694.27	717.67	490.72	529.34	512.89	533.12	567.75	803.59	710.40	530.28	996.44	1272.09	1112.89	1035.82	740.31	1101.70	664.78	760.19	897.58	922.33	756.25	789.38	927.78	881.60	559.97	492.64	746.35	1360.85	1220.88	566.10	447.47	368.20	239.12	205.48	427.79	418.44	173.08	170.45	591.84	273.64	172.59	186.86	204.08	564.65	471.69	349.89	496.46	438.42	281.20	215.12	544.39	586.10	634.07	750.64	1114.78	1040.69	849.61	748.16	670.75	492.69	494.59	546.14	407.80	363.29	323.62	422.55	296.30	282.41
2526.86	2218.51	2307.67	2465.97	2216.19	2043.56	1749.12	1682.11	1519.49	1582.11	1499.39	1439.10	1265.25	1244.65	1120.19	1371.97	1278.18	1255.31	1110.14	1394.22	2014.97	2232.44	2606.00	2610.40	2607.70	2430.88	2364.73	2312.75	2216.70	2356.75	2369.77	2070.11	2020.45	1601.70	2614.41	2324.36	2388.70	2666.49	2836.69	2752.93	2550.86	2094.00	1899.53	1945.17	1848.11	1859.21	2195.18	2485.66	2635.16	2517.24	2220.53	2117.95	1920.78	1902.60	2023.39	2031.19	2229.64	2269.64	2371.69	2259.62	2165.98	2191.28	2125.83	2112.41	2190.67	2123.38	2061.55	2046.73	2002.72	2006.47	2102.41	2262.41	2088.97	1826.03	1679.17	1845.06	1802.78	1781.14	1837.36	1798.97	1907.48	2078.80	1787.31	1511.25	1710.89	1448.90	1205.89	1119.72	1043.39	1151.19	995.62	1058.80	1347.08	1373.97	1409.42	1525.44	1458.45	1278.16	1199.31	1046.97	1014.25	1059.20	1155.62	1141.58	1180.40	1241.99	1393.82	1380.92	1426.72	1288.94	1233.88	1263.94	1223.70	1214.91	1252.68	1212.24	1359.52	1242.00	1111.83	1028.98	1021.08	1085.35	1233.36	1213.92	1179.14	1210.86	1200.03	1193.90	1318.75	1326.65	1141.69	1029.82	889.61	1008.20	1156.27	1162.01	947.14	929.45	1073.70	1040.08	931.31	887.58	981.93	1062.08	1180.98	1254.01	996.30	852.52	532.25	527.38	463.03	583.46	565.95	665.69	579.97	712.76	1018.90	1109.71	743.25	723.56	631.50	573.06	421.38	478.05	546.58	379.19	467.73	867.44	816.52	741.16	553.41	534.65	571.62	454.88	414.03	581.89	843.89	826.95	496.94	605.65	680.17	791.74	548.48	501.18	647.29	860.12	690.73	459.18	623.89	460.20	458.39	336.97	452.81	582.65	585.11	699.26	449.52	574.83	1000.12	1096.42	1182.45	1009.86	907.14	1218.08	696.75	537.11	685.41	704.46	825.22	924.50	1159.41	1053.65	699.77	485.05	804.67	1249.36	1067.64	490.92	506.45	308.11	189.81	177.05	220.94	170.27	172.25	402.88	716.69	250.76	199.53	207.17	254.52	758.68	689.12	416.64	440.69	574.58	303.45	305.36	474.24	498.58	545.58	466.28	907.89	810.30	758.28	739.96	453.33	412.44	293.25	511.09	321.40	251.76	241.05	305.39	278.19	272.12
2344.53	2163.01	2062.75	2063.08	1986.05	1836.49	1735.14	1633.77	1468.28	1535.68	1479.78	1259.84	1213.52	1237.06	1203.81	1962.90	2036.05	2212.52	1680.86	1513.76	1875.00	2026.05	2477.22	2481.70	2534.27	2396.78	2279.95	2429.35	2239.17	2328.74	2438.94	2202.33	2352.61	1685.21	1991.15	2384.69	2240.92	2521.38	2670.47	2425.03	2440.78	2399.61	1886.10	2322.70	2318.81	1679.60	2416.70	2646.72	2441.19	2177.98	2315.62	2243.35	2041.72	2007.10	2081.20	2158.66	2142.38	2114.22	2194.23	2224.95	2194.72	2169.62	2118.77	2112.30	2139.36	2119.74	2075.69	2054.69	2109.17	2098.41	2240.64	2326.81	2160.19	1795.20	1818.05	1792.68	1862.45	1896.12	1839.10	1825.81	1727.06	1769.49	1797.80	1558.35	1721.67	1739.47	1539.27	1424.08	1246.80	1228.99	1163.05	772.61	901.47	1054.41	1168.58	1499.06	1499.95	1258.64	1144.70	975.72	927.26	1022.28	1099.63	1163.45	1189.61	1176.94	1387.86	1325.18	1399.80	1317.05	1190.41	1188.33	1222.89	1216.43	1215.01	1200.23	1300.34	1233.69	1089.41	1015.41	996.22	1148.27	1256.84	1251.36	1242.83	1198.83	1135.11	1197.01	1255.00	1307.92	1053.14	931.93	913.22	1106.78	1101.86	1021.11	905.28	867.60	1050.08	963.89	913.76	917.33	963.88	1077.91	1176.25	1309.56	979.19	866.47	567.70	491.61	505.27	789.75	874.53	755.54	717.66	546.15	836.19	879.10	844.67	949.41	718.26	749.26	689.34	501.81	440.01	310.24	590.28	933.89	783.31	689.51	744.13	789.26	562.78	425.44	493.74	692.82	663.46	647.57	396.70	453.51	613.77	801.91	452.28	400.97	516.34	641.26	497.57	423.06	593.76	361.09	390.31	344.16	410.75	544.42	434.92	637.75	339.25	536.83	696.59	912.51	1286.78	702.80	705.23	980.88	657.53	642.53	786.76	692.50	890.83	1261.16	1391.08	928.03	625.33	532.12	853.01	1089.86	554.90	596.38	275.25	198.53	190.51	193.59	237.11	182.94	239.70	557.15	534.51	309.15	290.01	304.75	508.56	777.86	726.56	496.91	649.50	605.12	343.36	325.49	375.17	445.14	412.33	583.31	530.70	450.56	768.62	517.00	353.62	365.06	247.88	257.00	243.08	242.64	220.45	360.12	385.17	234.31
2176.37	2059.05	2024.94	1861.01	1736.66	1664.39	1733.15	1649.06	1414.42	1502.92	1513.69	1265.76	1165.56	1135.96	1335.80	2217.94	2480.07	2321.15	1626.11	1334.74	1825.23	2163.45	2303.48	2351.93	2590.00	2387.52	2170.84	2250.53	2189.84	2469.47	2474.03	2336.47	2256.64	1543.72	2100.45	2418.94	2089.50	2184.68	2369.61	2477.12	2313.44	2223.90	1699.88	2568.12	2491.77	1788.71	2409.66	2670.08	2151.02	2279.18	2293.16	2241.19	1990.13	2032.98	2047.56	2065.82	2093.15	2044.70	2115.49	2215.91	2252.49	2143.78	2125.67	2140.14	2149.50	2172.88	2059.95	2125.42	2114.67	2136.59	2211.88	2345.30	2154.12	1785.06	1835.95	1879.36	1877.97	1865.86	1790.94	1797.86	1793.14	1614.35	1786.00	1682.64	1544.33	1722.89	1464.09	1220.97	1283.53	1283.88	1048.92	956.25	894.98	793.83	1096.61	1344.50	1497.88	1249.89	1068.45	935.64	767.93	1055.22	1111.70	1143.26	1151.20	1125.28	1275.15	1305.87	1363.66	1294.33	1206.69	1158.45	1203.12	1217.91	1201.24	1190.74	1278.47	1238.83	1056.97	976.62	1019.15	1135.30	1245.82	1199.66	1171.75	1161.21	1108.52	1176.20	1276.64	1314.18	1053.27	899.22	928.88	1146.42	1132.49	1057.20	872.02	876.64	870.35	978.38	901.53	879.11	989.85	1016.68	1184.58	1226.95	1041.37	818.36	622.27	604.01	591.12	774.33	970.54	856.11	800.14	622.36	882.88	637.36	845.72	682.44	648.57	708.35	676.15	516.92	436.43	360.39	689.86	914.81	892.14	791.42	854.97	743.72	414.01	418.83	739.02	832.01	681.55	442.79	357.24	478.56	694.45	754.69	460.01	381.48	562.94	667.56	409.95	625.50	448.10	332.55	320.90	330.61	410.86	468.01	420.33	422.42	423.11	455.05	666.62	1107.40	1074.68	510.12	528.12	551.36	649.67	738.53	927.77	927.78	1549.50	1373.44	1058.57	724.18	532.00	700.97	987.10	844.31	511.97	319.50	207.16	203.11	206.74	194.85	236.38	178.22	329.86	528.64	462.28	432.19	468.11	463.41	741.92	877.79	755.98	519.51	667.40	421.46	366.26	392.45	459.91	593.36	530.54	620.40	410.73	350.17	501.49	379.58	317.23	371.94	240.42	209.58	286.33	227.58	251.02	233.72	262.50	217.35
2158.39	2205.55	2097.38	2113.38	2382.14	1902.80	1588.91	1532.50	1478.62	1347.95	1374.98	1190.51	1067.42	1098.13	1301.84	2133.83	2362.69	2276.06	1676.14	1693.32	1672.38	1931.28	2034.58	2306.15	2612.20	2316.05	2241.30	2098.53	2278.90	2367.28	2275.28	2178.01	1824.77	2075.66	2287.69	2448.78	2244.85	2103.34	2156.45	2149.97	2195.36	2135.88	1721.55	2507.33	2727.42	1974.48	2523.64	2554.69	2200.11	2210.56	2279.86	2145.52	2020.63	2049.96	2022.49	2012.08	2043.00	2085.72	2120.50	2096.07	2120.58	2117.80	2129.47	2187.28	2169.49	2110.17	2162.94	2302.00	2156.03	2187.48	2208.88	2201.16	2174.85	1784.72	1832.33	1880.74	1823.84	1786.19	1662.91	1636.94	1604.88	1512.43	1476.65	1397.68	1403.59	1595.73	1394.53	1289.08	1079.27	1036.72	1322.06	1247.80	1081.67	825.86	962.64	1061.81	1500.61	1347.01	1112.49	1034.51	804.90	947.33	1133.62	1146.08	1110.23	1070.03	1161.36	1273.90	1329.62	1309.26	1314.53	1253.40	1156.60	1211.40	1213.94	1170.72	1249.31	1194.17	1051.81	971.01	1024.00	1147.67	1217.86	1141.22	1129.19	1061.11	1072.36	1134.94	1257.72	1239.44	1072.23	899.45	988.96	1111.33	1071.49	1022.86	869.59	827.98	783.36	907.38	926.94	977.67	1026.30	997.06	1085.05	1353.16	1091.72	738.44	617.72	685.99	747.45	744.12	765.59	756.19	807.96	535.90	778.92	518.86	651.02	501.67	519.72	486.95	451.19	445.20	574.81	411.23	469.81	539.46	750.25	909.34	899.33	675.56	588.39	453.85	660.95	733.20	705.50	324.55	458.39	695.75	632.89	554.08	464.42	465.92	814.88	637.89	354.65	614.99	331.31	335.59	249.47	303.56	279.94	350.48	356.06	341.24	570.95	766.30	1002.80	795.57	535.50	560.03	1014.12	1092.03	884.31	857.64	1054.09	1189.08	1482.96	845.94	733.94	724.35	587.71	727.25	664.97	418.81	341.01	207.01	190.14	184.86	194.74	226.00	246.09	192.00	408.62	500.30	564.61	553.22	624.66	622.17	747.28	924.95	802.50	653.83	649.39	551.89	454.50	435.47	356.94	399.20	572.72	703.85	413.78	272.98	334.53	350.22	412.55	443.00	285.31	211.45	205.33	209.81	241.92	207.42	218.89	214.48
1983.39	2184.92	2278.38	2273.41	2186.94	1920.75	1814.44	1792.68	1590.94	1440.46	1281.69	1186.99	1231.58	1071.90	1327.47	2163.89	2449.88	2198.61	1774.02	1979.20	1517.13	1823.92	2238.51	2357.41	2365.20	2421.39	2427.28	2033.53	2035.08	2040.14	2334.16	2284.50	1952.65	2412.01	2383.45	2162.94	2372.31	2090.94	2079.19	2191.19	2334.53	2304.80	1956.25	2786.56	2691.66	2058.70	2393.16	2250.98	2141.19	2052.91	2051.60	1945.86	2012.47	2030.38	2049.00	2016.89	2054.61	2125.81	2079.07	2005.27	2051.67	2089.03	2143.50	2145.10	2073.00	2067.57	2240.89	2250.99	2165.98	2116.94	2211.26	2383.02	2183.20	1735.33	1814.17	1799.88	1761.75	1690.70	1652.33	1612.09	1625.70	1557.12	1489.55	1614.25	1588.24	1651.55	1521.81	1197.55	1409.41	1420.17	1453.00	1429.89	1285.73	1053.40	847.45	948.69	1402.48	1582.74	1228.05	1083.07	976.62	1009.84	1088.53	990.27	1001.86	1031.14	1125.67	1228.58	1315.33	1336.55	1307.25	1202.30	1114.77	1259.91	1225.72	1104.97	1210.20	1148.78	1047.56	987.72	1036.26	1125.70	1163.10	1182.01	1040.30	979.69	1034.92	1091.44	1205.86	1192.26	1079.23	909.88	986.76	1120.86	1046.05	981.42	837.38	774.30	840.35	979.35	969.56	1077.78	1045.25	1003.06	1014.33	1187.11	1037.11	764.90	775.49	762.09	817.11	759.51	636.41	625.38	622.98	661.56	575.24	532.19	616.75	577.59	740.68	575.12	681.60	622.44	628.61	561.82	569.92	420.44	424.72	505.11	684.36	733.88	556.41	335.06	537.26	619.83	467.83	333.92	628.69	730.67	483.80	364.70	385.39	649.92	668.96	421.64	316.48	595.16	330.45	261.28	215.97	311.01	466.31	484.97	406.22	433.16	477.09	580.85	507.64	457.30	605.89	1010.62	1160.25	1181.30	937.83	796.36	775.26	1395.93	988.03	631.97	480.38	648.15	681.64	683.03	417.12	389.56	227.27	206.34	195.44	191.81	225.71	242.11	267.25	272.08	356.31	431.36	578.19	641.06	757.85	744.89	839.30	704.51	603.52	817.12	702.17	725.62	584.20	444.78	310.30	514.75	530.89	582.50	502.89	354.36	259.11	331.94	464.13	419.34	313.81	216.22	191.76	194.14	192.31	204.34	206.11	193.42
1977.07	2042.64	2103.53	2042.70	2210.67	2239.73	1960.06	1860.59	1707.94	1410.47	1491.78	1211.61	1178.38	1093.84	1256.81	1843.72	2371.19	2002.00	1977.14	2035.58	1849.40	1761.86	2340.82	2511.27	2375.11	2509.64	2220.62	2027.47	1892.75	2069.92	2498.83	2116.12	1935.02	2473.45	2434.34	2187.72	2301.14	2086.58	2165.06	2230.64	2429.45	2163.30	2018.19	2813.94	2511.72	2006.62	2144.14	2151.89	2197.43	2210.34	2152.08	2047.83	1999.52	2019.58	2006.17	2080.57	2056.66	2114.72	1974.81	1969.90	2000.10	2068.97	2141.16	2139.90	2132.67	2116.17	2169.59	2187.14	2145.56	2281.89	2296.62	2430.95	1891.97	1764.33	1884.17	1838.91	1682.91	1592.59	1650.58	1605.14	1556.17	1487.55	1452.70	1742.05	1715.05	1673.88	1302.15	1073.47	1327.38	1302.73	1230.33	1066.38	1195.87	1065.77	1042.08	874.92	1209.09	1509.23	1334.50	1198.92	1002.98	935.53	816.39	761.44	1043.03	1003.00	986.17	1141.78	1194.06	1196.09	1240.01	1091.25	1154.92	1254.94	1230.83	1099.10	1138.78	1055.75	950.75	955.38	990.19	1097.38	1126.03	1139.88	1018.38	1002.29	950.33	1041.53	1205.89	1148.36	1085.45	958.24	936.27	1061.17	1034.36	947.85	837.28	827.28	906.19	862.06	1003.29	1105.72	1043.99	948.65	923.53	869.75	872.50	829.10	833.98	843.02	855.08	771.46	681.06	642.04	569.14	743.03	689.08	748.85	637.21	593.27	760.91	840.95	658.91	937.42	783.08	669.65	615.54	566.36	467.28	465.82	425.01	409.04	387.53	347.05	381.83	618.26	316.97	383.75	364.23	475.03	390.94	331.58	420.86	768.96	455.47	304.42	387.11	400.90	260.92	207.58	240.36	230.67	376.92	614.23	397.25	450.03	855.79	435.83	682.53	398.03	541.34	1136.88	913.77	1169.74	889.62	555.12	860.43	1286.52	921.06	382.83	437.36	495.39	645.72	607.60	413.31	245.42	220.39	216.24	189.55	196.94	226.17	219.14	242.02	296.22	284.59	306.50	401.35	754.56	832.59	919.44	803.32	524.29	665.35	859.24	844.86	746.11	636.30	507.67	344.89	440.73	501.63	452.11	640.67	507.81	279.45	291.62	380.14	374.72	334.00	256.30	224.53	196.39	182.95	185.00	214.06	172.66
2045.16	1901.69	1962.00	2283.45	2434.97	2290.48	1865.26	1754.74	1561.58	1462.16	1574.39	1304.89	1157.50	1105.35	1196.18	1662.78	2403.33	2397.33	2029.57	2209.09	2077.58	1934.80	2460.06	2411.26	2447.92	2388.70	2214.74	2005.34	1866.42	2025.28	2200.36	1882.34	1995.87	2494.61	2242.90	2180.08	2380.25	2226.41	2349.60	2362.02	2406.72	2004.50	2145.92	2661.25	2312.90	1981.73	2114.95	2157.47	2228.90	2230.15	2142.09	2005.74	2059.41	2023.31	2047.11	2119.12	2103.61	2123.17	1963.28	1973.78	2078.58	2175.52	2210.28	2148.97	2089.44	2063.91	2064.74	2102.90	1993.94	2346.48	2323.99	2187.97	1793.69	1799.64	2054.89	1839.45	1566.72	1526.47	1610.13	1682.70	1741.67	1692.87	1700.66	1736.81	1822.61	1551.40	1355.88	1272.02	1340.67	1487.95	1432.42	1511.25	1164.05	1180.90	1262.66	1052.20	884.70	1149.40	1286.28	1204.23	1121.90	799.51	605.72	666.96	918.11	905.71	877.60	944.66	1188.51	1216.88	1206.01	1097.31	1196.53	1089.72	1122.50	1128.09	1084.53	993.25	969.64	951.20	902.54	1068.58	1073.49	1146.06	1054.58	945.33	918.91	983.63	1193.36	1139.89	1051.38	990.84	837.22	1041.99	1040.14	886.11	927.28	851.31	820.44	846.74	1048.55	1099.99	1076.00	1012.71	898.26	844.39	799.28	938.35	909.26	894.30	875.22	746.62	709.65	800.45	716.81	770.28	716.92	732.68	662.56	688.24	999.55	1111.84	855.38	732.93	595.12	589.95	639.20	549.38	455.47	481.22	375.45	520.55	482.47	406.59	403.61	338.47	398.53	576.47	519.20	271.24	322.09	303.31	561.53	574.33	442.29	304.97	400.23	262.50	232.85	262.47	366.35	254.81	342.37	475.26	554.02	374.94	765.80	511.61	813.06	728.65	421.26	723.33	774.95	991.00	668.69	654.68	836.28	988.04	575.89	455.47	358.80	517.90	546.58	573.86	497.03	245.30	199.74	208.41	417.52	361.28	239.83	232.12	248.45	271.75	241.98	246.08	264.55	535.72	682.70	827.66	583.58	318.00	514.69	761.28	666.12	652.91	596.03	286.06	308.76	579.61	480.30	273.49	480.44	390.99	298.05	301.92	328.08	374.03	327.69	268.67	269.19	338.47	196.01	189.59	235.23	216.06
1950.36	1911.58	1984.73	2173.31	2192.11	2088.27	1891.14	1807.25	1715.73	1560.52	1648.78	1390.99	1188.03	1159.26	1163.80	1582.90	2300.99	2407.03	2393.74	2265.45	2166.38	1947.64	2371.44	2259.16	2375.55	2415.95	2266.81	2139.12	1871.66	2060.53	2161.07	1787.92	2199.00	2314.93	2212.39	2105.42	2428.52	2446.55	2590.81	2369.16	2116.37	2139.11	2199.00	2662.98	2272.45	1995.99	2241.95	2308.37	2121.36	2219.05	2160.38	2075.83	2012.98	2024.28	2075.75	2055.26	2102.95	2081.66	1957.92	1990.89	2142.27	2171.78	2117.25	2133.61	2109.72	2035.56	2011.95	2007.45	1893.42	2216.84	2167.80	1976.74	1828.33	1826.49	2066.36	1816.80	1530.78	1732.27	1809.19	1820.99	1795.03	1787.26	1810.19	1759.99	1607.28	1670.97	1633.48	1401.81	1594.42	1635.64	1522.19	1260.66	1044.06	1352.47	1315.91	1213.83	1011.36	831.24	979.49	1031.72	1163.08	1055.86	758.84	644.72	942.67	874.17	808.38	888.92	914.15	1007.01	1161.41	1143.17	1169.85	1098.08	1147.26	1144.53	1126.17	1078.45	1085.62	998.86	934.33	986.19	1057.40	1099.66	1061.64	949.50	857.33	881.98	1039.51	1140.11	1007.23	1001.03	834.25	916.39	885.35	891.00	987.72	871.86	781.24	892.33	1031.99	1159.59	1123.61	1075.49	1026.33	914.36	903.69	968.60	895.88	888.80	862.64	759.94	673.47	858.97	823.20	906.28	783.49	767.35	630.23	747.06	1155.17	972.38	899.31	634.67	779.97	904.12	753.96	586.90	802.42	509.23	592.39	670.48	474.88	313.52	276.38	249.60	401.17	730.64	407.68	320.85	462.61	315.47	385.19	293.80	291.98	225.97	264.72	246.69	312.54	312.06	391.00	298.67	392.99	449.67	477.75	659.27	585.27	717.39	985.92	879.82	501.25	924.08	1189.18	819.30	477.19	922.58	634.78	663.30	393.59	397.17	499.17	599.31	426.25	453.19	298.62	210.14	216.78	398.44	621.20	251.75	289.97	352.90	345.84	325.94	294.41	227.69	220.09	314.67	466.73	405.89	319.31	302.91	428.03	547.59	495.53	451.95	350.56	313.16	381.14	624.66	410.05	295.74	571.79	307.45	260.56	301.25	355.22	371.74	324.64	284.58	284.33	249.15	208.88	192.33	258.45	202.20
1918.64	2051.23	2127.08	2168.35	1975.10	1916.25	1837.67	1872.59	1771.35	1598.08	1642.55	1520.47	1303.95	1203.10	1230.78	1545.35	2016.83	2238.94	2491.10	2372.17	2117.94	2047.92	2155.48	2105.22	2454.27	2410.11	2273.39	2114.53	1862.14	2005.17	1909.49	1766.64	1974.02	2250.55	2092.72	2258.49	2569.00	2712.40	2647.08	2429.20	2381.95	2402.70	2250.45	2345.03	2171.40	2055.81	2355.57	2281.00	1987.33	2063.73	2017.73	1973.81	2032.28	2096.73	2069.45	2012.64	2022.48	2033.15	1979.69	1995.91	2081.33	2180.45	2130.98	2070.12	2074.27	2050.20	2089.62	2018.15	1874.41	2034.12	2014.59	2039.47	1915.66	1995.82	2058.32	1792.30	1663.20	1830.44	1846.99	1825.70	1841.18	1881.80	1746.77	1674.31	1605.91	1661.52	1641.49	1449.68	1460.86	1448.39	1357.32	1030.49	1070.49	1352.56	1403.36	1353.86	1228.88	1085.67	1107.78	936.30	772.85	951.36	752.53	711.42	916.38	841.95	846.48	910.06	1009.74	926.75	1023.44	1037.76	1135.86	1087.87	1185.10	1100.44	1046.39	1004.06	970.86	970.48	922.18	983.17	944.43	1049.05	1041.05	915.89	938.28	978.99	1014.08	1098.17	1045.51	957.89	910.70	724.19	843.62	962.51	902.01	857.72	791.77	909.50	971.53	1043.08	1072.09	1002.88	1034.62	1009.35	922.74	925.44	897.29	901.58	865.09	708.05	634.55	713.70	768.36	917.17	812.40	941.44	872.85	931.97	901.14	764.76	866.74	810.60	933.33	650.14	653.83	887.14	477.47	635.02	767.17	590.11	419.14	482.36	366.61	370.95	463.69	700.40	340.24	311.33	493.79	650.45	437.33	269.47	403.08	344.39	299.97	321.40	391.55	430.20	441.77	373.86	416.08	568.48	745.78	647.14	694.33	946.86	971.71	757.42	643.01	1127.44	846.56	706.50	449.34	807.75	542.69	590.94	462.83	338.97	328.30	434.16	363.53	295.30	215.83	210.44	274.72	727.35	562.62	320.78	719.00	939.77	672.05	386.83	358.28	284.39	232.22	273.19	302.91	331.89	263.36	322.86	325.97	331.88	324.48	263.70	239.19	355.46	494.32	435.87	227.84	275.19	300.59	227.28	261.94	358.83	401.45	402.47	359.05	312.74	287.85	249.44	200.25	201.80	260.55	241.28
2031.80	2320.12	2377.42	2257.55	2251.54	2239.88	2119.88	1918.81	1707.76	1634.13	1788.50	1664.84	1480.49	1248.09	1281.11	1501.83	1879.92	2138.30	2536.61	2322.94	2109.84	2029.51	2114.67	2154.83	2211.61	2260.51	2028.86	1942.89	1902.26	1943.64	1982.99	1859.24	1862.61	2210.50	2111.86	2271.35	2350.56	2600.14	2566.30	2454.77	2792.14	2461.72	2297.82	2245.44	2087.94	2085.92	2248.83	2001.19	1970.33	2039.11	1953.64	2121.18	2125.60	2085.70	2051.99	2007.53	1943.72	1947.50	1893.66	1951.99	2159.53	2244.55	2132.94	2078.22	2083.88	2081.80	2190.76	1984.50	1959.24	1897.03	1958.86	2090.22	1994.48	1951.44	1807.34	1757.50	1806.39	1852.55	1844.39	1778.70	1881.69	1864.44	1713.03	1592.33	1544.72	1662.67	1791.31	1418.80	1267.22	1451.09	1393.35	1370.58	1204.59	1285.07	1422.86	1440.94	1431.24	1312.39	1249.28	1228.15	1142.36	847.14	689.24	702.10	814.44	852.26	794.28	1008.30	979.95	849.47	986.57	1104.84	1058.80	1130.48	1162.47	1144.61	1062.88	976.24	935.02	855.33	773.17	876.44	913.78	901.10	955.89	905.61	942.00	966.95	964.38	1012.60	1013.51	949.12	837.15	843.56	854.87	695.17	981.84	841.95	841.06	897.55	921.31	1003.89	989.40	978.48	959.86	952.69	906.97	916.69	868.10	907.99	841.53	725.32	607.66	697.43	786.38	781.69	824.33	1020.70	1044.63	1074.14	1060.49	953.21	951.11	886.78	783.00	674.03	992.27	699.00	470.65	831.97	910.92	523.62	832.39	590.06	480.04	475.90	458.72	586.71	384.05	444.43	511.03	661.73	489.45	587.04	590.17	706.42	420.23	197.33	306.27	433.11	390.58	483.61	531.99	632.83	575.76	768.51	873.08	1143.09	882.80	707.97	497.38	788.26	656.58	324.73	433.48	673.28	489.42	442.36	441.97	213.39	236.61	230.49	220.89	226.72	218.81	239.51	415.53	744.79	436.92	689.47	885.11	1170.40	873.93	474.39	412.43	427.11	237.26	250.13	383.69	669.25	319.94	269.52	227.69	201.97	203.39	202.53	297.25	198.69	326.16	236.31	216.06	212.49	235.81	222.53	326.51	432.14	436.82	421.09	369.12	356.52	356.99	302.72	215.61	216.61	269.99	269.69
2165.61	2328.90	2474.14	2488.62	2255.67	2044.75	2067.75	1982.18	1753.92	1809.53	1905.51	1718.53	1555.36	1330.26	1360.89	1627.83	1955.27	2139.97	2441.36	2357.97	2097.27	2047.97	2141.45	2215.41	2131.36	1966.05	2002.15	1806.68	1919.42	1988.51	2194.08	1997.13	1775.65	2236.13	2258.31	2251.92	2095.12	2383.22	2689.02	2705.73	2685.55	2423.42	2264.44	2130.59	2036.14	1983.17	1994.15	1955.12	2077.56	2088.65	2012.94	2125.14	2138.25	2034.69	1969.55	1953.73	1973.72	1906.15	1859.48	1906.60	2174.35	2197.06	2116.19	2101.74	2129.08	2132.25	2245.06	2029.05	1914.19	1810.22	1849.47	2094.01	2064.77	1944.42	1685.22	1727.87	1857.25	1959.76	1964.91	1778.48	1743.78	1755.30	1575.11	1480.55	1569.45	1626.88	1678.20	1686.09	1522.59	1550.77	1422.99	1395.80	1191.95	1141.53	1450.97	1564.12	1476.24	1349.70	1292.82	1244.97	1147.51	897.44	651.18	796.91	765.49	785.53	916.64	972.33	1058.56	858.39	995.59	1203.28	1111.62	1195.84	1219.11	1098.09	1029.14	946.95	898.25	786.06	763.32	751.46	931.47	972.74	930.22	865.27	883.59	881.89	1024.68	1009.80	1007.97	1002.03	817.42	925.56	758.97	859.80	1035.84	839.92	919.55	933.61	927.04	990.69	1000.25	997.57	990.16	917.37	878.39	879.89	846.99	938.06	800.38	699.23	643.94	694.12	698.76	668.61	687.25	788.93	980.06	1135.08	1230.15	1034.60	1001.51	935.52	883.78	804.73	863.88	674.53	721.09	1049.65	693.97	780.22	986.34	730.44	763.83	741.05	440.17	463.95	302.13	570.83	378.97	467.38	661.97	499.85	614.58	894.08	294.92	230.56	285.15	489.61	415.42	584.64	720.21	729.00	615.94	1191.45	1391.61	1349.61	957.40	523.20	389.55	568.77	688.16	462.75	326.74	391.86	619.43	453.09	508.09	203.03	276.28	446.59	353.26	261.26	236.53	281.61	446.22	637.45	485.72	829.67	1145.42	1200.12	931.52	678.93	463.95	628.55	380.83	501.08	733.22	1042.44	498.50	259.67	224.76	201.61	188.77	185.97	179.25	179.80	294.67	240.86	200.00	247.44	208.84	214.97	246.58	311.92	334.36	342.42	337.25	469.00	601.65	423.81	228.08	240.22	285.73	322.94
1922.26	2325.05	2266.33	2310.72	2318.62	2121.41	2060.52	1902.64	1869.50	1929.30	1980.95	1806.44	1660.80	1429.56	1503.77	1670.45	1995.72	2217.89	2444.00	2281.25	2047.34	2122.68	2199.79	2225.41	2106.37	2084.49	1781.39	1801.50	1953.73	2007.20	2071.17	1789.98	1716.58	1980.41	2214.86	2129.61	1949.35	2326.89	2669.93	2664.00	2536.43	2571.06	2306.95	2099.87	2068.03	1944.19	1884.49	1918.39	2090.31	2097.15	2118.01	2121.39	2079.41	2072.83	2060.75	2029.60	1910.52	1896.42	1857.61	1861.20	2112.86	2145.00	2112.81	2137.53	2181.25	2234.10	2280.75	2096.36	1846.69	1763.41	1795.50	1955.20	1927.58	1733.86	1587.55	1719.02	1852.56	2023.84	1864.53	1796.60	1640.22	1597.53	1543.77	1536.81	1589.23	1599.33	1632.49	1742.40	1509.42	1511.16	1528.49	1445.33	1290.08	1244.25	1430.36	1541.81	1530.95	1428.44	1285.05	1208.53	1178.25	1001.92	561.43	778.04	829.72	770.32	812.94	932.81	888.14	868.05	967.89	1145.73	1361.81	1226.35	1177.81	1149.80	1046.88	907.07	892.24	706.17	794.80	917.70	824.17	984.12	985.55	925.33	846.07	607.75	792.82	910.82	1033.27	1015.67	759.69	830.11	864.76	951.15	948.75	854.16	973.47	921.70	944.20	991.42	979.32	990.34	999.25	904.74	877.12	854.94	860.54	926.81	905.25	693.47	621.89	625.07	671.82	746.42	781.44	778.95	773.36	1037.76	1065.86	1132.22	1079.05	958.60	970.47	868.51	1020.24	675.69	1002.00	1182.80	722.24	1022.85	1002.65	924.00	747.84	737.24	381.02	338.72	492.12	614.91	445.27	469.00	413.09	375.55	496.25	512.39	272.41	223.84	301.83	521.42	459.00	548.50	709.65	874.44	685.96	1027.65	1352.33	1307.88	885.33	461.27	345.38	649.54	460.97	463.38	269.28	233.89	484.89	536.22	407.01	219.08	404.56	805.88	554.95	539.17	280.28	346.11	533.14	575.12	584.64	992.45	1365.35	1346.62	992.15	703.86	380.42	526.97	403.08	598.06	1092.08	1333.57	689.06	292.10	232.55	202.17	199.86	177.83	179.10	180.50	218.31	225.86	230.17	239.90	232.01	238.39	249.49	229.25	287.34	340.40	318.72	331.01	374.50	247.73	219.97	263.62	309.51	374.16
1991.92	2487.89	2312.95	2300.97	2429.39	2199.80	2012.50	1944.08	2046.83	2004.81	2123.92	1998.33	1686.99	1573.97	1829.73	1933.66	2267.25	2380.47	2316.13	2213.56	2102.62	2103.48	2225.91	2202.45	2086.92	1840.00	1788.90	1969.55	1818.87	1938.51	1889.63	1964.56	1825.56	1904.52	2101.81	1959.62	1909.50	2171.45	2290.15	2263.55	2193.19	2299.26	2051.91	1999.59	2168.39	1945.03	1911.50	1908.40	1998.09	2048.62	2072.17	2032.14	2063.53	2082.91	2078.16	2016.86	1941.78	1907.55	1858.39	1857.50	2126.53	2115.73	2140.92	2185.68	2254.50	2407.25	2326.40	2043.86	1943.22	1869.34	1785.72	1944.52	1919.84	1812.75	1706.58	1638.19	1707.63	1874.36	1812.62	1744.12	1694.61	1697.67	1551.78	1495.20	1551.99	1574.92	1636.32	1464.93	1445.86	1480.58	1485.57	1492.70	1310.48	1296.62	1367.88	1418.97	1439.17	1403.92	1268.06	1158.15	1116.81	1011.23	613.26	649.66	852.25	642.70	716.22	1035.85	763.50	816.34	888.90	1052.80	1396.16	1279.36	1243.63	1132.07	1024.72	884.99	754.17	843.07	930.36	799.03	668.78	683.95	752.49	671.14	631.45	526.05	626.61	849.55	871.79	862.96	839.00	921.03	769.72	914.75	871.10	935.66	1009.52	923.16	966.25	1003.50	973.67	975.61	967.95	913.00	886.54	861.15	858.91	943.72	862.56	665.62	608.33	753.67	790.66	715.51	819.62	751.33	667.19	709.15	804.75	1067.72	1004.86	1007.99	1023.11	918.83	773.57	740.28	1069.30	1058.61	983.89	1240.65	1063.92	809.36	640.47	436.17	459.53	455.22	607.73	700.19	687.94	473.57	293.53	465.64	365.81	315.50	225.97	300.33	457.78	402.16	382.00	365.12	399.01	696.14	986.90	832.45	1198.42	1054.47	946.52	592.09	294.38	647.01	333.95	275.06	191.28	242.62	427.43	284.60	239.44	350.91	755.10	678.01	552.45	442.86	305.55	546.85	456.45	523.95	800.42	1174.28	1333.36	1227.95	883.06	699.12	397.00	389.72	380.12	810.79	1548.50	1320.94	569.44	281.16	225.61	204.67	186.51	181.38	184.33	189.67	224.53	239.25	213.45	226.47	242.55	270.59	278.50	261.24	368.64	318.44	301.48	298.25	274.38	231.48	252.12	273.75	363.76	383.62
2115.77	2605.36	2402.67	2324.78	2162.86	2074.98	1944.86	1952.28	2186.55	1973.64	2173.05	1908.08	1881.21	1684.38	1879.89	2067.19	2406.82	2447.43	2363.58	2462.39	2266.89	2162.70	2114.55	1980.55	1917.81	1848.15	1907.92	1929.48	2036.78	2105.33	1936.50	2100.47	1755.13	2064.25	1969.73	1927.97	2088.88	2250.83	2297.74	2326.70	2516.06	2218.78	1945.94	2054.25	2199.20	1936.88	1972.42	1982.77	1963.06	1992.83	1992.28	2010.55	2065.50	2081.61	2077.67	2040.30	1976.25	1928.08	1855.60	1934.55	2314.55	2076.59	2141.52	2202.27	2399.61	2469.34	2266.05	1941.24	1984.78	1873.22	1783.78	1979.75	1959.45	1973.80	1905.59	1582.14	1713.59	1789.65	1780.22	1767.33	1734.84	1616.80	1489.36	1651.61	1583.42	1677.01	1531.51	1431.30	1414.28	1386.14	1351.75	1362.75	1381.50	1327.93	1360.56	1354.30	1297.34	1309.19	1221.80	1139.47	1137.39	963.42	666.84	572.69	841.56	631.59	623.65	778.10	777.12	962.55	1078.08	1187.12	1393.31	1376.17	1345.22	1277.89	1038.08	871.50	702.31	703.56	671.72	693.08	702.28	577.00	574.67	569.88	610.80	564.00	623.51	663.02	627.93	922.89	1010.69	946.13	567.92	730.83	883.73	987.24	991.19	915.38	984.89	993.67	959.48	969.26	995.22	936.77	875.88	837.50	898.53	926.26	778.57	646.69	669.50	761.99	736.27	749.08	831.22	724.24	552.68	698.30	705.47	961.19	836.22	800.89	956.57	795.08	865.95	681.88	1015.27	1267.22	1143.28	1520.81	1173.75	961.23	869.88	557.74	583.89	547.11	639.53	959.57	1107.30	732.20	358.86	444.16	620.99	431.69	236.84	318.22	456.94	326.15	292.03	275.80	364.78	611.10	695.14	826.50	910.69	1082.97	876.36	477.33	244.48	457.42	274.58	362.97	202.16	178.35	218.22	197.28	295.37	371.22	619.08	381.25	380.22	371.10	658.50	515.26	627.99	526.47	897.41	1163.89	1078.80	1103.47	1111.03	629.11	320.49	334.55	701.11	949.62	1306.26	862.70	447.59	363.33	234.51	207.09	191.53	185.50	199.36	196.95	244.19	280.03	248.27	269.56	257.25	338.30	284.49	317.31	526.19	492.73	290.34	339.43	502.91	279.36	281.31	328.97	429.98	564.09
2242.59	2546.40	2319.28	2355.27	2188.82	2211.20	2037.19	1980.53	1947.92	2009.36	2160.34	1878.12	1875.10	2192.69	2124.19	2321.00	2390.48	2256.57	2264.64	2449.39	2278.62	2136.97	1948.39	1858.30	1944.95	2077.50	1931.73	2134.34	2210.39	1944.73	2018.80	2082.14	2010.88	2387.38	2307.68	2238.65	2253.43	2415.00	2584.47	2499.98	2294.68	2141.38	1969.15	2133.59	2087.16	1946.59	2051.68	2031.83	1925.14	1961.11	1996.32	2070.51	2070.83	2066.61	2104.82	2080.86	1988.00	1980.67	1879.94	1975.86	2262.05	1991.24	2171.65	2268.45	2302.58	2413.35	2093.48	2013.31	1983.75	1801.33	1829.58	1933.33	2010.06	1957.30	1807.24	1637.00	1598.44	1735.80	1688.63	1640.06	1727.22	1477.95	1623.39	1751.99	1705.41	1712.53	1580.01	1499.05	1423.41	1369.42	1367.38	1384.31	1397.55	1458.11	1485.08	1379.16	1354.64	1170.03	1252.69	1109.17	1077.00	917.90	659.03	565.03	778.90	708.00	556.00	737.25	907.50	988.31	1227.50	1315.22	1268.47	1336.89	1260.15	1342.91	1203.22	898.44	746.19	666.44	614.15	566.70	527.78	511.83	523.76	501.69	515.72	583.97	669.58	559.31	586.58	529.87	559.12	539.34	540.06	530.51	966.94	964.12	942.12	919.06	991.67	1000.38	956.80	950.97	959.33	922.11	877.17	838.79	910.97	825.39	591.11	606.74	751.28	747.26	664.58	706.52	803.67	870.28	595.93	528.32	868.92	921.08	685.83	557.36	748.69	1054.01	1029.53	839.98	944.41	1399.27	1392.50	1436.47	1299.10	1141.72	998.58	744.92	753.74	695.12	738.69	1022.26	1467.66	673.65	400.61	350.53	474.12	262.05	249.42	259.83	263.80	292.53	258.28	297.19	410.79	636.72	540.66	654.34	865.64	800.66	704.63	322.60	222.99	359.08	284.45	259.95	178.22	213.80	171.58	176.64	388.16	381.17	452.70	369.92	276.36	441.78	589.46	558.17	546.28	861.19	1047.36	1217.51	809.83	955.16	883.28	413.46	272.90	578.51	811.09	1119.78	946.06	606.61	701.55	542.92	225.83	194.30	188.58	185.45	199.39	208.94	290.41	323.84	345.56	443.55	389.47	514.20	305.94	383.22	588.99	575.86	300.30	270.36	334.77	287.88	292.88	328.17	445.34	692.89
2249.79	2487.94	2346.70	2271.08	2053.41	1915.35	1979.55	1926.83	1828.19	1839.62	2109.94	1874.19	2175.22	2319.87	2270.86	2320.41	2275.59	2072.28	2131.61	2208.39	2167.27	2069.30	1826.08	1800.06	2017.35	2237.83	2099.19	2137.07	1911.62	1911.00	2047.18	2046.41	2205.75	2290.35	2250.72	2179.14	2336.45	2651.40	2512.47	2114.93	2071.70	2018.67	1988.36	2138.47	2037.75	1999.20	2056.81	1955.35	1945.99	2005.76	2095.62	2166.06	2101.34	2104.78	2110.59	2128.44	2101.75	2114.06	1958.00	1900.51	2032.03	1945.78	2125.30	2273.67	2275.04	2146.85	2062.86	2068.99	1902.45	1965.30	2076.67	1801.25	2017.49	1924.86	1680.74	1544.45	1545.06	1519.66	1676.65	1648.69	1558.45	1545.80	1297.78	1456.86	1549.44	1657.24	1578.91	1637.06	1595.94	1546.32	1459.12	1405.94	1322.72	1334.92	1381.49	1593.94	1617.06	1321.26	1073.45	1169.94	1042.24	804.89	568.64	645.19	773.05	678.47	698.94	964.15	983.10	1025.81	1333.85	1383.01	1229.07	1158.81	1168.80	1109.94	1174.45	1007.36	784.02	670.33	650.39	690.42	658.66	574.86	516.61	720.41	701.21	567.92	536.95	717.01	548.03	695.39	815.02	650.24	619.45	638.02	947.40	902.33	897.26	858.31	933.21	946.06	929.78	978.92	980.35	910.75	839.94	862.87	861.69	637.57	536.97	753.74	793.45	776.72	640.08	702.32	753.69	667.67	618.00	427.12	731.55	693.12	628.20	466.56	709.62	951.54	1063.97	1176.92	928.00	1240.45	1482.81	1036.45	898.64	856.58	567.24	543.78	613.86	612.69	560.05	1231.33	1162.28	655.56	517.94	413.75	452.11	267.44	170.33	223.50	258.19	325.26	261.82	299.36	459.39	545.11	388.80	444.35	603.29	865.35	434.33	213.22	188.92	229.10	256.50	238.52	234.50	218.14	164.58	185.20	279.54	313.80	408.15	589.63	311.35	425.14	464.48	636.90	548.25	917.39	1232.08	1136.78	692.36	575.33	562.26	283.73	397.00	965.02	1239.99	1024.00	449.25	603.83	687.12	350.94	204.55	198.97	192.09	195.84	207.26	217.25	236.84	347.73	420.94	667.55	528.34	422.80	441.78	569.66	662.62	690.27	357.16	309.05	395.80	332.94	359.56	348.30	378.61	528.00
