89.62	97.20	96.38	85.33	87.72	82.58	74.89	88.77	84.67	86.59	79.00	78.05	72.83	65.67	54.06	48.69	51.48	42.25	33.08	38.89	31.16	17.77	22.47	20.33	16.89	14.97	22.20	24.45	28.31	27.04	21.53	16.06	13.86	16.64	9.91	7.97	13.12	3.25	1.48	4.77	9.61	17.45	12.97	24.08	29.09	33.39	41.81	43.58	47.06	45.48	46.20	45.03	42.41	37.78	35.33	34.83	32.72	28.36	22.39	19.48	21.66	17.47	32.81	23.41	19.44	12.08	13.55	18.98	27.72	26.59	25.23	25.19	26.68	32.23	30.77	31.67	32.44	28.88	22.40	19.82	12.59	21.87	35.03	57.34	52.69	44.62	50.12	53.11	54.86	64.80	68.16	70.08	67.77	72.22	57.78	33.70	61.94	73.61	93.91	114.81	108.77	87.91	86.72	103.22	81.17	72.73	81.61	78.48	99.41	116.48	104.67	84.55	106.36	129.95	155.48	160.78	134.75	124.38	155.29	182.61	144.97	186.84	214.64	233.31	242.39	246.00	221.86	178.70	194.44	209.34	213.90	210.55	241.00	260.79	278.65	297.15	255.57	195.89	161.39	223.80	233.62	165.53	165.94	212.55	172.81	169.54	172.86	204.09	222.34	229.16	221.03	216.30	197.38	192.92	174.47	202.39	236.38	248.34	273.89	272.40	200.41	172.89	182.11	161.26	147.11	163.72	181.58	252.33	247.31	251.01	293.05	279.44	245.78	240.44	273.05	232.92	183.88	155.55	153.19	153.78	165.09	205.79	186.00	168.70	141.39	121.89	110.48	92.98	84.59	82.77	116.41	135.80	141.28	131.22	115.39	105.97	94.77	109.58	105.81	101.70	86.62	81.47	105.98	112.34	121.89	97.80	100.88	158.33	141.56	65.26	41.16	52.77	38.59	9.88	5.58	32.28	38.34	60.80	93.91	90.41	114.16	105.61	114.59	122.41	122.94	117.02	84.05	89.01	154.22	182.19	162.06	165.17	164.62	229.33	265.91	262.81	245.50	232.11	236.22	218.08	194.17	153.28	126.12	151.73	163.31	136.11	116.20	106.11	119.33	90.84	78.08	67.50	84.31	82.08	86.17	88.47
98.77	95.88	92.59	84.55	83.08	86.75	85.02	91.66	92.14	93.12	81.50	66.37	60.05	65.28	63.79	45.55	37.17	35.81	31.69	27.12	26.75	28.92	24.83	29.33	26.45	25.48	17.69	17.77	23.34	22.80	20.63	14.28	15.57	15.72	8.10	13.44	9.10	1.23	3.50	10.53	16.78	23.05	25.95	30.48	31.98	34.83	42.97	44.27	50.47	44.63	47.73	45.59	40.53	37.67	33.06	37.41	30.27	27.50	29.39	20.59	25.61	22.52	29.08	28.20	21.06	11.98	14.69	17.61	29.23	29.45	33.52	33.59	35.63	43.03	37.52	41.16	38.55	31.09	23.43	14.06	18.97	38.66	35.06	45.30	41.69	43.56	50.37	56.78	59.20	74.56	82.28	75.12	63.25	56.78	32.86	37.47	81.44	103.03	112.61	107.92	86.70	76.00	99.28	82.11	81.11	98.81	83.70	87.36	90.03	89.91	85.06	115.30	118.44	118.31	141.00	159.53	156.80	173.75	183.16	186.01	173.13	188.77	179.51	212.02	233.03	265.38	246.49	215.66	206.80	248.58	253.00	234.17	255.25	268.95	300.30	318.00	249.34	205.59	177.48	240.08	236.75	189.66	176.30	225.28	220.08	204.81	203.70	208.77	222.53	241.55	235.45	223.53	230.53	229.69	173.11	176.45	197.28	233.61	247.31	266.81	253.39	232.83	194.34	203.97	164.69	197.26	202.45	293.05	292.94	291.38	288.11	278.13	273.88	274.94	266.41	247.02	201.24	162.06	207.14	173.94	206.72	198.56	201.41	170.64	154.75	140.06	118.31	94.95	85.89	91.23	124.87	162.17	166.25	165.45	148.67	125.25	127.20	125.61	121.48	112.98	108.33	116.94	107.11	143.08	136.36	127.64	135.47	176.05	148.67	64.34	39.28	38.11	21.69	13.23	4.22	10.69	24.00	43.08	59.27	93.16	94.25	88.22	96.95	112.58	96.34	89.45	82.95	133.98	161.78	162.20	143.56	183.28	156.91	199.87	227.86	198.74	202.55	270.11	256.00	235.00	201.44	160.76	150.59	193.72	186.47	150.94	141.03	109.64	95.30	82.89	76.70	82.44	85.20	80.25	79.86	75.52
101.22	95.09	89.50	81.39	85.83	93.45	88.03	92.76	96.62	83.36	75.19	68.61	63.81	60.61	52.42	42.14	37.81	34.92	42.56	34.11	33.03	30.72	22.14	26.08	23.05	31.09	20.39	15.25	16.83	26.41	15.45	17.03	18.17	12.91	12.93	17.06	6.40	11.06	18.43	24.53	29.86	30.11	36.95	28.44	23.36	33.78	41.27	49.41	47.19	49.20	47.83	43.38	39.42	33.47	35.39	33.56	30.33	33.81	32.67	25.11	26.73	30.42	28.31	22.81	12.95	12.35	17.98	25.53	30.41	39.83	44.55	38.39	38.34	44.97	35.73	37.45	37.56	24.17	20.12	14.75	36.59	46.39	48.42	47.26	45.92	58.20	60.22	64.73	70.44	79.83	63.73	54.09	51.02	62.19	34.62	63.16	110.66	122.55	118.84	106.39	114.84	109.39	93.25	106.81	94.88	114.56	113.28	100.14	98.16	100.30	100.59	105.12	114.09	118.58	172.34	209.47	225.81	230.17	217.62	191.36	217.77	252.81	201.72	197.83	253.72	275.73	269.99	265.08	215.72	260.05	265.27	242.40	252.20	290.56	317.64	280.83	237.45	181.01	213.26	222.49	245.69	237.32	178.91	213.01	244.91	242.19	249.33	244.34	251.76	273.72	252.64	236.28	268.11	243.22	187.61	202.38	195.50	196.15	214.34	253.22	285.14	283.55	226.62	255.88	197.15	238.31	243.25	283.06	302.65	295.25	277.87	293.62	290.15	279.53	245.91	209.99	197.06	196.76	247.51	209.25	200.42	178.26	179.37	144.08	135.91	119.55	125.95	120.44	94.72	92.30	95.00	127.08	156.53	165.69	166.08	137.53	157.03	155.12	143.22	167.95	123.34	132.97	121.80	141.51	111.36	105.05	111.36	134.58	149.34	63.12	40.94	30.52	22.69	10.65	8.94	9.30	28.55	57.39	62.13	110.31	101.86	73.31	88.05	83.98	67.75	54.64	92.06	139.78	149.30	120.58	141.66	182.72	157.91	154.57	163.11	144.92	168.19	292.72	275.66	245.78	217.48	162.94	209.44	211.88	179.97	183.75	151.24	111.48	98.56	96.11	86.56	92.20	75.28	72.09	67.67	57.20
108.89	91.91	85.89	79.05	89.42	93.11	94.28	97.89	91.08	86.19	78.94	75.06	69.55	66.05	58.97	51.68	47.11	46.78	39.88	33.53	31.02	26.36	19.62	24.28	18.34	18.18	16.81	21.91	30.33	17.27	12.12	19.89	16.41	12.41	14.56	13.06	13.45	34.16	28.44	33.39	36.55	32.27	33.02	24.51	32.23	41.72	46.24	51.12	45.25	47.88	43.02	36.75	33.14	31.70	38.33	36.20	37.83	36.45	30.89	25.39	28.42	28.09	21.05	17.61	16.55	24.02	24.06	28.20	36.50	36.66	35.75	35.59	44.53	41.66	31.00	32.58	29.38	23.66	16.61	28.34	49.98	55.62	54.77	52.44	52.02	43.50	46.69	46.19	59.31	57.80	56.30	51.03	61.77	65.59	42.67	80.03	118.77	118.08	100.48	94.02	107.97	114.14	125.81	157.59	128.70	147.72	187.17	147.14	111.75	128.77	128.87	113.89	121.70	147.80	193.00	234.47	248.69	268.17	238.70	246.91	268.13	268.66	233.52	211.58	268.46	269.22	272.55	272.39	238.75	296.86	284.12	274.28	278.09	295.08	313.55	241.44	201.44	189.67	266.26	255.95	291.52	263.47	202.92	200.11	207.03	214.11	263.50	284.31	289.83	315.69	270.95	290.25	285.32	235.86	212.64	237.97	243.91	229.80	209.83	219.44	266.05	281.38	274.36	276.44	271.75	200.05	241.83	282.81	281.91	280.81	270.39	278.03	274.74	259.26	208.38	205.95	223.31	235.19	268.59	263.33	190.95	167.89	154.86	164.55	168.94	169.58	171.78	129.14	102.27	124.67	109.13	101.48	110.88	118.16	138.89	124.01	154.99	174.86	172.91	171.86	125.20	99.55	115.14	106.31	89.53	83.25	103.64	128.23	93.03	65.42	45.98	30.40	23.28	16.71	5.84	13.78	39.19	55.69	68.72	78.77	100.70	80.50	73.14	75.38	54.62	47.64	99.58	111.72	85.88	111.42	152.11	159.31	122.83	118.95	106.67	127.98	204.62	276.05	257.89	228.73	201.69	190.45	214.31	168.95	146.12	141.42	130.88	126.11	139.61	111.80	95.83	99.86	84.53	68.80	75.66	66.00
99.63	89.44	82.23	81.61	85.05	92.92	89.75	90.94	87.23	86.09	84.44	78.95	75.48	63.64	58.66	54.95	55.30	45.84	33.00	32.14	31.67	23.05	20.56	20.45	16.64	18.55	20.94	26.88	25.98	14.33	15.34	19.58	13.13	13.73	8.92	2.31	7.80	17.66	38.53	35.09	29.47	22.77	12.73	15.45	30.25	43.05	48.05	29.52	42.59	30.75	38.77	27.59	35.78	35.16	38.61	35.83	36.78	33.17	30.41	27.61	27.69	17.66	15.94	20.11	30.44	36.52	68.81	108.66	71.95	69.69	49.05	34.59	33.12	27.09	22.17	16.47	12.62	19.20	29.39	23.50	32.09	44.88	57.37	58.42	60.41	54.56	43.00	41.80	43.75	48.53	56.98	70.30	86.97	102.88	54.19	71.67	79.61	80.69	100.39	125.36	118.08	123.48	153.36	181.92	164.11	178.33	163.81	118.94	131.34	165.41	133.81	124.27	137.59	141.69	171.31	185.09	217.45	258.47	240.17	247.59	269.28	269.19	238.44	219.14	224.92	242.06	265.93	257.41	267.13	306.01	307.56	318.81	329.53	324.20	324.14	279.31	196.78	249.14	293.67	296.22	313.01	253.69	268.42	215.06	230.89	223.86	296.47	320.81	332.65	316.61	347.44	353.11	287.17	253.09	267.56	302.76	294.39	255.44	237.39	227.67	270.21	278.11	299.82	267.35	277.28	217.08	211.53	239.08	256.59	277.88	291.96	257.64	242.38	241.22	246.91	241.23	252.34	266.09	307.42	246.77	189.94	202.94	186.42	195.91	189.14	157.72	130.30	123.50	158.99	142.38	128.16	141.19	127.67	123.50	123.78	122.86	120.78	107.97	118.23	115.36	102.62	81.92	77.91	76.72	87.14	74.14	105.74	99.61	80.88	58.06	41.55	25.53	23.22	17.14	6.09	27.31	20.16	21.48	35.06	58.84	109.66	81.56	52.19	56.31	34.00	49.52	75.66	69.08	89.34	129.67	139.06	123.53	99.33	85.17	105.81	155.51	186.47	233.94	255.09	234.69	234.58	195.80	165.25	160.49	169.76	147.06	126.23	142.25	144.89	109.05	104.17	111.62	92.62	76.89	90.52	85.11
97.17	93.03	85.53	88.12	88.83	92.41	92.94	80.91	79.67	84.41	82.61	71.52	61.48	54.06	49.56	61.45	49.97	39.14	35.16	35.23	32.98	18.88	19.47	18.27	21.89	22.02	25.09	29.70	17.00	11.39	11.55	17.20	14.50	11.55	2.66	3.06	5.64	4.61	12.45	13.36	8.56	6.05	13.42	23.16	30.47	30.69	18.84	18.45	22.11	16.00	29.77	22.95	39.89	41.02	40.14	38.72	38.03	39.09	30.70	32.14	27.81	17.67	27.52	32.98	43.34	82.20	138.89	167.83	114.83	101.95	81.61	62.09	50.55	38.23	27.44	23.31	27.70	39.92	45.14	26.42	25.30	43.56	61.74	70.20	65.25	43.23	47.39	46.02	49.56	69.66	79.01	100.41	114.09	88.95	63.74	104.80	90.92	106.06	102.41	146.75	135.88	152.91	171.22	185.23	169.99	140.30	121.31	117.61	154.49	159.08	147.13	138.75	177.84	150.34	162.49	157.55	164.47	193.41	210.45	231.51	260.49	272.55	238.78	262.78	257.17	291.06	318.17	305.70	301.45	317.25	336.09	332.03	354.34	350.61	307.69	263.30	200.69	247.81	252.47	261.31	308.97	304.44	260.62	225.20	279.20	231.06	281.05	345.35	356.58	341.22	347.14	324.11	292.41	334.46	307.27	315.50	296.60	270.84	245.11	247.72	301.36	312.53	303.99	275.89	248.36	213.76	234.58	251.94	265.73	268.73	279.58	273.42	282.42	309.42	300.91	283.44	295.00	300.49	323.84	278.14	257.12	249.86	233.33	222.49	192.11	166.20	137.81	179.91	198.67	172.26	164.25	185.39	164.00	149.31	151.25	139.74	124.97	120.19	104.44	118.19	122.83	98.89	88.25	63.03	65.94	55.94	56.97	52.47	59.77	60.09	35.86	13.66	9.16	6.33	22.88	59.61	17.79	10.82	22.39	47.12	66.13	83.17	59.00	35.14	24.64	32.88	50.42	71.16	137.69	126.70	102.73	95.84	73.61	68.31	117.64	165.76	160.94	206.89	204.52	205.22	262.17	203.20	174.56	197.20	206.39	175.39	152.68	153.41	142.59	118.42	115.84	101.98	93.36	103.98	104.02	99.05
99.70	90.74	92.05	88.86	91.11	89.08	92.84	83.00	67.86	77.78	75.86	67.61	55.89	50.17	43.56	45.73	38.91	31.70	29.78	33.58	30.34	21.19	19.89	15.31	16.70	19.78	14.22	15.09	13.54	12.36	22.23	16.33	11.36	6.76	5.11	9.88	14.55	8.46	4.56	2.22	3.39	11.17	9.95	4.14	11.06	18.19	19.64	33.52	26.62	15.39	14.03	27.94	41.31	42.44	42.08	42.17	35.39	44.05	33.62	34.31	21.77	21.44	35.36	37.59	56.59	134.33	134.91	133.17	133.62	114.73	90.36	69.69	58.14	46.61	37.83	50.56	41.91	61.97	55.73	32.12	38.47	32.84	50.59	51.00	55.97	59.66	53.00	56.55	58.17	71.20	104.95	116.22	97.38	86.25	86.25	131.47	148.59	141.53	107.81	133.01	170.23	170.17	183.41	176.78	143.12	120.66	150.70	133.50	166.56	178.53	142.81	187.73	213.03	198.83	204.69	196.70	182.44	179.66	241.81	280.67	288.17	285.19	262.17	254.62	280.12	289.95	327.50	344.01	351.12	359.47	365.75	357.50	358.86	354.64	339.91	285.64	255.31	238.28	236.70	238.25	267.24	309.06	295.00	261.52	297.38	258.25	324.44	340.98	362.19	349.48	316.06	357.64	336.69	368.08	342.90	327.36	302.92	281.25	256.08	272.44	300.15	328.53	315.85	290.24	266.14	250.24	229.55	254.47	250.75	276.31	277.36	301.65	312.69	317.36	292.03	296.61	298.24	277.28	316.22	322.97	270.40	274.12	260.94	254.28	206.91	171.88	163.61	235.53	211.97	182.69	205.41	224.42	178.05	179.20	198.24	158.38	140.61	147.64	137.72	167.72	144.24	131.81	110.03	102.56	97.78	61.73	63.83	50.20	43.98	54.36	26.32	19.75	9.97	24.36	33.77	32.92	21.34	11.10	11.20	23.30	24.98	39.77	56.42	36.83	19.41	36.48	37.95	57.30	114.14	115.14	75.88	66.20	52.28	98.06	105.02	123.75	140.75	198.13	147.53	190.64	189.66	218.41	199.91	215.58	214.53	195.69	183.83	174.31	148.13	134.99	128.93	124.84	121.52	120.80	107.09	105.17
104.44	97.72	98.75	88.11	92.55	92.47	85.66	82.22	63.89	67.48	71.67	59.55	42.44	42.91	42.42	42.97	31.56	26.77	25.97	27.33	22.92	13.34	19.07	19.03	18.67	22.70	14.89	16.48	9.45	12.21	15.63	14.23	5.97	8.69	5.44	20.69	19.61	7.34	7.48	7.36	7.44	13.50	19.97	12.92	24.27	26.83	26.31	36.22	27.42	24.64	11.57	21.33	34.90	37.59	39.73	37.55	33.28	34.58	31.62	23.19	19.44	26.72	39.58	41.19	55.72	99.44	83.89	86.20	108.39	108.58	104.58	69.14	64.80	45.45	50.27	64.59	49.39	59.00	57.78	49.44	50.28	58.67	61.89	58.14	66.50	66.63	63.69	63.94	68.42	96.61	119.64	119.11	97.51	113.14	89.53	164.25	181.61	169.61	136.81	126.73	165.75	179.08	194.94	166.08	139.61	128.27	152.45	167.14	173.09	167.02	149.94	220.22	256.00	253.14	235.62	248.67	201.50	178.88	201.78	299.37	312.78	299.70	278.31	268.22	319.94	316.39	320.53	345.97	370.34	374.56	375.66	365.96	371.33	358.67	371.31	346.69	299.61	251.53	269.72	283.17	285.11	350.69	296.20	288.61	321.70	291.16	378.78	368.81	350.69	361.14	337.36	384.92	379.68	381.47	367.56	351.94	327.73	288.39	266.50	297.88	333.97	346.62	332.03	293.67	279.28	257.31	252.56	280.11	268.15	264.67	267.33	277.58	282.53	302.73	286.89	305.42	297.06	254.02	283.03	295.38	265.22	246.65	236.42	252.56	253.39	204.26	193.91	240.42	242.81	221.70	257.20	219.24	189.95	196.72	207.08	170.78	182.24	175.61	169.42	194.70	164.89	158.97	123.61	142.50	103.05	43.70	17.44	18.50	25.37	16.99	28.69	38.39	35.89	51.48	51.87	55.17	32.55	27.77	26.38	25.58	30.50	16.09	17.82	13.51	16.43	26.08	39.20	42.83	65.56	76.22	53.19	46.39	47.70	86.16	71.95	84.92	105.11	153.51	119.39	136.23	165.75	213.64	194.11	197.84	219.56	222.42	218.76	200.06	184.72	152.38	149.17	142.80	137.17	125.20	105.80	97.95
96.61	98.86	87.94	91.77	91.50	89.45	84.02	72.30	54.30	66.73	63.70	52.84	41.17	40.77	33.17	29.97	20.56	13.73	11.17	15.58	18.16	16.61	13.69	14.79	13.78	18.26	18.52	15.30	9.17	8.54	9.81	14.30	1.52	7.53	13.78	23.78	19.61	8.05	4.89	10.40	22.44	26.36	28.44	26.48	24.41	31.02	27.70	37.22	26.69	26.86	19.67	15.72	12.95	17.23	29.88	38.20	36.59	23.55	19.61	20.61	26.17	32.90	36.31	43.25	58.66	67.48	108.42	95.20	106.22	95.87	86.73	83.81	64.95	42.97	59.45	67.19	56.27	60.20	64.99	73.78	50.52	69.28	73.55	71.00	75.17	68.89	66.99	70.95	94.88	112.39	125.81	118.59	135.61	120.00	80.20	126.06	124.38	158.25	161.53	115.58	149.12	165.67	180.08	154.33	132.31	139.75	158.11	218.12	196.09	162.61	175.37	212.33	270.06	277.41	284.49	267.00	217.92	253.95	238.04	298.95	309.62	304.01	318.95	315.39	333.52	344.90	346.64	348.64	359.39	370.44	377.67	390.47	388.70	384.20	373.54	333.28	294.36	321.83	335.05	325.26	317.37	342.49	305.96	329.01	365.11	315.44	369.11	387.08	378.05	390.97	390.85	389.54	382.09	392.05	380.30	379.46	340.81	296.53	296.25	321.85	337.31	349.07	319.76	303.39	290.97	266.83	290.08	280.81	275.44	287.69	311.16	271.43	260.69	276.10	268.25	305.83	283.45	243.99	290.20	304.91	286.94	237.47	212.45	226.49	268.25	252.11	231.24	251.81	246.17	243.59	272.78	235.62	227.19	228.77	209.11	191.48	208.97	208.05	199.22	174.94	156.33	173.89	133.05	111.66	47.58	67.78	56.12	84.36	74.55	74.62	82.52	64.89	23.16	70.39	88.22	82.39	64.13	51.55	47.50	35.97	40.55	26.67	18.69	14.92	20.17	23.55	19.94	31.22	39.73	36.84	43.19	43.20	47.84	57.52	63.62	70.13	74.70	83.94	108.73	154.25	202.69	226.83	193.81	185.94	216.11	218.77	229.03	227.45	216.38	182.62	157.66	139.49	132.52	117.98	120.30	103.75
93.22	86.89	75.25	89.20	92.73	81.39	70.69	61.58	51.91	68.59	60.78	57.03	47.72	44.31	37.27	33.41	25.12	16.64	11.11	14.81	10.91	14.02	13.53	15.37	14.25	16.17	17.94	9.98	12.97	10.39	13.50	17.51	1.47	11.22	12.80	22.48	22.28	18.36	9.74	6.23	13.73	22.53	23.03	28.70	30.03	29.09	32.22	31.95	23.41	28.64	28.59	32.23	17.46	19.91	36.86	28.36	35.56	25.19	31.56	28.61	28.72	37.47	45.48	45.09	62.91	95.38	128.88	104.89	106.69	100.20	98.84	136.03	74.59	56.02	60.50	61.06	61.33	75.11	90.66	90.62	56.61	76.36	75.81	76.39	77.25	67.89	82.05	82.33	107.72	125.45	125.69	150.02	142.12	101.22	95.30	116.69	141.81	166.83	158.01	129.33	151.30	197.75	191.53	146.58	178.19	174.06	170.69	194.02	184.50	201.53	199.22	228.83	255.08	292.12	301.39	262.31	308.86	324.92	301.58	300.59	345.16	337.67	322.35	327.22	337.74	347.72	363.85	365.99	353.64	354.68	363.36	364.69	383.58	401.39	401.57	342.55	346.08	362.88	357.65	340.14	333.92	350.61	343.75	362.62	391.53	337.05	375.56	412.62	421.91	405.01	383.06	358.81	366.21	376.19	409.47	399.83	374.30	326.26	335.55	338.14	363.06	348.81	308.85	285.74	301.30	309.00	316.06	287.95	290.77	325.41	321.14	292.51	265.90	259.36	246.62	280.91	253.06	237.25	287.09	290.21	272.51	223.41	198.53	203.75	231.91	237.48	265.59	240.67	215.36	203.81	223.14	241.14	246.03	249.84	189.97	179.57	217.25	259.89	233.84	148.22	111.89	130.70	102.48	41.95	86.02	138.05	97.47	146.23	127.44	117.66	105.08	93.95	56.78	38.81	91.55	115.22	96.70	81.77	81.89	58.12	38.69	30.09	27.80	29.27	31.00	24.56	20.42	32.23	34.88	37.80	42.03	45.25	47.53	51.91	62.75	87.64	111.02	105.66	114.41	153.00	203.20	199.17	182.28	178.86	204.59	193.56	226.52	215.58	184.03	173.12	158.45	156.97	135.61	124.38	106.03	98.91
94.33	92.83	77.22	85.36	87.44	71.48	61.56	51.05	58.08	51.22	50.97	52.92	50.53	33.42	24.36	20.03	15.64	15.88	13.77	15.89	12.79	9.14	9.67	11.74	13.35	15.12	19.34	10.63	10.42	6.56	15.58	15.90	2.70	11.08	25.84	22.59	13.97	16.75	19.70	10.56	14.45	21.16	29.47	26.13	30.30	29.17	30.78	27.81	25.45	28.61	27.33	31.34	17.11	17.45	40.47	33.19	30.66	31.66	37.00	30.87	32.97	39.34	46.78	53.36	66.09	122.11	136.45	121.97	109.73	101.24	140.53	148.20	81.09	76.17	74.64	65.53	82.84	96.28	90.02	63.95	66.31	87.58	93.58	86.09	96.28	95.98	113.20	116.77	103.36	104.55	126.64	143.80	122.89	103.11	86.50	143.11	170.25	156.00	133.30	170.19	162.47	176.81	185.95	152.47	177.31	193.85	196.39	192.05	224.41	263.38	244.55	261.90	306.05	317.65	306.47	320.42	324.20	353.62	339.45	339.02	337.55	344.25	363.00	359.85	345.38	348.31	347.42	366.49	362.56	343.30	340.41	347.06	369.01	395.86	382.60	346.16	353.86	359.01	360.14	354.33	357.38	359.44	355.09	348.90	355.64	349.85	394.14	423.17	424.36	412.91	386.19	356.15	344.92	368.30	414.17	411.40	377.98	356.36	379.33	361.77	367.71	331.84	307.74	291.70	336.75	335.95	348.17	303.81	301.05	340.28	378.08	372.81	323.95	299.11	272.52	240.10	228.64	223.97	259.94	249.25	227.72	229.41	223.60	185.14	229.58	244.48	273.03	281.00	232.51	184.55	217.16	261.00	217.53	230.89	191.84	175.09	257.74	260.60	242.64	189.89	168.67	92.94	51.77	128.44	142.47	157.47	136.83	165.88	160.97	153.06	125.23	105.80	97.08	43.88	79.66	134.09	117.50	119.28	120.95	80.61	58.41	46.70	43.94	32.72	35.16	34.59	43.33	48.30	50.86	46.02	40.81	43.42	46.23	60.42	78.52	124.34	156.11	141.44	148.11	141.00	184.03	199.87	218.89	202.14	179.70	172.06	195.73	173.85	145.22	147.06	170.16	168.69	145.57	139.86	130.49	110.41
96.95	81.33	72.17	89.06	88.75	60.70	46.50	43.38	59.98	47.31	38.05	39.70	36.08	24.72	21.36	16.57	13.67	15.91	15.61	16.95	15.30	12.72	12.85	13.28	12.70	15.73	14.04	8.22	6.78	8.00	12.06	2.42	9.42	6.74	17.80	21.47	18.98	24.66	20.22	12.89	14.45	18.41	26.25	23.75	30.16	31.48	29.27	24.08	34.08	30.76	27.61	20.75	18.36	15.98	23.22	31.83	36.52	34.73	40.08	46.95	31.78	38.81	50.58	51.47	68.44	110.77	126.98	115.86	113.75	154.64	205.84	177.11	96.38	86.80	73.73	77.52	76.95	75.77	77.94	60.27	74.09	99.40	119.14	105.37	112.80	113.88	102.91	90.36	94.39	117.44	139.00	144.66	134.28	110.61	94.77	119.31	154.49	154.47	141.42	192.22	190.66	175.41	197.45	173.86	201.84	208.69	210.72	245.64	277.28	308.89	295.47	310.85	331.83	321.67	317.92	334.11	336.23	362.35	368.30	361.45	353.35	314.12	340.88	369.78	380.49	376.69	367.73	350.08	311.77	323.94	339.75	393.25	391.93	403.99	372.83	360.72	352.48	340.83	356.22	369.45	365.81	359.44	358.51	364.02	362.66	354.86	364.36	388.55	385.80	380.50	388.98	383.43	360.11	377.50	366.33	384.53	394.62	376.93	391.86	377.00	368.17	337.19	319.00	331.64	362.50	347.97	344.11	310.58	318.45	361.99	412.86	384.58	322.06	311.83	266.10	283.70	275.29	230.03	239.78	222.99	190.50	190.70	205.84	165.08	222.58	242.78	239.47	278.41	250.64	191.50	211.55	241.73	194.86	210.70	173.64	172.57	230.19	219.11	196.69	191.59	168.38	72.33	148.92	241.86	249.72	217.53	180.81	189.75	184.20	162.28	137.17	88.64	63.81	36.50	54.66	109.77	109.02	139.80	118.30	103.33	78.17	62.98	51.30	44.20	45.33	40.75	44.28	57.64	74.98	73.94	50.69	41.31	49.42	65.88	95.17	155.00	208.36	183.97	188.02	180.80	215.11	234.39	248.19	221.94	205.94	197.36	150.91	130.47	125.45	127.70	148.84	155.03	162.09	161.02	142.26	131.19
82.50	59.73	84.20	81.56	86.09	58.09	43.66	45.27	40.69	40.91	33.92	30.91	24.56	21.66	21.28	19.02	16.78	11.30	11.59	17.33	6.74	7.72	14.33	18.82	9.21	18.81	7.16	7.78	7.14	11.64	5.17	7.36	28.06	10.56	5.37	24.34	24.88	25.39	20.27	21.19	18.30	19.89	25.80	25.36	36.02	39.64	39.56	31.11	29.70	29.31	18.26	23.05	19.42	26.94	23.95	13.30	37.62	41.31	53.94	51.56	36.59	41.09	64.28	85.09	135.62	130.12	162.31	124.27	109.17	156.98	190.84	184.77	105.03	83.59	80.62	111.19	76.39	65.61	49.91	65.19	81.16	101.20	109.56	87.67	92.55	85.47	97.98	101.95	122.30	132.47	145.12	157.14	109.42	100.95	108.55	120.50	163.17	178.28	174.95	188.50	191.13	199.12	233.36	184.86	228.45	242.26	248.19	277.43	314.86	317.36	321.45	332.66	343.67	341.53	331.66	330.44	337.14	335.25	324.70	310.81	305.97	287.33	325.83	374.33	388.69	391.27	367.47	321.40	318.69	342.72	348.15	375.02	395.00	416.33	387.31	371.22	362.27	340.11	337.39	346.32	349.60	364.40	360.95	358.08	360.22	363.58	361.00	361.70	355.22	349.67	365.58	377.52	356.12	390.19	364.56	379.38	390.42	400.58	408.01	376.25	350.99	331.22	347.31	373.75	386.61	387.69	352.28	341.17	356.84	403.29	410.24	371.36	341.43	326.86	263.55	311.17	305.36	243.08	217.66	203.56	253.31	197.66	215.78	229.36	159.91	174.95	185.12	232.82	246.52	187.06	212.73	209.53	154.55	139.28	94.06	132.61	154.70	237.99	177.33	122.77	111.75	51.75	177.41	310.70	346.30	261.87	196.28	179.95	182.70	161.86	133.80	78.11	50.59	16.14	26.45	76.66	131.83	178.72	146.86	162.92	111.44	128.34	71.34	46.03	61.67	59.91	63.44	70.80	88.36	100.14	62.88	48.64	46.06	60.72	102.87	151.20	199.53	175.26	200.98	257.19	264.61	245.38	235.81	214.40	197.41	171.80	149.19	113.44	98.11	112.17	124.19	144.28	159.20	169.62	153.88	146.94
72.13	45.64	86.09	78.06	65.11	56.33	52.97	59.06	46.16	30.23	25.83	24.82	21.72	20.20	22.64	23.07	17.83	10.14	15.89	6.81	5.21	7.71	7.76	7.69	10.48	17.84	7.15	9.00	9.94	7.94	1.44	18.31	22.72	15.91	7.38	19.08	19.27	16.53	19.91	23.33	23.14	23.89	25.77	19.84	33.00	40.86	41.69	33.84	33.44	25.28	24.47	32.66	34.47	26.31	32.53	20.53	18.23	31.28	57.05	60.48	45.56	55.63	83.22	116.37	150.25	175.14	198.06	123.69	130.77	168.55	195.00	152.77	104.28	82.64	76.38	79.73	66.16	60.81	49.78	70.80	87.30	106.09	88.53	108.34	114.19	128.12	125.56	111.91	112.12	120.72	177.70	183.46	120.23	130.49	104.02	121.52	134.11	152.11	192.42	225.17	223.58	238.71	230.64	218.92	241.59	277.50	266.69	256.60	292.14	311.26	312.86	323.14	331.36	336.49	334.98	333.75	329.39	318.50	315.53	314.01	305.44	296.78	278.22	319.89	337.01	381.10	345.16	297.16	324.56	352.95	358.61	350.58	358.97	384.08	386.86	369.05	356.20	340.01	332.69	336.24	324.55	338.59	345.14	350.53	351.64	347.28	348.68	357.31	362.98	356.97	345.41	343.51	336.89	348.45	354.89	377.96	386.65	375.81	368.50	363.62	363.15	350.26	366.70	380.85	389.69	391.00	335.25	343.30	343.28	356.92	352.97	350.61	324.55	282.70	291.72	347.79	299.11	268.35	242.14	230.11	269.37	256.61	286.79	273.90	202.39	194.39	135.17	149.07	146.81	135.15	128.95	186.39	152.06	196.77	149.23	82.84	119.59	246.44	245.75	192.62	79.30	65.95	165.75	293.55	263.64	216.28	163.22	125.69	121.75	105.89	72.70	42.75	38.02	13.67	36.38	75.03	111.16	120.86	142.83	170.16	151.14	141.44	77.70	56.31	71.02	88.38	85.94	77.37	92.06	136.64	83.53	57.77	46.44	64.47	79.92	101.78	138.47	171.14	194.62	273.66	254.03	223.05	179.84	193.03	208.42	178.78	137.19	111.97	101.31	93.38	110.36	127.30	135.31	160.08	175.34	149.64
64.89	40.53	70.62	57.22	56.56	59.74	53.42	54.84	44.06	30.50	22.03	18.75	21.03	19.88	19.30	18.27	16.11	22.62	12.78	6.39	6.95	8.58	9.54	9.54	13.58	17.61	6.11	9.80	11.58	7.25	1.28	10.11	18.17	17.36	8.45	12.66	14.28	17.11	27.28	24.16	28.14	29.87	28.26	32.20	43.44	47.39	41.53	34.14	32.31	20.55	34.62	39.16	34.45	24.73	34.83	35.44	23.77	36.97	64.50	64.92	52.94	60.48	91.55	113.94	151.38	210.42	213.26	131.06	141.97	222.88	288.10	199.92	103.36	89.89	84.33	79.02	77.17	75.99	64.02	76.28	85.44	87.81	80.22	105.61	113.83	139.80	164.50	127.56	142.16	114.36	182.08	167.76	152.95	132.67	141.86	109.78	130.44	141.19	200.00	239.59	245.78	266.47	269.81	280.04	301.39	318.65	331.56	285.99	317.28	327.56	321.47	315.24	312.28	302.67	310.05	322.23	330.23	323.75	308.88	306.17	313.03	307.19	292.08	271.14	332.88	350.09	301.49	302.28	338.92	347.08	360.03	359.75	342.95	330.70	357.81	365.80	347.84	326.02	317.30	328.17	307.09	317.19	324.22	322.25	324.89	335.14	335.64	343.20	343.13	339.26	329.56	318.20	320.64	332.58	345.59	363.75	354.81	351.64	342.97	355.66	361.51	349.30	373.11	376.19	372.75	378.72	356.72	371.03	359.89	344.90	326.69	308.94	296.56	321.17	355.00	367.49	332.55	320.88	292.19	298.72	281.28	311.48	334.26	295.47	276.19	281.58	199.86	189.49	201.15	223.17	214.73	268.53	286.89	204.06	50.56	40.80	115.11	153.19	161.64	144.94	50.72	159.76	222.70	273.81	249.80	214.58	197.77	148.47	84.69	72.63	59.14	42.08	37.45	24.44	30.17	36.00	75.02	98.27	117.98	152.42	168.77	129.09	92.08	81.47	63.70	103.38	129.53	93.70	104.53	141.23	125.33	75.39	50.67	52.05	85.34	113.06	131.78	168.87	202.22	255.73	219.56	239.00	192.06	155.25	169.14	130.83	110.70	105.66	102.47	88.59	120.83	133.03	139.99	165.34	168.65	176.19
53.06	36.59	36.48	34.06	29.11	40.16	47.17	48.80	40.06	29.06	18.36	20.00	20.30	16.77	19.36	18.48	25.00	22.52	14.29	4.77	5.84	8.10	7.85	5.89	14.83	10.17	5.38	10.34	8.54	1.78	1.92	13.42	31.80	24.03	18.03	5.95	11.09	14.89	25.69	28.22	30.89	34.87	31.20	41.72	49.52	51.38	43.58	41.34	29.52	19.91	36.28	44.52	37.03	28.20	37.42	47.12	41.81	43.30	63.09	92.95	75.73	79.92	100.59	153.62	181.33	221.81	206.69	126.06	142.34	202.94	301.75	220.08	114.00	99.75	82.30	104.03	145.03	82.27	69.87	67.61	80.33	83.16	86.64	94.88	104.62	96.47	101.11	85.27	107.94	101.58	132.64	141.80	152.95	193.95	158.33	138.95	145.81	142.94	177.98	199.44	256.22	248.29	267.11	285.94	311.36	353.14	353.67	328.06	355.75	366.86	351.20	318.94	298.92	296.59	303.31	305.85	312.91	309.03	300.38	310.40	293.95	286.42	281.09	259.12	315.31	315.75	270.35	334.22	357.83	358.89	343.51	337.02	325.56	305.36	327.26	337.72	338.16	337.93	306.59	297.92	331.23	352.97	347.72	336.78	340.35	339.51	336.74	335.12	336.46	324.00	316.17	304.35	333.56	339.29	344.59	359.64	340.61	336.48	333.73	313.83	327.50	350.11	360.25	348.30	353.47	381.19	381.64	381.09	381.36	364.93	346.59	333.43	313.94	352.50	386.33	353.78	327.89	318.55	308.49	311.61	316.58	324.55	338.29	325.11	337.94	330.22	265.19	283.75	284.03	289.27	293.42	281.30	238.06	121.69	76.81	116.73	53.49	55.98	64.72	71.16	92.45	125.27	168.28	248.81	321.00	289.78	208.08	154.30	91.19	72.30	49.62	46.23	29.08	34.51	14.73	40.22	87.91	97.08	121.05	131.31	155.00	141.91	131.41	100.19	70.22	85.70	132.75	113.66	123.44	144.83	114.28	77.42	53.40	54.52	92.94	132.24	170.17	166.67	232.97	253.08	198.61	198.97	204.04	149.94	111.64	99.41	90.61	89.12	87.72	90.54	122.80	112.55	138.72	162.24	145.34	146.83
59.44	55.03	54.44	57.44	38.41	24.78	36.75	44.50	47.16	27.81	22.99	27.97	18.42	21.19	20.36	25.36	30.76	18.89	6.67	5.86	8.11	15.22	11.19	4.17	13.96	14.08	7.94	12.58	1.75	3.95	16.86	31.34	37.31	23.61	29.97	13.50	10.19	17.22	19.08	24.14	23.19	28.59	31.42	43.34	52.56	54.34	51.84	52.36	39.05	25.28	42.41	44.50	50.34	35.95	39.50	41.52	48.31	64.11	82.69	97.38	87.42	104.52	129.74	191.99	228.66	232.33	219.30	141.95	123.89	193.03	245.58	147.97	121.72	87.28	81.77	132.33	151.33	134.48	89.31	66.52	76.00	78.72	81.13	90.72	103.45	80.67	85.77	91.95	94.64	123.28	137.38	153.80	211.02	203.36	179.75	141.28	188.69	174.53	194.44	215.74	240.13	218.70	277.94	315.25	342.12	367.59	367.94	369.31	378.72	363.83	345.62	321.87	305.56	294.27	277.02	298.17	308.56	302.72	280.33	296.24	281.09	271.61	258.61	231.11	283.34	278.92	253.44	310.72	324.47	334.92	323.27	304.79	311.42	304.19	300.88	303.09	336.28	345.06	302.74	307.75	346.21	346.12	348.89	344.44	341.63	342.51	347.95	331.70	340.66	329.31	322.09	289.74	314.25	328.88	363.06	357.94	335.27	315.14	316.07	296.62	310.84	338.88	329.90	310.83	330.67	352.20	371.17	374.17	374.20	380.03	380.17	345.39	321.26	349.31	368.70	327.59	288.06	282.49	276.08	260.23	262.03	274.66	293.80	269.66	298.50	314.78	295.17	272.03	254.39	215.59	261.64	228.88	179.47	118.51	79.89	206.78	110.17	102.33	190.40	269.95	194.80	161.55	264.53	293.94	273.53	249.19	204.84	173.08	135.42	93.13	68.86	51.06	34.55	31.75	19.73	33.89	59.58	76.62	94.69	110.83	131.47	148.74	129.27	105.08	91.73	95.45	110.70	98.81	104.05	120.09	119.75	81.70	52.38	50.16	62.53	95.42	147.09	163.42	199.14	228.17	196.39	142.51	135.88	111.20	86.25	70.25	60.25	59.02	59.97	69.27	69.27	81.31	114.08	125.42	121.75	104.36
30.74	34.55	39.30	36.11	23.05	21.00	33.36	31.73	30.58	22.88	23.44	22.42	16.72	20.52	26.25	44.73	33.45	36.66	16.64	22.17	33.07	41.00	26.31	25.59	39.95	40.09	20.23	14.18	17.77	32.69	35.48	54.89	56.72	44.87	31.59	29.92	14.17	19.19	17.32	27.81	31.42	26.39	30.58	53.00	59.81	61.80	56.36	64.42	65.58	44.69	43.52	62.84	57.50	51.17	55.95	47.27	60.11	109.37	97.98	79.73	104.67	123.19	137.45	197.59	258.12	206.64	160.66	123.91	112.06	139.12	120.87	96.48	102.73	110.33	113.17	150.23	175.76	130.78	92.48	73.94	68.36	77.00	81.31	95.19	100.80	76.34	82.22	102.02	115.27	135.55	156.13	187.66	232.58	226.20	195.84	193.97	241.21	217.53	177.92	189.30	211.88	218.14	285.97	310.92	339.17	351.30	342.76	367.78	372.09	340.95	324.76	317.99	296.56	259.69	263.92	269.44	283.50	287.03	258.34	282.98	290.21	275.89	243.56	213.41	240.39	230.92	226.25	249.17	260.45	267.86	285.60	270.15	277.92	279.97	296.30	294.08	286.89	308.39	279.63	295.39	348.34	330.28	340.45	333.97	341.26	337.86	347.25	338.27	345.05	340.99	315.50	284.26	319.74	330.02	326.89	328.07	315.10	302.88	296.99	277.55	264.25	303.73	289.81	287.30	294.41	312.62	324.72	321.79	306.86	329.66	362.14	346.14	308.36	295.81	305.39	301.78	284.92	297.64	285.20	278.41	240.89	214.36	230.86	235.83	243.70	264.73	267.03	243.56	189.63	142.67	144.78	123.02	120.11	97.01	124.06	211.77	111.05	157.12	195.75	283.50	251.39	177.27	249.75	226.75	220.80	183.97	146.30	118.66	115.55	90.80	75.75	61.14	59.03	33.33	26.69	41.00	62.00	60.61	72.77	91.17	143.49	156.45	135.12	120.17	97.39	94.16	104.52	78.58	61.92	88.66	128.68	77.31	46.94	45.34	51.52	64.92	88.38	118.98	153.59	172.81	160.83	119.47	90.36	80.41	66.97	48.50	50.42	76.06	93.30	111.03	97.62	109.59	80.75	84.16	83.45	84.62
40.03	26.30	23.58	34.08	28.58	19.92	24.59	22.39	21.94	21.39	23.78	21.83	18.14	18.42	31.09	37.86	23.14	42.11	30.34	35.75	25.56	10.47	7.25	7.89	21.20	25.64	12.52	44.11	52.83	50.30	36.69	58.28	75.42	61.47	42.55	69.88	29.30	24.62	39.56	25.82	28.52	41.77	45.19	63.25	67.36	66.92	66.38	69.48	72.52	51.97	51.84	61.41	63.05	68.37	61.38	62.97	116.45	128.44	129.58	128.59	100.38	116.70	147.50	196.42	272.64	274.94	212.67	136.50	111.20	107.36	97.50	116.88	144.33	142.11	156.53	189.99	147.41	110.75	91.36	92.22	99.20	83.58	79.47	92.20	94.84	87.14	82.70	89.55	102.88	120.80	152.28	187.86	201.11	197.01	186.32	227.75	251.64	252.12	223.77	254.44	249.78	263.69	262.95	301.55	328.40	324.02	293.84	302.28	322.28	306.53	304.67	283.34	301.94	280.45	251.11	253.28	250.29	253.06	250.51	270.03	278.20	280.92	248.23	219.95	210.14	202.34	209.31	220.53	209.89	216.31	238.58	257.59	264.58	284.73	302.14	306.28	308.48	277.04	256.71	255.59	310.64	307.89	326.14	319.67	346.53	337.29	315.36	332.85	326.66	327.72	310.36	269.92	287.19	290.34	297.22	304.75	293.64	280.17	271.38	253.34	238.42	273.72	265.92	243.62	268.74	280.85	277.49	257.88	242.00	270.05	316.74	318.58	292.33	276.00	245.09	255.49	274.86	291.50	287.72	291.08	279.14	256.22	223.20	194.06	180.31	195.22	191.34	204.27	195.67	167.14	142.94	149.01	126.50	66.53	162.66	219.05	154.78	117.03	174.83	248.34	273.67	258.80	241.91	212.50	176.55	148.88	120.14	155.69	191.09	144.74	111.95	88.22	54.76	28.62	26.08	58.86	86.86	79.77	64.48	82.72	104.09	130.73	130.99	103.70	82.39	75.42	114.83	84.08	52.52	75.86	91.59	53.30	45.86	53.91	60.92	72.50	81.73	96.34	128.01	139.82	125.41	108.17	91.91	73.20	53.41	58.48	78.89	119.63	119.38	135.95	129.17	151.89	128.55	113.42	74.47	98.02
39.58	28.89	23.36	18.78	27.92	26.83	17.52	13.86	19.44	17.08	18.44	17.92	16.78	21.91	25.59	26.30	18.39	41.75	37.70	22.12	14.94	26.49	22.20	24.41	36.44	33.91	57.30	47.84	52.89	50.05	50.25	52.06	54.27	60.25	45.61	41.70	43.34	40.89	29.28	24.14	21.24	40.26	58.98	57.41	62.98	64.86	67.11	71.36	59.97	61.72	60.49	62.70	73.27	80.44	80.81	76.83	128.64	143.56	137.58	118.09	104.38	136.23	175.22	241.84	284.84	324.00	266.52	151.31	123.91	112.02	111.64	139.55	155.61	173.41	190.97	208.62	162.02	130.12	118.98	110.24	106.53	104.17	93.42	115.10	104.67	95.45	94.36	94.13	100.94	145.51	167.58	167.62	139.34	131.84	135.31	164.95	203.59	224.84	295.69	328.72	279.62	326.70	301.47	282.86	308.91	297.74	292.10	272.83	290.95	282.01	286.88	269.38	285.33	284.88	255.75	227.53	231.42	257.21	271.19	258.83	243.84	235.89	223.61	216.86	202.41	202.21	229.72	259.44	254.81	230.33	237.06	258.00	264.81	272.16	278.17	272.12	286.25	282.12	267.56	241.74	253.61	278.36	280.76	324.94	345.14	329.85	303.01	316.81	308.55	310.94	310.28	269.56	285.90	298.53	304.91	302.61	294.01	280.38	282.83	274.91	232.44	260.11	247.70	258.00	302.83	312.33	290.12	256.41	233.70	274.84	300.19	305.20	281.19	257.11	233.25	222.38	256.12	264.69	243.94	228.78	230.61	238.44	259.24	254.95	233.15	193.48	161.11	145.31	210.55	209.41	129.56	64.89	70.41	25.42	120.59	226.01	161.33	106.83	143.66	230.05	249.14	232.34	250.11	216.05	199.03	129.12	140.72	189.39	231.72	183.28	118.47	74.97	46.19	29.17	29.45	53.38	85.72	109.62	76.92	68.45	80.70	111.36	128.03	84.58	66.45	64.06	92.55	76.59	50.27	49.14	51.53	46.00	44.52	50.28	59.42	86.66	96.27	99.97	110.78	112.31	111.30	102.25	78.62	56.56	62.53	94.11	102.39	193.75	182.31	153.59	146.81	119.83	109.67	108.27	99.02	137.80
34.98	28.95	20.77	28.29	25.42	27.00	22.86	14.17	19.38	19.34	16.19	17.38	15.58	20.84	32.49	23.47	37.05	42.27	48.36	16.67	21.09	32.50	37.59	38.70	26.32	37.16	57.83	40.38	31.14	44.36	49.12	37.47	31.91	31.38	23.92	24.31	57.78	44.09	43.38	30.39	19.27	35.11	48.05	64.08	56.86	55.97	62.47	61.98	49.03	61.00	70.20	71.98	70.84	78.36	93.23	125.00	154.67	167.22	122.84	113.11	136.61	176.31	197.94	259.69	298.33	313.36	267.25	150.42	126.11	120.33	125.59	125.70	160.95	188.28	206.45	236.11	248.30	192.58	139.03	116.47	119.48	116.73	101.41	111.22	117.09	112.83	106.66	113.84	112.73	124.16	126.47	130.06	141.91	157.84	155.36	153.16	165.95	222.67	321.00	346.64	318.88	381.56	361.49	340.65	347.99	337.09	325.08	313.45	259.38	252.44	241.14	227.50	229.62	223.47	246.38	212.49	260.96	295.55	296.16	276.16	239.47	217.81	221.19	220.72	193.69	207.08	243.81	256.61	282.98	276.56	257.38	261.06	263.09	265.40	267.60	267.76	273.53	275.38	266.05	239.00	231.55	250.34	291.14	308.86	320.26	305.17	279.45	294.44	285.01	308.21	289.45	242.41	273.28	292.03	299.64	295.61	307.33	305.55	303.88	290.33	265.88	223.49	221.55	261.33	287.58	308.65	303.79	273.08	227.39	237.74	270.33	310.28	303.43	287.65	252.47	219.25	236.70	242.81	255.96	224.86	210.08	194.81	160.36	160.56	175.56	188.73	170.84	121.91	188.66	54.11	65.91	73.75	48.27	96.53	161.03	196.61	135.14	146.41	149.62	173.09	194.05	226.17	236.05	207.28	171.84	134.64	148.25	149.97	161.28	125.88	79.41	58.14	39.59	26.22	30.16	61.33	60.67	71.22	85.72	80.49	70.77	83.81	103.84	72.62	53.69	51.92	62.58	56.91	43.50	40.44	47.73	43.78	43.64	46.95	58.86	66.20	78.66	83.48	99.19	98.98	110.65	131.30	69.44	57.46	95.94	118.17	109.86	143.41	192.67	168.66	131.61	103.83	83.06	89.73	132.55	160.45
17.67	20.33	25.11	17.58	24.59	27.09	19.72	11.03	18.06	20.89	19.98	16.09	14.69	24.83	20.03	30.70	23.20	43.12	47.80	21.33	39.28	38.41	39.36	31.30	26.33	24.17	51.62	47.73	39.28	42.44	44.12	45.92	30.03	29.83	25.28	29.50	40.47	36.33	29.34	31.59	24.89	47.84	55.75	55.06	49.75	49.88	48.91	61.75	45.75	48.58	52.11	63.41	76.95	90.64	83.50	129.19	164.05	159.25	121.05	140.05	172.49	234.33	278.64	290.93	342.06	290.05	199.61	152.44	127.92	126.84	121.12	109.52	132.86	178.39	223.47	263.10	301.58	272.47	180.31	131.80	123.34	113.08	115.02	116.66	118.11	114.38	116.60	126.33	122.75	127.83	148.74	147.15	187.62	203.48	186.78	168.14	178.44	200.64	294.90	353.15	352.81	394.60	401.36	380.49	387.97	328.12	305.08	292.55	271.47	263.12	243.95	252.92	263.95	236.36	206.89	258.75	307.37	336.72	317.98	275.45	242.80	234.42	247.50	222.30	189.06	181.05	192.30	229.19	282.80	289.13	272.86	266.51	268.51	272.45	276.24	275.99	272.89	266.10	269.19	242.66	222.28	246.11	283.33	298.17	314.44	310.03	287.17	268.74	268.59	301.25	252.65	252.61	269.20	275.90	288.40	300.75	306.70	289.30	269.58	255.09	242.52	205.44	241.34	267.80	287.51	278.61	276.45	263.97	219.08	235.36	260.64	307.26	317.55	309.00	259.28	223.11	191.89	245.33	252.73	265.39	236.54	201.44	220.36	180.81	172.36	139.74	92.69	139.28	102.23	37.69	113.48	78.11	120.42	139.23	226.98	244.45	204.58	206.92	199.12	211.80	229.28	223.81	193.34	194.14	174.44	157.55	189.08	171.34	121.41	95.83	73.66	52.67	42.62	27.19	31.28	58.72	64.03	58.47	69.45	77.42	72.47	64.54	78.42	72.37	49.39	42.02	49.83	45.39	38.42	38.25	41.91	44.55	44.45	49.20	59.75	71.06	72.22	74.81	84.44	92.03	111.25	116.97	54.24	64.39	111.61	136.28	152.22	140.28	184.62	196.58	152.33	99.30	89.03	97.55	118.16	136.03
36.11	22.84	26.95	28.86	39.47	27.00	25.41	9.90	14.27	13.78	16.58	18.32	16.80	22.80	16.81	20.11	16.44	29.49	14.39	20.53	55.52	62.84	45.14	35.25	29.48	22.06	43.92	37.52	48.00	50.52	40.69	33.70	33.55	32.94	38.95	21.99	29.61	26.55	31.27	34.23	28.98	44.23	49.42	51.44	48.25	52.45	43.23	31.25	34.88	44.23	49.03	58.02	77.88	117.42	119.72	136.61	150.89	135.17	138.20	160.72	221.00	250.75	264.25	307.17	317.02	313.45	192.62	151.22	133.93	146.99	124.78	119.20	153.49	206.19	244.89	235.23	284.47	299.56	251.45	149.63	119.89	107.91	146.28	134.33	130.67	112.30	111.94	131.42	127.01	156.25	190.98	171.55	228.83	249.94	204.61	191.38	193.89	193.12	234.14	323.02	367.06	399.77	412.84	430.14	416.95	350.01	318.34	314.94	303.64	280.53	261.55	275.30	288.69	263.11	221.30	224.56	260.39	315.43	336.33	317.81	295.23	276.42	272.81	248.59	217.59	172.53	184.36	226.74	253.25	283.89	275.59	278.08	283.06	282.84	268.97	261.94	258.22	238.01	252.20	235.67	219.88	238.48	258.84	270.99	285.50	288.64	279.11	273.89	259.90	257.03	246.89	275.80	284.22	291.76	298.08	302.83	301.31	279.14	269.33	260.42	240.54	214.94	202.93	225.00	250.09	258.08	240.61	257.90	246.76	215.73	210.08	253.14	286.65	257.20	256.80	243.09	223.53	157.09	233.64	278.61	261.12	260.69	236.82	247.98	229.93	234.56	203.70	90.62	88.39	33.02	148.86	141.39	109.89	177.44	235.64	255.41	258.35	275.75	276.55	265.08	264.82	227.50	203.39	187.00	168.92	171.38	208.14	180.08	125.06	103.72	84.31	58.42	41.84	29.95	29.98	26.86	64.81	68.30	53.39	53.78	59.03	57.38	43.16	49.33	52.53	40.14	40.84	33.25	33.25	32.05	34.47	43.25	46.31	52.36	62.83	84.78	114.55	89.66	77.16	75.89	92.08	58.61	55.16	91.09	128.72	156.03	188.31	186.84	171.22	205.12	133.41	88.81	103.27	128.50	138.95	133.74
46.16	34.62	31.00	30.41	29.39	18.40	19.94	11.31	10.83	10.44	12.64	15.84	18.51	23.86	19.33	14.37	15.53	21.69	49.19	16.34	43.22	43.17	38.40	31.21	30.49	30.23	41.08	31.36	49.16	53.58	30.53	46.44	33.55	39.61	49.05	39.02	30.80	34.34	38.47	36.27	34.33	43.22	43.80	44.84	47.34	42.59	35.08	48.55	38.28	35.91	50.50	81.20	130.98	159.41	171.12	169.23	153.20	132.59	144.67	154.39	184.87	193.88	213.08	235.47	261.08	253.36	182.91	146.47	153.30	147.01	116.98	153.92	187.95	214.56	245.12	225.81	184.47	217.86	165.89	142.09	126.14	122.81	156.27	147.05	152.89	116.00	109.69	121.41	126.81	155.06	211.09	205.36	219.01	231.69	221.28	217.24	216.56	219.07	218.95	239.31	277.22	314.97	359.78	396.10	429.47	393.91	357.95	332.85	306.31	287.65	292.81	302.42	302.76	284.79	255.89	207.31	237.03	288.69	323.74	331.32	323.58	307.39	278.28	249.69	209.22	167.75	169.45	208.41	254.06	274.80	247.44	265.59	271.62	287.33	289.28	289.92	257.31	234.22	216.99	212.38	222.42	239.81	265.53	274.86	266.02	257.27	250.69	236.70	217.64	241.56	267.27	275.67	280.12	284.82	288.70	292.22	298.70	297.63	289.00	282.08	273.22	261.99	231.82	186.31	207.20	216.50	228.47	251.81	255.44	225.88	201.55	239.91	237.45	229.03	252.38	253.03	221.87	144.91	203.12	225.17	263.86	239.05	197.80	187.11	142.61	138.95	124.88	83.95	55.00	53.72	72.99	190.86	163.41	232.83	276.76	245.36	210.59	214.95	227.33	260.67	236.19	214.64	197.67	177.06	162.92	170.66	187.48	161.51	121.73	89.72	77.02	59.86	45.23	34.23	29.38	25.34	48.33	68.81	65.05	45.20	48.39	46.77	34.17	30.36	31.08	29.97	29.56	26.31	20.11	30.45	30.11	33.27	37.69	47.99	68.41	87.44	100.73	89.80	76.75	65.38	66.86	47.19	65.75	109.91	173.14	202.92	176.91	186.36	144.72	148.05	107.28	107.38	121.34	166.09	134.01	132.78
47.33	33.30	25.11	24.48	17.83	9.38	19.88	13.92	13.12	10.02	9.46	16.36	16.34	18.89	13.28	25.03	18.66	47.36	29.94	12.89	21.34	32.08	34.83	46.80	51.92	36.44	41.67	37.89	57.06	60.31	69.81	46.72	31.94	32.30	44.55	32.83	32.66	27.08	39.94	42.80	40.97	43.64	46.73	50.78	44.33	39.31	39.12	38.02	42.62	50.47	96.50	141.30	175.03	184.44	169.42	153.95	139.61	144.99	156.80	173.01	180.67	189.41	226.78	245.52	300.33	372.37	235.84	147.53	141.72	121.75	143.06	191.70	221.38	240.14	257.24	260.94	201.62	141.55	131.62	130.63	113.00	116.70	120.98	127.53	135.01	139.59	122.34	143.05	143.69	137.25	179.25	232.09	249.19	238.42	255.70	234.11	276.85	262.67	284.53	249.75	254.44	299.44	320.16	343.92	405.41	410.24	365.22	325.26	306.39	294.04	288.20	278.26	271.78	247.16	237.12	204.37	228.97	259.75	277.06	311.61	304.39	293.65	261.51	239.47	215.98	179.88	164.97	190.53	234.79	257.47	226.64	231.92	252.88	268.36	293.06	307.69	305.76	258.97	212.99	240.11	242.02	238.56	262.39	282.72	261.59	244.74	233.53	225.81	219.70	228.47	237.55	263.62	272.83	277.15	279.52	282.67	288.73	289.61	286.36	270.12	257.72	233.41	225.47	192.62	184.33	225.56	259.83	255.59	221.50	187.64	178.53	217.61	196.94	232.91	240.27	227.58	226.75	173.61	124.78	185.84	230.44	250.26	247.22	230.74	232.05	203.19	155.31	133.03	105.33	62.44	90.34	198.64	225.25	231.83	265.97	244.08	224.03	186.14	209.39	233.26	224.53	201.95	172.14	151.13	160.13	155.17	165.67	160.75	123.17	58.70	58.42	55.11	48.14	36.39	30.45	27.42	25.88	50.58	40.99	33.33	31.33	32.89	33.14	29.17	30.64	27.00	24.80	25.04	21.92	28.09	29.53	31.62	37.64	45.53	57.75	69.50	82.58	86.31	86.95	72.78	55.56	43.00	85.75	129.26	174.47	175.61	157.42	184.08	133.07	112.58	98.58	118.67	152.99	191.81	152.61	118.97
45.73	32.98	27.37	17.19	15.09	18.81	21.72	11.86	12.79	10.87	15.22	18.80	18.73	20.70	21.59	20.05	18.95	27.95	28.70	13.50	19.41	38.84	47.09	41.72	38.25	32.83	34.66	37.21	38.56	31.48	73.69	38.78	27.23	33.53	50.02	53.28	42.92	20.36	50.17	36.19	52.69	48.30	49.75	56.11	46.91	45.95	45.39	38.55	44.95	75.70	124.94	168.44	190.00	192.94	159.70	140.81	147.69	165.25	188.09	203.24	209.97	213.64	250.78	284.50	302.05	358.12	226.39	150.17	150.74	121.61	165.67	207.49	229.88	247.50	211.24	196.08	195.81	128.14	125.14	116.52	116.55	131.30	141.92	148.01	147.78	154.62	147.03	169.87	161.83	157.11	155.23	207.64	240.03	262.92	286.49	261.30	302.20	303.80	304.72	289.51	282.86	299.58	337.56	363.90	386.36	394.89	343.94	320.65	302.62	291.08	278.95	264.42	249.02	230.17	207.44	210.03	192.50	243.25	288.89	301.77	294.60	278.85	258.58	260.30	234.27	220.53	183.47	215.94	246.37	248.33	220.13	232.09	255.84	257.70	254.67	259.92	275.75	228.12	202.78	249.73	261.27	257.39	267.89	282.33	270.29	258.85	244.20	232.52	216.58	203.69	244.98	258.80	269.91	273.12	276.52	275.75	279.33	279.59	274.12	274.64	247.00	208.17	188.06	166.84	199.44	243.22	261.24	264.92	243.26	207.39	157.38	178.47	211.89	229.61	218.03	234.39	201.49	188.00	119.66	204.89	177.98	228.11	218.06	229.88	228.47	221.66	198.58	149.97	96.89	35.30	138.89	267.50	265.81	226.64	226.58	219.83	237.64	178.20	185.31	205.26	217.92	189.53	169.05	177.06	201.83	149.64	141.72	157.84	89.98	56.61	40.02	43.62	42.98	33.91	30.56	26.75	25.73	29.89	25.89	24.27	29.31	27.72	22.62	27.00	29.78	28.95	27.12	24.79	26.03	26.58	27.97	31.14	41.17	50.02	75.47	86.88	84.70	84.17	72.11	64.53	56.47	43.67	80.14	113.44	139.08	131.70	139.92	160.20	131.91	113.27	105.53	114.44	140.74	150.84	136.17	124.50
31.36	25.09	24.00	15.46	11.64	16.95	13.12	12.62	13.16	12.25	17.47	22.70	16.33	13.86	11.48	13.22	21.58	28.89	28.53	18.95	13.25	50.84	52.41	38.69	35.37	32.64	30.34	29.17	33.06	33.92	57.38	23.64	28.97	38.17	54.77	61.86	57.28	46.58	39.89	52.95	52.39	57.19	63.79	53.61	44.08	54.47	50.83	45.78	74.47	89.72	131.00	180.97	160.20	156.78	151.06	138.08	166.05	204.59	248.08	256.14	257.97	273.05	292.70	244.39	203.11	205.53	167.58	151.59	131.59	134.92	168.14	194.69	211.47	210.88	172.39	150.55	128.83	119.44	134.81	134.11	135.11	157.95	188.67	194.20	177.44	168.67	189.25	217.06	201.30	179.88	170.59	243.86	278.83	297.81	311.50	317.76	329.08	333.97	316.28	310.40	302.04	299.45	324.62	354.67	343.86	350.94	328.39	308.65	297.62	289.62	284.72	285.83	282.00	250.81	236.68	251.05	204.55	224.99	278.66	262.78	291.13	294.80	288.53	284.50	259.99	253.08	199.00	189.81	236.96	234.95	207.64	234.60	263.96	262.10	237.24	231.98	261.01	222.94	189.44	242.55	265.75	270.28	280.25	280.36	265.42	253.58	246.04	227.49	222.58	193.30	200.44	232.62	263.91	273.78	273.38	271.05	271.36	272.88	265.50	276.05	274.46	257.75	220.95	174.06	172.03	211.01	229.19	248.03	232.65	196.66	158.56	154.97	173.41	182.86	198.98	232.14	221.95	157.84	130.06	124.91	166.67	190.71	149.62	156.28	145.01	169.58	124.42	87.83	33.50	69.33	155.98	194.97	205.22	197.38	188.36	177.47	215.14	181.10	161.05	186.83	215.02	153.97	136.06	178.84	191.23	145.03	113.16	125.86	83.20	55.44	41.17	37.63	30.79	24.50	23.39	30.34	34.06	40.36	34.86	25.89	38.81	29.98	13.21	15.03	23.25	28.06	31.39	32.23	27.69	24.80	25.92	32.86	38.66	48.08	68.55	85.73	78.49	80.19	74.09	65.25	51.42	41.59	80.02	102.40	113.56	97.36	110.47	107.08	81.12	83.31	94.69	129.88	150.98	151.91	159.77	112.42
20.41	19.44	16.92	22.28	16.87	10.17	12.56	14.00	12.64	14.97	18.27	15.28	24.97	23.44	21.30	20.33	20.53	27.58	29.64	29.22	11.38	37.23	53.48	43.98	37.95	30.21	24.69	28.62	26.56	24.67	40.26	37.48	35.61	58.50	41.30	47.94	53.08	54.33	60.52	56.51	53.64	61.55	63.48	55.30	58.11	64.59	53.67	58.67	105.42	94.22	134.87	168.89	149.55	133.97	141.00	151.50	200.25	242.69	282.72	300.39	258.11	254.78	239.33	196.21	180.86	163.16	150.37	134.50	145.27	152.47	156.50	165.50	184.47	188.53	179.01	141.53	140.05	146.95	160.84	135.06	138.66	186.45	230.42	223.88	181.81	183.83	190.62	230.97	248.79	197.24	188.22	204.58	232.12	259.08	295.95	332.55	331.50	332.80	328.73	322.86	307.19	326.25	314.70	310.58	318.14	303.47	298.33	302.38	298.86	287.08	274.74	261.05	243.42	252.48	257.90	230.28	197.25	177.61	202.55	251.97	291.89	276.61	252.25	275.09	279.20	262.89	247.42	198.50	175.00	175.84	199.20	260.12	275.56	274.47	243.53	219.69	219.29	209.14	184.23	205.99	216.28	233.16	263.67	275.26	274.92	260.22	239.86	245.66	257.92	216.03	197.09	227.80	252.58	274.38	271.89	256.28	250.04	254.14	262.38	273.79	267.03	230.33	215.55	192.54	165.50	222.17	236.56	243.69	229.47	197.28	154.69	130.08	193.25	217.89	228.28	226.34	218.90	237.77	198.24	106.42	168.69	149.55	143.42	121.34	108.00	93.17	66.86	30.00	76.23	106.52	150.26	163.36	155.48	150.30	158.69	153.81	182.84	156.72	114.58	139.91	154.09	128.42	124.00	144.78	123.50	105.17	78.69	80.06	51.13	36.48	33.73	29.14	29.17	26.89	30.66	33.95	48.34	46.66	49.28	44.44	48.42	32.28	12.69	11.92	13.94	18.44	25.77	34.80	28.28	29.34	32.38	28.66	30.75	35.86	45.80	59.20	68.02	67.39	72.53	70.19	48.47	37.16	61.70	86.77	84.84	71.20	73.83	55.56	60.77	79.11	101.16	134.58	180.67	177.53	157.56	111.61
18.16	17.92	17.47	17.39	15.79	13.04	13.33	9.50	12.94	14.61	23.36	27.99	30.66	25.77	32.38	32.45	21.68	32.84	32.91	32.33	12.45	22.44	50.30	45.30	46.19	38.34	39.16	37.03	37.19	37.67	33.98	41.55	38.53	38.12	71.03	58.19	62.36	51.02	69.75	56.56	51.89	57.50	62.14	56.41	63.59	56.39	63.38	116.94	129.44	109.75	123.87	127.45	126.22	144.36	140.88	145.76	195.23	234.22	241.49	211.86	158.50	161.19	168.39	181.03	178.39	156.12	140.24	157.00	173.75	164.64	162.69	168.72	180.75	188.78	170.20	151.81	191.73	193.30	177.41	131.01	148.44	186.92	196.81	185.11	203.81	239.69	251.86	256.38	300.44	256.24	213.58	220.77	220.41	269.89	309.36	329.41	323.35	300.87	279.50	277.39	284.62	308.41	306.69	292.20	302.19	289.33	295.67	298.01	307.16	306.47	297.01	280.69	253.59	273.92	238.53	246.20	248.30	196.63	187.59	253.11	263.11	257.88	211.50	256.94	267.86	229.55	220.56	209.75	175.25	230.28	250.56	268.69	282.33	283.10	249.49	214.55	180.20	203.48	222.86	243.83	255.72	267.45	265.00	265.74	270.55	270.76	252.64	212.81	198.56	182.98	225.47	262.72	272.53	266.06	270.28	240.81	232.73	248.47	265.70	275.25	268.19	233.77	199.09	186.67	149.91	202.75	241.61	234.89	192.30	207.01	181.22	125.33	164.86	212.62	212.65	167.55	167.28	207.53	223.33	127.52	133.91	118.72	72.53	53.02	72.11	36.77	27.31	81.39	116.70	121.02	154.89	143.05	129.09	120.27	123.06	123.45	119.83	109.56	116.81	157.69	129.31	91.95	85.12	94.83	113.47	88.00	50.89	38.72	37.53	38.44	36.75	36.59	40.75	39.44	38.27	38.69	39.30	42.39	55.47	78.59	97.47	74.64	29.23	21.33	14.27	14.36	14.77	19.38	21.45	21.28	17.20	28.89	28.92	36.97	40.42	42.27	45.23	58.20	63.81	60.44	46.92	36.22	57.73	68.95	61.53	59.86	49.39	60.55	77.66	74.30	103.34	139.20	161.59	136.38	112.92	105.08
20.03	15.50	17.45	15.00	14.08	12.72	12.30	10.11	12.56	24.86	29.92	25.33	16.91	19.31	26.26	27.28	18.34	32.52	45.16	48.44	17.45	22.44	29.16	43.41	53.12	47.70	47.39	49.41	49.31	43.02	42.64	43.14	50.50	54.75	50.41	52.64	54.05	60.53	49.08	46.81	50.80	65.25	67.62	54.38	58.33	52.91	100.59	194.70	172.41	137.30	103.28	107.69	147.20	156.42	145.03	130.84	138.72	149.58	157.61	142.52	132.64	145.26	158.53	164.44	156.88	149.36	170.97	176.00	184.56	172.53	169.33	168.50	172.84	173.50	175.88	208.95	231.30	223.73	174.77	151.83	178.26	216.95	190.69	210.17	291.78	360.20	392.51	345.71	347.43	287.01	273.99	274.39	285.14	300.31	324.72	319.17	300.28	297.24	258.08	255.95	274.95	297.03	306.25	293.73	284.36	284.02	298.56	299.75	293.08	290.45	283.75	267.50	280.14	287.61	259.99	283.90	250.25	208.55	171.86	178.23	190.77	201.16	186.05	222.75	242.84	238.39	189.05	172.62	220.97	248.12	261.69	282.11	290.33	292.61	275.36	242.14	188.76	242.03	244.38	235.24	244.99	244.31	249.05	240.25	242.31	241.39	239.67	228.53	177.98	197.34	223.78	242.22	254.63	238.16	251.25	224.64	224.19	244.58	252.14	262.87	261.05	257.92	243.14	228.42	191.12	166.22	190.89	202.16	148.58	167.83	187.34	123.56	157.00	179.63	197.70	167.78	125.86	162.26	177.03	152.06	80.97	60.81	87.59	71.72	54.89	84.84	92.53	116.98	148.23	150.83	164.49	166.53	138.19	145.08	126.42	113.81	88.78	85.97	118.05	119.86	95.87	91.12	80.76	57.89	70.62	48.34	32.89	31.50	34.42	32.19	31.56	33.22	48.98	47.92	44.70	37.42	41.09	55.30	92.72	133.48	148.09	109.52	48.88	38.47	23.98	16.80	15.81	20.38	18.20	18.24	17.14	27.89	32.94	36.39	42.12	43.86	43.02	46.17	45.69	48.19	43.11	31.80	53.83	64.09	54.94	50.94	59.53	100.06	117.25	95.98	110.03	145.51	131.72	107.94	94.20	100.78
16.98	18.17	17.73	19.06	24.00	20.59	17.29	10.47	12.35	24.56	36.55	23.97	31.30	26.56	37.66	19.88	25.41	46.30	50.81	60.66	26.80	14.06	32.95	38.30	45.72	39.55	35.12	45.80	45.19	45.58	46.01	42.20	47.20	56.61	51.87	23.08	30.19	54.26	82.22	59.39	49.75	62.05	59.31	46.64	53.45	70.44	142.72	194.44	150.25	127.38	99.15	107.19	141.33	150.25	153.01	145.11	123.94	115.08	123.03	136.55	150.81	160.45	161.74	165.25	158.84	177.39	198.19	197.88	186.83	191.05	189.22	176.41	187.03	178.51	209.17	244.33	209.12	182.80	170.47	203.75	247.34	286.88	216.19	302.45	426.96	474.92	477.51	395.77	333.89	329.75	395.14	343.61	315.64	329.74	341.51	322.01	295.08	291.51	274.55	241.74	271.72	295.10	304.81	292.55	278.19	272.95	299.08	301.56	291.95	285.94	278.50	285.19	303.67	297.60	288.75	292.42	269.20	241.64	190.92	166.94	160.53	159.62	152.37	163.70	163.02	186.01	178.28	200.16	223.66	232.34	255.62	283.94	291.62	276.36	251.66	219.72	182.59	190.41	222.20	228.00	240.66	226.88	230.08	219.26	231.38	232.91	212.14	210.76	176.42	177.75	230.77	241.84	230.51	224.28	225.69	211.19	224.51	235.56	233.16	244.67	243.48	253.03	258.41	235.56	201.05	135.12	152.62	163.44	110.62	107.42	124.12	99.38	114.49	152.15	145.20	102.94	56.03	56.14	87.88	99.53	46.03	67.08	134.59	152.14	138.77	144.87	141.49	147.51	176.08	188.91	194.67	173.94	158.53	169.73	149.99	131.19	111.45	131.84	134.44	107.28	112.08	153.23	109.39	62.83	52.17	41.27	36.89	64.77	113.95	79.99	40.77	33.09	43.66	38.84	47.39	48.09	47.91	62.06	106.66	108.67	118.33	89.66	64.03	51.87	41.17	21.72	16.08	17.28	17.53	19.41	19.92	22.42	25.12	22.86	29.48	42.86	51.72	49.41	41.94	46.30	42.33	30.55	44.50	56.17	57.48	52.48	70.02	108.14	125.02	126.66	122.12	159.74	126.70	115.75	101.11	98.62
17.55	17.87	18.69	23.09	24.61	24.30	18.97	10.94	16.00	17.75	39.45	41.20	38.33	44.50	42.32	39.06	31.83	53.91	60.70	39.05	32.08	8.58	29.45	31.11	28.84	28.55	29.84	30.59	29.08	37.91	43.56	26.48	22.37	29.03	25.23	19.72	24.80	45.59	64.90	41.12	63.17	57.72	39.28	51.88	69.55	89.89	147.47	164.20	149.44	118.97	93.42	106.03	135.70	128.34	147.98	150.50	136.66	107.09	117.31	142.67	145.37	163.45	187.11	191.87	174.72	207.00	225.19	211.83	197.69	221.59	195.80	191.66	219.94	192.06	238.67	216.17	178.88	183.58	216.30	271.56	285.25	328.66	256.56	285.19	409.98	431.83	428.89	415.25	373.81	385.78	426.30	370.57	326.61	352.59	351.49	352.93	322.24	296.02	250.95	230.58	272.59	297.70	297.44	289.06	274.53	252.19	265.64	283.85	284.99	283.53	282.27	294.80	299.08	304.97	302.53	288.22	257.39	208.69	208.47	208.33	212.75	192.77	170.86	210.41	182.62	158.86	160.59	210.03	258.30	247.31	267.59	271.19	270.75	299.70	280.45	251.73	219.97	185.99	178.06	213.34	223.62	232.30	230.56	213.42	227.44	224.78	217.98	199.16	193.11	155.28	204.38	198.81	190.76	205.14	225.93	198.69	203.99	224.86	221.14	227.28	226.31	227.41	214.69	195.39	179.31	156.58	115.22	114.66	137.78	169.12	152.88	136.28	112.39	96.88	59.94	60.72	115.52	100.52	95.50	81.53	91.06	123.45	163.39	174.23	157.03	161.68	174.55	158.38	208.97	228.58	225.19	183.27	197.34	194.81	169.20	160.41	154.24	157.89	135.78	113.11	123.31	119.41	76.45	60.95	54.17	37.88	42.52	119.77	123.25	71.81	52.80	44.48	44.72	49.11	43.80	44.17	49.14	65.34	105.52	88.52	87.11	83.52	67.30	57.42	46.61	34.42	24.22	19.33	19.02	20.70	20.25	22.00	23.16	20.95	22.36	33.34	42.95	46.14	42.62	48.81	42.67	26.70	30.56	31.19	35.71	69.00	99.64	116.80	106.98	125.94	143.44	147.64	141.95	143.39	120.31	88.73
17.78	17.97	18.66	24.67	22.67	16.61	13.20	22.06	14.83	24.88	47.17	51.14	52.22	53.72	49.59	31.31	32.39	37.48	37.98	38.22	40.28	30.98	17.96	16.58	17.19	19.42	26.25	24.28	18.08	24.95	23.56	17.28	15.69	17.22	21.83	25.14	27.91	58.92	57.28	50.84	57.66	42.28	54.00	58.42	67.84	116.20	175.27	176.11	136.00	115.00	86.80	103.14	117.00	136.24	145.00	150.74	114.50	110.05	115.05	121.36	124.70	179.70	198.85	194.51	198.28	205.00	201.09	215.45	223.08	223.67	196.39	201.72	203.64	216.12	261.06	220.84	210.39	221.73	281.36	314.00	322.59	308.59	262.75	275.67	346.52	422.33	441.99	430.24	351.42	353.15	407.99	355.35	314.44	372.69	340.47	335.88	326.86	272.88	209.55	261.81	290.56	298.37	305.74	301.25	288.20	260.15	226.45	261.40	269.90	270.62	285.62	290.56	283.50	278.47	275.28	254.63	229.69	239.64	236.69	246.11	246.78	242.00	233.25	224.17	219.31	171.45	147.45	132.92	200.17	218.30	232.08	238.27	270.92	303.62	311.78	294.00	286.98	258.17	199.99	169.96	188.01	212.00	205.39	216.42	226.19	234.70	231.05	226.28	210.53	158.99	150.06	148.84	137.50	195.59	229.58	193.47	187.72	228.02	210.53	213.90	217.78	223.95	223.99	216.67	180.15	168.80	158.67	143.24	179.75	188.94	197.22	178.16	116.34	72.33	78.91	147.76	188.14	145.16	120.22	191.02	165.49	129.62	167.53	197.27	179.03	188.20	205.40	189.97	221.14	247.55	231.12	202.92	231.45	203.51	165.17	147.08	133.08	109.55	75.11	105.44	99.77	63.58	56.22	52.81	49.86	70.77	80.53	159.17	76.75	60.17	62.69	62.89	63.06	59.00	47.47	55.61	48.86	52.75	86.67	87.73	77.59	72.75	61.05	54.53	45.08	34.75	30.17	25.81	32.05	27.81	23.69	22.19	23.41	24.58	25.44	24.91	26.62	32.45	29.25	35.05	40.44	31.95	24.52	21.58	35.66	59.24	101.03	95.88	93.69	111.06	133.25	135.25	160.62	162.72	136.61	95.84
18.58	18.23	15.73	14.20	9.22	18.84	21.80	23.08	29.14	54.59	51.36	49.59	44.09	49.45	43.86	31.16	24.66	34.39	38.11	33.92	35.62	37.91	30.97	22.78	32.62	15.86	17.98	19.64	13.90	18.64	17.67	17.04	16.36	21.11	20.59	20.92	25.09	28.97	37.72	34.73	29.56	38.92	59.61	70.52	91.03	151.72	185.78	166.88	128.76	112.33	99.36	81.16	111.77	119.39	136.20	134.05	101.58	94.83	116.22	134.17	108.37	144.30	168.08	162.11	181.47	180.19	186.20	207.44	225.42	206.49	189.25	213.86	192.02	251.58	250.25	245.83	225.11	244.87	306.28	325.75	319.80	299.20	274.66	310.51	378.42	401.17	395.83	364.19	295.72	315.42	382.69	335.89	302.69	363.06	341.70	296.34	268.47	248.28	217.83	272.96	294.31	289.67	293.86	284.13	269.72	260.47	226.65	245.27	254.33	258.29	282.79	302.08	293.41	283.08	267.50	243.01	252.27	276.83	250.92	259.97	284.67	275.47	268.08	257.09	225.03	202.89	188.58	143.62	139.33	201.52	181.20	264.73	298.39	307.37	310.67	299.77	267.86	283.31	244.41	198.61	179.81	159.02	159.47	187.41	232.37	261.80	284.44	254.69	226.17	178.98	192.36	195.01	141.70	135.67	165.94	153.84	178.81	204.34	200.33	187.35	208.36	217.47	217.94	210.76	214.89	202.39	192.30	173.44	206.74	218.59	176.95	98.45	58.06	68.91	124.77	212.62	224.67	210.80	154.18	220.45	197.80	160.94	174.89	215.55	225.11	226.34	257.77	245.50	221.77	204.20	191.82	187.26	239.91	233.38	202.56	169.36	150.83	72.64	34.92	57.02	71.20	49.89	57.62	46.12	37.38	83.22	85.94	125.98	94.00	66.59	69.77	63.31	67.56	101.75	60.11	59.20	59.28	48.30	57.30	65.73	67.17	71.75	64.50	65.44	53.64	40.33	34.23	24.58	29.41	31.12	33.76	32.41	27.92	23.84	24.84	25.84	26.11	27.13	19.86	27.06	25.06	27.89	26.23	28.75	32.39	52.72	91.64	79.53	73.73	102.66	106.38	112.23	143.03	174.41	158.38	118.45
26.34	17.72	36.14	41.77	27.09	27.25	26.39	19.41	34.77	44.44	50.26	38.00	33.05	27.37	23.64	18.20	18.26	27.81	24.31	33.94	38.39	42.72	36.59	30.38	26.16	20.94	20.70	37.14	26.70	23.41	29.78	30.86	40.61	42.92	37.80	38.12	36.16	39.42	28.38	27.14	36.53	33.77	56.80	72.36	112.59	146.64	153.81	129.25	97.05	75.42	76.33	86.12	80.17	104.62	111.50	90.11	101.08	111.66	131.64	130.45	141.17	125.59	129.25	157.23	168.36	175.19	190.03	207.72	222.11	207.58	209.20	227.49	211.67	280.11	270.46	296.34	256.88	247.00	261.62	265.39	279.31	310.86	327.00	371.00	417.72	320.95	268.17	266.33	234.83	313.70	349.50	315.00	275.52	339.39	301.47	285.02	242.88	208.34	251.70	279.14	282.96	265.03	272.53	267.22	255.37	237.78	218.05	212.81	225.42	251.59	278.74	290.17	261.97	256.47	259.15	273.00	265.24	260.95	257.49	286.16	291.81	291.62	284.17	255.99	221.53	239.67	247.28	224.56	149.66	127.25	158.45	249.62	285.72	276.91	307.45	285.50	243.86	255.85	275.56	235.93	190.89	154.44	215.74	210.28	225.91	243.67	276.62	284.64	283.70	255.06	246.66	220.03	197.52	173.94	119.56	111.02	146.30	160.59	167.12	198.26	226.22	244.53	251.89	237.62	218.05	199.67	193.56	184.00	223.16	175.03	75.20	67.83	117.39	144.70	145.12	218.57	225.03	212.97	177.91	225.17	235.91	186.03	183.72	230.94	237.96	210.39	215.78	226.73	189.33	164.56	162.28	206.90	192.25	188.91	182.67	176.65	140.30	54.09	31.89	53.91	45.91	52.00	59.36	42.39	57.33	92.31	132.17	157.22	102.95	67.56	81.61	73.52	97.09	116.28	101.28	76.39	63.53	59.55	53.42	54.81	63.63	63.49	66.67	58.03	50.22	49.92	36.11	28.56	34.25	33.34	35.39	35.83	35.87	34.36	28.67	29.33	28.67	29.66	27.44	26.08	24.78	27.05	26.28	32.62	39.75	48.36	54.66	50.91	49.47	66.16	75.47	98.56	116.03	130.72	149.84	106.09
34.70	20.06	22.69	22.11	28.84	22.33	26.50	26.05	44.05	37.33	31.18	19.20	22.95	23.39	25.75	26.45	25.50	26.78	29.97	33.17	38.91	41.39	43.38	41.36	39.97	33.12	26.61	39.47	38.08	29.62	39.33	40.98	37.23	41.56	40.33	41.45	37.70	42.94	61.39	51.56	47.61	48.41	54.47	88.64	134.43	154.94	132.94	104.45	67.16	89.88	94.77	101.61	83.05	85.92	85.56	107.52	130.55	108.69	124.30	127.67	142.80	147.09	127.33	153.09	177.61	186.03	205.36	215.03	212.66	222.09	231.22	231.62	226.39	260.81	296.27	318.20	298.22	275.52	265.00	282.13	301.53	340.75	367.33	401.70	335.45	267.25	215.81	210.70	217.75	274.83	302.86	282.00	235.62	289.94	311.79	251.08	231.54	212.26	246.67	253.44	250.08	247.34	268.17	284.84	280.78	264.02	241.44	213.17	213.61	251.92	251.06	257.36	247.78	228.91	247.56	270.09	264.28	266.96	269.30	273.95	267.94	286.69	288.24	272.99	244.42	253.12	239.31	205.60	169.16	148.91	147.00	222.30	259.35	245.14	250.66	243.36	219.85	211.00	202.09	125.25	101.94	136.33	207.47	235.12	261.53	270.12	273.70	273.86	278.31	281.81	286.73	264.17	210.58	169.74	125.75	136.52	205.17	222.31	216.88	224.12	227.67	249.33	270.75	259.32	206.08	192.25	193.54	171.61	161.56	77.95	58.77	148.74	200.92	199.57	156.41	169.17	186.00	218.95	217.17	219.61	232.94	201.45	201.03	230.06	246.50	217.45	190.80	188.03	134.27	99.94	88.06	211.08	146.78	56.55	125.44	170.91	120.72	66.75	34.19	101.42	93.36	115.63	108.16	52.30	90.33	156.06	180.69	188.66	76.27	68.69	73.28	69.88	142.80	148.51	138.14	116.41	86.09	67.05	63.78	57.88	57.70	56.11	68.73	66.48	49.55	44.94	38.13	30.56	37.70	38.70	38.02	38.67	41.69	36.83	36.14	32.44	31.45	29.11	26.78	25.88	27.53	27.44	26.19	29.16	32.41	32.40	32.55	35.41	38.66	42.02	56.58	79.97	101.73	99.58	116.33	78.02
27.20	22.45	20.20	19.95	26.16	28.80	27.09	27.72	28.57	21.19	22.70	23.88	30.22	35.37	34.08	28.09	24.19	23.31	35.39	41.47	38.28	38.89	44.90	34.05	30.09	11.41	36.42	41.06	23.47	38.05	36.27	52.45	48.36	40.02	60.59	64.20	63.81	46.14	61.55	55.72	60.31	62.50	64.84	103.02	142.70	125.88	80.09	72.69	59.72	75.69	83.13	95.78	89.91	98.61	112.48	127.31	148.47	130.99	130.38	141.42	153.61	164.42	147.44	140.91	138.45	162.14	192.11	189.75	199.01	226.75	258.50	230.39	238.93	261.55	304.65	334.12	336.77	305.90	327.47	369.14	362.83	406.15	409.81	361.03	294.30	286.77	235.07	193.49	216.99	236.25	271.06	247.16	211.42	214.88	281.47	225.05	214.00	205.91	245.86	250.28	251.26	266.98	290.91	292.55	290.41	270.28	258.92	224.94	214.64	250.88	243.73	208.31	207.17	209.34	246.22	269.77	257.76	259.83	249.72	244.75	229.45	239.62	267.50	281.31	264.53	254.64	239.39	231.12	236.25	224.41	170.28	173.19	252.22	254.09	211.69	181.05	168.69	157.05	111.23	157.61	134.16	110.44	188.64	235.20	274.31	261.77	227.89	232.92	274.02	253.88	249.59	270.61	257.40	197.80	114.06	158.45	214.14	225.70	251.40	236.82	230.69	237.23	231.94	234.44	173.42	151.62	146.58	122.91	64.16	48.20	140.84	236.02	245.44	228.28	181.19	170.80	162.25	189.25	243.13	241.19	255.89	236.86	223.62	231.84	263.55	237.38	197.97	136.36	77.89	121.00	65.88	211.53	89.97	39.39	43.36	60.42	59.03	41.53	33.11	160.44	159.63	118.73	91.67	84.78	124.80	149.18	166.39	124.30	86.55	91.89	75.36	79.72	128.20	146.03	130.77	120.23	114.44	77.52	62.36	58.30	63.08	61.77	65.03	56.50	51.73	55.92	40.50	27.94	26.22	30.53	29.19	37.45	44.98	45.67	40.22	36.91	35.61	32.42	32.27	32.88	30.64	30.53	27.38	30.42	31.66	31.83	34.58	48.64	54.12	38.59	58.22	60.64	77.00	78.92	51.56	60.72
27.39	24.37	21.37	34.17	29.84	29.14	20.75	20.28	29.31	34.86	30.27	38.81	38.02	46.50	42.19	31.59	25.53	27.16	38.53	46.55	38.19	41.23	53.31	45.08	27.09	25.36	18.56	40.83	32.17	30.44	37.78	69.55	65.97	56.06	63.48	75.11	69.17	61.16	58.45	53.37	65.92	75.45	90.91	102.58	124.08	130.33	133.84	108.94	81.66	95.30	91.23	92.45	103.64	103.95	113.64	121.38	151.05	149.62	155.73	164.70	171.64	172.75	181.53	164.31	141.19	150.56	160.19	175.78	208.53	251.72	258.56	227.79	272.98	322.36	328.03	366.17	386.79	355.80	378.97	389.73	380.71	404.00	441.40	418.85	337.49	269.51	204.80	215.91	287.83	276.56	287.28	271.03	226.75	211.25	200.00	192.72	188.88	220.81	238.26	255.94	254.97	267.75	274.55	286.33	294.31	294.56	261.19	221.41	203.58	224.78	225.48	195.91	191.55	210.76	228.72	225.92	225.16	253.52	250.33	245.69	219.03	208.17	239.27	265.67	275.36	255.19	251.00	248.73	236.06	243.75	233.16	164.22	196.26	201.92	209.33	216.38	171.64	104.83	145.33	190.11	178.45	113.22	135.78	240.36	252.23	193.80	154.05	208.12	268.50	265.39	214.48	263.03	239.52	234.66	113.56	143.19	196.38	189.42	205.37	232.16	221.25	215.69	148.25	116.61	81.25	80.45	45.61	44.73	57.73	88.53	205.41	266.55	237.19	193.69	186.53	217.20	211.23	178.24	194.86	216.97	251.76	256.08	246.83	242.55	234.47	227.34	216.71	167.45	87.52	99.53	70.19	94.26	108.89	46.22	74.09	70.80	55.67	47.28	78.42	142.67	119.31	99.50	101.19	116.30	167.33	165.52	129.35	100.42	85.42	85.89	80.50	137.69	160.49	135.44	111.86	107.59	121.52	87.81	69.25	62.42	57.06	56.39	67.75	65.52	57.91	51.67	42.42	40.47	20.14	32.34	31.95	36.49	37.30	49.81	49.47	47.27	39.17	38.45	33.56	36.83	36.66	32.86	32.13	32.09	30.69	30.10	37.92	64.09	65.84	39.89	46.61	54.66	67.58	62.83	54.00	94.34
49.89	20.89	27.20	29.38	29.17	24.70	21.88	42.52	39.47	33.42	42.39	50.27	37.27	46.77	48.97	28.52	20.70	26.48	43.70	49.31	39.62	48.54	53.72	37.67	35.25	41.33	17.08	33.39	34.81	29.64	36.56	63.27	90.34	63.52	63.11	73.69	66.52	65.11	75.31	61.98	71.87	87.55	120.50	152.83	204.55	192.77	159.50	120.33	91.53	112.81	118.56	87.86	112.09	118.20	116.27	123.89	159.17	160.67	158.74	174.45	188.74	196.70	189.92	160.88	143.06	159.89	171.59	195.22	224.78	269.73	267.22	260.41	311.45	360.67	365.50	395.61	412.14	385.74	389.86	406.51	395.77	357.67	449.25	469.86	371.83	272.17	179.99	234.54	285.81	256.08	320.92	333.12	274.03	259.31	230.64	189.47	166.66	238.71	243.55	232.17	217.14	218.88	241.95	280.02	291.66	272.11	245.26	240.47	231.39	207.12	212.55	200.33	181.00	210.01	217.14	210.62	231.56	250.59	239.75	224.52	216.91	204.56	225.91	255.76	258.86	234.15	237.41	206.61	193.03	189.95	176.16	146.56	131.86	141.09	134.69	137.44	124.25	131.16	208.17	219.53	180.88	152.92	95.98	151.84	173.41	132.91	114.67	172.72	212.16	236.38	185.80	218.50	186.86	137.74	73.42	82.52	116.72	144.86	166.14	199.25	188.83	192.73	119.02	52.80	48.84	53.92	51.98	70.47	91.28	112.55	176.66	202.02	173.30	173.20	215.39	235.08	231.59	228.56	212.66	236.56	274.03	246.55	250.72	253.50	233.10	214.81	210.59	193.52	153.95	77.55	149.28	102.22	67.03	57.27	151.22	138.03	79.02	101.50	174.72	141.23	111.19	93.69	144.17	172.45	187.78	189.47	129.88	113.41	100.80	97.33	92.30	153.05	155.39	126.16	105.06	94.38	107.30	88.37	69.98	61.83	55.69	53.86	55.45	51.78	55.31	49.20	49.30	49.12	31.67	26.70	35.31	39.83	42.09	50.88	52.36	57.50	51.48	43.61	39.69	34.84	38.19	33.64	36.86	36.44	35.22	30.16	29.16	37.55	50.97	39.97	43.27	52.77	75.00	50.89	63.58	112.19
37.97	22.05	38.77	29.94	22.42	16.60	31.75	44.16	33.61	39.83	53.92	50.16	46.81	56.09	49.72	24.72	20.47	30.27	48.89	43.77	43.77	49.62	57.34	42.08	31.62	56.41	47.50	26.39	31.94	34.56	35.08	70.81	70.33	75.02	73.94	92.73	75.05	66.66	67.78	73.66	81.08	105.05	139.72	166.42	199.94	176.76	154.17	104.19	115.59	119.41	123.22	98.61	114.50	133.53	134.47	157.03	156.50	157.05	165.20	163.74	187.38	202.48	175.86	158.06	155.61	156.28	190.22	223.61	269.22	297.33	301.22	303.26	346.13	378.17	390.42	421.83	421.78	398.03	399.56	419.90	408.05	306.40	371.64	359.14	297.51	231.41	158.55	233.38	229.94	244.74	252.03	342.14	263.84	231.01	267.50	221.79	156.84	218.23	177.98	192.89	208.72	239.00	256.36	281.40	289.24	270.95	277.70	267.83	251.38	237.86	231.86	201.06	176.86	208.59	211.59	208.83	231.20	243.95	229.55	216.72	215.74	208.66	198.69	232.31	233.12	199.94	202.57	178.11	174.92	148.59	105.14	113.75	121.66	155.25	130.70	116.84	130.34	224.17	270.14	259.97	227.07	171.24	114.69	102.73	103.75	94.47	95.11	134.31	168.61	230.28	203.28	157.78	137.59	76.98	77.72	75.58	65.83	79.77	118.95	156.70	178.38	125.22	67.12	48.25	59.94	133.69	123.39	128.75	139.67	173.05	162.50	198.84	182.72	188.67	225.76	252.89	250.34	258.05	244.75	246.94	261.38	219.69	217.13	249.39	230.31	203.53	167.28	132.61	117.97	110.61	189.83	192.72	88.64	133.62	210.55	176.59	150.42	180.30	188.89	141.30	115.67	111.39	156.00	159.31	199.47	205.43	132.84	111.89	103.47	98.77	122.49	163.91	155.01	125.08	100.31	91.67	113.37	95.58	73.30	59.69	50.48	46.59	53.42	51.14	52.70	51.06	51.44	47.34	42.34	27.36	33.30	41.52	48.19	58.11	61.41	57.75	60.47	56.01	58.75	43.50	35.30	40.72	38.75	36.91	37.94	34.94	33.75	35.47	39.08	36.81	34.50	45.06	60.88	53.94	89.23	121.88
26.04	23.50	29.36	21.73	17.73	28.22	44.64	38.36	41.34	48.05	56.52	54.30	50.52	53.75	41.20	23.75	20.39	45.14	54.31	46.53	46.88	48.86	54.22	50.47	38.42	65.42	58.61	54.08	22.03	25.64	53.83	79.86	68.22	75.24	74.94	80.11	79.58	78.09	77.11	68.09	85.46	123.69	152.95	182.56	212.19	182.81	131.11	97.89	130.89	130.09	121.44	112.84	104.36	143.38	166.56	192.28	175.20	175.97	181.17	172.80	186.97	197.97	168.89	167.86	174.91	166.74	211.14	223.60	277.56	309.38	324.00	324.00	353.11	364.56	391.53	431.02	439.48	418.39	406.11	422.40	376.19	287.55	290.52	311.99	269.66	227.35	145.48	190.36	217.25	252.13	211.31	323.40	256.08	203.61	218.86	177.36	143.39	170.14	169.72	230.50	247.03	261.99	269.40	289.91	303.49	307.47	290.77	253.30	220.71	214.41	201.80	183.08	183.97	216.27	203.48	212.12	224.26	219.88	216.56	239.02	233.05	210.42	191.07	183.49	192.06	172.51	163.51	144.69	139.45	101.67	120.84	198.89	189.34	237.86	235.89	235.72	252.78	268.61	269.03	251.03	251.26	243.72	186.59	107.33	91.80	127.39	133.89	96.36	129.47	230.61	209.60	149.92	93.31	67.84	116.81	162.98	129.47	79.20	57.09	63.78	103.77	86.84	56.53	72.50	100.27	183.17	177.51	175.17	214.78	213.64	175.06	222.25	229.20	222.12	217.55	266.24	275.56	273.88	277.20	263.25	237.26	217.46	196.12	199.11	211.23	158.76	94.75	89.00	125.69	208.83	213.30	197.19	159.12	186.33	231.97	204.14	215.19	214.61	181.02	139.80	114.61	120.03	159.26	170.31	203.12	201.30	133.22	117.34	107.17	98.30	139.62	149.17	146.45	122.17	97.05	88.09	109.97	108.47	74.20	61.81	47.62	44.92	43.56	53.23	57.84	46.52	47.17	46.67	41.16	21.80	29.31	38.62	48.89	60.22	68.59	70.95	78.56	70.03	70.45	66.78	33.97	34.58	38.31	39.72	35.95	32.12	32.12	32.58	36.94	49.45	38.70	46.83	53.14	55.56	94.48	110.86
19.66	22.28	29.77	20.25	27.13	31.16	50.22	47.36	49.03	50.69	53.97	53.86	52.70	51.08	38.64	22.34	23.33	45.09	51.69	48.50	51.28	48.95	55.22	53.98	58.45	67.44	61.64	46.19	33.67	28.89	67.16	123.80	88.17	66.45	63.75	93.19	71.84	92.83	100.27	89.67	105.28	117.67	137.97	185.88	202.51	175.60	123.55	104.55	139.95	138.24	123.13	122.05	102.25	157.62	192.62	178.80	183.41	190.80	191.83	187.74	194.59	183.19	173.87	189.38	179.17	182.91	245.67	279.00	299.74	350.50	364.84	335.62	330.48	325.55	359.50	424.75	449.97	442.56	419.30	369.08	322.03	300.78	247.06	239.14	281.05	264.22	155.24	219.64	279.78	254.31	176.30	289.24	269.78	227.72	223.72	218.50	171.97	136.84	202.48	247.24	256.76	266.72	272.78	286.86	291.05	284.64	295.53	282.33	276.98	264.78	233.56	194.78	184.67	202.41	194.62	209.80	192.45	166.29	194.70	236.39	220.56	200.89	182.53	120.25	112.67	106.53	98.63	99.47	103.81	123.91	188.70	265.04	258.78	268.30	273.31	272.00	250.62	256.56	220.78	233.62	192.01	210.95	172.63	110.95	142.05	175.19	159.62	103.22	112.05	185.19	177.72	116.69	79.91	91.67	150.16	218.53	193.70	121.28	120.83	101.92	83.77	85.56	113.69	132.97	141.98	188.72	190.98	219.44	240.55	223.99	205.67	224.03	230.80	255.02	268.14	280.80	274.58	265.78	256.10	272.22	241.15	238.40	212.45	194.28	168.88	101.61	117.70	216.38	231.69	243.34	243.19	220.08	223.70	216.53	237.90	236.58	223.30	211.56	163.06	138.72	115.92	120.03	161.98	183.03	215.03	185.58	131.22	120.66	113.67	136.97	144.86	134.47	124.84	107.97	91.83	86.80	120.83	115.89	75.09	61.37	53.58	55.75	51.31	49.19	45.50	43.56	43.31	41.95	42.80	35.41	31.25	39.91	48.56	54.77	62.02	79.16	84.33	96.48	86.81	66.53	34.16	35.91	42.47	44.49	37.50	29.00	29.39	34.70	64.09	70.95	56.70	67.41	90.44	73.08	93.89	124.47
25.68	22.05	30.38	17.64	22.94	38.67	46.39	47.39	54.06	53.08	58.66	59.84	55.96	44.11	32.19	22.78	22.00	41.00	52.39	51.84	54.25	58.86	56.73	61.97	57.72	62.70	54.03	42.44	32.55	20.27	56.13	79.70	83.36	76.67	52.16	74.19	81.95	115.80	115.12	104.19	128.38	139.49	178.70	192.11	170.89	148.28	127.53	122.58	152.42	160.34	138.55	124.64	115.02	116.14	121.48	163.27	150.49	159.31	167.44	182.94	196.77	194.20	197.47	211.64	193.80	212.44	285.51	333.47	329.53	362.74	367.91	314.21	329.67	367.17	389.06	443.61	436.56	347.00	332.86	278.50	264.75	292.74	246.80	222.17	281.25	250.41	173.64	132.75	166.08	177.94	153.67	275.76	277.90	225.36	251.72	225.62	155.31	124.70	191.06	225.58	241.94	238.30	253.77	249.28	266.84	251.81	285.50	291.19	295.87	295.30	260.00	227.39	203.03	159.67	187.49	167.03	137.81	107.86	121.34	198.20	200.38	192.72	120.62	97.20	104.70	118.42	120.58	154.38	197.22	226.94	258.12	279.47	272.28	249.27	260.65	257.53	206.16	190.61	178.34	162.31	151.49	137.16	132.47	127.98	174.59	216.00	208.92	133.14	96.91	91.77	81.13	81.75	94.77	148.66	209.69	216.75	174.58	160.33	181.50	195.69	211.52	159.64	161.49	179.45	142.74	185.13	229.69	258.33	262.25	258.01	225.11	252.38	274.84	264.01	291.39	297.37	283.86	264.33	248.36	269.30	256.33	251.84	242.13	205.87	167.59	108.53	106.44	183.63	223.25	220.75	240.23	209.42	227.24	219.41	251.92	259.18	250.12	211.36	178.61	145.84	113.75	107.00	135.56	172.05	199.70	161.50	130.03	120.53	110.86	145.76	150.45	170.75	142.08	112.45	88.51	88.22	107.27	91.01	70.19	56.14	48.23	52.27	48.69	45.66	31.20	40.39	37.90	39.56	39.98	35.08	28.81	39.55	47.59	57.66	69.98	97.22	98.77	98.91	81.36	61.30	37.17	30.30	33.75	40.36	38.59	32.31	43.17	35.70	51.77	97.19	89.42	76.73	94.16	109.69	95.65	134.00
25.36	23.17	24.86	16.97	31.38	37.77	43.34	46.06	50.47	51.19	51.23	49.28	47.29	35.88	24.81	24.36	27.78	51.95	49.48	55.39	55.47	48.27	61.06	51.56	54.31	57.22	44.27	51.48	53.78	30.75	30.77	58.16	78.53	78.14	82.66	83.97	84.50	101.16	116.84	115.78	139.91	154.66	212.98	221.19	176.77	143.91	120.75	150.95	157.98	150.72	141.53	141.03	149.05	137.80	115.12	122.38	151.66	186.53	187.28	181.88	185.31	204.11	223.64	225.88	214.55	249.84	342.33	375.50	356.30	349.72	292.22	261.35	323.23	370.14	389.37	393.17	353.24	240.75	238.86	223.23	172.09	180.27	202.03	263.72	287.70	262.05	195.51	113.84	101.56	108.98	112.80	224.66	257.22	171.81	157.05	162.77	129.50	133.88	156.11	170.81	209.64	239.16	268.33	240.97	235.06	230.17	238.24	271.26	264.15	254.08	257.70	218.16	214.78	189.83	137.97	117.72	100.11	153.42	114.61	130.95	167.80	168.50	97.94	138.30	164.69	191.62	196.64	165.06	204.34	230.12	238.81	241.74	234.34	220.23	241.22	242.19	226.06	198.53	152.45	140.94	172.25	170.55	204.33	152.81	184.72	231.03	211.81	173.45	184.28	144.86	106.56	105.83	113.52	160.94	227.03	246.84	223.98	184.77	198.95	237.87	218.19	163.92	171.45	207.14	194.19	201.00	231.17	264.11	273.25	252.02	251.00	283.36	306.35	308.36	289.14	283.44	281.62	268.47	262.05	249.66	272.67	254.28	227.29	199.62	135.78	119.30	96.28	189.69	242.70	240.27	254.72	217.84	222.11	219.45	251.27	273.03	266.84	213.77	203.22	143.14	121.83	137.20	139.91	156.81	191.30	166.42	126.19	123.05	124.74	149.66	177.11	180.88	162.25	118.19	91.30	84.37	96.83	71.22	59.30	55.48	48.59	43.64	36.08	35.52	44.69	39.80	42.73	34.56	35.59	27.77	23.08	38.36	49.69	66.69	76.62	73.34	77.00	74.69	68.20	56.92	34.41	35.94	40.28	57.50	50.25	46.48	55.09	33.03	45.00	97.88	96.49	82.06	112.75	166.09	150.39	155.36
32.83	22.00	16.70	20.58	37.94	36.87	42.20	42.69	43.58	48.75	54.81	44.33	39.41	26.19	24.73	22.03	24.09	30.64	49.05	53.84	52.08	52.22	43.50	41.84	40.98	50.53	47.17	60.16	60.72	43.05	20.80	34.69	64.61	69.37	75.94	92.89	113.72	137.53	128.34	126.61	147.78	169.55	180.81	224.62	164.98	129.48	132.32	159.28	165.26	158.14	160.22	172.76	152.39	132.74	126.80	126.67	139.00	166.72	173.97	194.12	200.05	210.42	222.00	226.19	248.25	277.36	377.72	390.17	368.78	295.31	244.45	281.40	327.70	347.42	350.78	320.24	269.31	220.38	191.50	163.45	192.11	255.75	277.42	281.64	284.06	255.41	197.34	105.92	176.31	160.74	122.77	136.72	211.41	145.45	115.05	115.25	107.34	182.28	192.25	247.20	277.19	289.87	243.14	255.22	202.97	205.61	223.56	243.61	231.22	201.78	209.39	204.16	175.52	181.23	133.03	110.02	117.78	204.47	147.33	100.03	115.27	124.55	110.97	168.36	211.67	244.13	245.78	233.45	246.69	232.44	236.91	239.53	221.00	193.09	250.92	215.10	201.11	180.72	144.97	191.09	220.16	202.41	203.62	148.28	167.80	212.95	216.38	207.19	234.92	227.86	220.49	201.86	165.64	151.11	213.16	256.30	208.30	185.08	231.11	252.47	225.58	208.20	188.91	235.11	233.69	217.02	232.53	279.14	295.19	288.53	283.69	291.30	285.43	290.14	269.80	287.70	265.40	242.77	254.58	228.67	270.30	231.11	223.00	183.86	107.78	96.56	78.48	151.64	249.51	271.38	273.22	251.41	258.36	259.26	274.22	261.81	234.69	223.08	187.88	141.14	142.69	152.95	161.86	182.33	192.48	154.17	133.24	123.17	123.67	172.66	172.69	154.94	144.14	112.48	96.23	96.98	136.03	82.86	57.30	49.50	49.59	40.00	50.50	42.39	29.69	34.02	38.05	28.64	33.33	27.11	26.20	34.02	48.75	59.56	57.42	52.22	59.55	63.12	55.53	45.72	33.30	35.16	41.44	64.65	54.50	58.53	47.98	36.45	44.83	82.80	124.44	102.19	110.12	160.24	192.08	188.78
43.69	30.34	18.48	28.23	33.67	35.33	39.84	42.45	46.00	56.31	54.52	38.95	33.77	27.17	24.02	23.89	25.38	33.67	54.55	56.16	58.80	60.31	46.75	36.49	53.73	55.92	44.94	71.17	77.77	52.61	37.38	30.39	30.27	33.97	50.06	85.33	118.78	164.95	155.59	148.55	166.64	204.69	185.03	164.56	152.92	137.59	147.86	175.59	185.75	179.33	192.80	191.11	148.55	143.31	145.03	142.20	147.58	147.70	149.59	184.95	190.91	195.42	195.38	229.31	269.97	297.77	345.74	347.26	349.41	308.20	248.48	321.62	363.26	378.61	290.45	287.34	258.08	191.91	158.89	150.97	248.34	231.11	235.14	211.14	224.80	173.89	132.78	158.62	231.62	198.08	137.41	98.84	133.61	113.00	160.91	133.62	109.64	174.39	259.06	275.28	259.44	287.44	234.47	204.59	196.42	158.69	215.11	190.33	166.47	148.58	140.51	137.56	125.67	119.03	125.09	136.67	119.69	192.62	180.41	147.86	131.22	107.61	161.37	163.22	210.64	260.05	273.00	270.20	267.49	245.12	248.02	262.10	235.16	179.42	181.12	170.39	150.16	155.91	158.28	194.45	225.16	225.30	184.03	150.98	206.22	178.97	212.53	254.02	285.56	275.85	221.50	211.80	193.12	190.36	187.99	220.19	211.45	221.16	216.98	268.20	250.39	257.44	218.91	239.22	266.47	259.97	264.78	272.78	303.60	294.19	320.22	308.15	283.77	266.47	269.44	289.88	270.14	243.92	240.66	223.81	244.09	195.24	162.51	161.47	112.44	143.74	115.31	131.44	195.52	254.51	282.52	240.78	261.75	302.53	293.72	269.25	249.11	236.56	180.62	144.13	138.80	144.50	147.56	177.92	212.64	168.38	139.87	125.23	131.67	194.99	188.36	152.28	132.77	113.75	108.55	139.89	131.69	87.64	76.56	66.36	54.23	58.73	54.17	49.08	44.56	33.97	29.16	27.61	27.10	29.89	34.17	38.73	44.95	37.59	35.77	38.44	49.61	51.64	46.61	39.84	32.22	33.62	36.84	43.52	41.03	48.98	37.12	34.41	45.03	70.30	107.45	100.20	90.36	105.67	130.42	162.16
38.72	23.47	18.84	14.31	23.22	36.88	46.62	47.22	54.09	53.38	44.37	35.59	32.31	32.03	29.91	29.13	37.53	38.12	43.31	55.44	62.91	68.97	54.09	55.47	60.06	52.75	49.78	79.47	70.78	49.69	46.44	82.12	85.75	70.97	39.34	92.69	150.12	170.66	167.09	156.84	180.75	214.69	208.72	177.94	155.19	133.22	154.38	175.34	199.35	194.56	201.72	203.69	165.94	151.56	169.62	153.69	155.91	162.94	156.16	154.50	163.25	173.81	178.47	196.44	233.91	286.19	298.28	288.91	285.03	270.97	243.91	335.88	368.00	369.60	308.19	194.22	179.84	128.75	115.53	103.28	153.16	135.53	133.38	120.78	130.41	146.38	240.94	296.44	287.12	241.69	172.09	182.53	152.44	166.94	129.72	158.91	155.12	132.81	147.78	200.75	213.84	220.62	217.91	180.22	158.66	136.25	130.59	128.19	123.50	128.59	125.91	157.31	176.06	194.06	178.72	126.22	153.72	149.72	201.28	238.25	228.41	144.44	201.66	245.75	258.94	264.75	263.94	252.69	249.31	233.34	219.91	210.41	192.44	169.63	179.28	160.50	189.16	208.97	193.19	183.38	228.75	224.91	205.31	165.09	214.84	231.12	199.47	223.60	265.87	295.75	239.66	268.75	228.50	192.03	237.09	204.88	249.16	257.22	229.50	268.59	290.00	261.88	259.19	273.38	307.62	300.22	298.62	319.65	285.38	281.38	287.81	305.81	291.60	273.31	281.50	291.78	282.50	274.66	257.37	240.38	208.72	200.59	138.91	116.56	149.09	204.16	132.50	109.13	115.66	155.31	211.16	207.19	203.78	250.00	277.22	274.19	243.53	213.28	179.44	142.69	140.44	168.19	159.50	179.44	203.16	165.78	142.38	139.62	152.34	173.41	193.78	177.97	144.81	117.12	125.22	145.72	136.31	97.50	79.47	73.66	62.28	67.72	64.38	57.72	58.56	41.28	40.12	41.62	37.94	38.41	44.50	45.53	49.00	42.19	40.12	35.84	36.44	40.50	38.06	34.84	34.41	33.47	39.16	40.34	34.66	34.28	32.53	34.81	46.88	72.19	93.88	74.59	73.12	96.72	131.12	154.25
15.18	24.14	25.45	17.88	26.50	41.23	54.75	52.69	58.11	49.39	36.11	31.25	29.61	34.61	36.61	42.61	47.55	53.47	46.83	64.08	64.36	77.83	68.62	65.92	58.02	41.53	49.86	63.31	53.66	42.17	70.75	79.17	92.42	81.56	66.98	63.73	125.73	163.08	169.56	159.51	190.42	201.90	200.36	186.76	155.06	144.39	166.84	193.08	189.85	160.69	176.27	176.11	186.78	192.22	190.61	175.22	169.44	177.92	193.27	164.81	162.36	172.06	185.40	207.99	219.35	246.34	297.97	321.32	321.19	294.25	203.81	305.33	357.30	315.10	179.16	123.70	122.11	152.72	222.11	176.22	150.89	155.75	202.84	182.53	179.25	234.36	266.14	335.67	372.74	310.69	240.37	274.81	253.20	150.84	171.38	248.66	252.70	243.05	186.41	138.72	176.84	183.91	148.14	132.59	135.63	150.62	150.51	202.22	186.22	226.56	208.48	247.36	207.98	172.00	122.03	166.64	202.00	136.00	205.75	235.14	222.42	230.48	237.58	262.74	259.22	245.39	241.16	223.94	209.97	243.45	228.14	217.56	180.25	219.72	218.88	202.12	238.91	243.37	206.34	184.17	230.11	254.37	236.78	175.96	218.36	261.53	237.33	233.25	241.56	276.97	268.25	247.67	235.87	207.07	264.69	235.50	268.55	285.64	284.17	294.92	314.02	304.81	288.72	312.02	348.74	315.61	306.83	312.38	301.61	298.33	269.55	270.06	266.11	246.33	256.78	272.26	266.19	287.35	286.69	267.38	267.69	250.31	142.53	140.69	229.88	241.67	147.82	138.45	128.49	226.31	260.45	254.80	254.26	232.94	247.65	251.25	236.39	204.03	178.27	145.05	140.08	176.19	182.76	185.42	200.42	183.62	167.95	167.59	183.19	179.03	193.89	179.90	146.53	115.72	104.17	112.09	117.06	84.58	75.72	68.33	75.20	62.95	67.39	72.31	57.08	38.59	48.52	50.27	46.30	56.44	55.83	53.11	57.26	42.86	43.89	43.78	41.56	37.58	34.16	26.19	25.44	35.38	44.47	38.67	44.88	71.51	47.20	37.81	53.25	82.17	68.94	60.75	69.05	90.75	127.38	159.77
19.28	32.69	26.81	23.92	29.24	27.55	39.09	41.78	46.41	44.08	44.59	43.13	40.02	55.53	44.30	49.25	46.78	52.64	52.62	59.59	71.70	74.09	62.73	74.95	48.25	47.92	57.02	68.45	55.25	66.67	81.41	80.06	89.77	84.73	110.86	126.14	75.65	103.19	136.03	160.59	188.84	198.12	189.61	143.11	159.28	154.05	177.92	178.62	150.30	171.94	194.74	199.33	211.92	215.53	215.53	191.83	176.94	178.20	205.37	190.73	210.15	204.81	198.64	206.91	223.10	246.81	284.22	326.39	330.98	290.53	220.59	178.31	277.07	184.83	98.31	195.61	291.22	304.09	323.41	265.17	192.38	218.55	265.20	224.58	243.50	178.31	219.84	290.23	369.69	347.31	311.17	294.83	246.28	132.83	194.06	231.42	251.89	269.58	242.52	183.06	132.53	137.39	137.18	154.37	216.08	265.94	191.36	203.94	228.11	250.11	238.72	243.28	196.56	153.76	116.30	199.59	175.59	144.05	202.14	202.87	230.24	243.36	247.25	238.70	245.27	253.62	248.84	229.74	197.06	190.29	186.65	208.58	198.47	231.11	219.75	221.27	254.60	253.52	231.09	193.05	203.25	246.36	224.78	189.11	196.01	257.50	266.16	251.26	252.53	274.92	275.85	244.55	273.20	234.58	281.53	254.51	275.58	309.33	320.06	333.10	343.34	327.78	313.67	308.79	323.31	311.08	292.44	313.36	309.44	296.00	282.12	271.78	262.72	265.00	243.64	233.83	212.49	264.91	288.53	254.06	235.81	233.34	159.61	117.83	190.20	237.84	220.45	210.92	130.69	223.96	284.41	280.29	256.04	227.44	234.56	262.20	251.56	209.41	174.77	145.78	136.50	152.12	162.41	171.20	190.78	183.31	173.06	193.80	209.89	195.08	204.55	175.44	137.22	119.16	110.92	110.33	97.33	78.11	73.06	76.56	83.75	70.44	72.28	69.66	42.95	53.33	55.03	64.58	54.98	76.09	74.70	61.78	62.73	55.02	48.28	46.55	42.98	40.17	36.97	31.41	27.58	28.48	38.14	35.64	39.73	57.44	44.30	40.72	48.06	56.47	59.50	69.09	70.39	78.22	109.56	145.56
18.45	23.75	28.98	35.66	34.17	30.00	25.03	26.84	42.84	52.59	59.94	52.02	60.33	60.78	62.58	55.48	53.19	49.58	58.25	56.77	67.61	74.12	63.19	42.83	45.77	60.05	56.50	66.61	43.61	43.52	57.22	81.62	85.52	103.66	137.45	152.81	163.99	144.74	106.88	62.70	162.84	137.05	116.36	122.30	164.05	148.17	133.67	124.33	157.23	186.86	190.23	205.78	230.36	233.24	245.40	220.06	191.59	220.51	219.66	236.65	260.42	265.25	247.73	267.81	273.74	268.12	267.94	316.45	346.72	354.11	307.56	273.97	175.22	99.14	120.94	284.62	281.86	314.67	266.40	240.91	218.13	187.10	283.39	290.89	325.47	189.11	217.14	239.72	284.72	293.79	245.31	224.27	215.11	153.09	128.69	212.14	266.59	265.81	227.50	227.55	208.72	181.05	221.92	232.09	271.53	286.26	218.84	211.83	234.47	234.76	210.17	233.01	223.61	146.94	128.64	203.70	157.23	133.00	182.06	231.07	245.91	226.51	213.53	240.23	254.23	262.36	231.17	214.73	205.45	214.29	222.58	260.12	203.38	246.11	215.51	236.80	262.11	253.17	226.94	214.81	209.42	255.70	247.78	227.62	201.20	221.85	271.11	270.24	260.69	270.77	285.50	266.53	279.92	239.42	283.34	275.89	305.47	319.44	331.41	330.92	338.99	346.67	335.46	327.31	309.29	316.03	285.58	311.31	320.97	315.10	304.91	301.83	293.28	285.18	292.67	268.92	215.05	241.94	270.51	203.81	153.44	143.50	157.19	157.80	205.13	247.70	288.56	240.60	161.53	200.05	281.80	301.88	265.61	241.55	239.28	252.61	246.94	228.66	181.56	140.26	133.84	147.01	158.92	174.97	173.62	193.72	175.03	179.31	200.83	185.91	180.62	159.44	132.45	109.77	104.88	105.30	96.80	82.45	71.87	70.02	74.75	66.70	67.22	54.89	44.05	60.97	64.99	86.16	69.73	92.69	109.72	84.73	70.42	64.14	59.14	58.00	53.19	49.34	38.14	37.23	32.33	33.86	35.30	36.64	35.39	39.02	43.06	46.64	48.44	51.27	60.14	73.14	75.37	92.94	118.36	118.22
26.23	24.58	24.89	25.44	25.25	23.20	18.02	21.94	33.98	48.06	66.20	44.14	61.56	71.66	65.89	75.50	77.45	64.03	63.56	68.17	69.39	53.98	42.45	53.09	61.86	61.78	57.70	59.62	62.38	60.92	76.62	83.91	93.74	130.12	138.51	153.90	181.28	207.11	182.69	83.66	62.53	115.49	151.58	149.97	109.78	56.52	60.64	130.84	197.61	185.09	182.66	215.29	232.49	250.56	246.33	250.47	243.25	249.52	253.25	276.14	272.42	270.16	279.75	292.06	291.89	246.44	239.94	302.19	356.12	352.61	339.72	314.17	221.91	121.56	110.31	203.42	250.31	296.24	258.83	227.41	196.03	236.99	275.85	348.99	297.47	208.52	228.28	282.88	305.53	312.69	267.34	272.97	262.45	221.84	139.02	188.48	234.84	259.00	219.62	200.67	219.67	220.77	238.03	261.24	292.98	297.64	284.36	247.05	249.45	241.19	198.36	158.89	154.47	126.56	144.39	222.89	184.30	172.76	158.03	168.62	188.01	181.83	225.66	244.03	254.71	254.84	239.30	238.19	236.88	244.20	247.94	237.02	211.44	259.94	235.86	254.97	277.81	275.17	231.42	245.98	241.00	254.58	270.89	268.49	251.75	203.34	207.06	238.49	271.97	307.98	309.25	304.13	295.64	276.08	310.39	316.51	320.05	335.16	334.11	320.88	316.14	335.22	335.08	316.77	295.08	314.31	293.19	291.34	321.06	295.41	272.81	239.86	251.31	270.60	231.28	250.86	194.88	192.11	184.36	141.61	153.64	197.89	264.77	234.86	273.92	291.22	298.94	179.17	162.26	164.22	238.88	292.23	306.78	271.19	249.58	230.66	217.30	216.84	180.00	144.78	131.99	129.48	134.17	149.89	156.20	174.92	179.28	159.81	181.19	188.09	169.53	174.39	173.47	171.05	146.30	141.39	133.26	103.34	89.73	84.97	79.83	72.34	64.41	54.72	43.99	60.62	94.25	108.95	74.58	81.62	104.52	108.09	89.36	83.72	70.98	82.97	91.27	82.67	46.01	35.64	32.83	34.56	37.33	40.73	38.53	35.25	41.69	43.11	47.86	51.52	56.14	64.22	77.48	93.78	120.88	150.69
32.66	28.17	26.41	23.59	23.67	21.61	20.06	27.84	46.70	56.83	71.27	54.27	56.70	74.25	70.20	73.33	86.77	86.03	84.28	79.00	65.27	38.73	52.91	59.19	61.12	63.00	63.69	75.89	69.11	68.84	70.56	84.47	120.31	155.87	149.99	163.88	197.00	213.13	196.02	71.92	31.61	113.09	154.61	73.42	29.18	102.91	126.17	92.86	129.81	133.89	194.69	190.79	196.85	229.31	267.95	273.47	255.58	243.47	234.92	256.41	248.92	277.22	286.47	302.83	270.17	232.56	215.17	252.09	342.03	325.42	233.17	275.06	206.30	120.55	98.80	146.84	207.37	304.30	319.56	312.25	265.00	263.20	304.58	365.97	310.34	244.41	268.24	290.08	328.19	280.31	256.08	238.20	201.67	188.66	202.92	143.84	180.70	211.70	171.98	213.01	203.44	225.16	245.59	269.49	264.24	283.10	294.00	289.64	239.14	202.98	182.33	161.56	162.17	125.00	149.34	226.12	209.73	229.70	170.14	212.62	181.64	197.72	236.00	250.19	253.12	244.02	247.56	253.78	250.84	232.34	214.09	230.14	254.05	274.69	253.92	268.15	284.58	254.36	241.47	266.30	252.75	249.67	290.74	290.86	306.30	240.56	229.89	254.16	275.76	312.34	332.39	315.53	300.04	322.99	312.97	340.51	344.53	342.23	338.06	326.47	313.74	301.89	326.66	317.67	287.05	313.17	314.63	299.94	289.90	277.01	236.52	255.55	193.06	200.52	248.83	264.35	216.55	220.25	206.79	163.30	185.58	220.76	290.26	298.33	295.42	305.01	266.55	202.31	191.11	213.44	280.11	310.67	327.20	320.60	288.62	257.92	270.33	224.29	216.78	173.06	153.92	128.99	124.80	129.02	135.03	146.51	169.91	158.54	182.84	168.45	163.50	169.91	185.06	181.53	175.78	141.75	128.12	143.75	119.00	102.33	91.16	76.23	61.31	47.64	38.17	54.39	78.17	104.24	75.84	74.34	85.31	108.19	131.45	104.91	92.26	101.83	76.50	68.12	53.89	39.12	32.94	30.70	35.98	36.50	34.99	33.91	36.73	40.50	44.05	48.19	55.70	63.53	74.12	95.91	133.00	162.20
34.28	30.80	29.02	24.38	22.75	21.62	27.32	40.86	57.64	70.44	80.23	73.00	54.84	73.20	79.00	78.03	92.48	66.81	65.94	66.73	58.83	58.78	46.11	60.83	66.19	63.28	66.30	68.75	61.91	71.45	73.04	99.02	143.84	158.78	174.53	179.09	215.44	216.00	191.28	127.78	42.53	20.75	30.89	16.12	12.65	51.39	146.76	135.17	140.01	129.22	196.70	218.51	212.89	235.13	251.65	280.75	267.30	259.75	229.50	221.03	247.10	277.30	297.98	291.45	253.83	213.69	174.75	214.95	315.78	269.80	199.31	200.12	186.44	117.95	190.16	144.53	231.58	247.88	312.61	312.67	255.06	276.41	363.75	377.75	333.24	307.76	316.17	301.85	275.84	271.97	233.58	228.36	232.66	210.44	172.83	170.84	153.49	165.00	153.44	193.71	222.19	226.81	233.56	235.03	247.92	263.56	290.64	295.70	267.13	230.64	177.08	146.75	142.66	134.03	174.24	210.96	237.36	241.46	189.45	207.37	227.64	198.05	221.51	228.22	253.47	267.17	255.92	255.02	233.73	232.50	220.30	232.84	274.08	285.06	273.24	282.88	286.71	249.91	294.65	298.62	253.58	275.99	300.50	312.81	315.64	257.20	272.39	276.90	302.41	328.94	342.25	319.98	329.22	342.55	344.33	340.03	328.00	326.75	337.55	332.69	321.60	299.06	302.17	316.35	286.39	280.29	290.22	283.67	255.03	274.23	293.84	240.42	260.25	282.64	294.58	289.39	247.25	282.97	280.11	210.64	171.20	210.58	264.53	300.31	311.63	307.44	264.55	230.25	197.16	197.44	319.12	336.97	332.38	348.14	337.88	291.80	286.94	245.72	262.19	227.33	159.44	149.75	129.61	128.30	129.67	140.03	153.95	160.30	136.69	140.99	168.58	166.39	156.38	152.75	163.67	153.03	155.25	147.55	109.47	85.86	77.52	65.84	59.52	50.56	68.09	77.44	65.36	65.92	66.92	101.84	113.50	126.98	129.64	126.72	132.30	123.56	84.41	59.77	51.20	50.39	43.09	37.36	37.78	36.02	34.50	32.08	32.69	38.45	40.31	46.31	57.45	82.80	101.05	97.45	128.23	152.94
32.98	31.29	28.92	23.70	23.97	34.19	40.73	47.66	58.84	75.58	84.70	76.48	58.11	78.72	83.28	83.87	86.45	65.83	58.23	50.00	51.89	64.87	51.34	53.41	66.28	78.34	62.67	60.12	63.44	77.97	92.69	117.36	139.59	168.05	204.16	187.44	204.67	205.39	170.69	93.95	105.64	55.78	12.20	14.92	21.36	18.70	95.37	161.97	172.44	150.64	196.14	230.70	233.86	247.12	262.11	261.74	265.15	255.35	259.66	233.00	211.16	233.96	268.81	284.92	261.19	260.25	258.81	201.36	155.20	130.83	119.05	105.31	98.75	154.76	242.62	198.98	186.30	253.80	286.47	303.50	288.04	325.33	382.34	346.19	311.69	287.60	236.21	224.48	210.28	238.09	259.92	230.26	182.91	199.99	193.78	193.53	196.16	189.69	207.58	149.89	170.91	240.80	249.62	264.42	268.66	289.06	298.73	300.28	256.24	191.98	193.14	200.80	157.95	135.22	202.06	211.70	273.06	263.06	203.67	212.94	242.91	201.56	224.73	238.22	268.70	287.35	276.48	248.38	247.48	248.36	228.81	249.55	271.45	289.31	289.03	291.42	303.52	255.58	302.05	311.64	266.25	301.90	302.89	318.00	325.76	262.61	318.02	313.30	319.25	350.49	352.59	342.35	346.05	336.76	324.19	319.17	312.29	318.49	328.99	335.22	321.47	301.26	277.92	277.62	297.53	297.56	267.02	277.28	302.28	297.80	273.02	194.78	255.93	306.61	317.93	316.86	285.40	283.00	258.45	207.08	186.56	216.07	256.37	296.65	322.50	299.19	261.78	262.86	203.78	157.06	287.86	331.42	339.75	341.14	331.00	310.53	286.84	283.10	281.03	255.62	196.67	176.08	145.22	128.72	138.83	145.11	136.25	152.62	145.49	123.55	137.39	133.74	127.02	122.19	144.40	163.42	153.75	139.72	129.80	83.38	72.80	62.83	56.11	50.42	80.16	101.09	97.22	84.24	68.12	100.88	115.42	126.81	93.59	100.58	100.86	103.55	89.97	64.50	57.84	52.67	42.05	39.45	41.72	42.94	36.47	32.25	33.44	36.70	39.28	45.83	51.67	88.80	118.75	104.80	121.50	153.63
30.53	30.31	27.48	24.19	37.16	56.91	52.48	48.86	58.19	74.14	81.73	76.72	53.81	73.22	92.59	99.86	98.42	71.58	61.73	48.97	53.02	55.55	44.09	54.95	75.58	84.45	83.23	73.12	70.20	100.80	135.92	144.44	151.42	187.37	220.00	202.06	197.34	194.42	150.11	132.06	155.23	110.22	49.00	39.41	32.89	23.39	59.52	106.61	173.66	172.66	228.22	216.16	226.72	243.67	276.83	289.94	266.53	261.67	270.83	262.09	235.26	200.08	235.08	280.03	258.80	291.73	288.89	195.25	103.37	160.66	203.06	172.72	212.97	274.06	322.00	268.98	215.25	188.03	254.55	294.76	320.58	367.11	355.01	312.03	292.44	265.97	274.53	247.17	209.22	194.22	220.89	211.89	208.49	280.23	209.23	194.99	262.94	273.50	255.72	193.25	161.08	190.71	216.56	257.72	265.75	262.67	288.08	298.17	269.70	249.01	246.02	230.03	192.06	131.25	178.82	248.59	275.95	273.31	219.39	222.31	253.29	215.61	214.59	263.60	275.11	287.70	283.61	262.56	271.76	235.01	260.06	280.88	271.78	298.68	303.50	302.99	286.22	278.25	323.85	312.97	277.85	321.65	315.11	331.66	287.23	289.85	327.17	354.08	361.64	364.78	364.11	358.28	355.80	343.36	315.55	308.35	305.74	310.02	317.53	326.80	338.45	329.89	274.63	314.51	335.78	306.03	328.00	301.14	331.80	341.26	281.20	245.69	260.67	262.12	306.16	335.39	330.25	296.47	184.20	190.99	198.72	269.47	278.09	314.42	339.25	334.47	311.88	259.69	202.42	151.92	184.41	290.16	326.34	328.20	327.85	308.75	302.56	303.40	296.05	275.61	257.84	205.64	159.58	131.06	137.12	145.50	140.45	157.58	133.12	136.70	142.92	97.75	107.78	101.30	105.48	110.48	133.84	122.97	115.00	81.97	70.06	62.14	55.20	59.86	90.31	109.45	95.70	110.73	100.06	86.05	118.45	123.80	75.61	72.78	75.05	69.69	75.50	56.02	62.28	55.33	49.42	45.09	40.30	38.67	36.27	36.95	40.08	38.89	35.86	38.56	44.94	60.91	84.17	91.58	120.05	141.31
27.11	27.44	25.45	25.56	45.19	63.50	56.12	54.30	61.64	69.14	77.27	75.33	67.44	59.84	92.92	107.08	105.69	72.75	65.41	61.81	61.92	59.12	44.92	62.69	59.58	69.84	84.17	83.92	93.83	120.70	149.97	154.45	183.55	177.26	193.47	201.70	188.50	184.86	180.92	164.97	174.05	112.45	71.31	61.53	32.17	32.44	120.52	124.34	174.45	189.11	196.14	221.34	254.15	252.38	274.99	300.05	306.10	317.47	293.60	269.34	246.88	228.94	202.22	243.78	270.30	252.38	123.00	129.00	124.69	198.16	279.40	305.58	338.56	342.83	343.25	289.31	272.71	233.16	248.66	268.72	270.24	309.05	311.75	350.36	331.19	298.09	245.75	251.89	252.70	205.00	218.62	206.89	267.97	257.45	198.41	211.81	267.36	298.27	244.09	172.94	166.75	212.14	212.53	216.08	228.99	254.50	277.14	297.72	283.04	234.66	210.38	227.84	178.53	129.61	168.92	200.78	241.08	275.62	220.55	246.19	278.75	244.08	246.56	242.92	249.98	273.83	288.97	282.40	272.00	241.34	289.11	318.99	272.76	306.05	316.45	314.75	285.87	310.80	348.94	332.72	310.42	329.84	346.20	329.64	330.84	315.64	349.52	369.00	367.26	366.74	365.56	357.75	342.31	321.89	313.53	315.11	314.05	303.62	299.21	308.80	316.60	289.36	257.12	310.67	324.84	305.06	322.22	325.00	314.72	328.12	262.19	247.28	317.08	290.24	312.60	333.65	333.85	263.84	202.17	199.34	238.69	281.20	294.81	338.49	362.47	350.17	323.44	259.50	242.91	212.33	171.03	222.11	258.08	288.33	276.27	291.11	311.61	320.49	316.97	319.17	297.80	200.50	148.92	130.39	124.31	129.97	134.14	130.72	143.28	126.97	110.97	101.36	89.41	91.06	86.39	79.77	86.08	93.78	89.89	77.64	57.91	55.89	63.27	80.97	114.45	118.52	114.94	115.50	96.02	117.97	114.83	93.12	69.53	60.64	58.23	58.75	61.83	55.45	50.92	53.00	44.00	50.14	45.69	48.30	41.16	44.12	44.56	36.95	38.86	41.08	44.50	48.61	56.28	78.25	116.70	153.59
