572.25	565.81	557.94	550.22	542.93	536.30	530.59	525.01	520.55	517.51	515.12	512.38	509.31	505.12	500.38	494.76	488.84	484.00	478.30	473.41	468.24	462.42	456.14	449.20	443.31	436.98	430.90	424.69	418.42	412.06	405.75	399.75	394.97	390.49	385.70	380.38	375.50	370.25	364.95	358.44	352.22	346.40	341.62	337.42	334.28	332.50	330.80	329.15	327.19	325.01	322.25	319.61	317.12	314.80	311.53	307.36	300.67	293.17	284.86	276.89	269.50	264.00	260.59	258.73	257.81	257.08	257.00	257.64	258.00	258.55	257.89	256.75	254.74	252.38	249.47	246.98	245.26	244.00	243.83	243.50	242.49	240.91	238.75	236.28	233.17	230.00	227.47	226.00	225.17	226.00	227.75	229.62	231.14	231.69	231.88	231.41	230.70	230.31	230.00	230.28	230.38	230.38	230.67	231.81	233.22	234.88	236.59	238.33	240.14	241.39	242.31	242.86	243.25	243.25	242.61	241.80	241.01	239.84	238.28	236.38	233.62	230.49	227.05	223.28	219.89	216.59	213.89	212.48	211.36	211.00	211.00	211.39	211.94	212.39	212.62	211.81	210.55	209.16	207.16	204.88	203.26	202.39	202.56	203.39	205.31	207.70	209.91	212.45	215.12	217.84	221.17	224.67	228.12	231.69	234.58	237.48	240.56	243.16	245.25	247.12	248.66	250.50	252.28	253.99	255.47	256.92	258.55	260.05	261.12	262.33	263.36	264.28	265.23	266.15	267.19	268.38	269.80	270.85	271.60	272.44	273.11	273.85	274.75	275.88	276.88	277.89	278.81	280.03	281.08	281.44	282.12	282.12	282.12	282.12	282.12	282.08	281.75	281.28	280.40	279.70	278.99	277.81	276.80	275.67	274.31	272.94	271.44	269.88	268.28	266.17	264.22	262.00	259.88	257.62	255.55	253.34	250.88	248.34	246.14	243.64	241.06	238.86	236.67	234.30	231.52	229.14	226.16	223.16	220.31	216.84	213.78	210.47	207.22	204.09	200.78	197.55	194.05	190.09	186.80	183.97	181.06	178.11	175.06	172.06	168.78	165.27	161.03	156.81	152.67	149.09	145.31	141.94	138.64	135.83	133.47	131.16
569.47	563.19	555.41	547.94	541.19	535.00	529.62	523.85	518.44	514.50	511.44	508.62	505.78	501.90	497.72	492.72	487.25	482.94	477.91	473.72	469.19	463.88	457.97	450.90	445.25	439.40	433.56	427.44	421.40	415.25	408.72	402.25	397.28	392.50	387.25	381.78	376.38	371.12	365.90	359.60	353.62	347.81	343.15	338.94	335.88	333.88	332.03	330.00	327.62	324.91	321.75	318.75	315.62	313.28	310.06	305.78	299.53	292.62	284.72	277.00	270.00	264.85	261.31	259.28	258.25	257.38	257.25	258.03	258.25	259.12	258.81	257.85	256.03	253.62	251.06	248.66	247.03	246.00	246.00	245.81	244.72	243.19	240.78	238.38	235.62	232.72	230.19	228.88	228.44	229.19	230.88	232.69	233.91	233.94	233.66	232.78	231.53	230.69	230.00	229.97	229.75	229.75	229.94	231.00	232.50	234.38	236.12	238.03	240.06	241.72	242.62	243.53	244.22	244.25	243.59	242.88	242.50	241.47	240.25	238.88	236.12	233.12	229.53	225.50	221.72	217.94	214.72	212.94	211.62	211.00	211.09	211.78	212.62	213.19	213.19	212.47	211.03	209.31	207.31	205.19	203.94	203.66	204.38	205.84	208.25	211.06	213.38	216.19	218.84	221.56	224.88	228.22	231.81	235.12	237.91	240.81	243.75	246.19	248.34	250.22	251.88	253.69	255.56	257.31	259.03	260.50	262.09	263.53	264.75	266.03	267.09	268.03	269.06	270.06	271.16	272.16	273.40	274.44	275.25	276.10	277.03	277.56	278.50	279.56	280.50	281.35	282.16	283.25	284.15	284.62	285.25	285.25	285.25	285.25	285.25	285.25	285.25	284.53	283.78	283.19	282.44	281.34	280.44	279.28	277.75	276.38	274.88	273.50	271.94	269.78	267.69	265.60	263.50	261.28	259.03	256.81	254.47	251.84	249.59	247.09	244.50	242.28	240.16	237.78	234.97	232.50	229.53	226.50	223.66	220.38	217.47	213.97	210.78	207.75	204.69	201.25	197.75	193.94	190.59	187.62	184.56	181.47	178.47	175.50	172.50	169.25	165.38	161.34	157.38	153.81	150.03	146.31	142.66	139.47	136.31	133.41
564.89	558.47	551.03	544.16	538.36	533.15	527.78	521.61	515.39	509.97	506.50	503.44	500.72	497.35	493.94	490.25	486.17	482.21	478.26	474.65	470.80	466.47	460.91	454.16	448.75	443.31	437.17	431.00	425.17	418.88	412.26	405.56	400.25	395.00	389.74	383.92	378.25	372.92	367.75	361.72	356.25	351.11	346.03	341.86	338.58	336.15	333.95	331.45	328.61	325.16	321.47	317.98	314.31	310.83	307.24	302.50	297.01	290.89	283.80	276.75	270.62	266.51	263.00	260.79	259.19	258.28	258.12	258.58	259.12	260.01	259.91	259.03	257.42	255.34	253.00	251.31	249.74	248.94	249.38	248.62	248.00	246.74	243.92	241.41	239.06	236.81	234.65	233.62	233.28	233.70	235.14	236.72	237.38	237.12	235.97	234.61	232.91	231.30	230.08	229.86	229.00	228.91	228.99	230.20	231.74	233.97	236.12	238.12	240.20	242.00	243.11	244.09	244.97	245.12	245.12	244.25	244.25	243.58	242.81	242.20	239.58	236.64	233.17	229.00	224.69	220.44	216.79	214.04	212.08	211.05	211.36	212.22	212.99	213.66	213.66	212.78	211.51	209.53	207.62	206.36	205.59	205.97	207.47	209.70	212.62	216.05	218.62	221.28	223.99	226.95	230.08	232.94	236.75	239.88	242.78	245.36	247.69	249.94	252.50	254.41	256.19	258.28	260.16	261.88	263.89	265.25	266.78	268.03	269.51	270.91	271.83	273.00	274.11	275.44	276.49	277.44	278.35	279.50	280.49	281.55	282.31	282.97	283.75	284.55	285.30	286.08	286.70	287.62	288.25	288.75	289.62	289.69	289.75	289.75	289.75	289.72	289.62	289.08	288.69	288.51	287.44	286.46	285.47	284.17	282.60	281.19	279.65	278.24	276.47	274.61	272.25	270.25	268.25	266.12	263.55	261.44	259.21	256.58	254.28	251.75	249.25	247.12	244.62	242.25	239.62	236.83	234.29	231.17	228.06	225.09	222.11	218.62	215.69	212.95	210.06	206.51	203.03	199.75	196.15	192.94	189.59	186.22	183.19	180.31	177.31	174.42	170.97	167.25	163.47	160.08	156.61	153.00	149.25	145.50	141.50	138.05
559.75	553.00	546.00	540.00	535.62	530.75	525.38	519.75	513.75	507.12	502.12	498.62	496.12	493.62	491.75	489.38	486.50	483.62	480.12	476.62	472.88	468.88	463.75	457.88	452.25	446.38	440.12	433.62	427.25	420.62	414.12	407.75	402.00	396.75	391.38	385.12	380.88	375.00	369.50	364.12	358.88	354.50	349.75	345.25	341.75	339.00	336.25	333.75	330.25	326.25	322.12	317.88	313.00	308.75	304.50	299.88	294.50	289.25	283.25	277.62	272.38	268.38	265.62	262.88	260.50	259.38	259.00	259.12	260.00	261.00	261.00	260.12	258.62	256.88	254.75	253.50	252.25	251.12	252.00	251.25	250.62	249.25	246.88	244.25	242.12	239.88	238.38	238.00	237.00	237.75	238.75	240.00	240.00	239.75	238.38	236.25	234.00	231.62	230.62	229.75	229.00	228.25	228.88	229.88	231.62	233.75	236.12	238.12	239.88	242.00	243.88	244.75	245.62	246.00	246.00	246.00	246.00	245.88	245.00	244.50	242.75	240.25	237.00	232.50	227.75	223.50	218.88	215.25	212.62	211.38	211.25	212.00	212.88	213.00	213.00	213.00	211.62	209.75	208.50	208.00	208.00	208.38	210.75	213.75	217.00	220.75	223.88	226.75	229.12	231.88	235.00	237.75	241.12	244.25	247.38	249.62	251.62	253.88	256.00	258.12	260.12	262.88	264.75	266.25	268.38	269.62	271.38	272.62	274.00	275.50	276.75	278.25	279.25	280.25	281.62	282.25	283.38	284.75	285.62	286.25	287.12	288.00	289.00	289.25	290.00	291.00	291.62	292.00	292.62	294.00	294.00	294.50	295.00	295.00	295.00	294.75	294.00	294.00	293.50	293.00	292.25	291.38	290.50	288.88	287.62	286.00	284.25	282.50	280.62	278.88	276.62	274.62	272.62	270.50	268.25	266.25	264.12	261.50	258.88	256.12	253.62	251.50	249.00	246.62	244.00	240.88	238.12	235.00	232.00	229.25	226.38	223.00	220.50	217.88	214.88	211.88	208.50	205.00	201.62	198.62	194.62	191.25	188.00	185.12	182.12	179.12	176.00	172.50	169.38	165.88	162.62	159.12	155.38	151.62	147.62	143.62
554.83	547.42	540.97	535.84	532.13	528.89	525.05	519.75	513.53	506.80	500.92	496.99	494.60	492.97	491.75	490.58	488.36	486.03	483.08	479.58	475.72	471.50	466.38	460.28	454.22	447.90	441.00	433.51	426.26	419.42	413.14	406.66	401.78	396.75	391.70	386.88	381.75	376.53	372.01	365.99	361.50	356.69	352.49	348.31	344.92	341.74	338.88	336.38	332.88	328.88	323.88	318.75	313.44	308.42	303.51	299.00	293.62	288.92	283.80	278.72	274.78	271.65	268.58	265.72	262.80	260.91	260.75	260.76	260.88	261.55	261.88	261.11	260.05	258.19	256.28	254.92	254.33	253.64	253.64	252.78	252.49	251.11	249.17	246.88	244.53	242.72	241.44	240.62	240.50	240.59	241.59	241.75	241.75	241.50	239.91	238.00	236.08	233.81	232.70	231.28	230.20	229.45	229.75	230.20	231.74	233.75	236.24	238.34	240.20	242.00	243.88	245.08	245.95	246.11	246.88	246.88	246.99	246.86	246.20	245.70	244.39	241.89	238.75	234.91	230.38	225.58	221.06	216.56	213.50	211.92	211.14	211.78	212.55	213.00	212.78	212.12	211.19	210.08	209.38	209.20	209.97	211.66	214.47	217.91	221.59	225.24	228.58	231.34	233.83	236.58	239.70	242.34	245.06	248.30	250.88	253.45	255.89	258.03	260.26	262.28	264.28	267.03	269.12	270.62	272.53	274.22	275.75	277.11	278.59	279.88	281.45	282.74	284.06	285.50	286.33	287.28	287.75	289.34	290.44	291.72	292.59	293.47	294.25	294.72	295.25	295.59	296.33	296.38	297.00	297.72	298.38	298.66	299.38	299.38	299.38	299.34	298.49	298.38	298.31	297.59	296.74	296.08	294.88	293.47	291.78	289.94	288.30	286.55	284.78	282.92	281.00	278.78	276.89	274.88	272.41	270.51	268.28	266.21	263.69	260.72	258.22	255.88	253.38	251.00	247.94	245.25	242.50	239.38	236.81	233.62	230.75	227.70	224.88	221.70	219.14	216.14	213.53	209.81	206.66	203.44	199.76	195.84	192.70	189.50	186.50	183.39	180.05	177.20	174.30	171.12	167.88	164.59	160.95	157.31	153.53	149.42
551.70	543.74	537.36	533.38	531.00	529.01	526.17	521.55	515.30	508.86	502.78	498.70	495.70	493.97	493.15	492.62	490.97	488.88	485.53	481.95	478.23	473.90	468.00	461.80	455.12	448.20	440.42	431.71	423.70	416.20	409.56	403.45	399.17	395.19	391.44	387.36	382.50	377.38	373.08	367.50	363.12	358.25	354.12	350.39	346.94	343.61	340.97	338.31	334.65	330.65	325.38	319.74	313.97	308.38	303.06	298.25	293.03	288.88	284.35	280.36	277.15	274.39	271.26	268.39	265.39	263.00	262.40	262.17	261.62	261.86	262.62	261.88	260.64	259.08	257.28	255.83	255.01	254.62	254.50	253.62	253.45	252.24	250.75	248.74	246.83	245.24	243.51	242.41	242.25	242.25	243.09	243.25	243.25	242.69	241.45	240.28	238.95	236.94	235.42	233.84	232.48	231.42	230.66	231.34	232.30	234.14	236.33	238.53	240.49	242.16	243.72	245.12	246.00	246.05	246.76	247.00	247.20	247.00	246.61	245.88	244.62	242.28	239.31	236.03	231.76	227.44	222.94	218.24	214.88	212.86	211.83	211.91	212.19	212.38	212.28	211.92	211.05	210.20	210.12	210.62	212.20	214.55	217.81	221.24	225.06	228.77	232.30	235.12	237.62	240.38	243.26	245.97	248.75	251.61	254.26	256.74	259.00	261.28	263.69	265.76	267.92	270.59	272.64	274.38	276.25	278.00	279.35	280.80	282.45	283.70	285.40	286.65	288.03	289.38	290.36	291.28	291.89	293.20	294.56	295.86	296.89	297.69	298.36	299.01	299.75	299.85	300.12	300.12	300.60	301.22	301.89	302.38	303.20	303.75	303.51	303.12	302.80	302.12	302.12	301.53	300.74	299.95	298.62	296.94	295.65	293.70	291.76	289.94	288.19	286.39	284.67	282.42	280.23	278.08	275.97	273.70	271.76	269.92	267.27	264.35	262.00	259.62	257.05	254.44	251.31	248.38	246.01	243.05	240.31	237.53	234.50	231.34	228.78	225.53	222.72	219.72	216.99	213.78	210.58	207.17	203.55	199.62	196.34	193.02	189.47	186.58	183.59	180.69	178.05	174.84	171.52	168.34	164.72	161.25	157.66	153.61
549.97	541.62	535.28	532.06	530.72	529.56	527.40	523.41	517.69	511.62	505.50	501.10	497.59	495.62	494.90	494.50	493.19	491.12	487.59	483.97	480.22	475.60	469.12	462.44	455.12	447.53	439.10	429.62	420.94	412.94	405.88	400.28	396.38	393.18	390.62	387.19	382.88	377.81	373.53	368.47	363.88	359.00	354.88	351.38	347.91	344.62	342.16	339.56	335.69	331.47	326.12	320.19	314.12	308.28	302.69	297.62	292.72	288.90	284.90	281.78	279.12	276.60	273.59	270.69	267.66	264.97	263.88	263.38	262.50	262.44	263.06	262.56	261.06	259.59	257.94	256.38	255.34	255.00	254.91	254.25	254.16	253.09	252.03	250.38	248.81	247.25	245.25	243.94	243.59	243.50	244.09	244.50	244.50	243.94	243.25	242.62	241.88	240.12	238.38	236.62	235.00	233.59	232.00	232.56	233.25	234.84	236.62	238.72	240.69	242.34	243.75	245.09	245.81	246.00	246.53	247.00	247.19	246.97	246.56	245.72	244.38	242.19	239.50	236.59	232.62	228.78	224.38	219.78	216.34	214.03	212.84	212.44	212.25	212.06	212.00	211.91	211.25	210.69	211.19	212.22	214.37	217.06	220.50	224.06	227.94	231.59	235.22	238.12	240.66	243.41	246.19	248.94	251.75	254.34	257.00	259.40	261.50	263.88	266.31	268.50	270.85	273.50	275.50	277.44	279.34	281.03	282.28	283.78	285.62	286.97	288.62	289.88	291.31	292.47	293.56	294.44	295.28	296.41	297.88	299.22	300.38	301.12	301.78	302.56	303.25	303.31	303.50	303.50	303.81	304.50	304.97	305.69	306.44	307.25	306.88	306.25	306.25	305.31	305.25	304.78	304.06	303.03	301.69	299.84	298.69	296.75	294.69	292.84	291.06	289.31	287.72	285.47	283.06	280.85	278.81	276.40	274.72	272.78	270.19	267.38	265.12	262.75	259.94	257.25	254.16	251.19	249.00	246.12	243.25	240.62	237.56	234.34	231.91	228.62	225.66	222.75	219.88	217.06	213.78	210.25	206.62	202.69	199.22	195.81	192.03	189.22	186.41	183.38	180.88	177.69	174.25	171.03	167.44	164.03	160.50	156.69
549.15	540.64	534.51	531.75	531.25	530.81	529.50	526.38	522.36	516.89	510.76	505.50	501.55	499.28	498.12	497.09	495.96	493.69	490.45	486.75	482.58	477.06	470.17	462.03	453.62	444.88	435.88	426.01	416.38	407.89	400.33	395.61	392.06	389.51	388.41	386.05	382.78	377.95	373.49	368.92	363.75	358.83	354.61	351.00	347.65	344.75	342.40	340.28	336.10	331.25	326.00	319.88	313.61	307.81	302.00	296.83	292.56	289.00	285.88	283.61	281.66	279.47	276.89	273.95	270.81	267.92	266.06	265.08	264.19	263.91	263.34	263.53	261.62	259.83	258.40	256.69	255.58	255.00	255.00	255.06	255.11	254.24	253.80	252.89	251.56	249.83	247.89	246.41	245.75	245.34	245.36	246.20	246.26	246.38	246.67	246.50	246.58	245.38	243.74	241.66	239.59	237.56	235.26	234.73	235.49	236.47	237.58	239.14	241.00	242.70	244.14	245.00	245.22	246.00	246.22	246.88	246.91	246.81	245.94	245.11	243.47	241.53	239.47	236.88	233.44	230.12	226.09	222.01	218.83	216.42	215.01	214.08	213.31	212.58	212.25	212.25	212.25	212.34	213.66	215.22	217.90	220.86	224.16	228.24	232.05	235.40	239.01	242.06	244.70	247.50	250.33	253.06	255.66	258.08	260.50	262.99	265.01	267.42	269.67	272.08	274.71	277.44	279.45	281.53	283.55	285.08	286.39	287.89	289.94	291.56	293.00	294.25	295.79	296.72	297.75	298.62	299.75	300.91	302.26	303.84	305.11	305.88	306.67	307.51	307.62	307.94	308.67	308.75	308.86	309.72	309.75	310.64	311.08	311.59	311.17	310.62	310.62	309.91	309.62	309.28	308.59	307.12	305.83	304.14	302.50	300.70	298.83	297.08	295.22	293.49	291.92	289.65	287.24	285.12	282.62	280.50	278.94	276.50	274.38	271.75	269.48	267.05	263.75	261.24	258.24	255.75	253.34	250.47	247.62	244.69	241.78	238.64	235.95	232.61	229.75	227.09	224.22	221.56	218.17	214.58	210.94	206.86	203.06	199.51	196.05	193.00	190.00	186.94	184.39	181.38	177.75	174.22	170.72	167.25	163.62	160.42
549.38	541.62	536.38	533.50	533.00	533.00	533.00	530.75	527.50	522.25	516.12	510.75	506.25	503.88	501.62	499.50	498.25	495.88	492.75	488.50	484.00	477.50	469.62	460.50	451.00	441.38	432.38	421.75	412.00	402.75	395.62	391.12	388.12	386.12	386.00	384.62	382.12	377.62	372.50	367.50	362.88	357.62	352.75	348.38	345.25	343.00	340.88	338.75	335.00	330.38	325.12	319.00	312.62	306.50	301.12	296.50	292.12	289.00	286.75	285.25	283.62	281.88	279.62	277.12	273.88	270.88	268.25	266.50	265.50	265.00	264.00	263.75	261.62	259.50	257.75	256.25	255.25	255.00	255.00	255.50	255.88	255.00	255.00	254.75	253.75	252.12	250.62	249.25	248.38	247.75	247.00	247.62	248.12	249.00	249.62	250.00	250.62	250.62	249.75	248.00	245.50	242.38	239.75	238.12	238.00	238.00	239.00	240.12	241.88	243.25	244.25	245.00	245.00	246.00	246.00	246.00	246.25	246.38	245.50	244.12	242.38	240.88	239.25	236.88	233.88	231.00	227.62	223.88	221.12	219.38	217.75	216.38	215.50	214.88	214.00	214.00	214.00	214.75	216.50	218.50	221.62	225.12	228.75	232.50	235.88	239.12	242.62	246.00	248.75	251.88	254.38	257.00	259.38	261.25	264.00	266.38	268.62	271.25	273.50	276.12	278.75	281.38	283.50	285.25	287.38	289.12	290.88	292.38	293.88	295.50	297.38	298.62	299.62	300.88	302.12	303.00	304.12	305.50	306.75	308.00	309.38	310.25	311.38	312.00	312.00	312.75	313.38	314.00	314.00	314.75	315.00	315.12	316.00	315.75	315.00	315.00	315.00	314.50	314.00	313.88	312.75	311.50	309.88	308.62	306.88	304.75	302.88	301.12	299.38	297.75	295.75	293.38	291.50	289.50	287.00	284.88	282.88	280.88	278.75	276.12	273.75	270.88	268.12	265.50	262.50	260.12	257.50	254.62	252.00	249.50	246.38	243.12	240.00	236.88	234.12	231.25	228.38	225.50	222.00	218.62	214.88	211.12	207.00	203.12	199.88	196.50	193.50	190.88	188.00	184.88	181.25	177.50	174.00	170.75	167.12	164.25
550.80	544.14	538.89	536.12	534.75	534.31	533.88	532.83	530.24	525.75	520.39	515.12	510.30	507.26	504.69	502.56	499.89	496.53	492.75	487.62	482.58	476.19	467.11	457.22	447.06	436.12	426.80	417.16	408.06	399.58	393.00	388.72	386.15	385.14	385.12	384.30	381.58	376.75	371.62	366.30	360.90	355.00	349.47	345.20	341.97	339.72	338.03	335.80	332.70	328.62	322.94	317.14	310.99	305.08	300.25	295.62	291.47	288.24	286.42	285.69	284.83	283.51	281.70	279.42	276.28	272.95	270.44	268.58	267.14	265.88	264.88	263.53	261.30	259.17	256.88	255.38	254.38	254.12	254.12	254.51	255.11	255.22	255.88	255.84	255.61	254.64	253.36	252.09	250.89	249.61	248.75	248.83	249.88	250.75	251.70	252.84	253.91	254.45	254.34	252.38	249.88	247.19	244.45	242.28	240.95	240.62	240.75	241.88	243.19	244.24	244.91	245.76	245.88	246.33	246.88	246.44	246.03	246.05	245.17	243.69	242.16	240.55	239.14	237.20	234.53	231.88	229.16	225.95	223.97	222.22	220.81	219.55	218.45	217.61	216.62	216.62	217.06	218.14	220.22	222.88	226.33	229.83	233.34	237.09	239.92	243.06	246.56	249.50	252.47	255.70	257.88	260.50	263.09	265.51	267.50	269.55	272.12	274.75	277.44	279.95	282.25	284.88	287.11	289.30	291.31	293.28	295.25	296.75	298.25	299.66	301.20	302.24	303.56	304.71	305.84	307.05	308.72	309.66	310.58	311.94	313.20	314.62	315.97	316.92	317.25	317.34	317.42	318.26	318.70	319.34	319.38	320.15	320.38	320.34	320.25	319.59	319.38	319.09	318.38	317.60	316.69	315.55	314.25	313.00	311.25	309.34	307.47	305.28	303.31	301.91	300.01	297.64	295.55	293.33	291.26	289.14	286.92	284.81	282.69	280.50	277.90	275.25	272.39	269.55	266.88	264.28	261.33	259.00	256.38	253.66	250.31	247.28	244.38	241.25	238.28	235.41	232.75	229.55	226.05	222.45	218.59	214.74	210.50	207.06	203.16	199.78	197.00	194.38	191.39	188.16	185.08	181.00	177.28	173.92	170.30	167.09
552.64	545.91	540.58	537.44	536.01	534.89	534.00	532.74	530.54	526.79	522.25	517.62	513.14	509.55	506.45	503.55	499.81	495.76	490.95	485.08	479.80	473.26	463.62	453.15	442.75	431.70	422.80	413.85	405.54	398.97	393.33	389.31	386.97	386.01	385.55	384.49	381.42	376.39	370.88	364.88	358.59	352.20	346.74	342.25	339.00	336.75	335.05	332.88	330.03	326.42	321.06	315.62	309.66	303.94	299.50	294.88	290.83	287.89	285.99	285.28	285.00	284.14	282.86	280.76	277.88	274.81	272.31	270.51	268.78	267.17	265.55	263.81	261.25	258.58	256.05	254.39	253.47	253.38	253.38	253.51	253.75	254.23	255.06	255.53	256.03	256.10	255.16	253.91	252.74	251.36	250.88	250.72	250.91	251.78	253.01	254.34	255.78	256.88	256.72	255.19	253.00	250.53	247.86	245.22	243.64	242.88	242.88	243.61	244.62	245.39	245.94	246.58	246.62	246.76	247.00	246.81	246.62	246.24	245.36	244.17	242.91	241.20	239.44	237.33	235.17	232.86	230.55	228.05	226.09	224.73	223.36	222.26	221.30	220.26	219.50	219.50	220.24	221.52	223.72	226.62	230.12	233.62	236.97	240.33	243.08	246.28	249.62	252.58	255.58	258.51	260.88	263.50	265.81	268.47	270.50	272.66	275.28	278.14	280.81	283.39	285.49	287.95	290.12	292.53	294.69	296.53	298.38	300.26	301.85	303.14	304.48	305.64	306.94	308.22	309.65	310.83	312.35	313.38	314.25	315.70	317.03	318.53	319.75	320.36	321.05	321.12	321.67	322.15	322.89	323.12	323.28	324.08	324.12	324.12	324.12	323.69	323.12	323.03	322.12	321.33	320.45	319.17	317.69	316.51	314.92	313.12	311.33	309.00	306.85	305.31	303.28	301.14	299.10	296.77	294.76	292.88	290.62	288.19	286.06	283.62	281.39	278.77	276.05	273.25	270.62	268.23	265.16	262.75	260.12	257.22	254.16	251.16	248.44	245.23	242.31	239.28	236.42	232.86	229.59	226.12	222.09	218.30	214.12	210.36	206.67	203.22	200.08	197.38	194.38	191.44	188.12	184.16	180.09	176.72	173.17	169.45
554.31	547.56	542.09	538.44	536.75	535.00	533.68	532.22	530.22	527.00	523.03	518.91	514.75	510.66	506.97	503.31	498.84	494.15	488.53	482.22	476.66	469.90	460.25	449.69	439.25	428.47	420.03	411.93	404.56	399.44	394.68	391.00	388.75	387.62	386.65	384.94	381.50	376.25	370.22	363.66	356.75	350.06	344.62	339.81	336.47	334.31	332.53	330.38	327.81	324.60	319.62	314.38	308.62	303.28	298.94	294.34	290.31	287.50	285.62	285.00	285.00	284.38	283.41	281.53	279.00	276.35	273.88	272.09	270.25	268.35	266.28	264.25	261.25	258.16	255.41	253.72	252.81	252.75	252.66	252.50	252.50	253.09	254.00	254.81	255.88	256.56	256.19	255.12	254.00	252.75	252.34	252.06	251.78	252.44	253.75	255.19	256.81	258.10	258.06	256.85	255.00	252.81	250.16	247.47	245.75	244.75	244.75	245.12	245.97	246.50	247.12	247.50	247.50	247.44	247.25	247.25	247.03	246.50	245.62	244.84	243.62	241.81	239.84	237.69	235.78	233.72	231.69	229.69	227.72	226.59	225.19	224.22	223.50	222.47	222.00	222.06	222.97	224.38	226.56	229.66	233.12	236.59	239.81	242.88	245.69	248.81	252.00	255.06	258.10	260.88	263.28	265.88	268.12	270.88	273.00	275.31	277.94	280.88	283.38	285.97	288.12	290.53	292.62	295.06	297.31	299.12	300.94	303.00	304.65	306.03	307.31	308.62	309.88	311.22	312.75	313.88	315.19	316.44	317.44	318.88	320.35	321.69	322.81	323.38	324.19	324.50	325.16	325.34	326.10	326.25	326.53	327.19	327.15	327.25	327.25	327.03	326.25	326.19	325.22	324.41	323.47	322.12	320.50	319.34	317.90	316.12	314.40	312.12	309.88	308.22	306.06	304.00	302.03	299.75	297.75	295.94	293.75	291.12	289.03	286.38	284.38	281.75	279.00	276.31	273.75	271.40	268.38	265.88	263.15	260.22	257.38	254.47	251.78	248.62	245.72	242.62	239.56	235.75	232.50	229.16	225.06	221.34	217.25	213.25	209.72	206.12	202.75	199.91	196.88	194.06	190.53	186.78	182.69	179.16	175.56	171.56
556.71	550.28	544.49	539.90	537.12	534.55	532.60	531.10	529.01	526.28	522.88	519.17	515.26	510.44	505.72	501.03	495.75	490.00	483.62	477.12	471.01	463.88	454.84	444.92	435.05	425.23	417.53	411.17	405.53	401.62	398.11	395.01	392.75	391.12	389.36	386.12	381.92	376.14	369.26	362.03	354.67	347.78	342.03	336.65	332.99	331.10	329.25	327.12	325.10	322.35	318.00	312.86	307.51	303.05	298.34	293.88	289.74	286.76	285.26	284.94	284.88	284.33	283.49	282.05	280.19	278.20	275.95	274.12	272.38	270.01	267.75	265.15	261.36	257.92	254.84	253.20	252.17	251.88	251.55	250.97	250.88	251.31	252.28	253.31	254.94	255.86	256.62	256.22	255.24	254.36	253.53	253.12	253.12	253.16	254.25	255.81	257.38	258.33	259.00	257.92	256.61	254.95	252.31	250.26	248.30	247.38	247.38	247.38	248.03	248.25	249.12	249.12	249.12	248.88	248.12	248.12	247.25	247.01	246.14	246.01	244.56	242.60	240.70	238.85	236.84	234.97	233.24	231.65	229.79	228.62	227.16	226.25	225.97	225.25	225.30	225.67	226.72	228.25	230.31	233.61	236.95	240.30	243.44	246.33	249.34	252.16	255.16	258.36	261.44	264.30	266.50	269.00	271.59	274.30	276.50	279.00	281.56	284.30	286.50	289.00	291.58	294.09	296.15	298.38	300.60	302.62	304.62	306.59	308.33	310.00	311.45	312.92	314.19	315.42	316.69	317.88	319.03	320.61	321.97	323.20	324.89	325.78	326.92	328.01	328.66	329.55	329.62	329.62	330.06	330.62	330.95	331.28	331.17	331.59	331.62	331.40	330.62	330.33	329.44	328.42	327.31	326.08	324.45	323.16	321.88	320.05	318.44	316.44	314.22	312.45	310.25	307.99	306.11	304.11	302.12	300.12	298.12	295.50	293.44	290.70	288.62	286.03	282.97	280.53	278.08	275.42	272.74	270.17	267.24	264.50	261.70	259.12	256.30	253.39	250.34	247.31	244.10	240.10	236.47	233.19	229.25	225.59	221.59	217.62	214.01	210.19	206.76	203.56	200.44	197.42	193.83	190.47	186.84	182.86	178.88	174.90
559.00	552.25	546.12	541.00	537.12	534.00	531.50	529.12	526.50	523.88	521.12	517.75	513.62	508.25	502.88	496.88	490.50	483.88	477.50	471.00	465.00	457.75	448.50	439.12	431.88	424.25	417.75	412.38	408.38	405.12	402.38	399.50	397.12	394.62	391.88	387.88	382.25	375.38	368.50	360.50	353.25	346.25	339.62	334.25	330.25	328.25	326.62	325.38	323.12	320.38	317.12	312.75	307.62	303.38	298.12	293.88	289.62	286.88	285.38	284.50	284.00	284.00	283.38	282.38	280.62	278.75	277.38	275.88	274.12	271.88	269.50	266.25	262.12	258.25	255.50	252.88	251.62	251.00	251.00	250.75	250.00	250.00	250.75	252.00	253.62	254.88	255.75	256.00	256.00	255.12	254.62	254.00	254.00	254.25	255.12	256.25	257.38	258.00	259.00	258.25	257.38	255.50	253.62	252.12	250.38	250.00	250.00	250.00	250.00	250.00	250.00	250.00	250.00	249.75	249.00	249.00	248.12	248.00	247.12	247.00	245.88	244.12	242.12	240.38	238.38	236.50	234.88	233.62	231.88	230.38	229.12	228.00	227.50	227.00	227.38	228.62	230.00	231.75	234.25	237.00	240.12	243.25	246.50	249.50	252.62	255.88	258.88	261.75	264.50	267.25	270.00	272.50	274.88	277.25	280.00	282.50	284.62	287.25	290.00	292.50	294.75	297.38	299.88	301.88	303.88	306.12	308.12	310.75	312.38	313.50	315.50	316.75	318.12	319.25	320.62	322.25	323.62	324.88	326.12	327.25	328.50	329.50	330.75	331.62	332.38	333.38	334.00	334.00	334.88	335.00	335.00	335.00	335.00	335.75	336.00	335.12	335.00	334.38	333.38	332.25	331.25	330.12	328.50	326.88	325.38	323.88	322.38	320.38	318.38	316.50	314.62	312.25	310.38	308.38	306.50	304.50	302.50	299.88	297.38	294.75	292.12	289.75	287.12	285.12	282.12	279.25	277.00	274.00	271.50	268.88	265.75	263.50	261.00	257.88	254.50	251.25	248.25	244.25	240.62	237.12	233.62	229.75	225.75	222.00	218.50	215.00	211.25	207.50	204.38	201.25	197.88	194.62	191.00	187.12	182.38	178.62
560.75	554.00	547.99	541.88	537.78	534.33	530.84	526.83	523.22	519.94	517.30	514.58	510.78	503.55	496.64	489.76	483.17	476.55	470.61	464.44	459.86	453.38	445.76	438.25	431.76	425.78	420.05	415.44	412.10	409.17	406.20	403.33	400.19	396.81	393.41	388.97	382.91	375.59	367.95	359.62	352.38	345.38	338.75	333.38	329.38	326.94	325.20	323.19	321.26	319.17	316.36	312.53	308.28	304.25	299.44	294.75	290.28	287.42	285.71	284.72	284.00	284.00	283.38	282.38	281.17	279.74	278.36	277.19	275.33	273.19	270.60	267.24	263.33	259.45	256.49	254.08	252.72	251.88	251.55	250.97	250.66	250.00	250.42	251.45	252.53	253.34	254.22	254.25	254.80	255.01	254.95	254.88	255.75	256.00	257.31	257.78	258.03	258.88	259.00	258.80	257.59	256.38	254.83	253.55	252.12	251.75	251.75	251.75	250.99	251.09	251.75	251.75	251.09	250.62	249.44	249.00	248.89	248.88	248.22	247.88	247.19	245.44	243.66	241.91	239.69	238.14	236.62	235.16	233.30	231.91	230.99	229.53	228.70	228.20	229.24	230.59	232.74	235.14	237.75	240.39	243.41	246.42	249.56	252.67	255.91	259.05	262.16	265.36	268.00	270.75	273.39	275.56	278.15	280.75	283.17	285.56	288.12	290.75	293.17	295.67	298.25	300.88	303.15	305.15	307.38	309.62	311.85	313.70	316.10	317.44	319.00	320.69	321.74	322.97	324.78	326.08	327.45	328.71	330.06	331.30	332.11	333.33	334.58	335.45	335.99	337.20	338.05	338.38	338.49	338.50	339.26	339.38	339.38	339.47	339.50	339.39	338.83	338.21	337.21	336.08	335.08	333.51	332.00	330.92	329.20	327.49	325.76	323.99	322.31	320.55	318.78	316.51	314.31	312.64	310.99	308.65	306.76	304.03	301.31	298.69	296.50	294.12	291.50	289.06	286.39	283.62	281.16	278.38	275.88	272.70	270.12	267.44	264.94	261.92	258.55	255.30	251.97	248.51	244.67	241.28	238.00	233.91	230.34	227.14	223.42	219.59	216.17	212.42	208.97	205.62	202.03	198.67	195.16	191.50	187.08	182.78
561.31	554.81	548.56	542.50	538.31	533.94	529.44	524.62	520.31	516.88	513.94	510.44	505.94	499.06	491.81	484.19	477.56	471.38	466.25	460.62	456.81	451.94	445.56	439.25	433.25	427.56	422.56	418.25	414.75	411.38	407.69	404.00	400.62	396.75	393.06	388.56	382.44	375.38	367.69	359.44	352.12	345.25	339.00	333.62	329.69	326.88	324.81	322.62	320.50	318.50	315.94	312.50	308.69	305.00	300.38	295.50	291.06	288.19	286.25	285.12	284.25	284.00	283.44	282.38	281.38	280.12	278.88	277.94	276.31	274.25	271.62	268.38	264.62	260.75	257.62	255.12	253.62	252.75	252.25	251.50	251.00	250.50	250.69	251.19	251.81	252.56	253.19	253.50	254.31	255.00	255.31	255.81	256.81	257.50	258.69	259.50	259.56	260.00	259.56	259.38	258.12	257.00	255.69	254.44	253.25	252.50	252.50	252.50	252.06	252.12	252.50	252.50	251.81	251.06	249.81	249.00	249.00	249.00	248.69	248.50	248.06	246.44	244.69	242.88	240.69	239.19	237.81	236.50	234.94	233.31	232.38	231.06	229.94	229.69	230.62	232.19	234.56	237.25	240.12	243.00	245.94	248.94	251.88	255.00	258.25	261.50	264.88	267.94	270.50	273.06	275.62	278.00	280.56	283.06	285.50	288.00	290.50	293.06	295.56	298.12	300.44	303.12	305.56	307.62	309.69	312.00	314.38	316.12	318.69	320.06	321.50	323.31	324.44	325.75	327.56	328.94	330.19	331.81	333.12	334.25	334.88	336.06	337.25	338.31	338.75	340.00	340.81	341.00	341.00	341.50	341.94	342.25	342.31	342.00	342.12	342.12	341.69	340.88	339.81	338.75	337.69	336.25	334.75	333.56	331.94	330.25	328.56	326.88	325.25	323.50	321.56	319.25	317.19	315.69	313.94	311.56	309.50	307.06	304.38	301.69	299.31	296.81	294.56	292.12	289.25	286.56	283.88	281.31	278.75	275.75	273.25	270.31	267.75	264.69	261.44	258.06	254.88	251.19	247.38	244.00	240.62	236.75	233.31	230.25	226.50	222.75	219.38	215.69	212.12	208.81	205.25	201.94	198.31	194.50	190.19	185.88
561.56	555.40	549.00	543.25	538.72	533.12	527.38	521.75	516.81	512.85	509.09	504.34	498.97	492.75	485.65	477.50	471.12	465.72	461.69	457.09	454.06	450.97	446.06	440.88	435.38	430.03	425.72	421.56	417.53	413.12	408.38	403.65	399.72	395.56	391.78	387.41	381.38	374.81	367.38	359.41	352.09	345.38	339.62	334.25	330.19	327.03	324.69	322.47	320.12	318.00	315.59	312.65	309.28	305.97	301.56	296.78	292.44	289.44	287.19	286.00	285.00	284.35	283.72	282.62	281.69	280.69	279.69	278.90	277.50	275.56	273.03	270.03	266.31	262.56	259.38	256.75	255.19	254.16	253.31	252.38	251.50	251.03	251.00	250.88	251.03	251.81	252.28	252.94	254.03	255.03	255.91	257.12	258.31	259.50	260.56	261.50	261.50	261.50	260.62	260.22	259.06	257.94	256.81	255.62	254.69	253.56	253.44	253.25	253.25	253.25	253.25	253.25	252.72	251.69	250.44	249.31	249.19	249.16	249.25	249.25	248.91	247.56	245.88	244.03	241.97	240.38	239.19	238.12	236.91	235.19	234.12	233.09	231.84	231.75	232.50	234.47	236.91	239.72	242.88	246.06	249.00	251.97	254.75	257.94	261.22	264.53	268.00	270.90	273.40	275.88	278.38	280.90	283.41	285.88	288.38	290.94	293.31	295.88	298.38	300.97	303.12	305.88	308.40	310.50	312.44	314.88	317.31	319.09	321.56	323.03	324.50	326.38	327.72	329.06	330.78	332.34	333.60	335.47	336.72	337.72	338.25	339.31	340.47	341.69	342.22	343.28	344.15	344.25	344.25	345.00	345.00	345.38	345.69	345.25	345.44	345.31	345.00	344.10	343.00	341.97	340.88	339.50	338.10	336.62	335.12	333.66	332.03	330.40	328.69	326.88	324.78	322.56	320.72	319.12	317.19	314.97	312.75	310.50	307.88	305.12	302.53	300.06	298.03	295.69	292.75	290.12	287.28	284.69	282.00	279.25	276.75	273.72	271.10	267.97	264.91	261.38	258.25	254.31	250.62	247.25	243.75	240.12	236.81	233.75	230.12	226.47	223.03	219.47	215.81	212.56	209.06	205.69	201.91	197.94	193.66	189.44
561.17	555.38	549.36	543.94	538.42	531.68	524.74	518.20	513.12	507.55	501.98	495.99	490.16	484.12	477.95	470.31	464.91	460.75	457.94	455.04	452.74	450.58	447.16	442.62	437.55	433.11	428.97	424.62	419.58	413.39	407.30	401.69	396.38	392.56	389.16	385.24	379.62	373.76	366.92	359.50	352.44	345.86	340.44	335.10	330.50	327.22	324.92	322.76	320.50	318.03	315.56	313.20	310.24	307.14	303.12	299.00	294.78	291.41	288.81	287.78	286.76	285.65	284.64	283.64	282.53	281.85	281.25	280.41	278.95	277.22	274.99	272.36	268.47	265.08	262.03	259.46	257.99	256.42	254.89	253.69	252.42	251.28	251.06	250.56	250.49	251.38	252.12	252.91	254.28	255.36	257.01	258.92	260.67	262.09	263.33	263.38	263.38	263.38	262.49	261.62	260.74	259.55	258.44	257.42	256.62	255.42	254.91	254.25	254.25	254.25	254.25	254.25	253.92	252.85	251.56	250.42	249.88	249.67	250.00	249.95	249.33	248.56	247.12	245.39	243.56	241.72	240.69	239.92	238.81	237.59	236.39	235.64	234.83	234.51	235.34	237.89	240.17	242.80	246.03	249.40	252.55	255.41	258.31	261.67	265.05	268.12	271.12	274.11	276.62	279.35	281.83	284.16	286.69	289.42	291.95	294.31	296.59	299.30	301.50	304.00	306.58	309.31	311.59	313.60	315.71	318.31	320.62	322.50	324.47	326.25	328.00	329.88	331.51	332.78	334.38	336.12	337.81	339.31	340.55	341.56	342.17	343.05	344.28	345.42	346.40	346.95	348.10	348.50	348.51	348.62	348.62	348.62	349.38	349.47	349.50	349.00	348.50	347.92	346.92	345.79	344.76	343.03	341.89	340.24	338.70	337.62	336.00	334.35	332.36	330.40	328.45	326.69	324.91	322.69	320.55	318.74	316.62	314.00	311.39	308.70	306.19	304.12	301.69	299.41	297.00	294.38	291.62	288.44	285.55	282.80	280.29	277.55	274.84	271.72	268.81	265.22	261.76	258.06	254.50	251.12	247.67	244.08	240.94	237.72	234.41	230.67	227.06	223.67	219.95	216.66	213.15	209.42	205.53	201.71	197.33	193.21
559.75	554.50	549.25	543.50	537.00	529.50	522.00	514.38	509.62	502.62	494.88	488.00	481.62	476.25	470.62	464.62	460.75	458.12	456.62	454.50	452.62	451.12	448.25	444.38	439.62	435.62	431.38	426.38	420.12	412.62	405.00	397.75	392.00	388.62	385.88	382.50	377.88	373.00	366.38	359.50	352.88	346.62	340.88	335.75	331.38	327.88	325.25	322.88	320.50	318.25	316.00	313.75	311.00	308.12	304.88	300.75	296.75	293.38	291.00	289.75	288.62	287.62	286.50	285.50	284.50	283.38	283.00	282.38	281.25	279.62	277.50	274.88	271.75	268.25	264.88	262.62	260.50	258.50	256.75	255.00	253.62	252.38	251.50	251.00	251.25	252.25	253.00	254.00	255.38	257.00	258.88	261.00	262.75	264.50	265.62	266.00	266.00	266.00	265.00	264.25	263.25	261.62	260.62	259.50	258.38	256.62	256.00	256.00	256.00	256.00	256.00	256.00	255.12	254.38	252.88	251.62	250.75	250.00	250.00	249.62	249.00	249.00	248.00	246.38	244.88	243.25	242.00	242.00	241.00	240.00	239.12	238.38	238.00	238.12	239.50	241.50	244.00	246.62	249.75	253.12	256.38	259.12	262.25	265.50	268.88	271.62	274.62	277.50	280.12	282.62	285.00	287.88	290.62	293.25	296.00	298.25	299.88	302.25	305.00	307.50	309.75	312.38	314.88	316.88	318.88	321.38	324.12	326.00	327.75	329.75	331.50	333.38	335.12	336.50	337.88	339.62	341.75	343.25	344.38	345.50	346.00	346.88	348.00	349.25	350.12	351.00	351.38	352.00	352.12	353.00	353.00	353.00	352.88	352.75	353.00	352.50	352.00	351.75	350.75	349.62	348.38	346.75	345.50	344.50	342.75	341.12	339.50	337.62	335.75	334.12	332.50	330.62	328.62	326.62	324.38	322.12	320.12	317.50	315.00	312.75	310.12	307.62	305.62	303.12	300.50	297.88	295.12	292.38	289.38	286.62	284.12	281.38	278.12	275.00	271.88	268.50	265.38	262.00	258.00	254.62	251.50	248.12	244.88	241.88	238.12	234.50	231.00	227.50	224.00	220.38	216.88	213.25	209.25	205.75	201.38	197.25
559.75	554.50	548.69	542.38	535.50	528.00	519.93	512.78	506.81	499.16	490.85	483.41	477.12	471.75	467.16	463.03	460.00	458.41	456.81	454.88	453.00	451.50	449.00	445.12	440.28	436.19	432.31	426.84	419.56	411.50	403.31	395.50	389.94	386.09	383.06	380.16	376.75	371.97	366.10	359.50	353.06	347.10	341.16	335.47	331.00	327.59	324.97	322.69	320.40	318.25	316.00	314.22	311.75	308.88	305.90	302.25	298.72	295.35	292.59	291.06	289.84	288.75	287.81	287.00	286.09	285.06	284.50	283.97	282.94	281.69	280.22	277.60	274.38	271.25	268.35	265.63	263.31	260.84	258.81	256.69	254.84	253.69	253.00	252.69	253.59	254.41	255.34	256.44	257.62	258.88	260.75	262.50	264.62	266.19	267.40	268.25	268.25	267.97	267.06	266.12	265.03	264.15	262.97	261.94	260.62	259.34	258.25	258.25	258.25	258.25	258.25	257.88	257.09	256.06	254.75	253.03	251.59	250.28	249.91	249.16	249.00	249.00	248.38	247.31	245.62	244.28	243.50	243.50	242.88	242.25	241.47	241.09	240.62	241.12	242.50	244.78	247.38	250.00	252.75	255.75	259.00	262.13	265.44	268.40	271.50	274.53	277.34	280.12	282.65	285.35	288.00	290.60	293.62	296.25	298.91	301.06	302.88	305.25	307.72	310.22	312.47	314.72	316.94	319.31	321.78	323.72	326.19	328.34	330.47	332.28	334.22	336.19	338.03	339.31	340.88	342.62	344.47	346.16	347.38	348.78	349.66	350.16	351.28	352.44	353.50	354.19	354.85	355.19	355.78	356.00	356.00	356.00	355.97	355.94	356.00	355.69	355.00	354.56	353.56	352.34	351.19	349.75	348.41	347.03	345.47	343.84	342.50	340.53	338.66	337.22	335.69	333.62	331.62	329.62	327.38	325.12	322.94	320.50	317.91	315.38	313.12	310.53	308.25	305.85	303.50	300.88	298.12	295.19	292.47	289.81	287.12	284.09	281.03	278.00	274.59	271.50	268.47	265.00	261.28	258.00	254.78	251.59	248.34	245.06	241.41	237.88	234.47	230.88	227.28	223.56	219.88	216.34	212.44	209.03	204.84	200.72
560.75	555.50	549.44	542.50	535.50	528.00	520.12	512.56	505.50	497.31	489.12	481.56	475.19	469.75	465.62	462.75	460.69	459.75	457.69	455.06	452.94	451.44	449.19	445.31	440.81	436.38	432.19	426.19	418.44	410.38	402.00	394.31	388.75	384.75	381.81	379.25	376.44	371.62	366.25	360.00	353.62	347.31	340.88	334.69	329.81	326.38	323.81	322.12	319.94	317.81	316.00	314.38	312.00	309.56	306.75	303.38	299.88	296.50	293.75	291.94	290.75	289.62	288.81	288.25	287.44	286.62	286.00	285.50	284.56	283.50	282.19	279.81	277.06	274.19	271.62	268.94	266.25	263.50	261.19	259.00	256.81	256.00	255.25	255.25	256.19	257.06	258.25	259.12	260.19	261.12	262.50	264.00	266.00	267.50	268.81	269.88	270.00	269.44	268.88	268.12	267.25	266.50	265.88	264.75	263.31	261.88	260.56	260.50	260.06	260.00	260.00	259.50	258.88	257.88	256.38	254.31	252.62	250.88	249.94	249.00	249.00	249.00	248.75	248.25	246.69	245.56	245.00	245.00	244.75	244.19	243.62	243.50	243.31	244.25	245.75	247.81	250.31	253.12	255.88	258.81	262.12	265.31	268.50	271.44	274.44	277.31	279.94	282.62	285.06	288.06	290.69	293.31	296.44	299.06	301.62	303.81	305.75	308.06	310.56	312.88	315.12	317.19	319.56	322.06	324.44	326.31	328.75	331.06	333.00	334.75	336.81	338.75	340.56	342.19	343.88	345.62	347.38	348.81	350.25	351.56	352.62	353.38	354.50	355.69	356.50	357.25	358.00	358.12	358.81	359.00	359.00	359.00	359.44	359.12	359.00	358.81	358.00	357.44	356.44	355.38	354.25	352.88	351.44	349.88	348.38	346.88	345.38	343.50	341.50	340.06	338.62	336.62	334.56	332.56	330.12	328.00	325.75	323.19	320.62	318.06	315.75	313.31	311.12	308.69	306.25	303.62	301.12	298.06	295.50	292.88	290.12	287.00	284.19	280.88	277.50	274.50	271.44	268.06	264.62	261.38	258.19	255.00	251.50	248.06	244.56	241.12	237.50	234.06	230.69	227.00	223.12	219.44	215.50	212.19	208.00	203.88
562.75	557.44	551.31	544.12	537.00	529.50	521.84	513.85	506.10	497.56	489.62	482.18	475.62	470.25	466.22	464.06	462.81	461.85	458.91	454.84	452.28	450.53	448.38	444.82	440.78	436.03	431.35	425.03	417.40	409.47	401.22	393.97	388.44	384.50	381.78	379.40	376.75	372.12	367.00	361.12	354.66	347.66	340.38	333.66	328.22	324.59	322.19	321.00	319.06	317.12	315.75	314.22	312.12	310.12	307.47	304.25	300.53	297.19	294.47	292.38	291.19	290.12	289.53	289.25	288.56	287.97	287.35	286.88	286.19	285.16	283.75	281.72	279.62	277.00	274.53	272.03	269.12	266.19	263.69	261.62	259.53	259.12	258.25	258.44	259.25	260.19	261.28	261.81	262.75	263.31	264.06	265.38	267.03	268.41	269.75	270.81	271.00	270.44	270.40	270.12	269.66	269.00	268.78	267.69	266.19	264.38	262.94	262.56	261.66	261.50	261.50	261.12	260.75	259.78	258.00	255.72	253.84	251.81	250.34	249.25	249.03	249.00	249.00	248.91	247.88	247.03	246.50	246.50	246.50	245.88	245.50	245.50	245.91	247.16	248.84	250.69	253.19	256.12	258.94	261.94	265.25	268.38	271.38	274.35	277.25	280.00	282.53	285.19	287.53	290.62	293.12	295.97	299.09	301.69	304.09	306.35	308.50	310.88	313.34	315.38	317.69	319.88	322.40	324.88	326.97	328.97	331.38	333.72	335.40	337.22	339.34	341.28	343.12	345.09	346.88	348.62	350.28	351.50	353.03	354.31	355.41	356.50	357.66	358.88	359.38	360.28	361.00	361.19	361.72	362.19	362.25	362.25	362.91	362.25	362.00	361.88	361.00	360.28	359.38	358.44	357.25	355.88	354.47	352.88	351.25	349.78	348.03	346.35	344.31	342.78	341.41	339.56	337.41	335.28	332.81	330.78	328.50	325.85	323.47	320.94	318.40	316.12	314.06	311.50	308.88	306.35	304.03	301.00	298.62	295.90	293.12	290.00	287.28	283.69	280.47	277.44	274.38	271.16	267.94	264.75	261.66	258.44	254.69	251.16	247.75	244.31	240.53	237.28	234.09	230.44	226.47	222.50	218.56	215.22	211.06	206.94
565.75	560.25	554.12	547.50	540.00	532.50	524.38	516.75	509.00	500.38	492.25	485.00	478.25	473.25	469.12	467.25	466.38	464.38	460.12	454.00	450.88	448.38	446.12	443.50	439.75	435.00	430.12	424.00	417.12	409.00	401.12	394.25	389.00	385.25	382.62	380.25	377.50	373.62	368.50	363.00	356.25	348.50	340.00	332.62	326.62	322.62	320.50	319.12	317.75	316.38	315.00	313.75	312.50	310.50	308.12	305.00	301.00	297.75	294.75	292.38	291.00	290.12	290.00	290.00	289.50	289.00	288.38	288.00	287.88	286.75	285.25	283.50	281.88	279.62	276.88	274.38	271.75	268.62	266.12	264.25	263.00	262.88	262.00	262.00	263.00	263.75	264.00	264.25	265.00	265.00	265.38	266.50	267.88	268.88	270.12	271.00	271.00	271.00	271.62	272.00	272.00	272.00	271.12	270.50	269.00	267.00	265.38	264.25	263.25	263.00	263.00	263.00	263.00	261.75	259.88	257.50	255.25	253.12	251.38	250.00	249.12	249.00	249.00	249.00	249.00	248.62	248.00	248.00	248.00	247.38	247.00	247.00	248.25	249.50	251.38	253.50	256.38	259.12	261.75	264.75	267.88	271.00	274.00	276.88	279.50	282.62	285.25	288.00	290.25	292.88	295.38	298.50	301.62	304.12	306.25	308.50	311.12	313.88	315.88	317.62	320.12	322.88	325.12	327.50	329.50	331.50	333.62	335.88	337.75	339.75	341.88	344.00	346.12	348.00	349.88	351.62	353.00	354.50	355.75	357.50	358.50	359.50	360.75	361.88	362.38	363.38	364.00	364.75	365.00	365.75	366.00	366.00	366.00	365.25	365.00	364.88	364.00	363.00	362.38	361.25	359.88	358.50	357.38	355.88	353.88	352.12	350.38	348.88	347.12	345.50	344.12	342.38	340.12	337.62	335.62	333.50	331.12	328.75	326.75	324.12	321.50	319.12	316.88	314.12	311.50	309.25	306.75	304.00	302.00	299.00	296.12	293.00	290.00	286.50	283.38	280.25	277.38	274.25	271.12	268.12	265.12	262.00	258.25	254.62	251.12	247.50	244.00	240.75	237.38	233.62	229.75	225.50	221.75	218.12	214.25	210.12
569.75	565.38	559.38	553.00	545.38	537.62	530.00	522.38	514.12	506.12	498.25	490.50	484.00	478.75	475.75	473.00	471.00	467.25	460.75	453.50	448.25	443.88	441.38	439.12	436.62	433.38	428.75	422.62	415.88	408.00	400.88	394.62	390.38	387.12	384.88	382.88	379.75	375.75	371.50	366.12	359.00	350.62	340.88	332.12	325.25	320.62	317.88	316.00	315.75	315.00	314.00	313.12	312.25	310.75	308.88	306.12	302.38	299.00	295.75	293.12	291.25	290.12	290.00	290.00	290.00	290.00	289.50	289.00	289.50	289.00	287.88	286.75	285.12	282.62	279.25	276.25	273.25	271.12	269.25	268.12	267.38	267.88	267.88	267.00	268.00	267.12	267.00	267.00	266.00	266.12	267.00	267.00	267.88	269.00	270.00	271.00	271.38	272.12	273.00	273.75	274.12	275.00	275.00	274.12	272.25	270.50	268.38	266.50	265.38	265.00	265.00	265.00	265.00	264.25	262.50	260.62	258.25	255.62	253.25	251.62	250.12	250.00	250.00	250.00	250.00	250.00	250.00	250.00	250.00	249.38	249.00	249.38	250.50	252.25	254.75	257.38	260.00	263.00	265.75	268.12	271.38	274.50	277.50	280.38	283.00	285.62	288.25	291.12	293.88	296.88	299.00	301.88	304.62	307.25	310.00	312.38	314.62	316.88	319.12	321.50	323.75	326.12	328.38	330.75	332.88	335.12	337.12	339.12	341.00	343.38	345.38	347.38	349.38	351.50	353.62	355.25	356.75	358.25	359.12	360.62	362.12	363.25	364.62	366.00	366.62	367.00	368.00	368.88	369.00	369.00	370.00	370.00	370.00	369.50	369.00	368.50	367.62	367.00	366.00	364.62	363.38	362.12	360.88	359.62	357.75	356.00	354.25	352.62	351.12	349.75	348.12	346.25	344.12	341.75	339.38	337.25	334.62	332.62	330.75	328.12	325.50	322.88	320.12	317.62	315.12	312.88	310.38	308.50	305.50	302.25	299.75	296.88	293.62	290.25	287.50	284.25	281.38	278.25	275.50	272.88	269.62	266.25	262.62	259.12	255.50	251.75	248.50	245.38	241.75	238.00	233.88	230.38	226.38	222.50	218.38	214.88
572.56	568.84	563.31	556.94	549.12	541.00	532.53	524.53	516.47	509.22	502.38	494.72	488.50	483.53	479.88	477.22	474.00	468.84	460.84	453.03	446.84	441.53	438.19	436.03	434.47	431.31	426.50	420.65	413.81	406.59	399.94	394.44	390.75	387.97	386.00	383.62	380.78	377.62	373.65	368.38	361.44	351.85	341.53	332.03	324.12	319.12	316.38	314.59	314.44	313.78	313.25	313.03	312.25	311.22	309.44	306.88	303.31	299.85	296.50	293.97	292.19	290.88	290.28	290.00	290.00	290.00	289.88	289.75	290.06	289.75	289.10	288.34	286.81	284.31	280.94	277.75	274.75	272.44	271.03	270.28	270.10	270.22	270.12	269.62	270.06	268.90	267.94	267.75	266.84	266.78	267.28	267.75	268.25	269.10	270.09	271.09	271.85	272.78	273.66	274.50	275.44	276.50	276.50	275.91	274.12	272.38	270.15	267.72	266.50	265.75	266.41	266.50	266.50	266.12	264.66	262.78	260.69	257.88	255.41	253.12	251.25	250.75	250.75	250.75	250.75	250.84	251.50	251.50	251.50	251.34	251.25	251.34	252.47	254.41	257.28	260.19	262.62	265.62	268.38	271.12	274.10	277.12	280.31	282.62	285.25	287.88	290.97	293.65	296.31	299.40	302.00	304.50	306.88	309.88	312.25	314.62	316.88	319.40	321.75	323.75	326.00	328.56	330.62	332.81	335.12	337.19	339.56	341.66	343.91	345.90	347.81	350.00	352.00	354.22	355.88	357.69	359.19	360.69	361.84	363.25	364.65	366.06	367.44	368.44	369.44	370.19	371.00	371.60	372.00	372.00	372.25	373.00	373.00	372.50	372.00	371.50	370.44	369.62	368.62	367.53	366.38	365.31	364.25	362.62	360.75	358.81	357.35	355.62	353.94	352.56	350.94	348.97	346.75	344.47	342.28	339.88	337.44	335.44	333.10	330.75	328.50	326.06	323.50	320.62	318.12	315.88	313.38	311.12	308.50	305.72	302.84	299.88	296.81	293.62	290.50	287.25	284.28	281.16	278.50	275.88	272.53	269.06	265.44	262.12	258.59	255.12	251.59	248.19	244.66	241.00	236.88	233.38	229.47	225.59	221.38	217.69
574.00	570.50	565.44	559.00	551.44	542.81	533.50	524.94	517.62	510.75	504.88	498.25	492.81	487.69	483.75	480.12	475.50	469.00	460.50	452.44	445.62	439.94	435.75	433.12	432.19	429.00	424.25	418.19	411.12	404.12	397.69	393.06	390.25	388.25	386.44	384.06	381.62	379.12	375.69	370.31	363.31	353.38	342.56	332.19	323.94	318.56	315.25	313.38	312.75	312.25	312.50	312.62	312.12	311.50	310.06	307.44	304.25	300.94	297.56	294.88	292.81	291.38	290.69	290.19	290.50	290.50	290.50	290.50	290.62	290.50	290.25	289.69	288.25	286.00	282.56	279.00	275.88	273.25	272.06	271.75	272.00	272.00	271.69	271.25	270.75	269.62	268.62	268.00	267.56	267.50	267.69	268.38	268.69	269.50	270.44	271.31	272.25	273.19	274.25	275.50	276.62	277.69	278.00	277.69	276.06	274.12	271.75	269.06	267.56	266.62	267.44	267.88	268.00	267.81	266.44	264.69	262.75	259.88	257.31	254.69	252.62	251.75	251.50	251.50	251.50	251.62	252.50	252.69	253.00	253.25	253.50	253.88	255.06	257.12	259.94	263.00	265.56	268.56	271.25	274.25	277.00	279.81	282.62	285.06	287.75	290.19	293.06	296.00	298.69	301.75	304.69	307.19	309.62	312.44	314.69	317.19	319.56	322.06	324.31	326.38	328.56	331.12	333.12	335.25	337.31	339.38	341.75	344.00	346.38	348.31	350.50	352.44	354.38	356.56	358.25	360.00	361.62	363.12	364.56	366.00	367.44	368.88	370.06	371.06	372.00	373.00	373.81	374.25	374.81	375.00	375.00	375.50	375.50	375.25	374.56	374.19	373.19	372.44	371.31	370.31	369.38	368.25	367.12	365.56	363.62	361.75	360.44	358.62	356.75	355.25	353.75	351.56	349.25	347.12	344.81	342.50	340.38	338.38	336.06	333.69	331.44	328.94	326.25	323.38	321.00	318.88	316.38	313.81	311.44	308.56	305.50	302.75	299.75	296.62	293.31	290.25	287.31	284.12	281.50	278.75	275.31	271.75	268.38	265.06	261.56	258.12	254.50	251.06	247.62	244.12	239.88	236.12	232.25	228.50	224.50	220.50
574.39	570.80	566.00	559.62	552.35	543.31	533.33	524.33	517.67	511.01	505.90	500.48	495.86	490.51	486.53	481.81	476.12	468.76	460.31	452.19	445.04	439.17	434.30	431.06	430.11	426.81	422.22	415.76	408.54	401.59	395.38	391.49	389.47	388.19	386.50	384.38	382.30	380.20	377.12	371.65	364.47	354.72	343.62	332.58	324.25	318.58	314.65	312.51	311.33	310.99	311.88	312.09	311.97	311.55	310.50	307.88	305.01	301.92	298.59	295.72	293.38	291.85	291.12	290.50	291.00	291.00	291.00	291.08	291.12	291.12	291.25	290.70	289.40	287.42	283.94	280.08	276.70	273.78	272.56	272.56	273.00	272.99	272.44	271.91	270.62	269.66	268.92	268.00	268.01	268.12	268.12	268.86	269.14	270.01	270.78	271.50	272.56	273.45	274.72	276.41	277.53	278.55	279.24	279.14	277.67	275.58	273.05	270.26	268.44	267.47	268.12	268.89	269.14	269.01	267.75	266.16	264.26	261.44	258.83	256.08	253.97	252.75	252.22	252.12	252.12	252.25	253.16	253.59	254.28	254.88	255.47	256.28	257.53	259.59	262.17	265.31	268.11	271.12	273.72	276.81	279.49	282.06	284.47	287.17	289.86	292.11	294.67	297.81	300.60	303.62	306.75	309.38	312.00	314.55	316.83	319.38	321.86	324.25	326.39	328.65	330.78	333.22	335.28	337.39	339.22	341.33	343.53	345.88	348.24	350.25	352.72	354.42	356.29	358.39	360.25	361.89	363.64	365.16	366.78	368.28	369.79	371.19	372.17	373.30	374.06	375.19	376.05	376.50	377.05	377.44	377.50	377.50	377.50	377.47	376.61	376.30	375.41	374.80	373.61	372.62	371.81	370.55	369.33	367.96	365.99	364.22	362.97	361.11	359.12	357.44	356.01	353.70	351.35	349.33	346.83	344.74	342.85	340.81	338.69	336.19	333.85	331.22	328.38	325.64	323.39	321.31	318.80	316.05	313.83	310.75	307.66	305.06	302.11	299.05	295.67	292.75	289.88	286.70	284.01	281.06	277.56	274.03	270.94	267.50	263.95	260.44	256.84	253.49	250.10	246.71	242.41	238.38	234.53	230.92	227.12	222.97
573.62	569.38	564.25	558.75	551.25	542.00	531.25	522.25	515.38	509.38	505.25	501.25	497.50	492.38	488.50	483.12	477.00	469.75	461.62	453.50	446.25	439.50	433.75	429.75	426.50	422.88	418.50	411.50	404.50	397.88	392.75	389.62	388.38	387.75	386.50	385.25	383.50	381.62	378.00	372.75	365.12	356.25	345.38	334.00	325.12	319.12	314.88	311.75	310.12	310.00	311.00	311.00	311.75	311.00	310.50	308.75	306.00	303.12	300.12	297.25	295.12	293.38	292.00	291.38	291.00	291.00	291.00	291.62	292.00	292.00	293.00	292.12	291.38	289.50	286.12	282.38	278.12	274.88	273.00	273.00	273.00	272.88	272.00	271.25	269.75	269.00	268.38	268.00	268.12	269.00	269.00	269.62	270.12	271.00	271.00	271.50	273.00	274.00	275.38	277.50	278.62	279.75	280.88	281.00	279.75	277.88	275.12	272.12	269.75	269.00	269.00	269.88	270.12	270.00	269.50	268.12	266.12	263.62	261.12	258.38	256.38	254.50	253.75	253.00	253.00	253.12	254.25	255.12	256.25	257.50	258.75	260.00	261.25	262.88	265.12	268.38	271.50	274.62	277.00	279.88	282.88	285.12	287.75	290.12	292.38	294.62	297.62	300.00	303.00	306.25	309.38	312.00	314.62	317.50	320.00	322.00	324.38	326.88	329.12	331.50	333.62	335.62	338.12	340.12	342.50	344.50	346.38	348.50	350.75	352.88	355.12	357.38	359.25	361.12	362.88	364.62	366.38	368.00	369.62	371.12	372.75	374.25	375.12	376.25	377.12	378.25	379.00	380.00	380.00	380.50	381.00	381.00	381.00	380.75	380.00	379.25	378.25	377.75	377.00	376.12	374.88	373.50	372.50	371.12	369.38	367.50	366.25	364.50	362.62	360.50	358.75	356.88	354.62	352.50	350.00	348.12	346.12	343.88	341.75	339.25	337.12	334.50	331.88	329.25	327.00	324.38	321.75	319.00	317.00	314.25	311.38	308.12	305.50	302.88	299.50	296.25	293.38	290.75	287.62	284.12	280.62	277.75	274.88	271.00	267.12	263.50	260.12	256.88	253.38	249.88	246.12	241.88	238.25	234.75	230.62	227.12
571.12	566.50	561.12	554.75	546.88	537.88	528.12	519.25	512.38	507.62	504.25	501.25	497.75	493.75	489.50	484.62	478.88	472.88	465.88	457.38	449.12	441.38	434.12	428.38	424.00	420.00	413.88	407.00	400.25	394.25	389.75	387.00	387.00	387.25	387.12	386.12	384.12	381.25	377.38	372.38	365.38	356.62	346.75	336.62	327.88	321.50	316.12	312.25	310.00	309.12	309.75	310.00	310.88	310.38	310.00	308.62	306.50	303.88	301.12	298.88	296.88	294.88	293.38	292.38	291.62	291.00	291.00	291.50	292.00	293.00	293.12	294.00	293.62	291.88	289.12	285.12	280.62	276.38	273.25	272.12	271.75	271.00	270.12	269.50	268.75	268.00	268.00	268.00	268.88	269.00	269.62	270.75	271.38	272.00	272.00	272.12	273.38	274.38	275.62	277.25	278.62	280.38	281.62	282.00	281.38	279.62	277.75	275.00	272.50	271.38	271.00	271.38	272.00	271.75	270.75	269.62	268.00	266.12	263.50	261.50	259.62	257.62	256.50	255.88	255.00	255.00	255.75	257.38	258.62	260.00	261.38	263.38	265.25	266.62	269.12	272.00	275.00	278.00	281.25	284.25	286.38	288.62	290.75	293.12	295.50	298.12	300.88	303.50	306.50	309.75	312.38	315.00	317.50	320.25	322.88	325.00	327.62	330.25	332.88	335.12	337.12	339.38	341.00	343.12	345.25	347.62	350.12	352.00	354.00	355.88	358.12	360.12	362.50	364.50	366.38	367.62	369.75	371.50	373.38	374.88	376.00	377.50	378.75	379.62	380.50	381.00	382.00	382.75	383.38	384.00	384.00	384.00	384.00	384.00	383.00	382.25	381.38	381.00	380.00	379.00	378.00	376.75	375.50	373.62	372.38	371.12	369.75	368.38	366.38	364.12	362.50	360.62	358.50	355.88	353.88	351.88	349.88	347.75	345.38	343.12	341.12	338.62	336.12	333.62	331.00	328.25	325.75	323.00	321.00	318.25	315.12	312.00	309.50	306.75	303.75	300.88	297.50	294.75	291.38	288.12	284.88	281.75	278.50	275.00	270.88	267.25	264.00	260.50	257.00	253.38	250.12	246.25	242.50	238.88	234.75	231.25
569.64	564.62	559.25	552.72	545.15	536.08	526.87	518.47	511.99	507.70	504.56	501.80	498.84	494.92	490.36	484.78	479.26	473.74	467.20	458.78	450.45	442.16	433.89	427.44	422.28	418.05	411.76	405.05	398.45	392.84	388.89	386.45	387.00	387.88	387.99	386.75	384.12	380.86	376.83	371.60	365.06	356.86	347.69	338.35	330.14	323.61	317.76	313.19	309.76	308.65	308.97	309.38	309.70	309.51	309.14	308.00	306.11	303.88	301.51	299.50	297.50	295.50	294.00	292.92	291.86	291.08	291.00	291.26	292.00	292.76	293.20	294.00	294.25	292.89	290.38	286.38	281.95	277.39	273.64	271.97	270.89	269.99	268.95	268.40	267.65	267.38	267.61	268.00	268.88	269.15	270.10	271.38	271.76	272.55	272.62	272.67	273.38	274.22	275.47	276.94	278.39	280.06	281.47	282.15	282.24	280.95	279.24	276.56	274.14	272.55	272.25	272.39	272.62	272.53	271.77	270.49	269.10	267.45	265.30	263.45	261.81	260.20	259.00	257.75	256.88	256.56	257.00	258.62	260.19	261.72	263.33	265.25	267.36	269.12	271.39	274.11	277.19	280.26	283.44	286.05	288.33	290.66	292.94	295.47	297.69	300.31	302.99	305.61	308.69	311.39	314.10	316.88	319.14	321.89	324.59	326.88	329.50	332.12	334.75	337.00	339.00	341.33	343.03	345.00	347.12	349.42	351.85	353.95	356.03	358.14	359.85	362.00	364.30	366.53	368.25	369.89	372.01	373.77	375.49	376.99	378.11	379.38	380.55	381.26	382.14	382.88	383.88	384.70	385.56	385.88	385.88	385.88	385.88	385.56	384.88	384.05	383.40	382.88	381.88	380.88	379.79	378.47	377.30	375.89	374.56	373.24	371.78	370.33	368.25	366.24	364.53	362.66	360.38	358.14	356.30	354.22	352.22	349.70	347.56	345.08	343.08	340.81	338.47	336.05	333.50	330.75	328.25	325.50	323.50	320.75	317.62	314.58	311.76	308.94	305.86	303.14	299.92	297.09	293.64	290.55	287.61	284.41	280.92	277.50	273.53	269.90	266.26	262.76	259.26	255.88	252.47	248.83	245.16	241.53	237.48	233.98
566.75	561.50	556.25	550.50	543.88	536.00	528.00	520.75	515.62	511.62	508.25	505.25	501.75	497.25	491.00	484.12	478.50	472.25	466.88	459.50	451.50	442.25	432.50	424.50	418.38	413.00	406.88	401.38	396.12	391.88	388.50	387.88	388.38	389.00	388.75	387.12	384.38	380.25	375.50	370.12	364.25	357.25	350.00	342.38	335.12	328.88	322.12	316.00	310.62	308.25	307.00	307.00	307.50	308.00	307.62	306.75	305.12	303.12	301.38	299.88	298.50	296.88	295.75	294.25	292.25	291.38	291.00	290.25	291.00	291.88	292.88	293.25	294.00	293.50	291.38	287.75	284.00	278.75	273.75	270.75	269.12	267.88	266.88	266.00	266.00	266.50	267.00	267.50	268.38	269.50	270.75	272.25	273.00	273.12	274.00	274.00	274.00	274.00	274.25	275.12	276.12	277.50	279.38	280.88	281.88	282.00	280.75	279.12	277.12	275.25	275.00	275.00	275.00	274.62	273.50	272.50	271.25	270.25	269.38	267.88	266.62	265.38	264.75	263.25	262.00	261.12	261.00	262.12	263.62	265.50	267.25	269.38	271.88	274.25	276.75	279.25	282.12	285.25	288.25	290.88	293.12	295.62	297.75	300.38	303.00	305.25	307.88	310.50	313.12	315.38	318.00	320.50	323.12	325.50	328.38	330.75	333.12	336.25	338.62	340.88	343.12	345.38	347.62	350.00	351.62	353.38	355.62	358.00	360.12	362.38	364.12	366.00	368.25	370.38	372.38	374.25	376.25	378.12	379.75	381.00	382.38	383.50	384.62	385.62	386.50	387.25	388.00	388.88	389.62	390.00	390.00	390.00	390.00	389.75	389.00	388.50	388.00	387.00	386.00	384.88	383.62	382.25	381.00	380.00	378.75	377.12	375.75	374.50	372.62	370.88	368.88	366.88	364.50	363.00	361.25	359.12	356.88	354.75	352.38	350.12	347.50	345.12	343.00	340.75	338.50	335.88	333.12	330.62	328.38	325.25	322.75	320.00	317.12	314.25	311.12	308.12	305.00	302.12	298.88	295.62	292.88	289.50	286.00	282.88	279.50	275.50	271.50	267.88	264.38	261.12	257.62	254.12	250.62	247.12	243.00	239.25
566.00	561.31	556.72	551.62	545.38	538.62	531.85	525.25	520.12	515.75	512.28	509.00	504.66	499.12	491.75	484.22	477.66	471.50	465.47	458.00	450.00	440.09	430.72	422.62	416.69	411.50	406.03	401.28	396.12	392.25	389.25	388.72	389.03	389.66	388.84	387.22	384.38	380.06	375.50	369.65	363.97	357.53	351.41	344.81	338.03	331.60	324.85	318.25	312.78	308.81	306.25	306.25	306.47	307.16	306.40	305.91	304.38	302.56	300.91	299.78	298.78	297.44	296.22	294.72	292.72	291.38	290.62	289.88	290.25	290.75	291.85	292.31	292.50	292.19	290.44	287.47	283.25	278.66	273.75	270.28	268.19	266.85	265.94	265.25	265.25	265.56	266.25	266.75	267.81	269.12	270.47	271.78	273.00	273.69	274.00	273.25	273.25	273.25	273.31	273.35	273.88	275.25	277.31	278.81	280.47	281.25	280.94	279.88	278.06	276.38	275.75	275.75	275.75	275.19	274.44	273.53	272.56	271.94	271.25	270.22	269.25	268.38	267.75	266.34	265.09	264.12	264.00	264.56	266.06	267.84	269.88	272.19	274.69	276.97	279.28	281.97	284.75	287.78	290.88	293.12	295.38	297.78	300.38	303.00	305.25	307.50	310.12	312.75	315.38	317.53	320.53	322.94	325.38	327.56	330.35	332.81	335.19	338.22	340.78	342.94	345.19	347.62	349.78	352.16	353.97	355.72	357.88	360.16	362.28	364.62	366.56	368.25	370.40	372.34	374.15	376.31	378.12	380.10	381.91	383.16	384.44	385.56	386.69	387.78	388.47	389.31	390.16	391.12	391.50	392.25	392.25	392.25	391.97	391.44	391.25	390.75	389.78	388.88	388.15	387.12	385.69	384.31	383.53	381.97	380.72	379.66	378.47	376.75	374.69	373.03	371.12	369.12	366.75	364.97	363.31	361.38	359.12	357.00	354.81	352.47	350.22	347.94	345.72	343.00	340.85	338.22	335.38	333.15	330.44	327.22	325.00	322.25	319.65	316.88	313.84	310.65	307.53	304.47	301.50	298.25	294.94	291.56	288.62	285.69	282.03	278.22	274.12	270.22	266.62	263.38	259.97	256.47	252.88	249.84	245.81	241.97
565.62	561.62	557.56	553.00	547.81	541.88	535.62	529.75	524.94	520.38	516.44	512.50	507.38	500.75	492.69	484.75	477.69	471.06	464.38	456.69	448.38	438.50	429.25	421.50	415.69	410.88	406.19	401.75	396.94	393.06	390.31	389.31	389.12	389.44	388.94	387.25	384.00	379.81	375.00	369.00	363.38	357.81	352.62	346.94	340.56	334.12	327.25	320.38	314.44	309.25	305.69	305.00	305.00	305.75	305.31	304.81	303.50	302.00	300.56	299.44	298.94	297.75	296.56	295.19	293.19	291.56	290.31	289.38	289.00	289.31	290.38	291.00	291.00	290.88	289.44	287.00	282.94	278.69	273.75	270.44	268.06	266.50	265.44	265.00	265.00	265.12	265.50	266.12	267.50	268.75	270.06	271.56	272.81	273.50	273.69	272.75	272.44	272.00	271.81	271.38	271.56	272.44	274.38	276.38	278.62	279.88	280.00	279.56	278.25	277.06	276.50	276.50	276.12	275.69	274.94	274.44	274.00	273.75	273.19	272.44	271.56	270.62	269.88	268.62	267.56	266.62	266.50	267.19	268.50	270.19	272.44	275.00	277.38	279.50	282.00	284.88	287.38	290.38	293.25	295.38	297.81	300.31	302.88	305.38	307.56	310.19	312.56	315.25	317.75	320.06	322.88	325.19	327.50	329.75	332.25	335.00	337.25	340.06	342.69	344.94	347.31	349.75	351.94	354.31	356.25	358.00	360.12	362.38	364.44	366.75	368.88	370.50	372.50	374.56	376.31	378.44	380.38	382.12	384.00	385.25	386.81	387.88	388.75	389.81	390.62	391.69	392.44	393.44	393.56	394.00	394.12	394.12	393.81	393.50	393.50	393.12	391.88	391.00	390.38	389.25	387.88	386.62	385.69	384.12	382.88	381.94	380.62	379.00	376.75	375.00	373.31	371.38	369.00	367.31	365.50	363.62	361.38	359.25	357.12	354.75	352.69	350.50	348.25	345.44	343.12	340.62	337.94	335.31	332.56	329.56	327.06	324.31	321.75	319.00	315.94	313.00	309.94	307.00	303.69	300.50	297.25	294.00	291.06	288.12	284.50	280.69	276.75	272.81	269.19	265.75	262.38	259.00	255.44	252.25	248.38	244.56
565.40	562.10	558.47	554.50	550.35	545.06	539.22	534.12	529.81	525.22	520.69	515.75	510.03	502.31	493.72	485.38	478.12	470.81	463.50	455.66	447.09	437.69	428.59	421.28	415.81	411.35	407.22	402.90	398.56	394.38	391.44	389.62	388.85	388.72	388.47	386.75	383.40	379.38	374.25	368.40	363.03	358.25	353.72	348.69	342.53	336.12	329.09	321.97	315.22	309.31	305.06	303.25	303.22	304.06	304.22	303.53	302.47	301.28	300.12	299.09	298.90	297.90	297.00	295.69	293.66	291.78	290.12	288.88	287.88	287.94	288.84	289.50	289.75	289.75	288.56	286.53	283.00	278.90	274.00	270.97	268.44	266.62	265.34	265.00	265.03	265.25	265.25	265.81	267.38	268.50	269.75	271.31	272.38	272.84	273.03	272.22	271.50	270.56	270.00	269.38	269.25	269.72	271.40	273.88	276.44	278.16	278.72	278.75	278.09	277.44	277.00	277.00	276.44	276.25	275.44	275.25	275.25	275.25	274.88	274.38	273.44	272.28	271.38	270.22	269.44	268.62	268.75	269.69	270.97	272.62	274.94	277.62	279.97	282.00	284.78	287.75	290.09	292.97	295.50	297.75	300.38	302.90	305.25	307.62	309.97	312.88	315.06	317.75	320.15	322.72	325.09	327.35	329.62	332.00	334.38	337.25	339.38	341.97	344.44	346.88	349.50	351.81	354.10	356.44	358.53	360.34	362.56	364.60	366.62	368.81	371.12	372.81	374.62	376.84	378.62	380.62	382.75	384.31	386.12	387.44	389.22	390.19	390.84	391.81	392.81	394.03	394.72	395.62	395.75	395.75	395.94	395.94	395.75	395.69	395.69	395.31	394.09	393.31	392.53	391.34	390.19	388.97	387.72	386.44	385.19	384.06	382.53	381.16	378.88	376.97	375.43	373.56	371.25	369.66	367.69	365.88	363.62	361.50	359.38	357.00	354.97	352.72	350.44	347.78	345.35	342.90	340.34	337.22	334.75	331.90	329.00	326.38	323.75	321.00	318.03	315.25	312.25	309.44	305.75	302.56	299.53	296.38	293.25	290.25	286.81	283.00	279.25	275.44	271.81	268.12	264.75	261.56	258.00	254.50	250.69	246.91
565.12	562.38	559.12	556.00	552.12	547.50	542.50	538.25	534.50	530.00	525.00	518.75	512.75	504.00	494.75	485.75	478.50	470.62	462.75	455.00	446.62	437.88	429.25	422.12	417.50	413.12	409.00	404.88	401.00	396.25	392.38	389.62	388.38	387.88	386.88	385.25	382.75	378.62	373.50	368.12	363.50	359.00	354.75	350.00	343.75	337.25	330.12	322.62	314.75	308.75	304.12	301.00	301.25	302.38	303.00	302.12	301.25	300.25	299.38	299.00	298.62	298.00	297.75	296.25	294.12	291.88	290.12	288.50	287.50	287.00	287.62	288.00	289.00	289.00	288.00	286.25	283.38	279.38	274.75	271.62	269.00	267.00	265.62	265.00	265.12	266.00	266.00	266.00	267.38	268.50	269.75	270.75	271.62	272.00	272.00	271.38	270.38	269.25	268.12	267.50	267.00	267.75	269.25	271.62	274.00	276.38	277.88	278.00	278.00	277.62	277.00	277.00	277.00	277.00	276.38	276.00	276.00	276.00	276.00	275.88	274.75	273.50	272.50	271.25	270.75	270.12	271.00	271.75	273.50	275.25	277.38	279.88	282.50	284.62	287.50	290.38	293.00	295.50	297.75	300.38	303.00	305.25	307.50	309.88	312.50	315.12	317.50	320.00	322.50	325.25	327.25	329.50	331.88	334.25	337.00	339.50	341.62	344.12	346.12	348.75	351.75	353.88	356.25	358.50	360.88	362.88	365.38	366.75	368.88	370.88	373.38	375.25	376.88	379.00	380.88	382.88	385.00	386.75	388.38	389.88	391.38	392.25	393.00	393.88	394.88	396.00	396.88	397.50	398.00	398.00	398.00	398.00	398.00	397.75	397.75	397.00	396.25	395.75	394.50	393.50	392.62	391.12	389.88	388.88	387.62	386.12	384.50	383.12	381.12	379.12	377.50	375.62	373.50	371.62	369.75	368.12	365.88	363.75	361.62	359.25	357.12	354.50	352.12	349.75	347.50	344.88	342.12	339.00	337.00	333.88	330.88	328.62	326.00	323.25	320.75	317.50	314.50	311.50	308.00	304.62	301.50	298.25	295.12	292.12	288.88	285.25	281.50	277.88	274.25	270.38	267.00	264.00	260.25	256.75	252.75	248.88
564.03	561.61	559.12	556.88	553.76	549.90	545.35	540.99	536.58	532.41	527.62	521.70	515.04	505.97	496.50	486.62	477.74	469.75	461.76	454.45	446.84	439.08	431.76	425.08	420.78	416.85	412.28	407.83	402.86	397.67	392.70	388.97	386.85	385.69	384.80	383.50	381.00	377.64	373.28	368.12	363.39	359.44	355.19	350.00	344.08	337.47	329.36	321.20	313.33	307.00	302.15	299.36	299.28	299.75	300.38	300.59	300.16	299.38	299.05	299.00	298.95	298.88	298.74	297.35	295.22	292.64	290.67	288.94	287.83	287.00	287.19	288.00	288.78	289.00	288.76	287.45	284.91	281.34	276.83	273.15	270.10	268.31	267.05	266.75	266.76	267.09	267.75	268.19	268.80	269.59	270.30	270.97	271.08	271.12	271.12	270.39	269.50	268.59	267.25	266.19	266.12	266.22	267.50	270.20	272.25	274.74	276.56	277.12	277.12	277.08	277.00	277.00	277.00	277.00	276.92	276.88	276.88	277.09	277.53	276.86	275.62	274.38	273.16	272.12	271.84	271.22	272.31	273.61	275.58	278.10	280.65	283.38	285.45	288.01	290.67	293.44	296.06	298.67	301.03	303.44	305.62	307.76	310.12	312.50	315.12	317.75	319.91	322.29	325.01	327.76	329.88	332.12	334.72	337.42	339.62	342.01	344.25	346.53	349.08	351.70	354.26	356.50	358.76	360.90	363.39	365.50	367.78	369.26	371.39	373.50	375.78	377.99	379.61	381.62	383.72	385.28	387.62	389.59	391.22	392.50	393.67	394.55	395.52	396.72	397.61	398.41	398.96	399.69	400.30	400.62	400.30	399.75	399.75	399.72	399.72	399.51	398.66	398.16	397.12	396.24	395.03	393.53	392.50	391.28	390.03	388.42	387.01	385.31	383.75	381.64	379.91	378.25	376.12	374.03	371.94	370.31	368.28	366.04	363.60	361.65	359.75	357.12	354.53	352.38	350.12	347.50	344.75	342.17	339.19	336.50	333.72	331.03	328.19	325.88	322.83	319.79	316.90	313.69	310.51	307.58	304.24	301.10	297.64	294.53	291.28	287.88	284.01	280.50	276.65	273.00	269.29	266.08	262.88	259.26	255.38	251.50
563.25	561.19	558.97	556.69	554.08	551.03	547.00	542.31	537.97	533.53	528.78	523.22	515.84	506.88	497.38	487.06	477.55	468.85	460.38	453.36	446.88	440.42	433.76	428.24	423.99	420.11	415.25	409.89	403.91	397.64	392.05	387.47	384.91	383.26	382.62	381.30	379.26	376.49	372.62	367.97	363.38	359.19	354.78	350.00	343.65	336.64	328.31	319.83	311.80	305.26	300.63	297.80	297.12	297.50	298.12	298.89	299.38	299.10	299.00	299.08	299.62	299.62	299.58	298.36	296.47	294.00	291.69	289.94	288.89	288.25	288.30	289.10	289.53	289.62	289.58	288.64	286.22	282.64	278.38	274.55	271.42	269.67	268.89	268.88	268.88	268.97	269.72	270.06	270.25	270.53	270.76	271.00	271.00	271.00	270.76	270.02	269.14	268.35	267.05	266.00	265.61	265.45	266.62	268.83	271.14	273.56	275.60	276.38	276.38	276.38	276.53	277.00	277.00	277.00	277.00	277.62	277.62	278.11	278.45	277.39	276.14	274.81	273.56	272.64	272.00	272.00	273.44	275.05	277.44	280.14	283.00	285.75	288.14	290.84	293.39	295.75	298.38	301.00	303.38	305.67	307.88	310.00	312.53	315.06	317.61	319.85	322.12	324.73	327.33	330.00	331.97	334.38	337.31	339.75	341.88	344.17	346.42	348.75	351.38	354.00	356.50	358.75	361.00	363.12	365.47	367.59	369.61	371.27	373.47	375.67	378.00	380.09	381.72	383.88	386.00	387.50	389.56	391.56	392.95	394.36	395.64	396.67	397.67	398.85	399.56	400.31	400.97	401.72	402.11	402.25	402.11	401.88	401.88	401.88	401.80	401.20	400.80	400.06	399.06	398.19	397.01	395.67	394.67	393.42	391.94	390.39	388.94	387.42	385.76	383.88	381.89	380.35	378.38	376.25	373.97	372.19	370.03	367.86	365.60	363.40	361.45	358.99	356.28	354.24	351.75	349.36	346.76	344.11	341.14	338.75	335.84	333.02	330.38	327.89	325.00	322.23	319.28	315.88	312.60	309.49	306.26	303.22	299.88	296.60	293.26	290.05	286.25	282.60	278.88	275.17	271.50	268.10	264.97	261.35	257.55	253.36
562.45	560.58	558.60	556.50	554.40	551.88	548.12	543.44	538.86	534.10	529.16	523.78	516.12	507.39	497.75	487.30	477.69	468.00	459.25	452.28	446.69	441.26	435.69	431.10	427.08	423.11	418.06	411.81	404.99	397.69	391.39	385.97	382.85	380.92	380.24	378.96	377.48	375.17	371.92	367.74	363.42	358.86	354.08	349.25	342.53	335.33	327.10	318.70	310.62	304.05	299.74	296.67	295.35	295.49	296.15	297.20	298.20	298.53	298.86	299.40	300.28	300.38	300.38	299.44	297.69	295.50	293.19	291.44	290.44	289.89	290.12	290.60	290.75	290.75	290.75	289.90	287.53	283.76	279.60	275.77	272.73	270.99	270.44	270.75	270.75	270.94	271.60	271.75	271.75	271.75	271.70	271.38	271.33	271.00	270.72	269.92	269.14	268.35	267.28	266.19	265.47	265.08	266.11	267.75	270.25	272.67	274.75	275.95	276.00	276.00	276.15	276.62	276.62	276.90	277.00	278.14	278.38	278.76	278.83	277.72	276.52	275.19	273.94	273.30	272.75	273.17	274.80	276.64	279.31	282.15	285.06	287.90	290.62	293.38	295.88	298.19	300.81	303.30	305.62	307.88	310.08	312.25	314.88	317.50	319.91	322.00	324.38	327.12	329.62	332.15	334.12	336.62	339.56	342.00	344.12	346.38	348.58	351.00	353.62	356.25	358.65	360.91	363.25	365.33	367.62	369.75	371.62	373.38	375.53	377.83	380.15	382.06	383.78	385.99	388.06	389.70	391.53	393.49	394.88	396.47	397.65	398.78	399.83	400.77	401.49	402.28	403.08	403.64	404.12	404.12	404.12	404.12	404.12	404.12	403.67	403.12	402.72	401.85	401.08	400.15	398.99	397.92	396.78	395.49	393.90	392.40	390.86	389.49	387.83	386.08	383.95	382.31	380.30	378.26	376.08	374.25	372.00	369.88	367.75	365.38	363.38	361.00	358.25	356.06	353.44	351.00	348.60	345.98	343.25	340.86	337.81	335.03	332.62	329.76	327.11	324.25	321.39	318.17	314.75	311.40	308.24	305.28	302.08	298.56	295.24	292.01	288.36	284.70	281.03	277.38	273.65	270.11	266.94	263.40	259.75	255.52
561.62	559.76	558.10	556.53	554.92	552.56	548.85	544.46	539.30	534.25	528.92	523.44	516.00	507.58	497.75	487.36	477.88	467.28	458.47	451.26	446.17	441.47	437.36	433.33	429.75	425.60	420.50	413.69	406.29	398.33	391.22	385.00	381.12	379.08	377.97	376.83	375.81	373.92	371.33	367.47	363.50	358.62	353.36	347.83	340.86	333.74	325.83	317.94	310.00	303.50	299.50	296.17	294.24	293.89	294.53	295.59	296.62	297.61	298.58	299.83	300.70	301.03	301.12	300.47	298.83	297.01	295.12	293.47	292.50	291.85	292.38	292.34	292.25	292.25	292.25	291.25	288.81	284.84	280.56	276.76	273.91	272.17	271.58	272.12	272.25	272.69	273.22	273.25	273.25	273.14	273.01	272.12	271.94	271.11	270.89	270.03	269.40	268.56	267.79	266.58	265.67	265.00	265.81	267.06	269.50	271.92	273.94	275.70	275.88	275.88	275.88	275.94	276.00	276.66	276.94	278.25	278.88	278.95	278.67	277.89	276.78	275.58	274.38	274.22	274.31	274.89	276.50	278.53	281.25	284.21	286.99	289.94	292.81	295.61	298.12	300.80	303.38	305.61	307.88	310.10	312.25	314.50	317.12	319.75	322.00	324.25	326.71	329.42	331.86	334.25	336.38	338.85	341.47	344.22	346.38	348.60	350.75	353.22	355.80	358.39	360.72	362.99	365.47	367.50	369.84	371.99	373.86	375.61	377.61	379.97	382.19	383.94	385.85	387.99	390.00	391.84	393.57	395.42	397.08	398.80	399.75	400.91	402.00	402.67	403.55	404.42	405.26	405.51	406.38	406.38	406.38	406.38	406.38	406.38	405.42	405.36	404.49	403.66	403.24	402.25	401.01	400.24	398.85	397.44	395.94	394.42	392.85	391.44	389.90	388.14	386.06	384.22	381.99	380.08	378.14	376.39	374.20	372.12	369.97	367.60	365.53	363.16	360.47	357.94	355.36	352.60	350.26	347.89	345.42	342.80	339.69	337.03	334.80	331.58	329.00	325.80	323.19	320.42	316.97	313.49	310.20	307.31	304.14	300.44	297.20	293.78	290.30	286.86	283.11	279.62	275.74	272.12	268.81	265.40	261.89	257.94
560.75	559.00	557.88	556.75	555.25	553.00	549.50	545.00	539.62	534.25	528.38	522.12	515.12	507.25	497.75	487.25	477.00	466.62	457.38	449.62	444.75	441.25	438.12	434.75	431.50	427.12	422.25	415.88	408.38	400.62	392.75	385.88	381.12	378.75	376.88	375.62	374.50	373.38	371.00	367.25	363.50	358.62	353.25	346.62	339.00	331.88	324.62	317.50	310.00	303.50	299.50	296.50	294.12	293.12	293.00	293.62	294.88	296.62	298.25	299.50	300.38	301.25	302.00	301.12	300.25	298.88	297.75	296.75	296.00	295.12	295.00	294.75	294.00	294.00	294.00	293.00	290.12	286.38	281.88	277.75	275.00	273.38	273.00	273.00	274.00	274.00	274.75	275.00	275.00	274.12	274.00	273.00	272.38	271.88	271.00	270.25	269.62	269.00	268.12	267.12	266.00	265.00	265.38	266.62	268.62	270.50	272.62	274.50	275.00	275.00	275.00	275.50	276.00	276.00	276.50	277.38	278.00	278.62	278.12	278.00	277.00	276.12	275.25	275.75	276.50	277.62	279.12	281.38	283.88	286.50	289.50	292.12	295.00	298.12	300.75	303.75	306.00	308.12	310.50	312.50	314.88	317.12	319.75	322.38	324.62	326.88	329.88	332.38	334.38	336.88	339.00	341.25	343.88	346.62	349.00	351.00	353.38	355.62	357.88	360.25	363.12	365.50	367.88	370.12	372.25	374.50	376.38	378.12	380.12	382.38	384.38	386.12	388.25	390.50	392.62	394.25	395.75	397.50	399.38	400.88	402.38	403.75	404.62	405.62	406.50	407.38	408.00	408.25	409.00	409.00	409.00	409.00	409.00	409.00	408.38	407.88	407.00	406.50	405.75	404.88	403.75	402.75	401.25	399.62	398.12	396.50	395.25	393.62	391.88	390.00	388.25	386.62	384.50	382.38	380.00	378.25	376.50	374.75	372.38	370.00	367.50	365.12	362.88	360.12	357.88	355.00	352.12	349.75	347.50	344.88	341.88	339.00	336.88	333.88	330.75	327.88	325.38	322.50	319.38	316.00	312.50	309.50	306.00	302.62	299.50	295.75	292.38	289.38	285.62	282.25	278.25	274.75	271.00	267.38	263.75	260.12
560.47	558.35	557.22	556.19	554.97	552.91	549.41	544.81	539.44	533.22	527.15	521.00	514.37	506.78	497.66	487.25	477.00	466.62	457.19	448.97	443.72	440.60	438.41	435.78	432.81	428.81	424.12	418.12	411.47	404.56	396.88	389.90	384.50	380.81	378.38	376.19	374.50	372.81	370.53	367.25	364.16	359.38	353.44	346.25	338.62	331.69	325.00	318.34	311.69	305.47	301.09	297.72	294.97	293.69	293.00	293.15	294.41	295.88	297.12	298.75	299.91	300.97	301.25	301.03	300.81	300.19	299.44	299.19	299.00	298.03	297.62	297.19	296.53	296.25	295.41	294.22	291.44	287.88	283.00	278.78	275.75	274.12	273.75	273.75	274.00	274.56	274.94	275.00	275.47	274.97	274.66	273.38	272.75	271.97	271.00	270.44	269.90	269.00	268.50	267.41	266.28	265.38	265.10	266.25	267.88	269.47	271.88	273.47	274.25	274.25	274.25	274.38	274.50	274.97	275.84	276.72	277.72	278.15	278.03	277.44	277.00	276.78	276.65	277.44	278.47	279.97	281.66	283.44	286.12	288.75	291.47	294.19	297.15	299.90	303.00	305.34	307.88	310.19	312.19	314.47	317.03	319.19	321.81	324.53	326.78	329.31	332.22	334.53	336.62	338.94	341.25	343.31	345.94	348.60	351.16	353.25	355.44	357.69	360.12	362.41	365.10	367.47	369.84	372.28	374.31	376.47	378.25	380.28	382.28	384.44	386.25	388.28	390.40	392.65	394.69	396.31	398.00	399.56	401.25	402.94	404.62	406.00	407.15	407.78	408.47	409.35	410.16	410.50	411.25	411.25	411.25	411.25	411.25	411.25	410.62	409.85	409.16	408.38	407.44	406.66	405.62	404.72	403.22	401.78	400.19	398.66	397.22	395.78	393.75	391.88	390.12	388.50	386.47	384.44	382.25	380.40	378.28	376.25	374.06	371.69	369.56	367.19	364.38	362.00	359.47	357.06	354.09	351.44	349.00	346.65	343.84	341.06	338.85	335.65	332.72	329.56	326.88	324.47	321.25	317.97	314.47	311.38	307.88	304.41	301.00	297.44	294.25	290.97	287.40	284.22	280.22	276.35	272.50	268.97	265.44	261.62
560.14	557.66	555.90	555.06	553.62	551.62	548.28	543.50	537.97	531.00	524.80	518.83	513.11	506.08	497.31	487.25	477.00	466.55	456.50	447.81	442.67	439.90	438.81	437.30	435.20	432.11	427.56	422.31	416.64	410.10	403.09	396.25	390.47	385.41	381.69	378.33	375.67	373.33	371.31	368.50	365.62	361.19	354.75	347.30	339.99	332.95	326.38	320.65	314.36	308.78	304.28	300.62	297.60	295.44	293.78	293.62	294.25	295.24	296.28	297.88	299.28	300.25	300.85	301.08	301.62	301.49	301.25	301.80	301.88	301.50	300.76	300.19	299.25	298.33	297.20	295.49	292.89	289.55	284.70	280.61	276.86	275.08	274.55	274.62	274.62	274.90	275.08	275.62	275.86	275.72	275.58	274.60	273.35	272.15	271.24	270.74	270.00	269.31	268.70	267.74	266.53	265.74	265.00	266.05	267.00	268.66	270.77	272.26	273.30	273.53	273.38	273.38	273.38	274.08	275.15	276.03	277.00	277.38	277.38	277.10	277.00	277.55	278.14	279.33	280.69	282.62	284.38	286.16	288.44	291.06	293.69	296.75	299.52	302.14	305.00	307.44	310.06	312.28	314.31	316.69	319.47	321.75	324.22	326.89	329.30	331.84	334.80	337.12	339.17	341.50	343.88	345.88	348.50	351.12	353.75	355.72	358.00	360.17	362.59	364.85	367.08	369.53	371.99	374.25	376.25	378.53	380.59	382.80	384.88	386.77	388.59	390.80	392.85	395.09	396.86	398.64	400.39	401.65	403.60	405.42	406.78	408.23	409.49	410.38	411.15	411.88	412.60	412.97	413.64	413.88	414.50	414.35	413.88	413.56	412.94	412.06	411.44	410.88	409.95	409.12	408.05	406.94	405.51	404.14	402.60	401.10	399.51	397.83	395.94	394.06	392.47	390.53	388.61	386.61	384.72	382.85	380.59	378.55	376.50	374.05	371.89	369.52	366.83	364.26	361.56	359.08	356.39	353.88	351.38	348.89	346.14	343.55	341.06	337.89	334.86	331.77	328.94	326.38	323.36	319.88	316.61	313.40	309.83	306.33	302.83	299.56	296.44	292.99	289.49	286.20	282.12	278.12	274.25	270.67	267.10	263.45
560.03	557.15	555.00	554.00	552.19	550.00	546.56	541.75	536.19	529.09	522.75	516.88	511.78	505.12	496.88	487.10	476.72	466.10	455.84	447.09	442.10	439.53	439.22	438.50	437.22	434.75	430.59	426.06	420.62	414.44	407.94	401.47	395.47	389.69	384.72	380.41	376.94	374.00	372.19	369.65	366.81	362.72	356.15	348.75	341.78	334.85	328.38	322.90	316.85	311.65	307.25	303.47	300.25	297.53	295.22	294.65	294.69	295.25	296.15	297.50	298.85	299.81	300.72	301.31	302.19	302.25	302.50	303.38	303.50	303.56	302.84	302.25	301.06	299.72	298.56	296.72	294.15	290.85	286.25	282.25	278.19	276.09	275.22	275.19	275.22	275.25	275.53	276.31	276.50	276.50	276.25	275.53	273.81	272.50	271.53	270.91	270.10	269.60	268.81	268.12	266.97	266.28	265.50	266.25	266.72	268.34	270.10	271.56	272.62	272.94	272.85	272.75	272.75	273.41	274.53	275.41	276.22	276.75	276.75	276.85	277.10	278.09	279.19	280.69	282.34	284.38	286.16	288.06	290.12	292.62	295.34	298.44	301.10	303.65	306.28	309.00	311.50	313.75	315.94	318.31	321.09	323.44	325.88	328.50	331.03	333.56	336.47	338.94	340.97	343.31	345.72	347.75	350.38	352.97	355.50	357.50	359.81	362.00	364.35	366.56	368.62	371.12	373.50	375.69	377.72	380.06	382.34	384.59	386.66	388.35	390.34	392.62	394.62	396.84	398.53	400.38	402.10	403.31	405.31	407.16	408.34	409.81	411.03	412.19	413.12	413.75	414.44	414.75	415.25	415.75	416.65	416.34	415.75	415.25	414.66	413.78	413.25	412.75	411.85	410.91	409.84	408.53	407.19	405.75	404.25	402.72	401.03	399.12	397.44	395.62	394.06	391.94	390.09	388.09	386.32	384.44	382.31	380.25	378.19	375.65	373.44	371.03	368.53	365.88	363.25	360.59	357.97	355.50	353.12	350.47	347.72	345.15	342.62	339.47	336.41	333.38	330.50	327.62	324.72	321.25	318.16	314.81	311.25	307.78	304.25	301.15	297.94	294.44	290.94	287.50	283.44	279.47	275.56	271.85	268.25	264.75
560.12	556.50	554.25	552.50	550.12	547.38	543.38	538.75	533.38	526.75	520.12	514.25	509.62	503.25	496.12	486.62	475.88	464.88	455.00	446.62	441.62	439.25	439.88	440.00	439.75	437.75	434.62	431.12	425.12	419.88	413.75	408.12	401.75	395.50	388.75	383.12	378.62	374.75	373.12	370.88	368.12	364.50	358.12	351.00	344.50	338.12	332.12	326.00	320.50	315.50	311.38	307.50	304.00	301.00	298.12	296.62	296.00	296.00	296.62	297.50	298.38	299.62	300.62	301.88	302.75	303.00	304.00	304.88	305.00	305.25	305.00	304.50	303.12	301.50	300.25	298.88	296.12	292.62	288.50	284.50	280.62	277.88	276.25	275.75	275.88	276.00	276.75	277.25	278.00	278.00	277.00	276.38	274.38	273.25	272.00	271.00	270.38	269.88	269.00	268.88	268.00	267.50	267.00	267.00	267.00	268.25	269.62	271.00	271.88	272.00	272.38	272.00	272.00	272.38	273.50	274.38	275.00	276.00	276.00	276.38	277.38	278.75	280.50	282.38	284.50	286.25	288.12	290.12	292.38	294.50	297.50	300.12	302.88	305.25	307.88	310.88	313.00	315.62	318.00	320.38	322.88	325.12	327.75	330.38	333.00	335.62	338.25	341.00	343.12	345.38	347.88	350.00	352.62	355.12	357.38	359.75	361.88	364.25	366.50	368.62	370.88	373.38	375.38	377.75	379.88	382.12	384.50	386.75	388.62	390.12	392.50	394.88	396.88	399.00	400.88	402.62	404.25	405.75	407.38	409.12	410.50	411.88	413.00	414.25	415.38	416.00	416.88	417.00	417.12	418.00	418.62	418.12	418.00	417.50	417.00	416.12	415.88	415.00	414.00	412.88	412.00	410.50	409.25	407.62	406.12	404.50	402.62	400.62	399.12	397.50	395.75	393.62	391.88	389.88	388.00	386.12	384.38	382.12	379.88	377.25	375.12	372.62	370.12	367.75	365.50	362.75	359.75	357.00	355.00	352.25	349.50	346.75	344.50	341.25	338.38	335.25	332.38	329.12	326.12	323.12	320.12	316.50	313.12	309.75	306.12	303.12	299.62	296.12	292.62	289.00	285.12	281.25	277.25	273.25	269.75	266.25
562.75	558.25	554.50	551.50	548.12	544.00	539.75	534.75	529.62	523.50	517.62	511.50	505.50	499.25	492.62	483.25	473.00	462.50	453.00	445.62	441.38	441.00	441.88	442.00	442.00	440.25	437.88	434.38	430.12	424.88	419.62	414.50	408.38	401.25	393.62	386.50	380.38	376.00	373.75	372.12	369.75	366.00	360.62	355.00	349.00	342.88	336.38	330.88	325.50	320.50	316.12	312.50	309.00	305.62	302.88	300.38	298.75	298.00	298.00	298.12	299.12	300.25	301.50	303.12	304.38	305.00	305.50	306.25	307.00	307.38	307.00	306.50	305.38	303.75	302.50	301.25	299.12	295.88	291.88	287.62	283.62	280.25	277.88	277.00	277.25	278.00	279.00	280.00	280.88	280.88	279.88	278.50	276.75	275.25	273.88	272.50	271.62	271.00	270.00	270.00	270.00	269.25	269.00	269.00	269.00	269.00	269.25	270.00	270.75	271.00	271.62	271.12	271.38	272.00	272.62	273.38	274.00	275.00	275.25	276.12	277.62	279.62	281.88	284.12	286.50	288.50	290.75	293.12	295.38	297.25	299.62	302.12	304.88	307.50	310.12	312.88	315.12	317.12	319.75	322.75	325.00	327.62	330.50	332.88	335.50	338.12	340.88	343.00	345.50	348.25	350.38	352.75	355.12	357.25	360.00	362.00	364.62	367.12	369.38	371.50	373.75	376.12	378.38	380.50	382.88	384.88	387.38	389.25	391.00	392.88	395.38	397.62	399.75	401.50	403.38	405.50	407.00	408.25	409.62	411.50	413.38	414.50	415.88	417.12	418.00	418.75	419.25	420.00	420.00	420.25	421.00	420.25	420.00	420.00	420.00	419.50	418.88	418.00	416.75	415.50	414.25	413.38	411.88	410.50	408.75	407.00	405.25	403.50	401.75	400.12	398.12	396.38	394.38	392.12	390.50	388.38	386.62	384.38	381.88	379.50	377.12	374.75	372.12	370.12	367.50	365.00	362.12	359.50	357.00	354.88	351.88	349.00	346.50	343.75	340.75	337.75	334.50	331.75	328.50	325.62	322.50	319.00	315.38	311.75	308.62	305.50	301.75	298.50	295.00	291.25	287.62	283.88	279.62	276.12	272.38	268.38
564.62	559.66	555.44	551.81	547.89	543.06	538.58	533.50	527.83	522.10	516.61	510.57	504.25	497.61	490.36	480.75	470.50	460.47	451.75	445.08	441.53	441.39	442.35	443.17	442.70	440.88	438.50	434.85	430.67	425.97	421.26	416.53	410.72	403.20	395.34	387.75	381.08	376.39	373.75	372.12	369.90	366.55	362.19	357.34	351.50	345.45	338.88	333.14	327.53	322.92	318.62	314.85	311.50	308.44	305.61	303.11	300.78	299.80	299.25	299.30	300.14	301.11	302.20	303.67	304.76	305.55	306.20	306.88	307.62	308.00	307.86	307.36	306.15	304.77	303.60	302.26	300.14	297.28	293.67	289.58	285.58	282.12	279.90	278.88	279.05	280.03	281.35	282.50	282.99	282.83	282.06	280.85	279.17	277.52	276.06	274.77	273.50	272.64	271.88	271.88	271.49	270.97	270.72	270.25	269.86	269.62	269.64	269.53	269.89	270.38	271.15	271.05	271.14	271.85	272.39	273.14	273.53	274.38	274.62	275.74	277.62	279.78	282.26	285.14	287.75	289.75	292.15	294.53	296.70	298.58	300.88	303.38	306.12	308.75	311.38	314.05	316.22	318.38	321.00	323.77	326.25	328.88	331.60	334.12	336.75	339.38	342.12	344.56	347.14	349.50	352.01	354.47	356.85	359.12	361.40	363.56	366.03	368.45	371.01	372.99	375.08	377.53	380.10	382.14	384.67	386.75	389.09	390.97	392.72	394.75	397.09	399.35	401.39	403.14	405.09	406.90	408.49	410.05	411.50	413.22	414.70	416.14	417.44	418.69	419.56	420.31	420.97	421.72	421.88	421.97	422.25	421.97	421.88	421.88	421.33	420.99	420.20	419.40	418.39	417.06	415.73	414.70	413.12	411.52	409.92	408.25	406.65	404.99	403.55	401.61	399.53	397.62	395.70	393.77	391.90	389.55	387.80	385.70	383.12	380.75	378.45	376.08	373.38	371.14	368.99	366.41	363.38	360.83	358.33	356.12	353.12	350.25	347.75	344.69	342.00	338.84	335.67	333.00	329.75	326.56	323.52	320.25	316.62	313.24	310.19	306.91	303.39	299.99	296.41	292.58	289.03	285.36	281.27	277.45	273.62	269.78
566.60	561.72	557.22	552.75	548.45	543.06	537.97	532.75	526.98	521.25	516.00	510.18	503.83	497.00	488.77	478.88	468.62	458.88	450.62	444.61	441.86	441.81	442.76	443.88	442.89	440.88	438.27	434.28	430.02	425.74	421.64	417.38	412.03	404.14	396.00	388.03	381.03	376.34	373.47	371.94	369.90	366.92	363.55	359.32	353.99	347.99	341.50	335.53	329.78	325.12	320.97	317.00	313.94	311.30	308.75	306.25	303.31	301.58	300.51	300.38	300.89	301.86	302.95	304.10	305.00	305.88	306.58	307.15	308.00	308.38	308.56	307.92	306.90	305.80	304.62	303.20	301.31	298.88	295.50	291.59	287.64	284.05	281.88	280.75	280.97	282.28	283.88	285.12	285.65	285.50	284.88	283.80	282.26	280.70	279.15	277.77	276.40	275.22	274.50	274.12	273.74	273.31	272.88	271.94	271.12	270.47	270.06	269.53	269.61	270.28	270.92	271.28	271.38	271.85	272.15	273.00	273.15	273.86	274.35	275.64	277.72	279.88	282.69	285.94	288.83	291.06	293.61	296.03	298.25	300.17	302.56	305.06	307.62	310.16	312.88	315.31	317.49	319.88	322.50	325.12	327.75	330.38	333.00	335.62	338.25	340.88	343.62	346.25	348.88	351.23	353.75	356.07	358.53	361.00	363.28	365.43	367.72	370.23	372.80	374.76	376.90	379.31	381.88	384.11	386.55	388.72	390.88	392.80	394.78	396.95	399.25	401.41	403.40	405.15	407.06	408.78	410.45	412.11	413.56	415.10	416.35	417.92	419.22	420.51	421.44	422.28	422.99	423.64	424.12	424.12	424.12	424.12	424.08	423.75	423.20	422.72	421.89	421.10	420.27	418.98	417.61	416.25	414.76	413.06	411.56	409.94	408.39	406.72	405.28	403.25	401.17	399.03	397.20	395.40	393.50	391.00	389.11	386.92	384.44	382.06	379.72	377.25	374.78	372.32	370.30	367.62	364.73	362.14	359.64	357.25	354.34	351.61	349.06	345.81	343.12	340.06	336.99	334.12	331.06	327.88	324.69	321.56	318.03	314.83	311.69	308.41	305.03	301.62	298.00	294.08	290.53	286.81	283.00	279.05	275.22	271.38
568.00	563.75	559.25	554.00	549.62	544.00	538.12	532.75	527.38	521.25	516.00	510.50	504.38	497.62	488.38	478.25	468.00	458.25	450.00	444.38	442.25	442.12	443.00	443.88	442.50	440.25	437.25	432.88	428.38	424.25	420.62	416.75	411.88	403.75	395.38	387.25	380.25	375.88	373.00	371.62	369.75	367.00	364.25	360.25	355.62	349.62	343.38	337.25	331.50	326.38	322.38	318.25	315.50	313.25	311.25	308.75	305.50	302.75	301.38	301.00	301.12	302.25	303.50	304.25	305.00	305.88	306.50	307.00	308.00	308.38	308.88	308.00	307.38	306.50	305.25	303.75	302.25	300.12	296.75	293.00	289.12	285.38	283.12	282.00	282.38	284.00	285.75	287.00	288.00	288.00	287.38	286.38	285.00	283.75	282.12	280.50	279.38	277.88	277.00	276.00	276.00	275.50	274.75	273.50	272.38	271.25	270.38	270.00	270.00	270.75	271.00	271.75	272.00	272.00	272.00	273.00	273.00	273.62	274.50	275.88	277.88	279.88	283.00	286.25	289.38	292.00	294.62	297.12	299.50	301.50	304.12	306.62	308.88	311.25	314.12	316.25	318.50	321.12	323.75	326.38	329.00	331.62	334.25	336.88	339.50	342.12	344.88	347.50	350.12	352.88	355.00	357.00	359.62	362.25	365.00	367.00	369.12	371.88	374.12	376.25	378.62	380.88	383.12	385.75	387.88	390.12	392.12	394.12	396.50	398.75	401.12	403.12	405.12	406.88	408.62	410.50	412.25	413.75	415.12	416.50	417.75	419.25	420.62	422.00	423.00	424.00	424.62	425.12	426.00	426.00	426.00	426.00	425.88	425.00	425.00	424.12	423.38	422.50	421.75	420.62	419.25	417.50	416.25	414.62	413.12	411.50	409.88	408.12	406.38	404.50	402.50	400.12	398.38	396.50	394.75	392.25	390.12	387.62	385.38	383.00	380.50	377.88	375.88	373.25	371.00	368.25	365.75	363.00	360.50	357.88	355.12	352.62	350.00	346.75	343.75	341.00	338.00	334.75	332.00	329.12	325.62	322.50	319.12	316.00	312.62	309.50	306.12	302.88	299.25	295.25	291.62	287.75	284.25	280.38	276.62	272.62
568.00	563.75	559.25	554.00	549.62	544.00	538.12	532.75	527.38	521.25	516.00	510.50	504.38	497.62	488.38	478.25	468.00	458.25	450.00	444.38	442.25	442.12	443.00	443.88	442.50	440.25	437.25	432.88	428.38	424.25	420.62	416.75	411.88	403.75	395.38	387.25	380.25	375.88	373.00	371.62	369.75	367.00	364.25	360.25	355.62	349.62	343.38	337.25	331.50	326.38	322.38	318.25	315.50	313.25	311.25	308.75	305.50	302.75	301.38	301.00	301.12	302.25	303.50	304.25	305.00	305.88	306.50	307.00	308.00	308.38	308.88	308.00	307.38	306.50	305.25	303.75	302.25	300.12	296.75	293.00	289.12	285.38	283.12	282.00	282.38	284.00	285.75	287.00	288.00	288.00	287.38	286.38	285.00	283.75	282.12	280.50	279.38	277.88	277.00	276.00	276.00	275.50	274.75	273.50	272.38	271.25	270.38	270.00	270.00	270.75	271.00	271.75	272.00	272.00	272.00	273.00	273.00	273.62	274.50	275.88	277.88	279.88	283.00	286.25	289.38	292.00	294.62	297.12	299.50	301.50	304.12	306.62	308.88	311.25	314.12	316.25	318.50	321.12	323.75	326.38	329.00	331.62	334.25	336.88	339.50	342.12	344.88	347.50	350.12	352.88	355.00	357.00	359.62	362.25	365.00	367.00	369.12	371.88	374.12	376.25	378.62	380.88	383.12	385.75	387.88	390.12	392.12	394.12	396.50	398.75	401.12	403.12	405.12	406.88	408.62	410.50	412.25	413.75	415.12	416.50	417.75	419.25	420.62	422.00	423.00	424.00	424.62	425.12	426.00	426.00	426.00	426.00	425.88	425.00	425.00	424.12	423.38	422.50	421.75	420.62	419.25	417.50	416.25	414.62	413.12	411.50	409.88	408.12	406.38	404.50	402.50	400.12	398.38	396.50	394.75	392.25	390.12	387.62	385.38	383.00	380.50	377.88	375.88	373.25	371.00	368.25	365.75	363.00	360.50	357.88	355.12	352.62	350.00	346.75	343.75	341.00	338.00	334.75	332.00	329.12	325.62	322.50	319.12	316.00	312.62	309.50	306.12	302.88	299.25	295.25	291.62	287.75	284.25	280.38	276.62	272.62
570.06	565.72	561.22	556.25	551.22	545.22	538.97	533.50	528.31	523.31	518.44	513.12	507.38	500.25	491.09	481.16	470.25	459.94	451.12	445.31	442.91	442.03	442.25	442.47	440.90	438.09	433.88	429.31	424.72	420.40	416.69	412.91	408.22	400.85	392.84	384.81	378.47	374.28	371.97	371.15	369.56	367.56	365.38	361.56	356.38	351.03	344.88	338.75	332.35	327.12	322.47	318.91	316.62	314.85	313.03	310.25	306.90	303.69	301.65	300.91	300.56	301.78	302.84	303.69	304.34	305.22	305.75	306.72	307.53	308.28	308.97	308.75	308.12	306.97	305.91	304.60	303.00	300.88	297.59	294.12	289.97	286.69	284.25	282.94	283.69	285.41	287.16	288.69	289.78	290.25	290.10	289.47	288.65	287.59	286.06	284.25	283.12	281.44	280.28	279.19	278.53	277.75	276.53	274.72	273.31	272.19	271.12	270.75	270.75	271.69	271.94	272.69	272.75	273.12	273.50	273.75	273.94	274.65	275.06	276.25	278.06	280.25	283.19	286.81	290.12	292.94	296.12	298.62	301.28	303.65	305.81	308.31	310.38	312.65	315.34	317.75	319.72	322.25	324.88	327.50	330.12	332.75	335.38	338.00	340.62	343.25	346.38	349.00	351.62	354.19	356.50	358.50	361.12	363.75	366.50	368.69	371.00	373.56	375.91	378.40	380.31	382.56	384.90	387.53	389.66	391.91	394.19	396.38	398.56	400.90	403.19	405.10	406.81	408.75	410.69	412.38	414.03	415.53	416.81	418.09	419.72	420.94	422.22	423.69	424.88	425.78	426.40	427.19	427.97	428.25	428.25	428.25	427.56	427.25	427.06	426.19	425.25	424.38	423.44	422.50	421.12	419.56	418.12	416.59	415.09	413.00	411.38	409.62	407.88	406.00	404.10	401.81	399.97	398.00	396.25	393.94	391.62	389.22	386.88	384.50	382.00	379.75	377.38	374.65	372.12	369.47	366.78	364.22	361.62	358.90	356.34	353.56	350.66	347.59	344.78	342.12	339.12	335.88	333.03	330.06	326.84	323.81	320.44	317.22	314.03	310.62	307.06	303.62	300.10	296.47	292.56	288.97	285.10	281.40	277.75	273.94
571.92	567.39	562.74	557.62	551.83	545.86	539.41	533.91	529.25	524.78	520.81	516.81	511.65	504.88	496.22	485.88	474.67	463.62	453.92	447.58	444.14	442.08	440.99	439.34	436.47	432.76	427.75	422.89	418.26	413.58	410.22	407.09	402.78	396.52	388.95	381.19	375.69	372.19	370.61	370.38	369.42	368.30	366.45	363.01	358.42	352.83	346.62	340.03	332.86	326.75	321.95	318.89	317.15	316.15	314.25	311.53	308.08	304.86	302.53	301.19	300.76	301.24	301.76	302.56	303.26	303.75	304.25	305.30	306.44	307.86	309.00	309.62	309.31	308.30	307.45	306.51	304.65	302.38	299.12	295.44	291.34	287.75	284.78	283.72	284.28	285.95	287.94	290.03	291.55	292.40	292.88	292.69	292.38	291.45	290.19	288.78	287.11	285.44	283.88	282.20	280.78	279.75	278.22	276.22	274.64	273.28	272.39	272.25	272.49	273.25	273.73	274.01	274.01	274.44	274.62	275.25	275.35	276.10	276.35	277.47	278.90	281.00	283.49	287.31	290.85	294.26	297.56	300.38	303.12	305.62	307.62	309.81	311.97	314.38	316.85	319.03	321.30	323.88	326.50	329.12	331.75	334.38	337.00	339.62	342.25	344.88	347.74	350.12	352.75	355.10	357.62	359.94	362.56	365.26	367.86	370.66	373.03	375.38	377.75	380.38	382.12	384.53	386.99	389.38	391.50	393.98	396.28	398.38	400.89	403.19	405.44	407.24	409.10	411.01	412.62	414.40	416.11	417.45	418.78	420.26	421.70	423.06	424.39	425.97	427.14	428.01	428.80	429.67	430.11	430.88	430.88	430.40	429.92	429.88	429.62	428.75	427.75	426.72	425.56	424.69	423.39	421.97	420.47	418.89	417.39	415.30	413.51	411.84	409.94	407.98	405.88	403.78	401.98	400.14	398.08	395.90	393.53	391.08	388.78	386.33	383.83	381.70	378.65	376.06	373.51	371.12	368.53	365.88	363.25	360.34	357.61	354.97	351.89	349.12	346.22	343.44	340.60	337.35	334.15	331.00	327.88	324.80	321.81	318.49	315.12	311.62	308.00	304.50	301.00	297.50	293.73	290.23	286.39	282.92	279.06	275.31
573.16	568.38	563.47	557.94	551.78	545.75	539.41	533.97	529.69	525.53	522.25	519.28	514.97	508.81	500.65	490.16	478.94	467.50	457.22	450.31	445.88	442.72	440.44	437.40	433.31	428.53	422.94	417.56	412.62	407.69	404.47	402.03	398.19	392.60	385.41	378.15	373.22	370.35	369.38	369.50	369.03	368.69	367.09	363.88	359.78	354.00	347.69	340.62	333.00	326.22	321.31	318.50	317.19	316.72	314.84	312.28	309.00	306.00	303.69	301.91	301.47	301.25	301.44	302.00	302.56	302.75	303.12	303.94	305.28	307.19	308.72	309.94	310.06	309.28	308.66	307.81	305.97	303.66	300.38	296.60	292.47	288.38	285.06	284.00	284.34	285.88	288.00	290.44	292.44	293.56	294.50	294.75	294.62	293.75	292.75	291.59	289.69	288.06	286.22	284.06	282.22	281.00	279.44	277.59	276.03	274.72	274.00	274.00	274.28	274.75	275.22	275.12	274.97	275.50	275.65	276.50	276.72	277.31	277.50	278.59	279.75	281.56	283.85	287.69	291.44	295.19	298.50	301.62	304.28	306.78	308.88	310.94	313.12	315.50	317.91	320.00	322.41	325.00	327.62	330.25	332.88	335.50	338.19	340.88	343.50	346.03	348.50	350.88	353.47	355.85	358.50	361.00	363.62	366.38	368.88	371.88	374.28	376.56	378.88	381.47	383.38	385.81	388.28	390.62	392.75	395.38	397.69	399.62	402.38	404.62	406.88	408.62	410.62	412.53	414.00	415.85	417.60	418.81	420.25	421.84	423.25	424.75	426.12	427.65	428.81	429.62	430.62	431.56	431.75	432.60	432.65	431.94	431.75	431.75	431.31	430.47	429.56	428.44	427.31	426.34	425.03	423.62	422.12	420.56	419.06	417.10	415.19	413.56	411.62	409.62	407.38	405.31	403.50	401.69	399.47	397.35	394.94	392.53	390.19	387.62	385.25	383.00	379.84	377.38	374.84	372.47	369.90	367.12	364.50	361.56	358.72	356.12	353.00	350.34	347.28	344.38	341.60	338.38	335.06	331.81	328.66	325.47	322.62	319.28	315.85	312.38	308.78	305.19	301.62	298.06	294.50	291.00	287.25	283.81	279.91	276.22
574.75	569.50	564.12	557.75	551.50	545.00	539.12	533.88	529.88	526.38	523.75	521.62	519.00	513.88	506.38	496.25	485.12	473.50	462.75	455.00	449.25	444.50	440.62	436.38	430.88	424.12	417.50	411.00	405.12	400.00	396.50	395.00	392.00	386.88	380.25	374.12	369.75	367.62	367.50	368.00	368.00	368.88	367.75	364.62	360.62	355.12	348.62	341.00	333.00	325.75	320.38	317.75	317.00	317.00	315.50	313.12	310.50	307.88	305.75	303.50	302.88	302.00	302.00	302.00	302.00	302.00	302.00	302.25	303.50	305.88	307.88	309.75	310.62	310.12	309.88	308.75	307.38	305.25	301.88	298.38	293.88	289.12	285.62	284.00	284.25	285.50	287.62	290.25	293.00	294.50	296.00	297.00	296.88	296.00	295.38	294.12	292.50	290.88	288.75	286.12	284.00	282.50	281.12	279.75	278.38	277.62	277.00	277.00	277.00	277.00	277.00	276.62	276.00	277.00	277.62	278.00	278.88	279.00	279.00	280.00	280.88	282.12	284.50	288.25	292.38	296.12	299.62	303.12	305.50	308.00	310.38	312.62	314.62	316.62	319.12	321.50	323.62	326.12	328.75	331.38	334.00	336.62	339.50	342.38	345.00	347.25	349.25	352.00	354.50	357.25	360.00	362.50	365.12	367.88	370.38	373.00	375.50	377.88	380.00	382.50	384.88	387.12	389.50	392.12	394.25	396.88	399.38	401.12	403.88	406.12	408.38	410.12	412.12	414.12	415.88	417.62	419.38	420.50	422.12	423.62	425.50	427.00	428.38	429.62	430.88	431.50	432.88	434.00	434.00	434.38	434.62	434.00	434.00	434.00	433.00	432.25	431.62	430.50	429.75	428.50	427.00	425.50	424.00	422.62	421.12	419.25	417.25	415.62	413.88	411.88	409.62	407.38	405.38	403.38	401.25	399.12	396.62	394.50	391.88	389.12	387.12	384.50	382.00	379.62	377.00	374.25	371.50	368.62	366.00	363.25	360.50	357.62	354.50	351.75	348.50	345.50	342.62	339.50	336.38	333.12	329.88	326.50	323.38	320.12	316.88	313.50	310.00	306.12	302.38	298.62	295.25	291.75	288.00	284.38	280.75	277.25
