2350.00	2349.38	2349.00	2348.62	2348.00	2348.00	2348.00	2348.00	2348.00	2348.00	2348.00	2347.75	2347.88	2348.00	2348.00	2348.00	2348.00	2347.25	2347.00	2346.38	2346.00	2345.62	2345.00	2344.50	2343.88	2342.50	2341.00	2339.00	2336.25	2334.38	2332.62	2330.38	2326.75	2322.88	2316.62	2310.12	2301.62	2291.88	2283.00	2273.62	2264.62	2254.75	2244.88	2237.38	2231.25	2226.00	2222.00	2218.62	2217.50	2217.00	2216.25	2215.25	2214.25	2212.12	2210.38	2208.12	2206.12	2203.38	2200.88	2198.50	2196.12	2194.12	2191.62	2189.38	2186.50	2183.38	2179.88	2176.12	2172.50	2168.62	2164.38	2160.62	2156.75	2153.25	2149.75	2146.25	2142.50	2139.50	2136.00	2132.50	2129.12	2125.25	2121.50	2117.75	2114.38	2110.75	2107.50	2104.00	2100.62	2097.75	2094.62	2091.25	2088.75	2086.50	2084.50	2082.12	2079.88	2077.50	2075.38	2073.38	2071.38	2069.38	2067.75	2066.38	2065.00	2064.12	2063.00	2062.50	2062.00	2062.00	2061.00	2060.75	2059.88	2058.75	2057.88	2056.75	2055.38	2053.50	2052.38	2051.50	2050.62	2049.75	2048.88	2048.00	2047.75	2047.00	2047.00	2046.25	2046.00	2045.50	2045.00	2044.50	2043.75	2042.88	2041.88	2040.38	2038.50	2036.50	2033.88	2031.12	2028.50	2025.88	2023.62	2021.38	2019.62	2018.50	2017.12	2016.12	2015.25	2014.38	2013.75	2012.12	2010.25	2008.12	2005.62	2002.62	1999.25	1995.62	1991.75	1986.25	1981.12	1975.88	1970.62	1965.25	1959.88	1955.25	1951.38	1947.50	1944.38	1941.50	1939.50	1938.12	1937.00	1936.00	1935.75	1935.00	1934.88	1933.88	1933.00	1931.38	1929.00	1926.38	1923.00	1919.38	1915.50	1911.62	1908.12	1905.12	1902.25	1899.88	1897.75	1895.88	1894.12	1892.12	1889.62	1887.00	1883.75	1880.50	1877.12	1873.25	1869.50	1865.38	1861.88	1860.00	1858.38	1858.00	1859.00	1860.00	1861.75	1863.50	1864.75	1865.88	1867.00	1867.00	1867.25	1867.00	1866.62	1866.00	1865.62	1865.00	1864.38	1863.50	1861.62	1860.00	1856.75	1853.62	1850.00	1846.12	1842.50	1838.62	1835.25	1832.38	1829.38	1828.00	1827.00	1826.88	1827.00	1827.00	1828.00	1828.00	1827.62	1826.75	1825.12	1821.75	1818.50	1813.12	1807.62	1802.25	1797.62	1793.38	1790.50	1788.25	1788.00	1788.12	1789.25	1790.12
2349.91	2349.10	2349.00	2348.90	2348.75	2348.75	2348.75	2348.75	2348.75	2348.75	2348.75	2348.69	2348.72	2348.75	2348.75	2348.75	2348.47	2347.81	2347.00	2346.19	2345.16	2344.22	2343.41	2342.62	2341.91	2341.38	2339.97	2337.97	2335.78	2334.38	2332.72	2330.10	2326.38	2321.75	2315.69	2308.91	2300.12	2290.75	2281.50	2271.66	2262.38	2253.34	2244.87	2238.12	2232.00	2227.12	2223.41	2220.40	2219.38	2218.69	2217.47	2216.09	2214.53	2212.41	2210.28	2207.28	2204.34	2201.50	2198.90	2196.25	2193.41	2190.94	2188.44	2186.00	2183.41	2180.28	2177.16	2173.12	2169.41	2165.44	2161.38	2157.62	2154.12	2150.25	2146.38	2142.78	2138.94	2135.47	2131.97	2128.38	2124.81	2120.75	2117.00	2113.25	2109.88	2106.35	2103.19	2099.97	2096.88	2094.19	2091.44	2088.72	2086.41	2084.07	2081.78	2079.60	2077.44	2075.43	2073.50	2071.50	2069.69	2067.88	2066.62	2065.44	2064.25	2063.38	2062.25	2062.12	2062.00	2061.81	2061.00	2060.56	2059.69	2058.94	2057.97	2057.03	2055.56	2054.16	2052.85	2051.97	2051.09	2050.22	2049.35	2048.75	2048.22	2047.75	2047.75	2047.56	2047.50	2047.38	2046.97	2046.38	2045.72	2044.66	2043.66	2041.69	2039.72	2037.25	2034.25	2031.40	2028.22	2025.12	2022.50	2020.06	2017.85	2016.16	2014.50	2013.22	2012.07	2010.81	2009.72	2007.91	2005.56	2003.34	2000.38	1997.47	1994.10	1990.38	1986.69	1982.03	1977.56	1972.88	1968.00	1963.38	1958.94	1955.15	1951.84	1948.53	1946.06	1943.85	1942.03	1940.38	1939.25	1938.53	1938.19	1937.72	1937.22	1936.50	1935.44	1933.90	1931.72	1929.19	1925.62	1922.38	1918.50	1914.62	1911.12	1908.22	1905.62	1903.62	1901.69	1900.37	1899.19	1897.75	1896.09	1894.12	1891.72	1888.94	1885.38	1881.40	1877.47	1873.34	1869.47	1867.03	1864.75	1864.00	1864.25	1864.50	1865.50	1866.78	1867.93	1869.16	1870.00	1870.00	1870.06	1870.00	1869.15	1868.91	1868.15	1868.00	1867.10	1866.50	1864.81	1863.09	1860.31	1857.38	1854.22	1850.90	1847.75	1844.25	1841.07	1838.10	1835.47	1833.72	1832.53	1831.47	1831.50	1831.50	1831.75	1832.31	1831.84	1831.44	1829.90	1827.09	1824.03	1818.84	1813.62	1807.88	1802.41	1797.78	1794.34	1790.97	1789.97	1789.06	1789.25	1790.03
2349.88	2349.00	2349.00	2349.00	2349.00	2349.00	2349.00	2349.00	2349.00	2349.00	2349.00	2349.00	2349.00	2349.00	2349.00	2349.00	2348.62	2348.00	2347.00	2346.12	2344.88	2343.75	2342.88	2342.00	2341.25	2341.00	2339.62	2337.62	2335.62	2334.38	2332.75	2330.00	2326.25	2321.38	2315.38	2308.50	2299.62	2290.38	2281.00	2271.00	2261.62	2252.88	2244.88	2238.38	2232.25	2227.50	2223.88	2221.00	2220.00	2219.25	2217.88	2216.38	2214.62	2212.50	2210.25	2207.00	2203.75	2200.88	2198.25	2195.50	2192.50	2189.88	2187.38	2184.88	2182.38	2179.25	2176.25	2172.12	2168.38	2164.38	2160.38	2156.62	2153.25	2149.25	2145.25	2141.62	2137.75	2134.12	2130.62	2127.00	2123.38	2119.25	2115.50	2111.75	2108.38	2104.88	2101.75	2098.62	2095.62	2093.00	2090.38	2087.88	2085.62	2083.25	2080.88	2078.75	2076.62	2074.75	2072.88	2070.88	2069.12	2067.38	2066.25	2065.12	2064.00	2063.12	2062.00	2062.00	2062.00	2061.75	2061.00	2060.50	2059.62	2059.00	2058.00	2057.12	2055.62	2054.38	2053.00	2052.12	2051.25	2050.38	2049.50	2049.00	2048.38	2048.00	2048.00	2048.00	2048.00	2048.00	2047.62	2047.00	2046.38	2045.25	2044.25	2042.12	2040.12	2037.50	2034.38	2031.50	2028.12	2024.88	2022.12	2019.62	2017.25	2015.38	2013.62	2012.25	2011.00	2009.62	2008.38	2006.50	2004.00	2001.75	1998.62	1995.75	1992.38	1988.62	1985.00	1980.62	1976.38	1971.88	1967.12	1962.75	1958.62	1955.12	1952.00	1948.88	1946.62	1944.62	1942.88	1941.12	1940.00	1939.38	1939.00	1938.62	1938.00	1937.38	1936.25	1934.75	1932.62	1930.12	1926.50	1923.38	1919.50	1915.62	1912.12	1909.25	1906.75	1904.88	1903.00	1901.88	1900.88	1899.62	1898.25	1896.50	1894.38	1891.75	1888.12	1884.12	1880.12	1876.00	1872.00	1869.38	1866.88	1866.00	1866.00	1866.00	1866.75	1867.88	1869.00	1870.25	1871.00	1871.00	1871.00	1871.00	1870.00	1869.88	1869.00	1869.00	1868.00	1867.50	1865.88	1864.12	1861.50	1858.62	1855.62	1852.50	1849.50	1846.12	1843.00	1840.00	1837.50	1835.62	1834.38	1833.00	1833.00	1833.00	1833.00	1833.75	1833.25	1833.00	1831.50	1828.88	1825.88	1820.75	1815.62	1809.75	1804.00	1799.25	1795.62	1791.88	1790.62	1789.38	1789.25	1790.00
2349.56	2349.00	2349.00	2349.00	2349.00	2349.00	2349.24	2349.62	2349.62	2349.94	2350.25	2350.25	2350.56	2350.72	2350.25	2350.10	2349.25	2348.31	2347.08	2345.50	2343.78	2342.27	2340.85	2339.42	2337.73	2336.78	2335.40	2333.95	2332.35	2331.25	2329.70	2326.80	2323.44	2318.56	2312.72	2306.00	2297.91	2289.28	2280.14	2270.38	2261.47	2252.64	2245.19	2238.84	2233.26	2228.60	2224.73	2222.01	2220.55	2219.01	2217.25	2215.28	2213.06	2210.55	2207.75	2204.34	2200.93	2197.60	2194.50	2191.51	2188.67	2185.73	2183.31	2180.89	2178.31	2175.65	2172.50	2168.45	2164.78	2160.78	2156.78	2152.95	2149.34	2145.73	2142.05	2138.58	2135.10	2131.86	2128.36	2124.50	2120.88	2116.75	2113.08	2109.40	2106.11	2102.61	2099.56	2096.44	2093.75	2091.36	2088.81	2086.31	2084.06	2082.00	2080.01	2078.05	2075.92	2074.36	2072.72	2071.19	2069.67	2068.39	2067.50	2066.77	2065.88	2065.00	2064.35	2063.88	2063.56	2063.15	2062.40	2061.75	2060.72	2059.86	2058.70	2057.59	2056.25	2055.00	2053.70	2052.75	2051.72	2050.76	2049.89	2049.62	2048.76	2048.62	2048.62	2048.62	2048.62	2048.62	2048.49	2048.25	2047.39	2046.42	2045.42	2043.30	2041.38	2038.43	2035.39	2032.12	2028.67	2025.42	2022.20	2019.39	2016.78	2014.44	2012.38	2010.77	2008.97	2007.44	2005.88	2003.61	2001.11	1998.62	1995.50	1992.55	1988.86	1984.95	1981.40	1977.19	1973.48	1969.37	1965.40	1961.73	1958.16	1955.05	1952.62	1949.97	1948.35	1946.74	1945.30	1943.70	1942.58	1942.19	1941.50	1941.36	1941.12	1940.58	1939.69	1938.26	1936.06	1933.80	1930.40	1927.20	1923.33	1919.38	1915.88	1913.15	1910.50	1908.70	1906.98	1906.33	1905.95	1905.49	1904.97	1904.00	1902.03	1899.95	1896.49	1892.72	1888.64	1884.52	1880.51	1877.42	1874.38	1872.80	1871.78	1871.62	1871.90	1872.72	1873.38	1874.39	1874.75	1874.75	1874.75	1874.28	1873.75	1873.15	1872.75	1872.12	1871.75	1870.94	1869.31	1867.80	1865.41	1863.00	1860.31	1857.89	1855.12	1851.99	1849.09	1846.01	1843.44	1841.17	1839.22	1837.45	1836.36	1835.50	1835.50	1835.15	1834.97	1834.40	1833.14	1830.59	1827.75	1823.09	1818.12	1812.56	1807.12	1802.06	1797.81	1793.60	1791.56	1789.61	1789.10	1789.38
2349.38	2349.00	2349.00	2349.00	2349.00	2349.00	2349.38	2350.00	2350.00	2350.50	2351.00	2351.00	2351.50	2351.75	2351.00	2350.75	2349.62	2348.50	2347.12	2345.12	2343.12	2341.38	2339.62	2337.88	2335.62	2334.25	2332.88	2331.75	2330.38	2329.38	2327.88	2324.88	2321.75	2316.88	2311.12	2304.50	2296.88	2288.62	2279.62	2270.00	2261.38	2252.50	2245.38	2239.12	2233.88	2229.25	2225.25	2222.62	2220.88	2218.88	2216.88	2214.62	2212.12	2209.38	2206.25	2202.75	2199.25	2195.62	2192.25	2189.12	2186.38	2183.25	2180.88	2178.50	2175.88	2173.50	2170.25	2166.25	2162.62	2158.62	2154.62	2150.75	2147.00	2143.62	2140.12	2136.75	2133.50	2130.50	2127.00	2123.00	2119.38	2115.25	2111.62	2108.00	2104.75	2101.25	2098.25	2095.12	2092.62	2090.38	2087.88	2085.38	2083.12	2081.25	2079.50	2077.62	2075.50	2074.12	2072.62	2071.38	2070.00	2069.00	2068.25	2067.75	2067.00	2066.12	2065.75	2065.00	2064.50	2064.00	2063.25	2062.50	2061.38	2060.38	2059.12	2057.88	2056.62	2055.38	2054.12	2053.12	2052.00	2051.00	2050.12	2050.00	2049.00	2049.00	2049.00	2049.00	2049.00	2049.00	2049.00	2049.00	2048.00	2047.12	2046.12	2044.00	2042.12	2039.00	2036.00	2032.50	2029.00	2025.75	2022.25	2019.25	2016.50	2013.88	2011.62	2009.88	2007.75	2006.12	2004.38	2001.88	1999.38	1996.75	1993.62	1990.62	1986.75	1982.75	1979.25	1975.12	1971.75	1967.88	1964.38	1961.12	1957.88	1955.00	1953.00	1950.62	1949.38	1948.00	1946.75	1945.25	1944.12	1943.88	1943.00	1943.00	1943.00	1942.50	1941.75	1940.38	1938.12	1936.00	1932.75	1929.50	1925.62	1921.62	1918.12	1915.50	1912.75	1911.00	1909.38	1909.00	1909.00	1909.00	1909.00	1908.50	1906.62	1904.88	1901.50	1897.88	1893.75	1889.62	1885.62	1882.25	1878.88	1876.88	1875.25	1875.00	1875.00	1875.62	1876.00	1876.88	1877.00	1877.00	1877.00	1876.25	1876.00	1875.12	1875.00	1874.00	1874.00	1873.00	1871.38	1870.00	1867.75	1865.62	1863.12	1861.12	1858.50	1855.50	1852.75	1849.62	1847.00	1844.50	1842.12	1840.12	1838.38	1837.00	1837.00	1836.00	1836.00	1835.25	1834.12	1831.62	1828.88	1824.50	1819.62	1814.25	1809.00	1803.75	1799.12	1794.62	1792.12	1789.75	1789.00	1789.00
2349.76	2349.62	2349.62	2349.62	2349.62	2349.62	2350.08	2350.62	2350.62	2351.36	2351.62	2351.94	2352.51	2352.85	2352.25	2351.61	2350.48	2349.12	2347.12	2344.81	2342.35	2340.05	2337.83	2335.22	2332.66	2330.65	2329.05	2327.53	2326.00	2324.92	2322.88	2319.95	2316.60	2311.88	2306.36	2300.44	2293.83	2286.44	2277.99	2269.38	2261.45	2253.12	2246.39	2240.38	2235.12	2230.50	2226.26	2223.01	2220.17	2217.24	2214.53	2211.58	2208.38	2205.00	2201.80	2198.30	2194.80	2190.86	2187.25	2184.75	2182.08	2179.50	2176.97	2174.51	2172.12	2169.75	2166.35	2162.50	2158.64	2154.25	2150.01	2146.14	2142.47	2139.56	2136.61	2133.86	2131.15	2128.39	2125.12	2121.43	2117.81	2113.85	2110.38	2106.91	2103.58	2100.16	2097.00	2094.03	2091.69	2089.36	2087.09	2084.98	2083.12	2081.48	2079.97	2078.40	2076.90	2075.69	2074.50	2073.64	2072.58	2072.12	2071.38	2071.03	2070.12	2069.40	2068.95	2068.12	2067.47	2066.58	2065.75	2064.53	2063.17	2061.70	2060.53	2059.12	2057.72	2056.08	2054.90	2053.59	2052.55	2051.62	2050.67	2050.39	2049.62	2049.62	2049.62	2049.62	2049.78	2050.25	2050.25	2049.78	2049.25	2048.38	2047.38	2045.48	2043.45	2040.57	2037.49	2034.22	2030.72	2027.23	2023.65	2020.35	2017.75	2015.12	2012.56	2010.50	2008.22	2005.97	2003.59	2001.02	1998.44	1995.42	1992.14	1988.60	1984.72	1980.88	1977.06	1972.94	1969.56	1966.16	1963.12	1960.50	1957.95	1955.86	1954.17	1952.50	1951.64	1950.50	1949.48	1948.45	1947.80	1947.62	1947.06	1947.38	1947.38	1947.19	1946.75	1945.38	1943.12	1941.00	1937.60	1934.42	1930.47	1926.39	1922.74	1919.64	1916.74	1914.75	1913.12	1913.30	1913.38	1913.76	1914.55	1915.06	1914.36	1913.16	1910.33	1907.33	1903.44	1899.39	1895.15	1891.47	1888.02	1885.47	1883.14	1882.19	1881.80	1881.49	1881.55	1881.33	1881.30	1880.75	1880.67	1879.85	1879.60	1878.80	1878.12	1877.75	1877.12	1876.44	1875.28	1873.98	1872.12	1870.31	1868.44	1866.83	1864.59	1861.99	1859.24	1856.11	1853.01	1850.36	1847.67	1844.97	1842.20	1839.89	1838.56	1836.94	1836.15	1835.25	1833.97	1831.62	1829.26	1825.12	1820.80	1815.50	1810.25	1805.00	1800.06	1795.25	1792.20	1789.59	1788.38	1787.75
2350.00	2350.00	2350.00	2350.00	2350.00	2350.00	2350.50	2351.00	2351.00	2351.88	2352.00	2352.50	2353.12	2353.50	2353.00	2352.12	2351.00	2349.50	2347.12	2344.62	2341.88	2339.25	2336.75	2333.62	2330.88	2328.50	2326.75	2325.00	2323.38	2322.25	2319.88	2317.00	2313.50	2308.88	2303.50	2298.00	2292.00	2285.12	2277.00	2269.00	2261.50	2253.50	2247.00	2241.12	2235.88	2231.25	2226.88	2223.25	2219.75	2216.25	2213.12	2209.75	2206.12	2202.38	2199.12	2195.62	2192.12	2188.00	2184.25	2182.12	2179.50	2177.25	2174.62	2172.12	2169.88	2167.50	2164.00	2160.25	2156.25	2151.62	2147.25	2143.38	2139.75	2137.12	2134.50	2132.12	2129.75	2127.12	2124.00	2120.50	2116.88	2113.00	2109.62	2106.25	2102.88	2099.50	2096.25	2093.38	2091.12	2088.75	2086.62	2084.75	2083.12	2081.62	2080.25	2078.88	2077.75	2076.62	2075.62	2075.00	2074.12	2074.00	2073.25	2073.00	2072.00	2071.38	2070.88	2070.00	2069.25	2068.12	2067.25	2065.75	2064.25	2062.50	2061.38	2059.88	2058.38	2056.50	2055.38	2053.88	2052.88	2052.00	2051.00	2050.62	2050.00	2050.00	2050.00	2050.00	2050.25	2051.00	2051.00	2050.25	2050.00	2049.12	2048.12	2046.38	2044.25	2041.50	2038.38	2035.25	2031.75	2028.12	2024.50	2021.00	2018.50	2015.88	2013.12	2010.88	2008.50	2005.88	2003.12	2000.50	1997.88	1994.62	1991.25	1987.38	1983.50	1979.75	1975.75	1971.62	1968.25	1965.12	1962.38	1960.12	1958.00	1956.38	1954.88	1953.62	1953.00	1952.00	1951.12	1950.38	1950.00	1949.88	1949.50	1950.00	1950.00	1950.00	1949.75	1948.38	1946.12	1944.00	1940.50	1937.38	1933.38	1929.25	1925.50	1922.12	1919.12	1917.00	1915.38	1915.88	1916.00	1916.62	1917.88	1919.00	1919.00	1918.12	1915.62	1913.00	1909.25	1905.25	1900.88	1897.00	1893.50	1890.62	1887.88	1886.50	1885.88	1885.00	1884.88	1884.00	1883.88	1883.00	1882.88	1882.00	1881.75	1881.00	1880.00	1880.00	1879.00	1878.50	1877.62	1876.38	1874.75	1873.12	1871.62	1870.25	1868.25	1865.88	1863.12	1860.00	1856.62	1853.88	1851.00	1847.88	1844.50	1841.62	1839.50	1837.50	1836.25	1835.25	1833.88	1831.62	1829.50	1825.50	1821.50	1816.25	1811.00	1805.75	1800.62	1795.62	1792.25	1789.50	1788.00	1787.00
2350.00	2350.00	2350.00	2350.00	2350.38	2350.50	2350.94	2351.50	2351.75	2352.50	2353.00	2353.56	2354.06	2354.25	2354.00	2353.25	2352.00	2350.50	2347.94	2345.38	2342.50	2339.50	2336.69	2333.31	2330.31	2327.44	2324.81	2322.44	2320.12	2318.19	2315.38	2312.25	2308.62	2304.62	2299.94	2295.06	2289.50	2282.75	2275.44	2267.94	2261.00	2253.56	2247.38	2241.44	2236.31	2231.38	2226.56	2222.12	2217.81	2213.81	2210.06	2206.31	2202.44	2198.50	2195.12	2191.56	2188.12	2184.31	2181.06	2179.31	2177.19	2175.19	2173.00	2170.50	2167.94	2165.19	2161.62	2157.75	2153.25	2148.81	2144.25	2140.25	2136.81	2134.19	2131.81	2129.62	2127.62	2125.19	2122.50	2119.38	2116.00	2112.44	2109.31	2106.06	2102.88	2099.38	2096.12	2093.25	2090.94	2088.88	2087.12	2085.56	2084.12	2082.75	2081.62	2080.94	2079.88	2079.31	2078.31	2078.00	2077.31	2077.00	2076.62	2076.50	2075.50	2074.88	2074.12	2073.06	2071.94	2070.50	2069.25	2067.62	2065.81	2064.00	2062.56	2060.94	2059.25	2057.44	2055.94	2054.38	2053.25	2052.25	2051.50	2050.94	2050.50	2050.50	2050.94	2051.00	2051.12	2051.88	2052.00	2051.62	2051.00	2050.19	2049.12	2047.44	2045.38	2042.69	2039.75	2036.50	2033.12	2029.62	2025.88	2022.50	2020.00	2017.38	2014.62	2012.19	2009.69	2007.06	2004.19	2001.12	1998.19	1994.69	1991.12	1987.00	1982.94	1978.94	1975.00	1970.88	1967.69	1964.62	1962.12	1960.12	1958.19	1957.12	1955.94	1955.31	1954.75	1954.00	1953.56	1953.19	1953.00	1953.25	1953.25	1953.50	1953.81	1954.00	1953.75	1952.50	1950.56	1948.50	1945.25	1942.00	1937.56	1933.25	1929.31	1925.62	1922.50	1920.38	1918.69	1918.94	1919.06	1920.25	1921.81	1923.12	1923.69	1923.56	1921.88	1919.81	1916.50	1912.44	1908.31	1904.38	1900.62	1897.44	1894.25	1892.38	1891.06	1889.69	1888.75	1887.62	1886.81	1885.75	1885.19	1884.38	1883.81	1883.00	1882.00	1881.88	1881.00	1880.62	1879.81	1878.88	1877.62	1876.31	1875.19	1874.12	1872.50	1870.44	1868.12	1864.62	1861.12	1857.75	1854.62	1851.06	1847.31	1843.94	1840.75	1837.75	1836.00	1834.62	1833.06	1831.06	1829.00	1825.44	1821.81	1816.75	1811.50	1806.25	1801.12	1795.94	1792.19	1788.88	1787.12	1786.12
2350.00	2350.00	2350.00	2350.00	2350.75	2351.00	2351.38	2352.00	2352.50	2353.12	2354.00	2354.62	2355.00	2355.00	2355.00	2354.38	2353.00	2351.50	2348.75	2346.12	2343.12	2339.75	2336.62	2333.00	2329.75	2326.38	2322.88	2319.88	2316.88	2314.12	2310.88	2307.50	2303.75	2300.38	2296.38	2292.12	2287.00	2280.38	2273.88	2266.88	2260.50	2253.62	2247.75	2241.75	2236.75	2231.50	2226.25	2221.00	2215.88	2211.38	2207.00	2202.88	2198.75	2194.62	2191.12	2187.50	2184.12	2180.62	2177.88	2176.50	2174.88	2173.12	2171.38	2168.88	2166.00	2162.88	2159.25	2155.25	2150.25	2146.00	2141.25	2137.12	2133.88	2131.25	2129.12	2127.12	2125.50	2123.25	2121.00	2118.25	2115.12	2111.88	2109.00	2105.88	2102.88	2099.25	2096.00	2093.12	2090.75	2089.00	2087.62	2086.38	2085.12	2083.88	2083.00	2083.00	2082.00	2082.00	2081.00	2081.00	2080.50	2080.00	2080.00	2080.00	2079.00	2078.38	2077.38	2076.12	2074.62	2072.88	2071.25	2069.50	2067.38	2065.50	2063.75	2062.00	2060.12	2058.38	2056.50	2054.88	2053.62	2052.50	2052.00	2051.25	2051.00	2051.00	2051.88	2052.00	2052.00	2052.75	2053.00	2053.00	2052.00	2051.25	2050.12	2048.50	2046.50	2043.88	2041.12	2037.75	2034.50	2031.12	2027.25	2024.00	2021.50	2018.88	2016.12	2013.50	2010.88	2008.25	2005.25	2001.75	1998.50	1994.75	1991.00	1986.62	1982.38	1978.12	1974.25	1970.12	1967.12	1964.12	1961.88	1960.12	1958.38	1957.88	1957.00	1957.00	1956.50	1956.00	1956.00	1956.00	1956.00	1956.62	1957.00	1957.00	1957.62	1958.00	1957.75	1956.62	1955.00	1953.00	1950.00	1946.62	1941.75	1937.25	1933.12	1929.12	1925.88	1923.75	1922.00	1922.00	1922.12	1923.88	1925.75	1927.25	1928.38	1929.00	1928.12	1926.62	1923.75	1919.62	1915.75	1911.75	1907.75	1904.25	1900.62	1898.25	1896.25	1894.38	1892.62	1891.25	1889.75	1888.50	1887.50	1886.75	1885.88	1885.00	1884.00	1883.75	1883.00	1882.75	1882.00	1881.38	1880.50	1879.50	1878.75	1878.00	1876.75	1875.00	1873.12	1869.25	1865.62	1861.62	1858.25	1854.25	1850.12	1846.25	1842.00	1838.00	1835.75	1834.00	1832.25	1830.50	1828.50	1825.38	1822.12	1817.25	1812.00	1806.75	1801.62	1796.25	1792.12	1788.25	1786.25	1785.25
2350.00	2350.00	2350.00	2350.22	2350.81	2351.12	2351.56	2352.25	2352.85	2353.47	2354.28	2354.97	2355.47	2355.50	2355.50	2354.97	2353.72	2352.25	2349.62	2347.12	2344.06	2340.81	2337.44	2333.50	2329.85	2326.00	2322.06	2318.53	2315.09	2311.94	2308.41	2304.81	2300.94	2297.38	2293.31	2289.22	2284.34	2278.25	2272.28	2265.69	2259.60	2253.10	2247.40	2241.60	2236.53	2231.25	2225.85	2220.34	2215.00	2210.12	2205.53	2201.28	2197.19	2193.06	2189.44	2185.81	2182.63	2179.35	2176.94	2175.65	2174.19	2172.60	2170.97	2168.53	2165.72	2162.56	2158.91	2154.78	2149.75	2145.25	2140.38	2136.06	2132.75	2129.97	2127.88	2125.81	2124.12	2122.03	2119.97	2117.40	2114.44	2111.40	2108.60	2105.47	2102.50	2099.00	2095.90	2093.25	2090.94	2089.35	2088.09	2087.03	2085.85	2084.91	2084.25	2084.00	2083.50	2083.50	2083.00	2083.00	2082.72	2082.25	2082.25	2082.12	2081.06	2080.28	2079.10	2077.69	2076.06	2074.12	2072.34	2070.47	2068.35	2066.28	2064.38	2062.50	2060.56	2058.72	2057.00	2055.38	2054.12	2052.97	2052.50	2051.94	2051.75	2051.75	2052.41	2052.62	2052.75	2053.31	2053.50	2053.50	2052.47	2051.66	2050.50	2048.97	2047.00	2044.38	2041.62	2038.31	2035.12	2031.78	2028.00	2024.75	2022.25	2019.62	2016.78	2014.03	2011.34	2008.65	2005.53	2002.03	1998.75	1994.93	1991.09	1986.72	1982.41	1978.15	1974.28	1970.25	1967.31	1964.38	1962.22	1960.47	1958.84	1958.41	1957.53	1957.69	1957.38	1957.15	1957.38	1957.53	1957.75	1958.38	1958.88	1959.15	1959.72	1960.00	1959.81	1958.66	1957.18	1955.10	1952.06	1948.62	1943.69	1939.15	1934.81	1930.72	1927.38	1925.12	1923.38	1923.50	1923.62	1925.38	1927.25	1928.88	1930.16	1930.97	1930.35	1929.00	1926.28	1922.50	1918.65	1914.72	1910.72	1907.10	1903.34	1900.75	1898.41	1896.31	1894.19	1892.53	1890.88	1889.44	1888.25	1887.31	1886.34	1885.44	1884.50	1884.12	1883.50	1883.12	1882.40	1881.78	1881.12	1880.38	1879.81	1879.25	1878.18	1876.62	1874.78	1871.03	1867.47	1863.34	1859.65	1855.31	1850.91	1846.69	1842.41	1838.09	1835.60	1833.78	1832.00	1830.25	1828.31	1825.22	1822.10	1817.38	1812.25	1807.00	1801.75	1796.25	1792.03	1788.06	1785.91	1784.75
2350.00	2350.00	2350.00	2350.88	2351.00	2351.50	2352.12	2353.00	2353.88	2354.50	2355.12	2356.00	2356.88	2357.00	2357.00	2356.75	2355.88	2354.50	2352.25	2350.12	2346.88	2344.00	2339.88	2335.00	2330.12	2324.88	2319.62	2314.50	2309.75	2305.38	2301.00	2296.75	2292.50	2288.38	2284.12	2280.50	2276.38	2271.88	2267.50	2262.12	2256.88	2251.50	2246.38	2241.12	2235.88	2230.50	2224.62	2218.38	2212.38	2206.38	2201.12	2196.50	2192.50	2188.38	2184.38	2180.75	2178.12	2175.50	2174.12	2173.12	2172.12	2171.00	2169.75	2167.50	2164.88	2161.62	2157.88	2153.38	2148.25	2143.00	2137.75	2132.88	2129.38	2126.12	2124.12	2121.88	2120.00	2118.38	2116.88	2114.88	2112.38	2110.00	2107.38	2104.25	2101.38	2098.25	2095.62	2093.62	2091.50	2090.38	2089.50	2089.00	2088.00	2088.00	2088.00	2087.00	2088.00	2088.00	2089.00	2089.00	2089.38	2089.00	2089.00	2088.50	2087.25	2086.00	2084.25	2082.38	2080.38	2077.88	2075.62	2073.38	2071.25	2068.62	2066.25	2064.00	2061.88	2059.75	2058.50	2056.88	2055.62	2054.38	2054.00	2054.00	2054.00	2054.00	2054.00	2054.50	2055.00	2055.00	2055.00	2055.00	2053.88	2052.88	2051.62	2050.38	2048.50	2045.88	2043.12	2040.00	2037.00	2033.75	2030.25	2027.00	2024.50	2021.88	2018.75	2015.62	2012.75	2009.88	2006.38	2002.88	1999.50	1995.50	1991.38	1987.00	1982.50	1978.25	1974.38	1970.62	1967.88	1965.12	1963.25	1961.50	1960.25	1960.00	1959.12	1959.75	1960.00	1960.62	1961.50	1962.12	1963.00	1963.62	1964.50	1965.62	1966.00	1966.00	1966.00	1964.75	1963.75	1961.38	1958.25	1954.62	1949.50	1944.88	1939.88	1935.50	1931.88	1929.25	1927.50	1928.00	1928.12	1929.88	1931.75	1933.75	1935.50	1936.88	1937.00	1936.12	1933.88	1931.12	1927.38	1923.62	1919.62	1915.62	1911.50	1908.25	1904.88	1902.12	1898.88	1896.38	1894.25	1892.25	1890.50	1889.00	1887.75	1886.75	1886.00	1885.25	1885.00	1884.25	1883.62	1883.00	1883.00	1883.00	1883.00	1883.00	1882.50	1881.50	1879.75	1876.38	1873.00	1868.50	1863.88	1858.50	1853.25	1848.00	1843.62	1838.38	1835.12	1833.12	1831.25	1829.50	1827.75	1824.75	1822.00	1817.75	1813.00	1807.75	1802.12	1796.25	1791.75	1787.50	1784.88	1783.25
2350.00	2350.11	2350.12	2350.94	2351.12	2351.64	2352.28	2353.12	2354.01	2354.66	2355.28	2356.12	2357.01	2357.22	2357.25	2357.03	2356.26	2354.95	2352.92	2350.88	2347.62	2344.72	2340.36	2335.30	2330.11	2324.55	2319.03	2313.72	2308.70	2304.19	2299.65	2295.33	2291.05	2286.91	2282.74	2279.12	2275.08	2270.69	2266.39	2261.12	2256.00	2250.76	2245.76	2240.62	2235.49	2230.12	2224.24	2218.00	2212.03	2206.12	2200.88	2196.22	2192.14	2187.99	2183.94	2180.30	2177.67	2175.12	2173.81	2172.86	2171.88	2170.80	2169.58	2167.33	2164.75	2161.47	2157.72	2153.19	2148.00	2142.75	2137.42	2132.44	2128.88	2125.56	2123.42	2121.19	2119.28	2117.70	2116.28	2114.30	2111.85	2109.47	2106.89	2103.86	2101.05	2098.03	2095.50	2093.60	2091.56	2090.56	2089.69	2089.28	2088.50	2088.51	2088.62	2087.83	2088.81	2088.95	2089.88	2089.99	2090.33	2090.00	2089.99	2089.38	2088.11	2086.76	2084.99	2083.01	2080.94	2078.42	2076.11	2073.76	2071.58	2068.94	2066.53	2064.28	2062.16	2060.01	2058.72	2057.11	2055.91	2054.70	2054.30	2054.25	2054.28	2054.38	2054.38	2054.81	2055.25	2055.25	2055.25	2055.19	2054.09	2053.08	2051.81	2050.50	2048.60	2046.00	2043.25	2040.14	2037.14	2033.92	2030.49	2027.28	2024.70	2022.03	2018.92	2015.80	2012.97	2010.12	2006.62	2003.10	1999.65	1995.65	1991.55	1987.16	1982.65	1978.42	1974.58	1970.85	1968.12	1965.38	1963.51	1961.81	1960.59	1960.38	1959.61	1960.28	1960.58	1961.26	1962.22	1962.94	1963.78	1964.44	1965.34	1966.45	1966.88	1966.81	1966.75	1965.54	1964.53	1962.21	1959.06	1955.47	1950.38	1945.69	1940.75	1936.28	1932.71	1930.00	1928.22	1928.62	1928.80	1930.55	1932.40	1934.38	1936.12	1937.50	1937.62	1936.81	1934.66	1931.97	1928.31	1924.61	1920.64	1916.62	1912.53	1909.17	1905.69	1902.78	1899.41	1896.76	1894.52	1892.40	1890.58	1889.00	1887.65	1886.62	1885.83	1885.09	1884.86	1884.09	1883.55	1883.00	1883.00	1883.00	1883.00	1883.12	1882.69	1881.69	1880.05	1876.75	1873.39	1868.95	1864.30	1858.89	1853.51	1848.12	1843.64	1838.38	1835.10	1833.01	1831.19	1829.55	1827.86	1824.95	1822.30	1818.06	1813.36	1808.12	1802.45	1796.62	1792.01	1787.64	1784.94	1783.20
2350.00	2350.88	2351.00	2351.38	2352.00	2352.62	2353.38	2354.00	2355.00	2355.75	2356.38	2357.00	2358.00	2358.75	2359.00	2359.00	2359.00	2358.12	2357.62	2356.12	2352.88	2349.75	2343.75	2337.38	2330.00	2322.25	2314.88	2308.25	2301.38	2295.88	2290.25	2285.38	2280.88	2276.62	2273.00	2269.50	2266.00	2262.38	2258.62	2254.12	2249.88	2245.62	2241.50	2237.12	2232.75	2227.50	2221.50	2215.38	2209.62	2204.38	2199.12	2194.25	2189.62	2185.25	2180.88	2177.12	2174.50	2172.50	2171.62	2171.00	2170.12	2169.38	2168.38	2166.12	2163.88	2160.38	2156.62	2151.88	2146.25	2141.00	2135.12	2129.38	2125.38	2121.62	2118.50	2116.38	2114.25	2113.00	2112.12	2110.25	2108.12	2105.75	2103.50	2101.12	2098.75	2096.50	2094.62	2093.38	2092.00	2091.88	2091.00	2091.25	2092.00	2092.12	2093.00	2093.62	2094.50	2095.62	2096.00	2096.88	2097.00	2097.00	2096.88	2095.50	2094.12	2092.12	2090.12	2087.50	2084.88	2082.25	2079.50	2076.50	2073.88	2071.12	2068.50	2066.25	2064.12	2061.88	2060.25	2058.75	2057.88	2057.00	2056.38	2056.00	2056.25	2057.00	2057.00	2057.00	2057.00	2057.00	2057.00	2056.50	2055.62	2054.50	2053.12	2051.38	2049.25	2046.88	2044.12	2041.12	2038.12	2035.12	2032.12	2029.25	2026.12	2023.12	2020.12	2017.00	2014.50	2011.88	2008.38	2004.62	2000.75	1996.75	1992.75	1988.25	1983.75	1979.62	1976.00	1972.38	1969.88	1967.12	1965.38	1964.00	1963.00	1963.00	1963.00	1964.00	1964.62	1965.75	1967.25	1968.62	1969.25	1970.12	1971.25	1972.25	1973.00	1972.50	1972.00	1971.12	1970.00	1968.00	1964.75	1961.38	1956.50	1951.38	1946.88	1941.75	1938.50	1935.25	1933.25	1933.00	1933.50	1935.25	1937.00	1938.75	1940.50	1941.88	1942.00	1941.62	1940.12	1937.88	1934.88	1931.50	1927.75	1923.62	1919.75	1915.62	1911.38	1907.38	1903.12	1899.50	1896.38	1893.50	1891.12	1889.00	1887.00	1885.75	1884.62	1884.00	1883.88	1883.00	1883.00	1883.00	1883.00	1883.00	1883.00	1884.00	1884.00	1883.00	1882.12	1879.38	1876.12	1872.12	1867.25	1861.62	1855.38	1849.00	1843.75	1838.38	1834.88	1832.25	1830.75	1829.88	1828.62	1826.38	1824.38	1820.25	1815.88	1810.75	1804.75	1799.25	1793.88	1788.62	1785.38	1782.88
2350.00	2350.84	2351.00	2351.38	2352.01	2352.67	2353.42	2354.08	2355.06	2355.78	2356.45	2357.06	2358.05	2358.81	2359.12	2359.24	2359.25	2358.49	2358.03	2356.44	2353.25	2350.00	2343.92	2337.44	2329.80	2321.85	2314.23	2307.42	2300.36	2294.67	2288.88	2283.89	2279.28	2274.99	2271.40	2267.94	2264.51	2261.00	2257.31	2252.92	2248.70	2244.59	2240.56	2236.31	2232.06	2227.00	2221.22	2215.33	2209.62	2204.49	2199.25	2194.40	2189.75	2185.34	2180.89	2177.14	2174.40	2172.34	2171.40	2170.74	2169.86	2169.11	2168.09	2165.92	2163.67	2160.15	2156.38	2151.56	2145.89	2140.61	2134.70	2128.88	2124.84	2120.99	2117.83	2115.64	2113.53	2112.30	2111.42	2109.61	2107.55	2105.25	2103.05	2100.69	2098.45	2096.28	2094.55	2093.36	2092.12	2092.01	2091.34	2091.64	2092.39	2092.62	2093.55	2094.22	2095.09	2096.22	2096.62	2097.47	2097.61	2097.50	2097.36	2095.99	2094.60	2092.60	2090.51	2087.90	2085.24	2082.53	2079.76	2076.75	2074.12	2071.38	2068.76	2066.51	2064.40	2062.20	2060.64	2059.17	2058.26	2057.38	2056.83	2056.50	2056.72	2057.38	2057.38	2057.34	2057.25	2057.25	2057.17	2056.66	2055.78	2054.66	2053.17	2051.38	2049.25	2046.88	2044.12	2041.08	2038.04	2035.06	2032.08	2029.17	2026.10	2023.10	2020.12	2017.06	2014.55	2011.88	2008.38	2004.65	2000.85	1996.85	1992.86	1988.38	1983.89	1979.78	1976.24	1972.62	1970.15	1967.47	1965.75	1964.41	1963.50	1963.50	1963.59	1964.59	1965.28	1966.42	1967.88	1969.22	1969.91	1970.81	1971.89	1972.84	1973.50	1973.06	1972.58	1971.66	1970.49	1968.42	1965.25	1961.91	1957.11	1952.10	1947.58	1942.51	1939.26	1936.01	1934.06	1933.75	1934.20	1935.88	1937.56	1939.24	1940.91	1942.25	1942.34	1941.92	1940.44	1938.25	1935.33	1931.99	1928.30	1924.17	1920.26	1916.08	1911.80	1907.67	1903.39	1899.64	1896.39	1893.39	1890.97	1888.76	1886.74	1885.44	1884.28	1883.62	1883.39	1882.62	1882.75	1882.75	1882.75	1882.75	1882.80	1883.75	1883.76	1883.00	1882.12	1879.39	1876.22	1872.12	1867.24	1861.61	1855.41	1849.12	1843.94	1838.64	1835.26	1832.75	1831.25	1830.33	1829.06	1826.85	1824.83	1820.72	1816.26	1811.15	1805.15	1799.53	1794.12	1788.74	1785.39	1782.83
2350.00	2350.62	2351.00	2351.38	2352.12	2353.00	2353.75	2354.62	2355.50	2356.00	2357.00	2357.50	2358.38	2359.25	2360.00	2360.88	2361.00	2361.00	2360.88	2358.62	2355.88	2351.75	2345.12	2337.88	2328.38	2319.00	2309.75	2301.62	2293.25	2286.25	2279.25	2273.50	2268.12	2263.50	2260.25	2257.00	2254.12	2251.38	2248.12	2244.50	2240.50	2237.38	2234.00	2230.62	2227.25	2223.50	2219.25	2215.00	2209.62	2205.25	2200.12	2195.50	2190.62	2186.00	2181.00	2177.25	2173.75	2171.25	2169.88	2168.88	2168.00	2167.25	2166.12	2164.50	2162.25	2158.62	2154.62	2149.38	2143.38	2137.88	2131.75	2125.38	2121.12	2116.50	2113.12	2110.50	2108.50	2107.38	2106.50	2105.12	2103.50	2101.75	2099.88	2097.62	2096.38	2094.75	2094.00	2093.25	2093.00	2093.00	2093.75	2094.38	2095.12	2096.12	2097.38	2098.38	2099.25	2100.38	2101.00	2101.62	2101.88	2101.00	2100.75	2099.38	2097.88	2095.88	2093.25	2090.75	2087.75	2084.50	2081.62	2078.50	2075.88	2073.12	2070.62	2068.38	2066.38	2064.50	2063.38	2062.12	2061.00	2060.00	2060.00	2060.00	2060.00	2060.00	2060.00	2059.75	2059.00	2059.00	2058.38	2057.75	2056.88	2055.75	2053.50	2051.38	2049.25	2046.88	2044.12	2040.75	2037.50	2034.62	2031.75	2028.62	2025.88	2022.88	2020.12	2017.50	2014.88	2011.88	2008.38	2004.88	2001.50	1997.50	1993.62	1989.25	1984.88	1980.88	1977.88	1974.38	1972.12	1969.88	1968.38	1967.25	1967.00	1967.00	1967.75	1968.75	1969.88	1971.12	1972.25	1973.38	1974.50	1975.62	1976.38	1977.00	1977.00	1977.00	1976.62	1975.38	1973.88	1971.38	1968.75	1965.62	1961.38	1957.12	1952.50	1947.88	1944.62	1941.38	1939.75	1939.00	1939.12	1940.25	1941.50	1942.62	1943.75	1944.88	1944.75	1944.00	1942.62	1940.88	1938.50	1935.38	1932.12	1928.00	1923.88	1919.25	1914.75	1909.75	1905.25	1900.62	1896.50	1892.62	1889.88	1887.12	1884.88	1883.25	1881.88	1881.00	1880.00	1880.00	1881.00	1881.00	1881.00	1881.00	1881.38	1882.00	1882.12	1883.00	1882.12	1879.50	1876.88	1872.12	1867.12	1861.50	1855.62	1850.00	1845.25	1840.50	1838.00	1836.25	1834.75	1833.50	1832.12	1830.12	1828.00	1824.00	1819.00	1814.00	1808.00	1801.50	1795.88	1789.50	1785.50	1782.50
2350.00	2350.62	2351.00	2351.38	2352.12	2353.00	2353.75	2354.62	2355.50	2356.00	2357.00	2357.50	2358.38	2359.25	2360.00	2360.88	2361.00	2361.00	2360.88	2358.62	2355.88	2351.75	2345.12	2337.88	2328.38	2319.00	2309.75	2301.62	2293.25	2286.25	2279.25	2273.50	2268.12	2263.50	2260.25	2257.00	2254.12	2251.38	2248.12	2244.50	2240.50	2237.38	2234.00	2230.62	2227.25	2223.50	2219.25	2215.00	2209.62	2205.25	2200.12	2195.50	2190.62	2186.00	2181.00	2177.25	2173.75	2171.25	2169.88	2168.88	2168.00	2167.25	2166.12	2164.50	2162.25	2158.62	2154.62	2149.38	2143.38	2137.88	2131.75	2125.38	2121.12	2116.50	2113.12	2110.50	2108.50	2107.38	2106.50	2105.12	2103.50	2101.75	2099.88	2097.62	2096.38	2094.75	2094.00	2093.25	2093.00	2093.00	2093.75	2094.38	2095.12	2096.12	2097.38	2098.38	2099.25	2100.38	2101.00	2101.62	2101.88	2101.00	2100.75	2099.38	2097.88	2095.88	2093.25	2090.75	2087.75	2084.50	2081.62	2078.50	2075.88	2073.12	2070.62	2068.38	2066.38	2064.50	2063.38	2062.12	2061.00	2060.00	2060.00	2060.00	2060.00	2060.00	2060.00	2059.75	2059.00	2059.00	2058.38	2057.75	2056.88	2055.75	2053.50	2051.38	2049.25	2046.88	2044.12	2040.75	2037.50	2034.62	2031.75	2028.62	2025.88	2022.88	2020.12	2017.50	2014.88	2011.88	2008.38	2004.88	2001.50	1997.50	1993.62	1989.25	1984.88	1980.88	1977.88	1974.38	1972.12	1969.88	1968.38	1967.25	1967.00	1967.00	1967.75	1968.75	1969.88	1971.12	1972.25	1973.38	1974.50	1975.62	1976.38	1977.00	1977.00	1977.00	1976.62	1975.38	1973.88	1971.38	1968.75	1965.62	1961.38	1957.12	1952.50	1947.88	1944.62	1941.38	1939.75	1939.00	1939.12	1940.25	1941.50	1942.62	1943.75	1944.88	1944.75	1944.00	1942.62	1940.88	1938.50	1935.38	1932.12	1928.00	1923.88	1919.25	1914.75	1909.75	1905.25	1900.62	1896.50	1892.62	1889.88	1887.12	1884.88	1883.25	1881.88	1881.00	1880.00	1880.00	1881.00	1881.00	1881.00	1881.00	1881.38	1882.00	1882.12	1883.00	1882.12	1879.50	1876.88	1872.12	1867.12	1861.50	1855.62	1850.00	1845.25	1840.50	1838.00	1836.25	1834.75	1833.50	1832.12	1830.12	1828.00	1824.00	1819.00	1814.00	1808.00	1801.50	1795.88	1789.50	1785.50	1782.50
2349.78	2350.08	2350.12	2350.94	2351.58	2352.45	2353.42	2354.30	2355.17	2356.00	2356.12	2357.06	2357.83	2358.59	2359.89	2361.20	2361.44	2360.78	2359.78	2357.75	2354.89	2349.78	2342.94	2335.25	2324.76	2315.06	2305.26	2296.05	2287.24	2279.03	2271.81	2265.74	2259.59	2254.86	2250.85	2247.38	2245.15	2242.41	2239.70	2236.95	2234.05	2231.69	2229.19	2227.12	2224.95	2222.62	2219.80	2216.53	2212.47	2208.31	2203.62	2199.00	2194.12	2188.84	2183.85	2179.65	2175.61	2172.01	2169.22	2166.80	2165.81	2164.74	2162.95	2161.22	2158.75	2155.24	2151.24	2145.22	2139.76	2133.61	2128.03	2121.99	2117.74	2112.67	2109.62	2106.57	2105.00	2103.88	2102.78	2101.19	2099.89	2098.80	2097.47	2096.20	2095.61	2094.97	2094.88	2094.78	2094.75	2094.75	2095.72	2096.67	2097.75	2099.19	2100.76	2101.55	2101.66	2102.56	2102.75	2102.83	2102.42	2101.88	2100.75	2099.49	2097.66	2095.88	2093.14	2090.53	2087.86	2085.15	2082.06	2079.38	2076.75	2074.00	2072.05	2070.23	2068.35	2067.12	2066.11	2065.30	2064.50	2063.50	2063.50	2062.74	2062.62	2062.41	2061.75	2061.72	2061.30	2060.53	2059.47	2058.62	2057.64	2056.08	2054.05	2051.70	2049.14	2046.76	2043.69	2040.32	2037.07	2033.97	2031.20	2028.08	2025.33	2022.44	2020.12	2017.50	2014.88	2011.88	2008.81	2005.53	2002.15	1998.15	1994.28	1990.12	1986.08	1982.51	1979.62	1976.56	1974.53	1972.61	1971.44	1970.42	1970.50	1970.50	1971.03	1972.14	1973.38	1974.84	1976.19	1977.42	1978.33	1978.90	1979.55	1979.62	1979.62	1979.51	1978.49	1977.35	1975.74	1973.67	1970.94	1967.60	1964.00	1960.19	1955.89	1951.81	1948.89	1946.19	1944.56	1943.70	1943.39	1943.53	1944.24	1944.70	1945.50	1945.64	1944.97	1944.44	1942.62	1940.88	1938.50	1935.81	1932.67	1928.88	1924.97	1920.45	1915.85	1910.62	1906.24	1901.17	1895.95	1891.10	1887.69	1884.72	1882.25	1880.30	1878.70	1877.72	1876.83	1877.26	1878.16	1878.38	1878.38	1878.70	1879.51	1880.25	1880.26	1880.38	1879.17	1876.55	1874.25	1869.50	1865.05	1859.75	1853.88	1848.80	1845.03	1841.38	1839.53	1838.44	1837.49	1836.45	1835.19	1832.75	1830.62	1825.97	1819.99	1814.43	1808.33	1802.05	1795.88	1789.83	1785.17	1781.08
2349.75	2350.00	2350.00	2350.88	2351.50	2352.38	2353.38	2354.25	2355.12	2356.00	2356.00	2357.00	2357.75	2358.50	2359.88	2361.25	2361.50	2360.75	2359.62	2357.62	2354.75	2349.50	2342.62	2334.88	2324.25	2314.50	2304.62	2295.25	2286.38	2278.00	2270.75	2264.62	2258.38	2253.62	2249.50	2246.00	2243.88	2241.12	2238.50	2235.88	2233.12	2230.88	2228.50	2226.62	2224.62	2222.50	2219.88	2216.75	2212.88	2208.75	2204.12	2199.50	2194.62	2189.25	2184.25	2180.00	2175.88	2172.12	2169.12	2166.50	2165.50	2164.38	2162.50	2160.75	2158.25	2154.75	2150.75	2144.62	2139.25	2133.00	2127.50	2121.50	2117.25	2112.12	2109.12	2106.00	2104.50	2103.38	2102.25	2100.62	2099.38	2098.38	2097.12	2096.00	2095.50	2095.00	2095.00	2095.00	2095.00	2095.00	2096.00	2097.00	2098.12	2099.62	2101.25	2102.00	2102.00	2102.88	2103.00	2103.00	2102.50	2102.00	2100.75	2099.50	2097.62	2095.88	2093.12	2090.50	2087.88	2085.25	2082.12	2079.50	2076.88	2074.12	2072.25	2070.50	2068.62	2067.50	2066.50	2065.75	2065.00	2064.00	2064.00	2063.12	2063.00	2062.75	2062.00	2062.00	2061.62	2060.75	2059.62	2058.75	2057.75	2056.12	2054.12	2051.75	2049.12	2046.75	2043.62	2040.25	2037.00	2033.88	2031.12	2028.00	2025.25	2022.38	2020.12	2017.50	2014.88	2011.88	2008.88	2005.62	2002.25	1998.25	1994.38	1990.25	1986.25	1982.75	1979.88	1976.88	1974.88	1973.00	1971.88	1970.88	1971.00	1971.00	1971.50	1972.62	1973.88	1975.38	1976.75	1978.00	1978.88	1979.38	1980.00	1980.00	1980.00	1979.88	1978.75	1977.62	1976.00	1974.00	1971.25	1967.88	1964.38	1960.62	1956.38	1952.38	1949.50	1946.88	1945.25	1944.38	1944.00	1944.00	1944.62	1945.00	1945.75	1945.75	1945.00	1944.50	1942.62	1940.88	1938.50	1935.88	1932.75	1929.00	1925.12	1920.62	1916.00	1910.75	1906.38	1901.25	1895.88	1890.88	1887.38	1884.38	1881.88	1879.88	1878.25	1877.25	1876.38	1876.88	1877.75	1878.00	1878.00	1878.38	1879.25	1880.00	1880.00	1880.00	1878.75	1876.12	1873.88	1869.12	1864.75	1859.50	1853.62	1848.62	1845.00	1841.50	1839.75	1838.75	1837.88	1836.88	1835.62	1833.12	1831.00	1826.25	1820.12	1814.50	1808.38	1802.12	1795.88	1789.88	1785.12	1780.88
2348.97	2349.38	2349.69	2350.33	2351.19	2352.06	2352.99	2354.02	2354.74	2355.38	2355.76	2356.38	2356.73	2357.72	2358.94	2360.39	2360.10	2359.50	2358.06	2355.75	2352.56	2346.84	2340.05	2331.75	2321.60	2311.53	2301.26	2291.50	2282.00	2273.24	2265.67	2260.02	2253.85	2249.17	2244.58	2241.24	2238.95	2236.36	2233.97	2231.58	2229.76	2228.14	2226.94	2225.92	2224.70	2223.28	2221.44	2218.70	2215.14	2211.49	2207.01	2202.47	2197.20	2191.75	2186.59	2181.80	2177.60	2173.06	2169.28	2166.03	2163.94	2161.80	2159.77	2157.70	2154.97	2151.62	2147.62	2141.97	2136.75	2131.12	2125.78	2120.17	2115.61	2111.03	2107.95	2105.14	2103.25	2102.05	2100.85	2099.61	2098.51	2097.90	2097.05	2096.62	2096.44	2096.25	2096.25	2096.25	2096.56	2096.88	2097.72	2098.40	2099.30	2100.40	2101.56	2102.00	2102.00	2102.33	2102.38	2102.22	2101.25	2100.36	2099.03	2097.55	2095.67	2093.61	2091.25	2088.86	2086.31	2083.92	2081.19	2078.49	2076.40	2074.28	2072.72	2071.12	2069.72	2069.06	2068.06	2067.62	2066.88	2066.19	2065.88	2065.08	2064.88	2064.23	2063.64	2063.25	2062.56	2061.69	2060.64	2059.38	2058.30	2056.60	2054.36	2051.98	2049.20	2046.44	2043.23	2039.78	2036.68	2033.56	2030.89	2028.00	2025.41	2022.69	2020.44	2017.81	2015.50	2012.73	2009.74	2006.64	2003.18	1999.50	1995.78	1991.74	1987.82	1984.55	1981.60	1978.90	1976.83	1975.11	1974.06	1973.14	1973.35	1973.74	1974.31	1975.36	1976.22	1977.40	1978.70	1979.88	1980.20	1980.94	1981.25	1981.10	1980.62	1980.19	1979.22	1977.94	1976.23	1974.00	1971.40	1968.27	1964.77	1961.17	1957.62	1953.94	1951.45	1949.14	1947.52	1946.49	1945.88	1945.64	1945.49	1945.62	1945.90	1945.20	1944.06	1943.10	1941.38	1939.62	1937.49	1935.25	1932.60	1929.15	1925.44	1921.25	1916.86	1912.00	1907.00	1901.88	1896.50	1891.35	1887.37	1883.90	1881.25	1879.25	1877.47	1876.47	1875.60	1876.25	1877.12	1877.38	1877.38	1877.51	1878.47	1878.75	1878.75	1878.12	1876.88	1874.10	1871.38	1866.86	1862.33	1857.47	1852.14	1847.53	1844.45	1841.58	1840.06	1839.14	1838.50	1837.58	1836.56	1833.67	1831.00	1825.62	1819.35	1813.09	1806.89	1800.33	1794.00	1787.85	1782.94	1778.53
2348.50	2349.00	2349.50	2350.00	2351.00	2351.88	2352.75	2353.88	2354.50	2355.00	2355.62	2356.00	2356.12	2357.25	2358.38	2359.88	2359.25	2358.75	2357.12	2354.62	2351.25	2345.25	2338.50	2329.88	2320.00	2309.75	2299.25	2289.25	2279.38	2270.38	2262.62	2257.25	2251.12	2246.50	2241.62	2238.38	2236.00	2233.50	2231.25	2229.00	2227.75	2226.50	2226.00	2225.50	2224.75	2223.75	2222.38	2219.88	2216.50	2213.12	2208.75	2204.25	2198.75	2193.25	2188.00	2182.88	2178.62	2173.62	2169.38	2165.75	2163.00	2160.25	2158.12	2155.88	2153.00	2149.75	2145.75	2140.38	2135.25	2130.00	2124.75	2119.38	2114.62	2110.38	2107.25	2104.62	2102.50	2101.25	2100.00	2099.00	2098.00	2097.62	2097.00	2097.00	2097.00	2097.00	2097.00	2097.00	2097.50	2098.00	2098.75	2099.25	2100.00	2100.88	2101.75	2102.00	2102.00	2102.00	2102.00	2101.75	2100.50	2099.38	2098.00	2096.38	2094.50	2092.25	2090.12	2087.88	2085.38	2083.12	2080.62	2077.88	2076.12	2074.38	2073.00	2071.50	2070.38	2070.00	2069.00	2068.75	2068.00	2067.50	2067.00	2066.25	2066.00	2065.12	2064.62	2064.00	2063.12	2062.25	2061.25	2059.75	2058.62	2056.88	2054.50	2052.12	2049.25	2046.25	2043.00	2039.50	2036.50	2033.38	2030.75	2028.00	2025.50	2022.88	2020.62	2018.00	2015.88	2013.25	2010.25	2007.25	2003.75	2000.25	1996.62	1992.62	1988.75	1985.62	1982.62	1980.12	1978.00	1976.38	1975.38	1974.50	1974.75	1975.38	1976.00	1977.00	1977.62	1978.62	1979.88	1981.00	1981.00	1981.88	1982.00	1981.75	1981.00	1980.38	1979.50	1978.12	1976.38	1974.00	1971.50	1968.50	1965.00	1961.50	1958.38	1954.88	1952.62	1950.50	1948.88	1947.75	1947.00	1946.62	1946.00	1946.00	1946.00	1944.88	1943.50	1942.25	1940.62	1938.88	1936.88	1934.88	1932.50	1929.25	1925.62	1921.62	1917.38	1912.75	1907.38	1902.25	1896.88	1891.62	1887.38	1883.62	1880.88	1878.88	1877.00	1876.00	1875.12	1875.88	1876.75	1877.00	1877.00	1877.00	1878.00	1878.00	1878.00	1877.00	1875.75	1872.88	1869.88	1865.50	1860.88	1856.25	1851.25	1846.88	1844.12	1841.62	1840.25	1839.38	1838.88	1838.00	1837.12	1834.00	1831.00	1825.25	1818.88	1812.25	1806.00	1799.25	1792.88	1786.62	1781.62	1777.12
2347.56	2348.14	2349.03	2349.53	2350.38	2351.10	2351.97	2353.10	2353.72	2354.38	2354.85	2355.38	2355.42	2355.85	2356.89	2357.45	2357.14	2356.25	2354.39	2351.81	2348.12	2342.67	2336.47	2327.76	2318.12	2307.88	2297.38	2287.38	2277.42	2268.03	2260.51	2254.28	2248.39	2243.61	2239.12	2235.88	2232.95	2230.38	2227.97	2225.88	2224.78	2224.31	2224.12	2223.94	2223.65	2223.28	2222.30	2220.34	2217.83	2214.85	2210.86	2206.44	2201.56	2196.38	2190.97	2185.30	2180.81	2175.89	2171.17	2167.23	2163.86	2160.56	2157.58	2154.47	2151.44	2147.95	2143.88	2139.05	2134.24	2129.38	2124.51	2119.38	2114.86	2110.77	2107.80	2105.02	2103.12	2101.48	2100.62	2100.01	2099.25	2099.11	2098.88	2098.88	2098.88	2099.19	2099.50	2099.50	2099.69	2099.88	2100.15	2100.89	2101.25	2101.58	2101.90	2101.45	2101.38	2100.83	2100.12	2099.33	2097.85	2096.48	2094.88	2092.94	2090.98	2088.89	2086.85	2084.59	2082.33	2080.39	2078.51	2076.55	2075.03	2073.60	2072.77	2071.81	2071.39	2070.70	2070.25	2070.15	2069.80	2069.06	2068.33	2067.73	2067.25	2066.61	2065.88	2065.10	2064.14	2063.27	2062.11	2060.85	2059.48	2057.58	2055.05	2052.36	2049.40	2046.41	2043.24	2040.05	2036.97	2034.00	2031.30	2028.86	2026.67	2024.28	2021.95	2019.64	2017.67	2015.12	2012.20	2009.28	2006.01	2002.83	1999.36	1995.20	1991.49	1988.44	1985.75	1983.10	1981.05	1979.26	1978.35	1977.94	1977.72	1977.64	1978.42	1978.88	1979.50	1980.35	1981.20	1982.01	1982.25	1982.19	1982.00	1981.44	1980.69	1980.06	1978.88	1977.50	1975.75	1973.53	1971.03	1967.95	1964.68	1961.42	1958.61	1955.66	1953.40	1951.36	1949.89	1949.00	1948.17	1947.49	1946.70	1945.85	1945.06	1943.62	1942.02	1940.53	1938.75	1937.16	1935.39	1933.55	1931.64	1929.01	1926.17	1922.64	1918.78	1914.31	1909.25	1904.44	1899.38	1894.44	1889.80	1885.74	1882.59	1880.20	1878.40	1877.72	1876.92	1877.36	1878.15	1878.25	1878.80	1878.88	1879.25	1879.25	1878.62	1877.31	1875.44	1872.40	1869.33	1864.88	1860.40	1855.86	1851.25	1847.50	1844.91	1842.56	1841.19	1840.15	1839.26	1837.92	1836.26	1832.67	1828.89	1822.51	1815.90	1809.12	1802.57	1795.65	1789.12	1782.80	1777.88	1773.38
2347.00	2347.62	2348.75	2349.25	2350.00	2350.62	2351.50	2352.62	2353.25	2354.00	2354.38	2355.00	2355.00	2355.00	2356.00	2356.00	2355.88	2354.75	2352.75	2350.12	2346.25	2341.12	2335.25	2326.50	2317.00	2306.75	2296.25	2286.25	2276.25	2266.62	2259.25	2252.50	2246.75	2241.88	2237.62	2234.38	2231.12	2228.50	2226.00	2224.00	2223.00	2223.00	2223.00	2223.00	2223.00	2223.00	2222.25	2220.62	2218.62	2215.88	2212.12	2207.75	2203.25	2198.25	2192.75	2186.75	2182.12	2177.25	2172.25	2168.12	2164.38	2160.75	2157.25	2153.62	2150.50	2146.88	2142.75	2138.25	2133.62	2129.00	2124.38	2119.38	2115.00	2111.00	2108.12	2105.25	2103.50	2101.62	2101.00	2100.62	2100.00	2100.00	2100.00	2100.00	2100.00	2100.50	2101.00	2101.00	2101.00	2101.00	2101.00	2101.88	2102.00	2102.00	2102.00	2101.12	2101.00	2100.12	2099.00	2097.88	2096.25	2094.75	2093.00	2090.88	2088.88	2086.88	2084.88	2082.62	2080.50	2078.75	2077.25	2075.75	2074.38	2073.12	2072.62	2072.00	2072.00	2071.12	2071.00	2071.00	2070.88	2070.00	2069.12	2068.62	2068.00	2067.50	2066.62	2065.75	2064.75	2063.88	2062.62	2061.50	2060.00	2058.00	2055.38	2052.50	2049.50	2046.50	2043.38	2040.38	2037.25	2034.38	2031.62	2029.38	2027.38	2025.12	2022.75	2020.62	2018.75	2016.25	2013.38	2010.50	2007.38	2004.38	2001.00	1996.75	1993.12	1990.12	1987.62	1984.88	1982.88	1981.00	1980.12	1980.00	1979.50	1979.00	1979.88	1980.00	1980.62	1981.38	1982.00	1982.62	1983.00	1982.38	1982.00	1981.25	1980.50	1979.88	1978.50	1977.12	1975.38	1973.25	1970.75	1967.62	1964.50	1961.38	1958.75	1956.12	1953.88	1951.88	1950.50	1949.75	1948.88	1948.00	1947.12	1945.75	1944.50	1942.88	1941.12	1939.50	1937.62	1936.12	1934.50	1932.75	1931.12	1928.88	1926.50	1923.25	1919.62	1915.25	1910.38	1905.75	1900.88	1896.12	1891.25	1887.00	1883.62	1881.00	1879.25	1878.75	1878.00	1878.25	1879.00	1879.00	1879.88	1880.00	1880.00	1880.00	1879.00	1877.50	1875.25	1872.12	1869.00	1864.50	1860.12	1855.62	1851.25	1847.88	1845.38	1843.12	1841.75	1840.62	1839.50	1837.88	1835.75	1831.88	1827.62	1820.88	1814.12	1807.25	1800.50	1793.50	1786.88	1780.50	1775.62	1771.12
2346.50	2347.25	2347.94	2348.62	2349.25	2349.88	2350.75	2351.75	2352.38	2353.00	2353.50	2354.00	2354.00	2354.00	2354.62	2354.50	2354.19	2353.12	2350.94	2348.38	2344.69	2340.25	2334.44	2325.94	2316.94	2307.00	2296.94	2287.12	2276.75	2267.12	2259.44	2252.31	2245.94	2240.88	2236.25	2232.69	2229.38	2226.81	2224.50	2222.75	2222.00	2221.56	2221.50	2221.50	2221.50	2221.50	2221.12	2219.94	2218.31	2215.88	2212.69	2208.69	2204.50	2199.75	2194.38	2188.75	2183.88	2179.25	2174.12	2169.88	2165.88	2162.00	2158.25	2154.38	2151.00	2147.25	2143.19	2138.69	2134.19	2129.56	2125.06	2120.31	2116.12	2112.44	2109.62	2107.00	2105.25	2103.69	2103.00	2102.81	2102.50	2102.50	2102.50	2102.50	2102.50	2102.75	2103.00	2103.00	2103.00	2103.00	2103.00	2102.94	2102.75	2102.31	2101.81	2100.62	2099.94	2098.62	2097.00	2095.50	2093.69	2091.88	2089.94	2087.75	2085.69	2083.81	2082.00	2080.06	2078.38	2076.94	2075.56	2074.38	2073.62	2072.56	2072.31	2072.00	2072.00	2071.56	2071.56	2071.50	2071.44	2070.56	2069.88	2069.31	2068.69	2068.12	2067.25	2066.38	2065.25	2064.31	2063.00	2061.88	2060.31	2058.31	2055.88	2053.00	2050.00	2047.06	2044.00	2041.00	2038.00	2035.12	2032.62	2030.69	2028.81	2026.62	2024.31	2022.56	2020.75	2018.56	2015.88	2013.19	2010.19	2007.25	2004.12	2000.06	1996.56	1993.38	1990.62	1987.88	1985.88	1983.88	1982.81	1982.12	1981.38	1980.81	1981.31	1981.50	1981.81	1982.19	1982.94	1982.81	1983.00	1982.44	1981.88	1981.00	1980.12	1979.25	1978.00	1976.38	1974.62	1972.50	1970.12	1967.12	1964.25	1961.38	1958.75	1956.25	1954.19	1952.19	1950.94	1950.12	1949.25	1948.38	1947.44	1946.00	1944.50	1942.69	1940.62	1938.94	1936.94	1935.25	1933.69	1932.19	1930.75	1928.88	1927.00	1924.44	1921.44	1917.50	1913.06	1908.69	1904.00	1899.44	1894.94	1890.69	1887.62	1885.06	1883.25	1882.62	1882.00	1881.69	1882.00	1882.00	1882.44	1882.50	1882.12	1881.75	1880.38	1878.56	1876.25	1872.88	1869.56	1865.50	1861.31	1857.06	1853.06	1849.50	1847.25	1844.88	1843.25	1841.75	1840.00	1837.88	1834.88	1830.06	1825.00	1817.88	1810.69	1803.50	1796.50	1789.50	1782.94	1776.88	1772.25	1768.44
2346.00	2346.88	2347.12	2348.00	2348.50	2349.12	2350.00	2350.88	2351.50	2352.00	2352.62	2353.00	2353.00	2353.00	2353.25	2353.00	2352.50	2351.50	2349.12	2346.62	2343.12	2339.38	2333.62	2325.38	2316.88	2307.25	2297.62	2288.00	2277.25	2267.62	2259.62	2252.12	2245.12	2239.88	2234.88	2231.00	2227.62	2225.12	2223.00	2221.50	2221.00	2220.12	2220.00	2220.00	2220.00	2220.00	2220.00	2219.25	2218.00	2215.88	2213.25	2209.62	2205.75	2201.25	2196.00	2190.75	2185.62	2181.25	2176.00	2171.62	2167.38	2163.25	2159.25	2155.12	2151.50	2147.62	2143.62	2139.12	2134.75	2130.12	2125.75	2121.25	2117.25	2113.88	2111.12	2108.75	2107.00	2105.75	2105.00	2105.00	2105.00	2105.00	2105.00	2105.00	2105.00	2105.00	2105.00	2105.00	2105.00	2105.00	2105.00	2104.00	2103.50	2102.62	2101.62	2100.12	2098.88	2097.12	2095.00	2093.12	2091.12	2089.00	2086.88	2084.62	2082.50	2080.75	2079.12	2077.50	2076.25	2075.12	2073.88	2073.00	2072.88	2072.00	2072.00	2072.00	2072.00	2072.00	2072.12	2072.00	2072.00	2071.12	2070.62	2070.00	2069.38	2068.75	2067.88	2067.00	2065.75	2064.75	2063.38	2062.25	2060.62	2058.62	2056.38	2053.50	2050.50	2047.62	2044.62	2041.62	2038.75	2035.88	2033.62	2032.00	2030.25	2028.12	2025.88	2024.50	2022.75	2020.88	2018.38	2015.88	2013.00	2010.12	2007.25	2003.38	2000.00	1996.62	1993.62	1990.88	1988.88	1986.75	1985.50	1984.25	1983.25	1982.62	1982.75	1983.00	1983.00	1983.00	1983.88	1983.00	1983.00	1982.50	1981.75	1980.75	1979.75	1978.62	1977.50	1975.62	1973.88	1971.75	1969.50	1966.62	1964.00	1961.38	1958.75	1956.38	1954.50	1952.50	1951.38	1950.50	1949.62	1948.75	1947.75	1946.25	1944.50	1942.50	1940.12	1938.38	1936.25	1934.38	1932.88	1931.62	1930.38	1928.88	1927.50	1925.62	1923.25	1919.75	1915.75	1911.62	1907.12	1902.75	1898.62	1894.38	1891.62	1889.12	1887.25	1886.50	1886.00	1885.12	1885.00	1885.00	1885.00	1885.00	1884.25	1883.50	1881.75	1879.62	1877.25	1873.62	1870.12	1866.50	1862.50	1858.50	1854.88	1851.12	1849.12	1846.62	1844.75	1842.88	1840.50	1837.88	1834.00	1828.25	1822.38	1814.88	1807.25	1799.75	1792.50	1785.50	1779.00	1773.25	1768.88	1765.75
2345.65	2346.41	2346.84	2347.56	2348.12	2348.72	2349.50	2350.31	2350.88	2351.44	2351.97	2352.25	2352.25	2352.44	2352.69	2352.28	2351.88	2350.94	2348.87	2346.59	2343.31	2339.75	2334.03	2326.22	2317.81	2308.28	2298.69	2288.78	2278.00	2268.15	2259.63	2251.75	2244.59	2238.75	2233.88	2229.94	2226.72	2224.38	2222.34	2221.00	2220.44	2219.59	2219.35	2219.25	2219.25	2219.25	2219.03	2218.44	2217.25	2215.28	2212.88	2209.37	2205.75	2201.44	2196.47	2191.50	2186.60	2182.10	2177.00	2172.62	2168.35	2164.15	2160.12	2156.03	2152.31	2148.44	2144.53	2140.12	2135.81	2131.12	2126.88	2122.53	2118.69	2115.34	2112.56	2110.35	2108.62	2107.41	2106.69	2106.50	2106.50	2106.50	2106.50	2106.50	2106.44	2106.25	2106.25	2106.00	2105.75	2105.53	2105.38	2104.40	2103.66	2102.56	2101.38	2099.75	2098.28	2096.31	2094.03	2092.00	2089.88	2087.72	2085.62	2083.38	2081.28	2079.50	2077.94	2076.47	2075.25	2074.25	2073.16	2072.50	2072.41	2071.88	2072.00	2072.00	2072.00	2072.12	2072.12	2072.00	2072.00	2071.12	2070.69	2070.00	2069.34	2068.66	2067.69	2066.75	2065.56	2064.62	2063.38	2062.31	2060.78	2058.75	2056.50	2053.65	2050.75	2047.91	2044.94	2041.88	2039.06	2036.38	2034.12	2032.50	2030.75	2028.75	2026.69	2025.38	2023.88	2022.19	2019.88	2017.50	2014.75	2012.03	2009.16	2005.44	2002.10	1998.62	1995.53	1992.56	1990.22	1988.03	1986.53	1985.09	1984.03	1983.31	1983.31	1983.50	1983.50	1983.50	1984.10	1983.25	1983.25	1982.72	1981.88	1980.88	1979.75	1978.59	1977.28	1975.50	1973.66	1971.56	1969.31	1966.50	1963.88	1961.31	1958.75	1956.38	1954.56	1952.69	1951.59	1950.72	1949.78	1948.78	1947.69	1946.15	1944.47	1942.31	1940.00	1938.16	1936.10	1934.25	1932.81	1931.59	1930.38	1929.00	1927.75	1926.15	1924.16	1920.97	1917.28	1913.38	1908.90	1904.65	1900.75	1896.75	1894.12	1891.81	1890.00	1889.19	1888.40	1887.47	1887.10	1886.85	1886.65	1886.40	1885.50	1884.50	1882.69	1880.47	1878.00	1874.38	1871.00	1867.44	1863.62	1859.85	1856.37	1852.81	1850.56	1847.94	1845.84	1843.65	1841.00	1837.97	1833.75	1827.53	1821.25	1813.40	1805.50	1797.82	1790.56	1783.50	1777.22	1771.69	1767.65	1764.85
2344.62	2345.00	2346.00	2346.25	2347.00	2347.50	2348.00	2348.62	2349.00	2349.75	2350.00	2350.00	2350.00	2350.75	2351.00	2350.12	2350.00	2349.25	2348.12	2346.50	2343.88	2340.88	2335.25	2328.75	2320.62	2311.38	2301.88	2291.12	2280.25	2269.75	2259.62	2250.62	2243.00	2235.38	2230.88	2226.75	2224.00	2222.12	2220.38	2219.50	2218.75	2218.00	2217.38	2217.00	2217.00	2217.00	2216.12	2216.00	2215.00	2213.50	2211.75	2208.62	2205.75	2202.00	2197.88	2193.75	2189.50	2184.62	2180.00	2175.62	2171.25	2166.88	2162.75	2158.75	2154.75	2150.88	2147.25	2143.12	2139.00	2134.12	2130.25	2126.38	2123.00	2119.75	2116.88	2115.12	2113.50	2112.38	2111.75	2111.00	2111.00	2111.00	2111.00	2111.00	2110.75	2110.00	2110.00	2109.00	2108.00	2107.12	2106.50	2105.62	2104.12	2102.38	2100.62	2098.62	2096.50	2093.88	2091.12	2088.62	2086.12	2083.88	2081.88	2079.62	2077.62	2075.75	2074.38	2073.38	2072.25	2071.62	2071.00	2071.00	2071.00	2071.50	2072.00	2072.00	2072.00	2072.50	2072.12	2072.00	2072.00	2071.12	2070.88	2070.00	2069.25	2068.38	2067.12	2066.00	2065.00	2064.25	2063.38	2062.50	2061.25	2059.12	2056.88	2054.12	2051.50	2048.75	2045.88	2042.62	2040.00	2037.88	2035.62	2034.00	2032.25	2030.62	2029.12	2028.00	2027.25	2026.12	2024.38	2022.38	2020.00	2017.75	2014.88	2011.62	2008.38	2004.62	2001.25	1997.62	1994.25	1991.88	1989.62	1987.62	1986.38	1985.38	1985.00	1985.00	1985.00	1985.00	1984.75	1984.00	1984.00	1983.38	1982.25	1981.25	1979.75	1978.50	1976.62	1975.12	1973.00	1971.00	1968.75	1966.12	1963.50	1961.12	1958.75	1956.38	1954.75	1953.25	1952.25	1951.38	1950.25	1948.88	1947.50	1945.88	1944.38	1941.75	1939.62	1937.50	1935.62	1933.88	1932.62	1931.50	1930.38	1929.38	1928.50	1927.75	1926.88	1924.62	1921.88	1918.62	1914.25	1910.38	1907.12	1903.88	1901.62	1899.88	1898.25	1897.25	1895.62	1894.50	1893.38	1892.38	1891.62	1890.62	1889.25	1887.50	1885.50	1883.00	1880.25	1876.62	1873.62	1870.25	1867.00	1863.88	1860.88	1857.88	1854.88	1851.88	1849.12	1846.00	1842.50	1838.25	1833.00	1825.38	1817.88	1809.00	1800.25	1792.00	1784.75	1777.50	1771.88	1767.00	1764.00	1762.12
2344.55	2344.88	2345.88	2346.09	2346.84	2347.31	2347.80	2348.42	2348.75	2349.41	2349.62	2349.62	2349.62	2350.28	2350.50	2349.81	2349.75	2349.09	2348.11	2346.61	2344.08	2341.12	2335.49	2329.07	2320.88	2311.64	2302.01	2291.17	2280.16	2269.47	2259.15	2250.06	2242.33	2234.72	2230.25	2226.15	2223.55	2221.83	2220.20	2219.31	2218.58	2217.78	2217.12	2216.69	2216.58	2216.49	2215.61	2215.41	2214.44	2213.00	2211.30	2208.30	2205.47	2201.83	2197.83	2193.81	2189.65	2184.89	2180.36	2175.99	2171.67	2167.36	2163.27	2159.26	2155.35	2151.47	2147.80	2143.67	2139.57	2134.78	2130.95	2127.11	2123.80	2120.62	2117.80	2116.06	2114.50	2113.34	2112.67	2111.88	2111.84	2111.75	2111.74	2111.62	2111.34	2110.56	2110.44	2109.41	2108.34	2107.39	2106.64	2105.65	2104.11	2102.30	2100.40	2098.31	2096.11	2093.40	2090.62	2088.06	2085.55	2083.31	2081.30	2079.11	2077.16	2075.33	2074.05	2073.06	2071.97	2071.42	2070.81	2070.88	2070.88	2071.44	2071.88	2071.99	2072.00	2072.44	2072.11	2072.00	2071.92	2071.05	2070.72	2069.81	2069.01	2068.12	2066.94	2065.88	2064.88	2064.11	2063.25	2062.41	2061.17	2059.12	2056.92	2054.20	2051.61	2048.85	2045.94	2042.75	2040.12	2037.94	2035.72	2034.06	2032.36	2030.80	2029.36	2028.28	2027.59	2026.51	2024.89	2023.00	2020.66	2018.38	2015.53	2012.35	2009.10	2005.38	2001.97	1998.26	1994.81	1992.36	1989.99	1987.99	1986.64	1985.62	1985.24	1985.12	1985.12	1985.12	1984.91	1984.25	1984.25	1983.62	1982.46	1981.42	1979.94	1978.64	1976.80	1975.28	1973.12	1971.05	1968.75	1966.12	1963.50	1961.09	1958.67	1956.36	1954.72	1953.24	1952.22	1951.34	1950.25	1948.94	1947.60	1945.95	1944.44	1941.88	1939.67	1937.53	1935.69	1933.95	1932.70	1931.58	1930.45	1929.58	1928.69	1928.03	1927.14	1925.06	1922.45	1919.33	1915.08	1911.34	1908.10	1904.94	1902.76	1901.11	1899.51	1898.51	1896.89	1895.70	1894.47	1893.33	1892.38	1891.25	1889.80	1888.00	1885.93	1883.41	1880.62	1877.06	1874.06	1870.80	1867.64	1864.58	1861.62	1858.65	1855.72	1852.71	1849.83	1846.64	1842.90	1838.41	1832.97	1825.17	1817.49	1808.49	1799.59	1791.28	1784.07	1776.84	1771.41	1766.64	1763.74	1761.97
2344.00	2344.00	2345.00	2345.00	2345.75	2346.00	2346.38	2347.00	2347.00	2347.00	2347.00	2347.00	2347.00	2347.00	2347.00	2347.62	2348.00	2348.00	2348.00	2347.38	2345.50	2342.88	2337.12	2331.25	2322.62	2313.50	2303.00	2291.50	2279.50	2267.50	2255.88	2246.12	2237.62	2230.12	2225.88	2222.00	2220.38	2219.75	2219.00	2218.00	2217.38	2216.25	2215.38	2214.50	2213.62	2212.88	2212.00	2211.25	2210.50	2209.50	2208.12	2206.00	2203.50	2200.62	2197.50	2194.25	2190.75	2186.75	2182.88	2178.50	2174.62	2170.75	2166.88	2162.88	2159.50	2155.62	2151.62	2147.50	2143.50	2139.38	2135.88	2132.25	2129.38	2126.75	2124.25	2122.62	2121.50	2120.12	2119.12	2118.00	2117.75	2117.00	2116.88	2116.00	2115.50	2114.50	2113.50	2112.25	2110.75	2109.25	2107.62	2105.88	2104.00	2101.75	2098.88	2096.12	2093.38	2090.12	2087.12	2084.12	2081.50	2079.38	2077.25	2075.50	2073.88	2072.38	2071.75	2070.88	2070.00	2070.00	2069.50	2070.00	2070.00	2071.00	2071.00	2071.88	2072.00	2072.00	2072.00	2072.00	2071.38	2070.50	2069.62	2068.50	2067.38	2066.38	2065.62	2065.00	2064.00	2063.12	2062.38	2061.75	2060.62	2059.12	2057.25	2054.75	2052.38	2049.50	2046.38	2043.62	2041.00	2038.38	2036.38	2034.50	2033.12	2032.00	2031.00	2030.25	2030.00	2029.25	2028.50	2027.38	2025.25	2022.75	2020.12	2017.38	2014.12	2010.62	2007.00	2002.75	1998.75	1995.75	1992.50	1990.50	1988.50	1987.38	1986.88	1986.00	1986.00	1986.00	1986.00	1986.00	1986.00	1985.38	1983.88	1982.62	1981.25	1979.62	1978.00	1976.38	1974.00	1971.38	1968.75	1966.12	1963.50	1960.88	1958.12	1956.25	1954.50	1953.12	1952.00	1951.12	1950.25	1949.38	1948.25	1946.50	1944.88	1942.75	1940.00	1937.75	1936.12	1934.50	1933.25	1932.12	1931.00	1931.00	1930.00	1930.00	1929.00	1928.12	1926.50	1924.25	1920.88	1918.12	1914.88	1912.38	1910.75	1909.75	1908.38	1907.38	1905.75	1904.12	1902.12	1900.00	1897.62	1895.62	1893.62	1891.50	1889.00	1886.25	1883.25	1880.12	1877.12	1874.62	1872.12	1869.50	1866.88	1864.12	1861.62	1858.50	1854.75	1851.12	1845.75	1839.50	1832.75	1823.75	1814.75	1804.88	1795.00	1786.25	1779.25	1772.25	1768.12	1764.12	1761.88	1760.88
2344.00	2344.00	2345.00	2345.00	2345.75	2346.00	2346.38	2347.00	2347.00	2347.00	2347.00	2347.00	2347.00	2347.00	2347.00	2347.62	2348.00	2348.00	2348.00	2347.38	2345.50	2342.88	2337.12	2331.25	2322.62	2313.50	2303.00	2291.50	2279.50	2267.50	2255.88	2246.12	2237.62	2230.12	2225.88	2222.00	2220.38	2219.75	2219.00	2218.00	2217.38	2216.25	2215.38	2214.50	2213.62	2212.88	2212.00	2211.25	2210.50	2209.50	2208.12	2206.00	2203.50	2200.62	2197.50	2194.25	2190.75	2186.75	2182.88	2178.50	2174.62	2170.75	2166.88	2162.88	2159.50	2155.62	2151.62	2147.50	2143.50	2139.38	2135.88	2132.25	2129.38	2126.75	2124.25	2122.62	2121.50	2120.12	2119.12	2118.00	2117.75	2117.00	2116.88	2116.00	2115.50	2114.50	2113.50	2112.25	2110.75	2109.25	2107.62	2105.88	2104.00	2101.75	2098.88	2096.12	2093.38	2090.12	2087.12	2084.12	2081.50	2079.38	2077.25	2075.50	2073.88	2072.38	2071.75	2070.88	2070.00	2070.00	2069.50	2070.00	2070.00	2071.00	2071.00	2071.88	2072.00	2072.00	2072.00	2072.00	2071.38	2070.50	2069.62	2068.50	2067.38	2066.38	2065.62	2065.00	2064.00	2063.12	2062.38	2061.75	2060.62	2059.12	2057.25	2054.75	2052.38	2049.50	2046.38	2043.62	2041.00	2038.38	2036.38	2034.50	2033.12	2032.00	2031.00	2030.25	2030.00	2029.25	2028.50	2027.38	2025.25	2022.75	2020.12	2017.38	2014.12	2010.62	2007.00	2002.75	1998.75	1995.75	1992.50	1990.50	1988.50	1987.38	1986.88	1986.00	1986.00	1986.00	1986.00	1986.00	1986.00	1985.38	1983.88	1982.62	1981.25	1979.62	1978.00	1976.38	1974.00	1971.38	1968.75	1966.12	1963.50	1960.88	1958.12	1956.25	1954.50	1953.12	1952.00	1951.12	1950.25	1949.38	1948.25	1946.50	1944.88	1942.75	1940.00	1937.75	1936.12	1934.50	1933.25	1932.12	1931.00	1931.00	1930.00	1930.00	1929.00	1928.12	1926.50	1924.25	1920.88	1918.12	1914.88	1912.38	1910.75	1909.75	1908.38	1907.38	1905.75	1904.12	1902.12	1900.00	1897.62	1895.62	1893.62	1891.50	1889.00	1886.25	1883.25	1880.12	1877.12	1874.62	1872.12	1869.50	1866.88	1864.12	1861.62	1858.50	1854.75	1851.12	1845.75	1839.50	1832.75	1823.75	1814.75	1804.88	1795.00	1786.25	1779.25	1772.25	1768.12	1764.12	1761.88	1760.88
2343.12	2343.56	2344.12	2344.12	2344.22	2345.01	2345.06	2344.38	2344.38	2344.26	2343.50	2343.50	2343.50	2343.50	2343.61	2344.45	2344.83	2345.59	2346.25	2345.41	2344.95	2342.11	2337.24	2331.36	2322.08	2312.84	2301.25	2288.99	2276.00	2263.34	2251.06	2241.75	2232.81	2226.85	2222.70	2219.70	2219.17	2218.22	2218.12	2218.00	2217.38	2215.81	2214.50	2212.97	2211.88	2210.58	2209.49	2208.19	2207.22	2206.00	2204.73	2202.94	2201.42	2199.09	2196.85	2193.70	2190.75	2187.51	2183.53	2179.92	2176.38	2172.72	2169.06	2165.28	2161.47	2157.60	2153.70	2149.90	2146.24	2142.77	2139.70	2136.85	2134.19	2132.00	2129.94	2128.64	2127.41	2126.03	2124.92	2124.01	2123.22	2122.25	2121.47	2120.26	2118.89	2117.12	2115.47	2113.78	2112.06	2110.12	2107.85	2105.33	2102.80	2099.89	2096.80	2093.61	2090.42	2087.17	2084.28	2081.94	2079.42	2077.30	2075.28	2073.75	2072.45	2071.28	2070.88	2070.11	2070.00	2070.00	2069.94	2070.00	2070.33	2071.00	2071.00	2071.11	2071.45	2072.00	2071.24	2071.12	2070.17	2068.97	2067.76	2066.75	2065.51	2064.62	2063.88	2063.25	2062.25	2061.49	2061.17	2060.66	2059.86	2058.80	2057.25	2055.08	2052.49	2049.72	2046.81	2043.62	2040.57	2037.61	2035.50	2033.30	2032.14	2031.12	2030.45	2029.92	2029.12	2029.03	2028.94	2028.14	2026.67	2024.83	2022.31	2019.56	2016.64	2013.25	2009.62	2005.38	2001.49	1997.94	1994.47	1991.92	1990.25	1988.91	1988.74	1987.75	1988.30	1988.62	1988.62	1988.62	1988.62	1988.22	1987.26	1985.90	1984.10	1982.36	1980.62	1978.56	1975.86	1972.91	1970.06	1966.89	1963.94	1961.31	1958.89	1956.80	1955.05	1953.56	1952.33	1951.34	1950.58	1949.92	1949.24	1948.14	1946.84	1945.05	1942.74	1941.03	1939.19	1937.67	1936.42	1935.51	1934.50	1933.74	1933.17	1932.62	1931.51	1930.42	1929.12	1926.99	1924.60	1922.28	1919.80	1917.62	1916.76	1915.99	1915.05	1914.70	1913.51	1911.78	1909.56	1906.89	1903.86	1900.88	1898.00	1894.89	1891.62	1887.67	1884.35	1881.22	1878.22	1876.05	1873.88	1870.26	1866.22	1863.03	1860.97	1858.50	1854.75	1850.58	1844.88	1837.64	1829.91	1820.03	1809.94	1799.30	1788.88	1780.12	1773.45	1767.11	1763.64	1760.51	1759.36	1759.24
2342.24	2343.06	2343.12	2343.12	2343.12	2343.24	2342.58	2342.25	2341.38	2340.60	2339.72	2339.28	2338.62	2338.62	2338.75	2339.62	2340.11	2340.99	2341.30	2340.64	2339.41	2336.86	2333.32	2327.44	2319.38	2310.02	2297.72	2285.45	2272.55	2259.91	2248.41	2239.49	2230.70	2226.38	2222.68	2220.47	2219.88	2219.20	2218.76	2218.00	2217.38	2215.86	2214.38	2212.64	2210.97	2209.59	2208.14	2206.76	2205.55	2204.41	2203.05	2201.62	2200.25	2198.00	2195.88	2193.19	2190.53	2187.40	2184.06	2180.67	2177.28	2173.76	2170.25	2166.72	2163.28	2159.62	2156.08	2152.65	2149.36	2146.31	2143.64	2141.11	2139.03	2137.02	2135.24	2133.55	2131.97	2131.03	2129.69	2128.38	2127.06	2125.95	2124.53	2123.06	2121.12	2119.03	2116.95	2114.88	2112.90	2110.03	2107.44	2104.38	2101.09	2097.88	2094.53	2091.28	2087.92	2084.67	2082.12	2079.88	2077.92	2076.12	2074.45	2073.17	2071.70	2071.01	2070.97	2070.88	2070.88	2070.88	2070.88	2070.88	2070.92	2071.00	2071.00	2071.00	2071.05	2071.12	2070.47	2070.12	2069.01	2067.66	2066.62	2065.41	2064.05	2063.06	2062.09	2061.25	2061.01	2060.16	2060.12	2059.62	2059.09	2058.20	2057.14	2055.12	2053.05	2050.19	2047.10	2043.62	2040.06	2036.51	2033.95	2031.38	2029.92	2028.92	2028.30	2027.58	2027.25	2027.25	2027.25	2027.16	2026.33	2025.24	2023.39	2021.19	2018.20	2014.72	2011.20	2007.06	2003.19	1999.45	1996.06	1993.44	1991.38	1990.00	1989.88	1989.86	1990.70	1991.19	1991.84	1992.50	1993.38	1992.78	1992.34	1991.08	1989.75	1988.22	1985.59	1982.92	1979.84	1976.84	1973.53	1970.17	1966.95	1964.00	1961.08	1958.95	1957.20	1955.81	1954.89	1953.78	1953.25	1952.62	1952.11	1951.55	1950.40	1949.10	1947.50	1945.88	1944.44	1943.05	1942.24	1941.47	1940.36	1939.26	1938.00	1936.94	1935.60	1933.70	1931.80	1929.56	1927.42	1925.17	1923.12	1921.55	1920.69	1920.49	1920.38	1920.34	1920.20	1919.33	1918.17	1915.97	1913.72	1910.16	1905.08	1899.75	1893.75	1887.44	1882.20	1877.11	1873.24	1871.44	1869.97	1862.94	1854.53	1848.66	1845.78	1842.97	1841.30	1839.45	1835.02	1829.39	1821.95	1810.75	1799.74	1787.89	1776.08	1766.24	1758.40	1751.28	1748.78	1746.76	1748.61	1752.22
2342.12	2343.00	2343.00	2343.00	2343.00	2343.00	2342.25	2342.00	2341.00	2340.12	2339.25	2338.75	2338.00	2338.00	2338.12	2339.00	2339.50	2340.38	2340.62	2340.00	2338.62	2336.12	2332.75	2326.88	2319.00	2309.62	2297.25	2285.00	2272.12	2259.50	2248.12	2239.25	2230.50	2226.38	2222.75	2220.62	2220.00	2219.38	2218.88	2218.00	2217.38	2215.88	2214.38	2212.62	2210.88	2209.50	2208.00	2206.62	2205.38	2204.25	2202.88	2201.50	2200.12	2197.88	2195.75	2193.12	2190.50	2187.38	2184.12	2180.75	2177.38	2173.88	2170.38	2166.88	2163.50	2159.88	2156.38	2153.00	2149.75	2146.75	2144.12	2141.62	2139.62	2137.62	2135.88	2134.12	2132.50	2131.62	2130.25	2128.88	2127.50	2126.38	2124.88	2123.38	2121.38	2119.25	2117.12	2115.00	2113.00	2110.00	2107.38	2104.25	2100.88	2097.62	2094.25	2091.00	2087.62	2084.38	2081.88	2079.62	2077.75	2076.00	2074.38	2073.12	2071.62	2071.00	2071.00	2071.00	2071.00	2071.00	2071.00	2071.00	2071.00	2071.00	2071.00	2071.00	2071.00	2071.00	2070.38	2070.00	2068.88	2067.50	2066.50	2065.25	2063.88	2062.88	2061.88	2061.00	2060.88	2060.00	2060.00	2059.50	2059.00	2058.12	2057.12	2055.12	2053.12	2050.25	2047.12	2043.62	2040.00	2036.38	2033.75	2031.12	2029.62	2028.62	2028.00	2027.25	2027.00	2027.00	2027.00	2027.00	2026.25	2025.25	2023.50	2021.38	2018.38	2014.88	2011.38	2007.25	2003.38	1999.62	1996.25	1993.62	1991.50	1990.12	1990.00	1990.12	1991.00	1991.50	1992.25	1993.00	1994.00	1993.38	1993.00	1991.75	1990.50	1989.00	1986.25	1983.50	1980.38	1977.38	1974.00	1970.62	1967.38	1964.38	1961.38	1959.25	1957.50	1956.12	1955.25	1954.12	1953.62	1953.00	1952.50	1952.00	1950.88	1949.62	1948.12	1946.50	1945.12	1943.75	1943.00	1942.25	1941.12	1940.00	1938.62	1937.50	1936.12	1934.12	1932.12	1929.88	1927.75	1925.50	1923.50	1922.00	1921.12	1921.00	1921.00	1921.00	1921.00	1920.25	1919.25	1917.12	1915.00	1911.38	1906.00	1900.38	1894.00	1887.38	1881.88	1876.50	1872.50	1870.75	1869.38	1861.88	1852.88	1846.62	1843.62	1840.75	1839.38	1837.88	1833.62	1828.25	1820.88	1809.50	1798.38	1786.38	1774.38	1764.38	1756.38	1749.12	1746.75	1744.88	1747.12	1751.25
2342.05	2342.38	2342.38	2342.22	2341.75	2341.67	2340.77	2340.12	2338.97	2337.86	2336.75	2335.86	2334.95	2334.40	2334.30	2334.62	2335.36	2335.76	2335.86	2335.62	2334.10	2331.59	2328.22	2321.95	2314.78	2305.33	2294.12	2282.58	2270.49	2258.56	2248.36	2239.56	2231.59	2227.70	2224.08	2222.26	2221.25	2220.39	2219.65	2218.94	2218.15	2217.05	2215.55	2213.80	2211.81	2210.36	2208.86	2207.64	2206.62	2205.35	2203.97	2202.60	2200.75	2198.50	2196.06	2193.44	2190.89	2187.69	2184.75	2181.38	2178.00	2174.42	2171.16	2167.89	2164.67	2161.28	2158.10	2154.72	2151.70	2148.94	2146.31	2144.05	2142.12	2140.05	2138.06	2136.16	2134.38	2132.88	2131.27	2129.81	2128.60	2127.15	2125.50	2123.85	2121.77	2119.57	2117.52	2115.39	2113.00	2110.00	2107.22	2103.94	2100.64	2097.31	2093.86	2090.68	2087.55	2084.38	2081.88	2079.47	2077.60	2076.15	2074.61	2073.52	2072.25	2071.62	2071.62	2071.62	2071.62	2071.62	2071.62	2071.78	2072.25	2071.86	2071.62	2071.62	2071.15	2070.85	2069.90	2069.38	2068.33	2067.26	2066.03	2064.62	2063.17	2062.01	2061.01	2060.38	2060.17	2059.38	2059.38	2059.19	2059.00	2058.36	2057.28	2055.36	2053.36	2050.64	2047.44	2044.02	2040.08	2036.53	2033.36	2030.42	2028.77	2027.38	2026.75	2026.31	2025.99	2026.38	2026.38	2026.38	2026.10	2025.33	2023.89	2022.00	2018.92	2015.58	2012.15	2007.95	2004.08	2000.40	1996.95	1994.41	1992.12	1990.67	1990.62	1990.90	1991.94	1992.83	1994.05	1995.11	1996.03	1996.26	1996.12	1995.65	1994.64	1993.38	1990.86	1988.26	1984.90	1981.60	1978.06	1974.45	1970.89	1967.58	1964.35	1962.38	1960.55	1959.01	1958.14	1957.17	1956.51	1956.12	1955.47	1954.74	1954.00	1952.99	1951.95	1950.80	1949.42	1948.28	1947.69	1946.94	1945.65	1944.45	1942.92	1941.40	1939.95	1937.88	1935.72	1933.31	1931.03	1928.70	1926.62	1924.89	1924.17	1923.81	1923.97	1924.12	1924.51	1924.94	1925.19	1923.76	1922.19	1918.33	1911.55	1904.36	1896.81	1888.78	1880.55	1871.97	1865.62	1861.61	1857.81	1851.49	1844.28	1840.61	1840.97	1841.68	1845.15	1848.58	1847.30	1843.64	1837.28	1825.60	1814.00	1798.80	1783.20	1769.61	1758.01	1747.25	1741.44	1736.28	1736.65	1739.61
2342.00	2342.00	2342.00	2341.75	2341.00	2340.88	2339.88	2339.00	2337.75	2336.50	2335.25	2334.12	2333.12	2332.25	2332.00	2332.00	2332.88	2333.00	2333.00	2333.00	2331.38	2328.88	2325.50	2319.00	2312.25	2302.75	2292.25	2281.12	2269.50	2258.00	2248.50	2239.75	2232.25	2228.50	2224.88	2223.25	2222.00	2221.00	2220.12	2219.50	2218.62	2217.75	2216.25	2214.50	2212.38	2210.88	2209.38	2208.25	2207.38	2206.00	2204.62	2203.25	2201.12	2198.88	2196.25	2193.62	2191.12	2187.88	2185.12	2181.75	2178.38	2174.75	2171.62	2168.50	2165.38	2162.12	2159.12	2155.75	2152.88	2150.25	2147.62	2145.50	2143.62	2141.50	2139.38	2137.38	2135.50	2133.62	2131.88	2130.38	2129.25	2127.62	2125.88	2124.12	2122.00	2119.75	2117.75	2115.62	2113.00	2110.00	2107.12	2103.75	2100.50	2097.12	2093.62	2090.50	2087.50	2084.38	2081.88	2079.38	2077.50	2076.25	2074.75	2073.75	2072.62	2072.00	2072.00	2072.00	2072.00	2072.00	2072.00	2072.25	2073.00	2072.38	2072.00	2072.00	2071.25	2070.75	2069.62	2069.00	2068.00	2067.12	2065.75	2064.25	2062.75	2061.50	2060.50	2060.00	2059.75	2059.00	2059.00	2059.00	2059.00	2058.50	2057.38	2055.50	2053.50	2050.88	2047.62	2044.25	2040.12	2036.62	2033.12	2030.00	2028.25	2026.62	2026.00	2025.75	2025.38	2026.00	2026.00	2026.00	2026.00	2025.38	2024.12	2022.38	2019.25	2016.00	2012.62	2008.38	2004.50	2000.88	1997.38	1994.88	1992.50	1991.00	1991.00	1991.38	1992.50	1993.62	1995.12	1996.38	1997.25	1998.00	1998.00	1998.00	1997.12	1996.00	1993.62	1991.12	1987.62	1984.12	1980.50	1976.75	1973.00	1969.50	1966.12	1964.25	1962.38	1960.75	1959.88	1959.00	1958.25	1958.00	1957.25	1956.38	1955.88	1955.00	1954.25	1953.38	1952.00	1951.00	1950.50	1949.75	1948.38	1947.12	1945.50	1943.75	1942.25	1940.12	1937.88	1935.38	1933.00	1930.62	1928.50	1926.62	1926.00	1925.50	1925.75	1926.00	1926.62	1927.75	1928.75	1927.75	1926.50	1922.50	1914.88	1906.75	1898.50	1889.62	1879.75	1869.25	1861.50	1856.12	1850.88	1845.25	1839.12	1837.00	1839.38	1842.25	1848.62	1855.00	1855.50	1852.88	1847.12	1835.25	1823.38	1806.25	1788.50	1772.75	1759.00	1746.12	1738.25	1731.12	1730.38	1732.62
2341.50	2341.50	2341.50	2340.94	2340.12	2339.69	2338.69	2337.69	2336.12	2334.75	2333.31	2331.94	2330.69	2329.50	2328.69	2328.50	2328.94	2328.88	2328.50	2328.06	2326.38	2324.00	2320.69	2314.38	2307.94	2299.00	2289.25	2279.06	2268.06	2257.50	2248.50	2240.12	2233.56	2229.81	2226.25	2224.62	2223.31	2222.50	2221.75	2221.06	2220.31	2219.31	2217.75	2216.00	2214.06	2212.81	2211.38	2210.31	2209.25	2208.00	2206.62	2205.19	2202.81	2200.50	2197.75	2195.12	2192.31	2189.12	2186.19	2182.94	2179.94	2176.50	2173.38	2170.12	2167.00	2163.94	2160.88	2157.62	2154.88	2152.25	2149.62	2147.44	2145.44	2143.31	2140.88	2138.50	2136.38	2134.38	2132.25	2130.31	2128.62	2126.94	2125.00	2123.25	2121.50	2119.50	2117.44	2115.50	2113.06	2110.12	2107.25	2104.12	2101.06	2097.62	2094.12	2091.12	2088.25	2085.38	2082.88	2080.25	2078.50	2077.06	2075.75	2074.75	2073.81	2073.06	2073.00	2073.00	2073.00	2073.00	2073.00	2073.50	2074.00	2073.19	2073.00	2072.88	2072.12	2071.44	2070.50	2069.62	2068.62	2067.44	2066.00	2064.38	2062.81	2061.62	2060.50	2060.00	2059.75	2059.00	2059.00	2059.00	2059.00	2058.75	2057.81	2056.38	2054.31	2051.69	2048.62	2044.88	2040.81	2037.19	2033.69	2030.56	2028.75	2026.94	2026.19	2025.88	2025.69	2026.50	2026.50	2026.50	2026.50	2026.06	2025.06	2023.38	2020.44	2017.38	2013.94	2009.69	2005.88	2002.19	1998.56	1995.88	1993.31	1992.00	1991.56	1991.88	1993.06	1994.12	1995.62	1997.12	1998.44	1999.69	2000.38	2000.69	2000.56	1999.75	1998.06	1995.81	1992.31	1988.88	1985.00	1980.88	1977.00	1973.50	1970.00	1967.88	1965.62	1964.00	1962.69	1961.69	1960.75	1960.19	1959.31	1958.44	1957.94	1957.50	1957.12	1956.25	1955.50	1954.69	1954.25	1953.50	1952.00	1950.75	1949.31	1947.81	1946.19	1943.62	1941.19	1939.00	1937.00	1935.25	1933.75	1932.44	1931.31	1930.38	1929.88	1930.00	1930.44	1931.88	1933.38	1931.75	1929.50	1925.44	1918.94	1912.06	1904.38	1896.06	1886.25	1875.62	1867.12	1860.62	1854.44	1849.88	1845.50	1847.88	1857.69	1867.88	1880.19	1892.31	1896.81	1897.38	1893.19	1880.50	1867.00	1845.50	1822.69	1800.25	1778.62	1757.81	1745.44	1734.12	1730.12	1729.25
2341.00	2341.00	2341.00	2340.12	2339.25	2338.50	2337.50	2336.38	2334.50	2333.00	2331.38	2329.75	2328.25	2326.75	2325.38	2325.00	2325.00	2324.75	2324.00	2323.12	2321.38	2319.12	2315.88	2309.75	2303.62	2295.25	2286.25	2277.00	2266.62	2257.00	2248.50	2240.50	2234.88	2231.12	2227.62	2226.00	2224.62	2224.00	2223.38	2222.62	2222.00	2220.88	2219.25	2217.50	2215.75	2214.75	2213.38	2212.38	2211.12	2210.00	2208.62	2207.12	2204.50	2202.12	2199.25	2196.62	2193.50	2190.38	2187.25	2184.12	2181.50	2178.25	2175.12	2171.75	2168.62	2165.75	2162.62	2159.50	2156.88	2154.25	2151.62	2149.38	2147.25	2145.12	2142.38	2139.62	2137.25	2135.12	2132.62	2130.25	2128.00	2126.25	2124.12	2122.38	2121.00	2119.25	2117.12	2115.38	2113.12	2110.25	2107.38	2104.50	2101.62	2098.12	2094.62	2091.75	2089.00	2086.38	2083.88	2081.12	2079.50	2077.88	2076.75	2075.75	2075.00	2074.12	2074.00	2074.00	2074.00	2074.00	2074.00	2074.75	2075.00	2074.00	2074.00	2073.75	2073.00	2072.12	2071.38	2070.25	2069.25	2067.75	2066.25	2064.50	2062.88	2061.75	2060.50	2060.00	2059.75	2059.00	2059.00	2059.00	2059.00	2059.00	2058.25	2057.25	2055.12	2052.50	2049.62	2045.50	2041.50	2037.75	2034.25	2031.12	2029.25	2027.25	2026.38	2026.00	2026.00	2027.00	2027.00	2027.00	2027.00	2026.75	2026.00	2024.38	2021.62	2018.75	2015.25	2011.00	2007.25	2003.50	1999.75	1996.88	1994.12	1993.00	1992.12	1992.38	1993.62	1994.62	1996.12	1997.88	1999.62	2001.38	2002.75	2003.38	2004.00	2003.50	2002.50	2000.50	1997.00	1993.62	1989.50	1985.00	1981.00	1977.50	1973.88	1971.50	1968.88	1967.25	1965.50	1964.38	1963.25	1962.38	1961.38	1960.50	1960.00	1960.00	1960.00	1959.12	1959.00	1958.38	1958.00	1957.25	1955.62	1954.38	1953.12	1951.88	1950.12	1947.12	1944.50	1942.62	1941.00	1939.88	1939.00	1938.25	1936.62	1935.25	1934.00	1934.00	1934.25	1936.00	1938.00	1935.75	1932.50	1928.38	1923.00	1917.38	1910.25	1902.50	1892.75	1882.00	1872.75	1865.12	1858.00	1854.50	1851.88	1858.75	1876.00	1893.50	1911.75	1929.62	1938.12	1941.88	1939.25	1925.75	1910.62	1884.75	1856.88	1827.75	1798.25	1769.50	1752.62	1737.12	1729.88	1725.88
2340.62	2340.62	2340.49	2339.70	2338.83	2337.80	2336.75	2335.35	2333.52	2331.83	2330.06	2328.20	2326.51	2324.83	2323.12	2322.42	2322.05	2321.56	2320.90	2319.89	2318.10	2315.89	2312.55	2307.03	2301.05	2293.24	2284.89	2276.25	2266.53	2257.80	2249.91	2242.42	2237.08	2233.00	2229.64	2227.78	2226.26	2225.50	2225.06	2224.12	2223.26	2222.14	2220.80	2219.28	2217.77	2216.81	2215.58	2214.39	2213.14	2211.92	2210.50	2208.86	2206.38	2203.90	2201.12	2198.45	2195.38	2192.34	2189.22	2186.05	2183.23	2179.98	2177.00	2173.58	2170.36	2167.25	2164.03	2160.91	2158.19	2155.56	2152.94	2150.64	2148.42	2146.11	2143.40	2140.61	2137.81	2135.31	2132.58	2130.11	2127.67	2125.64	2123.33	2121.62	2120.15	2118.60	2116.80	2115.10	2113.08	2110.62	2107.94	2105.11	2102.38	2098.97	2095.61	2092.88	2090.12	2087.50	2085.05	2082.44	2080.72	2079.05	2077.88	2076.88	2076.12	2075.25	2075.03	2075.08	2075.12	2075.12	2075.17	2075.97	2075.85	2075.12	2075.12	2074.64	2074.08	2073.11	2072.31	2071.10	2069.76	2068.17	2066.72	2064.97	2063.34	2062.12	2060.92	2060.38	2059.85	2059.38	2059.10	2059.19	2059.38	2059.38	2058.62	2057.67	2055.64	2053.02	2050.05	2046.16	2042.11	2038.45	2034.72	2031.83	2030.00	2028.00	2027.36	2026.75	2026.94	2027.75	2028.12	2028.12	2028.22	2027.97	2027.31	2025.88	2023.22	2020.53	2016.89	2012.74	2008.93	2005.10	2001.30	1998.28	1995.44	1993.99	1992.88	1992.75	1993.76	1994.81	1996.45	1998.25	2000.28	2002.36	2004.11	2005.25	2006.30	2006.08	2005.31	2003.68	2000.38	1997.14	1992.97	1988.52	1984.47	1980.78	1977.11	1974.26	1971.26	1969.36	1967.33	1965.88	1964.42	1963.12	1962.08	1961.25	1960.75	1960.75	1960.75	1960.53	1960.74	1960.30	1959.88	1959.03	1957.36	1955.88	1954.58	1953.28	1951.20	1947.36	1943.89	1942.72	1941.84	1941.61	1941.76	1941.67	1940.51	1939.38	1938.50	1938.50	1938.28	1939.18	1940.06	1936.73	1932.50	1928.99	1925.62	1922.44	1918.97	1915.20	1910.56	1905.72	1900.92	1896.48	1892.36	1892.09	1892.85	1901.50	1918.28	1936.53	1957.97	1979.17	1990.49	1996.86	1994.70	1978.72	1961.06	1931.01	1898.88	1864.50	1828.53	1793.08	1769.03	1746.41	1734.47	1726.67
2340.00	2340.00	2339.62	2339.00	2338.12	2336.62	2335.50	2333.62	2331.88	2329.88	2327.88	2325.62	2323.62	2321.62	2319.38	2318.12	2317.12	2316.25	2315.75	2314.50	2312.62	2310.50	2307.00	2302.50	2296.75	2289.88	2282.62	2275.00	2266.38	2259.12	2252.25	2245.62	2240.75	2236.12	2233.00	2230.75	2229.00	2228.00	2227.88	2226.62	2225.38	2224.25	2223.38	2222.25	2221.12	2220.25	2219.25	2217.75	2216.50	2215.12	2213.62	2211.75	2209.50	2206.88	2204.25	2201.50	2198.50	2195.62	2192.50	2189.25	2186.12	2182.88	2180.12	2176.62	2173.25	2169.75	2166.38	2163.25	2160.38	2157.75	2155.12	2152.75	2150.38	2147.75	2145.12	2142.25	2138.75	2135.62	2132.50	2129.88	2127.12	2124.62	2122.00	2120.38	2118.75	2117.50	2116.25	2114.62	2113.00	2111.25	2108.88	2106.12	2103.62	2100.38	2097.25	2094.75	2092.00	2089.38	2087.00	2084.62	2082.75	2081.00	2079.75	2078.75	2078.00	2077.12	2076.75	2076.88	2077.00	2077.00	2077.12	2078.00	2077.25	2077.00	2077.00	2076.12	2075.88	2074.75	2073.88	2072.50	2070.62	2068.88	2067.50	2065.75	2064.12	2062.75	2061.62	2061.00	2060.00	2060.00	2059.25	2059.50	2060.00	2060.00	2059.25	2058.38	2056.50	2053.88	2050.75	2047.25	2043.12	2039.62	2035.50	2033.00	2031.25	2029.25	2029.00	2028.00	2028.50	2029.00	2030.00	2030.00	2030.25	2030.00	2029.50	2028.38	2025.88	2023.50	2019.62	2015.62	2011.75	2007.75	2003.88	2000.62	1997.62	1995.62	1994.12	1993.38	1994.00	1995.12	1997.00	1998.88	2001.38	2004.00	2006.38	2008.38	2010.12	2010.38	2010.00	2009.00	2006.00	2003.00	1998.75	1994.38	1990.25	1986.25	1982.50	1978.88	1975.25	1972.88	1970.38	1968.38	1966.38	1964.38	1963.25	1962.50	1962.00	1962.00	1962.00	1962.88	1963.62	1963.50	1963.00	1962.00	1960.25	1958.38	1957.00	1955.62	1953.00	1947.75	1942.88	1942.88	1943.25	1944.50	1946.38	1947.38	1947.00	1946.25	1946.00	1946.00	1945.00	1944.50	1943.50	1938.38	1932.50	1930.00	1930.00	1930.88	1933.50	1936.38	1940.25	1945.25	1947.88	1948.75	1949.62	1954.75	1961.12	1972.75	1988.75	2008.25	2035.00	2061.75	2077.75	2088.50	2087.12	2067.00	2045.12	2008.12	1968.88	1925.75	1879.00	1832.38	1796.38	1761.88	1742.12	1728.00
2339.86	2339.75	2339.36	2338.75	2337.83	2336.36	2335.17	2333.31	2331.53	2329.50	2327.42	2325.12	2323.06	2321.03	2318.81	2317.44	2316.36	2315.44	2314.88	2313.61	2311.75	2309.64	2306.15	2301.77	2296.17	2289.50	2282.39	2274.94	2266.51	2259.39	2252.62	2246.14	2241.35	2236.78	2233.68	2231.39	2229.59	2228.56	2228.33	2227.08	2225.78	2224.72	2223.84	2222.78	2221.70	2220.84	2219.86	2218.41	2217.17	2215.80	2214.26	2212.41	2210.17	2207.62	2205.00	2202.26	2199.32	2196.41	2193.33	2190.06	2186.94	2183.64	2180.78	2177.26	2173.82	2170.25	2166.78	2163.57	2160.69	2158.06	2155.44	2153.08	2150.74	2148.12	2145.50	2142.57	2139.00	2135.80	2132.61	2129.86	2127.05	2124.47	2121.83	2120.22	2118.58	2117.33	2116.12	2114.60	2113.05	2111.38	2109.03	2106.34	2103.92	2100.75	2097.75	2095.17	2092.44	2089.88	2087.55	2085.22	2083.33	2081.55	2080.30	2079.28	2078.50	2077.64	2077.28	2077.39	2077.50	2077.50	2077.70	2078.50	2077.84	2077.62	2077.49	2076.61	2076.25	2075.09	2074.19	2072.80	2070.94	2069.12	2067.69	2065.90	2064.31	2062.90	2061.75	2061.08	2060.11	2060.00	2059.34	2059.62	2060.12	2060.12	2059.42	2058.55	2056.70	2054.12	2051.00	2047.50	2043.39	2039.89	2035.85	2033.34	2031.55	2029.59	2029.38	2028.40	2028.94	2029.45	2030.41	2030.50	2030.81	2030.50	2030.06	2028.91	2026.51	2024.17	2020.34	2016.38	2012.45	2008.40	2004.50	2001.19	1998.14	1996.08	1994.49	1993.70	1994.31	1995.41	1997.25	1999.12	2001.72	2004.43	2006.90	2008.97	2010.81	2011.08	2010.88	2009.85	2006.88	2003.88	1999.62	1995.28	1991.12	1987.10	1983.26	1979.60	1975.93	1973.42	1970.83	1968.72	1966.56	1964.45	1963.28	1962.50	1962.00	1962.00	1962.11	1963.06	1963.89	1963.81	1963.26	1962.20	1960.31	1958.31	1956.59	1954.83	1952.30	1947.81	1943.78	1944.55	1945.77	1947.62	1950.05	1951.40	1950.70	1949.72	1949.28	1949.09	1947.49	1945.62	1943.39	1937.99	1931.99	1930.33	1931.75	1934.28	1939.01	1944.10	1949.86	1956.58	1960.99	1963.61	1966.38	1973.41	1981.50	1994.28	2010.90	2030.80	2057.17	2083.51	2099.22	2109.83	2108.19	2087.60	2065.11	2026.22	1984.81	1938.89	1888.97	1839.24	1801.26	1764.96	1743.95	1728.80
2338.88	2338.00	2337.50	2337.00	2335.75	2334.50	2332.88	2331.12	2329.12	2326.88	2324.25	2321.62	2319.12	2316.88	2314.88	2312.62	2311.00	2309.75	2308.75	2307.38	2305.62	2303.62	2300.25	2296.62	2292.12	2286.88	2280.75	2274.50	2267.50	2261.25	2255.25	2249.75	2245.50	2241.38	2238.50	2235.88	2233.75	2232.50	2231.50	2230.25	2228.62	2228.00	2227.12	2226.50	2225.75	2225.00	2224.12	2223.00	2221.88	2220.50	2218.75	2217.00	2214.88	2212.88	2210.25	2207.62	2205.00	2201.88	2199.12	2195.75	2192.62	2189.00	2185.38	2181.75	2177.75	2173.75	2169.62	2165.75	2162.88	2160.25	2157.62	2155.38	2153.25	2150.75	2148.12	2144.75	2140.75	2137.00	2133.38	2129.75	2126.50	2123.38	2120.62	2119.12	2117.38	2116.12	2115.25	2114.38	2113.38	2112.25	2110.12	2107.88	2106.00	2103.38	2101.25	2098.12	2095.50	2093.38	2091.38	2089.38	2087.38	2085.38	2084.12	2083.00	2082.00	2081.25	2081.00	2081.00	2081.00	2081.00	2081.75	2082.00	2082.00	2082.00	2080.88	2080.00	2078.88	2077.50	2076.38	2074.88	2073.12	2070.88	2069.00	2067.00	2065.62	2064.00	2062.62	2061.62	2060.88	2060.00	2060.00	2060.50	2061.00	2061.00	2060.62	2059.75	2058.12	2055.88	2052.75	2049.25	2045.25	2041.75	2038.25	2035.75	2033.62	2032.00	2032.00	2031.25	2032.00	2032.62	2033.25	2034.00	2034.75	2034.00	2034.00	2032.62	2031.00	2028.88	2025.38	2021.62	2017.38	2013.00	2008.88	2005.12	2001.75	1999.25	1997.00	1996.00	1996.50	1997.38	1999.00	2000.88	2004.12	2007.50	2010.62	2013.12	2015.62	2016.00	2017.00	2015.75	2013.00	2010.00	2005.75	2001.62	1997.25	1993.00	1988.62	1984.62	1980.75	1977.25	1974.00	1971.12	1967.88	1965.00	1963.50	1962.50	1962.00	1962.00	1962.88	1964.38	1965.75	1966.00	1965.12	1963.62	1960.75	1957.88	1953.75	1949.25	1947.38	1948.25	1950.12	1956.25	1963.38	1969.50	1975.75	1979.62	1976.62	1974.00	1972.25	1970.75	1964.88	1953.50	1942.62	1935.25	1928.38	1932.62	1944.00	1958.12	1977.62	1998.12	2017.12	2035.88	2052.75	2067.62	2083.62	2104.00	2124.12	2145.00	2166.00	2188.62	2212.38	2235.88	2249.50	2259.12	2255.62	2231.75	2205.00	2152.88	2096.38	2030.88	1958.75	1887.25	1835.50	1786.50	1756.75	1734.38
2338.88	2338.00	2337.50	2337.00	2335.75	2334.50	2332.88	2331.12	2329.12	2326.88	2324.25	2321.62	2319.12	2316.88	2314.88	2312.62	2311.00	2309.75	2308.75	2307.38	2305.62	2303.62	2300.25	2296.62	2292.12	2286.88	2280.75	2274.50	2267.50	2261.25	2255.25	2249.75	2245.50	2241.38	2238.50	2235.88	2233.75	2232.50	2231.50	2230.25	2228.62	2228.00	2227.12	2226.50	2225.75	2225.00	2224.12	2223.00	2221.88	2220.50	2218.75	2217.00	2214.88	2212.88	2210.25	2207.62	2205.00	2201.88	2199.12	2195.75	2192.62	2189.00	2185.38	2181.75	2177.75	2173.75	2169.62	2165.75	2162.88	2160.25	2157.62	2155.38	2153.25	2150.75	2148.12	2144.75	2140.75	2137.00	2133.38	2129.75	2126.50	2123.38	2120.62	2119.12	2117.38	2116.12	2115.25	2114.38	2113.38	2112.25	2110.12	2107.88	2106.00	2103.38	2101.25	2098.12	2095.50	2093.38	2091.38	2089.38	2087.38	2085.38	2084.12	2083.00	2082.00	2081.25	2081.00	2081.00	2081.00	2081.00	2081.75	2082.00	2082.00	2082.00	2080.88	2080.00	2078.88	2077.50	2076.38	2074.88	2073.12	2070.88	2069.00	2067.00	2065.62	2064.00	2062.62	2061.62	2060.88	2060.00	2060.00	2060.50	2061.00	2061.00	2060.62	2059.75	2058.12	2055.88	2052.75	2049.25	2045.25	2041.75	2038.25	2035.75	2033.62	2032.00	2032.00	2031.25	2032.00	2032.62	2033.25	2034.00	2034.75	2034.00	2034.00	2032.62	2031.00	2028.88	2025.38	2021.62	2017.38	2013.00	2008.88	2005.12	2001.75	1999.25	1997.00	1996.00	1996.50	1997.38	1999.00	2000.88	2004.12	2007.50	2010.62	2013.12	2015.62	2016.00	2017.00	2015.75	2013.00	2010.00	2005.75	2001.62	1997.25	1993.00	1988.62	1984.62	1980.75	1977.25	1974.00	1971.12	1967.88	1965.00	1963.50	1962.50	1962.00	1962.00	1962.88	1964.38	1965.75	1966.00	1965.12	1963.62	1960.75	1957.88	1953.75	1949.25	1947.38	1948.25	1950.12	1956.25	1963.38	1969.50	1975.75	1979.62	1976.62	1974.00	1972.25	1970.75	1964.88	1953.50	1942.62	1935.25	1928.38	1932.62	1944.00	1958.12	1977.62	1998.12	2017.12	2035.88	2052.75	2067.62	2083.62	2104.00	2124.12	2145.00	2166.00	2188.62	2212.38	2235.88	2249.50	2259.12	2255.62	2231.75	2205.00	2152.88	2096.38	2030.88	1958.75	1887.25	1835.50	1786.50	1756.75	1734.38
2337.89	2337.01	2336.08	2335.03	2333.56	2332.31	2330.80	2328.94	2326.72	2324.25	2321.62	2318.67	2315.73	2312.94	2310.39	2307.38	2305.42	2304.28	2302.62	2301.36	2299.72	2297.72	2295.22	2292.14	2288.08	2283.81	2278.89	2273.62	2268.05	2262.67	2257.33	2252.82	2248.78	2244.99	2241.78	2238.94	2236.92	2234.90	2233.36	2232.22	2230.81	2229.75	2228.88	2228.36	2227.72	2227.62	2226.86	2226.28	2225.26	2224.11	2222.80	2221.38	2219.80	2217.80	2215.72	2213.31	2210.68	2208.00	2205.36	2202.20	2198.75	2194.68	2190.62	2185.80	2181.03	2176.60	2171.49	2167.07	2164.08	2160.90	2158.50	2156.47	2154.45	2152.39	2150.20	2147.05	2143.16	2139.51	2135.34	2131.28	2127.38	2123.59	2120.85	2118.69	2117.26	2115.69	2114.70	2114.05	2113.38	2112.58	2111.33	2109.62	2107.86	2105.89	2103.88	2101.41	2099.11	2096.99	2095.10	2093.31	2091.53	2089.75	2088.72	2087.49	2086.59	2086.28	2085.38	2085.38	2085.49	2086.25	2086.34	2086.38	2085.83	2085.50	2084.81	2083.72	2082.16	2080.12	2078.45	2076.62	2074.44	2072.40	2070.10	2067.88	2066.17	2064.44	2063.39	2062.50	2061.86	2061.09	2060.88	2061.16	2061.88	2061.88	2061.06	2060.41	2058.78	2056.97	2054.39	2051.22	2047.65	2044.38	2040.88	2038.59	2036.25	2034.62	2034.62	2034.53	2034.74	2035.58	2036.42	2037.28	2037.59	2037.50	2037.50	2036.34	2035.05	2033.25	2030.41	2026.99	2023.06	2018.80	2014.45	2010.60	2007.00	2004.28	2001.81	2000.38	2000.22	2000.33	2002.28	2004.26	2007.30	2011.00	2014.12	2017.28	2019.78	2020.38	2020.50	2019.58	2017.38	2014.49	2010.56	2006.33	2001.95	1997.59	1993.44	1989.55	1985.89	1982.06	1978.05	1974.74	1971.60	1968.72	1966.78	1965.12	1964.62	1965.39	1966.05	1967.55	1969.14	1969.28	1968.51	1966.69	1960.97	1956.67	1955.72	1955.16	1957.55	1961.81	1968.06	1980.53	1993.56	2005.27	2016.44	2024.69	2028.47	2030.88	2027.92	2023.36	2012.78	1996.26	1978.50	1960.40	1942.38	1946.41	1962.92	1985.25	2019.85	2056.20	2092.92	2130.38	2164.10	2196.90	2228.33	2254.83	2279.55	2300.75	2319.23	2337.27	2352.60	2367.45	2375.72	2381.30	2374.08	2347.69	2317.43	2255.14	2187.60	2112.36	2031.81	1950.47	1881.76	1815.49	1771.62	1735.69
2337.75	2336.88	2335.88	2334.75	2333.25	2332.00	2330.50	2328.62	2326.38	2323.88	2321.25	2318.25	2315.25	2312.38	2309.75	2306.62	2304.62	2303.50	2301.75	2300.50	2298.88	2296.88	2294.50	2291.50	2287.50	2283.38	2278.62	2273.50	2268.12	2262.88	2257.62	2253.25	2249.25	2245.50	2242.25	2239.38	2237.38	2235.25	2233.62	2232.50	2231.12	2230.00	2229.12	2228.62	2228.00	2228.00	2227.25	2226.75	2225.75	2224.62	2223.38	2222.00	2220.50	2218.50	2216.50	2214.12	2211.50	2208.88	2206.25	2203.12	2199.62	2195.50	2191.38	2186.38	2181.50	2177.00	2171.75	2167.25	2164.25	2161.00	2158.62	2156.62	2154.62	2152.62	2150.50	2147.38	2143.50	2139.88	2135.62	2131.50	2127.50	2123.62	2120.88	2118.62	2117.25	2115.62	2114.62	2114.00	2113.38	2112.62	2111.50	2109.88	2108.12	2106.25	2104.25	2101.88	2099.62	2097.50	2095.62	2093.88	2092.12	2090.38	2089.38	2088.12	2087.25	2087.00	2086.00	2086.00	2086.12	2087.00	2087.00	2087.00	2086.38	2086.00	2085.38	2084.25	2082.62	2080.50	2078.75	2076.88	2074.62	2072.62	2070.25	2068.00	2066.25	2064.50	2063.50	2062.62	2062.00	2061.25	2061.00	2061.25	2062.00	2062.00	2061.12	2060.50	2058.88	2057.12	2054.62	2051.50	2048.00	2044.75	2041.25	2039.00	2036.62	2035.00	2035.00	2035.00	2035.12	2036.00	2036.88	2037.75	2038.00	2038.00	2038.00	2036.88	2035.62	2033.88	2031.12	2027.75	2023.88	2019.62	2015.25	2011.38	2007.75	2005.00	2002.50	2001.00	2000.75	2000.75	2002.75	2004.75	2007.75	2011.50	2014.62	2017.88	2020.38	2021.00	2021.00	2020.12	2018.00	2015.12	2011.25	2007.00	2002.62	1998.25	1994.12	1990.25	1986.62	1982.75	1978.62	1975.25	1972.12	1969.25	1967.25	1965.50	1965.00	1965.88	1966.50	1968.00	1969.62	1969.75	1969.00	1967.12	1961.00	1956.50	1956.00	1956.00	1959.00	1963.75	1970.62	1984.00	1997.88	2010.38	2022.25	2031.12	2035.88	2039.00	2035.88	2030.88	2019.62	2002.38	1983.62	1964.00	1944.38	1948.38	1965.62	1989.12	2025.88	2064.50	2103.75	2143.88	2180.00	2215.38	2249.00	2276.38	2301.75	2323.00	2341.12	2358.50	2372.62	2386.25	2393.75	2398.75	2391.00	2364.25	2333.50	2269.75	2200.62	2124.00	2042.25	1959.50	1888.38	1819.62	1773.75	1735.88
2336.81	2335.66	2334.19	2332.97	2331.56	2330.12	2328.34	2326.56	2324.22	2321.44	2318.44	2315.25	2312.25	2309.28	2306.00	2302.88	2300.50	2298.62	2296.88	2295.44	2293.81	2292.19	2290.47	2288.12	2285.06	2281.97	2277.59	2273.31	2268.22	2263.62	2258.65	2254.56	2250.47	2246.91	2243.56	2240.50	2238.31	2236.00	2234.38	2232.88	2231.50	2230.56	2229.78	2229.09	2228.75	2228.75	2228.56	2228.44	2227.53	2227.06	2226.10	2225.19	2224.07	2222.34	2220.53	2218.62	2216.47	2213.94	2210.75	2207.53	2203.66	2199.44	2194.65	2188.81	2183.56	2178.40	2172.50	2168.10	2164.62	2161.19	2158.81	2156.72	2155.10	2153.94	2152.19	2149.25	2146.12	2142.22	2137.88	2133.47	2129.09	2124.66	2121.72	2119.10	2117.06	2116.00	2115.00	2114.56	2113.85	2113.28	2112.34	2111.19	2109.62	2108.03	2106.22	2104.12	2102.16	2100.59	2099.09	2097.34	2095.97	2094.50	2093.41	2092.15	2091.56	2091.50	2091.25	2091.25	2091.28	2091.50	2091.50	2091.50	2091.06	2090.50	2089.22	2087.81	2085.81	2083.50	2081.19	2078.75	2076.31	2073.75	2070.81	2068.57	2066.81	2064.88	2063.59	2062.53	2062.00	2061.25	2061.00	2061.44	2062.00	2062.00	2062.25	2061.91	2060.38	2058.81	2056.31	2053.47	2050.25	2046.91	2043.50	2041.06	2038.78	2037.25	2036.59	2036.50	2037.09	2037.78	2038.85	2039.81	2040.25	2040.25	2040.25	2039.69	2038.72	2037.16	2034.88	2032.25	2028.75	2025.06	2021.15	2017.09	2013.28	2010.72	2008.12	2006.53	2005.72	2005.81	2007.53	2009.72	2012.53	2015.72	2018.65	2021.06	2023.56	2024.00	2024.00	2022.85	2021.09	2018.69	2015.19	2011.12	2007.50	2003.97	2000.31	1996.90	1993.47	1989.97	1986.22	1983.59	1981.40	1979.38	1977.56	1976.00	1975.50	1976.19	1977.00	1978.69	1980.59	1980.44	1980.91	1978.47	1973.00	1968.50	1968.66	1969.50	1976.06	1986.44	1999.31	2017.75	2037.25	2055.09	2072.78	2086.53	2094.65	2101.53	2098.31	2093.60	2080.28	2061.25	2039.59	2014.06	1988.72	1991.59	2008.66	2035.91	2081.47	2130.31	2182.22	2236.03	2282.00	2323.28	2361.88	2385.69	2407.60	2419.19	2424.75	2429.47	2430.75	2432.19	2436.03	2440.66	2432.62	2407.47	2378.32	2316.72	2250.22	2174.62	2093.25	2008.53	1925.31	1843.35	1786.88	1739.44
2336.50	2335.25	2333.62	2332.38	2331.00	2329.50	2327.62	2325.88	2323.50	2320.62	2317.50	2314.25	2311.25	2308.25	2304.75	2301.62	2299.12	2297.00	2295.25	2293.75	2292.12	2290.62	2289.12	2287.00	2284.25	2281.50	2277.25	2273.25	2268.25	2263.88	2259.00	2255.00	2250.88	2247.38	2244.00	2240.88	2238.62	2236.25	2234.62	2233.00	2231.62	2230.75	2230.00	2229.25	2229.00	2229.00	2229.00	2229.00	2228.12	2227.88	2227.00	2226.25	2225.25	2223.62	2221.88	2220.12	2218.12	2215.62	2212.25	2209.00	2205.00	2200.75	2195.75	2189.62	2184.25	2178.88	2172.75	2168.38	2164.75	2161.25	2158.88	2156.75	2155.25	2154.38	2152.75	2149.88	2147.00	2143.00	2138.62	2134.12	2129.62	2125.00	2122.00	2119.25	2117.00	2116.12	2115.12	2114.75	2114.00	2113.50	2112.62	2111.62	2110.12	2108.62	2106.88	2104.88	2103.00	2101.62	2100.25	2098.50	2097.25	2095.88	2094.75	2093.50	2093.00	2093.00	2093.00	2093.00	2093.00	2093.00	2093.00	2093.00	2092.62	2092.00	2090.50	2089.00	2086.88	2084.50	2082.00	2079.38	2076.88	2074.12	2071.00	2068.75	2067.00	2065.00	2063.62	2062.50	2062.00	2061.25	2061.00	2061.50	2062.00	2062.00	2062.62	2062.38	2060.88	2059.38	2056.88	2054.12	2051.00	2047.62	2044.25	2041.75	2039.50	2038.00	2037.12	2037.00	2037.75	2038.38	2039.50	2040.50	2041.00	2041.00	2041.00	2040.62	2039.75	2038.25	2036.12	2033.75	2030.38	2026.88	2023.12	2019.00	2015.12	2012.62	2010.00	2008.38	2007.38	2007.50	2009.12	2011.38	2014.12	2017.12	2020.00	2022.12	2024.62	2025.00	2025.00	2023.75	2022.12	2019.88	2016.50	2012.50	2009.12	2005.88	2002.38	1999.12	1995.75	1992.38	1988.75	1986.38	1984.50	1982.75	1981.00	1979.50	1979.00	1979.62	1980.50	1982.25	1984.25	1984.00	1984.88	1982.25	1977.00	1972.50	1972.88	1974.00	1981.75	1994.00	2008.88	2029.00	2050.38	2070.00	2089.62	2105.00	2114.25	2122.38	2119.12	2114.50	2100.50	2080.88	2058.25	2030.75	2003.50	2006.00	2023.00	2051.50	2100.00	2152.25	2208.38	2266.75	2316.00	2359.25	2399.50	2422.12	2442.88	2451.25	2452.62	2453.12	2450.12	2447.50	2450.12	2454.62	2446.50	2421.88	2393.25	2332.38	2266.75	2191.50	2110.25	2024.88	1937.62	1851.25	1791.25	1740.62
2335.64	2334.15	2332.53	2331.12	2329.75	2328.10	2326.30	2324.47	2321.94	2318.98	2316.09	2312.92	2309.69	2306.38	2302.64	2299.28	2296.31	2293.80	2291.73	2290.08	2288.45	2287.19	2285.76	2283.95	2281.83	2279.00	2275.22	2271.61	2267.31	2263.10	2258.85	2254.84	2250.80	2247.38	2244.00	2240.88	2238.31	2235.86	2234.00	2232.14	2231.00	2230.28	2229.45	2229.10	2229.00	2229.00	2229.08	2229.62	2228.90	2228.58	2228.25	2227.97	2227.28	2226.05	2224.53	2222.86	2221.10	2218.75	2215.53	2212.28	2207.97	2203.49	2198.10	2191.73	2185.89	2179.81	2173.45	2168.38	2164.36	2160.62	2158.56	2156.44	2155.72	2155.15	2153.85	2151.67	2149.03	2145.11	2140.89	2136.24	2131.65	2126.88	2123.49	2120.19	2117.94	2116.67	2115.67	2115.14	2114.62	2113.89	2113.01	2112.10	2110.83	2109.72	2108.36	2106.60	2105.19	2103.97	2102.83	2101.62	2100.61	2099.47	2098.42	2097.40	2096.75	2096.20	2096.12	2096.12	2095.97	2096.12	2096.60	2096.28	2095.99	2095.44	2094.17	2092.67	2090.08	2087.39	2084.34	2081.33	2078.20	2075.22	2071.93	2069.45	2067.08	2064.92	2063.55	2062.50	2062.00	2061.72	2061.70	2062.44	2063.01	2063.25	2063.49	2063.39	2062.44	2061.25	2058.75	2056.00	2052.88	2049.50	2046.12	2043.55	2041.07	2039.56	2038.53	2038.25	2038.85	2039.39	2040.44	2041.36	2041.94	2042.40	2042.88	2042.50	2041.78	2040.60	2038.62	2036.33	2033.27	2029.92	2026.80	2023.30	2020.12	2017.62	2015.15	2013.92	2013.00	2013.20	2014.75	2016.38	2018.97	2021.58	2023.98	2026.03	2027.99	2028.12	2027.97	2026.80	2025.49	2023.31	2020.40	2017.26	2014.75	2012.44	2009.87	2007.33	2004.81	2002.92	2000.94	1999.34	1998.25	1997.05	1995.69	1994.81	1994.62	1995.40	1996.36	1998.03	1999.56	1999.62	1999.95	1997.72	1993.72	1990.70	1992.64	1995.09	2005.03	2019.47	2037.31	2060.48	2084.91	2108.99	2133.45	2152.89	2167.30	2179.72	2178.66	2176.06	2163.24	2144.70	2123.56	2098.02	2073.03	2075.61	2090.42	2118.30	2167.26	2220.38	2279.70	2341.36	2391.62	2434.10	2470.99	2481.35	2488.42	2481.33	2466.14	2451.01	2437.24	2424.53	2423.41	2426.35	2420.25	2402.97	2381.84	2332.30	2278.70	2210.49	2132.51	2049.17	1959.11	1869.30	1803.99	1747.03
