1042.00	1020.00	1000.00	915.00	1019.00	1016.00	958.00	899.00	866.00	903.00	940.00	967.00	1076.00	1129.00	1082.00	946.00	945.00	1079.00	1156.00	1206.00	1209.00	1203.00	1169.00	1154.00	1147.00	1132.00	1089.00	1021.00	1001.00	1006.00	929.00	881.00	852.00	842.00	858.00	859.00	855.00	874.00	898.00	923.00	932.00	949.00	965.00	956.00	855.00	823.00	812.00	832.00	858.00	846.00	835.00	822.00	814.00	821.00	827.00	829.00	832.00	898.00	923.00	905.00	873.00	873.00	921.00	950.00	978.00	1009.00	1052.00	1095.00	1053.00	1030.00	984.00	968.00	970.00	989.00	1007.00	1002.00	1001.00	1012.00	1141.00	1092.00	1138.00	1191.00	1170.00	1097.00	1006.00	1006.00	1019.00	1060.00	1236.00	1279.00	1328.00	1323.00	1306.00	1250.00	1258.00	1250.00	1224.00	1309.00	1286.00	1185.00	1158.00	1146.00	1090.00	1067.00	1055.00	1044.00	1045.00	1071.00	1039.00	983.00	879.00	818.00	811.00	815.00	824.00	818.00	830.00	858.00	889.00	920.00	949.00	1013.00	1040.00	1010.00	990.00	1014.00	1053.00	1099.00	1143.00	1061.00	1028.00	1005.00	950.00	847.00	833.00	865.00	894.00	896.00	861.00	837.00	803.00	740.00	711.00	719.00	731.00	749.00	771.00	782.00	784.00	785.00	788.00	800.00	792.00	781.00	769.00	754.00	717.00	683.00	660.00	641.00	632.00	633.00	652.00	679.00	719.00	726.00	681.00	663.00	667.00	737.00	781.00	769.00	723.00	642.00	621.00	621.00	625.00	631.00	661.00	684.00	710.00	738.00	765.00	786.00	777.00	773.00	769.00	765.00	761.00	752.00	747.00	738.00	717.00	684.00	667.00	656.00	642.00	633.00	632.00	638.00	647.00	653.00	651.00	653.00	667.00	697.00	710.00	727.00	749.00	762.00	760.00	785.00	829.00	825.00	740.00	771.00	817.00	822.00	765.00	725.00	706.00	697.00	694.00	698.00	708.00	713.00	709.00	718.00	726.00	733.00	741.00	751.00	767.00	780.00	788.00	802.00	749.00	745.00	741.00	738.00	737.00	735.00	734.00	733.00	732.00	731.00	731.00	734.00	735.00	736.00	760.00	781.00	778.00	798.00	894.00	856.00
1104.00	1083.00	1034.00	943.00	990.00	1044.00	1045.00	988.00	878.00	907.00	979.00	1045.00	1136.00	1155.00	1115.00	1011.00	1006.00	1017.00	1065.00	1115.00	1178.00	1223.00	1174.00	1117.00	1053.00	1013.00	1017.00	980.00	931.00	899.00	881.00	881.00	864.00	856.00	880.00	882.00	896.00	947.00	1003.00	1027.00	997.00	976.00	944.00	918.00	834.00	807.00	801.00	807.00	811.00	814.00	817.00	827.00	860.00	850.00	826.00	830.00	840.00	853.00	848.00	854.00	865.00	876.00	924.00	956.00	993.00	1011.00	1085.00	1034.00	995.00	934.00	953.00	993.00	993.00	1007.00	1047.00	1144.00	1127.00	1118.00	1175.00	1037.00	1035.00	1074.00	1109.00	1076.00	1008.00	1082.00	1155.00	1141.00	1165.00	1171.00	1224.00	1246.00	1282.00	1385.00	1358.00	1289.00	1231.00	1157.00	1120.00	1076.00	1085.00	1117.00	1127.00	1096.00	1059.00	1011.00	892.00	868.00	853.00	828.00	815.00	832.00	857.00	885.00	883.00	840.00	833.00	841.00	858.00	884.00	908.00	915.00	926.00	956.00	1047.00	1085.00	1139.00	1187.00	1228.00	1144.00	1019.00	934.00	899.00	860.00	892.00	946.00	989.00	958.00	848.00	811.00	783.00	733.00	723.00	736.00	757.00	776.00	780.00	765.00	753.00	741.00	740.00	710.00	706.00	699.00	690.00	685.00	673.00	656.00	640.00	638.00	652.00	661.00	673.00	694.00	719.00	704.00	689.00	699.00	719.00	787.00	827.00	810.00	755.00	670.00	676.00	671.00	656.00	639.00	636.00	642.00	654.00	675.00	690.00	733.00	740.00	735.00	728.00	727.00	725.00	720.00	712.00	700.00	689.00	676.00	662.00	647.00	633.00	630.00	635.00	640.00	644.00	662.00	665.00	662.00	665.00	693.00	716.00	740.00	783.00	828.00	890.00	918.00	907.00	847.00	749.00	752.00	772.00	798.00	760.00	735.00	718.00	706.00	698.00	699.00	713.00	721.00	712.00	707.00	711.00	720.00	740.00	758.00	774.00	796.00	821.00	828.00	868.00	871.00	845.00	813.00	790.00	787.00	794.00	785.00	766.00	742.00	739.00	735.00	732.00	730.00	727.00	726.00	727.00	730.00	740.00	745.00
1104.00	1083.00	1034.00	943.00	990.00	1044.00	1045.00	988.00	878.00	907.00	979.00	1045.00	1136.00	1155.00	1115.00	1011.00	1006.00	1017.00	1065.00	1115.00	1178.00	1223.00	1174.00	1117.00	1053.00	1013.00	1017.00	980.00	931.00	899.00	881.00	881.00	864.00	856.00	880.00	882.00	896.00	947.00	1003.00	1027.00	997.00	976.00	944.00	918.00	834.00	807.00	801.00	807.00	811.00	814.00	817.00	827.00	860.00	850.00	826.00	830.00	840.00	853.00	848.00	854.00	865.00	876.00	924.00	956.00	993.00	1011.00	1085.00	1034.00	995.00	934.00	953.00	993.00	993.00	1007.00	1047.00	1144.00	1127.00	1118.00	1175.00	1037.00	1035.00	1074.00	1109.00	1076.00	1008.00	1082.00	1155.00	1141.00	1165.00	1171.00	1224.00	1246.00	1282.00	1385.00	1358.00	1289.00	1231.00	1157.00	1120.00	1076.00	1085.00	1117.00	1127.00	1096.00	1059.00	1011.00	892.00	868.00	853.00	828.00	815.00	832.00	857.00	885.00	883.00	840.00	833.00	841.00	858.00	884.00	908.00	915.00	926.00	956.00	1047.00	1085.00	1139.00	1187.00	1228.00	1144.00	1019.00	934.00	899.00	860.00	892.00	946.00	989.00	958.00	848.00	811.00	783.00	733.00	723.00	736.00	757.00	776.00	780.00	765.00	753.00	741.00	740.00	710.00	706.00	699.00	690.00	685.00	673.00	656.00	640.00	638.00	652.00	661.00	673.00	694.00	719.00	704.00	689.00	699.00	719.00	787.00	827.00	810.00	755.00	670.00	676.00	671.00	656.00	639.00	636.00	642.00	654.00	675.00	690.00	733.00	740.00	735.00	728.00	727.00	725.00	720.00	712.00	700.00	689.00	676.00	662.00	647.00	633.00	630.00	635.00	640.00	644.00	662.00	665.00	662.00	665.00	693.00	716.00	740.00	783.00	828.00	890.00	918.00	907.00	847.00	749.00	752.00	772.00	798.00	760.00	735.00	718.00	706.00	698.00	699.00	713.00	721.00	712.00	707.00	711.00	720.00	740.00	758.00	774.00	796.00	821.00	828.00	868.00	871.00	845.00	813.00	790.00	787.00	794.00	785.00	766.00	742.00	739.00	735.00	732.00	730.00	727.00	726.00	727.00	730.00	740.00	745.00
1053.00	1047.00	1018.00	998.00	1018.00	1021.00	1034.00	988.00	893.00	888.00	930.00	980.00	1011.00	1036.00	1081.00	1074.00	1090.00	1063.00	1079.00	1111.00	1154.00	1181.00	1140.00	1083.00	1027.00	1024.00	960.00	921.00	922.00	951.00	1013.00	1009.00	950.00	907.00	882.00	881.00	917.00	950.00	969.00	1013.00	1021.00	992.00	940.00	888.00	810.00	798.00	795.00	792.00	798.00	806.00	819.00	854.00	893.00	879.00	875.00	870.00	849.00	845.00	854.00	861.00	879.00	898.00	924.00	946.00	967.00	959.00	1054.00	987.00	917.00	927.00	1059.00	1099.00	1081.00	1071.00	1080.00	1081.00	1137.00	1203.00	1144.00	1067.00	1036.00	1000.00	976.00	973.00	1033.00	1082.00	1113.00	1096.00	1061.00	1041.00	1074.00	1105.00	1135.00	1178.00	1235.00	1245.00	1224.00	1178.00	1118.00	993.00	954.00	962.00	950.00	933.00	903.00	867.00	832.00	822.00	821.00	823.00	872.00	1030.00	1019.00	975.00	916.00	845.00	844.00	865.00	907.00	969.00	966.00	982.00	955.00	939.00	981.00	1000.00	1031.00	1072.00	1113.00	1148.00	1070.00	1026.00	1026.00	971.00	959.00	963.00	981.00	966.00	862.00	821.00	794.00	735.00	721.00	731.00	745.00	756.00	762.00	741.00	723.00	712.00	708.00	685.00	680.00	678.00	673.00	662.00	653.00	649.00	643.00	646.00	700.00	721.00	731.00	736.00	731.00	690.00	689.00	708.00	743.00	832.00	813.00	775.00	725.00	671.00	758.00	796.00	781.00	740.00	668.00	646.00	636.00	634.00	640.00	698.00	710.00	710.00	709.00	709.00	704.00	696.00	688.00	683.00	668.00	656.00	648.00	638.00	632.00	629.00	634.00	641.00	649.00	665.00	671.00	674.00	685.00	691.00	701.00	715.00	728.00	736.00	795.00	825.00	801.00	775.00	791.00	809.00	830.00	861.00	852.00	821.00	777.00	756.00	736.00	712.00	714.00	723.00	716.00	719.00	722.00	732.00	740.00	740.00	749.00	764.00	771.00	768.00	857.00	896.00	923.00	916.00	906.00	909.00	865.00	830.00	825.00	826.00	833.00	829.00	788.00	756.00	744.00	738.00	734.00	732.00	736.00	739.00
1053.00	1047.00	1018.00	998.00	1018.00	1021.00	1034.00	988.00	893.00	888.00	930.00	980.00	1011.00	1036.00	1081.00	1074.00	1090.00	1063.00	1079.00	1111.00	1154.00	1181.00	1140.00	1083.00	1027.00	1024.00	960.00	921.00	922.00	951.00	1013.00	1009.00	950.00	907.00	882.00	881.00	917.00	950.00	969.00	1013.00	1021.00	992.00	940.00	888.00	810.00	798.00	795.00	792.00	798.00	806.00	819.00	854.00	893.00	879.00	875.00	870.00	849.00	845.00	854.00	861.00	879.00	898.00	924.00	946.00	967.00	959.00	1054.00	987.00	917.00	927.00	1059.00	1099.00	1081.00	1071.00	1080.00	1081.00	1137.00	1203.00	1144.00	1067.00	1036.00	1000.00	976.00	973.00	1033.00	1082.00	1113.00	1096.00	1061.00	1041.00	1074.00	1105.00	1135.00	1178.00	1235.00	1245.00	1224.00	1178.00	1118.00	993.00	954.00	962.00	950.00	933.00	903.00	867.00	832.00	822.00	821.00	823.00	872.00	1030.00	1019.00	975.00	916.00	845.00	844.00	865.00	907.00	969.00	966.00	982.00	955.00	939.00	981.00	1000.00	1031.00	1072.00	1113.00	1148.00	1070.00	1026.00	1026.00	971.00	959.00	963.00	981.00	966.00	862.00	821.00	794.00	735.00	721.00	731.00	745.00	756.00	762.00	741.00	723.00	712.00	708.00	685.00	680.00	678.00	673.00	662.00	653.00	649.00	643.00	646.00	700.00	721.00	731.00	736.00	731.00	690.00	689.00	708.00	743.00	832.00	813.00	775.00	725.00	671.00	758.00	796.00	781.00	740.00	668.00	646.00	636.00	634.00	640.00	698.00	710.00	710.00	709.00	709.00	704.00	696.00	688.00	683.00	668.00	656.00	648.00	638.00	632.00	629.00	634.00	641.00	649.00	665.00	671.00	674.00	685.00	691.00	701.00	715.00	728.00	736.00	795.00	825.00	801.00	775.00	791.00	809.00	830.00	861.00	852.00	821.00	777.00	756.00	736.00	712.00	714.00	723.00	716.00	719.00	722.00	732.00	740.00	740.00	749.00	764.00	771.00	768.00	857.00	896.00	923.00	916.00	906.00	909.00	865.00	830.00	825.00	826.00	833.00	829.00	788.00	756.00	744.00	738.00	734.00	732.00	736.00	739.00
1017.00	1035.00	1018.00	1062.00	1057.00	1009.00	958.00	921.00	923.00	918.00	892.00	885.00	914.00	937.00	962.00	1018.00	1004.00	968.00	974.00	984.00	983.00	1014.00	1036.00	1053.00	1057.00	1047.00	972.00	981.00	1010.00	1017.00	967.00	934.00	913.00	915.00	936.00	935.00	946.00	944.00	931.00	921.00	917.00	899.00	860.00	827.00	796.00	796.00	796.00	800.00	806.00	810.00	834.00	876.00	927.00	962.00	934.00	894.00	883.00	879.00	872.00	870.00	866.00	863.00	879.00	885.00	906.00	926.00	979.00	919.00	907.00	950.00	1062.00	1017.00	971.00	992.00	1030.00	1131.00	1159.00	1107.00	1154.00	1152.00	1090.00	1035.00	984.00	938.00	983.00	1016.00	1003.00	1000.00	1047.00	1065.00	1090.00	1165.00	1207.00	1065.00	1026.00	1046.00	1067.00	1002.00	1027.00	940.00	911.00	887.00	858.00	853.00	852.00	849.00	877.00	926.00	942.00	918.00	930.00	1098.00	1056.00	973.00	895.00	845.00	856.00	885.00	950.00	1040.00	1093.00	1058.00	994.00	994.00	1140.00	1179.00	1135.00	1100.00	1073.00	1140.00	1096.00	1071.00	1067.00	962.00	912.00	867.00	853.00	840.00	819.00	807.00	794.00	755.00	729.00	716.00	717.00	717.00	714.00	700.00	689.00	681.00	676.00	673.00	669.00	668.00	666.00	659.00	643.00	641.00	642.00	653.00	748.00	784.00	753.00	729.00	709.00	687.00	695.00	711.00	735.00	766.00	764.00	747.00	713.00	678.00	764.00	783.00	766.00	756.00	833.00	822.00	766.00	706.00	670.00	650.00	662.00	676.00	686.00	691.00	687.00	684.00	680.00	675.00	664.00	647.00	642.00	637.00	628.00	628.00	631.00	635.00	639.00	658.00	694.00	723.00	782.00	780.00	735.00	706.00	697.00	698.00	711.00	723.00	742.00	767.00	847.00	835.00	827.00	817.00	849.00	897.00	919.00	877.00	824.00	736.00	728.00	739.00	733.00	726.00	730.00	734.00	735.00	734.00	738.00	741.00	740.00	742.00	801.00	859.00	925.00	1008.00	1048.00	918.00	886.00	903.00	945.00	955.00	910.00	857.00	813.00	798.00	860.00	850.00	795.00	755.00	737.00	737.00
1017.00	1035.00	1018.00	1062.00	1057.00	1009.00	958.00	921.00	923.00	918.00	892.00	885.00	914.00	937.00	962.00	1018.00	1004.00	968.00	974.00	984.00	983.00	1014.00	1036.00	1053.00	1057.00	1047.00	972.00	981.00	1010.00	1017.00	967.00	934.00	913.00	915.00	936.00	935.00	946.00	944.00	931.00	921.00	917.00	899.00	860.00	827.00	796.00	796.00	796.00	800.00	806.00	810.00	834.00	876.00	927.00	962.00	934.00	894.00	883.00	879.00	872.00	870.00	866.00	863.00	879.00	885.00	906.00	926.00	979.00	919.00	907.00	950.00	1062.00	1017.00	971.00	992.00	1030.00	1131.00	1159.00	1107.00	1154.00	1152.00	1090.00	1035.00	984.00	938.00	983.00	1016.00	1003.00	1000.00	1047.00	1065.00	1090.00	1165.00	1207.00	1065.00	1026.00	1046.00	1067.00	1002.00	1027.00	940.00	911.00	887.00	858.00	853.00	852.00	849.00	877.00	926.00	942.00	918.00	930.00	1098.00	1056.00	973.00	895.00	845.00	856.00	885.00	950.00	1040.00	1093.00	1058.00	994.00	994.00	1140.00	1179.00	1135.00	1100.00	1073.00	1140.00	1096.00	1071.00	1067.00	962.00	912.00	867.00	853.00	840.00	819.00	807.00	794.00	755.00	729.00	716.00	717.00	717.00	714.00	700.00	689.00	681.00	676.00	673.00	669.00	668.00	666.00	659.00	643.00	641.00	642.00	653.00	748.00	784.00	753.00	729.00	709.00	687.00	695.00	711.00	735.00	766.00	764.00	747.00	713.00	678.00	764.00	783.00	766.00	756.00	833.00	822.00	766.00	706.00	670.00	650.00	662.00	676.00	686.00	691.00	687.00	684.00	680.00	675.00	664.00	647.00	642.00	637.00	628.00	628.00	631.00	635.00	639.00	658.00	694.00	723.00	782.00	780.00	735.00	706.00	697.00	698.00	711.00	723.00	742.00	767.00	847.00	835.00	827.00	817.00	849.00	897.00	919.00	877.00	824.00	736.00	728.00	739.00	733.00	726.00	730.00	734.00	735.00	734.00	738.00	741.00	740.00	742.00	801.00	859.00	925.00	1008.00	1048.00	918.00	886.00	903.00	945.00	955.00	910.00	857.00	813.00	798.00	860.00	850.00	795.00	755.00	737.00	737.00
1084.00	1105.00	1098.00	1111.00	995.00	935.00	917.00	960.00	1046.00	973.00	916.00	917.00	978.00	974.00	982.00	947.00	960.00	998.00	1036.00	1035.00	995.00	953.00	942.00	948.00	962.00	972.00	975.00	1002.00	1017.00	1005.00	985.00	987.00	998.00	1014.00	999.00	1041.00	1023.00	988.00	935.00	865.00	840.00	824.00	812.00	798.00	793.00	799.00	804.00	810.00	810.00	819.00	841.00	887.00	937.00	1015.00	1011.00	985.00	954.00	861.00	871.00	881.00	871.00	862.00	877.00	881.00	890.00	895.00	893.00	873.00	885.00	908.00	927.00	930.00	974.00	1014.00	1026.00	1077.00	1084.00	1019.00	1108.00	1074.00	1090.00	1112.00	1081.00	1001.00	917.00	937.00	940.00	968.00	1151.00	1207.00	1196.00	1207.00	1243.00	1093.00	1030.00	988.00	959.00	932.00	937.00	895.00	906.00	916.00	967.00	934.00	943.00	979.00	1014.00	1092.00	1114.00	1035.00	912.00	1059.00	1086.00	1029.00	946.00	856.00	863.00	897.00	974.00	1068.00	1176.00	1090.00	1023.00	997.00	1078.00	1111.00	1151.00	1152.00	1128.00	1101.00	992.00	967.00	968.00	920.00	898.00	897.00	912.00	924.00	830.00	799.00	787.00	745.00	722.00	714.00	700.00	697.00	693.00	679.00	675.00	673.00	680.00	722.00	695.00	693.00	712.00	707.00	652.00	645.00	644.00	652.00	704.00	734.00	739.00	735.00	727.00	703.00	712.00	726.00	745.00	795.00	788.00	759.00	738.00	808.00	824.00	831.00	837.00	825.00	855.00	880.00	839.00	791.00	746.00	663.00	665.00	675.00	685.00	690.00	690.00	688.00	681.00	671.00	658.00	648.00	646.00	640.00	624.00	625.00	626.00	626.00	629.00	641.00	655.00	678.00	730.00	764.00	746.00	715.00	697.00	689.00	720.00	749.00	777.00	813.00	783.00	755.00	743.00	753.00	820.00	868.00	900.00	890.00	855.00	804.00	775.00	732.00	727.00	743.00	762.00	753.00	747.00	750.00	747.00	745.00	744.00	751.00	817.00	853.00	895.00	934.00	970.00	976.00	996.00	1032.00	1045.00	911.00	867.00	824.00	830.00	876.00	949.00	900.00	879.00	860.00	787.00	761.00
1075.00	1080.00	1106.00	1043.00	939.00	934.00	979.00	1060.00	1089.00	1002.00	935.00	924.00	974.00	992.00	1019.00	1044.00	1059.00	1101.00	1114.00	1082.00	1054.00	1012.00	968.00	939.00	923.00	927.00	919.00	918.00	925.00	936.00	957.00	971.00	991.00	987.00	1003.00	997.00	957.00	918.00	875.00	819.00	810.00	804.00	800.00	795.00	796.00	804.00	817.00	858.00	855.00	842.00	853.00	889.00	939.00	1023.00	1032.00	995.00	980.00	887.00	912.00	926.00	915.00	926.00	910.00	884.00	866.00	862.00	856.00	849.00	863.00	874.00	888.00	897.00	908.00	926.00	955.00	1008.00	995.00	958.00	1041.00	982.00	1044.00	1099.00	1035.00	953.00	917.00	942.00	980.00	1008.00	1101.00	1151.00	1190.00	1157.00	1114.00	1050.00	1070.00	1136.00	1152.00	1091.00	1116.00	1001.00	1030.00	1091.00	1122.00	1059.00	1077.00	1126.00	1108.00	1159.00	1161.00	1065.00	962.00	1110.00	1123.00	1042.00	954.00	898.00	887.00	898.00	983.00	1094.00	1199.00	1148.00	1126.00	1089.00	1023.00	1056.00	1109.00	1093.00	1027.00	1011.00	947.00	903.00	933.00	1019.00	1002.00	961.00	919.00	883.00	796.00	767.00	760.00	733.00	710.00	710.00	715.00	727.00	719.00	684.00	680.00	685.00	709.00	751.00	734.00	737.00	749.00	740.00	675.00	658.00	651.00	652.00	692.00	710.00	758.00	781.00	777.00	740.00	742.00	786.00	822.00	798.00	780.00	767.00	764.00	817.00	847.00	851.00	855.00	852.00	857.00	851.00	820.00	783.00	752.00	698.00	680.00	670.00	667.00	677.00	678.00	679.00	678.00	672.00	654.00	635.00	636.00	627.00	618.00	620.00	624.00	626.00	632.00	657.00	655.00	651.00	667.00	686.00	685.00	679.00	675.00	676.00	693.00	708.00	718.00	728.00	720.00	715.00	731.00	760.00	833.00	835.00	801.00	796.00	822.00	886.00	883.00	782.00	747.00	772.00	782.00	769.00	754.00	749.00	735.00	735.00	740.00	748.00	787.00	808.00	826.00	868.00	913.00	873.00	884.00	894.00	891.00	834.00	823.00	852.00	899.00	939.00	1020.00	997.00	957.00	904.00	821.00	791.00
1075.00	1080.00	1106.00	1043.00	939.00	934.00	979.00	1060.00	1089.00	1002.00	935.00	924.00	974.00	992.00	1019.00	1044.00	1059.00	1101.00	1114.00	1082.00	1054.00	1012.00	968.00	939.00	923.00	927.00	919.00	918.00	925.00	936.00	957.00	971.00	991.00	987.00	1003.00	997.00	957.00	918.00	875.00	819.00	810.00	804.00	800.00	795.00	796.00	804.00	817.00	858.00	855.00	842.00	853.00	889.00	939.00	1023.00	1032.00	995.00	980.00	887.00	912.00	926.00	915.00	926.00	910.00	884.00	866.00	862.00	856.00	849.00	863.00	874.00	888.00	897.00	908.00	926.00	955.00	1008.00	995.00	958.00	1041.00	982.00	1044.00	1099.00	1035.00	953.00	917.00	942.00	980.00	1008.00	1101.00	1151.00	1190.00	1157.00	1114.00	1050.00	1070.00	1136.00	1152.00	1091.00	1116.00	1001.00	1030.00	1091.00	1122.00	1059.00	1077.00	1126.00	1108.00	1159.00	1161.00	1065.00	962.00	1110.00	1123.00	1042.00	954.00	898.00	887.00	898.00	983.00	1094.00	1199.00	1148.00	1126.00	1089.00	1023.00	1056.00	1109.00	1093.00	1027.00	1011.00	947.00	903.00	933.00	1019.00	1002.00	961.00	919.00	883.00	796.00	767.00	760.00	733.00	710.00	710.00	715.00	727.00	719.00	684.00	680.00	685.00	709.00	751.00	734.00	737.00	749.00	740.00	675.00	658.00	651.00	652.00	692.00	710.00	758.00	781.00	777.00	740.00	742.00	786.00	822.00	798.00	780.00	767.00	764.00	817.00	847.00	851.00	855.00	852.00	857.00	851.00	820.00	783.00	752.00	698.00	680.00	670.00	667.00	677.00	678.00	679.00	678.00	672.00	654.00	635.00	636.00	627.00	618.00	620.00	624.00	626.00	632.00	657.00	655.00	651.00	667.00	686.00	685.00	679.00	675.00	676.00	693.00	708.00	718.00	728.00	720.00	715.00	731.00	760.00	833.00	835.00	801.00	796.00	822.00	886.00	883.00	782.00	747.00	772.00	782.00	769.00	754.00	749.00	735.00	735.00	740.00	748.00	787.00	808.00	826.00	868.00	913.00	873.00	884.00	894.00	891.00	834.00	823.00	852.00	899.00	939.00	1020.00	997.00	957.00	904.00	821.00	791.00
1011.00	1024.00	1043.00	1025.00	962.00	947.00	984.00	1078.00	1075.00	1018.00	990.00	981.00	972.00	984.00	992.00	989.00	1011.00	1040.00	1035.00	1006.00	990.00	949.00	939.00	931.00	934.00	943.00	915.00	919.00	920.00	906.00	891.00	891.00	890.00	887.00	880.00	848.00	831.00	827.00	822.00	807.00	807.00	808.00	808.00	808.00	819.00	830.00	846.00	887.00	872.00	861.00	854.00	854.00	871.00	952.00	979.00	1002.00	1005.00	907.00	923.00	941.00	963.00	974.00	932.00	909.00	887.00	899.00	925.00	864.00	862.00	879.00	914.00	919.00	925.00	951.00	985.00	1019.00	985.00	957.00	927.00	964.00	1008.00	1038.00	1006.00	939.00	907.00	980.00	1034.00	1036.00	1013.00	1087.00	1144.00	1106.00	1015.00	1025.00	1097.00	1169.00	1212.00	1187.00	1168.00	1051.00	1079.00	1118.00	1197.00	1209.00	1197.00	1214.00	1183.00	1189.00	1166.00	1115.00	1067.00	1128.00	1114.00	1050.00	975.00	935.00	928.00	956.00	1020.00	1052.00	1056.00	1050.00	1062.00	1105.00	1069.00	1099.00	1110.00	1061.00	1000.00	919.00	896.00	865.00	933.00	943.00	908.00	906.00	895.00	849.00	770.00	786.00	808.00	769.00	726.00	744.00	771.00	761.00	728.00	682.00	693.00	715.00	730.00	812.00	836.00	827.00	804.00	780.00	719.00	695.00	679.00	673.00	691.00	722.00	768.00	781.00	787.00	775.00	764.00	786.00	808.00	828.00	823.00	810.00	796.00	767.00	762.00	761.00	763.00	774.00	784.00	773.00	765.00	761.00	754.00	717.00	698.00	676.00	659.00	666.00	670.00	668.00	667.00	667.00	662.00	646.00	641.00	635.00	621.00	618.00	622.00	622.00	628.00	659.00	673.00	676.00	680.00	676.00	672.00	668.00	668.00	671.00	684.00	687.00	687.00	685.00	695.00	705.00	720.00	739.00	781.00	770.00	758.00	789.00	840.00	807.00	840.00	805.00	757.00	770.00	771.00	762.00	767.00	797.00	814.00	786.00	767.00	752.00	756.00	776.00	806.00	845.00	847.00	802.00	828.00	847.00	841.00	824.00	855.00	899.00	950.00	1005.00	1122.00	1080.00	1000.00	934.00	852.00	838.00
1011.00	1024.00	1043.00	1025.00	962.00	947.00	984.00	1078.00	1075.00	1018.00	990.00	981.00	972.00	984.00	992.00	989.00	1011.00	1040.00	1035.00	1006.00	990.00	949.00	939.00	931.00	934.00	943.00	915.00	919.00	920.00	906.00	891.00	891.00	890.00	887.00	880.00	848.00	831.00	827.00	822.00	807.00	807.00	808.00	808.00	808.00	819.00	830.00	846.00	887.00	872.00	861.00	854.00	854.00	871.00	952.00	979.00	1002.00	1005.00	907.00	923.00	941.00	963.00	974.00	932.00	909.00	887.00	899.00	925.00	864.00	862.00	879.00	914.00	919.00	925.00	951.00	985.00	1019.00	985.00	957.00	927.00	964.00	1008.00	1038.00	1006.00	939.00	907.00	980.00	1034.00	1036.00	1013.00	1087.00	1144.00	1106.00	1015.00	1025.00	1097.00	1169.00	1212.00	1187.00	1168.00	1051.00	1079.00	1118.00	1197.00	1209.00	1197.00	1214.00	1183.00	1189.00	1166.00	1115.00	1067.00	1128.00	1114.00	1050.00	975.00	935.00	928.00	956.00	1020.00	1052.00	1056.00	1050.00	1062.00	1105.00	1069.00	1099.00	1110.00	1061.00	1000.00	919.00	896.00	865.00	933.00	943.00	908.00	906.00	895.00	849.00	770.00	786.00	808.00	769.00	726.00	744.00	771.00	761.00	728.00	682.00	693.00	715.00	730.00	812.00	836.00	827.00	804.00	780.00	719.00	695.00	679.00	673.00	691.00	722.00	768.00	781.00	787.00	775.00	764.00	786.00	808.00	828.00	823.00	810.00	796.00	767.00	762.00	761.00	763.00	774.00	784.00	773.00	765.00	761.00	754.00	717.00	698.00	676.00	659.00	666.00	670.00	668.00	667.00	667.00	662.00	646.00	641.00	635.00	621.00	618.00	622.00	622.00	628.00	659.00	673.00	676.00	680.00	676.00	672.00	668.00	668.00	671.00	684.00	687.00	687.00	685.00	695.00	705.00	720.00	739.00	781.00	770.00	758.00	789.00	840.00	807.00	840.00	805.00	757.00	770.00	771.00	762.00	767.00	797.00	814.00	786.00	767.00	752.00	756.00	776.00	806.00	845.00	847.00	802.00	828.00	847.00	841.00	824.00	855.00	899.00	950.00	1005.00	1122.00	1080.00	1000.00	934.00	852.00	838.00
1013.00	1033.00	1050.00	1126.00	1089.00	994.00	973.00	1035.00	1209.00	1227.00	1185.00	1143.00	1103.00	1113.00	1096.00	1015.00	993.00	1036.00	1018.00	992.00	1005.00	1045.00	1048.00	1051.00	1044.00	1038.00	977.00	1022.00	1000.00	950.00	919.00	898.00	881.00	867.00	855.00	841.00	823.00	815.00	810.00	809.00	807.00	809.00	809.00	813.00	844.00	869.00	887.00	921.00	892.00	884.00	878.00	869.00	859.00	883.00	933.00	958.00	925.00	954.00	985.00	986.00	962.00	939.00	924.00	921.00	914.00	907.00	928.00	913.00	878.00	845.00	876.00	888.00	897.00	908.00	937.00	1002.00	995.00	973.00	912.00	916.00	959.00	1005.00	980.00	917.00	861.00	893.00	924.00	950.00	1037.00	1051.00	1028.00	1000.00	967.00	1054.00	1125.00	1146.00	1111.00	1025.00	998.00	1022.00	1009.00	1024.00	1098.00	1069.00	1110.00	1165.00	1046.00	1014.00	1045.00	1102.00	1189.00	1099.00	1048.00	1013.00	987.00	946.00	960.00	998.00	992.00	956.00	981.00	1040.00	1113.00	1121.00	1004.00	1031.00	1001.00	940.00	918.00	906.00	836.00	851.00	907.00	923.00	880.00	862.00	863.00	836.00	804.00	829.00	844.00	822.00	774.00	767.00	738.00	712.00	699.00	716.00	729.00	753.00	782.00	932.00	950.00	900.00	844.00	789.00	734.00	723.00	706.00	692.00	682.00	708.00	750.00	756.00	755.00	757.00	757.00	768.00	781.00	796.00	791.00	784.00	787.00	776.00	746.00	754.00	772.00	773.00	753.00	740.00	730.00	721.00	714.00	705.00	699.00	688.00	673.00	655.00	656.00	659.00	661.00	659.00	654.00	650.00	646.00	641.00	631.00	627.00	631.00	633.00	636.00	670.00	703.00	735.00	820.00	811.00	745.00	702.00	687.00	683.00	690.00	695.00	698.00	700.00	700.00	700.00	703.00	710.00	726.00	733.00	741.00	756.00	761.00	756.00	786.00	780.00	766.00	768.00	777.00	786.00	795.00	823.00	875.00	832.00	805.00	795.00	746.00	747.00	761.00	773.00	777.00	812.00	846.00	904.00	929.00	829.00	868.00	914.00	966.00	1027.00	1099.00	1045.00	983.00	932.00	847.00	823.00
1013.00	1033.00	1050.00	1126.00	1089.00	994.00	973.00	1035.00	1209.00	1227.00	1185.00	1143.00	1103.00	1113.00	1096.00	1015.00	993.00	1036.00	1018.00	992.00	1005.00	1045.00	1048.00	1051.00	1044.00	1038.00	977.00	1022.00	1000.00	950.00	919.00	898.00	881.00	867.00	855.00	841.00	823.00	815.00	810.00	809.00	807.00	809.00	809.00	813.00	844.00	869.00	887.00	921.00	892.00	884.00	878.00	869.00	859.00	883.00	933.00	958.00	925.00	954.00	985.00	986.00	962.00	939.00	924.00	921.00	914.00	907.00	928.00	913.00	878.00	845.00	876.00	888.00	897.00	908.00	937.00	1002.00	995.00	973.00	912.00	916.00	959.00	1005.00	980.00	917.00	861.00	893.00	924.00	950.00	1037.00	1051.00	1028.00	1000.00	967.00	1054.00	1125.00	1146.00	1111.00	1025.00	998.00	1022.00	1009.00	1024.00	1098.00	1069.00	1110.00	1165.00	1046.00	1014.00	1045.00	1102.00	1189.00	1099.00	1048.00	1013.00	987.00	946.00	960.00	998.00	992.00	956.00	981.00	1040.00	1113.00	1121.00	1004.00	1031.00	1001.00	940.00	918.00	906.00	836.00	851.00	907.00	923.00	880.00	862.00	863.00	836.00	804.00	829.00	844.00	822.00	774.00	767.00	738.00	712.00	699.00	716.00	729.00	753.00	782.00	932.00	950.00	900.00	844.00	789.00	734.00	723.00	706.00	692.00	682.00	708.00	750.00	756.00	755.00	757.00	757.00	768.00	781.00	796.00	791.00	784.00	787.00	776.00	746.00	754.00	772.00	773.00	753.00	740.00	730.00	721.00	714.00	705.00	699.00	688.00	673.00	655.00	656.00	659.00	661.00	659.00	654.00	650.00	646.00	641.00	631.00	627.00	631.00	633.00	636.00	670.00	703.00	735.00	820.00	811.00	745.00	702.00	687.00	683.00	690.00	695.00	698.00	700.00	700.00	700.00	703.00	710.00	726.00	733.00	741.00	756.00	761.00	756.00	786.00	780.00	766.00	768.00	777.00	786.00	795.00	823.00	875.00	832.00	805.00	795.00	746.00	747.00	761.00	773.00	777.00	812.00	846.00	904.00	929.00	829.00	868.00	914.00	966.00	1027.00	1099.00	1045.00	983.00	932.00	847.00	823.00
1013.00	1033.00	1050.00	1126.00	1089.00	994.00	973.00	1035.00	1209.00	1227.00	1185.00	1143.00	1103.00	1113.00	1096.00	1015.00	993.00	1036.00	1018.00	992.00	1005.00	1045.00	1048.00	1051.00	1044.00	1038.00	977.00	1022.00	1000.00	950.00	919.00	898.00	881.00	867.00	855.00	841.00	823.00	815.00	810.00	809.00	807.00	809.00	809.00	813.00	844.00	869.00	887.00	921.00	892.00	884.00	878.00	869.00	859.00	883.00	933.00	958.00	925.00	954.00	985.00	986.00	962.00	939.00	924.00	921.00	914.00	907.00	928.00	913.00	878.00	845.00	876.00	888.00	897.00	908.00	937.00	1002.00	995.00	973.00	912.00	916.00	959.00	1005.00	980.00	917.00	861.00	893.00	924.00	950.00	1037.00	1051.00	1028.00	1000.00	967.00	1054.00	1125.00	1146.00	1111.00	1025.00	998.00	1022.00	1009.00	1024.00	1098.00	1069.00	1110.00	1165.00	1046.00	1014.00	1045.00	1102.00	1189.00	1099.00	1048.00	1013.00	987.00	946.00	960.00	998.00	992.00	956.00	981.00	1040.00	1113.00	1121.00	1004.00	1031.00	1001.00	940.00	918.00	906.00	836.00	851.00	907.00	923.00	880.00	862.00	863.00	836.00	804.00	829.00	844.00	822.00	774.00	767.00	738.00	712.00	699.00	716.00	729.00	753.00	782.00	932.00	950.00	900.00	844.00	789.00	734.00	723.00	706.00	692.00	682.00	708.00	750.00	756.00	755.00	757.00	757.00	768.00	781.00	796.00	791.00	784.00	787.00	776.00	746.00	754.00	772.00	773.00	753.00	740.00	730.00	721.00	714.00	705.00	699.00	688.00	673.00	655.00	656.00	659.00	661.00	659.00	654.00	650.00	646.00	641.00	631.00	627.00	631.00	633.00	636.00	670.00	703.00	735.00	820.00	811.00	745.00	702.00	687.00	683.00	690.00	695.00	698.00	700.00	700.00	700.00	703.00	710.00	726.00	733.00	741.00	756.00	761.00	756.00	786.00	780.00	766.00	768.00	777.00	786.00	795.00	823.00	875.00	832.00	805.00	795.00	746.00	747.00	761.00	773.00	777.00	812.00	846.00	904.00	929.00	829.00	868.00	914.00	966.00	1027.00	1099.00	1045.00	983.00	932.00	847.00	823.00
976.00	1023.00	1065.00	1077.00	1009.00	978.00	1015.00	1070.00	1211.00	1241.00	1187.00	1137.00	1056.00	1027.00	1028.00	1028.00	1057.00	1132.00	1088.00	1047.00	1076.00	1138.00	1141.00	1101.00	1053.00	1003.00	977.00	1017.00	1017.00	967.00	976.00	928.00	894.00	856.00	834.00	820.00	814.00	815.00	817.00	823.00	822.00	823.00	828.00	836.00	874.00	893.00	907.00	958.00	943.00	930.00	941.00	934.00	899.00	863.00	870.00	893.00	929.00	1048.00	1072.00	1075.00	1030.00	995.00	941.00	928.00	920.00	925.00	913.00	904.00	896.00	866.00	822.00	823.00	839.00	869.00	904.00	958.00	973.00	975.00	911.00	869.00	897.00	936.00	921.00	884.00	888.00	960.00	1007.00	985.00	910.00	911.00	909.00	935.00	968.00	1062.00	1128.00	1165.00	1147.00	1039.00	985.00	933.00	932.00	966.00	982.00	952.00	1019.00	1059.00	962.00	956.00	1022.00	1122.00	1135.00	972.00	941.00	940.00	951.00	932.00	937.00	945.00	936.00	912.00	1036.00	1099.00	1109.00	1069.00	944.00	889.00	889.00	900.00	867.00	841.00	818.00	807.00	817.00	856.00	836.00	816.00	808.00	805.00	833.00	849.00	850.00	830.00	747.00	710.00	693.00	692.00	693.00	731.00	751.00	790.00	822.00	873.00	855.00	832.00	805.00	783.00	732.00	715.00	703.00	692.00	675.00	677.00	702.00	713.00	721.00	733.00	738.00	742.00	751.00	754.00	748.00	754.00	779.00	774.00	729.00	738.00	761.00	771.00	747.00	747.00	742.00	737.00	735.00	697.00	685.00	677.00	667.00	664.00	659.00	655.00	654.00	655.00	652.00	647.00	643.00	640.00	631.00	626.00	630.00	634.00	637.00	670.00	696.00	728.00	844.00	833.00	773.00	724.00	702.00	701.00	718.00	719.00	712.00	709.00	721.00	716.00	713.00	715.00	722.00	720.00	720.00	721.00	720.00	728.00	738.00	754.00	758.00	813.00	829.00	819.00	813.00	822.00	858.00	843.00	853.00	882.00	826.00	787.00	766.00	760.00	766.00	818.00	845.00	875.00	909.00	839.00	834.00	845.00	881.00	935.00	945.00	918.00	895.00	865.00	825.00	812.00
941.00	981.00	1046.00	1057.00	1020.00	1002.00	1002.00	1031.00	1162.00	1225.00	1251.00	1218.00	1138.00	1144.00	1144.00	1069.00	1063.00	1072.00	1049.00	1032.00	1069.00	1089.00	1059.00	1010.00	980.00	979.00	1078.00	1071.00	1024.00	983.00	971.00	921.00	868.00	837.00	821.00	813.00	817.00	819.00	821.00	831.00	841.00	858.00	879.00	922.00	996.00	970.00	951.00	1049.00	1043.00	1010.00	1002.00	965.00	922.00	911.00	922.00	910.00	911.00	958.00	988.00	1026.00	1006.00	972.00	964.00	948.00	934.00	933.00	946.00	893.00	893.00	878.00	835.00	816.00	809.00	818.00	828.00	863.00	876.00	896.00	900.00	890.00	852.00	834.00	848.00	855.00	890.00	922.00	916.00	894.00	958.00	984.00	1024.00	1058.00	1101.00	1157.00	1183.00	1170.00	1110.00	1033.00	1075.00	1016.00	967.00	946.00	900.00	898.00	908.00	922.00	921.00	990.00	1076.00	1106.00	1031.00	916.00	880.00	909.00	945.00	931.00	907.00	874.00	868.00	903.00	961.00	967.00	977.00	972.00	938.00	920.00	941.00	954.00	923.00	848.00	828.00	824.00	809.00	792.00	794.00	799.00	791.00	782.00	820.00	842.00	833.00	769.00	762.00	734.00	706.00	698.00	699.00	743.00	781.00	826.00	877.00	880.00	874.00	838.00	811.00	828.00	730.00	707.00	715.00	719.00	701.00	694.00	687.00	688.00	690.00	703.00	709.00	712.00	714.00	719.00	720.00	729.00	747.00	769.00	728.00	725.00	741.00	743.00	746.00	754.00	753.00	744.00	729.00	696.00	686.00	675.00	667.00	675.00	672.00	658.00	645.00	634.00	631.00	635.00	635.00	636.00	625.00	625.00	636.00	641.00	644.00	675.00	701.00	735.00	815.00	835.00	797.00	748.00	716.00	704.00	719.00	748.00	751.00	743.00	755.00	737.00	732.00	737.00	742.00	733.00	726.00	724.00	727.00	725.00	727.00	737.00	746.00	792.00	806.00	792.00	797.00	830.00	834.00	822.00	835.00	839.00	904.00	891.00	846.00	813.00	800.00	829.00	860.00	889.00	917.00	921.00	897.00	862.00	847.00	877.00	842.00	823.00	817.00	818.00	838.00	855.00
941.00	981.00	1046.00	1057.00	1020.00	1002.00	1002.00	1031.00	1162.00	1225.00	1251.00	1218.00	1138.00	1144.00	1144.00	1069.00	1063.00	1072.00	1049.00	1032.00	1069.00	1089.00	1059.00	1010.00	980.00	979.00	1078.00	1071.00	1024.00	983.00	971.00	921.00	868.00	837.00	821.00	813.00	817.00	819.00	821.00	831.00	841.00	858.00	879.00	922.00	996.00	970.00	951.00	1049.00	1043.00	1010.00	1002.00	965.00	922.00	911.00	922.00	910.00	911.00	958.00	988.00	1026.00	1006.00	972.00	964.00	948.00	934.00	933.00	946.00	893.00	893.00	878.00	835.00	816.00	809.00	818.00	828.00	863.00	876.00	896.00	900.00	890.00	852.00	834.00	848.00	855.00	890.00	922.00	916.00	894.00	958.00	984.00	1024.00	1058.00	1101.00	1157.00	1183.00	1170.00	1110.00	1033.00	1075.00	1016.00	967.00	946.00	900.00	898.00	908.00	922.00	921.00	990.00	1076.00	1106.00	1031.00	916.00	880.00	909.00	945.00	931.00	907.00	874.00	868.00	903.00	961.00	967.00	977.00	972.00	938.00	920.00	941.00	954.00	923.00	848.00	828.00	824.00	809.00	792.00	794.00	799.00	791.00	782.00	820.00	842.00	833.00	769.00	762.00	734.00	706.00	698.00	699.00	743.00	781.00	826.00	877.00	880.00	874.00	838.00	811.00	828.00	730.00	707.00	715.00	719.00	701.00	694.00	687.00	688.00	690.00	703.00	709.00	712.00	714.00	719.00	720.00	729.00	747.00	769.00	728.00	725.00	741.00	743.00	746.00	754.00	753.00	744.00	729.00	696.00	686.00	675.00	667.00	675.00	672.00	658.00	645.00	634.00	631.00	635.00	635.00	636.00	625.00	625.00	636.00	641.00	644.00	675.00	701.00	735.00	815.00	835.00	797.00	748.00	716.00	704.00	719.00	748.00	751.00	743.00	755.00	737.00	732.00	737.00	742.00	733.00	726.00	724.00	727.00	725.00	727.00	737.00	746.00	792.00	806.00	792.00	797.00	830.00	834.00	822.00	835.00	839.00	904.00	891.00	846.00	813.00	800.00	829.00	860.00	889.00	917.00	921.00	897.00	862.00	847.00	877.00	842.00	823.00	817.00	818.00	838.00	855.00
919.00	983.00	1085.00	1108.00	1123.00	1058.00	1058.00	1079.00	1065.00	1098.00	1152.00	1183.00	1208.00	1231.00	1218.00	1171.00	1140.00	1072.00	1050.00	1035.00	1035.00	1038.00	1035.00	1025.00	1025.00	1049.00	1075.00	1059.00	1027.00	983.00	882.00	845.00	826.00	818.00	818.00	818.00	818.00	819.00	822.00	844.00	858.00	884.00	920.00	985.00	1099.00	1094.00	1050.00	1078.00	1104.00	1039.00	978.00	922.00	909.00	961.00	969.00	947.00	920.00	953.00	995.00	1033.00	1058.00	1058.00	1056.00	1027.00	998.00	1000.00	1015.00	1012.00	1003.00	966.00	860.00	822.00	807.00	822.00	850.00	929.00	947.00	963.00	953.00	935.00	904.00	863.00	824.00	810.00	847.00	843.00	846.00	873.00	955.00	996.00	1037.00	1076.00	1163.00	1239.00	1176.00	1121.00	1117.00	1145.00	1102.00	998.00	974.00	986.00	1020.00	984.00	936.00	893.00	863.00	864.00	866.00	875.00	865.00	850.00	848.00	876.00	891.00	904.00	875.00	840.00	857.00	883.00	875.00	882.00	886.00	893.00	913.00	931.00	957.00	971.00	954.00	902.00	867.00	852.00	834.00	803.00	787.00	778.00	773.00	766.00	790.00	810.00	801.00	757.00	746.00	731.00	713.00	704.00	715.00	763.00	817.00	883.00	939.00	955.00	935.00	903.00	862.00	785.00	714.00	754.00	807.00	878.00	826.00	768.00	734.00	727.00	711.00	686.00	685.00	687.00	687.00	688.00	691.00	697.00	702.00	716.00	700.00	705.00	723.00	727.00	724.00	731.00	740.00	730.00	711.00	692.00	684.00	682.00	675.00	655.00	652.00	648.00	637.00	629.00	622.00	623.00	623.00	619.00	611.00	615.00	624.00	629.00	636.00	659.00	678.00	700.00	751.00	789.00	777.00	746.00	723.00	711.00	724.00	750.00	778.00	800.00	774.00	749.00	754.00	761.00	762.00	758.00	751.00	749.00	752.00	750.00	735.00	744.00	747.00	750.00	759.00	766.00	771.00	773.00	765.00	763.00	772.00	793.00	832.00	844.00	815.00	806.00	835.00	852.00	834.00	833.00	863.00	897.00	882.00	871.00	853.00	843.00	839.00	828.00	827.00	832.00	861.00	896.00
919.00	983.00	1085.00	1108.00	1123.00	1058.00	1058.00	1079.00	1065.00	1098.00	1152.00	1183.00	1208.00	1231.00	1218.00	1171.00	1140.00	1072.00	1050.00	1035.00	1035.00	1038.00	1035.00	1025.00	1025.00	1049.00	1075.00	1059.00	1027.00	983.00	882.00	845.00	826.00	818.00	818.00	818.00	818.00	819.00	822.00	844.00	858.00	884.00	920.00	985.00	1099.00	1094.00	1050.00	1078.00	1104.00	1039.00	978.00	922.00	909.00	961.00	969.00	947.00	920.00	953.00	995.00	1033.00	1058.00	1058.00	1056.00	1027.00	998.00	1000.00	1015.00	1012.00	1003.00	966.00	860.00	822.00	807.00	822.00	850.00	929.00	947.00	963.00	953.00	935.00	904.00	863.00	824.00	810.00	847.00	843.00	846.00	873.00	955.00	996.00	1037.00	1076.00	1163.00	1239.00	1176.00	1121.00	1117.00	1145.00	1102.00	998.00	974.00	986.00	1020.00	984.00	936.00	893.00	863.00	864.00	866.00	875.00	865.00	850.00	848.00	876.00	891.00	904.00	875.00	840.00	857.00	883.00	875.00	882.00	886.00	893.00	913.00	931.00	957.00	971.00	954.00	902.00	867.00	852.00	834.00	803.00	787.00	778.00	773.00	766.00	790.00	810.00	801.00	757.00	746.00	731.00	713.00	704.00	715.00	763.00	817.00	883.00	939.00	955.00	935.00	903.00	862.00	785.00	714.00	754.00	807.00	878.00	826.00	768.00	734.00	727.00	711.00	686.00	685.00	687.00	687.00	688.00	691.00	697.00	702.00	716.00	700.00	705.00	723.00	727.00	724.00	731.00	740.00	730.00	711.00	692.00	684.00	682.00	675.00	655.00	652.00	648.00	637.00	629.00	622.00	623.00	623.00	619.00	611.00	615.00	624.00	629.00	636.00	659.00	678.00	700.00	751.00	789.00	777.00	746.00	723.00	711.00	724.00	750.00	778.00	800.00	774.00	749.00	754.00	761.00	762.00	758.00	751.00	749.00	752.00	750.00	735.00	744.00	747.00	750.00	759.00	766.00	771.00	773.00	765.00	763.00	772.00	793.00	832.00	844.00	815.00	806.00	835.00	852.00	834.00	833.00	863.00	897.00	882.00	871.00	853.00	843.00	839.00	828.00	827.00	832.00	861.00	896.00
968.00	1040.00	1131.00	1204.00	1157.00	1106.00	1152.00	1167.00	1156.00	1118.00	1147.00	1166.00	1238.00	1298.00	1304.00	1187.00	1138.00	1053.00	1047.00	1017.00	991.00	977.00	976.00	985.00	993.00	996.00	987.00	975.00	926.00	887.00	842.00	829.00	822.00	821.00	821.00	826.00	837.00	841.00	850.00	892.00	909.00	906.00	902.00	916.00	984.00	1026.00	1072.00	1080.00	979.00	940.00	920.00	922.00	927.00	1000.00	1014.00	974.00	932.00	1031.00	1076.00	1121.00	1160.00	1170.00	1134.00	1112.00	1093.00	1077.00	1056.00	1008.00	963.00	921.00	847.00	829.00	818.00	847.00	877.00	882.00	877.00	876.00	917.00	885.00	871.00	853.00	833.00	806.00	813.00	854.00	896.00	912.00	980.00	1040.00	1128.00	1187.00	1249.00	1291.00	1269.00	1275.00	1307.00	1200.00	1150.00	1094.00	1152.00	1134.00	1051.00	1018.00	955.00	985.00	997.00	964.00	917.00	864.00	841.00	815.00	815.00	822.00	841.00	871.00	846.00	819.00	824.00	849.00	994.00	1041.00	1035.00	1019.00	1043.00	1021.00	1004.00	1026.00	1032.00	981.00	949.00	909.00	871.00	837.00	844.00	838.00	817.00	791.00	761.00	753.00	746.00	735.00	762.00	759.00	765.00	769.00	775.00	799.00	832.00	900.00	928.00	871.00	825.00	794.00	764.00	734.00	757.00	826.00	906.00	978.00	914.00	903.00	879.00	876.00	837.00	750.00	722.00	705.00	693.00	683.00	681.00	682.00	683.00	681.00	675.00	675.00	679.00	681.00	675.00	677.00	679.00	679.00	678.00	688.00	679.00	672.00	673.00	649.00	637.00	629.00	626.00	624.00	622.00	622.00	619.00	614.00	621.00	621.00	624.00	626.00	629.00	650.00	669.00	689.00	739.00	789.00	806.00	823.00	816.00	775.00	714.00	726.00	755.00	779.00	808.00	790.00	767.00	776.00	782.00	769.00	767.00	770.00	772.00	777.00	779.00	820.00	783.00	791.00	795.00	773.00	754.00	748.00	776.00	790.00	784.00	772.00	762.00	770.00	798.00	818.00	814.00	859.00	870.00	873.00	871.00	955.00	935.00	922.00	906.00	881.00	858.00	865.00	861.00	855.00	887.00	926.00
947.00	1001.00	1095.00	1233.00	1221.00	1197.00	1213.00	1232.00	1246.00	1229.00	1269.00	1297.00	1301.00	1338.00	1297.00	1143.00	1096.00	1106.00	1130.00	1095.00	1041.00	1014.00	989.00	958.00	938.00	929.00	920.00	899.00	869.00	847.00	838.00	836.00	834.00	835.00	842.00	872.00	929.00	928.00	916.00	909.00	946.00	968.00	1020.00	1011.00	952.00	947.00	951.00	940.00	914.00	918.00	931.00	948.00	983.00	1117.00	1067.00	983.00	963.00	1120.00	1149.00	1153.00	1126.00	1096.00	1037.00	1012.00	984.00	957.00	917.00	879.00	865.00	852.00	824.00	818.00	818.00	812.00	801.00	797.00	819.00	859.00	956.00	954.00	899.00	869.00	842.00	804.00	808.00	852.00	877.00	886.00	1003.00	1064.00	1158.00	1243.00	1309.00	1215.00	1201.00	1225.00	1286.00	1315.00	1247.00	1141.00	1237.00	1237.00	1125.00	1045.00	1066.00	1137.00	1069.00	983.00	914.00	929.00	1020.00	888.00	897.00	885.00	835.00	784.00	777.00	807.00	847.00	896.00	1044.00	1066.00	1110.00	1155.00	1133.00	1103.00	1124.00	1144.00	1099.00	985.00	907.00	890.00	902.00	925.00	947.00	936.00	919.00	891.00	811.00	781.00	767.00	831.00	943.00	949.00	962.00	970.00	941.00	951.00	958.00	976.00	995.00	839.00	803.00	805.00	780.00	760.00	842.00	889.00	926.00	964.00	922.00	863.00	891.00	882.00	846.00	811.00	797.00	778.00	755.00	703.00	685.00	676.00	674.00	676.00	680.00	680.00	680.00	680.00	681.00	678.00	674.00	666.00	659.00	646.00	647.00	649.00	651.00	647.00	646.00	642.00	638.00	637.00	636.00	620.00	616.00	620.00	618.00	620.00	622.00	624.00	628.00	655.00	688.00	723.00	749.00	753.00	782.00	815.00	832.00	830.00	767.00	725.00	723.00	746.00	800.00	782.00	752.00	746.00	784.00	791.00	794.00	807.00	812.00	796.00	808.00	826.00	814.00	832.00	828.00	800.00	773.00	771.00	789.00	830.00	861.00	828.00	848.00	819.00	854.00	894.00	868.00	887.00	945.00	972.00	945.00	986.00	957.00	934.00	908.00	891.00	925.00	937.00	900.00	867.00	907.00	963.00
947.00	1001.00	1095.00	1233.00	1221.00	1197.00	1213.00	1232.00	1246.00	1229.00	1269.00	1297.00	1301.00	1338.00	1297.00	1143.00	1096.00	1106.00	1130.00	1095.00	1041.00	1014.00	989.00	958.00	938.00	929.00	920.00	899.00	869.00	847.00	838.00	836.00	834.00	835.00	842.00	872.00	929.00	928.00	916.00	909.00	946.00	968.00	1020.00	1011.00	952.00	947.00	951.00	940.00	914.00	918.00	931.00	948.00	983.00	1117.00	1067.00	983.00	963.00	1120.00	1149.00	1153.00	1126.00	1096.00	1037.00	1012.00	984.00	957.00	917.00	879.00	865.00	852.00	824.00	818.00	818.00	812.00	801.00	797.00	819.00	859.00	956.00	954.00	899.00	869.00	842.00	804.00	808.00	852.00	877.00	886.00	1003.00	1064.00	1158.00	1243.00	1309.00	1215.00	1201.00	1225.00	1286.00	1315.00	1247.00	1141.00	1237.00	1237.00	1125.00	1045.00	1066.00	1137.00	1069.00	983.00	914.00	929.00	1020.00	888.00	897.00	885.00	835.00	784.00	777.00	807.00	847.00	896.00	1044.00	1066.00	1110.00	1155.00	1133.00	1103.00	1124.00	1144.00	1099.00	985.00	907.00	890.00	902.00	925.00	947.00	936.00	919.00	891.00	811.00	781.00	767.00	831.00	943.00	949.00	962.00	970.00	941.00	951.00	958.00	976.00	995.00	839.00	803.00	805.00	780.00	760.00	842.00	889.00	926.00	964.00	922.00	863.00	891.00	882.00	846.00	811.00	797.00	778.00	755.00	703.00	685.00	676.00	674.00	676.00	680.00	680.00	680.00	680.00	681.00	678.00	674.00	666.00	659.00	646.00	647.00	649.00	651.00	647.00	646.00	642.00	638.00	637.00	636.00	620.00	616.00	620.00	618.00	620.00	622.00	624.00	628.00	655.00	688.00	723.00	749.00	753.00	782.00	815.00	832.00	830.00	767.00	725.00	723.00	746.00	800.00	782.00	752.00	746.00	784.00	791.00	794.00	807.00	812.00	796.00	808.00	826.00	814.00	832.00	828.00	800.00	773.00	771.00	789.00	830.00	861.00	828.00	848.00	819.00	854.00	894.00	868.00	887.00	945.00	972.00	945.00	986.00	957.00	934.00	908.00	891.00	925.00	937.00	900.00	867.00	907.00	963.00
932.00	971.00	1002.00	1104.00	1101.00	1105.00	1099.00	1122.00	1214.00	1252.00	1224.00	1180.00	1168.00	1211.00	1249.00	1259.00	1233.00	1216.00	1179.00	1133.00	1135.00	1101.00	1064.00	1029.00	998.00	963.00	885.00	870.00	864.00	860.00	855.00	853.00	853.00	858.00	871.00	990.00	1110.00	1100.00	1056.00	940.00	936.00	948.00	989.00	1058.00	1114.00	1076.00	1041.00	1070.00	989.00	950.00	950.00	984.00	1032.00	1099.00	1058.00	1057.00	1063.00	1060.00	1023.00	995.00	955.00	930.00	883.00	862.00	864.00	868.00	854.00	831.00	850.00	852.00	837.00	828.00	826.00	814.00	803.00	785.00	780.00	794.00	893.00	981.00	949.00	895.00	850.00	814.00	792.00	817.00	846.00	879.00	949.00	1014.00	1115.00	1208.00	1215.00	1097.00	1086.00	1158.00	1211.00	1268.00	1262.00	1265.00	1263.00	1227.00	1080.00	1082.00	1174.00	1166.00	1037.00	997.00	975.00	969.00	1122.00	1061.00	1036.00	991.00	930.00	832.00	786.00	766.00	803.00	879.00	983.00	1020.00	1094.00	1173.00	1085.00	1038.00	1051.00	1082.00	1124.00	1064.00	976.00	1003.00	1062.00	1000.00	971.00	975.00	959.00	925.00	839.00	795.00	766.00	811.00	943.00	983.00	990.00	1030.00	1022.00	937.00	927.00	959.00	957.00	843.00	833.00	871.00	859.00	831.00	905.00	901.00	881.00	877.00	914.00	885.00	794.00	782.00	773.00	745.00	745.00	741.00	730.00	704.00	688.00	676.00	673.00	671.00	675.00	674.00	670.00	668.00	670.00	671.00	671.00	672.00	675.00	667.00	661.00	657.00	655.00	649.00	647.00	643.00	639.00	636.00	635.00	621.00	621.00	626.00	621.00	621.00	623.00	626.00	630.00	639.00	653.00	679.00	740.00	753.00	764.00	774.00	770.00	747.00	733.00	711.00	697.00	711.00	775.00	768.00	742.00	723.00	775.00	828.00	838.00	814.00	795.00	840.00	834.00	810.00	828.00	844.00	848.00	828.00	802.00	810.00	833.00	856.00	892.00	906.00	873.00	891.00	897.00	902.00	945.00	956.00	954.00	956.00	913.00	965.00	970.00	949.00	919.00	918.00	1009.00	1060.00	1015.00	938.00	913.00	940.00
932.00	971.00	1002.00	1104.00	1101.00	1105.00	1099.00	1122.00	1214.00	1252.00	1224.00	1180.00	1168.00	1211.00	1249.00	1259.00	1233.00	1216.00	1179.00	1133.00	1135.00	1101.00	1064.00	1029.00	998.00	963.00	885.00	870.00	864.00	860.00	855.00	853.00	853.00	858.00	871.00	990.00	1110.00	1100.00	1056.00	940.00	936.00	948.00	989.00	1058.00	1114.00	1076.00	1041.00	1070.00	989.00	950.00	950.00	984.00	1032.00	1099.00	1058.00	1057.00	1063.00	1060.00	1023.00	995.00	955.00	930.00	883.00	862.00	864.00	868.00	854.00	831.00	850.00	852.00	837.00	828.00	826.00	814.00	803.00	785.00	780.00	794.00	893.00	981.00	949.00	895.00	850.00	814.00	792.00	817.00	846.00	879.00	949.00	1014.00	1115.00	1208.00	1215.00	1097.00	1086.00	1158.00	1211.00	1268.00	1262.00	1265.00	1263.00	1227.00	1080.00	1082.00	1174.00	1166.00	1037.00	997.00	975.00	969.00	1122.00	1061.00	1036.00	991.00	930.00	832.00	786.00	766.00	803.00	879.00	983.00	1020.00	1094.00	1173.00	1085.00	1038.00	1051.00	1082.00	1124.00	1064.00	976.00	1003.00	1062.00	1000.00	971.00	975.00	959.00	925.00	839.00	795.00	766.00	811.00	943.00	983.00	990.00	1030.00	1022.00	937.00	927.00	959.00	957.00	843.00	833.00	871.00	859.00	831.00	905.00	901.00	881.00	877.00	914.00	885.00	794.00	782.00	773.00	745.00	745.00	741.00	730.00	704.00	688.00	676.00	673.00	671.00	675.00	674.00	670.00	668.00	670.00	671.00	671.00	672.00	675.00	667.00	661.00	657.00	655.00	649.00	647.00	643.00	639.00	636.00	635.00	621.00	621.00	626.00	621.00	621.00	623.00	626.00	630.00	639.00	653.00	679.00	740.00	753.00	764.00	774.00	770.00	747.00	733.00	711.00	697.00	711.00	775.00	768.00	742.00	723.00	775.00	828.00	838.00	814.00	795.00	840.00	834.00	810.00	828.00	844.00	848.00	828.00	802.00	810.00	833.00	856.00	892.00	906.00	873.00	891.00	897.00	902.00	945.00	956.00	954.00	956.00	913.00	965.00	970.00	949.00	919.00	918.00	1009.00	1060.00	1015.00	938.00	913.00	940.00
942.00	996.00	1083.00	1247.00	1307.00	1328.00	1285.00	1190.00	1227.00	1314.00	1281.00	1218.00	1165.00	1126.00	1092.00	1124.00	1177.00	1278.00	1273.00	1238.00	1186.00	1080.00	1049.00	1031.00	1020.00	1009.00	928.00	884.00	860.00	855.00	854.00	859.00	870.00	886.00	902.00	928.00	1000.00	1061.00	1070.00	1074.00	1033.00	986.00	953.00	959.00	1027.00	1080.00	1141.00	1215.00	1082.00	1007.00	1014.00	1103.00	1155.00	1070.00	1042.00	1041.00	1027.00	944.00	912.00	896.00	892.00	904.00	984.00	984.00	945.00	901.00	858.00	948.00	983.00	946.00	879.00	880.00	873.00	855.00	840.00	815.00	802.00	786.00	792.00	847.00	861.00	855.00	827.00	795.00	776.00	798.00	816.00	834.00	893.00	913.00	938.00	960.00	977.00	950.00	1008.00	1112.00	1127.00	1028.00	1045.00	1177.00	1122.00	1044.00	1000.00	1075.00	1170.00	1188.00	1149.00	1176.00	1144.00	1092.00	1181.00	1127.00	1035.00	997.00	947.00	881.00	827.00	771.00	793.00	863.00	907.00	952.00	1018.00	1081.00	1010.00	943.00	942.00	1013.00	1088.00	1056.00	1042.00	1056.00	1037.00	967.00	965.00	959.00	909.00	917.00	906.00	849.00	787.00	767.00	890.00	965.00	1002.00	1013.00	986.00	903.00	899.00	936.00	946.00	859.00	881.00	933.00	972.00	947.00	897.00	868.00	842.00	813.00	793.00	781.00	749.00	740.00	730.00	713.00	706.00	703.00	695.00	684.00	683.00	686.00	688.00	705.00	688.00	682.00	682.00	692.00	707.00	688.00	672.00	667.00	676.00	683.00	671.00	672.00	692.00	689.00	668.00	652.00	642.00	638.00	618.00	623.00	622.00	618.00	628.00	630.00	636.00	641.00	647.00	648.00	643.00	640.00	642.00	653.00	660.00	665.00	667.00	669.00	665.00	665.00	663.00	669.00	689.00	690.00	684.00	682.00	733.00	772.00	759.00	742.00	737.00	795.00	790.00	822.00	808.00	821.00	844.00	829.00	819.00	831.00	908.00	917.00	906.00	888.00	840.00	834.00	842.00	852.00	869.00	842.00	820.00	815.00	817.00	892.00	937.00	982.00	1046.00	1084.00	1060.00	1117.00	1084.00	1014.00	1000.00	1049.00
942.00	996.00	1083.00	1247.00	1307.00	1328.00	1285.00	1190.00	1227.00	1314.00	1281.00	1218.00	1165.00	1126.00	1092.00	1124.00	1177.00	1278.00	1273.00	1238.00	1186.00	1080.00	1049.00	1031.00	1020.00	1009.00	928.00	884.00	860.00	855.00	854.00	859.00	870.00	886.00	902.00	928.00	1000.00	1061.00	1070.00	1074.00	1033.00	986.00	953.00	959.00	1027.00	1080.00	1141.00	1215.00	1082.00	1007.00	1014.00	1103.00	1155.00	1070.00	1042.00	1041.00	1027.00	944.00	912.00	896.00	892.00	904.00	984.00	984.00	945.00	901.00	858.00	948.00	983.00	946.00	879.00	880.00	873.00	855.00	840.00	815.00	802.00	786.00	792.00	847.00	861.00	855.00	827.00	795.00	776.00	798.00	816.00	834.00	893.00	913.00	938.00	960.00	977.00	950.00	1008.00	1112.00	1127.00	1028.00	1045.00	1177.00	1122.00	1044.00	1000.00	1075.00	1170.00	1188.00	1149.00	1176.00	1144.00	1092.00	1181.00	1127.00	1035.00	997.00	947.00	881.00	827.00	771.00	793.00	863.00	907.00	952.00	1018.00	1081.00	1010.00	943.00	942.00	1013.00	1088.00	1056.00	1042.00	1056.00	1037.00	967.00	965.00	959.00	909.00	917.00	906.00	849.00	787.00	767.00	890.00	965.00	1002.00	1013.00	986.00	903.00	899.00	936.00	946.00	859.00	881.00	933.00	972.00	947.00	897.00	868.00	842.00	813.00	793.00	781.00	749.00	740.00	730.00	713.00	706.00	703.00	695.00	684.00	683.00	686.00	688.00	705.00	688.00	682.00	682.00	692.00	707.00	688.00	672.00	667.00	676.00	683.00	671.00	672.00	692.00	689.00	668.00	652.00	642.00	638.00	618.00	623.00	622.00	618.00	628.00	630.00	636.00	641.00	647.00	648.00	643.00	640.00	642.00	653.00	660.00	665.00	667.00	669.00	665.00	665.00	663.00	669.00	689.00	690.00	684.00	682.00	733.00	772.00	759.00	742.00	737.00	795.00	790.00	822.00	808.00	821.00	844.00	829.00	819.00	831.00	908.00	917.00	906.00	888.00	840.00	834.00	842.00	852.00	869.00	842.00	820.00	815.00	817.00	892.00	937.00	982.00	1046.00	1084.00	1060.00	1117.00	1084.00	1014.00	1000.00	1049.00
983.00	1059.00	1145.00	1322.00	1464.00	1397.00	1297.00	1250.00	1287.00	1362.00	1408.00	1354.00	1227.00	1164.00	1110.00	1039.00	1030.00	1091.00	1145.00	1180.00	1203.00	1148.00	1084.00	1028.00	987.00	952.00	903.00	876.00	860.00	857.00	857.00	870.00	910.00	957.00	995.00	970.00	927.00	927.00	961.00	1097.00	1143.00	1137.00	1118.00	1066.00	1046.00	1000.00	1002.00	1133.00	1146.00	1072.00	1057.00	1128.00	1180.00	1103.00	1034.00	1029.00	1057.00	943.00	967.00	1024.00	1050.00	1034.00	949.00	916.00	924.00	947.00	909.00	1007.00	976.00	942.00	944.00	914.00	876.00	839.00	825.00	857.00	847.00	828.00	789.00	777.00	775.00	777.00	779.00	777.00	766.00	783.00	798.00	806.00	844.00	854.00	870.00	878.00	884.00	887.00	898.00	921.00	954.00	946.00	955.00	1084.00	1014.00	940.00	987.00	1098.00	1136.00	1080.00	1086.00	1103.00	1124.00	1174.00	1217.00	1031.00	944.00	920.00	887.00	852.00	802.00	754.00	760.00	811.00	962.00	1017.00	1042.00	1054.00	1021.00	954.00	903.00	902.00	957.00	1052.00	953.00	983.00	1007.00	947.00	940.00	971.00	992.00	994.00	1002.00	970.00	865.00	778.00	792.00	827.00	868.00	897.00	892.00	855.00	838.00	835.00	820.00	892.00	923.00	925.00	927.00	926.00	865.00	833.00	808.00	796.00	776.00	768.00	766.00	778.00	774.00	724.00	707.00	700.00	692.00	696.00	716.00	754.00	789.00	771.00	699.00	679.00	686.00	730.00	751.00	707.00	682.00	674.00	691.00	705.00	684.00	693.00	718.00	707.00	672.00	649.00	635.00	620.00	623.00	628.00	627.00	626.00	639.00	639.00	638.00	642.00	651.00	654.00	663.00	667.00	653.00	646.00	646.00	645.00	647.00	651.00	654.00	656.00	659.00	661.00	671.00	672.00	670.00	672.00	683.00	692.00	688.00	689.00	693.00	704.00	717.00	756.00	761.00	762.00	770.00	776.00	795.00	824.00	903.00	876.00	839.00	824.00	799.00	802.00	804.00	813.00	820.00	833.00	846.00	854.00	856.00	856.00	881.00	905.00	937.00	997.00	1146.00	1188.00	1178.00	1128.00	1026.00	1104.00
1015.00	1096.00	1223.00	1371.00	1475.00	1470.00	1420.00	1408.00	1451.00	1449.00	1428.00	1351.00	1216.00	1177.00	1162.00	1085.00	1053.00	992.00	986.00	1008.00	1042.00	1096.00	1093.00	1059.00	1010.00	964.00	872.00	867.00	864.00	865.00	871.00	898.00	936.00	969.00	1010.00	1069.00	999.00	983.00	952.00	1008.00	1089.00	1187.00	1202.00	1127.00	1165.00	1115.00	1041.00	1043.00	1145.00	1095.00	1061.00	1102.00	1171.00	1151.00	1115.00	1076.00	1039.00	1072.00	1131.00	1087.00	1004.00	967.00	972.00	984.00	990.00	1034.00	1017.00	1031.00	1042.00	1019.00	930.00	883.00	846.00	835.00	866.00	923.00	908.00	885.00	848.00	811.00	797.00	779.00	764.00	756.00	755.00	760.00	767.00	800.00	960.00	881.00	839.00	864.00	884.00	875.00	860.00	848.00	844.00	858.00	868.00	966.00	970.00	916.00	941.00	1025.00	1038.00	961.00	934.00	1005.00	1074.00	1111.00	1158.00	1104.00	1073.00	1063.00	1012.00	877.00	803.00	737.00	737.00	807.00	896.00	872.00	921.00	1014.00	986.00	934.00	877.00	888.00	965.00	1026.00	939.00	909.00	924.00	921.00	895.00	882.00	882.00	873.00	863.00	853.00	811.00	778.00	772.00	783.00	796.00	804.00	807.00	796.00	792.00	790.00	808.00	931.00	938.00	905.00	871.00	856.00	852.00	821.00	799.00	794.00	804.00	793.00	761.00	745.00	726.00	707.00	711.00	717.00	717.00	742.00	757.00	763.00	754.00	727.00	699.00	716.00	742.00	775.00	732.00	704.00	691.00	703.00	722.00	713.00	702.00	713.00	724.00	705.00	675.00	646.00	623.00	608.00	611.00	619.00	623.00	631.00	637.00	636.00	640.00	647.00	651.00	665.00	689.00	719.00	745.00	677.00	661.00	654.00	665.00	678.00	688.00	694.00	700.00	705.00	713.00	700.00	690.00	693.00	698.00	703.00	706.00	706.00	707.00	711.00	712.00	715.00	721.00	732.00	731.00	730.00	742.00	766.00	761.00	770.00	778.00	779.00	792.00	809.00	838.00	873.00	920.00	985.00	992.00	1043.00	1061.00	885.00	871.00	896.00	946.00	981.00	1037.00	1092.00	1150.00	1187.00	1098.00	1119.00
1015.00	1096.00	1223.00	1371.00	1475.00	1470.00	1420.00	1408.00	1451.00	1449.00	1428.00	1351.00	1216.00	1177.00	1162.00	1085.00	1053.00	992.00	986.00	1008.00	1042.00	1096.00	1093.00	1059.00	1010.00	964.00	872.00	867.00	864.00	865.00	871.00	898.00	936.00	969.00	1010.00	1069.00	999.00	983.00	952.00	1008.00	1089.00	1187.00	1202.00	1127.00	1165.00	1115.00	1041.00	1043.00	1145.00	1095.00	1061.00	1102.00	1171.00	1151.00	1115.00	1076.00	1039.00	1072.00	1131.00	1087.00	1004.00	967.00	972.00	984.00	990.00	1034.00	1017.00	1031.00	1042.00	1019.00	930.00	883.00	846.00	835.00	866.00	923.00	908.00	885.00	848.00	811.00	797.00	779.00	764.00	756.00	755.00	760.00	767.00	800.00	960.00	881.00	839.00	864.00	884.00	875.00	860.00	848.00	844.00	858.00	868.00	966.00	970.00	916.00	941.00	1025.00	1038.00	961.00	934.00	1005.00	1074.00	1111.00	1158.00	1104.00	1073.00	1063.00	1012.00	877.00	803.00	737.00	737.00	807.00	896.00	872.00	921.00	1014.00	986.00	934.00	877.00	888.00	965.00	1026.00	939.00	909.00	924.00	921.00	895.00	882.00	882.00	873.00	863.00	853.00	811.00	778.00	772.00	783.00	796.00	804.00	807.00	796.00	792.00	790.00	808.00	931.00	938.00	905.00	871.00	856.00	852.00	821.00	799.00	794.00	804.00	793.00	761.00	745.00	726.00	707.00	711.00	717.00	717.00	742.00	757.00	763.00	754.00	727.00	699.00	716.00	742.00	775.00	732.00	704.00	691.00	703.00	722.00	713.00	702.00	713.00	724.00	705.00	675.00	646.00	623.00	608.00	611.00	619.00	623.00	631.00	637.00	636.00	640.00	647.00	651.00	665.00	689.00	719.00	745.00	677.00	661.00	654.00	665.00	678.00	688.00	694.00	700.00	705.00	713.00	700.00	690.00	693.00	698.00	703.00	706.00	706.00	707.00	711.00	712.00	715.00	721.00	732.00	731.00	730.00	742.00	766.00	761.00	770.00	778.00	779.00	792.00	809.00	838.00	873.00	920.00	985.00	992.00	1043.00	1061.00	885.00	871.00	896.00	946.00	981.00	1037.00	1092.00	1150.00	1187.00	1098.00	1119.00
1037.00	1084.00	1160.00	1255.00	1398.00	1486.00	1553.00	1546.00	1394.00	1347.00	1316.00	1326.00	1255.00	1264.00	1241.00	1186.00	1147.00	1045.00	1001.00	971.00	965.00	966.00	970.00	973.00	972.00	967.00	888.00	886.00	886.00	885.00	894.00	906.00	933.00	970.00	1000.00	1104.00	1163.00	1113.00	1044.00	981.00	993.00	1036.00	1137.00	1200.00	1231.00	1159.00	1107.00	1045.00	1061.00	1114.00	1157.00	1186.00	1225.00	1171.00	1111.00	1047.00	1035.00	1166.00	1081.00	996.00	996.00	1039.00	1110.00	1104.00	1060.00	1014.00	977.00	951.00	928.00	899.00	867.00	868.00	884.00	904.00	925.00	974.00	972.00	951.00	897.00	863.00	844.00	803.00	767.00	746.00	736.00	735.00	737.00	748.00	833.00	809.00	855.00	953.00	959.00	840.00	832.00	842.00	863.00	823.00	819.00	876.00	868.00	853.00	888.00	973.00	1010.00	930.00	868.00	925.00	931.00	908.00	975.00	1064.00	1040.00	1006.00	979.00	872.00	798.00	725.00	731.00	785.00	863.00	866.00	876.00	902.00	891.00	867.00	825.00	851.00	902.00	952.00	959.00	926.00	907.00	893.00	890.00	907.00	914.00	906.00	877.00	834.00	789.00	761.00	748.00	749.00	778.00	811.00	805.00	799.00	801.00	831.00	872.00	943.00	903.00	883.00	864.00	841.00	806.00	799.00	785.00	770.00	750.00	746.00	717.00	709.00	707.00	743.00	768.00	809.00	856.00	838.00	814.00	782.00	748.00	708.00	718.00	727.00	751.00	788.00	761.00	734.00	748.00	755.00	744.00	699.00	697.00	698.00	694.00	669.00	642.00	612.00	607.00	609.00	611.00	616.00	618.00	624.00	631.00	639.00	653.00	666.00	670.00	656.00	673.00	701.00	724.00	691.00	672.00	664.00	679.00	708.00	759.00	792.00	784.00	740.00	709.00	705.00	708.00	735.00	762.00	757.00	777.00	785.00	743.00	791.00	821.00	821.00	788.00	763.00	757.00	750.00	756.00	759.00	778.00	789.00	795.00	799.00	800.00	813.00	843.00	876.00	914.00	1008.00	1054.00	1088.00	1118.00	1008.00	980.00	924.00	893.00	910.00	993.00	1041.00	1104.00	1171.00	1125.00	1059.00
1037.00	1084.00	1160.00	1255.00	1398.00	1486.00	1553.00	1546.00	1394.00	1347.00	1316.00	1326.00	1255.00	1264.00	1241.00	1186.00	1147.00	1045.00	1001.00	971.00	965.00	966.00	970.00	973.00	972.00	967.00	888.00	886.00	886.00	885.00	894.00	906.00	933.00	970.00	1000.00	1104.00	1163.00	1113.00	1044.00	981.00	993.00	1036.00	1137.00	1200.00	1231.00	1159.00	1107.00	1045.00	1061.00	1114.00	1157.00	1186.00	1225.00	1171.00	1111.00	1047.00	1035.00	1166.00	1081.00	996.00	996.00	1039.00	1110.00	1104.00	1060.00	1014.00	977.00	951.00	928.00	899.00	867.00	868.00	884.00	904.00	925.00	974.00	972.00	951.00	897.00	863.00	844.00	803.00	767.00	746.00	736.00	735.00	737.00	748.00	833.00	809.00	855.00	953.00	959.00	840.00	832.00	842.00	863.00	823.00	819.00	876.00	868.00	853.00	888.00	973.00	1010.00	930.00	868.00	925.00	931.00	908.00	975.00	1064.00	1040.00	1006.00	979.00	872.00	798.00	725.00	731.00	785.00	863.00	866.00	876.00	902.00	891.00	867.00	825.00	851.00	902.00	952.00	959.00	926.00	907.00	893.00	890.00	907.00	914.00	906.00	877.00	834.00	789.00	761.00	748.00	749.00	778.00	811.00	805.00	799.00	801.00	831.00	872.00	943.00	903.00	883.00	864.00	841.00	806.00	799.00	785.00	770.00	750.00	746.00	717.00	709.00	707.00	743.00	768.00	809.00	856.00	838.00	814.00	782.00	748.00	708.00	718.00	727.00	751.00	788.00	761.00	734.00	748.00	755.00	744.00	699.00	697.00	698.00	694.00	669.00	642.00	612.00	607.00	609.00	611.00	616.00	618.00	624.00	631.00	639.00	653.00	666.00	670.00	656.00	673.00	701.00	724.00	691.00	672.00	664.00	679.00	708.00	759.00	792.00	784.00	740.00	709.00	705.00	708.00	735.00	762.00	757.00	777.00	785.00	743.00	791.00	821.00	821.00	788.00	763.00	757.00	750.00	756.00	759.00	778.00	789.00	795.00	799.00	800.00	813.00	843.00	876.00	914.00	1008.00	1054.00	1088.00	1118.00	1008.00	980.00	924.00	893.00	910.00	993.00	1041.00	1104.00	1171.00	1125.00	1059.00
1066.00	1135.00	1238.00	1306.00	1381.00	1478.00	1535.00	1507.00	1392.00	1347.00	1306.00	1279.00	1231.00	1220.00	1168.00	1107.00	1088.00	1060.00	1059.00	1062.00	1046.00	945.00	918.00	898.00	892.00	888.00	881.00	880.00	881.00	885.00	941.00	1007.00	1085.00	1092.00	1043.00	1106.00	1252.00	1218.00	1171.00	1062.00	999.00	1018.00	1088.00	1168.00	1256.00	1218.00	1199.00	1135.00	1125.00	1172.00	1209.00	1232.00	1250.00	1146.00	1172.00	1182.00	1173.00	1170.00	1115.00	1085.00	1105.00	1138.00	1140.00	1089.00	1029.00	991.00	1023.00	1010.00	998.00	969.00	927.00	900.00	904.00	904.00	898.00	863.00	846.00	833.00	792.00	765.00	756.00	754.00	756.00	761.00	755.00	749.00	742.00	736.00	746.00	754.00	792.00	873.00	970.00	898.00	839.00	797.00	790.00	775.00	785.00	924.00	885.00	828.00	829.00	897.00	952.00	940.00	827.00	816.00	842.00	882.00	1007.00	1015.00	964.00	940.00	925.00	875.00	807.00	738.00	734.00	782.00	968.00	1020.00	1043.00	1023.00	961.00	894.00	824.00	821.00	878.00	952.00	903.00	885.00	891.00	923.00	924.00	950.00	977.00	963.00	918.00	897.00	834.00	740.00	742.00	765.00	851.00	922.00	907.00	855.00	841.00	868.00	901.00	961.00	923.00	882.00	853.00	830.00	783.00	767.00	757.00	748.00	726.00	722.00	713.00	720.00	753.00	826.00	842.00	863.00	865.00	809.00	785.00	759.00	735.00	756.00	779.00	779.00	769.00	762.00	776.00	770.00	766.00	745.00	724.00	689.00	679.00	667.00	657.00	640.00	613.00	602.00	604.00	609.00	606.00	612.00	615.00	624.00	647.00	666.00	695.00	724.00	745.00	687.00	686.00	706.00	722.00	688.00	676.00	670.00	683.00	712.00	777.00	800.00	793.00	765.00	720.00	718.00	732.00	754.00	806.00	826.00	849.00	810.00	744.00	809.00	874.00	917.00	848.00	896.00	861.00	821.00	792.00	771.00	779.00	794.00	820.00	855.00	812.00	809.00	831.00	873.00	909.00	952.00	965.00	968.00	988.00	1125.00	1116.00	1047.00	970.00	925.00	1021.00	1086.00	1146.00	1164.00	1076.00	1032.00
1066.00	1135.00	1238.00	1306.00	1381.00	1478.00	1535.00	1507.00	1392.00	1347.00	1306.00	1279.00	1231.00	1220.00	1168.00	1107.00	1088.00	1060.00	1059.00	1062.00	1046.00	945.00	918.00	898.00	892.00	888.00	881.00	880.00	881.00	885.00	941.00	1007.00	1085.00	1092.00	1043.00	1106.00	1252.00	1218.00	1171.00	1062.00	999.00	1018.00	1088.00	1168.00	1256.00	1218.00	1199.00	1135.00	1125.00	1172.00	1209.00	1232.00	1250.00	1146.00	1172.00	1182.00	1173.00	1170.00	1115.00	1085.00	1105.00	1138.00	1140.00	1089.00	1029.00	991.00	1023.00	1010.00	998.00	969.00	927.00	900.00	904.00	904.00	898.00	863.00	846.00	833.00	792.00	765.00	756.00	754.00	756.00	761.00	755.00	749.00	742.00	736.00	746.00	754.00	792.00	873.00	970.00	898.00	839.00	797.00	790.00	775.00	785.00	924.00	885.00	828.00	829.00	897.00	952.00	940.00	827.00	816.00	842.00	882.00	1007.00	1015.00	964.00	940.00	925.00	875.00	807.00	738.00	734.00	782.00	968.00	1020.00	1043.00	1023.00	961.00	894.00	824.00	821.00	878.00	952.00	903.00	885.00	891.00	923.00	924.00	950.00	977.00	963.00	918.00	897.00	834.00	740.00	742.00	765.00	851.00	922.00	907.00	855.00	841.00	868.00	901.00	961.00	923.00	882.00	853.00	830.00	783.00	767.00	757.00	748.00	726.00	722.00	713.00	720.00	753.00	826.00	842.00	863.00	865.00	809.00	785.00	759.00	735.00	756.00	779.00	779.00	769.00	762.00	776.00	770.00	766.00	745.00	724.00	689.00	679.00	667.00	657.00	640.00	613.00	602.00	604.00	609.00	606.00	612.00	615.00	624.00	647.00	666.00	695.00	724.00	745.00	687.00	686.00	706.00	722.00	688.00	676.00	670.00	683.00	712.00	777.00	800.00	793.00	765.00	720.00	718.00	732.00	754.00	806.00	826.00	849.00	810.00	744.00	809.00	874.00	917.00	848.00	896.00	861.00	821.00	792.00	771.00	779.00	794.00	820.00	855.00	812.00	809.00	831.00	873.00	909.00	952.00	965.00	968.00	988.00	1125.00	1116.00	1047.00	970.00	925.00	1021.00	1086.00	1146.00	1164.00	1076.00	1032.00
1037.00	1109.00	1202.00	1360.00	1525.00	1511.00	1470.00	1428.00	1344.00	1305.00	1252.00	1231.00	1262.00	1296.00	1289.00	1275.00	1243.00	1145.00	1059.00	1005.00	977.00	935.00	918.00	907.00	901.00	896.00	883.00	880.00	878.00	889.00	967.00	1029.00	1089.00	1145.00	1145.00	1091.00	1206.00	1293.00	1321.00	1155.00	1075.00	1026.00	1050.00	1122.00	1271.00	1334.00	1319.00	1169.00	1153.00	1206.00	1261.00	1248.00	1189.00	1164.00	1145.00	1120.00	1158.00	1181.00	1170.00	1188.00	1156.00	1114.00	1060.00	1065.00	1062.00	1070.00	1093.00	1013.00	957.00	896.00	837.00	821.00	813.00	813.00	812.00	807.00	805.00	798.00	784.00	784.00	793.00	792.00	801.00	805.00	795.00	793.00	785.00	767.00	720.00	718.00	720.00	734.00	788.00	929.00	903.00	852.00	808.00	737.00	745.00	840.00	836.00	794.00	770.00	838.00	858.00	838.00	787.00	788.00	851.00	926.00	925.00	927.00	989.00	998.00	935.00	848.00	800.00	752.00	729.00	766.00	972.00	1032.00	1089.00	1042.00	909.00	881.00	832.00	822.00	875.00	908.00	888.00	901.00	874.00	827.00	816.00	823.00	828.00	817.00	801.00	799.00	773.00	723.00	722.00	769.00	846.00	870.00	849.00	826.00	818.00	837.00	871.00	893.00	873.00	855.00	852.00	852.00	811.00	779.00	751.00	740.00	741.00	769.00	739.00	740.00	761.00	841.00	872.00	869.00	851.00	821.00	789.00	764.00	757.00	822.00	872.00	822.00	784.00	765.00	757.00	746.00	740.00	736.00	726.00	675.00	660.00	647.00	638.00	624.00	614.00	603.00	602.00	610.00	607.00	624.00	636.00	646.00	668.00	690.00	721.00	739.00	731.00	696.00	721.00	754.00	752.00	722.00	715.00	700.00	688.00	690.00	717.00	726.00	734.00	731.00	750.00	748.00	740.00	757.00	820.00	857.00	853.00	814.00	762.00	772.00	832.00	943.00	911.00	978.00	967.00	940.00	902.00	834.00	780.00	779.00	786.00	800.00	845.00	827.00	817.00	842.00	892.00	1033.00	1092.00	1122.00	1138.00	1230.00	1212.00	1127.00	1046.00	970.00	975.00	1036.00	1104.00	1105.00	1004.00	994.00
1037.00	1109.00	1202.00	1360.00	1525.00	1511.00	1470.00	1428.00	1344.00	1305.00	1252.00	1231.00	1262.00	1296.00	1289.00	1275.00	1243.00	1145.00	1059.00	1005.00	977.00	935.00	918.00	907.00	901.00	896.00	883.00	880.00	878.00	889.00	967.00	1029.00	1089.00	1145.00	1145.00	1091.00	1206.00	1293.00	1321.00	1155.00	1075.00	1026.00	1050.00	1122.00	1271.00	1334.00	1319.00	1169.00	1153.00	1206.00	1261.00	1248.00	1189.00	1164.00	1145.00	1120.00	1158.00	1181.00	1170.00	1188.00	1156.00	1114.00	1060.00	1065.00	1062.00	1070.00	1093.00	1013.00	957.00	896.00	837.00	821.00	813.00	813.00	812.00	807.00	805.00	798.00	784.00	784.00	793.00	792.00	801.00	805.00	795.00	793.00	785.00	767.00	720.00	718.00	720.00	734.00	788.00	929.00	903.00	852.00	808.00	737.00	745.00	840.00	836.00	794.00	770.00	838.00	858.00	838.00	787.00	788.00	851.00	926.00	925.00	927.00	989.00	998.00	935.00	848.00	800.00	752.00	729.00	766.00	972.00	1032.00	1089.00	1042.00	909.00	881.00	832.00	822.00	875.00	908.00	888.00	901.00	874.00	827.00	816.00	823.00	828.00	817.00	801.00	799.00	773.00	723.00	722.00	769.00	846.00	870.00	849.00	826.00	818.00	837.00	871.00	893.00	873.00	855.00	852.00	852.00	811.00	779.00	751.00	740.00	741.00	769.00	739.00	740.00	761.00	841.00	872.00	869.00	851.00	821.00	789.00	764.00	757.00	822.00	872.00	822.00	784.00	765.00	757.00	746.00	740.00	736.00	726.00	675.00	660.00	647.00	638.00	624.00	614.00	603.00	602.00	610.00	607.00	624.00	636.00	646.00	668.00	690.00	721.00	739.00	731.00	696.00	721.00	754.00	752.00	722.00	715.00	700.00	688.00	690.00	717.00	726.00	734.00	731.00	750.00	748.00	740.00	757.00	820.00	857.00	853.00	814.00	762.00	772.00	832.00	943.00	911.00	978.00	967.00	940.00	902.00	834.00	780.00	779.00	786.00	800.00	845.00	827.00	817.00	842.00	892.00	1033.00	1092.00	1122.00	1138.00	1230.00	1212.00	1127.00	1046.00	970.00	975.00	1036.00	1104.00	1105.00	1004.00	994.00
1031.00	1095.00	1180.00	1364.00	1495.00	1394.00	1319.00	1287.00	1234.00	1205.00	1177.00	1145.00	1117.00	1115.00	1121.00	1114.00	1097.00	1041.00	993.00	958.00	938.00	921.00	924.00	936.00	939.00	915.00	893.00	892.00	899.00	918.00	971.00	986.00	996.00	1018.00	1060.00	1216.00	1300.00	1359.00	1303.00	1176.00	1119.00	1075.00	1088.00	1115.00	1225.00	1290.00	1355.00	1325.00	1290.00	1278.00	1263.00	1222.00	1161.00	1071.00	1105.00	1155.00	1213.00	1156.00	1110.00	1084.00	1090.00	1115.00	1168.00	1112.00	1052.00	985.00	884.00	853.00	850.00	853.00	860.00	863.00	860.00	858.00	864.00	847.00	837.00	830.00	815.00	845.00	864.00	884.00	891.00	868.00	803.00	786.00	771.00	764.00	725.00	718.00	715.00	713.00	709.00	722.00	721.00	721.00	720.00	709.00	704.00	721.00	732.00	736.00	723.00	759.00	778.00	769.00	757.00	784.00	833.00	828.00	797.00	780.00	822.00	906.00	920.00	846.00	803.00	753.00	720.00	742.00	1007.00	1038.00	1087.00	1091.00	950.00	862.00	805.00	810.00	853.00	873.00	960.00	1014.00	1016.00	938.00	922.00	927.00	930.00	910.00	848.00	803.00	770.00	712.00	706.00	737.00	750.00	751.00	758.00	789.00	827.00	882.00	912.00	817.00	800.00	802.00	816.00	826.00	784.00	749.00	750.00	758.00	804.00	833.00	811.00	822.00	838.00	878.00	897.00	892.00	862.00	789.00	772.00	782.00	824.00	844.00	837.00	800.00	767.00	730.00	702.00	699.00	694.00	691.00	684.00	659.00	653.00	647.00	648.00	633.00	620.00	606.00	606.00	615.00	612.00	627.00	649.00	661.00	659.00	673.00	685.00	687.00	678.00	711.00	744.00	769.00	780.00	758.00	759.00	743.00	715.00	692.00	697.00	717.00	737.00	749.00	808.00	855.00	825.00	791.00	827.00	881.00	899.00	860.00	827.00	780.00	779.00	878.00	921.00	928.00	885.00	860.00	845.00	832.00	794.00	789.00	790.00	789.00	853.00	892.00	920.00	899.00	872.00	891.00	921.00	961.00	1020.00	1132.00	1091.00	1043.00	1031.00	1043.00	1061.00	1081.00	1134.00	1127.00	1084.00	1097.00
1029.00	1067.00	1143.00	1366.00	1515.00	1467.00	1416.00	1380.00	1307.00	1286.00	1249.00	1237.00	1188.00	1191.00	1168.00	1040.00	1001.00	967.00	963.00	976.00	1010.00	1048.00	1084.00	1086.00	1037.00	966.00	903.00	909.00	938.00	983.00	1116.00	1136.00	1124.00	1097.00	1067.00	1127.00	1302.00	1367.00	1304.00	1161.00	1125.00	1123.00	1177.00	1191.00	1286.00	1377.00	1439.00	1336.00	1213.00	1207.00	1240.00	1216.00	1170.00	1049.00	1056.00	1128.00	1213.00	1125.00	1120.00	1095.00	1043.00	1001.00	964.00	923.00	892.00	864.00	861.00	887.00	900.00	902.00	900.00	890.00	881.00	881.00	875.00	906.00	939.00	911.00	842.00	909.00	911.00	903.00	880.00	877.00	844.00	868.00	862.00	814.00	743.00	733.00	729.00	725.00	718.00	706.00	704.00	702.00	699.00	695.00	694.00	692.00	693.00	694.00	694.00	694.00	697.00	704.00	706.00	703.00	704.00	711.00	709.00	710.00	725.00	744.00	774.00	765.00	749.00	730.00	709.00	730.00	923.00	945.00	981.00	956.00	843.00	798.00	774.00	826.00	898.00	1003.00	996.00	1057.00	1052.00	946.00	943.00	966.00	967.00	929.00	815.00	787.00	756.00	696.00	739.00	761.00	754.00	766.00	766.00	850.00	915.00	929.00	889.00	787.00	770.00	765.00	779.00	793.00	759.00	758.00	778.00	793.00	827.00	842.00	848.00	856.00	872.00	887.00	892.00	887.00	865.00	812.00	788.00	774.00	784.00	765.00	735.00	720.00	715.00	704.00	681.00	674.00	666.00	660.00	659.00	653.00	648.00	644.00	641.00	633.00	625.00	609.00	612.00	620.00	619.00	628.00	648.00	664.00	660.00	674.00	687.00	684.00	672.00	704.00	733.00	754.00	807.00	824.00	797.00	762.00	739.00	737.00	708.00	708.00	722.00	744.00	816.00	848.00	868.00	851.00	842.00	862.00	918.00	959.00	932.00	821.00	840.00	861.00	872.00	834.00	843.00	865.00	896.00	944.00	889.00	842.00	824.00	807.00	848.00	900.00	949.00	1005.00	1044.00	1018.00	968.00	920.00	911.00	949.00	974.00	987.00	1028.00	1079.00	1178.00	1223.00	1262.00	1274.00	1285.00	1290.00
1029.00	1067.00	1143.00	1366.00	1515.00	1467.00	1416.00	1380.00	1307.00	1286.00	1249.00	1237.00	1188.00	1191.00	1168.00	1040.00	1001.00	967.00	963.00	976.00	1010.00	1048.00	1084.00	1086.00	1037.00	966.00	903.00	909.00	938.00	983.00	1116.00	1136.00	1124.00	1097.00	1067.00	1127.00	1302.00	1367.00	1304.00	1161.00	1125.00	1123.00	1177.00	1191.00	1286.00	1377.00	1439.00	1336.00	1213.00	1207.00	1240.00	1216.00	1170.00	1049.00	1056.00	1128.00	1213.00	1125.00	1120.00	1095.00	1043.00	1001.00	964.00	923.00	892.00	864.00	861.00	887.00	900.00	902.00	900.00	890.00	881.00	881.00	875.00	906.00	939.00	911.00	842.00	909.00	911.00	903.00	880.00	877.00	844.00	868.00	862.00	814.00	743.00	733.00	729.00	725.00	718.00	706.00	704.00	702.00	699.00	695.00	694.00	692.00	693.00	694.00	694.00	694.00	697.00	704.00	706.00	703.00	704.00	711.00	709.00	710.00	725.00	744.00	774.00	765.00	749.00	730.00	709.00	730.00	923.00	945.00	981.00	956.00	843.00	798.00	774.00	826.00	898.00	1003.00	996.00	1057.00	1052.00	946.00	943.00	966.00	967.00	929.00	815.00	787.00	756.00	696.00	739.00	761.00	754.00	766.00	766.00	850.00	915.00	929.00	889.00	787.00	770.00	765.00	779.00	793.00	759.00	758.00	778.00	793.00	827.00	842.00	848.00	856.00	872.00	887.00	892.00	887.00	865.00	812.00	788.00	774.00	784.00	765.00	735.00	720.00	715.00	704.00	681.00	674.00	666.00	660.00	659.00	653.00	648.00	644.00	641.00	633.00	625.00	609.00	612.00	620.00	619.00	628.00	648.00	664.00	660.00	674.00	687.00	684.00	672.00	704.00	733.00	754.00	807.00	824.00	797.00	762.00	739.00	737.00	708.00	708.00	722.00	744.00	816.00	848.00	868.00	851.00	842.00	862.00	918.00	959.00	932.00	821.00	840.00	861.00	872.00	834.00	843.00	865.00	896.00	944.00	889.00	842.00	824.00	807.00	848.00	900.00	949.00	1005.00	1044.00	1018.00	968.00	920.00	911.00	949.00	974.00	987.00	1028.00	1079.00	1178.00	1223.00	1262.00	1274.00	1285.00	1290.00
1045.00	1065.00	1115.00	1302.00	1490.00	1435.00	1348.00	1296.00	1248.00	1258.00	1252.00	1238.00	1174.00	1141.00	1087.00	1019.00	1024.00	1071.00	1092.00	1134.00	1204.00	1155.00	1148.00	1092.00	1019.00	960.00	921.00	960.00	981.00	981.00	1054.00	1132.00	1203.00	1262.00	1260.00	1185.00	1304.00	1392.00	1394.00	1253.00	1190.00	1162.00	1222.00	1296.00	1395.00	1406.00	1369.00	1262.00	1172.00	1122.00	1105.00	1100.00	1092.00	1015.00	990.00	998.00	1013.00	968.00	944.00	928.00	916.00	904.00	877.00	889.00	932.00	983.00	965.00	1087.00	1107.00	1015.00	1036.00	1005.00	964.00	913.00	891.00	1021.00	1057.00	992.00	884.00	1031.00	997.00	963.00	929.00	906.00	898.00	890.00	856.00	819.00	768.00	754.00	747.00	750.00	754.00	739.00	724.00	725.00	733.00	723.00	711.00	703.00	699.00	695.00	687.00	685.00	683.00	681.00	679.00	677.00	675.00	674.00	674.00	678.00	677.00	680.00	681.00	689.00	691.00	689.00	683.00	700.00	822.00	873.00	942.00	901.00	765.00	745.00	788.00	850.00	927.00	1038.00	1064.00	1089.00	1058.00	947.00	889.00	848.00	828.00	832.00	767.00	730.00	695.00	735.00	842.00	887.00	866.00	857.00	890.00	894.00	944.00	969.00	930.00	817.00	780.00	759.00	753.00	758.00	772.00	772.00	785.00	797.00	785.00	775.00	769.00	778.00	798.00	824.00	819.00	813.00	800.00	766.00	744.00	727.00	723.00	703.00	678.00	675.00	667.00	665.00	667.00	658.00	653.00	654.00	657.00	650.00	641.00	634.00	630.00	632.00	630.00	614.00	617.00	625.00	634.00	632.00	645.00	656.00	660.00	671.00	690.00	699.00	700.00	712.00	726.00	738.00	797.00	821.00	794.00	783.00	767.00	751.00	729.00	726.00	714.00	723.00	783.00	811.00	855.00	895.00	915.00	928.00	923.00	897.00	866.00	872.00	874.00	961.00	978.00	861.00	860.00	909.00	983.00	1012.00	930.00	885.00	850.00	832.00	874.00	952.00	1019.00	1071.00	1126.00	1156.00	1082.00	1060.00	1062.00	1064.00	1067.00	1034.00	1029.00	1050.00	1107.00	1131.00	1150.00	1179.00	1244.00	1260.00
1074.00	1085.00	1088.00	1224.00	1444.00	1429.00	1326.00	1248.00	1168.00	1131.00	1100.00	1080.00	1047.00	1040.00	1028.00	1032.00	1055.00	1124.00	1146.00	1152.00	1169.00	1178.00	1156.00	1083.00	1013.00	955.00	964.00	1045.00	1131.00	1117.00	995.00	1007.00	1058.00	1122.00	1189.00	1247.00	1296.00	1324.00	1338.00	1367.00	1345.00	1325.00	1343.00	1379.00	1411.00	1360.00	1299.00	1190.00	1076.00	1046.00	1008.00	987.00	975.00	962.00	966.00	967.00	958.00	933.00	933.00	922.00	914.00	927.00	1000.00	1005.00	1030.00	1101.00	1015.00	1124.00	1161.00	1062.00	1143.00	1077.00	1015.00	1049.00	1037.00	967.00	1046.00	1052.00	926.00	1026.00	1078.00	1039.00	967.00	936.00	936.00	892.00	871.00	852.00	776.00	778.00	787.00	829.00	882.00	825.00	781.00	797.00	823.00	772.00	774.00	773.00	736.00	717.00	726.00	725.00	721.00	719.00	728.00	731.00	723.00	716.00	693.00	678.00	669.00	665.00	663.00	663.00	665.00	669.00	673.00	675.00	724.00	772.00	805.00	790.00	740.00	780.00	859.00	935.00	971.00	928.00	983.00	1028.00	1002.00	978.00	932.00	879.00	833.00	784.00	710.00	689.00	711.00	862.00	936.00	962.00	941.00	950.00	962.00	906.00	907.00	926.00	925.00	854.00	823.00	789.00	757.00	744.00	749.00	751.00	750.00	743.00	726.00	731.00	742.00	738.00	738.00	736.00	729.00	723.00	718.00	705.00	694.00	691.00	690.00	681.00	671.00	667.00	661.00	655.00	645.00	645.00	647.00	645.00	640.00	638.00	636.00	632.00	635.00	639.00	640.00	632.00	616.00	630.00	638.00	639.00	647.00	662.00	662.00	663.00	689.00	717.00	744.00	780.00	797.00	811.00	835.00	840.00	823.00	788.00	754.00	736.00	772.00	790.00	770.00	745.00	769.00	788.00	811.00	829.00	882.00	939.00	975.00	991.00	940.00	953.00	975.00	981.00	979.00	921.00	877.00	918.00	997.00	1041.00	952.00	914.00	883.00	861.00	895.00	940.00	1007.00	1056.00	1104.00	1157.00	1172.00	1200.00	1223.00	1184.00	1159.00	1143.00	1109.00	1096.00	1086.00	1092.00	1111.00	1123.00	1167.00	1183.00
1074.00	1085.00	1088.00	1224.00	1444.00	1429.00	1326.00	1248.00	1168.00	1131.00	1100.00	1080.00	1047.00	1040.00	1028.00	1032.00	1055.00	1124.00	1146.00	1152.00	1169.00	1178.00	1156.00	1083.00	1013.00	955.00	964.00	1045.00	1131.00	1117.00	995.00	1007.00	1058.00	1122.00	1189.00	1247.00	1296.00	1324.00	1338.00	1367.00	1345.00	1325.00	1343.00	1379.00	1411.00	1360.00	1299.00	1190.00	1076.00	1046.00	1008.00	987.00	975.00	962.00	966.00	967.00	958.00	933.00	933.00	922.00	914.00	927.00	1000.00	1005.00	1030.00	1101.00	1015.00	1124.00	1161.00	1062.00	1143.00	1077.00	1015.00	1049.00	1037.00	967.00	1046.00	1052.00	926.00	1026.00	1078.00	1039.00	967.00	936.00	936.00	892.00	871.00	852.00	776.00	778.00	787.00	829.00	882.00	825.00	781.00	797.00	823.00	772.00	774.00	773.00	736.00	717.00	726.00	725.00	721.00	719.00	728.00	731.00	723.00	716.00	693.00	678.00	669.00	665.00	663.00	663.00	665.00	669.00	673.00	675.00	724.00	772.00	805.00	790.00	740.00	780.00	859.00	935.00	971.00	928.00	983.00	1028.00	1002.00	978.00	932.00	879.00	833.00	784.00	710.00	689.00	711.00	862.00	936.00	962.00	941.00	950.00	962.00	906.00	907.00	926.00	925.00	854.00	823.00	789.00	757.00	744.00	749.00	751.00	750.00	743.00	726.00	731.00	742.00	738.00	738.00	736.00	729.00	723.00	718.00	705.00	694.00	691.00	690.00	681.00	671.00	667.00	661.00	655.00	645.00	645.00	647.00	645.00	640.00	638.00	636.00	632.00	635.00	639.00	640.00	632.00	616.00	630.00	638.00	639.00	647.00	662.00	662.00	663.00	689.00	717.00	744.00	780.00	797.00	811.00	835.00	840.00	823.00	788.00	754.00	736.00	772.00	790.00	770.00	745.00	769.00	788.00	811.00	829.00	882.00	939.00	975.00	991.00	940.00	953.00	975.00	981.00	979.00	921.00	877.00	918.00	997.00	1041.00	952.00	914.00	883.00	861.00	895.00	940.00	1007.00	1056.00	1104.00	1157.00	1172.00	1200.00	1223.00	1184.00	1159.00	1143.00	1109.00	1096.00	1086.00	1092.00	1111.00	1123.00	1167.00	1183.00
1339.00	1275.00	1166.00	1158.00	1380.00	1420.00	1353.00	1294.00	1210.00	1173.00	1140.00	1131.00	1095.00	1107.00	1121.00	1134.00	1109.00	1042.00	1023.00	1013.00	1009.00	1005.00	993.00	975.00	954.00	940.00	1002.00	1081.00	1187.00	1205.00	1075.00	1049.00	1014.00	1012.00	1036.00	1060.00	1165.00	1180.00	1211.00	1313.00	1400.00	1441.00	1387.00	1310.00	1224.00	1194.00	1185.00	1128.00	1063.00	1070.00	1057.00	1029.00	1029.00	1076.00	1093.00	1077.00	1037.00	1062.00	1084.00	1090.00	1049.00	1087.00	1166.00	1120.00	1099.00	1149.00	1038.00	1169.00	1211.00	1159.00	1193.00	1084.00	1073.00	1166.00	1175.00	971.00	972.00	1061.00	1036.00	993.00	1058.00	1060.00	1020.00	1013.00	924.00	871.00	831.00	808.00	844.00	867.00	919.00	971.00	949.00	842.00	816.00	881.00	918.00	825.00	891.00	877.00	803.00	763.00	796.00	806.00	818.00	824.00	844.00	872.00	869.00	831.00	793.00	813.00	798.00	767.00	730.00	680.00	664.00	659.00	658.00	658.00	684.00	696.00	700.00	703.00	703.00	737.00	778.00	816.00	813.00	782.00	864.00	856.00	850.00	945.00	903.00	851.00	797.00	751.00	684.00	685.00	743.00	896.00	962.00	964.00	959.00	945.00	913.00	837.00	812.00	799.00	796.00	793.00	781.00	764.00	746.00	731.00	718.00	720.00	721.00	722.00	747.00	775.00	796.00	780.00	759.00	735.00	727.00	703.00	679.00	666.00	664.00	665.00	669.00	676.00	671.00	659.00	646.00	637.00	631.00	627.00	623.00	614.00	608.00	615.00	616.00	620.00	625.00	629.00	632.00	622.00	619.00	637.00	645.00	636.00	638.00	654.00	658.00	659.00	687.00	722.00	751.00	799.00	828.00	861.00	820.00	782.00	765.00	765.00	793.00	819.00	869.00	887.00	849.00	797.00	747.00	762.00	783.00	816.00	844.00	891.00	909.00	937.00	959.00	1053.00	1107.00	1164.00	1133.00	970.00	915.00	935.00	992.00	994.00	948.00	925.00	907.00	885.00	848.00	870.00	899.00	922.00	934.00	966.00	1018.00	1065.00	1127.00	1121.00	1138.00	1168.00	1177.00	1192.00	1177.00	1167.00	1149.00	1145.00	1170.00	1180.00
1339.00	1275.00	1166.00	1158.00	1380.00	1420.00	1353.00	1294.00	1210.00	1173.00	1140.00	1131.00	1095.00	1107.00	1121.00	1134.00	1109.00	1042.00	1023.00	1013.00	1009.00	1005.00	993.00	975.00	954.00	940.00	1002.00	1081.00	1187.00	1205.00	1075.00	1049.00	1014.00	1012.00	1036.00	1060.00	1165.00	1180.00	1211.00	1313.00	1400.00	1441.00	1387.00	1310.00	1224.00	1194.00	1185.00	1128.00	1063.00	1070.00	1057.00	1029.00	1029.00	1076.00	1093.00	1077.00	1037.00	1062.00	1084.00	1090.00	1049.00	1087.00	1166.00	1120.00	1099.00	1149.00	1038.00	1169.00	1211.00	1159.00	1193.00	1084.00	1073.00	1166.00	1175.00	971.00	972.00	1061.00	1036.00	993.00	1058.00	1060.00	1020.00	1013.00	924.00	871.00	831.00	808.00	844.00	867.00	919.00	971.00	949.00	842.00	816.00	881.00	918.00	825.00	891.00	877.00	803.00	763.00	796.00	806.00	818.00	824.00	844.00	872.00	869.00	831.00	793.00	813.00	798.00	767.00	730.00	680.00	664.00	659.00	658.00	658.00	684.00	696.00	700.00	703.00	703.00	737.00	778.00	816.00	813.00	782.00	864.00	856.00	850.00	945.00	903.00	851.00	797.00	751.00	684.00	685.00	743.00	896.00	962.00	964.00	959.00	945.00	913.00	837.00	812.00	799.00	796.00	793.00	781.00	764.00	746.00	731.00	718.00	720.00	721.00	722.00	747.00	775.00	796.00	780.00	759.00	735.00	727.00	703.00	679.00	666.00	664.00	665.00	669.00	676.00	671.00	659.00	646.00	637.00	631.00	627.00	623.00	614.00	608.00	615.00	616.00	620.00	625.00	629.00	632.00	622.00	619.00	637.00	645.00	636.00	638.00	654.00	658.00	659.00	687.00	722.00	751.00	799.00	828.00	861.00	820.00	782.00	765.00	765.00	793.00	819.00	869.00	887.00	849.00	797.00	747.00	762.00	783.00	816.00	844.00	891.00	909.00	937.00	959.00	1053.00	1107.00	1164.00	1133.00	970.00	915.00	935.00	992.00	994.00	948.00	925.00	907.00	885.00	848.00	870.00	899.00	922.00	934.00	966.00	1018.00	1065.00	1127.00	1121.00	1138.00	1168.00	1177.00	1192.00	1177.00	1167.00	1149.00	1145.00	1170.00	1180.00
1358.00	1226.00	1181.00	1326.00	1368.00	1470.00	1502.00	1419.00	1241.00	1204.00	1213.00	1186.00	1132.00	1129.00	1113.00	1083.00	1081.00	1075.00	1054.00	1029.00	999.00	943.00	933.00	926.00	916.00	915.00	1066.00	1145.00	1228.00	1248.00	1195.00	1120.00	1082.00	1119.00	1179.00	1081.00	1064.00	1093.00	1135.00	1255.00	1314.00	1360.00	1391.00	1388.00	1286.00	1229.00	1154.00	1126.00	1187.00	1218.00	1189.00	1115.00	1132.00	1276.00	1225.00	1133.00	1062.00	1102.00	1112.00	1115.00	1110.00	1125.00	1165.00	1152.00	1166.00	1182.00	1142.00	1197.00	1194.00	1199.00	1253.00	1214.00	1218.00	1255.00	1175.00	1100.00	1052.00	1045.00	1130.00	1011.00	990.00	964.00	935.00	918.00	875.00	891.00	909.00	941.00	919.00	956.00	1004.00	1002.00	958.00	912.00	865.00	920.00	908.00	880.00	964.00	915.00	845.00	798.00	837.00	854.00	860.00	864.00	861.00	860.00	846.00	819.00	831.00	881.00	913.00	912.00	879.00	788.00	733.00	685.00	658.00	646.00	644.00	646.00	650.00	656.00	658.00	663.00	675.00	688.00	693.00	718.00	724.00	726.00	781.00	864.00	815.00	771.00	738.00	711.00	679.00	720.00	754.00	791.00	823.00	841.00	857.00	906.00	925.00	837.00	796.00	767.00	760.00	756.00	743.00	731.00	725.00	717.00	702.00	705.00	716.00	725.00	744.00	765.00	763.00	743.00	726.00	696.00	688.00	684.00	676.00	665.00	660.00	657.00	657.00	653.00	649.00	640.00	629.00	624.00	623.00	622.00	621.00	620.00	621.00	625.00	631.00	638.00	643.00	634.00	625.00	614.00	604.00	608.00	625.00	623.00	629.00	644.00	652.00	658.00	681.00	701.00	726.00	783.00	811.00	828.00	778.00	741.00	740.00	743.00	763.00	813.00	914.00	907.00	876.00	838.00	789.00	789.00	795.00	823.00	851.00	822.00	828.00	856.00	892.00	942.00	1005.00	1108.00	1137.00	1006.00	937.00	938.00	974.00	990.00	1028.00	1062.00	1059.00	1001.00	846.00	832.00	838.00	858.00	889.00	988.00	1023.00	1025.00	1022.00	1001.00	1022.00	1053.00	1069.00	1100.00	1178.00	1180.00	1206.00	1247.00	1259.00	1239.00
1358.00	1226.00	1181.00	1326.00	1368.00	1470.00	1502.00	1419.00	1241.00	1204.00	1213.00	1186.00	1132.00	1129.00	1113.00	1083.00	1081.00	1075.00	1054.00	1029.00	999.00	943.00	933.00	926.00	916.00	915.00	1066.00	1145.00	1228.00	1248.00	1195.00	1120.00	1082.00	1119.00	1179.00	1081.00	1064.00	1093.00	1135.00	1255.00	1314.00	1360.00	1391.00	1388.00	1286.00	1229.00	1154.00	1126.00	1187.00	1218.00	1189.00	1115.00	1132.00	1276.00	1225.00	1133.00	1062.00	1102.00	1112.00	1115.00	1110.00	1125.00	1165.00	1152.00	1166.00	1182.00	1142.00	1197.00	1194.00	1199.00	1253.00	1214.00	1218.00	1255.00	1175.00	1100.00	1052.00	1045.00	1130.00	1011.00	990.00	964.00	935.00	918.00	875.00	891.00	909.00	941.00	919.00	956.00	1004.00	1002.00	958.00	912.00	865.00	920.00	908.00	880.00	964.00	915.00	845.00	798.00	837.00	854.00	860.00	864.00	861.00	860.00	846.00	819.00	831.00	881.00	913.00	912.00	879.00	788.00	733.00	685.00	658.00	646.00	644.00	646.00	650.00	656.00	658.00	663.00	675.00	688.00	693.00	718.00	724.00	726.00	781.00	864.00	815.00	771.00	738.00	711.00	679.00	720.00	754.00	791.00	823.00	841.00	857.00	906.00	925.00	837.00	796.00	767.00	760.00	756.00	743.00	731.00	725.00	717.00	702.00	705.00	716.00	725.00	744.00	765.00	763.00	743.00	726.00	696.00	688.00	684.00	676.00	665.00	660.00	657.00	657.00	653.00	649.00	640.00	629.00	624.00	623.00	622.00	621.00	620.00	621.00	625.00	631.00	638.00	643.00	634.00	625.00	614.00	604.00	608.00	625.00	623.00	629.00	644.00	652.00	658.00	681.00	701.00	726.00	783.00	811.00	828.00	778.00	741.00	740.00	743.00	763.00	813.00	914.00	907.00	876.00	838.00	789.00	789.00	795.00	823.00	851.00	822.00	828.00	856.00	892.00	942.00	1005.00	1108.00	1137.00	1006.00	937.00	938.00	974.00	990.00	1028.00	1062.00	1059.00	1001.00	846.00	832.00	838.00	858.00	889.00	988.00	1023.00	1025.00	1022.00	1001.00	1022.00	1053.00	1069.00	1100.00	1178.00	1180.00	1206.00	1247.00	1259.00	1239.00
1358.00	1226.00	1181.00	1326.00	1368.00	1470.00	1502.00	1419.00	1241.00	1204.00	1213.00	1186.00	1132.00	1129.00	1113.00	1083.00	1081.00	1075.00	1054.00	1029.00	999.00	943.00	933.00	926.00	916.00	915.00	1066.00	1145.00	1228.00	1248.00	1195.00	1120.00	1082.00	1119.00	1179.00	1081.00	1064.00	1093.00	1135.00	1255.00	1314.00	1360.00	1391.00	1388.00	1286.00	1229.00	1154.00	1126.00	1187.00	1218.00	1189.00	1115.00	1132.00	1276.00	1225.00	1133.00	1062.00	1102.00	1112.00	1115.00	1110.00	1125.00	1165.00	1152.00	1166.00	1182.00	1142.00	1197.00	1194.00	1199.00	1253.00	1214.00	1218.00	1255.00	1175.00	1100.00	1052.00	1045.00	1130.00	1011.00	990.00	964.00	935.00	918.00	875.00	891.00	909.00	941.00	919.00	956.00	1004.00	1002.00	958.00	912.00	865.00	920.00	908.00	880.00	964.00	915.00	845.00	798.00	837.00	854.00	860.00	864.00	861.00	860.00	846.00	819.00	831.00	881.00	913.00	912.00	879.00	788.00	733.00	685.00	658.00	646.00	644.00	646.00	650.00	656.00	658.00	663.00	675.00	688.00	693.00	718.00	724.00	726.00	781.00	864.00	815.00	771.00	738.00	711.00	679.00	720.00	754.00	791.00	823.00	841.00	857.00	906.00	925.00	837.00	796.00	767.00	760.00	756.00	743.00	731.00	725.00	717.00	702.00	705.00	716.00	725.00	744.00	765.00	763.00	743.00	726.00	696.00	688.00	684.00	676.00	665.00	660.00	657.00	657.00	653.00	649.00	640.00	629.00	624.00	623.00	622.00	621.00	620.00	621.00	625.00	631.00	638.00	643.00	634.00	625.00	614.00	604.00	608.00	625.00	623.00	629.00	644.00	652.00	658.00	681.00	701.00	726.00	783.00	811.00	828.00	778.00	741.00	740.00	743.00	763.00	813.00	914.00	907.00	876.00	838.00	789.00	789.00	795.00	823.00	851.00	822.00	828.00	856.00	892.00	942.00	1005.00	1108.00	1137.00	1006.00	937.00	938.00	974.00	990.00	1028.00	1062.00	1059.00	1001.00	846.00	832.00	838.00	858.00	889.00	988.00	1023.00	1025.00	1022.00	1001.00	1022.00	1053.00	1069.00	1100.00	1178.00	1180.00	1206.00	1247.00	1259.00	1239.00
1322.00	1230.00	1244.00	1428.00	1545.00	1590.00	1553.00	1444.00	1330.00	1313.00	1276.00	1201.00	1102.00	1113.00	1104.00	1043.00	1012.00	976.00	974.00	974.00	972.00	940.00	923.00	922.00	928.00	939.00	1001.00	1032.00	1061.00	1087.00	1191.00	1186.00	1212.00	1292.00	1320.00	1264.00	1205.00	1172.00	1151.00	1184.00	1204.00	1270.00	1320.00	1332.00	1218.00	1196.00	1189.00	1313.00	1347.00	1288.00	1272.00	1219.00	1207.00	1332.00	1251.00	1172.00	1130.00	1155.00	1145.00	1130.00	1128.00	1126.00	1133.00	1135.00	1140.00	1151.00	1203.00	1214.00	1145.00	1090.00	1113.00	1174.00	1215.00	1241.00	1226.00	1197.00	1128.00	1133.00	1202.00	1053.00	1063.00	1033.00	1018.00	1022.00	987.00	971.00	962.00	956.00	935.00	940.00	967.00	977.00	964.00	920.00	917.00	931.00	912.00	902.00	954.00	896.00	847.00	815.00	852.00	884.00	901.00	911.00	905.00	887.00	870.00	865.00	861.00	879.00	872.00	856.00	848.00	818.00	783.00	749.00	724.00	697.00	648.00	649.00	651.00	651.00	641.00	638.00	638.00	640.00	641.00	648.00	661.00	675.00	696.00	741.00	747.00	720.00	683.00	649.00	697.00	734.00	748.00	774.00	825.00	871.00	901.00	918.00	919.00	857.00	833.00	817.00	802.00	776.00	762.00	773.00	747.00	714.00	686.00	686.00	687.00	689.00	683.00	680.00	674.00	676.00	674.00	672.00	665.00	654.00	652.00	665.00	663.00	659.00	655.00	642.00	630.00	626.00	624.00	626.00	636.00	628.00	633.00	640.00	650.00	652.00	672.00	684.00	687.00	663.00	642.00	625.00	612.00	604.00	600.00	615.00	625.00	641.00	654.00	662.00	678.00	703.00	736.00	792.00	796.00	775.00	722.00	693.00	712.00	782.00	855.00	869.00	824.00	805.00	794.00	791.00	804.00	811.00	828.00	892.00	977.00	947.00	909.00	853.00	841.00	884.00	905.00	966.00	1015.00	1011.00	994.00	1028.00	1096.00	1148.00	1232.00	1248.00	1230.00	1140.00	937.00	918.00	908.00	888.00	880.00	899.00	904.00	907.00	914.00	979.00	1015.00	1062.00	1106.00	1156.00	1219.00	1232.00	1231.00	1231.00	1225.00	1213.00
1313.00	1321.00	1373.00	1359.00	1503.00	1525.00	1565.00	1558.00	1385.00	1335.00	1269.00	1214.00	1246.00	1239.00	1205.00	1089.00	1068.00	984.00	953.00	936.00	942.00	940.00	946.00	992.00	1027.00	1009.00	1134.00	1177.00	1197.00	1202.00	1236.00	1281.00	1283.00	1246.00	1210.00	1141.00	1134.00	1162.00	1222.00	1259.00	1271.00	1331.00	1364.00	1352.00	1273.00	1302.00	1324.00	1352.00	1353.00	1341.00	1355.00	1327.00	1319.00	1418.00	1385.00	1318.00	1270.00	1207.00	1180.00	1156.00	1130.00	1111.00	1107.00	1107.00	1079.00	1047.00	1061.00	1065.00	1046.00	1006.00	1075.00	1082.00	1056.00	1056.00	1103.00	1195.00	1197.00	1224.00	1259.00	1183.00	1211.00	1174.00	1128.00	1063.00	998.00	975.00	952.00	942.00	886.00	864.00	849.00	852.00	869.00	924.00	942.00	955.00	952.00	946.00	963.00	900.00	870.00	856.00	887.00	917.00	935.00	932.00	944.00	961.00	965.00	948.00	892.00	881.00	865.00	834.00	806.00	770.00	760.00	741.00	724.00	721.00	770.00	730.00	705.00	687.00	663.00	655.00	649.00	644.00	641.00	631.00	627.00	629.00	635.00	653.00	665.00	674.00	663.00	641.00	764.00	808.00	782.00	777.00	839.00	891.00	887.00	852.00	840.00	831.00	807.00	793.00	807.00	837.00	820.00	794.00	743.00	703.00	674.00	665.00	659.00	661.00	667.00	666.00	661.00	659.00	657.00	644.00	643.00	642.00	640.00	643.00	645.00	645.00	651.00	651.00	629.00	623.00	628.00	636.00	642.00	639.00	648.00	664.00	693.00	750.00	755.00	739.00	718.00	670.00	649.00	628.00	617.00	610.00	600.00	605.00	614.00	625.00	643.00	655.00	673.00	693.00	706.00	728.00	720.00	705.00	669.00	741.00	807.00	820.00	808.00	780.00	733.00	729.00	748.00	767.00	790.00	806.00	815.00	823.00	892.00	938.00	939.00	901.00	907.00	986.00	1037.00	1075.00	1071.00	1025.00	1025.00	1069.00	1129.00	1195.00	1258.00	1232.00	1157.00	1083.00	1036.00	1068.00	1041.00	993.00	939.00	907.00	938.00	971.00	1006.00	1030.00	1046.00	1079.00	1119.00	1177.00	1216.00	1232.00	1227.00	1214.00	1210.00	1212.00
1313.00	1321.00	1373.00	1359.00	1503.00	1525.00	1565.00	1558.00	1385.00	1335.00	1269.00	1214.00	1246.00	1239.00	1205.00	1089.00	1068.00	984.00	953.00	936.00	942.00	940.00	946.00	992.00	1027.00	1009.00	1134.00	1177.00	1197.00	1202.00	1236.00	1281.00	1283.00	1246.00	1210.00	1141.00	1134.00	1162.00	1222.00	1259.00	1271.00	1331.00	1364.00	1352.00	1273.00	1302.00	1324.00	1352.00	1353.00	1341.00	1355.00	1327.00	1319.00	1418.00	1385.00	1318.00	1270.00	1207.00	1180.00	1156.00	1130.00	1111.00	1107.00	1107.00	1079.00	1047.00	1061.00	1065.00	1046.00	1006.00	1075.00	1082.00	1056.00	1056.00	1103.00	1195.00	1197.00	1224.00	1259.00	1183.00	1211.00	1174.00	1128.00	1063.00	998.00	975.00	952.00	942.00	886.00	864.00	849.00	852.00	869.00	924.00	942.00	955.00	952.00	946.00	963.00	900.00	870.00	856.00	887.00	917.00	935.00	932.00	944.00	961.00	965.00	948.00	892.00	881.00	865.00	834.00	806.00	770.00	760.00	741.00	724.00	721.00	770.00	730.00	705.00	687.00	663.00	655.00	649.00	644.00	641.00	631.00	627.00	629.00	635.00	653.00	665.00	674.00	663.00	641.00	764.00	808.00	782.00	777.00	839.00	891.00	887.00	852.00	840.00	831.00	807.00	793.00	807.00	837.00	820.00	794.00	743.00	703.00	674.00	665.00	659.00	661.00	667.00	666.00	661.00	659.00	657.00	644.00	643.00	642.00	640.00	643.00	645.00	645.00	651.00	651.00	629.00	623.00	628.00	636.00	642.00	639.00	648.00	664.00	693.00	750.00	755.00	739.00	718.00	670.00	649.00	628.00	617.00	610.00	600.00	605.00	614.00	625.00	643.00	655.00	673.00	693.00	706.00	728.00	720.00	705.00	669.00	741.00	807.00	820.00	808.00	780.00	733.00	729.00	748.00	767.00	790.00	806.00	815.00	823.00	892.00	938.00	939.00	901.00	907.00	986.00	1037.00	1075.00	1071.00	1025.00	1025.00	1069.00	1129.00	1195.00	1258.00	1232.00	1157.00	1083.00	1036.00	1068.00	1041.00	993.00	939.00	907.00	938.00	971.00	1006.00	1030.00	1046.00	1079.00	1119.00	1177.00	1216.00	1232.00	1227.00	1214.00	1210.00	1212.00
1362.00	1446.00	1541.00	1547.00	1402.00	1356.00	1361.00	1415.00	1403.00	1358.00	1329.00	1330.00	1276.00	1241.00	1195.00	1120.00	1073.00	1017.00	1000.00	974.00	947.00	925.00	940.00	964.00	988.00	1006.00	1115.00	1195.00	1225.00	1195.00	1161.00	1158.00	1135.00	1103.00	1073.00	1021.00	1000.00	1032.00	1082.00	1113.00	1155.00	1191.00	1194.00	1185.00	1219.00	1274.00	1270.00	1171.00	1176.00	1209.00	1280.00	1334.00	1362.00	1370.00	1342.00	1361.00	1383.00	1218.00	1162.00	1121.00	1117.00	1100.00	1046.00	1081.00	1115.00	1074.00	975.00	992.00	981.00	941.00	966.00	946.00	970.00	1049.00	1091.00	1038.00	1074.00	1142.00	1161.00	1144.00	1191.00	1201.00	1194.00	1158.00	1160.00	1118.00	1078.00	1053.00	954.00	915.00	880.00	857.00	827.00	795.00	803.00	828.00	863.00	884.00	877.00	877.00	874.00	874.00	872.00	865.00	861.00	854.00	864.00	883.00	900.00	908.00	885.00	840.00	822.00	804.00	794.00	765.00	759.00	751.00	762.00	789.00	832.00	792.00	745.00	713.00	751.00	743.00	733.00	729.00	701.00	649.00	628.00	622.00	617.00	614.00	617.00	622.00	626.00	625.00	685.00	710.00	715.00	770.00	842.00	857.00	854.00	823.00	820.00	877.00	842.00	793.00	752.00	728.00	724.00	708.00	690.00	672.00	658.00	656.00	649.00	648.00	648.00	643.00	637.00	635.00	635.00	627.00	623.00	621.00	621.00	623.00	626.00	630.00	635.00	641.00	649.00	643.00	654.00	673.00	674.00	713.00	762.00	748.00	743.00	813.00	812.00	765.00	713.00	677.00	666.00	656.00	638.00	616.00	595.00	595.00	605.00	615.00	634.00	656.00	668.00	671.00	671.00	662.00	658.00	651.00	646.00	706.00	712.00	710.00	703.00	696.00	703.00	737.00	773.00	799.00	811.00	810.00	813.00	821.00	879.00	922.00	979.00	1006.00	964.00	940.00	956.00	1000.00	1024.00	1083.00	1097.00	1115.00	1160.00	1192.00	1204.00	1164.00	1118.00	1076.00	1057.00	1041.00	1014.00	989.00	963.00	980.00	1027.00	1062.00	1095.00	1164.00	1139.00	1117.00	1123.00	1132.00	1167.00	1155.00	1150.00	1131.00	1122.00	1123.00
