481.00	483.00	486.00	498.00	509.00	513.00	504.00	493.00	490.00	492.00	493.00	496.00	511.00	513.00	523.00	522.00	513.00	542.00	562.00	576.00	584.00	534.00	516.00	505.00	498.00	493.00	481.00	475.00	462.00	453.00	443.00	439.00	440.00	443.00	447.00	453.00	454.00	450.00	443.00	431.00	424.00	417.00	410.00	401.00	399.00	400.00	398.00	396.00	392.00	388.00	384.00	382.00	380.00	384.00	387.00	388.00	389.00	381.00	373.00	365.00	371.00	373.00	366.00	368.00	367.00	363.00	334.00	330.00	337.00	344.00	343.00	343.00	342.00	342.00	342.00	346.00	351.00	354.00	359.00	357.00	348.00	343.00	336.00	341.00	365.00	350.00	347.00	345.00	349.00	356.00	361.00	357.00	346.00	347.00	351.00	351.00	351.00	354.00	356.00	354.00	353.00	347.00	333.00	338.00	343.00	343.00	340.00	346.00	346.00	348.00	356.00	356.00	361.00	372.00	380.00	390.00	415.00	405.00	401.00	399.00	395.00	407.00	413.00	425.00	458.00	473.00	484.00	512.00	514.00	529.00	530.00	531.00	531.00	525.00	517.00	523.00	535.00	544.00	497.00	458.00	436.00	415.00	395.00	386.00	375.00	360.00	350.00	342.00	338.00	338.00	336.00	327.00	322.00	315.00	316.00	316.00	309.00	301.00	293.00	293.00	293.00	293.00	293.00	293.00	295.00	298.00	296.00	298.00	304.00	317.00	315.00	315.00	317.00	316.00	316.00	318.00	318.00	321.00	318.00	305.00	307.00	309.00	308.00	304.00	304.00	306.00	310.00	321.00	317.00	314.00	322.00	329.00	343.00	340.00	341.00	341.00	327.00	325.00	325.00	325.00	328.00	336.00	342.00	345.00	344.00	346.00	348.00	352.00	353.00	355.00	345.00	334.00	326.00	320.00	316.00	315.00	315.00	319.00	320.00	322.00	329.00	359.00	371.00	401.00	415.00	422.00	430.00	435.00	442.00	442.00	441.00	436.00	405.00	395.00	393.00	392.00	387.00	377.00	373.00	367.00	358.00	350.00	349.00	348.00	347.00	347.00	351.00	352.00	352.00	352.00	354.00	353.00	352.00	353.00	350.00	352.00
550.00	543.00	530.00	504.00	507.00	507.00	504.00	505.00	518.00	531.00	543.00	549.00	557.00	537.00	527.00	540.00	562.00	588.00	586.00	583.00	581.00	539.00	530.00	524.00	518.00	507.00	482.00	478.00	467.00	462.00	461.00	456.00	452.00	451.00	450.00	455.00	454.00	447.00	436.00	418.00	414.00	416.00	421.00	414.00	408.00	405.00	405.00	404.00	402.00	402.00	401.00	399.00	399.00	400.00	394.00	384.00	384.00	392.00	393.00	392.00	393.00	393.00	387.00	387.00	385.00	379.00	369.00	361.00	343.00	331.00	330.00	332.00	334.00	340.00	341.00	345.00	348.00	347.00	343.00	339.00	342.00	348.00	351.00	355.00	351.00	349.00	347.00	350.00	349.00	346.00	349.00	347.00	346.00	344.00	343.00	340.00	339.00	341.00	343.00	349.00	353.00	353.00	341.00	337.00	336.00	333.00	331.00	345.00	348.00	349.00	354.00	353.00	358.00	368.00	372.00	372.00	373.00	367.00	364.00	367.00	376.00	386.00	389.00	399.00	415.00	420.00	432.00	458.00	463.00	497.00	504.00	509.00	508.00	509.00	507.00	510.00	517.00	527.00	536.00	525.00	503.00	478.00	419.00	404.00	389.00	370.00	358.00	344.00	346.00	347.00	344.00	332.00	327.00	324.00	324.00	323.00	322.00	323.00	308.00	301.00	293.00	293.00	297.00	305.00	317.00	303.00	306.00	305.00	305.00	311.00	310.00	313.00	318.00	316.00	313.00	310.00	310.00	309.00	309.00	310.00	310.00	310.00	310.00	316.00	316.00	311.00	311.00	311.00	306.00	311.00	316.00	312.00	320.00	323.00	320.00	318.00	312.00	321.00	328.00	328.00	334.00	339.00	341.00	342.00	345.00	348.00	353.00	357.00	355.00	354.00	345.00	341.00	337.00	335.00	320.00	314.00	313.00	318.00	321.00	315.00	315.00	338.00	355.00	366.00	373.00	371.00	364.00	371.00	385.00	381.00	378.00	378.00	371.00	365.00	365.00	370.00	372.00	365.00	361.00	355.00	353.00	354.00	350.00	345.00	344.00	345.00	341.00	338.00	334.00	333.00	338.00	342.00	346.00	353.00	353.00	348.00
550.00	543.00	530.00	504.00	507.00	507.00	504.00	505.00	518.00	531.00	543.00	549.00	557.00	537.00	527.00	540.00	562.00	588.00	586.00	583.00	581.00	539.00	530.00	524.00	518.00	507.00	482.00	478.00	467.00	462.00	461.00	456.00	452.00	451.00	450.00	455.00	454.00	447.00	436.00	418.00	414.00	416.00	421.00	414.00	408.00	405.00	405.00	404.00	402.00	402.00	401.00	399.00	399.00	400.00	394.00	384.00	384.00	392.00	393.00	392.00	393.00	393.00	387.00	387.00	385.00	379.00	369.00	361.00	343.00	331.00	330.00	332.00	334.00	340.00	341.00	345.00	348.00	347.00	343.00	339.00	342.00	348.00	351.00	355.00	351.00	349.00	347.00	350.00	349.00	346.00	349.00	347.00	346.00	344.00	343.00	340.00	339.00	341.00	343.00	349.00	353.00	353.00	341.00	337.00	336.00	333.00	331.00	345.00	348.00	349.00	354.00	353.00	358.00	368.00	372.00	372.00	373.00	367.00	364.00	367.00	376.00	386.00	389.00	399.00	415.00	420.00	432.00	458.00	463.00	497.00	504.00	509.00	508.00	509.00	507.00	510.00	517.00	527.00	536.00	525.00	503.00	478.00	419.00	404.00	389.00	370.00	358.00	344.00	346.00	347.00	344.00	332.00	327.00	324.00	324.00	323.00	322.00	323.00	308.00	301.00	293.00	293.00	297.00	305.00	317.00	303.00	306.00	305.00	305.00	311.00	310.00	313.00	318.00	316.00	313.00	310.00	310.00	309.00	309.00	310.00	310.00	310.00	310.00	316.00	316.00	311.00	311.00	311.00	306.00	311.00	316.00	312.00	320.00	323.00	320.00	318.00	312.00	321.00	328.00	328.00	334.00	339.00	341.00	342.00	345.00	348.00	353.00	357.00	355.00	354.00	345.00	341.00	337.00	335.00	320.00	314.00	313.00	318.00	321.00	315.00	315.00	338.00	355.00	366.00	373.00	371.00	364.00	371.00	385.00	381.00	378.00	378.00	371.00	365.00	365.00	370.00	372.00	365.00	361.00	355.00	353.00	354.00	350.00	345.00	344.00	345.00	341.00	338.00	334.00	333.00	338.00	342.00	346.00	353.00	353.00	348.00
550.00	543.00	530.00	504.00	507.00	507.00	504.00	505.00	518.00	531.00	543.00	549.00	557.00	537.00	527.00	540.00	562.00	588.00	586.00	583.00	581.00	539.00	530.00	524.00	518.00	507.00	482.00	478.00	467.00	462.00	461.00	456.00	452.00	451.00	450.00	455.00	454.00	447.00	436.00	418.00	414.00	416.00	421.00	414.00	408.00	405.00	405.00	404.00	402.00	402.00	401.00	399.00	399.00	400.00	394.00	384.00	384.00	392.00	393.00	392.00	393.00	393.00	387.00	387.00	385.00	379.00	369.00	361.00	343.00	331.00	330.00	332.00	334.00	340.00	341.00	345.00	348.00	347.00	343.00	339.00	342.00	348.00	351.00	355.00	351.00	349.00	347.00	350.00	349.00	346.00	349.00	347.00	346.00	344.00	343.00	340.00	339.00	341.00	343.00	349.00	353.00	353.00	341.00	337.00	336.00	333.00	331.00	345.00	348.00	349.00	354.00	353.00	358.00	368.00	372.00	372.00	373.00	367.00	364.00	367.00	376.00	386.00	389.00	399.00	415.00	420.00	432.00	458.00	463.00	497.00	504.00	509.00	508.00	509.00	507.00	510.00	517.00	527.00	536.00	525.00	503.00	478.00	419.00	404.00	389.00	370.00	358.00	344.00	346.00	347.00	344.00	332.00	327.00	324.00	324.00	323.00	322.00	323.00	308.00	301.00	293.00	293.00	297.00	305.00	317.00	303.00	306.00	305.00	305.00	311.00	310.00	313.00	318.00	316.00	313.00	310.00	310.00	309.00	309.00	310.00	310.00	310.00	310.00	316.00	316.00	311.00	311.00	311.00	306.00	311.00	316.00	312.00	320.00	323.00	320.00	318.00	312.00	321.00	328.00	328.00	334.00	339.00	341.00	342.00	345.00	348.00	353.00	357.00	355.00	354.00	345.00	341.00	337.00	335.00	320.00	314.00	313.00	318.00	321.00	315.00	315.00	338.00	355.00	366.00	373.00	371.00	364.00	371.00	385.00	381.00	378.00	378.00	371.00	365.00	365.00	370.00	372.00	365.00	361.00	355.00	353.00	354.00	350.00	345.00	344.00	345.00	341.00	338.00	334.00	333.00	338.00	342.00	346.00	353.00	353.00	348.00
602.00	584.00	572.00	521.00	509.00	507.00	512.00	533.00	583.00	593.00	598.00	596.00	558.00	555.00	573.00	590.00	601.00	610.00	608.00	604.00	601.00	551.00	533.00	522.00	514.00	503.00	484.00	479.00	467.00	459.00	450.00	447.00	442.00	440.00	440.00	443.00	437.00	437.00	437.00	432.00	442.00	446.00	444.00	442.00	427.00	426.00	432.00	435.00	435.00	434.00	434.00	434.00	432.00	421.00	413.00	405.00	406.00	415.00	417.00	415.00	408.00	400.00	383.00	376.00	370.00	368.00	367.00	363.00	361.00	360.00	361.00	343.00	331.00	326.00	331.00	341.00	345.00	347.00	346.00	344.00	339.00	344.00	343.00	345.00	349.00	351.00	351.00	353.00	348.00	343.00	344.00	340.00	343.00	345.00	345.00	341.00	337.00	337.00	342.00	341.00	343.00	353.00	353.00	347.00	342.00	336.00	329.00	334.00	340.00	343.00	352.00	355.00	350.00	352.00	362.00	360.00	356.00	354.00	355.00	359.00	365.00	367.00	369.00	372.00	379.00	387.00	390.00	407.00	430.00	470.00	481.00	483.00	484.00	491.00	492.00	488.00	485.00	518.00	531.00	537.00	532.00	523.00	470.00	443.00	428.00	410.00	387.00	358.00	357.00	358.00	356.00	341.00	333.00	332.00	332.00	325.00	326.00	321.00	319.00	323.00	316.00	314.00	314.00	311.00	310.00	316.00	319.00	318.00	319.00	313.00	312.00	315.00	314.00	312.00	308.00	305.00	302.00	305.00	310.00	310.00	309.00	311.00	310.00	310.00	312.00	315.00	319.00	313.00	310.00	315.00	312.00	314.00	320.00	321.00	320.00	320.00	322.00	329.00	340.00	348.00	355.00	359.00	355.00	351.00	354.00	357.00	357.00	356.00	351.00	349.00	343.00	346.00	347.00	343.00	328.00	320.00	317.00	322.00	328.00	316.00	314.00	318.00	320.00	330.00	341.00	343.00	343.00	347.00	364.00	369.00	367.00	364.00	365.00	357.00	359.00	364.00	367.00	365.00	363.00	362.00	362.00	361.00	362.00	363.00	363.00	359.00	349.00	340.00	331.00	326.00	330.00	333.00	336.00	347.00	352.00	344.00
584.00	563.00	551.00	520.00	515.00	524.00	553.00	592.00	632.00	632.00	622.00	607.00	573.00	585.00	605.00	620.00	621.00	596.00	588.00	582.00	572.00	524.00	511.00	503.00	495.00	488.00	480.00	478.00	464.00	453.00	459.00	461.00	458.00	460.00	462.00	461.00	455.00	450.00	449.00	450.00	457.00	457.00	456.00	447.00	440.00	447.00	455.00	456.00	442.00	442.00	443.00	440.00	435.00	427.00	428.00	430.00	430.00	426.00	424.00	419.00	408.00	395.00	376.00	373.00	382.00	385.00	383.00	382.00	378.00	375.00	376.00	372.00	362.00	354.00	343.00	334.00	337.00	341.00	344.00	342.00	339.00	340.00	343.00	343.00	345.00	343.00	347.00	349.00	344.00	343.00	342.00	341.00	346.00	348.00	346.00	340.00	337.00	339.00	338.00	340.00	341.00	338.00	355.00	361.00	361.00	358.00	345.00	342.00	334.00	330.00	332.00	339.00	341.00	346.00	351.00	358.00	363.00	366.00	371.00	376.00	384.00	383.00	381.00	377.00	377.00	380.00	381.00	400.00	412.00	439.00	455.00	461.00	461.00	468.00	481.00	481.00	472.00	503.00	508.00	518.00	526.00	528.00	529.00	518.00	493.00	458.00	433.00	380.00	380.00	377.00	372.00	357.00	349.00	343.00	338.00	334.00	331.00	323.00	327.00	332.00	324.00	319.00	320.00	320.00	319.00	324.00	322.00	317.00	316.00	319.00	310.00	308.00	312.00	317.00	316.00	318.00	317.00	313.00	311.00	308.00	310.00	314.00	312.00	309.00	312.00	318.00	321.00	314.00	305.00	304.00	310.00	314.00	325.00	331.00	335.00	342.00	350.00	368.00	386.00	399.00	406.00	418.00	413.00	410.00	406.00	381.00	368.00	368.00	370.00	368.00	341.00	339.00	336.00	333.00	330.00	330.00	335.00	341.00	345.00	334.00	330.00	322.00	317.00	326.00	326.00	323.00	320.00	322.00	334.00	335.00	339.00	347.00	354.00	352.00	355.00	359.00	359.00	365.00	371.00	375.00	379.00	387.00	390.00	389.00	387.00	380.00	368.00	364.00	357.00	352.00	345.00	342.00	340.00	330.00	329.00	329.00
584.00	563.00	551.00	520.00	515.00	524.00	553.00	592.00	632.00	632.00	622.00	607.00	573.00	585.00	605.00	620.00	621.00	596.00	588.00	582.00	572.00	524.00	511.00	503.00	495.00	488.00	480.00	478.00	464.00	453.00	459.00	461.00	458.00	460.00	462.00	461.00	455.00	450.00	449.00	450.00	457.00	457.00	456.00	447.00	440.00	447.00	455.00	456.00	442.00	442.00	443.00	440.00	435.00	427.00	428.00	430.00	430.00	426.00	424.00	419.00	408.00	395.00	376.00	373.00	382.00	385.00	383.00	382.00	378.00	375.00	376.00	372.00	362.00	354.00	343.00	334.00	337.00	341.00	344.00	342.00	339.00	340.00	343.00	343.00	345.00	343.00	347.00	349.00	344.00	343.00	342.00	341.00	346.00	348.00	346.00	340.00	337.00	339.00	338.00	340.00	341.00	338.00	355.00	361.00	361.00	358.00	345.00	342.00	334.00	330.00	332.00	339.00	341.00	346.00	351.00	358.00	363.00	366.00	371.00	376.00	384.00	383.00	381.00	377.00	377.00	380.00	381.00	400.00	412.00	439.00	455.00	461.00	461.00	468.00	481.00	481.00	472.00	503.00	508.00	518.00	526.00	528.00	529.00	518.00	493.00	458.00	433.00	380.00	380.00	377.00	372.00	357.00	349.00	343.00	338.00	334.00	331.00	323.00	327.00	332.00	324.00	319.00	320.00	320.00	319.00	324.00	322.00	317.00	316.00	319.00	310.00	308.00	312.00	317.00	316.00	318.00	317.00	313.00	311.00	308.00	310.00	314.00	312.00	309.00	312.00	318.00	321.00	314.00	305.00	304.00	310.00	314.00	325.00	331.00	335.00	342.00	350.00	368.00	386.00	399.00	406.00	418.00	413.00	410.00	406.00	381.00	368.00	368.00	370.00	368.00	341.00	339.00	336.00	333.00	330.00	330.00	335.00	341.00	345.00	334.00	330.00	322.00	317.00	326.00	326.00	323.00	320.00	322.00	334.00	335.00	339.00	347.00	354.00	352.00	355.00	359.00	359.00	365.00	371.00	375.00	379.00	387.00	390.00	389.00	387.00	380.00	368.00	364.00	357.00	352.00	345.00	342.00	340.00	330.00	329.00	329.00
584.00	563.00	551.00	520.00	515.00	524.00	553.00	592.00	632.00	632.00	622.00	607.00	573.00	585.00	605.00	620.00	621.00	596.00	588.00	582.00	572.00	524.00	511.00	503.00	495.00	488.00	480.00	478.00	464.00	453.00	459.00	461.00	458.00	460.00	462.00	461.00	455.00	450.00	449.00	450.00	457.00	457.00	456.00	447.00	440.00	447.00	455.00	456.00	442.00	442.00	443.00	440.00	435.00	427.00	428.00	430.00	430.00	426.00	424.00	419.00	408.00	395.00	376.00	373.00	382.00	385.00	383.00	382.00	378.00	375.00	376.00	372.00	362.00	354.00	343.00	334.00	337.00	341.00	344.00	342.00	339.00	340.00	343.00	343.00	345.00	343.00	347.00	349.00	344.00	343.00	342.00	341.00	346.00	348.00	346.00	340.00	337.00	339.00	338.00	340.00	341.00	338.00	355.00	361.00	361.00	358.00	345.00	342.00	334.00	330.00	332.00	339.00	341.00	346.00	351.00	358.00	363.00	366.00	371.00	376.00	384.00	383.00	381.00	377.00	377.00	380.00	381.00	400.00	412.00	439.00	455.00	461.00	461.00	468.00	481.00	481.00	472.00	503.00	508.00	518.00	526.00	528.00	529.00	518.00	493.00	458.00	433.00	380.00	380.00	377.00	372.00	357.00	349.00	343.00	338.00	334.00	331.00	323.00	327.00	332.00	324.00	319.00	320.00	320.00	319.00	324.00	322.00	317.00	316.00	319.00	310.00	308.00	312.00	317.00	316.00	318.00	317.00	313.00	311.00	308.00	310.00	314.00	312.00	309.00	312.00	318.00	321.00	314.00	305.00	304.00	310.00	314.00	325.00	331.00	335.00	342.00	350.00	368.00	386.00	399.00	406.00	418.00	413.00	410.00	406.00	381.00	368.00	368.00	370.00	368.00	341.00	339.00	336.00	333.00	330.00	330.00	335.00	341.00	345.00	334.00	330.00	322.00	317.00	326.00	326.00	323.00	320.00	322.00	334.00	335.00	339.00	347.00	354.00	352.00	355.00	359.00	359.00	365.00	371.00	375.00	379.00	387.00	390.00	389.00	387.00	380.00	368.00	364.00	357.00	352.00	345.00	342.00	340.00	330.00	329.00	329.00
579.00	538.00	526.00	527.00	545.00	572.00	608.00	637.00	639.00	632.00	622.00	612.00	614.00	623.00	629.00	627.00	612.00	559.00	545.00	536.00	524.00	496.00	499.00	500.00	499.00	499.00	501.00	500.00	484.00	471.00	484.00	490.00	487.00	488.00	487.00	479.00	476.00	472.00	469.00	465.00	468.00	469.00	465.00	458.00	460.00	470.00	478.00	475.00	458.00	449.00	442.00	441.00	443.00	461.00	463.00	455.00	442.00	424.00	417.00	410.00	405.00	403.00	404.00	404.00	412.00	413.00	406.00	401.00	395.00	390.00	384.00	369.00	367.00	366.00	362.00	360.00	345.00	339.00	326.00	325.00	333.00	330.00	314.00	325.00	355.00	351.00	352.00	347.00	348.00	346.00	340.00	338.00	338.00	344.00	345.00	341.00	343.00	345.00	339.00	342.00	336.00	331.00	333.00	327.00	327.00	338.00	358.00	350.00	342.00	336.00	340.00	351.00	354.00	358.00	362.00	371.00	391.00	403.00	407.00	408.00	415.00	414.00	413.00	405.00	375.00	385.00	396.00	416.00	422.00	424.00	429.00	436.00	447.00	474.00	477.00	479.00	469.00	465.00	504.00	512.00	514.00	509.00	499.00	508.00	512.00	499.00	476.00	401.00	391.00	380.00	372.00	354.00	343.00	337.00	338.00	334.00	335.00	333.00	329.00	336.00	343.00	340.00	333.00	327.00	327.00	328.00	334.00	329.00	320.00	335.00	338.00	338.00	328.00	323.00	318.00	313.00	310.00	308.00	308.00	314.00	315.00	315.00	316.00	318.00	322.00	326.00	328.00	326.00	315.00	311.00	322.00	325.00	351.00	368.00	386.00	402.00	411.00	425.00	450.00	468.00	480.00	507.00	503.00	488.00	472.00	435.00	420.00	400.00	384.00	376.00	360.00	356.00	350.00	344.00	335.00	341.00	349.00	355.00	356.00	349.00	347.00	332.00	326.00	331.00	331.00	326.00	321.00	321.00	335.00	338.00	344.00	346.00	360.00	364.00	368.00	372.00	379.00	401.00	407.00	408.00	407.00	414.00	404.00	397.00	392.00	387.00	377.00	374.00	368.00	364.00	361.00	361.00	356.00	346.00	340.00	331.00
552.00	534.00	537.00	553.00	575.00	609.00	635.00	648.00	643.00	640.00	637.00	634.00	632.00	632.00	629.00	614.00	588.00	539.00	524.00	516.00	508.00	505.00	509.00	513.00	517.00	522.00	530.00	526.00	505.00	493.00	516.00	519.00	513.00	514.00	512.00	503.00	496.00	489.00	482.00	485.00	488.00	489.00	489.00	485.00	480.00	484.00	485.00	482.00	477.00	472.00	465.00	469.00	476.00	471.00	465.00	454.00	441.00	427.00	421.00	422.00	425.00	424.00	418.00	407.00	408.00	405.00	396.00	393.00	390.00	385.00	384.00	378.00	369.00	367.00	372.00	361.00	359.00	355.00	350.00	342.00	337.00	337.00	315.00	316.00	346.00	347.00	348.00	349.00	349.00	347.00	344.00	342.00	345.00	338.00	337.00	337.00	337.00	335.00	332.00	332.00	332.00	332.00	334.00	331.00	329.00	337.00	338.00	328.00	331.00	331.00	329.00	342.00	352.00	363.00	375.00	382.00	422.00	442.00	439.00	428.00	424.00	435.00	444.00	431.00	396.00	399.00	400.00	415.00	419.00	422.00	428.00	439.00	452.00	467.00	470.00	474.00	476.00	458.00	490.00	499.00	497.00	488.00	475.00	474.00	483.00	493.00	484.00	395.00	387.00	380.00	373.00	352.00	342.00	345.00	350.00	348.00	351.00	342.00	329.00	334.00	347.00	354.00	366.00	371.00	359.00	346.00	341.00	334.00	320.00	351.00	348.00	352.00	349.00	346.00	328.00	325.00	319.00	319.00	320.00	325.00	329.00	331.00	331.00	330.00	331.00	338.00	342.00	335.00	332.00	334.00	346.00	358.00	404.00	426.00	450.00	479.00	519.00	530.00	539.00	549.00	566.00	574.00	570.00	554.00	522.00	453.00	430.00	408.00	388.00	376.00	359.00	357.00	355.00	349.00	343.00	350.00	357.00	360.00	356.00	354.00	354.00	347.00	341.00	341.00	341.00	336.00	329.00	325.00	338.00	342.00	344.00	350.00	370.00	373.00	383.00	394.00	405.00	422.00	425.00	423.00	421.00	419.00	413.00	405.00	397.00	389.00	381.00	375.00	368.00	363.00	354.00	354.00	361.00	374.00	366.00	351.00
552.00	534.00	537.00	553.00	575.00	609.00	635.00	648.00	643.00	640.00	637.00	634.00	632.00	632.00	629.00	614.00	588.00	539.00	524.00	516.00	508.00	505.00	509.00	513.00	517.00	522.00	530.00	526.00	505.00	493.00	516.00	519.00	513.00	514.00	512.00	503.00	496.00	489.00	482.00	485.00	488.00	489.00	489.00	485.00	480.00	484.00	485.00	482.00	477.00	472.00	465.00	469.00	476.00	471.00	465.00	454.00	441.00	427.00	421.00	422.00	425.00	424.00	418.00	407.00	408.00	405.00	396.00	393.00	390.00	385.00	384.00	378.00	369.00	367.00	372.00	361.00	359.00	355.00	350.00	342.00	337.00	337.00	315.00	316.00	346.00	347.00	348.00	349.00	349.00	347.00	344.00	342.00	345.00	338.00	337.00	337.00	337.00	335.00	332.00	332.00	332.00	332.00	334.00	331.00	329.00	337.00	338.00	328.00	331.00	331.00	329.00	342.00	352.00	363.00	375.00	382.00	422.00	442.00	439.00	428.00	424.00	435.00	444.00	431.00	396.00	399.00	400.00	415.00	419.00	422.00	428.00	439.00	452.00	467.00	470.00	474.00	476.00	458.00	490.00	499.00	497.00	488.00	475.00	474.00	483.00	493.00	484.00	395.00	387.00	380.00	373.00	352.00	342.00	345.00	350.00	348.00	351.00	342.00	329.00	334.00	347.00	354.00	366.00	371.00	359.00	346.00	341.00	334.00	320.00	351.00	348.00	352.00	349.00	346.00	328.00	325.00	319.00	319.00	320.00	325.00	329.00	331.00	331.00	330.00	331.00	338.00	342.00	335.00	332.00	334.00	346.00	358.00	404.00	426.00	450.00	479.00	519.00	530.00	539.00	549.00	566.00	574.00	570.00	554.00	522.00	453.00	430.00	408.00	388.00	376.00	359.00	357.00	355.00	349.00	343.00	350.00	357.00	360.00	356.00	354.00	354.00	347.00	341.00	341.00	341.00	336.00	329.00	325.00	338.00	342.00	344.00	350.00	370.00	373.00	383.00	394.00	405.00	422.00	425.00	423.00	421.00	419.00	413.00	405.00	397.00	389.00	381.00	375.00	368.00	363.00	354.00	354.00	361.00	374.00	366.00	351.00
552.00	534.00	537.00	553.00	575.00	609.00	635.00	648.00	643.00	640.00	637.00	634.00	632.00	632.00	629.00	614.00	588.00	539.00	524.00	516.00	508.00	505.00	509.00	513.00	517.00	522.00	530.00	526.00	505.00	493.00	516.00	519.00	513.00	514.00	512.00	503.00	496.00	489.00	482.00	485.00	488.00	489.00	489.00	485.00	480.00	484.00	485.00	482.00	477.00	472.00	465.00	469.00	476.00	471.00	465.00	454.00	441.00	427.00	421.00	422.00	425.00	424.00	418.00	407.00	408.00	405.00	396.00	393.00	390.00	385.00	384.00	378.00	369.00	367.00	372.00	361.00	359.00	355.00	350.00	342.00	337.00	337.00	315.00	316.00	346.00	347.00	348.00	349.00	349.00	347.00	344.00	342.00	345.00	338.00	337.00	337.00	337.00	335.00	332.00	332.00	332.00	332.00	334.00	331.00	329.00	337.00	338.00	328.00	331.00	331.00	329.00	342.00	352.00	363.00	375.00	382.00	422.00	442.00	439.00	428.00	424.00	435.00	444.00	431.00	396.00	399.00	400.00	415.00	419.00	422.00	428.00	439.00	452.00	467.00	470.00	474.00	476.00	458.00	490.00	499.00	497.00	488.00	475.00	474.00	483.00	493.00	484.00	395.00	387.00	380.00	373.00	352.00	342.00	345.00	350.00	348.00	351.00	342.00	329.00	334.00	347.00	354.00	366.00	371.00	359.00	346.00	341.00	334.00	320.00	351.00	348.00	352.00	349.00	346.00	328.00	325.00	319.00	319.00	320.00	325.00	329.00	331.00	331.00	330.00	331.00	338.00	342.00	335.00	332.00	334.00	346.00	358.00	404.00	426.00	450.00	479.00	519.00	530.00	539.00	549.00	566.00	574.00	570.00	554.00	522.00	453.00	430.00	408.00	388.00	376.00	359.00	357.00	355.00	349.00	343.00	350.00	357.00	360.00	356.00	354.00	354.00	347.00	341.00	341.00	341.00	336.00	329.00	325.00	338.00	342.00	344.00	350.00	370.00	373.00	383.00	394.00	405.00	422.00	425.00	423.00	421.00	419.00	413.00	405.00	397.00	389.00	381.00	375.00	368.00	363.00	354.00	354.00	361.00	374.00	366.00	351.00
551.00	556.00	569.00	598.00	606.00	618.00	634.00	650.00	644.00	639.00	636.00	634.00	626.00	621.00	611.00	590.00	565.00	534.00	529.00	522.00	516.00	538.00	543.00	546.00	548.00	552.00	557.00	546.00	523.00	521.00	545.00	542.00	544.00	541.00	535.00	518.00	510.00	508.00	511.00	519.00	519.00	515.00	509.00	500.00	495.00	491.00	486.00	480.00	471.00	467.00	463.00	465.00	467.00	450.00	441.00	432.00	430.00	434.00	439.00	447.00	450.00	444.00	431.00	421.00	404.00	395.00	382.00	379.00	376.00	375.00	374.00	379.00	376.00	373.00	371.00	363.00	356.00	352.00	349.00	344.00	343.00	345.00	339.00	317.00	331.00	338.00	341.00	344.00	345.00	346.00	343.00	344.00	345.00	337.00	342.00	339.00	336.00	330.00	332.00	333.00	333.00	332.00	334.00	331.00	329.00	327.00	327.00	323.00	330.00	332.00	330.00	338.00	354.00	369.00	375.00	376.00	395.00	400.00	407.00	418.00	435.00	437.00	442.00	447.00	439.00	425.00	421.00	419.00	414.00	412.00	415.00	429.00	446.00	459.00	465.00	472.00	471.00	454.00	463.00	474.00	473.00	470.00	468.00	467.00	466.00	475.00	469.00	381.00	374.00	374.00	373.00	362.00	364.00	368.00	368.00	366.00	360.00	351.00	349.00	352.00	358.00	361.00	361.00	357.00	352.00	344.00	344.00	339.00	332.00	346.00	345.00	344.00	345.00	342.00	336.00	333.00	331.00	334.00	342.00	330.00	342.00	356.00	360.00	356.00	358.00	363.00	361.00	351.00	353.00	357.00	384.00	409.00	454.00	476.00	492.00	511.00	530.00	534.00	536.00	533.00	542.00	536.00	537.00	531.00	506.00	450.00	428.00	405.00	389.00	376.00	360.00	357.00	352.00	351.00	353.00	356.00	356.00	356.00	357.00	355.00	356.00	356.00	353.00	351.00	348.00	345.00	341.00	337.00	339.00	344.00	347.00	350.00	373.00	371.00	375.00	384.00	389.00	409.00	416.00	416.00	414.00	414.00	410.00	404.00	397.00	392.00	379.00	376.00	371.00	365.00	359.00	355.00	348.00	345.00	349.00	359.00
563.00	593.00	603.00	638.00	652.00	658.00	661.00	663.00	647.00	641.00	635.00	632.00	608.00	599.00	584.00	569.00	557.00	538.00	529.00	528.00	542.00	567.00	572.00	578.00	581.00	577.00	561.00	551.00	538.00	541.00	564.00	569.00	568.00	560.00	548.00	526.00	519.00	523.00	529.00	529.00	523.00	512.00	503.00	496.00	489.00	488.00	497.00	513.00	523.00	516.00	498.00	479.00	469.00	468.00	459.00	446.00	436.00	435.00	442.00	450.00	454.00	453.00	428.00	410.00	398.00	394.00	378.00	378.00	380.00	380.00	380.00	380.00	378.00	375.00	371.00	369.00	366.00	361.00	355.00	348.00	345.00	347.00	346.00	345.00	331.00	325.00	317.00	320.00	335.00	343.00	341.00	336.00	332.00	340.00	339.00	336.00	334.00	331.00	328.00	332.00	335.00	338.00	340.00	332.00	329.00	333.00	333.00	327.00	331.00	334.00	330.00	347.00	358.00	361.00	363.00	367.00	388.00	396.00	408.00	415.00	429.00	438.00	451.00	458.00	454.00	448.00	446.00	430.00	420.00	413.00	422.00	444.00	463.00	459.00	464.00	464.00	461.00	444.00	440.00	445.00	449.00	454.00	442.00	444.00	455.00	471.00	470.00	395.00	395.00	390.00	386.00	380.00	383.00	381.00	375.00	372.00	360.00	356.00	358.00	354.00	364.00	362.00	357.00	360.00	360.00	351.00	352.00	348.00	342.00	349.00	351.00	352.00	355.00	357.00	350.00	350.00	352.00	356.00	355.00	350.00	353.00	357.00	365.00	380.00	383.00	381.00	374.00	369.00	376.00	381.00	410.00	440.00	492.00	501.00	511.00	528.00	528.00	523.00	517.00	514.00	509.00	501.00	498.00	493.00	484.00	429.00	410.00	401.00	399.00	401.00	398.00	399.00	397.00	399.00	401.00	401.00	391.00	376.00	366.00	371.00	371.00	369.00	368.00	359.00	354.00	350.00	351.00	349.00	347.00	354.00	355.00	356.00	363.00	361.00	365.00	371.00	376.00	389.00	394.00	400.00	405.00	404.00	411.00	408.00	403.00	399.00	388.00	387.00	386.00	382.00	368.00	365.00	359.00	342.00	340.00	348.00
563.00	593.00	603.00	638.00	652.00	658.00	661.00	663.00	647.00	641.00	635.00	632.00	608.00	599.00	584.00	569.00	557.00	538.00	529.00	528.00	542.00	567.00	572.00	578.00	581.00	577.00	561.00	551.00	538.00	541.00	564.00	569.00	568.00	560.00	548.00	526.00	519.00	523.00	529.00	529.00	523.00	512.00	503.00	496.00	489.00	488.00	497.00	513.00	523.00	516.00	498.00	479.00	469.00	468.00	459.00	446.00	436.00	435.00	442.00	450.00	454.00	453.00	428.00	410.00	398.00	394.00	378.00	378.00	380.00	380.00	380.00	380.00	378.00	375.00	371.00	369.00	366.00	361.00	355.00	348.00	345.00	347.00	346.00	345.00	331.00	325.00	317.00	320.00	335.00	343.00	341.00	336.00	332.00	340.00	339.00	336.00	334.00	331.00	328.00	332.00	335.00	338.00	340.00	332.00	329.00	333.00	333.00	327.00	331.00	334.00	330.00	347.00	358.00	361.00	363.00	367.00	388.00	396.00	408.00	415.00	429.00	438.00	451.00	458.00	454.00	448.00	446.00	430.00	420.00	413.00	422.00	444.00	463.00	459.00	464.00	464.00	461.00	444.00	440.00	445.00	449.00	454.00	442.00	444.00	455.00	471.00	470.00	395.00	395.00	390.00	386.00	380.00	383.00	381.00	375.00	372.00	360.00	356.00	358.00	354.00	364.00	362.00	357.00	360.00	360.00	351.00	352.00	348.00	342.00	349.00	351.00	352.00	355.00	357.00	350.00	350.00	352.00	356.00	355.00	350.00	353.00	357.00	365.00	380.00	383.00	381.00	374.00	369.00	376.00	381.00	410.00	440.00	492.00	501.00	511.00	528.00	528.00	523.00	517.00	514.00	509.00	501.00	498.00	493.00	484.00	429.00	410.00	401.00	399.00	401.00	398.00	399.00	397.00	399.00	401.00	401.00	391.00	376.00	366.00	371.00	371.00	369.00	368.00	359.00	354.00	350.00	351.00	349.00	347.00	354.00	355.00	356.00	363.00	361.00	365.00	371.00	376.00	389.00	394.00	400.00	405.00	404.00	411.00	408.00	403.00	399.00	388.00	387.00	386.00	382.00	368.00	365.00	359.00	342.00	340.00	348.00
563.00	593.00	603.00	638.00	652.00	658.00	661.00	663.00	647.00	641.00	635.00	632.00	608.00	599.00	584.00	569.00	557.00	538.00	529.00	528.00	542.00	567.00	572.00	578.00	581.00	577.00	561.00	551.00	538.00	541.00	564.00	569.00	568.00	560.00	548.00	526.00	519.00	523.00	529.00	529.00	523.00	512.00	503.00	496.00	489.00	488.00	497.00	513.00	523.00	516.00	498.00	479.00	469.00	468.00	459.00	446.00	436.00	435.00	442.00	450.00	454.00	453.00	428.00	410.00	398.00	394.00	378.00	378.00	380.00	380.00	380.00	380.00	378.00	375.00	371.00	369.00	366.00	361.00	355.00	348.00	345.00	347.00	346.00	345.00	331.00	325.00	317.00	320.00	335.00	343.00	341.00	336.00	332.00	340.00	339.00	336.00	334.00	331.00	328.00	332.00	335.00	338.00	340.00	332.00	329.00	333.00	333.00	327.00	331.00	334.00	330.00	347.00	358.00	361.00	363.00	367.00	388.00	396.00	408.00	415.00	429.00	438.00	451.00	458.00	454.00	448.00	446.00	430.00	420.00	413.00	422.00	444.00	463.00	459.00	464.00	464.00	461.00	444.00	440.00	445.00	449.00	454.00	442.00	444.00	455.00	471.00	470.00	395.00	395.00	390.00	386.00	380.00	383.00	381.00	375.00	372.00	360.00	356.00	358.00	354.00	364.00	362.00	357.00	360.00	360.00	351.00	352.00	348.00	342.00	349.00	351.00	352.00	355.00	357.00	350.00	350.00	352.00	356.00	355.00	350.00	353.00	357.00	365.00	380.00	383.00	381.00	374.00	369.00	376.00	381.00	410.00	440.00	492.00	501.00	511.00	528.00	528.00	523.00	517.00	514.00	509.00	501.00	498.00	493.00	484.00	429.00	410.00	401.00	399.00	401.00	398.00	399.00	397.00	399.00	401.00	401.00	391.00	376.00	366.00	371.00	371.00	369.00	368.00	359.00	354.00	350.00	351.00	349.00	347.00	354.00	355.00	356.00	363.00	361.00	365.00	371.00	376.00	389.00	394.00	400.00	405.00	404.00	411.00	408.00	403.00	399.00	388.00	387.00	386.00	382.00	368.00	365.00	359.00	342.00	340.00	348.00
622.00	655.00	665.00	684.00	699.00	704.00	694.00	680.00	660.00	651.00	645.00	644.00	630.00	619.00	597.00	574.00	560.00	542.00	538.00	550.00	568.00	607.00	614.00	613.00	604.00	593.00	573.00	568.00	558.00	556.00	569.00	572.00	576.00	574.00	567.00	564.00	560.00	554.00	548.00	542.00	540.00	530.00	518.00	522.00	523.00	528.00	541.00	550.00	548.00	541.00	531.00	532.00	538.00	513.00	496.00	473.00	453.00	433.00	430.00	431.00	428.00	424.00	414.00	412.00	423.00	422.00	391.00	392.00	393.00	395.00	402.00	389.00	384.00	380.00	376.00	366.00	362.00	361.00	357.00	350.00	339.00	342.00	344.00	344.00	349.00	352.00	348.00	319.00	317.00	335.00	339.00	333.00	330.00	334.00	332.00	329.00	332.00	334.00	330.00	330.00	332.00	333.00	337.00	330.00	328.00	330.00	327.00	328.00	326.00	323.00	321.00	330.00	338.00	354.00	366.00	369.00	388.00	401.00	418.00	431.00	448.00	459.00	463.00	467.00	447.00	444.00	445.00	435.00	430.00	421.00	426.00	438.00	444.00	448.00	465.00	475.00	467.00	449.00	447.00	442.00	437.00	435.00	422.00	425.00	434.00	441.00	439.00	431.00	439.00	440.00	437.00	428.00	417.00	404.00	395.00	387.00	380.00	385.00	384.00	371.00	366.00	366.00	369.00	372.00	372.00	362.00	353.00	345.00	344.00	361.00	364.00	361.00	359.00	356.00	365.00	374.00	376.00	374.00	373.00	373.00	371.00	372.00	381.00	401.00	401.00	397.00	390.00	391.00	402.00	406.00	440.00	461.00	510.00	520.00	522.00	526.00	522.00	516.00	513.00	511.00	498.00	484.00	479.00	476.00	463.00	426.00	425.00	429.00	435.00	440.00	472.00	490.00	493.00	495.00	491.00	480.00	463.00	444.00	423.00	405.00	402.00	390.00	387.00	373.00	372.00	367.00	362.00	361.00	357.00	354.00	353.00	356.00	362.00	372.00	376.00	376.00	375.00	374.00	371.00	374.00	386.00	403.00	402.00	400.00	400.00	398.00	390.00	390.00	389.00	387.00	376.00	370.00	361.00	361.00	357.00	341.00
690.00	718.00	734.00	756.00	752.00	743.00	735.00	726.00	702.00	685.00	667.00	655.00	621.00	601.00	590.00	584.00	576.00	553.00	558.00	573.00	593.00	678.00	690.00	681.00	665.00	643.00	604.00	598.00	589.00	583.00	593.00	601.00	617.00	619.00	615.00	611.00	612.00	609.00	603.00	590.00	580.00	574.00	569.00	565.00	572.00	576.00	576.00	568.00	567.00	565.00	549.00	536.00	543.00	505.00	491.00	478.00	462.00	442.00	437.00	433.00	429.00	423.00	418.00	428.00	431.00	420.00	413.00	424.00	426.00	442.00	442.00	421.00	409.00	401.00	397.00	378.00	368.00	361.00	361.00	356.00	338.00	341.00	343.00	342.00	340.00	342.00	346.00	347.00	340.00	333.00	333.00	322.00	317.00	323.00	325.00	327.00	326.00	329.00	328.00	330.00	329.00	328.00	326.00	327.00	329.00	331.00	330.00	316.00	313.00	323.00	330.00	329.00	327.00	346.00	362.00	369.00	392.00	399.00	408.00	420.00	445.00	451.00	453.00	459.00	461.00	462.00	464.00	444.00	435.00	420.00	422.00	419.00	412.00	405.00	412.00	423.00	427.00	439.00	457.00	454.00	451.00	445.00	429.00	424.00	422.00	436.00	445.00	462.00	465.00	466.00	470.00	465.00	454.00	441.00	429.00	416.00	418.00	421.00	425.00	418.00	398.00	393.00	383.00	376.00	374.00	367.00	358.00	355.00	358.00	366.00	373.00	382.00	384.00	378.00	387.00	393.00	396.00	400.00	397.00	400.00	397.00	397.00	408.00	424.00	425.00	423.00	422.00	416.00	420.00	429.00	462.00	477.00	515.00	526.00	530.00	529.00	522.00	519.00	513.00	506.00	496.00	480.00	471.00	461.00	452.00	439.00	446.00	466.00	493.00	512.00	528.00	543.00	547.00	545.00	549.00	541.00	533.00	521.00	504.00	467.00	448.00	399.00	390.00	389.00	386.00	381.00	378.00	374.00	360.00	362.00	365.00	365.00	359.00	363.00	369.00	375.00	380.00	377.00	377.00	380.00	386.00	394.00	405.00	403.00	400.00	398.00	393.00	391.00	392.00	391.00	395.00	390.00	376.00	362.00	358.00	347.00
690.00	718.00	734.00	756.00	752.00	743.00	735.00	726.00	702.00	685.00	667.00	655.00	621.00	601.00	590.00	584.00	576.00	553.00	558.00	573.00	593.00	678.00	690.00	681.00	665.00	643.00	604.00	598.00	589.00	583.00	593.00	601.00	617.00	619.00	615.00	611.00	612.00	609.00	603.00	590.00	580.00	574.00	569.00	565.00	572.00	576.00	576.00	568.00	567.00	565.00	549.00	536.00	543.00	505.00	491.00	478.00	462.00	442.00	437.00	433.00	429.00	423.00	418.00	428.00	431.00	420.00	413.00	424.00	426.00	442.00	442.00	421.00	409.00	401.00	397.00	378.00	368.00	361.00	361.00	356.00	338.00	341.00	343.00	342.00	340.00	342.00	346.00	347.00	340.00	333.00	333.00	322.00	317.00	323.00	325.00	327.00	326.00	329.00	328.00	330.00	329.00	328.00	326.00	327.00	329.00	331.00	330.00	316.00	313.00	323.00	330.00	329.00	327.00	346.00	362.00	369.00	392.00	399.00	408.00	420.00	445.00	451.00	453.00	459.00	461.00	462.00	464.00	444.00	435.00	420.00	422.00	419.00	412.00	405.00	412.00	423.00	427.00	439.00	457.00	454.00	451.00	445.00	429.00	424.00	422.00	436.00	445.00	462.00	465.00	466.00	470.00	465.00	454.00	441.00	429.00	416.00	418.00	421.00	425.00	418.00	398.00	393.00	383.00	376.00	374.00	367.00	358.00	355.00	358.00	366.00	373.00	382.00	384.00	378.00	387.00	393.00	396.00	400.00	397.00	400.00	397.00	397.00	408.00	424.00	425.00	423.00	422.00	416.00	420.00	429.00	462.00	477.00	515.00	526.00	530.00	529.00	522.00	519.00	513.00	506.00	496.00	480.00	471.00	461.00	452.00	439.00	446.00	466.00	493.00	512.00	528.00	543.00	547.00	545.00	549.00	541.00	533.00	521.00	504.00	467.00	448.00	399.00	390.00	389.00	386.00	381.00	378.00	374.00	360.00	362.00	365.00	365.00	359.00	363.00	369.00	375.00	380.00	377.00	377.00	380.00	386.00	394.00	405.00	403.00	400.00	398.00	393.00	391.00	392.00	391.00	395.00	390.00	376.00	362.00	358.00	347.00
690.00	718.00	734.00	756.00	752.00	743.00	735.00	726.00	702.00	685.00	667.00	655.00	621.00	601.00	590.00	584.00	576.00	553.00	558.00	573.00	593.00	678.00	690.00	681.00	665.00	643.00	604.00	598.00	589.00	583.00	593.00	601.00	617.00	619.00	615.00	611.00	612.00	609.00	603.00	590.00	580.00	574.00	569.00	565.00	572.00	576.00	576.00	568.00	567.00	565.00	549.00	536.00	543.00	505.00	491.00	478.00	462.00	442.00	437.00	433.00	429.00	423.00	418.00	428.00	431.00	420.00	413.00	424.00	426.00	442.00	442.00	421.00	409.00	401.00	397.00	378.00	368.00	361.00	361.00	356.00	338.00	341.00	343.00	342.00	340.00	342.00	346.00	347.00	340.00	333.00	333.00	322.00	317.00	323.00	325.00	327.00	326.00	329.00	328.00	330.00	329.00	328.00	326.00	327.00	329.00	331.00	330.00	316.00	313.00	323.00	330.00	329.00	327.00	346.00	362.00	369.00	392.00	399.00	408.00	420.00	445.00	451.00	453.00	459.00	461.00	462.00	464.00	444.00	435.00	420.00	422.00	419.00	412.00	405.00	412.00	423.00	427.00	439.00	457.00	454.00	451.00	445.00	429.00	424.00	422.00	436.00	445.00	462.00	465.00	466.00	470.00	465.00	454.00	441.00	429.00	416.00	418.00	421.00	425.00	418.00	398.00	393.00	383.00	376.00	374.00	367.00	358.00	355.00	358.00	366.00	373.00	382.00	384.00	378.00	387.00	393.00	396.00	400.00	397.00	400.00	397.00	397.00	408.00	424.00	425.00	423.00	422.00	416.00	420.00	429.00	462.00	477.00	515.00	526.00	530.00	529.00	522.00	519.00	513.00	506.00	496.00	480.00	471.00	461.00	452.00	439.00	446.00	466.00	493.00	512.00	528.00	543.00	547.00	545.00	549.00	541.00	533.00	521.00	504.00	467.00	448.00	399.00	390.00	389.00	386.00	381.00	378.00	374.00	360.00	362.00	365.00	365.00	359.00	363.00	369.00	375.00	380.00	377.00	377.00	380.00	386.00	394.00	405.00	403.00	400.00	398.00	393.00	391.00	392.00	391.00	395.00	390.00	376.00	362.00	358.00	347.00
765.00	854.00	887.00	841.00	809.00	779.00	757.00	743.00	700.00	677.00	647.00	635.00	629.00	624.00	614.00	602.00	584.00	563.00	572.00	586.00	602.00	668.00	693.00	712.00	716.00	697.00	643.00	639.00	631.00	624.00	629.00	636.00	643.00	643.00	640.00	635.00	633.00	632.00	630.00	623.00	617.00	613.00	607.00	594.00	586.00	588.00	579.00	567.00	559.00	539.00	513.00	494.00	484.00	463.00	455.00	449.00	448.00	440.00	435.00	432.00	426.00	423.00	428.00	435.00	426.00	417.00	432.00	443.00	453.00	461.00	463.00	462.00	458.00	454.00	449.00	417.00	400.00	383.00	372.00	365.00	352.00	352.00	354.00	353.00	348.00	346.00	345.00	341.00	341.00	350.00	352.00	342.00	335.00	336.00	314.00	329.00	329.00	328.00	323.00	326.00	329.00	331.00	328.00	326.00	332.00	334.00	326.00	322.00	319.00	322.00	326.00	322.00	322.00	333.00	346.00	360.00	388.00	394.00	405.00	413.00	437.00	440.00	443.00	451.00	481.00	490.00	500.00	493.00	490.00	448.00	414.00	397.00	402.00	409.00	412.00	415.00	422.00	424.00	433.00	431.00	433.00	442.00	434.00	437.00	442.00	455.00	469.00	458.00	473.00	476.00	481.00	486.00	484.00	478.00	475.00	474.00	470.00	474.00	477.00	470.00	454.00	447.00	435.00	417.00	410.00	393.00	389.00	391.00	394.00	406.00	415.00	427.00	431.00	429.00	428.00	432.00	440.00	446.00	441.00	440.00	436.00	432.00	438.00	455.00	471.00	490.00	496.00	466.00	457.00	467.00	504.00	521.00	534.00	536.00	530.00	521.00	521.00	520.00	524.00	518.00	498.00	499.00	497.00	490.00	483.00	465.00	466.00	474.00	486.00	500.00	514.00	515.00	519.00	524.00	542.00	548.00	552.00	551.00	542.00	510.00	486.00	443.00	425.00	394.00	387.00	382.00	379.00	376.00	371.00	373.00	373.00	369.00	363.00	363.00	365.00	369.00	370.00	373.00	377.00	377.00	376.00	388.00	393.00	394.00	396.00	399.00	404.00	398.00	397.00	399.00	399.00	392.00	382.00	368.00	366.00	354.00
765.00	854.00	887.00	841.00	809.00	779.00	757.00	743.00	700.00	677.00	647.00	635.00	629.00	624.00	614.00	602.00	584.00	563.00	572.00	586.00	602.00	668.00	693.00	712.00	716.00	697.00	643.00	639.00	631.00	624.00	629.00	636.00	643.00	643.00	640.00	635.00	633.00	632.00	630.00	623.00	617.00	613.00	607.00	594.00	586.00	588.00	579.00	567.00	559.00	539.00	513.00	494.00	484.00	463.00	455.00	449.00	448.00	440.00	435.00	432.00	426.00	423.00	428.00	435.00	426.00	417.00	432.00	443.00	453.00	461.00	463.00	462.00	458.00	454.00	449.00	417.00	400.00	383.00	372.00	365.00	352.00	352.00	354.00	353.00	348.00	346.00	345.00	341.00	341.00	350.00	352.00	342.00	335.00	336.00	314.00	329.00	329.00	328.00	323.00	326.00	329.00	331.00	328.00	326.00	332.00	334.00	326.00	322.00	319.00	322.00	326.00	322.00	322.00	333.00	346.00	360.00	388.00	394.00	405.00	413.00	437.00	440.00	443.00	451.00	481.00	490.00	500.00	493.00	490.00	448.00	414.00	397.00	402.00	409.00	412.00	415.00	422.00	424.00	433.00	431.00	433.00	442.00	434.00	437.00	442.00	455.00	469.00	458.00	473.00	476.00	481.00	486.00	484.00	478.00	475.00	474.00	470.00	474.00	477.00	470.00	454.00	447.00	435.00	417.00	410.00	393.00	389.00	391.00	394.00	406.00	415.00	427.00	431.00	429.00	428.00	432.00	440.00	446.00	441.00	440.00	436.00	432.00	438.00	455.00	471.00	490.00	496.00	466.00	457.00	467.00	504.00	521.00	534.00	536.00	530.00	521.00	521.00	520.00	524.00	518.00	498.00	499.00	497.00	490.00	483.00	465.00	466.00	474.00	486.00	500.00	514.00	515.00	519.00	524.00	542.00	548.00	552.00	551.00	542.00	510.00	486.00	443.00	425.00	394.00	387.00	382.00	379.00	376.00	371.00	373.00	373.00	369.00	363.00	363.00	365.00	369.00	370.00	373.00	377.00	377.00	376.00	388.00	393.00	394.00	396.00	399.00	404.00	398.00	397.00	399.00	399.00	392.00	382.00	368.00	366.00	354.00
828.00	941.00	930.00	839.00	807.00	779.00	755.00	727.00	678.00	664.00	665.00	672.00	650.00	634.00	614.00	602.00	581.00	588.00	616.00	649.00	677.00	676.00	694.00	719.00	735.00	737.00	704.00	696.00	697.00	699.00	672.00	671.00	679.00	679.00	677.00	668.00	661.00	655.00	650.00	641.00	637.00	631.00	627.00	615.00	609.00	617.00	605.00	568.00	510.00	497.00	492.00	489.00	481.00	466.00	462.00	455.00	450.00	436.00	443.00	452.00	450.00	450.00	463.00	464.00	441.00	436.00	454.00	460.00	466.00	477.00	487.00	492.00	497.00	491.00	480.00	443.00	431.00	412.00	393.00	380.00	368.00	361.00	353.00	348.00	349.00	348.00	350.00	346.00	341.00	340.00	334.00	336.00	333.00	337.00	339.00	318.00	313.00	319.00	328.00	328.00	330.00	330.00	323.00	327.00	329.00	329.00	325.00	322.00	319.00	322.00	323.00	329.00	328.00	328.00	337.00	353.00	379.00	380.00	388.00	400.00	423.00	424.00	427.00	447.00	479.00	497.00	509.00	527.00	540.00	508.00	477.00	455.00	444.00	423.00	410.00	410.00	419.00	431.00	424.00	423.00	433.00	438.00	433.00	435.00	431.00	429.00	442.00	435.00	449.00	462.00	474.00	481.00	485.00	495.00	501.00	490.00	471.00	474.00	475.00	464.00	463.00	468.00	482.00	479.00	468.00	471.00	465.00	464.00	460.00	460.00	463.00	465.00	468.00	475.00	492.00	499.00	502.00	504.00	493.00	482.00	482.00	482.00	490.00	504.00	521.00	536.00	540.00	526.00	519.00	523.00	544.00	549.00	544.00	539.00	530.00	520.00	507.00	511.00	524.00	526.00	498.00	496.00	505.00	513.00	516.00	499.00	498.00	492.00	485.00	487.00	507.00	512.00	522.00	530.00	528.00	529.00	527.00	527.00	526.00	521.00	511.00	466.00	440.00	398.00	393.00	392.00	389.00	379.00	371.00	373.00	374.00	373.00	364.00	362.00	361.00	368.00	374.00	379.00	377.00	380.00	386.00	391.00	389.00	388.00	391.00	394.00	399.00	398.00	400.00	403.00	402.00	398.00	393.00	391.00	391.00	376.00
828.00	941.00	930.00	839.00	807.00	779.00	755.00	727.00	678.00	664.00	665.00	672.00	650.00	634.00	614.00	602.00	581.00	588.00	616.00	649.00	677.00	676.00	694.00	719.00	735.00	737.00	704.00	696.00	697.00	699.00	672.00	671.00	679.00	679.00	677.00	668.00	661.00	655.00	650.00	641.00	637.00	631.00	627.00	615.00	609.00	617.00	605.00	568.00	510.00	497.00	492.00	489.00	481.00	466.00	462.00	455.00	450.00	436.00	443.00	452.00	450.00	450.00	463.00	464.00	441.00	436.00	454.00	460.00	466.00	477.00	487.00	492.00	497.00	491.00	480.00	443.00	431.00	412.00	393.00	380.00	368.00	361.00	353.00	348.00	349.00	348.00	350.00	346.00	341.00	340.00	334.00	336.00	333.00	337.00	339.00	318.00	313.00	319.00	328.00	328.00	330.00	330.00	323.00	327.00	329.00	329.00	325.00	322.00	319.00	322.00	323.00	329.00	328.00	328.00	337.00	353.00	379.00	380.00	388.00	400.00	423.00	424.00	427.00	447.00	479.00	497.00	509.00	527.00	540.00	508.00	477.00	455.00	444.00	423.00	410.00	410.00	419.00	431.00	424.00	423.00	433.00	438.00	433.00	435.00	431.00	429.00	442.00	435.00	449.00	462.00	474.00	481.00	485.00	495.00	501.00	490.00	471.00	474.00	475.00	464.00	463.00	468.00	482.00	479.00	468.00	471.00	465.00	464.00	460.00	460.00	463.00	465.00	468.00	475.00	492.00	499.00	502.00	504.00	493.00	482.00	482.00	482.00	490.00	504.00	521.00	536.00	540.00	526.00	519.00	523.00	544.00	549.00	544.00	539.00	530.00	520.00	507.00	511.00	524.00	526.00	498.00	496.00	505.00	513.00	516.00	499.00	498.00	492.00	485.00	487.00	507.00	512.00	522.00	530.00	528.00	529.00	527.00	527.00	526.00	521.00	511.00	466.00	440.00	398.00	393.00	392.00	389.00	379.00	371.00	373.00	374.00	373.00	364.00	362.00	361.00	368.00	374.00	379.00	377.00	380.00	386.00	391.00	389.00	388.00	391.00	394.00	399.00	398.00	400.00	403.00	402.00	398.00	393.00	391.00	391.00	376.00
890.00	924.00	876.00	805.00	781.00	759.00	738.00	719.00	711.00	723.00	738.00	734.00	667.00	647.00	624.00	605.00	588.00	635.00	666.00	690.00	719.00	740.00	754.00	773.00	796.00	813.00	795.00	783.00	770.00	768.00	742.00	728.00	731.00	729.00	724.00	709.00	699.00	690.00	681.00	662.00	653.00	647.00	641.00	632.00	619.00	601.00	580.00	547.00	540.00	562.00	571.00	560.00	544.00	523.00	506.00	483.00	464.00	467.00	476.00	476.00	475.00	484.00	488.00	484.00	458.00	452.00	489.00	497.00	502.00	512.00	518.00	517.00	513.00	501.00	490.00	463.00	451.00	436.00	416.00	396.00	379.00	371.00	359.00	351.00	351.00	350.00	350.00	346.00	342.00	343.00	338.00	337.00	338.00	339.00	339.00	342.00	330.00	311.00	313.00	319.00	325.00	327.00	325.00	327.00	320.00	314.00	323.00	319.00	317.00	320.00	318.00	328.00	327.00	325.00	331.00	344.00	366.00	374.00	383.00	396.00	410.00	416.00	423.00	436.00	472.00	492.00	499.00	521.00	527.00	529.00	515.00	499.00	488.00	466.00	446.00	436.00	434.00	433.00	459.00	481.00	490.00	484.00	455.00	452.00	450.00	452.00	455.00	442.00	445.00	446.00	444.00	455.00	455.00	457.00	460.00	464.00	455.00	453.00	459.00	458.00	464.00	455.00	458.00	469.00	474.00	478.00	471.00	472.00	480.00	490.00	490.00	490.00	491.00	497.00	511.00	506.00	507.00	514.00	532.00	521.00	519.00	521.00	527.00	532.00	542.00	546.00	545.00	547.00	544.00	542.00	539.00	540.00	537.00	530.00	521.00	513.00	497.00	486.00	490.00	500.00	499.00	509.00	509.00	512.00	515.00	520.00	519.00	507.00	497.00	496.00	507.00	517.00	525.00	520.00	526.00	527.00	528.00	527.00	523.00	524.00	527.00	492.00	464.00	418.00	409.00	399.00	390.00	383.00	378.00	378.00	379.00	380.00	372.00	371.00	372.00	373.00	376.00	380.00	378.00	379.00	383.00	391.00	383.00	384.00	385.00	388.00	390.00	388.00	391.00	393.00	392.00	395.00	400.00	407.00	406.00	400.00
890.00	924.00	876.00	805.00	781.00	759.00	738.00	719.00	711.00	723.00	738.00	734.00	667.00	647.00	624.00	605.00	588.00	635.00	666.00	690.00	719.00	740.00	754.00	773.00	796.00	813.00	795.00	783.00	770.00	768.00	742.00	728.00	731.00	729.00	724.00	709.00	699.00	690.00	681.00	662.00	653.00	647.00	641.00	632.00	619.00	601.00	580.00	547.00	540.00	562.00	571.00	560.00	544.00	523.00	506.00	483.00	464.00	467.00	476.00	476.00	475.00	484.00	488.00	484.00	458.00	452.00	489.00	497.00	502.00	512.00	518.00	517.00	513.00	501.00	490.00	463.00	451.00	436.00	416.00	396.00	379.00	371.00	359.00	351.00	351.00	350.00	350.00	346.00	342.00	343.00	338.00	337.00	338.00	339.00	339.00	342.00	330.00	311.00	313.00	319.00	325.00	327.00	325.00	327.00	320.00	314.00	323.00	319.00	317.00	320.00	318.00	328.00	327.00	325.00	331.00	344.00	366.00	374.00	383.00	396.00	410.00	416.00	423.00	436.00	472.00	492.00	499.00	521.00	527.00	529.00	515.00	499.00	488.00	466.00	446.00	436.00	434.00	433.00	459.00	481.00	490.00	484.00	455.00	452.00	450.00	452.00	455.00	442.00	445.00	446.00	444.00	455.00	455.00	457.00	460.00	464.00	455.00	453.00	459.00	458.00	464.00	455.00	458.00	469.00	474.00	478.00	471.00	472.00	480.00	490.00	490.00	490.00	491.00	497.00	511.00	506.00	507.00	514.00	532.00	521.00	519.00	521.00	527.00	532.00	542.00	546.00	545.00	547.00	544.00	542.00	539.00	540.00	537.00	530.00	521.00	513.00	497.00	486.00	490.00	500.00	499.00	509.00	509.00	512.00	515.00	520.00	519.00	507.00	497.00	496.00	507.00	517.00	525.00	520.00	526.00	527.00	528.00	527.00	523.00	524.00	527.00	492.00	464.00	418.00	409.00	399.00	390.00	383.00	378.00	378.00	379.00	380.00	372.00	371.00	372.00	373.00	376.00	380.00	378.00	379.00	383.00	391.00	383.00	384.00	385.00	388.00	390.00	388.00	391.00	393.00	392.00	395.00	400.00	407.00	406.00	400.00
980.00	947.00	921.00	844.00	807.00	779.00	772.00	786.00	836.00	820.00	786.00	755.00	675.00	654.00	634.00	616.00	601.00	659.00	689.00	711.00	734.00	811.00	846.00	878.00	911.00	943.00	924.00	899.00	870.00	849.00	816.00	812.00	797.00	787.00	775.00	747.00	730.00	713.00	698.00	666.00	650.00	638.00	630.00	654.00	641.00	602.00	551.00	531.00	605.00	641.00	639.00	615.00	590.00	514.00	500.00	486.00	482.00	500.00	501.00	499.00	493.00	492.00	501.00	500.00	471.00	498.00	535.00	554.00	578.00	581.00	571.00	532.00	517.00	499.00	487.00	468.00	455.00	434.00	421.00	414.00	394.00	385.00	374.00	367.00	353.00	349.00	351.00	352.00	351.00	347.00	345.00	347.00	344.00	341.00	335.00	340.00	337.00	336.00	332.00	323.00	314.00	308.00	317.00	322.00	322.00	319.00	326.00	318.00	316.00	316.00	317.00	316.00	324.00	327.00	327.00	337.00	363.00	365.00	363.00	371.00	388.00	393.00	395.00	405.00	442.00	453.00	464.00	479.00	488.00	512.00	521.00	525.00	521.00	503.00	485.00	470.00	470.00	473.00	501.00	529.00	542.00	541.00	506.00	490.00	484.00	476.00	466.00	451.00	446.00	442.00	442.00	450.00	447.00	440.00	443.00	446.00	425.00	419.00	430.00	436.00	448.00	453.00	458.00	462.00	458.00	473.00	475.00	479.00	491.00	502.00	503.00	491.00	480.00	477.00	503.00	508.00	501.00	491.00	510.00	536.00	539.00	532.00	528.00	536.00	541.00	537.00	534.00	536.00	537.00	535.00	529.00	525.00	521.00	518.00	517.00	512.00	502.00	499.00	506.00	506.00	504.00	532.00	537.00	538.00	538.00	547.00	542.00	529.00	525.00	526.00	519.00	521.00	514.00	506.00	516.00	519.00	521.00	525.00	527.00	522.00	515.00	489.00	479.00	436.00	420.00	407.00	401.00	401.00	408.00	406.00	404.00	398.00	369.00	366.00	367.00	368.00	361.00	372.00	375.00	371.00	367.00	370.00	372.00	376.00	378.00	379.00	373.00	374.00	383.00	387.00	392.00	393.00	391.00	389.00	390.00	389.00
980.00	947.00	921.00	844.00	807.00	779.00	772.00	786.00	836.00	820.00	786.00	755.00	675.00	654.00	634.00	616.00	601.00	659.00	689.00	711.00	734.00	811.00	846.00	878.00	911.00	943.00	924.00	899.00	870.00	849.00	816.00	812.00	797.00	787.00	775.00	747.00	730.00	713.00	698.00	666.00	650.00	638.00	630.00	654.00	641.00	602.00	551.00	531.00	605.00	641.00	639.00	615.00	590.00	514.00	500.00	486.00	482.00	500.00	501.00	499.00	493.00	492.00	501.00	500.00	471.00	498.00	535.00	554.00	578.00	581.00	571.00	532.00	517.00	499.00	487.00	468.00	455.00	434.00	421.00	414.00	394.00	385.00	374.00	367.00	353.00	349.00	351.00	352.00	351.00	347.00	345.00	347.00	344.00	341.00	335.00	340.00	337.00	336.00	332.00	323.00	314.00	308.00	317.00	322.00	322.00	319.00	326.00	318.00	316.00	316.00	317.00	316.00	324.00	327.00	327.00	337.00	363.00	365.00	363.00	371.00	388.00	393.00	395.00	405.00	442.00	453.00	464.00	479.00	488.00	512.00	521.00	525.00	521.00	503.00	485.00	470.00	470.00	473.00	501.00	529.00	542.00	541.00	506.00	490.00	484.00	476.00	466.00	451.00	446.00	442.00	442.00	450.00	447.00	440.00	443.00	446.00	425.00	419.00	430.00	436.00	448.00	453.00	458.00	462.00	458.00	473.00	475.00	479.00	491.00	502.00	503.00	491.00	480.00	477.00	503.00	508.00	501.00	491.00	510.00	536.00	539.00	532.00	528.00	536.00	541.00	537.00	534.00	536.00	537.00	535.00	529.00	525.00	521.00	518.00	517.00	512.00	502.00	499.00	506.00	506.00	504.00	532.00	537.00	538.00	538.00	547.00	542.00	529.00	525.00	526.00	519.00	521.00	514.00	506.00	516.00	519.00	521.00	525.00	527.00	522.00	515.00	489.00	479.00	436.00	420.00	407.00	401.00	401.00	408.00	406.00	404.00	398.00	369.00	366.00	367.00	368.00	361.00	372.00	375.00	371.00	367.00	370.00	372.00	376.00	378.00	379.00	373.00	374.00	383.00	387.00	392.00	393.00	391.00	389.00	390.00	389.00
985.00	998.00	975.00	880.00	857.00	862.00	886.00	915.00	895.00	853.00	819.00	786.00	705.00	679.00	656.00	638.00	620.00	645.00	668.00	689.00	717.00	839.00	897.00	966.00	1023.00	1057.00	1101.00	1086.00	1047.00	1018.00	945.00	916.00	878.00	850.00	820.00	777.00	759.00	738.00	713.00	668.00	646.00	629.00	617.00	608.00	589.00	560.00	552.00	583.00	643.00	657.00	648.00	614.00	581.00	540.00	533.00	520.00	519.00	528.00	520.00	512.00	505.00	500.00	493.00	487.00	510.00	538.00	567.00	572.00	575.00	574.00	569.00	536.00	521.00	511.00	505.00	501.00	487.00	466.00	454.00	445.00	419.00	410.00	397.00	388.00	359.00	346.00	343.00	347.00	352.00	363.00	362.00	356.00	347.00	334.00	332.00	335.00	330.00	327.00	330.00	333.00	335.00	331.00	315.00	312.00	311.00	310.00	306.00	316.00	317.00	320.00	320.00	314.00	321.00	320.00	323.00	333.00	365.00	364.00	361.00	364.00	371.00	374.00	380.00	387.00	401.00	416.00	430.00	459.00	479.00	509.00	523.00	536.00	544.00	556.00	539.00	514.00	514.00	512.00	503.00	514.00	527.00	545.00	552.00	546.00	540.00	522.00	507.00	484.00	487.00	483.00	471.00	454.00	449.00	443.00	443.00	438.00	428.00	422.00	417.00	418.00	412.00	418.00	431.00	431.00	428.00	444.00	461.00	471.00	477.00	464.00	461.00	460.00	466.00	467.00	489.00	488.00	481.00	477.00	486.00	502.00	509.00	508.00	507.00	524.00	525.00	528.00	529.00	551.00	547.00	541.00	535.00	526.00	513.00	506.00	501.00	500.00	510.00	514.00	507.00	501.00	512.00	535.00	540.00	543.00	543.00	551.00	552.00	555.00	556.00	558.00	559.00	552.00	541.00	533.00	530.00	526.00	525.00	529.00	533.00	526.00	517.00	485.00	465.00	426.00	417.00	409.00	403.00	399.00	395.00	389.00	387.00	377.00	359.00	356.00	360.00	360.00	355.00	355.00	360.00	364.00	361.00	353.00	355.00	361.00	365.00	365.00	366.00	361.00	360.00	365.00	368.00	365.00	369.00	385.00	387.00	382.00
985.00	998.00	975.00	880.00	857.00	862.00	886.00	915.00	895.00	853.00	819.00	786.00	705.00	679.00	656.00	638.00	620.00	645.00	668.00	689.00	717.00	839.00	897.00	966.00	1023.00	1057.00	1101.00	1086.00	1047.00	1018.00	945.00	916.00	878.00	850.00	820.00	777.00	759.00	738.00	713.00	668.00	646.00	629.00	617.00	608.00	589.00	560.00	552.00	583.00	643.00	657.00	648.00	614.00	581.00	540.00	533.00	520.00	519.00	528.00	520.00	512.00	505.00	500.00	493.00	487.00	510.00	538.00	567.00	572.00	575.00	574.00	569.00	536.00	521.00	511.00	505.00	501.00	487.00	466.00	454.00	445.00	419.00	410.00	397.00	388.00	359.00	346.00	343.00	347.00	352.00	363.00	362.00	356.00	347.00	334.00	332.00	335.00	330.00	327.00	330.00	333.00	335.00	331.00	315.00	312.00	311.00	310.00	306.00	316.00	317.00	320.00	320.00	314.00	321.00	320.00	323.00	333.00	365.00	364.00	361.00	364.00	371.00	374.00	380.00	387.00	401.00	416.00	430.00	459.00	479.00	509.00	523.00	536.00	544.00	556.00	539.00	514.00	514.00	512.00	503.00	514.00	527.00	545.00	552.00	546.00	540.00	522.00	507.00	484.00	487.00	483.00	471.00	454.00	449.00	443.00	443.00	438.00	428.00	422.00	417.00	418.00	412.00	418.00	431.00	431.00	428.00	444.00	461.00	471.00	477.00	464.00	461.00	460.00	466.00	467.00	489.00	488.00	481.00	477.00	486.00	502.00	509.00	508.00	507.00	524.00	525.00	528.00	529.00	551.00	547.00	541.00	535.00	526.00	513.00	506.00	501.00	500.00	510.00	514.00	507.00	501.00	512.00	535.00	540.00	543.00	543.00	551.00	552.00	555.00	556.00	558.00	559.00	552.00	541.00	533.00	530.00	526.00	525.00	529.00	533.00	526.00	517.00	485.00	465.00	426.00	417.00	409.00	403.00	399.00	395.00	389.00	387.00	377.00	359.00	356.00	360.00	360.00	355.00	355.00	360.00	364.00	361.00	353.00	355.00	361.00	365.00	365.00	366.00	361.00	360.00	365.00	368.00	365.00	369.00	385.00	387.00	382.00
946.00	994.00	987.00	965.00	971.00	982.00	990.00	993.00	965.00	942.00	897.00	837.00	725.00	702.00	681.00	662.00	641.00	649.00	675.00	707.00	740.00	862.00	923.00	984.00	1027.00	1063.00	1168.00	1184.00	1183.00	1179.00	1128.00	1097.00	1044.00	991.00	932.00	837.00	795.00	763.00	738.00	701.00	685.00	675.00	677.00	652.00	618.00	584.00	578.00	620.00	685.00	674.00	658.00	641.00	626.00	578.00	563.00	560.00	567.00	556.00	554.00	556.00	552.00	541.00	523.00	521.00	535.00	544.00	542.00	537.00	539.00	540.00	536.00	527.00	521.00	515.00	508.00	490.00	479.00	466.00	459.00	455.00	437.00	424.00	406.00	392.00	374.00	360.00	354.00	360.00	368.00	367.00	366.00	363.00	356.00	346.00	340.00	334.00	333.00	329.00	329.00	333.00	333.00	328.00	328.00	328.00	323.00	316.00	319.00	304.00	313.00	319.00	317.00	310.00	316.00	321.00	325.00	328.00	367.00	375.00	379.00	381.00	381.00	380.00	385.00	392.00	396.00	396.00	402.00	442.00	465.00	491.00	515.00	530.00	544.00	581.00	575.00	558.00	547.00	531.00	529.00	528.00	533.00	543.00	572.00	579.00	577.00	568.00	561.00	541.00	536.00	519.00	502.00	463.00	454.00	447.00	443.00	440.00	438.00	430.00	420.00	426.00	415.00	411.00	408.00	410.00	412.00	412.00	432.00	443.00	453.00	455.00	444.00	445.00	460.00	467.00	476.00	466.00	465.00	471.00	476.00	489.00	490.00	489.00	490.00	505.00	511.00	516.00	515.00	529.00	532.00	533.00	535.00	528.00	512.00	517.00	516.00	515.00	504.00	502.00	495.00	503.00	519.00	535.00	544.00	551.00	554.00	562.00	565.00	565.00	574.00	582.00	589.00	585.00	580.00	575.00	563.00	557.00	546.00	537.00	527.00	508.00	498.00	457.00	441.00	408.00	402.00	397.00	389.00	383.00	376.00	375.00	368.00	363.00	355.00	351.00	348.00	349.00	347.00	344.00	348.00	353.00	353.00	341.00	343.00	353.00	357.00	358.00	355.00	349.00	344.00	347.00	350.00	347.00	346.00	355.00	353.00	351.00
946.00	994.00	987.00	965.00	971.00	982.00	990.00	993.00	965.00	942.00	897.00	837.00	725.00	702.00	681.00	662.00	641.00	649.00	675.00	707.00	740.00	862.00	923.00	984.00	1027.00	1063.00	1168.00	1184.00	1183.00	1179.00	1128.00	1097.00	1044.00	991.00	932.00	837.00	795.00	763.00	738.00	701.00	685.00	675.00	677.00	652.00	618.00	584.00	578.00	620.00	685.00	674.00	658.00	641.00	626.00	578.00	563.00	560.00	567.00	556.00	554.00	556.00	552.00	541.00	523.00	521.00	535.00	544.00	542.00	537.00	539.00	540.00	536.00	527.00	521.00	515.00	508.00	490.00	479.00	466.00	459.00	455.00	437.00	424.00	406.00	392.00	374.00	360.00	354.00	360.00	368.00	367.00	366.00	363.00	356.00	346.00	340.00	334.00	333.00	329.00	329.00	333.00	333.00	328.00	328.00	328.00	323.00	316.00	319.00	304.00	313.00	319.00	317.00	310.00	316.00	321.00	325.00	328.00	367.00	375.00	379.00	381.00	381.00	380.00	385.00	392.00	396.00	396.00	402.00	442.00	465.00	491.00	515.00	530.00	544.00	581.00	575.00	558.00	547.00	531.00	529.00	528.00	533.00	543.00	572.00	579.00	577.00	568.00	561.00	541.00	536.00	519.00	502.00	463.00	454.00	447.00	443.00	440.00	438.00	430.00	420.00	426.00	415.00	411.00	408.00	410.00	412.00	412.00	432.00	443.00	453.00	455.00	444.00	445.00	460.00	467.00	476.00	466.00	465.00	471.00	476.00	489.00	490.00	489.00	490.00	505.00	511.00	516.00	515.00	529.00	532.00	533.00	535.00	528.00	512.00	517.00	516.00	515.00	504.00	502.00	495.00	503.00	519.00	535.00	544.00	551.00	554.00	562.00	565.00	565.00	574.00	582.00	589.00	585.00	580.00	575.00	563.00	557.00	546.00	537.00	527.00	508.00	498.00	457.00	441.00	408.00	402.00	397.00	389.00	383.00	376.00	375.00	368.00	363.00	355.00	351.00	348.00	349.00	347.00	344.00	348.00	353.00	353.00	341.00	343.00	353.00	357.00	358.00	355.00	349.00	344.00	347.00	350.00	347.00	346.00	355.00	353.00	351.00
901.00	981.00	992.00	1006.00	1012.00	1016.00	1015.00	1011.00	996.00	986.00	965.00	926.00	785.00	757.00	724.00	687.00	659.00	646.00	660.00	687.00	720.00	804.00	838.00	883.00	943.00	1007.00	1129.00	1166.00	1176.00	1183.00	1171.00	1151.00	1122.00	1102.00	1065.00	936.00	884.00	868.00	865.00	852.00	814.00	778.00	757.00	692.00	639.00	604.00	581.00	610.00	693.00	714.00	726.00	718.00	700.00	652.00	639.00	622.00	608.00	607.00	618.00	616.00	597.00	573.00	560.00	564.00	547.00	532.00	510.00	499.00	489.00	486.00	486.00	488.00	486.00	486.00	484.00	460.00	451.00	441.00	433.00	425.00	418.00	411.00	402.00	398.00	372.00	360.00	363.00	371.00	373.00	374.00	374.00	371.00	364.00	351.00	348.00	332.00	330.00	332.00	337.00	335.00	335.00	335.00	340.00	337.00	330.00	323.00	324.00	303.00	312.00	318.00	314.00	309.00	313.00	315.00	317.00	323.00	362.00	371.00	379.00	385.00	393.00	396.00	414.00	422.00	412.00	413.00	419.00	446.00	455.00	475.00	501.00	522.00	538.00	570.00	582.00	583.00	578.00	576.00	581.00	568.00	560.00	570.00	614.00	624.00	624.00	622.00	622.00	578.00	551.00	538.00	535.00	514.00	490.00	474.00	459.00	449.00	433.00	421.00	421.00	437.00	428.00	419.00	413.00	415.00	416.00	399.00	403.00	411.00	414.00	426.00	421.00	432.00	448.00	453.00	461.00	450.00	452.00	451.00	462.00	483.00	485.00	484.00	487.00	510.00	517.00	520.00	523.00	520.00	520.00	526.00	535.00	537.00	536.00	536.00	532.00	524.00	511.00	516.00	523.00	529.00	534.00	538.00	542.00	546.00	545.00	563.00	571.00	574.00	575.00	579.00	596.00	601.00	601.00	606.00	586.00	561.00	539.00	523.00	508.00	479.00	465.00	442.00	432.00	407.00	400.00	395.00	387.00	382.00	375.00	374.00	371.00	369.00	359.00	355.00	345.00	336.00	337.00	343.00	338.00	337.00	339.00	345.00	349.00	352.00	351.00	347.00	343.00	343.00	343.00	345.00	349.00	351.00	351.00	348.00	347.00	344.00
901.00	981.00	992.00	1006.00	1012.00	1016.00	1015.00	1011.00	996.00	986.00	965.00	926.00	785.00	757.00	724.00	687.00	659.00	646.00	660.00	687.00	720.00	804.00	838.00	883.00	943.00	1007.00	1129.00	1166.00	1176.00	1183.00	1171.00	1151.00	1122.00	1102.00	1065.00	936.00	884.00	868.00	865.00	852.00	814.00	778.00	757.00	692.00	639.00	604.00	581.00	610.00	693.00	714.00	726.00	718.00	700.00	652.00	639.00	622.00	608.00	607.00	618.00	616.00	597.00	573.00	560.00	564.00	547.00	532.00	510.00	499.00	489.00	486.00	486.00	488.00	486.00	486.00	484.00	460.00	451.00	441.00	433.00	425.00	418.00	411.00	402.00	398.00	372.00	360.00	363.00	371.00	373.00	374.00	374.00	371.00	364.00	351.00	348.00	332.00	330.00	332.00	337.00	335.00	335.00	335.00	340.00	337.00	330.00	323.00	324.00	303.00	312.00	318.00	314.00	309.00	313.00	315.00	317.00	323.00	362.00	371.00	379.00	385.00	393.00	396.00	414.00	422.00	412.00	413.00	419.00	446.00	455.00	475.00	501.00	522.00	538.00	570.00	582.00	583.00	578.00	576.00	581.00	568.00	560.00	570.00	614.00	624.00	624.00	622.00	622.00	578.00	551.00	538.00	535.00	514.00	490.00	474.00	459.00	449.00	433.00	421.00	421.00	437.00	428.00	419.00	413.00	415.00	416.00	399.00	403.00	411.00	414.00	426.00	421.00	432.00	448.00	453.00	461.00	450.00	452.00	451.00	462.00	483.00	485.00	484.00	487.00	510.00	517.00	520.00	523.00	520.00	520.00	526.00	535.00	537.00	536.00	536.00	532.00	524.00	511.00	516.00	523.00	529.00	534.00	538.00	542.00	546.00	545.00	563.00	571.00	574.00	575.00	579.00	596.00	601.00	601.00	606.00	586.00	561.00	539.00	523.00	508.00	479.00	465.00	442.00	432.00	407.00	400.00	395.00	387.00	382.00	375.00	374.00	371.00	369.00	359.00	355.00	345.00	336.00	337.00	343.00	338.00	337.00	339.00	345.00	349.00	352.00	351.00	347.00	343.00	343.00	343.00	345.00	349.00	351.00	351.00	348.00	347.00	344.00
912.00	966.00	980.00	991.00	998.00	1006.00	1013.00	1015.00	1023.00	1023.00	997.00	973.00	859.00	804.00	763.00	724.00	690.00	661.00	676.00	694.00	713.00	786.00	831.00	890.00	954.00	999.00	1087.00	1125.00	1138.00	1147.00	1152.00	1145.00	1103.00	1096.00	1085.00	1007.00	979.00	971.00	951.00	906.00	869.00	826.00	785.00	689.00	618.00	603.00	606.00	636.00	738.00	791.00	833.00	839.00	796.00	700.00	681.00	658.00	636.00	598.00	584.00	570.00	557.00	545.00	530.00	526.00	512.00	505.00	495.00	488.00	482.00	474.00	464.00	454.00	448.00	442.00	437.00	419.00	415.00	414.00	413.00	407.00	396.00	393.00	392.00	390.00	366.00	359.00	362.00	371.00	381.00	399.00	402.00	398.00	390.00	366.00	358.00	348.00	344.00	344.00	327.00	324.00	328.00	333.00	337.00	337.00	334.00	333.00	328.00	311.00	306.00	316.00	315.00	318.00	319.00	319.00	319.00	323.00	362.00	370.00	378.00	388.00	396.00	397.00	404.00	414.00	423.00	431.00	447.00	469.00	473.00	485.00	499.00	521.00	551.00	590.00	603.00	620.00	621.00	614.00	616.00	595.00	578.00	573.00	586.00	598.00	610.00	620.00	624.00	576.00	552.00	531.00	520.00	517.00	516.00	512.00	494.00	466.00	434.00	425.00	418.00	418.00	421.00	418.00	414.00	412.00	407.00	411.00	407.00	400.00	396.00	410.00	412.00	416.00	432.00	446.00	442.00	442.00	444.00	444.00	458.00	471.00	479.00	478.00	480.00	490.00	505.00	515.00	521.00	515.00	517.00	524.00	545.00	553.00	564.00	555.00	538.00	520.00	516.00	522.00	526.00	519.00	529.00	530.00	534.00	539.00	543.00	562.00	577.00	584.00	588.00	601.00	605.00	611.00	613.00	618.00	590.00	560.00	531.00	510.00	494.00	474.00	463.00	454.00	446.00	420.00	413.00	406.00	397.00	388.00	381.00	377.00	371.00	365.00	357.00	355.00	349.00	346.00	348.00	341.00	338.00	336.00	335.00	343.00	345.00	348.00	347.00	340.00	336.00	341.00	343.00	344.00	346.00	357.00	358.00	345.00	348.00	345.00
912.00	966.00	980.00	991.00	998.00	1006.00	1013.00	1015.00	1023.00	1023.00	997.00	973.00	859.00	804.00	763.00	724.00	690.00	661.00	676.00	694.00	713.00	786.00	831.00	890.00	954.00	999.00	1087.00	1125.00	1138.00	1147.00	1152.00	1145.00	1103.00	1096.00	1085.00	1007.00	979.00	971.00	951.00	906.00	869.00	826.00	785.00	689.00	618.00	603.00	606.00	636.00	738.00	791.00	833.00	839.00	796.00	700.00	681.00	658.00	636.00	598.00	584.00	570.00	557.00	545.00	530.00	526.00	512.00	505.00	495.00	488.00	482.00	474.00	464.00	454.00	448.00	442.00	437.00	419.00	415.00	414.00	413.00	407.00	396.00	393.00	392.00	390.00	366.00	359.00	362.00	371.00	381.00	399.00	402.00	398.00	390.00	366.00	358.00	348.00	344.00	344.00	327.00	324.00	328.00	333.00	337.00	337.00	334.00	333.00	328.00	311.00	306.00	316.00	315.00	318.00	319.00	319.00	319.00	323.00	362.00	370.00	378.00	388.00	396.00	397.00	404.00	414.00	423.00	431.00	447.00	469.00	473.00	485.00	499.00	521.00	551.00	590.00	603.00	620.00	621.00	614.00	616.00	595.00	578.00	573.00	586.00	598.00	610.00	620.00	624.00	576.00	552.00	531.00	520.00	517.00	516.00	512.00	494.00	466.00	434.00	425.00	418.00	418.00	421.00	418.00	414.00	412.00	407.00	411.00	407.00	400.00	396.00	410.00	412.00	416.00	432.00	446.00	442.00	442.00	444.00	444.00	458.00	471.00	479.00	478.00	480.00	490.00	505.00	515.00	521.00	515.00	517.00	524.00	545.00	553.00	564.00	555.00	538.00	520.00	516.00	522.00	526.00	519.00	529.00	530.00	534.00	539.00	543.00	562.00	577.00	584.00	588.00	601.00	605.00	611.00	613.00	618.00	590.00	560.00	531.00	510.00	494.00	474.00	463.00	454.00	446.00	420.00	413.00	406.00	397.00	388.00	381.00	377.00	371.00	365.00	357.00	355.00	349.00	346.00	348.00	341.00	338.00	336.00	335.00	343.00	345.00	348.00	347.00	340.00	336.00	341.00	343.00	344.00	346.00	357.00	358.00	345.00	348.00	345.00
962.00	954.00	954.00	965.00	972.00	979.00	989.00	998.00	1008.00	1015.00	1014.00	995.00	903.00	869.00	826.00	772.00	723.00	686.00	698.00	715.00	736.00	822.00	856.00	899.00	938.00	972.00	1063.00	1088.00	1098.00	1111.00	1121.00	1123.00	1096.00	1082.00	1066.00	980.00	928.00	881.00	842.00	788.00	765.00	738.00	709.00	652.00	646.00	666.00	679.00	690.00	767.00	844.00	908.00	884.00	820.00	707.00	678.00	660.00	649.00	607.00	594.00	578.00	563.00	550.00	530.00	519.00	496.00	486.00	482.00	477.00	474.00	470.00	462.00	447.00	439.00	434.00	439.00	432.00	416.00	403.00	396.00	390.00	383.00	379.00	376.00	372.00	366.00	376.00	391.00	402.00	406.00	401.00	398.00	402.00	400.00	367.00	349.00	341.00	335.00	332.00	335.00	340.00	342.00	344.00	332.00	334.00	334.00	334.00	334.00	325.00	318.00	305.00	303.00	297.00	305.00	315.00	322.00	326.00	354.00	362.00	370.00	377.00	382.00	383.00	392.00	407.00	436.00	451.00	465.00	468.00	481.00	542.00	561.00	575.00	598.00	615.00	621.00	625.00	619.00	606.00	589.00	582.00	568.00	551.00	560.00	573.00	582.00	600.00	602.00	548.00	532.00	519.00	510.00	496.00	499.00	502.00	489.00	468.00	445.00	438.00	436.00	434.00	421.00	418.00	419.00	419.00	419.00	427.00	422.00	414.00	408.00	404.00	401.00	403.00	411.00	425.00	436.00	439.00	441.00	444.00	459.00	462.00	471.00	477.00	476.00	489.00	498.00	502.00	510.00	513.00	516.00	524.00	544.00	548.00	539.00	530.00	522.00	518.00	526.00	525.00	513.00	502.00	515.00	506.00	504.00	515.00	531.00	555.00	567.00	571.00	569.00	571.00	579.00	582.00	585.00	603.00	609.00	582.00	550.00	528.00	510.00	491.00	489.00	486.00	480.00	447.00	433.00	424.00	412.00	403.00	386.00	383.00	379.00	372.00	355.00	355.00	351.00	350.00	352.00	347.00	345.00	348.00	349.00	351.00	361.00	361.00	354.00	347.00	334.00	334.00	335.00	334.00	340.00	346.00	345.00	338.00	340.00	342.00
962.00	954.00	954.00	965.00	972.00	979.00	989.00	998.00	1008.00	1015.00	1014.00	995.00	903.00	869.00	826.00	772.00	723.00	686.00	698.00	715.00	736.00	822.00	856.00	899.00	938.00	972.00	1063.00	1088.00	1098.00	1111.00	1121.00	1123.00	1096.00	1082.00	1066.00	980.00	928.00	881.00	842.00	788.00	765.00	738.00	709.00	652.00	646.00	666.00	679.00	690.00	767.00	844.00	908.00	884.00	820.00	707.00	678.00	660.00	649.00	607.00	594.00	578.00	563.00	550.00	530.00	519.00	496.00	486.00	482.00	477.00	474.00	470.00	462.00	447.00	439.00	434.00	439.00	432.00	416.00	403.00	396.00	390.00	383.00	379.00	376.00	372.00	366.00	376.00	391.00	402.00	406.00	401.00	398.00	402.00	400.00	367.00	349.00	341.00	335.00	332.00	335.00	340.00	342.00	344.00	332.00	334.00	334.00	334.00	334.00	325.00	318.00	305.00	303.00	297.00	305.00	315.00	322.00	326.00	354.00	362.00	370.00	377.00	382.00	383.00	392.00	407.00	436.00	451.00	465.00	468.00	481.00	542.00	561.00	575.00	598.00	615.00	621.00	625.00	619.00	606.00	589.00	582.00	568.00	551.00	560.00	573.00	582.00	600.00	602.00	548.00	532.00	519.00	510.00	496.00	499.00	502.00	489.00	468.00	445.00	438.00	436.00	434.00	421.00	418.00	419.00	419.00	419.00	427.00	422.00	414.00	408.00	404.00	401.00	403.00	411.00	425.00	436.00	439.00	441.00	444.00	459.00	462.00	471.00	477.00	476.00	489.00	498.00	502.00	510.00	513.00	516.00	524.00	544.00	548.00	539.00	530.00	522.00	518.00	526.00	525.00	513.00	502.00	515.00	506.00	504.00	515.00	531.00	555.00	567.00	571.00	569.00	571.00	579.00	582.00	585.00	603.00	609.00	582.00	550.00	528.00	510.00	491.00	489.00	486.00	480.00	447.00	433.00	424.00	412.00	403.00	386.00	383.00	379.00	372.00	355.00	355.00	351.00	350.00	352.00	347.00	345.00	348.00	349.00	351.00	361.00	361.00	354.00	347.00	334.00	334.00	335.00	334.00	340.00	346.00	345.00	338.00	340.00	342.00
962.00	954.00	954.00	965.00	972.00	979.00	989.00	998.00	1008.00	1015.00	1014.00	995.00	903.00	869.00	826.00	772.00	723.00	686.00	698.00	715.00	736.00	822.00	856.00	899.00	938.00	972.00	1063.00	1088.00	1098.00	1111.00	1121.00	1123.00	1096.00	1082.00	1066.00	980.00	928.00	881.00	842.00	788.00	765.00	738.00	709.00	652.00	646.00	666.00	679.00	690.00	767.00	844.00	908.00	884.00	820.00	707.00	678.00	660.00	649.00	607.00	594.00	578.00	563.00	550.00	530.00	519.00	496.00	486.00	482.00	477.00	474.00	470.00	462.00	447.00	439.00	434.00	439.00	432.00	416.00	403.00	396.00	390.00	383.00	379.00	376.00	372.00	366.00	376.00	391.00	402.00	406.00	401.00	398.00	402.00	400.00	367.00	349.00	341.00	335.00	332.00	335.00	340.00	342.00	344.00	332.00	334.00	334.00	334.00	334.00	325.00	318.00	305.00	303.00	297.00	305.00	315.00	322.00	326.00	354.00	362.00	370.00	377.00	382.00	383.00	392.00	407.00	436.00	451.00	465.00	468.00	481.00	542.00	561.00	575.00	598.00	615.00	621.00	625.00	619.00	606.00	589.00	582.00	568.00	551.00	560.00	573.00	582.00	600.00	602.00	548.00	532.00	519.00	510.00	496.00	499.00	502.00	489.00	468.00	445.00	438.00	436.00	434.00	421.00	418.00	419.00	419.00	419.00	427.00	422.00	414.00	408.00	404.00	401.00	403.00	411.00	425.00	436.00	439.00	441.00	444.00	459.00	462.00	471.00	477.00	476.00	489.00	498.00	502.00	510.00	513.00	516.00	524.00	544.00	548.00	539.00	530.00	522.00	518.00	526.00	525.00	513.00	502.00	515.00	506.00	504.00	515.00	531.00	555.00	567.00	571.00	569.00	571.00	579.00	582.00	585.00	603.00	609.00	582.00	550.00	528.00	510.00	491.00	489.00	486.00	480.00	447.00	433.00	424.00	412.00	403.00	386.00	383.00	379.00	372.00	355.00	355.00	351.00	350.00	352.00	347.00	345.00	348.00	349.00	351.00	361.00	361.00	354.00	347.00	334.00	334.00	335.00	334.00	340.00	346.00	345.00	338.00	340.00	342.00
975.00	952.00	941.00	923.00	925.00	933.00	948.00	960.00	970.00	966.00	962.00	954.00	905.00	889.00	868.00	840.00	793.00	711.00	714.00	731.00	755.00	840.00	863.00	890.00	922.00	957.00	1040.00	1057.00	1066.00	1084.00	1114.00	1117.00	1115.00	1094.00	1072.00	1009.00	979.00	934.00	871.00	766.00	730.00	706.00	699.00	730.00	781.00	803.00	826.00	843.00	903.00	938.00	939.00	907.00	859.00	744.00	718.00	698.00	685.00	663.00	650.00	624.00	592.00	572.00	535.00	519.00	503.00	498.00	482.00	479.00	476.00	474.00	464.00	470.00	475.00	474.00	487.00	486.00	463.00	438.00	429.00	426.00	410.00	400.00	393.00	388.00	379.00	389.00	395.00	392.00	390.00	388.00	391.00	389.00	384.00	370.00	357.00	337.00	332.00	333.00	338.00	339.00	342.00	349.00	353.00	349.00	335.00	330.00	343.00	331.00	328.00	321.00	321.00	305.00	293.00	292.00	296.00	315.00	336.00	343.00	348.00	357.00	370.00	387.00	402.00	420.00	459.00	482.00	498.00	489.00	499.00	577.00	615.00	638.00	644.00	618.00	638.00	639.00	623.00	602.00	585.00	570.00	555.00	545.00	542.00	547.00	546.00	546.00	539.00	526.00	515.00	508.00	500.00	474.00	467.00	480.00	481.00	471.00	452.00	446.00	447.00	438.00	434.00	431.00	428.00	423.00	420.00	418.00	418.00	419.00	418.00	405.00	405.00	413.00	423.00	425.00	429.00	432.00	437.00	439.00	441.00	457.00	465.00	469.00	471.00	499.00	507.00	511.00	513.00	517.00	519.00	523.00	514.00	509.00	506.00	512.00	508.00	503.00	504.00	506.00	508.00	505.00	510.00	508.00	507.00	501.00	496.00	516.00	531.00	545.00	552.00	560.00	559.00	563.00	576.00	582.00	598.00	607.00	597.00	584.00	577.00	564.00	554.00	527.00	510.00	472.00	455.00	441.00	431.00	419.00	396.00	389.00	379.00	368.00	369.00	371.00	368.00	364.00	358.00	347.00	346.00	346.00	340.00	343.00	357.00	359.00	353.00	346.00	342.00	346.00	346.00	342.00	339.00	345.00	353.00	357.00	360.00	352.00
975.00	952.00	941.00	923.00	925.00	933.00	948.00	960.00	970.00	966.00	962.00	954.00	905.00	889.00	868.00	840.00	793.00	711.00	714.00	731.00	755.00	840.00	863.00	890.00	922.00	957.00	1040.00	1057.00	1066.00	1084.00	1114.00	1117.00	1115.00	1094.00	1072.00	1009.00	979.00	934.00	871.00	766.00	730.00	706.00	699.00	730.00	781.00	803.00	826.00	843.00	903.00	938.00	939.00	907.00	859.00	744.00	718.00	698.00	685.00	663.00	650.00	624.00	592.00	572.00	535.00	519.00	503.00	498.00	482.00	479.00	476.00	474.00	464.00	470.00	475.00	474.00	487.00	486.00	463.00	438.00	429.00	426.00	410.00	400.00	393.00	388.00	379.00	389.00	395.00	392.00	390.00	388.00	391.00	389.00	384.00	370.00	357.00	337.00	332.00	333.00	338.00	339.00	342.00	349.00	353.00	349.00	335.00	330.00	343.00	331.00	328.00	321.00	321.00	305.00	293.00	292.00	296.00	315.00	336.00	343.00	348.00	357.00	370.00	387.00	402.00	420.00	459.00	482.00	498.00	489.00	499.00	577.00	615.00	638.00	644.00	618.00	638.00	639.00	623.00	602.00	585.00	570.00	555.00	545.00	542.00	547.00	546.00	546.00	539.00	526.00	515.00	508.00	500.00	474.00	467.00	480.00	481.00	471.00	452.00	446.00	447.00	438.00	434.00	431.00	428.00	423.00	420.00	418.00	418.00	419.00	418.00	405.00	405.00	413.00	423.00	425.00	429.00	432.00	437.00	439.00	441.00	457.00	465.00	469.00	471.00	499.00	507.00	511.00	513.00	517.00	519.00	523.00	514.00	509.00	506.00	512.00	508.00	503.00	504.00	506.00	508.00	505.00	510.00	508.00	507.00	501.00	496.00	516.00	531.00	545.00	552.00	560.00	559.00	563.00	576.00	582.00	598.00	607.00	597.00	584.00	577.00	564.00	554.00	527.00	510.00	472.00	455.00	441.00	431.00	419.00	396.00	389.00	379.00	368.00	369.00	371.00	368.00	364.00	358.00	347.00	346.00	346.00	340.00	343.00	357.00	359.00	353.00	346.00	342.00	346.00	346.00	342.00	339.00	345.00	353.00	357.00	360.00	352.00
978.00	954.00	940.00	911.00	893.00	875.00	878.00	896.00	919.00	919.00	915.00	908.00	884.00	873.00	858.00	834.00	795.00	730.00	737.00	770.00	812.00	901.00	945.00	970.00	986.00	1006.00	1056.00	1067.00	1063.00	1066.00	1086.00	1098.00	1110.00	1091.00	1057.00	987.00	969.00	933.00	878.00	798.00	757.00	737.00	760.00	852.00	899.00	912.00	932.00	973.00	1025.00	1031.00	1005.00	960.00	919.00	799.00	766.00	739.00	717.00	685.00	670.00	651.00	633.00	613.00	555.00	545.00	537.00	534.00	518.00	510.00	506.00	503.00	497.00	518.00	527.00	526.00	535.00	524.00	497.00	504.00	523.00	519.00	477.00	460.00	453.00	444.00	413.00	415.00	412.00	401.00	390.00	383.00	383.00	379.00	374.00	367.00	361.00	345.00	343.00	348.00	353.00	356.00	362.00	375.00	380.00	366.00	337.00	311.00	308.00	315.00	314.00	313.00	315.00	303.00	293.00	292.00	292.00	312.00	339.00	347.00	351.00	357.00	377.00	395.00	420.00	448.00	504.00	521.00	519.00	508.00	522.00	591.00	613.00	619.00	607.00	555.00	593.00	622.00	631.00	640.00	624.00	597.00	591.00	593.00	555.00	542.00	530.00	522.00	514.00	495.00	490.00	487.00	485.00	469.00	467.00	468.00	466.00	464.00	450.00	447.00	443.00	443.00	434.00	426.00	428.00	432.00	427.00	413.00	415.00	419.00	421.00	410.00	405.00	405.00	407.00	407.00	421.00	435.00	440.00	437.00	437.00	455.00	454.00	460.00	469.00	481.00	493.00	507.00	518.00	526.00	522.00	520.00	509.00	505.00	492.00	503.00	504.00	492.00	481.00	487.00	498.00	507.00	499.00	506.00	505.00	495.00	486.00	473.00	474.00	480.00	482.00	502.00	527.00	536.00	544.00	543.00	573.00	588.00	591.00	587.00	586.00	599.00	611.00	600.00	579.00	509.00	480.00	462.00	450.00	431.00	406.00	391.00	381.00	376.00	369.00	372.00	371.00	365.00	357.00	353.00	358.00	357.00	347.00	344.00	352.00	354.00	351.00	349.00	343.00	344.00	350.00	352.00	357.00	354.00	350.00	340.00	348.00	357.00
978.00	954.00	940.00	911.00	893.00	875.00	878.00	896.00	919.00	919.00	915.00	908.00	884.00	873.00	858.00	834.00	795.00	730.00	737.00	770.00	812.00	901.00	945.00	970.00	986.00	1006.00	1056.00	1067.00	1063.00	1066.00	1086.00	1098.00	1110.00	1091.00	1057.00	987.00	969.00	933.00	878.00	798.00	757.00	737.00	760.00	852.00	899.00	912.00	932.00	973.00	1025.00	1031.00	1005.00	960.00	919.00	799.00	766.00	739.00	717.00	685.00	670.00	651.00	633.00	613.00	555.00	545.00	537.00	534.00	518.00	510.00	506.00	503.00	497.00	518.00	527.00	526.00	535.00	524.00	497.00	504.00	523.00	519.00	477.00	460.00	453.00	444.00	413.00	415.00	412.00	401.00	390.00	383.00	383.00	379.00	374.00	367.00	361.00	345.00	343.00	348.00	353.00	356.00	362.00	375.00	380.00	366.00	337.00	311.00	308.00	315.00	314.00	313.00	315.00	303.00	293.00	292.00	292.00	312.00	339.00	347.00	351.00	357.00	377.00	395.00	420.00	448.00	504.00	521.00	519.00	508.00	522.00	591.00	613.00	619.00	607.00	555.00	593.00	622.00	631.00	640.00	624.00	597.00	591.00	593.00	555.00	542.00	530.00	522.00	514.00	495.00	490.00	487.00	485.00	469.00	467.00	468.00	466.00	464.00	450.00	447.00	443.00	443.00	434.00	426.00	428.00	432.00	427.00	413.00	415.00	419.00	421.00	410.00	405.00	405.00	407.00	407.00	421.00	435.00	440.00	437.00	437.00	455.00	454.00	460.00	469.00	481.00	493.00	507.00	518.00	526.00	522.00	520.00	509.00	505.00	492.00	503.00	504.00	492.00	481.00	487.00	498.00	507.00	499.00	506.00	505.00	495.00	486.00	473.00	474.00	480.00	482.00	502.00	527.00	536.00	544.00	543.00	573.00	588.00	591.00	587.00	586.00	599.00	611.00	600.00	579.00	509.00	480.00	462.00	450.00	431.00	406.00	391.00	381.00	376.00	369.00	372.00	371.00	365.00	357.00	353.00	358.00	357.00	347.00	344.00	352.00	354.00	351.00	349.00	343.00	344.00	350.00	352.00	357.00	354.00	350.00	340.00	348.00	357.00
982.00	956.00	942.00	913.00	897.00	876.00	854.00	837.00	833.00	833.00	829.00	827.00	848.00	842.00	827.00	795.00	766.00	755.00	780.00	813.00	840.00	915.00	955.00	985.00	1005.00	1022.00	1049.00	1046.00	1032.00	1026.00	1026.00	1034.00	1071.00	1045.00	1007.00	956.00	932.00	901.00	870.00	823.00	795.00	787.00	802.00	866.00	911.00	929.00	949.00	990.00	1060.00	1068.00	1064.00	1036.00	984.00	854.00	815.00	780.00	749.00	706.00	692.00	678.00	664.00	651.00	627.00	612.00	571.00	555.00	543.00	545.00	548.00	549.00	549.00	568.00	585.00	588.00	584.00	576.00	557.00	564.00	592.00	594.00	560.00	547.00	530.00	503.00	468.00	462.00	456.00	434.00	409.00	393.00	387.00	381.00	377.00	370.00	367.00	362.00	358.00	359.00	358.00	358.00	361.00	368.00	359.00	347.00	328.00	307.00	297.00	299.00	299.00	298.00	297.00	292.00	292.00	292.00	294.00	308.00	348.00	353.00	357.00	361.00	394.00	423.00	449.00	485.00	499.00	483.00	468.00	504.00	537.00	594.00	601.00	594.00	562.00	513.00	540.00	569.00	598.00	648.00	666.00	655.00	637.00	621.00	577.00	566.00	556.00	539.00	523.00	502.00	499.00	495.00	498.00	502.00	497.00	484.00	474.00	474.00	466.00	465.00	460.00	457.00	435.00	428.00	430.00	429.00	418.00	416.00	413.00	410.00	410.00	408.00	405.00	407.00	406.00	398.00	404.00	412.00	413.00	403.00	414.00	444.00	445.00	450.00	461.00	473.00	480.00	489.00	504.00	517.00	521.00	516.00	507.00	500.00	468.00	485.00	491.00	486.00	470.00	469.00	482.00	494.00	495.00	493.00	488.00	481.00	475.00	477.00	476.00	467.00	470.00	485.00	492.00	501.00	514.00	525.00	544.00	566.00	572.00	573.00	578.00	594.00	604.00	587.00	567.00	518.00	495.00	475.00	459.00	443.00	414.00	401.00	394.00	387.00	376.00	375.00	373.00	369.00	361.00	357.00	359.00	359.00	352.00	349.00	352.00	359.00	362.00	360.00	349.00	349.00	355.00	364.00	373.00	373.00	370.00	351.00	347.00	374.00
982.00	956.00	942.00	913.00	897.00	876.00	854.00	837.00	833.00	833.00	829.00	827.00	848.00	842.00	827.00	795.00	766.00	755.00	780.00	813.00	840.00	915.00	955.00	985.00	1005.00	1022.00	1049.00	1046.00	1032.00	1026.00	1026.00	1034.00	1071.00	1045.00	1007.00	956.00	932.00	901.00	870.00	823.00	795.00	787.00	802.00	866.00	911.00	929.00	949.00	990.00	1060.00	1068.00	1064.00	1036.00	984.00	854.00	815.00	780.00	749.00	706.00	692.00	678.00	664.00	651.00	627.00	612.00	571.00	555.00	543.00	545.00	548.00	549.00	549.00	568.00	585.00	588.00	584.00	576.00	557.00	564.00	592.00	594.00	560.00	547.00	530.00	503.00	468.00	462.00	456.00	434.00	409.00	393.00	387.00	381.00	377.00	370.00	367.00	362.00	358.00	359.00	358.00	358.00	361.00	368.00	359.00	347.00	328.00	307.00	297.00	299.00	299.00	298.00	297.00	292.00	292.00	292.00	294.00	308.00	348.00	353.00	357.00	361.00	394.00	423.00	449.00	485.00	499.00	483.00	468.00	504.00	537.00	594.00	601.00	594.00	562.00	513.00	540.00	569.00	598.00	648.00	666.00	655.00	637.00	621.00	577.00	566.00	556.00	539.00	523.00	502.00	499.00	495.00	498.00	502.00	497.00	484.00	474.00	474.00	466.00	465.00	460.00	457.00	435.00	428.00	430.00	429.00	418.00	416.00	413.00	410.00	410.00	408.00	405.00	407.00	406.00	398.00	404.00	412.00	413.00	403.00	414.00	444.00	445.00	450.00	461.00	473.00	480.00	489.00	504.00	517.00	521.00	516.00	507.00	500.00	468.00	485.00	491.00	486.00	470.00	469.00	482.00	494.00	495.00	493.00	488.00	481.00	475.00	477.00	476.00	467.00	470.00	485.00	492.00	501.00	514.00	525.00	544.00	566.00	572.00	573.00	578.00	594.00	604.00	587.00	567.00	518.00	495.00	475.00	459.00	443.00	414.00	401.00	394.00	387.00	376.00	375.00	373.00	369.00	361.00	357.00	359.00	359.00	352.00	349.00	352.00	359.00	362.00	360.00	349.00	349.00	355.00	364.00	373.00	373.00	370.00	351.00	347.00	374.00
988.00	960.00	946.00	915.00	899.00	874.00	847.00	830.00	800.00	782.00	766.00	757.00	778.00	779.00	771.00	756.00	746.00	760.00	783.00	801.00	816.00	872.00	892.00	908.00	919.00	926.00	943.00	948.00	945.00	942.00	951.00	972.00	1004.00	986.00	960.00	896.00	865.00	845.00	827.00	803.00	797.00	803.00	816.00	842.00	884.00	916.00	944.00	973.00	1062.00	1064.00	1038.00	999.00	955.00	836.00	799.00	765.00	733.00	704.00	695.00	679.00	664.00	659.00	643.00	631.00	603.00	575.00	577.00	597.00	605.00	606.00	612.00	624.00	618.00	613.00	616.00	647.00	636.00	635.00	641.00	626.00	606.00	603.00	589.00	561.00	480.00	468.00	454.00	438.00	423.00	418.00	420.00	410.00	391.00	369.00	365.00	361.00	357.00	357.00	356.00	357.00	358.00	353.00	330.00	318.00	308.00	302.00	299.00	299.00	299.00	296.00	293.00	292.00	292.00	292.00	310.00	326.00	343.00	347.00	354.00	354.00	378.00	402.00	421.00	446.00	453.00	439.00	432.00	510.00	545.00	573.00	560.00	546.00	525.00	498.00	522.00	544.00	566.00	616.00	668.00	667.00	660.00	649.00	615.00	599.00	588.00	578.00	570.00	536.00	538.00	543.00	545.00	533.00	527.00	514.00	500.00	495.00	495.00	500.00	493.00	480.00	458.00	445.00	437.00	428.00	423.00	416.00	414.00	406.00	403.00	399.00	399.00	401.00	399.00	399.00	404.00	408.00	406.00	391.00	401.00	426.00	432.00	440.00	448.00	449.00	455.00	471.00	492.00	479.00	466.00	465.00	489.00	475.00	459.00	474.00	474.00	469.00	474.00	472.00	473.00	486.00	502.00	503.00	493.00	480.00	470.00	481.00	486.00	485.00	487.00	487.00	496.00	503.00	509.00	516.00	522.00	529.00	540.00	547.00	559.00	581.00	578.00	567.00	551.00	515.00	494.00	469.00	454.00	443.00	418.00	408.00	403.00	400.00	392.00	388.00	382.00	374.00	371.00	359.00	362.00	362.00	353.00	354.00	362.00	373.00	373.00	369.00	364.00	358.00	349.00	345.00	351.00	359.00	362.00	353.00	350.00	362.00
988.00	960.00	946.00	915.00	899.00	874.00	847.00	830.00	800.00	782.00	766.00	757.00	778.00	779.00	771.00	756.00	746.00	760.00	783.00	801.00	816.00	872.00	892.00	908.00	919.00	926.00	943.00	948.00	945.00	942.00	951.00	972.00	1004.00	986.00	960.00	896.00	865.00	845.00	827.00	803.00	797.00	803.00	816.00	842.00	884.00	916.00	944.00	973.00	1062.00	1064.00	1038.00	999.00	955.00	836.00	799.00	765.00	733.00	704.00	695.00	679.00	664.00	659.00	643.00	631.00	603.00	575.00	577.00	597.00	605.00	606.00	612.00	624.00	618.00	613.00	616.00	647.00	636.00	635.00	641.00	626.00	606.00	603.00	589.00	561.00	480.00	468.00	454.00	438.00	423.00	418.00	420.00	410.00	391.00	369.00	365.00	361.00	357.00	357.00	356.00	357.00	358.00	353.00	330.00	318.00	308.00	302.00	299.00	299.00	299.00	296.00	293.00	292.00	292.00	292.00	310.00	326.00	343.00	347.00	354.00	354.00	378.00	402.00	421.00	446.00	453.00	439.00	432.00	510.00	545.00	573.00	560.00	546.00	525.00	498.00	522.00	544.00	566.00	616.00	668.00	667.00	660.00	649.00	615.00	599.00	588.00	578.00	570.00	536.00	538.00	543.00	545.00	533.00	527.00	514.00	500.00	495.00	495.00	500.00	493.00	480.00	458.00	445.00	437.00	428.00	423.00	416.00	414.00	406.00	403.00	399.00	399.00	401.00	399.00	399.00	404.00	408.00	406.00	391.00	401.00	426.00	432.00	440.00	448.00	449.00	455.00	471.00	492.00	479.00	466.00	465.00	489.00	475.00	459.00	474.00	474.00	469.00	474.00	472.00	473.00	486.00	502.00	503.00	493.00	480.00	470.00	481.00	486.00	485.00	487.00	487.00	496.00	503.00	509.00	516.00	522.00	529.00	540.00	547.00	559.00	581.00	578.00	567.00	551.00	515.00	494.00	469.00	454.00	443.00	418.00	408.00	403.00	400.00	392.00	388.00	382.00	374.00	371.00	359.00	362.00	362.00	353.00	354.00	362.00	373.00	373.00	369.00	364.00	358.00	349.00	345.00	351.00	359.00	362.00	353.00	350.00	362.00
986.00	948.00	929.00	895.00	879.00	857.00	835.00	819.00	803.00	787.00	769.00	754.00	727.00	722.00	719.00	721.00	725.00	734.00	741.00	751.00	760.00	815.00	835.00	852.00	862.00	867.00	876.00	877.00	864.00	858.00	882.00	894.00	918.00	917.00	898.00	848.00	833.00	819.00	801.00	762.00	756.00	766.00	774.00	772.00	822.00	861.00	908.00	956.00	1026.00	972.00	915.00	872.00	838.00	753.00	724.00	705.00	689.00	663.00	651.00	633.00	620.00	613.00	603.00	594.00	578.00	564.00	575.00	612.00	629.00	631.00	634.00	611.00	590.00	574.00	580.00	615.00	615.00	606.00	599.00	596.00	564.00	547.00	534.00	522.00	462.00	451.00	444.00	440.00	438.00	432.00	421.00	407.00	390.00	368.00	364.00	354.00	348.00	347.00	350.00	352.00	352.00	348.00	322.00	309.00	302.00	300.00	298.00	299.00	294.00	292.00	292.00	292.00	292.00	300.00	324.00	325.00	320.00	329.00	344.00	351.00	369.00	381.00	398.00	409.00	422.00	407.00	417.00	504.00	530.00	544.00	524.00	505.00	481.00	456.00	488.00	521.00	562.00	599.00	644.00	651.00	649.00	642.00	626.00	619.00	619.00	619.00	612.00	582.00	573.00	561.00	549.00	551.00	549.00	542.00	533.00	529.00	525.00	517.00	493.00	487.00	457.00	448.00	440.00	439.00	439.00	431.00	428.00	422.00	415.00	399.00	400.00	400.00	398.00	397.00	397.00	394.00	393.00	393.00	407.00	414.00	417.00	430.00	441.00	437.00	439.00	442.00	446.00	450.00	437.00	433.00	448.00	448.00	449.00	451.00	454.00	453.00	463.00	477.00	483.00	490.00	502.00	490.00	485.00	476.00	463.00	472.00	483.00	493.00	496.00	496.00	502.00	511.00	523.00	530.00	523.00	528.00	539.00	547.00	555.00	566.00	566.00	561.00	551.00	523.00	500.00	481.00	470.00	459.00	428.00	421.00	420.00	414.00	388.00	387.00	383.00	380.00	378.00	372.00	369.00	365.00	362.00	367.00	372.00	372.00	367.00	362.00	367.00	362.00	354.00	348.00	348.00	350.00	351.00	352.00	356.00	363.00
986.00	948.00	929.00	895.00	879.00	857.00	835.00	819.00	803.00	787.00	769.00	754.00	727.00	722.00	719.00	721.00	725.00	734.00	741.00	751.00	760.00	815.00	835.00	852.00	862.00	867.00	876.00	877.00	864.00	858.00	882.00	894.00	918.00	917.00	898.00	848.00	833.00	819.00	801.00	762.00	756.00	766.00	774.00	772.00	822.00	861.00	908.00	956.00	1026.00	972.00	915.00	872.00	838.00	753.00	724.00	705.00	689.00	663.00	651.00	633.00	620.00	613.00	603.00	594.00	578.00	564.00	575.00	612.00	629.00	631.00	634.00	611.00	590.00	574.00	580.00	615.00	615.00	606.00	599.00	596.00	564.00	547.00	534.00	522.00	462.00	451.00	444.00	440.00	438.00	432.00	421.00	407.00	390.00	368.00	364.00	354.00	348.00	347.00	350.00	352.00	352.00	348.00	322.00	309.00	302.00	300.00	298.00	299.00	294.00	292.00	292.00	292.00	292.00	300.00	324.00	325.00	320.00	329.00	344.00	351.00	369.00	381.00	398.00	409.00	422.00	407.00	417.00	504.00	530.00	544.00	524.00	505.00	481.00	456.00	488.00	521.00	562.00	599.00	644.00	651.00	649.00	642.00	626.00	619.00	619.00	619.00	612.00	582.00	573.00	561.00	549.00	551.00	549.00	542.00	533.00	529.00	525.00	517.00	493.00	487.00	457.00	448.00	440.00	439.00	439.00	431.00	428.00	422.00	415.00	399.00	400.00	400.00	398.00	397.00	397.00	394.00	393.00	393.00	407.00	414.00	417.00	430.00	441.00	437.00	439.00	442.00	446.00	450.00	437.00	433.00	448.00	448.00	449.00	451.00	454.00	453.00	463.00	477.00	483.00	490.00	502.00	490.00	485.00	476.00	463.00	472.00	483.00	493.00	496.00	496.00	502.00	511.00	523.00	530.00	523.00	528.00	539.00	547.00	555.00	566.00	566.00	561.00	551.00	523.00	500.00	481.00	470.00	459.00	428.00	421.00	420.00	414.00	388.00	387.00	383.00	380.00	378.00	372.00	369.00	365.00	362.00	367.00	372.00	372.00	367.00	362.00	367.00	362.00	354.00	348.00	348.00	350.00	351.00	352.00	356.00	363.00
998.00	972.00	964.00	940.00	924.00	906.00	890.00	876.00	835.00	814.00	797.00	784.00	749.00	731.00	714.00	701.00	694.00	693.00	698.00	705.00	714.00	769.00	781.00	791.00	803.00	812.00	822.00	814.00	790.00	775.00	797.00	802.00	812.00	810.00	797.00	789.00	787.00	784.00	779.00	743.00	721.00	708.00	704.00	726.00	794.00	835.00	891.00	960.00	1051.00	1000.00	930.00	868.00	819.00	722.00	712.00	708.00	705.00	660.00	636.00	621.00	611.00	601.00	579.00	568.00	550.00	545.00	533.00	535.00	536.00	536.00	540.00	544.00	542.00	536.00	528.00	552.00	548.00	541.00	555.00	571.00	552.00	527.00	501.00	479.00	446.00	437.00	429.00	427.00	432.00	419.00	408.00	393.00	378.00	364.00	364.00	353.00	343.00	339.00	335.00	336.00	336.00	331.00	316.00	311.00	309.00	308.00	300.00	295.00	292.00	292.00	292.00	292.00	292.00	294.00	305.00	307.00	310.00	308.00	312.00	329.00	355.00	365.00	375.00	380.00	390.00	384.00	410.00	486.00	494.00	483.00	472.00	470.00	454.00	446.00	466.00	480.00	498.00	535.00	577.00	602.00	606.00	608.00	592.00	593.00	607.00	609.00	601.00	575.00	566.00	556.00	541.00	531.00	539.00	550.00	551.00	543.00	538.00	533.00	502.00	486.00	463.00	451.00	443.00	439.00	442.00	454.00	449.00	445.00	431.00	405.00	407.00	406.00	403.00	402.00	399.00	395.00	394.00	394.00	406.00	410.00	406.00	406.00	412.00	410.00	407.00	413.00	423.00	434.00	436.00	443.00	454.00	453.00	455.00	448.00	448.00	456.00	471.00	477.00	477.00	476.00	480.00	482.00	474.00	461.00	457.00	465.00	471.00	479.00	482.00	484.00	514.00	537.00	554.00	559.00	555.00	559.00	560.00	562.00	563.00	567.00	564.00	542.00	528.00	511.00	500.00	491.00	480.00	466.00	442.00	441.00	435.00	422.00	400.00	397.00	397.00	398.00	398.00	379.00	369.00	368.00	370.00	376.00	374.00	373.00	374.00	375.00	384.00	382.00	374.00	363.00	359.00	359.00	363.00	363.00	367.00	373.00
998.00	972.00	964.00	940.00	924.00	906.00	890.00	876.00	835.00	814.00	797.00	784.00	749.00	731.00	714.00	701.00	694.00	693.00	698.00	705.00	714.00	769.00	781.00	791.00	803.00	812.00	822.00	814.00	790.00	775.00	797.00	802.00	812.00	810.00	797.00	789.00	787.00	784.00	779.00	743.00	721.00	708.00	704.00	726.00	794.00	835.00	891.00	960.00	1051.00	1000.00	930.00	868.00	819.00	722.00	712.00	708.00	705.00	660.00	636.00	621.00	611.00	601.00	579.00	568.00	550.00	545.00	533.00	535.00	536.00	536.00	540.00	544.00	542.00	536.00	528.00	552.00	548.00	541.00	555.00	571.00	552.00	527.00	501.00	479.00	446.00	437.00	429.00	427.00	432.00	419.00	408.00	393.00	378.00	364.00	364.00	353.00	343.00	339.00	335.00	336.00	336.00	331.00	316.00	311.00	309.00	308.00	300.00	295.00	292.00	292.00	292.00	292.00	292.00	294.00	305.00	307.00	310.00	308.00	312.00	329.00	355.00	365.00	375.00	380.00	390.00	384.00	410.00	486.00	494.00	483.00	472.00	470.00	454.00	446.00	466.00	480.00	498.00	535.00	577.00	602.00	606.00	608.00	592.00	593.00	607.00	609.00	601.00	575.00	566.00	556.00	541.00	531.00	539.00	550.00	551.00	543.00	538.00	533.00	502.00	486.00	463.00	451.00	443.00	439.00	442.00	454.00	449.00	445.00	431.00	405.00	407.00	406.00	403.00	402.00	399.00	395.00	394.00	394.00	406.00	410.00	406.00	406.00	412.00	410.00	407.00	413.00	423.00	434.00	436.00	443.00	454.00	453.00	455.00	448.00	448.00	456.00	471.00	477.00	477.00	476.00	480.00	482.00	474.00	461.00	457.00	465.00	471.00	479.00	482.00	484.00	514.00	537.00	554.00	559.00	555.00	559.00	560.00	562.00	563.00	567.00	564.00	542.00	528.00	511.00	500.00	491.00	480.00	466.00	442.00	441.00	435.00	422.00	400.00	397.00	397.00	398.00	398.00	379.00	369.00	368.00	370.00	376.00	374.00	373.00	374.00	375.00	384.00	382.00	374.00	363.00	359.00	359.00	363.00	363.00	367.00	373.00
1085.00	1048.00	1029.00	988.00	955.00	924.00	902.00	877.00	807.00	774.00	755.00	743.00	716.00	708.00	698.00	689.00	685.00	674.00	672.00	671.00	673.00	704.00	712.00	720.00	730.00	738.00	751.00	743.00	723.00	714.00	727.00	729.00	723.00	723.00	728.00	736.00	745.00	752.00	752.00	717.00	696.00	679.00	669.00	703.00	795.00	855.00	922.00	980.00	1029.00	1017.00	986.00	937.00	875.00	799.00	813.00	824.00	806.00	734.00	706.00	683.00	664.00	650.00	616.00	600.00	576.00	571.00	548.00	529.00	514.00	503.00	496.00	491.00	496.00	502.00	502.00	483.00	486.00	505.00	521.00	526.00	508.00	493.00	478.00	466.00	449.00	444.00	434.00	416.00	411.00	409.00	393.00	380.00	371.00	361.00	358.00	348.00	344.00	341.00	332.00	329.00	326.00	324.00	318.00	315.00	313.00	311.00	306.00	299.00	295.00	292.00	292.00	297.00	302.00	304.00	301.00	297.00	309.00	307.00	307.00	319.00	347.00	355.00	366.00	379.00	397.00	391.00	398.00	431.00	438.00	414.00	409.00	407.00	423.00	458.00	466.00	472.00	486.00	522.00	541.00	542.00	543.00	543.00	527.00	528.00	536.00	544.00	549.00	551.00	536.00	523.00	516.00	515.00	519.00	523.00	526.00	517.00	511.00	507.00	479.00	468.00	451.00	439.00	426.00	414.00	419.00	432.00	432.00	441.00	437.00	419.00	418.00	416.00	419.00	420.00	407.00	403.00	398.00	395.00	389.00	404.00	412.00	413.00	410.00	411.00	408.00	406.00	408.00	415.00	424.00	438.00	473.00	475.00	460.00	445.00	450.00	467.00	478.00	477.00	476.00	474.00	462.00	469.00	467.00	465.00	464.00	464.00	464.00	464.00	463.00	467.00	498.00	521.00	530.00	529.00	568.00	588.00	592.00	592.00	586.00	571.00	564.00	540.00	524.00	499.00	491.00	480.00	470.00	467.00	467.00	464.00	453.00	441.00	426.00	422.00	421.00	423.00	424.00	405.00	398.00	400.00	401.00	393.00	403.00	405.00	399.00	394.00	408.00	411.00	401.00	387.00	393.00	393.00	394.00	388.00	390.00	384.00
1085.00	1048.00	1029.00	988.00	955.00	924.00	902.00	877.00	807.00	774.00	755.00	743.00	716.00	708.00	698.00	689.00	685.00	674.00	672.00	671.00	673.00	704.00	712.00	720.00	730.00	738.00	751.00	743.00	723.00	714.00	727.00	729.00	723.00	723.00	728.00	736.00	745.00	752.00	752.00	717.00	696.00	679.00	669.00	703.00	795.00	855.00	922.00	980.00	1029.00	1017.00	986.00	937.00	875.00	799.00	813.00	824.00	806.00	734.00	706.00	683.00	664.00	650.00	616.00	600.00	576.00	571.00	548.00	529.00	514.00	503.00	496.00	491.00	496.00	502.00	502.00	483.00	486.00	505.00	521.00	526.00	508.00	493.00	478.00	466.00	449.00	444.00	434.00	416.00	411.00	409.00	393.00	380.00	371.00	361.00	358.00	348.00	344.00	341.00	332.00	329.00	326.00	324.00	318.00	315.00	313.00	311.00	306.00	299.00	295.00	292.00	292.00	297.00	302.00	304.00	301.00	297.00	309.00	307.00	307.00	319.00	347.00	355.00	366.00	379.00	397.00	391.00	398.00	431.00	438.00	414.00	409.00	407.00	423.00	458.00	466.00	472.00	486.00	522.00	541.00	542.00	543.00	543.00	527.00	528.00	536.00	544.00	549.00	551.00	536.00	523.00	516.00	515.00	519.00	523.00	526.00	517.00	511.00	507.00	479.00	468.00	451.00	439.00	426.00	414.00	419.00	432.00	432.00	441.00	437.00	419.00	418.00	416.00	419.00	420.00	407.00	403.00	398.00	395.00	389.00	404.00	412.00	413.00	410.00	411.00	408.00	406.00	408.00	415.00	424.00	438.00	473.00	475.00	460.00	445.00	450.00	467.00	478.00	477.00	476.00	474.00	462.00	469.00	467.00	465.00	464.00	464.00	464.00	464.00	463.00	467.00	498.00	521.00	530.00	529.00	568.00	588.00	592.00	592.00	586.00	571.00	564.00	540.00	524.00	499.00	491.00	480.00	470.00	467.00	467.00	464.00	453.00	441.00	426.00	422.00	421.00	423.00	424.00	405.00	398.00	400.00	401.00	393.00	403.00	405.00	399.00	394.00	408.00	411.00	401.00	387.00	393.00	393.00	394.00	388.00	390.00	384.00
