383.00	382.00	384.00	385.00	385.00	385.00	385.00	384.00	384.00	383.00	384.00	384.00	383.00	384.00	383.00	383.00	383.00	384.00	384.00	384.00	384.00	383.00	382.00	380.00	380.00	380.00	380.00	382.00	384.00	384.00	384.00	383.00	383.00	383.00	382.00	382.00	382.00	382.00	384.00	383.00	384.00	385.00	385.00	386.00	386.00	387.00	387.00	387.00	387.00	387.00	387.00	388.00	388.00	388.00	388.00	389.00	390.00	389.00	392.00	392.00	392.00	392.00	393.00	393.00	393.00	393.00	394.00	394.00	395.00	394.00	394.00	394.00	394.00	394.00	395.00	394.00	396.00	395.00	395.00	396.00	396.00	399.00	399.00	399.00	399.00	400.00	400.00	400.00	400.00	400.00	400.00	401.00	401.00	404.00	403.00	404.00	406.00	407.00	406.00	410.00	409.00	410.00	411.00	412.00	414.00	416.00	415.00	417.00	417.00	418.00	420.00	421.00	421.00	421.00	422.00	423.00	423.00	424.00	425.00	426.00	427.00	430.00	431.00	431.00	433.00	434.00	437.00	438.00	439.00	440.00	442.00	443.00	442.00	441.00	441.00	441.00	442.00	442.00	442.00	442.00	442.00	442.00	444.00	444.00	445.00	446.00	447.00	447.00	449.00	450.00	451.00	451.00	452.00	453.00	453.00	454.00	454.00	456.00	457.00	457.00	456.00	457.00	455.00	456.00	456.00	455.00	456.00	455.00	454.00	452.00	453.00	452.00	451.00	452.00	452.00	451.00	453.00	454.00	458.00	459.00	464.00	465.00	467.00	469.00	471.00	471.00	471.00	472.00	473.00	469.00	469.00	465.00	463.00	456.00	453.00	451.00	449.00	447.00	444.00	442.00	440.00	439.00	436.00	437.00	435.00	434.00	434.00	429.00	428.00	427.00	426.00	426.00	424.00	424.00	423.00	423.00	422.00	422.00	421.00	423.00	412.00	415.00	415.00	416.00	414.00	413.00	413.00	419.00	420.00	422.00	421.00	420.00	422.00	421.00	422.00	422.00	422.00	422.00	422.00	423.00	423.00	421.00	421.00	422.00	422.00	421.00	422.00	422.00	423.00	423.00	421.00	422.00	422.00	423.00	423.00	423.00
383.00	382.00	383.00	384.00	385.00	384.00	384.00	384.00	384.00	384.00	384.00	384.00	383.00	383.00	384.00	384.00	383.00	383.00	384.00	383.00	384.00	383.00	382.00	380.00	380.00	380.00	380.00	383.00	384.00	384.00	383.00	383.00	382.00	383.00	382.00	382.00	381.00	382.00	382.00	384.00	383.00	385.00	385.00	385.00	387.00	386.00	386.00	387.00	387.00	387.00	387.00	388.00	387.00	388.00	388.00	389.00	389.00	390.00	391.00	391.00	392.00	392.00	392.00	393.00	393.00	393.00	394.00	394.00	395.00	394.00	393.00	395.00	394.00	395.00	395.00	395.00	395.00	395.00	395.00	396.00	396.00	397.00	399.00	399.00	399.00	399.00	399.00	399.00	399.00	400.00	401.00	401.00	402.00	402.00	404.00	403.00	405.00	406.00	406.00	408.00	410.00	410.00	411.00	412.00	414.00	415.00	415.00	417.00	417.00	418.00	419.00	419.00	420.00	421.00	422.00	423.00	424.00	424.00	424.00	425.00	426.00	429.00	430.00	432.00	432.00	434.00	437.00	438.00	438.00	439.00	442.00	442.00	442.00	442.00	441.00	442.00	441.00	443.00	443.00	443.00	443.00	444.00	444.00	444.00	446.00	447.00	448.00	448.00	448.00	449.00	451.00	451.00	452.00	453.00	454.00	454.00	456.00	457.00	457.00	457.00	458.00	457.00	457.00	456.00	456.00	456.00	456.00	456.00	455.00	454.00	453.00	452.00	453.00	453.00	452.00	453.00	453.00	455.00	458.00	461.00	464.00	467.00	468.00	469.00	472.00	471.00	472.00	472.00	472.00	471.00	470.00	466.00	462.00	457.00	453.00	450.00	450.00	447.00	444.00	442.00	440.00	439.00	437.00	436.00	435.00	434.00	433.00	430.00	428.00	426.00	426.00	424.00	424.00	424.00	423.00	424.00	423.00	421.00	421.00	421.00	408.00	414.00	415.00	415.00	415.00	413.00	415.00	420.00	420.00	421.00	419.00	421.00	421.00	422.00	422.00	422.00	423.00	422.00	422.00	423.00	423.00	421.00	421.00	422.00	422.00	422.00	421.00	422.00	423.00	422.00	422.00	422.00	423.00	422.00	423.00	424.00
383.00	383.00	383.00	384.00	385.00	383.00	384.00	384.00	384.00	384.00	384.00	384.00	384.00	383.00	383.00	383.00	383.00	383.00	383.00	383.00	383.00	384.00	381.00	380.00	380.00	380.00	380.00	383.00	383.00	383.00	383.00	383.00	383.00	382.00	382.00	381.00	381.00	382.00	382.00	382.00	382.00	383.00	384.00	384.00	384.00	385.00	385.00	385.00	386.00	386.00	386.00	387.00	387.00	387.00	388.00	388.00	388.00	388.00	389.00	390.00	390.00	391.00	392.00	393.00	393.00	393.00	394.00	392.00	394.00	393.00	395.00	395.00	394.00	394.00	395.00	395.00	395.00	395.00	395.00	395.00	395.00	396.00	397.00	397.00	397.00	397.00	399.00	398.00	399.00	399.00	400.00	401.00	402.00	401.00	403.00	404.00	404.00	405.00	406.00	408.00	409.00	408.00	409.00	412.00	414.00	414.00	415.00	416.00	416.00	418.00	419.00	418.00	420.00	420.00	421.00	421.00	423.00	424.00	426.00	426.00	427.00	429.00	429.00	431.00	431.00	433.00	434.00	436.00	438.00	439.00	442.00	441.00	441.00	442.00	442.00	443.00	443.00	443.00	444.00	445.00	445.00	445.00	445.00	446.00	447.00	448.00	449.00	450.00	450.00	451.00	452.00	452.00	453.00	454.00	455.00	456.00	456.00	458.00	459.00	459.00	459.00	459.00	458.00	458.00	457.00	458.00	458.00	457.00	456.00	456.00	455.00	454.00	454.00	455.00	454.00	454.00	454.00	455.00	458.00	459.00	463.00	464.00	466.00	469.00	471.00	472.00	472.00	470.00	471.00	469.00	466.00	465.00	463.00	456.00	453.00	451.00	450.00	448.00	444.00	442.00	441.00	440.00	435.00	435.00	434.00	433.00	432.00	431.00	427.00	425.00	424.00	424.00	424.00	424.00	424.00	423.00	421.00	421.00	421.00	422.00	415.00	407.00	408.00	411.00	416.00	416.00	415.00	412.00	409.00	407.00	410.00	416.00	418.00	422.00	422.00	422.00	423.00	422.00	424.00	423.00	422.00	423.00	422.00	422.00	422.00	422.00	422.00	422.00	422.00	422.00	422.00	423.00	422.00	422.00	423.00	423.00
382.00	382.00	383.00	385.00	384.00	384.00	384.00	385.00	383.00	383.00	384.00	385.00	384.00	383.00	383.00	384.00	383.00	384.00	384.00	383.00	383.00	382.00	380.00	380.00	380.00	380.00	380.00	382.00	383.00	383.00	383.00	383.00	383.00	383.00	382.00	382.00	382.00	382.00	381.00	382.00	382.00	382.00	382.00	382.00	383.00	383.00	385.00	386.00	385.00	386.00	386.00	386.00	387.00	387.00	388.00	388.00	388.00	388.00	388.00	389.00	389.00	390.00	390.00	393.00	393.00	393.00	393.00	394.00	393.00	394.00	394.00	394.00	394.00	393.00	395.00	395.00	395.00	395.00	395.00	394.00	395.00	396.00	396.00	396.00	397.00	398.00	398.00	398.00	398.00	398.00	400.00	400.00	401.00	401.00	402.00	403.00	403.00	405.00	405.00	408.00	407.00	410.00	410.00	410.00	412.00	413.00	414.00	414.00	416.00	416.00	418.00	417.00	418.00	419.00	421.00	424.00	426.00	425.00	425.00	426.00	425.00	428.00	429.00	430.00	431.00	431.00	434.00	436.00	437.00	438.00	439.00	440.00	441.00	442.00	443.00	443.00	444.00	444.00	445.00	446.00	446.00	446.00	447.00	448.00	449.00	449.00	451.00	452.00	452.00	453.00	452.00	453.00	454.00	455.00	456.00	456.00	457.00	459.00	460.00	460.00	460.00	460.00	460.00	460.00	459.00	460.00	460.00	459.00	458.00	458.00	458.00	457.00	456.00	457.00	457.00	457.00	457.00	456.00	458.00	459.00	463.00	464.00	467.00	468.00	470.00	471.00	469.00	467.00	467.00	465.00	463.00	461.00	461.00	456.00	455.00	452.00	450.00	449.00	446.00	442.00	440.00	439.00	436.00	435.00	434.00	433.00	433.00	431.00	429.00	427.00	425.00	424.00	424.00	424.00	424.00	424.00	422.00	422.00	421.00	421.00	418.00	421.00	419.00	420.00	418.00	416.00	415.00	415.00	415.00	415.00	407.00	409.00	415.00	417.00	421.00	422.00	422.00	421.00	422.00	423.00	423.00	423.00	423.00	424.00	423.00	422.00	422.00	423.00	422.00	422.00	423.00	422.00	422.00	423.00	423.00	423.00
382.00	382.00	383.00	384.00	385.00	384.00	383.00	384.00	384.00	384.00	384.00	384.00	383.00	383.00	384.00	383.00	383.00	383.00	384.00	385.00	384.00	382.00	380.00	380.00	380.00	380.00	380.00	382.00	383.00	384.00	383.00	382.00	383.00	383.00	383.00	382.00	381.00	382.00	382.00	382.00	381.00	382.00	382.00	383.00	383.00	383.00	384.00	383.00	385.00	385.00	387.00	386.00	387.00	387.00	387.00	387.00	387.00	388.00	388.00	389.00	389.00	390.00	390.00	392.00	393.00	392.00	393.00	393.00	394.00	394.00	393.00	394.00	394.00	394.00	394.00	394.00	395.00	395.00	395.00	395.00	395.00	396.00	396.00	397.00	396.00	397.00	398.00	399.00	397.00	398.00	400.00	399.00	401.00	401.00	402.00	404.00	403.00	405.00	405.00	406.00	406.00	409.00	409.00	410.00	412.00	413.00	413.00	414.00	416.00	417.00	417.00	417.00	418.00	420.00	421.00	424.00	425.00	427.00	428.00	427.00	426.00	427.00	428.00	430.00	430.00	430.00	434.00	435.00	436.00	437.00	439.00	440.00	440.00	441.00	441.00	443.00	444.00	445.00	446.00	446.00	447.00	447.00	449.00	448.00	450.00	450.00	452.00	452.00	453.00	453.00	454.00	454.00	455.00	456.00	457.00	457.00	458.00	460.00	460.00	460.00	461.00	461.00	461.00	461.00	461.00	461.00	460.00	460.00	459.00	459.00	460.00	458.00	458.00	459.00	458.00	458.00	458.00	458.00	459.00	460.00	462.00	465.00	466.00	468.00	470.00	470.00	468.00	466.00	464.00	463.00	462.00	461.00	458.00	457.00	454.00	452.00	450.00	448.00	445.00	442.00	440.00	438.00	436.00	435.00	434.00	434.00	433.00	432.00	430.00	426.00	425.00	424.00	424.00	424.00	424.00	424.00	421.00	422.00	421.00	422.00	418.00	420.00	421.00	422.00	422.00	420.00	419.00	415.00	414.00	415.00	413.00	408.00	415.00	415.00	416.00	420.00	423.00	418.00	419.00	421.00	421.00	422.00	422.00	422.00	423.00	423.00	422.00	423.00	421.00	422.00	423.00	422.00	423.00	423.00	423.00	423.00
382.00	382.00	383.00	384.00	385.00	384.00	384.00	384.00	384.00	383.00	382.00	385.00	384.00	383.00	383.00	383.00	383.00	383.00	384.00	385.00	384.00	381.00	380.00	380.00	380.00	380.00	380.00	380.00	383.00	383.00	382.00	382.00	382.00	383.00	382.00	382.00	383.00	382.00	382.00	382.00	382.00	382.00	383.00	384.00	383.00	383.00	383.00	383.00	384.00	384.00	385.00	385.00	386.00	386.00	386.00	387.00	387.00	388.00	388.00	389.00	389.00	389.00	389.00	391.00	391.00	393.00	393.00	392.00	394.00	394.00	394.00	394.00	393.00	394.00	394.00	395.00	395.00	394.00	394.00	395.00	395.00	396.00	396.00	396.00	397.00	397.00	398.00	399.00	399.00	399.00	400.00	400.00	401.00	401.00	402.00	403.00	403.00	405.00	406.00	407.00	407.00	409.00	408.00	410.00	411.00	413.00	414.00	414.00	416.00	417.00	417.00	416.00	419.00	419.00	421.00	425.00	425.00	428.00	428.00	428.00	428.00	429.00	429.00	429.00	429.00	431.00	434.00	434.00	436.00	437.00	438.00	439.00	439.00	440.00	440.00	443.00	445.00	445.00	446.00	447.00	447.00	448.00	448.00	449.00	450.00	451.00	452.00	453.00	454.00	455.00	454.00	455.00	456.00	456.00	457.00	458.00	458.00	460.00	461.00	462.00	462.00	462.00	461.00	461.00	462.00	461.00	462.00	460.00	461.00	461.00	460.00	460.00	459.00	459.00	460.00	459.00	459.00	458.00	459.00	460.00	463.00	464.00	466.00	467.00	468.00	467.00	466.00	464.00	463.00	461.00	460.00	459.00	457.00	455.00	453.00	452.00	449.00	449.00	443.00	441.00	441.00	438.00	435.00	436.00	435.00	432.00	433.00	431.00	429.00	426.00	425.00	425.00	423.00	425.00	424.00	423.00	422.00	421.00	421.00	422.00	419.00	421.00	420.00	421.00	423.00	421.00	419.00	415.00	413.00	414.00	417.00	407.00	415.00	416.00	415.00	415.00	417.00	416.00	417.00	418.00	421.00	421.00	422.00	423.00	423.00	423.00	423.00	422.00	422.00	421.00	423.00	423.00	422.00	423.00	423.00	424.00
383.00	382.00	382.00	384.00	385.00	384.00	384.00	384.00	384.00	384.00	384.00	383.00	384.00	384.00	382.00	383.00	383.00	384.00	384.00	384.00	383.00	382.00	380.00	380.00	382.00	380.00	380.00	380.00	381.00	383.00	383.00	382.00	382.00	382.00	382.00	382.00	382.00	381.00	382.00	382.00	383.00	382.00	382.00	383.00	383.00	383.00	383.00	383.00	383.00	383.00	385.00	385.00	387.00	386.00	386.00	386.00	388.00	388.00	388.00	389.00	389.00	390.00	390.00	391.00	390.00	390.00	391.00	392.00	394.00	394.00	393.00	394.00	394.00	394.00	394.00	394.00	394.00	394.00	394.00	394.00	395.00	395.00	396.00	396.00	397.00	397.00	398.00	398.00	399.00	399.00	401.00	401.00	400.00	401.00	402.00	403.00	403.00	404.00	405.00	407.00	407.00	408.00	409.00	410.00	412.00	413.00	412.00	414.00	415.00	417.00	415.00	416.00	418.00	420.00	422.00	425.00	425.00	429.00	429.00	429.00	428.00	429.00	430.00	431.00	430.00	431.00	433.00	434.00	435.00	435.00	437.00	438.00	439.00	440.00	441.00	442.00	445.00	446.00	447.00	447.00	447.00	448.00	449.00	450.00	451.00	451.00	453.00	453.00	455.00	455.00	456.00	456.00	456.00	458.00	458.00	458.00	459.00	461.00	461.00	461.00	462.00	462.00	462.00	462.00	462.00	463.00	463.00	463.00	462.00	461.00	462.00	461.00	461.00	461.00	461.00	461.00	461.00	460.00	459.00	461.00	462.00	464.00	465.00	465.00	465.00	464.00	463.00	462.00	460.00	459.00	458.00	457.00	456.00	454.00	452.00	452.00	449.00	447.00	444.00	440.00	440.00	437.00	436.00	435.00	434.00	434.00	432.00	430.00	429.00	426.00	426.00	425.00	424.00	423.00	423.00	423.00	423.00	422.00	421.00	421.00	420.00	419.00	420.00	421.00	422.00	422.00	422.00	419.00	415.00	412.00	417.00	410.00	414.00	416.00	415.00	415.00	416.00	418.00	418.00	418.00	417.00	418.00	420.00	420.00	419.00	419.00	420.00	423.00	421.00	420.00	423.00	423.00	423.00	422.00	424.00	424.00
382.00	383.00	383.00	382.00	383.00	385.00	384.00	385.00	383.00	383.00	384.00	384.00	384.00	383.00	384.00	384.00	384.00	384.00	384.00	384.00	382.00	382.00	382.00	382.00	382.00	382.00	381.00	380.00	380.00	381.00	383.00	383.00	383.00	383.00	383.00	382.00	383.00	382.00	382.00	382.00	383.00	383.00	383.00	384.00	383.00	384.00	384.00	382.00	383.00	383.00	385.00	384.00	386.00	386.00	386.00	386.00	387.00	387.00	387.00	389.00	389.00	389.00	389.00	390.00	390.00	390.00	391.00	390.00	391.00	391.00	392.00	393.00	393.00	394.00	394.00	394.00	393.00	394.00	394.00	394.00	395.00	395.00	396.00	396.00	396.00	398.00	398.00	398.00	399.00	399.00	400.00	401.00	401.00	402.00	403.00	403.00	403.00	404.00	404.00	407.00	407.00	407.00	408.00	410.00	411.00	411.00	412.00	414.00	414.00	414.00	415.00	417.00	418.00	419.00	421.00	425.00	425.00	427.00	427.00	428.00	429.00	431.00	432.00	432.00	433.00	433.00	432.00	434.00	434.00	436.00	438.00	439.00	440.00	440.00	441.00	443.00	445.00	445.00	446.00	448.00	448.00	449.00	449.00	450.00	452.00	452.00	455.00	455.00	457.00	458.00	458.00	458.00	458.00	460.00	460.00	461.00	462.00	463.00	464.00	463.00	463.00	463.00	463.00	464.00	464.00	464.00	466.00	466.00	465.00	465.00	464.00	465.00	464.00	463.00	465.00	464.00	464.00	464.00	463.00	463.00	464.00	465.00	464.00	463.00	460.00	459.00	459.00	458.00	458.00	455.00	454.00	453.00	453.00	451.00	449.00	449.00	448.00	445.00	441.00	439.00	439.00	438.00	434.00	433.00	432.00	432.00	431.00	428.00	428.00	426.00	426.00	425.00	425.00	424.00	423.00	423.00	422.00	422.00	422.00	422.00	421.00	420.00	421.00	422.00	422.00	423.00	424.00	422.00	417.00	412.00	414.00	411.00	411.00	416.00	414.00	415.00	415.00	417.00	421.00	421.00	422.00	421.00	420.00	421.00	420.00	418.00	419.00	420.00	421.00	421.00	420.00	423.00	423.00	423.00	423.00	423.00
383.00	382.00	382.00	380.00	382.00	383.00	383.00	384.00	383.00	383.00	383.00	383.00	383.00	384.00	383.00	384.00	384.00	383.00	382.00	382.00	382.00	382.00	382.00	382.00	382.00	382.00	380.00	380.00	380.00	380.00	383.00	383.00	384.00	384.00	383.00	382.00	383.00	383.00	382.00	382.00	382.00	383.00	384.00	383.00	383.00	383.00	383.00	383.00	382.00	384.00	384.00	384.00	386.00	385.00	386.00	386.00	386.00	387.00	388.00	389.00	389.00	390.00	389.00	390.00	390.00	390.00	390.00	390.00	390.00	391.00	392.00	391.00	393.00	395.00	394.00	393.00	394.00	394.00	394.00	394.00	395.00	395.00	395.00	397.00	397.00	398.00	398.00	399.00	399.00	399.00	401.00	402.00	402.00	401.00	403.00	403.00	404.00	405.00	405.00	406.00	407.00	407.00	408.00	410.00	410.00	411.00	411.00	413.00	413.00	414.00	415.00	415.00	418.00	419.00	420.00	423.00	424.00	426.00	427.00	427.00	428.00	431.00	431.00	432.00	433.00	434.00	434.00	434.00	435.00	436.00	438.00	439.00	440.00	440.00	441.00	443.00	446.00	446.00	447.00	448.00	448.00	449.00	449.00	450.00	452.00	453.00	455.00	456.00	457.00	459.00	459.00	459.00	459.00	461.00	460.00	461.00	462.00	465.00	465.00	465.00	465.00	464.00	464.00	465.00	465.00	465.00	467.00	467.00	466.00	465.00	466.00	466.00	467.00	466.00	466.00	465.00	465.00	466.00	465.00	464.00	465.00	464.00	463.00	461.00	459.00	457.00	456.00	456.00	455.00	453.00	452.00	452.00	452.00	450.00	449.00	446.00	445.00	444.00	440.00	438.00	438.00	437.00	435.00	434.00	433.00	430.00	430.00	428.00	428.00	426.00	426.00	425.00	425.00	423.00	424.00	424.00	423.00	423.00	422.00	422.00	421.00	420.00	421.00	422.00	422.00	422.00	423.00	422.00	418.00	414.00	415.00	413.00	408.00	409.00	409.00	410.00	415.00	416.00	422.00	422.00	422.00	422.00	423.00	423.00	422.00	420.00	419.00	421.00	423.00	422.00	419.00	423.00	423.00	423.00	423.00	423.00
383.00	383.00	383.00	382.00	382.00	382.00	383.00	382.00	383.00	383.00	382.00	383.00	383.00	383.00	384.00	384.00	382.00	382.00	382.00	382.00	382.00	382.00	382.00	382.00	382.00	382.00	381.00	380.00	380.00	380.00	381.00	384.00	382.00	383.00	383.00	382.00	383.00	382.00	383.00	382.00	382.00	383.00	383.00	383.00	383.00	384.00	383.00	384.00	383.00	383.00	383.00	383.00	385.00	386.00	386.00	385.00	386.00	386.00	387.00	388.00	388.00	389.00	389.00	390.00	389.00	390.00	390.00	390.00	391.00	391.00	391.00	392.00	392.00	393.00	393.00	394.00	393.00	394.00	393.00	394.00	394.00	395.00	396.00	396.00	397.00	398.00	399.00	399.00	399.00	400.00	400.00	402.00	400.00	402.00	403.00	403.00	404.00	405.00	406.00	405.00	408.00	407.00	407.00	409.00	411.00	411.00	412.00	412.00	413.00	413.00	415.00	416.00	418.00	419.00	421.00	423.00	424.00	426.00	426.00	428.00	428.00	431.00	431.00	432.00	433.00	434.00	435.00	436.00	435.00	435.00	437.00	439.00	440.00	441.00	441.00	443.00	445.00	445.00	446.00	448.00	448.00	449.00	450.00	450.00	452.00	453.00	455.00	456.00	457.00	458.00	458.00	459.00	460.00	461.00	462.00	463.00	464.00	466.00	466.00	465.00	465.00	464.00	466.00	466.00	466.00	466.00	468.00	469.00	468.00	467.00	467.00	468.00	468.00	468.00	467.00	467.00	467.00	466.00	466.00	465.00	466.00	465.00	462.00	460.00	457.00	456.00	455.00	454.00	454.00	452.00	450.00	449.00	449.00	448.00	447.00	445.00	444.00	443.00	439.00	438.00	436.00	435.00	435.00	434.00	432.00	430.00	430.00	427.00	428.00	426.00	426.00	425.00	424.00	424.00	424.00	424.00	424.00	423.00	422.00	422.00	421.00	421.00	421.00	422.00	423.00	423.00	424.00	423.00	419.00	414.00	415.00	415.00	412.00	413.00	414.00	410.00	412.00	415.00	420.00	422.00	422.00	422.00	422.00	422.00	423.00	422.00	421.00	422.00	422.00	423.00	423.00	421.00	423.00	424.00	423.00	423.00
383.00	383.00	383.00	383.00	382.00	383.00	383.00	383.00	383.00	382.00	382.00	382.00	382.00	382.00	382.00	382.00	382.00	382.00	381.00	382.00	382.00	382.00	382.00	382.00	382.00	382.00	382.00	380.00	380.00	380.00	380.00	384.00	384.00	384.00	384.00	383.00	383.00	383.00	383.00	382.00	383.00	383.00	384.00	383.00	383.00	384.00	383.00	384.00	383.00	384.00	384.00	384.00	385.00	386.00	385.00	385.00	385.00	387.00	386.00	385.00	387.00	389.00	389.00	389.00	389.00	389.00	390.00	390.00	390.00	391.00	391.00	391.00	391.00	392.00	392.00	393.00	393.00	393.00	394.00	394.00	395.00	395.00	396.00	397.00	397.00	398.00	399.00	399.00	399.00	400.00	402.00	402.00	402.00	402.00	404.00	403.00	405.00	405.00	405.00	405.00	406.00	406.00	407.00	409.00	411.00	412.00	412.00	413.00	414.00	414.00	414.00	416.00	418.00	419.00	420.00	422.00	423.00	425.00	426.00	427.00	428.00	429.00	431.00	432.00	434.00	435.00	436.00	436.00	436.00	436.00	437.00	438.00	439.00	440.00	441.00	443.00	444.00	445.00	446.00	448.00	448.00	449.00	450.00	451.00	452.00	453.00	455.00	455.00	457.00	457.00	458.00	460.00	461.00	462.00	463.00	463.00	465.00	466.00	466.00	465.00	465.00	466.00	467.00	467.00	467.00	466.00	468.00	470.00	469.00	468.00	469.00	470.00	470.00	469.00	469.00	468.00	468.00	468.00	466.00	465.00	465.00	464.00	462.00	460.00	456.00	454.00	453.00	453.00	453.00	450.00	448.00	448.00	448.00	446.00	445.00	444.00	443.00	441.00	438.00	436.00	435.00	436.00	435.00	433.00	431.00	432.00	430.00	427.00	428.00	427.00	426.00	425.00	424.00	424.00	424.00	424.00	425.00	424.00	423.00	423.00	421.00	422.00	422.00	423.00	423.00	422.00	423.00	424.00	420.00	415.00	413.00	415.00	415.00	415.00	415.00	410.00	412.00	415.00	421.00	421.00	421.00	423.00	423.00	423.00	423.00	422.00	421.00	422.00	423.00	422.00	423.00	420.00	423.00	423.00	424.00	423.00
383.00	383.00	383.00	383.00	383.00	382.00	382.00	382.00	382.00	382.00	382.00	382.00	383.00	383.00	382.00	382.00	382.00	382.00	382.00	382.00	382.00	382.00	382.00	382.00	382.00	382.00	382.00	381.00	380.00	380.00	380.00	383.00	384.00	383.00	383.00	383.00	383.00	383.00	383.00	383.00	383.00	382.00	383.00	384.00	383.00	384.00	383.00	383.00	384.00	384.00	384.00	384.00	384.00	384.00	385.00	385.00	385.00	385.00	385.00	386.00	387.00	387.00	387.00	389.00	389.00	389.00	390.00	390.00	390.00	390.00	389.00	391.00	391.00	392.00	392.00	392.00	392.00	393.00	394.00	394.00	395.00	395.00	396.00	397.00	397.00	399.00	399.00	400.00	400.00	400.00	401.00	402.00	402.00	403.00	404.00	403.00	405.00	405.00	405.00	406.00	406.00	406.00	408.00	409.00	411.00	411.00	412.00	412.00	414.00	414.00	416.00	416.00	418.00	419.00	420.00	421.00	422.00	424.00	424.00	426.00	427.00	429.00	430.00	432.00	432.00	433.00	436.00	437.00	437.00	437.00	438.00	438.00	439.00	440.00	441.00	442.00	444.00	445.00	445.00	447.00	448.00	449.00	450.00	450.00	452.00	452.00	455.00	456.00	457.00	457.00	458.00	459.00	460.00	462.00	463.00	465.00	466.00	468.00	468.00	467.00	467.00	466.00	468.00	469.00	469.00	468.00	469.00	472.00	471.00	472.00	473.00	474.00	474.00	473.00	473.00	471.00	470.00	469.00	466.00	465.00	461.00	460.00	459.00	457.00	455.00	453.00	451.00	450.00	448.00	447.00	446.00	445.00	444.00	444.00	442.00	441.00	441.00	441.00	437.00	437.00	437.00	436.00	435.00	434.00	432.00	431.00	429.00	428.00	427.00	427.00	426.00	425.00	425.00	425.00	424.00	425.00	424.00	423.00	423.00	422.00	422.00	423.00	422.00	422.00	423.00	423.00	424.00	424.00	423.00	416.00	413.00	415.00	417.00	414.00	408.00	414.00	416.00	416.00	422.00	423.00	423.00	423.00	422.00	423.00	423.00	423.00	422.00	423.00	422.00	422.00	423.00	420.00	422.00	422.00	422.00	422.00
383.00	383.00	383.00	383.00	383.00	382.00	382.00	382.00	382.00	382.00	382.00	382.00	383.00	383.00	382.00	382.00	382.00	382.00	382.00	382.00	382.00	382.00	382.00	382.00	382.00	382.00	382.00	381.00	380.00	380.00	380.00	383.00	384.00	383.00	383.00	383.00	383.00	383.00	383.00	383.00	383.00	382.00	383.00	384.00	383.00	384.00	383.00	383.00	384.00	384.00	384.00	384.00	384.00	384.00	385.00	385.00	385.00	385.00	385.00	386.00	387.00	387.00	387.00	389.00	389.00	389.00	390.00	390.00	390.00	390.00	389.00	391.00	391.00	392.00	392.00	392.00	392.00	393.00	394.00	394.00	395.00	395.00	396.00	397.00	397.00	399.00	399.00	400.00	400.00	400.00	401.00	402.00	402.00	403.00	404.00	403.00	405.00	405.00	405.00	406.00	406.00	406.00	408.00	409.00	411.00	411.00	412.00	412.00	414.00	414.00	416.00	416.00	418.00	419.00	420.00	421.00	422.00	424.00	424.00	426.00	427.00	429.00	430.00	432.00	432.00	433.00	436.00	437.00	437.00	437.00	438.00	438.00	439.00	440.00	441.00	442.00	444.00	445.00	445.00	447.00	448.00	449.00	450.00	450.00	452.00	452.00	455.00	456.00	457.00	457.00	458.00	459.00	460.00	462.00	463.00	465.00	466.00	468.00	468.00	467.00	467.00	466.00	468.00	469.00	469.00	468.00	469.00	472.00	471.00	472.00	473.00	474.00	474.00	473.00	473.00	471.00	470.00	469.00	466.00	465.00	461.00	460.00	459.00	457.00	455.00	453.00	451.00	450.00	448.00	447.00	446.00	445.00	444.00	444.00	442.00	441.00	441.00	441.00	437.00	437.00	437.00	436.00	435.00	434.00	432.00	431.00	429.00	428.00	427.00	427.00	426.00	425.00	425.00	425.00	424.00	425.00	424.00	423.00	423.00	422.00	422.00	423.00	422.00	422.00	423.00	423.00	424.00	424.00	423.00	416.00	413.00	415.00	417.00	414.00	408.00	414.00	416.00	416.00	422.00	423.00	423.00	423.00	422.00	423.00	423.00	423.00	422.00	423.00	422.00	422.00	423.00	420.00	422.00	422.00	422.00	422.00
383.00	384.00	383.00	383.00	383.00	382.00	383.00	382.00	382.00	383.00	382.00	382.00	382.00	381.00	382.00	382.00	382.00	382.00	382.00	382.00	382.00	382.00	381.00	382.00	382.00	382.00	382.00	382.00	380.00	380.00	380.00	381.00	383.00	383.00	383.00	383.00	383.00	384.00	383.00	383.00	383.00	383.00	383.00	383.00	383.00	385.00	384.00	384.00	385.00	384.00	383.00	384.00	383.00	384.00	385.00	386.00	384.00	384.00	385.00	386.00	386.00	386.00	388.00	388.00	389.00	389.00	390.00	390.00	390.00	390.00	391.00	390.00	391.00	391.00	391.00	391.00	391.00	393.00	393.00	394.00	395.00	395.00	395.00	396.00	397.00	398.00	399.00	400.00	400.00	401.00	401.00	402.00	401.00	403.00	403.00	404.00	403.00	404.00	405.00	406.00	406.00	406.00	407.00	409.00	410.00	410.00	412.00	412.00	413.00	415.00	416.00	416.00	418.00	418.00	419.00	421.00	421.00	424.00	425.00	426.00	426.00	428.00	429.00	431.00	432.00	434.00	436.00	436.00	436.00	436.00	438.00	438.00	439.00	439.00	440.00	442.00	444.00	445.00	446.00	446.00	448.00	449.00	450.00	450.00	452.00	453.00	454.00	455.00	457.00	458.00	459.00	460.00	460.00	462.00	463.00	465.00	465.00	468.00	467.00	468.00	468.00	467.00	468.00	469.00	470.00	470.00	470.00	471.00	473.00	473.00	474.00	475.00	476.00	475.00	474.00	472.00	470.00	468.00	466.00	463.00	461.00	459.00	458.00	457.00	455.00	453.00	451.00	450.00	448.00	447.00	445.00	444.00	443.00	441.00	441.00	440.00	439.00	439.00	437.00	438.00	436.00	434.00	434.00	433.00	432.00	430.00	430.00	427.00	427.00	427.00	426.00	426.00	425.00	425.00	424.00	424.00	425.00	424.00	424.00	424.00	423.00	422.00	422.00	423.00	423.00	423.00	423.00	425.00	422.00	416.00	414.00	415.00	416.00	409.00	413.00	416.00	417.00	422.00	423.00	423.00	423.00	423.00	422.00	422.00	423.00	423.00	422.00	423.00	423.00	423.00	423.00	421.00	420.00	421.00	421.00	420.00
385.00	385.00	382.00	382.00	382.00	383.00	382.00	383.00	383.00	383.00	382.00	382.00	382.00	382.00	382.00	382.00	381.00	382.00	382.00	382.00	382.00	382.00	383.00	382.00	382.00	382.00	382.00	383.00	381.00	380.00	380.00	380.00	384.00	383.00	385.00	383.00	383.00	384.00	383.00	384.00	383.00	383.00	384.00	383.00	382.00	383.00	384.00	384.00	384.00	382.00	383.00	383.00	383.00	384.00	385.00	384.00	384.00	384.00	384.00	385.00	385.00	386.00	387.00	388.00	388.00	389.00	389.00	389.00	390.00	390.00	390.00	390.00	390.00	391.00	391.00	392.00	392.00	393.00	393.00	394.00	394.00	395.00	396.00	396.00	397.00	398.00	399.00	401.00	401.00	400.00	402.00	401.00	402.00	403.00	403.00	404.00	403.00	405.00	405.00	407.00	406.00	406.00	407.00	408.00	410.00	411.00	411.00	412.00	413.00	414.00	415.00	416.00	418.00	419.00	420.00	422.00	422.00	423.00	425.00	425.00	426.00	429.00	431.00	431.00	432.00	434.00	436.00	436.00	435.00	435.00	437.00	438.00	439.00	440.00	440.00	442.00	444.00	445.00	445.00	447.00	447.00	449.00	450.00	451.00	453.00	453.00	455.00	455.00	457.00	458.00	458.00	460.00	460.00	462.00	463.00	465.00	466.00	469.00	469.00	469.00	468.00	468.00	469.00	469.00	470.00	472.00	471.00	473.00	474.00	474.00	476.00	476.00	477.00	475.00	473.00	470.00	469.00	467.00	464.00	462.00	460.00	459.00	458.00	455.00	454.00	452.00	451.00	449.00	448.00	445.00	445.00	444.00	442.00	442.00	440.00	439.00	439.00	439.00	436.00	437.00	436.00	435.00	434.00	432.00	432.00	431.00	431.00	427.00	426.00	426.00	426.00	426.00	426.00	425.00	425.00	425.00	424.00	424.00	423.00	424.00	422.00	422.00	423.00	423.00	423.00	423.00	423.00	424.00	424.00	420.00	415.00	417.00	410.00	415.00	418.00	420.00	423.00	423.00	423.00	422.00	422.00	423.00	422.00	422.00	422.00	423.00	423.00	424.00	423.00	423.00	424.00	423.00	422.00	423.00	421.00	421.00
383.00	383.00	383.00	386.00	383.00	382.00	383.00	383.00	383.00	382.00	382.00	382.00	382.00	382.00	382.00	382.00	382.00	382.00	382.00	382.00	382.00	382.00	382.00	382.00	382.00	382.00	382.00	383.00	381.00	380.00	380.00	380.00	381.00	384.00	384.00	383.00	382.00	383.00	383.00	384.00	383.00	383.00	384.00	384.00	384.00	383.00	383.00	383.00	383.00	383.00	383.00	383.00	383.00	383.00	384.00	385.00	385.00	384.00	384.00	385.00	385.00	385.00	385.00	387.00	387.00	388.00	389.00	389.00	389.00	390.00	390.00	390.00	391.00	390.00	391.00	391.00	391.00	393.00	392.00	392.00	394.00	394.00	395.00	395.00	396.00	399.00	401.00	403.00	402.00	402.00	402.00	402.00	403.00	402.00	403.00	405.00	406.00	405.00	406.00	407.00	407.00	408.00	407.00	407.00	409.00	410.00	410.00	411.00	414.00	414.00	415.00	417.00	418.00	419.00	420.00	422.00	422.00	424.00	425.00	426.00	426.00	429.00	430.00	432.00	433.00	434.00	434.00	434.00	434.00	436.00	437.00	438.00	438.00	439.00	440.00	442.00	443.00	443.00	444.00	447.00	448.00	449.00	450.00	450.00	452.00	452.00	454.00	455.00	458.00	459.00	459.00	460.00	461.00	463.00	464.00	465.00	465.00	469.00	470.00	471.00	470.00	470.00	471.00	471.00	471.00	472.00	474.00	474.00	476.00	477.00	478.00	478.00	477.00	474.00	472.00	469.00	467.00	466.00	463.00	461.00	459.00	458.00	456.00	455.00	454.00	452.00	451.00	450.00	449.00	445.00	444.00	442.00	442.00	440.00	440.00	439.00	439.00	438.00	438.00	437.00	435.00	434.00	433.00	433.00	432.00	431.00	430.00	428.00	428.00	427.00	427.00	426.00	425.00	426.00	425.00	426.00	425.00	425.00	424.00	424.00	423.00	423.00	424.00	424.00	424.00	424.00	424.00	424.00	422.00	411.00	416.00	421.00	418.00	420.00	422.00	423.00	423.00	423.00	422.00	422.00	423.00	423.00	423.00	423.00	423.00	423.00	423.00	423.00	423.00	423.00	424.00	424.00	424.00	423.00	421.00	421.00
385.00	384.00	384.00	387.00	384.00	384.00	384.00	384.00	384.00	382.00	382.00	382.00	382.00	383.00	383.00	383.00	382.00	382.00	382.00	382.00	382.00	382.00	382.00	382.00	382.00	382.00	382.00	383.00	381.00	381.00	381.00	380.00	380.00	382.00	383.00	383.00	383.00	383.00	384.00	384.00	383.00	383.00	383.00	383.00	383.00	384.00	383.00	383.00	383.00	383.00	383.00	383.00	383.00	383.00	384.00	384.00	384.00	384.00	386.00	384.00	385.00	385.00	386.00	387.00	387.00	387.00	388.00	389.00	389.00	390.00	390.00	390.00	390.00	391.00	391.00	391.00	391.00	392.00	392.00	393.00	393.00	394.00	395.00	395.00	395.00	399.00	400.00	402.00	404.00	403.00	403.00	403.00	403.00	404.00	404.00	405.00	405.00	406.00	406.00	407.00	407.00	408.00	408.00	409.00	409.00	410.00	410.00	411.00	413.00	415.00	415.00	416.00	418.00	419.00	419.00	420.00	422.00	424.00	424.00	426.00	427.00	429.00	430.00	431.00	432.00	433.00	433.00	433.00	435.00	435.00	437.00	437.00	438.00	438.00	440.00	441.00	443.00	443.00	445.00	447.00	448.00	449.00	449.00	451.00	451.00	452.00	454.00	455.00	457.00	458.00	459.00	460.00	462.00	463.00	464.00	465.00	466.00	469.00	471.00	471.00	471.00	471.00	472.00	471.00	472.00	473.00	474.00	476.00	477.00	477.00	478.00	477.00	477.00	475.00	472.00	468.00	467.00	465.00	463.00	462.00	459.00	459.00	457.00	455.00	452.00	451.00	451.00	450.00	449.00	444.00	444.00	443.00	442.00	441.00	439.00	439.00	439.00	438.00	438.00	435.00	435.00	435.00	433.00	434.00	432.00	431.00	431.00	429.00	427.00	428.00	427.00	426.00	426.00	426.00	426.00	426.00	426.00	425.00	424.00	423.00	423.00	424.00	423.00	424.00	424.00	425.00	423.00	420.00	416.00	417.00	418.00	423.00	422.00	422.00	422.00	422.00	423.00	423.00	422.00	423.00	423.00	423.00	423.00	423.00	423.00	423.00	424.00	424.00	424.00	423.00	424.00	424.00	424.00	424.00	424.00	423.00
384.00	382.00	385.00	387.00	384.00	384.00	384.00	383.00	383.00	382.00	383.00	383.00	382.00	383.00	382.00	382.00	383.00	383.00	382.00	382.00	381.00	382.00	382.00	382.00	382.00	383.00	382.00	382.00	382.00	382.00	382.00	380.00	380.00	380.00	384.00	384.00	383.00	383.00	383.00	383.00	384.00	384.00	383.00	383.00	383.00	383.00	384.00	384.00	384.00	384.00	384.00	383.00	383.00	383.00	384.00	384.00	384.00	384.00	384.00	386.00	386.00	385.00	385.00	386.00	387.00	387.00	388.00	387.00	389.00	389.00	390.00	390.00	390.00	391.00	390.00	391.00	391.00	392.00	391.00	392.00	392.00	394.00	394.00	395.00	396.00	398.00	401.00	403.00	404.00	405.00	404.00	404.00	403.00	403.00	404.00	405.00	406.00	405.00	407.00	407.00	407.00	408.00	408.00	409.00	409.00	410.00	410.00	411.00	413.00	414.00	414.00	416.00	417.00	418.00	419.00	421.00	422.00	424.00	425.00	426.00	427.00	429.00	430.00	431.00	431.00	432.00	432.00	434.00	434.00	434.00	436.00	437.00	438.00	439.00	439.00	440.00	442.00	443.00	445.00	447.00	447.00	448.00	448.00	449.00	451.00	452.00	454.00	456.00	457.00	458.00	459.00	459.00	460.00	463.00	464.00	465.00	465.00	469.00	470.00	471.00	471.00	472.00	473.00	472.00	473.00	474.00	475.00	477.00	477.00	477.00	477.00	475.00	474.00	473.00	472.00	468.00	467.00	464.00	463.00	460.00	458.00	457.00	457.00	456.00	452.00	450.00	450.00	448.00	449.00	445.00	444.00	442.00	442.00	440.00	440.00	440.00	438.00	438.00	436.00	436.00	433.00	434.00	433.00	433.00	432.00	432.00	431.00	429.00	428.00	427.00	427.00	426.00	426.00	427.00	426.00	427.00	426.00	426.00	425.00	424.00	424.00	423.00	423.00	424.00	425.00	422.00	423.00	418.00	413.00	419.00	419.00	422.00	424.00	423.00	423.00	423.00	422.00	422.00	423.00	424.00	423.00	423.00	423.00	423.00	423.00	423.00	424.00	424.00	424.00	424.00	424.00	424.00	424.00	425.00	424.00	423.00
384.00	382.00	384.00	384.00	385.00	383.00	385.00	385.00	384.00	383.00	384.00	383.00	384.00	384.00	384.00	382.00	383.00	383.00	383.00	383.00	383.00	382.00	382.00	383.00	383.00	382.00	382.00	382.00	381.00	382.00	382.00	381.00	380.00	380.00	380.00	384.00	384.00	383.00	384.00	384.00	384.00	384.00	384.00	384.00	384.00	383.00	384.00	384.00	384.00	384.00	384.00	383.00	383.00	383.00	383.00	384.00	384.00	385.00	384.00	385.00	385.00	385.00	386.00	386.00	386.00	387.00	387.00	388.00	389.00	389.00	389.00	390.00	390.00	391.00	391.00	391.00	391.00	391.00	392.00	392.00	392.00	394.00	394.00	394.00	396.00	399.00	401.00	403.00	404.00	405.00	406.00	404.00	404.00	404.00	405.00	405.00	406.00	407.00	407.00	408.00	408.00	408.00	409.00	409.00	409.00	410.00	411.00	411.00	413.00	414.00	414.00	415.00	417.00	418.00	418.00	421.00	421.00	424.00	425.00	427.00	427.00	429.00	429.00	430.00	430.00	431.00	432.00	433.00	434.00	434.00	435.00	436.00	437.00	437.00	438.00	440.00	442.00	443.00	444.00	446.00	446.00	447.00	448.00	449.00	451.00	452.00	455.00	455.00	457.00	459.00	460.00	461.00	461.00	465.00	466.00	467.00	468.00	469.00	470.00	471.00	472.00	473.00	475.00	475.00	474.00	475.00	476.00	477.00	477.00	477.00	477.00	474.00	473.00	473.00	472.00	469.00	467.00	465.00	462.00	460.00	458.00	457.00	456.00	454.00	452.00	451.00	450.00	449.00	447.00	445.00	443.00	443.00	442.00	440.00	440.00	438.00	438.00	437.00	437.00	435.00	435.00	435.00	434.00	432.00	432.00	432.00	432.00	430.00	429.00	428.00	427.00	426.00	426.00	427.00	427.00	427.00	426.00	426.00	425.00	424.00	425.00	425.00	424.00	425.00	423.00	419.00	418.00	417.00	414.00	417.00	423.00	424.00	423.00	423.00	423.00	424.00	423.00	423.00	423.00	423.00	424.00	423.00	424.00	422.00	423.00	423.00	423.00	424.00	424.00	424.00	424.00	424.00	424.00	424.00	425.00	425.00
385.00	390.00	385.00	383.00	383.00	384.00	383.00	384.00	382.00	385.00	383.00	383.00	384.00	382.00	383.00	383.00	382.00	382.00	384.00	385.00	384.00	383.00	383.00	382.00	383.00	382.00	383.00	382.00	382.00	382.00	384.00	383.00	380.00	380.00	380.00	380.00	381.00	384.00	385.00	383.00	384.00	384.00	384.00	384.00	384.00	384.00	384.00	384.00	384.00	383.00	384.00	385.00	383.00	383.00	383.00	383.00	383.00	383.00	384.00	384.00	384.00	384.00	384.00	386.00	385.00	386.00	387.00	387.00	388.00	389.00	389.00	389.00	390.00	390.00	391.00	391.00	391.00	391.00	392.00	392.00	393.00	394.00	394.00	395.00	396.00	398.00	399.00	401.00	403.00	405.00	406.00	408.00	408.00	409.00	409.00	408.00	407.00	407.00	408.00	408.00	408.00	409.00	409.00	410.00	410.00	411.00	412.00	412.00	413.00	413.00	414.00	415.00	417.00	417.00	417.00	420.00	421.00	423.00	424.00	425.00	426.00	427.00	427.00	427.00	428.00	429.00	432.00	431.00	433.00	434.00	435.00	435.00	436.00	437.00	438.00	439.00	441.00	442.00	443.00	444.00	445.00	446.00	447.00	449.00	450.00	452.00	455.00	455.00	458.00	459.00	460.00	462.00	464.00	465.00	466.00	468.00	469.00	475.00	474.00	473.00	473.00	475.00	478.00	478.00	480.00	481.00	481.00	477.00	475.00	474.00	474.00	471.00	470.00	469.00	468.00	468.00	467.00	465.00	463.00	460.00	458.00	456.00	454.00	453.00	450.00	450.00	448.00	448.00	447.00	445.00	444.00	443.00	442.00	440.00	440.00	439.00	439.00	439.00	437.00	436.00	435.00	435.00	434.00	433.00	434.00	432.00	433.00	432.00	432.00	431.00	429.00	430.00	430.00	429.00	428.00	427.00	426.00	426.00	426.00	426.00	426.00	425.00	423.00	419.00	416.00	417.00	418.00	417.00	411.00	420.00	423.00	424.00	426.00	425.00	425.00	424.00	424.00	424.00	423.00	423.00	423.00	424.00	423.00	424.00	424.00	423.00	424.00	424.00	424.00	423.00	424.00	424.00	425.00	425.00	425.00	425.00
383.00	393.00	385.00	383.00	384.00	382.00	383.00	383.00	383.00	384.00	384.00	384.00	384.00	383.00	384.00	382.00	382.00	383.00	383.00	384.00	383.00	385.00	384.00	383.00	383.00	382.00	382.00	382.00	382.00	383.00	382.00	382.00	382.00	382.00	381.00	380.00	380.00	381.00	384.00	384.00	385.00	384.00	383.00	384.00	384.00	384.00	384.00	384.00	384.00	384.00	384.00	384.00	384.00	384.00	383.00	383.00	384.00	383.00	383.00	385.00	383.00	384.00	385.00	386.00	385.00	385.00	387.00	387.00	388.00	388.00	389.00	389.00	389.00	390.00	391.00	392.00	391.00	392.00	391.00	392.00	392.00	393.00	395.00	396.00	396.00	398.00	399.00	402.00	403.00	404.00	405.00	406.00	407.00	408.00	408.00	409.00	408.00	408.00	409.00	410.00	409.00	410.00	410.00	410.00	410.00	411.00	412.00	411.00	414.00	413.00	415.00	415.00	416.00	417.00	417.00	420.00	420.00	423.00	424.00	424.00	426.00	426.00	427.00	428.00	428.00	429.00	431.00	432.00	432.00	432.00	433.00	435.00	436.00	436.00	437.00	439.00	441.00	443.00	442.00	445.00	445.00	446.00	447.00	448.00	452.00	453.00	455.00	457.00	459.00	459.00	460.00	462.00	463.00	467.00	467.00	468.00	470.00	475.00	476.00	475.00	475.00	476.00	479.00	480.00	481.00	482.00	481.00	477.00	476.00	475.00	474.00	472.00	472.00	469.00	467.00	466.00	466.00	464.00	462.00	460.00	456.00	456.00	454.00	453.00	450.00	450.00	449.00	448.00	447.00	445.00	444.00	443.00	442.00	441.00	440.00	440.00	440.00	439.00	438.00	436.00	436.00	435.00	434.00	435.00	434.00	434.00	434.00	433.00	433.00	432.00	433.00	432.00	431.00	428.00	428.00	429.00	427.00	426.00	427.00	426.00	425.00	421.00	420.00	417.00	417.00	417.00	418.00	415.00	408.00	422.00	424.00	426.00	426.00	425.00	424.00	424.00	425.00	424.00	424.00	424.00	423.00	424.00	424.00	423.00	423.00	424.00	424.00	424.00	424.00	424.00	425.00	425.00	425.00	424.00	425.00	425.00
384.00	391.00	383.00	384.00	384.00	384.00	384.00	383.00	383.00	384.00	384.00	384.00	383.00	383.00	383.00	383.00	382.00	383.00	382.00	384.00	384.00	384.00	384.00	383.00	384.00	382.00	382.00	383.00	383.00	383.00	382.00	382.00	383.00	383.00	383.00	381.00	380.00	380.00	380.00	381.00	382.00	384.00	385.00	385.00	385.00	384.00	385.00	384.00	385.00	385.00	383.00	384.00	385.00	384.00	384.00	384.00	384.00	383.00	384.00	384.00	384.00	384.00	384.00	384.00	385.00	385.00	386.00	387.00	387.00	388.00	388.00	389.00	390.00	390.00	390.00	391.00	391.00	391.00	392.00	393.00	392.00	394.00	394.00	395.00	396.00	398.00	399.00	400.00	401.00	401.00	405.00	405.00	405.00	408.00	411.00	410.00	408.00	409.00	409.00	410.00	410.00	409.00	410.00	410.00	410.00	410.00	411.00	411.00	413.00	414.00	415.00	414.00	416.00	418.00	418.00	419.00	420.00	422.00	423.00	424.00	424.00	426.00	427.00	428.00	428.00	429.00	432.00	431.00	432.00	432.00	434.00	435.00	436.00	436.00	437.00	439.00	440.00	442.00	442.00	444.00	445.00	446.00	447.00	449.00	451.00	453.00	456.00	458.00	460.00	460.00	461.00	462.00	464.00	467.00	468.00	469.00	470.00	474.00	477.00	476.00	476.00	477.00	478.00	480.00	482.00	483.00	481.00	477.00	476.00	476.00	475.00	473.00	471.00	469.00	467.00	464.00	464.00	462.00	461.00	460.00	457.00	455.00	454.00	453.00	451.00	450.00	449.00	448.00	446.00	444.00	444.00	443.00	443.00	441.00	439.00	441.00	440.00	439.00	438.00	436.00	437.00	436.00	434.00	435.00	434.00	435.00	434.00	435.00	434.00	433.00	433.00	431.00	430.00	429.00	429.00	428.00	427.00	426.00	426.00	426.00	424.00	421.00	419.00	419.00	420.00	418.00	420.00	409.00	411.00	424.00	425.00	425.00	426.00	425.00	425.00	424.00	425.00	424.00	424.00	424.00	425.00	424.00	423.00	424.00	424.00	424.00	424.00	424.00	424.00	425.00	424.00	425.00	425.00	425.00	425.00	425.00
385.00	389.00	384.00	383.00	384.00	383.00	383.00	383.00	383.00	382.00	383.00	384.00	383.00	383.00	384.00	383.00	384.00	384.00	383.00	382.00	383.00	385.00	384.00	383.00	383.00	383.00	382.00	383.00	382.00	383.00	383.00	383.00	383.00	382.00	383.00	383.00	381.00	380.00	380.00	380.00	380.00	380.00	381.00	384.00	385.00	384.00	383.00	384.00	385.00	385.00	385.00	383.00	385.00	384.00	384.00	383.00	384.00	384.00	384.00	384.00	384.00	384.00	384.00	385.00	385.00	385.00	387.00	386.00	387.00	388.00	389.00	390.00	390.00	390.00	390.00	391.00	391.00	392.00	392.00	392.00	392.00	394.00	395.00	395.00	396.00	398.00	399.00	399.00	400.00	401.00	402.00	403.00	405.00	407.00	410.00	409.00	410.00	409.00	409.00	410.00	410.00	409.00	410.00	410.00	412.00	412.00	411.00	411.00	413.00	414.00	414.00	415.00	417.00	417.00	418.00	420.00	420.00	422.00	422.00	423.00	424.00	426.00	427.00	428.00	428.00	428.00	430.00	431.00	432.00	432.00	434.00	434.00	436.00	437.00	437.00	439.00	440.00	441.00	441.00	444.00	444.00	446.00	447.00	449.00	452.00	454.00	457.00	458.00	462.00	462.00	462.00	463.00	465.00	468.00	468.00	470.00	471.00	474.00	476.00	477.00	478.00	478.00	479.00	482.00	482.00	483.00	481.00	479.00	477.00	477.00	481.00	471.00	468.00	467.00	466.00	464.00	462.00	461.00	460.00	458.00	457.00	457.00	454.00	453.00	451.00	450.00	449.00	447.00	447.00	444.00	444.00	443.00	443.00	441.00	441.00	441.00	440.00	439.00	438.00	437.00	438.00	436.00	434.00	435.00	435.00	434.00	434.00	434.00	434.00	434.00	434.00	433.00	431.00	430.00	430.00	429.00	427.00	427.00	427.00	427.00	424.00	423.00	422.00	423.00	421.00	418.00	417.00	409.00	417.00	421.00	425.00	426.00	425.00	426.00	425.00	425.00	425.00	425.00	424.00	424.00	425.00	424.00	424.00	424.00	424.00	424.00	425.00	425.00	424.00	424.00	424.00	425.00	425.00	425.00	425.00	425.00
390.00	385.00	384.00	384.00	382.00	383.00	385.00	382.00	383.00	383.00	383.00	383.00	383.00	383.00	383.00	382.00	383.00	383.00	384.00	383.00	382.00	381.00	383.00	384.00	383.00	385.00	385.00	382.00	383.00	383.00	382.00	382.00	383.00	382.00	382.00	383.00	383.00	383.00	383.00	382.00	381.00	380.00	381.00	380.00	380.00	381.00	384.00	384.00	384.00	384.00	383.00	384.00	383.00	385.00	384.00	383.00	384.00	384.00	384.00	384.00	384.00	384.00	384.00	384.00	385.00	386.00	386.00	386.00	387.00	388.00	396.00	389.00	390.00	390.00	390.00	390.00	391.00	392.00	391.00	392.00	393.00	394.00	394.00	395.00	396.00	399.00	398.00	400.00	400.00	401.00	402.00	404.00	404.00	406.00	409.00	410.00	410.00	411.00	412.00	412.00	412.00	413.00	413.00	411.00	412.00	412.00	412.00	413.00	413.00	414.00	414.00	415.00	416.00	417.00	418.00	419.00	420.00	421.00	422.00	423.00	424.00	425.00	426.00	426.00	427.00	428.00	430.00	431.00	432.00	433.00	434.00	434.00	435.00	436.00	437.00	439.00	441.00	441.00	442.00	444.00	445.00	446.00	448.00	449.00	452.00	454.00	456.00	459.00	461.00	464.00	465.00	466.00	467.00	469.00	471.00	472.00	474.00	476.00	477.00	479.00	481.00	482.00	483.00	482.00	483.00	481.00	478.00	476.00	475.00	475.00	474.00	468.00	467.00	466.00	465.00	463.00	462.00	461.00	460.00	458.00	456.00	455.00	454.00	453.00	451.00	450.00	449.00	448.00	447.00	446.00	444.00	444.00	443.00	441.00	442.00	440.00	440.00	440.00	438.00	437.00	438.00	437.00	436.00	438.00	437.00	435.00	436.00	437.00	438.00	436.00	435.00	434.00	433.00	432.00	431.00	431.00	428.00	428.00	428.00	428.00	428.00	425.00	426.00	426.00	422.00	412.00	410.00	418.00	421.00	425.00	425.00	425.00	426.00	426.00	425.00	425.00	425.00	425.00	425.00	426.00	425.00	426.00	424.00	425.00	424.00	424.00	425.00	425.00	425.00	425.00	425.00	425.00	424.00	425.00	425.00	425.00
390.00	383.00	384.00	383.00	383.00	385.00	384.00	382.00	382.00	381.00	382.00	383.00	383.00	384.00	384.00	383.00	383.00	382.00	382.00	384.00	382.00	383.00	384.00	383.00	384.00	384.00	384.00	383.00	383.00	385.00	383.00	383.00	382.00	383.00	382.00	383.00	383.00	383.00	383.00	383.00	383.00	382.00	383.00	382.00	380.00	380.00	380.00	381.00	383.00	384.00	384.00	383.00	384.00	384.00	384.00	384.00	383.00	384.00	384.00	384.00	384.00	383.00	384.00	385.00	385.00	385.00	386.00	386.00	387.00	388.00	389.00	389.00	389.00	390.00	390.00	391.00	391.00	392.00	393.00	393.00	393.00	394.00	394.00	397.00	397.00	398.00	399.00	400.00	401.00	401.00	404.00	405.00	407.00	406.00	410.00	411.00	412.00	412.00	413.00	413.00	413.00	414.00	413.00	413.00	413.00	413.00	413.00	413.00	414.00	414.00	415.00	415.00	417.00	417.00	418.00	419.00	420.00	422.00	423.00	423.00	423.00	425.00	425.00	426.00	427.00	427.00	430.00	431.00	431.00	433.00	434.00	435.00	436.00	436.00	437.00	439.00	440.00	441.00	442.00	444.00	446.00	447.00	448.00	449.00	453.00	453.00	456.00	458.00	461.00	462.00	463.00	466.00	467.00	470.00	471.00	473.00	475.00	478.00	478.00	480.00	482.00	484.00	483.00	483.00	482.00	480.00	479.00	474.00	473.00	472.00	470.00	468.00	468.00	465.00	465.00	463.00	462.00	461.00	459.00	458.00	456.00	455.00	455.00	453.00	451.00	450.00	449.00	449.00	448.00	445.00	445.00	444.00	442.00	441.00	441.00	439.00	441.00	440.00	440.00	439.00	438.00	439.00	438.00	437.00	437.00	437.00	436.00	437.00	437.00	437.00	437.00	435.00	434.00	433.00	432.00	431.00	430.00	430.00	430.00	429.00	427.00	426.00	425.00	426.00	421.00	408.00	414.00	417.00	420.00	425.00	426.00	426.00	426.00	426.00	425.00	425.00	426.00	425.00	425.00	425.00	425.00	425.00	425.00	425.00	425.00	425.00	424.00	425.00	425.00	425.00	425.00	425.00	425.00	424.00	425.00	425.00
389.00	384.00	384.00	383.00	383.00	387.00	383.00	383.00	383.00	382.00	382.00	383.00	383.00	382.00	383.00	384.00	383.00	383.00	382.00	382.00	383.00	383.00	383.00	384.00	384.00	384.00	384.00	385.00	382.00	384.00	384.00	383.00	383.00	383.00	383.00	383.00	383.00	384.00	383.00	383.00	383.00	383.00	383.00	383.00	382.00	382.00	380.00	380.00	380.00	384.00	384.00	383.00	384.00	384.00	383.00	383.00	384.00	384.00	384.00	384.00	384.00	384.00	384.00	385.00	385.00	385.00	386.00	386.00	387.00	388.00	388.00	388.00	390.00	389.00	390.00	390.00	391.00	392.00	392.00	393.00	393.00	395.00	396.00	397.00	398.00	399.00	400.00	400.00	402.00	401.00	404.00	404.00	405.00	407.00	410.00	412.00	412.00	413.00	414.00	413.00	414.00	413.00	413.00	412.00	413.00	412.00	413.00	414.00	414.00	414.00	414.00	416.00	418.00	417.00	418.00	420.00	420.00	421.00	422.00	423.00	423.00	425.00	425.00	425.00	427.00	427.00	430.00	430.00	432.00	432.00	434.00	435.00	435.00	437.00	438.00	439.00	440.00	441.00	443.00	446.00	447.00	448.00	449.00	451.00	454.00	456.00	457.00	459.00	462.00	464.00	465.00	465.00	466.00	469.00	472.00	474.00	474.00	480.00	481.00	482.00	483.00	484.00	484.00	482.00	482.00	481.00	480.00	475.00	474.00	472.00	470.00	469.00	467.00	466.00	464.00	463.00	462.00	460.00	459.00	458.00	456.00	455.00	454.00	453.00	451.00	451.00	449.00	448.00	448.00	445.00	444.00	443.00	443.00	442.00	441.00	440.00	440.00	440.00	440.00	440.00	439.00	440.00	439.00	438.00	438.00	439.00	438.00	437.00	438.00	437.00	437.00	436.00	435.00	434.00	432.00	432.00	431.00	431.00	430.00	430.00	428.00	427.00	425.00	426.00	413.00	408.00	416.00	416.00	421.00	425.00	426.00	426.00	426.00	426.00	427.00	426.00	425.00	425.00	425.00	425.00	425.00	425.00	426.00	425.00	426.00	425.00	425.00	424.00	425.00	425.00	425.00	425.00	425.00	425.00	425.00	425.00
386.00	383.00	384.00	384.00	384.00	383.00	382.00	382.00	382.00	383.00	383.00	382.00	384.00	382.00	383.00	382.00	383.00	383.00	384.00	384.00	384.00	384.00	382.00	384.00	384.00	384.00	384.00	386.00	383.00	383.00	385.00	383.00	383.00	383.00	383.00	383.00	383.00	383.00	383.00	383.00	382.00	383.00	383.00	383.00	383.00	381.00	381.00	382.00	380.00	380.00	384.00	383.00	384.00	384.00	383.00	383.00	384.00	384.00	384.00	384.00	385.00	384.00	385.00	384.00	385.00	385.00	386.00	386.00	387.00	388.00	388.00	388.00	389.00	390.00	390.00	390.00	391.00	392.00	393.00	393.00	394.00	396.00	397.00	398.00	398.00	399.00	400.00	401.00	401.00	402.00	404.00	404.00	405.00	406.00	411.00	412.00	412.00	413.00	412.00	414.00	414.00	414.00	413.00	413.00	414.00	413.00	415.00	414.00	414.00	414.00	415.00	416.00	417.00	418.00	418.00	419.00	420.00	421.00	422.00	422.00	422.00	424.00	425.00	426.00	426.00	427.00	429.00	430.00	431.00	432.00	434.00	434.00	435.00	436.00	437.00	439.00	441.00	442.00	444.00	447.00	448.00	449.00	450.00	452.00	456.00	457.00	460.00	463.00	475.00	466.00	465.00	467.00	468.00	468.00	470.00	472.00	474.00	479.00	481.00	483.00	485.00	487.00	485.00	484.00	484.00	484.00	479.00	475.00	474.00	472.00	471.00	468.00	467.00	466.00	465.00	462.00	461.00	461.00	459.00	458.00	456.00	455.00	454.00	453.00	451.00	450.00	449.00	448.00	447.00	445.00	444.00	443.00	442.00	441.00	441.00	441.00	441.00	440.00	439.00	440.00	440.00	442.00	441.00	440.00	440.00	439.00	439.00	439.00	439.00	438.00	437.00	437.00	436.00	434.00	434.00	433.00	432.00	431.00	431.00	431.00	429.00	427.00	425.00	426.00	410.00	411.00	417.00	417.00	422.00	425.00	426.00	427.00	427.00	427.00	426.00	425.00	425.00	425.00	425.00	425.00	425.00	425.00	425.00	426.00	425.00	425.00	425.00	426.00	425.00	425.00	425.00	425.00	426.00	425.00	425.00	425.00
385.00	384.00	384.00	384.00	385.00	383.00	383.00	383.00	382.00	382.00	382.00	384.00	383.00	383.00	383.00	383.00	383.00	383.00	383.00	384.00	384.00	384.00	382.00	382.00	382.00	383.00	384.00	385.00	385.00	384.00	383.00	384.00	384.00	383.00	383.00	383.00	383.00	383.00	383.00	383.00	383.00	383.00	381.00	383.00	383.00	382.00	383.00	381.00	382.00	382.00	380.00	380.00	385.00	383.00	383.00	384.00	385.00	384.00	384.00	385.00	384.00	385.00	384.00	384.00	385.00	385.00	385.00	386.00	387.00	388.00	388.00	388.00	388.00	389.00	390.00	391.00	391.00	392.00	393.00	394.00	396.00	396.00	397.00	397.00	399.00	400.00	401.00	402.00	403.00	403.00	405.00	406.00	406.00	406.00	409.00	411.00	412.00	412.00	414.00	415.00	415.00	416.00	415.00	415.00	415.00	417.00	416.00	417.00	417.00	416.00	416.00	416.00	416.00	418.00	418.00	419.00	420.00	421.00	422.00	422.00	423.00	424.00	425.00	426.00	426.00	427.00	429.00	431.00	431.00	431.00	433.00	434.00	435.00	435.00	436.00	438.00	441.00	441.00	443.00	446.00	448.00	449.00	451.00	454.00	460.00	462.00	467.00	471.00	483.00	471.00	468.00	469.00	470.00	472.00	472.00	474.00	475.00	479.00	481.00	483.00	485.00	486.00	492.00	490.00	494.00	492.00	478.00	473.00	472.00	471.00	470.00	467.00	466.00	465.00	464.00	462.00	461.00	460.00	458.00	457.00	455.00	454.00	453.00	452.00	451.00	449.00	449.00	448.00	448.00	445.00	444.00	444.00	443.00	443.00	441.00	441.00	440.00	441.00	441.00	444.00	444.00	444.00	443.00	443.00	443.00	443.00	441.00	442.00	441.00	439.00	439.00	437.00	437.00	436.00	436.00	435.00	433.00	434.00	432.00	432.00	426.00	428.00	426.00	425.00	408.00	416.00	416.00	419.00	420.00	424.00	426.00	426.00	427.00	427.00	427.00	426.00	426.00	426.00	426.00	426.00	425.00	426.00	426.00	425.00	425.00	426.00	426.00	425.00	426.00	426.00	426.00	426.00	425.00	425.00	425.00	425.00
385.00	384.00	384.00	385.00	387.00	383.00	383.00	383.00	381.00	382.00	383.00	383.00	383.00	385.00	382.00	383.00	382.00	383.00	384.00	383.00	383.00	383.00	383.00	383.00	383.00	383.00	383.00	385.00	385.00	385.00	384.00	383.00	384.00	383.00	383.00	383.00	383.00	383.00	383.00	383.00	382.00	382.00	382.00	382.00	382.00	383.00	382.00	382.00	381.00	381.00	382.00	380.00	384.00	384.00	384.00	385.00	384.00	384.00	384.00	385.00	385.00	384.00	385.00	385.00	385.00	384.00	386.00	385.00	387.00	388.00	388.00	388.00	389.00	389.00	390.00	390.00	391.00	392.00	394.00	395.00	397.00	398.00	398.00	398.00	399.00	401.00	401.00	402.00	403.00	403.00	405.00	405.00	406.00	407.00	410.00	411.00	411.00	412.00	413.00	415.00	416.00	416.00	416.00	417.00	416.00	416.00	418.00	418.00	417.00	416.00	417.00	416.00	415.00	416.00	417.00	419.00	420.00	421.00	421.00	423.00	423.00	424.00	425.00	426.00	426.00	427.00	430.00	430.00	431.00	431.00	432.00	433.00	433.00	435.00	437.00	439.00	441.00	441.00	443.00	446.00	448.00	450.00	452.00	454.00	461.00	464.00	470.00	518.00	474.00	467.00	466.00	468.00	471.00	474.00	474.00	475.00	476.00	478.00	480.00	482.00	483.00	485.00	492.00	491.00	498.00	484.00	477.00	472.00	471.00	470.00	469.00	466.00	466.00	464.00	463.00	461.00	460.00	459.00	458.00	456.00	454.00	454.00	453.00	452.00	451.00	450.00	449.00	449.00	448.00	446.00	445.00	445.00	444.00	443.00	442.00	440.00	441.00	441.00	443.00	444.00	445.00	445.00	446.00	445.00	445.00	444.00	444.00	441.00	442.00	440.00	439.00	438.00	437.00	437.00	437.00	436.00	435.00	434.00	433.00	432.00	430.00	430.00	428.00	426.00	409.00	418.00	416.00	418.00	419.00	420.00	422.00	424.00	424.00	426.00	426.00	426.00	426.00	426.00	426.00	426.00	426.00	427.00	426.00	425.00	425.00	425.00	425.00	426.00	426.00	426.00	427.00	426.00	426.00	426.00	425.00	426.00
383.00	384.00	384.00	384.00	385.00	384.00	384.00	384.00	383.00	383.00	382.00	383.00	383.00	385.00	384.00	382.00	383.00	382.00	384.00	385.00	383.00	383.00	383.00	384.00	384.00	385.00	383.00	385.00	384.00	386.00	386.00	384.00	384.00	384.00	383.00	383.00	382.00	383.00	384.00	383.00	383.00	383.00	383.00	383.00	383.00	382.00	383.00	383.00	382.00	382.00	383.00	380.00	382.00	383.00	384.00	383.00	384.00	384.00	384.00	385.00	385.00	385.00	385.00	385.00	385.00	385.00	385.00	386.00	387.00	387.00	387.00	388.00	389.00	389.00	390.00	390.00	391.00	393.00	393.00	397.00	399.00	400.00	399.00	399.00	401.00	401.00	402.00	404.00	404.00	404.00	405.00	406.00	407.00	408.00	410.00	411.00	412.00	412.00	412.00	414.00	417.00	417.00	417.00	417.00	418.00	419.00	418.00	419.00	417.00	418.00	417.00	418.00	417.00	417.00	416.00	419.00	418.00	420.00	421.00	422.00	423.00	424.00	425.00	426.00	427.00	428.00	430.00	431.00	430.00	431.00	432.00	433.00	434.00	435.00	436.00	438.00	440.00	441.00	443.00	447.00	448.00	451.00	452.00	456.00	464.00	469.00	473.00	529.00	469.00	465.00	465.00	468.00	469.00	475.00	476.00	476.00	477.00	479.00	480.00	482.00	483.00	486.00	500.00	509.00	483.00	481.00	476.00	472.00	471.00	470.00	468.00	467.00	466.00	464.00	463.00	461.00	460.00	459.00	458.00	456.00	455.00	454.00	453.00	453.00	450.00	450.00	449.00	448.00	448.00	447.00	445.00	444.00	444.00	442.00	442.00	442.00	442.00	442.00	444.00	446.00	446.00	446.00	448.00	447.00	446.00	446.00	444.00	442.00	442.00	442.00	441.00	437.00	437.00	437.00	437.00	437.00	435.00	434.00	434.00	432.00	431.00	431.00	428.00	426.00	409.00	418.00	418.00	416.00	417.00	419.00	420.00	420.00	419.00	425.00	427.00	427.00	426.00	427.00	426.00	426.00	425.00	427.00	426.00	426.00	426.00	425.00	426.00	426.00	427.00	426.00	427.00	426.00	427.00	426.00	426.00	426.00
386.00	385.00	384.00	384.00	385.00	384.00	383.00	384.00	383.00	383.00	382.00	383.00	383.00	387.00	383.00	383.00	384.00	383.00	384.00	387.00	384.00	383.00	383.00	383.00	384.00	384.00	384.00	384.00	385.00	385.00	386.00	385.00	384.00	384.00	383.00	383.00	383.00	383.00	383.00	383.00	383.00	382.00	382.00	382.00	382.00	382.00	383.00	382.00	383.00	383.00	383.00	381.00	381.00	383.00	384.00	384.00	384.00	384.00	384.00	385.00	385.00	384.00	384.00	385.00	385.00	386.00	385.00	386.00	387.00	387.00	388.00	388.00	388.00	389.00	390.00	390.00	391.00	393.00	396.00	399.00	399.00	400.00	400.00	400.00	402.00	402.00	403.00	403.00	402.00	404.00	406.00	406.00	408.00	409.00	410.00	412.00	413.00	413.00	413.00	416.00	417.00	417.00	418.00	418.00	419.00	420.00	420.00	419.00	419.00	418.00	419.00	418.00	417.00	418.00	418.00	419.00	419.00	421.00	421.00	422.00	422.00	425.00	425.00	426.00	427.00	428.00	429.00	429.00	432.00	432.00	433.00	433.00	434.00	435.00	435.00	438.00	439.00	441.00	443.00	446.00	448.00	450.00	453.00	456.00	466.00	493.00	539.00	488.00	466.00	462.00	464.00	466.00	468.00	473.00	476.00	479.00	479.00	482.00	483.00	484.00	486.00	487.00	499.00	486.00	480.00	478.00	475.00	473.00	471.00	470.00	469.00	466.00	466.00	464.00	462.00	461.00	459.00	459.00	457.00	456.00	454.00	454.00	453.00	452.00	451.00	450.00	450.00	449.00	448.00	445.00	446.00	444.00	444.00	443.00	442.00	441.00	442.00	442.00	443.00	447.00	448.00	448.00	449.00	449.00	448.00	447.00	445.00	443.00	443.00	443.00	443.00	441.00	439.00	437.00	437.00	438.00	436.00	435.00	433.00	431.00	430.00	430.00	426.00	424.00	412.00	414.00	422.00	421.00	419.00	418.00	420.00	415.00	419.00	425.00	427.00	426.00	427.00	426.00	426.00	426.00	426.00	427.00	427.00	426.00	426.00	426.00	426.00	428.00	428.00	428.00	427.00	427.00	426.00	426.00	426.00	426.00
388.00	384.00	384.00	384.00	384.00	384.00	384.00	383.00	384.00	382.00	384.00	383.00	383.00	384.00	383.00	384.00	383.00	384.00	389.00	387.00	383.00	383.00	384.00	388.00	385.00	384.00	384.00	385.00	385.00	384.00	384.00	386.00	386.00	383.00	384.00	384.00	383.00	383.00	383.00	383.00	384.00	382.00	382.00	383.00	382.00	382.00	382.00	383.00	382.00	382.00	383.00	381.00	380.00	384.00	384.00	384.00	384.00	384.00	385.00	385.00	385.00	385.00	385.00	385.00	386.00	385.00	385.00	385.00	387.00	387.00	386.00	387.00	389.00	390.00	391.00	392.00	394.00	396.00	397.00	399.00	402.00	404.00	404.00	403.00	404.00	404.00	405.00	406.00	406.00	406.00	405.00	407.00	408.00	409.00	412.00	412.00	413.00	414.00	415.00	416.00	417.00	419.00	420.00	421.00	420.00	422.00	420.00	420.00	420.00	421.00	421.00	422.00	419.00	420.00	419.00	418.00	418.00	419.00	421.00	421.00	422.00	424.00	425.00	425.00	426.00	427.00	430.00	430.00	431.00	432.00	434.00	434.00	435.00	436.00	437.00	438.00	440.00	441.00	442.00	446.00	448.00	450.00	453.00	456.00	465.00	533.00	481.00	464.00	459.00	460.00	462.00	464.00	467.00	473.00	477.00	479.00	480.00	498.00	485.00	485.00	484.00	483.00	483.00	482.00	481.00	477.00	484.00	471.00	469.00	468.00	468.00	466.00	465.00	464.00	462.00	461.00	460.00	460.00	458.00	457.00	455.00	454.00	453.00	453.00	452.00	450.00	450.00	449.00	449.00	446.00	446.00	445.00	443.00	444.00	443.00	443.00	443.00	443.00	445.00	449.00	449.00	451.00	452.00	452.00	452.00	450.00	447.00	445.00	443.00	442.00	442.00	439.00	437.00	437.00	437.00	436.00	434.00	434.00	433.00	432.00	429.00	429.00	426.00	429.00	426.00	424.00	422.00	420.00	418.00	418.00	422.00	421.00	421.00	417.00	422.00	425.00	428.00	427.00	427.00	426.00	427.00	427.00	427.00	427.00	427.00	427.00	427.00	428.00	428.00	428.00	427.00	428.00	428.00	427.00	426.00	426.00
386.00	384.00	387.00	387.00	385.00	383.00	384.00	383.00	383.00	383.00	383.00	384.00	383.00	384.00	383.00	384.00	384.00	384.00	390.00	385.00	383.00	383.00	384.00	387.00	384.00	384.00	385.00	385.00	385.00	384.00	384.00	384.00	384.00	383.00	384.00	384.00	383.00	383.00	383.00	383.00	383.00	383.00	384.00	383.00	383.00	382.00	383.00	382.00	382.00	383.00	383.00	381.00	380.00	383.00	385.00	384.00	384.00	384.00	384.00	385.00	385.00	385.00	385.00	385.00	384.00	384.00	385.00	386.00	386.00	386.00	387.00	387.00	388.00	391.00	391.00	392.00	394.00	398.00	400.00	401.00	402.00	405.00	406.00	404.00	404.00	405.00	406.00	407.00	407.00	407.00	408.00	408.00	408.00	411.00	412.00	414.00	415.00	415.00	416.00	417.00	417.00	418.00	420.00	422.00	423.00	422.00	421.00	421.00	421.00	423.00	422.00	421.00	421.00	420.00	420.00	418.00	419.00	419.00	421.00	422.00	422.00	424.00	425.00	425.00	427.00	427.00	430.00	431.00	431.00	432.00	434.00	435.00	435.00	436.00	437.00	438.00	438.00	440.00	442.00	445.00	447.00	449.00	453.00	465.00	460.00	464.00	460.00	460.00	458.00	460.00	462.00	464.00	467.00	473.00	475.00	477.00	478.00	481.00	483.00	483.00	483.00	481.00	480.00	479.00	480.00	479.00	548.00	472.00	469.00	469.00	468.00	466.00	465.00	464.00	463.00	461.00	460.00	459.00	458.00	457.00	455.00	454.00	454.00	452.00	452.00	451.00	450.00	449.00	449.00	446.00	446.00	444.00	445.00	443.00	443.00	443.00	443.00	443.00	445.00	449.00	450.00	452.00	452.00	453.00	454.00	450.00	448.00	446.00	444.00	442.00	442.00	438.00	436.00	437.00	436.00	434.00	433.00	432.00	433.00	431.00	429.00	426.00	426.00	428.00	427.00	427.00	427.00	425.00	423.00	424.00	426.00	424.00	422.00	415.00	415.00	422.00	427.00	428.00	427.00	427.00	427.00	427.00	428.00	428.00	427.00	427.00	428.00	427.00	428.00	428.00	427.00	428.00	428.00	427.00	426.00	426.00
387.00	386.00	387.00	385.00	385.00	384.00	384.00	385.00	384.00	383.00	384.00	383.00	383.00	384.00	383.00	383.00	384.00	384.00	390.00	383.00	383.00	384.00	384.00	386.00	385.00	385.00	387.00	385.00	385.00	384.00	386.00	384.00	384.00	385.00	383.00	383.00	384.00	383.00	383.00	382.00	384.00	383.00	383.00	383.00	383.00	383.00	383.00	383.00	382.00	383.00	382.00	380.00	380.00	384.00	386.00	384.00	384.00	384.00	384.00	385.00	384.00	385.00	385.00	385.00	385.00	385.00	385.00	386.00	386.00	386.00	387.00	387.00	389.00	391.00	392.00	393.00	395.00	400.00	402.00	403.00	403.00	405.00	406.00	405.00	406.00	406.00	407.00	408.00	407.00	408.00	408.00	409.00	411.00	411.00	413.00	414.00	415.00	416.00	417.00	419.00	419.00	420.00	421.00	423.00	423.00	422.00	422.00	422.00	423.00	423.00	424.00	423.00	422.00	422.00	421.00	419.00	419.00	420.00	420.00	421.00	422.00	424.00	425.00	426.00	426.00	427.00	430.00	431.00	431.00	432.00	433.00	434.00	435.00	436.00	436.00	438.00	440.00	440.00	441.00	444.00	446.00	447.00	449.00	457.00	455.00	456.00	457.00	456.00	457.00	459.00	461.00	465.00	468.00	473.00	475.00	475.00	476.00	483.00	483.00	482.00	482.00	480.00	479.00	478.00	477.00	477.00	483.00	472.00	469.00	468.00	467.00	466.00	465.00	464.00	463.00	461.00	460.00	459.00	457.00	457.00	455.00	455.00	454.00	453.00	452.00	451.00	450.00	449.00	449.00	446.00	445.00	445.00	444.00	444.00	443.00	444.00	444.00	444.00	446.00	448.00	451.00	453.00	455.00	454.00	453.00	450.00	449.00	445.00	444.00	442.00	440.00	439.00	438.00	436.00	435.00	434.00	432.00	433.00	432.00	430.00	427.00	428.00	427.00	427.00	427.00	426.00	428.00	426.00	424.00	428.00	428.00	429.00	425.00	421.00	411.00	420.00	425.00	428.00	428.00	427.00	427.00	427.00	428.00	428.00	427.00	428.00	428.00	428.00	428.00	427.00	428.00	427.00	427.00	427.00	426.00	426.00
388.00	387.00	385.00	388.00	387.00	384.00	384.00	383.00	384.00	384.00	386.00	383.00	384.00	383.00	383.00	382.00	383.00	384.00	388.00	383.00	384.00	383.00	383.00	386.00	384.00	385.00	392.00	385.00	384.00	384.00	385.00	385.00	385.00	384.00	383.00	383.00	385.00	385.00	384.00	383.00	383.00	384.00	384.00	383.00	384.00	383.00	383.00	382.00	383.00	383.00	383.00	380.00	380.00	384.00	384.00	384.00	384.00	384.00	384.00	384.00	385.00	384.00	385.00	384.00	385.00	385.00	386.00	387.00	386.00	387.00	387.00	387.00	389.00	392.00	394.00	395.00	396.00	400.00	402.00	404.00	404.00	406.00	406.00	406.00	407.00	407.00	407.00	408.00	408.00	409.00	409.00	410.00	411.00	413.00	415.00	415.00	416.00	417.00	418.00	419.00	421.00	421.00	422.00	424.00	424.00	423.00	423.00	423.00	424.00	424.00	424.00	424.00	422.00	422.00	422.00	420.00	420.00	421.00	421.00	422.00	423.00	424.00	425.00	425.00	427.00	427.00	429.00	430.00	431.00	432.00	433.00	435.00	435.00	436.00	437.00	439.00	440.00	441.00	441.00	443.00	444.00	446.00	447.00	451.00	453.00	454.00	454.00	455.00	458.00	460.00	461.00	464.00	468.00	473.00	474.00	474.00	474.00	482.00	482.00	481.00	480.00	479.00	477.00	476.00	476.00	475.00	474.00	472.00	470.00	468.00	467.00	465.00	465.00	464.00	463.00	461.00	460.00	459.00	458.00	458.00	456.00	454.00	454.00	453.00	451.00	451.00	450.00	450.00	449.00	447.00	446.00	445.00	446.00	444.00	444.00	444.00	445.00	446.00	446.00	449.00	452.00	454.00	454.00	454.00	454.00	452.00	449.00	444.00	444.00	441.00	439.00	439.00	437.00	435.00	435.00	433.00	432.00	431.00	431.00	430.00	427.00	427.00	427.00	427.00	427.00	427.00	428.00	428.00	428.00	428.00	430.00	430.00	427.00	422.00	417.00	422.00	424.00	426.00	429.00	428.00	428.00	427.00	429.00	428.00	428.00	428.00	428.00	429.00	427.00	429.00	428.00	427.00	426.00	426.00	426.00	426.00
388.00	385.00	385.00	386.00	386.00	385.00	384.00	384.00	385.00	387.00	387.00	383.00	384.00	383.00	384.00	383.00	383.00	383.00	383.00	383.00	383.00	382.00	383.00	384.00	384.00	384.00	388.00	384.00	384.00	384.00	383.00	384.00	385.00	385.00	384.00	383.00	384.00	383.00	384.00	384.00	384.00	383.00	383.00	383.00	383.00	383.00	383.00	383.00	383.00	384.00	381.00	380.00	380.00	384.00	384.00	384.00	384.00	385.00	385.00	384.00	385.00	385.00	384.00	385.00	385.00	385.00	386.00	386.00	386.00	387.00	387.00	387.00	391.00	395.00	397.00	399.00	400.00	402.00	403.00	404.00	405.00	405.00	407.00	406.00	408.00	410.00	409.00	410.00	411.00	410.00	412.00	412.00	413.00	413.00	416.00	416.00	418.00	419.00	420.00	422.00	423.00	424.00	425.00	427.00	426.00	426.00	426.00	427.00	433.00	428.00	426.00	425.00	424.00	423.00	423.00	421.00	421.00	422.00	422.00	422.00	423.00	424.00	425.00	425.00	426.00	428.00	429.00	430.00	431.00	432.00	433.00	435.00	434.00	436.00	437.00	438.00	441.00	441.00	442.00	444.00	446.00	446.00	446.00	447.00	450.00	450.00	453.00	455.00	458.00	462.00	464.00	466.00	468.00	470.00	470.00	471.00	474.00	478.00	479.00	480.00	480.00	478.00	475.00	475.00	474.00	473.00	471.00	470.00	469.00	469.00	468.00	466.00	464.00	464.00	462.00	461.00	461.00	460.00	459.00	458.00	457.00	456.00	454.00	454.00	452.00	451.00	451.00	450.00	449.00	447.00	447.00	446.00	446.00	445.00	446.00	446.00	446.00	447.00	448.00	451.00	453.00	454.00	454.00	453.00	451.00	449.00	447.00	443.00	443.00	439.00	439.00	438.00	436.00	435.00	434.00	433.00	431.00	430.00	430.00	430.00	428.00	428.00	427.00	427.00	427.00	428.00	427.00	428.00	428.00	430.00	429.00	430.00	427.00	423.00	425.00	424.00	423.00	423.00	424.00	424.00	427.00	427.00	429.00	428.00	429.00	429.00	429.00	428.00	428.00	428.00	427.00	427.00	427.00	426.00	426.00	426.00
387.00	385.00	385.00	386.00	385.00	386.00	391.00	387.00	385.00	386.00	385.00	385.00	384.00	384.00	384.00	385.00	384.00	384.00	383.00	382.00	383.00	384.00	384.00	385.00	384.00	385.00	385.00	383.00	385.00	385.00	385.00	384.00	384.00	383.00	384.00	384.00	385.00	384.00	384.00	385.00	384.00	385.00	385.00	383.00	384.00	384.00	382.00	383.00	383.00	381.00	380.00	380.00	380.00	384.00	385.00	385.00	384.00	385.00	385.00	385.00	386.00	385.00	384.00	384.00	386.00	388.00	387.00	387.00	387.00	387.00	388.00	389.00	394.00	399.00	400.00	399.00	401.00	401.00	402.00	402.00	402.00	404.00	405.00	406.00	408.00	409.00	410.00	411.00	412.00	413.00	414.00	415.00	415.00	415.00	417.00	419.00	421.00	422.00	422.00	424.00	424.00	426.00	427.00	428.00	428.00	428.00	432.00	435.00	430.00	428.00	427.00	427.00	425.00	425.00	424.00	423.00	422.00	421.00	422.00	423.00	423.00	425.00	425.00	426.00	426.00	427.00	430.00	430.00	431.00	432.00	433.00	434.00	435.00	436.00	437.00	439.00	441.00	441.00	442.00	445.00	445.00	446.00	447.00	448.00	450.00	450.00	453.00	454.00	457.00	459.00	461.00	465.00	466.00	468.00	468.00	470.00	472.00	477.00	479.00	479.00	479.00	478.00	476.00	475.00	473.00	473.00	471.00	470.00	469.00	468.00	467.00	466.00	465.00	463.00	463.00	461.00	460.00	460.00	459.00	458.00	457.00	456.00	455.00	453.00	453.00	452.00	452.00	450.00	450.00	449.00	447.00	447.00	447.00	446.00	447.00	446.00	448.00	448.00	450.00	451.00	453.00	454.00	454.00	453.00	450.00	448.00	445.00	443.00	441.00	439.00	438.00	437.00	436.00	435.00	435.00	433.00	432.00	431.00	431.00	430.00	429.00	428.00	428.00	427.00	428.00	427.00	428.00	428.00	429.00	428.00	431.00	430.00	427.00	424.00	423.00	424.00	423.00	423.00	423.00	425.00	425.00	427.00	429.00	429.00	428.00	429.00	428.00	429.00	428.00	427.00	427.00	428.00	427.00	425.00	426.00	426.00
386.00	386.00	385.00	386.00	385.00	386.00	393.00	384.00	388.00	386.00	384.00	385.00	387.00	384.00	383.00	384.00	384.00	384.00	384.00	384.00	383.00	384.00	383.00	385.00	383.00	383.00	383.00	384.00	385.00	384.00	384.00	384.00	384.00	384.00	384.00	385.00	384.00	384.00	384.00	384.00	384.00	384.00	385.00	384.00	383.00	384.00	384.00	383.00	383.00	380.00	380.00	380.00	380.00	385.00	385.00	385.00	384.00	384.00	384.00	386.00	386.00	385.00	384.00	386.00	387.00	388.00	387.00	387.00	387.00	388.00	388.00	390.00	396.00	399.00	400.00	400.00	400.00	401.00	402.00	402.00	402.00	404.00	404.00	405.00	407.00	410.00	410.00	412.00	412.00	413.00	415.00	415.00	416.00	416.00	419.00	420.00	421.00	424.00	424.00	424.00	426.00	427.00	427.00	429.00	430.00	431.00	443.00	432.00	429.00	427.00	427.00	426.00	426.00	425.00	425.00	423.00	422.00	421.00	422.00	423.00	423.00	424.00	426.00	426.00	427.00	428.00	430.00	431.00	431.00	432.00	434.00	434.00	435.00	435.00	437.00	438.00	441.00	442.00	443.00	444.00	445.00	446.00	447.00	448.00	450.00	451.00	453.00	455.00	458.00	460.00	462.00	463.00	464.00	468.00	470.00	472.00	489.00	479.00	480.00	479.00	478.00	477.00	475.00	474.00	473.00	472.00	471.00	469.00	469.00	467.00	466.00	465.00	464.00	463.00	462.00	461.00	460.00	459.00	458.00	457.00	456.00	455.00	454.00	453.00	452.00	452.00	451.00	450.00	450.00	447.00	449.00	447.00	447.00	447.00	447.00	448.00	448.00	449.00	450.00	454.00	453.00	454.00	452.00	451.00	449.00	447.00	445.00	442.00	441.00	439.00	438.00	437.00	435.00	435.00	435.00	433.00	433.00	431.00	432.00	430.00	428.00	427.00	427.00	427.00	427.00	428.00	428.00	428.00	429.00	429.00	429.00	429.00	429.00	423.00	423.00	423.00	423.00	423.00	423.00	423.00	426.00	424.00	429.00	428.00	429.00	428.00	429.00	429.00	428.00	427.00	426.00	427.00	426.00	426.00	426.00	426.00
386.00	386.00	386.00	386.00	386.00	391.00	391.00	385.00	390.00	385.00	388.00	385.00	387.00	384.00	383.00	385.00	382.00	383.00	384.00	383.00	384.00	384.00	386.00	384.00	384.00	384.00	384.00	384.00	384.00	383.00	384.00	384.00	384.00	384.00	384.00	383.00	383.00	383.00	384.00	384.00	384.00	384.00	384.00	384.00	384.00	384.00	384.00	383.00	380.00	380.00	380.00	380.00	380.00	382.00	386.00	385.00	384.00	385.00	384.00	385.00	385.00	384.00	384.00	386.00	388.00	389.00	387.00	386.00	387.00	388.00	390.00	391.00	399.00	399.00	398.00	399.00	399.00	400.00	401.00	401.00	402.00	404.00	404.00	405.00	408.00	409.00	411.00	411.00	411.00	413.00	414.00	415.00	416.00	417.00	420.00	421.00	423.00	423.00	425.00	426.00	427.00	429.00	429.00	431.00	432.00	451.00	438.00	433.00	429.00	428.00	428.00	427.00	426.00	427.00	426.00	424.00	422.00	421.00	422.00	422.00	423.00	424.00	426.00	427.00	426.00	427.00	430.00	431.00	432.00	432.00	434.00	435.00	435.00	436.00	437.00	439.00	441.00	441.00	443.00	445.00	445.00	446.00	447.00	448.00	450.00	451.00	455.00	456.00	459.00	461.00	463.00	465.00	465.00	468.00	469.00	471.00	483.00	480.00	480.00	478.00	476.00	475.00	473.00	473.00	472.00	471.00	469.00	469.00	468.00	467.00	466.00	465.00	464.00	463.00	462.00	460.00	459.00	459.00	457.00	457.00	456.00	455.00	453.00	454.00	453.00	452.00	451.00	451.00	450.00	448.00	448.00	447.00	447.00	448.00	448.00	448.00	449.00	450.00	453.00	455.00	456.00	455.00	452.00	449.00	448.00	447.00	445.00	442.00	441.00	439.00	438.00	437.00	435.00	435.00	435.00	433.00	433.00	432.00	431.00	430.00	428.00	428.00	428.00	428.00	428.00	428.00	429.00	429.00	429.00	429.00	430.00	431.00	430.00	425.00	424.00	426.00	427.00	426.00	424.00	423.00	425.00	423.00	429.00	429.00	429.00	429.00	429.00	429.00	428.00	427.00	426.00	427.00	427.00	426.00	427.00	427.00
388.00	386.00	386.00	387.00	388.00	392.00	387.00	385.00	386.00	384.00	388.00	386.00	383.00	386.00	383.00	384.00	384.00	383.00	384.00	384.00	384.00	385.00	387.00	384.00	383.00	385.00	383.00	383.00	384.00	383.00	383.00	383.00	383.00	384.00	384.00	383.00	383.00	383.00	383.00	383.00	383.00	384.00	384.00	384.00	385.00	386.00	385.00	382.00	380.00	380.00	380.00	380.00	380.00	382.00	385.00	385.00	385.00	385.00	385.00	386.00	386.00	385.00	384.00	385.00	386.00	386.00	386.00	387.00	388.00	389.00	390.00	392.00	395.00	397.00	397.00	396.00	397.00	399.00	400.00	401.00	402.00	404.00	406.00	406.00	407.00	409.00	411.00	411.00	412.00	414.00	416.00	416.00	418.00	418.00	420.00	421.00	423.00	425.00	426.00	429.00	429.00	430.00	430.00	434.00	445.00	436.00	434.00	432.00	429.00	429.00	429.00	428.00	428.00	427.00	427.00	426.00	424.00	422.00	423.00	423.00	424.00	425.00	425.00	426.00	427.00	428.00	430.00	431.00	432.00	433.00	435.00	436.00	437.00	437.00	438.00	440.00	441.00	442.00	443.00	445.00	446.00	447.00	448.00	449.00	451.00	453.00	455.00	456.00	460.00	461.00	462.00	462.00	463.00	466.00	468.00	470.00	473.00	477.00	476.00	474.00	474.00	472.00	472.00	472.00	471.00	470.00	469.00	468.00	467.00	466.00	466.00	465.00	465.00	463.00	464.00	462.00	461.00	460.00	458.00	457.00	455.00	455.00	454.00	454.00	453.00	452.00	452.00	451.00	450.00	449.00	449.00	449.00	449.00	449.00	449.00	449.00	451.00	451.00	453.00	455.00	455.00	453.00	452.00	450.00	448.00	446.00	444.00	441.00	441.00	439.00	438.00	437.00	436.00	436.00	435.00	435.00	433.00	433.00	432.00	431.00	429.00	429.00	429.00	428.00	428.00	428.00	429.00	428.00	429.00	430.00	429.00	429.00	429.00	428.00	428.00	428.00	428.00	427.00	426.00	423.00	423.00	424.00	426.00	430.00	430.00	430.00	430.00	429.00	429.00	429.00	428.00	427.00	427.00	426.00	426.00	426.00
387.00	387.00	386.00	391.00	386.00	390.00	387.00	385.00	387.00	385.00	384.00	384.00	384.00	384.00	384.00	384.00	385.00	384.00	385.00	385.00	385.00	385.00	386.00	384.00	384.00	383.00	384.00	383.00	382.00	383.00	382.00	383.00	383.00	387.00	385.00	383.00	383.00	383.00	383.00	384.00	384.00	384.00	385.00	385.00	385.00	386.00	386.00	380.00	380.00	382.00	382.00	380.00	380.00	381.00	385.00	385.00	385.00	385.00	384.00	385.00	384.00	385.00	385.00	385.00	386.00	386.00	385.00	387.00	389.00	390.00	389.00	391.00	394.00	395.00	396.00	396.00	397.00	400.00	400.00	401.00	402.00	406.00	406.00	407.00	407.00	409.00	410.00	412.00	413.00	413.00	415.00	417.00	419.00	420.00	422.00	423.00	423.00	424.00	425.00	428.00	430.00	431.00	432.00	440.00	436.00	436.00	434.00	432.00	431.00	430.00	429.00	429.00	428.00	428.00	428.00	426.00	425.00	422.00	423.00	424.00	424.00	426.00	426.00	427.00	427.00	428.00	430.00	431.00	432.00	433.00	435.00	436.00	436.00	437.00	439.00	439.00	441.00	442.00	444.00	445.00	446.00	448.00	448.00	449.00	451.00	453.00	455.00	456.00	459.00	460.00	461.00	461.00	463.00	466.00	467.00	469.00	471.00	473.00	474.00	473.00	472.00	471.00	470.00	471.00	470.00	469.00	469.00	468.00	467.00	467.00	466.00	467.00	467.00	466.00	465.00	464.00	463.00	461.00	459.00	458.00	457.00	455.00	455.00	454.00	453.00	452.00	451.00	451.00	450.00	450.00	449.00	449.00	449.00	449.00	450.00	450.00	450.00	451.00	453.00	454.00	455.00	453.00	450.00	448.00	446.00	446.00	445.00	442.00	441.00	439.00	439.00	438.00	437.00	436.00	435.00	435.00	433.00	433.00	433.00	432.00	428.00	429.00	429.00	429.00	430.00	429.00	430.00	430.00	429.00	430.00	430.00	430.00	430.00	429.00	429.00	428.00	428.00	427.00	426.00	423.00	423.00	424.00	426.00	428.00	430.00	430.00	429.00	428.00	428.00	429.00	428.00	427.00	427.00	427.00	426.00	426.00
387.00	387.00	388.00	389.00	390.00	390.00	386.00	385.00	386.00	386.00	385.00	386.00	384.00	384.00	385.00	384.00	384.00	383.00	384.00	384.00	383.00	384.00	384.00	383.00	383.00	383.00	384.00	384.00	383.00	383.00	383.00	384.00	385.00	388.00	385.00	383.00	383.00	385.00	384.00	384.00	384.00	384.00	385.00	385.00	385.00	386.00	383.00	380.00	381.00	383.00	383.00	381.00	380.00	380.00	385.00	385.00	386.00	385.00	385.00	385.00	385.00	385.00	385.00	385.00	385.00	386.00	386.00	386.00	390.00	389.00	389.00	391.00	392.00	394.00	395.00	397.00	398.00	399.00	400.00	401.00	404.00	406.00	406.00	406.00	408.00	409.00	410.00	412.00	413.00	414.00	416.00	418.00	419.00	421.00	422.00	424.00	425.00	426.00	427.00	428.00	430.00	432.00	433.00	439.00	437.00	435.00	433.00	432.00	431.00	431.00	430.00	429.00	429.00	429.00	428.00	426.00	425.00	424.00	424.00	423.00	425.00	425.00	426.00	427.00	427.00	428.00	430.00	431.00	432.00	433.00	435.00	436.00	437.00	437.00	438.00	440.00	441.00	442.00	444.00	445.00	446.00	447.00	448.00	449.00	451.00	452.00	455.00	456.00	459.00	459.00	460.00	461.00	462.00	465.00	466.00	468.00	470.00	472.00	472.00	472.00	471.00	470.00	469.00	469.00	469.00	469.00	469.00	468.00	468.00	468.00	468.00	469.00	468.00	467.00	468.00	466.00	464.00	462.00	460.00	458.00	457.00	456.00	455.00	455.00	453.00	453.00	452.00	451.00	451.00	451.00	450.00	449.00	450.00	450.00	450.00	451.00	452.00	452.00	454.00	455.00	454.00	452.00	449.00	448.00	447.00	445.00	445.00	443.00	442.00	440.00	439.00	438.00	438.00	437.00	436.00	435.00	434.00	433.00	433.00	432.00	429.00	429.00	429.00	429.00	430.00	428.00	429.00	430.00	431.00	430.00	430.00	429.00	430.00	429.00	430.00	428.00	429.00	430.00	427.00	425.00	423.00	425.00	425.00	427.00	430.00	429.00	429.00	428.00	428.00	428.00	427.00	427.00	428.00	427.00	426.00	427.00
387.00	387.00	386.00	388.00	391.00	387.00	385.00	386.00	384.00	385.00	384.00	387.00	387.00	385.00	390.00	384.00	383.00	384.00	383.00	384.00	384.00	383.00	385.00	383.00	383.00	384.00	383.00	382.00	383.00	383.00	383.00	384.00	387.00	385.00	384.00	383.00	383.00	383.00	384.00	383.00	384.00	384.00	384.00	385.00	385.00	386.00	380.00	380.00	381.00	383.00	382.00	383.00	381.00	380.00	386.00	386.00	386.00	385.00	385.00	385.00	385.00	385.00	385.00	385.00	386.00	386.00	387.00	388.00	389.00	389.00	390.00	391.00	392.00	393.00	394.00	396.00	398.00	399.00	401.00	402.00	403.00	405.00	405.00	406.00	406.00	409.00	410.00	412.00	413.00	414.00	417.00	418.00	421.00	422.00	423.00	423.00	425.00	426.00	427.00	429.00	430.00	432.00	434.00	437.00	435.00	434.00	434.00	434.00	433.00	433.00	431.00	431.00	430.00	430.00	428.00	427.00	424.00	424.00	424.00	424.00	424.00	426.00	427.00	427.00	427.00	428.00	431.00	431.00	433.00	433.00	435.00	435.00	436.00	437.00	438.00	440.00	442.00	442.00	444.00	445.00	446.00	447.00	448.00	449.00	451.00	452.00	455.00	456.00	457.00	458.00	459.00	460.00	462.00	465.00	466.00	468.00	469.00	470.00	470.00	470.00	469.00	469.00	468.00	469.00	470.00	469.00	468.00	469.00	468.00	468.00	469.00	471.00	471.00	470.00	471.00	469.00	468.00	465.00	461.00	460.00	458.00	456.00	456.00	455.00	453.00	452.00	453.00	452.00	452.00	450.00	450.00	451.00	450.00	450.00	451.00	451.00	452.00	452.00	454.00	454.00	454.00	452.00	449.00	448.00	447.00	447.00	445.00	443.00	442.00	441.00	441.00	439.00	438.00	437.00	437.00	436.00	434.00	433.00	432.00	432.00	430.00	429.00	429.00	428.00	429.00	429.00	429.00	430.00	430.00	430.00	430.00	430.00	430.00	429.00	430.00	428.00	428.00	428.00	427.00	426.00	423.00	425.00	423.00	425.00	429.00	429.00	429.00	428.00	428.00	428.00	428.00	428.00	427.00	426.00	426.00	427.00
387.00	387.00	387.00	388.00	391.00	386.00	387.00	387.00	385.00	385.00	386.00	385.00	387.00	389.00	384.00	384.00	384.00	384.00	386.00	387.00	392.00	385.00	383.00	382.00	383.00	384.00	383.00	383.00	383.00	384.00	382.00	384.00	386.00	383.00	382.00	383.00	384.00	384.00	383.00	383.00	383.00	384.00	385.00	384.00	384.00	381.00	380.00	381.00	383.00	383.00	383.00	383.00	383.00	380.00	384.00	386.00	385.00	385.00	386.00	385.00	385.00	385.00	384.00	386.00	386.00	387.00	389.00	389.00	389.00	390.00	390.00	391.00	392.00	393.00	393.00	394.00	396.00	398.00	400.00	401.00	402.00	402.00	403.00	404.00	407.00	408.00	410.00	411.00	412.00	414.00	417.00	418.00	420.00	421.00	426.00	426.00	426.00	427.00	428.00	432.00	432.00	434.00	437.00	436.00	436.00	436.00	436.00	437.00	437.00	434.00	432.00	432.00	430.00	430.00	428.00	428.00	426.00	424.00	425.00	425.00	426.00	427.00	427.00	428.00	428.00	428.00	431.00	432.00	433.00	434.00	436.00	436.00	438.00	438.00	440.00	441.00	443.00	445.00	445.00	447.00	447.00	447.00	449.00	450.00	451.00	452.00	454.00	455.00	456.00	457.00	458.00	460.00	461.00	463.00	463.00	465.00	465.00	467.00	467.00	467.00	466.00	466.00	468.00	467.00	468.00	469.00	467.00	470.00	469.00	470.00	471.00	474.00	477.00	482.00	483.00	483.00	480.00	476.00	467.00	463.00	458.00	458.00	457.00	456.00	454.00	453.00	453.00	452.00	453.00	451.00	452.00	452.00	451.00	451.00	451.00	452.00	453.00	453.00	454.00	455.00	453.00	452.00	451.00	450.00	449.00	448.00	447.00	445.00	445.00	444.00	443.00	441.00	440.00	439.00	438.00	437.00	435.00	434.00	433.00	432.00	431.00	430.00	430.00	429.00	429.00	429.00	431.00	429.00	430.00	431.00	431.00	431.00	430.00	431.00	430.00	429.00	428.00	429.00	429.00	428.00	426.00	426.00	423.00	423.00	427.00	428.00	430.00	430.00	429.00	428.00	429.00	428.00	428.00	428.00	428.00	428.00
387.00	387.00	387.00	388.00	391.00	386.00	387.00	387.00	385.00	385.00	386.00	385.00	387.00	389.00	384.00	384.00	384.00	384.00	386.00	387.00	392.00	385.00	383.00	382.00	383.00	384.00	383.00	383.00	383.00	384.00	382.00	384.00	386.00	383.00	382.00	383.00	384.00	384.00	383.00	383.00	383.00	384.00	385.00	384.00	384.00	381.00	380.00	381.00	383.00	383.00	383.00	383.00	383.00	380.00	384.00	386.00	385.00	385.00	386.00	385.00	385.00	385.00	384.00	386.00	386.00	387.00	389.00	389.00	389.00	390.00	390.00	391.00	392.00	393.00	393.00	394.00	396.00	398.00	400.00	401.00	402.00	402.00	403.00	404.00	407.00	408.00	410.00	411.00	412.00	414.00	417.00	418.00	420.00	421.00	426.00	426.00	426.00	427.00	428.00	432.00	432.00	434.00	437.00	436.00	436.00	436.00	436.00	437.00	437.00	434.00	432.00	432.00	430.00	430.00	428.00	428.00	426.00	424.00	425.00	425.00	426.00	427.00	427.00	428.00	428.00	428.00	431.00	432.00	433.00	434.00	436.00	436.00	438.00	438.00	440.00	441.00	443.00	445.00	445.00	447.00	447.00	447.00	449.00	450.00	451.00	452.00	454.00	455.00	456.00	457.00	458.00	460.00	461.00	463.00	463.00	465.00	465.00	467.00	467.00	467.00	466.00	466.00	468.00	467.00	468.00	469.00	467.00	470.00	469.00	470.00	471.00	474.00	477.00	482.00	483.00	483.00	480.00	476.00	467.00	463.00	458.00	458.00	457.00	456.00	454.00	453.00	453.00	452.00	453.00	451.00	452.00	452.00	451.00	451.00	451.00	452.00	453.00	453.00	454.00	455.00	453.00	452.00	451.00	450.00	449.00	448.00	447.00	445.00	445.00	444.00	443.00	441.00	440.00	439.00	438.00	437.00	435.00	434.00	433.00	432.00	431.00	430.00	430.00	429.00	429.00	429.00	431.00	429.00	430.00	431.00	431.00	431.00	430.00	431.00	430.00	429.00	428.00	429.00	429.00	428.00	426.00	426.00	423.00	423.00	427.00	428.00	430.00	430.00	429.00	428.00	429.00	428.00	428.00	428.00	428.00	428.00
388.00	387.00	387.00	390.00	394.00	387.00	386.00	386.00	386.00	385.00	385.00	389.00	392.00	390.00	384.00	384.00	385.00	384.00	387.00	392.00	392.00	386.00	385.00	384.00	383.00	383.00	384.00	383.00	384.00	384.00	384.00	385.00	384.00	383.00	384.00	383.00	382.00	384.00	384.00	383.00	383.00	384.00	385.00	384.00	384.00	380.00	380.00	381.00	383.00	383.00	383.00	384.00	383.00	381.00	384.00	386.00	386.00	386.00	385.00	385.00	385.00	385.00	385.00	385.00	385.00	387.00	388.00	389.00	389.00	390.00	390.00	391.00	391.00	393.00	393.00	394.00	395.00	398.00	399.00	400.00	401.00	402.00	403.00	404.00	406.00	409.00	410.00	412.00	413.00	414.00	417.00	417.00	418.00	420.00	424.00	425.00	425.00	428.00	428.00	432.00	435.00	436.00	437.00	435.00	437.00	436.00	438.00	439.00	436.00	435.00	433.00	432.00	430.00	430.00	429.00	427.00	426.00	426.00	425.00	427.00	426.00	427.00	428.00	428.00	428.00	429.00	431.00	432.00	433.00	435.00	439.00	438.00	438.00	439.00	440.00	442.00	444.00	445.00	446.00	448.00	448.00	448.00	448.00	450.00	452.00	453.00	455.00	456.00	457.00	458.00	459.00	459.00	461.00	462.00	463.00	464.00	464.00	466.00	466.00	467.00	466.00	465.00	466.00	467.00	468.00	467.00	468.00	468.00	469.00	470.00	471.00	490.00	485.00	485.00	491.00	537.00	502.00	496.00	470.00	466.00	460.00	458.00	457.00	457.00	456.00	455.00	454.00	453.00	453.00	453.00	453.00	452.00	452.00	452.00	452.00	453.00	453.00	454.00	454.00	455.00	454.00	453.00	453.00	452.00	451.00	450.00	449.00	446.00	447.00	445.00	443.00	442.00	440.00	440.00	438.00	437.00	436.00	434.00	433.00	433.00	430.00	430.00	430.00	431.00	429.00	429.00	430.00	430.00	430.00	431.00	432.00	431.00	431.00	431.00	430.00	429.00	429.00	429.00	430.00	429.00	425.00	425.00	423.00	424.00	427.00	429.00	429.00	430.00	429.00	429.00	429.00	428.00	428.00	428.00	429.00	428.00
387.00	390.00	391.00	393.00	394.00	385.00	385.00	387.00	386.00	390.00	386.00	393.00	393.00	389.00	385.00	385.00	385.00	386.00	388.00	393.00	390.00	386.00	384.00	384.00	383.00	384.00	383.00	384.00	384.00	384.00	384.00	385.00	383.00	384.00	383.00	383.00	383.00	383.00	384.00	384.00	383.00	384.00	384.00	385.00	384.00	380.00	380.00	382.00	383.00	382.00	384.00	383.00	383.00	382.00	383.00	385.00	386.00	386.00	386.00	385.00	384.00	385.00	385.00	386.00	385.00	387.00	389.00	388.00	389.00	389.00	390.00	390.00	392.00	393.00	393.00	394.00	396.00	398.00	399.00	399.00	401.00	402.00	403.00	404.00	406.00	408.00	411.00	411.00	412.00	413.00	415.00	416.00	419.00	420.00	422.00	425.00	426.00	428.00	430.00	433.00	434.00	436.00	436.00	436.00	436.00	438.00	438.00	438.00	436.00	435.00	433.00	433.00	429.00	429.00	428.00	427.00	425.00	425.00	426.00	426.00	426.00	427.00	428.00	428.00	429.00	430.00	433.00	434.00	435.00	435.00	439.00	438.00	439.00	440.00	441.00	442.00	444.00	445.00	446.00	448.00	448.00	449.00	449.00	449.00	452.00	453.00	456.00	457.00	458.00	458.00	458.00	460.00	460.00	461.00	462.00	462.00	463.00	465.00	465.00	465.00	465.00	464.00	466.00	466.00	467.00	466.00	466.00	468.00	468.00	469.00	471.00	482.00	486.00	544.00	538.00	527.00	579.00	538.00	473.00	468.00	460.00	460.00	458.00	457.00	456.00	455.00	454.00	454.00	454.00	453.00	453.00	453.00	453.00	453.00	454.00	453.00	454.00	454.00	455.00	455.00	455.00	454.00	454.00	454.00	452.00	452.00	450.00	449.00	449.00	445.00	445.00	444.00	442.00	440.00	439.00	438.00	436.00	434.00	434.00	432.00	431.00	432.00	431.00	431.00	430.00	430.00	431.00	431.00	431.00	431.00	432.00	432.00	432.00	431.00	431.00	429.00	429.00	429.00	429.00	428.00	426.00	425.00	424.00	424.00	429.00	430.00	430.00	430.00	430.00	429.00	429.00	427.00	428.00	427.00	429.00	429.00
388.00	393.00	391.00	390.00	388.00	386.00	386.00	386.00	385.00	391.00	390.00	390.00	388.00	388.00	385.00	383.00	385.00	388.00	386.00	387.00	385.00	385.00	384.00	385.00	383.00	383.00	384.00	383.00	384.00	384.00	385.00	383.00	383.00	382.00	383.00	382.00	382.00	385.00	383.00	383.00	383.00	384.00	384.00	384.00	385.00	380.00	380.00	382.00	383.00	383.00	384.00	383.00	384.00	383.00	380.00	384.00	384.00	385.00	385.00	385.00	385.00	385.00	386.00	385.00	385.00	386.00	387.00	387.00	388.00	389.00	389.00	390.00	391.00	393.00	394.00	394.00	395.00	398.00	399.00	399.00	401.00	402.00	403.00	404.00	407.00	408.00	409.00	410.00	410.00	412.00	414.00	416.00	418.00	419.00	422.00	425.00	427.00	428.00	430.00	433.00	434.00	433.00	433.00	435.00	437.00	435.00	435.00	435.00	435.00	434.00	433.00	433.00	430.00	429.00	428.00	427.00	426.00	426.00	427.00	427.00	427.00	428.00	429.00	429.00	430.00	430.00	432.00	433.00	434.00	436.00	438.00	439.00	441.00	442.00	442.00	444.00	446.00	446.00	447.00	448.00	448.00	449.00	449.00	450.00	452.00	452.00	455.00	455.00	456.00	457.00	458.00	458.00	458.00	460.00	460.00	461.00	461.00	463.00	463.00	463.00	463.00	463.00	464.00	464.00	463.00	463.00	464.00	465.00	466.00	469.00	470.00	476.00	481.00	489.00	507.00	595.00	607.00	584.00	530.00	474.00	462.00	461.00	459.00	458.00	456.00	456.00	456.00	455.00	455.00	456.00	456.00	455.00	455.00	455.00	454.00	455.00	455.00	455.00	456.00	456.00	457.00	457.00	457.00	457.00	456.00	453.00	453.00	452.00	452.00	449.00	448.00	446.00	444.00	442.00	440.00	439.00	437.00	435.00	434.00	434.00	433.00	432.00	432.00	432.00	432.00	431.00	432.00	431.00	432.00	432.00	432.00	432.00	432.00	431.00	431.00	430.00	430.00	430.00	430.00	430.00	431.00	423.00	426.00	425.00	429.00	428.00	428.00	429.00	430.00	429.00	429.00	427.00	428.00	428.00	427.00	428.00
392.00	389.00	391.00	389.00	386.00	386.00	386.00	387.00	386.00	392.00	387.00	390.00	389.00	388.00	386.00	384.00	385.00	385.00	384.00	385.00	384.00	384.00	384.00	384.00	384.00	385.00	383.00	384.00	384.00	385.00	385.00	383.00	384.00	382.00	383.00	383.00	384.00	384.00	383.00	384.00	384.00	384.00	384.00	385.00	383.00	380.00	381.00	383.00	383.00	383.00	384.00	383.00	384.00	383.00	380.00	383.00	384.00	385.00	385.00	385.00	385.00	385.00	385.00	385.00	386.00	386.00	387.00	388.00	389.00	390.00	390.00	391.00	391.00	393.00	394.00	395.00	396.00	397.00	398.00	399.00	400.00	402.00	403.00	404.00	407.00	408.00	409.00	411.00	411.00	413.00	416.00	416.00	417.00	418.00	423.00	424.00	426.00	428.00	429.00	431.00	432.00	431.00	433.00	434.00	434.00	434.00	434.00	433.00	435.00	433.00	433.00	433.00	430.00	429.00	428.00	427.00	427.00	427.00	427.00	427.00	428.00	428.00	429.00	429.00	430.00	431.00	433.00	433.00	435.00	436.00	439.00	439.00	441.00	442.00	443.00	445.00	447.00	447.00	447.00	448.00	448.00	448.00	449.00	450.00	451.00	453.00	454.00	454.00	456.00	456.00	457.00	457.00	458.00	459.00	460.00	460.00	460.00	461.00	462.00	462.00	462.00	462.00	462.00	462.00	462.00	462.00	463.00	464.00	466.00	467.00	470.00	483.00	483.00	484.00	489.00	568.00	528.00	525.00	542.00	471.00	464.00	461.00	460.00	459.00	457.00	457.00	456.00	456.00	456.00	456.00	456.00	456.00	456.00	456.00	456.00	456.00	456.00	456.00	456.00	457.00	457.00	458.00	458.00	458.00	458.00	456.00	455.00	455.00	453.00	449.00	449.00	447.00	445.00	443.00	441.00	439.00	437.00	436.00	435.00	434.00	432.00	432.00	432.00	431.00	432.00	432.00	432.00	432.00	432.00	432.00	432.00	432.00	432.00	431.00	431.00	431.00	431.00	431.00	431.00	431.00	432.00	426.00	426.00	424.00	429.00	429.00	429.00	429.00	429.00	430.00	429.00	428.00	427.00	427.00	428.00	427.00
389.00	389.00	393.00	388.00	385.00	386.00	387.00	393.00	388.00	391.00	389.00	389.00	387.00	388.00	385.00	385.00	383.00	383.00	386.00	385.00	385.00	386.00	385.00	383.00	384.00	383.00	384.00	384.00	384.00	384.00	384.00	384.00	383.00	384.00	383.00	384.00	386.00	384.00	383.00	382.00	385.00	384.00	384.00	385.00	383.00	380.00	381.00	383.00	383.00	383.00	385.00	383.00	383.00	383.00	381.00	383.00	386.00	385.00	386.00	385.00	385.00	386.00	385.00	386.00	385.00	386.00	386.00	388.00	389.00	389.00	391.00	391.00	392.00	393.00	394.00	394.00	394.00	397.00	396.00	399.00	400.00	401.00	402.00	403.00	406.00	408.00	409.00	410.00	411.00	412.00	414.00	416.00	417.00	419.00	422.00	424.00	426.00	428.00	430.00	429.00	430.00	431.00	432.00	432.00	432.00	432.00	433.00	433.00	432.00	433.00	433.00	432.00	430.00	429.00	429.00	427.00	427.00	427.00	427.00	428.00	428.00	429.00	430.00	430.00	430.00	432.00	432.00	433.00	435.00	437.00	440.00	440.00	441.00	442.00	443.00	446.00	447.00	446.00	446.00	448.00	447.00	448.00	449.00	449.00	450.00	450.00	453.00	453.00	455.00	455.00	456.00	456.00	457.00	458.00	459.00	459.00	460.00	461.00	460.00	461.00	461.00	461.00	461.00	460.00	460.00	460.00	462.00	463.00	463.00	466.00	468.00	517.00	503.00	490.00	486.00	495.00	503.00	541.00	541.00	474.00	464.00	462.00	460.00	460.00	457.00	457.00	457.00	457.00	457.00	458.00	458.00	457.00	457.00	457.00	456.00	457.00	457.00	457.00	457.00	458.00	458.00	459.00	460.00	459.00	459.00	457.00	456.00	456.00	455.00	450.00	450.00	448.00	446.00	444.00	441.00	440.00	438.00	437.00	435.00	435.00	433.00	433.00	433.00	433.00	433.00	432.00	432.00	434.00	434.00	434.00	432.00	433.00	433.00	431.00	431.00	431.00	431.00	432.00	432.00	432.00	432.00	428.00	424.00	424.00	427.00	428.00	429.00	428.00	429.00	429.00	430.00	428.00	428.00	428.00	428.00	428.00
387.00	389.00	394.00	391.00	386.00	386.00	392.00	390.00	390.00	390.00	391.00	387.00	386.00	387.00	385.00	386.00	386.00	385.00	386.00	387.00	386.00	384.00	385.00	383.00	384.00	384.00	385.00	384.00	384.00	384.00	384.00	384.00	384.00	385.00	384.00	385.00	384.00	386.00	384.00	383.00	383.00	384.00	384.00	385.00	383.00	380.00	382.00	383.00	383.00	383.00	385.00	383.00	384.00	383.00	382.00	382.00	385.00	385.00	385.00	385.00	385.00	385.00	386.00	386.00	385.00	386.00	386.00	389.00	390.00	390.00	390.00	391.00	393.00	394.00	394.00	395.00	395.00	397.00	397.00	399.00	399.00	401.00	402.00	404.00	406.00	407.00	409.00	410.00	410.00	412.00	414.00	415.00	417.00	418.00	422.00	423.00	425.00	428.00	428.00	429.00	429.00	431.00	431.00	430.00	431.00	431.00	431.00	431.00	432.00	433.00	433.00	433.00	431.00	430.00	429.00	428.00	427.00	427.00	428.00	429.00	429.00	429.00	430.00	430.00	431.00	432.00	433.00	434.00	435.00	436.00	439.00	440.00	442.00	443.00	444.00	446.00	446.00	446.00	447.00	447.00	447.00	448.00	449.00	449.00	449.00	451.00	451.00	453.00	454.00	454.00	455.00	455.00	456.00	457.00	458.00	458.00	459.00	460.00	461.00	460.00	460.00	460.00	459.00	459.00	460.00	459.00	460.00	461.00	461.00	462.00	466.00	574.00	594.00	565.00	496.00	487.00	507.00	511.00	573.00	485.00	466.00	464.00	462.00	460.00	458.00	459.00	458.00	458.00	459.00	458.00	458.00	459.00	458.00	458.00	457.00	458.00	458.00	458.00	458.00	459.00	460.00	460.00	460.00	461.00	460.00	459.00	457.00	457.00	456.00	452.00	450.00	448.00	446.00	444.00	443.00	441.00	438.00	437.00	436.00	435.00	434.00	433.00	433.00	433.00	434.00	433.00	435.00	434.00	433.00	433.00	433.00	433.00	433.00	431.00	431.00	431.00	431.00	430.00	432.00	432.00	432.00	427.00	424.00	424.00	425.00	426.00	428.00	429.00	429.00	429.00	429.00	429.00	428.00	427.00	429.00	429.00
388.00	391.00	393.00	388.00	387.00	387.00	387.00	390.00	394.00	390.00	387.00	387.00	386.00	386.00	387.00	387.00	386.00	387.00	386.00	387.00	386.00	385.00	384.00	385.00	385.00	385.00	384.00	384.00	384.00	384.00	384.00	383.00	384.00	384.00	383.00	383.00	385.00	390.00	385.00	383.00	384.00	384.00	385.00	386.00	381.00	380.00	383.00	383.00	383.00	383.00	383.00	382.00	384.00	383.00	382.00	382.00	384.00	385.00	385.00	385.00	385.00	385.00	386.00	386.00	386.00	386.00	387.00	388.00	390.00	390.00	391.00	391.00	393.00	393.00	395.00	395.00	396.00	401.00	400.00	400.00	399.00	401.00	402.00	403.00	406.00	406.00	408.00	409.00	410.00	412.00	414.00	414.00	415.00	417.00	421.00	423.00	424.00	424.00	425.00	429.00	429.00	429.00	429.00	427.00	427.00	429.00	429.00	429.00	431.00	431.00	433.00	433.00	432.00	432.00	431.00	429.00	429.00	429.00	429.00	429.00	430.00	430.00	431.00	431.00	431.00	432.00	434.00	435.00	436.00	437.00	440.00	442.00	443.00	444.00	445.00	445.00	445.00	446.00	446.00	446.00	447.00	448.00	448.00	449.00	451.00	451.00	453.00	453.00	454.00	454.00	454.00	455.00	455.00	456.00	456.00	458.00	458.00	460.00	460.00	459.00	459.00	458.00	458.00	457.00	457.00	457.00	457.00	457.00	458.00	459.00	460.00	469.00	508.00	529.00	580.00	474.00	475.00	480.00	481.00	476.00	465.00	463.00	463.00	462.00	463.00	460.00	459.00	460.00	460.00	460.00	460.00	460.00	460.00	460.00	459.00	459.00	460.00	459.00	459.00	460.00	460.00	461.00	462.00	461.00	461.00	461.00	459.00	458.00	456.00	450.00	449.00	447.00	445.00	444.00	444.00	442.00	439.00	439.00	436.00	436.00	434.00	435.00	434.00	434.00	435.00	435.00	436.00	434.00	434.00	435.00	433.00	433.00	432.00	432.00	431.00	433.00	432.00	431.00	432.00	431.00	432.00	427.00	424.00	423.00	428.00	428.00	427.00	429.00	429.00	429.00	429.00	429.00	429.00	428.00	428.00	429.00
389.00	391.00	390.00	386.00	387.00	387.00	388.00	393.00	394.00	386.00	385.00	386.00	386.00	385.00	388.00	386.00	386.00	393.00	385.00	385.00	386.00	385.00	385.00	384.00	385.00	385.00	384.00	385.00	383.00	384.00	384.00	383.00	385.00	384.00	383.00	383.00	389.00	390.00	384.00	383.00	383.00	384.00	385.00	386.00	381.00	380.00	383.00	383.00	383.00	383.00	383.00	383.00	384.00	383.00	382.00	384.00	385.00	384.00	385.00	385.00	385.00	385.00	385.00	386.00	387.00	386.00	387.00	388.00	390.00	390.00	390.00	391.00	393.00	394.00	394.00	395.00	397.00	401.00	402.00	401.00	401.00	402.00	402.00	402.00	405.00	406.00	407.00	408.00	409.00	411.00	413.00	415.00	415.00	417.00	421.00	422.00	422.00	424.00	426.00	428.00	428.00	428.00	428.00	426.00	427.00	428.00	428.00	429.00	431.00	431.00	432.00	432.00	432.00	431.00	431.00	430.00	430.00	429.00	430.00	430.00	430.00	431.00	431.00	432.00	432.00	433.00	434.00	435.00	436.00	436.00	440.00	441.00	442.00	444.00	444.00	444.00	444.00	444.00	446.00	446.00	447.00	449.00	449.00	450.00	451.00	452.00	453.00	454.00	455.00	455.00	456.00	456.00	455.00	456.00	458.00	459.00	459.00	459.00	459.00	458.00	458.00	458.00	456.00	456.00	456.00	456.00	456.00	456.00	456.00	456.00	457.00	462.00	466.00	468.00	472.00	470.00	470.00	474.00	522.00	471.00	464.00	462.00	463.00	466.00	468.00	462.00	460.00	460.00	460.00	460.00	460.00	461.00	460.00	460.00	460.00	460.00	460.00	460.00	460.00	461.00	461.00	461.00	462.00	461.00	462.00	460.00	460.00	458.00	456.00	451.00	449.00	447.00	445.00	445.00	443.00	441.00	440.00	439.00	438.00	437.00	436.00	435.00	436.00	435.00	436.00	436.00	436.00	436.00	435.00	435.00	435.00	433.00	433.00	433.00	432.00	432.00	431.00	433.00	432.00	432.00	431.00	429.00	424.00	424.00	428.00	429.00	429.00	428.00	428.00	430.00	428.00	430.00	430.00	429.00	428.00	429.00
