765.00	772.00	775.00	778.00	778.00	777.00	791.00	837.00	831.00	869.00	853.00	799.00	796.00	787.00	776.00	769.00	767.00	765.00	768.00	791.00	859.00	885.00	799.00	722.00	709.00	708.00	703.00	698.00	695.00	683.00	748.00	740.00	678.00	665.00	730.00	757.00	658.00	649.00	632.00	764.00	833.00	748.00	673.00	613.00	610.00	607.00	606.00	603.00	603.00	605.00	606.00	604.00	600.00	599.00	600.00	601.00	602.00	606.00	636.00	638.00	632.00	612.00	613.00	613.00	616.00	619.00	629.00	642.00	659.00	681.00	678.00	650.00	701.00	824.00	836.00	800.00	882.00	985.00	1183.00	1181.00	1301.00	1374.00	1250.00	1086.00	873.00	856.00	882.00	895.00	930.00	968.00	1086.00	1098.00	886.00	1064.00	1142.00	1268.00	1143.00	1110.00	1130.00	1166.00	1251.00	1160.00	1017.00	1035.00	1055.00	1088.00	1279.00	1406.00	1554.00	1665.00	1621.00	1584.00	1529.00	1313.00	1440.00	1226.00	1210.00	1245.00	1284.00	1358.00	1438.00	1538.00	1684.00	1807.00	1771.00	1702.00	1605.00	1627.00	1716.00	1710.00	1819.00	1966.00	2153.00	2320.00	2336.00	2264.00	2176.00	2151.00	2196.00	2146.00	2159.00	2400.00	2204.00	2142.00	2102.00	1848.00	1669.00	1657.00	1692.00	1783.00	1765.00	1529.00	1546.00	1557.00	1326.00	1184.00	1326.00	1389.00	1226.00	1144.00	1282.00	1216.00	1271.00	1434.00	1675.00	1366.00	1126.00	978.00	869.00	805.00	788.00	794.00	793.00	790.00	789.00	790.00	820.00	940.00	1280.00	1185.00	1041.00	1013.00	784.00	730.00	724.00	722.00	720.00	703.00	698.00	701.00	703.00	691.00	685.00	682.00	679.00	678.00	671.00	680.00	683.00	689.00	696.00	699.00	663.00	640.00	635.00	644.00	644.00	668.00	687.00	799.00	969.00	1102.00	1160.00	1006.00	803.00	767.00	763.00	782.00	989.00	1152.00	1261.00	1164.00	1195.00	1363.00	1266.00	1184.00	1204.00	1088.00	814.00	825.00	823.00	881.00	1009.00	1114.00	1269.00	1262.00	1165.00	1292.00	1258.00	1412.00	1404.00	1060.00	918.00	760.00	738.00	572.00	685.00	825.00	932.00	1044.00	1251.00	1210.00	1117.00	1098.00	1173.00	1339.00
752.00	754.00	758.00	760.00	762.00	764.00	772.00	795.00	825.00	817.00	812.00	794.00	777.00	770.00	762.00	756.00	750.00	748.00	740.00	725.00	772.00	788.00	706.00	698.00	697.00	692.00	690.00	689.00	686.00	676.00	707.00	744.00	679.00	645.00	658.00	677.00	653.00	624.00	619.00	684.00	672.00	706.00	614.00	606.00	605.00	604.00	602.00	600.00	603.00	603.00	599.00	596.00	598.00	599.00	599.00	600.00	602.00	608.00	648.00	724.00	698.00	614.00	615.00	618.00	623.00	628.00	659.00	661.00	668.00	680.00	678.00	708.00	784.00	874.00	834.00	973.00	1040.00	1128.00	1195.00	1296.00	1451.00	1425.00	1120.00	1027.00	889.00	879.00	890.00	935.00	1045.00	1071.00	1162.00	1289.00	1057.00	1169.00	1227.00	1266.00	1137.00	1081.00	1137.00	1187.00	1312.00	1276.00	1053.00	1063.00	1080.00	1127.00	1288.00	1417.00	1588.00	1824.00	1746.00	1706.00	1584.00	1472.00	1558.00	1343.00	1280.00	1261.00	1348.00	1368.00	1431.00	1527.00	1619.00	1728.00	1888.00	1820.00	1777.00	1773.00	1922.00	1882.00	1924.00	2105.00	2251.00	2238.00	2263.00	2166.00	2027.00	2004.00	2009.00	1999.00	2155.00	2355.00	2373.00	2195.00	2039.00	1819.00	1664.00	1509.00	1525.00	1747.00	1772.00	1388.00	1475.00	1461.00	1314.00	1332.00	1487.00	1514.00	1376.00	1277.00	1452.00	1395.00	1445.00	1639.00	1499.00	1280.00	1164.00	1060.00	895.00	801.00	783.00	786.00	786.00	798.00	803.00	802.00	823.00	927.00	1053.00	971.00	915.00	828.00	746.00	733.00	729.00	725.00	718.00	706.00	699.00	698.00	693.00	695.00	708.00	727.00	708.00	697.00	701.00	750.00	795.00	766.00	751.00	692.00	651.00	641.00	630.00	643.00	643.00	667.00	688.00	801.00	934.00	1145.00	1255.00	1074.00	784.00	751.00	746.00	758.00	981.00	1079.00	1050.00	1048.00	1173.00	1497.00	1402.00	1386.00	1409.00	1134.00	849.00	780.00	844.00	911.00	1120.00	1213.00	1298.00	1305.00	1218.00	1359.00	1436.00	1386.00	1438.00	1110.00	1020.00	885.00	915.00	566.00	701.00	886.00	1038.00	1200.00	1268.00	1149.00	1087.00	1003.00	999.00	1194.00
752.00	754.00	758.00	760.00	762.00	764.00	772.00	795.00	825.00	817.00	812.00	794.00	777.00	770.00	762.00	756.00	750.00	748.00	740.00	725.00	772.00	788.00	706.00	698.00	697.00	692.00	690.00	689.00	686.00	676.00	707.00	744.00	679.00	645.00	658.00	677.00	653.00	624.00	619.00	684.00	672.00	706.00	614.00	606.00	605.00	604.00	602.00	600.00	603.00	603.00	599.00	596.00	598.00	599.00	599.00	600.00	602.00	608.00	648.00	724.00	698.00	614.00	615.00	618.00	623.00	628.00	659.00	661.00	668.00	680.00	678.00	708.00	784.00	874.00	834.00	973.00	1040.00	1128.00	1195.00	1296.00	1451.00	1425.00	1120.00	1027.00	889.00	879.00	890.00	935.00	1045.00	1071.00	1162.00	1289.00	1057.00	1169.00	1227.00	1266.00	1137.00	1081.00	1137.00	1187.00	1312.00	1276.00	1053.00	1063.00	1080.00	1127.00	1288.00	1417.00	1588.00	1824.00	1746.00	1706.00	1584.00	1472.00	1558.00	1343.00	1280.00	1261.00	1348.00	1368.00	1431.00	1527.00	1619.00	1728.00	1888.00	1820.00	1777.00	1773.00	1922.00	1882.00	1924.00	2105.00	2251.00	2238.00	2263.00	2166.00	2027.00	2004.00	2009.00	1999.00	2155.00	2355.00	2373.00	2195.00	2039.00	1819.00	1664.00	1509.00	1525.00	1747.00	1772.00	1388.00	1475.00	1461.00	1314.00	1332.00	1487.00	1514.00	1376.00	1277.00	1452.00	1395.00	1445.00	1639.00	1499.00	1280.00	1164.00	1060.00	895.00	801.00	783.00	786.00	786.00	798.00	803.00	802.00	823.00	927.00	1053.00	971.00	915.00	828.00	746.00	733.00	729.00	725.00	718.00	706.00	699.00	698.00	693.00	695.00	708.00	727.00	708.00	697.00	701.00	750.00	795.00	766.00	751.00	692.00	651.00	641.00	630.00	643.00	643.00	667.00	688.00	801.00	934.00	1145.00	1255.00	1074.00	784.00	751.00	746.00	758.00	981.00	1079.00	1050.00	1048.00	1173.00	1497.00	1402.00	1386.00	1409.00	1134.00	849.00	780.00	844.00	911.00	1120.00	1213.00	1298.00	1305.00	1218.00	1359.00	1436.00	1386.00	1438.00	1110.00	1020.00	885.00	915.00	566.00	701.00	886.00	1038.00	1200.00	1268.00	1149.00	1087.00	1003.00	999.00	1194.00
738.00	740.00	741.00	749.00	751.00	751.00	758.00	773.00	788.00	811.00	806.00	797.00	777.00	766.00	756.00	748.00	738.00	734.00	728.00	714.00	723.00	744.00	698.00	688.00	687.00	682.00	681.00	680.00	679.00	670.00	672.00	673.00	668.00	648.00	632.00	629.00	622.00	618.00	615.00	607.00	617.00	621.00	602.00	601.00	601.00	599.00	598.00	600.00	602.00	603.00	594.00	594.00	597.00	598.00	600.00	602.00	604.00	636.00	695.00	710.00	633.00	623.00	647.00	718.00	707.00	710.00	726.00	728.00	725.00	705.00	765.00	768.00	875.00	975.00	954.00	976.00	1101.00	1264.00	1353.00	1485.00	1436.00	1316.00	1057.00	965.00	930.00	908.00	919.00	1002.00	1184.00	1185.00	1289.00	1403.00	1169.00	1249.00	1354.00	1267.00	1162.00	1122.00	1170.00	1253.00	1376.00	1376.00	1125.00	1124.00	1152.00	1148.00	1296.00	1424.00	1581.00	1777.00	1870.00	1810.00	1697.00	1654.00	1713.00	1434.00	1389.00	1312.00	1353.00	1479.00	1533.00	1565.00	1625.00	1690.00	2036.00	2033.00	1930.00	2003.00	2099.00	2013.00	2118.00	2214.00	2195.00	2052.00	2111.00	2095.00	1948.00	1847.00	1879.00	1979.00	2233.00	2449.00	2483.00	2271.00	2115.00	2014.00	1709.00	1507.00	1444.00	1665.00	1684.00	1350.00	1322.00	1306.00	1269.00	1394.00	1497.00	1607.00	1545.00	1467.00	1616.00	1661.00	1661.00	1611.00	1380.00	1126.00	1049.00	1005.00	882.00	790.00	778.00	776.00	785.00	855.00	885.00	866.00	918.00	1054.00	900.00	795.00	765.00	753.00	736.00	730.00	723.00	723.00	722.00	706.00	707.00	706.00	714.00	715.00	764.00	851.00	821.00	727.00	763.00	898.00	954.00	909.00	795.00	694.00	661.00	644.00	630.00	630.00	637.00	661.00	694.00	835.00	983.00	1003.00	1131.00	1026.00	768.00	732.00	733.00	798.00	996.00	918.00	987.00	1118.00	1266.00	1553.00	1433.00	1321.00	1240.00	1003.00	811.00	770.00	800.00	857.00	1044.00	1093.00	1136.00	1277.00	1299.00	1418.00	1416.00	1280.00	1429.00	1153.00	1090.00	1023.00	937.00	586.00	662.00	844.00	1051.00	1136.00	1151.00	1045.00	926.00	898.00	1069.00	1023.00
710.00	711.00	717.00	725.00	727.00	726.00	723.00	728.00	780.00	791.00	781.00	773.00	760.00	752.00	743.00	734.00	723.00	721.00	718.00	706.00	701.00	690.00	683.00	679.00	675.00	669.00	670.00	667.00	664.00	658.00	656.00	650.00	646.00	641.00	632.00	629.00	622.00	620.00	614.00	603.00	601.00	600.00	599.00	596.00	597.00	599.00	598.00	597.00	593.00	591.00	593.00	593.00	614.00	611.00	605.00	609.00	633.00	626.00	622.00	625.00	627.00	849.00	930.00	1025.00	1011.00	938.00	942.00	894.00	827.00	766.00	916.00	1017.00	1027.00	1123.00	1238.00	1232.00	1170.00	1241.00	1275.00	1537.00	1472.00	1308.00	1025.00	990.00	1038.00	1127.00	1071.00	1181.00	1326.00	1468.00	1614.00	1658.00	1447.00	1507.00	1599.00	1549.00	1408.00	1239.00	1357.00	1484.00	1579.00	1453.00	1401.00	1423.00	1337.00	1243.00	1403.00	1545.00	1691.00	1819.00	1926.00	1985.00	2010.00	2081.00	2017.00	1717.00	1604.00	1628.00	1669.00	1866.00	1970.00	2086.00	2166.00	2170.00	2101.00	2264.00	2367.00	2279.00	2334.00	2314.00	2183.00	2054.00	1946.00	1783.00	1789.00	1754.00	1750.00	1788.00	1945.00	2142.00	2323.00	2378.00	2358.00	2219.00	2081.00	2006.00	1637.00	1510.00	1383.00	1338.00	1466.00	1455.00	1309.00	1210.00	1185.00	1359.00	1471.00	1657.00	1816.00	1902.00	1661.00	1617.00	1579.00	1412.00	1083.00	1144.00	974.00	850.00	816.00	786.00	770.00	776.00	865.00	786.00	765.00	842.00	1004.00	1050.00	893.00	786.00	776.00	801.00	763.00	737.00	733.00	723.00	719.00	724.00	787.00	819.00	782.00	796.00	847.00	984.00	1027.00	951.00	1105.00	1249.00	1318.00	1281.00	916.00	735.00	676.00	658.00	644.00	624.00	617.00	652.00	766.00	763.00	713.00	775.00	873.00	841.00	735.00	696.00	706.00	777.00	826.00	959.00	1102.00	1245.00	1405.00	1704.00	1567.00	1482.00	1396.00	1075.00	809.00	746.00	844.00	911.00	1112.00	1211.00	1178.00	1320.00	1485.00	1444.00	1264.00	1089.00	1262.00	1270.00	1079.00	859.00	715.00	709.00	576.00	717.00	856.00	966.00	1115.00	965.00	857.00	796.00	880.00	952.00
699.00	701.00	705.00	714.00	715.00	715.00	710.00	721.00	781.00	782.00	776.00	767.00	751.00	744.00	736.00	728.00	716.00	714.00	709.00	702.00	696.00	687.00	681.00	678.00	673.00	665.00	663.00	664.00	657.00	655.00	649.00	645.00	643.00	639.00	631.00	627.00	620.00	619.00	615.00	603.00	602.00	602.00	599.00	597.00	598.00	597.00	597.00	597.00	589.00	590.00	595.00	607.00	771.00	701.00	613.00	615.00	621.00	622.00	628.00	636.00	647.00	803.00	878.00	1041.00	1112.00	1033.00	1022.00	1033.00	1049.00	910.00	871.00	1162.00	1187.00	1169.00	1286.00	1294.00	1239.00	1275.00	1413.00	1491.00	1331.00	1184.00	1021.00	1056.00	1195.00	1269.00	1258.00	1316.00	1416.00	1593.00	1802.00	1805.00	1588.00	1615.00	1710.00	1632.00	1448.00	1264.00	1338.00	1382.00	1492.00	1473.00	1433.00	1511.00	1456.00	1339.00	1471.00	1616.00	1773.00	1777.00	1725.00	1792.00	1835.00	1945.00	1905.00	1784.00	1746.00	1769.00	1839.00	1926.00	2042.00	2182.00	2227.00	2290.00	1971.00	2179.00	2148.00	2078.00	2265.00	2192.00	2027.00	1928.00	1850.00	1602.00	1591.00	1592.00	1631.00	1880.00	2068.00	2269.00	2289.00	2194.00	2265.00	2144.00	1936.00	1955.00	1778.00	1625.00	1490.00	1325.00	1250.00	1365.00	1282.00	1193.00	1171.00	1319.00	1443.00	1570.00	1701.00	1772.00	1548.00	1485.00	1578.00	1462.00	1072.00	915.00	863.00	849.00	868.00	800.00	767.00	769.00	764.00	741.00	744.00	778.00	824.00	839.00	987.00	949.00	925.00	834.00	751.00	741.00	735.00	733.00	728.00	753.00	916.00	1020.00	944.00	978.00	1042.00	1104.00	1192.00	1174.00	1303.00	1294.00	1205.00	1194.00	1020.00	880.00	753.00	755.00	687.00	633.00	628.00	643.00	763.00	672.00	692.00	810.00	917.00	863.00	686.00	681.00	686.00	742.00	840.00	930.00	1037.00	1173.00	1366.00	1626.00	1460.00	1285.00	1164.00	1080.00	844.00	783.00	741.00	862.00	1005.00	1165.00	1227.00	1316.00	1441.00	1361.00	1153.00	993.00	1164.00	1278.00	1084.00	828.00	607.00	565.00	635.00	800.00	970.00	1030.00	1023.00	940.00	875.00	778.00	770.00	785.00
688.00	690.00	697.00	699.00	702.00	702.00	696.00	715.00	785.00	782.00	768.00	757.00	745.00	737.00	729.00	722.00	708.00	705.00	701.00	694.00	690.00	680.00	675.00	670.00	665.00	661.00	659.00	656.00	653.00	649.00	641.00	641.00	637.00	634.00	627.00	623.00	620.00	617.00	615.00	605.00	601.00	602.00	602.00	597.00	597.00	594.00	593.00	589.00	588.00	590.00	604.00	654.00	897.00	777.00	647.00	619.00	624.00	632.00	634.00	650.00	674.00	924.00	946.00	1000.00	1116.00	1112.00	1133.00	1205.00	1109.00	1093.00	852.00	1134.00	1283.00	1302.00	1389.00	1370.00	1384.00	1366.00	1494.00	1455.00	1299.00	1152.00	1065.00	1082.00	1283.00	1448.00	1384.00	1338.00	1532.00	1681.00	1885.00	1856.00	1600.00	1536.00	1563.00	1530.00	1479.00	1369.00	1355.00	1458.00	1483.00	1414.00	1406.00	1469.00	1439.00	1523.00	1596.00	1594.00	1604.00	1665.00	1561.00	1628.00	1682.00	1759.00	1872.00	1741.00	1717.00	1632.00	1624.00	1712.00	1900.00	1965.00	2052.00	2091.00	1863.00	1969.00	1923.00	1926.00	2159.00	2036.00	1897.00	1742.00	1667.00	1500.00	1524.00	1625.00	1718.00	2007.00	2188.00	2272.00	2127.00	2004.00	2028.00	1910.00	1812.00	1748.00	1618.00	1637.00	1528.00	1342.00	1275.00	1237.00	1194.00	1159.00	1161.00	1242.00	1338.00	1440.00	1493.00	1576.00	1438.00	1390.00	1484.00	1385.00	1037.00	926.00	926.00	987.00	1067.00	849.00	769.00	753.00	746.00	735.00	730.00	734.00	756.00	763.00	920.00	971.00	852.00	799.00	756.00	750.00	749.00	779.00	754.00	796.00	982.00	1155.00	1129.00	1089.00	1143.00	1210.00	1325.00	1411.00	1377.00	1161.00	1063.00	1058.00	1087.00	995.00	936.00	880.00	739.00	626.00	615.00	622.00	640.00	651.00	669.00	716.00	731.00	738.00	670.00	665.00	678.00	708.00	903.00	1052.00	1235.00	1306.00	1364.00	1549.00	1387.00	1252.00	1130.00	894.00	827.00	777.00	731.00	793.00	912.00	1050.00	1126.00	1232.00	1394.00	1284.00	1095.00	937.00	1086.00	1239.00	1077.00	847.00	592.00	592.00	707.00	833.00	853.00	914.00	928.00	835.00	767.00	737.00	772.00	776.00
679.00	681.00	682.00	685.00	689.00	690.00	686.00	702.00	753.00	772.00	768.00	760.00	745.00	740.00	738.00	732.00	716.00	707.00	696.00	689.00	685.00	676.00	670.00	668.00	666.00	657.00	654.00	653.00	650.00	644.00	639.00	637.00	633.00	628.00	624.00	620.00	618.00	616.00	613.00	606.00	603.00	600.00	601.00	595.00	593.00	594.00	591.00	585.00	588.00	589.00	599.00	675.00	870.00	831.00	667.00	626.00	633.00	648.00	678.00	695.00	742.00	904.00	1046.00	1085.00	1109.00	1216.00	1277.00	1304.00	1299.00	1299.00	939.00	1088.00	1246.00	1383.00	1455.00	1556.00	1489.00	1481.00	1598.00	1329.00	1228.00	1154.00	1104.00	1148.00	1396.00	1493.00	1506.00	1445.00	1573.00	1715.00	1803.00	1755.00	1483.00	1419.00	1395.00	1396.00	1343.00	1422.00	1431.00	1426.00	1404.00	1392.00	1375.00	1396.00	1431.00	1563.00	1473.00	1434.00	1438.00	1471.00	1457.00	1520.00	1533.00	1676.00	1778.00	1715.00	1641.00	1590.00	1460.00	1591.00	1751.00	1785.00	1843.00	1841.00	1793.00	1800.00	1726.00	1823.00	2022.00	1943.00	1782.00	1677.00	1551.00	1453.00	1632.00	1674.00	1781.00	1990.00	2135.00	2228.00	2168.00	1962.00	1813.00	1740.00	1696.00	1547.00	1499.00	1481.00	1460.00	1337.00	1238.00	1177.00	1165.00	1138.00	1171.00	1177.00	1254.00	1277.00	1346.00	1440.00	1331.00	1348.00	1475.00	1421.00	1101.00	1123.00	1124.00	1261.00	1261.00	888.00	771.00	747.00	747.00	732.00	727.00	725.00	759.00	829.00	888.00	1022.00	912.00	796.00	772.00	763.00	762.00	811.00	809.00	824.00	1013.00	1202.00	1190.00	1219.00	1251.00	1266.00	1325.00	1345.00	1259.00	1003.00	940.00	972.00	962.00	927.00	818.00	748.00	709.00	633.00	615.00	606.00	621.00	636.00	632.00	634.00	635.00	650.00	652.00	649.00	672.00	690.00	986.00	1133.00	1196.00	1158.00	1248.00	1449.00	1244.00	1116.00	1082.00	949.00	799.00	758.00	729.00	853.00	885.00	971.00	1063.00	1218.00	1416.00	1364.00	1135.00	824.00	1016.00	1263.00	1122.00	943.00	673.00	676.00	652.00	732.00	777.00	804.00	793.00	757.00	717.00	737.00	867.00	851.00
661.00	663.00	659.00	665.00	667.00	669.00	668.00	677.00	697.00	709.00	731.00	761.00	755.00	748.00	734.00	723.00	712.00	712.00	708.00	702.00	698.00	689.00	687.00	685.00	684.00	673.00	668.00	664.00	657.00	653.00	652.00	648.00	646.00	642.00	640.00	643.00	650.00	643.00	629.00	614.00	607.00	608.00	604.00	597.00	596.00	592.00	586.00	583.00	586.00	593.00	694.00	658.00	734.00	772.00	657.00	642.00	647.00	691.00	716.00	800.00	908.00	1012.00	1101.00	1143.00	1244.00	1343.00	1624.00	1611.00	1528.00	1462.00	1169.00	1120.00	1217.00	1309.00	1414.00	1653.00	1758.00	1804.00	1592.00	1327.00	1390.00	1329.00	1437.00	1480.00	1566.00	1578.00	1680.00	1678.00	1525.00	1582.00	1532.00	1425.00	1395.00	1276.00	1263.00	1227.00	1246.00	1368.00	1390.00	1348.00	1321.00	1288.00	1328.00	1391.00	1449.00	1505.00	1354.00	1296.00	1263.00	1272.00	1311.00	1370.00	1392.00	1447.00	1532.00	1430.00	1450.00	1370.00	1345.00	1585.00	1570.00	1505.00	1538.00	1500.00	1527.00	1587.00	1711.00	1753.00	1626.00	1597.00	1672.00	1732.00	1703.00	1559.00	1419.00	1532.00	1530.00	1711.00	1742.00	1746.00	1743.00	1910.00	1766.00	1755.00	1657.00	1365.00	1160.00	1206.00	1350.00	1414.00	1309.00	1183.00	1160.00	1186.00	1267.00	1377.00	1171.00	1138.00	1232.00	1211.00	1239.00	1303.00	1410.00	1534.00	1443.00	1201.00	1157.00	1062.00	1160.00	972.00	820.00	733.00	732.00	725.00	721.00	716.00	742.00	752.00	923.00	1022.00	955.00	936.00	908.00	916.00	877.00	910.00	950.00	1115.00	1196.00	1328.00	1231.00	1019.00	914.00	988.00	1086.00	1095.00	925.00	925.00	788.00	711.00	764.00	744.00	722.00	656.00	642.00	627.00	619.00	596.00	592.00	604.00	599.00	602.00	611.00	662.00	630.00	628.00	652.00	672.00	797.00	833.00	974.00	1119.00	1079.00	1173.00	1226.00	1160.00	1064.00	896.00	859.00	749.00	699.00	799.00	971.00	1124.00	1235.00	1289.00	1280.00	1111.00	949.00	676.00	691.00	848.00	735.00	603.00	665.00	904.00	882.00	764.00	738.00	764.00	724.00	682.00	728.00	755.00	788.00	752.00
661.00	663.00	659.00	665.00	667.00	669.00	668.00	677.00	697.00	709.00	731.00	761.00	755.00	748.00	734.00	723.00	712.00	712.00	708.00	702.00	698.00	689.00	687.00	685.00	684.00	673.00	668.00	664.00	657.00	653.00	652.00	648.00	646.00	642.00	640.00	643.00	650.00	643.00	629.00	614.00	607.00	608.00	604.00	597.00	596.00	592.00	586.00	583.00	586.00	593.00	694.00	658.00	734.00	772.00	657.00	642.00	647.00	691.00	716.00	800.00	908.00	1012.00	1101.00	1143.00	1244.00	1343.00	1624.00	1611.00	1528.00	1462.00	1169.00	1120.00	1217.00	1309.00	1414.00	1653.00	1758.00	1804.00	1592.00	1327.00	1390.00	1329.00	1437.00	1480.00	1566.00	1578.00	1680.00	1678.00	1525.00	1582.00	1532.00	1425.00	1395.00	1276.00	1263.00	1227.00	1246.00	1368.00	1390.00	1348.00	1321.00	1288.00	1328.00	1391.00	1449.00	1505.00	1354.00	1296.00	1263.00	1272.00	1311.00	1370.00	1392.00	1447.00	1532.00	1430.00	1450.00	1370.00	1345.00	1585.00	1570.00	1505.00	1538.00	1500.00	1527.00	1587.00	1711.00	1753.00	1626.00	1597.00	1672.00	1732.00	1703.00	1559.00	1419.00	1532.00	1530.00	1711.00	1742.00	1746.00	1743.00	1910.00	1766.00	1755.00	1657.00	1365.00	1160.00	1206.00	1350.00	1414.00	1309.00	1183.00	1160.00	1186.00	1267.00	1377.00	1171.00	1138.00	1232.00	1211.00	1239.00	1303.00	1410.00	1534.00	1443.00	1201.00	1157.00	1062.00	1160.00	972.00	820.00	733.00	732.00	725.00	721.00	716.00	742.00	752.00	923.00	1022.00	955.00	936.00	908.00	916.00	877.00	910.00	950.00	1115.00	1196.00	1328.00	1231.00	1019.00	914.00	988.00	1086.00	1095.00	925.00	925.00	788.00	711.00	764.00	744.00	722.00	656.00	642.00	627.00	619.00	596.00	592.00	604.00	599.00	602.00	611.00	662.00	630.00	628.00	652.00	672.00	797.00	833.00	974.00	1119.00	1079.00	1173.00	1226.00	1160.00	1064.00	896.00	859.00	749.00	699.00	799.00	971.00	1124.00	1235.00	1289.00	1280.00	1111.00	949.00	676.00	691.00	848.00	735.00	603.00	665.00	904.00	882.00	764.00	738.00	764.00	724.00	682.00	728.00	755.00	788.00	752.00
649.00	651.00	651.00	653.00	656.00	658.00	659.00	668.00	681.00	689.00	703.00	720.00	752.00	742.00	731.00	725.00	725.00	725.00	720.00	714.00	711.00	703.00	705.00	703.00	700.00	691.00	686.00	682.00	676.00	673.00	673.00	668.00	670.00	671.00	682.00	688.00	677.00	667.00	661.00	606.00	601.00	601.00	597.00	596.00	596.00	591.00	589.00	583.00	602.00	689.00	704.00	662.00	732.00	743.00	654.00	655.00	702.00	745.00	764.00	790.00	784.00	978.00	1014.00	1108.00	1210.00	1305.00	1640.00	1560.00	1427.00	1296.00	1275.00	1249.00	1359.00	1479.00	1612.00	1749.00	1876.00	1862.00	1647.00	1488.00	1528.00	1552.00	1696.00	1590.00	1667.00	1791.00	1698.00	1544.00	1434.00	1448.00	1479.00	1374.00	1332.00	1225.00	1203.00	1194.00	1251.00	1386.00	1353.00	1315.00	1281.00	1256.00	1408.00	1434.00	1442.00	1505.00	1379.00	1338.00	1265.00	1254.00	1264.00	1248.00	1297.00	1359.00	1437.00	1350.00	1274.00	1296.00	1350.00	1382.00	1445.00	1416.00	1434.00	1431.00	1545.00	1720.00	1905.00	1859.00	1551.00	1500.00	1566.00	1644.00	1597.00	1610.00	1374.00	1382.00	1405.00	1627.00	1533.00	1562.00	1617.00	1806.00	1782.00	1841.00	1659.00	1331.00	1131.00	1208.00	1333.00	1418.00	1297.00	1189.00	1185.00	1258.00	1445.00	1493.00	1329.00	1110.00	1072.00	1075.00	1328.00	1325.00	1381.00	1500.00	1506.00	1196.00	1130.00	920.00	945.00	791.00	730.00	726.00	725.00	722.00	718.00	714.00	714.00	723.00	939.00	893.00	877.00	1004.00	1142.00	1056.00	868.00	771.00	788.00	1101.00	1203.00	1261.00	1138.00	853.00	792.00	871.00	903.00	988.00	788.00	861.00	760.00	704.00	678.00	671.00	661.00	648.00	639.00	623.00	614.00	605.00	590.00	585.00	583.00	586.00	613.00	673.00	617.00	619.00	657.00	670.00	756.00	836.00	1004.00	1066.00	916.00	1010.00	1049.00	1113.00	1064.00	891.00	783.00	684.00	790.00	848.00	1046.00	1129.00	1227.00	1122.00	1195.00	974.00	737.00	568.00	607.00	585.00	609.00	686.00	831.00	1080.00	1042.00	843.00	768.00	732.00	688.00	683.00	853.00	968.00	922.00	910.00
641.00	640.00	641.00	647.00	647.00	648.00	648.00	656.00	666.00	673.00	684.00	694.00	724.00	733.00	738.00	738.00	739.00	739.00	731.00	728.00	728.00	729.00	728.00	725.00	717.00	713.00	708.00	706.00	699.00	697.00	699.00	699.00	706.00	713.00	733.00	714.00	701.00	700.00	664.00	612.00	601.00	598.00	595.00	594.00	592.00	587.00	581.00	581.00	631.00	791.00	678.00	666.00	777.00	772.00	688.00	673.00	763.00	883.00	900.00	950.00	841.00	1129.00	1195.00	1172.00	1355.00	1471.00	1721.00	1626.00	1447.00	1293.00	1495.00	1372.00	1436.00	1538.00	1644.00	1814.00	1819.00	1721.00	1702.00	1703.00	1714.00	1742.00	1750.00	1728.00	1791.00	1759.00	1662.00	1557.00	1324.00	1305.00	1393.00	1351.00	1280.00	1192.00	1167.00	1223.00	1283.00	1438.00	1371.00	1369.00	1327.00	1249.00	1285.00	1280.00	1389.00	1452.00	1356.00	1250.00	1210.00	1211.00	1191.00	1187.00	1218.00	1278.00	1333.00	1240.00	1245.00	1246.00	1260.00	1375.00	1387.00	1377.00	1368.00	1387.00	1627.00	1769.00	1850.00	1850.00	1577.00	1456.00	1496.00	1547.00	1545.00	1552.00	1337.00	1349.00	1467.00	1416.00	1405.00	1497.00	1696.00	1706.00	1510.00	1634.00	1555.00	1252.00	1133.00	1157.00	1182.00	1267.00	1231.00	1211.00	1195.00	1309.00	1511.00	1404.00	1300.00	1115.00	1044.00	1132.00	1421.00	1469.00	1480.00	1584.00	1458.00	1045.00	960.00	852.00	786.00	742.00	724.00	721.00	720.00	716.00	713.00	710.00	704.00	715.00	744.00	750.00	798.00	923.00	1014.00	917.00	906.00	755.00	729.00	1031.00	1163.00	1161.00	1055.00	766.00	736.00	746.00	781.00	920.00	723.00	763.00	814.00	756.00	671.00	663.00	655.00	647.00	638.00	641.00	646.00	614.00	608.00	600.00	600.00	576.00	574.00	593.00	605.00	638.00	693.00	733.00	839.00	971.00	1055.00	910.00	774.00	922.00	913.00	972.00	1007.00	944.00	745.00	642.00	709.00	856.00	1038.00	1155.00	1183.00	992.00	1139.00	986.00	760.00	705.00	807.00	871.00	805.00	888.00	860.00	1113.00	1072.00	903.00	795.00	678.00	664.00	690.00	818.00	988.00	999.00	950.00
622.00	623.00	624.00	628.00	628.00	629.00	633.00	638.00	650.00	668.00	672.00	682.00	712.00	728.00	750.00	774.00	785.00	787.00	770.00	771.00	765.00	772.00	767.00	770.00	770.00	763.00	768.00	767.00	770.00	751.00	747.00	762.00	783.00	787.00	752.00	732.00	715.00	689.00	691.00	623.00	600.00	592.00	591.00	589.00	587.00	587.00	652.00	592.00	596.00	629.00	661.00	808.00	954.00	1022.00	1002.00	874.00	722.00	947.00	1073.00	1178.00	1150.00	1216.00	1464.00	1611.00	1617.00	1694.00	1715.00	1604.00	1642.00	1688.00	1799.00	1649.00	1605.00	1520.00	1580.00	1370.00	1392.00	1514.00	1687.00	1805.00	1706.00	1516.00	1415.00	1481.00	1574.00	1425.00	1379.00	1351.00	1386.00	1303.00	1221.00	1214.00	1187.00	1120.00	1149.00	1184.00	1266.00	1480.00	1489.00	1447.00	1465.00	1418.00	1151.00	1156.00	1184.00	1182.00	1188.00	1121.00	1091.00	1117.00	1130.00	1152.00	1166.00	1153.00	1146.00	1198.00	1198.00	1194.00	1212.00	1243.00	1270.00	1307.00	1354.00	1409.00	1442.00	1499.00	1593.00	1678.00	1505.00	1419.00	1359.00	1350.00	1419.00	1408.00	1323.00	1299.00	1269.00	1429.00	1559.00	1561.00	1532.00	1452.00	1212.00	1276.00	1214.00	1304.00	1114.00	1071.00	1051.00	1062.00	1065.00	1080.00	1109.00	1213.00	1419.00	1210.00	1123.00	1042.00	1054.00	1120.00	1291.00	1365.00	1420.00	1541.00	1339.00	1109.00	1204.00	1160.00	920.00	724.00	718.00	712.00	710.00	707.00	706.00	703.00	695.00	698.00	733.00	791.00	919.00	905.00	757.00	734.00	747.00	707.00	713.00	1073.00	1132.00	1089.00	939.00	704.00	691.00	686.00	724.00	862.00	690.00	671.00	688.00	786.00	728.00	763.00	768.00	739.00	759.00	739.00	726.00	659.00	702.00	714.00	624.00	636.00	669.00	603.00	596.00	647.00	764.00	834.00	987.00	950.00	986.00	880.00	701.00	782.00	714.00	808.00	722.00	881.00	842.00	693.00	650.00	844.00	1031.00	947.00	920.00	784.00	787.00	891.00	767.00	628.00	760.00	1075.00	1187.00	1246.00	1170.00	1136.00	999.00	938.00	842.00	720.00	726.00	859.00	975.00	951.00	731.00	665.00
622.00	623.00	624.00	628.00	628.00	629.00	633.00	638.00	650.00	668.00	672.00	682.00	712.00	728.00	750.00	774.00	785.00	787.00	770.00	771.00	765.00	772.00	767.00	770.00	770.00	763.00	768.00	767.00	770.00	751.00	747.00	762.00	783.00	787.00	752.00	732.00	715.00	689.00	691.00	623.00	600.00	592.00	591.00	589.00	587.00	587.00	652.00	592.00	596.00	629.00	661.00	808.00	954.00	1022.00	1002.00	874.00	722.00	947.00	1073.00	1178.00	1150.00	1216.00	1464.00	1611.00	1617.00	1694.00	1715.00	1604.00	1642.00	1688.00	1799.00	1649.00	1605.00	1520.00	1580.00	1370.00	1392.00	1514.00	1687.00	1805.00	1706.00	1516.00	1415.00	1481.00	1574.00	1425.00	1379.00	1351.00	1386.00	1303.00	1221.00	1214.00	1187.00	1120.00	1149.00	1184.00	1266.00	1480.00	1489.00	1447.00	1465.00	1418.00	1151.00	1156.00	1184.00	1182.00	1188.00	1121.00	1091.00	1117.00	1130.00	1152.00	1166.00	1153.00	1146.00	1198.00	1198.00	1194.00	1212.00	1243.00	1270.00	1307.00	1354.00	1409.00	1442.00	1499.00	1593.00	1678.00	1505.00	1419.00	1359.00	1350.00	1419.00	1408.00	1323.00	1299.00	1269.00	1429.00	1559.00	1561.00	1532.00	1452.00	1212.00	1276.00	1214.00	1304.00	1114.00	1071.00	1051.00	1062.00	1065.00	1080.00	1109.00	1213.00	1419.00	1210.00	1123.00	1042.00	1054.00	1120.00	1291.00	1365.00	1420.00	1541.00	1339.00	1109.00	1204.00	1160.00	920.00	724.00	718.00	712.00	710.00	707.00	706.00	703.00	695.00	698.00	733.00	791.00	919.00	905.00	757.00	734.00	747.00	707.00	713.00	1073.00	1132.00	1089.00	939.00	704.00	691.00	686.00	724.00	862.00	690.00	671.00	688.00	786.00	728.00	763.00	768.00	739.00	759.00	739.00	726.00	659.00	702.00	714.00	624.00	636.00	669.00	603.00	596.00	647.00	764.00	834.00	987.00	950.00	986.00	880.00	701.00	782.00	714.00	808.00	722.00	881.00	842.00	693.00	650.00	844.00	1031.00	947.00	920.00	784.00	787.00	891.00	767.00	628.00	760.00	1075.00	1187.00	1246.00	1170.00	1136.00	999.00	938.00	842.00	720.00	726.00	859.00	975.00	951.00	731.00	665.00
606.00	608.00	610.00	617.00	619.00	620.00	624.00	628.00	642.00	654.00	670.00	684.00	725.00	750.00	764.00	783.00	815.00	811.00	787.00	787.00	791.00	801.00	796.00	799.00	799.00	792.00	797.00	797.00	798.00	784.00	786.00	790.00	797.00	797.00	753.00	732.00	716.00	711.00	686.00	612.00	599.00	591.00	590.00	601.00	584.00	585.00	613.00	592.00	583.00	581.00	680.00	800.00	1077.00	995.00	921.00	831.00	781.00	941.00	979.00	1135.00	1282.00	1408.00	1521.00	1606.00	1685.00	1808.00	1793.00	1778.00	1808.00	1861.00	1789.00	1654.00	1581.00	1520.00	1398.00	1295.00	1439.00	1610.00	1673.00	1691.00	1644.00	1502.00	1321.00	1375.00	1597.00	1506.00	1383.00	1273.00	1295.00	1256.00	1206.00	1177.00	1120.00	1106.00	1142.00	1211.00	1324.00	1603.00	1569.00	1543.00	1484.00	1422.00	1114.00	1091.00	1122.00	1116.00	1110.00	1101.00	1068.00	1125.00	1107.00	1122.00	1136.00	1120.00	1132.00	1153.00	1164.00	1205.00	1262.00	1262.00	1313.00	1339.00	1386.00	1439.00	1414.00	1495.00	1593.00	1632.00	1408.00	1353.00	1324.00	1300.00	1299.00	1261.00	1342.00	1310.00	1242.00	1410.00	1387.00	1351.00	1314.00	1249.00	1134.00	1133.00	1156.00	1256.00	1107.00	1092.00	1030.00	1030.00	1045.00	1057.00	1106.00	1214.00	1415.00	1209.00	1061.00	1019.00	1163.00	1294.00	1454.00	1471.00	1530.00	1614.00	1302.00	955.00	905.00	840.00	753.00	715.00	711.00	708.00	707.00	703.00	702.00	700.00	695.00	690.00	748.00	797.00	805.00	752.00	707.00	705.00	696.00	692.00	699.00	1006.00	979.00	897.00	833.00	687.00	678.00	676.00	694.00	767.00	670.00	661.00	689.00	835.00	766.00	801.00	850.00	804.00	848.00	727.00	726.00	749.00	773.00	670.00	638.00	692.00	714.00	684.00	588.00	671.00	772.00	941.00	978.00	794.00	790.00	764.00	652.00	709.00	671.00	796.00	729.00	681.00	762.00	667.00	619.00	821.00	873.00	788.00	647.00	556.00	652.00	723.00	594.00	741.00	833.00	1128.00	1204.00	1327.00	1398.00	1281.00	1100.00	950.00	757.00	734.00	625.00	680.00	867.00	848.00	637.00	600.00
603.00	604.00	603.00	604.00	606.00	609.00	612.00	617.00	635.00	651.00	677.00	702.00	741.00	757.00	796.00	808.00	830.00	815.00	799.00	819.00	828.00	826.00	819.00	829.00	834.00	832.00	832.00	818.00	809.00	783.00	781.00	776.00	771.00	773.00	770.00	753.00	730.00	697.00	669.00	629.00	627.00	601.00	613.00	585.00	582.00	581.00	579.00	576.00	576.00	578.00	660.00	767.00	1071.00	943.00	910.00	904.00	887.00	850.00	932.00	1072.00	1268.00	1608.00	1588.00	1691.00	1765.00	1618.00	1672.00	1616.00	1622.00	1714.00	1737.00	1601.00	1544.00	1394.00	1254.00	1383.00	1593.00	1695.00	1663.00	1541.00	1482.00	1458.00	1268.00	1314.00	1432.00	1378.00	1395.00	1333.00	1201.00	1172.00	1145.00	1123.00	1090.00	1093.00	1205.00	1241.00	1318.00	1452.00	1436.00	1437.00	1393.00	1302.00	1064.00	1062.00	1105.00	1091.00	1089.00	1087.00	1062.00	1101.00	1068.00	1066.00	1088.00	1102.00	1132.00	1146.00	1152.00	1250.00	1208.00	1202.00	1262.00	1243.00	1278.00	1303.00	1404.00	1486.00	1495.00	1496.00	1361.00	1333.00	1310.00	1280.00	1271.00	1240.00	1223.00	1220.00	1218.00	1247.00	1255.00	1244.00	1237.00	1160.00	1096.00	1100.00	1182.00	1359.00	1086.00	1045.00	1020.00	1016.00	1023.00	1036.00	1068.00	1164.00	1363.00	1135.00	1070.00	1002.00	1121.00	1300.00	1393.00	1503.00	1644.00	1636.00	1182.00	884.00	771.00	744.00	730.00	714.00	707.00	704.00	703.00	699.00	698.00	696.00	691.00	683.00	724.00	702.00	717.00	778.00	692.00	690.00	685.00	685.00	688.00	831.00	806.00	742.00	732.00	688.00	664.00	666.00	665.00	689.00	659.00	655.00	753.00	778.00	671.00	743.00	778.00	693.00	683.00	664.00	673.00	765.00	837.00	696.00	717.00	783.00	829.00	752.00	654.00	606.00	704.00	746.00	990.00	818.00	708.00	597.00	609.00	642.00	575.00	613.00	547.00	559.00	547.00	656.00	597.00	726.00	595.00	539.00	546.00	651.00	542.00	582.00	647.00	741.00	922.00	1026.00	1104.00	1233.00	1393.00	1303.00	1066.00	890.00	842.00	818.00	672.00	626.00	804.00	801.00	588.00	575.00
603.00	602.00	601.00	601.00	602.00	603.00	603.00	604.00	632.00	650.00	675.00	701.00	779.00	794.00	838.00	854.00	858.00	864.00	858.00	840.00	847.00	822.00	809.00	788.00	789.00	788.00	785.00	793.00	767.00	735.00	722.00	722.00	715.00	720.00	731.00	741.00	740.00	731.00	715.00	629.00	615.00	650.00	744.00	633.00	622.00	613.00	576.00	571.00	573.00	573.00	648.00	728.00	968.00	1141.00	1207.00	1127.00	1150.00	1096.00	1158.00	1215.00	1332.00	1689.00	1610.00	1569.00	1609.00	1492.00	1347.00	1373.00	1363.00	1424.00	1472.00	1354.00	1218.00	1106.00	1151.00	1334.00	1458.00	1640.00	1643.00	1389.00	1298.00	1243.00	1180.00	1204.00	1272.00	1175.00	1152.00	1173.00	1255.00	1174.00	1157.00	1151.00	1050.00	1080.00	1155.00	1124.00	1093.00	1225.00	1159.00	1181.00	1207.00	1138.00	1017.00	1025.00	1050.00	1031.00	1020.00	1011.00	1019.00	1022.00	1015.00	1028.00	1049.00	1100.00	1074.00	1076.00	1084.00	1102.00	1130.00	1217.00	1240.00	1253.00	1249.00	1249.00	1328.00	1349.00	1382.00	1385.00	1410.00	1414.00	1386.00	1379.00	1348.00	1206.00	1185.00	1172.00	1174.00	1166.00	1159.00	1139.00	1125.00	1099.00	1066.00	1122.00	1205.00	1217.00	1111.00	1062.00	1044.00	999.00	986.00	1027.00	996.00	1029.00	1122.00	1398.00	1165.00	983.00	1043.00	1201.00	1269.00	1400.00	1432.00	1205.00	932.00	912.00	980.00	917.00	771.00	708.00	703.00	699.00	697.00	693.00	692.00	690.00	685.00	682.00	672.00	678.00	678.00	695.00	694.00	691.00	671.00	675.00	673.00	663.00	655.00	663.00	648.00	655.00	640.00	652.00	644.00	646.00	648.00	636.00	638.00	639.00	633.00	635.00	631.00	633.00	636.00	649.00	669.00	718.00	828.00	677.00	633.00	641.00	668.00	771.00	589.00	586.00	658.00	718.00	758.00	814.00	805.00	665.00	510.00	711.00	744.00	860.00	900.00	794.00	719.00	534.00	504.00	507.00	680.00	708.00	729.00	864.00	826.00	919.00	885.00	673.00	844.00	1092.00	1245.00	1388.00	1482.00	1313.00	1291.00	1239.00	1150.00	1047.00	737.00	660.00	618.00	730.00	559.00	550.00
603.00	602.00	601.00	601.00	602.00	603.00	603.00	604.00	632.00	650.00	675.00	701.00	779.00	794.00	838.00	854.00	858.00	864.00	858.00	840.00	847.00	822.00	809.00	788.00	789.00	788.00	785.00	793.00	767.00	735.00	722.00	722.00	715.00	720.00	731.00	741.00	740.00	731.00	715.00	629.00	615.00	650.00	744.00	633.00	622.00	613.00	576.00	571.00	573.00	573.00	648.00	728.00	968.00	1141.00	1207.00	1127.00	1150.00	1096.00	1158.00	1215.00	1332.00	1689.00	1610.00	1569.00	1609.00	1492.00	1347.00	1373.00	1363.00	1424.00	1472.00	1354.00	1218.00	1106.00	1151.00	1334.00	1458.00	1640.00	1643.00	1389.00	1298.00	1243.00	1180.00	1204.00	1272.00	1175.00	1152.00	1173.00	1255.00	1174.00	1157.00	1151.00	1050.00	1080.00	1155.00	1124.00	1093.00	1225.00	1159.00	1181.00	1207.00	1138.00	1017.00	1025.00	1050.00	1031.00	1020.00	1011.00	1019.00	1022.00	1015.00	1028.00	1049.00	1100.00	1074.00	1076.00	1084.00	1102.00	1130.00	1217.00	1240.00	1253.00	1249.00	1249.00	1328.00	1349.00	1382.00	1385.00	1410.00	1414.00	1386.00	1379.00	1348.00	1206.00	1185.00	1172.00	1174.00	1166.00	1159.00	1139.00	1125.00	1099.00	1066.00	1122.00	1205.00	1217.00	1111.00	1062.00	1044.00	999.00	986.00	1027.00	996.00	1029.00	1122.00	1398.00	1165.00	983.00	1043.00	1201.00	1269.00	1400.00	1432.00	1205.00	932.00	912.00	980.00	917.00	771.00	708.00	703.00	699.00	697.00	693.00	692.00	690.00	685.00	682.00	672.00	678.00	678.00	695.00	694.00	691.00	671.00	675.00	673.00	663.00	655.00	663.00	648.00	655.00	640.00	652.00	644.00	646.00	648.00	636.00	638.00	639.00	633.00	635.00	631.00	633.00	636.00	649.00	669.00	718.00	828.00	677.00	633.00	641.00	668.00	771.00	589.00	586.00	658.00	718.00	758.00	814.00	805.00	665.00	510.00	711.00	744.00	860.00	900.00	794.00	719.00	534.00	504.00	507.00	680.00	708.00	729.00	864.00	826.00	919.00	885.00	673.00	844.00	1092.00	1245.00	1388.00	1482.00	1313.00	1291.00	1239.00	1150.00	1047.00	737.00	660.00	618.00	730.00	559.00	550.00
602.00	602.00	603.00	602.00	602.00	604.00	602.00	605.00	629.00	651.00	681.00	702.00	781.00	830.00	846.00	818.00	854.00	851.00	842.00	823.00	840.00	804.00	799.00	785.00	768.00	768.00	760.00	755.00	754.00	722.00	701.00	698.00	691.00	695.00	710.00	720.00	722.00	739.00	719.00	635.00	632.00	672.00	757.00	800.00	772.00	668.00	579.00	570.00	571.00	571.00	641.00	765.00	1042.00	1115.00	1267.00	1322.00	1244.00	1243.00	1210.00	1289.00	1365.00	1620.00	1481.00	1378.00	1469.00	1482.00	1267.00	1255.00	1251.00	1369.00	1334.00	1178.00	1050.00	1074.00	1223.00	1329.00	1396.00	1540.00	1612.00	1401.00	1258.00	1178.00	1154.00	1147.00	1218.00	1166.00	1111.00	1113.00	1185.00	1150.00	1102.00	1074.00	1034.00	1068.00	1062.00	1069.00	1059.00	1105.00	1080.00	1113.00	1099.00	1087.00	995.00	989.00	1012.00	1020.00	996.00	995.00	996.00	1009.00	1001.00	1015.00	1068.00	1051.00	1037.00	1073.00	1141.00	1205.00	1223.00	1270.00	1273.00	1298.00	1293.00	1296.00	1322.00	1366.00	1348.00	1317.00	1345.00	1349.00	1330.00	1349.00	1262.00	1210.00	1201.00	1168.00	1152.00	1146.00	1138.00	1125.00	1120.00	1159.00	1050.00	1033.00	1053.00	1123.00	1093.00	1047.00	1015.00	980.00	974.00	985.00	974.00	983.00	1023.00	1335.00	1129.00	966.00	1017.00	1092.00	1266.00	1419.00	1354.00	1100.00	814.00	798.00	806.00	775.00	743.00	710.00	705.00	701.00	697.00	691.00	688.00	687.00	683.00	681.00	675.00	669.00	671.00	685.00	665.00	664.00	667.00	668.00	666.00	655.00	645.00	654.00	641.00	639.00	627.00	637.00	638.00	637.00	644.00	631.00	635.00	632.00	623.00	625.00	622.00	617.00	628.00	699.00	692.00	679.00	746.00	695.00	640.00	611.00	610.00	738.00	714.00	669.00	557.00	626.00	788.00	767.00	679.00	567.00	571.00	852.00	863.00	945.00	1056.00	982.00	797.00	674.00	573.00	597.00	782.00	817.00	824.00	942.00	993.00	1026.00	903.00	680.00	840.00	1123.00	1272.00	1380.00	1455.00	1320.00	1268.00	1219.00	1129.00	1038.00	755.00	655.00	596.00	616.00	547.00	539.00
603.00	603.00	603.00	603.00	602.00	603.00	599.00	603.00	630.00	648.00	677.00	703.00	761.00	805.00	807.00	794.00	821.00	840.00	825.00	801.00	811.00	800.00	777.00	766.00	750.00	746.00	751.00	736.00	730.00	714.00	687.00	677.00	670.00	671.00	682.00	697.00	702.00	727.00	711.00	646.00	638.00	709.00	827.00	818.00	648.00	577.00	568.00	570.00	569.00	571.00	623.00	681.00	886.00	1021.00	1279.00	1419.00	1396.00	1284.00	1303.00	1329.00	1404.00	1621.00	1419.00	1269.00	1301.00	1388.00	1225.00	1164.00	1200.00	1279.00	1168.00	1006.00	1030.00	1164.00	1165.00	1272.00	1328.00	1417.00	1400.00	1376.00	1335.00	1290.00	1146.00	1125.00	1121.00	1138.00	1085.00	1074.00	1134.00	1142.00	1096.00	1071.00	1019.00	1020.00	1021.00	1033.00	1025.00	1032.00	1038.00	1055.00	1053.00	1040.00	1004.00	955.00	996.00	1029.00	984.00	974.00	993.00	979.00	1005.00	977.00	994.00	1015.00	1023.00	1110.00	1120.00	1145.00	1211.00	1224.00	1244.00	1239.00	1253.00	1241.00	1327.00	1353.00	1304.00	1287.00	1304.00	1307.00	1269.00	1264.00	1295.00	1326.00	1293.00	1179.00	1144.00	1125.00	1120.00	1111.00	1101.00	1100.00	1071.00	1028.00	1014.00	1013.00	988.00	979.00	986.00	966.00	962.00	960.00	968.00	956.00	982.00	1137.00	992.00	965.00	1081.00	1247.00	1454.00	1494.00	1426.00	1130.00	801.00	760.00	748.00	739.00	730.00	715.00	708.00	703.00	698.00	691.00	689.00	687.00	681.00	680.00	675.00	669.00	665.00	663.00	659.00	656.00	660.00	663.00	655.00	648.00	654.00	657.00	650.00	646.00	637.00	625.00	624.00	624.00	631.00	630.00	623.00	623.00	617.00	611.00	611.00	631.00	617.00	638.00	626.00	617.00	691.00	632.00	596.00	579.00	581.00	602.00	601.00	622.00	550.00	569.00	709.00	701.00	543.00	596.00	732.00	969.00	1064.00	1124.00	1255.00	991.00	924.00	771.00	668.00	753.00	956.00	965.00	939.00	982.00	1103.00	1036.00	854.00	756.00	972.00	1066.00	1085.00	1288.00	1435.00	1234.00	1177.00	1097.00	1001.00	952.00	718.00	637.00	615.00	575.00	549.00	546.00
709.00	717.00	767.00	814.00	796.00	779.00	745.00	662.00	635.00	632.00	652.00	675.00	730.00	748.00	735.00	743.00	809.00	784.00	783.00	754.00	771.00	791.00	767.00	748.00	726.00	699.00	705.00	704.00	694.00	716.00	683.00	662.00	646.00	635.00	667.00	657.00	663.00	647.00	651.00	671.00	743.00	802.00	690.00	566.00	566.00	565.00	565.00	563.00	566.00	576.00	724.00	841.00	1082.00	1183.00	1319.00	1243.00	1147.00	1125.00	1128.00	1247.00	1286.00	1364.00	1447.00	1275.00	1105.00	1065.00	1098.00	1143.00	1051.00	1076.00	988.00	989.00	1009.00	1072.00	1109.00	1156.00	1298.00	1198.00	1135.00	1229.00	1338.00	1326.00	1207.00	1098.00	1054.00	1057.00	1059.00	1037.00	1035.00	1092.00	1115.00	1182.00	1098.00	957.00	970.00	958.00	959.00	952.00	939.00	965.00	989.00	955.00	953.00	948.00	974.00	948.00	955.00	938.00	938.00	946.00	968.00	943.00	963.00	985.00	1001.00	1038.00	1010.00	1022.00	1024.00	1068.00	1095.00	1124.00	1134.00	1180.00	1263.00	1243.00	1253.00	1244.00	1247.00	1230.00	1182.00	1175.00	1192.00	1236.00	1142.00	1172.00	1159.00	1100.00	1091.00	1082.00	1074.00	1065.00	1050.00	1058.00	1071.00	1052.00	968.00	958.00	951.00	945.00	943.00	941.00	931.00	927.00	934.00	931.00	933.00	942.00	967.00	1010.00	1085.00	1204.00	1280.00	1185.00	952.00	792.00	768.00	751.00	739.00	720.00	711.00	705.00	700.00	690.00	686.00	684.00	679.00	677.00	671.00	670.00	669.00	667.00	661.00	658.00	662.00	659.00	665.00	668.00	669.00	658.00	663.00	651.00	647.00	642.00	639.00	641.00	631.00	617.00	611.00	605.00	611.00	612.00	595.00	591.00	591.00	585.00	581.00	585.00	585.00	628.00	697.00	728.00	815.00	803.00	915.00	894.00	865.00	814.00	530.00	455.00	544.00	726.00	820.00	900.00	1000.00	1062.00	1256.00	1256.00	914.00	825.00	818.00	837.00	921.00	1049.00	1207.00	1277.00	1107.00	981.00	948.00	758.00	758.00	902.00	1112.00	1245.00	1345.00	1183.00	1062.00	1012.00	933.00	840.00	673.00	675.00	651.00	597.00	580.00	574.00
875.00	881.00	847.00	920.00	951.00	963.00	888.00	785.00	614.00	613.00	650.00	663.00	730.00	721.00	715.00	722.00	787.00	770.00	748.00	729.00	762.00	773.00	764.00	736.00	716.00	679.00	681.00	680.00	705.00	758.00	732.00	671.00	673.00	633.00	719.00	680.00	640.00	620.00	633.00	791.00	844.00	794.00	616.00	565.00	565.00	564.00	563.00	573.00	594.00	581.00	732.00	857.00	1176.00	1222.00	1206.00	1120.00	995.00	947.00	1032.00	1053.00	1088.00	1267.00	1283.00	1186.00	1074.00	1000.00	991.00	973.00	1017.00	992.00	868.00	930.00	916.00	979.00	1018.00	1250.00	1312.00	1159.00	1081.00	1127.00	1148.00	1245.00	1187.00	1114.00	1007.00	1028.00	1029.00	1008.00	1034.00	1040.00	1039.00	1079.00	1050.00	1004.00	963.00	924.00	932.00	912.00	901.00	948.00	945.00	927.00	965.00	914.00	970.00	923.00	923.00	936.00	922.00	927.00	937.00	931.00	954.00	971.00	987.00	996.00	983.00	992.00	1010.00	1046.00	1062.00	1089.00	1117.00	1154.00	1199.00	1193.00	1213.00	1212.00	1173.00	1186.00	1173.00	1157.00	1148.00	1163.00	1120.00	1156.00	1169.00	1144.00	1137.00	1131.00	1097.00	1066.00	1037.00	1036.00	1067.00	1042.00	965.00	954.00	946.00	940.00	934.00	936.00	942.00	920.00	919.00	922.00	925.00	939.00	963.00	972.00	1167.00	1295.00	1375.00	1399.00	1008.00	852.00	785.00	761.00	764.00	726.00	719.00	707.00	699.00	691.00	687.00	684.00	679.00	676.00	668.00	663.00	662.00	662.00	661.00	668.00	671.00	666.00	673.00	674.00	674.00	669.00	661.00	652.00	651.00	648.00	650.00	645.00	638.00	622.00	628.00	631.00	638.00	695.00	663.00	626.00	620.00	601.00	622.00	634.00	648.00	635.00	779.00	853.00	904.00	929.00	989.00	846.00	726.00	598.00	500.00	602.00	613.00	594.00	630.00	771.00	880.00	1019.00	1186.00	1350.00	996.00	957.00	825.00	803.00	963.00	1073.00	1185.00	1281.00	1130.00	987.00	973.00	793.00	872.00	1064.00	1109.00	1010.00	1093.00	1136.00	967.00	939.00	868.00	761.00	782.00	761.00	638.00	618.00	675.00	658.00
910.00	956.00	982.00	1005.00	1090.00	1036.00	937.00	715.00	594.00	589.00	601.00	645.00	696.00	696.00	696.00	698.00	743.00	748.00	725.00	719.00	745.00	768.00	779.00	762.00	736.00	679.00	660.00	688.00	710.00	744.00	839.00	757.00	686.00	633.00	676.00	666.00	620.00	622.00	671.00	651.00	674.00	708.00	589.00	562.00	562.00	562.00	564.00	668.00	662.00	647.00	822.00	918.00	1014.00	994.00	1060.00	950.00	962.00	857.00	919.00	912.00	1075.00	1045.00	1063.00	1009.00	1034.00	934.00	880.00	871.00	951.00	847.00	820.00	917.00	1024.00	1109.00	1180.00	1320.00	1233.00	1138.00	1081.00	1008.00	1078.00	1185.00	1067.00	1044.00	967.00	1006.00	1017.00	973.00	1008.00	1005.00	1002.00	1030.00	1032.00	1044.00	1013.00	952.00	913.00	876.00	870.00	892.00	935.00	902.00	934.00	886.00	903.00	886.00	909.00	908.00	908.00	903.00	918.00	921.00	937.00	957.00	969.00	969.00	960.00	976.00	994.00	1040.00	1081.00	1127.00	1160.00	1167.00	1159.00	1177.00	1195.00	1207.00	1159.00	1138.00	1141.00	1128.00	1127.00	1098.00	1115.00	1121.00	1110.00	1180.00	1132.00	1088.00	1064.00	1049.00	1029.00	1021.00	1017.00	1028.00	967.00	960.00	953.00	940.00	932.00	918.00	933.00	916.00	909.00	912.00	917.00	927.00	940.00	989.00	1223.00	1287.00	1408.00	1456.00	1246.00	955.00	871.00	795.00	814.00	752.00	718.00	711.00	704.00	695.00	690.00	685.00	679.00	676.00	666.00	669.00	669.00	670.00	662.00	668.00	674.00	673.00	676.00	677.00	676.00	673.00	667.00	643.00	640.00	649.00	636.00	635.00	635.00	647.00	678.00	672.00	657.00	766.00	760.00	667.00	616.00	613.00	631.00	716.00	705.00	696.00	827.00	967.00	954.00	852.00	838.00	737.00	551.00	493.00	651.00	726.00	842.00	785.00	676.00	831.00	979.00	1098.00	1262.00	1414.00	1127.00	1011.00	886.00	823.00	1013.00	1065.00	1147.00	1196.00	1022.00	951.00	846.00	818.00	868.00	958.00	951.00	897.00	1007.00	1108.00	950.00	895.00	873.00	789.00	858.00	764.00	675.00	655.00	701.00	616.00
935.00	972.00	1057.00	1035.00	1083.00	957.00	844.00	630.00	592.00	591.00	589.00	631.00	688.00	686.00	677.00	677.00	693.00	714.00	695.00	708.00	709.00	762.00	749.00	740.00	721.00	677.00	647.00	653.00	706.00	735.00	753.00	752.00	610.00	595.00	586.00	578.00	584.00	581.00	584.00	586.00	700.00	659.00	575.00	560.00	560.00	565.00	647.00	765.00	798.00	754.00	886.00	927.00	835.00	822.00	904.00	903.00	793.00	738.00	763.00	862.00	907.00	828.00	897.00	869.00	891.00	894.00	804.00	869.00	830.00	770.00	878.00	1018.00	1156.00	1160.00	1142.00	1123.00	1206.00	1120.00	1047.00	952.00	1037.00	1136.00	1031.00	1012.00	931.00	986.00	996.00	917.00	1009.00	968.00	977.00	951.00	1019.00	1005.00	972.00	950.00	943.00	845.00	870.00	906.00	911.00	878.00	898.00	878.00	869.00	876.00	892.00	885.00	889.00	888.00	901.00	912.00	921.00	945.00	957.00	947.00	954.00	990.00	996.00	1035.00	1061.00	1104.00	1148.00	1141.00	1125.00	1163.00	1184.00	1229.00	1156.00	1131.00	1118.00	1107.00	1094.00	1078.00	1067.00	1079.00	1096.00	1116.00	1100.00	1113.00	1096.00	1034.00	1018.00	1015.00	1023.00	994.00	965.00	973.00	976.00	978.00	928.00	914.00	910.00	906.00	902.00	904.00	910.00	919.00	941.00	982.00	1067.00	1194.00	1407.00	1409.00	1352.00	1123.00	953.00	877.00	917.00	797.00	729.00	721.00	714.00	701.00	694.00	689.00	679.00	676.00	673.00	673.00	675.00	674.00	667.00	676.00	675.00	678.00	678.00	677.00	672.00	665.00	656.00	650.00	656.00	691.00	668.00	654.00	671.00	693.00	709.00	672.00	651.00	679.00	730.00	658.00	634.00	623.00	637.00	773.00	762.00	732.00	840.00	946.00	788.00	696.00	602.00	510.00	526.00	654.00	846.00	861.00	963.00	929.00	817.00	823.00	928.00	1087.00	1202.00	1410.00	1109.00	967.00	892.00	846.00	1019.00	1113.00	1181.00	1107.00	895.00	842.00	842.00	846.00	821.00	841.00	842.00	882.00	994.00	1148.00	1073.00	1004.00	878.00	775.00	823.00	780.00	757.00	758.00	711.00	657.00
959.00	990.00	1039.00	1098.00	979.00	842.00	721.00	599.00	592.00	590.00	584.00	606.00	660.00	678.00	675.00	657.00	672.00	706.00	686.00	692.00	692.00	738.00	713.00	741.00	715.00	644.00	630.00	648.00	707.00	668.00	596.00	645.00	588.00	583.00	576.00	570.00	567.00	564.00	567.00	574.00	643.00	601.00	557.00	558.00	573.00	698.00	811.00	822.00	841.00	830.00	905.00	827.00	736.00	669.00	758.00	778.00	662.00	665.00	737.00	749.00	788.00	764.00	743.00	838.00	854.00	814.00	739.00	753.00	738.00	768.00	897.00	1126.00	1122.00	1027.00	982.00	1075.00	1162.00	1023.00	1021.00	938.00	1012.00	985.00	1053.00	1025.00	900.00	948.00	994.00	948.00	921.00	930.00	896.00	913.00	983.00	996.00	997.00	972.00	930.00	836.00	879.00	906.00	858.00	858.00	866.00	842.00	862.00	896.00	868.00	870.00	870.00	873.00	889.00	898.00	905.00	934.00	941.00	927.00	968.00	988.00	1007.00	1070.00	1077.00	1079.00	1112.00	1108.00	1116.00	1139.00	1147.00	1175.00	1149.00	1168.00	1143.00	1138.00	1106.00	1092.00	1051.00	1054.00	1077.00	1093.00	1037.00	1033.00	1037.00	1027.00	1004.00	1003.00	1000.00	980.00	960.00	950.00	941.00	939.00	953.00	909.00	917.00	931.00	896.00	895.00	904.00	922.00	938.00	958.00	1030.00	1140.00	1296.00	1296.00	1342.00	1242.00	1090.00	1026.00	1017.00	766.00	743.00	731.00	723.00	709.00	704.00	709.00	685.00	681.00	678.00	678.00	680.00	678.00	671.00	679.00	679.00	682.00	685.00	677.00	664.00	652.00	648.00	665.00	684.00	752.00	704.00	693.00	767.00	747.00	791.00	726.00	676.00	665.00	707.00	710.00	681.00	637.00	651.00	742.00	848.00	781.00	877.00	934.00	827.00	716.00	543.00	608.00	670.00	772.00	946.00	1060.00	1140.00	1054.00	936.00	886.00	1007.00	1025.00	1138.00	1425.00	1152.00	944.00	951.00	913.00	1060.00	1155.00	1245.00	1214.00	1091.00	987.00	930.00	859.00	910.00	924.00	928.00	890.00	950.00	959.00	950.00	881.00	827.00	800.00	805.00	736.00	664.00	789.00	606.00	615.00
1063.00	1067.00	1095.00	983.00	841.00	757.00	700.00	603.00	592.00	586.00	582.00	580.00	664.00	666.00	694.00	668.00	657.00	680.00	663.00	658.00	672.00	699.00	670.00	720.00	791.00	657.00	643.00	635.00	608.00	576.00	560.00	567.00	572.00	571.00	567.00	564.00	563.00	573.00	563.00	555.00	556.00	556.00	555.00	558.00	603.00	722.00	788.00	666.00	732.00	754.00	868.00	758.00	695.00	602.00	637.00	686.00	616.00	614.00	621.00	676.00	799.00	742.00	702.00	772.00	761.00	699.00	705.00	706.00	727.00	777.00	972.00	1038.00	929.00	910.00	884.00	1084.00	1109.00	989.00	939.00	897.00	884.00	893.00	1036.00	1017.00	885.00	957.00	982.00	986.00	858.00	903.00	854.00	886.00	947.00	1010.00	925.00	837.00	815.00	819.00	833.00	868.00	839.00	851.00	822.00	848.00	874.00	861.00	849.00	855.00	852.00	863.00	876.00	880.00	905.00	894.00	897.00	946.00	996.00	1055.00	1046.00	1077.00	1044.00	1052.00	1081.00	1079.00	1098.00	1113.00	1130.00	1162.00	1141.00	1122.00	1130.00	1185.00	1184.00	1164.00	1056.00	1037.00	1036.00	1034.00	1034.00	1005.00	999.00	994.00	989.00	989.00	984.00	969.00	956.00	946.00	937.00	928.00	922.00	901.00	903.00	932.00	892.00	888.00	899.00	914.00	951.00	1027.00	1104.00	1152.00	1228.00	1247.00	1253.00	1291.00	1304.00	1234.00	1059.00	780.00	776.00	753.00	743.00	723.00	730.00	749.00	703.00	697.00	693.00	686.00	685.00	678.00	686.00	698.00	740.00	752.00	729.00	672.00	657.00	652.00	666.00	728.00	726.00	806.00	823.00	812.00	878.00	911.00	909.00	809.00	677.00	679.00	716.00	766.00	739.00	646.00	666.00	808.00	957.00	852.00	1030.00	1029.00	874.00	675.00	578.00	752.00	830.00	879.00	1043.00	1170.00	1268.00	1181.00	1087.00	1036.00	966.00	1145.00	1221.00	1405.00	1130.00	991.00	1037.00	996.00	1060.00	1156.00	1265.00	1225.00	1090.00	971.00	860.00	894.00	963.00	847.00	909.00	961.00	996.00	968.00	879.00	854.00	828.00	849.00	655.00	641.00	569.00	628.00	556.00	510.00
1173.00	1055.00	1014.00	881.00	766.00	690.00	637.00	602.00	592.00	585.00	581.00	580.00	646.00	642.00	679.00	656.00	632.00	639.00	630.00	634.00	635.00	661.00	633.00	638.00	696.00	732.00	628.00	586.00	584.00	568.00	559.00	561.00	563.00	562.00	559.00	560.00	559.00	558.00	557.00	554.00	553.00	554.00	556.00	575.00	659.00	666.00	676.00	571.00	599.00	595.00	691.00	698.00	573.00	561.00	561.00	575.00	576.00	572.00	603.00	682.00	827.00	735.00	674.00	652.00	655.00	653.00	676.00	686.00	721.00	764.00	1071.00	948.00	842.00	829.00	868.00	916.00	963.00	959.00	931.00	852.00	842.00	929.00	969.00	992.00	877.00	974.00	975.00	978.00	861.00	841.00	816.00	852.00	973.00	909.00	811.00	766.00	763.00	804.00	846.00	857.00	835.00	811.00	817.00	847.00	850.00	827.00	837.00	837.00	841.00	849.00	859.00	873.00	886.00	874.00	911.00	994.00	993.00	1003.00	1022.00	1057.00	1017.00	1040.00	1055.00	1049.00	1122.00	1121.00	1141.00	1140.00	1168.00	1150.00	1121.00	1105.00	1098.00	1147.00	1123.00	1058.00	1031.00	1009.00	1005.00	995.00	986.00	981.00	976.00	974.00	971.00	960.00	949.00	940.00	932.00	923.00	916.00	900.00	893.00	891.00	883.00	881.00	891.00	907.00	958.00	943.00	1082.00	1174.00	1167.00	1085.00	1105.00	1202.00	1236.00	1205.00	1066.00	975.00	938.00	838.00	808.00	838.00	925.00	968.00	805.00	774.00	716.00	692.00	686.00	685.00	734.00	757.00	740.00	696.00	678.00	660.00	659.00	664.00	669.00	736.00	847.00	942.00	972.00	999.00	1100.00	966.00	820.00	742.00	687.00	708.00	745.00	721.00	672.00	659.00	686.00	763.00	926.00	1000.00	1029.00	896.00	760.00	712.00	554.00	756.00	874.00	950.00	1155.00	1214.00	1372.00	1391.00	1289.00	1141.00	1063.00	1075.00	1155.00	1392.00	1102.00	1066.00	1115.00	1059.00	1009.00	1196.00	1225.00	1132.00	945.00	909.00	833.00	980.00	1016.00	865.00	856.00	875.00	938.00	1023.00	907.00	896.00	852.00	874.00	599.00	568.00	551.00	578.00	514.00	499.00
1190.00	1083.00	931.00	805.00	707.00	640.00	620.00	604.00	595.00	591.00	583.00	579.00	600.00	609.00	622.00	617.00	602.00	613.00	607.00	603.00	644.00	678.00	614.00	626.00	649.00	593.00	564.00	565.00	568.00	562.00	558.00	558.00	557.00	559.00	557.00	558.00	557.00	557.00	552.00	551.00	551.00	553.00	554.00	604.00	574.00	549.00	598.00	548.00	546.00	548.00	551.00	569.00	543.00	545.00	545.00	551.00	555.00	570.00	640.00	732.00	802.00	657.00	623.00	624.00	629.00	638.00	657.00	666.00	707.00	809.00	1037.00	793.00	778.00	790.00	811.00	821.00	864.00	899.00	876.00	807.00	864.00	924.00	919.00	918.00	866.00	949.00	947.00	961.00	913.00	873.00	806.00	838.00	901.00	783.00	758.00	748.00	763.00	838.00	844.00	794.00	794.00	793.00	809.00	827.00	834.00	809.00	826.00	822.00	830.00	839.00	851.00	846.00	847.00	894.00	945.00	975.00	978.00	1008.00	1021.00	1004.00	980.00	991.00	1019.00	1053.00	1100.00	1090.00	1111.00	1122.00	1157.00	1134.00	1113.00	1096.00	1077.00	1061.00	1044.00	1035.00	1021.00	1006.00	998.00	991.00	984.00	975.00	962.00	963.00	959.00	951.00	938.00	931.00	926.00	918.00	911.00	896.00	890.00	883.00	884.00	873.00	881.00	885.00	888.00	903.00	990.00	1094.00	995.00	941.00	933.00	998.00	1042.00	1018.00	1054.00	1147.00	1132.00	1099.00	994.00	908.00	886.00	864.00	755.00	722.00	701.00	695.00	690.00	694.00	768.00	734.00	695.00	682.00	672.00	664.00	675.00	680.00	674.00	734.00	836.00	966.00	1010.00	1124.00	1208.00	889.00	771.00	725.00	718.00	754.00	704.00	682.00	672.00	676.00	693.00	795.00	830.00	1074.00	912.00	842.00	811.00	653.00	530.00	685.00	807.00	900.00	1308.00	1322.00	1439.00	1528.00	1486.00	1272.00	1220.00	1234.00	1235.00	1411.00	1163.00	1176.00	1219.00	1159.00	1066.00	1241.00	1210.00	1073.00	896.00	867.00	866.00	963.00	1069.00	980.00	941.00	937.00	965.00	992.00	934.00	877.00	806.00	725.00	550.00	537.00	505.00	495.00	502.00	552.00
827.00	786.00	748.00	643.00	627.00	620.00	617.00	607.00	596.00	592.00	590.00	588.00	582.00	579.00	575.00	574.00	574.00	573.00	572.00	566.00	569.00	592.00	577.00	564.00	563.00	560.00	559.00	558.00	558.00	557.00	554.00	553.00	552.00	551.00	555.00	555.00	555.00	549.00	550.00	549.00	549.00	551.00	552.00	602.00	577.00	558.00	550.00	549.00	547.00	545.00	541.00	540.00	538.00	538.00	538.00	538.00	539.00	566.00	700.00	689.00	568.00	578.00	586.00	594.00	600.00	605.00	626.00	665.00	748.00	840.00	750.00	713.00	713.00	737.00	740.00	754.00	791.00	808.00	870.00	756.00	795.00	806.00	895.00	833.00	845.00	948.00	961.00	905.00	871.00	853.00	805.00	760.00	762.00	742.00	734.00	726.00	729.00	756.00	784.00	761.00	756.00	767.00	781.00	808.00	786.00	777.00	793.00	796.00	802.00	811.00	819.00	814.00	834.00	870.00	887.00	912.00	940.00	922.00	925.00	956.00	988.00	988.00	1002.00	1019.00	1150.00	1180.00	1186.00	1209.00	1227.00	1209.00	1177.00	1147.00	1135.00	1117.00	1075.00	1053.00	1037.00	1049.00	1012.00	993.00	980.00	971.00	956.00	953.00	944.00	929.00	921.00	918.00	912.00	904.00	899.00	888.00	883.00	877.00	871.00	857.00	858.00	859.00	863.00	869.00	899.00	880.00	872.00	875.00	896.00	892.00	899.00	931.00	973.00	1071.00	1028.00	974.00	856.00	773.00	762.00	770.00	746.00	755.00	707.00	717.00	738.00	760.00	773.00	804.00	703.00	703.00	701.00	675.00	678.00	685.00	689.00	709.00	729.00	752.00	804.00	859.00	1023.00	943.00	816.00	777.00	845.00	761.00	719.00	734.00	775.00	740.00	743.00	788.00	875.00	991.00	836.00	770.00	798.00	694.00	561.00	769.00	864.00	936.00	1332.00	1381.00	1386.00	1357.00	1413.00	1297.00	1310.00	1434.00	1478.00	1480.00	1289.00	1134.00	1100.00	1074.00	1089.00	1155.00	1225.00	1207.00	971.00	880.00	945.00	931.00	1030.00	793.00	764.00	878.00	808.00	679.00	645.00	632.00	633.00	629.00	508.00	489.00	497.00	506.00	580.00	690.00
706.00	686.00	657.00	633.00	632.00	625.00	618.00	606.00	601.00	597.00	593.00	591.00	588.00	585.00	582.00	579.00	571.00	569.00	568.00	568.00	566.00	563.00	563.00	561.00	561.00	559.00	559.00	558.00	556.00	554.00	553.00	552.00	551.00	549.00	551.00	553.00	553.00	548.00	548.00	548.00	549.00	550.00	550.00	557.00	556.00	564.00	550.00	548.00	546.00	545.00	542.00	540.00	536.00	536.00	536.00	536.00	536.00	639.00	605.00	559.00	545.00	567.00	574.00	580.00	583.00	589.00	628.00	738.00	769.00	708.00	648.00	660.00	704.00	714.00	701.00	727.00	747.00	783.00	816.00	765.00	740.00	807.00	893.00	771.00	856.00	911.00	980.00	919.00	861.00	903.00	867.00	800.00	726.00	713.00	709.00	712.00	712.00	742.00	760.00	744.00	736.00	745.00	788.00	787.00	766.00	769.00	782.00	786.00	800.00	799.00	801.00	815.00	843.00	863.00	857.00	898.00	892.00	891.00	910.00	953.00	976.00	983.00	1031.00	1082.00	1082.00	1120.00	1131.00	1165.00	1207.00	1230.00	1242.00	1239.00	1186.00	1169.00	1081.00	1081.00	1061.00	1118.00	1041.00	1008.00	1002.00	987.00	968.00	966.00	963.00	958.00	930.00	913.00	906.00	901.00	895.00	883.00	880.00	876.00	868.00	855.00	850.00	849.00	851.00	851.00	857.00	857.00	859.00	862.00	868.00	885.00	903.00	930.00	971.00	976.00	938.00	942.00	938.00	786.00	787.00	819.00	791.00	756.00	725.00	720.00	717.00	713.00	699.00	700.00	685.00	697.00	694.00	676.00	687.00	688.00	694.00	706.00	761.00	835.00	832.00	874.00	855.00	870.00	917.00	907.00	883.00	822.00	770.00	809.00	887.00	827.00	826.00	823.00	879.00	903.00	824.00	742.00	746.00	607.00	507.00	742.00	806.00	850.00	1054.00	1146.00	1222.00	1187.00	1139.00	1114.00	1219.00	1266.00	1303.00	1393.00	1141.00	1031.00	914.00	887.00	882.00	1002.00	1091.00	1121.00	1010.00	928.00	987.00	987.00	948.00	731.00	669.00	723.00	694.00	603.00	573.00	571.00	610.00	619.00	482.00	491.00	503.00	527.00	638.00	754.00
658.00	648.00	640.00	636.00	631.00	624.00	616.00	611.00	605.00	601.00	599.00	596.00	593.00	590.00	586.00	585.00	574.00	573.00	572.00	569.00	568.00	564.00	564.00	562.00	560.00	557.00	555.00	554.00	555.00	553.00	551.00	550.00	551.00	549.00	548.00	549.00	549.00	548.00	547.00	546.00	548.00	548.00	548.00	554.00	552.00	551.00	551.00	550.00	547.00	545.00	540.00	537.00	534.00	533.00	533.00	532.00	539.00	540.00	531.00	533.00	536.00	555.00	560.00	565.00	569.00	579.00	604.00	662.00	610.00	597.00	748.00	718.00	704.00	677.00	680.00	703.00	730.00	798.00	863.00	737.00	748.00	825.00	784.00	775.00	949.00	1047.00	1026.00	972.00	867.00	831.00	823.00	788.00	731.00	699.00	698.00	699.00	698.00	733.00	730.00	755.00	725.00	739.00	773.00	754.00	752.00	759.00	775.00	787.00	792.00	780.00	795.00	811.00	812.00	841.00	841.00	868.00	881.00	905.00	924.00	972.00	1049.00	1082.00	1133.00	1154.00	1121.00	1108.00	1115.00	1140.00	1160.00	1166.00	1197.00	1236.00	1268.00	1174.00	1113.00	1113.00	1077.00	1105.00	1098.00	1037.00	1003.00	1016.00	1016.00	995.00	987.00	984.00	945.00	924.00	919.00	909.00	904.00	905.00	882.00	870.00	868.00	853.00	848.00	842.00	843.00	842.00	844.00	845.00	847.00	850.00	865.00	902.00	931.00	966.00	941.00	886.00	878.00	917.00	910.00	807.00	838.00	876.00	773.00	738.00	726.00	707.00	701.00	697.00	696.00	695.00	695.00	698.00	692.00	689.00	687.00	692.00	697.00	711.00	718.00	742.00	781.00	804.00	784.00	869.00	949.00	1068.00	1017.00	952.00	892.00	932.00	925.00	916.00	926.00	946.00	848.00	763.00	742.00	713.00	689.00	627.00	551.00	662.00	771.00	768.00	931.00	933.00	1046.00	1049.00	981.00	1083.00	1138.00	1193.00	1249.00	1239.00	986.00	909.00	844.00	781.00	806.00	887.00	900.00	922.00	1082.00	1046.00	1079.00	962.00	867.00	704.00	679.00	619.00	716.00	649.00	580.00	542.00	541.00	531.00	483.00	518.00	577.00	517.00	567.00	695.00
650.00	646.00	643.00	638.00	628.00	623.00	621.00	618.00	609.00	605.00	603.00	601.00	596.00	594.00	591.00	588.00	577.00	576.00	576.00	575.00	573.00	573.00	572.00	569.00	569.00	560.00	558.00	556.00	554.00	551.00	550.00	549.00	547.00	548.00	545.00	545.00	546.00	547.00	547.00	546.00	547.00	546.00	546.00	552.00	552.00	552.00	550.00	550.00	547.00	546.00	541.00	538.00	534.00	533.00	531.00	530.00	529.00	528.00	528.00	530.00	532.00	542.00	547.00	552.00	557.00	563.00	563.00	565.00	575.00	629.00	701.00	647.00	648.00	665.00	685.00	706.00	741.00	794.00	790.00	783.00	726.00	700.00	767.00	901.00	1127.00	1080.00	1016.00	933.00	849.00	810.00	782.00	742.00	819.00	700.00	686.00	686.00	684.00	713.00	711.00	716.00	710.00	716.00	751.00	737.00	743.00	750.00	757.00	757.00	762.00	769.00	786.00	795.00	804.00	826.00	836.00	867.00	901.00	939.00	980.00	1025.00	1047.00	1069.00	1109.00	1098.00	1128.00	1096.00	1117.00	1144.00	1126.00	1150.00	1187.00	1246.00	1297.00	1242.00	1136.00	1107.00	1088.00	1134.00	1189.00	1131.00	1042.00	1064.00	1126.00	1047.00	1023.00	1004.00	960.00	940.00	930.00	921.00	926.00	961.00	901.00	874.00	863.00	851.00	846.00	841.00	835.00	837.00	834.00	836.00	839.00	856.00	879.00	943.00	979.00	979.00	916.00	853.00	883.00	962.00	941.00	878.00	922.00	837.00	731.00	719.00	708.00	706.00	707.00	704.00	709.00	706.00	703.00	698.00	691.00	699.00	698.00	696.00	700.00	715.00	722.00	728.00	741.00	747.00	806.00	838.00	885.00	1032.00	972.00	970.00	984.00	933.00	930.00	937.00	934.00	954.00	946.00	772.00	737.00	741.00	749.00	728.00	470.00	576.00	701.00	615.00	812.00	885.00	905.00	916.00	987.00	1142.00	1170.00	1219.00	1278.00	1135.00	892.00	891.00	840.00	775.00	749.00	803.00	742.00	753.00	1013.00	1073.00	1152.00	1002.00	880.00	694.00	615.00	589.00	622.00	635.00	574.00	537.00	520.00	494.00	519.00	603.00	560.00	495.00	588.00	751.00
653.00	648.00	642.00	634.00	631.00	630.00	628.00	619.00	612.00	611.00	608.00	605.00	597.00	595.00	594.00	591.00	584.00	580.00	580.00	577.00	575.00	577.00	576.00	574.00	574.00	571.00	562.00	559.00	556.00	551.00	548.00	547.00	547.00	545.00	545.00	544.00	545.00	546.00	545.00	544.00	545.00	545.00	546.00	553.00	551.00	551.00	550.00	549.00	545.00	543.00	540.00	537.00	533.00	533.00	529.00	528.00	526.00	525.00	527.00	528.00	528.00	535.00	538.00	541.00	543.00	543.00	551.00	573.00	586.00	584.00	606.00	660.00	752.00	776.00	794.00	754.00	770.00	765.00	737.00	714.00	686.00	682.00	832.00	1012.00	917.00	879.00	860.00	896.00	806.00	807.00	759.00	721.00	809.00	682.00	676.00	674.00	671.00	692.00	698.00	698.00	701.00	703.00	727.00	728.00	734.00	739.00	744.00	746.00	757.00	765.00	793.00	803.00	808.00	844.00	866.00	893.00	930.00	956.00	990.00	1021.00	1032.00	1041.00	1057.00	1026.00	1055.00	1081.00	1158.00	1168.00	1112.00	1161.00	1161.00	1170.00	1203.00	1316.00	1245.00	1137.00	1114.00	1203.00	1207.00	1208.00	1190.00	1152.00	1209.00	1174.00	1144.00	1024.00	973.00	955.00	942.00	938.00	955.00	938.00	902.00	879.00	870.00	847.00	842.00	839.00	834.00	829.00	827.00	830.00	837.00	865.00	956.00	952.00	1007.00	935.00	862.00	842.00	878.00	893.00	919.00	813.00	786.00	778.00	721.00	714.00	717.00	717.00	717.00	720.00	718.00	710.00	704.00	698.00	704.00	702.00	703.00	704.00	711.00	763.00	734.00	736.00	755.00	760.00	786.00	896.00	943.00	1042.00	1073.00	1062.00	980.00	950.00	1021.00	1018.00	911.00	899.00	923.00	757.00	772.00	854.00	843.00	749.00	584.00	471.00	535.00	576.00	966.00	988.00	1028.00	985.00	981.00	1088.00	1113.00	1188.00	1272.00	1111.00	830.00	755.00	804.00	786.00	671.00	739.00	680.00	766.00	910.00	985.00	1097.00	1049.00	911.00	702.00	626.00	566.00	586.00	608.00	546.00	508.00	494.00	470.00	603.00	580.00	516.00	482.00	562.00	629.00
652.00	649.00	645.00	641.00	639.00	634.00	630.00	622.00	617.00	616.00	609.00	605.00	600.00	595.00	591.00	589.00	588.00	582.00	585.00	580.00	582.00	579.00	578.00	576.00	575.00	571.00	570.00	566.00	565.00	554.00	549.00	548.00	546.00	545.00	543.00	543.00	544.00	543.00	543.00	543.00	543.00	543.00	546.00	552.00	550.00	550.00	549.00	547.00	544.00	542.00	538.00	536.00	532.00	531.00	529.00	526.00	524.00	523.00	524.00	524.00	525.00	530.00	531.00	533.00	533.00	533.00	546.00	557.00	556.00	567.00	610.00	787.00	858.00	805.00	733.00	780.00	758.00	729.00	721.00	683.00	674.00	669.00	840.00	865.00	764.00	796.00	773.00	848.00	836.00	747.00	711.00	731.00	722.00	663.00	664.00	663.00	665.00	683.00	692.00	684.00	687.00	691.00	712.00	718.00	726.00	732.00	733.00	739.00	750.00	779.00	821.00	806.00	816.00	854.00	897.00	928.00	931.00	938.00	973.00	1028.00	1030.00	999.00	1020.00	998.00	999.00	1016.00	1065.00	1095.00	1099.00	1138.00	1109.00	1117.00	1145.00	1216.00	1191.00	1153.00	1157.00	1182.00	1201.00	1177.00	1167.00	1169.00	1163.00	1181.00	1231.00	1091.00	992.00	973.00	965.00	957.00	946.00	914.00	902.00	884.00	877.00	850.00	843.00	835.00	830.00	827.00	821.00	822.00	837.00	857.00	957.00	895.00	938.00	941.00	850.00	834.00	884.00	936.00	871.00	763.00	746.00	739.00	719.00	723.00	728.00	734.00	736.00	727.00	721.00	715.00	708.00	711.00	720.00	708.00	709.00	710.00	715.00	748.00	769.00	763.00	757.00	777.00	781.00	837.00	923.00	1063.00	1105.00	994.00	1007.00	1046.00	1166.00	1025.00	952.00	851.00	988.00	830.00	776.00	868.00	838.00	732.00	677.00	466.00	501.00	684.00	1103.00	1116.00	1131.00	1104.00	1060.00	1073.00	1131.00	1160.00	1254.00	1097.00	864.00	751.00	713.00	726.00	637.00	643.00	697.00	743.00	854.00	956.00	1043.00	995.00	804.00	617.00	576.00	529.00	526.00	531.00	494.00	479.00	462.00	453.00	598.00	605.00	519.00	472.00	524.00	552.00
656.00	654.00	652.00	643.00	639.00	635.00	631.00	624.00	618.00	610.00	606.00	608.00	607.00	604.00	601.00	598.00	587.00	587.00	589.00	586.00	586.00	583.00	580.00	578.00	574.00	572.00	570.00	569.00	566.00	561.00	550.00	546.00	547.00	545.00	542.00	542.00	541.00	542.00	542.00	541.00	541.00	542.00	545.00	551.00	550.00	549.00	548.00	547.00	543.00	543.00	540.00	538.00	533.00	532.00	529.00	528.00	525.00	522.00	520.00	520.00	521.00	527.00	527.00	528.00	527.00	528.00	533.00	540.00	549.00	564.00	675.00	808.00	769.00	728.00	689.00	730.00	713.00	685.00	731.00	712.00	671.00	657.00	696.00	694.00	716.00	712.00	775.00	845.00	797.00	724.00	689.00	733.00	664.00	653.00	651.00	651.00	659.00	664.00	671.00	674.00	677.00	681.00	704.00	707.00	710.00	713.00	724.00	740.00	760.00	767.00	779.00	790.00	803.00	848.00	869.00	913.00	920.00	950.00	966.00	991.00	958.00	956.00	971.00	959.00	983.00	1007.00	1021.00	1039.00	1060.00	1082.00	1128.00	1163.00	1187.00	1285.00	1287.00	1255.00	1216.00	1145.00	1113.00	1112.00	1129.00	1139.00	1124.00	1153.00	1190.00	1158.00	1038.00	1004.00	985.00	974.00	958.00	911.00	899.00	890.00	882.00	852.00	844.00	837.00	830.00	824.00	817.00	814.00	822.00	852.00	889.00	865.00	937.00	945.00	847.00	819.00	859.00	917.00	813.00	749.00	735.00	726.00	729.00	734.00	758.00	765.00	764.00	744.00	728.00	722.00	722.00	719.00	719.00	718.00	722.00	723.00	726.00	741.00	787.00	836.00	779.00	798.00	841.00	819.00	861.00	908.00	1095.00	1062.00	1109.00	1211.00	1225.00	941.00	880.00	840.00	936.00	872.00	823.00	868.00	787.00	731.00	647.00	503.00	550.00	647.00	1109.00	1233.00	1304.00	1265.00	1218.00	1157.00	1233.00	1282.00	1363.00	1095.00	856.00	828.00	719.00	673.00	602.00	640.00	723.00	701.00	768.00	837.00	899.00	875.00	782.00	573.00	539.00	520.00	498.00	482.00	465.00	460.00	454.00	454.00	558.00	604.00	500.00	466.00	489.00	492.00
664.00	661.00	657.00	647.00	640.00	635.00	632.00	623.00	614.00	615.00	618.00	617.00	610.00	606.00	602.00	599.00	590.00	592.00	592.00	594.00	592.00	587.00	584.00	580.00	575.00	572.00	571.00	569.00	567.00	562.00	561.00	553.00	546.00	545.00	542.00	540.00	541.00	540.00	540.00	539.00	540.00	540.00	541.00	550.00	550.00	548.00	546.00	546.00	544.00	542.00	539.00	537.00	534.00	532.00	530.00	528.00	526.00	523.00	521.00	519.00	518.00	522.00	523.00	523.00	524.00	521.00	527.00	535.00	558.00	651.00	718.00	728.00	655.00	664.00	639.00	688.00	680.00	652.00	695.00	735.00	685.00	651.00	642.00	647.00	672.00	709.00	847.00	879.00	745.00	743.00	698.00	673.00	643.00	641.00	644.00	641.00	657.00	653.00	660.00	664.00	665.00	672.00	693.00	694.00	698.00	705.00	718.00	726.00	732.00	746.00	829.00	867.00	858.00	836.00	885.00	965.00	962.00	985.00	1014.00	967.00	937.00	915.00	915.00	942.00	1017.00	1067.00	1079.00	1086.00	1114.00	1108.00	1153.00	1242.00	1305.00	1287.00	1304.00	1345.00	1346.00	1192.00	1135.00	1088.00	1065.00	1092.00	1066.00	1132.00	1131.00	1195.00	1072.00	1050.00	1023.00	1012.00	979.00	925.00	915.00	907.00	911.00	882.00	865.00	850.00	834.00	824.00	815.00	809.00	813.00	823.00	839.00	852.00	904.00	873.00	816.00	817.00	871.00	836.00	779.00	736.00	731.00	732.00	741.00	745.00	802.00	850.00	859.00	781.00	742.00	744.00	735.00	733.00	729.00	729.00	736.00	755.00	758.00	751.00	783.00	882.00	847.00	822.00	937.00	851.00	882.00	880.00	1069.00	1159.00	1220.00	1269.00	1205.00	1071.00	923.00	829.00	890.00	919.00	865.00	799.00	732.00	684.00	502.00	533.00	718.00	869.00	993.00	1123.00	1266.00	1413.00	1400.00	1264.00	1297.00	1381.00	1342.00	980.00	743.00	729.00	711.00	703.00	592.00	671.00	728.00	625.00	650.00	725.00	776.00	751.00	651.00	537.00	520.00	507.00	496.00	469.00	460.00	446.00	437.00	462.00	478.00	505.00	475.00	457.00	465.00	465.00
672.00	663.00	656.00	648.00	646.00	642.00	636.00	630.00	625.00	619.00	616.00	611.00	607.00	607.00	615.00	616.00	614.00	614.00	614.00	609.00	603.00	601.00	597.00	598.00	588.00	581.00	577.00	576.00	575.00	564.00	561.00	560.00	557.00	554.00	548.00	545.00	541.00	539.00	538.00	537.00	538.00	537.00	536.00	544.00	545.00	544.00	544.00	543.00	542.00	540.00	540.00	537.00	534.00	531.00	529.00	526.00	524.00	521.00	521.00	520.00	518.00	513.00	512.00	512.00	511.00	513.00	552.00	580.00	576.00	616.00	600.00	613.00	572.00	585.00	571.00	584.00	669.00	769.00	718.00	653.00	679.00	653.00	613.00	608.00	611.00	697.00	769.00	733.00	613.00	637.00	625.00	627.00	654.00	621.00	619.00	621.00	627.00	636.00	641.00	650.00	655.00	657.00	692.00	714.00	726.00	733.00	758.00	746.00	748.00	776.00	807.00	815.00	836.00	933.00	952.00	900.00	879.00	902.00	866.00	861.00	878.00	924.00	962.00	985.00	1035.00	1054.00	1093.00	1116.00	1183.00	1213.00	1210.00	1207.00	1212.00	1188.00	1204.00	1217.00	1210.00	1205.00	1209.00	1193.00	1175.00	1130.00	1009.00	1015.00	1025.00	1134.00	1188.00	1177.00	1098.00	1051.00	1004.00	996.00	981.00	904.00	887.00	886.00	886.00	915.00	922.00	876.00	813.00	804.00	798.00	798.00	801.00	884.00	904.00	818.00	787.00	813.00	782.00	762.00	745.00	752.00	760.00	779.00	871.00	943.00	818.00	899.00	962.00	932.00	865.00	810.00	852.00	794.00	795.00	793.00	871.00	934.00	993.00	865.00	949.00	982.00	1007.00	922.00	1104.00	1047.00	1088.00	1194.00	1194.00	1284.00	1273.00	1342.00	1250.00	883.00	837.00	841.00	811.00	865.00	880.00	843.00	860.00	796.00	527.00	502.00	688.00	805.00	1101.00	1199.00	1301.00	1364.00	1319.00	1146.00	1130.00	1196.00	1285.00	1112.00	776.00	658.00	620.00	587.00	553.00	600.00	629.00	548.00	601.00	689.00	775.00	570.00	522.00	508.00	510.00	487.00	485.00	453.00	447.00	440.00	425.00	440.00	442.00	440.00	440.00	444.00	442.00	445.00
674.00	670.00	664.00	650.00	646.00	643.00	644.00	643.00	640.00	632.00	628.00	628.00	632.00	622.00	625.00	623.00	621.00	623.00	621.00	617.00	613.00	622.00	614.00	617.00	612.00	604.00	593.00	591.00	585.00	566.00	562.00	559.00	559.00	556.00	551.00	549.00	544.00	539.00	537.00	535.00	536.00	535.00	535.00	536.00	539.00	538.00	541.00	541.00	539.00	539.00	537.00	536.00	532.00	531.00	528.00	526.00	525.00	521.00	520.00	517.00	517.00	508.00	508.00	506.00	504.00	507.00	519.00	517.00	532.00	571.00	579.00	558.00	535.00	533.00	533.00	561.00	624.00	633.00	612.00	651.00	649.00	630.00	601.00	596.00	588.00	600.00	606.00	631.00	600.00	640.00	619.00	601.00	632.00	614.00	611.00	613.00	617.00	627.00	633.00	641.00	647.00	654.00	717.00	812.00	843.00	818.00	793.00	813.00	798.00	771.00	797.00	828.00	866.00	882.00	919.00	884.00	849.00	863.00	842.00	893.00	919.00	912.00	938.00	949.00	1061.00	1080.00	1097.00	1120.00	1189.00	1191.00	1180.00	1186.00	1192.00	1169.00	1192.00	1199.00	1193.00	1155.00	1156.00	1155.00	1140.00	1099.00	1076.00	998.00	984.00	1055.00	1141.00	1177.00	1126.00	1039.00	1002.00	946.00	932.00	932.00	899.00	860.00	852.00	846.00	842.00	838.00	826.00	814.00	804.00	796.00	789.00	813.00	839.00	800.00	777.00	773.00	761.00	752.00	748.00	762.00	787.00	863.00	926.00	1018.00	946.00	1006.00	1085.00	1061.00	976.00	952.00	987.00	945.00	917.00	837.00	929.00	1049.00	1106.00	1086.00	1050.00	1063.00	1147.00	1088.00	1069.00	1008.00	1135.00	1181.00	1197.00	1141.00	1116.00	1214.00	1105.00	841.00	823.00	818.00	800.00	868.00	886.00	822.00	817.00	787.00	688.00	510.00	484.00	603.00	1010.00	1201.00	1323.00	1220.00	1140.00	1021.00	1073.00	1138.00	1275.00	1127.00	846.00	728.00	638.00	584.00	540.00	585.00	552.00	527.00	573.00	655.00	663.00	510.00	503.00	496.00	493.00	494.00	472.00	439.00	435.00	436.00	425.00	427.00	438.00	435.00	433.00	436.00	436.00	436.00
672.00	668.00	661.00	656.00	658.00	659.00	660.00	659.00	662.00	655.00	665.00	661.00	640.00	628.00	650.00	651.00	635.00	632.00	629.00	631.00	621.00	618.00	618.00	615.00	613.00	609.00	604.00	596.00	583.00	573.00	567.00	562.00	560.00	557.00	553.00	551.00	549.00	542.00	537.00	534.00	533.00	533.00	535.00	532.00	531.00	530.00	531.00	533.00	534.00	534.00	536.00	533.00	533.00	530.00	528.00	526.00	523.00	517.00	513.00	513.00	511.00	505.00	505.00	504.00	505.00	503.00	504.00	505.00	531.00	593.00	589.00	525.00	520.00	521.00	523.00	540.00	548.00	561.00	600.00	748.00	662.00	627.00	588.00	586.00	573.00	567.00	565.00	567.00	592.00	606.00	606.00	587.00	601.00	603.00	602.00	606.00	610.00	622.00	629.00	638.00	645.00	655.00	750.00	787.00	804.00	838.00	859.00	905.00	938.00	839.00	825.00	848.00	897.00	879.00	862.00	837.00	837.00	820.00	821.00	894.00	917.00	902.00	928.00	932.00	1013.00	1064.00	1101.00	1140.00	1174.00	1171.00	1159.00	1163.00	1164.00	1143.00	1167.00	1181.00	1174.00	1101.00	1098.00	1119.00	1075.00	1026.00	1036.00	996.00	971.00	1008.00	1140.00	1147.00	1154.00	1110.00	1037.00	947.00	925.00	907.00	901.00	864.00	852.00	843.00	834.00	826.00	825.00	814.00	811.00	800.00	785.00	785.00	782.00	773.00	766.00	760.00	758.00	752.00	758.00	777.00	783.00	802.00	984.00	1107.00	1086.00	1006.00	968.00	935.00	911.00	950.00	875.00	927.00	883.00	958.00	1025.00	1098.00	1227.00	1315.00	1264.00	1172.00	1240.00	1140.00	964.00	947.00	1097.00	1100.00	981.00	944.00	909.00	1025.00	1040.00	824.00	812.00	794.00	791.00	843.00	907.00	869.00	850.00	831.00	774.00	686.00	553.00	453.00	948.00	1043.00	1205.00	1129.00	931.00	914.00	1012.00	1063.00	1229.00	974.00	761.00	684.00	621.00	553.00	535.00	541.00	516.00	512.00	524.00	545.00	549.00	500.00	483.00	485.00	487.00	481.00	465.00	436.00	431.00	426.00	425.00	416.00	433.00	432.00	428.00	429.00	429.00	430.00
672.00	668.00	661.00	656.00	658.00	659.00	660.00	659.00	662.00	655.00	665.00	661.00	640.00	628.00	650.00	651.00	635.00	632.00	629.00	631.00	621.00	618.00	618.00	615.00	613.00	609.00	604.00	596.00	583.00	573.00	567.00	562.00	560.00	557.00	553.00	551.00	549.00	542.00	537.00	534.00	533.00	533.00	535.00	532.00	531.00	530.00	531.00	533.00	534.00	534.00	536.00	533.00	533.00	530.00	528.00	526.00	523.00	517.00	513.00	513.00	511.00	505.00	505.00	504.00	505.00	503.00	504.00	505.00	531.00	593.00	589.00	525.00	520.00	521.00	523.00	540.00	548.00	561.00	600.00	748.00	662.00	627.00	588.00	586.00	573.00	567.00	565.00	567.00	592.00	606.00	606.00	587.00	601.00	603.00	602.00	606.00	610.00	622.00	629.00	638.00	645.00	655.00	750.00	787.00	804.00	838.00	859.00	905.00	938.00	839.00	825.00	848.00	897.00	879.00	862.00	837.00	837.00	820.00	821.00	894.00	917.00	902.00	928.00	932.00	1013.00	1064.00	1101.00	1140.00	1174.00	1171.00	1159.00	1163.00	1164.00	1143.00	1167.00	1181.00	1174.00	1101.00	1098.00	1119.00	1075.00	1026.00	1036.00	996.00	971.00	1008.00	1140.00	1147.00	1154.00	1110.00	1037.00	947.00	925.00	907.00	901.00	864.00	852.00	843.00	834.00	826.00	825.00	814.00	811.00	800.00	785.00	785.00	782.00	773.00	766.00	760.00	758.00	752.00	758.00	777.00	783.00	802.00	984.00	1107.00	1086.00	1006.00	968.00	935.00	911.00	950.00	875.00	927.00	883.00	958.00	1025.00	1098.00	1227.00	1315.00	1264.00	1172.00	1240.00	1140.00	964.00	947.00	1097.00	1100.00	981.00	944.00	909.00	1025.00	1040.00	824.00	812.00	794.00	791.00	843.00	907.00	869.00	850.00	831.00	774.00	686.00	553.00	453.00	948.00	1043.00	1205.00	1129.00	931.00	914.00	1012.00	1063.00	1229.00	974.00	761.00	684.00	621.00	553.00	535.00	541.00	516.00	512.00	524.00	545.00	549.00	500.00	483.00	485.00	487.00	481.00	465.00	436.00	431.00	426.00	425.00	416.00	433.00	432.00	428.00	429.00	429.00	430.00
685.00	691.00	700.00	687.00	708.00	710.00	703.00	688.00	685.00	680.00	674.00	675.00	646.00	666.00	667.00	660.00	646.00	645.00	642.00	634.00	632.00	626.00	624.00	616.00	615.00	607.00	603.00	597.00	587.00	579.00	570.00	567.00	563.00	561.00	556.00	554.00	552.00	547.00	548.00	533.00	533.00	531.00	531.00	529.00	529.00	529.00	528.00	527.00	524.00	523.00	521.00	521.00	519.00	518.00	516.00	515.00	513.00	511.00	511.00	510.00	509.00	519.00	504.00	504.00	504.00	502.00	500.00	501.00	507.00	503.00	500.00	502.00	503.00	505.00	509.00	517.00	527.00	584.00	679.00	765.00	721.00	658.00	581.00	569.00	555.00	551.00	546.00	544.00	580.00	567.00	559.00	565.00	576.00	584.00	589.00	594.00	601.00	620.00	673.00	680.00	670.00	680.00	746.00	786.00	843.00	854.00	962.00	959.00	965.00	1042.00	1006.00	945.00	874.00	793.00	848.00	780.00	783.00	806.00	836.00	849.00	850.00	872.00	899.00	925.00	1027.00	1063.00	1116.00	1150.00	1159.00	1140.00	1134.00	1130.00	1139.00	1131.00	1117.00	1128.00	1112.00	1142.00	1124.00	1107.00	1038.00	970.00	951.00	974.00	931.00	982.00	1111.00	1097.00	1080.00	1124.00	1140.00	1038.00	966.00	926.00	898.00	875.00	867.00	867.00	853.00	832.00	815.00	807.00	802.00	795.00	789.00	782.00	780.00	778.00	781.00	784.00	782.00	790.00	803.00	869.00	881.00	890.00	964.00	1089.00	929.00	910.00	882.00	925.00	839.00	828.00	818.00	813.00	803.00	843.00	871.00	902.00	983.00	1100.00	1222.00	1262.00	1295.00	1284.00	957.00	860.00	876.00	908.00	839.00	846.00	817.00	805.00	795.00	788.00	791.00	781.00	773.00	788.00	803.00	858.00	967.00	963.00	827.00	779.00	689.00	596.00	550.00	819.00	874.00	757.00	734.00	1007.00	984.00	907.00	923.00	914.00	724.00	657.00	611.00	551.00	504.00	498.00	494.00	499.00	507.00	487.00	462.00	460.00	463.00	461.00	457.00	449.00	441.00	434.00	429.00	424.00	419.00	414.00	414.00	415.00	418.00	418.00	423.00	419.00
704.00	712.00	723.00	694.00	707.00	706.00	703.00	695.00	697.00	700.00	696.00	691.00	661.00	671.00	668.00	664.00	654.00	651.00	647.00	641.00	638.00	626.00	622.00	619.00	613.00	612.00	605.00	595.00	592.00	584.00	575.00	570.00	567.00	564.00	559.00	556.00	553.00	554.00	554.00	535.00	532.00	531.00	531.00	528.00	528.00	528.00	526.00	526.00	523.00	522.00	519.00	520.00	517.00	516.00	515.00	514.00	512.00	510.00	510.00	509.00	535.00	603.00	542.00	505.00	503.00	503.00	500.00	500.00	498.00	497.00	498.00	499.00	501.00	500.00	500.00	510.00	526.00	572.00	616.00	682.00	655.00	626.00	581.00	559.00	546.00	542.00	538.00	536.00	544.00	555.00	553.00	560.00	569.00	578.00	584.00	592.00	612.00	627.00	682.00	675.00	664.00	695.00	842.00	866.00	907.00	970.00	985.00	1001.00	972.00	968.00	924.00	909.00	855.00	761.00	758.00	792.00	799.00	840.00	829.00	825.00	851.00	892.00	927.00	987.00	1056.00	1112.00	1164.00	1178.00	1148.00	1132.00	1129.00	1117.00	1115.00	1106.00	1094.00	1108.00	1090.00	1128.00	1087.00	1072.00	1064.00	1006.00	932.00	956.00	914.00	953.00	1076.00	1054.00	1049.00	1101.00	1085.00	950.00	940.00	945.00	910.00	929.00	908.00	868.00	850.00	839.00	831.00	818.00	811.00	806.00	796.00	787.00	786.00	785.00	789.00	848.00	834.00	820.00	829.00	882.00	928.00	988.00	1167.00	1167.00	1053.00	1023.00	982.00	1007.00	875.00	861.00	836.00	834.00	812.00	806.00	816.00	831.00	854.00	1004.00	1070.00	1039.00	1081.00	1214.00	978.00	857.00	845.00	834.00	821.00	817.00	808.00	797.00	791.00	780.00	777.00	772.00	767.00	784.00	796.00	817.00	910.00	961.00	856.00	821.00	726.00	585.00	542.00	730.00	670.00	713.00	878.00	870.00	780.00	790.00	964.00	834.00	719.00	708.00	661.00	607.00	560.00	520.00	475.00	476.00	485.00	468.00	451.00	451.00	453.00	452.00	440.00	436.00	429.00	428.00	425.00	418.00	414.00	406.00	413.00	410.00	411.00	415.00	422.00	418.00
724.00	738.00	731.00	704.00	713.00	715.00	716.00	719.00	709.00	719.00	707.00	690.00	681.00	679.00	674.00	667.00	661.00	656.00	651.00	646.00	643.00	630.00	625.00	624.00	619.00	609.00	606.00	604.00	598.00	590.00	580.00	575.00	572.00	568.00	562.00	560.00	558.00	557.00	553.00	545.00	536.00	535.00	533.00	527.00	527.00	526.00	525.00	524.00	524.00	523.00	518.00	517.00	516.00	517.00	514.00	531.00	536.00	594.00	610.00	581.00	572.00	579.00	522.00	507.00	502.00	502.00	500.00	501.00	498.00	496.00	495.00	496.00	495.00	497.00	508.00	510.00	520.00	542.00	574.00	629.00	625.00	576.00	563.00	554.00	538.00	534.00	530.00	529.00	538.00	542.00	548.00	553.00	563.00	575.00	587.00	592.00	603.00	642.00	654.00	649.00	647.00	683.00	903.00	990.00	1023.00	1109.00	1058.00	1099.00	1017.00	942.00	839.00	808.00	800.00	759.00	743.00	794.00	795.00	801.00	801.00	876.00	926.00	922.00	942.00	987.00	1089.00	1111.00	1142.00	1179.00	1181.00	1168.00	1166.00	1148.00	1121.00	1086.00	1068.00	1095.00	1071.00	1083.00	1027.00	1006.00	987.00	951.00	908.00	935.00	898.00	963.00	1037.00	1006.00	1028.00	1078.00	1018.00	921.00	852.00	881.00	936.00	984.00	910.00	875.00	895.00	877.00	871.00	850.00	830.00	818.00	805.00	795.00	790.00	793.00	797.00	830.00	865.00	899.00	936.00	982.00	1047.00	1109.00	1143.00	1031.00	910.00	949.00	892.00	969.00	916.00	881.00	879.00	819.00	800.00	784.00	796.00	796.00	815.00	880.00	897.00	897.00	985.00	1101.00	1071.00	861.00	845.00	834.00	819.00	811.00	803.00	802.00	820.00	832.00	781.00	757.00	768.00	784.00	792.00	807.00	856.00	991.00	925.00	831.00	696.00	522.00	648.00	574.00	687.00	799.00	848.00	735.00	797.00	880.00	998.00	709.00	625.00	620.00	646.00	571.00	518.00	512.00	473.00	465.00	474.00	474.00	451.00	445.00	443.00	438.00	433.00	426.00	421.00	423.00	421.00	419.00	417.00	412.00	408.00	404.00	408.00	412.00	417.00	416.00
726.00	734.00	719.00	715.00	728.00	739.00	739.00	728.00	712.00	703.00	688.00	688.00	686.00	685.00	679.00	672.00	666.00	662.00	660.00	656.00	655.00	635.00	629.00	625.00	622.00	616.00	612.00	610.00	606.00	596.00	586.00	582.00	578.00	574.00	568.00	566.00	563.00	559.00	556.00	548.00	542.00	540.00	537.00	529.00	527.00	525.00	526.00	525.00	522.00	523.00	518.00	518.00	516.00	515.00	516.00	556.00	638.00	771.00	770.00	742.00	739.00	557.00	520.00	511.00	505.00	504.00	499.00	500.00	500.00	497.00	494.00	495.00	495.00	561.00	616.00	540.00	524.00	530.00	545.00	582.00	567.00	542.00	541.00	534.00	529.00	526.00	523.00	524.00	533.00	540.00	543.00	548.00	558.00	570.00	589.00	605.00	614.00	663.00	648.00	651.00	636.00	665.00	838.00	918.00	968.00	1065.00	1091.00	1061.00	1075.00	1042.00	882.00	852.00	837.00	729.00	728.00	758.00	819.00	823.00	874.00	1031.00	1025.00	1020.00	1006.00	1027.00	1085.00	1098.00	1114.00	1134.00	1158.00	1167.00	1173.00	1189.00	1137.00	1085.00	1036.00	1069.00	1054.00	1113.00	1059.00	977.00	935.00	904.00	893.00	913.00	884.00	987.00	1047.00	969.00	984.00	995.00	895.00	818.00	796.00	843.00	863.00	851.00	779.00	749.00	869.00	869.00	915.00	894.00	852.00	833.00	823.00	807.00	798.00	801.00	806.00	830.00	861.00	911.00	975.00	1027.00	971.00	987.00	987.00	886.00	823.00	842.00	813.00	848.00	797.00	854.00	1012.00	894.00	827.00	778.00	772.00	777.00	801.00	801.00	822.00	873.00	933.00	1066.00	1103.00	881.00	890.00	883.00	823.00	820.00	837.00	886.00	894.00	904.00	801.00	758.00	761.00	777.00	780.00	796.00	822.00	946.00	936.00	841.00	649.00	465.00	525.00	563.00	610.00	635.00	678.00	784.00	824.00	856.00	914.00	662.00	564.00	565.00	584.00	541.00	480.00	481.00	473.00	453.00	464.00	476.00	464.00	436.00	434.00	428.00	425.00	428.00	419.00	419.00	418.00	415.00	410.00	409.00	402.00	400.00	404.00	402.00	413.00	412.00
744.00	753.00	759.00	739.00	750.00	750.00	743.00	738.00	722.00	713.00	714.00	709.00	703.00	703.00	689.00	698.00	694.00	681.00	674.00	658.00	649.00	643.00	639.00	637.00	635.00	630.00	626.00	623.00	619.00	610.00	599.00	595.00	589.00	586.00	581.00	580.00	574.00	572.00	568.00	554.00	556.00	552.00	549.00	542.00	538.00	534.00	531.00	529.00	528.00	526.00	520.00	518.00	527.00	547.00	596.00	665.00	780.00	736.00	683.00	668.00	671.00	600.00	557.00	532.00	519.00	513.00	504.00	501.00	501.00	504.00	656.00	496.00	493.00	494.00	611.00	698.00	638.00	614.00	566.00	514.00	532.00	511.00	520.00	514.00	511.00	511.00	512.00	517.00	525.00	531.00	533.00	537.00	544.00	540.00	538.00	551.00	556.00	576.00	603.00	602.00	610.00	630.00	810.00	866.00	909.00	943.00	994.00	959.00	894.00	882.00	804.00	744.00	822.00	712.00	720.00	823.00	907.00	978.00	998.00	910.00	903.00	946.00	1019.00	1057.00	1131.00	1241.00	1277.00	1227.00	1177.00	1160.00	1125.00	1094.00	1087.00	1075.00	985.00	1082.00	1163.00	1200.00	1163.00	1101.00	1029.00	981.00	860.00	887.00	865.00	1033.00	1030.00	939.00	910.00	854.00	912.00	776.00	739.00	706.00	711.00	638.00	615.00	622.00	619.00	647.00	738.00	689.00	726.00	817.00	887.00	853.00	823.00	816.00	821.00	847.00	856.00	861.00	894.00	907.00	901.00	881.00	821.00	810.00	797.00	792.00	784.00	776.00	764.00	760.00	761.00	762.00	776.00	772.00	751.00	756.00	763.00	787.00	799.00	820.00	863.00	956.00	1113.00	1164.00	1184.00	1008.00	877.00	921.00	943.00	1061.00	1009.00	875.00	782.00	759.00	744.00	757.00	763.00	784.00	825.00	860.00	800.00	777.00	780.00	572.00	637.00	694.00	747.00	769.00	755.00	746.00	774.00	831.00	786.00	661.00	531.00	528.00	504.00	490.00	461.00	454.00	448.00	478.00	460.00	459.00	432.00	424.00	430.00	420.00	417.00	416.00	411.00	411.00	409.00	410.00	412.00	405.00	387.00	392.00	391.00	393.00	396.00	402.00
754.00	761.00	764.00	747.00	758.00	756.00	749.00	746.00	726.00	725.00	725.00	716.00	723.00	701.00	700.00	707.00	693.00	683.00	681.00	662.00	656.00	649.00	647.00	645.00	643.00	638.00	633.00	630.00	625.00	615.00	605.00	604.00	599.00	595.00	588.00	585.00	580.00	580.00	593.00	561.00	560.00	560.00	554.00	546.00	544.00	542.00	544.00	539.00	536.00	536.00	528.00	527.00	542.00	565.00	595.00	650.00	766.00	722.00	652.00	630.00	646.00	557.00	540.00	533.00	527.00	524.00	537.00	573.00	581.00	635.00	799.00	511.00	491.00	489.00	493.00	678.00	703.00	643.00	609.00	521.00	579.00	522.00	522.00	507.00	504.00	505.00	507.00	512.00	519.00	524.00	528.00	530.00	535.00	532.00	528.00	535.00	536.00	561.00	586.00	586.00	600.00	622.00	847.00	906.00	866.00	883.00	920.00	942.00	919.00	922.00	759.00	748.00	704.00	710.00	711.00	837.00	881.00	923.00	865.00	924.00	943.00	1025.00	1072.00	1098.00	1172.00	1200.00	1307.00	1282.00	1234.00	1207.00	1174.00	1151.00	1114.00	1044.00	1033.00	1090.00	1124.00	1180.00	1176.00	1093.00	983.00	1005.00	848.00	876.00	860.00	1046.00	1102.00	1002.00	1003.00	980.00	995.00	757.00	727.00	701.00	669.00	622.00	620.00	606.00	572.00	576.00	655.00	606.00	712.00	678.00	800.00	838.00	868.00	838.00	827.00	846.00	860.00	872.00	878.00	904.00	960.00	1010.00	885.00	863.00	809.00	803.00	797.00	786.00	770.00	762.00	754.00	747.00	743.00	742.00	745.00	759.00	774.00	821.00	850.00	939.00	980.00	895.00	993.00	1116.00	1107.00	1104.00	1067.00	1090.00	1130.00	1072.00	901.00	783.00	764.00	751.00	740.00	758.00	760.00	781.00	789.00	760.00	570.00	528.00	591.00	559.00	603.00	642.00	651.00	668.00	656.00	783.00	866.00	862.00	720.00	583.00	531.00	511.00	537.00	514.00	459.00	441.00	456.00	459.00	443.00	444.00	431.00	417.00	419.00	416.00	412.00	414.00	407.00	408.00	405.00	408.00	409.00	405.00	390.00	389.00	388.00	387.00	398.00	403.00
754.00	761.00	764.00	747.00	758.00	756.00	749.00	746.00	726.00	725.00	725.00	716.00	723.00	701.00	700.00	707.00	693.00	683.00	681.00	662.00	656.00	649.00	647.00	645.00	643.00	638.00	633.00	630.00	625.00	615.00	605.00	604.00	599.00	595.00	588.00	585.00	580.00	580.00	593.00	561.00	560.00	560.00	554.00	546.00	544.00	542.00	544.00	539.00	536.00	536.00	528.00	527.00	542.00	565.00	595.00	650.00	766.00	722.00	652.00	630.00	646.00	557.00	540.00	533.00	527.00	524.00	537.00	573.00	581.00	635.00	799.00	511.00	491.00	489.00	493.00	678.00	703.00	643.00	609.00	521.00	579.00	522.00	522.00	507.00	504.00	505.00	507.00	512.00	519.00	524.00	528.00	530.00	535.00	532.00	528.00	535.00	536.00	561.00	586.00	586.00	600.00	622.00	847.00	906.00	866.00	883.00	920.00	942.00	919.00	922.00	759.00	748.00	704.00	710.00	711.00	837.00	881.00	923.00	865.00	924.00	943.00	1025.00	1072.00	1098.00	1172.00	1200.00	1307.00	1282.00	1234.00	1207.00	1174.00	1151.00	1114.00	1044.00	1033.00	1090.00	1124.00	1180.00	1176.00	1093.00	983.00	1005.00	848.00	876.00	860.00	1046.00	1102.00	1002.00	1003.00	980.00	995.00	757.00	727.00	701.00	669.00	622.00	620.00	606.00	572.00	576.00	655.00	606.00	712.00	678.00	800.00	838.00	868.00	838.00	827.00	846.00	860.00	872.00	878.00	904.00	960.00	1010.00	885.00	863.00	809.00	803.00	797.00	786.00	770.00	762.00	754.00	747.00	743.00	742.00	745.00	759.00	774.00	821.00	850.00	939.00	980.00	895.00	993.00	1116.00	1107.00	1104.00	1067.00	1090.00	1130.00	1072.00	901.00	783.00	764.00	751.00	740.00	758.00	760.00	781.00	789.00	760.00	570.00	528.00	591.00	559.00	603.00	642.00	651.00	668.00	656.00	783.00	866.00	862.00	720.00	583.00	531.00	511.00	537.00	514.00	459.00	441.00	456.00	459.00	443.00	444.00	431.00	417.00	419.00	416.00	412.00	414.00	407.00	408.00	405.00	408.00	409.00	405.00	390.00	389.00	388.00	387.00	398.00	403.00
752.00	775.00	777.00	757.00	764.00	761.00	757.00	757.00	754.00	754.00	737.00	738.00	710.00	711.00	715.00	708.00	701.00	688.00	688.00	667.00	664.00	656.00	655.00	653.00	651.00	645.00	641.00	636.00	631.00	621.00	615.00	614.00	608.00	605.00	594.00	588.00	585.00	588.00	594.00	569.00	568.00	564.00	558.00	561.00	556.00	550.00	547.00	543.00	543.00	542.00	542.00	548.00	555.00	561.00	614.00	685.00	734.00	734.00	720.00	639.00	609.00	553.00	549.00	588.00	627.00	548.00	665.00	759.00	753.00	846.00	828.00	519.00	493.00	492.00	491.00	511.00	503.00	493.00	495.00	512.00	508.00	489.00	498.00	495.00	499.00	500.00	504.00	508.00	515.00	518.00	522.00	524.00	527.00	525.00	522.00	523.00	530.00	552.00	562.00	574.00	593.00	622.00	741.00	765.00	717.00	825.00	889.00	853.00	882.00	876.00	719.00	722.00	685.00	698.00	694.00	824.00	771.00	812.00	821.00	890.00	958.00	1077.00	1115.00	1107.00	1167.00	1219.00	1298.00	1280.00	1322.00	1276.00	1269.00	1219.00	1163.00	990.00	1066.00	1090.00	1091.00	1062.00	1071.00	1038.00	964.00	902.00	845.00	837.00	865.00	1032.00	988.00	857.00	812.00	804.00	863.00	801.00	803.00	749.00	697.00	671.00	692.00	664.00	625.00	592.00	535.00	562.00	622.00	596.00	679.00	708.00	776.00	855.00	793.00	868.00	928.00	933.00	902.00	948.00	934.00	970.00	1098.00	949.00	824.00	817.00	803.00	794.00	779.00	769.00	764.00	756.00	745.00	735.00	747.00	812.00	865.00	938.00	979.00	993.00	870.00	769.00	872.00	858.00	884.00	973.00	1115.00	1126.00	1091.00	1025.00	966.00	797.00	766.00	744.00	733.00	748.00	751.00	778.00	745.00	702.00	591.00	524.00	534.00	487.00	523.00	626.00	616.00	626.00	637.00	779.00	859.00	728.00	680.00	541.00	515.00	494.00	510.00	491.00	452.00	438.00	435.00	447.00	436.00	430.00	425.00	413.00	414.00	414.00	407.00	409.00	404.00	409.00	403.00	402.00	403.00	399.00	390.00	382.00	385.00	383.00	389.00	397.00
