863.00	863.00	863.00	863.00	862.00	862.00	862.00	862.00	861.00	862.00	862.00	861.00	861.00	862.00	861.00	859.00	860.00	860.00	859.00	860.00	860.00	860.00	859.00	860.00	858.00	859.00	861.00	865.00	858.00	859.00	858.00	858.00	858.00	858.00	858.00	857.00	857.00	858.00	858.00	857.00	857.00	858.00	864.00	857.00	857.00	858.00	858.00	857.00	858.00	857.00	856.00	859.00	857.00	855.00	853.00	853.00	854.00	854.00	856.00	860.00	855.00	854.00	854.00	854.00	854.00	855.00	853.00	852.00	852.00	852.00	853.00	858.00	854.00	853.00	851.00	851.00	851.00	852.00	851.00	850.00	850.00	850.00	849.00	849.00	850.00	850.00	849.00	849.00	849.00	849.00	849.00	850.00	851.00	850.00	851.00	850.00	851.00	851.00	850.00	850.00	849.00	848.00	848.00	849.00	848.00	848.00	848.00	849.00	849.00	848.00	848.00	847.00	847.00	847.00	847.00	846.00	847.00	846.00	846.00	847.00	848.00	847.00	846.00	845.00	845.00	846.00	847.00	845.00	845.00	846.00	846.00	846.00	846.00	848.00	849.00	847.00	847.00	846.00	848.00	854.00	851.00	852.00	851.00	851.00	848.00	842.00	843.00	843.00	844.00	844.00	842.00	839.00	839.00	840.00	839.00	839.00	842.00	841.00	839.00	840.00	838.00	841.00	839.00	840.00	843.00	843.00	844.00	843.00	840.00	842.00	839.00	839.00	840.00	837.00	836.00	836.00	836.00	837.00	838.00	836.00	836.00	836.00	838.00	837.00	836.00	836.00	833.00	833.00	834.00	836.00	835.00	836.00	834.00	836.00	834.00	832.00	832.00	832.00	830.00	830.00	832.00	832.00	831.00	832.00	830.00	830.00	831.00	831.00	831.00	831.00	829.00	828.00	831.00	832.00	832.00	832.00	831.00	831.00	832.00	832.00	828.00	831.00	830.00	832.00	831.00	830.00	831.00	829.00	833.00	831.00	832.00	832.00	831.00	830.00	836.00	839.00	836.00	837.00	836.00	838.00	838.00	839.00	841.00	843.00	844.00	844.00	843.00	839.00	838.00	839.00	840.00	841.00	848.00	858.00	862.00	862.00
863.00	862.00	863.00	863.00	863.00	863.00	862.00	862.00	862.00	862.00	862.00	862.00	860.00	860.00	862.00	860.00	860.00	861.00	859.00	861.00	861.00	861.00	861.00	861.00	858.00	859.00	861.00	866.00	859.00	859.00	859.00	859.00	858.00	859.00	858.00	858.00	858.00	857.00	857.00	857.00	857.00	859.00	861.00	857.00	858.00	857.00	857.00	856.00	858.00	857.00	859.00	857.00	855.00	855.00	854.00	853.00	855.00	855.00	858.00	861.00	857.00	855.00	854.00	853.00	852.00	855.00	853.00	852.00	853.00	852.00	852.00	858.00	853.00	852.00	850.00	850.00	851.00	851.00	851.00	851.00	851.00	849.00	850.00	850.00	849.00	849.00	849.00	850.00	849.00	848.00	849.00	849.00	850.00	850.00	851.00	851.00	851.00	852.00	851.00	849.00	850.00	846.00	847.00	850.00	849.00	850.00	849.00	849.00	849.00	848.00	847.00	848.00	847.00	847.00	847.00	848.00	847.00	846.00	848.00	848.00	848.00	847.00	846.00	846.00	846.00	846.00	846.00	846.00	847.00	846.00	846.00	845.00	845.00	845.00	847.00	847.00	846.00	845.00	845.00	851.00	854.00	851.00	854.00	850.00	851.00	842.00	842.00	844.00	845.00	844.00	840.00	840.00	838.00	842.00	840.00	839.00	836.00	840.00	840.00	842.00	839.00	840.00	845.00	840.00	843.00	839.00	843.00	842.00	840.00	839.00	838.00	837.00	837.00	838.00	836.00	838.00	836.00	836.00	837.00	837.00	835.00	836.00	837.00	836.00	836.00	836.00	835.00	834.00	834.00	835.00	834.00	834.00	835.00	835.00	833.00	832.00	831.00	832.00	829.00	831.00	830.00	832.00	832.00	832.00	832.00	831.00	831.00	831.00	831.00	830.00	829.00	829.00	832.00	832.00	831.00	831.00	831.00	832.00	830.00	831.00	831.00	830.00	831.00	832.00	831.00	832.00	831.00	832.00	832.00	832.00	831.00	830.00	828.00	828.00	829.00	833.00	831.00	829.00	829.00	831.00	838.00	838.00	838.00	839.00	838.00	839.00	838.00	839.00	839.00	839.00	838.00	837.00	839.00	838.00	848.00	849.00
864.00	863.00	862.00	863.00	864.00	863.00	861.00	862.00	862.00	861.00	862.00	862.00	860.00	861.00	862.00	861.00	861.00	861.00	860.00	862.00	861.00	861.00	860.00	864.00	859.00	860.00	860.00	860.00	862.00	858.00	859.00	858.00	859.00	859.00	858.00	858.00	858.00	858.00	857.00	857.00	857.00	861.00	859.00	857.00	857.00	858.00	858.00	857.00	855.00	857.00	857.00	858.00	859.00	858.00	854.00	854.00	853.00	857.00	857.00	859.00	861.00	857.00	854.00	854.00	853.00	853.00	853.00	853.00	852.00	852.00	852.00	859.00	854.00	853.00	851.00	852.00	852.00	851.00	851.00	849.00	850.00	849.00	850.00	850.00	849.00	849.00	849.00	849.00	849.00	849.00	850.00	850.00	850.00	850.00	851.00	851.00	851.00	850.00	850.00	850.00	849.00	848.00	848.00	850.00	849.00	849.00	848.00	848.00	849.00	848.00	849.00	848.00	848.00	847.00	848.00	849.00	848.00	848.00	847.00	847.00	847.00	847.00	847.00	847.00	847.00	846.00	847.00	847.00	847.00	846.00	846.00	846.00	845.00	845.00	845.00	845.00	844.00	845.00	845.00	848.00	856.00	851.00	852.00	847.00	847.00	844.00	841.00	842.00	841.00	839.00	840.00	839.00	839.00	835.00	843.00	837.00	839.00	838.00	838.00	838.00	841.00	842.00	837.00	837.00	838.00	838.00	839.00	842.00	833.00	835.00	835.00	837.00	838.00	835.00	837.00	837.00	836.00	837.00	836.00	837.00	836.00	838.00	836.00	836.00	836.00	837.00	836.00	836.00	835.00	834.00	835.00	835.00	835.00	833.00	834.00	832.00	831.00	832.00	832.00	831.00	832.00	833.00	831.00	832.00	831.00	831.00	831.00	831.00	832.00	829.00	830.00	832.00	832.00	831.00	832.00	831.00	831.00	831.00	831.00	831.00	830.00	829.00	830.00	832.00	832.00	831.00	830.00	831.00	831.00	833.00	831.00	830.00	830.00	830.00	829.00	829.00	830.00	831.00	829.00	828.00	829.00	831.00	834.00	837.00	837.00	837.00	837.00	838.00	838.00	837.00	838.00	838.00	837.00	837.00	837.00	837.00
863.00	863.00	862.00	861.00	863.00	863.00	862.00	862.00	862.00	861.00	861.00	862.00	862.00	862.00	861.00	861.00	861.00	860.00	861.00	861.00	861.00	860.00	861.00	862.00	859.00	859.00	860.00	860.00	859.00	858.00	859.00	859.00	858.00	859.00	859.00	858.00	858.00	857.00	858.00	857.00	859.00	859.00	857.00	857.00	856.00	859.00	858.00	856.00	855.00	856.00	856.00	858.00	859.00	860.00	857.00	854.00	859.00	858.00	859.00	855.00	859.00	854.00	853.00	854.00	853.00	852.00	853.00	854.00	854.00	852.00	852.00	855.00	855.00	853.00	852.00	852.00	853.00	852.00	851.00	851.00	851.00	851.00	850.00	850.00	849.00	850.00	850.00	850.00	849.00	850.00	851.00	851.00	851.00	851.00	851.00	851.00	851.00	853.00	849.00	850.00	849.00	847.00	848.00	848.00	849.00	850.00	848.00	849.00	848.00	848.00	849.00	848.00	848.00	849.00	848.00	847.00	847.00	847.00	847.00	847.00	847.00	846.00	846.00	846.00	847.00	847.00	847.00	848.00	846.00	846.00	846.00	845.00	845.00	845.00	846.00	844.00	845.00	846.00	845.00	846.00	852.00	853.00	852.00	848.00	849.00	840.00	838.00	836.00	836.00	839.00	843.00	837.00	837.00	838.00	839.00	839.00	839.00	840.00	839.00	841.00	839.00	841.00	841.00	839.00	840.00	835.00	839.00	839.00	844.00	837.00	837.00	838.00	836.00	838.00	836.00	837.00	835.00	834.00	836.00	835.00	836.00	837.00	836.00	834.00	836.00	836.00	835.00	835.00	836.00	835.00	834.00	832.00	833.00	834.00	833.00	832.00	829.00	833.00	831.00	833.00	832.00	832.00	830.00	831.00	831.00	831.00	831.00	832.00	830.00	830.00	832.00	832.00	831.00	832.00	832.00	832.00	830.00	830.00	829.00	829.00	830.00	830.00	827.00	831.00	832.00	831.00	829.00	831.00	831.00	833.00	831.00	832.00	831.00	830.00	830.00	828.00	828.00	828.00	828.00	828.00	830.00	830.00	832.00	837.00	836.00	837.00	837.00	838.00	838.00	838.00	837.00	837.00	837.00	836.00	835.00	836.00
864.00	863.00	862.00	862.00	863.00	863.00	863.00	862.00	863.00	862.00	861.00	862.00	862.00	861.00	862.00	861.00	861.00	861.00	861.00	860.00	860.00	861.00	862.00	861.00	860.00	860.00	860.00	859.00	859.00	860.00	859.00	859.00	859.00	859.00	859.00	858.00	857.00	858.00	857.00	857.00	858.00	858.00	856.00	858.00	859.00	858.00	859.00	856.00	856.00	856.00	856.00	856.00	857.00	861.00	860.00	858.00	858.00	858.00	856.00	856.00	856.00	853.00	853.00	854.00	854.00	852.00	852.00	854.00	854.00	853.00	851.00	852.00	853.00	853.00	853.00	853.00	853.00	852.00	852.00	851.00	851.00	850.00	850.00	850.00	850.00	849.00	850.00	849.00	849.00	851.00	850.00	850.00	851.00	851.00	852.00	850.00	850.00	852.00	851.00	850.00	848.00	849.00	849.00	849.00	850.00	850.00	848.00	848.00	848.00	848.00	849.00	849.00	851.00	851.00	848.00	847.00	847.00	846.00	847.00	847.00	846.00	846.00	847.00	848.00	846.00	846.00	847.00	848.00	847.00	847.00	846.00	846.00	846.00	844.00	845.00	846.00	845.00	845.00	846.00	847.00	850.00	853.00	851.00	845.00	845.00	839.00	842.00	840.00	840.00	843.00	840.00	838.00	837.00	836.00	837.00	838.00	838.00	838.00	842.00	840.00	841.00	837.00	839.00	841.00	840.00	841.00	837.00	839.00	841.00	843.00	839.00	842.00	844.00	835.00	837.00	836.00	836.00	835.00	837.00	836.00	834.00	835.00	836.00	837.00	836.00	834.00	834.00	836.00	835.00	835.00	835.00	833.00	835.00	835.00	834.00	832.00	831.00	832.00	832.00	832.00	832.00	832.00	832.00	832.00	831.00	832.00	831.00	831.00	830.00	832.00	831.00	830.00	831.00	832.00	832.00	831.00	830.00	831.00	829.00	829.00	829.00	831.00	829.00	831.00	832.00	830.00	830.00	830.00	831.00	831.00	830.00	830.00	831.00	830.00	828.00	829.00	828.00	828.00	828.00	829.00	830.00	831.00	832.00	830.00	828.00	829.00	831.00	834.00	834.00	837.00	838.00	838.00	837.00	837.00	836.00	837.00
863.00	863.00	863.00	862.00	862.00	863.00	862.00	862.00	863.00	863.00	863.00	862.00	861.00	862.00	861.00	860.00	862.00	861.00	862.00	861.00	860.00	861.00	861.00	860.00	861.00	859.00	860.00	861.00	859.00	859.00	859.00	860.00	859.00	860.00	858.00	859.00	858.00	858.00	857.00	857.00	856.00	858.00	857.00	856.00	862.00	859.00	857.00	856.00	856.00	856.00	857.00	856.00	857.00	860.00	861.00	858.00	859.00	856.00	856.00	856.00	854.00	853.00	854.00	853.00	854.00	854.00	854.00	854.00	854.00	853.00	853.00	853.00	851.00	852.00	853.00	853.00	852.00	851.00	851.00	851.00	851.00	851.00	851.00	850.00	850.00	850.00	850.00	849.00	850.00	849.00	850.00	851.00	852.00	851.00	850.00	850.00	851.00	851.00	851.00	850.00	849.00	849.00	849.00	851.00	850.00	850.00	848.00	849.00	848.00	848.00	852.00	852.00	849.00	848.00	847.00	847.00	847.00	846.00	846.00	846.00	846.00	847.00	847.00	846.00	848.00	848.00	849.00	848.00	847.00	847.00	846.00	846.00	846.00	845.00	845.00	845.00	846.00	845.00	846.00	847.00	851.00	851.00	847.00	848.00	842.00	842.00	843.00	845.00	841.00	843.00	843.00	837.00	838.00	836.00	837.00	838.00	838.00	838.00	841.00	840.00	839.00	840.00	837.00	839.00	836.00	838.00	837.00	837.00	837.00	837.00	837.00	839.00	842.00	839.00	837.00	837.00	836.00	837.00	835.00	837.00	836.00	834.00	835.00	835.00	836.00	832.00	834.00	834.00	835.00	835.00	833.00	835.00	834.00	835.00	833.00	834.00	832.00	832.00	833.00	832.00	832.00	832.00	832.00	832.00	832.00	832.00	831.00	831.00	832.00	831.00	831.00	830.00	830.00	830.00	832.00	831.00	831.00	832.00	831.00	831.00	832.00	830.00	832.00	832.00	832.00	831.00	830.00	830.00	830.00	833.00	831.00	828.00	827.00	829.00	831.00	830.00	830.00	829.00	828.00	830.00	832.00	831.00	829.00	829.00	825.00	826.00	827.00	826.00	829.00	835.00	835.00	835.00	835.00	835.00	837.00	836.00
862.00	863.00	862.00	863.00	863.00	863.00	862.00	862.00	862.00	862.00	862.00	862.00	861.00	860.00	861.00	862.00	861.00	863.00	861.00	861.00	861.00	861.00	860.00	860.00	860.00	859.00	859.00	859.00	860.00	860.00	859.00	859.00	859.00	860.00	859.00	858.00	858.00	858.00	856.00	856.00	857.00	858.00	857.00	856.00	862.00	858.00	855.00	856.00	858.00	858.00	858.00	856.00	856.00	856.00	860.00	859.00	859.00	858.00	856.00	855.00	855.00	854.00	854.00	854.00	854.00	853.00	854.00	854.00	855.00	853.00	853.00	854.00	854.00	852.00	851.00	852.00	851.00	851.00	851.00	850.00	850.00	851.00	851.00	850.00	850.00	850.00	849.00	850.00	850.00	851.00	850.00	851.00	851.00	852.00	851.00	850.00	850.00	850.00	850.00	850.00	850.00	849.00	848.00	851.00	850.00	849.00	848.00	849.00	849.00	849.00	851.00	853.00	849.00	847.00	847.00	846.00	847.00	847.00	847.00	847.00	848.00	848.00	847.00	846.00	848.00	848.00	848.00	848.00	847.00	848.00	846.00	846.00	847.00	847.00	846.00	846.00	845.00	845.00	845.00	850.00	850.00	851.00	847.00	846.00	844.00	842.00	841.00	842.00	847.00	843.00	840.00	841.00	840.00	838.00	837.00	838.00	838.00	841.00	839.00	842.00	841.00	836.00	842.00	844.00	836.00	838.00	837.00	835.00	839.00	841.00	839.00	840.00	840.00	844.00	843.00	836.00	837.00	835.00	835.00	835.00	835.00	835.00	834.00	836.00	835.00	834.00	832.00	835.00	835.00	833.00	834.00	835.00	833.00	833.00	833.00	833.00	832.00	833.00	832.00	833.00	832.00	832.00	832.00	831.00	831.00	832.00	832.00	830.00	831.00	831.00	830.00	831.00	831.00	830.00	831.00	832.00	832.00	831.00	831.00	831.00	833.00	832.00	830.00	833.00	832.00	831.00	830.00	829.00	832.00	830.00	832.00	829.00	829.00	830.00	830.00	831.00	829.00	829.00	829.00	829.00	829.00	827.00	827.00	827.00	828.00	828.00	828.00	827.00	828.00	828.00	828.00	829.00	827.00	827.00	832.00	833.00
863.00	862.00	863.00	863.00	863.00	862.00	861.00	862.00	862.00	862.00	861.00	862.00	862.00	861.00	861.00	861.00	863.00	863.00	860.00	861.00	859.00	860.00	861.00	859.00	860.00	860.00	860.00	860.00	861.00	858.00	859.00	859.00	859.00	858.00	859.00	859.00	858.00	857.00	857.00	856.00	857.00	858.00	858.00	857.00	857.00	861.00	856.00	857.00	857.00	858.00	859.00	856.00	858.00	856.00	856.00	857.00	859.00	856.00	857.00	855.00	855.00	855.00	855.00	855.00	854.00	854.00	854.00	853.00	853.00	852.00	853.00	852.00	853.00	852.00	852.00	852.00	851.00	852.00	851.00	851.00	850.00	850.00	850.00	851.00	850.00	849.00	850.00	850.00	849.00	850.00	850.00	851.00	850.00	850.00	851.00	851.00	851.00	849.00	850.00	849.00	850.00	849.00	849.00	850.00	850.00	849.00	849.00	848.00	848.00	847.00	849.00	850.00	847.00	847.00	847.00	847.00	847.00	847.00	846.00	847.00	847.00	850.00	848.00	847.00	849.00	849.00	847.00	847.00	848.00	847.00	848.00	848.00	847.00	847.00	845.00	844.00	844.00	845.00	849.00	855.00	852.00	851.00	847.00	846.00	846.00	849.00	847.00	847.00	843.00	843.00	844.00	840.00	846.00	840.00	837.00	841.00	839.00	838.00	844.00	838.00	838.00	837.00	836.00	839.00	834.00	836.00	834.00	836.00	836.00	839.00	840.00	839.00	839.00	841.00	841.00	842.00	836.00	834.00	835.00	836.00	835.00	835.00	834.00	834.00	836.00	833.00	834.00	832.00	836.00	834.00	833.00	833.00	833.00	833.00	836.00	832.00	832.00	831.00	832.00	832.00	832.00	831.00	831.00	831.00	832.00	831.00	832.00	832.00	832.00	831.00	831.00	830.00	831.00	832.00	832.00	831.00	831.00	831.00	832.00	832.00	830.00	830.00	830.00	832.00	832.00	832.00	832.00	831.00	831.00	831.00	829.00	828.00	826.00	830.00	831.00	828.00	827.00	829.00	829.00	828.00	828.00	828.00	826.00	827.00	827.00	830.00	828.00	827.00	827.00	828.00	827.00	826.00	826.00	828.00	828.00	828.00
862.00	862.00	862.00	863.00	862.00	862.00	863.00	862.00	861.00	861.00	862.00	862.00	862.00	861.00	861.00	862.00	861.00	862.00	862.00	861.00	861.00	860.00	860.00	861.00	861.00	860.00	860.00	861.00	860.00	860.00	859.00	858.00	858.00	858.00	859.00	858.00	857.00	858.00	857.00	857.00	856.00	857.00	858.00	857.00	857.00	859.00	859.00	857.00	856.00	857.00	856.00	856.00	860.00	857.00	856.00	856.00	857.00	855.00	856.00	855.00	854.00	855.00	854.00	854.00	854.00	853.00	853.00	853.00	852.00	853.00	852.00	851.00	851.00	852.00	853.00	851.00	852.00	851.00	852.00	850.00	850.00	850.00	851.00	851.00	851.00	850.00	850.00	850.00	849.00	849.00	851.00	850.00	849.00	849.00	850.00	852.00	851.00	850.00	850.00	850.00	849.00	849.00	849.00	850.00	850.00	849.00	850.00	848.00	847.00	846.00	848.00	848.00	848.00	848.00	846.00	847.00	847.00	846.00	847.00	847.00	847.00	849.00	848.00	847.00	847.00	847.00	849.00	848.00	850.00	848.00	847.00	848.00	847.00	846.00	845.00	844.00	845.00	844.00	849.00	851.00	851.00	852.00	846.00	845.00	849.00	850.00	849.00	847.00	847.00	847.00	846.00	840.00	846.00	845.00	838.00	841.00	843.00	842.00	836.00	841.00	839.00	838.00	840.00	834.00	845.00	838.00	837.00	835.00	836.00	836.00	836.00	839.00	838.00	841.00	836.00	836.00	836.00	834.00	833.00	834.00	835.00	836.00	835.00	834.00	834.00	835.00	833.00	832.00	830.00	831.00	836.00	833.00	836.00	836.00	833.00	835.00	833.00	832.00	831.00	831.00	832.00	830.00	832.00	830.00	831.00	830.00	830.00	831.00	832.00	831.00	832.00	832.00	831.00	832.00	830.00	831.00	830.00	831.00	830.00	831.00	830.00	832.00	828.00	829.00	832.00	831.00	832.00	831.00	831.00	829.00	826.00	827.00	828.00	827.00	826.00	826.00	827.00	828.00	829.00	828.00	827.00	828.00	827.00	826.00	826.00	829.00	828.00	828.00	827.00	828.00	830.00	829.00	828.00	829.00	826.00	828.00
861.00	862.00	862.00	862.00	863.00	863.00	863.00	862.00	861.00	861.00	861.00	862.00	861.00	861.00	861.00	861.00	860.00	861.00	861.00	860.00	860.00	860.00	861.00	860.00	860.00	859.00	860.00	860.00	860.00	859.00	859.00	859.00	859.00	858.00	858.00	858.00	859.00	859.00	858.00	857.00	857.00	857.00	857.00	857.00	857.00	859.00	858.00	856.00	856.00	856.00	856.00	856.00	862.00	860.00	856.00	856.00	856.00	855.00	856.00	855.00	854.00	855.00	855.00	855.00	854.00	853.00	853.00	853.00	852.00	852.00	852.00	851.00	852.00	857.00	853.00	851.00	852.00	852.00	850.00	851.00	850.00	852.00	851.00	851.00	850.00	850.00	851.00	851.00	849.00	850.00	850.00	850.00	850.00	850.00	851.00	851.00	849.00	850.00	850.00	849.00	849.00	849.00	850.00	849.00	850.00	849.00	849.00	847.00	847.00	848.00	848.00	846.00	848.00	848.00	848.00	848.00	847.00	847.00	847.00	847.00	848.00	848.00	847.00	847.00	848.00	847.00	848.00	848.00	850.00	849.00	847.00	846.00	847.00	846.00	846.00	844.00	844.00	845.00	848.00	850.00	847.00	850.00	846.00	847.00	846.00	847.00	857.00	851.00	850.00	848.00	847.00	843.00	846.00	842.00	842.00	845.00	840.00	841.00	841.00	843.00	839.00	841.00	838.00	838.00	839.00	842.00	834.00	838.00	834.00	837.00	836.00	835.00	837.00	836.00	834.00	835.00	836.00	835.00	834.00	833.00	835.00	836.00	834.00	835.00	833.00	833.00	834.00	833.00	834.00	834.00	835.00	834.00	833.00	836.00	834.00	834.00	832.00	831.00	832.00	831.00	832.00	830.00	830.00	829.00	832.00	831.00	832.00	830.00	833.00	830.00	830.00	831.00	831.00	832.00	832.00	829.00	831.00	831.00	831.00	831.00	831.00	831.00	831.00	829.00	829.00	833.00	832.00	831.00	832.00	831.00	829.00	829.00	828.00	829.00	831.00	829.00	828.00	827.00	829.00	828.00	829.00	828.00	826.00	826.00	825.00	828.00	828.00	828.00	827.00	828.00	828.00	829.00	831.00	829.00	829.00	828.00
866.00	864.00	863.00	863.00	862.00	862.00	861.00	862.00	861.00	861.00	861.00	861.00	861.00	861.00	861.00	861.00	861.00	861.00	861.00	860.00	860.00	860.00	860.00	860.00	860.00	860.00	861.00	860.00	861.00	859.00	860.00	859.00	859.00	858.00	859.00	858.00	858.00	859.00	859.00	859.00	858.00	858.00	858.00	858.00	857.00	858.00	859.00	859.00	858.00	857.00	856.00	856.00	861.00	858.00	856.00	854.00	855.00	855.00	855.00	854.00	854.00	855.00	855.00	854.00	854.00	853.00	853.00	853.00	852.00	853.00	851.00	852.00	853.00	855.00	851.00	851.00	852.00	851.00	851.00	852.00	853.00	851.00	850.00	851.00	851.00	850.00	849.00	851.00	850.00	850.00	850.00	851.00	849.00	850.00	852.00	851.00	851.00	851.00	851.00	849.00	850.00	850.00	850.00	850.00	849.00	849.00	849.00	848.00	849.00	848.00	848.00	846.00	847.00	847.00	848.00	847.00	847.00	847.00	848.00	847.00	848.00	849.00	850.00	848.00	848.00	848.00	849.00	849.00	848.00	847.00	847.00	848.00	847.00	848.00	846.00	845.00	844.00	844.00	849.00	846.00	845.00	844.00	844.00	844.00	843.00	844.00	850.00	852.00	849.00	847.00	844.00	847.00	846.00	843.00	843.00	844.00	846.00	838.00	839.00	839.00	840.00	841.00	840.00	840.00	837.00	839.00	837.00	836.00	834.00	834.00	840.00	840.00	833.00	835.00	834.00	835.00	834.00	834.00	835.00	832.00	832.00	834.00	835.00	832.00	835.00	834.00	834.00	834.00	833.00	834.00	833.00	834.00	832.00	834.00	834.00	834.00	833.00	831.00	832.00	832.00	832.00	832.00	830.00	832.00	832.00	831.00	832.00	830.00	832.00	831.00	831.00	831.00	831.00	831.00	832.00	831.00	831.00	831.00	831.00	831.00	832.00	832.00	827.00	829.00	830.00	831.00	833.00	831.00	829.00	831.00	829.00	828.00	826.00	826.00	829.00	828.00	829.00	828.00	828.00	829.00	827.00	828.00	827.00	826.00	826.00	826.00	830.00	829.00	828.00	826.00	826.00	828.00	829.00	831.00	829.00	828.00
870.00	870.00	864.00	862.00	862.00	861.00	862.00	861.00	861.00	861.00	861.00	861.00	860.00	861.00	861.00	860.00	859.00	859.00	860.00	860.00	859.00	860.00	859.00	859.00	859.00	860.00	858.00	859.00	860.00	859.00	859.00	860.00	860.00	858.00	859.00	859.00	859.00	860.00	859.00	858.00	858.00	858.00	858.00	858.00	857.00	857.00	857.00	860.00	862.00	857.00	857.00	855.00	858.00	859.00	857.00	855.00	856.00	855.00	855.00	855.00	854.00	855.00	854.00	854.00	854.00	853.00	853.00	853.00	852.00	853.00	852.00	854.00	855.00	851.00	852.00	852.00	853.00	852.00	850.00	853.00	852.00	852.00	851.00	851.00	851.00	850.00	850.00	852.00	851.00	850.00	851.00	850.00	850.00	850.00	850.00	851.00	850.00	850.00	851.00	852.00	851.00	849.00	849.00	850.00	850.00	849.00	849.00	849.00	849.00	848.00	847.00	848.00	848.00	848.00	848.00	848.00	848.00	849.00	849.00	848.00	849.00	850.00	848.00	849.00	849.00	848.00	848.00	849.00	848.00	845.00	847.00	847.00	847.00	848.00	847.00	844.00	844.00	846.00	845.00	843.00	842.00	843.00	841.00	843.00	842.00	843.00	845.00	852.00	857.00	847.00	847.00	846.00	846.00	847.00	846.00	844.00	844.00	846.00	843.00	843.00	841.00	841.00	841.00	839.00	837.00	837.00	839.00	837.00	838.00	840.00	839.00	840.00	837.00	834.00	835.00	835.00	834.00	832.00	835.00	833.00	834.00	836.00	834.00	836.00	836.00	835.00	832.00	832.00	834.00	833.00	833.00	834.00	833.00	834.00	835.00	835.00	833.00	833.00	833.00	833.00	831.00	831.00	832.00	831.00	832.00	832.00	832.00	830.00	831.00	832.00	832.00	833.00	832.00	831.00	831.00	831.00	831.00	831.00	832.00	832.00	832.00	831.00	828.00	828.00	829.00	831.00	832.00	833.00	830.00	831.00	829.00	829.00	824.00	824.00	830.00	829.00	829.00	828.00	827.00	832.00	829.00	829.00	828.00	830.00	828.00	829.00	828.00	828.00	827.00	827.00	828.00	825.00	828.00	828.00	830.00	830.00
888.00	869.00	866.00	867.00	862.00	861.00	860.00	861.00	860.00	860.00	861.00	860.00	860.00	860.00	860.00	860.00	860.00	859.00	860.00	860.00	860.00	859.00	859.00	859.00	859.00	859.00	858.00	860.00	860.00	859.00	859.00	859.00	859.00	859.00	859.00	858.00	859.00	859.00	858.00	859.00	858.00	858.00	858.00	858.00	858.00	857.00	857.00	857.00	861.00	858.00	858.00	857.00	858.00	856.00	856.00	857.00	858.00	857.00	855.00	854.00	855.00	855.00	855.00	854.00	854.00	853.00	853.00	853.00	852.00	853.00	852.00	852.00	853.00	854.00	852.00	852.00	852.00	853.00	852.00	852.00	852.00	851.00	850.00	849.00	850.00	850.00	850.00	850.00	849.00	850.00	851.00	850.00	849.00	850.00	849.00	849.00	851.00	851.00	850.00	850.00	851.00	849.00	849.00	849.00	850.00	849.00	849.00	849.00	849.00	850.00	848.00	848.00	848.00	849.00	850.00	848.00	848.00	849.00	850.00	848.00	850.00	850.00	849.00	849.00	848.00	847.00	851.00	850.00	846.00	846.00	847.00	848.00	848.00	848.00	847.00	845.00	844.00	845.00	843.00	843.00	843.00	842.00	842.00	842.00	843.00	842.00	843.00	846.00	852.00	854.00	846.00	846.00	846.00	843.00	846.00	847.00	846.00	844.00	849.00	843.00	846.00	842.00	839.00	838.00	837.00	837.00	835.00	835.00	837.00	839.00	841.00	836.00	834.00	834.00	836.00	838.00	833.00	831.00	834.00	836.00	836.00	840.00	838.00	840.00	837.00	835.00	834.00	834.00	833.00	833.00	833.00	834.00	834.00	832.00	832.00	834.00	834.00	832.00	832.00	833.00	830.00	829.00	829.00	830.00	832.00	830.00	828.00	829.00	834.00	831.00	832.00	832.00	831.00	830.00	831.00	830.00	830.00	831.00	831.00	832.00	832.00	831.00	827.00	829.00	830.00	831.00	833.00	831.00	831.00	830.00	828.00	831.00	829.00	829.00	828.00	828.00	828.00	828.00	829.00	830.00	829.00	830.00	830.00	828.00	829.00	829.00	828.00	830.00	828.00	827.00	828.00	829.00	828.00	827.00	830.00	829.00
885.00	874.00	864.00	884.00	870.00	861.00	860.00	860.00	859.00	859.00	859.00	860.00	861.00	861.00	860.00	860.00	860.00	860.00	860.00	859.00	859.00	860.00	859.00	859.00	858.00	858.00	857.00	859.00	864.00	859.00	859.00	858.00	858.00	858.00	857.00	856.00	858.00	859.00	859.00	858.00	858.00	858.00	858.00	857.00	857.00	857.00	856.00	855.00	856.00	858.00	858.00	859.00	860.00	857.00	856.00	857.00	858.00	857.00	855.00	856.00	855.00	855.00	855.00	855.00	854.00	854.00	853.00	853.00	853.00	852.00	852.00	852.00	853.00	853.00	854.00	852.00	853.00	852.00	851.00	852.00	850.00	851.00	850.00	849.00	849.00	850.00	849.00	848.00	849.00	850.00	850.00	851.00	849.00	850.00	850.00	850.00	849.00	850.00	850.00	850.00	849.00	849.00	851.00	849.00	849.00	850.00	849.00	849.00	849.00	851.00	848.00	850.00	849.00	849.00	850.00	850.00	849.00	848.00	848.00	849.00	849.00	850.00	850.00	851.00	849.00	847.00	854.00	850.00	846.00	845.00	845.00	846.00	847.00	847.00	844.00	843.00	844.00	845.00	845.00	843.00	842.00	842.00	842.00	843.00	842.00	842.00	842.00	846.00	851.00	850.00	844.00	846.00	845.00	845.00	843.00	844.00	844.00	843.00	846.00	846.00	842.00	841.00	840.00	841.00	842.00	838.00	839.00	834.00	838.00	837.00	841.00	839.00	835.00	838.00	835.00	839.00	836.00	836.00	832.00	832.00	835.00	835.00	838.00	839.00	839.00	837.00	835.00	833.00	833.00	833.00	832.00	833.00	833.00	835.00	834.00	834.00	832.00	832.00	831.00	832.00	831.00	827.00	828.00	830.00	830.00	827.00	827.00	827.00	828.00	832.00	830.00	832.00	831.00	831.00	829.00	828.00	831.00	831.00	832.00	832.00	832.00	833.00	833.00	831.00	828.00	831.00	833.00	828.00	830.00	831.00	827.00	833.00	830.00	829.00	830.00	828.00	828.00	829.00	828.00	827.00	826.00	831.00	831.00	831.00	829.00	829.00	827.00	828.00	829.00	828.00	828.00	828.00	828.00	828.00	831.00	830.00
872.00	873.00	865.00	881.00	875.00	870.00	868.00	860.00	859.00	859.00	858.00	859.00	860.00	860.00	860.00	860.00	859.00	860.00	859.00	859.00	859.00	859.00	859.00	859.00	858.00	858.00	859.00	859.00	861.00	860.00	861.00	859.00	858.00	858.00	857.00	857.00	857.00	858.00	863.00	859.00	858.00	859.00	858.00	857.00	857.00	856.00	856.00	856.00	855.00	856.00	856.00	856.00	858.00	862.00	856.00	859.00	856.00	858.00	858.00	855.00	855.00	855.00	855.00	854.00	854.00	853.00	853.00	852.00	852.00	853.00	852.00	851.00	853.00	854.00	854.00	853.00	852.00	852.00	852.00	851.00	851.00	851.00	849.00	849.00	849.00	849.00	848.00	850.00	850.00	850.00	850.00	848.00	849.00	850.00	850.00	849.00	849.00	850.00	849.00	850.00	850.00	848.00	850.00	848.00	848.00	850.00	849.00	850.00	851.00	850.00	848.00	849.00	849.00	849.00	849.00	849.00	850.00	849.00	850.00	849.00	850.00	849.00	849.00	849.00	849.00	853.00	852.00	847.00	846.00	845.00	846.00	847.00	847.00	846.00	846.00	844.00	844.00	845.00	844.00	844.00	843.00	843.00	843.00	842.00	841.00	842.00	843.00	844.00	851.00	849.00	845.00	846.00	845.00	845.00	843.00	841.00	843.00	847.00	848.00	846.00	846.00	842.00	841.00	840.00	840.00	838.00	837.00	839.00	834.00	834.00	835.00	836.00	834.00	836.00	838.00	834.00	835.00	835.00	835.00	835.00	834.00	837.00	838.00	844.00	838.00	835.00	833.00	832.00	832.00	832.00	831.00	833.00	832.00	833.00	833.00	832.00	832.00	830.00	829.00	831.00	830.00	828.00	831.00	831.00	831.00	830.00	830.00	828.00	832.00	833.00	832.00	831.00	831.00	832.00	831.00	831.00	831.00	831.00	832.00	832.00	831.00	832.00	832.00	833.00	830.00	834.00	833.00	830.00	832.00	829.00	825.00	833.00	831.00	830.00	829.00	830.00	828.00	830.00	828.00	826.00	825.00	830.00	830.00	828.00	828.00	827.00	826.00	826.00	826.00	826.00	826.00	828.00	828.00	828.00	829.00	830.00
863.00	867.00	870.00	889.00	879.00	864.00	876.00	866.00	859.00	859.00	858.00	859.00	859.00	860.00	860.00	860.00	861.00	861.00	860.00	860.00	860.00	860.00	860.00	859.00	859.00	858.00	858.00	859.00	858.00	857.00	858.00	858.00	858.00	858.00	859.00	859.00	859.00	859.00	861.00	858.00	858.00	858.00	858.00	857.00	857.00	857.00	856.00	856.00	856.00	856.00	856.00	857.00	856.00	856.00	858.00	857.00	856.00	858.00	855.00	856.00	857.00	855.00	855.00	854.00	854.00	853.00	853.00	853.00	853.00	852.00	852.00	852.00	853.00	853.00	853.00	852.00	852.00	852.00	851.00	851.00	851.00	850.00	849.00	849.00	848.00	849.00	849.00	849.00	850.00	849.00	850.00	850.00	849.00	850.00	849.00	849.00	849.00	850.00	848.00	849.00	850.00	849.00	849.00	850.00	851.00	850.00	850.00	849.00	849.00	850.00	850.00	850.00	848.00	850.00	850.00	850.00	850.00	849.00	849.00	850.00	850.00	849.00	850.00	849.00	853.00	849.00	847.00	845.00	844.00	845.00	845.00	846.00	846.00	845.00	846.00	846.00	845.00	844.00	844.00	844.00	842.00	842.00	841.00	842.00	842.00	842.00	842.00	848.00	853.00	847.00	844.00	843.00	845.00	847.00	848.00	846.00	848.00	845.00	848.00	843.00	845.00	846.00	844.00	844.00	840.00	838.00	841.00	837.00	836.00	835.00	837.00	834.00	835.00	837.00	835.00	836.00	834.00	835.00	834.00	835.00	835.00	833.00	837.00	838.00	841.00	834.00	833.00	833.00	832.00	833.00	833.00	833.00	833.00	831.00	832.00	831.00	829.00	831.00	831.00	832.00	831.00	830.00	833.00	833.00	832.00	831.00	831.00	832.00	831.00	833.00	832.00	832.00	832.00	831.00	832.00	832.00	832.00	832.00	831.00	831.00	832.00	832.00	832.00	832.00	832.00	834.00	832.00	830.00	834.00	831.00	832.00	832.00	831.00	829.00	831.00	828.00	831.00	831.00	828.00	825.00	827.00	828.00	830.00	830.00	830.00	827.00	827.00	827.00	825.00	825.00	824.00	828.00	830.00	829.00	829.00	828.00
871.00	860.00	867.00	876.00	876.00	871.00	864.00	889.00	865.00	859.00	858.00	858.00	859.00	859.00	860.00	861.00	861.00	861.00	861.00	860.00	860.00	860.00	860.00	860.00	861.00	858.00	858.00	859.00	859.00	858.00	858.00	858.00	858.00	858.00	859.00	858.00	859.00	860.00	861.00	860.00	858.00	857.00	858.00	858.00	858.00	858.00	857.00	857.00	857.00	856.00	856.00	857.00	856.00	855.00	856.00	856.00	855.00	858.00	856.00	856.00	856.00	855.00	855.00	854.00	854.00	853.00	853.00	853.00	852.00	853.00	852.00	856.00	855.00	853.00	852.00	852.00	853.00	852.00	851.00	851.00	852.00	852.00	851.00	850.00	850.00	849.00	850.00	850.00	849.00	849.00	848.00	848.00	849.00	848.00	848.00	848.00	850.00	848.00	847.00	849.00	850.00	849.00	849.00	848.00	850.00	851.00	851.00	849.00	849.00	849.00	848.00	850.00	851.00	850.00	850.00	850.00	849.00	850.00	850.00	850.00	850.00	851.00	850.00	850.00	850.00	846.00	845.00	844.00	845.00	845.00	845.00	846.00	844.00	845.00	844.00	845.00	845.00	843.00	843.00	843.00	843.00	842.00	842.00	841.00	842.00	842.00	843.00	847.00	854.00	850.00	851.00	845.00	845.00	846.00	847.00	846.00	844.00	845.00	846.00	845.00	845.00	841.00	843.00	847.00	841.00	842.00	838.00	836.00	837.00	835.00	835.00	836.00	837.00	835.00	835.00	835.00	834.00	836.00	835.00	836.00	836.00	837.00	837.00	837.00	834.00	834.00	833.00	833.00	833.00	832.00	834.00	831.00	832.00	833.00	831.00	833.00	831.00	832.00	832.00	831.00	834.00	834.00	831.00	832.00	831.00	831.00	832.00	831.00	829.00	832.00	832.00	831.00	832.00	831.00	832.00	832.00	833.00	832.00	832.00	833.00	832.00	831.00	831.00	832.00	832.00	832.00	831.00	834.00	834.00	831.00	829.00	832.00	833.00	830.00	828.00	827.00	830.00	828.00	829.00	828.00	827.00	827.00	828.00	829.00	830.00	829.00	828.00	829.00	826.00	821.00	825.00	827.00	827.00	829.00	830.00	828.00
884.00	891.00	876.00	875.00	873.00	869.00	867.00	881.00	878.00	868.00	861.00	858.00	858.00	859.00	860.00	861.00	861.00	861.00	861.00	861.00	860.00	860.00	860.00	860.00	860.00	859.00	858.00	859.00	859.00	857.00	858.00	859.00	859.00	860.00	858.00	859.00	859.00	859.00	863.00	861.00	858.00	857.00	858.00	858.00	858.00	858.00	859.00	856.00	855.00	856.00	856.00	855.00	856.00	856.00	856.00	856.00	856.00	855.00	855.00	855.00	855.00	855.00	855.00	855.00	854.00	854.00	853.00	853.00	854.00	853.00	854.00	856.00	852.00	851.00	852.00	851.00	852.00	854.00	851.00	852.00	853.00	852.00	851.00	851.00	850.00	850.00	849.00	849.00	850.00	850.00	849.00	851.00	850.00	850.00	848.00	848.00	848.00	849.00	849.00	849.00	850.00	849.00	849.00	848.00	850.00	849.00	849.00	848.00	848.00	848.00	850.00	850.00	850.00	850.00	850.00	849.00	849.00	849.00	849.00	851.00	850.00	850.00	851.00	855.00	845.00	844.00	843.00	843.00	844.00	845.00	844.00	844.00	845.00	845.00	844.00	845.00	844.00	843.00	844.00	843.00	842.00	843.00	842.00	842.00	842.00	842.00	843.00	844.00	847.00	849.00	850.00	847.00	845.00	845.00	843.00	840.00	845.00	843.00	843.00	844.00	846.00	841.00	840.00	847.00	841.00	842.00	841.00	836.00	837.00	834.00	836.00	837.00	834.00	836.00	834.00	837.00	834.00	835.00	835.00	838.00	837.00	838.00	835.00	832.00	831.00	830.00	833.00	833.00	834.00	833.00	832.00	834.00	833.00	834.00	833.00	834.00	834.00	833.00	833.00	833.00	832.00	833.00	832.00	832.00	832.00	830.00	831.00	831.00	829.00	831.00	830.00	830.00	829.00	831.00	831.00	831.00	833.00	831.00	831.00	830.00	832.00	831.00	833.00	833.00	832.00	831.00	832.00	832.00	834.00	832.00	831.00	832.00	835.00	834.00	834.00	834.00	833.00	834.00	833.00	828.00	826.00	827.00	830.00	832.00	830.00	829.00	830.00	830.00	829.00	826.00	825.00	826.00	826.00	827.00	827.00	823.00
874.00	912.00	890.00	859.00	862.00	884.00	869.00	875.00	870.00	866.00	879.00	867.00	858.00	860.00	861.00	860.00	860.00	861.00	861.00	861.00	860.00	860.00	860.00	861.00	860.00	859.00	859.00	859.00	860.00	859.00	859.00	859.00	859.00	859.00	858.00	858.00	858.00	858.00	863.00	862.00	858.00	858.00	857.00	858.00	858.00	858.00	858.00	857.00	857.00	856.00	856.00	857.00	856.00	856.00	856.00	856.00	856.00	856.00	854.00	855.00	859.00	855.00	855.00	855.00	854.00	854.00	853.00	853.00	854.00	854.00	855.00	854.00	850.00	852.00	851.00	851.00	852.00	853.00	852.00	853.00	852.00	853.00	852.00	851.00	852.00	852.00	851.00	851.00	852.00	852.00	851.00	851.00	850.00	849.00	847.00	847.00	847.00	849.00	849.00	850.00	850.00	848.00	848.00	847.00	848.00	849.00	849.00	847.00	848.00	848.00	849.00	848.00	850.00	850.00	850.00	850.00	850.00	850.00	849.00	851.00	851.00	852.00	855.00	850.00	845.00	843.00	842.00	843.00	843.00	844.00	844.00	844.00	844.00	844.00	844.00	844.00	844.00	843.00	843.00	843.00	844.00	844.00	843.00	842.00	842.00	841.00	842.00	843.00	844.00	846.00	844.00	845.00	844.00	843.00	841.00	840.00	843.00	843.00	842.00	848.00	843.00	843.00	840.00	838.00	846.00	841.00	840.00	837.00	836.00	837.00	837.00	837.00	836.00	836.00	836.00	835.00	837.00	836.00	836.00	836.00	836.00	836.00	837.00	833.00	830.00	829.00	833.00	834.00	832.00	832.00	831.00	832.00	832.00	833.00	833.00	833.00	834.00	836.00	833.00	833.00	831.00	832.00	832.00	832.00	830.00	831.00	831.00	831.00	832.00	829.00	830.00	829.00	829.00	829.00	831.00	831.00	832.00	832.00	832.00	832.00	831.00	832.00	832.00	832.00	834.00	832.00	832.00	831.00	832.00	832.00	832.00	834.00	835.00	836.00	834.00	835.00	839.00	834.00	832.00	829.00	828.00	828.00	829.00	830.00	830.00	827.00	830.00	831.00	828.00	828.00	828.00	828.00	825.00	827.00	824.00	826.00
862.00	902.00	892.00	855.00	857.00	874.00	885.00	868.00	887.00	866.00	864.00	873.00	863.00	860.00	861.00	860.00	860.00	860.00	861.00	860.00	860.00	860.00	859.00	860.00	860.00	860.00	860.00	860.00	860.00	860.00	862.00	859.00	859.00	858.00	858.00	855.00	857.00	858.00	863.00	861.00	858.00	859.00	858.00	859.00	858.00	858.00	858.00	858.00	857.00	857.00	857.00	857.00	856.00	856.00	856.00	855.00	855.00	855.00	855.00	857.00	856.00	855.00	855.00	854.00	854.00	854.00	854.00	855.00	855.00	854.00	857.00	852.00	852.00	852.00	852.00	851.00	852.00	852.00	852.00	851.00	852.00	853.00	851.00	852.00	852.00	852.00	852.00	852.00	853.00	852.00	851.00	852.00	851.00	850.00	849.00	848.00	848.00	849.00	850.00	849.00	849.00	849.00	849.00	848.00	848.00	847.00	848.00	847.00	848.00	849.00	849.00	849.00	850.00	851.00	849.00	849.00	850.00	851.00	851.00	850.00	855.00	856.00	852.00	848.00	844.00	844.00	843.00	844.00	844.00	844.00	844.00	844.00	845.00	843.00	844.00	844.00	842.00	842.00	842.00	843.00	843.00	844.00	842.00	842.00	842.00	842.00	842.00	842.00	842.00	842.00	842.00	841.00	843.00	844.00	844.00	843.00	841.00	843.00	845.00	842.00	844.00	840.00	840.00	838.00	840.00	846.00	839.00	842.00	838.00	838.00	837.00	835.00	838.00	835.00	835.00	838.00	835.00	834.00	833.00	834.00	833.00	834.00	833.00	833.00	834.00	831.00	832.00	832.00	833.00	832.00	832.00	832.00	832.00	834.00	832.00	833.00	832.00	836.00	834.00	832.00	832.00	831.00	832.00	831.00	831.00	830.00	831.00	831.00	832.00	829.00	830.00	832.00	831.00	829.00	831.00	831.00	833.00	831.00	831.00	832.00	831.00	831.00	834.00	833.00	831.00	833.00	833.00	831.00	833.00	834.00	835.00	837.00	833.00	834.00	836.00	835.00	835.00	832.00	830.00	830.00	830.00	829.00	829.00	830.00	829.00	827.00	827.00	828.00	825.00	828.00	830.00	826.00	824.00	828.00	827.00	828.00
855.00	890.00	918.00	860.00	853.00	855.00	876.00	881.00	890.00	897.00	881.00	870.00	863.00	867.00	867.00	860.00	860.00	859.00	859.00	859.00	860.00	860.00	860.00	860.00	859.00	860.00	860.00	861.00	860.00	858.00	859.00	858.00	858.00	858.00	855.00	858.00	858.00	857.00	861.00	860.00	861.00	858.00	858.00	858.00	858.00	857.00	857.00	857.00	857.00	856.00	856.00	855.00	855.00	855.00	857.00	857.00	857.00	857.00	856.00	857.00	856.00	856.00	855.00	857.00	856.00	854.00	854.00	854.00	854.00	854.00	857.00	854.00	853.00	853.00	851.00	852.00	852.00	852.00	853.00	853.00	852.00	852.00	853.00	852.00	852.00	852.00	852.00	851.00	852.00	852.00	851.00	851.00	851.00	851.00	851.00	851.00	851.00	849.00	848.00	850.00	849.00	849.00	849.00	848.00	848.00	849.00	849.00	849.00	848.00	849.00	848.00	849.00	849.00	847.00	848.00	849.00	850.00	848.00	848.00	852.00	856.00	857.00	848.00	846.00	847.00	848.00	847.00	847.00	844.00	844.00	844.00	844.00	844.00	844.00	844.00	843.00	843.00	842.00	843.00	842.00	843.00	843.00	843.00	842.00	843.00	842.00	842.00	844.00	844.00	845.00	841.00	841.00	841.00	841.00	840.00	842.00	841.00	845.00	844.00	842.00	843.00	839.00	838.00	838.00	837.00	837.00	839.00	842.00	840.00	843.00	840.00	843.00	840.00	840.00	839.00	837.00	835.00	834.00	837.00	833.00	833.00	833.00	835.00	838.00	836.00	831.00	835.00	838.00	831.00	835.00	834.00	831.00	832.00	832.00	832.00	833.00	831.00	835.00	833.00	831.00	832.00	830.00	831.00	831.00	831.00	831.00	830.00	830.00	829.00	830.00	831.00	832.00	831.00	831.00	831.00	831.00	831.00	831.00	831.00	832.00	833.00	833.00	832.00	833.00	831.00	831.00	832.00	831.00	832.00	834.00	833.00	835.00	834.00	834.00	835.00	834.00	831.00	831.00	825.00	826.00	831.00	829.00	829.00	827.00	826.00	824.00	829.00	828.00	828.00	827.00	826.00	828.00	826.00	827.00	830.00	830.00
855.00	890.00	918.00	860.00	853.00	855.00	876.00	881.00	890.00	897.00	881.00	870.00	863.00	867.00	867.00	860.00	860.00	859.00	859.00	859.00	860.00	860.00	860.00	860.00	859.00	860.00	860.00	861.00	860.00	858.00	859.00	858.00	858.00	858.00	855.00	858.00	858.00	857.00	861.00	860.00	861.00	858.00	858.00	858.00	858.00	857.00	857.00	857.00	857.00	856.00	856.00	855.00	855.00	855.00	857.00	857.00	857.00	857.00	856.00	857.00	856.00	856.00	855.00	857.00	856.00	854.00	854.00	854.00	854.00	854.00	857.00	854.00	853.00	853.00	851.00	852.00	852.00	852.00	853.00	853.00	852.00	852.00	853.00	852.00	852.00	852.00	852.00	851.00	852.00	852.00	851.00	851.00	851.00	851.00	851.00	851.00	851.00	849.00	848.00	850.00	849.00	849.00	849.00	848.00	848.00	849.00	849.00	849.00	848.00	849.00	848.00	849.00	849.00	847.00	848.00	849.00	850.00	848.00	848.00	852.00	856.00	857.00	848.00	846.00	847.00	848.00	847.00	847.00	844.00	844.00	844.00	844.00	844.00	844.00	844.00	843.00	843.00	842.00	843.00	842.00	843.00	843.00	843.00	842.00	843.00	842.00	842.00	844.00	844.00	845.00	841.00	841.00	841.00	841.00	840.00	842.00	841.00	845.00	844.00	842.00	843.00	839.00	838.00	838.00	837.00	837.00	839.00	842.00	840.00	843.00	840.00	843.00	840.00	840.00	839.00	837.00	835.00	834.00	837.00	833.00	833.00	833.00	835.00	838.00	836.00	831.00	835.00	838.00	831.00	835.00	834.00	831.00	832.00	832.00	832.00	833.00	831.00	835.00	833.00	831.00	832.00	830.00	831.00	831.00	831.00	831.00	830.00	830.00	829.00	830.00	831.00	832.00	831.00	831.00	831.00	831.00	831.00	831.00	831.00	832.00	833.00	833.00	832.00	833.00	831.00	831.00	832.00	831.00	832.00	834.00	833.00	835.00	834.00	834.00	835.00	834.00	831.00	831.00	825.00	826.00	831.00	829.00	829.00	827.00	826.00	824.00	829.00	828.00	828.00	827.00	826.00	828.00	826.00	827.00	830.00	830.00
855.00	890.00	918.00	860.00	853.00	855.00	876.00	881.00	890.00	897.00	881.00	870.00	863.00	867.00	867.00	860.00	860.00	859.00	859.00	859.00	860.00	860.00	860.00	860.00	859.00	860.00	860.00	861.00	860.00	858.00	859.00	858.00	858.00	858.00	855.00	858.00	858.00	857.00	861.00	860.00	861.00	858.00	858.00	858.00	858.00	857.00	857.00	857.00	857.00	856.00	856.00	855.00	855.00	855.00	857.00	857.00	857.00	857.00	856.00	857.00	856.00	856.00	855.00	857.00	856.00	854.00	854.00	854.00	854.00	854.00	857.00	854.00	853.00	853.00	851.00	852.00	852.00	852.00	853.00	853.00	852.00	852.00	853.00	852.00	852.00	852.00	852.00	851.00	852.00	852.00	851.00	851.00	851.00	851.00	851.00	851.00	851.00	849.00	848.00	850.00	849.00	849.00	849.00	848.00	848.00	849.00	849.00	849.00	848.00	849.00	848.00	849.00	849.00	847.00	848.00	849.00	850.00	848.00	848.00	852.00	856.00	857.00	848.00	846.00	847.00	848.00	847.00	847.00	844.00	844.00	844.00	844.00	844.00	844.00	844.00	843.00	843.00	842.00	843.00	842.00	843.00	843.00	843.00	842.00	843.00	842.00	842.00	844.00	844.00	845.00	841.00	841.00	841.00	841.00	840.00	842.00	841.00	845.00	844.00	842.00	843.00	839.00	838.00	838.00	837.00	837.00	839.00	842.00	840.00	843.00	840.00	843.00	840.00	840.00	839.00	837.00	835.00	834.00	837.00	833.00	833.00	833.00	835.00	838.00	836.00	831.00	835.00	838.00	831.00	835.00	834.00	831.00	832.00	832.00	832.00	833.00	831.00	835.00	833.00	831.00	832.00	830.00	831.00	831.00	831.00	831.00	830.00	830.00	829.00	830.00	831.00	832.00	831.00	831.00	831.00	831.00	831.00	831.00	831.00	832.00	833.00	833.00	832.00	833.00	831.00	831.00	832.00	831.00	832.00	834.00	833.00	835.00	834.00	834.00	835.00	834.00	831.00	831.00	825.00	826.00	831.00	829.00	829.00	827.00	826.00	824.00	829.00	828.00	828.00	827.00	826.00	828.00	826.00	827.00	830.00	830.00
855.00	906.00	910.00	856.00	853.00	852.00	858.00	867.00	898.00	893.00	870.00	860.00	870.00	884.00	879.00	868.00	861.00	865.00	859.00	859.00	859.00	859.00	860.00	860.00	859.00	859.00	859.00	860.00	861.00	859.00	859.00	859.00	858.00	858.00	858.00	857.00	858.00	858.00	860.00	860.00	861.00	859.00	858.00	857.00	857.00	856.00	856.00	856.00	856.00	856.00	855.00	855.00	855.00	854.00	855.00	855.00	855.00	856.00	857.00	857.00	856.00	856.00	856.00	858.00	857.00	854.00	854.00	854.00	854.00	854.00	854.00	858.00	853.00	854.00	854.00	852.00	852.00	853.00	853.00	852.00	853.00	853.00	853.00	852.00	852.00	852.00	852.00	852.00	850.00	851.00	851.00	851.00	852.00	852.00	851.00	850.00	850.00	848.00	847.00	847.00	848.00	849.00	849.00	849.00	848.00	849.00	849.00	848.00	848.00	848.00	848.00	847.00	849.00	846.00	848.00	850.00	850.00	849.00	848.00	849.00	855.00	853.00	852.00	850.00	846.00	847.00	853.00	851.00	846.00	846.00	845.00	844.00	844.00	843.00	843.00	843.00	843.00	842.00	842.00	843.00	842.00	843.00	844.00	843.00	844.00	843.00	843.00	843.00	843.00	843.00	842.00	841.00	841.00	842.00	841.00	843.00	844.00	843.00	842.00	840.00	841.00	842.00	839.00	839.00	837.00	837.00	838.00	838.00	841.00	843.00	845.00	841.00	843.00	838.00	839.00	838.00	832.00	835.00	833.00	835.00	834.00	833.00	833.00	835.00	835.00	834.00	831.00	832.00	833.00	834.00	833.00	833.00	833.00	833.00	833.00	832.00	833.00	833.00	833.00	831.00	832.00	831.00	829.00	831.00	832.00	831.00	829.00	827.00	830.00	827.00	830.00	831.00	831.00	831.00	831.00	831.00	830.00	831.00	831.00	832.00	832.00	832.00	833.00	834.00	832.00	832.00	832.00	832.00	832.00	831.00	830.00	832.00	832.00	834.00	834.00	833.00	834.00	831.00	832.00	830.00	830.00	830.00	829.00	829.00	828.00	828.00	827.00	828.00	827.00	831.00	829.00	827.00	826.00	828.00	828.00	828.00
862.00	859.00	875.00	916.00	881.00	852.00	852.00	860.00	899.00	874.00	858.00	859.00	855.00	869.00	876.00	866.00	859.00	871.00	868.00	859.00	858.00	858.00	858.00	859.00	860.00	859.00	859.00	859.00	861.00	858.00	859.00	858.00	858.00	858.00	858.00	858.00	858.00	857.00	856.00	856.00	862.00	859.00	856.00	856.00	856.00	856.00	855.00	858.00	856.00	856.00	856.00	855.00	854.00	854.00	858.00	855.00	854.00	854.00	855.00	855.00	856.00	855.00	856.00	856.00	857.00	855.00	854.00	854.00	853.00	853.00	853.00	861.00	854.00	854.00	853.00	853.00	853.00	854.00	853.00	853.00	853.00	853.00	853.00	853.00	852.00	853.00	852.00	850.00	850.00	850.00	851.00	850.00	851.00	851.00	850.00	850.00	849.00	849.00	851.00	850.00	849.00	846.00	847.00	849.00	848.00	848.00	848.00	848.00	849.00	848.00	848.00	847.00	847.00	848.00	848.00	848.00	848.00	848.00	847.00	846.00	847.00	846.00	847.00	845.00	846.00	846.00	848.00	846.00	853.00	854.00	848.00	844.00	845.00	842.00	842.00	843.00	841.00	842.00	841.00	842.00	843.00	843.00	846.00	844.00	845.00	843.00	843.00	843.00	843.00	841.00	841.00	842.00	843.00	842.00	841.00	843.00	843.00	842.00	841.00	841.00	840.00	840.00	837.00	838.00	837.00	838.00	835.00	838.00	840.00	842.00	840.00	843.00	842.00	842.00	841.00	838.00	836.00	835.00	832.00	833.00	831.00	833.00	834.00	833.00	833.00	833.00	833.00	834.00	833.00	834.00	836.00	832.00	833.00	834.00	832.00	837.00	832.00	833.00	829.00	828.00	830.00	829.00	829.00	830.00	832.00	833.00	832.00	832.00	830.00	831.00	831.00	831.00	830.00	830.00	831.00	831.00	831.00	831.00	831.00	832.00	831.00	830.00	833.00	834.00	832.00	832.00	831.00	832.00	831.00	830.00	830.00	832.00	832.00	833.00	834.00	834.00	834.00	835.00	832.00	829.00	829.00	831.00	832.00	827.00	827.00	832.00	829.00	827.00	823.00	826.00	824.00	824.00	825.00	826.00	827.00	826.00
884.00	872.00	861.00	916.00	879.00	852.00	851.00	856.00	896.00	864.00	866.00	859.00	867.00	859.00	860.00	882.00	876.00	859.00	868.00	859.00	858.00	858.00	858.00	858.00	859.00	858.00	858.00	859.00	861.00	859.00	858.00	859.00	858.00	858.00	858.00	857.00	857.00	858.00	858.00	857.00	857.00	857.00	857.00	856.00	856.00	856.00	856.00	857.00	855.00	856.00	856.00	855.00	854.00	854.00	858.00	856.00	855.00	853.00	854.00	854.00	854.00	855.00	855.00	855.00	855.00	856.00	855.00	855.00	854.00	854.00	854.00	858.00	853.00	854.00	853.00	854.00	853.00	853.00	854.00	853.00	853.00	853.00	852.00	853.00	853.00	852.00	853.00	852.00	851.00	850.00	850.00	850.00	850.00	850.00	850.00	850.00	848.00	849.00	849.00	849.00	849.00	846.00	847.00	848.00	848.00	847.00	850.00	850.00	848.00	848.00	848.00	848.00	848.00	848.00	849.00	849.00	849.00	848.00	848.00	847.00	848.00	847.00	847.00	847.00	846.00	847.00	846.00	845.00	850.00	853.00	850.00	848.00	846.00	843.00	842.00	842.00	842.00	844.00	844.00	845.00	845.00	845.00	845.00	842.00	844.00	844.00	842.00	843.00	842.00	843.00	843.00	841.00	842.00	840.00	840.00	841.00	842.00	842.00	840.00	837.00	840.00	840.00	841.00	837.00	836.00	835.00	836.00	835.00	839.00	839.00	845.00	842.00	842.00	839.00	839.00	838.00	832.00	832.00	832.00	834.00	833.00	833.00	832.00	831.00	833.00	833.00	832.00	833.00	833.00	832.00	832.00	833.00	833.00	834.00	836.00	836.00	838.00	833.00	831.00	829.00	830.00	831.00	830.00	829.00	831.00	832.00	834.00	833.00	830.00	832.00	832.00	830.00	829.00	832.00	831.00	832.00	836.00	830.00	830.00	830.00	831.00	831.00	835.00	834.00	833.00	833.00	833.00	831.00	831.00	831.00	831.00	831.00	832.00	832.00	833.00	833.00	834.00	835.00	834.00	830.00	829.00	832.00	832.00	830.00	828.00	833.00	833.00	830.00	828.00	830.00	827.00	824.00	823.00	824.00	827.00	827.00
884.00	872.00	861.00	916.00	879.00	852.00	851.00	856.00	896.00	864.00	866.00	859.00	867.00	859.00	860.00	882.00	876.00	859.00	868.00	859.00	858.00	858.00	858.00	858.00	859.00	858.00	858.00	859.00	861.00	859.00	858.00	859.00	858.00	858.00	858.00	857.00	857.00	858.00	858.00	857.00	857.00	857.00	857.00	856.00	856.00	856.00	856.00	857.00	855.00	856.00	856.00	855.00	854.00	854.00	858.00	856.00	855.00	853.00	854.00	854.00	854.00	855.00	855.00	855.00	855.00	856.00	855.00	855.00	854.00	854.00	854.00	858.00	853.00	854.00	853.00	854.00	853.00	853.00	854.00	853.00	853.00	853.00	852.00	853.00	853.00	852.00	853.00	852.00	851.00	850.00	850.00	850.00	850.00	850.00	850.00	850.00	848.00	849.00	849.00	849.00	849.00	846.00	847.00	848.00	848.00	847.00	850.00	850.00	848.00	848.00	848.00	848.00	848.00	848.00	849.00	849.00	849.00	848.00	848.00	847.00	848.00	847.00	847.00	847.00	846.00	847.00	846.00	845.00	850.00	853.00	850.00	848.00	846.00	843.00	842.00	842.00	842.00	844.00	844.00	845.00	845.00	845.00	845.00	842.00	844.00	844.00	842.00	843.00	842.00	843.00	843.00	841.00	842.00	840.00	840.00	841.00	842.00	842.00	840.00	837.00	840.00	840.00	841.00	837.00	836.00	835.00	836.00	835.00	839.00	839.00	845.00	842.00	842.00	839.00	839.00	838.00	832.00	832.00	832.00	834.00	833.00	833.00	832.00	831.00	833.00	833.00	832.00	833.00	833.00	832.00	832.00	833.00	833.00	834.00	836.00	836.00	838.00	833.00	831.00	829.00	830.00	831.00	830.00	829.00	831.00	832.00	834.00	833.00	830.00	832.00	832.00	830.00	829.00	832.00	831.00	832.00	836.00	830.00	830.00	830.00	831.00	831.00	835.00	834.00	833.00	833.00	833.00	831.00	831.00	831.00	831.00	831.00	832.00	832.00	833.00	833.00	834.00	835.00	834.00	830.00	829.00	832.00	832.00	830.00	828.00	833.00	833.00	830.00	828.00	830.00	827.00	824.00	823.00	824.00	827.00	827.00
898.00	886.00	860.00	911.00	888.00	856.00	856.00	852.00	893.00	866.00	863.00	870.00	868.00	893.00	871.00	867.00	885.00	866.00	860.00	872.00	858.00	858.00	858.00	859.00	859.00	859.00	859.00	858.00	858.00	859.00	858.00	858.00	858.00	858.00	858.00	858.00	857.00	858.00	858.00	858.00	856.00	860.00	857.00	856.00	856.00	856.00	857.00	856.00	856.00	855.00	856.00	856.00	854.00	854.00	857.00	857.00	855.00	854.00	854.00	854.00	854.00	854.00	854.00	854.00	857.00	854.00	855.00	855.00	855.00	854.00	854.00	861.00	852.00	853.00	854.00	854.00	853.00	854.00	854.00	853.00	854.00	853.00	852.00	852.00	852.00	852.00	852.00	851.00	851.00	850.00	849.00	850.00	850.00	850.00	850.00	849.00	849.00	848.00	848.00	848.00	849.00	849.00	850.00	849.00	849.00	848.00	850.00	850.00	849.00	848.00	850.00	850.00	849.00	849.00	850.00	848.00	848.00	848.00	847.00	848.00	849.00	847.00	847.00	846.00	846.00	846.00	846.00	844.00	846.00	849.00	855.00	853.00	848.00	845.00	843.00	843.00	845.00	843.00	842.00	843.00	844.00	843.00	845.00	843.00	844.00	843.00	844.00	843.00	845.00	844.00	841.00	840.00	839.00	841.00	841.00	840.00	839.00	840.00	840.00	841.00	840.00	838.00	838.00	836.00	835.00	835.00	835.00	835.00	837.00	840.00	838.00	841.00	840.00	842.00	841.00	834.00	832.00	832.00	832.00	831.00	832.00	832.00	833.00	833.00	832.00	832.00	833.00	832.00	832.00	832.00	832.00	832.00	830.00	832.00	836.00	833.00	833.00	829.00	830.00	831.00	829.00	832.00	830.00	833.00	835.00	833.00	835.00	833.00	828.00	833.00	830.00	831.00	830.00	830.00	831.00	831.00	830.00	831.00	831.00	831.00	830.00	832.00	833.00	833.00	832.00	831.00	833.00	831.00	831.00	831.00	831.00	831.00	831.00	832.00	832.00	831.00	834.00	833.00	838.00	831.00	831.00	833.00	834.00	832.00	832.00	833.00	834.00	835.00	831.00	830.00	828.00	825.00	824.00	826.00	826.00	826.00
906.00	862.00	853.00	867.00	883.00	871.00	882.00	867.00	895.00	897.00	875.00	855.00	889.00	896.00	874.00	868.00	853.00	893.00	893.00	869.00	862.00	860.00	861.00	862.00	860.00	858.00	858.00	858.00	858.00	857.00	857.00	858.00	858.00	858.00	858.00	858.00	858.00	858.00	858.00	857.00	858.00	859.00	859.00	857.00	857.00	856.00	856.00	856.00	856.00	856.00	856.00	856.00	856.00	856.00	855.00	855.00	857.00	858.00	854.00	854.00	853.00	854.00	853.00	853.00	855.00	854.00	854.00	854.00	854.00	855.00	854.00	855.00	857.00	854.00	854.00	858.00	852.00	852.00	853.00	852.00	853.00	853.00	854.00	851.00	851.00	852.00	852.00	853.00	850.00	850.00	851.00	849.00	849.00	849.00	850.00	849.00	848.00	849.00	848.00	849.00	849.00	851.00	850.00	849.00	849.00	850.00	849.00	849.00	850.00	850.00	848.00	848.00	849.00	848.00	847.00	847.00	847.00	848.00	848.00	846.00	846.00	847.00	847.00	845.00	846.00	846.00	845.00	845.00	845.00	846.00	846.00	846.00	849.00	846.00	846.00	847.00	846.00	845.00	845.00	845.00	844.00	843.00	844.00	844.00	844.00	844.00	844.00	848.00	850.00	846.00	845.00	842.00	840.00	840.00	842.00	841.00	839.00	842.00	840.00	840.00	841.00	839.00	835.00	835.00	833.00	834.00	836.00	836.00	837.00	839.00	837.00	838.00	836.00	840.00	840.00	839.00	837.00	836.00	833.00	834.00	834.00	833.00	832.00	832.00	834.00	833.00	832.00	829.00	830.00	833.00	832.00	833.00	831.00	832.00	831.00	834.00	834.00	832.00	833.00	833.00	832.00	833.00	830.00	832.00	831.00	833.00	833.00	833.00	833.00	830.00	830.00	829.00	830.00	831.00	830.00	830.00	831.00	829.00	829.00	829.00	830.00	830.00	832.00	833.00	831.00	830.00	831.00	832.00	833.00	832.00	832.00	831.00	832.00	833.00	832.00	833.00	836.00	836.00	836.00	838.00	835.00	835.00	836.00	835.00	830.00	830.00	831.00	836.00	835.00	827.00	827.00	826.00	825.00	826.00	827.00	826.00
900.00	864.00	852.00	861.00	899.00	896.00	877.00	867.00	893.00	858.00	850.00	850.00	882.00	906.00	884.00	864.00	857.00	891.00	900.00	859.00	862.00	859.00	863.00	866.00	870.00	858.00	859.00	858.00	859.00	859.00	859.00	859.00	858.00	858.00	858.00	858.00	857.00	857.00	858.00	859.00	857.00	858.00	859.00	858.00	857.00	856.00	856.00	856.00	856.00	856.00	856.00	856.00	855.00	855.00	855.00	855.00	855.00	859.00	856.00	855.00	855.00	854.00	853.00	854.00	854.00	853.00	853.00	854.00	854.00	855.00	855.00	855.00	855.00	856.00	854.00	856.00	853.00	853.00	852.00	852.00	853.00	853.00	853.00	852.00	852.00	852.00	852.00	852.00	851.00	851.00	850.00	851.00	850.00	850.00	849.00	850.00	849.00	849.00	848.00	847.00	847.00	850.00	850.00	850.00	850.00	849.00	849.00	849.00	848.00	849.00	847.00	848.00	848.00	848.00	847.00	848.00	847.00	847.00	848.00	846.00	847.00	847.00	846.00	847.00	848.00	847.00	845.00	845.00	845.00	845.00	846.00	845.00	844.00	845.00	846.00	845.00	845.00	846.00	846.00	844.00	843.00	843.00	843.00	843.00	843.00	842.00	843.00	845.00	851.00	849.00	845.00	841.00	840.00	841.00	845.00	840.00	840.00	838.00	838.00	838.00	838.00	838.00	835.00	836.00	834.00	836.00	836.00	837.00	838.00	838.00	837.00	835.00	838.00	837.00	838.00	838.00	838.00	838.00	837.00	838.00	837.00	834.00	836.00	836.00	836.00	835.00	833.00	832.00	830.00	833.00	831.00	832.00	832.00	831.00	833.00	831.00	833.00	830.00	833.00	833.00	830.00	832.00	832.00	833.00	833.00	833.00	832.00	836.00	833.00	831.00	829.00	831.00	830.00	830.00	830.00	831.00	830.00	830.00	830.00	830.00	831.00	830.00	830.00	833.00	833.00	831.00	832.00	831.00	831.00	831.00	831.00	830.00	833.00	833.00	832.00	833.00	834.00	835.00	835.00	837.00	833.00	834.00	832.00	833.00	828.00	831.00	839.00	837.00	835.00	827.00	827.00	826.00	825.00	824.00	826.00	826.00
914.00	911.00	879.00	879.00	899.00	882.00	869.00	892.00	851.00	849.00	850.00	850.00	882.00	896.00	892.00	859.00	860.00	898.00	893.00	858.00	859.00	860.00	861.00	882.00	880.00	862.00	858.00	859.00	858.00	858.00	858.00	858.00	858.00	862.00	857.00	857.00	857.00	858.00	858.00	857.00	858.00	857.00	857.00	857.00	857.00	857.00	857.00	856.00	856.00	856.00	855.00	855.00	856.00	855.00	855.00	856.00	855.00	855.00	858.00	856.00	856.00	855.00	855.00	857.00	853.00	853.00	853.00	853.00	853.00	853.00	855.00	854.00	854.00	854.00	856.00	855.00	854.00	853.00	852.00	853.00	853.00	852.00	852.00	852.00	852.00	852.00	852.00	852.00	852.00	852.00	851.00	852.00	850.00	850.00	849.00	850.00	849.00	848.00	847.00	847.00	847.00	849.00	849.00	851.00	850.00	849.00	848.00	847.00	848.00	849.00	848.00	848.00	847.00	846.00	847.00	849.00	847.00	847.00	847.00	847.00	847.00	846.00	846.00	846.00	847.00	846.00	846.00	845.00	845.00	844.00	845.00	844.00	844.00	844.00	845.00	846.00	844.00	847.00	849.00	845.00	843.00	843.00	843.00	843.00	843.00	843.00	844.00	848.00	848.00	843.00	841.00	842.00	840.00	841.00	843.00	843.00	840.00	842.00	840.00	838.00	838.00	836.00	835.00	838.00	835.00	835.00	836.00	836.00	841.00	842.00	844.00	837.00	834.00	838.00	837.00	839.00	838.00	839.00	839.00	837.00	837.00	838.00	839.00	835.00	836.00	837.00	835.00	832.00	831.00	832.00	831.00	829.00	830.00	831.00	832.00	832.00	829.00	830.00	831.00	831.00	832.00	831.00	831.00	831.00	833.00	833.00	830.00	833.00	832.00	832.00	830.00	829.00	829.00	828.00	830.00	830.00	828.00	828.00	829.00	831.00	830.00	829.00	831.00	831.00	833.00	830.00	830.00	830.00	830.00	831.00	830.00	832.00	832.00	832.00	833.00	831.00	831.00	832.00	832.00	832.00	832.00	831.00	830.00	830.00	829.00	837.00	840.00	838.00	832.00	826.00	826.00	827.00	825.00	824.00	825.00	823.00
914.00	911.00	879.00	879.00	899.00	882.00	869.00	892.00	851.00	849.00	850.00	850.00	882.00	896.00	892.00	859.00	860.00	898.00	893.00	858.00	859.00	860.00	861.00	882.00	880.00	862.00	858.00	859.00	858.00	858.00	858.00	858.00	858.00	862.00	857.00	857.00	857.00	858.00	858.00	857.00	858.00	857.00	857.00	857.00	857.00	857.00	857.00	856.00	856.00	856.00	855.00	855.00	856.00	855.00	855.00	856.00	855.00	855.00	858.00	856.00	856.00	855.00	855.00	857.00	853.00	853.00	853.00	853.00	853.00	853.00	855.00	854.00	854.00	854.00	856.00	855.00	854.00	853.00	852.00	853.00	853.00	852.00	852.00	852.00	852.00	852.00	852.00	852.00	852.00	852.00	851.00	852.00	850.00	850.00	849.00	850.00	849.00	848.00	847.00	847.00	847.00	849.00	849.00	851.00	850.00	849.00	848.00	847.00	848.00	849.00	848.00	848.00	847.00	846.00	847.00	849.00	847.00	847.00	847.00	847.00	847.00	846.00	846.00	846.00	847.00	846.00	846.00	845.00	845.00	844.00	845.00	844.00	844.00	844.00	845.00	846.00	844.00	847.00	849.00	845.00	843.00	843.00	843.00	843.00	843.00	843.00	844.00	848.00	848.00	843.00	841.00	842.00	840.00	841.00	843.00	843.00	840.00	842.00	840.00	838.00	838.00	836.00	835.00	838.00	835.00	835.00	836.00	836.00	841.00	842.00	844.00	837.00	834.00	838.00	837.00	839.00	838.00	839.00	839.00	837.00	837.00	838.00	839.00	835.00	836.00	837.00	835.00	832.00	831.00	832.00	831.00	829.00	830.00	831.00	832.00	832.00	829.00	830.00	831.00	831.00	832.00	831.00	831.00	831.00	833.00	833.00	830.00	833.00	832.00	832.00	830.00	829.00	829.00	828.00	830.00	830.00	828.00	828.00	829.00	831.00	830.00	829.00	831.00	831.00	833.00	830.00	830.00	830.00	830.00	831.00	830.00	832.00	832.00	832.00	833.00	831.00	831.00	832.00	832.00	832.00	832.00	831.00	830.00	830.00	829.00	837.00	840.00	838.00	832.00	826.00	826.00	827.00	825.00	824.00	825.00	823.00
916.00	887.00	856.00	859.00	886.00	906.00	934.00	856.00	849.00	849.00	852.00	867.00	910.00	889.00	856.00	850.00	851.00	877.00	877.00	868.00	866.00	887.00	880.00	873.00	864.00	853.00	861.00	862.00	858.00	858.00	858.00	858.00	858.00	861.00	857.00	856.00	856.00	857.00	856.00	856.00	857.00	857.00	857.00	856.00	856.00	857.00	858.00	858.00	857.00	858.00	856.00	855.00	855.00	855.00	855.00	855.00	855.00	855.00	855.00	855.00	855.00	855.00	855.00	855.00	856.00	855.00	852.00	853.00	853.00	853.00	853.00	854.00	854.00	855.00	854.00	854.00	853.00	856.00	852.00	851.00	851.00	850.00	851.00	852.00	852.00	851.00	852.00	850.00	850.00	852.00	852.00	851.00	854.00	856.00	856.00	850.00	850.00	848.00	847.00	847.00	847.00	848.00	847.00	847.00	848.00	849.00	849.00	848.00	848.00	847.00	848.00	848.00	847.00	847.00	846.00	848.00	847.00	847.00	846.00	848.00	847.00	847.00	847.00	848.00	846.00	847.00	846.00	846.00	845.00	844.00	845.00	844.00	845.00	845.00	845.00	844.00	844.00	846.00	845.00	846.00	846.00	847.00	845.00	844.00	846.00	845.00	845.00	844.00	843.00	842.00	841.00	841.00	839.00	841.00	841.00	847.00	843.00	840.00	841.00	840.00	842.00	841.00	840.00	841.00	842.00	843.00	842.00	842.00	842.00	840.00	836.00	833.00	834.00	836.00	835.00	835.00	832.00	837.00	835.00	835.00	835.00	835.00	837.00	837.00	836.00	841.00	833.00	834.00	832.00	832.00	831.00	830.00	830.00	830.00	829.00	830.00	830.00	829.00	831.00	830.00	830.00	831.00	830.00	831.00	831.00	832.00	832.00	833.00	830.00	830.00	832.00	832.00	831.00	832.00	830.00	831.00	830.00	826.00	830.00	829.00	829.00	831.00	831.00	831.00	830.00	830.00	830.00	831.00	831.00	832.00	833.00	831.00	831.00	831.00	830.00	829.00	829.00	830.00	831.00	830.00	831.00	832.00	835.00	833.00	834.00	834.00	833.00	829.00	830.00	825.00	825.00	826.00	828.00	827.00	826.00	823.00
857.00	850.00	850.00	865.00	874.00	889.00	930.00	859.00	848.00	850.00	852.00	880.00	907.00	892.00	861.00	850.00	850.00	874.00	861.00	858.00	887.00	902.00	884.00	869.00	868.00	850.00	857.00	886.00	868.00	858.00	858.00	858.00	857.00	857.00	857.00	856.00	855.00	856.00	855.00	856.00	856.00	856.00	856.00	857.00	857.00	856.00	857.00	857.00	856.00	859.00	856.00	856.00	855.00	855.00	855.00	855.00	855.00	855.00	855.00	855.00	855.00	855.00	855.00	855.00	855.00	855.00	855.00	853.00	853.00	853.00	853.00	853.00	853.00	854.00	854.00	855.00	855.00	861.00	853.00	849.00	849.00	850.00	850.00	851.00	851.00	853.00	854.00	850.00	850.00	851.00	851.00	851.00	855.00	857.00	858.00	855.00	850.00	847.00	847.00	846.00	848.00	848.00	849.00	848.00	848.00	849.00	849.00	848.00	848.00	848.00	848.00	848.00	848.00	847.00	847.00	846.00	847.00	846.00	848.00	847.00	848.00	847.00	847.00	847.00	846.00	846.00	846.00	846.00	845.00	845.00	845.00	844.00	844.00	846.00	845.00	844.00	844.00	845.00	846.00	844.00	844.00	844.00	845.00	847.00	848.00	844.00	844.00	843.00	842.00	841.00	843.00	840.00	841.00	840.00	841.00	844.00	843.00	842.00	842.00	839.00	839.00	840.00	840.00	839.00	840.00	840.00	840.00	843.00	846.00	838.00	835.00	835.00	837.00	834.00	835.00	835.00	836.00	839.00	837.00	836.00	834.00	836.00	837.00	838.00	840.00	838.00	835.00	834.00	833.00	832.00	833.00	829.00	829.00	830.00	829.00	829.00	830.00	829.00	829.00	830.00	830.00	830.00	830.00	829.00	830.00	830.00	831.00	831.00	826.00	832.00	830.00	831.00	833.00	832.00	832.00	831.00	829.00	828.00	828.00	829.00	829.00	830.00	829.00	830.00	832.00	832.00	831.00	830.00	832.00	831.00	831.00	829.00	829.00	829.00	829.00	828.00	830.00	829.00	828.00	831.00	830.00	831.00	832.00	834.00	836.00	833.00	831.00	832.00	830.00	823.00	825.00	826.00	829.00	828.00	828.00	828.00
850.00	850.00	850.00	870.00	868.00	862.00	907.00	876.00	849.00	849.00	852.00	895.00	911.00	886.00	860.00	854.00	851.00	854.00	850.00	852.00	893.00	902.00	892.00	866.00	869.00	850.00	863.00	882.00	870.00	857.00	858.00	857.00	857.00	857.00	856.00	856.00	856.00	855.00	856.00	856.00	855.00	855.00	856.00	856.00	857.00	856.00	856.00	856.00	855.00	856.00	856.00	855.00	855.00	855.00	855.00	855.00	855.00	855.00	855.00	855.00	855.00	855.00	855.00	855.00	855.00	855.00	855.00	853.00	853.00	853.00	852.00	853.00	853.00	852.00	854.00	854.00	855.00	859.00	855.00	849.00	848.00	850.00	851.00	852.00	852.00	852.00	853.00	851.00	851.00	852.00	851.00	851.00	851.00	856.00	861.00	855.00	851.00	847.00	847.00	848.00	848.00	849.00	847.00	848.00	847.00	848.00	848.00	845.00	847.00	847.00	847.00	847.00	848.00	847.00	847.00	847.00	847.00	846.00	846.00	847.00	847.00	847.00	847.00	847.00	846.00	845.00	845.00	845.00	845.00	845.00	845.00	845.00	844.00	845.00	844.00	845.00	845.00	845.00	845.00	844.00	844.00	844.00	845.00	846.00	851.00	846.00	841.00	841.00	841.00	841.00	841.00	840.00	840.00	841.00	840.00	842.00	842.00	840.00	840.00	839.00	839.00	840.00	838.00	838.00	839.00	839.00	839.00	841.00	850.00	845.00	838.00	835.00	834.00	840.00	842.00	843.00	844.00	840.00	837.00	839.00	839.00	840.00	840.00	838.00	837.00	840.00	837.00	833.00	834.00	834.00	831.00	830.00	828.00	829.00	829.00	830.00	830.00	830.00	831.00	829.00	830.00	829.00	829.00	831.00	830.00	829.00	829.00	828.00	830.00	832.00	832.00	830.00	833.00	831.00	833.00	830.00	828.00	826.00	827.00	828.00	828.00	828.00	830.00	828.00	832.00	830.00	833.00	832.00	833.00	829.00	829.00	829.00	828.00	827.00	827.00	826.00	830.00	829.00	828.00	830.00	830.00	830.00	831.00	836.00	833.00	832.00	831.00	829.00	829.00	825.00	824.00	825.00	829.00	829.00	834.00	829.00
850.00	850.00	850.00	870.00	868.00	862.00	907.00	876.00	849.00	849.00	852.00	895.00	911.00	886.00	860.00	854.00	851.00	854.00	850.00	852.00	893.00	902.00	892.00	866.00	869.00	850.00	863.00	882.00	870.00	857.00	858.00	857.00	857.00	857.00	856.00	856.00	856.00	855.00	856.00	856.00	855.00	855.00	856.00	856.00	857.00	856.00	856.00	856.00	855.00	856.00	856.00	855.00	855.00	855.00	855.00	855.00	855.00	855.00	855.00	855.00	855.00	855.00	855.00	855.00	855.00	855.00	855.00	853.00	853.00	853.00	852.00	853.00	853.00	852.00	854.00	854.00	855.00	859.00	855.00	849.00	848.00	850.00	851.00	852.00	852.00	852.00	853.00	851.00	851.00	852.00	851.00	851.00	851.00	856.00	861.00	855.00	851.00	847.00	847.00	848.00	848.00	849.00	847.00	848.00	847.00	848.00	848.00	845.00	847.00	847.00	847.00	847.00	848.00	847.00	847.00	847.00	847.00	846.00	846.00	847.00	847.00	847.00	847.00	847.00	846.00	845.00	845.00	845.00	845.00	845.00	845.00	845.00	844.00	845.00	844.00	845.00	845.00	845.00	845.00	844.00	844.00	844.00	845.00	846.00	851.00	846.00	841.00	841.00	841.00	841.00	841.00	840.00	840.00	841.00	840.00	842.00	842.00	840.00	840.00	839.00	839.00	840.00	838.00	838.00	839.00	839.00	839.00	841.00	850.00	845.00	838.00	835.00	834.00	840.00	842.00	843.00	844.00	840.00	837.00	839.00	839.00	840.00	840.00	838.00	837.00	840.00	837.00	833.00	834.00	834.00	831.00	830.00	828.00	829.00	829.00	830.00	830.00	830.00	831.00	829.00	830.00	829.00	829.00	831.00	830.00	829.00	829.00	828.00	830.00	832.00	832.00	830.00	833.00	831.00	833.00	830.00	828.00	826.00	827.00	828.00	828.00	828.00	830.00	828.00	832.00	830.00	833.00	832.00	833.00	829.00	829.00	829.00	828.00	827.00	827.00	826.00	830.00	829.00	828.00	830.00	830.00	830.00	831.00	836.00	833.00	832.00	831.00	829.00	829.00	825.00	824.00	825.00	829.00	829.00	834.00	829.00
889.00	890.00	884.00	861.00	853.00	888.00	924.00	854.00	849.00	848.00	857.00	889.00	890.00	881.00	897.00	905.00	849.00	849.00	850.00	854.00	907.00	905.00	886.00	861.00	852.00	867.00	889.00	868.00	857.00	864.00	861.00	864.00	857.00	856.00	856.00	856.00	856.00	856.00	858.00	856.00	866.00	857.00	855.00	856.00	855.00	856.00	855.00	856.00	855.00	855.00	856.00	857.00	855.00	855.00	855.00	855.00	856.00	855.00	855.00	855.00	855.00	855.00	855.00	855.00	855.00	855.00	855.00	852.00	852.00	854.00	852.00	852.00	852.00	853.00	853.00	854.00	855.00	854.00	854.00	850.00	850.00	850.00	850.00	851.00	851.00	851.00	852.00	851.00	851.00	851.00	851.00	851.00	851.00	853.00	858.00	858.00	855.00	849.00	847.00	847.00	848.00	848.00	847.00	848.00	846.00	847.00	848.00	848.00	849.00	849.00	848.00	847.00	847.00	847.00	847.00	847.00	847.00	846.00	847.00	846.00	846.00	845.00	845.00	846.00	846.00	845.00	845.00	845.00	845.00	844.00	845.00	846.00	846.00	845.00	846.00	846.00	845.00	842.00	845.00	845.00	844.00	844.00	845.00	845.00	849.00	852.00	844.00	843.00	843.00	841.00	840.00	840.00	840.00	839.00	840.00	840.00	840.00	840.00	840.00	838.00	837.00	838.00	838.00	836.00	837.00	837.00	838.00	837.00	843.00	846.00	842.00	840.00	840.00	838.00	838.00	838.00	840.00	840.00	840.00	838.00	840.00	841.00	844.00	848.00	843.00	837.00	834.00	832.00	833.00	832.00	832.00	834.00	833.00	831.00	831.00	830.00	830.00	829.00	831.00	831.00	829.00	831.00	829.00	829.00	830.00	830.00	830.00	831.00	830.00	831.00	833.00	832.00	832.00	832.00	832.00	831.00	829.00	830.00	829.00	826.00	825.00	827.00	829.00	830.00	830.00	830.00	830.00	830.00	830.00	829.00	828.00	827.00	827.00	827.00	827.00	826.00	827.00	829.00	828.00	829.00	830.00	831.00	831.00	831.00	832.00	833.00	832.00	831.00	829.00	829.00	829.00	830.00	833.00	832.00	832.00	828.00
873.00	901.00	903.00	869.00	894.00	912.00	878.00	849.00	849.00	853.00	852.00	861.00	892.00	881.00	909.00	909.00	853.00	849.00	849.00	849.00	912.00	900.00	878.00	855.00	860.00	859.00	875.00	858.00	855.00	885.00	876.00	869.00	861.00	863.00	857.00	857.00	857.00	856.00	865.00	861.00	872.00	871.00	858.00	855.00	855.00	855.00	854.00	855.00	856.00	855.00	855.00	856.00	855.00	856.00	856.00	856.00	856.00	856.00	855.00	855.00	855.00	855.00	855.00	855.00	855.00	855.00	855.00	852.00	852.00	853.00	852.00	852.00	852.00	852.00	852.00	852.00	852.00	853.00	854.00	851.00	851.00	851.00	851.00	851.00	851.00	851.00	851.00	851.00	851.00	852.00	853.00	851.00	851.00	851.00	853.00	861.00	858.00	849.00	848.00	848.00	848.00	847.00	848.00	847.00	847.00	847.00	849.00	849.00	849.00	848.00	847.00	848.00	847.00	846.00	847.00	847.00	847.00	846.00	846.00	847.00	845.00	846.00	847.00	846.00	846.00	846.00	845.00	845.00	846.00	845.00	846.00	846.00	845.00	845.00	846.00	845.00	846.00	844.00	844.00	843.00	844.00	844.00	845.00	845.00	845.00	856.00	844.00	845.00	843.00	842.00	842.00	840.00	839.00	839.00	839.00	840.00	840.00	837.00	838.00	836.00	837.00	837.00	836.00	836.00	836.00	836.00	837.00	837.00	838.00	838.00	836.00	835.00	836.00	837.00	837.00	838.00	836.00	837.00	837.00	838.00	839.00	840.00	843.00	842.00	841.00	840.00	837.00	836.00	835.00	835.00	831.00	831.00	832.00	834.00	829.00	833.00	830.00	832.00	829.00	830.00	830.00	829.00	831.00	829.00	831.00	830.00	829.00	831.00	830.00	833.00	831.00	832.00	831.00	832.00	832.00	831.00	831.00	831.00	830.00	828.00	828.00	829.00	829.00	829.00	831.00	830.00	833.00	830.00	830.00	829.00	831.00	830.00	826.00	825.00	826.00	825.00	827.00	829.00	829.00	829.00	830.00	830.00	829.00	831.00	833.00	835.00	833.00	831.00	831.00	829.00	829.00	830.00	829.00	831.00	830.00	829.00
852.00	888.00	914.00	878.00	886.00	896.00	883.00	858.00	850.00	852.00	860.00	875.00	875.00	877.00	923.00	905.00	850.00	849.00	850.00	848.00	902.00	902.00	880.00	865.00	889.00	854.00	868.00	855.00	854.00	877.00	874.00	861.00	857.00	876.00	857.00	856.00	857.00	857.00	875.00	859.00	861.00	861.00	875.00	856.00	855.00	854.00	855.00	855.00	854.00	855.00	855.00	855.00	855.00	856.00	856.00	856.00	855.00	855.00	855.00	855.00	855.00	855.00	855.00	855.00	855.00	855.00	855.00	851.00	852.00	852.00	851.00	851.00	852.00	852.00	852.00	851.00	851.00	851.00	851.00	852.00	851.00	851.00	850.00	851.00	851.00	851.00	851.00	851.00	852.00	851.00	853.00	853.00	850.00	850.00	852.00	857.00	856.00	848.00	849.00	848.00	847.00	848.00	848.00	848.00	847.00	847.00	849.00	848.00	849.00	847.00	847.00	848.00	847.00	846.00	847.00	847.00	847.00	847.00	846.00	848.00	847.00	846.00	847.00	847.00	847.00	846.00	845.00	845.00	846.00	846.00	846.00	845.00	845.00	845.00	845.00	845.00	845.00	845.00	845.00	844.00	845.00	844.00	845.00	845.00	844.00	855.00	845.00	844.00	844.00	844.00	842.00	842.00	840.00	840.00	841.00	839.00	838.00	839.00	838.00	838.00	837.00	836.00	836.00	837.00	837.00	835.00	837.00	836.00	837.00	835.00	834.00	834.00	834.00	837.00	836.00	836.00	835.00	837.00	838.00	837.00	838.00	838.00	847.00	846.00	841.00	840.00	839.00	839.00	838.00	837.00	834.00	834.00	833.00	832.00	832.00	831.00	830.00	830.00	830.00	829.00	832.00	830.00	828.00	830.00	830.00	831.00	832.00	831.00	830.00	829.00	831.00	832.00	830.00	830.00	831.00	832.00	831.00	833.00	830.00	830.00	831.00	830.00	830.00	829.00	830.00	830.00	831.00	830.00	831.00	830.00	829.00	829.00	828.00	828.00	826.00	827.00	829.00	830.00	830.00	829.00	830.00	830.00	830.00	832.00	830.00	834.00	833.00	831.00	832.00	831.00	830.00	829.00	829.00	828.00	829.00	829.00
854.00	904.00	919.00	867.00	858.00	854.00	872.00	910.00	851.00	848.00	860.00	892.00	869.00	871.00	923.00	906.00	849.00	849.00	848.00	848.00	861.00	884.00	890.00	906.00	903.00	853.00	857.00	853.00	856.00	878.00	859.00	852.00	853.00	881.00	867.00	856.00	854.00	853.00	874.00	855.00	877.00	861.00	868.00	865.00	855.00	854.00	855.00	854.00	854.00	854.00	854.00	856.00	856.00	855.00	856.00	855.00	855.00	855.00	855.00	855.00	855.00	855.00	855.00	855.00	855.00	855.00	855.00	851.00	851.00	851.00	852.00	852.00	851.00	851.00	851.00	850.00	850.00	849.00	850.00	851.00	851.00	850.00	850.00	851.00	851.00	850.00	852.00	851.00	850.00	850.00	851.00	852.00	851.00	851.00	851.00	858.00	857.00	848.00	849.00	848.00	848.00	848.00	848.00	847.00	847.00	847.00	849.00	848.00	848.00	848.00	848.00	848.00	848.00	847.00	846.00	848.00	847.00	847.00	847.00	847.00	846.00	846.00	847.00	846.00	845.00	846.00	846.00	846.00	845.00	847.00	846.00	846.00	847.00	846.00	845.00	845.00	845.00	845.00	845.00	844.00	845.00	845.00	846.00	845.00	844.00	851.00	849.00	844.00	844.00	845.00	842.00	842.00	840.00	842.00	842.00	837.00	837.00	839.00	839.00	838.00	837.00	839.00	836.00	836.00	836.00	835.00	837.00	836.00	836.00	835.00	835.00	836.00	836.00	836.00	836.00	835.00	835.00	838.00	838.00	836.00	836.00	837.00	843.00	845.00	842.00	839.00	838.00	840.00	839.00	836.00	834.00	832.00	834.00	832.00	831.00	832.00	832.00	829.00	831.00	831.00	829.00	831.00	830.00	830.00	830.00	831.00	832.00	831.00	831.00	831.00	829.00	831.00	832.00	831.00	832.00	831.00	832.00	831.00	830.00	829.00	830.00	830.00	830.00	830.00	829.00	830.00	833.00	832.00	829.00	830.00	830.00	829.00	829.00	830.00	831.00	830.00	830.00	829.00	829.00	829.00	830.00	829.00	829.00	829.00	830.00	830.00	833.00	835.00	833.00	831.00	828.00	829.00	828.00	829.00	829.00	830.00
863.00	906.00	899.00	850.00	848.00	848.00	850.00	929.00	875.00	850.00	856.00	887.00	883.00	873.00	913.00	911.00	849.00	849.00	848.00	848.00	848.00	865.00	907.00	913.00	883.00	851.00	853.00	854.00	880.00	867.00	851.00	851.00	852.00	860.00	874.00	872.00	876.00	866.00	873.00	860.00	867.00	856.00	866.00	877.00	863.00	855.00	855.00	855.00	854.00	854.00	854.00	855.00	856.00	856.00	856.00	856.00	855.00	855.00	855.00	855.00	855.00	855.00	855.00	855.00	855.00	855.00	855.00	851.00	851.00	851.00	851.00	852.00	852.00	851.00	850.00	850.00	849.00	850.00	850.00	851.00	851.00	851.00	850.00	850.00	852.00	852.00	851.00	851.00	849.00	850.00	851.00	851.00	851.00	851.00	851.00	856.00	855.00	848.00	848.00	848.00	848.00	848.00	848.00	847.00	848.00	847.00	849.00	848.00	848.00	848.00	849.00	848.00	847.00	847.00	846.00	847.00	847.00	848.00	847.00	848.00	848.00	847.00	846.00	846.00	847.00	847.00	846.00	846.00	846.00	846.00	846.00	846.00	846.00	845.00	845.00	845.00	845.00	844.00	844.00	844.00	845.00	844.00	844.00	844.00	844.00	846.00	857.00	845.00	846.00	844.00	842.00	841.00	842.00	841.00	842.00	839.00	838.00	840.00	838.00	840.00	838.00	839.00	837.00	836.00	838.00	836.00	837.00	837.00	836.00	835.00	835.00	836.00	835.00	836.00	836.00	836.00	836.00	839.00	836.00	836.00	835.00	836.00	839.00	844.00	847.00	843.00	837.00	837.00	836.00	835.00	834.00	832.00	832.00	832.00	831.00	831.00	832.00	832.00	833.00	830.00	830.00	829.00	830.00	830.00	831.00	831.00	829.00	830.00	832.00	831.00	829.00	831.00	832.00	831.00	831.00	831.00	831.00	831.00	829.00	829.00	830.00	831.00	828.00	829.00	830.00	831.00	833.00	831.00	829.00	831.00	832.00	829.00	830.00	828.00	827.00	826.00	830.00	829.00	828.00	829.00	829.00	828.00	829.00	828.00	829.00	830.00	830.00	832.00	831.00	836.00	831.00	829.00	829.00	828.00	831.00	830.00
878.00	902.00	861.00	848.00	848.00	850.00	867.00	914.00	859.00	848.00	852.00	888.00	891.00	860.00	874.00	919.00	855.00	849.00	848.00	848.00	854.00	886.00	912.00	893.00	861.00	850.00	851.00	856.00	917.00	855.00	851.00	849.00	849.00	851.00	873.00	874.00	882.00	894.00	867.00	872.00	856.00	856.00	875.00	869.00	859.00	858.00	854.00	854.00	854.00	854.00	854.00	855.00	855.00	856.00	856.00	857.00	856.00	856.00	855.00	855.00	855.00	855.00	855.00	855.00	855.00	855.00	855.00	851.00	851.00	851.00	850.00	855.00	855.00	853.00	850.00	851.00	850.00	849.00	850.00	850.00	851.00	850.00	849.00	850.00	851.00	851.00	850.00	851.00	851.00	850.00	851.00	852.00	850.00	851.00	851.00	857.00	856.00	849.00	849.00	849.00	849.00	848.00	848.00	848.00	848.00	848.00	849.00	849.00	849.00	848.00	849.00	848.00	847.00	848.00	847.00	847.00	847.00	847.00	847.00	847.00	848.00	847.00	847.00	847.00	847.00	847.00	847.00	846.00	846.00	846.00	846.00	846.00	845.00	844.00	844.00	845.00	844.00	845.00	845.00	845.00	846.00	846.00	843.00	843.00	844.00	844.00	857.00	851.00	846.00	845.00	842.00	842.00	841.00	842.00	841.00	838.00	839.00	839.00	839.00	838.00	839.00	838.00	838.00	840.00	836.00	837.00	835.00	836.00	836.00	836.00	835.00	836.00	834.00	834.00	835.00	834.00	840.00	834.00	834.00	833.00	835.00	836.00	838.00	839.00	845.00	848.00	841.00	839.00	840.00	837.00	834.00	832.00	831.00	831.00	835.00	830.00	832.00	830.00	833.00	833.00	830.00	830.00	831.00	831.00	831.00	832.00	830.00	830.00	831.00	831.00	829.00	831.00	831.00	830.00	831.00	832.00	831.00	832.00	829.00	828.00	829.00	830.00	830.00	829.00	831.00	833.00	832.00	831.00	830.00	830.00	832.00	829.00	830.00	830.00	829.00	828.00	829.00	831.00	830.00	831.00	827.00	827.00	829.00	828.00	829.00	829.00	828.00	829.00	830.00	834.00	832.00	830.00	826.00	827.00	829.00	830.00
886.00	888.00	856.00	849.00	855.00	884.00	914.00	886.00	847.00	847.00	849.00	896.00	887.00	853.00	853.00	903.00	879.00	857.00	853.00	852.00	886.00	905.00	884.00	859.00	849.00	848.00	850.00	856.00	922.00	858.00	851.00	848.00	846.00	846.00	879.00	887.00	884.00	873.00	873.00	873.00	856.00	858.00	879.00	866.00	860.00	859.00	854.00	854.00	854.00	854.00	855.00	855.00	856.00	855.00	855.00	855.00	856.00	855.00	856.00	855.00	855.00	855.00	855.00	855.00	855.00	852.00	851.00	852.00	852.00	850.00	850.00	851.00	858.00	855.00	851.00	851.00	851.00	849.00	850.00	849.00	850.00	849.00	849.00	850.00	849.00	850.00	849.00	849.00	849.00	850.00	851.00	852.00	851.00	851.00	854.00	858.00	851.00	850.00	850.00	850.00	849.00	848.00	848.00	849.00	848.00	848.00	849.00	849.00	849.00	848.00	848.00	847.00	847.00	848.00	847.00	847.00	847.00	847.00	847.00	846.00	845.00	846.00	847.00	847.00	847.00	847.00	848.00	846.00	846.00	846.00	846.00	845.00	844.00	844.00	844.00	844.00	844.00	845.00	845.00	845.00	845.00	844.00	843.00	843.00	844.00	844.00	856.00	851.00	845.00	843.00	844.00	842.00	842.00	840.00	841.00	840.00	839.00	840.00	839.00	839.00	838.00	838.00	837.00	838.00	836.00	837.00	836.00	836.00	835.00	835.00	836.00	836.00	835.00	835.00	834.00	836.00	836.00	833.00	831.00	832.00	832.00	833.00	836.00	837.00	840.00	846.00	842.00	843.00	841.00	837.00	835.00	833.00	834.00	832.00	832.00	831.00	830.00	831.00	830.00	835.00	830.00	834.00	832.00	832.00	830.00	830.00	830.00	830.00	831.00	830.00	831.00	832.00	830.00	831.00	831.00	833.00	834.00	833.00	830.00	829.00	830.00	830.00	829.00	829.00	830.00	830.00	831.00	832.00	831.00	832.00	831.00	830.00	829.00	830.00	830.00	831.00	827.00	828.00	829.00	829.00	827.00	827.00	827.00	827.00	828.00	827.00	829.00	828.00	828.00	829.00	832.00	831.00	828.00	831.00	829.00	829.00
874.00	856.00	850.00	848.00	854.00	935.00	938.00	852.00	847.00	848.00	858.00	884.00	883.00	884.00	874.00	880.00	876.00	868.00	864.00	881.00	895.00	871.00	849.00	848.00	848.00	847.00	847.00	860.00	910.00	866.00	850.00	847.00	846.00	848.00	893.00	896.00	881.00	860.00	868.00	868.00	862.00	870.00	880.00	860.00	857.00	854.00	854.00	853.00	854.00	854.00	854.00	855.00	855.00	856.00	855.00	855.00	855.00	855.00	855.00	855.00	856.00	855.00	855.00	855.00	855.00	851.00	852.00	851.00	851.00	850.00	851.00	851.00	852.00	853.00	855.00	857.00	853.00	849.00	851.00	850.00	849.00	849.00	850.00	850.00	852.00	849.00	848.00	848.00	850.00	850.00	851.00	851.00	850.00	851.00	853.00	854.00	851.00	851.00	851.00	850.00	850.00	847.00	849.00	847.00	849.00	849.00	849.00	849.00	848.00	848.00	847.00	848.00	848.00	848.00	847.00	847.00	847.00	846.00	846.00	846.00	846.00	847.00	846.00	848.00	844.00	846.00	846.00	846.00	845.00	846.00	846.00	845.00	844.00	845.00	844.00	844.00	843.00	845.00	845.00	844.00	846.00	844.00	842.00	843.00	844.00	843.00	851.00	849.00	844.00	843.00	843.00	843.00	842.00	841.00	840.00	839.00	838.00	839.00	838.00	838.00	838.00	836.00	835.00	838.00	837.00	837.00	836.00	835.00	835.00	837.00	836.00	835.00	836.00	836.00	838.00	836.00	834.00	833.00	833.00	831.00	831.00	834.00	836.00	837.00	841.00	846.00	842.00	842.00	841.00	837.00	836.00	835.00	834.00	833.00	831.00	832.00	831.00	833.00	831.00	831.00	831.00	831.00	834.00	833.00	832.00	831.00	829.00	831.00	829.00	830.00	830.00	830.00	830.00	830.00	832.00	832.00	832.00	832.00	829.00	829.00	829.00	829.00	829.00	830.00	830.00	829.00	831.00	831.00	831.00	831.00	830.00	828.00	829.00	829.00	831.00	831.00	826.00	828.00	830.00	827.00	827.00	828.00	826.00	828.00	830.00	828.00	829.00	828.00	828.00	829.00	831.00	831.00	830.00	831.00	832.00	829.00
894.00	857.00	849.00	849.00	856.00	917.00	926.00	873.00	853.00	856.00	863.00	864.00	879.00	915.00	894.00	865.00	871.00	868.00	859.00	915.00	894.00	856.00	847.00	847.00	846.00	846.00	847.00	883.00	903.00	878.00	852.00	848.00	845.00	852.00	898.00	887.00	875.00	860.00	856.00	856.00	868.00	882.00	878.00	864.00	858.00	857.00	854.00	853.00	853.00	854.00	854.00	855.00	855.00	855.00	855.00	855.00	856.00	856.00	855.00	855.00	855.00	855.00	855.00	855.00	855.00	852.00	852.00	851.00	851.00	852.00	853.00	852.00	853.00	851.00	852.00	854.00	854.00	851.00	850.00	849.00	849.00	849.00	850.00	851.00	849.00	850.00	851.00	848.00	850.00	850.00	851.00	850.00	850.00	851.00	854.00	857.00	852.00	850.00	852.00	853.00	850.00	849.00	850.00	849.00	849.00	849.00	849.00	849.00	848.00	848.00	848.00	847.00	847.00	848.00	847.00	847.00	847.00	848.00	847.00	846.00	846.00	845.00	846.00	846.00	846.00	846.00	846.00	846.00	845.00	846.00	846.00	846.00	844.00	844.00	844.00	843.00	844.00	843.00	843.00	844.00	844.00	844.00	844.00	843.00	844.00	844.00	850.00	849.00	846.00	846.00	845.00	843.00	843.00	842.00	841.00	837.00	836.00	837.00	837.00	838.00	838.00	838.00	838.00	837.00	839.00	837.00	836.00	836.00	835.00	837.00	836.00	835.00	836.00	840.00	837.00	838.00	834.00	833.00	833.00	832.00	832.00	833.00	835.00	838.00	839.00	847.00	844.00	840.00	838.00	840.00	841.00	836.00	833.00	832.00	831.00	831.00	833.00	829.00	832.00	832.00	830.00	831.00	832.00	832.00	832.00	831.00	831.00	830.00	828.00	828.00	830.00	828.00	830.00	828.00	827.00	832.00	830.00	826.00	828.00	829.00	830.00	829.00	830.00	828.00	828.00	829.00	830.00	829.00	829.00	830.00	828.00	829.00	828.00	829.00	829.00	830.00	828.00	829.00	831.00	827.00	828.00	828.00	828.00	829.00	828.00	828.00	828.00	828.00	829.00	828.00	828.00	829.00	829.00	830.00	831.00	829.00
897.00	870.00	850.00	896.00	889.00	876.00	897.00	886.00	893.00	888.00	865.00	848.00	891.00	919.00	893.00	868.00	854.00	857.00	851.00	932.00	890.00	857.00	847.00	846.00	846.00	847.00	855.00	892.00	917.00	864.00	850.00	845.00	846.00	865.00	893.00	883.00	872.00	867.00	854.00	853.00	872.00	877.00	878.00	870.00	861.00	855.00	852.00	853.00	854.00	854.00	853.00	855.00	856.00	855.00	855.00	854.00	855.00	859.00	861.00	863.00	857.00	855.00	855.00	855.00	853.00	853.00	852.00	852.00	852.00	852.00	852.00	852.00	853.00	852.00	851.00	851.00	852.00	850.00	850.00	850.00	851.00	851.00	853.00	855.00	851.00	850.00	852.00	851.00	849.00	849.00	849.00	850.00	850.00	850.00	850.00	852.00	856.00	852.00	852.00	849.00	849.00	850.00	850.00	849.00	849.00	850.00	849.00	850.00	849.00	849.00	848.00	848.00	847.00	846.00	847.00	847.00	849.00	847.00	848.00	845.00	845.00	845.00	846.00	847.00	846.00	846.00	846.00	846.00	845.00	846.00	844.00	845.00	845.00	845.00	844.00	844.00	843.00	843.00	844.00	843.00	842.00	842.00	844.00	844.00	844.00	843.00	845.00	847.00	847.00	849.00	847.00	843.00	843.00	844.00	841.00	838.00	837.00	836.00	838.00	837.00	838.00	838.00	839.00	838.00	838.00	837.00	836.00	836.00	836.00	836.00	836.00	836.00	837.00	839.00	835.00	834.00	831.00	832.00	833.00	832.00	832.00	833.00	835.00	836.00	838.00	839.00	840.00	841.00	842.00	841.00	843.00	837.00	835.00	832.00	832.00	831.00	830.00	831.00	830.00	832.00	830.00	831.00	831.00	832.00	833.00	831.00	831.00	830.00	828.00	829.00	830.00	831.00	831.00	829.00	831.00	831.00	832.00	830.00	828.00	829.00	829.00	829.00	828.00	829.00	829.00	829.00	829.00	829.00	831.00	829.00	830.00	828.00	828.00	828.00	828.00	830.00	829.00	833.00	831.00	827.00	829.00	828.00	828.00	828.00	828.00	828.00	829.00	828.00	828.00	827.00	828.00	828.00	828.00	829.00	831.00	831.00
858.00	851.00	850.00	926.00	894.00	856.00	887.00	867.00	910.00	900.00	857.00	847.00	904.00	909.00	889.00	864.00	848.00	848.00	848.00	934.00	883.00	854.00	847.00	846.00	846.00	852.00	861.00	880.00	917.00	862.00	849.00	845.00	850.00	872.00	886.00	879.00	872.00	878.00	864.00	853.00	869.00	884.00	885.00	866.00	853.00	851.00	855.00	858.00	857.00	857.00	858.00	854.00	854.00	854.00	853.00	852.00	856.00	859.00	869.00	881.00	869.00	855.00	855.00	856.00	852.00	852.00	852.00	852.00	852.00	852.00	853.00	852.00	851.00	852.00	850.00	850.00	851.00	850.00	850.00	851.00	852.00	852.00	850.00	855.00	855.00	855.00	853.00	850.00	849.00	849.00	849.00	850.00	849.00	849.00	850.00	851.00	853.00	850.00	849.00	851.00	850.00	850.00	850.00	850.00	851.00	848.00	848.00	848.00	848.00	848.00	849.00	849.00	849.00	845.00	847.00	847.00	848.00	848.00	847.00	845.00	845.00	844.00	847.00	847.00	846.00	845.00	845.00	846.00	846.00	845.00	845.00	844.00	844.00	844.00	843.00	843.00	844.00	841.00	842.00	842.00	842.00	842.00	844.00	844.00	843.00	845.00	844.00	844.00	845.00	848.00	849.00	844.00	848.00	848.00	848.00	839.00	839.00	838.00	837.00	838.00	837.00	836.00	837.00	840.00	838.00	837.00	837.00	837.00	837.00	836.00	835.00	836.00	839.00	840.00	836.00	834.00	833.00	834.00	833.00	831.00	833.00	833.00	835.00	836.00	836.00	839.00	846.00	843.00	843.00	842.00	843.00	840.00	835.00	834.00	832.00	832.00	830.00	832.00	831.00	830.00	833.00	830.00	832.00	833.00	834.00	832.00	830.00	830.00	831.00	830.00	830.00	829.00	829.00	827.00	829.00	831.00	829.00	829.00	827.00	830.00	829.00	829.00	828.00	828.00	830.00	829.00	830.00	831.00	830.00	831.00	828.00	829.00	829.00	828.00	829.00	831.00	834.00	835.00	830.00	827.00	828.00	829.00	828.00	829.00	827.00	827.00	827.00	828.00	829.00	827.00	827.00	827.00	828.00	828.00	829.00	828.00
848.00	849.00	861.00	922.00	877.00	851.00	881.00	863.00	903.00	886.00	849.00	846.00	913.00	903.00	888.00	860.00	848.00	848.00	857.00	929.00	868.00	852.00	850.00	847.00	850.00	851.00	862.00	876.00	891.00	878.00	863.00	856.00	860.00	865.00	867.00	871.00	881.00	879.00	869.00	852.00	875.00	882.00	876.00	861.00	851.00	851.00	852.00	856.00	860.00	865.00	860.00	854.00	855.00	853.00	852.00	852.00	855.00	858.00	870.00	871.00	868.00	855.00	856.00	863.00	860.00	854.00	852.00	853.00	854.00	855.00	855.00	851.00	851.00	851.00	851.00	851.00	850.00	850.00	850.00	850.00	850.00	851.00	851.00	852.00	855.00	856.00	852.00	852.00	849.00	849.00	849.00	849.00	848.00	849.00	850.00	852.00	852.00	851.00	851.00	851.00	849.00	850.00	850.00	850.00	850.00	850.00	849.00	848.00	848.00	849.00	849.00	850.00	849.00	847.00	847.00	846.00	847.00	847.00	848.00	846.00	846.00	847.00	848.00	848.00	846.00	845.00	846.00	846.00	845.00	845.00	845.00	845.00	844.00	845.00	845.00	843.00	843.00	843.00	842.00	842.00	843.00	843.00	845.00	845.00	843.00	844.00	846.00	843.00	844.00	845.00	848.00	844.00	845.00	846.00	846.00	845.00	840.00	838.00	839.00	838.00	838.00	839.00	840.00	838.00	837.00	838.00	837.00	836.00	835.00	834.00	836.00	836.00	841.00	838.00	836.00	834.00	834.00	834.00	833.00	833.00	833.00	833.00	834.00	836.00	836.00	837.00	847.00	845.00	844.00	843.00	843.00	845.00	841.00	834.00	832.00	831.00	833.00	830.00	832.00	831.00	831.00	832.00	832.00	833.00	833.00	831.00	830.00	831.00	830.00	828.00	829.00	829.00	830.00	829.00	827.00	827.00	827.00	825.00	827.00	828.00	830.00	829.00	828.00	828.00	829.00	830.00	830.00	830.00	830.00	829.00	829.00	829.00	830.00	829.00	829.00	831.00	831.00	833.00	831.00	828.00	828.00	827.00	829.00	828.00	827.00	828.00	827.00	829.00	829.00	828.00	827.00	829.00	827.00	827.00	827.00	829.00
849.00	850.00	902.00	886.00	855.00	879.00	882.00	854.00	901.00	863.00	847.00	855.00	913.00	890.00	860.00	848.00	848.00	847.00	858.00	923.00	865.00	852.00	851.00	850.00	855.00	854.00	855.00	869.00	875.00	885.00	884.00	881.00	876.00	862.00	857.00	857.00	882.00	884.00	873.00	863.00	880.00	883.00	873.00	870.00	856.00	851.00	851.00	859.00	865.00	867.00	884.00	853.00	856.00	853.00	852.00	852.00	853.00	858.00	870.00	869.00	875.00	854.00	855.00	855.00	860.00	854.00	860.00	854.00	854.00	853.00	856.00	851.00	851.00	852.00	851.00	849.00	850.00	851.00	851.00	851.00	850.00	850.00	850.00	850.00	853.00	855.00	851.00	851.00	849.00	849.00	849.00	848.00	849.00	849.00	852.00	855.00	850.00	851.00	853.00	852.00	850.00	850.00	850.00	849.00	849.00	848.00	850.00	849.00	849.00	849.00	850.00	849.00	848.00	848.00	848.00	847.00	847.00	847.00	847.00	848.00	848.00	848.00	847.00	848.00	847.00	845.00	845.00	845.00	844.00	847.00	845.00	845.00	844.00	845.00	845.00	844.00	845.00	844.00	842.00	843.00	844.00	844.00	845.00	844.00	844.00	845.00	845.00	845.00	845.00	845.00	845.00	847.00	845.00	846.00	844.00	852.00	843.00	842.00	841.00	838.00	839.00	838.00	839.00	838.00	838.00	837.00	837.00	837.00	838.00	837.00	838.00	838.00	843.00	838.00	836.00	835.00	834.00	834.00	834.00	833.00	832.00	833.00	833.00	834.00	835.00	836.00	844.00	844.00	845.00	842.00	842.00	844.00	841.00	835.00	833.00	834.00	832.00	831.00	831.00	831.00	831.00	831.00	831.00	832.00	832.00	831.00	831.00	832.00	829.00	830.00	828.00	831.00	831.00	829.00	829.00	826.00	827.00	828.00	829.00	828.00	828.00	829.00	828.00	829.00	829.00	829.00	829.00	829.00	829.00	828.00	828.00	829.00	829.00	829.00	830.00	830.00	831.00	830.00	830.00	828.00	829.00	826.00	828.00	828.00	828.00	828.00	829.00	827.00	828.00	828.00	829.00	828.00	828.00	828.00	827.00	828.00
848.00	848.00	908.00	877.00	851.00	885.00	883.00	855.00	904.00	876.00	861.00	916.00	892.00	853.00	848.00	848.00	847.00	847.00	857.00	917.00	869.00	874.00	876.00	867.00	858.00	854.00	853.00	859.00	862.00	893.00	902.00	893.00	872.00	858.00	854.00	868.00	875.00	883.00	872.00	872.00	884.00	883.00	882.00	863.00	854.00	851.00	851.00	856.00	860.00	862.00	874.00	853.00	853.00	853.00	853.00	852.00	852.00	859.00	860.00	865.00	871.00	856.00	856.00	855.00	855.00	861.00	860.00	858.00	857.00	859.00	856.00	851.00	851.00	851.00	851.00	851.00	851.00	852.00	858.00	852.00	850.00	850.00	851.00	850.00	850.00	852.00	852.00	853.00	850.00	849.00	849.00	849.00	849.00	849.00	851.00	852.00	849.00	850.00	851.00	850.00	852.00	851.00	851.00	849.00	849.00	849.00	850.00	851.00	850.00	847.00	850.00	849.00	849.00	848.00	848.00	847.00	847.00	847.00	847.00	847.00	848.00	848.00	847.00	846.00	847.00	846.00	844.00	846.00	844.00	844.00	845.00	845.00	845.00	845.00	844.00	844.00	844.00	845.00	844.00	844.00	844.00	845.00	844.00	845.00	844.00	844.00	845.00	842.00	845.00	844.00	844.00	844.00	846.00	844.00	844.00	848.00	842.00	842.00	840.00	839.00	838.00	839.00	838.00	838.00	838.00	837.00	838.00	838.00	838.00	838.00	839.00	842.00	841.00	836.00	836.00	835.00	833.00	833.00	833.00	832.00	833.00	831.00	831.00	833.00	835.00	836.00	840.00	844.00	845.00	848.00	842.00	842.00	840.00	837.00	835.00	833.00	834.00	833.00	832.00	829.00	832.00	830.00	832.00	832.00	832.00	832.00	832.00	830.00	830.00	831.00	830.00	831.00	831.00	829.00	830.00	831.00	829.00	828.00	828.00	828.00	827.00	829.00	828.00	828.00	828.00	827.00	826.00	828.00	828.00	828.00	828.00	830.00	831.00	829.00	831.00	831.00	831.00	831.00	830.00	830.00	829.00	827.00	825.00	826.00	828.00	827.00	828.00	829.00	828.00	828.00	829.00	829.00	829.00	829.00	829.00	828.00
848.00	848.00	897.00	896.00	897.00	883.00	856.00	882.00	882.00	869.00	893.00	940.00	877.00	849.00	848.00	848.00	847.00	847.00	851.00	888.00	877.00	899.00	908.00	896.00	871.00	852.00	849.00	853.00	856.00	905.00	908.00	888.00	869.00	852.00	865.00	874.00	869.00	862.00	882.00	875.00	892.00	884.00	870.00	851.00	851.00	851.00	851.00	852.00	853.00	869.00	862.00	865.00	853.00	853.00	852.00	852.00	852.00	853.00	859.00	862.00	860.00	852.00	852.00	859.00	859.00	858.00	859.00	858.00	865.00	865.00	858.00	849.00	851.00	850.00	849.00	850.00	851.00	852.00	857.00	853.00	850.00	851.00	859.00	851.00	850.00	850.00	850.00	850.00	851.00	850.00	850.00	849.00	850.00	851.00	850.00	851.00	851.00	857.00	851.00	848.00	850.00	849.00	849.00	849.00	849.00	848.00	849.00	851.00	852.00	848.00	849.00	848.00	848.00	849.00	848.00	848.00	847.00	847.00	848.00	847.00	847.00	847.00	847.00	847.00	847.00	846.00	846.00	846.00	846.00	844.00	844.00	845.00	844.00	845.00	844.00	844.00	844.00	844.00	845.00	845.00	844.00	845.00	844.00	844.00	843.00	843.00	846.00	845.00	844.00	845.00	844.00	843.00	844.00	843.00	841.00	844.00	841.00	839.00	839.00	839.00	839.00	838.00	838.00	837.00	839.00	840.00	840.00	839.00	841.00	838.00	837.00	840.00	845.00	834.00	835.00	835.00	833.00	833.00	835.00	833.00	833.00	834.00	833.00	832.00	834.00	835.00	839.00	841.00	840.00	845.00	845.00	842.00	841.00	837.00	837.00	838.00	842.00	834.00	833.00	831.00	832.00	833.00	833.00	832.00	831.00	832.00	832.00	832.00	832.00	830.00	831.00	831.00	830.00	831.00	829.00	832.00	829.00	828.00	827.00	828.00	829.00	829.00	828.00	828.00	827.00	828.00	828.00	828.00	828.00	828.00	828.00	829.00	829.00	828.00	828.00	828.00	830.00	830.00	831.00	832.00	829.00	826.00	826.00	827.00	826.00	828.00	827.00	827.00	828.00	829.00	828.00	828.00	827.00	827.00	828.00	829.00
848.00	849.00	880.00	934.00	911.00	862.00	847.00	877.00	901.00	880.00	882.00	931.00	885.00	853.00	852.00	850.00	855.00	857.00	849.00	861.00	877.00	921.00	924.00	897.00	870.00	855.00	849.00	856.00	861.00	900.00	900.00	888.00	868.00	857.00	873.00	865.00	852.00	850.00	902.00	863.00	872.00	861.00	855.00	854.00	855.00	858.00	862.00	851.00	852.00	868.00	861.00	868.00	855.00	852.00	852.00	852.00	856.00	856.00	856.00	859.00	857.00	850.00	849.00	856.00	861.00	867.00	859.00	857.00	859.00	865.00	860.00	850.00	850.00	850.00	850.00	850.00	850.00	851.00	853.00	856.00	852.00	849.00	882.00	850.00	850.00	850.00	849.00	849.00	850.00	851.00	852.00	849.00	848.00	849.00	849.00	850.00	851.00	856.00	851.00	849.00	849.00	850.00	849.00	849.00	850.00	849.00	850.00	849.00	849.00	848.00	846.00	848.00	849.00	848.00	848.00	847.00	847.00	847.00	848.00	847.00	847.00	848.00	847.00	847.00	846.00	847.00	847.00	846.00	847.00	844.00	845.00	844.00	844.00	843.00	844.00	842.00	843.00	844.00	844.00	844.00	842.00	843.00	843.00	843.00	843.00	846.00	844.00	843.00	843.00	843.00	843.00	844.00	843.00	842.00	843.00	840.00	839.00	839.00	839.00	839.00	839.00	839.00	839.00	839.00	839.00	839.00	840.00	840.00	840.00	839.00	838.00	841.00	842.00	834.00	834.00	833.00	835.00	835.00	836.00	835.00	832.00	833.00	834.00	834.00	835.00	836.00	839.00	839.00	841.00	842.00	844.00	840.00	839.00	841.00	839.00	837.00	843.00	838.00	834.00	834.00	832.00	832.00	832.00	832.00	831.00	833.00	833.00	833.00	831.00	832.00	830.00	831.00	831.00	831.00	833.00	829.00	829.00	831.00	830.00	829.00	829.00	830.00	827.00	827.00	828.00	827.00	828.00	827.00	827.00	828.00	828.00	828.00	827.00	827.00	827.00	827.00	829.00	829.00	829.00	830.00	829.00	829.00	827.00	826.00	827.00	826.00	827.00	828.00	827.00	827.00	826.00	827.00	826.00	827.00	826.00	826.00
846.00	848.00	877.00	928.00	883.00	847.00	845.00	879.00	908.00	888.00	878.00	910.00	884.00	866.00	858.00	865.00	897.00	889.00	852.00	846.00	899.00	928.00	919.00	890.00	866.00	852.00	848.00	857.00	862.00	894.00	893.00	889.00	880.00	873.00	866.00	859.00	851.00	869.00	892.00	882.00	859.00	854.00	864.00	859.00	860.00	872.00	867.00	856.00	858.00	862.00	862.00	871.00	853.00	852.00	852.00	851.00	857.00	857.00	859.00	856.00	855.00	849.00	849.00	852.00	854.00	873.00	863.00	860.00	861.00	861.00	853.00	850.00	851.00	851.00	849.00	853.00	852.00	856.00	870.00	852.00	856.00	853.00	876.00	849.00	849.00	849.00	849.00	853.00	850.00	850.00	851.00	851.00	849.00	850.00	848.00	849.00	854.00	851.00	850.00	850.00	848.00	851.00	849.00	849.00	849.00	851.00	847.00	850.00	851.00	849.00	847.00	849.00	849.00	849.00	848.00	847.00	847.00	848.00	847.00	847.00	847.00	848.00	847.00	848.00	847.00	847.00	848.00	847.00	847.00	845.00	845.00	843.00	843.00	844.00	845.00	843.00	844.00	843.00	844.00	844.00	843.00	843.00	842.00	843.00	843.00	846.00	843.00	843.00	844.00	842.00	843.00	845.00	845.00	843.00	841.00	838.00	838.00	839.00	839.00	838.00	839.00	839.00	839.00	839.00	839.00	839.00	842.00	839.00	840.00	839.00	838.00	841.00	847.00	836.00	835.00	835.00	836.00	836.00	837.00	835.00	835.00	835.00	835.00	833.00	834.00	836.00	839.00	839.00	841.00	840.00	841.00	839.00	839.00	837.00	839.00	836.00	841.00	839.00	837.00	837.00	833.00	835.00	834.00	834.00	832.00	835.00	833.00	833.00	831.00	831.00	830.00	830.00	832.00	831.00	834.00	831.00	829.00	830.00	829.00	830.00	829.00	828.00	828.00	828.00	827.00	827.00	827.00	828.00	827.00	828.00	827.00	828.00	829.00	828.00	827.00	828.00	828.00	829.00	828.00	830.00	828.00	829.00	828.00	827.00	827.00	827.00	827.00	828.00	828.00	827.00	826.00	826.00	826.00	825.00	827.00	826.00
