508.00	511.00	514.00	514.00	515.00	516.00	515.00	506.00	501.00	492.00	486.00	483.00	480.00	479.00	477.00	470.00	469.00	470.00	471.00	471.00	472.00	472.00	476.00	484.00	490.00	494.00	494.00	494.00	507.00	512.00	515.00	518.00	517.00	521.00	523.00	526.00	530.00	532.00	533.00	536.00	541.00	546.00	552.00	554.00	554.00	556.00	561.00	564.00	566.00	569.00	571.00	575.00	579.00	583.00	586.00	594.00	592.00	584.00	584.00	580.00	571.00	571.00	570.00	569.00	568.00	569.00	571.00	573.00	572.00	571.00	573.00	576.00	579.00	584.00	585.00	584.00	580.00	579.00	572.00	567.00	562.00	557.00	553.00	552.00	550.00	549.00	552.00	557.00	561.00	564.00	566.00	568.00	569.00	571.00	571.00	571.00	561.00	562.00	557.00	554.00	556.00	563.00	576.00	614.00	653.00	591.00	561.00	551.00	547.00	542.00	543.00	541.00	537.00	538.00	538.00	536.00	533.00	531.00	524.00	524.00	524.00	525.00	526.00	534.00	537.00	542.00	541.00	540.00	532.00	529.00	527.00	522.00	519.00	518.00	520.00	516.00	515.00	518.00	522.00	519.00	521.00	521.00	521.00	520.00	518.00	510.00	506.00	505.00	506.00	506.00	506.00	507.00	508.00	512.00	518.00	518.00	520.00	520.00	519.00	523.00	527.00	527.00	527.00	530.00	533.00	535.00	537.00	541.00	542.00	543.00	550.00	554.00	557.00	560.00	562.00	565.00	573.00	576.00	586.00	636.00	728.00	647.00	640.00	657.00	723.00	741.00	732.00	692.00	691.00	760.00	618.00	608.00	618.00	601.00	619.00	624.00	612.00	613.00	617.00	625.00	627.00	631.00	631.00	635.00	637.00	637.00	643.00	648.00	649.00	653.00	657.00	663.00	680.00	679.00	677.00	677.00	685.00	679.00	669.00	665.00	665.00	664.00	653.00	649.00	647.00	654.00	645.00	641.00	646.00	647.00	643.00	650.00	655.00	646.00	641.00	647.00	645.00	648.00	644.00	646.00	640.00	636.00	631.00	626.00	621.00	620.00	628.00	634.00	646.00	646.00	650.00	659.00	666.00	668.00	663.00	658.00
508.00	511.00	511.00	513.00	513.00	512.00	507.00	502.00	497.00	494.00	490.00	487.00	482.00	477.00	475.00	470.00	470.00	470.00	471.00	471.00	472.00	475.00	478.00	486.00	492.00	495.00	501.00	502.00	504.00	511.00	517.00	520.00	521.00	525.00	526.00	529.00	532.00	537.00	536.00	538.00	542.00	549.00	557.00	559.00	558.00	558.00	560.00	563.00	565.00	567.00	570.00	575.00	580.00	583.00	587.00	594.00	591.00	590.00	588.00	582.00	576.00	575.00	573.00	571.00	569.00	569.00	571.00	573.00	572.00	572.00	573.00	575.00	577.00	583.00	585.00	584.00	577.00	576.00	570.00	566.00	560.00	556.00	550.00	550.00	548.00	548.00	551.00	559.00	563.00	566.00	567.00	568.00	567.00	568.00	570.00	570.00	558.00	557.00	555.00	553.00	554.00	561.00	615.00	645.00	659.00	615.00	561.00	550.00	547.00	540.00	541.00	540.00	537.00	535.00	535.00	534.00	532.00	530.00	525.00	523.00	522.00	523.00	525.00	528.00	533.00	537.00	542.00	543.00	536.00	531.00	526.00	524.00	518.00	518.00	516.00	515.00	514.00	517.00	520.00	516.00	518.00	518.00	518.00	517.00	517.00	513.00	507.00	505.00	505.00	505.00	506.00	506.00	507.00	512.00	521.00	522.00	523.00	525.00	519.00	522.00	523.00	525.00	526.00	533.00	535.00	538.00	541.00	545.00	547.00	545.00	550.00	555.00	558.00	560.00	563.00	565.00	575.00	580.00	604.00	687.00	736.00	695.00	666.00	671.00	708.00	776.00	777.00	757.00	669.00	670.00	616.00	614.00	625.00	606.00	603.00	603.00	605.00	609.00	613.00	619.00	621.00	626.00	628.00	640.00	646.00	643.00	643.00	644.00	644.00	649.00	649.00	655.00	679.00	682.00	680.00	679.00	681.00	680.00	672.00	666.00	660.00	674.00	662.00	651.00	644.00	648.00	642.00	640.00	647.00	646.00	642.00	651.00	648.00	654.00	643.00	639.00	641.00	643.00	651.00	642.00	640.00	638.00	635.00	630.00	618.00	619.00	623.00	627.00	641.00	639.00	646.00	654.00	659.00	661.00	659.00	654.00
507.00	509.00	510.00	506.00	503.00	501.00	498.00	494.00	491.00	486.00	483.00	484.00	479.00	472.00	472.00	470.00	470.00	470.00	471.00	471.00	475.00	480.00	483.00	491.00	499.00	502.00	503.00	508.00	514.00	514.00	515.00	519.00	524.00	531.00	533.00	536.00	538.00	543.00	544.00	544.00	545.00	548.00	558.00	564.00	567.00	565.00	565.00	568.00	570.00	572.00	573.00	576.00	580.00	584.00	588.00	596.00	596.00	594.00	590.00	587.00	582.00	579.00	577.00	573.00	568.00	566.00	568.00	570.00	571.00	571.00	571.00	573.00	575.00	582.00	583.00	582.00	573.00	571.00	563.00	560.00	555.00	551.00	549.00	546.00	545.00	548.00	554.00	562.00	563.00	565.00	563.00	562.00	563.00	565.00	568.00	566.00	563.00	560.00	559.00	553.00	548.00	551.00	556.00	585.00	564.00	574.00	556.00	550.00	545.00	537.00	537.00	537.00	535.00	532.00	529.00	528.00	526.00	525.00	525.00	524.00	523.00	522.00	520.00	528.00	533.00	536.00	539.00	536.00	531.00	530.00	529.00	527.00	523.00	520.00	515.00	513.00	511.00	511.00	513.00	512.00	510.00	513.00	512.00	510.00	511.00	511.00	507.00	505.00	504.00	505.00	504.00	507.00	511.00	513.00	518.00	520.00	521.00	526.00	529.00	528.00	531.00	531.00	533.00	533.00	532.00	534.00	536.00	542.00	545.00	551.00	554.00	553.00	553.00	556.00	559.00	563.00	573.00	590.00	674.00	758.00	756.00	731.00	734.00	715.00	700.00	712.00	758.00	777.00	768.00	687.00	625.00	628.00	629.00	619.00	606.00	608.00	615.00	614.00	613.00	620.00	626.00	632.00	637.00	643.00	642.00	642.00	637.00	635.00	644.00	646.00	647.00	649.00	663.00	668.00	675.00	681.00	686.00	682.00	674.00	666.00	661.00	651.00	646.00	644.00	642.00	639.00	636.00	635.00	641.00	640.00	634.00	637.00	638.00	640.00	638.00	633.00	631.00	637.00	644.00	643.00	637.00	635.00	628.00	626.00	614.00	619.00	623.00	629.00	638.00	647.00	655.00	657.00	666.00	662.00	650.00	647.00
506.00	509.00	508.00	504.00	498.00	496.00	497.00	493.00	488.00	484.00	481.00	479.00	477.00	471.00	470.00	470.00	470.00	471.00	470.00	473.00	477.00	482.00	486.00	493.00	501.00	505.00	507.00	508.00	515.00	520.00	521.00	523.00	526.00	533.00	536.00	538.00	540.00	546.00	548.00	549.00	549.00	550.00	557.00	563.00	570.00	568.00	568.00	571.00	574.00	576.00	577.00	579.00	581.00	585.00	589.00	597.00	597.00	596.00	593.00	590.00	585.00	580.00	576.00	574.00	568.00	565.00	567.00	569.00	570.00	570.00	570.00	571.00	574.00	581.00	583.00	582.00	573.00	569.00	562.00	558.00	554.00	550.00	546.00	544.00	545.00	547.00	554.00	559.00	560.00	559.00	558.00	562.00	564.00	567.00	568.00	564.00	556.00	556.00	553.00	552.00	546.00	547.00	550.00	551.00	552.00	551.00	552.00	549.00	544.00	537.00	536.00	535.00	533.00	531.00	528.00	527.00	527.00	525.00	523.00	522.00	522.00	522.00	519.00	524.00	527.00	532.00	532.00	534.00	528.00	529.00	527.00	525.00	526.00	523.00	520.00	514.00	510.00	509.00	509.00	511.00	508.00	510.00	512.00	507.00	509.00	512.00	511.00	508.00	504.00	504.00	505.00	506.00	508.00	510.00	514.00	516.00	519.00	523.00	529.00	533.00	536.00	535.00	536.00	537.00	538.00	538.00	542.00	543.00	546.00	549.00	550.00	549.00	554.00	558.00	559.00	561.00	571.00	594.00	659.00	754.00	765.00	737.00	749.00	748.00	730.00	724.00	752.00	778.00	795.00	706.00	626.00	647.00	641.00	622.00	614.00	612.00	614.00	620.00	621.00	623.00	624.00	630.00	634.00	644.00	638.00	637.00	633.00	634.00	644.00	642.00	648.00	652.00	660.00	665.00	672.00	680.00	686.00	682.00	675.00	668.00	664.00	655.00	651.00	647.00	644.00	643.00	636.00	633.00	635.00	635.00	634.00	631.00	640.00	635.00	632.00	631.00	630.00	637.00	641.00	646.00	642.00	638.00	631.00	628.00	613.00	616.00	620.00	625.00	640.00	644.00	650.00	660.00	664.00	656.00	650.00	646.00
506.00	509.00	507.00	502.00	496.00	493.00	493.00	489.00	487.00	483.00	479.00	477.00	473.00	469.00	469.00	469.00	470.00	471.00	470.00	475.00	479.00	483.00	488.00	494.00	501.00	505.00	510.00	512.00	516.00	520.00	524.00	526.00	528.00	535.00	538.00	541.00	544.00	550.00	552.00	553.00	554.00	556.00	557.00	561.00	571.00	571.00	569.00	572.00	576.00	579.00	581.00	582.00	583.00	585.00	589.00	596.00	596.00	596.00	594.00	592.00	585.00	582.00	578.00	574.00	567.00	565.00	566.00	568.00	570.00	569.00	569.00	570.00	573.00	580.00	582.00	581.00	573.00	568.00	560.00	556.00	553.00	549.00	544.00	542.00	544.00	546.00	549.00	553.00	554.00	555.00	557.00	563.00	566.00	568.00	569.00	566.00	556.00	552.00	554.00	548.00	544.00	544.00	547.00	545.00	546.00	547.00	547.00	548.00	546.00	541.00	538.00	535.00	533.00	531.00	530.00	530.00	528.00	527.00	522.00	521.00	521.00	520.00	518.00	520.00	524.00	524.00	524.00	529.00	525.00	527.00	528.00	524.00	525.00	522.00	517.00	512.00	507.00	506.00	507.00	509.00	507.00	508.00	511.00	507.00	505.00	511.00	508.00	507.00	504.00	504.00	503.00	505.00	505.00	507.00	511.00	515.00	517.00	518.00	526.00	530.00	531.00	532.00	534.00	541.00	542.00	541.00	545.00	549.00	547.00	545.00	546.00	547.00	553.00	556.00	557.00	560.00	571.00	583.00	627.00	692.00	757.00	722.00	736.00	760.00	757.00	763.00	792.00	822.00	839.00	753.00	633.00	654.00	641.00	632.00	625.00	619.00	619.00	622.00	626.00	633.00	632.00	632.00	642.00	642.00	637.00	633.00	631.00	633.00	635.00	637.00	644.00	647.00	670.00	668.00	675.00	679.00	677.00	676.00	675.00	671.00	666.00	661.00	653.00	652.00	651.00	649.00	637.00	633.00	631.00	630.00	633.00	628.00	634.00	636.00	635.00	627.00	630.00	634.00	641.00	643.00	639.00	639.00	634.00	634.00	614.00	612.00	614.00	620.00	632.00	638.00	648.00	674.00	667.00	652.00	646.00	643.00
506.00	508.00	506.00	502.00	498.00	492.00	488.00	486.00	483.00	483.00	477.00	476.00	471.00	469.00	469.00	469.00	469.00	471.00	472.00	477.00	482.00	486.00	489.00	498.00	503.00	507.00	510.00	514.00	519.00	522.00	525.00	527.00	528.00	535.00	539.00	542.00	546.00	552.00	555.00	557.00	558.00	560.00	559.00	562.00	572.00	573.00	571.00	573.00	577.00	580.00	583.00	587.00	587.00	588.00	591.00	595.00	595.00	595.00	595.00	594.00	587.00	582.00	578.00	575.00	566.00	563.00	565.00	567.00	570.00	568.00	567.00	570.00	573.00	580.00	583.00	581.00	573.00	568.00	558.00	554.00	551.00	547.00	542.00	542.00	545.00	547.00	549.00	553.00	554.00	558.00	561.00	564.00	567.00	566.00	565.00	565.00	557.00	550.00	551.00	549.00	542.00	542.00	545.00	542.00	541.00	542.00	544.00	546.00	547.00	543.00	539.00	538.00	536.00	535.00	532.00	533.00	531.00	530.00	524.00	522.00	521.00	519.00	518.00	518.00	519.00	521.00	523.00	523.00	521.00	524.00	526.00	523.00	524.00	524.00	519.00	517.00	508.00	506.00	505.00	506.00	506.00	506.00	509.00	506.00	503.00	508.00	505.00	503.00	503.00	503.00	504.00	504.00	507.00	509.00	511.00	513.00	515.00	518.00	522.00	526.00	528.00	529.00	534.00	542.00	544.00	545.00	548.00	547.00	544.00	542.00	545.00	547.00	552.00	553.00	556.00	559.00	569.00	578.00	626.00	701.00	776.00	704.00	751.00	782.00	753.00	759.00	788.00	833.00	836.00	734.00	658.00	666.00	667.00	657.00	646.00	628.00	625.00	625.00	629.00	635.00	627.00	626.00	632.00	641.00	634.00	633.00	628.00	630.00	633.00	635.00	638.00	644.00	661.00	668.00	677.00	683.00	678.00	667.00	666.00	667.00	662.00	660.00	659.00	655.00	650.00	646.00	641.00	642.00	636.00	632.00	627.00	626.00	632.00	628.00	633.00	626.00	630.00	636.00	634.00	634.00	636.00	633.00	631.00	630.00	610.00	611.00	620.00	625.00	630.00	634.00	643.00	656.00	668.00	655.00	644.00	643.00
507.00	504.00	499.00	495.00	491.00	488.00	482.00	480.00	478.00	475.00	471.00	470.00	468.00	468.00	468.00	470.00	473.00	475.00	477.00	482.00	482.00	485.00	489.00	495.00	501.00	503.00	505.00	507.00	512.00	514.00	516.00	520.00	522.00	533.00	537.00	541.00	545.00	553.00	556.00	560.00	565.00	569.00	574.00	574.00	577.00	578.00	577.00	578.00	580.00	584.00	587.00	595.00	597.00	596.00	595.00	591.00	590.00	589.00	588.00	588.00	584.00	580.00	576.00	571.00	565.00	560.00	559.00	561.00	563.00	562.00	564.00	568.00	571.00	574.00	575.00	573.00	568.00	563.00	555.00	550.00	546.00	543.00	538.00	540.00	543.00	547.00	561.00	562.00	562.00	562.00	564.00	562.00	562.00	559.00	556.00	553.00	551.00	548.00	543.00	541.00	538.00	537.00	541.00	540.00	534.00	536.00	536.00	540.00	544.00	551.00	552.00	551.00	547.00	547.00	546.00	543.00	540.00	536.00	532.00	532.00	530.00	527.00	526.00	518.00	519.00	515.00	513.00	512.00	516.00	519.00	516.00	519.00	516.00	517.00	520.00	519.00	508.00	505.00	502.00	501.00	501.00	500.00	500.00	500.00	501.00	502.00	503.00	503.00	504.00	507.00	511.00	515.00	517.00	518.00	522.00	520.00	522.00	525.00	526.00	527.00	528.00	529.00	529.00	534.00	535.00	536.00	535.00	536.00	539.00	543.00	547.00	546.00	548.00	552.00	550.00	555.00	554.00	555.00	562.00	569.00	599.00	746.00	648.00	682.00	722.00	754.00	743.00	668.00	621.00	623.00	640.00	639.00	631.00	616.00	609.00	608.00	607.00	606.00	610.00	618.00	617.00	619.00	620.00	635.00	634.00	625.00	621.00	624.00	631.00	634.00	635.00	638.00	662.00	677.00	684.00	690.00	684.00	675.00	671.00	665.00	659.00	650.00	642.00	641.00	641.00	638.00	641.00	637.00	637.00	636.00	636.00	636.00	636.00	626.00	620.00	620.00	621.00	624.00	617.00	622.00	631.00	631.00	620.00	615.00	606.00	611.00	618.00	625.00	639.00	640.00	643.00	647.00	655.00	659.00	657.00	657.00
507.00	502.00	496.00	493.00	488.00	486.00	480.00	477.00	475.00	473.00	468.00	468.00	468.00	468.00	467.00	470.00	471.00	475.00	481.00	482.00	483.00	485.00	485.00	492.00	498.00	500.00	501.00	504.00	508.00	511.00	514.00	517.00	520.00	533.00	537.00	541.00	545.00	552.00	555.00	559.00	563.00	568.00	575.00	577.00	579.00	580.00	579.00	580.00	583.00	586.00	589.00	596.00	598.00	597.00	595.00	589.00	587.00	586.00	586.00	585.00	582.00	579.00	575.00	570.00	565.00	559.00	558.00	559.00	560.00	562.00	564.00	567.00	569.00	573.00	572.00	570.00	566.00	562.00	552.00	548.00	545.00	541.00	537.00	538.00	542.00	547.00	559.00	565.00	566.00	566.00	564.00	556.00	556.00	559.00	558.00	554.00	547.00	545.00	541.00	539.00	536.00	536.00	537.00	539.00	536.00	532.00	533.00	539.00	541.00	549.00	553.00	554.00	552.00	553.00	544.00	541.00	541.00	538.00	535.00	534.00	530.00	527.00	523.00	522.00	522.00	518.00	514.00	511.00	513.00	514.00	514.00	518.00	517.00	515.00	517.00	518.00	512.00	509.00	504.00	500.00	500.00	499.00	499.00	500.00	500.00	501.00	503.00	504.00	506.00	508.00	512.00	515.00	516.00	520.00	524.00	525.00	525.00	526.00	523.00	524.00	525.00	526.00	528.00	530.00	531.00	533.00	533.00	537.00	541.00	543.00	542.00	542.00	544.00	546.00	546.00	549.00	550.00	554.00	558.00	560.00	571.00	664.00	697.00	688.00	653.00	678.00	626.00	603.00	613.00	620.00	626.00	622.00	607.00	605.00	602.00	602.00	603.00	604.00	610.00	612.00	611.00	615.00	617.00	630.00	628.00	624.00	618.00	622.00	624.00	627.00	629.00	633.00	668.00	667.00	675.00	688.00	698.00	682.00	671.00	663.00	661.00	650.00	649.00	642.00	640.00	637.00	634.00	633.00	631.00	630.00	633.00	639.00	637.00	631.00	625.00	615.00	618.00	620.00	613.00	624.00	630.00	625.00	620.00	614.00	604.00	610.00	614.00	621.00	635.00	641.00	648.00	652.00	656.00	660.00	653.00	653.00
506.00	499.00	492.00	490.00	486.00	483.00	479.00	475.00	472.00	469.00	468.00	468.00	468.00	468.00	469.00	471.00	473.00	477.00	482.00	485.00	484.00	486.00	488.00	490.00	495.00	497.00	501.00	503.00	509.00	512.00	514.00	517.00	521.00	533.00	537.00	541.00	545.00	551.00	554.00	558.00	562.00	565.00	574.00	576.00	580.00	581.00	581.00	583.00	585.00	588.00	591.00	597.00	598.00	598.00	597.00	587.00	585.00	584.00	583.00	582.00	579.00	576.00	572.00	569.00	564.00	559.00	557.00	557.00	557.00	560.00	563.00	565.00	567.00	570.00	568.00	566.00	564.00	560.00	551.00	546.00	543.00	541.00	536.00	538.00	541.00	545.00	554.00	563.00	566.00	568.00	565.00	555.00	551.00	554.00	556.00	554.00	544.00	542.00	540.00	537.00	533.00	535.00	534.00	535.00	533.00	531.00	534.00	537.00	538.00	545.00	553.00	559.00	559.00	554.00	541.00	537.00	539.00	539.00	537.00	536.00	534.00	530.00	527.00	526.00	524.00	521.00	516.00	511.00	509.00	511.00	514.00	520.00	518.00	513.00	514.00	517.00	514.00	510.00	505.00	498.00	498.00	499.00	499.00	500.00	501.00	501.00	503.00	505.00	506.00	508.00	509.00	511.00	514.00	519.00	521.00	525.00	525.00	522.00	521.00	526.00	527.00	529.00	530.00	531.00	533.00	535.00	537.00	541.00	541.00	538.00	539.00	539.00	541.00	541.00	543.00	544.00	549.00	551.00	553.00	557.00	563.00	595.00	610.00	595.00	585.00	592.00	591.00	599.00	631.00	624.00	658.00	628.00	597.00	597.00	597.00	599.00	603.00	608.00	610.00	605.00	607.00	615.00	622.00	629.00	629.00	623.00	617.00	618.00	621.00	624.00	627.00	633.00	652.00	658.00	662.00	664.00	684.00	676.00	678.00	666.00	659.00	654.00	651.00	646.00	650.00	641.00	633.00	630.00	629.00	626.00	627.00	632.00	632.00	632.00	624.00	617.00	613.00	613.00	611.00	619.00	629.00	623.00	617.00	616.00	604.00	608.00	612.00	617.00	625.00	633.00	641.00	645.00	655.00	655.00	648.00	648.00
506.00	499.00	487.00	486.00	481.00	479.00	475.00	472.00	470.00	467.00	470.00	468.00	467.00	468.00	468.00	473.00	475.00	476.00	480.00	486.00	488.00	489.00	490.00	493.00	494.00	497.00	499.00	504.00	512.00	516.00	518.00	520.00	523.00	533.00	537.00	541.00	544.00	550.00	553.00	557.00	560.00	564.00	572.00	575.00	579.00	582.00	583.00	584.00	586.00	589.00	592.00	597.00	599.00	599.00	597.00	586.00	584.00	581.00	580.00	579.00	575.00	572.00	570.00	567.00	562.00	557.00	555.00	555.00	556.00	558.00	561.00	563.00	565.00	567.00	566.00	564.00	560.00	558.00	548.00	546.00	542.00	539.00	536.00	536.00	540.00	543.00	551.00	561.00	564.00	567.00	565.00	555.00	549.00	549.00	551.00	550.00	547.00	544.00	544.00	540.00	534.00	532.00	532.00	531.00	530.00	529.00	533.00	534.00	534.00	542.00	549.00	557.00	572.00	556.00	541.00	536.00	534.00	535.00	535.00	536.00	534.00	532.00	528.00	523.00	521.00	516.00	514.00	510.00	509.00	508.00	512.00	517.00	515.00	512.00	513.00	516.00	510.00	509.00	506.00	497.00	498.00	500.00	501.00	501.00	502.00	502.00	502.00	503.00	505.00	508.00	508.00	510.00	512.00	514.00	521.00	524.00	522.00	519.00	523.00	532.00	531.00	532.00	534.00	534.00	537.00	538.00	540.00	536.00	537.00	537.00	537.00	539.00	541.00	542.00	543.00	544.00	546.00	548.00	551.00	555.00	559.00	568.00	570.00	573.00	575.00	590.00	591.00	603.00	647.00	612.00	597.00	592.00	592.00	593.00	596.00	602.00	603.00	601.00	600.00	606.00	610.00	616.00	623.00	625.00	627.00	625.00	619.00	614.00	624.00	629.00	629.00	631.00	643.00	650.00	652.00	655.00	665.00	666.00	668.00	671.00	663.00	659.00	659.00	653.00	651.00	642.00	638.00	634.00	634.00	631.00	622.00	623.00	626.00	625.00	629.00	622.00	620.00	617.00	611.00	617.00	622.00	620.00	615.00	611.00	602.00	610.00	616.00	621.00	633.00	636.00	638.00	644.00	652.00	651.00	643.00	643.00
505.00	500.00	492.00	488.00	483.00	479.00	471.00	469.00	467.00	467.00	468.00	468.00	469.00	471.00	476.00	483.00	485.00	485.00	482.00	483.00	486.00	491.00	496.00	501.00	501.00	500.00	500.00	502.00	510.00	514.00	518.00	521.00	523.00	532.00	536.00	538.00	540.00	545.00	548.00	552.00	555.00	558.00	565.00	569.00	579.00	583.00	584.00	587.00	588.00	591.00	594.00	598.00	598.00	598.00	596.00	585.00	582.00	578.00	576.00	574.00	572.00	571.00	569.00	568.00	564.00	559.00	555.00	553.00	552.00	554.00	557.00	558.00	560.00	560.00	559.00	558.00	554.00	552.00	546.00	543.00	539.00	537.00	534.00	534.00	537.00	541.00	548.00	557.00	561.00	564.00	565.00	556.00	554.00	549.00	544.00	540.00	545.00	542.00	537.00	537.00	537.00	537.00	534.00	530.00	527.00	525.00	527.00	530.00	533.00	544.00	557.00	563.00	562.00	553.00	541.00	536.00	531.00	527.00	527.00	529.00	530.00	528.00	526.00	521.00	520.00	518.00	517.00	512.00	507.00	506.00	506.00	509.00	512.00	508.00	510.00	511.00	503.00	500.00	498.00	498.00	498.00	501.00	505.00	509.00	510.00	508.00	506.00	504.00	504.00	508.00	508.00	509.00	511.00	511.00	514.00	515.00	515.00	518.00	525.00	533.00	535.00	535.00	537.00	539.00	536.00	535.00	534.00	532.00	534.00	536.00	540.00	542.00	546.00	546.00	546.00	545.00	546.00	547.00	548.00	548.00	551.00	563.00	565.00	568.00	571.00	577.00	581.00	578.00	576.00	580.00	581.00	586.00	591.00	593.00	601.00	597.00	594.00	598.00	603.00	612.00	614.00	618.00	619.00	617.00	614.00	616.00	614.00	612.00	620.00	621.00	623.00	631.00	637.00	651.00	640.00	643.00	647.00	653.00	661.00	668.00	660.00	655.00	651.00	651.00	647.00	641.00	639.00	640.00	636.00	636.00	623.00	620.00	618.00	614.00	615.00	631.00	625.00	620.00	613.00	607.00	607.00	612.00	610.00	612.00	602.00	611.00	618.00	621.00	635.00	642.00	650.00	648.00	648.00	644.00	639.00	635.00
503.00	497.00	490.00	485.00	481.00	476.00	468.00	467.00	467.00	467.00	467.00	468.00	470.00	475.00	479.00	488.00	490.00	490.00	489.00	484.00	486.00	491.00	497.00	505.00	506.00	505.00	503.00	504.00	508.00	512.00	515.00	518.00	521.00	530.00	533.00	534.00	536.00	541.00	544.00	548.00	551.00	555.00	564.00	569.00	579.00	582.00	585.00	587.00	589.00	591.00	593.00	598.00	598.00	597.00	595.00	584.00	581.00	578.00	576.00	575.00	575.00	575.00	573.00	572.00	567.00	561.00	556.00	552.00	550.00	552.00	554.00	555.00	556.00	557.00	556.00	555.00	553.00	550.00	544.00	541.00	538.00	535.00	532.00	533.00	536.00	540.00	546.00	556.00	560.00	563.00	563.00	556.00	552.00	549.00	544.00	538.00	546.00	543.00	537.00	534.00	531.00	533.00	534.00	531.00	526.00	523.00	524.00	529.00	531.00	546.00	572.00	586.00	562.00	555.00	541.00	536.00	532.00	528.00	524.00	527.00	528.00	527.00	524.00	520.00	520.00	520.00	517.00	515.00	507.00	505.00	504.00	505.00	510.00	506.00	510.00	510.00	505.00	500.00	497.00	497.00	498.00	503.00	508.00	509.00	510.00	512.00	509.00	507.00	506.00	508.00	510.00	510.00	512.00	513.00	513.00	514.00	516.00	521.00	528.00	534.00	532.00	531.00	535.00	534.00	533.00	531.00	532.00	533.00	533.00	535.00	540.00	543.00	549.00	551.00	553.00	550.00	547.00	548.00	549.00	549.00	550.00	559.00	561.00	563.00	563.00	568.00	571.00	572.00	574.00	576.00	580.00	590.00	591.00	596.00	599.00	593.00	593.00	599.00	604.00	607.00	610.00	616.00	615.00	615.00	612.00	611.00	610.00	610.00	616.00	618.00	619.00	622.00	630.00	634.00	635.00	638.00	641.00	649.00	654.00	662.00	663.00	651.00	647.00	644.00	642.00	638.00	633.00	634.00	630.00	628.00	622.00	626.00	625.00	611.00	616.00	622.00	627.00	622.00	614.00	606.00	605.00	607.00	607.00	609.00	602.00	606.00	612.00	616.00	635.00	645.00	650.00	645.00	644.00	645.00	637.00	633.00
500.00	494.00	485.00	483.00	477.00	473.00	466.00	467.00	467.00	466.00	467.00	469.00	474.00	477.00	480.00	490.00	495.00	497.00	494.00	488.00	488.00	491.00	497.00	508.00	511.00	509.00	508.00	507.00	507.00	510.00	514.00	517.00	521.00	527.00	529.00	532.00	534.00	541.00	544.00	547.00	551.00	555.00	563.00	566.00	578.00	581.00	585.00	587.00	588.00	590.00	594.00	598.00	597.00	595.00	594.00	584.00	581.00	579.00	578.00	578.00	579.00	579.00	578.00	576.00	570.00	563.00	558.00	553.00	549.00	549.00	551.00	552.00	553.00	553.00	553.00	551.00	550.00	548.00	542.00	539.00	536.00	533.00	532.00	534.00	535.00	538.00	544.00	552.00	560.00	562.00	560.00	553.00	547.00	545.00	542.00	537.00	543.00	541.00	539.00	537.00	530.00	527.00	532.00	531.00	526.00	523.00	523.00	527.00	530.00	543.00	556.00	579.00	564.00	551.00	541.00	534.00	528.00	525.00	523.00	526.00	527.00	526.00	525.00	518.00	517.00	517.00	516.00	514.00	507.00	505.00	504.00	504.00	509.00	505.00	507.00	511.00	504.00	501.00	497.00	497.00	497.00	503.00	506.00	507.00	507.00	512.00	512.00	511.00	508.00	508.00	510.00	511.00	513.00	513.00	514.00	517.00	519.00	521.00	526.00	529.00	529.00	529.00	531.00	529.00	530.00	530.00	530.00	532.00	532.00	535.00	541.00	544.00	548.00	551.00	555.00	553.00	551.00	549.00	550.00	549.00	551.00	557.00	559.00	561.00	563.00	567.00	570.00	575.00	577.00	577.00	581.00	587.00	592.00	597.00	597.00	590.00	592.00	597.00	604.00	603.00	604.00	612.00	612.00	611.00	608.00	607.00	608.00	610.00	614.00	618.00	622.00	626.00	646.00	643.00	641.00	644.00	646.00	655.00	656.00	661.00	662.00	653.00	646.00	645.00	643.00	639.00	636.00	632.00	629.00	629.00	629.00	630.00	624.00	610.00	624.00	614.00	621.00	624.00	616.00	604.00	604.00	602.00	605.00	606.00	605.00	607.00	612.00	621.00	640.00	645.00	643.00	640.00	641.00	643.00	636.00	631.00
497.00	493.00	483.00	478.00	475.00	471.00	466.00	466.00	467.00	467.00	468.00	471.00	475.00	482.00	481.00	490.00	498.00	501.00	499.00	492.00	492.00	493.00	498.00	509.00	515.00	514.00	513.00	512.00	510.00	511.00	513.00	517.00	520.00	526.00	529.00	532.00	535.00	541.00	545.00	549.00	553.00	557.00	565.00	569.00	576.00	580.00	584.00	586.00	588.00	590.00	593.00	597.00	596.00	595.00	592.00	584.00	582.00	581.00	581.00	581.00	583.00	583.00	582.00	581.00	573.00	564.00	559.00	555.00	550.00	546.00	547.00	549.00	550.00	549.00	549.00	549.00	547.00	545.00	540.00	537.00	534.00	531.00	530.00	532.00	536.00	538.00	544.00	553.00	559.00	561.00	558.00	551.00	546.00	542.00	538.00	535.00	540.00	537.00	534.00	534.00	532.00	526.00	528.00	530.00	525.00	522.00	521.00	527.00	530.00	539.00	549.00	554.00	555.00	547.00	538.00	534.00	529.00	524.00	523.00	525.00	526.00	526.00	524.00	518.00	514.00	514.00	513.00	509.00	506.00	503.00	502.00	502.00	507.00	504.00	505.00	509.00	504.00	501.00	500.00	497.00	497.00	501.00	502.00	502.00	505.00	512.00	513.00	515.00	511.00	509.00	509.00	511.00	514.00	514.00	516.00	515.00	517.00	519.00	521.00	524.00	524.00	525.00	526.00	528.00	529.00	529.00	530.00	531.00	537.00	540.00	546.00	547.00	554.00	557.00	557.00	557.00	553.00	552.00	551.00	553.00	554.00	562.00	564.00	564.00	565.00	572.00	576.00	577.00	577.00	579.00	586.00	591.00	597.00	596.00	590.00	588.00	591.00	599.00	602.00	601.00	605.00	610.00	607.00	605.00	605.00	607.00	612.00	615.00	616.00	617.00	618.00	623.00	639.00	647.00	646.00	652.00	656.00	666.00	662.00	671.00	665.00	659.00	653.00	658.00	656.00	647.00	641.00	637.00	635.00	634.00	629.00	624.00	621.00	609.00	608.00	609.00	614.00	617.00	615.00	605.00	601.00	599.00	599.00	600.00	610.00	618.00	621.00	626.00	640.00	634.00	629.00	636.00	637.00	640.00	635.00	631.00
490.00	482.00	479.00	475.00	470.00	465.00	465.00	465.00	466.00	466.00	470.00	473.00	476.00	484.00	488.00	492.00	497.00	504.00	507.00	505.00	503.00	499.00	498.00	509.00	517.00	519.00	519.00	519.00	518.00	519.00	518.00	520.00	522.00	533.00	536.00	539.00	542.00	547.00	549.00	553.00	556.00	559.00	566.00	569.00	575.00	580.00	582.00	583.00	584.00	585.00	589.00	593.00	593.00	592.00	590.00	585.00	586.00	587.00	586.00	586.00	587.00	585.00	582.00	578.00	569.00	559.00	558.00	554.00	552.00	543.00	541.00	540.00	541.00	543.00	542.00	542.00	541.00	539.00	534.00	532.00	529.00	528.00	531.00	532.00	534.00	536.00	543.00	552.00	557.00	555.00	553.00	547.00	543.00	540.00	538.00	532.00	531.00	534.00	537.00	532.00	526.00	523.00	521.00	523.00	520.00	518.00	520.00	531.00	534.00	542.00	541.00	538.00	537.00	535.00	530.00	528.00	526.00	523.00	520.00	524.00	525.00	526.00	526.00	523.00	521.00	516.00	517.00	515.00	507.00	503.00	501.00	501.00	502.00	502.00	501.00	505.00	506.00	501.00	499.00	496.00	497.00	497.00	499.00	503.00	506.00	507.00	512.00	516.00	517.00	511.00	511.00	511.00	512.00	514.00	516.00	516.00	518.00	518.00	520.00	522.00	522.00	523.00	523.00	526.00	527.00	527.00	529.00	533.00	533.00	535.00	539.00	542.00	551.00	552.00	550.00	551.00	559.00	557.00	556.00	554.00	554.00	556.00	556.00	559.00	560.00	566.00	568.00	571.00	574.00	577.00	580.00	591.00	587.00	584.00	584.00	589.00	595.00	598.00	594.00	597.00	603.00	602.00	598.00	605.00	608.00	613.00	616.00	617.00	623.00	627.00	627.00	627.00	629.00	631.00	634.00	638.00	641.00	653.00	659.00	669.00	655.00	657.00	655.00	645.00	641.00	639.00	635.00	635.00	636.00	637.00	639.00	631.00	626.00	621.00	622.00	614.00	603.00	603.00	603.00	604.00	605.00	603.00	601.00	596.00	608.00	607.00	615.00	618.00	616.00	618.00	627.00	628.00	631.00	632.00	636.00	632.00
488.00	480.00	473.00	471.00	467.00	465.00	465.00	465.00	465.00	466.00	471.00	474.00	475.00	483.00	487.00	495.00	499.00	502.00	508.00	511.00	509.00	504.00	501.00	507.00	517.00	520.00	521.00	521.00	522.00	523.00	523.00	524.00	525.00	535.00	538.00	542.00	545.00	551.00	553.00	556.00	558.00	561.00	566.00	569.00	574.00	579.00	581.00	581.00	583.00	585.00	586.00	591.00	591.00	591.00	589.00	588.00	587.00	587.00	586.00	587.00	584.00	581.00	577.00	573.00	563.00	554.00	554.00	552.00	552.00	545.00	542.00	539.00	538.00	539.00	539.00	539.00	538.00	536.00	532.00	529.00	528.00	528.00	530.00	534.00	535.00	537.00	542.00	552.00	554.00	552.00	550.00	544.00	543.00	541.00	537.00	533.00	528.00	533.00	538.00	535.00	523.00	520.00	518.00	519.00	517.00	517.00	520.00	529.00	532.00	541.00	541.00	536.00	533.00	530.00	527.00	525.00	523.00	520.00	517.00	519.00	523.00	525.00	526.00	525.00	522.00	520.00	520.00	518.00	508.00	504.00	502.00	500.00	500.00	499.00	499.00	502.00	508.00	505.00	499.00	496.00	496.00	496.00	499.00	503.00	507.00	509.00	510.00	515.00	517.00	515.00	514.00	513.00	513.00	514.00	516.00	517.00	517.00	518.00	519.00	522.00	523.00	523.00	524.00	526.00	526.00	528.00	530.00	532.00	533.00	534.00	539.00	540.00	547.00	545.00	547.00	551.00	554.00	560.00	561.00	559.00	560.00	557.00	557.00	559.00	560.00	565.00	567.00	571.00	574.00	577.00	587.00	586.00	582.00	579.00	583.00	587.00	589.00	590.00	591.00	597.00	603.00	597.00	597.00	604.00	606.00	609.00	612.00	615.00	621.00	626.00	631.00	631.00	637.00	637.00	638.00	641.00	642.00	652.00	656.00	663.00	654.00	650.00	651.00	644.00	638.00	634.00	630.00	630.00	629.00	634.00	641.00	633.00	627.00	626.00	629.00	618.00	613.00	602.00	597.00	599.00	601.00	603.00	602.00	596.00	602.00	609.00	617.00	620.00	609.00	620.00	626.00	622.00	626.00	629.00	634.00	635.00
493.00	486.00	476.00	470.00	467.00	465.00	465.00	465.00	466.00	466.00	473.00	475.00	476.00	481.00	485.00	494.00	499.00	506.00	509.00	512.00	511.00	509.00	507.00	510.00	518.00	521.00	522.00	523.00	524.00	526.00	527.00	527.00	528.00	536.00	540.00	544.00	547.00	552.00	555.00	556.00	559.00	561.00	565.00	567.00	572.00	576.00	579.00	580.00	581.00	582.00	584.00	587.00	589.00	589.00	588.00	589.00	588.00	586.00	584.00	585.00	580.00	577.00	576.00	571.00	559.00	550.00	549.00	548.00	549.00	546.00	544.00	541.00	538.00	535.00	535.00	536.00	534.00	533.00	528.00	527.00	527.00	528.00	531.00	533.00	536.00	539.00	544.00	551.00	550.00	548.00	546.00	541.00	539.00	537.00	536.00	533.00	525.00	531.00	538.00	534.00	526.00	522.00	517.00	515.00	515.00	517.00	520.00	528.00	531.00	540.00	542.00	539.00	534.00	531.00	526.00	524.00	522.00	521.00	515.00	516.00	519.00	522.00	523.00	522.00	522.00	518.00	517.00	518.00	512.00	507.00	506.00	504.00	498.00	499.00	498.00	500.00	505.00	503.00	499.00	495.00	496.00	495.00	497.00	501.00	505.00	512.00	512.00	513.00	517.00	519.00	517.00	515.00	515.00	516.00	517.00	517.00	517.00	519.00	521.00	523.00	523.00	523.00	524.00	528.00	529.00	531.00	534.00	536.00	537.00	538.00	536.00	538.00	543.00	544.00	546.00	549.00	553.00	555.00	562.00	565.00	565.00	563.00	563.00	562.00	563.00	563.00	565.00	568.00	572.00	578.00	584.00	579.00	577.00	578.00	581.00	582.00	585.00	586.00	589.00	598.00	599.00	595.00	598.00	608.00	609.00	611.00	612.00	618.00	627.00	630.00	635.00	638.00	644.00	652.00	651.00	650.00	648.00	649.00	654.00	654.00	648.00	645.00	658.00	647.00	644.00	637.00	625.00	623.00	624.00	632.00	641.00	636.00	632.00	627.00	621.00	619.00	619.00	606.00	604.00	594.00	596.00	595.00	598.00	594.00	610.00	608.00	609.00	610.00	612.00	621.00	618.00	617.00	623.00	627.00	630.00	631.00
494.00	487.00	476.00	469.00	465.00	465.00	465.00	465.00	466.00	467.00	473.00	476.00	477.00	479.00	482.00	492.00	496.00	503.00	507.00	507.00	509.00	511.00	512.00	511.00	520.00	522.00	523.00	525.00	527.00	527.00	528.00	529.00	530.00	536.00	539.00	543.00	546.00	552.00	553.00	554.00	557.00	559.00	562.00	565.00	569.00	572.00	577.00	578.00	579.00	580.00	582.00	585.00	585.00	587.00	587.00	589.00	586.00	584.00	583.00	583.00	578.00	574.00	571.00	568.00	555.00	545.00	544.00	545.00	544.00	547.00	547.00	544.00	541.00	534.00	532.00	531.00	530.00	528.00	526.00	526.00	527.00	528.00	532.00	534.00	537.00	540.00	547.00	552.00	548.00	543.00	543.00	538.00	536.00	533.00	530.00	530.00	523.00	527.00	534.00	529.00	529.00	523.00	517.00	514.00	514.00	517.00	520.00	527.00	531.00	540.00	545.00	541.00	538.00	534.00	531.00	529.00	526.00	523.00	515.00	515.00	516.00	518.00	518.00	518.00	519.00	516.00	513.00	519.00	513.00	510.00	509.00	506.00	497.00	497.00	498.00	497.00	502.00	504.00	500.00	495.00	495.00	495.00	497.00	501.00	504.00	511.00	514.00	515.00	516.00	521.00	521.00	519.00	518.00	519.00	520.00	520.00	521.00	521.00	525.00	526.00	524.00	525.00	526.00	534.00	532.00	533.00	537.00	540.00	540.00	541.00	542.00	541.00	543.00	547.00	548.00	550.00	554.00	558.00	561.00	567.00	569.00	569.00	569.00	575.00	570.00	565.00	566.00	567.00	571.00	573.00	580.00	574.00	576.00	579.00	582.00	583.00	583.00	585.00	588.00	592.00	593.00	595.00	600.00	611.00	613.00	617.00	618.00	620.00	635.00	648.00	685.00	734.00	653.00	659.00	664.00	660.00	654.00	652.00	657.00	654.00	647.00	642.00	654.00	656.00	652.00	640.00	629.00	622.00	621.00	626.00	639.00	636.00	630.00	623.00	619.00	614.00	612.00	607.00	606.00	595.00	592.00	590.00	591.00	591.00	600.00	600.00	606.00	598.00	606.00	610.00	610.00	615.00	623.00	626.00	625.00	629.00
489.00	479.00	469.00	465.00	465.00	464.00	464.00	465.00	467.00	470.00	476.00	481.00	484.00	483.00	483.00	486.00	488.00	492.00	495.00	499.00	503.00	508.00	513.00	519.00	523.00	525.00	527.00	529.00	527.00	527.00	528.00	529.00	530.00	535.00	537.00	538.00	541.00	546.00	548.00	550.00	552.00	554.00	558.00	560.00	565.00	567.00	574.00	575.00	576.00	576.00	577.00	580.00	582.00	584.00	585.00	585.00	581.00	580.00	579.00	579.00	574.00	570.00	566.00	561.00	551.00	543.00	540.00	538.00	538.00	539.00	541.00	544.00	543.00	535.00	531.00	527.00	527.00	524.00	525.00	528.00	531.00	533.00	540.00	542.00	542.00	544.00	549.00	549.00	544.00	540.00	537.00	531.00	529.00	529.00	527.00	526.00	519.00	520.00	526.00	522.00	520.00	517.00	511.00	511.00	512.00	520.00	527.00	534.00	536.00	549.00	546.00	541.00	537.00	536.00	534.00	533.00	528.00	523.00	515.00	513.00	512.00	511.00	512.00	511.00	514.00	511.00	508.00	514.00	516.00	512.00	508.00	506.00	504.00	502.00	499.00	495.00	496.00	498.00	498.00	495.00	495.00	496.00	499.00	503.00	507.00	514.00	515.00	520.00	521.00	526.00	525.00	524.00	525.00	525.00	525.00	525.00	528.00	529.00	533.00	532.00	532.00	532.00	535.00	537.00	538.00	542.00	540.00	547.00	549.00	550.00	551.00	548.00	546.00	547.00	549.00	552.00	558.00	560.00	563.00	566.00	568.00	579.00	581.00	580.00	574.00	580.00	575.00	571.00	569.00	570.00	572.00	578.00	581.00	585.00	595.00	592.00	592.00	589.00	591.00	594.00	592.00	596.00	599.00	606.00	611.00	616.00	622.00	638.00	728.00	751.00	837.00	863.00	786.00	750.00	702.00	681.00	677.00	667.00	661.00	656.00	646.00	633.00	638.00	651.00	654.00	651.00	628.00	620.00	617.00	620.00	626.00	618.00	624.00	627.00	621.00	608.00	602.00	597.00	595.00	598.00	601.00	594.00	588.00	584.00	597.00	591.00	591.00	604.00	615.00	618.00	620.00	621.00	625.00	627.00	619.00	624.00
485.00	477.00	468.00	465.00	465.00	464.00	464.00	464.00	467.00	471.00	478.00	481.00	485.00	489.00	488.00	486.00	488.00	488.00	490.00	500.00	505.00	510.00	513.00	520.00	524.00	526.00	529.00	530.00	528.00	527.00	527.00	528.00	529.00	533.00	535.00	537.00	540.00	544.00	546.00	548.00	550.00	552.00	557.00	559.00	563.00	566.00	573.00	574.00	574.00	575.00	576.00	579.00	581.00	582.00	585.00	583.00	580.00	577.00	576.00	576.00	571.00	566.00	563.00	558.00	548.00	540.00	538.00	535.00	534.00	534.00	535.00	539.00	541.00	534.00	529.00	526.00	524.00	524.00	526.00	530.00	534.00	539.00	546.00	547.00	547.00	549.00	549.00	550.00	545.00	543.00	540.00	533.00	531.00	529.00	530.00	528.00	518.00	518.00	520.00	519.00	518.00	512.00	510.00	511.00	511.00	521.00	527.00	539.00	540.00	544.00	540.00	537.00	534.00	534.00	533.00	531.00	529.00	526.00	517.00	514.00	513.00	512.00	510.00	509.00	509.00	508.00	506.00	510.00	514.00	514.00	510.00	510.00	507.00	505.00	502.00	495.00	494.00	495.00	495.00	494.00	494.00	497.00	499.00	501.00	504.00	510.00	515.00	520.00	523.00	525.00	522.00	519.00	521.00	523.00	522.00	525.00	528.00	531.00	537.00	536.00	535.00	536.00	536.00	541.00	544.00	542.00	543.00	543.00	548.00	547.00	553.00	552.00	549.00	548.00	549.00	552.00	556.00	558.00	561.00	567.00	578.00	582.00	582.00	582.00	580.00	585.00	577.00	574.00	573.00	572.00	573.00	581.00	586.00	587.00	592.00	598.00	596.00	593.00	594.00	603.00	596.00	597.00	601.00	606.00	612.00	618.00	626.00	637.00	716.00	779.00	837.00	879.00	816.00	770.00	730.00	743.00	706.00	673.00	661.00	654.00	645.00	633.00	634.00	673.00	647.00	672.00	630.00	619.00	614.00	615.00	618.00	615.00	622.00	619.00	619.00	609.00	603.00	599.00	592.00	593.00	599.00	591.00	583.00	583.00	588.00	584.00	591.00	596.00	616.00	623.00	620.00	622.00	626.00	626.00	616.00	619.00
479.00	473.00	464.00	464.00	464.00	464.00	464.00	467.00	471.00	472.00	480.00	484.00	487.00	496.00	496.00	495.00	497.00	498.00	498.00	497.00	501.00	506.00	510.00	518.00	524.00	527.00	530.00	530.00	528.00	527.00	527.00	527.00	528.00	531.00	533.00	535.00	537.00	539.00	541.00	544.00	547.00	548.00	553.00	555.00	559.00	562.00	570.00	570.00	571.00	572.00	573.00	578.00	579.00	581.00	583.00	581.00	577.00	573.00	571.00	569.00	565.00	562.00	559.00	556.00	547.00	538.00	533.00	531.00	530.00	527.00	527.00	528.00	531.00	532.00	526.00	522.00	520.00	523.00	531.00	535.00	539.00	544.00	554.00	557.00	557.00	558.00	557.00	550.00	546.00	541.00	540.00	536.00	535.00	536.00	533.00	530.00	518.00	516.00	514.00	513.00	510.00	509.00	507.00	507.00	509.00	519.00	526.00	541.00	538.00	535.00	533.00	531.00	527.00	526.00	529.00	528.00	527.00	525.00	520.00	517.00	517.00	515.00	514.00	511.00	509.00	507.00	504.00	502.00	508.00	509.00	512.00	513.00	506.00	503.00	501.00	500.00	492.00	493.00	492.00	494.00	494.00	498.00	500.00	502.00	506.00	514.00	516.00	514.00	519.00	518.00	518.00	513.00	514.00	514.00	518.00	523.00	525.00	529.00	528.00	528.00	526.00	527.00	530.00	534.00	536.00	534.00	534.00	540.00	539.00	540.00	547.00	550.00	557.00	557.00	556.00	558.00	562.00	564.00	565.00	566.00	567.00	571.00	574.00	573.00	577.00	583.00	586.00	582.00	578.00	578.00	580.00	578.00	581.00	584.00	590.00	593.00	596.00	605.00	611.00	602.00	601.00	601.00	603.00	614.00	618.00	622.00	631.00	659.00	733.00	803.00	806.00	772.00	783.00	812.00	851.00	810.00	812.00	755.00	699.00	658.00	638.00	638.00	628.00	623.00	620.00	622.00	619.00	622.00	616.00	609.00	610.00	609.00	615.00	610.00	606.00	596.00	591.00	592.00	590.00	586.00	590.00	592.00	589.00	581.00	582.00	591.00	600.00	607.00	612.00	616.00	615.00	618.00	621.00	623.00	617.00	613.00
481.00	472.00	464.00	463.00	464.00	463.00	464.00	466.00	471.00	474.00	480.00	483.00	487.00	496.00	501.00	500.00	502.00	503.00	505.00	501.00	500.00	504.00	508.00	516.00	524.00	527.00	529.00	530.00	528.00	527.00	526.00	526.00	527.00	530.00	531.00	533.00	535.00	538.00	541.00	543.00	545.00	547.00	552.00	554.00	558.00	561.00	567.00	569.00	570.00	570.00	572.00	576.00	578.00	580.00	583.00	582.00	578.00	575.00	570.00	567.00	562.00	561.00	557.00	554.00	546.00	541.00	538.00	533.00	530.00	525.00	524.00	524.00	526.00	529.00	524.00	519.00	521.00	526.00	533.00	538.00	542.00	545.00	554.00	559.00	561.00	564.00	561.00	555.00	550.00	546.00	545.00	540.00	538.00	538.00	535.00	531.00	519.00	517.00	515.00	512.00	509.00	508.00	506.00	506.00	508.00	518.00	523.00	535.00	534.00	530.00	529.00	529.00	529.00	522.00	526.00	526.00	524.00	521.00	520.00	519.00	519.00	519.00	518.00	516.00	513.00	510.00	507.00	501.00	505.00	506.00	510.00	514.00	509.00	507.00	503.00	498.00	490.00	491.00	492.00	493.00	495.00	501.00	505.00	507.00	508.00	514.00	511.00	512.00	517.00	515.00	512.00	511.00	511.00	511.00	520.00	522.00	523.00	527.00	524.00	524.00	522.00	524.00	527.00	529.00	530.00	530.00	532.00	535.00	536.00	540.00	546.00	547.00	558.00	556.00	556.00	560.00	563.00	560.00	560.00	561.00	564.00	566.00	569.00	573.00	576.00	581.00	586.00	584.00	579.00	582.00	587.00	580.00	584.00	587.00	589.00	593.00	599.00	602.00	607.00	605.00	608.00	604.00	606.00	614.00	623.00	634.00	650.00	684.00	707.00	730.00	720.00	729.00	789.00	799.00	821.00	809.00	813.00	775.00	714.00	651.00	628.00	631.00	632.00	629.00	620.00	616.00	614.00	613.00	614.00	608.00	607.00	605.00	610.00	605.00	603.00	595.00	589.00	585.00	583.00	580.00	584.00	587.00	585.00	584.00	582.00	592.00	596.00	598.00	612.00	615.00	615.00	616.00	618.00	620.00	615.00	612.00
478.00	468.00	463.00	463.00	463.00	465.00	470.00	473.00	477.00	480.00	484.00	488.00	493.00	502.00	507.00	513.00	514.00	516.00	516.00	513.00	510.00	507.00	509.00	516.00	525.00	528.00	529.00	529.00	527.00	526.00	525.00	524.00	524.00	527.00	529.00	530.00	532.00	536.00	538.00	540.00	542.00	545.00	550.00	552.00	556.00	560.00	566.00	567.00	567.00	568.00	569.00	573.00	576.00	578.00	580.00	581.00	579.00	575.00	571.00	567.00	559.00	556.00	552.00	549.00	541.00	537.00	536.00	532.00	531.00	526.00	523.00	520.00	518.00	518.00	516.00	516.00	526.00	532.00	541.00	543.00	547.00	551.00	556.00	561.00	567.00	570.00	568.00	565.00	562.00	559.00	555.00	548.00	543.00	538.00	535.00	531.00	526.00	522.00	518.00	513.00	509.00	506.00	504.00	504.00	507.00	515.00	519.00	524.00	526.00	528.00	524.00	519.00	518.00	518.00	523.00	523.00	521.00	517.00	515.00	518.00	517.00	518.00	521.00	518.00	517.00	513.00	508.00	500.00	500.00	503.00	506.00	510.00	503.00	502.00	499.00	497.00	492.00	490.00	492.00	496.00	500.00	506.00	510.00	509.00	509.00	510.00	506.00	508.00	508.00	506.00	505.00	506.00	507.00	510.00	515.00	515.00	516.00	517.00	518.00	519.00	520.00	522.00	523.00	525.00	527.00	529.00	530.00	534.00	535.00	537.00	541.00	542.00	549.00	548.00	553.00	556.00	552.00	556.00	560.00	562.00	562.00	571.00	575.00	574.00	578.00	593.00	592.00	585.00	584.00	584.00	592.00	585.00	587.00	592.00	598.00	596.00	598.00	604.00	608.00	613.00	619.00	610.00	611.00	624.00	626.00	631.00	624.00	644.00	621.00	622.00	634.00	692.00	770.00	772.00	768.00	785.00	791.00	770.00	664.00	638.00	614.00	623.00	625.00	638.00	641.00	631.00	617.00	615.00	613.00	610.00	603.00	604.00	602.00	595.00	594.00	591.00	593.00	593.00	587.00	581.00	575.00	574.00	571.00	571.00	580.00	587.00	594.00	604.00	615.00	615.00	611.00	610.00	611.00	612.00	608.00	605.00
475.00	466.00	463.00	463.00	464.00	463.00	473.00	475.00	477.00	480.00	485.00	489.00	493.00	500.00	506.00	513.00	516.00	518.00	522.00	518.00	515.00	513.00	515.00	517.00	526.00	528.00	528.00	528.00	527.00	525.00	524.00	522.00	522.00	526.00	528.00	529.00	531.00	534.00	536.00	539.00	541.00	543.00	549.00	551.00	556.00	558.00	565.00	565.00	565.00	566.00	568.00	572.00	574.00	577.00	579.00	579.00	576.00	573.00	570.00	566.00	558.00	554.00	551.00	548.00	542.00	535.00	532.00	529.00	528.00	526.00	524.00	521.00	518.00	516.00	515.00	515.00	525.00	532.00	544.00	547.00	550.00	553.00	557.00	561.00	567.00	571.00	572.00	572.00	569.00	565.00	561.00	550.00	545.00	541.00	538.00	534.00	522.00	519.00	518.00	516.00	508.00	506.00	504.00	503.00	505.00	511.00	515.00	528.00	531.00	531.00	530.00	518.00	515.00	517.00	524.00	524.00	519.00	516.00	511.00	514.00	514.00	513.00	516.00	514.00	515.00	513.00	509.00	501.00	498.00	500.00	503.00	508.00	507.00	505.00	500.00	496.00	490.00	491.00	491.00	497.00	503.00	509.00	506.00	505.00	506.00	507.00	504.00	504.00	504.00	504.00	505.00	506.00	507.00	509.00	511.00	513.00	514.00	515.00	517.00	520.00	521.00	522.00	523.00	526.00	527.00	529.00	530.00	534.00	534.00	535.00	538.00	540.00	544.00	546.00	549.00	551.00	553.00	557.00	561.00	566.00	569.00	571.00	575.00	579.00	579.00	588.00	589.00	586.00	588.00	587.00	594.00	590.00	588.00	588.00	601.00	604.00	608.00	606.00	610.00	615.00	618.00	615.00	614.00	622.00	618.00	618.00	614.00	623.00	614.00	614.00	616.00	626.00	692.00	716.00	752.00	758.00	773.00	717.00	719.00	642.00	607.00	616.00	621.00	635.00	644.00	646.00	620.00	616.00	609.00	617.00	607.00	609.00	607.00	601.00	597.00	593.00	598.00	593.00	591.00	584.00	582.00	576.00	571.00	581.00	592.00	594.00	598.00	605.00	621.00	616.00	611.00	608.00	606.00	608.00	604.00	605.00
472.00	463.00	462.00	464.00	464.00	467.00	473.00	476.00	478.00	481.00	486.00	488.00	491.00	497.00	502.00	509.00	513.00	517.00	521.00	523.00	520.00	518.00	519.00	520.00	526.00	527.00	528.00	528.00	527.00	525.00	523.00	521.00	521.00	525.00	526.00	528.00	530.00	533.00	535.00	538.00	540.00	543.00	548.00	551.00	556.00	558.00	564.00	564.00	564.00	565.00	567.00	570.00	572.00	575.00	577.00	576.00	575.00	571.00	568.00	565.00	557.00	554.00	550.00	548.00	542.00	536.00	533.00	531.00	527.00	523.00	523.00	522.00	519.00	515.00	514.00	514.00	523.00	529.00	542.00	546.00	549.00	552.00	559.00	561.00	565.00	568.00	570.00	571.00	568.00	564.00	560.00	554.00	549.00	544.00	540.00	536.00	521.00	518.00	515.00	512.00	507.00	505.00	503.00	503.00	502.00	507.00	510.00	522.00	525.00	524.00	527.00	517.00	513.00	518.00	525.00	524.00	519.00	515.00	511.00	511.00	509.00	509.00	511.00	510.00	511.00	512.00	511.00	501.00	496.00	498.00	500.00	503.00	505.00	506.00	503.00	497.00	490.00	491.00	491.00	496.00	500.00	503.00	504.00	502.00	504.00	502.00	502.00	501.00	501.00	504.00	505.00	507.00	508.00	509.00	511.00	512.00	514.00	515.00	517.00	519.00	520.00	521.00	524.00	527.00	529.00	529.00	531.00	534.00	535.00	535.00	538.00	541.00	542.00	544.00	546.00	547.00	557.00	560.00	564.00	571.00	579.00	577.00	581.00	585.00	591.00	590.00	591.00	592.00	594.00	590.00	594.00	594.00	596.00	591.00	596.00	606.00	610.00	614.00	615.00	625.00	624.00	617.00	613.00	624.00	617.00	608.00	606.00	612.00	607.00	606.00	607.00	609.00	671.00	655.00	711.00	733.00	682.00	693.00	632.00	610.00	603.00	611.00	616.00	620.00	628.00	638.00	624.00	609.00	605.00	617.00	613.00	612.00	608.00	602.00	594.00	589.00	600.00	597.00	597.00	589.00	584.00	576.00	569.00	571.00	595.00	600.00	608.00	614.00	622.00	617.00	614.00	609.00	606.00	605.00	602.00	603.00
468.00	463.00	463.00	464.00	466.00	468.00	473.00	476.00	479.00	482.00	488.00	491.00	493.00	496.00	499.00	506.00	509.00	514.00	519.00	526.00	525.00	522.00	521.00	522.00	525.00	526.00	527.00	527.00	526.00	524.00	522.00	520.00	519.00	523.00	525.00	527.00	528.00	532.00	534.00	537.00	540.00	542.00	548.00	550.00	556.00	558.00	563.00	563.00	563.00	563.00	564.00	568.00	570.00	573.00	575.00	576.00	574.00	571.00	568.00	564.00	558.00	556.00	552.00	550.00	542.00	535.00	533.00	530.00	528.00	523.00	521.00	522.00	520.00	514.00	513.00	513.00	520.00	525.00	538.00	541.00	545.00	549.00	558.00	559.00	559.00	564.00	566.00	564.00	561.00	558.00	556.00	551.00	548.00	544.00	540.00	537.00	526.00	521.00	515.00	511.00	507.00	505.00	502.00	502.00	501.00	504.00	507.00	514.00	514.00	511.00	513.00	511.00	513.00	524.00	523.00	520.00	518.00	513.00	508.00	509.00	507.00	505.00	507.00	506.00	508.00	507.00	507.00	503.00	496.00	495.00	497.00	500.00	500.00	500.00	500.00	495.00	490.00	489.00	491.00	493.00	494.00	499.00	500.00	499.00	500.00	499.00	500.00	500.00	501.00	505.00	505.00	507.00	508.00	508.00	510.00	512.00	513.00	515.00	516.00	519.00	520.00	521.00	523.00	529.00	532.00	532.00	535.00	535.00	535.00	538.00	538.00	541.00	543.00	545.00	546.00	548.00	554.00	559.00	575.00	598.00	604.00	575.00	580.00	583.00	590.00	600.00	596.00	596.00	599.00	594.00	599.00	595.00	601.00	597.00	595.00	598.00	605.00	607.00	609.00	628.00	627.00	610.00	606.00	627.00	622.00	616.00	607.00	600.00	600.00	600.00	601.00	599.00	673.00	653.00	626.00	639.00	671.00	621.00	603.00	599.00	595.00	606.00	607.00	618.00	629.00	633.00	611.00	602.00	600.00	611.00	608.00	600.00	601.00	592.00	588.00	589.00	601.00	602.00	598.00	589.00	583.00	579.00	574.00	565.00	595.00	597.00	601.00	612.00	624.00	618.00	613.00	609.00	606.00	603.00	601.00	601.00
464.00	463.00	462.00	463.00	464.00	466.00	472.00	475.00	479.00	483.00	492.00	496.00	500.00	504.00	505.00	507.00	508.00	510.00	514.00	522.00	526.00	525.00	524.00	523.00	524.00	525.00	526.00	526.00	525.00	523.00	521.00	518.00	516.00	520.00	522.00	523.00	525.00	530.00	533.00	535.00	537.00	540.00	545.00	548.00	553.00	556.00	559.00	559.00	559.00	560.00	561.00	564.00	567.00	569.00	571.00	577.00	577.00	575.00	570.00	566.00	560.00	560.00	558.00	555.00	548.00	537.00	533.00	533.00	530.00	524.00	521.00	519.00	516.00	513.00	512.00	512.00	517.00	522.00	530.00	534.00	539.00	544.00	552.00	550.00	550.00	554.00	557.00	552.00	550.00	548.00	545.00	541.00	540.00	537.00	536.00	531.00	520.00	517.00	517.00	519.00	516.00	510.00	504.00	501.00	499.00	500.00	499.00	500.00	501.00	503.00	504.00	508.00	512.00	516.00	518.00	517.00	515.00	511.00	501.00	500.00	500.00	500.00	500.00	501.00	501.00	500.00	500.00	499.00	496.00	494.00	492.00	492.00	496.00	493.00	492.00	489.00	490.00	490.00	489.00	491.00	491.00	494.00	495.00	496.00	496.00	497.00	498.00	500.00	502.00	506.00	508.00	512.00	515.00	511.00	512.00	513.00	514.00	516.00	518.00	520.00	522.00	525.00	526.00	528.00	530.00	532.00	534.00	543.00	542.00	544.00	549.00	553.00	554.00	552.00	557.00	567.00	551.00	555.00	559.00	561.00	568.00	580.00	583.00	589.00	592.00	592.00	599.00	597.00	604.00	605.00	598.00	606.00	603.00	605.00	606.00	612.00	608.00	608.00	610.00	621.00	620.00	603.00	597.00	609.00	601.00	608.00	618.00	603.00	591.00	597.00	591.00	587.00	604.00	611.00	611.00	595.00	588.00	586.00	583.00	584.00	588.00	614.00	611.00	631.00	627.00	620.00	599.00	591.00	588.00	598.00	595.00	592.00	593.00	588.00	577.00	588.00	598.00	589.00	585.00	578.00	582.00	576.00	570.00	561.00	581.00	578.00	586.00	591.00	605.00	601.00	603.00	604.00	603.00	599.00	600.00	596.00
464.00	463.00	463.00	463.00	464.00	465.00	471.00	475.00	478.00	483.00	491.00	495.00	499.00	507.00	510.00	513.00	513.00	515.00	517.00	522.00	525.00	525.00	524.00	522.00	523.00	524.00	525.00	526.00	525.00	523.00	521.00	518.00	514.00	518.00	520.00	522.00	524.00	529.00	531.00	533.00	536.00	538.00	543.00	545.00	551.00	554.00	559.00	558.00	558.00	558.00	559.00	563.00	566.00	568.00	571.00	577.00	576.00	574.00	570.00	565.00	557.00	555.00	554.00	552.00	546.00	536.00	531.00	531.00	530.00	524.00	522.00	519.00	517.00	513.00	512.00	511.00	517.00	521.00	527.00	531.00	537.00	542.00	547.00	545.00	547.00	550.00	554.00	547.00	545.00	543.00	540.00	536.00	534.00	533.00	534.00	533.00	521.00	521.00	521.00	521.00	517.00	512.00	506.00	502.00	500.00	498.00	498.00	496.00	497.00	502.00	503.00	505.00	508.00	511.00	517.00	517.00	516.00	512.00	500.00	498.00	499.00	497.00	496.00	498.00	497.00	498.00	497.00	496.00	493.00	493.00	492.00	491.00	490.00	489.00	489.00	489.00	488.00	489.00	491.00	494.00	494.00	495.00	495.00	496.00	497.00	498.00	499.00	501.00	504.00	510.00	509.00	512.00	516.00	516.00	515.00	518.00	521.00	521.00	522.00	520.00	523.00	525.00	527.00	530.00	532.00	532.00	533.00	543.00	547.00	548.00	553.00	556.00	560.00	556.00	560.00	557.00	553.00	553.00	555.00	560.00	565.00	574.00	581.00	584.00	584.00	594.00	593.00	595.00	605.00	609.00	601.00	616.00	612.00	607.00	614.00	615.00	619.00	622.00	619.00	616.00	608.00	600.00	594.00	602.00	595.00	608.00	613.00	595.00	586.00	593.00	592.00	585.00	594.00	593.00	590.00	585.00	581.00	577.00	579.00	585.00	589.00	598.00	600.00	669.00	669.00	614.00	594.00	588.00	583.00	591.00	600.00	617.00	591.00	575.00	572.00	590.00	607.00	583.00	575.00	576.00	580.00	576.00	568.00	560.00	575.00	575.00	582.00	583.00	593.00	589.00	595.00	597.00	596.00	598.00	597.00	595.00
463.00	465.00	462.00	462.00	463.00	464.00	471.00	474.00	478.00	481.00	489.00	492.00	496.00	505.00	510.00	518.00	519.00	519.00	520.00	525.00	527.00	526.00	524.00	522.00	523.00	523.00	524.00	525.00	524.00	523.00	520.00	517.00	513.00	516.00	518.00	520.00	523.00	527.00	530.00	532.00	534.00	536.00	540.00	543.00	547.00	551.00	556.00	556.00	556.00	557.00	558.00	562.00	565.00	567.00	570.00	577.00	576.00	572.00	569.00	564.00	555.00	552.00	551.00	549.00	544.00	535.00	531.00	528.00	529.00	524.00	523.00	520.00	518.00	513.00	512.00	510.00	516.00	518.00	523.00	529.00	534.00	539.00	543.00	540.00	543.00	547.00	551.00	544.00	541.00	539.00	537.00	533.00	530.00	529.00	533.00	534.00	524.00	524.00	524.00	524.00	519.00	513.00	508.00	505.00	501.00	499.00	500.00	496.00	496.00	499.00	500.00	503.00	507.00	509.00	514.00	518.00	519.00	513.00	500.00	498.00	496.00	495.00	494.00	494.00	494.00	493.00	493.00	492.00	492.00	492.00	491.00	490.00	488.00	488.00	489.00	488.00	490.00	494.00	495.00	497.00	498.00	498.00	497.00	496.00	497.00	502.00	504.00	507.00	508.00	514.00	510.00	512.00	516.00	519.00	517.00	518.00	524.00	527.00	526.00	524.00	524.00	525.00	527.00	530.00	532.00	535.00	536.00	540.00	544.00	549.00	560.00	563.00	567.00	566.00	563.00	561.00	557.00	557.00	555.00	557.00	561.00	573.00	575.00	575.00	580.00	591.00	587.00	596.00	599.00	606.00	609.00	617.00	616.00	613.00	626.00	623.00	633.00	631.00	621.00	615.00	612.00	597.00	593.00	591.00	589.00	603.00	599.00	596.00	582.00	592.00	587.00	580.00	589.00	591.00	581.00	577.00	574.00	574.00	580.00	581.00	580.00	582.00	588.00	606.00	615.00	619.00	602.00	591.00	581.00	583.00	589.00	607.00	587.00	571.00	572.00	594.00	588.00	574.00	569.00	570.00	575.00	571.00	562.00	558.00	568.00	571.00	575.00	579.00	581.00	582.00	589.00	590.00	589.00	596.00	592.00	592.00
463.00	464.00	462.00	462.00	463.00	465.00	471.00	473.00	476.00	480.00	486.00	489.00	493.00	502.00	507.00	517.00	521.00	522.00	524.00	527.00	527.00	527.00	524.00	521.00	522.00	523.00	524.00	525.00	524.00	522.00	520.00	518.00	514.00	514.00	516.00	518.00	521.00	525.00	527.00	530.00	532.00	534.00	538.00	540.00	545.00	546.00	554.00	554.00	555.00	555.00	555.00	561.00	564.00	567.00	570.00	576.00	575.00	572.00	569.00	564.00	556.00	551.00	547.00	546.00	541.00	536.00	531.00	527.00	527.00	523.00	522.00	521.00	519.00	514.00	511.00	509.00	513.00	516.00	523.00	526.00	530.00	534.00	537.00	538.00	541.00	544.00	548.00	541.00	537.00	535.00	532.00	528.00	526.00	527.00	531.00	534.00	527.00	526.00	526.00	525.00	518.00	513.00	510.00	506.00	502.00	501.00	502.00	495.00	495.00	495.00	499.00	504.00	505.00	507.00	510.00	515.00	519.00	517.00	503.00	500.00	497.00	494.00	493.00	492.00	492.00	491.00	491.00	490.00	491.00	490.00	489.00	489.00	487.00	488.00	487.00	488.00	494.00	497.00	499.00	501.00	502.00	501.00	502.00	501.00	499.00	502.00	507.00	510.00	513.00	518.00	515.00	513.00	514.00	517.00	524.00	521.00	521.00	527.00	530.00	529.00	527.00	528.00	529.00	531.00	533.00	533.00	538.00	540.00	542.00	545.00	556.00	561.00	572.00	575.00	567.00	566.00	561.00	563.00	560.00	558.00	559.00	567.00	571.00	576.00	579.00	582.00	584.00	589.00	596.00	604.00	615.00	611.00	617.00	629.00	635.00	639.00	638.00	627.00	619.00	611.00	610.00	604.00	597.00	590.00	584.00	587.00	585.00	584.00	579.00	579.00	579.00	576.00	586.00	589.00	585.00	580.00	576.00	571.00	579.00	578.00	573.00	575.00	593.00	604.00	610.00	614.00	614.00	592.00	580.00	578.00	581.00	589.00	588.00	564.00	578.00	590.00	580.00	569.00	563.00	571.00	578.00	573.00	566.00	558.00	563.00	566.00	569.00	574.00	576.00	582.00	585.00	584.00	588.00	594.00	591.00	591.00
462.00	461.00	461.00	461.00	462.00	464.00	470.00	472.00	474.00	476.00	480.00	484.00	488.00	498.00	502.00	511.00	515.00	520.00	525.00	526.00	527.00	526.00	523.00	520.00	522.00	523.00	523.00	524.00	524.00	522.00	520.00	517.00	514.00	510.00	512.00	514.00	516.00	520.00	522.00	525.00	527.00	530.00	534.00	537.00	541.00	543.00	550.00	550.00	549.00	550.00	552.00	559.00	562.00	565.00	568.00	577.00	576.00	574.00	571.00	568.00	558.00	553.00	549.00	546.00	539.00	532.00	530.00	527.00	524.00	522.00	519.00	516.00	515.00	511.00	510.00	508.00	510.00	513.00	517.00	520.00	523.00	526.00	532.00	534.00	536.00	540.00	542.00	534.00	530.00	528.00	526.00	520.00	520.00	523.00	526.00	530.00	523.00	522.00	522.00	520.00	513.00	510.00	508.00	507.00	507.00	508.00	509.00	506.00	504.00	495.00	493.00	497.00	496.00	498.00	504.00	508.00	509.00	508.00	508.00	502.00	498.00	494.00	490.00	488.00	488.00	486.00	486.00	486.00	487.00	487.00	487.00	487.00	486.00	486.00	486.00	487.00	488.00	491.00	494.00	498.00	502.00	507.00	511.00	507.00	506.00	506.00	507.00	510.00	511.00	521.00	519.00	517.00	520.00	524.00	531.00	532.00	530.00	531.00	540.00	536.00	537.00	535.00	536.00	538.00	537.00	537.00	538.00	547.00	550.00	551.00	559.00	562.00	569.00	578.00	585.00	577.00	569.00	576.00	572.00	565.00	567.00	571.00	571.00	570.00	572.00	582.00	591.00	596.00	597.00	596.00	605.00	617.00	619.00	628.00	637.00	630.00	623.00	622.00	616.00	610.00	603.00	607.00	601.00	589.00	596.00	590.00	579.00	574.00	577.00	571.00	569.00	570.00	576.00	579.00	582.00	579.00	589.00	562.00	564.00	561.00	563.00	573.00	583.00	589.00	596.00	606.00	588.00	578.00	575.00	570.00	576.00	565.00	568.00	561.00	566.00	560.00	557.00	557.00	560.00	571.00	569.00	574.00	568.00	560.00	553.00	559.00	563.00	564.00	570.00	572.00	573.00	577.00	582.00	585.00	592.00	596.00
462.00	461.00	461.00	461.00	462.00	464.00	470.00	472.00	474.00	476.00	480.00	484.00	488.00	498.00	502.00	511.00	515.00	520.00	525.00	526.00	527.00	526.00	523.00	520.00	522.00	523.00	523.00	524.00	524.00	522.00	520.00	517.00	514.00	510.00	512.00	514.00	516.00	520.00	522.00	525.00	527.00	530.00	534.00	537.00	541.00	543.00	550.00	550.00	549.00	550.00	552.00	559.00	562.00	565.00	568.00	577.00	576.00	574.00	571.00	568.00	558.00	553.00	549.00	546.00	539.00	532.00	530.00	527.00	524.00	522.00	519.00	516.00	515.00	511.00	510.00	508.00	510.00	513.00	517.00	520.00	523.00	526.00	532.00	534.00	536.00	540.00	542.00	534.00	530.00	528.00	526.00	520.00	520.00	523.00	526.00	530.00	523.00	522.00	522.00	520.00	513.00	510.00	508.00	507.00	507.00	508.00	509.00	506.00	504.00	495.00	493.00	497.00	496.00	498.00	504.00	508.00	509.00	508.00	508.00	502.00	498.00	494.00	490.00	488.00	488.00	486.00	486.00	486.00	487.00	487.00	487.00	487.00	486.00	486.00	486.00	487.00	488.00	491.00	494.00	498.00	502.00	507.00	511.00	507.00	506.00	506.00	507.00	510.00	511.00	521.00	519.00	517.00	520.00	524.00	531.00	532.00	530.00	531.00	540.00	536.00	537.00	535.00	536.00	538.00	537.00	537.00	538.00	547.00	550.00	551.00	559.00	562.00	569.00	578.00	585.00	577.00	569.00	576.00	572.00	565.00	567.00	571.00	571.00	570.00	572.00	582.00	591.00	596.00	597.00	596.00	605.00	617.00	619.00	628.00	637.00	630.00	623.00	622.00	616.00	610.00	603.00	607.00	601.00	589.00	596.00	590.00	579.00	574.00	577.00	571.00	569.00	570.00	576.00	579.00	582.00	579.00	589.00	562.00	564.00	561.00	563.00	573.00	583.00	589.00	596.00	606.00	588.00	578.00	575.00	570.00	576.00	565.00	568.00	561.00	566.00	560.00	557.00	557.00	560.00	571.00	569.00	574.00	568.00	560.00	553.00	559.00	563.00	564.00	570.00	572.00	573.00	577.00	582.00	585.00	592.00	596.00
462.00	462.00	461.00	461.00	462.00	465.00	468.00	473.00	477.00	480.00	483.00	484.00	487.00	496.00	500.00	509.00	513.00	518.00	523.00	526.00	526.00	525.00	523.00	519.00	522.00	523.00	524.00	524.00	524.00	522.00	520.00	518.00	516.00	508.00	509.00	511.00	514.00	517.00	520.00	523.00	525.00	528.00	533.00	535.00	539.00	543.00	549.00	547.00	546.00	548.00	550.00	557.00	561.00	564.00	567.00	577.00	578.00	575.00	572.00	570.00	559.00	555.00	552.00	549.00	540.00	535.00	532.00	529.00	526.00	521.00	520.00	518.00	515.00	512.00	511.00	510.00	507.00	508.00	514.00	518.00	521.00	524.00	529.00	530.00	533.00	537.00	539.00	530.00	527.00	525.00	522.00	517.00	520.00	523.00	526.00	529.00	522.00	519.00	518.00	516.00	511.00	509.00	510.00	511.00	512.00	513.00	514.00	511.00	509.00	498.00	493.00	492.00	492.00	494.00	503.00	506.00	506.00	506.00	505.00	500.00	496.00	492.00	489.00	485.00	486.00	485.00	485.00	486.00	486.00	485.00	486.00	486.00	486.00	485.00	486.00	487.00	486.00	487.00	489.00	499.00	501.00	509.00	512.00	509.00	511.00	509.00	512.00	516.00	514.00	522.00	521.00	521.00	524.00	529.00	533.00	533.00	534.00	535.00	536.00	537.00	537.00	538.00	540.00	541.00	539.00	537.00	539.00	549.00	553.00	555.00	555.00	560.00	565.00	571.00	579.00	580.00	577.00	580.00	574.00	567.00	568.00	576.00	576.00	574.00	575.00	587.00	585.00	586.00	589.00	593.00	615.00	626.00	633.00	635.00	625.00	622.00	617.00	616.00	609.00	608.00	601.00	607.00	608.00	589.00	582.00	584.00	577.00	572.00	574.00	570.00	565.00	563.00	578.00	569.00	569.00	568.00	573.00	564.00	557.00	560.00	565.00	588.00	590.00	593.00	599.00	603.00	586.00	578.00	569.00	567.00	583.00	575.00	565.00	558.00	563.00	554.00	553.00	557.00	564.00	566.00	568.00	573.00	566.00	560.00	553.00	556.00	557.00	558.00	567.00	566.00	571.00	576.00	575.00	580.00	590.00	595.00
460.00	461.00	460.00	461.00	461.00	462.00	469.00	474.00	478.00	482.00	487.00	488.00	488.00	495.00	500.00	509.00	514.00	518.00	522.00	524.00	525.00	523.00	521.00	518.00	521.00	523.00	523.00	524.00	524.00	523.00	521.00	518.00	517.00	505.00	507.00	509.00	511.00	515.00	518.00	521.00	524.00	526.00	531.00	534.00	539.00	543.00	546.00	544.00	543.00	545.00	549.00	556.00	559.00	563.00	566.00	575.00	577.00	577.00	573.00	569.00	561.00	557.00	553.00	550.00	543.00	538.00	536.00	533.00	528.00	523.00	523.00	522.00	520.00	516.00	516.00	513.00	507.00	506.00	513.00	516.00	519.00	521.00	525.00	526.00	529.00	532.00	533.00	526.00	523.00	520.00	518.00	516.00	521.00	524.00	526.00	528.00	522.00	519.00	516.00	514.00	513.00	514.00	516.00	516.00	516.00	518.00	518.00	514.00	510.00	501.00	496.00	491.00	490.00	490.00	503.00	506.00	504.00	503.00	499.00	498.00	493.00	490.00	486.00	484.00	484.00	484.00	485.00	485.00	485.00	485.00	485.00	485.00	486.00	486.00	486.00	487.00	486.00	486.00	487.00	499.00	505.00	510.00	512.00	513.00	515.00	515.00	516.00	519.00	518.00	527.00	525.00	527.00	530.00	529.00	529.00	529.00	530.00	531.00	530.00	533.00	535.00	538.00	543.00	546.00	542.00	540.00	540.00	547.00	550.00	557.00	561.00	561.00	570.00	571.00	578.00	587.00	587.00	578.00	574.00	573.00	572.00	581.00	580.00	579.00	577.00	580.00	584.00	588.00	591.00	593.00	616.00	616.00	622.00	623.00	623.00	614.00	610.00	610.00	607.00	602.00	601.00	604.00	616.00	597.00	586.00	575.00	571.00	568.00	567.00	568.00	565.00	561.00	576.00	572.00	563.00	559.00	563.00	566.00	555.00	561.00	578.00	607.00	596.00	590.00	595.00	593.00	577.00	569.00	568.00	564.00	606.00	584.00	561.00	557.00	563.00	550.00	553.00	558.00	562.00	562.00	565.00	569.00	569.00	562.00	551.00	552.00	554.00	559.00	562.00	563.00	567.00	571.00	573.00	584.00	589.00	594.00
460.00	459.00	459.00	460.00	460.00	463.00	472.00	477.00	482.00	487.00	495.00	499.00	502.00	504.00	506.00	510.00	514.00	517.00	519.00	520.00	519.00	518.00	515.00	516.00	519.00	521.00	523.00	523.00	524.00	524.00	522.00	519.00	515.00	503.00	502.00	504.00	508.00	514.00	516.00	519.00	522.00	524.00	529.00	531.00	536.00	540.00	538.00	535.00	538.00	542.00	545.00	553.00	555.00	558.00	560.00	567.00	570.00	572.00	573.00	573.00	566.00	564.00	562.00	559.00	556.00	549.00	544.00	539.00	534.00	536.00	538.00	538.00	534.00	532.00	530.00	524.00	511.00	507.00	504.00	506.00	508.00	512.00	514.00	516.00	518.00	517.00	516.00	514.00	510.00	508.00	512.00	517.00	520.00	522.00	524.00	526.00	525.00	525.00	522.00	520.00	525.00	526.00	530.00	531.00	528.00	523.00	524.00	518.00	514.00	506.00	501.00	496.00	489.00	487.00	499.00	510.00	508.00	504.00	492.00	488.00	486.00	483.00	481.00	482.00	481.00	482.00	482.00	483.00	484.00	484.00	483.00	485.00	485.00	485.00	485.00	486.00	486.00	485.00	486.00	492.00	495.00	503.00	506.00	506.00	507.00	509.00	510.00	512.00	513.00	517.00	516.00	518.00	519.00	518.00	518.00	522.00	525.00	528.00	532.00	534.00	537.00	539.00	541.00	544.00	547.00	549.00	547.00	548.00	549.00	551.00	562.00	572.00	573.00	569.00	574.00	576.00	590.00	597.00	601.00	601.00	595.00	602.00	595.00	594.00	594.00	594.00	596.00	597.00	609.00	623.00	607.00	597.00	593.00	598.00	604.00	597.00	606.00	600.00	595.00	595.00	591.00	598.00	599.00	593.00	584.00	572.00	567.00	568.00	558.00	553.00	553.00	563.00	567.00	578.00	575.00	557.00	552.00	549.00	547.00	549.00	552.00	555.00	566.00	574.00	569.00	578.00	583.00	574.00	575.00	588.00	567.00	553.00	550.00	547.00	549.00	545.00	546.00	550.00	552.00	554.00	564.00	568.00	567.00	564.00	547.00	551.00	552.00	553.00	558.00	561.00	565.00	573.00	580.00	590.00	593.00	592.00
460.00	459.00	460.00	460.00	459.00	463.00	473.00	477.00	482.00	487.00	496.00	501.00	505.00	508.00	510.00	513.00	515.00	517.00	517.00	518.00	517.00	515.00	515.00	516.00	519.00	520.00	523.00	524.00	525.00	524.00	522.00	519.00	516.00	503.00	501.00	503.00	507.00	513.00	516.00	519.00	521.00	524.00	529.00	532.00	536.00	541.00	535.00	533.00	536.00	540.00	544.00	551.00	554.00	556.00	559.00	566.00	568.00	570.00	572.00	573.00	569.00	567.00	565.00	563.00	558.00	548.00	543.00	538.00	538.00	540.00	542.00	541.00	539.00	536.00	531.00	525.00	514.00	509.00	504.00	503.00	505.00	507.00	510.00	511.00	513.00	513.00	509.00	507.00	507.00	510.00	513.00	519.00	522.00	525.00	528.00	529.00	530.00	526.00	523.00	523.00	527.00	528.00	531.00	533.00	528.00	521.00	521.00	520.00	518.00	509.00	503.00	498.00	491.00	487.00	494.00	499.00	503.00	505.00	489.00	486.00	484.00	481.00	481.00	481.00	481.00	481.00	481.00	481.00	482.00	483.00	483.00	484.00	484.00	486.00	485.00	485.00	485.00	485.00	485.00	491.00	496.00	499.00	501.00	502.00	502.00	506.00	507.00	508.00	508.00	513.00	511.00	514.00	515.00	515.00	522.00	528.00	537.00	535.00	538.00	537.00	537.00	542.00	544.00	547.00	552.00	553.00	552.00	552.00	554.00	556.00	558.00	565.00	564.00	567.00	571.00	574.00	586.00	590.00	597.00	602.00	595.00	606.00	610.00	604.00	606.00	608.00	599.00	595.00	598.00	599.00	610.00	590.00	588.00	596.00	594.00	593.00	594.00	591.00	591.00	592.00	588.00	597.00	599.00	578.00	576.00	570.00	562.00	563.00	561.00	554.00	553.00	557.00	559.00	566.00	565.00	554.00	547.00	547.00	545.00	544.00	547.00	552.00	558.00	564.00	567.00	579.00	589.00	587.00	590.00	606.00	566.00	555.00	550.00	546.00	546.00	543.00	545.00	546.00	546.00	553.00	561.00	562.00	561.00	561.00	546.00	551.00	550.00	551.00	561.00	566.00	567.00	571.00	577.00	589.00	594.00	592.00
460.00	459.00	459.00	459.00	460.00	464.00	473.00	478.00	482.00	487.00	496.00	501.00	506.00	511.00	512.00	514.00	515.00	516.00	517.00	515.00	514.00	514.00	514.00	516.00	519.00	520.00	522.00	524.00	525.00	524.00	523.00	519.00	516.00	502.00	500.00	502.00	505.00	512.00	515.00	518.00	520.00	522.00	525.00	527.00	532.00	534.00	531.00	530.00	535.00	538.00	542.00	550.00	552.00	555.00	557.00	565.00	566.00	568.00	571.00	573.00	573.00	570.00	568.00	566.00	558.00	548.00	543.00	543.00	543.00	545.00	545.00	543.00	541.00	536.00	532.00	526.00	516.00	510.00	504.00	503.00	503.00	503.00	506.00	507.00	508.00	509.00	504.00	507.00	510.00	512.00	516.00	520.00	522.00	525.00	528.00	532.00	532.00	527.00	526.00	528.00	529.00	528.00	530.00	530.00	528.00	520.00	517.00	518.00	518.00	510.00	505.00	500.00	492.00	487.00	492.00	497.00	498.00	496.00	487.00	484.00	482.00	479.00	480.00	481.00	481.00	481.00	480.00	480.00	481.00	482.00	482.00	482.00	483.00	484.00	484.00	484.00	485.00	486.00	486.00	490.00	493.00	495.00	495.00	497.00	499.00	502.00	504.00	503.00	504.00	510.00	511.00	512.00	514.00	516.00	529.00	564.00	581.00	548.00	551.00	543.00	542.00	546.00	550.00	550.00	556.00	559.00	558.00	556.00	561.00	562.00	557.00	559.00	564.00	568.00	575.00	577.00	583.00	588.00	596.00	597.00	594.00	604.00	623.00	621.00	617.00	611.00	598.00	589.00	590.00	591.00	590.00	583.00	588.00	596.00	591.00	587.00	587.00	586.00	590.00	589.00	586.00	594.00	599.00	578.00	568.00	565.00	561.00	557.00	558.00	555.00	550.00	549.00	555.00	556.00	555.00	550.00	546.00	544.00	544.00	545.00	551.00	556.00	565.00	567.00	570.00	576.00	582.00	587.00	599.00	591.00	558.00	552.00	548.00	544.00	543.00	540.00	540.00	542.00	544.00	556.00	557.00	556.00	556.00	560.00	545.00	549.00	547.00	550.00	557.00	560.00	564.00	569.00	576.00	583.00	592.00	592.00
458.00	458.00	459.00	460.00	459.00	464.00	473.00	478.00	482.00	486.00	495.00	499.00	504.00	511.00	513.00	514.00	514.00	514.00	515.00	513.00	512.00	512.00	514.00	516.00	519.00	520.00	523.00	524.00	525.00	524.00	522.00	519.00	515.00	502.00	499.00	501.00	504.00	511.00	514.00	517.00	519.00	521.00	521.00	523.00	526.00	528.00	529.00	529.00	533.00	536.00	540.00	548.00	552.00	554.00	556.00	564.00	565.00	567.00	569.00	572.00	575.00	572.00	568.00	566.00	558.00	549.00	546.00	547.00	547.00	548.00	547.00	543.00	541.00	536.00	531.00	526.00	514.00	510.00	504.00	503.00	502.00	501.00	501.00	503.00	504.00	504.00	503.00	508.00	512.00	513.00	515.00	520.00	522.00	523.00	526.00	530.00	537.00	532.00	531.00	531.00	527.00	527.00	528.00	530.00	526.00	521.00	518.00	513.00	513.00	511.00	505.00	500.00	494.00	488.00	493.00	496.00	499.00	495.00	486.00	481.00	479.00	479.00	479.00	480.00	480.00	480.00	479.00	479.00	481.00	481.00	482.00	482.00	483.00	484.00	484.00	483.00	486.00	487.00	488.00	489.00	490.00	494.00	494.00	495.00	497.00	500.00	502.00	503.00	505.00	510.00	511.00	513.00	517.00	521.00	538.00	557.00	548.00	555.00	551.00	551.00	547.00	547.00	558.00	556.00	559.00	564.00	562.00	562.00	567.00	571.00	562.00	563.00	566.00	567.00	569.00	573.00	582.00	585.00	591.00	590.00	592.00	616.00	619.00	625.00	616.00	601.00	597.00	590.00	584.00	593.00	582.00	579.00	586.00	594.00	590.00	585.00	582.00	585.00	586.00	588.00	585.00	596.00	594.00	577.00	569.00	563.00	559.00	556.00	553.00	554.00	551.00	548.00	551.00	550.00	550.00	546.00	542.00	543.00	541.00	546.00	551.00	556.00	568.00	577.00	585.00	572.00	563.00	573.00	586.00	613.00	565.00	551.00	546.00	542.00	542.00	538.00	537.00	540.00	545.00	553.00	554.00	551.00	554.00	556.00	544.00	547.00	546.00	549.00	554.00	558.00	562.00	568.00	572.00	580.00	590.00	591.00
458.00	458.00	459.00	459.00	460.00	462.00	471.00	476.00	479.00	483.00	491.00	495.00	499.00	508.00	511.00	513.00	513.00	512.00	511.00	509.00	509.00	512.00	514.00	517.00	519.00	520.00	522.00	523.00	523.00	521.00	518.00	515.00	512.00	501.00	497.00	497.00	501.00	509.00	511.00	514.00	516.00	517.00	515.00	515.00	520.00	521.00	524.00	527.00	531.00	535.00	539.00	547.00	550.00	552.00	554.00	561.00	562.00	564.00	567.00	569.00	573.00	569.00	565.00	564.00	557.00	550.00	547.00	547.00	548.00	550.00	548.00	543.00	541.00	537.00	533.00	528.00	519.00	515.00	511.00	513.00	510.00	507.00	504.00	502.00	501.00	499.00	501.00	504.00	506.00	505.00	507.00	513.00	515.00	519.00	523.00	527.00	541.00	538.00	535.00	531.00	523.00	520.00	520.00	521.00	520.00	520.00	520.00	510.00	505.00	505.00	504.00	501.00	496.00	489.00	486.00	501.00	508.00	501.00	482.00	478.00	478.00	478.00	478.00	480.00	479.00	479.00	480.00	481.00	482.00	481.00	481.00	481.00	482.00	482.00	482.00	482.00	484.00	490.00	493.00	489.00	492.00	493.00	493.00	495.00	496.00	499.00	502.00	505.00	506.00	512.00	513.00	514.00	514.00	519.00	527.00	533.00	542.00	539.00	541.00	552.00	559.00	559.00	559.00	557.00	560.00	554.00	548.00	554.00	559.00	563.00	563.00	564.00	576.00	583.00	580.00	585.00	610.00	590.00	590.00	587.00	588.00	618.00	607.00	597.00	594.00	602.00	595.00	586.00	578.00	580.00	576.00	577.00	582.00	591.00	590.00	584.00	579.00	579.00	579.00	586.00	581.00	585.00	591.00	572.00	568.00	564.00	560.00	560.00	552.00	548.00	547.00	546.00	544.00	542.00	542.00	539.00	537.00	537.00	537.00	536.00	537.00	539.00	555.00	560.00	555.00	548.00	548.00	554.00	568.00	574.00	553.00	545.00	541.00	539.00	538.00	536.00	534.00	535.00	540.00	548.00	546.00	544.00	548.00	552.00	541.00	544.00	543.00	546.00	553.00	562.00	567.00	576.00	578.00	587.00	592.00	591.00
458.00	457.00	459.00	459.00	460.00	461.00	469.00	473.00	478.00	482.00	489.00	494.00	499.00	507.00	510.00	512.00	511.00	510.00	509.00	508.00	510.00	512.00	514.00	517.00	519.00	521.00	521.00	522.00	522.00	521.00	518.00	515.00	512.00	501.00	496.00	494.00	499.00	507.00	510.00	512.00	513.00	513.00	512.00	514.00	518.00	520.00	526.00	529.00	532.00	536.00	539.00	546.00	550.00	552.00	553.00	560.00	561.00	564.00	565.00	568.00	571.00	567.00	563.00	560.00	555.00	546.00	544.00	543.00	543.00	545.00	544.00	540.00	540.00	536.00	533.00	529.00	521.00	519.00	520.00	518.00	515.00	511.00	511.00	508.00	504.00	502.00	498.00	501.00	501.00	502.00	506.00	511.00	512.00	516.00	519.00	524.00	537.00	538.00	536.00	533.00	526.00	522.00	519.00	516.00	516.00	516.00	515.00	507.00	502.00	500.00	499.00	497.00	495.00	490.00	485.00	497.00	511.00	512.00	479.00	477.00	478.00	477.00	478.00	478.00	478.00	479.00	479.00	480.00	481.00	481.00	481.00	482.00	480.00	481.00	481.00	482.00	484.00	488.00	496.00	496.00	496.00	496.00	496.00	497.00	499.00	503.00	505.00	508.00	511.00	514.00	519.00	521.00	521.00	520.00	524.00	528.00	531.00	533.00	542.00	554.00	578.00	594.00	579.00	552.00	548.00	545.00	546.00	550.00	555.00	556.00	560.00	564.00	571.00	577.00	584.00	612.00	608.00	623.00	626.00	595.00	593.00	613.00	609.00	601.00	591.00	602.00	591.00	585.00	578.00	575.00	571.00	574.00	580.00	586.00	585.00	583.00	580.00	575.00	577.00	585.00	583.00	584.00	586.00	574.00	570.00	564.00	564.00	564.00	554.00	548.00	545.00	543.00	542.00	541.00	538.00	536.00	534.00	535.00	534.00	535.00	534.00	537.00	546.00	546.00	547.00	544.00	544.00	556.00	565.00	562.00	565.00	541.00	537.00	536.00	536.00	534.00	533.00	533.00	537.00	546.00	542.00	542.00	545.00	550.00	540.00	541.00	541.00	545.00	553.00	566.00	568.00	576.00	581.00	587.00	594.00	593.00
458.00	458.00	459.00	459.00	459.00	460.00	468.00	472.00	475.00	480.00	488.00	492.00	497.00	505.00	508.00	510.00	509.00	508.00	507.00	507.00	510.00	512.00	514.00	518.00	520.00	521.00	521.00	521.00	521.00	520.00	518.00	515.00	512.00	500.00	494.00	493.00	498.00	506.00	509.00	510.00	510.00	509.00	510.00	511.00	517.00	521.00	528.00	531.00	534.00	537.00	539.00	545.00	548.00	551.00	553.00	558.00	560.00	562.00	565.00	567.00	572.00	569.00	563.00	559.00	552.00	544.00	540.00	538.00	538.00	540.00	541.00	538.00	537.00	536.00	534.00	531.00	526.00	527.00	526.00	521.00	516.00	517.00	515.00	511.00	508.00	506.00	498.00	496.00	498.00	501.00	504.00	508.00	509.00	513.00	517.00	521.00	537.00	538.00	537.00	536.00	529.00	526.00	523.00	518.00	513.00	512.00	512.00	504.00	500.00	496.00	494.00	493.00	490.00	488.00	484.00	488.00	498.00	498.00	477.00	478.00	479.00	477.00	477.00	478.00	478.00	480.00	480.00	481.00	479.00	480.00	481.00	480.00	481.00	480.00	482.00	482.00	485.00	491.00	494.00	501.00	501.00	500.00	498.00	499.00	503.00	507.00	507.00	511.00	514.00	515.00	521.00	526.00	528.00	526.00	530.00	527.00	550.00	541.00	540.00	552.00	576.00	607.00	622.00	550.00	543.00	540.00	542.00	553.00	550.00	552.00	557.00	562.00	573.00	583.00	594.00	591.00	602.00	608.00	612.00	601.00	600.00	612.00	607.00	594.00	588.00	596.00	590.00	585.00	581.00	575.00	567.00	574.00	581.00	585.00	580.00	579.00	576.00	574.00	575.00	583.00	585.00	578.00	581.00	576.00	568.00	568.00	567.00	563.00	552.00	550.00	547.00	543.00	540.00	540.00	536.00	535.00	533.00	532.00	533.00	534.00	533.00	534.00	543.00	538.00	535.00	537.00	541.00	553.00	568.00	557.00	556.00	539.00	534.00	535.00	534.00	532.00	531.00	531.00	534.00	542.00	539.00	541.00	546.00	548.00	540.00	538.00	541.00	545.00	559.00	561.00	560.00	566.00	573.00	584.00	592.00	593.00
457.00	458.00	458.00	459.00	458.00	459.00	466.00	470.00	475.00	479.00	488.00	492.00	496.00	503.00	506.00	506.00	506.00	505.00	504.00	507.00	509.00	512.00	515.00	518.00	521.00	522.00	522.00	521.00	521.00	520.00	517.00	515.00	512.00	499.00	495.00	491.00	496.00	505.00	507.00	507.00	506.00	506.00	508.00	511.00	518.00	522.00	529.00	532.00	535.00	537.00	539.00	544.00	548.00	550.00	551.00	557.00	559.00	561.00	563.00	567.00	573.00	569.00	563.00	559.00	550.00	542.00	539.00	536.00	534.00	536.00	536.00	535.00	535.00	538.00	535.00	533.00	530.00	534.00	530.00	523.00	521.00	523.00	520.00	516.00	514.00	512.00	499.00	495.00	496.00	499.00	502.00	505.00	508.00	512.00	516.00	521.00	533.00	535.00	535.00	537.00	532.00	529.00	526.00	522.00	516.00	507.00	507.00	502.00	502.00	500.00	497.00	493.00	490.00	489.00	487.00	483.00	484.00	495.00	478.00	478.00	478.00	479.00	478.00	479.00	480.00	479.00	481.00	480.00	479.00	479.00	480.00	480.00	485.00	481.00	481.00	482.00	488.00	495.00	497.00	503.00	506.00	502.00	501.00	501.00	504.00	511.00	511.00	512.00	515.00	520.00	519.00	526.00	530.00	534.00	534.00	529.00	535.00	542.00	550.00	547.00	555.00	565.00	588.00	552.00	542.00	538.00	540.00	547.00	546.00	550.00	559.00	562.00	587.00	597.00	615.00	604.00	604.00	610.00	610.00	607.00	602.00	603.00	604.00	597.00	590.00	585.00	599.00	594.00	589.00	586.00	567.00	573.00	578.00	579.00	577.00	578.00	576.00	572.00	572.00	580.00	584.00	574.00	578.00	576.00	572.00	574.00	571.00	566.00	555.00	556.00	551.00	544.00	540.00	539.00	536.00	533.00	532.00	530.00	531.00	530.00	531.00	529.00	533.00	531.00	532.00	535.00	542.00	557.00	564.00	554.00	550.00	538.00	533.00	534.00	532.00	531.00	529.00	529.00	531.00	535.00	536.00	539.00	544.00	547.00	538.00	538.00	542.00	550.00	575.00	580.00	574.00	569.00	574.00	585.00	590.00	590.00
457.00	458.00	458.00	459.00	460.00	459.00	464.00	469.00	473.00	477.00	484.00	488.00	492.00	497.00	498.00	499.00	498.00	498.00	500.00	506.00	508.00	511.00	514.00	518.00	520.00	521.00	523.00	522.00	519.00	518.00	517.00	515.00	512.00	501.00	495.00	490.00	490.00	498.00	500.00	499.00	499.00	500.00	507.00	511.00	518.00	522.00	529.00	533.00	535.00	536.00	538.00	542.00	545.00	548.00	550.00	554.00	556.00	559.00	562.00	564.00	565.00	564.00	561.00	555.00	546.00	536.00	532.00	529.00	526.00	528.00	528.00	530.00	533.00	539.00	538.00	537.00	535.00	538.00	532.00	527.00	530.00	532.00	529.00	523.00	517.00	510.00	508.00	495.00	493.00	495.00	499.00	502.00	506.00	511.00	515.00	519.00	525.00	527.00	529.00	531.00	535.00	532.00	525.00	520.00	515.00	514.00	508.00	513.00	514.00	514.00	508.00	499.00	496.00	496.00	490.00	483.00	480.00	481.00	477.00	477.00	478.00	479.00	479.00	480.00	479.00	478.00	479.00	479.00	480.00	479.00	479.00	480.00	486.00	487.00	490.00	491.00	493.00	497.00	500.00	507.00	509.00	511.00	508.00	504.00	507.00	511.00	516.00	520.00	521.00	526.00	529.00	528.00	533.00	537.00	540.00	535.00	540.00	544.00	556.00	559.00	554.00	560.00	562.00	541.00	537.00	534.00	536.00	540.00	543.00	546.00	562.00	577.00	586.00	576.00	587.00	642.00	630.00	638.00	631.00	614.00	608.00	585.00	592.00	595.00	584.00	575.00	579.00	577.00	596.00	583.00	567.00	563.00	566.00	574.00	577.00	573.00	569.00	568.00	569.00	576.00	581.00	571.00	574.00	582.00	581.00	581.00	577.00	572.00	559.00	557.00	556.00	552.00	541.00	539.00	535.00	533.00	532.00	529.00	528.00	526.00	527.00	523.00	524.00	527.00	530.00	536.00	544.00	560.00	553.00	542.00	542.00	534.00	530.00	528.00	528.00	526.00	526.00	527.00	529.00	533.00	536.00	539.00	541.00	541.00	582.00	638.00	663.00	616.00	613.00	660.00	701.00	655.00	600.00	590.00	589.00	585.00
457.00	457.00	458.00	459.00	459.00	459.00	463.00	467.00	471.00	475.00	482.00	487.00	489.00	493.00	494.00	495.00	495.00	496.00	497.00	503.00	507.00	510.00	512.00	516.00	518.00	519.00	521.00	521.00	519.00	518.00	516.00	513.00	510.00	501.00	496.00	491.00	488.00	494.00	495.00	495.00	497.00	499.00	507.00	511.00	518.00	521.00	527.00	531.00	534.00	534.00	536.00	541.00	544.00	547.00	548.00	553.00	555.00	557.00	560.00	563.00	562.00	560.00	558.00	555.00	546.00	535.00	532.00	528.00	524.00	524.00	526.00	529.00	532.00	538.00	537.00	535.00	535.00	537.00	533.00	532.00	534.00	535.00	529.00	522.00	515.00	512.00	512.00	498.00	493.00	494.00	497.00	503.00	506.00	510.00	514.00	515.00	522.00	523.00	525.00	528.00	532.00	530.00	524.00	519.00	518.00	514.00	511.00	516.00	516.00	512.00	507.00	499.00	498.00	499.00	491.00	485.00	480.00	479.00	477.00	479.00	478.00	488.00	493.00	479.00	480.00	479.00	479.00	479.00	479.00	480.00	480.00	480.00	483.00	486.00	487.00	492.00	497.00	498.00	503.00	508.00	512.00	513.00	509.00	508.00	511.00	516.00	517.00	520.00	525.00	527.00	529.00	532.00	539.00	543.00	542.00	538.00	539.00	548.00	555.00	550.00	545.00	542.00	544.00	536.00	532.00	532.00	535.00	538.00	542.00	547.00	563.00	565.00	567.00	605.00	623.00	664.00	645.00	642.00	634.00	614.00	609.00	582.00	582.00	585.00	586.00	573.00	571.00	570.00	573.00	579.00	565.00	562.00	569.00	575.00	577.00	574.00	569.00	566.00	566.00	575.00	577.00	569.00	574.00	579.00	581.00	580.00	574.00	566.00	556.00	554.00	556.00	554.00	544.00	543.00	540.00	538.00	537.00	529.00	526.00	524.00	524.00	522.00	523.00	524.00	524.00	529.00	543.00	553.00	551.00	544.00	533.00	529.00	527.00	526.00	526.00	524.00	525.00	526.00	529.00	531.00	532.00	533.00	535.00	536.00	666.00	771.00	780.00	784.00	617.00	592.00	610.00	664.00	616.00	596.00	590.00	587.00
457.00	457.00	457.00	458.00	458.00	459.00	463.00	467.00	470.00	473.00	481.00	484.00	487.00	489.00	490.00	491.00	492.00	493.00	495.00	501.00	503.00	506.00	509.00	512.00	515.00	517.00	518.00	520.00	519.00	517.00	515.00	513.00	510.00	501.00	497.00	493.00	489.00	489.00	492.00	494.00	496.00	499.00	507.00	511.00	518.00	521.00	527.00	530.00	532.00	533.00	534.00	541.00	543.00	546.00	547.00	552.00	554.00	556.00	559.00	561.00	559.00	556.00	553.00	552.00	547.00	540.00	535.00	529.00	525.00	522.00	524.00	527.00	530.00	535.00	534.00	533.00	533.00	535.00	536.00	537.00	537.00	537.00	529.00	521.00	512.00	510.00	513.00	501.00	494.00	493.00	495.00	502.00	505.00	508.00	509.00	510.00	518.00	521.00	522.00	525.00	529.00	529.00	527.00	524.00	522.00	516.00	513.00	516.00	514.00	507.00	505.00	505.00	501.00	498.00	491.00	483.00	479.00	477.00	480.00	480.00	485.00	491.00	495.00	479.00	479.00	479.00	479.00	479.00	479.00	479.00	481.00	483.00	487.00	487.00	488.00	491.00	499.00	502.00	505.00	510.00	513.00	515.00	512.00	511.00	513.00	519.00	523.00	523.00	527.00	531.00	533.00	536.00	540.00	546.00	548.00	544.00	541.00	547.00	567.00	551.00	554.00	543.00	534.00	531.00	530.00	530.00	533.00	540.00	544.00	544.00	563.00	556.00	573.00	598.00	608.00	613.00	653.00	665.00	648.00	615.00	596.00	585.00	580.00	576.00	580.00	575.00	570.00	566.00	565.00	564.00	562.00	561.00	568.00	571.00	573.00	572.00	568.00	564.00	564.00	574.00	575.00	566.00	574.00	575.00	578.00	578.00	570.00	565.00	553.00	550.00	550.00	551.00	541.00	539.00	538.00	538.00	536.00	530.00	526.00	524.00	523.00	521.00	520.00	520.00	521.00	523.00	542.00	563.00	562.00	557.00	534.00	527.00	526.00	526.00	523.00	524.00	525.00	526.00	530.00	529.00	530.00	532.00	534.00	536.00	753.00	787.00	813.00	855.00	695.00	604.00	594.00	629.00	664.00	595.00	588.00	585.00
457.00	455.00	456.00	458.00	459.00	458.00	462.00	466.00	469.00	472.00	478.00	482.00	484.00	487.00	487.00	489.00	490.00	490.00	492.00	497.00	501.00	503.00	506.00	510.00	513.00	515.00	517.00	519.00	518.00	517.00	515.00	513.00	511.00	500.00	498.00	494.00	490.00	488.00	490.00	492.00	496.00	500.00	507.00	510.00	517.00	520.00	527.00	530.00	530.00	531.00	533.00	538.00	541.00	543.00	545.00	550.00	552.00	555.00	557.00	559.00	555.00	552.00	550.00	548.00	548.00	541.00	535.00	528.00	521.00	521.00	522.00	525.00	529.00	532.00	528.00	528.00	530.00	531.00	536.00	538.00	538.00	535.00	526.00	519.00	512.00	506.00	509.00	501.00	493.00	493.00	497.00	502.00	503.00	504.00	507.00	510.00	515.00	518.00	521.00	524.00	529.00	530.00	530.00	529.00	527.00	521.00	517.00	512.00	511.00	511.00	511.00	508.00	502.00	495.00	488.00	483.00	479.00	476.00	480.00	488.00	485.00	488.00	491.00	486.00	479.00	479.00	479.00	478.00	479.00	481.00	485.00	487.00	491.00	492.00	490.00	490.00	496.00	500.00	504.00	510.00	513.00	516.00	516.00	516.00	516.00	523.00	526.00	528.00	531.00	533.00	535.00	539.00	543.00	547.00	555.00	549.00	550.00	553.00	554.00	554.00	556.00	539.00	531.00	528.00	528.00	529.00	533.00	542.00	541.00	540.00	551.00	551.00	560.00	567.00	573.00	592.00	659.00	670.00	661.00	622.00	579.00	587.00	585.00	576.00	572.00	583.00	573.00	570.00	566.00	561.00	559.00	560.00	563.00	568.00	569.00	567.00	566.00	563.00	563.00	573.00	575.00	566.00	571.00	572.00	575.00	576.00	573.00	574.00	554.00	548.00	545.00	544.00	538.00	536.00	534.00	533.00	532.00	528.00	526.00	525.00	525.00	519.00	518.00	517.00	517.00	519.00	530.00	539.00	551.00	548.00	533.00	524.00	522.00	523.00	522.00	524.00	526.00	526.00	527.00	529.00	530.00	533.00	533.00	535.00	781.00	773.00	826.00	821.00	798.00	668.00	603.00	604.00	619.00	590.00	585.00	582.00
455.00	455.00	457.00	457.00	457.00	458.00	462.00	465.00	467.00	470.00	476.00	477.00	479.00	481.00	481.00	484.00	485.00	486.00	488.00	493.00	495.00	497.00	500.00	503.00	507.00	509.00	511.00	514.00	516.00	517.00	516.00	516.00	513.00	503.00	499.00	494.00	489.00	487.00	491.00	495.00	498.00	502.00	506.00	509.00	515.00	518.00	524.00	526.00	526.00	527.00	530.00	535.00	537.00	539.00	540.00	545.00	548.00	550.00	554.00	556.00	553.00	550.00	545.00	540.00	538.00	533.00	529.00	523.00	518.00	517.00	517.00	517.00	520.00	521.00	518.00	519.00	525.00	528.00	529.00	531.00	529.00	525.00	520.00	515.00	511.00	506.00	497.00	492.00	491.00	493.00	496.00	503.00	509.00	512.00	513.00	514.00	519.00	522.00	526.00	528.00	532.00	533.00	534.00	533.00	529.00	523.00	520.00	520.00	520.00	521.00	516.00	509.00	504.00	498.00	486.00	482.00	477.00	475.00	477.00	476.00	480.00	482.00	486.00	488.00	485.00	485.00	484.00	485.00	485.00	483.00	484.00	489.00	496.00	497.00	498.00	498.00	498.00	500.00	501.00	505.00	510.00	517.00	520.00	523.00	523.00	527.00	527.00	528.00	528.00	527.00	527.00	531.00	536.00	540.00	542.00	537.00	543.00	544.00	549.00	529.00	528.00	526.00	525.00	524.00	527.00	533.00	538.00	533.00	534.00	538.00	544.00	542.00	555.00	558.00	560.00	559.00	583.00	589.00	584.00	571.00	567.00	568.00	578.00	570.00	566.00	571.00	564.00	564.00	567.00	567.00	556.00	557.00	559.00	560.00	568.00	564.00	561.00	559.00	563.00	570.00	569.00	561.00	565.00	563.00	568.00	571.00	565.00	570.00	565.00	555.00	550.00	545.00	542.00	539.00	535.00	531.00	528.00	524.00	523.00	521.00	520.00	518.00	517.00	517.00	514.00	516.00	529.00	529.00	528.00	536.00	522.00	518.00	520.00	523.00	524.00	526.00	526.00	526.00	527.00	530.00	531.00	531.00	533.00	536.00	645.00	647.00	719.00	738.00	790.00	780.00	711.00	640.00	592.00	586.00	582.00	581.00
454.00	456.00	456.00	457.00	457.00	458.00	461.00	463.00	466.00	469.00	473.00	475.00	476.00	479.00	480.00	482.00	483.00	484.00	485.00	491.00	493.00	495.00	497.00	502.00	505.00	507.00	508.00	512.00	514.00	515.00	515.00	514.00	513.00	502.00	498.00	494.00	489.00	486.00	490.00	493.00	497.00	499.00	504.00	508.00	513.00	516.00	520.00	522.00	524.00	526.00	527.00	532.00	534.00	536.00	538.00	544.00	546.00	549.00	551.00	554.00	554.00	551.00	547.00	541.00	532.00	527.00	524.00	522.00	520.00	514.00	514.00	512.00	514.00	515.00	514.00	515.00	522.00	523.00	523.00	524.00	523.00	520.00	516.00	513.00	509.00	505.00	498.00	491.00	491.00	492.00	494.00	504.00	510.00	515.00	518.00	520.00	523.00	523.00	527.00	530.00	532.00	536.00	537.00	535.00	532.00	525.00	524.00	525.00	525.00	522.00	517.00	512.00	505.00	498.00	488.00	482.00	478.00	475.00	476.00	475.00	477.00	480.00	484.00	492.00	490.00	490.00	490.00	488.00	491.00	489.00	486.00	487.00	495.00	498.00	499.00	500.00	499.00	500.00	502.00	506.00	511.00	517.00	520.00	523.00	526.00	527.00	527.00	525.00	525.00	523.00	524.00	526.00	530.00	534.00	542.00	534.00	538.00	537.00	532.00	526.00	524.00	522.00	522.00	523.00	527.00	532.00	535.00	530.00	531.00	534.00	539.00	540.00	546.00	552.00	553.00	556.00	564.00	560.00	562.00	556.00	561.00	578.00	603.00	574.00	562.00	566.00	561.00	559.00	563.00	563.00	555.00	553.00	556.00	561.00	568.00	563.00	559.00	558.00	562.00	566.00	565.00	561.00	564.00	559.00	566.00	569.00	562.00	563.00	573.00	561.00	551.00	546.00	541.00	538.00	533.00	530.00	526.00	522.00	522.00	520.00	519.00	518.00	516.00	516.00	514.00	516.00	526.00	529.00	523.00	525.00	520.00	517.00	519.00	522.00	521.00	545.00	527.00	529.00	528.00	533.00	535.00	533.00	534.00	538.00	574.00	610.00	722.00	806.00	665.00	666.00	615.00	589.00	585.00	587.00	586.00	585.00
454.00	456.00	457.00	457.00	457.00	458.00	461.00	462.00	464.00	467.00	471.00	473.00	473.00	476.00	478.00	481.00	481.00	483.00	484.00	489.00	491.00	493.00	496.00	499.00	503.00	505.00	506.00	510.00	513.00	513.00	513.00	513.00	512.00	503.00	499.00	494.00	489.00	484.00	487.00	490.00	493.00	496.00	502.00	505.00	510.00	513.00	517.00	520.00	523.00	525.00	526.00	530.00	532.00	534.00	536.00	542.00	546.00	548.00	550.00	553.00	553.00	551.00	547.00	542.00	535.00	529.00	527.00	528.00	525.00	512.00	510.00	508.00	508.00	510.00	510.00	512.00	517.00	520.00	519.00	519.00	519.00	516.00	512.00	509.00	505.00	501.00	494.00	489.00	490.00	493.00	495.00	504.00	510.00	516.00	522.00	526.00	528.00	527.00	527.00	528.00	532.00	535.00	537.00	537.00	535.00	530.00	528.00	529.00	529.00	522.00	517.00	511.00	504.00	498.00	487.00	482.00	478.00	475.00	475.00	475.00	475.00	477.00	481.00	488.00	490.00	493.00	494.00	491.00	496.00	494.00	491.00	490.00	493.00	498.00	499.00	500.00	502.00	501.00	503.00	509.00	512.00	517.00	521.00	524.00	526.00	526.00	524.00	523.00	523.00	521.00	521.00	524.00	528.00	533.00	545.00	537.00	529.00	528.00	526.00	522.00	521.00	520.00	520.00	522.00	526.00	532.00	532.00	528.00	530.00	531.00	536.00	537.00	546.00	550.00	552.00	553.00	553.00	553.00	551.00	549.00	555.00	573.00	578.00	568.00	558.00	567.00	562.00	558.00	554.00	558.00	552.00	551.00	559.00	564.00	564.00	561.00	558.00	557.00	560.00	562.00	561.00	561.00	564.00	555.00	563.00	567.00	560.00	561.00	571.00	563.00	555.00	553.00	540.00	535.00	533.00	531.00	528.00	520.00	519.00	518.00	516.00	516.00	513.00	514.00	513.00	515.00	525.00	525.00	521.00	519.00	516.00	516.00	519.00	522.00	520.00	553.00	535.00	536.00	530.00	530.00	535.00	535.00	537.00	541.00	553.00	574.00	602.00	678.00	607.00	583.00	574.00	574.00	578.00	584.00	590.00	588.00
455.00	456.00	456.00	456.00	457.00	457.00	460.00	461.00	462.00	463.00	466.00	468.00	470.00	473.00	476.00	478.00	479.00	480.00	481.00	485.00	487.00	489.00	491.00	495.00	501.00	503.00	504.00	507.00	510.00	509.00	509.00	509.00	508.00	502.00	498.00	493.00	489.00	481.00	484.00	488.00	492.00	495.00	501.00	504.00	509.00	511.00	516.00	519.00	522.00	523.00	525.00	527.00	529.00	529.00	532.00	541.00	544.00	547.00	549.00	551.00	555.00	554.00	551.00	550.00	545.00	542.00	537.00	531.00	525.00	518.00	516.00	513.00	509.00	502.00	504.00	507.00	513.00	513.00	511.00	512.00	512.00	512.00	507.00	502.00	499.00	496.00	489.00	488.00	491.00	495.00	500.00	505.00	511.00	515.00	519.00	524.00	536.00	539.00	539.00	539.00	538.00	539.00	538.00	535.00	530.00	522.00	521.00	515.00	514.00	507.00	506.00	501.00	500.00	497.00	489.00	487.00	483.00	478.00	479.00	475.00	474.00	474.00	475.00	480.00	486.00	490.00	497.00	503.00	505.00	502.00	501.00	499.00	495.00	494.00	499.00	502.00	506.00	506.00	506.00	508.00	511.00	518.00	522.00	525.00	528.00	523.00	520.00	518.00	516.00	516.00	516.00	519.00	523.00	526.00	525.00	526.00	524.00	520.00	516.00	515.00	516.00	516.00	518.00	525.00	525.00	523.00	524.00	527.00	531.00	533.00	546.00	546.00	546.00	545.00	544.00	546.00	546.00	542.00	541.00	544.00	546.00	557.00	554.00	552.00	553.00	554.00	551.00	556.00	554.00	551.00	548.00	553.00	556.00	559.00	556.00	553.00	553.00	554.00	556.00	555.00	554.00	564.00	559.00	548.00	553.00	561.00	561.00	552.00	559.00	559.00	566.00	557.00	542.00	539.00	536.00	532.00	528.00	523.00	519.00	516.00	515.00	511.00	509.00	510.00	512.00	516.00	525.00	522.00	515.00	513.00	513.00	517.00	518.00	519.00	519.00	534.00	524.00	523.00	523.00	526.00	528.00	532.00	532.00	536.00	543.00	549.00	550.00	552.00	558.00	562.00	568.00	572.00	569.00	576.00	585.00	587.00
454.00	455.00	455.00	456.00	457.00	458.00	460.00	461.00	462.00	463.00	465.00	467.00	469.00	474.00	476.00	476.00	477.00	478.00	479.00	482.00	484.00	486.00	489.00	493.00	498.00	501.00	503.00	505.00	507.00	507.00	507.00	507.00	505.00	498.00	495.00	492.00	487.00	483.00	487.00	490.00	495.00	498.00	505.00	508.00	513.00	515.00	520.00	522.00	521.00	522.00	522.00	524.00	525.00	527.00	528.00	538.00	541.00	544.00	547.00	550.00	556.00	557.00	555.00	554.00	549.00	539.00	533.00	530.00	530.00	528.00	523.00	518.00	512.00	502.00	499.00	502.00	506.00	508.00	509.00	506.00	505.00	506.00	501.00	497.00	494.00	490.00	486.00	488.00	491.00	495.00	500.00	509.00	515.00	521.00	524.00	528.00	546.00	549.00	552.00	553.00	553.00	552.00	551.00	546.00	538.00	531.00	522.00	507.00	504.00	498.00	496.00	492.00	489.00	487.00	484.00	483.00	481.00	478.00	474.00	474.00	473.00	474.00	475.00	483.00	488.00	494.00	501.00	517.00	527.00	517.00	512.00	509.00	502.00	501.00	501.00	501.00	508.00	511.00	511.00	512.00	513.00	518.00	521.00	524.00	527.00	521.00	517.00	514.00	511.00	511.00	513.00	515.00	516.00	517.00	520.00	522.00	523.00	520.00	512.00	513.00	514.00	515.00	519.00	521.00	519.00	519.00	520.00	526.00	530.00	534.00	541.00	538.00	538.00	537.00	539.00	543.00	540.00	537.00	535.00	540.00	541.00	552.00	545.00	546.00	549.00	548.00	545.00	547.00	548.00	549.00	545.00	548.00	547.00	547.00	549.00	552.00	556.00	552.00	549.00	548.00	547.00	554.00	557.00	544.00	550.00	557.00	556.00	548.00	562.00	554.00	548.00	553.00	545.00	540.00	546.00	541.00	533.00	526.00	522.00	520.00	517.00	513.00	508.00	508.00	508.00	509.00	512.00	511.00	510.00	510.00	514.00	515.00	514.00	516.00	516.00	518.00	518.00	520.00	522.00	525.00	526.00	528.00	530.00	532.00	539.00	541.00	546.00	554.00	555.00	556.00	557.00	559.00	566.00	577.00	581.00	581.00
454.00	455.00	455.00	456.00	457.00	458.00	460.00	461.00	461.00	462.00	466.00	468.00	471.00	475.00	476.00	476.00	476.00	478.00	479.00	481.00	483.00	485.00	488.00	492.00	497.00	500.00	503.00	504.00	505.00	506.00	506.00	504.00	504.00	497.00	494.00	491.00	488.00	481.00	486.00	490.00	493.00	497.00	503.00	506.00	513.00	516.00	520.00	522.00	521.00	522.00	522.00	522.00	524.00	525.00	527.00	535.00	538.00	542.00	545.00	549.00	554.00	557.00	555.00	553.00	547.00	538.00	535.00	535.00	534.00	529.00	524.00	517.00	512.00	504.00	499.00	500.00	504.00	506.00	508.00	505.00	502.00	503.00	499.00	494.00	489.00	485.00	486.00	489.00	493.00	498.00	502.00	511.00	517.00	524.00	531.00	534.00	549.00	553.00	558.00	560.00	560.00	559.00	557.00	551.00	546.00	533.00	524.00	507.00	503.00	497.00	495.00	492.00	488.00	485.00	481.00	479.00	476.00	474.00	473.00	473.00	474.00	473.00	476.00	486.00	493.00	497.00	502.00	517.00	529.00	523.00	517.00	513.00	504.00	503.00	504.00	504.00	510.00	512.00	513.00	514.00	515.00	519.00	523.00	523.00	525.00	521.00	516.00	512.00	511.00	511.00	512.00	513.00	513.00	512.00	518.00	519.00	519.00	518.00	510.00	511.00	512.00	515.00	518.00	518.00	516.00	518.00	521.00	526.00	530.00	533.00	538.00	535.00	535.00	536.00	540.00	543.00	535.00	533.00	535.00	538.00	543.00	552.00	545.00	543.00	544.00	546.00	542.00	543.00	544.00	546.00	543.00	544.00	545.00	547.00	552.00	554.00	555.00	549.00	545.00	546.00	545.00	550.00	553.00	542.00	546.00	549.00	548.00	545.00	559.00	548.00	542.00	540.00	549.00	548.00	545.00	536.00	530.00	522.00	520.00	517.00	514.00	511.00	508.00	507.00	507.00	507.00	508.00	509.00	508.00	509.00	512.00	513.00	513.00	516.00	515.00	519.00	521.00	523.00	532.00	532.00	533.00	531.00	531.00	533.00	537.00	540.00	543.00	547.00	549.00	553.00	560.00	561.00	567.00	577.00	579.00	578.00
455.00	455.00	455.00	456.00	457.00	458.00	459.00	460.00	461.00	462.00	467.00	469.00	471.00	475.00	475.00	476.00	476.00	477.00	478.00	481.00	482.00	484.00	486.00	490.00	496.00	498.00	501.00	504.00	504.00	504.00	504.00	504.00	503.00	495.00	493.00	492.00	486.00	481.00	484.00	489.00	492.00	495.00	501.00	504.00	511.00	513.00	520.00	521.00	522.00	521.00	521.00	521.00	522.00	524.00	526.00	534.00	536.00	540.00	543.00	546.00	552.00	554.00	554.00	552.00	548.00	541.00	541.00	541.00	537.00	527.00	520.00	516.00	512.00	503.00	499.00	498.00	501.00	504.00	506.00	505.00	501.00	498.00	494.00	488.00	485.00	485.00	487.00	490.00	495.00	499.00	504.00	514.00	518.00	525.00	532.00	538.00	553.00	558.00	562.00	565.00	565.00	562.00	561.00	555.00	548.00	530.00	521.00	507.00	502.00	497.00	494.00	491.00	491.00	487.00	479.00	476.00	474.00	473.00	473.00	473.00	473.00	473.00	478.00	485.00	490.00	496.00	501.00	512.00	520.00	522.00	520.00	513.00	504.00	500.00	502.00	504.00	508.00	512.00	514.00	519.00	518.00	520.00	521.00	522.00	523.00	521.00	517.00	512.00	509.00	510.00	511.00	510.00	511.00	512.00	516.00	517.00	516.00	514.00	509.00	509.00	510.00	513.00	516.00	514.00	514.00	518.00	524.00	531.00	533.00	540.00	534.00	533.00	532.00	536.00	540.00	541.00	534.00	531.00	533.00	537.00	542.00	550.00	544.00	538.00	541.00	545.00	540.00	539.00	542.00	541.00	542.00	544.00	548.00	552.00	556.00	555.00	551.00	547.00	543.00	543.00	544.00	547.00	548.00	537.00	541.00	541.00	541.00	547.00	554.00	545.00	536.00	535.00	550.00	552.00	537.00	539.00	532.00	522.00	520.00	518.00	516.00	514.00	507.00	506.00	506.00	506.00	507.00	507.00	506.00	506.00	510.00	511.00	513.00	514.00	514.00	539.00	588.00	595.00	636.00	604.00	547.00	541.00	538.00	538.00	540.00	543.00	543.00	543.00	550.00	554.00	561.00	566.00	569.00	573.00	576.00	576.00
