618.00	641.00	664.00	723.00	748.00	761.00	765.00	765.00	759.00	721.00	699.00	682.00	649.00	621.00	599.00	579.00	545.00	542.00	542.00	533.00	525.00	523.00	510.00	497.00	483.00	454.00	438.00	416.00	350.00	336.00	363.00	371.00	381.00	389.00	410.00	423.00	436.00	450.00	458.00	461.00	465.00	468.00	470.00	472.00	473.00	471.00	468.00	465.00	462.00	463.00	465.00	466.00	472.00	472.00	472.00	471.00	472.00	476.00	478.00	476.00	479.00	480.00	479.00	478.00	478.00	481.00	489.00	495.00	498.00	503.00	522.00	532.00	542.00	548.00	556.00	572.00	577.00	582.00	586.00	600.00	603.00	608.00	618.00	634.00	659.00	667.00	664.00	660.00	669.00	670.00	669.00	667.00	665.00	646.00	660.00	665.00	666.00	670.00	674.00	677.00	679.00	677.00	663.00	648.00	641.00	636.00	628.00	622.00	615.00	605.00	601.00	577.00	563.00	553.00	533.00	517.00	522.00	536.00	544.00	550.00	531.00	527.00	530.00	531.00	526.00	524.00	523.00	525.00	564.00	553.00	536.00	529.00	535.00	529.00	528.00	551.00	573.00	599.00	597.00	577.00	569.00	559.00	548.00	558.00	556.00	561.00	616.00	625.00	629.00	617.00	608.00	597.00	574.00	559.00	557.00	601.00	597.00	599.00	597.00	595.00	591.00	591.00	596.00	601.00	590.00	570.00	514.00	521.00	519.00	515.00	511.00	506.00	494.00	498.00	532.00	565.00	594.00	720.00	828.00	842.00	831.00	797.00	716.00	739.00	762.00	762.00	756.00	717.00	706.00	686.00	683.00	695.00	696.00	705.00	722.00	755.00	800.00	821.00	823.00	819.00	816.00	821.00	825.00	824.00	822.00	805.00	795.00	783.00	782.00	781.00	785.00	785.00	780.00	778.00	762.00	750.00	739.00	730.00	702.00	700.00	700.00	697.00	690.00	665.00	660.00	656.00	650.00	659.00	657.00	651.00	646.00	644.00	656.00	659.00	660.00	662.00	670.00	675.00	679.00	680.00	688.00	705.00	724.00	751.00	768.00	800.00	817.00	832.00	850.00	864.00	861.00	853.00	849.00	849.00	843.00	836.00
621.00	637.00	657.00	722.00	737.00	747.00	755.00	759.00	756.00	739.00	722.00	706.00	662.00	650.00	644.00	628.00	588.00	573.00	555.00	527.00	508.00	480.00	471.00	461.00	449.00	434.00	430.00	415.00	386.00	356.00	352.00	359.00	366.00	371.00	377.00	385.00	399.00	413.00	432.00	457.00	463.00	466.00	468.00	474.00	477.00	476.00	475.00	477.00	476.00	476.00	473.00	479.00	482.00	482.00	482.00	482.00	482.00	482.00	480.00	478.00	479.00	484.00	486.00	487.00	489.00	494.00	501.00	504.00	510.00	516.00	517.00	517.00	534.00	540.00	545.00	558.00	570.00	582.00	596.00	610.00	616.00	621.00	623.00	638.00	670.00	681.00	681.00	679.00	680.00	678.00	675.00	670.00	665.00	661.00	667.00	673.00	676.00	676.00	679.00	683.00	685.00	685.00	667.00	645.00	640.00	636.00	627.00	623.00	620.00	612.00	601.00	567.00	557.00	548.00	532.00	520.00	528.00	541.00	553.00	560.00	557.00	554.00	554.00	558.00	528.00	530.00	530.00	528.00	536.00	549.00	568.00	582.00	588.00	586.00	566.00	557.00	549.00	547.00	548.00	545.00	546.00	555.00	610.00	599.00	558.00	550.00	556.00	556.00	560.00	560.00	555.00	554.00	553.00	568.00	596.00	621.00	618.00	616.00	617.00	616.00	609.00	606.00	604.00	601.00	573.00	543.00	551.00	570.00	560.00	544.00	548.00	540.00	523.00	498.00	497.00	518.00	571.00	670.00	787.00	820.00	827.00	813.00	774.00	797.00	802.00	798.00	790.00	754.00	732.00	712.00	697.00	704.00	711.00	719.00	721.00	722.00	757.00	801.00	822.00	853.00	868.00	867.00	867.00	868.00	868.00	849.00	828.00	816.00	833.00	830.00	821.00	810.00	798.00	786.00	761.00	749.00	738.00	729.00	711.00	700.00	696.00	690.00	684.00	669.00	657.00	659.00	662.00	666.00	667.00	664.00	661.00	657.00	654.00	658.00	662.00	664.00	669.00	672.00	676.00	679.00	688.00	700.00	710.00	723.00	741.00	783.00	805.00	823.00	841.00	851.00	812.00	803.00	801.00	804.00	806.00	799.00
621.00	637.00	657.00	722.00	737.00	747.00	755.00	759.00	756.00	739.00	722.00	706.00	662.00	650.00	644.00	628.00	588.00	573.00	555.00	527.00	508.00	480.00	471.00	461.00	449.00	434.00	430.00	415.00	386.00	356.00	352.00	359.00	366.00	371.00	377.00	385.00	399.00	413.00	432.00	457.00	463.00	466.00	468.00	474.00	477.00	476.00	475.00	477.00	476.00	476.00	473.00	479.00	482.00	482.00	482.00	482.00	482.00	482.00	480.00	478.00	479.00	484.00	486.00	487.00	489.00	494.00	501.00	504.00	510.00	516.00	517.00	517.00	534.00	540.00	545.00	558.00	570.00	582.00	596.00	610.00	616.00	621.00	623.00	638.00	670.00	681.00	681.00	679.00	680.00	678.00	675.00	670.00	665.00	661.00	667.00	673.00	676.00	676.00	679.00	683.00	685.00	685.00	667.00	645.00	640.00	636.00	627.00	623.00	620.00	612.00	601.00	567.00	557.00	548.00	532.00	520.00	528.00	541.00	553.00	560.00	557.00	554.00	554.00	558.00	528.00	530.00	530.00	528.00	536.00	549.00	568.00	582.00	588.00	586.00	566.00	557.00	549.00	547.00	548.00	545.00	546.00	555.00	610.00	599.00	558.00	550.00	556.00	556.00	560.00	560.00	555.00	554.00	553.00	568.00	596.00	621.00	618.00	616.00	617.00	616.00	609.00	606.00	604.00	601.00	573.00	543.00	551.00	570.00	560.00	544.00	548.00	540.00	523.00	498.00	497.00	518.00	571.00	670.00	787.00	820.00	827.00	813.00	774.00	797.00	802.00	798.00	790.00	754.00	732.00	712.00	697.00	704.00	711.00	719.00	721.00	722.00	757.00	801.00	822.00	853.00	868.00	867.00	867.00	868.00	868.00	849.00	828.00	816.00	833.00	830.00	821.00	810.00	798.00	786.00	761.00	749.00	738.00	729.00	711.00	700.00	696.00	690.00	684.00	669.00	657.00	659.00	662.00	666.00	667.00	664.00	661.00	657.00	654.00	658.00	662.00	664.00	669.00	672.00	676.00	679.00	688.00	700.00	710.00	723.00	741.00	783.00	805.00	823.00	841.00	851.00	812.00	803.00	801.00	804.00	806.00	799.00
628.00	634.00	643.00	675.00	695.00	712.00	730.00	745.00	744.00	738.00	729.00	720.00	707.00	699.00	688.00	671.00	607.00	591.00	574.00	524.00	516.00	496.00	483.00	475.00	467.00	459.00	460.00	449.00	429.00	393.00	352.00	370.00	379.00	377.00	370.00	368.00	366.00	375.00	396.00	432.00	450.00	457.00	461.00	466.00	472.00	477.00	479.00	480.00	479.00	480.00	480.00	477.00	483.00	488.00	492.00	493.00	494.00	489.00	487.00	487.00	487.00	488.00	489.00	492.00	495.00	498.00	508.00	514.00	519.00	522.00	522.00	518.00	530.00	539.00	546.00	560.00	567.00	578.00	594.00	608.00	613.00	616.00	628.00	639.00	667.00	677.00	681.00	684.00	683.00	680.00	679.00	678.00	677.00	673.00	679.00	686.00	689.00	685.00	687.00	691.00	694.00	696.00	675.00	652.00	645.00	640.00	630.00	622.00	612.00	598.00	582.00	554.00	548.00	544.00	532.00	530.00	539.00	546.00	556.00	562.00	569.00	570.00	569.00	565.00	539.00	539.00	537.00	538.00	573.00	560.00	545.00	571.00	594.00	607.00	615.00	616.00	606.00	598.00	602.00	603.00	608.00	622.00	615.00	586.00	554.00	546.00	561.00	584.00	616.00	621.00	601.00	593.00	594.00	588.00	573.00	603.00	605.00	614.00	622.00	629.00	634.00	633.00	623.00	606.00	572.00	532.00	570.00	581.00	580.00	560.00	568.00	571.00	558.00	499.00	495.00	505.00	550.00	606.00	704.00	753.00	795.00	826.00	843.00	843.00	837.00	827.00	809.00	755.00	742.00	735.00	727.00	725.00	730.00	734.00	733.00	732.00	740.00	781.00	811.00	842.00	894.00	902.00	914.00	916.00	913.00	887.00	875.00	880.00	886.00	870.00	848.00	819.00	794.00	782.00	764.00	755.00	747.00	741.00	717.00	706.00	700.00	692.00	680.00	665.00	675.00	683.00	681.00	680.00	680.00	678.00	671.00	665.00	660.00	656.00	659.00	662.00	668.00	671.00	674.00	677.00	686.00	698.00	702.00	712.00	724.00	757.00	773.00	790.00	805.00	813.00	782.00	769.00	762.00	760.00	762.00	753.00
637.00	637.00	636.00	659.00	679.00	700.00	715.00	726.00	725.00	729.00	730.00	729.00	716.00	705.00	694.00	676.00	601.00	582.00	560.00	513.00	505.00	486.00	478.00	470.00	465.00	451.00	437.00	409.00	391.00	382.00	365.00	379.00	395.00	398.00	400.00	392.00	384.00	375.00	367.00	378.00	427.00	444.00	453.00	458.00	463.00	470.00	476.00	480.00	477.00	478.00	480.00	482.00	493.00	506.00	522.00	521.00	514.00	500.00	497.00	496.00	498.00	497.00	495.00	498.00	500.00	503.00	512.00	517.00	522.00	527.00	534.00	531.00	532.00	538.00	543.00	559.00	562.00	570.00	579.00	594.00	600.00	604.00	627.00	638.00	659.00	673.00	684.00	692.00	695.00	695.00	697.00	697.00	692.00	683.00	687.00	699.00	702.00	698.00	700.00	701.00	701.00	698.00	671.00	647.00	642.00	637.00	612.00	596.00	581.00	569.00	562.00	546.00	543.00	539.00	532.00	544.00	551.00	558.00	563.00	567.00	576.00	580.00	582.00	577.00	542.00	542.00	560.00	567.00	564.00	571.00	562.00	552.00	558.00	585.00	601.00	613.00	616.00	627.00	629.00	634.00	638.00	637.00	633.00	627.00	596.00	582.00	609.00	635.00	641.00	638.00	633.00	622.00	615.00	612.00	616.00	622.00	613.00	603.00	616.00	631.00	643.00	643.00	632.00	608.00	576.00	534.00	579.00	582.00	577.00	570.00	576.00	578.00	569.00	512.00	501.00	505.00	530.00	583.00	612.00	637.00	675.00	726.00	826.00	850.00	851.00	832.00	811.00	764.00	757.00	752.00	754.00	769.00	770.00	770.00	763.00	754.00	755.00	762.00	772.00	787.00	832.00	869.00	902.00	925.00	938.00	933.00	930.00	927.00	912.00	857.00	830.00	806.00	791.00	782.00	764.00	759.00	755.00	745.00	708.00	702.00	694.00	685.00	676.00	690.00	701.00	709.00	707.00	700.00	697.00	687.00	682.00	675.00	664.00	659.00	659.00	661.00	676.00	678.00	677.00	676.00	683.00	697.00	700.00	703.00	710.00	730.00	747.00	762.00	776.00	785.00	773.00	758.00	743.00	732.00	725.00	718.00
637.00	637.00	636.00	659.00	679.00	700.00	715.00	726.00	725.00	729.00	730.00	729.00	716.00	705.00	694.00	676.00	601.00	582.00	560.00	513.00	505.00	486.00	478.00	470.00	465.00	451.00	437.00	409.00	391.00	382.00	365.00	379.00	395.00	398.00	400.00	392.00	384.00	375.00	367.00	378.00	427.00	444.00	453.00	458.00	463.00	470.00	476.00	480.00	477.00	478.00	480.00	482.00	493.00	506.00	522.00	521.00	514.00	500.00	497.00	496.00	498.00	497.00	495.00	498.00	500.00	503.00	512.00	517.00	522.00	527.00	534.00	531.00	532.00	538.00	543.00	559.00	562.00	570.00	579.00	594.00	600.00	604.00	627.00	638.00	659.00	673.00	684.00	692.00	695.00	695.00	697.00	697.00	692.00	683.00	687.00	699.00	702.00	698.00	700.00	701.00	701.00	698.00	671.00	647.00	642.00	637.00	612.00	596.00	581.00	569.00	562.00	546.00	543.00	539.00	532.00	544.00	551.00	558.00	563.00	567.00	576.00	580.00	582.00	577.00	542.00	542.00	560.00	567.00	564.00	571.00	562.00	552.00	558.00	585.00	601.00	613.00	616.00	627.00	629.00	634.00	638.00	637.00	633.00	627.00	596.00	582.00	609.00	635.00	641.00	638.00	633.00	622.00	615.00	612.00	616.00	622.00	613.00	603.00	616.00	631.00	643.00	643.00	632.00	608.00	576.00	534.00	579.00	582.00	577.00	570.00	576.00	578.00	569.00	512.00	501.00	505.00	530.00	583.00	612.00	637.00	675.00	726.00	826.00	850.00	851.00	832.00	811.00	764.00	757.00	752.00	754.00	769.00	770.00	770.00	763.00	754.00	755.00	762.00	772.00	787.00	832.00	869.00	902.00	925.00	938.00	933.00	930.00	927.00	912.00	857.00	830.00	806.00	791.00	782.00	764.00	759.00	755.00	745.00	708.00	702.00	694.00	685.00	676.00	690.00	701.00	709.00	707.00	700.00	697.00	687.00	682.00	675.00	664.00	659.00	659.00	661.00	676.00	678.00	677.00	676.00	683.00	697.00	700.00	703.00	710.00	730.00	747.00	762.00	776.00	785.00	773.00	758.00	743.00	732.00	725.00	718.00
637.00	637.00	636.00	659.00	679.00	700.00	715.00	726.00	725.00	729.00	730.00	729.00	716.00	705.00	694.00	676.00	601.00	582.00	560.00	513.00	505.00	486.00	478.00	470.00	465.00	451.00	437.00	409.00	391.00	382.00	365.00	379.00	395.00	398.00	400.00	392.00	384.00	375.00	367.00	378.00	427.00	444.00	453.00	458.00	463.00	470.00	476.00	480.00	477.00	478.00	480.00	482.00	493.00	506.00	522.00	521.00	514.00	500.00	497.00	496.00	498.00	497.00	495.00	498.00	500.00	503.00	512.00	517.00	522.00	527.00	534.00	531.00	532.00	538.00	543.00	559.00	562.00	570.00	579.00	594.00	600.00	604.00	627.00	638.00	659.00	673.00	684.00	692.00	695.00	695.00	697.00	697.00	692.00	683.00	687.00	699.00	702.00	698.00	700.00	701.00	701.00	698.00	671.00	647.00	642.00	637.00	612.00	596.00	581.00	569.00	562.00	546.00	543.00	539.00	532.00	544.00	551.00	558.00	563.00	567.00	576.00	580.00	582.00	577.00	542.00	542.00	560.00	567.00	564.00	571.00	562.00	552.00	558.00	585.00	601.00	613.00	616.00	627.00	629.00	634.00	638.00	637.00	633.00	627.00	596.00	582.00	609.00	635.00	641.00	638.00	633.00	622.00	615.00	612.00	616.00	622.00	613.00	603.00	616.00	631.00	643.00	643.00	632.00	608.00	576.00	534.00	579.00	582.00	577.00	570.00	576.00	578.00	569.00	512.00	501.00	505.00	530.00	583.00	612.00	637.00	675.00	726.00	826.00	850.00	851.00	832.00	811.00	764.00	757.00	752.00	754.00	769.00	770.00	770.00	763.00	754.00	755.00	762.00	772.00	787.00	832.00	869.00	902.00	925.00	938.00	933.00	930.00	927.00	912.00	857.00	830.00	806.00	791.00	782.00	764.00	759.00	755.00	745.00	708.00	702.00	694.00	685.00	676.00	690.00	701.00	709.00	707.00	700.00	697.00	687.00	682.00	675.00	664.00	659.00	659.00	661.00	676.00	678.00	677.00	676.00	683.00	697.00	700.00	703.00	710.00	730.00	747.00	762.00	776.00	785.00	773.00	758.00	743.00	732.00	725.00	718.00
650.00	647.00	640.00	629.00	644.00	664.00	685.00	701.00	695.00	711.00	719.00	714.00	679.00	662.00	655.00	637.00	575.00	548.00	526.00	502.00	500.00	477.00	471.00	468.00	463.00	428.00	401.00	381.00	374.00	368.00	384.00	396.00	402.00	406.00	420.00	447.00	436.00	414.00	401.00	387.00	383.00	391.00	424.00	454.00	463.00	475.00	482.00	483.00	479.00	483.00	490.00	486.00	486.00	489.00	497.00	513.00	517.00	508.00	501.00	498.00	497.00	499.00	499.00	500.00	503.00	508.00	518.00	521.00	525.00	533.00	546.00	543.00	539.00	543.00	549.00	561.00	570.00	579.00	589.00	599.00	603.00	612.00	629.00	638.00	663.00	678.00	700.00	708.00	712.00	712.00	711.00	709.00	705.00	696.00	696.00	700.00	706.00	711.00	712.00	710.00	702.00	687.00	653.00	632.00	620.00	605.00	577.00	567.00	561.00	556.00	551.00	542.00	540.00	535.00	540.00	552.00	558.00	565.00	573.00	578.00	581.00	586.00	591.00	591.00	543.00	544.00	563.00	588.00	577.00	593.00	596.00	588.00	578.00	574.00	574.00	587.00	602.00	620.00	626.00	637.00	642.00	641.00	645.00	649.00	652.00	647.00	644.00	641.00	643.00	644.00	643.00	640.00	638.00	638.00	640.00	634.00	625.00	619.00	628.00	637.00	643.00	641.00	625.00	605.00	586.00	550.00	584.00	586.00	584.00	587.00	591.00	586.00	560.00	520.00	511.00	511.00	517.00	540.00	590.00	598.00	608.00	628.00	702.00	753.00	796.00	817.00	822.00	790.00	783.00	788.00	804.00	820.00	820.00	815.00	807.00	798.00	768.00	773.00	785.00	790.00	787.00	797.00	822.00	863.00	903.00	939.00	943.00	941.00	917.00	863.00	852.00	836.00	814.00	795.00	778.00	779.00	763.00	742.00	703.00	698.00	688.00	681.00	679.00	715.00	724.00	733.00	733.00	721.00	716.00	704.00	699.00	686.00	677.00	674.00	668.00	664.00	668.00	672.00	678.00	680.00	679.00	689.00	691.00	693.00	697.00	715.00	728.00	735.00	742.00	756.00	767.00	751.00	735.00	723.00	708.00	702.00
650.00	647.00	640.00	629.00	644.00	664.00	685.00	701.00	695.00	711.00	719.00	714.00	679.00	662.00	655.00	637.00	575.00	548.00	526.00	502.00	500.00	477.00	471.00	468.00	463.00	428.00	401.00	381.00	374.00	368.00	384.00	396.00	402.00	406.00	420.00	447.00	436.00	414.00	401.00	387.00	383.00	391.00	424.00	454.00	463.00	475.00	482.00	483.00	479.00	483.00	490.00	486.00	486.00	489.00	497.00	513.00	517.00	508.00	501.00	498.00	497.00	499.00	499.00	500.00	503.00	508.00	518.00	521.00	525.00	533.00	546.00	543.00	539.00	543.00	549.00	561.00	570.00	579.00	589.00	599.00	603.00	612.00	629.00	638.00	663.00	678.00	700.00	708.00	712.00	712.00	711.00	709.00	705.00	696.00	696.00	700.00	706.00	711.00	712.00	710.00	702.00	687.00	653.00	632.00	620.00	605.00	577.00	567.00	561.00	556.00	551.00	542.00	540.00	535.00	540.00	552.00	558.00	565.00	573.00	578.00	581.00	586.00	591.00	591.00	543.00	544.00	563.00	588.00	577.00	593.00	596.00	588.00	578.00	574.00	574.00	587.00	602.00	620.00	626.00	637.00	642.00	641.00	645.00	649.00	652.00	647.00	644.00	641.00	643.00	644.00	643.00	640.00	638.00	638.00	640.00	634.00	625.00	619.00	628.00	637.00	643.00	641.00	625.00	605.00	586.00	550.00	584.00	586.00	584.00	587.00	591.00	586.00	560.00	520.00	511.00	511.00	517.00	540.00	590.00	598.00	608.00	628.00	702.00	753.00	796.00	817.00	822.00	790.00	783.00	788.00	804.00	820.00	820.00	815.00	807.00	798.00	768.00	773.00	785.00	790.00	787.00	797.00	822.00	863.00	903.00	939.00	943.00	941.00	917.00	863.00	852.00	836.00	814.00	795.00	778.00	779.00	763.00	742.00	703.00	698.00	688.00	681.00	679.00	715.00	724.00	733.00	733.00	721.00	716.00	704.00	699.00	686.00	677.00	674.00	668.00	664.00	668.00	672.00	678.00	680.00	679.00	689.00	691.00	693.00	697.00	715.00	728.00	735.00	742.00	756.00	767.00	751.00	735.00	723.00	708.00	702.00
665.00	653.00	646.00	648.00	623.00	629.00	656.00	669.00	652.00	657.00	666.00	669.00	625.00	601.00	590.00	581.00	545.00	524.00	514.00	496.00	488.00	470.00	453.00	436.00	439.00	434.00	367.00	350.00	362.00	377.00	395.00	400.00	404.00	409.00	437.00	460.00	463.00	442.00	454.00	431.00	407.00	394.00	393.00	399.00	407.00	421.00	432.00	448.00	440.00	430.00	408.00	405.00	403.00	399.00	395.00	400.00	415.00	461.00	477.00	478.00	480.00	500.00	504.00	507.00	509.00	513.00	521.00	526.00	534.00	548.00	560.00	556.00	554.00	555.00	558.00	573.00	582.00	592.00	596.00	606.00	613.00	619.00	635.00	644.00	668.00	685.00	719.00	732.00	726.00	724.00	722.00	722.00	721.00	707.00	705.00	711.00	716.00	721.00	719.00	703.00	683.00	662.00	628.00	600.00	585.00	578.00	566.00	561.00	559.00	557.00	555.00	544.00	538.00	534.00	548.00	562.00	567.00	574.00	580.00	584.00	590.00	594.00	604.00	616.00	557.00	552.00	575.00	593.00	581.00	585.00	592.00	600.00	602.00	608.00	609.00	594.00	586.00	605.00	618.00	633.00	641.00	642.00	648.00	652.00	656.00	660.00	654.00	651.00	650.00	651.00	653.00	656.00	655.00	656.00	654.00	641.00	632.00	632.00	640.00	643.00	644.00	640.00	625.00	608.00	564.00	550.00	596.00	597.00	596.00	604.00	605.00	596.00	584.00	528.00	519.00	515.00	514.00	546.00	558.00	584.00	596.00	602.00	626.00	649.00	680.00	707.00	730.00	778.00	789.00	801.00	817.00	846.00	853.00	856.00	850.00	835.00	792.00	824.00	836.00	835.00	834.00	816.00	806.00	812.00	843.00	894.00	914.00	931.00	900.00	851.00	838.00	828.00	818.00	811.00	797.00	780.00	759.00	734.00	701.00	697.00	692.00	688.00	687.00	713.00	728.00	744.00	753.00	748.00	740.00	727.00	714.00	701.00	692.00	691.00	687.00	685.00	681.00	675.00	677.00	680.00	683.00	682.00	685.00	693.00	704.00	716.00	718.00	721.00	726.00	730.00	730.00	728.00	722.00	715.00	707.00	711.00
665.00	653.00	646.00	648.00	623.00	629.00	656.00	669.00	652.00	657.00	666.00	669.00	625.00	601.00	590.00	581.00	545.00	524.00	514.00	496.00	488.00	470.00	453.00	436.00	439.00	434.00	367.00	350.00	362.00	377.00	395.00	400.00	404.00	409.00	437.00	460.00	463.00	442.00	454.00	431.00	407.00	394.00	393.00	399.00	407.00	421.00	432.00	448.00	440.00	430.00	408.00	405.00	403.00	399.00	395.00	400.00	415.00	461.00	477.00	478.00	480.00	500.00	504.00	507.00	509.00	513.00	521.00	526.00	534.00	548.00	560.00	556.00	554.00	555.00	558.00	573.00	582.00	592.00	596.00	606.00	613.00	619.00	635.00	644.00	668.00	685.00	719.00	732.00	726.00	724.00	722.00	722.00	721.00	707.00	705.00	711.00	716.00	721.00	719.00	703.00	683.00	662.00	628.00	600.00	585.00	578.00	566.00	561.00	559.00	557.00	555.00	544.00	538.00	534.00	548.00	562.00	567.00	574.00	580.00	584.00	590.00	594.00	604.00	616.00	557.00	552.00	575.00	593.00	581.00	585.00	592.00	600.00	602.00	608.00	609.00	594.00	586.00	605.00	618.00	633.00	641.00	642.00	648.00	652.00	656.00	660.00	654.00	651.00	650.00	651.00	653.00	656.00	655.00	656.00	654.00	641.00	632.00	632.00	640.00	643.00	644.00	640.00	625.00	608.00	564.00	550.00	596.00	597.00	596.00	604.00	605.00	596.00	584.00	528.00	519.00	515.00	514.00	546.00	558.00	584.00	596.00	602.00	626.00	649.00	680.00	707.00	730.00	778.00	789.00	801.00	817.00	846.00	853.00	856.00	850.00	835.00	792.00	824.00	836.00	835.00	834.00	816.00	806.00	812.00	843.00	894.00	914.00	931.00	900.00	851.00	838.00	828.00	818.00	811.00	797.00	780.00	759.00	734.00	701.00	697.00	692.00	688.00	687.00	713.00	728.00	744.00	753.00	748.00	740.00	727.00	714.00	701.00	692.00	691.00	687.00	685.00	681.00	675.00	677.00	680.00	683.00	682.00	685.00	693.00	704.00	716.00	718.00	721.00	726.00	730.00	730.00	728.00	722.00	715.00	707.00	711.00
667.00	659.00	663.00	677.00	660.00	634.00	607.00	619.00	616.00	593.00	589.00	598.00	590.00	575.00	560.00	548.00	522.00	512.00	502.00	484.00	478.00	458.00	439.00	462.00	478.00	407.00	351.00	347.00	359.00	375.00	401.00	404.00	410.00	418.00	458.00	467.00	465.00	461.00	461.00	475.00	428.00	433.00	437.00	410.00	407.00	400.00	391.00	385.00	398.00	410.00	420.00	451.00	479.00	504.00	504.00	485.00	441.00	419.00	429.00	455.00	469.00	491.00	502.00	512.00	518.00	518.00	527.00	536.00	551.00	566.00	578.00	576.00	572.00	574.00	578.00	593.00	592.00	599.00	604.00	615.00	621.00	626.00	639.00	652.00	681.00	714.00	737.00	740.00	738.00	736.00	732.00	729.00	727.00	718.00	720.00	722.00	722.00	712.00	696.00	678.00	657.00	637.00	599.00	578.00	572.00	568.00	563.00	562.00	562.00	559.00	549.00	538.00	540.00	547.00	560.00	577.00	581.00	584.00	587.00	591.00	600.00	606.00	616.00	624.00	555.00	561.00	595.00	612.00	606.00	608.00	608.00	607.00	604.00	614.00	620.00	625.00	624.00	605.00	602.00	601.00	618.00	647.00	653.00	653.00	655.00	658.00	659.00	659.00	658.00	658.00	661.00	667.00	667.00	667.00	664.00	646.00	644.00	644.00	644.00	645.00	645.00	643.00	634.00	598.00	577.00	601.00	608.00	604.00	604.00	618.00	621.00	618.00	611.00	566.00	542.00	529.00	522.00	528.00	561.00	556.00	579.00	600.00	608.00	612.00	621.00	633.00	648.00	688.00	699.00	707.00	717.00	742.00	757.00	770.00	771.00	780.00	808.00	848.00	858.00	859.00	860.00	856.00	846.00	839.00	839.00	868.00	891.00	927.00	967.00	927.00	910.00	889.00	867.00	836.00	765.00	746.00	728.00	719.00	700.00	697.00	694.00	692.00	693.00	709.00	728.00	750.00	766.00	775.00	768.00	749.00	738.00	726.00	705.00	701.00	697.00	689.00	681.00	679.00	683.00	686.00	690.00	692.00	697.00	705.00	714.00	726.00	731.00	736.00	740.00	747.00	771.00	755.00	740.00	737.00	732.00	730.00
673.00	669.00	674.00	683.00	678.00	658.00	636.00	601.00	587.00	571.00	558.00	551.00	548.00	543.00	525.00	512.00	503.00	496.00	488.00	477.00	471.00	463.00	469.00	475.00	471.00	410.00	354.00	344.00	350.00	362.00	414.00	416.00	421.00	434.00	473.00	478.00	475.00	470.00	468.00	479.00	435.00	472.00	483.00	480.00	481.00	486.00	498.00	502.00	518.00	527.00	506.00	529.00	554.00	568.00	576.00	572.00	532.00	457.00	431.00	420.00	433.00	485.00	490.00	502.00	511.00	519.00	534.00	546.00	560.00	572.00	588.00	593.00	599.00	597.00	601.00	607.00	611.00	614.00	622.00	629.00	633.00	638.00	657.00	668.00	731.00	740.00	743.00	743.00	740.00	737.00	734.00	734.00	734.00	726.00	725.00	721.00	714.00	684.00	663.00	637.00	617.00	602.00	583.00	574.00	570.00	566.00	562.00	560.00	557.00	549.00	545.00	552.00	559.00	569.00	566.00	588.00	591.00	594.00	597.00	600.00	610.00	617.00	628.00	635.00	552.00	571.00	604.00	631.00	638.00	639.00	633.00	625.00	618.00	627.00	634.00	647.00	649.00	637.00	627.00	613.00	618.00	640.00	652.00	654.00	656.00	661.00	667.00	668.00	671.00	675.00	678.00	680.00	679.00	676.00	673.00	657.00	654.00	652.00	651.00	651.00	646.00	641.00	622.00	577.00	609.00	619.00	618.00	615.00	614.00	624.00	630.00	628.00	622.00	609.00	586.00	558.00	544.00	523.00	565.00	587.00	571.00	570.00	591.00	603.00	610.00	616.00	622.00	639.00	644.00	650.00	656.00	674.00	683.00	690.00	698.00	709.00	728.00	761.00	771.00	785.00	808.00	818.00	822.00	822.00	825.00	857.00	881.00	906.00	935.00	926.00	914.00	890.00	852.00	803.00	741.00	728.00	717.00	708.00	697.00	695.00	694.00	695.00	696.00	704.00	716.00	731.00	751.00	788.00	795.00	787.00	773.00	734.00	702.00	697.00	690.00	683.00	681.00	684.00	687.00	691.00	698.00	696.00	700.00	706.00	714.00	724.00	730.00	735.00	740.00	750.00	783.00	787.00	787.00	782.00	770.00	767.00
673.00	669.00	674.00	683.00	678.00	658.00	636.00	601.00	587.00	571.00	558.00	551.00	548.00	543.00	525.00	512.00	503.00	496.00	488.00	477.00	471.00	463.00	469.00	475.00	471.00	410.00	354.00	344.00	350.00	362.00	414.00	416.00	421.00	434.00	473.00	478.00	475.00	470.00	468.00	479.00	435.00	472.00	483.00	480.00	481.00	486.00	498.00	502.00	518.00	527.00	506.00	529.00	554.00	568.00	576.00	572.00	532.00	457.00	431.00	420.00	433.00	485.00	490.00	502.00	511.00	519.00	534.00	546.00	560.00	572.00	588.00	593.00	599.00	597.00	601.00	607.00	611.00	614.00	622.00	629.00	633.00	638.00	657.00	668.00	731.00	740.00	743.00	743.00	740.00	737.00	734.00	734.00	734.00	726.00	725.00	721.00	714.00	684.00	663.00	637.00	617.00	602.00	583.00	574.00	570.00	566.00	562.00	560.00	557.00	549.00	545.00	552.00	559.00	569.00	566.00	588.00	591.00	594.00	597.00	600.00	610.00	617.00	628.00	635.00	552.00	571.00	604.00	631.00	638.00	639.00	633.00	625.00	618.00	627.00	634.00	647.00	649.00	637.00	627.00	613.00	618.00	640.00	652.00	654.00	656.00	661.00	667.00	668.00	671.00	675.00	678.00	680.00	679.00	676.00	673.00	657.00	654.00	652.00	651.00	651.00	646.00	641.00	622.00	577.00	609.00	619.00	618.00	615.00	614.00	624.00	630.00	628.00	622.00	609.00	586.00	558.00	544.00	523.00	565.00	587.00	571.00	570.00	591.00	603.00	610.00	616.00	622.00	639.00	644.00	650.00	656.00	674.00	683.00	690.00	698.00	709.00	728.00	761.00	771.00	785.00	808.00	818.00	822.00	822.00	825.00	857.00	881.00	906.00	935.00	926.00	914.00	890.00	852.00	803.00	741.00	728.00	717.00	708.00	697.00	695.00	694.00	695.00	696.00	704.00	716.00	731.00	751.00	788.00	795.00	787.00	773.00	734.00	702.00	697.00	690.00	683.00	681.00	684.00	687.00	691.00	698.00	696.00	700.00	706.00	714.00	724.00	730.00	735.00	740.00	750.00	783.00	787.00	787.00	782.00	770.00	767.00
685.00	677.00	680.00	678.00	670.00	654.00	639.00	626.00	613.00	591.00	580.00	570.00	535.00	532.00	534.00	537.00	538.00	531.00	514.00	491.00	485.00	479.00	478.00	471.00	461.00	429.00	386.00	361.00	365.00	381.00	420.00	425.00	436.00	457.00	476.00	479.00	479.00	476.00	477.00	482.00	466.00	461.00	492.00	499.00	505.00	514.00	520.00	527.00	542.00	546.00	550.00	572.00	593.00	598.00	601.00	596.00	572.00	504.00	444.00	424.00	431.00	498.00	496.00	508.00	519.00	524.00	538.00	557.00	576.00	587.00	597.00	599.00	606.00	616.00	619.00	623.00	627.00	631.00	635.00	646.00	653.00	658.00	677.00	695.00	730.00	741.00	743.00	743.00	739.00	738.00	739.00	740.00	736.00	718.00	711.00	697.00	680.00	640.00	619.00	601.00	593.00	586.00	578.00	572.00	569.00	565.00	562.00	558.00	554.00	556.00	561.00	565.00	574.00	581.00	580.00	590.00	596.00	602.00	607.00	614.00	625.00	633.00	643.00	642.00	577.00	607.00	633.00	641.00	659.00	654.00	645.00	639.00	637.00	649.00	658.00	660.00	659.00	653.00	633.00	622.00	636.00	642.00	655.00	659.00	661.00	666.00	674.00	676.00	678.00	682.00	687.00	693.00	692.00	688.00	683.00	663.00	661.00	659.00	658.00	655.00	644.00	634.00	614.00	585.00	600.00	619.00	622.00	621.00	620.00	634.00	640.00	639.00	635.00	621.00	614.00	605.00	588.00	522.00	542.00	571.00	589.00	595.00	584.00	588.00	599.00	604.00	612.00	629.00	633.00	638.00	643.00	654.00	659.00	667.00	677.00	686.00	704.00	719.00	727.00	734.00	745.00	749.00	755.00	764.00	768.00	774.00	781.00	785.00	795.00	804.00	794.00	779.00	766.00	750.00	731.00	721.00	715.00	706.00	697.00	696.00	697.00	698.00	699.00	706.00	714.00	722.00	732.00	753.00	769.00	770.00	741.00	711.00	699.00	695.00	691.00	687.00	686.00	687.00	689.00	691.00	696.00	700.00	701.00	707.00	716.00	725.00	731.00	737.00	741.00	749.00	801.00	815.00	823.00	828.00	819.00	808.00
685.00	677.00	680.00	678.00	670.00	654.00	639.00	626.00	613.00	591.00	580.00	570.00	535.00	532.00	534.00	537.00	538.00	531.00	514.00	491.00	485.00	479.00	478.00	471.00	461.00	429.00	386.00	361.00	365.00	381.00	420.00	425.00	436.00	457.00	476.00	479.00	479.00	476.00	477.00	482.00	466.00	461.00	492.00	499.00	505.00	514.00	520.00	527.00	542.00	546.00	550.00	572.00	593.00	598.00	601.00	596.00	572.00	504.00	444.00	424.00	431.00	498.00	496.00	508.00	519.00	524.00	538.00	557.00	576.00	587.00	597.00	599.00	606.00	616.00	619.00	623.00	627.00	631.00	635.00	646.00	653.00	658.00	677.00	695.00	730.00	741.00	743.00	743.00	739.00	738.00	739.00	740.00	736.00	718.00	711.00	697.00	680.00	640.00	619.00	601.00	593.00	586.00	578.00	572.00	569.00	565.00	562.00	558.00	554.00	556.00	561.00	565.00	574.00	581.00	580.00	590.00	596.00	602.00	607.00	614.00	625.00	633.00	643.00	642.00	577.00	607.00	633.00	641.00	659.00	654.00	645.00	639.00	637.00	649.00	658.00	660.00	659.00	653.00	633.00	622.00	636.00	642.00	655.00	659.00	661.00	666.00	674.00	676.00	678.00	682.00	687.00	693.00	692.00	688.00	683.00	663.00	661.00	659.00	658.00	655.00	644.00	634.00	614.00	585.00	600.00	619.00	622.00	621.00	620.00	634.00	640.00	639.00	635.00	621.00	614.00	605.00	588.00	522.00	542.00	571.00	589.00	595.00	584.00	588.00	599.00	604.00	612.00	629.00	633.00	638.00	643.00	654.00	659.00	667.00	677.00	686.00	704.00	719.00	727.00	734.00	745.00	749.00	755.00	764.00	768.00	774.00	781.00	785.00	795.00	804.00	794.00	779.00	766.00	750.00	731.00	721.00	715.00	706.00	697.00	696.00	697.00	698.00	699.00	706.00	714.00	722.00	732.00	753.00	769.00	770.00	741.00	711.00	699.00	695.00	691.00	687.00	686.00	687.00	689.00	691.00	696.00	700.00	701.00	707.00	716.00	725.00	731.00	737.00	741.00	749.00	801.00	815.00	823.00	828.00	819.00	808.00
692.00	685.00	691.00	689.00	682.00	676.00	665.00	624.00	615.00	592.00	576.00	561.00	569.00	572.00	572.00	576.00	565.00	543.00	519.00	491.00	482.00	467.00	464.00	462.00	453.00	430.00	416.00	387.00	381.00	411.00	430.00	444.00	459.00	471.00	476.00	479.00	483.00	486.00	487.00	486.00	481.00	481.00	489.00	503.00	513.00	521.00	526.00	532.00	546.00	556.00	569.00	599.00	615.00	610.00	600.00	584.00	559.00	450.00	422.00	441.00	466.00	476.00	474.00	490.00	511.00	520.00	527.00	543.00	567.00	586.00	599.00	603.00	619.00	625.00	631.00	636.00	638.00	642.00	651.00	668.00	683.00	700.00	719.00	723.00	736.00	742.00	744.00	744.00	742.00	744.00	742.00	738.00	728.00	684.00	674.00	664.00	645.00	604.00	597.00	592.00	588.00	584.00	582.00	578.00	578.00	574.00	562.00	558.00	561.00	568.00	574.00	583.00	592.00	592.00	594.00	603.00	606.00	609.00	617.00	628.00	645.00	655.00	661.00	615.00	587.00	616.00	653.00	664.00	657.00	652.00	649.00	649.00	655.00	662.00	665.00	670.00	671.00	662.00	642.00	636.00	647.00	652.00	660.00	665.00	669.00	674.00	681.00	684.00	687.00	692.00	695.00	699.00	700.00	698.00	691.00	680.00	677.00	672.00	667.00	662.00	652.00	647.00	632.00	618.00	585.00	590.00	626.00	629.00	631.00	637.00	641.00	644.00	645.00	635.00	626.00	622.00	617.00	559.00	531.00	543.00	575.00	602.00	605.00	600.00	599.00	600.00	609.00	621.00	625.00	631.00	638.00	651.00	657.00	662.00	672.00	681.00	695.00	705.00	709.00	718.00	731.00	736.00	743.00	747.00	745.00	750.00	756.00	761.00	758.00	755.00	751.00	748.00	744.00	740.00	727.00	720.00	713.00	705.00	699.00	700.00	699.00	700.00	704.00	715.00	720.00	724.00	727.00	731.00	733.00	722.00	714.00	707.00	699.00	696.00	693.00	694.00	695.00	697.00	698.00	696.00	698.00	701.00	703.00	707.00	713.00	722.00	726.00	732.00	738.00	746.00	791.00	812.00	835.00	851.00	854.00	839.00
692.00	685.00	691.00	689.00	682.00	676.00	665.00	624.00	615.00	592.00	576.00	561.00	569.00	572.00	572.00	576.00	565.00	543.00	519.00	491.00	482.00	467.00	464.00	462.00	453.00	430.00	416.00	387.00	381.00	411.00	430.00	444.00	459.00	471.00	476.00	479.00	483.00	486.00	487.00	486.00	481.00	481.00	489.00	503.00	513.00	521.00	526.00	532.00	546.00	556.00	569.00	599.00	615.00	610.00	600.00	584.00	559.00	450.00	422.00	441.00	466.00	476.00	474.00	490.00	511.00	520.00	527.00	543.00	567.00	586.00	599.00	603.00	619.00	625.00	631.00	636.00	638.00	642.00	651.00	668.00	683.00	700.00	719.00	723.00	736.00	742.00	744.00	744.00	742.00	744.00	742.00	738.00	728.00	684.00	674.00	664.00	645.00	604.00	597.00	592.00	588.00	584.00	582.00	578.00	578.00	574.00	562.00	558.00	561.00	568.00	574.00	583.00	592.00	592.00	594.00	603.00	606.00	609.00	617.00	628.00	645.00	655.00	661.00	615.00	587.00	616.00	653.00	664.00	657.00	652.00	649.00	649.00	655.00	662.00	665.00	670.00	671.00	662.00	642.00	636.00	647.00	652.00	660.00	665.00	669.00	674.00	681.00	684.00	687.00	692.00	695.00	699.00	700.00	698.00	691.00	680.00	677.00	672.00	667.00	662.00	652.00	647.00	632.00	618.00	585.00	590.00	626.00	629.00	631.00	637.00	641.00	644.00	645.00	635.00	626.00	622.00	617.00	559.00	531.00	543.00	575.00	602.00	605.00	600.00	599.00	600.00	609.00	621.00	625.00	631.00	638.00	651.00	657.00	662.00	672.00	681.00	695.00	705.00	709.00	718.00	731.00	736.00	743.00	747.00	745.00	750.00	756.00	761.00	758.00	755.00	751.00	748.00	744.00	740.00	727.00	720.00	713.00	705.00	699.00	700.00	699.00	700.00	704.00	715.00	720.00	724.00	727.00	731.00	733.00	722.00	714.00	707.00	699.00	696.00	693.00	694.00	695.00	697.00	698.00	696.00	698.00	701.00	703.00	707.00	713.00	722.00	726.00	732.00	738.00	746.00	791.00	812.00	835.00	851.00	854.00	839.00
699.00	697.00	692.00	681.00	672.00	655.00	629.00	607.00	597.00	585.00	592.00	601.00	617.00	626.00	626.00	617.00	546.00	515.00	498.00	484.00	480.00	467.00	461.00	451.00	439.00	420.00	407.00	387.00	379.00	417.00	449.00	463.00	478.00	485.00	492.00	493.00	495.00	498.00	500.00	505.00	497.00	505.00	510.00	515.00	521.00	529.00	538.00	547.00	562.00	573.00	587.00	606.00	615.00	603.00	588.00	574.00	541.00	436.00	436.00	479.00	495.00	511.00	512.00	495.00	476.00	497.00	508.00	525.00	539.00	555.00	590.00	600.00	622.00	629.00	635.00	643.00	647.00	653.00	661.00	698.00	728.00	744.00	757.00	758.00	758.00	757.00	755.00	756.00	755.00	747.00	739.00	730.00	718.00	667.00	653.00	637.00	620.00	601.00	596.00	595.00	595.00	594.00	590.00	580.00	577.00	573.00	565.00	569.00	576.00	585.00	595.00	599.00	603.00	604.00	612.00	615.00	621.00	625.00	632.00	645.00	661.00	666.00	669.00	616.00	595.00	618.00	666.00	672.00	658.00	657.00	660.00	664.00	666.00	672.00	674.00	677.00	679.00	673.00	652.00	645.00	662.00	666.00	670.00	672.00	675.00	684.00	686.00	688.00	694.00	700.00	703.00	703.00	703.00	703.00	698.00	687.00	684.00	680.00	675.00	675.00	669.00	658.00	644.00	633.00	611.00	590.00	624.00	632.00	636.00	642.00	646.00	650.00	655.00	647.00	640.00	634.00	629.00	593.00	535.00	538.00	560.00	591.00	614.00	615.00	612.00	606.00	617.00	623.00	625.00	631.00	635.00	645.00	651.00	658.00	665.00	675.00	687.00	698.00	703.00	711.00	723.00	726.00	728.00	733.00	735.00	737.00	741.00	742.00	739.00	738.00	736.00	732.00	730.00	730.00	721.00	719.00	720.00	716.00	707.00	707.00	704.00	702.00	706.00	719.00	722.00	724.00	725.00	723.00	722.00	717.00	713.00	708.00	700.00	698.00	698.00	699.00	701.00	703.00	702.00	702.00	707.00	705.00	706.00	710.00	713.00	720.00	727.00	736.00	742.00	748.00	772.00	786.00	807.00	827.00	850.00	843.00
699.00	697.00	692.00	681.00	672.00	655.00	629.00	607.00	597.00	585.00	592.00	601.00	617.00	626.00	626.00	617.00	546.00	515.00	498.00	484.00	480.00	467.00	461.00	451.00	439.00	420.00	407.00	387.00	379.00	417.00	449.00	463.00	478.00	485.00	492.00	493.00	495.00	498.00	500.00	505.00	497.00	505.00	510.00	515.00	521.00	529.00	538.00	547.00	562.00	573.00	587.00	606.00	615.00	603.00	588.00	574.00	541.00	436.00	436.00	479.00	495.00	511.00	512.00	495.00	476.00	497.00	508.00	525.00	539.00	555.00	590.00	600.00	622.00	629.00	635.00	643.00	647.00	653.00	661.00	698.00	728.00	744.00	757.00	758.00	758.00	757.00	755.00	756.00	755.00	747.00	739.00	730.00	718.00	667.00	653.00	637.00	620.00	601.00	596.00	595.00	595.00	594.00	590.00	580.00	577.00	573.00	565.00	569.00	576.00	585.00	595.00	599.00	603.00	604.00	612.00	615.00	621.00	625.00	632.00	645.00	661.00	666.00	669.00	616.00	595.00	618.00	666.00	672.00	658.00	657.00	660.00	664.00	666.00	672.00	674.00	677.00	679.00	673.00	652.00	645.00	662.00	666.00	670.00	672.00	675.00	684.00	686.00	688.00	694.00	700.00	703.00	703.00	703.00	703.00	698.00	687.00	684.00	680.00	675.00	675.00	669.00	658.00	644.00	633.00	611.00	590.00	624.00	632.00	636.00	642.00	646.00	650.00	655.00	647.00	640.00	634.00	629.00	593.00	535.00	538.00	560.00	591.00	614.00	615.00	612.00	606.00	617.00	623.00	625.00	631.00	635.00	645.00	651.00	658.00	665.00	675.00	687.00	698.00	703.00	711.00	723.00	726.00	728.00	733.00	735.00	737.00	741.00	742.00	739.00	738.00	736.00	732.00	730.00	730.00	721.00	719.00	720.00	716.00	707.00	707.00	704.00	702.00	706.00	719.00	722.00	724.00	725.00	723.00	722.00	717.00	713.00	708.00	700.00	698.00	698.00	699.00	701.00	703.00	702.00	702.00	707.00	705.00	706.00	710.00	713.00	720.00	727.00	736.00	742.00	748.00	772.00	786.00	807.00	827.00	850.00	843.00
711.00	710.00	701.00	683.00	670.00	649.00	629.00	621.00	616.00	614.00	631.00	644.00	644.00	634.00	604.00	555.00	494.00	485.00	481.00	477.00	477.00	460.00	444.00	416.00	405.00	390.00	383.00	379.00	380.00	409.00	480.00	470.00	493.00	498.00	505.00	507.00	509.00	511.00	516.00	524.00	529.00	539.00	541.00	528.00	529.00	538.00	549.00	562.00	595.00	604.00	610.00	619.00	605.00	593.00	558.00	496.00	459.00	457.00	479.00	497.00	502.00	522.00	523.00	514.00	490.00	511.00	514.00	519.00	536.00	556.00	596.00	605.00	620.00	625.00	629.00	635.00	643.00	653.00	664.00	705.00	734.00	757.00	777.00	778.00	771.00	767.00	764.00	761.00	748.00	736.00	722.00	703.00	685.00	645.00	634.00	619.00	610.00	602.00	601.00	603.00	603.00	602.00	599.00	578.00	581.00	583.00	588.00	591.00	596.00	605.00	614.00	617.00	613.00	621.00	628.00	632.00	634.00	642.00	653.00	662.00	668.00	667.00	663.00	647.00	609.00	652.00	677.00	669.00	665.00	668.00	670.00	673.00	675.00	678.00	680.00	682.00	684.00	671.00	655.00	660.00	670.00	674.00	681.00	684.00	685.00	691.00	700.00	698.00	698.00	702.00	708.00	715.00	713.00	710.00	707.00	697.00	693.00	687.00	685.00	684.00	681.00	671.00	654.00	636.00	623.00	599.00	626.00	635.00	640.00	652.00	662.00	665.00	666.00	660.00	653.00	644.00	638.00	623.00	544.00	542.00	557.00	581.00	622.00	625.00	625.00	619.00	618.00	640.00	640.00	639.00	639.00	644.00	650.00	657.00	662.00	667.00	679.00	691.00	699.00	709.00	719.00	719.00	722.00	728.00	733.00	739.00	739.00	739.00	737.00	734.00	731.00	727.00	726.00	729.00	734.00	735.00	731.00	729.00	719.00	717.00	716.00	715.00	716.00	723.00	726.00	729.00	730.00	726.00	722.00	720.00	717.00	712.00	704.00	703.00	703.00	703.00	707.00	709.00	711.00	714.00	717.00	719.00	724.00	732.00	732.00	721.00	730.00	740.00	745.00	753.00	765.00	768.00	775.00	790.00	828.00	841.00
721.00	722.00	709.00	685.00	675.00	667.00	667.00	647.00	630.00	618.00	625.00	631.00	609.00	575.00	530.00	506.00	481.00	477.00	479.00	481.00	476.00	453.00	409.00	376.00	377.00	387.00	395.00	404.00	419.00	439.00	509.00	512.00	506.00	494.00	501.00	511.00	520.00	524.00	526.00	536.00	549.00	552.00	551.00	540.00	544.00	555.00	572.00	583.00	602.00	608.00	613.00	612.00	575.00	504.00	449.00	437.00	457.00	497.00	501.00	509.00	518.00	535.00	539.00	536.00	526.00	509.00	521.00	528.00	532.00	532.00	554.00	574.00	602.00	601.00	610.00	625.00	636.00	647.00	664.00	714.00	737.00	754.00	769.00	775.00	775.00	771.00	766.00	760.00	734.00	714.00	693.00	678.00	663.00	624.00	619.00	615.00	614.00	615.00	611.00	608.00	605.00	603.00	596.00	592.00	597.00	599.00	610.00	616.00	621.00	629.00	637.00	628.00	623.00	639.00	646.00	652.00	654.00	658.00	664.00	670.00	677.00	677.00	671.00	653.00	635.00	681.00	681.00	676.00	682.00	683.00	683.00	683.00	684.00	682.00	682.00	681.00	681.00	668.00	660.00	665.00	679.00	683.00	689.00	694.00	699.00	700.00	703.00	707.00	709.00	711.00	715.00	722.00	722.00	719.00	716.00	706.00	703.00	700.00	697.00	695.00	687.00	680.00	667.00	654.00	632.00	621.00	607.00	628.00	638.00	655.00	666.00	678.00	678.00	661.00	654.00	645.00	639.00	621.00	570.00	545.00	544.00	562.00	622.00	637.00	638.00	630.00	625.00	638.00	641.00	642.00	644.00	652.00	657.00	662.00	665.00	668.00	681.00	694.00	699.00	702.00	718.00	724.00	731.00	738.00	739.00	743.00	743.00	742.00	741.00	743.00	745.00	745.00	747.00	747.00	746.00	745.00	743.00	740.00	733.00	729.00	727.00	723.00	721.00	727.00	731.00	733.00	736.00	736.00	732.00	722.00	721.00	720.00	713.00	711.00	711.00	711.00	715.00	716.00	719.00	723.00	728.00	731.00	736.00	742.00	747.00	742.00	738.00	738.00	745.00	755.00	770.00	773.00	777.00	782.00	797.00	807.00
721.00	722.00	709.00	685.00	675.00	667.00	667.00	647.00	630.00	618.00	625.00	631.00	609.00	575.00	530.00	506.00	481.00	477.00	479.00	481.00	476.00	453.00	409.00	376.00	377.00	387.00	395.00	404.00	419.00	439.00	509.00	512.00	506.00	494.00	501.00	511.00	520.00	524.00	526.00	536.00	549.00	552.00	551.00	540.00	544.00	555.00	572.00	583.00	602.00	608.00	613.00	612.00	575.00	504.00	449.00	437.00	457.00	497.00	501.00	509.00	518.00	535.00	539.00	536.00	526.00	509.00	521.00	528.00	532.00	532.00	554.00	574.00	602.00	601.00	610.00	625.00	636.00	647.00	664.00	714.00	737.00	754.00	769.00	775.00	775.00	771.00	766.00	760.00	734.00	714.00	693.00	678.00	663.00	624.00	619.00	615.00	614.00	615.00	611.00	608.00	605.00	603.00	596.00	592.00	597.00	599.00	610.00	616.00	621.00	629.00	637.00	628.00	623.00	639.00	646.00	652.00	654.00	658.00	664.00	670.00	677.00	677.00	671.00	653.00	635.00	681.00	681.00	676.00	682.00	683.00	683.00	683.00	684.00	682.00	682.00	681.00	681.00	668.00	660.00	665.00	679.00	683.00	689.00	694.00	699.00	700.00	703.00	707.00	709.00	711.00	715.00	722.00	722.00	719.00	716.00	706.00	703.00	700.00	697.00	695.00	687.00	680.00	667.00	654.00	632.00	621.00	607.00	628.00	638.00	655.00	666.00	678.00	678.00	661.00	654.00	645.00	639.00	621.00	570.00	545.00	544.00	562.00	622.00	637.00	638.00	630.00	625.00	638.00	641.00	642.00	644.00	652.00	657.00	662.00	665.00	668.00	681.00	694.00	699.00	702.00	718.00	724.00	731.00	738.00	739.00	743.00	743.00	742.00	741.00	743.00	745.00	745.00	747.00	747.00	746.00	745.00	743.00	740.00	733.00	729.00	727.00	723.00	721.00	727.00	731.00	733.00	736.00	736.00	732.00	722.00	721.00	720.00	713.00	711.00	711.00	711.00	715.00	716.00	719.00	723.00	728.00	731.00	736.00	742.00	747.00	742.00	738.00	738.00	745.00	755.00	770.00	773.00	777.00	782.00	797.00	807.00
721.00	722.00	709.00	685.00	675.00	667.00	667.00	647.00	630.00	618.00	625.00	631.00	609.00	575.00	530.00	506.00	481.00	477.00	479.00	481.00	476.00	453.00	409.00	376.00	377.00	387.00	395.00	404.00	419.00	439.00	509.00	512.00	506.00	494.00	501.00	511.00	520.00	524.00	526.00	536.00	549.00	552.00	551.00	540.00	544.00	555.00	572.00	583.00	602.00	608.00	613.00	612.00	575.00	504.00	449.00	437.00	457.00	497.00	501.00	509.00	518.00	535.00	539.00	536.00	526.00	509.00	521.00	528.00	532.00	532.00	554.00	574.00	602.00	601.00	610.00	625.00	636.00	647.00	664.00	714.00	737.00	754.00	769.00	775.00	775.00	771.00	766.00	760.00	734.00	714.00	693.00	678.00	663.00	624.00	619.00	615.00	614.00	615.00	611.00	608.00	605.00	603.00	596.00	592.00	597.00	599.00	610.00	616.00	621.00	629.00	637.00	628.00	623.00	639.00	646.00	652.00	654.00	658.00	664.00	670.00	677.00	677.00	671.00	653.00	635.00	681.00	681.00	676.00	682.00	683.00	683.00	683.00	684.00	682.00	682.00	681.00	681.00	668.00	660.00	665.00	679.00	683.00	689.00	694.00	699.00	700.00	703.00	707.00	709.00	711.00	715.00	722.00	722.00	719.00	716.00	706.00	703.00	700.00	697.00	695.00	687.00	680.00	667.00	654.00	632.00	621.00	607.00	628.00	638.00	655.00	666.00	678.00	678.00	661.00	654.00	645.00	639.00	621.00	570.00	545.00	544.00	562.00	622.00	637.00	638.00	630.00	625.00	638.00	641.00	642.00	644.00	652.00	657.00	662.00	665.00	668.00	681.00	694.00	699.00	702.00	718.00	724.00	731.00	738.00	739.00	743.00	743.00	742.00	741.00	743.00	745.00	745.00	747.00	747.00	746.00	745.00	743.00	740.00	733.00	729.00	727.00	723.00	721.00	727.00	731.00	733.00	736.00	736.00	732.00	722.00	721.00	720.00	713.00	711.00	711.00	711.00	715.00	716.00	719.00	723.00	728.00	731.00	736.00	742.00	747.00	742.00	738.00	738.00	745.00	755.00	770.00	773.00	777.00	782.00	797.00	807.00
725.00	722.00	719.00	699.00	691.00	683.00	673.00	640.00	626.00	609.00	604.00	595.00	556.00	521.00	503.00	495.00	484.00	482.00	481.00	476.00	465.00	440.00	412.00	379.00	379.00	395.00	409.00	423.00	432.00	444.00	510.00	509.00	512.00	521.00	514.00	510.00	524.00	537.00	546.00	557.00	565.00	566.00	564.00	554.00	557.00	565.00	585.00	602.00	610.00	609.00	604.00	582.00	503.00	441.00	448.00	464.00	484.00	515.00	521.00	531.00	542.00	566.00	573.00	572.00	563.00	571.00	550.00	544.00	555.00	563.00	566.00	566.00	580.00	585.00	599.00	618.00	628.00	637.00	654.00	688.00	696.00	700.00	749.00	763.00	771.00	767.00	760.00	749.00	717.00	698.00	681.00	666.00	654.00	621.00	617.00	619.00	621.00	618.00	613.00	609.00	605.00	604.00	612.00	605.00	618.00	620.00	625.00	632.00	638.00	645.00	649.00	640.00	640.00	647.00	659.00	666.00	668.00	669.00	673.00	681.00	691.00	689.00	680.00	659.00	668.00	699.00	695.00	687.00	690.00	692.00	693.00	693.00	692.00	689.00	688.00	686.00	685.00	682.00	676.00	672.00	682.00	687.00	696.00	700.00	704.00	712.00	714.00	716.00	719.00	722.00	723.00	729.00	729.00	724.00	720.00	713.00	711.00	709.00	706.00	703.00	693.00	684.00	675.00	664.00	644.00	641.00	615.00	636.00	648.00	663.00	673.00	679.00	680.00	665.00	659.00	657.00	650.00	640.00	622.00	590.00	561.00	550.00	563.00	596.00	624.00	640.00	638.00	642.00	643.00	644.00	645.00	657.00	661.00	668.00	677.00	681.00	680.00	687.00	692.00	696.00	712.00	720.00	725.00	732.00	739.00	745.00	748.00	749.00	750.00	750.00	752.00	753.00	754.00	753.00	754.00	754.00	753.00	749.00	740.00	738.00	736.00	731.00	732.00	740.00	741.00	740.00	740.00	742.00	739.00	733.00	727.00	722.00	720.00	720.00	718.00	716.00	722.00	725.00	731.00	736.00	737.00	740.00	742.00	747.00	754.00	758.00	753.00	747.00	747.00	756.00	779.00	781.00	783.00	786.00	794.00	798.00
742.00	736.00	728.00	706.00	694.00	678.00	657.00	618.00	603.00	572.00	559.00	550.00	519.00	506.00	498.00	492.00	483.00	480.00	468.00	441.00	440.00	426.00	422.00	408.00	394.00	383.00	394.00	426.00	442.00	461.00	513.00	522.00	532.00	541.00	523.00	518.00	525.00	536.00	547.00	570.00	582.00	583.00	580.00	575.00	581.00	589.00	601.00	613.00	622.00	620.00	612.00	575.00	487.00	448.00	455.00	480.00	502.00	528.00	536.00	545.00	560.00	615.00	623.00	605.00	596.00	612.00	614.00	594.00	570.00	572.00	590.00	599.00	613.00	607.00	611.00	626.00	631.00	639.00	648.00	665.00	675.00	696.00	762.00	773.00	771.00	760.00	742.00	722.00	687.00	672.00	657.00	645.00	638.00	622.00	622.00	622.00	620.00	618.00	619.00	620.00	622.00	625.00	627.00	619.00	627.00	634.00	643.00	647.00	650.00	656.00	660.00	651.00	651.00	655.00	666.00	676.00	680.00	684.00	687.00	697.00	710.00	704.00	695.00	647.00	692.00	701.00	699.00	699.00	700.00	701.00	702.00	701.00	699.00	696.00	694.00	691.00	688.00	681.00	679.00	682.00	684.00	688.00	696.00	700.00	704.00	716.00	721.00	723.00	727.00	734.00	737.00	740.00	739.00	735.00	731.00	722.00	722.00	719.00	716.00	713.00	698.00	690.00	684.00	676.00	652.00	640.00	627.00	641.00	645.00	664.00	678.00	685.00	682.00	672.00	667.00	664.00	661.00	656.00	645.00	633.00	615.00	596.00	567.00	560.00	562.00	594.00	637.00	659.00	661.00	663.00	660.00	660.00	664.00	666.00	675.00	681.00	684.00	685.00	696.00	701.00	712.00	716.00	721.00	728.00	736.00	744.00	750.00	755.00	757.00	757.00	759.00	759.00	759.00	757.00	760.00	760.00	760.00	758.00	750.00	749.00	745.00	741.00	745.00	751.00	751.00	750.00	749.00	750.00	748.00	739.00	735.00	731.00	730.00	728.00	722.00	719.00	730.00	737.00	741.00	742.00	746.00	750.00	752.00	754.00	757.00	762.00	762.00	761.00	759.00	762.00	778.00	781.00	784.00	786.00	788.00	791.00
742.00	736.00	728.00	706.00	694.00	678.00	657.00	618.00	603.00	572.00	559.00	550.00	519.00	506.00	498.00	492.00	483.00	480.00	468.00	441.00	440.00	426.00	422.00	408.00	394.00	383.00	394.00	426.00	442.00	461.00	513.00	522.00	532.00	541.00	523.00	518.00	525.00	536.00	547.00	570.00	582.00	583.00	580.00	575.00	581.00	589.00	601.00	613.00	622.00	620.00	612.00	575.00	487.00	448.00	455.00	480.00	502.00	528.00	536.00	545.00	560.00	615.00	623.00	605.00	596.00	612.00	614.00	594.00	570.00	572.00	590.00	599.00	613.00	607.00	611.00	626.00	631.00	639.00	648.00	665.00	675.00	696.00	762.00	773.00	771.00	760.00	742.00	722.00	687.00	672.00	657.00	645.00	638.00	622.00	622.00	622.00	620.00	618.00	619.00	620.00	622.00	625.00	627.00	619.00	627.00	634.00	643.00	647.00	650.00	656.00	660.00	651.00	651.00	655.00	666.00	676.00	680.00	684.00	687.00	697.00	710.00	704.00	695.00	647.00	692.00	701.00	699.00	699.00	700.00	701.00	702.00	701.00	699.00	696.00	694.00	691.00	688.00	681.00	679.00	682.00	684.00	688.00	696.00	700.00	704.00	716.00	721.00	723.00	727.00	734.00	737.00	740.00	739.00	735.00	731.00	722.00	722.00	719.00	716.00	713.00	698.00	690.00	684.00	676.00	652.00	640.00	627.00	641.00	645.00	664.00	678.00	685.00	682.00	672.00	667.00	664.00	661.00	656.00	645.00	633.00	615.00	596.00	567.00	560.00	562.00	594.00	637.00	659.00	661.00	663.00	660.00	660.00	664.00	666.00	675.00	681.00	684.00	685.00	696.00	701.00	712.00	716.00	721.00	728.00	736.00	744.00	750.00	755.00	757.00	757.00	759.00	759.00	759.00	757.00	760.00	760.00	760.00	758.00	750.00	749.00	745.00	741.00	745.00	751.00	751.00	750.00	749.00	750.00	748.00	739.00	735.00	731.00	730.00	728.00	722.00	719.00	730.00	737.00	741.00	742.00	746.00	750.00	752.00	754.00	757.00	762.00	762.00	761.00	759.00	762.00	778.00	781.00	784.00	786.00	788.00	791.00
756.00	745.00	735.00	706.00	689.00	669.00	648.00	613.00	600.00	553.00	533.00	521.00	501.00	494.00	488.00	483.00	471.00	458.00	447.00	479.00	481.00	435.00	448.00	446.00	438.00	400.00	383.00	399.00	451.00	494.00	539.00	539.00	543.00	543.00	530.00	528.00	534.00	541.00	548.00	565.00	580.00	586.00	593.00	621.00	623.00	634.00	641.00	638.00	625.00	619.00	605.00	577.00	507.00	469.00	463.00	490.00	514.00	545.00	556.00	573.00	586.00	622.00	636.00	647.00	650.00	660.00	677.00	650.00	614.00	574.00	598.00	604.00	622.00	636.00	649.00	643.00	646.00	654.00	659.00	667.00	676.00	693.00	751.00	772.00	758.00	743.00	723.00	703.00	677.00	664.00	651.00	640.00	636.00	628.00	625.00	623.00	623.00	624.00	626.00	631.00	637.00	641.00	641.00	631.00	644.00	651.00	658.00	659.00	660.00	660.00	661.00	664.00	665.00	669.00	679.00	693.00	704.00	712.00	717.00	720.00	719.00	702.00	686.00	637.00	700.00	710.00	713.00	712.00	714.00	714.00	712.00	710.00	707.00	700.00	698.00	698.00	694.00	682.00	689.00	696.00	697.00	699.00	712.00	719.00	724.00	732.00	727.00	725.00	727.00	731.00	736.00	740.00	741.00	741.00	740.00	731.00	728.00	726.00	724.00	721.00	703.00	696.00	689.00	682.00	659.00	637.00	648.00	653.00	655.00	659.00	661.00	671.00	676.00	678.00	678.00	670.00	659.00	657.00	658.00	652.00	640.00	625.00	579.00	566.00	561.00	568.00	620.00	675.00	677.00	676.00	672.00	672.00	674.00	679.00	683.00	690.00	698.00	696.00	702.00	708.00	720.00	723.00	726.00	732.00	739.00	747.00	751.00	755.00	759.00	759.00	760.00	761.00	761.00	759.00	762.00	762.00	762.00	762.00	760.00	760.00	757.00	752.00	754.00	760.00	760.00	758.00	757.00	759.00	760.00	752.00	746.00	741.00	739.00	738.00	732.00	726.00	730.00	738.00	743.00	748.00	756.00	760.00	762.00	764.00	767.00	774.00	774.00	773.00	770.00	768.00	775.00	779.00	781.00	780.00	781.00	785.00
753.00	737.00	722.00	685.00	674.00	661.00	640.00	576.00	554.00	524.00	513.00	504.00	492.00	486.00	481.00	481.00	481.00	470.00	463.00	492.00	484.00	443.00	443.00	445.00	442.00	430.00	411.00	398.00	474.00	512.00	557.00	556.00	552.00	544.00	536.00	540.00	545.00	552.00	563.00	585.00	586.00	595.00	608.00	647.00	657.00	659.00	656.00	652.00	638.00	623.00	604.00	584.00	518.00	493.00	470.00	496.00	530.00	567.00	586.00	603.00	610.00	673.00	695.00	707.00	713.00	709.00	674.00	647.00	621.00	593.00	617.00	617.00	621.00	642.00	677.00	664.00	669.00	673.00	682.00	699.00	704.00	722.00	789.00	784.00	743.00	724.00	704.00	691.00	670.00	660.00	647.00	638.00	635.00	633.00	633.00	634.00	634.00	635.00	636.00	639.00	644.00	648.00	650.00	640.00	642.00	656.00	666.00	668.00	668.00	669.00	670.00	675.00	677.00	681.00	699.00	713.00	722.00	735.00	741.00	736.00	714.00	714.00	702.00	664.00	699.00	726.00	732.00	731.00	731.00	728.00	723.00	719.00	716.00	708.00	709.00	712.00	705.00	697.00	697.00	700.00	705.00	712.00	722.00	731.00	738.00	751.00	750.00	746.00	743.00	740.00	735.00	737.00	738.00	739.00	739.00	737.00	732.00	734.00	735.00	729.00	709.00	701.00	694.00	685.00	659.00	637.00	665.00	671.00	677.00	673.00	668.00	668.00	672.00	675.00	665.00	633.00	615.00	621.00	611.00	612.00	602.00	592.00	568.00	566.00	569.00	577.00	606.00	659.00	669.00	678.00	685.00	690.00	690.00	694.00	699.00	699.00	700.00	704.00	704.00	708.00	716.00	722.00	729.00	733.00	739.00	743.00	745.00	749.00	756.00	762.00	763.00	765.00	765.00	764.00	766.00	767.00	768.00	768.00	767.00	764.00	762.00	760.00	759.00	760.00	762.00	764.00	764.00	765.00	767.00	760.00	754.00	746.00	737.00	736.00	734.00	732.00	737.00	741.00	748.00	756.00	766.00	774.00	776.00	779.00	781.00	781.00	784.00	784.00	782.00	781.00	773.00	773.00	775.00	776.00	780.00	784.00
753.00	737.00	722.00	685.00	674.00	661.00	640.00	576.00	554.00	524.00	513.00	504.00	492.00	486.00	481.00	481.00	481.00	470.00	463.00	492.00	484.00	443.00	443.00	445.00	442.00	430.00	411.00	398.00	474.00	512.00	557.00	556.00	552.00	544.00	536.00	540.00	545.00	552.00	563.00	585.00	586.00	595.00	608.00	647.00	657.00	659.00	656.00	652.00	638.00	623.00	604.00	584.00	518.00	493.00	470.00	496.00	530.00	567.00	586.00	603.00	610.00	673.00	695.00	707.00	713.00	709.00	674.00	647.00	621.00	593.00	617.00	617.00	621.00	642.00	677.00	664.00	669.00	673.00	682.00	699.00	704.00	722.00	789.00	784.00	743.00	724.00	704.00	691.00	670.00	660.00	647.00	638.00	635.00	633.00	633.00	634.00	634.00	635.00	636.00	639.00	644.00	648.00	650.00	640.00	642.00	656.00	666.00	668.00	668.00	669.00	670.00	675.00	677.00	681.00	699.00	713.00	722.00	735.00	741.00	736.00	714.00	714.00	702.00	664.00	699.00	726.00	732.00	731.00	731.00	728.00	723.00	719.00	716.00	708.00	709.00	712.00	705.00	697.00	697.00	700.00	705.00	712.00	722.00	731.00	738.00	751.00	750.00	746.00	743.00	740.00	735.00	737.00	738.00	739.00	739.00	737.00	732.00	734.00	735.00	729.00	709.00	701.00	694.00	685.00	659.00	637.00	665.00	671.00	677.00	673.00	668.00	668.00	672.00	675.00	665.00	633.00	615.00	621.00	611.00	612.00	602.00	592.00	568.00	566.00	569.00	577.00	606.00	659.00	669.00	678.00	685.00	690.00	690.00	694.00	699.00	699.00	700.00	704.00	704.00	708.00	716.00	722.00	729.00	733.00	739.00	743.00	745.00	749.00	756.00	762.00	763.00	765.00	765.00	764.00	766.00	767.00	768.00	768.00	767.00	764.00	762.00	760.00	759.00	760.00	762.00	764.00	764.00	765.00	767.00	760.00	754.00	746.00	737.00	736.00	734.00	732.00	737.00	741.00	748.00	756.00	766.00	774.00	776.00	779.00	781.00	781.00	784.00	784.00	782.00	781.00	773.00	773.00	775.00	776.00	780.00	784.00
753.00	737.00	722.00	685.00	674.00	661.00	640.00	576.00	554.00	524.00	513.00	504.00	492.00	486.00	481.00	481.00	481.00	470.00	463.00	492.00	484.00	443.00	443.00	445.00	442.00	430.00	411.00	398.00	474.00	512.00	557.00	556.00	552.00	544.00	536.00	540.00	545.00	552.00	563.00	585.00	586.00	595.00	608.00	647.00	657.00	659.00	656.00	652.00	638.00	623.00	604.00	584.00	518.00	493.00	470.00	496.00	530.00	567.00	586.00	603.00	610.00	673.00	695.00	707.00	713.00	709.00	674.00	647.00	621.00	593.00	617.00	617.00	621.00	642.00	677.00	664.00	669.00	673.00	682.00	699.00	704.00	722.00	789.00	784.00	743.00	724.00	704.00	691.00	670.00	660.00	647.00	638.00	635.00	633.00	633.00	634.00	634.00	635.00	636.00	639.00	644.00	648.00	650.00	640.00	642.00	656.00	666.00	668.00	668.00	669.00	670.00	675.00	677.00	681.00	699.00	713.00	722.00	735.00	741.00	736.00	714.00	714.00	702.00	664.00	699.00	726.00	732.00	731.00	731.00	728.00	723.00	719.00	716.00	708.00	709.00	712.00	705.00	697.00	697.00	700.00	705.00	712.00	722.00	731.00	738.00	751.00	750.00	746.00	743.00	740.00	735.00	737.00	738.00	739.00	739.00	737.00	732.00	734.00	735.00	729.00	709.00	701.00	694.00	685.00	659.00	637.00	665.00	671.00	677.00	673.00	668.00	668.00	672.00	675.00	665.00	633.00	615.00	621.00	611.00	612.00	602.00	592.00	568.00	566.00	569.00	577.00	606.00	659.00	669.00	678.00	685.00	690.00	690.00	694.00	699.00	699.00	700.00	704.00	704.00	708.00	716.00	722.00	729.00	733.00	739.00	743.00	745.00	749.00	756.00	762.00	763.00	765.00	765.00	764.00	766.00	767.00	768.00	768.00	767.00	764.00	762.00	760.00	759.00	760.00	762.00	764.00	764.00	765.00	767.00	760.00	754.00	746.00	737.00	736.00	734.00	732.00	737.00	741.00	748.00	756.00	766.00	774.00	776.00	779.00	781.00	781.00	784.00	784.00	782.00	781.00	773.00	773.00	775.00	776.00	780.00	784.00
731.00	722.00	703.00	645.00	620.00	610.00	593.00	546.00	531.00	515.00	508.00	504.00	495.00	490.00	484.00	481.00	477.00	478.00	485.00	485.00	478.00	451.00	451.00	454.00	448.00	437.00	427.00	396.00	460.00	535.00	561.00	561.00	557.00	548.00	553.00	570.00	575.00	568.00	573.00	602.00	611.00	623.00	636.00	646.00	655.00	659.00	659.00	661.00	649.00	630.00	618.00	592.00	528.00	530.00	506.00	484.00	542.00	593.00	614.00	641.00	662.00	715.00	741.00	763.00	778.00	780.00	713.00	673.00	639.00	608.00	641.00	686.00	707.00	714.00	721.00	670.00	690.00	725.00	754.00	801.00	817.00	829.00	808.00	780.00	735.00	721.00	711.00	701.00	668.00	656.00	647.00	640.00	637.00	641.00	642.00	644.00	645.00	646.00	651.00	657.00	661.00	659.00	659.00	651.00	658.00	671.00	677.00	679.00	678.00	678.00	680.00	686.00	693.00	704.00	727.00	745.00	742.00	736.00	723.00	717.00	720.00	719.00	716.00	712.00	646.00	664.00	673.00	695.00	731.00	737.00	730.00	721.00	719.00	716.00	720.00	718.00	715.00	715.00	714.00	708.00	708.00	720.00	730.00	737.00	746.00	768.00	774.00	770.00	764.00	751.00	738.00	750.00	745.00	740.00	739.00	738.00	738.00	741.00	741.00	736.00	718.00	711.00	702.00	692.00	665.00	650.00	673.00	681.00	690.00	697.00	685.00	679.00	679.00	683.00	664.00	623.00	642.00	675.00	647.00	652.00	657.00	654.00	575.00	576.00	593.00	606.00	637.00	677.00	693.00	695.00	685.00	701.00	702.00	703.00	702.00	705.00	711.00	722.00	724.00	722.00	721.00	725.00	737.00	737.00	737.00	742.00	746.00	750.00	759.00	765.00	771.00	774.00	773.00	772.00	771.00	773.00	774.00	775.00	771.00	768.00	766.00	764.00	765.00	768.00	770.00	772.00	773.00	776.00	778.00	771.00	762.00	753.00	742.00	740.00	738.00	736.00	738.00	742.00	751.00	760.00	779.00	784.00	788.00	790.00	790.00	791.00	793.00	789.00	784.00	782.00	778.00	776.00	774.00	775.00	779.00	781.00
710.00	679.00	657.00	614.00	592.00	575.00	561.00	536.00	527.00	525.00	523.00	519.00	502.00	496.00	491.00	488.00	485.00	483.00	481.00	480.00	478.00	458.00	456.00	453.00	447.00	434.00	412.00	403.00	496.00	553.00	560.00	559.00	556.00	555.00	571.00	582.00	585.00	584.00	587.00	610.00	633.00	643.00	651.00	654.00	650.00	646.00	647.00	649.00	623.00	608.00	593.00	544.00	545.00	538.00	532.00	494.00	495.00	592.00	612.00	629.00	658.00	753.00	765.00	774.00	773.00	767.00	694.00	666.00	637.00	635.00	678.00	733.00	802.00	779.00	750.00	705.00	700.00	714.00	743.00	797.00	808.00	801.00	755.00	737.00	704.00	692.00	677.00	664.00	647.00	643.00	641.00	639.00	638.00	647.00	650.00	653.00	656.00	658.00	661.00	672.00	680.00	681.00	677.00	669.00	686.00	690.00	690.00	691.00	693.00	697.00	701.00	719.00	729.00	738.00	749.00	738.00	731.00	726.00	717.00	719.00	724.00	727.00	724.00	712.00	695.00	722.00	727.00	703.00	666.00	681.00	706.00	726.00	733.00	731.00	730.00	720.00	719.00	720.00	720.00	719.00	713.00	722.00	737.00	747.00	759.00	786.00	781.00	776.00	762.00	756.00	767.00	770.00	765.00	758.00	753.00	748.00	746.00	742.00	738.00	730.00	717.00	710.00	703.00	693.00	670.00	657.00	680.00	692.00	708.00	733.00	720.00	705.00	693.00	693.00	687.00	644.00	648.00	681.00	680.00	680.00	688.00	697.00	612.00	583.00	596.00	636.00	664.00	682.00	694.00	700.00	700.00	701.00	703.00	708.00	712.00	716.00	724.00	730.00	732.00	731.00	729.00	733.00	739.00	740.00	740.00	745.00	748.00	752.00	759.00	771.00	778.00	780.00	779.00	777.00	776.00	777.00	779.00	781.00	779.00	776.00	775.00	777.00	775.00	778.00	779.00	780.00	782.00	791.00	795.00	781.00	770.00	761.00	752.00	747.00	744.00	743.00	740.00	745.00	751.00	760.00	785.00	800.00	799.00	800.00	800.00	799.00	796.00	788.00	782.00	780.00	778.00	777.00	776.00	778.00	779.00	779.00
710.00	679.00	657.00	614.00	592.00	575.00	561.00	536.00	527.00	525.00	523.00	519.00	502.00	496.00	491.00	488.00	485.00	483.00	481.00	480.00	478.00	458.00	456.00	453.00	447.00	434.00	412.00	403.00	496.00	553.00	560.00	559.00	556.00	555.00	571.00	582.00	585.00	584.00	587.00	610.00	633.00	643.00	651.00	654.00	650.00	646.00	647.00	649.00	623.00	608.00	593.00	544.00	545.00	538.00	532.00	494.00	495.00	592.00	612.00	629.00	658.00	753.00	765.00	774.00	773.00	767.00	694.00	666.00	637.00	635.00	678.00	733.00	802.00	779.00	750.00	705.00	700.00	714.00	743.00	797.00	808.00	801.00	755.00	737.00	704.00	692.00	677.00	664.00	647.00	643.00	641.00	639.00	638.00	647.00	650.00	653.00	656.00	658.00	661.00	672.00	680.00	681.00	677.00	669.00	686.00	690.00	690.00	691.00	693.00	697.00	701.00	719.00	729.00	738.00	749.00	738.00	731.00	726.00	717.00	719.00	724.00	727.00	724.00	712.00	695.00	722.00	727.00	703.00	666.00	681.00	706.00	726.00	733.00	731.00	730.00	720.00	719.00	720.00	720.00	719.00	713.00	722.00	737.00	747.00	759.00	786.00	781.00	776.00	762.00	756.00	767.00	770.00	765.00	758.00	753.00	748.00	746.00	742.00	738.00	730.00	717.00	710.00	703.00	693.00	670.00	657.00	680.00	692.00	708.00	733.00	720.00	705.00	693.00	693.00	687.00	644.00	648.00	681.00	680.00	680.00	688.00	697.00	612.00	583.00	596.00	636.00	664.00	682.00	694.00	700.00	700.00	701.00	703.00	708.00	712.00	716.00	724.00	730.00	732.00	731.00	729.00	733.00	739.00	740.00	740.00	745.00	748.00	752.00	759.00	771.00	778.00	780.00	779.00	777.00	776.00	777.00	779.00	781.00	779.00	776.00	775.00	777.00	775.00	778.00	779.00	780.00	782.00	791.00	795.00	781.00	770.00	761.00	752.00	747.00	744.00	743.00	740.00	745.00	751.00	760.00	785.00	800.00	799.00	800.00	800.00	799.00	796.00	788.00	782.00	780.00	778.00	777.00	776.00	778.00	779.00	779.00
695.00	663.00	634.00	587.00	572.00	560.00	552.00	539.00	540.00	539.00	528.00	518.00	504.00	501.00	499.00	496.00	486.00	481.00	478.00	484.00	486.00	472.00	466.00	446.00	433.00	424.00	416.00	417.00	489.00	528.00	557.00	552.00	548.00	551.00	577.00	584.00	590.00	595.00	599.00	622.00	642.00	653.00	661.00	661.00	654.00	644.00	635.00	619.00	596.00	586.00	570.00	563.00	557.00	556.00	515.00	480.00	485.00	553.00	573.00	593.00	620.00	686.00	692.00	695.00	692.00	686.00	663.00	646.00	647.00	660.00	706.00	757.00	796.00	798.00	788.00	742.00	730.00	721.00	723.00	744.00	749.00	741.00	717.00	705.00	681.00	670.00	662.00	656.00	647.00	644.00	642.00	643.00	645.00	659.00	659.00	660.00	662.00	670.00	677.00	684.00	688.00	691.00	693.00	684.00	690.00	696.00	701.00	703.00	713.00	722.00	730.00	734.00	733.00	734.00	720.00	721.00	724.00	724.00	724.00	725.00	722.00	720.00	720.00	730.00	749.00	747.00	747.00	750.00	746.00	735.00	715.00	690.00	691.00	735.00	739.00	723.00	719.00	718.00	717.00	716.00	715.00	719.00	743.00	755.00	770.00	779.00	778.00	786.00	795.00	798.00	793.00	786.00	778.00	772.00	768.00	756.00	751.00	746.00	740.00	732.00	716.00	713.00	707.00	698.00	678.00	666.00	688.00	718.00	746.00	744.00	735.00	723.00	709.00	693.00	684.00	661.00	645.00	679.00	695.00	695.00	698.00	707.00	675.00	612.00	581.00	624.00	666.00	682.00	687.00	693.00	698.00	706.00	710.00	713.00	715.00	717.00	726.00	738.00	739.00	739.00	740.00	739.00	740.00	739.00	740.00	749.00	754.00	755.00	760.00	763.00	769.00	774.00	778.00	782.00	783.00	784.00	786.00	787.00	785.00	783.00	783.00	783.00	783.00	791.00	790.00	792.00	797.00	803.00	805.00	795.00	782.00	775.00	763.00	757.00	752.00	747.00	741.00	745.00	752.00	759.00	779.00	805.00	808.00	809.00	808.00	800.00	797.00	796.00	792.00	785.00	781.00	781.00	781.00	781.00	776.00	772.00
695.00	663.00	634.00	587.00	572.00	560.00	552.00	539.00	540.00	539.00	528.00	518.00	504.00	501.00	499.00	496.00	486.00	481.00	478.00	484.00	486.00	472.00	466.00	446.00	433.00	424.00	416.00	417.00	489.00	528.00	557.00	552.00	548.00	551.00	577.00	584.00	590.00	595.00	599.00	622.00	642.00	653.00	661.00	661.00	654.00	644.00	635.00	619.00	596.00	586.00	570.00	563.00	557.00	556.00	515.00	480.00	485.00	553.00	573.00	593.00	620.00	686.00	692.00	695.00	692.00	686.00	663.00	646.00	647.00	660.00	706.00	757.00	796.00	798.00	788.00	742.00	730.00	721.00	723.00	744.00	749.00	741.00	717.00	705.00	681.00	670.00	662.00	656.00	647.00	644.00	642.00	643.00	645.00	659.00	659.00	660.00	662.00	670.00	677.00	684.00	688.00	691.00	693.00	684.00	690.00	696.00	701.00	703.00	713.00	722.00	730.00	734.00	733.00	734.00	720.00	721.00	724.00	724.00	724.00	725.00	722.00	720.00	720.00	730.00	749.00	747.00	747.00	750.00	746.00	735.00	715.00	690.00	691.00	735.00	739.00	723.00	719.00	718.00	717.00	716.00	715.00	719.00	743.00	755.00	770.00	779.00	778.00	786.00	795.00	798.00	793.00	786.00	778.00	772.00	768.00	756.00	751.00	746.00	740.00	732.00	716.00	713.00	707.00	698.00	678.00	666.00	688.00	718.00	746.00	744.00	735.00	723.00	709.00	693.00	684.00	661.00	645.00	679.00	695.00	695.00	698.00	707.00	675.00	612.00	581.00	624.00	666.00	682.00	687.00	693.00	698.00	706.00	710.00	713.00	715.00	717.00	726.00	738.00	739.00	739.00	740.00	739.00	740.00	739.00	740.00	749.00	754.00	755.00	760.00	763.00	769.00	774.00	778.00	782.00	783.00	784.00	786.00	787.00	785.00	783.00	783.00	783.00	783.00	791.00	790.00	792.00	797.00	803.00	805.00	795.00	782.00	775.00	763.00	757.00	752.00	747.00	741.00	745.00	752.00	759.00	779.00	805.00	808.00	809.00	808.00	800.00	797.00	796.00	792.00	785.00	781.00	781.00	781.00	781.00	776.00	772.00
654.00	628.00	605.00	572.00	563.00	557.00	551.00	543.00	541.00	525.00	519.00	519.00	512.00	506.00	501.00	497.00	486.00	481.00	481.00	485.00	477.00	451.00	429.00	430.00	435.00	424.00	420.00	412.00	428.00	480.00	541.00	538.00	529.00	552.00	578.00	592.00	600.00	603.00	608.00	627.00	650.00	659.00	662.00	659.00	659.00	655.00	640.00	609.00	577.00	569.00	562.00	571.00	577.00	576.00	521.00	484.00	501.00	589.00	617.00	621.00	622.00	636.00	644.00	649.00	652.00	654.00	659.00	661.00	665.00	676.00	705.00	728.00	772.00	786.00	791.00	790.00	770.00	753.00	740.00	727.00	720.00	708.00	688.00	680.00	669.00	664.00	662.00	659.00	655.00	654.00	655.00	657.00	656.00	672.00	676.00	685.00	686.00	687.00	694.00	702.00	704.00	703.00	708.00	713.00	715.00	714.00	710.00	709.00	710.00	713.00	716.00	715.00	718.00	721.00	720.00	724.00	731.00	736.00	739.00	739.00	740.00	748.00	751.00	758.00	781.00	788.00	787.00	786.00	786.00	787.00	788.00	783.00	766.00	694.00	695.00	721.00	726.00	727.00	724.00	722.00	720.00	723.00	749.00	758.00	767.00	780.00	835.00	835.00	830.00	819.00	811.00	802.00	797.00	790.00	785.00	769.00	763.00	756.00	746.00	738.00	721.00	716.00	707.00	696.00	679.00	678.00	702.00	726.00	747.00	735.00	725.00	719.00	712.00	685.00	680.00	695.00	696.00	659.00	679.00	694.00	698.00	703.00	737.00	718.00	646.00	601.00	598.00	662.00	676.00	683.00	689.00	701.00	713.00	720.00	721.00	723.00	730.00	738.00	740.00	743.00	747.00	747.00	748.00	748.00	749.00	757.00	761.00	762.00	763.00	765.00	769.00	774.00	780.00	792.00	800.00	797.00	797.00	797.00	797.00	796.00	797.00	797.00	794.00	801.00	802.00	805.00	808.00	814.00	815.00	802.00	792.00	783.00	770.00	762.00	757.00	753.00	747.00	748.00	752.00	758.00	780.00	808.00	817.00	818.00	816.00	807.00	803.00	800.00	796.00	788.00	791.00	788.00	786.00	783.00	777.00	771.00
629.00	610.00	593.00	570.00	561.00	555.00	549.00	540.00	535.00	526.00	522.00	519.00	512.00	508.00	505.00	502.00	494.00	491.00	489.00	468.00	476.00	455.00	443.00	461.00	446.00	417.00	408.00	410.00	429.00	459.00	507.00	514.00	536.00	555.00	577.00	593.00	606.00	616.00	618.00	628.00	644.00	652.00	657.00	668.00	664.00	643.00	618.00	594.00	576.00	575.00	577.00	579.00	578.00	559.00	498.00	491.00	500.00	564.00	607.00	633.00	654.00	653.00	654.00	657.00	659.00	662.00	678.00	684.00	693.00	696.00	718.00	725.00	749.00	777.00	819.00	824.00	804.00	781.00	756.00	721.00	711.00	701.00	687.00	681.00	684.00	682.00	680.00	675.00	671.00	666.00	672.00	670.00	669.00	688.00	697.00	702.00	705.00	716.00	717.00	716.00	715.00	716.00	720.00	725.00	730.00	733.00	742.00	752.00	760.00	766.00	765.00	763.00	759.00	748.00	731.00	722.00	729.00	740.00	749.00	753.00	755.00	763.00	771.00	775.00	796.00	807.00	816.00	820.00	819.00	816.00	812.00	811.00	806.00	777.00	715.00	704.00	723.00	737.00	729.00	731.00	738.00	747.00	744.00	753.00	776.00	834.00	869.00	865.00	854.00	836.00	829.00	815.00	808.00	802.00	795.00	780.00	774.00	765.00	757.00	743.00	718.00	709.00	701.00	696.00	689.00	688.00	706.00	717.00	720.00	719.00	715.00	713.00	712.00	689.00	698.00	702.00	701.00	692.00	664.00	667.00	680.00	695.00	720.00	738.00	750.00	716.00	664.00	614.00	645.00	659.00	668.00	686.00	693.00	700.00	707.00	713.00	726.00	740.00	742.00	747.00	758.00	758.00	758.00	761.00	759.00	760.00	761.00	765.00	771.00	774.00	775.00	779.00	785.00	795.00	801.00	802.00	802.00	802.00	802.00	803.00	804.00	803.00	805.00	805.00	809.00	818.00	821.00	827.00	826.00	815.00	802.00	792.00	777.00	770.00	763.00	758.00	752.00	751.00	751.00	754.00	774.00	803.00	813.00	819.00	819.00	811.00	804.00	799.00	796.00	793.00	799.00	794.00	788.00	784.00	777.00	775.00
629.00	610.00	593.00	570.00	561.00	555.00	549.00	540.00	535.00	526.00	522.00	519.00	512.00	508.00	505.00	502.00	494.00	491.00	489.00	468.00	476.00	455.00	443.00	461.00	446.00	417.00	408.00	410.00	429.00	459.00	507.00	514.00	536.00	555.00	577.00	593.00	606.00	616.00	618.00	628.00	644.00	652.00	657.00	668.00	664.00	643.00	618.00	594.00	576.00	575.00	577.00	579.00	578.00	559.00	498.00	491.00	500.00	564.00	607.00	633.00	654.00	653.00	654.00	657.00	659.00	662.00	678.00	684.00	693.00	696.00	718.00	725.00	749.00	777.00	819.00	824.00	804.00	781.00	756.00	721.00	711.00	701.00	687.00	681.00	684.00	682.00	680.00	675.00	671.00	666.00	672.00	670.00	669.00	688.00	697.00	702.00	705.00	716.00	717.00	716.00	715.00	716.00	720.00	725.00	730.00	733.00	742.00	752.00	760.00	766.00	765.00	763.00	759.00	748.00	731.00	722.00	729.00	740.00	749.00	753.00	755.00	763.00	771.00	775.00	796.00	807.00	816.00	820.00	819.00	816.00	812.00	811.00	806.00	777.00	715.00	704.00	723.00	737.00	729.00	731.00	738.00	747.00	744.00	753.00	776.00	834.00	869.00	865.00	854.00	836.00	829.00	815.00	808.00	802.00	795.00	780.00	774.00	765.00	757.00	743.00	718.00	709.00	701.00	696.00	689.00	688.00	706.00	717.00	720.00	719.00	715.00	713.00	712.00	689.00	698.00	702.00	701.00	692.00	664.00	667.00	680.00	695.00	720.00	738.00	750.00	716.00	664.00	614.00	645.00	659.00	668.00	686.00	693.00	700.00	707.00	713.00	726.00	740.00	742.00	747.00	758.00	758.00	758.00	761.00	759.00	760.00	761.00	765.00	771.00	774.00	775.00	779.00	785.00	795.00	801.00	802.00	802.00	802.00	802.00	803.00	804.00	803.00	805.00	805.00	809.00	818.00	821.00	827.00	826.00	815.00	802.00	792.00	777.00	770.00	763.00	758.00	752.00	751.00	751.00	754.00	774.00	803.00	813.00	819.00	819.00	811.00	804.00	799.00	796.00	793.00	799.00	794.00	788.00	784.00	777.00	775.00
629.00	610.00	593.00	570.00	561.00	555.00	549.00	540.00	535.00	526.00	522.00	519.00	512.00	508.00	505.00	502.00	494.00	491.00	489.00	468.00	476.00	455.00	443.00	461.00	446.00	417.00	408.00	410.00	429.00	459.00	507.00	514.00	536.00	555.00	577.00	593.00	606.00	616.00	618.00	628.00	644.00	652.00	657.00	668.00	664.00	643.00	618.00	594.00	576.00	575.00	577.00	579.00	578.00	559.00	498.00	491.00	500.00	564.00	607.00	633.00	654.00	653.00	654.00	657.00	659.00	662.00	678.00	684.00	693.00	696.00	718.00	725.00	749.00	777.00	819.00	824.00	804.00	781.00	756.00	721.00	711.00	701.00	687.00	681.00	684.00	682.00	680.00	675.00	671.00	666.00	672.00	670.00	669.00	688.00	697.00	702.00	705.00	716.00	717.00	716.00	715.00	716.00	720.00	725.00	730.00	733.00	742.00	752.00	760.00	766.00	765.00	763.00	759.00	748.00	731.00	722.00	729.00	740.00	749.00	753.00	755.00	763.00	771.00	775.00	796.00	807.00	816.00	820.00	819.00	816.00	812.00	811.00	806.00	777.00	715.00	704.00	723.00	737.00	729.00	731.00	738.00	747.00	744.00	753.00	776.00	834.00	869.00	865.00	854.00	836.00	829.00	815.00	808.00	802.00	795.00	780.00	774.00	765.00	757.00	743.00	718.00	709.00	701.00	696.00	689.00	688.00	706.00	717.00	720.00	719.00	715.00	713.00	712.00	689.00	698.00	702.00	701.00	692.00	664.00	667.00	680.00	695.00	720.00	738.00	750.00	716.00	664.00	614.00	645.00	659.00	668.00	686.00	693.00	700.00	707.00	713.00	726.00	740.00	742.00	747.00	758.00	758.00	758.00	761.00	759.00	760.00	761.00	765.00	771.00	774.00	775.00	779.00	785.00	795.00	801.00	802.00	802.00	802.00	802.00	803.00	804.00	803.00	805.00	805.00	809.00	818.00	821.00	827.00	826.00	815.00	802.00	792.00	777.00	770.00	763.00	758.00	752.00	751.00	751.00	754.00	774.00	803.00	813.00	819.00	819.00	811.00	804.00	799.00	796.00	793.00	799.00	794.00	788.00	784.00	777.00	775.00
614.00	598.00	584.00	565.00	558.00	552.00	545.00	535.00	530.00	520.00	517.00	514.00	509.00	507.00	505.00	503.00	492.00	482.00	481.00	485.00	499.00	442.00	458.00	464.00	449.00	419.00	410.00	409.00	429.00	465.00	521.00	532.00	541.00	554.00	573.00	585.00	601.00	615.00	619.00	632.00	647.00	655.00	666.00	682.00	669.00	628.00	605.00	595.00	594.00	598.00	600.00	594.00	587.00	544.00	536.00	534.00	532.00	506.00	544.00	599.00	643.00	595.00	562.00	568.00	572.00	580.00	589.00	609.00	687.00	730.00	764.00	764.00	778.00	797.00	838.00	822.00	798.00	774.00	751.00	723.00	715.00	707.00	699.00	697.00	693.00	694.00	696.00	697.00	697.00	677.00	683.00	683.00	679.00	695.00	695.00	697.00	700.00	710.00	714.00	716.00	718.00	721.00	737.00	750.00	758.00	765.00	806.00	819.00	822.00	819.00	815.00	797.00	784.00	767.00	740.00	736.00	748.00	760.00	767.00	771.00	770.00	772.00	783.00	794.00	825.00	831.00	837.00	846.00	850.00	848.00	843.00	835.00	828.00	802.00	779.00	716.00	703.00	735.00	740.00	740.00	741.00	746.00	763.00	779.00	804.00	860.00	893.00	898.00	893.00	883.00	866.00	845.00	834.00	823.00	813.00	786.00	776.00	761.00	745.00	731.00	715.00	711.00	707.00	705.00	706.00	704.00	699.00	700.00	703.00	705.00	704.00	703.00	703.00	702.00	708.00	711.00	712.00	701.00	694.00	691.00	686.00	679.00	706.00	720.00	739.00	757.00	716.00	599.00	610.00	632.00	666.00	686.00	691.00	695.00	696.00	700.00	718.00	740.00	743.00	748.00	756.00	759.00	762.00	765.00	767.00	771.00	773.00	775.00	777.00	779.00	778.00	781.00	787.00	794.00	801.00	803.00	805.00	806.00	810.00	811.00	812.00	814.00	818.00	825.00	828.00	831.00	838.00	845.00	842.00	828.00	814.00	799.00	786.00	778.00	771.00	765.00	757.00	754.00	752.00	754.00	768.00	801.00	810.00	818.00	820.00	815.00	806.00	800.00	797.00	797.00	799.00	794.00	788.00	783.00	780.00	772.00
603.00	585.00	574.00	558.00	552.00	546.00	541.00	530.00	525.00	517.00	514.00	511.00	505.00	503.00	500.00	496.00	496.00	496.00	496.00	488.00	486.00	453.00	469.00	467.00	453.00	425.00	417.00	408.00	405.00	439.00	511.00	526.00	537.00	547.00	572.00	585.00	598.00	606.00	613.00	627.00	643.00	651.00	657.00	647.00	624.00	609.00	603.00	602.00	615.00	621.00	617.00	607.00	562.00	559.00	601.00	598.00	594.00	539.00	528.00	529.00	571.00	546.00	543.00	623.00	633.00	637.00	557.00	561.00	581.00	600.00	624.00	581.00	656.00	705.00	761.00	790.00	769.00	749.00	738.00	722.00	718.00	717.00	718.00	713.00	704.00	704.00	705.00	703.00	683.00	679.00	690.00	690.00	689.00	704.00	705.00	709.00	717.00	722.00	722.00	724.00	727.00	733.00	756.00	806.00	818.00	831.00	845.00	837.00	827.00	819.00	809.00	783.00	769.00	759.00	747.00	768.00	777.00	780.00	785.00	791.00	795.00	790.00	797.00	808.00	847.00	856.00	866.00	875.00	885.00	884.00	878.00	870.00	856.00	827.00	806.00	764.00	730.00	728.00	740.00	744.00	749.00	754.00	776.00	798.00	831.00	891.00	919.00	916.00	906.00	893.00	876.00	853.00	844.00	833.00	818.00	783.00	766.00	750.00	738.00	731.00	724.00	720.00	720.00	722.00	718.00	715.00	710.00	709.00	708.00	706.00	705.00	706.00	707.00	710.00	715.00	719.00	721.00	715.00	707.00	706.00	704.00	698.00	694.00	705.00	718.00	734.00	747.00	613.00	608.00	608.00	613.00	625.00	634.00	643.00	661.00	680.00	710.00	731.00	739.00	745.00	757.00	760.00	762.00	765.00	769.00	781.00	783.00	781.00	779.00	752.00	762.00	772.00	784.00	792.00	799.00	802.00	803.00	805.00	816.00	819.00	820.00	824.00	829.00	840.00	844.00	850.00	857.00	869.00	863.00	838.00	823.00	813.00	794.00	782.00	773.00	764.00	759.00	759.00	755.00	755.00	764.00	794.00	809.00	819.00	821.00	819.00	813.00	804.00	800.00	801.00	798.00	793.00	788.00	783.00	773.00	761.00
603.00	585.00	574.00	558.00	552.00	546.00	541.00	530.00	525.00	517.00	514.00	511.00	505.00	503.00	500.00	496.00	496.00	496.00	496.00	488.00	486.00	453.00	469.00	467.00	453.00	425.00	417.00	408.00	405.00	439.00	511.00	526.00	537.00	547.00	572.00	585.00	598.00	606.00	613.00	627.00	643.00	651.00	657.00	647.00	624.00	609.00	603.00	602.00	615.00	621.00	617.00	607.00	562.00	559.00	601.00	598.00	594.00	539.00	528.00	529.00	571.00	546.00	543.00	623.00	633.00	637.00	557.00	561.00	581.00	600.00	624.00	581.00	656.00	705.00	761.00	790.00	769.00	749.00	738.00	722.00	718.00	717.00	718.00	713.00	704.00	704.00	705.00	703.00	683.00	679.00	690.00	690.00	689.00	704.00	705.00	709.00	717.00	722.00	722.00	724.00	727.00	733.00	756.00	806.00	818.00	831.00	845.00	837.00	827.00	819.00	809.00	783.00	769.00	759.00	747.00	768.00	777.00	780.00	785.00	791.00	795.00	790.00	797.00	808.00	847.00	856.00	866.00	875.00	885.00	884.00	878.00	870.00	856.00	827.00	806.00	764.00	730.00	728.00	740.00	744.00	749.00	754.00	776.00	798.00	831.00	891.00	919.00	916.00	906.00	893.00	876.00	853.00	844.00	833.00	818.00	783.00	766.00	750.00	738.00	731.00	724.00	720.00	720.00	722.00	718.00	715.00	710.00	709.00	708.00	706.00	705.00	706.00	707.00	710.00	715.00	719.00	721.00	715.00	707.00	706.00	704.00	698.00	694.00	705.00	718.00	734.00	747.00	613.00	608.00	608.00	613.00	625.00	634.00	643.00	661.00	680.00	710.00	731.00	739.00	745.00	757.00	760.00	762.00	765.00	769.00	781.00	783.00	781.00	779.00	752.00	762.00	772.00	784.00	792.00	799.00	802.00	803.00	805.00	816.00	819.00	820.00	824.00	829.00	840.00	844.00	850.00	857.00	869.00	863.00	838.00	823.00	813.00	794.00	782.00	773.00	764.00	759.00	759.00	755.00	755.00	764.00	794.00	809.00	819.00	821.00	819.00	813.00	804.00	800.00	801.00	798.00	793.00	788.00	783.00	773.00	761.00
592.00	578.00	568.00	554.00	549.00	544.00	541.00	530.00	522.00	515.00	512.00	508.00	501.00	500.00	499.00	498.00	501.00	500.00	499.00	490.00	479.00	467.00	481.00	469.00	458.00	420.00	414.00	412.00	417.00	448.00	508.00	520.00	531.00	541.00	564.00	575.00	587.00	600.00	608.00	621.00	630.00	629.00	627.00	616.00	611.00	609.00	611.00	616.00	635.00	644.00	645.00	623.00	593.00	564.00	593.00	623.00	637.00	632.00	609.00	556.00	523.00	559.00	613.00	668.00	691.00	701.00	587.00	580.00	635.00	646.00	627.00	596.00	595.00	624.00	640.00	659.00	688.00	698.00	719.00	718.00	709.00	702.00	711.00	708.00	714.00	714.00	704.00	684.00	696.00	709.00	709.00	705.00	704.00	703.00	706.00	712.00	716.00	721.00	724.00	728.00	734.00	742.00	782.00	856.00	872.00	872.00	850.00	833.00	817.00	805.00	792.00	765.00	759.00	762.00	782.00	809.00	815.00	820.00	822.00	825.00	825.00	819.00	828.00	842.00	884.00	900.00	912.00	918.00	930.00	934.00	928.00	911.00	888.00	825.00	795.00	748.00	718.00	749.00	755.00	756.00	758.00	761.00	792.00	822.00	853.00	892.00	907.00	901.00	890.00	882.00	867.00	850.00	843.00	832.00	817.00	775.00	764.00	752.00	745.00	742.00	736.00	738.00	739.00	745.00	748.00	738.00	722.00	723.00	720.00	715.00	713.00	714.00	716.00	720.00	720.00	721.00	724.00	724.00	721.00	717.00	709.00	701.00	700.00	711.00	720.00	723.00	731.00	702.00	655.00	635.00	631.00	630.00	629.00	625.00	621.00	622.00	671.00	714.00	726.00	737.00	746.00	750.00	754.00	758.00	765.00	785.00	778.00	767.00	754.00	763.00	764.00	756.00	764.00	777.00	790.00	798.00	804.00	811.00	821.00	826.00	831.00	836.00	840.00	852.00	860.00	870.00	882.00	890.00	881.00	851.00	835.00	819.00	790.00	778.00	774.00	769.00	761.00	758.00	757.00	759.00	765.00	799.00	815.00	822.00	824.00	821.00	818.00	812.00	808.00	806.00	798.00	790.00	785.00	781.00	760.00	749.00
581.00	572.00	563.00	551.00	546.00	542.00	538.00	526.00	521.00	516.00	515.00	513.00	506.00	504.00	504.00	504.00	505.00	503.00	501.00	478.00	470.00	484.00	479.00	468.00	456.00	416.00	422.00	433.00	446.00	459.00	497.00	503.00	517.00	531.00	552.00	565.00	578.00	591.00	602.00	616.00	617.00	614.00	614.00	618.00	619.00	618.00	619.00	622.00	642.00	665.00	674.00	646.00	612.00	588.00	579.00	619.00	633.00	639.00	646.00	647.00	607.00	640.00	674.00	695.00	712.00	723.00	737.00	727.00	741.00	730.00	685.00	718.00	681.00	647.00	640.00	613.00	604.00	605.00	627.00	651.00	652.00	635.00	668.00	681.00	701.00	698.00	687.00	693.00	716.00	718.00	716.00	718.00	718.00	708.00	713.00	719.00	723.00	729.00	732.00	735.00	745.00	761.00	814.00	874.00	872.00	856.00	826.00	815.00	803.00	796.00	789.00	773.00	776.00	793.00	842.00	868.00	879.00	888.00	894.00	890.00	863.00	850.00	855.00	879.00	952.00	965.00	969.00	973.00	957.00	938.00	907.00	872.00	833.00	784.00	776.00	734.00	721.00	774.00	780.00	777.00	776.00	778.00	812.00	842.00	865.00	887.00	888.00	882.00	868.00	858.00	851.00	834.00	828.00	818.00	805.00	773.00	772.00	766.00	759.00	750.00	758.00	758.00	767.00	776.00	768.00	757.00	741.00	734.00	730.00	721.00	721.00	721.00	722.00	729.00	730.00	731.00	732.00	731.00	725.00	722.00	719.00	712.00	716.00	716.00	722.00	727.00	731.00	740.00	732.00	712.00	677.00	657.00	649.00	643.00	640.00	634.00	629.00	653.00	678.00	694.00	713.00	717.00	719.00	716.00	711.00	672.00	668.00	672.00	691.00	784.00	797.00	800.00	788.00	779.00	796.00	804.00	813.00	820.00	839.00	844.00	847.00	858.00	868.00	874.00	881.00	886.00	896.00	902.00	891.00	858.00	837.00	816.00	791.00	782.00	779.00	774.00	762.00	759.00	759.00	761.00	773.00	805.00	820.00	826.00	828.00	820.00	818.00	814.00	810.00	805.00	796.00	788.00	780.00	772.00	753.00	740.00
581.00	572.00	563.00	551.00	546.00	542.00	538.00	526.00	521.00	516.00	515.00	513.00	506.00	504.00	504.00	504.00	505.00	503.00	501.00	478.00	470.00	484.00	479.00	468.00	456.00	416.00	422.00	433.00	446.00	459.00	497.00	503.00	517.00	531.00	552.00	565.00	578.00	591.00	602.00	616.00	617.00	614.00	614.00	618.00	619.00	618.00	619.00	622.00	642.00	665.00	674.00	646.00	612.00	588.00	579.00	619.00	633.00	639.00	646.00	647.00	607.00	640.00	674.00	695.00	712.00	723.00	737.00	727.00	741.00	730.00	685.00	718.00	681.00	647.00	640.00	613.00	604.00	605.00	627.00	651.00	652.00	635.00	668.00	681.00	701.00	698.00	687.00	693.00	716.00	718.00	716.00	718.00	718.00	708.00	713.00	719.00	723.00	729.00	732.00	735.00	745.00	761.00	814.00	874.00	872.00	856.00	826.00	815.00	803.00	796.00	789.00	773.00	776.00	793.00	842.00	868.00	879.00	888.00	894.00	890.00	863.00	850.00	855.00	879.00	952.00	965.00	969.00	973.00	957.00	938.00	907.00	872.00	833.00	784.00	776.00	734.00	721.00	774.00	780.00	777.00	776.00	778.00	812.00	842.00	865.00	887.00	888.00	882.00	868.00	858.00	851.00	834.00	828.00	818.00	805.00	773.00	772.00	766.00	759.00	750.00	758.00	758.00	767.00	776.00	768.00	757.00	741.00	734.00	730.00	721.00	721.00	721.00	722.00	729.00	730.00	731.00	732.00	731.00	725.00	722.00	719.00	712.00	716.00	716.00	722.00	727.00	731.00	740.00	732.00	712.00	677.00	657.00	649.00	643.00	640.00	634.00	629.00	653.00	678.00	694.00	713.00	717.00	719.00	716.00	711.00	672.00	668.00	672.00	691.00	784.00	797.00	800.00	788.00	779.00	796.00	804.00	813.00	820.00	839.00	844.00	847.00	858.00	868.00	874.00	881.00	886.00	896.00	902.00	891.00	858.00	837.00	816.00	791.00	782.00	779.00	774.00	762.00	759.00	759.00	761.00	773.00	805.00	820.00	826.00	828.00	820.00	818.00	814.00	810.00	805.00	796.00	788.00	780.00	772.00	753.00	740.00
581.00	572.00	563.00	551.00	546.00	542.00	538.00	526.00	521.00	516.00	515.00	513.00	506.00	504.00	504.00	504.00	505.00	503.00	501.00	478.00	470.00	484.00	479.00	468.00	456.00	416.00	422.00	433.00	446.00	459.00	497.00	503.00	517.00	531.00	552.00	565.00	578.00	591.00	602.00	616.00	617.00	614.00	614.00	618.00	619.00	618.00	619.00	622.00	642.00	665.00	674.00	646.00	612.00	588.00	579.00	619.00	633.00	639.00	646.00	647.00	607.00	640.00	674.00	695.00	712.00	723.00	737.00	727.00	741.00	730.00	685.00	718.00	681.00	647.00	640.00	613.00	604.00	605.00	627.00	651.00	652.00	635.00	668.00	681.00	701.00	698.00	687.00	693.00	716.00	718.00	716.00	718.00	718.00	708.00	713.00	719.00	723.00	729.00	732.00	735.00	745.00	761.00	814.00	874.00	872.00	856.00	826.00	815.00	803.00	796.00	789.00	773.00	776.00	793.00	842.00	868.00	879.00	888.00	894.00	890.00	863.00	850.00	855.00	879.00	952.00	965.00	969.00	973.00	957.00	938.00	907.00	872.00	833.00	784.00	776.00	734.00	721.00	774.00	780.00	777.00	776.00	778.00	812.00	842.00	865.00	887.00	888.00	882.00	868.00	858.00	851.00	834.00	828.00	818.00	805.00	773.00	772.00	766.00	759.00	750.00	758.00	758.00	767.00	776.00	768.00	757.00	741.00	734.00	730.00	721.00	721.00	721.00	722.00	729.00	730.00	731.00	732.00	731.00	725.00	722.00	719.00	712.00	716.00	716.00	722.00	727.00	731.00	740.00	732.00	712.00	677.00	657.00	649.00	643.00	640.00	634.00	629.00	653.00	678.00	694.00	713.00	717.00	719.00	716.00	711.00	672.00	668.00	672.00	691.00	784.00	797.00	800.00	788.00	779.00	796.00	804.00	813.00	820.00	839.00	844.00	847.00	858.00	868.00	874.00	881.00	886.00	896.00	902.00	891.00	858.00	837.00	816.00	791.00	782.00	779.00	774.00	762.00	759.00	759.00	761.00	773.00	805.00	820.00	826.00	828.00	820.00	818.00	814.00	810.00	805.00	796.00	788.00	780.00	772.00	753.00	740.00
581.00	572.00	563.00	551.00	546.00	542.00	538.00	526.00	521.00	516.00	515.00	513.00	506.00	504.00	504.00	504.00	505.00	503.00	501.00	478.00	470.00	484.00	479.00	468.00	456.00	416.00	422.00	433.00	446.00	459.00	497.00	503.00	517.00	531.00	552.00	565.00	578.00	591.00	602.00	616.00	617.00	614.00	614.00	618.00	619.00	618.00	619.00	622.00	642.00	665.00	674.00	646.00	612.00	588.00	579.00	619.00	633.00	639.00	646.00	647.00	607.00	640.00	674.00	695.00	712.00	723.00	737.00	727.00	741.00	730.00	685.00	718.00	681.00	647.00	640.00	613.00	604.00	605.00	627.00	651.00	652.00	635.00	668.00	681.00	701.00	698.00	687.00	693.00	716.00	718.00	716.00	718.00	718.00	708.00	713.00	719.00	723.00	729.00	732.00	735.00	745.00	761.00	814.00	874.00	872.00	856.00	826.00	815.00	803.00	796.00	789.00	773.00	776.00	793.00	842.00	868.00	879.00	888.00	894.00	890.00	863.00	850.00	855.00	879.00	952.00	965.00	969.00	973.00	957.00	938.00	907.00	872.00	833.00	784.00	776.00	734.00	721.00	774.00	780.00	777.00	776.00	778.00	812.00	842.00	865.00	887.00	888.00	882.00	868.00	858.00	851.00	834.00	828.00	818.00	805.00	773.00	772.00	766.00	759.00	750.00	758.00	758.00	767.00	776.00	768.00	757.00	741.00	734.00	730.00	721.00	721.00	721.00	722.00	729.00	730.00	731.00	732.00	731.00	725.00	722.00	719.00	712.00	716.00	716.00	722.00	727.00	731.00	740.00	732.00	712.00	677.00	657.00	649.00	643.00	640.00	634.00	629.00	653.00	678.00	694.00	713.00	717.00	719.00	716.00	711.00	672.00	668.00	672.00	691.00	784.00	797.00	800.00	788.00	779.00	796.00	804.00	813.00	820.00	839.00	844.00	847.00	858.00	868.00	874.00	881.00	886.00	896.00	902.00	891.00	858.00	837.00	816.00	791.00	782.00	779.00	774.00	762.00	759.00	759.00	761.00	773.00	805.00	820.00	826.00	828.00	820.00	818.00	814.00	810.00	805.00	796.00	788.00	780.00	772.00	753.00	740.00
569.00	562.00	557.00	548.00	544.00	541.00	537.00	526.00	522.00	522.00	522.00	520.00	515.00	512.00	511.00	510.00	506.00	503.00	497.00	478.00	500.00	485.00	472.00	465.00	452.00	419.00	421.00	451.00	462.00	465.00	477.00	494.00	518.00	526.00	541.00	551.00	560.00	572.00	585.00	606.00	605.00	602.00	610.00	622.00	623.00	624.00	625.00	628.00	656.00	675.00	674.00	637.00	602.00	596.00	589.00	621.00	629.00	636.00	640.00	651.00	666.00	702.00	711.00	714.00	711.00	730.00	779.00	781.00	774.00	765.00	739.00	721.00	773.00	746.00	732.00	711.00	713.00	721.00	704.00	687.00	690.00	678.00	619.00	648.00	677.00	673.00	687.00	707.00	719.00	721.00	723.00	726.00	729.00	722.00	723.00	729.00	736.00	745.00	745.00	746.00	756.00	774.00	806.00	841.00	831.00	823.00	811.00	809.00	806.00	802.00	797.00	784.00	794.00	811.00	851.00	884.00	898.00	910.00	919.00	914.00	877.00	871.00	887.00	891.00	937.00	942.00	945.00	948.00	937.00	904.00	859.00	824.00	804.00	788.00	782.00	728.00	741.00	790.00	791.00	790.00	790.00	797.00	833.00	848.00	864.00	870.00	867.00	865.00	859.00	853.00	845.00	828.00	821.00	811.00	798.00	782.00	775.00	769.00	780.00	786.00	779.00	785.00	790.00	790.00	778.00	770.00	754.00	747.00	742.00	732.00	731.00	732.00	734.00	743.00	743.00	743.00	743.00	740.00	739.00	734.00	726.00	721.00	729.00	726.00	730.00	738.00	740.00	744.00	745.00	742.00	733.00	667.00	669.00	674.00	673.00	664.00	654.00	639.00	639.00	639.00	643.00	643.00	644.00	648.00	649.00	679.00	697.00	690.00	666.00	731.00	785.00	799.00	800.00	798.00	798.00	806.00	819.00	829.00	859.00	864.00	871.00	879.00	891.00	894.00	898.00	906.00	915.00	906.00	893.00	846.00	819.00	803.00	788.00	783.00	780.00	774.00	763.00	764.00	762.00	765.00	792.00	817.00	825.00	834.00	837.00	823.00	819.00	816.00	809.00	803.00	785.00	782.00	772.00	759.00	736.00	723.00
562.00	558.00	554.00	545.00	541.00	538.00	535.00	530.00	528.00	525.00	522.00	520.00	516.00	514.00	512.00	510.00	503.00	497.00	487.00	506.00	506.00	472.00	463.00	459.00	454.00	420.00	414.00	455.00	474.00	476.00	491.00	510.00	523.00	527.00	538.00	542.00	546.00	550.00	558.00	581.00	591.00	591.00	600.00	623.00	624.00	624.00	624.00	629.00	662.00	684.00	695.00	650.00	620.00	625.00	607.00	612.00	622.00	635.00	642.00	658.00	688.00	712.00	738.00	770.00	799.00	794.00	765.00	786.00	801.00	795.00	765.00	751.00	780.00	779.00	761.00	730.00	730.00	726.00	714.00	722.00	720.00	698.00	617.00	647.00	656.00	660.00	675.00	698.00	717.00	718.00	723.00	730.00	735.00	737.00	734.00	740.00	752.00	757.00	755.00	755.00	759.00	770.00	796.00	814.00	820.00	824.00	823.00	827.00	831.00	829.00	816.00	803.00	807.00	827.00	850.00	859.00	867.00	875.00	891.00	906.00	921.00	925.00	927.00	929.00	939.00	944.00	945.00	950.00	935.00	887.00	842.00	817.00	804.00	797.00	784.00	734.00	768.00	797.00	797.00	798.00	803.00	815.00	858.00	867.00	870.00	874.00	874.00	870.00	862.00	857.00	851.00	834.00	825.00	816.00	806.00	780.00	788.00	804.00	808.00	805.00	805.00	809.00	809.00	805.00	792.00	783.00	767.00	759.00	751.00	742.00	746.00	749.00	750.00	761.00	765.00	761.00	758.00	752.00	748.00	743.00	738.00	736.00	744.00	740.00	738.00	741.00	744.00	753.00	756.00	757.00	736.00	715.00	720.00	705.00	704.00	701.00	707.00	691.00	692.00	679.00	690.00	688.00	677.00	697.00	705.00	724.00	732.00	733.00	692.00	672.00	736.00	754.00	763.00	775.00	796.00	807.00	819.00	832.00	876.00	887.00	897.00	909.00	921.00	924.00	926.00	928.00	926.00	900.00	877.00	821.00	803.00	792.00	778.00	776.00	775.00	772.00	775.00	779.00	779.00	778.00	799.00	830.00	834.00	834.00	832.00	819.00	817.00	813.00	807.00	803.00	781.00	773.00	758.00	744.00	722.00	716.00
562.00	558.00	554.00	545.00	541.00	538.00	535.00	530.00	528.00	525.00	522.00	520.00	516.00	514.00	512.00	510.00	503.00	497.00	487.00	506.00	506.00	472.00	463.00	459.00	454.00	420.00	414.00	455.00	474.00	476.00	491.00	510.00	523.00	527.00	538.00	542.00	546.00	550.00	558.00	581.00	591.00	591.00	600.00	623.00	624.00	624.00	624.00	629.00	662.00	684.00	695.00	650.00	620.00	625.00	607.00	612.00	622.00	635.00	642.00	658.00	688.00	712.00	738.00	770.00	799.00	794.00	765.00	786.00	801.00	795.00	765.00	751.00	780.00	779.00	761.00	730.00	730.00	726.00	714.00	722.00	720.00	698.00	617.00	647.00	656.00	660.00	675.00	698.00	717.00	718.00	723.00	730.00	735.00	737.00	734.00	740.00	752.00	757.00	755.00	755.00	759.00	770.00	796.00	814.00	820.00	824.00	823.00	827.00	831.00	829.00	816.00	803.00	807.00	827.00	850.00	859.00	867.00	875.00	891.00	906.00	921.00	925.00	927.00	929.00	939.00	944.00	945.00	950.00	935.00	887.00	842.00	817.00	804.00	797.00	784.00	734.00	768.00	797.00	797.00	798.00	803.00	815.00	858.00	867.00	870.00	874.00	874.00	870.00	862.00	857.00	851.00	834.00	825.00	816.00	806.00	780.00	788.00	804.00	808.00	805.00	805.00	809.00	809.00	805.00	792.00	783.00	767.00	759.00	751.00	742.00	746.00	749.00	750.00	761.00	765.00	761.00	758.00	752.00	748.00	743.00	738.00	736.00	744.00	740.00	738.00	741.00	744.00	753.00	756.00	757.00	736.00	715.00	720.00	705.00	704.00	701.00	707.00	691.00	692.00	679.00	690.00	688.00	677.00	697.00	705.00	724.00	732.00	733.00	692.00	672.00	736.00	754.00	763.00	775.00	796.00	807.00	819.00	832.00	876.00	887.00	897.00	909.00	921.00	924.00	926.00	928.00	926.00	900.00	877.00	821.00	803.00	792.00	778.00	776.00	775.00	772.00	775.00	779.00	779.00	778.00	799.00	830.00	834.00	834.00	832.00	819.00	817.00	813.00	807.00	803.00	781.00	773.00	758.00	744.00	722.00	716.00
566.00	560.00	556.00	547.00	542.00	540.00	539.00	536.00	534.00	527.00	524.00	522.00	515.00	512.00	509.00	506.00	500.00	496.00	500.00	506.00	504.00	471.00	465.00	461.00	459.00	436.00	417.00	426.00	490.00	498.00	497.00	502.00	509.00	517.00	529.00	531.00	532.00	535.00	541.00	553.00	567.00	578.00	590.00	617.00	621.00	620.00	619.00	631.00	678.00	698.00	693.00	639.00	658.00	661.00	638.00	620.00	620.00	636.00	646.00	665.00	688.00	720.00	762.00	802.00	854.00	879.00	818.00	816.00	818.00	825.00	807.00	789.00	780.00	768.00	755.00	732.00	724.00	711.00	694.00	692.00	683.00	673.00	619.00	628.00	674.00	685.00	688.00	687.00	695.00	703.00	717.00	730.00	738.00	740.00	739.00	741.00	747.00	752.00	757.00	761.00	766.00	777.00	803.00	830.00	841.00	842.00	851.00	857.00	859.00	851.00	838.00	826.00	825.00	831.00	840.00	866.00	881.00	897.00	914.00	927.00	948.00	954.00	955.00	954.00	970.00	961.00	954.00	940.00	887.00	850.00	822.00	812.00	808.00	779.00	751.00	766.00	795.00	815.00	824.00	835.00	851.00	867.00	881.00	882.00	881.00	881.00	876.00	875.00	870.00	865.00	861.00	841.00	829.00	819.00	811.00	807.00	822.00	826.00	823.00	819.00	822.00	824.00	823.00	820.00	801.00	791.00	774.00	765.00	759.00	759.00	767.00	771.00	777.00	782.00	782.00	778.00	773.00	768.00	761.00	750.00	748.00	755.00	757.00	754.00	749.00	748.00	750.00	761.00	762.00	754.00	710.00	768.00	756.00	740.00	729.00	730.00	732.00	725.00	724.00	719.00	731.00	716.00	728.00	735.00	739.00	744.00	743.00	739.00	687.00	669.00	683.00	718.00	769.00	782.00	795.00	809.00	822.00	833.00	887.00	902.00	920.00	940.00	948.00	949.00	944.00	935.00	920.00	874.00	846.00	800.00	787.00	781.00	773.00	770.00	768.00	765.00	763.00	765.00	774.00	780.00	808.00	840.00	839.00	837.00	832.00	819.00	815.00	810.00	803.00	794.00	769.00	760.00	752.00	740.00	726.00	721.00
