497.00	495.00	496.00	499.00	506.00	506.00	501.00	501.00	501.00	504.00	513.00	563.00	571.00	572.00	579.00	576.00	568.00	557.00	548.00	538.00	535.00	536.00	536.00	538.00	544.00	546.00	548.00	552.00	555.00	561.00	564.00	568.00	568.00	569.00	572.00	575.00	579.00	581.00	585.00	587.00	591.00	593.00	599.00	600.00	604.00	608.00	612.00	617.00	620.00	623.00	628.00	636.00	638.00	640.00	643.00	646.00	655.00	651.00	655.00	666.00	698.00	710.00	716.00	717.00	721.00	734.00	744.00	752.00	763.00	786.00	760.00	772.00	792.00	830.00	866.00	883.00	919.00	837.00	910.00	860.00	847.00	926.00	979.00	863.00	828.00	849.00	838.00	818.00	831.00	845.00	876.00	911.00	936.00	935.00	887.00	897.00	969.00	983.00	912.00	904.00	988.00	1017.00	998.00	977.00	1057.00	1059.00	972.00	1007.00	991.00	973.00	1018.00	1110.00	1223.00	1291.00	1218.00	1201.00	1300.00	1385.00	1192.00	1086.00	1103.00	1090.00	1080.00	1122.00	1191.00	1272.00	1345.00	1560.00	1685.00	1574.00	1535.00	1507.00	1414.00	1385.00	1302.00	1195.00	1124.00	1088.00	1091.00	1110.00	1133.00	1060.00	990.00	947.00	929.00	921.00	937.00	951.00	911.00	824.00	726.00	706.00	694.00	689.00	668.00	643.00	649.00	758.00	906.00	1055.00	1061.00	956.00	860.00	1042.00	1032.00	983.00	939.00	880.00	975.00	1027.00	1037.00	1027.00	1155.00	1090.00	1063.00	1076.00	1042.00	1069.00	1134.00	1126.00	1134.00	1020.00	959.00	918.00	879.00	837.00	788.00	782.00	788.00	792.00	799.00	784.00	685.00	633.00	583.00	584.00	569.00	557.00	539.00	533.00	522.00	519.00	511.00	497.00	523.00	578.00	534.00	573.00	673.00	609.00	538.00	531.00	582.00	471.00	468.00	449.00	437.00	437.00	444.00	449.00	455.00	457.00	480.00	482.00	508.00	593.00	696.00	717.00	732.00	719.00	704.00	769.00	749.00	749.00	634.00	554.00	523.00	471.00	445.00	427.00	399.00	403.00	402.00	402.00	416.00	427.00	436.00	450.00	479.00	588.00	643.00	631.00	540.00	553.00	651.00	782.00
497.00	495.00	496.00	499.00	506.00	506.00	501.00	501.00	501.00	504.00	513.00	563.00	571.00	572.00	579.00	576.00	568.00	557.00	548.00	538.00	535.00	536.00	536.00	538.00	544.00	546.00	548.00	552.00	555.00	561.00	564.00	568.00	568.00	569.00	572.00	575.00	579.00	581.00	585.00	587.00	591.00	593.00	599.00	600.00	604.00	608.00	612.00	617.00	620.00	623.00	628.00	636.00	638.00	640.00	643.00	646.00	655.00	651.00	655.00	666.00	698.00	710.00	716.00	717.00	721.00	734.00	744.00	752.00	763.00	786.00	760.00	772.00	792.00	830.00	866.00	883.00	919.00	837.00	910.00	860.00	847.00	926.00	979.00	863.00	828.00	849.00	838.00	818.00	831.00	845.00	876.00	911.00	936.00	935.00	887.00	897.00	969.00	983.00	912.00	904.00	988.00	1017.00	998.00	977.00	1057.00	1059.00	972.00	1007.00	991.00	973.00	1018.00	1110.00	1223.00	1291.00	1218.00	1201.00	1300.00	1385.00	1192.00	1086.00	1103.00	1090.00	1080.00	1122.00	1191.00	1272.00	1345.00	1560.00	1685.00	1574.00	1535.00	1507.00	1414.00	1385.00	1302.00	1195.00	1124.00	1088.00	1091.00	1110.00	1133.00	1060.00	990.00	947.00	929.00	921.00	937.00	951.00	911.00	824.00	726.00	706.00	694.00	689.00	668.00	643.00	649.00	758.00	906.00	1055.00	1061.00	956.00	860.00	1042.00	1032.00	983.00	939.00	880.00	975.00	1027.00	1037.00	1027.00	1155.00	1090.00	1063.00	1076.00	1042.00	1069.00	1134.00	1126.00	1134.00	1020.00	959.00	918.00	879.00	837.00	788.00	782.00	788.00	792.00	799.00	784.00	685.00	633.00	583.00	584.00	569.00	557.00	539.00	533.00	522.00	519.00	511.00	497.00	523.00	578.00	534.00	573.00	673.00	609.00	538.00	531.00	582.00	471.00	468.00	449.00	437.00	437.00	444.00	449.00	455.00	457.00	480.00	482.00	508.00	593.00	696.00	717.00	732.00	719.00	704.00	769.00	749.00	749.00	634.00	554.00	523.00	471.00	445.00	427.00	399.00	403.00	402.00	402.00	416.00	427.00	436.00	450.00	479.00	588.00	643.00	631.00	540.00	553.00	651.00	782.00
505.00	498.00	498.00	500.00	502.00	507.00	505.00	503.00	503.00	505.00	512.00	565.00	598.00	608.00	621.00	621.00	608.00	589.00	566.00	555.00	553.00	548.00	543.00	543.00	547.00	550.00	551.00	554.00	556.00	561.00	563.00	563.00	565.00	569.00	573.00	580.00	584.00	587.00	591.00	591.00	596.00	601.00	608.00	608.00	613.00	631.00	640.00	630.00	627.00	636.00	642.00	664.00	691.00	713.00	723.00	726.00	721.00	696.00	664.00	669.00	757.00	797.00	787.00	788.00	774.00	781.00	789.00	809.00	823.00	851.00	791.00	802.00	836.00	904.00	963.00	975.00	1014.00	925.00	905.00	901.00	871.00	953.00	1014.00	901.00	866.00	906.00	900.00	838.00	856.00	881.00	943.00	1013.00	986.00	976.00	941.00	952.00	1040.00	1062.00	988.00	925.00	925.00	1077.00	1135.00	1101.00	1094.00	1119.00	1045.00	1056.00	1079.00	1056.00	1044.00	1105.00	1193.00	1161.00	1110.00	1131.00	1207.00	1256.00	1125.00	1045.00	1029.00	1082.00	1171.00	1248.00	1231.00	1302.00	1367.00	1607.00	1593.00	1437.00	1396.00	1378.00	1343.00	1306.00	1299.00	1281.00	1213.00	1115.00	1038.00	1005.00	1059.00	1044.00	1004.00	954.00	912.00	882.00	886.00	925.00	934.00	918.00	775.00	723.00	699.00	682.00	658.00	646.00	651.00	763.00	917.00	876.00	920.00	961.00	857.00	875.00	824.00	795.00	786.00	781.00	831.00	837.00	835.00	882.00	917.00	918.00	908.00	956.00	1019.00	1142.00	1133.00	1077.00	1127.00	1132.00	1048.00	1004.00	984.00	982.00	898.00	841.00	792.00	736.00	657.00	658.00	622.00	600.00	585.00	644.00	648.00	658.00	591.00	644.00	580.00	629.00	616.00	522.00	635.00	677.00	625.00	546.00	685.00	647.00	557.00	579.00	616.00	571.00	628.00	602.00	537.00	481.00	444.00	430.00	427.00	424.00	424.00	435.00	443.00	461.00	513.00	533.00	547.00	551.00	566.00	635.00	655.00	685.00	715.00	680.00	613.00	543.00	496.00	411.00	397.00	399.00	398.00	400.00	427.00	442.00	462.00	473.00	506.00	678.00	762.00	767.00	677.00	540.00	529.00	608.00
512.00	503.00	501.00	502.00	506.00	509.00	508.00	505.00	505.00	506.00	511.00	564.00	617.00	647.00	667.00	667.00	646.00	611.00	580.00	581.00	585.00	568.00	561.00	556.00	564.00	572.00	574.00	575.00	576.00	567.00	575.00	579.00	582.00	593.00	599.00	605.00	601.00	596.00	606.00	612.00	631.00	655.00	654.00	637.00	647.00	689.00	685.00	658.00	647.00	637.00	644.00	676.00	703.00	728.00	761.00	787.00	836.00	799.00	732.00	686.00	688.00	726.00	751.00	783.00	804.00	853.00	859.00	896.00	921.00	880.00	810.00	823.00	854.00	902.00	1012.00	1056.00	1098.00	1045.00	907.00	968.00	933.00	919.00	1001.00	928.00	918.00	952.00	935.00	825.00	844.00	863.00	892.00	949.00	982.00	987.00	993.00	1016.00	1119.00	1104.00	1057.00	1039.00	989.00	964.00	1038.00	1099.00	1094.00	1081.00	1118.00	1152.00	1266.00	1205.00	1178.00	1128.00	1121.00	1099.00	1058.00	1054.00	1044.00	1016.00	999.00	1007.00	1030.00	1123.00	1284.00	1367.00	1318.00	1335.00	1403.00	1627.00	1601.00	1501.00	1466.00	1407.00	1325.00	1289.00	1219.00	1143.00	1083.00	1064.00	1012.00	969.00	1019.00	994.00	998.00	967.00	907.00	866.00	877.00	945.00	996.00	978.00	857.00	787.00	730.00	693.00	660.00	652.00	652.00	733.00	873.00	908.00	766.00	787.00	778.00	751.00	806.00	881.00	938.00	852.00	1008.00	954.00	872.00	971.00	944.00	1039.00	1076.00	1093.00	1192.00	1118.00	1006.00	891.00	898.00	1054.00	961.00	867.00	800.00	845.00	943.00	954.00	938.00	919.00	707.00	722.00	662.00	708.00	681.00	768.00	825.00	747.00	633.00	702.00	632.00	702.00	722.00	577.00	652.00	723.00	643.00	643.00	620.00	676.00	599.00	626.00	650.00	707.00	726.00	682.00	633.00	528.00	466.00	486.00	499.00	482.00	444.00	423.00	416.00	411.00	411.00	419.00	431.00	440.00	458.00	482.00	502.00	527.00	597.00	615.00	557.00	507.00	443.00	393.00	394.00	398.00	400.00	407.00	438.00	474.00	529.00	578.00	567.00	586.00	683.00	781.00	815.00	730.00	636.00	544.00
519.00	510.00	504.00	504.00	504.00	508.00	514.00	511.00	509.00	509.00	510.00	552.00	598.00	636.00	684.00	694.00	666.00	626.00	602.00	611.00	631.00	591.00	577.00	570.00	594.00	605.00	612.00	619.00	617.00	587.00	604.00	608.00	611.00	655.00	662.00	642.00	623.00	609.00	652.00	620.00	645.00	697.00	702.00	671.00	670.00	740.00	727.00	689.00	674.00	656.00	644.00	664.00	680.00	715.00	790.00	863.00	902.00	855.00	788.00	736.00	700.00	689.00	692.00	718.00	746.00	846.00	921.00	966.00	1000.00	944.00	869.00	840.00	865.00	882.00	939.00	996.00	1082.00	1106.00	958.00	1044.00	1036.00	947.00	975.00	970.00	985.00	965.00	921.00	829.00	840.00	859.00	897.00	958.00	949.00	962.00	985.00	1034.00	1195.00	1228.00	1187.00	1124.00	1039.00	1030.00	1021.00	992.00	1034.00	1083.00	1120.00	1184.00	1276.00	1250.00	1189.00	1158.00	1173.00	1132.00	1012.00	993.00	986.00	973.00	1004.00	1076.00	1055.00	1071.00	1118.00	1177.00	1189.00	1252.00	1364.00	1589.00	1507.00	1389.00	1359.00	1316.00	1227.00	1216.00	1224.00	1241.00	1199.00	1144.00	1083.00	976.00	949.00	938.00	951.00	945.00	890.00	861.00	873.00	930.00	972.00	935.00	826.00	809.00	759.00	705.00	662.00	658.00	656.00	673.00	700.00	718.00	709.00	740.00	755.00	904.00	964.00	1065.00	1050.00	950.00	1080.00	1079.00	1013.00	1125.00	1002.00	1069.00	1080.00	1073.00	1077.00	983.00	874.00	885.00	827.00	964.00	922.00	835.00	796.00	739.00	715.00	727.00	783.00	859.00	864.00	853.00	794.00	842.00	801.00	842.00	839.00	760.00	712.00	770.00	715.00	740.00	713.00	581.00	577.00	651.00	727.00	768.00	618.00	637.00	697.00	710.00	699.00	644.00	636.00	590.00	544.00	481.00	508.00	574.00	620.00	627.00	558.00	475.00	474.00	497.00	491.00	450.00	419.00	405.00	400.00	404.00	410.00	422.00	462.00	491.00	476.00	420.00	390.00	390.00	392.00	397.00	398.00	407.00	453.00	450.00	510.00	600.00	673.00	652.00	618.00	680.00	809.00	801.00	664.00	636.00
519.00	510.00	504.00	504.00	504.00	508.00	514.00	511.00	509.00	509.00	510.00	552.00	598.00	636.00	684.00	694.00	666.00	626.00	602.00	611.00	631.00	591.00	577.00	570.00	594.00	605.00	612.00	619.00	617.00	587.00	604.00	608.00	611.00	655.00	662.00	642.00	623.00	609.00	652.00	620.00	645.00	697.00	702.00	671.00	670.00	740.00	727.00	689.00	674.00	656.00	644.00	664.00	680.00	715.00	790.00	863.00	902.00	855.00	788.00	736.00	700.00	689.00	692.00	718.00	746.00	846.00	921.00	966.00	1000.00	944.00	869.00	840.00	865.00	882.00	939.00	996.00	1082.00	1106.00	958.00	1044.00	1036.00	947.00	975.00	970.00	985.00	965.00	921.00	829.00	840.00	859.00	897.00	958.00	949.00	962.00	985.00	1034.00	1195.00	1228.00	1187.00	1124.00	1039.00	1030.00	1021.00	992.00	1034.00	1083.00	1120.00	1184.00	1276.00	1250.00	1189.00	1158.00	1173.00	1132.00	1012.00	993.00	986.00	973.00	1004.00	1076.00	1055.00	1071.00	1118.00	1177.00	1189.00	1252.00	1364.00	1589.00	1507.00	1389.00	1359.00	1316.00	1227.00	1216.00	1224.00	1241.00	1199.00	1144.00	1083.00	976.00	949.00	938.00	951.00	945.00	890.00	861.00	873.00	930.00	972.00	935.00	826.00	809.00	759.00	705.00	662.00	658.00	656.00	673.00	700.00	718.00	709.00	740.00	755.00	904.00	964.00	1065.00	1050.00	950.00	1080.00	1079.00	1013.00	1125.00	1002.00	1069.00	1080.00	1073.00	1077.00	983.00	874.00	885.00	827.00	964.00	922.00	835.00	796.00	739.00	715.00	727.00	783.00	859.00	864.00	853.00	794.00	842.00	801.00	842.00	839.00	760.00	712.00	770.00	715.00	740.00	713.00	581.00	577.00	651.00	727.00	768.00	618.00	637.00	697.00	710.00	699.00	644.00	636.00	590.00	544.00	481.00	508.00	574.00	620.00	627.00	558.00	475.00	474.00	497.00	491.00	450.00	419.00	405.00	400.00	404.00	410.00	422.00	462.00	491.00	476.00	420.00	390.00	390.00	392.00	397.00	398.00	407.00	453.00	450.00	510.00	600.00	673.00	652.00	618.00	680.00	809.00	801.00	664.00	636.00
524.00	516.00	508.00	507.00	507.00	507.00	514.00	513.00	512.00	511.00	512.00	540.00	572.00	605.00	673.00	698.00	674.00	642.00	628.00	639.00	657.00	609.00	592.00	586.00	633.00	650.00	658.00	671.00	659.00	600.00	623.00	649.00	643.00	708.00	737.00	686.00	645.00	622.00	688.00	642.00	650.00	701.00	738.00	712.00	713.00	787.00	767.00	714.00	696.00	681.00	663.00	666.00	669.00	686.00	735.00	805.00	951.00	925.00	865.00	815.00	756.00	720.00	703.00	703.00	723.00	781.00	903.00	950.00	984.00	985.00	937.00	940.00	999.00	988.00	1063.00	1059.00	1058.00	1175.00	1076.00	1111.00	1131.00	1043.00	999.00	1019.00	982.00	952.00	935.00	854.00	847.00	860.00	898.00	978.00	1038.00	1034.00	1037.00	1077.00	1223.00	1281.00	1184.00	1098.00	1045.00	1168.00	1172.00	1081.00	1073.00	1204.00	1169.00	1204.00	1138.00	1092.00	1126.00	1054.00	1054.00	1033.00	968.00	968.00	961.00	962.00	1148.00	1256.00	1244.00	1259.00	1257.00	1166.00	1189.00	1257.00	1369.00	1641.00	1596.00	1521.00	1487.00	1445.00	1326.00	1245.00	1193.00	1127.00	1080.00	1075.00	1063.00	1022.00	911.00	863.00	869.00	883.00	860.00	847.00	865.00	902.00	973.00	1015.00	814.00	748.00	722.00	691.00	665.00	665.00	666.00	688.00	706.00	685.00	833.00	904.00	934.00	940.00	1042.00	1149.00	1159.00	1161.00	1149.00	1182.00	1184.00	1160.00	978.00	913.00	851.00	874.00	853.00	835.00	763.00	843.00	871.00	812.00	921.00	996.00	973.00	874.00	732.00	648.00	627.00	711.00	897.00	810.00	671.00	731.00	826.00	814.00	753.00	791.00	793.00	838.00	748.00	671.00	636.00	655.00	636.00	595.00	609.00	671.00	709.00	695.00	708.00	643.00	634.00	544.00	535.00	538.00	559.00	556.00	521.00	573.00	637.00	676.00	641.00	504.00	577.00	664.00	664.00	575.00	552.00	507.00	447.00	421.00	400.00	391.00	395.00	402.00	391.00	388.00	388.00	389.00	393.00	394.00	397.00	409.00	571.00	554.00	485.00	488.00	559.00	712.00	764.00	765.00	846.00	857.00	747.00	805.00
530.00	520.00	512.00	510.00	510.00	510.00	516.00	514.00	514.00	514.00	514.00	526.00	554.00	603.00	676.00	719.00	699.00	667.00	658.00	668.00	674.00	632.00	609.00	605.00	679.00	695.00	704.00	715.00	683.00	611.00	635.00	672.00	687.00	753.00	785.00	707.00	653.00	633.00	724.00	672.00	649.00	676.00	728.00	733.00	760.00	820.00	795.00	739.00	713.00	696.00	678.00	720.00	745.00	704.00	691.00	714.00	909.00	946.00	947.00	914.00	798.00	760.00	736.00	711.00	717.00	767.00	861.00	891.00	904.00	913.00	977.00	1050.00	1067.00	1096.00	1170.00	1181.00	1136.00	1109.00	1113.00	1143.00	1145.00	1125.00	1084.00	1035.00	1013.00	1008.00	991.00	880.00	876.00	877.00	877.00	914.00	1026.00	1027.00	1014.00	1045.00	1153.00	1311.00	1274.00	1217.00	1152.00	1181.00	1225.00	1192.00	1172.00	1124.00	1128.00	1154.00	1076.00	1050.00	1088.00	1029.00	984.00	960.00	964.00	979.00	982.00	995.00	1365.00	1383.00	1402.00	1386.00	1373.00	1362.00	1377.00	1405.00	1443.00	1477.00	1435.00	1391.00	1394.00	1398.00	1409.00	1404.00	1376.00	1311.00	1147.00	1106.00	1045.00	985.00	984.00	899.00	841.00	815.00	815.00	813.00	839.00	880.00	952.00	1004.00	807.00	732.00	703.00	683.00	680.00	689.00	708.00	777.00	836.00	757.00	744.00	769.00	825.00	978.00	1051.00	976.00	979.00	1035.00	1142.00	1123.00	1017.00	968.00	921.00	822.00	751.00	755.00	721.00	732.00	704.00	827.00	876.00	714.00	814.00	931.00	967.00	845.00	677.00	636.00	579.00	639.00	784.00	729.00	625.00	735.00	821.00	732.00	693.00	624.00	656.00	809.00	786.00	732.00	753.00	711.00	676.00	631.00	684.00	629.00	690.00	751.00	699.00	621.00	578.00	596.00	652.00	666.00	668.00	661.00	571.00	580.00	622.00	677.00	684.00	578.00	674.00	763.00	754.00	660.00	576.00	507.00	460.00	594.00	540.00	483.00	391.00	384.00	384.00	383.00	386.00	386.00	393.00	400.00	410.00	423.00	631.00	680.00	622.00	548.00	512.00	572.00	669.00	755.00	785.00	831.00	916.00	803.00
530.00	520.00	512.00	510.00	510.00	510.00	516.00	514.00	514.00	514.00	514.00	526.00	554.00	603.00	676.00	719.00	699.00	667.00	658.00	668.00	674.00	632.00	609.00	605.00	679.00	695.00	704.00	715.00	683.00	611.00	635.00	672.00	687.00	753.00	785.00	707.00	653.00	633.00	724.00	672.00	649.00	676.00	728.00	733.00	760.00	820.00	795.00	739.00	713.00	696.00	678.00	720.00	745.00	704.00	691.00	714.00	909.00	946.00	947.00	914.00	798.00	760.00	736.00	711.00	717.00	767.00	861.00	891.00	904.00	913.00	977.00	1050.00	1067.00	1096.00	1170.00	1181.00	1136.00	1109.00	1113.00	1143.00	1145.00	1125.00	1084.00	1035.00	1013.00	1008.00	991.00	880.00	876.00	877.00	877.00	914.00	1026.00	1027.00	1014.00	1045.00	1153.00	1311.00	1274.00	1217.00	1152.00	1181.00	1225.00	1192.00	1172.00	1124.00	1128.00	1154.00	1076.00	1050.00	1088.00	1029.00	984.00	960.00	964.00	979.00	982.00	995.00	1365.00	1383.00	1402.00	1386.00	1373.00	1362.00	1377.00	1405.00	1443.00	1477.00	1435.00	1391.00	1394.00	1398.00	1409.00	1404.00	1376.00	1311.00	1147.00	1106.00	1045.00	985.00	984.00	899.00	841.00	815.00	815.00	813.00	839.00	880.00	952.00	1004.00	807.00	732.00	703.00	683.00	680.00	689.00	708.00	777.00	836.00	757.00	744.00	769.00	825.00	978.00	1051.00	976.00	979.00	1035.00	1142.00	1123.00	1017.00	968.00	921.00	822.00	751.00	755.00	721.00	732.00	704.00	827.00	876.00	714.00	814.00	931.00	967.00	845.00	677.00	636.00	579.00	639.00	784.00	729.00	625.00	735.00	821.00	732.00	693.00	624.00	656.00	809.00	786.00	732.00	753.00	711.00	676.00	631.00	684.00	629.00	690.00	751.00	699.00	621.00	578.00	596.00	652.00	666.00	668.00	661.00	571.00	580.00	622.00	677.00	684.00	578.00	674.00	763.00	754.00	660.00	576.00	507.00	460.00	594.00	540.00	483.00	391.00	384.00	384.00	383.00	386.00	386.00	393.00	400.00	410.00	423.00	631.00	680.00	622.00	548.00	512.00	572.00	669.00	755.00	785.00	831.00	916.00	803.00
534.00	523.00	518.00	513.00	513.00	513.00	515.00	518.00	518.00	518.00	517.00	521.00	533.00	575.00	666.00	728.00	719.00	695.00	692.00	698.00	684.00	643.00	632.00	632.00	704.00	723.00	737.00	744.00	715.00	623.00	644.00	668.00	702.00	794.00	817.00	710.00	665.00	646.00	732.00	681.00	666.00	677.00	712.00	726.00	764.00	834.00	811.00	749.00	720.00	697.00	677.00	792.00	867.00	831.00	760.00	714.00	780.00	859.00	933.00	966.00	864.00	830.00	782.00	729.00	725.00	751.00	801.00	823.00	827.00	883.00	952.00	954.00	950.00	1034.00	1110.00	1092.00	1019.00	977.00	983.00	1002.00	1030.00	1079.00	1104.00	1057.00	1026.00	998.00	973.00	923.00	937.00	956.00	925.00	937.00	925.00	936.00	956.00	988.00	1103.00	1302.00	1324.00	1295.00	1253.00	1117.00	1142.00	1198.00	1150.00	1061.00	1080.00	1116.00	1089.00	1050.00	1011.00	989.00	967.00	956.00	984.00	1010.00	1028.00	1042.00	1213.00	1209.00	1220.00	1196.00	1227.00	1366.00	1423.00	1407.00	1462.00	1483.00	1434.00	1294.00	1236.00	1195.00	1167.00	1187.00	1227.00	1214.00	1137.00	1084.00	1022.00	963.00	943.00	889.00	844.00	808.00	794.00	772.00	780.00	830.00	889.00	870.00	718.00	697.00	686.00	690.00	745.00	812.00	794.00	788.00	911.00	885.00	879.00	789.00	792.00	818.00	855.00	835.00	897.00	975.00	1162.00	1149.00	1032.00	868.00	800.00	821.00	838.00	825.00	779.00	673.00	643.00	727.00	817.00	652.00	760.00	875.00	968.00	900.00	813.00	736.00	643.00	564.00	653.00	612.00	648.00	743.00	811.00	635.00	590.00	581.00	645.00	761.00	789.00	710.00	670.00	726.00	762.00	741.00	781.00	713.00	697.00	771.00	706.00	628.00	627.00	625.00	705.00	764.00	806.00	670.00	616.00	696.00	733.00	735.00	713.00	661.00	685.00	767.00	706.00	619.00	547.00	495.00	543.00	736.00	715.00	675.00	494.00	382.00	381.00	382.00	383.00	385.00	392.00	402.00	430.00	484.00	526.00	572.00	648.00	703.00	606.00	539.00	536.00	584.00	599.00	782.00	901.00	930.00
534.00	523.00	518.00	513.00	513.00	513.00	515.00	518.00	518.00	518.00	517.00	521.00	533.00	575.00	666.00	728.00	719.00	695.00	692.00	698.00	684.00	643.00	632.00	632.00	704.00	723.00	737.00	744.00	715.00	623.00	644.00	668.00	702.00	794.00	817.00	710.00	665.00	646.00	732.00	681.00	666.00	677.00	712.00	726.00	764.00	834.00	811.00	749.00	720.00	697.00	677.00	792.00	867.00	831.00	760.00	714.00	780.00	859.00	933.00	966.00	864.00	830.00	782.00	729.00	725.00	751.00	801.00	823.00	827.00	883.00	952.00	954.00	950.00	1034.00	1110.00	1092.00	1019.00	977.00	983.00	1002.00	1030.00	1079.00	1104.00	1057.00	1026.00	998.00	973.00	923.00	937.00	956.00	925.00	937.00	925.00	936.00	956.00	988.00	1103.00	1302.00	1324.00	1295.00	1253.00	1117.00	1142.00	1198.00	1150.00	1061.00	1080.00	1116.00	1089.00	1050.00	1011.00	989.00	967.00	956.00	984.00	1010.00	1028.00	1042.00	1213.00	1209.00	1220.00	1196.00	1227.00	1366.00	1423.00	1407.00	1462.00	1483.00	1434.00	1294.00	1236.00	1195.00	1167.00	1187.00	1227.00	1214.00	1137.00	1084.00	1022.00	963.00	943.00	889.00	844.00	808.00	794.00	772.00	780.00	830.00	889.00	870.00	718.00	697.00	686.00	690.00	745.00	812.00	794.00	788.00	911.00	885.00	879.00	789.00	792.00	818.00	855.00	835.00	897.00	975.00	1162.00	1149.00	1032.00	868.00	800.00	821.00	838.00	825.00	779.00	673.00	643.00	727.00	817.00	652.00	760.00	875.00	968.00	900.00	813.00	736.00	643.00	564.00	653.00	612.00	648.00	743.00	811.00	635.00	590.00	581.00	645.00	761.00	789.00	710.00	670.00	726.00	762.00	741.00	781.00	713.00	697.00	771.00	706.00	628.00	627.00	625.00	705.00	764.00	806.00	670.00	616.00	696.00	733.00	735.00	713.00	661.00	685.00	767.00	706.00	619.00	547.00	495.00	543.00	736.00	715.00	675.00	494.00	382.00	381.00	382.00	383.00	385.00	392.00	402.00	430.00	484.00	526.00	572.00	648.00	703.00	606.00	539.00	536.00	584.00	599.00	782.00	901.00	930.00
551.00	531.00	526.00	523.00	519.00	518.00	518.00	521.00	524.00	530.00	528.00	527.00	524.00	538.00	634.00	709.00	725.00	743.00	765.00	794.00	738.00	743.00	740.00	744.00	765.00	776.00	794.00	777.00	723.00	655.00	671.00	706.00	754.00	761.00	792.00	792.00	743.00	677.00	717.00	717.00	722.00	745.00	779.00	794.00	822.00	872.00	846.00	764.00	729.00	704.00	701.00	803.00	879.00	909.00	851.00	803.00	827.00	771.00	789.00	861.00	984.00	972.00	939.00	865.00	793.00	757.00	767.00	769.00	775.00	798.00	815.00	834.00	850.00	863.00	866.00	867.00	898.00	978.00	1059.00	1109.00	1142.00	1173.00	1144.00	1084.00	1072.00	1067.00	1067.00	1026.00	1071.00	1106.00	1132.00	1082.00	1013.00	994.00	1053.00	1086.00	1134.00	1274.00	1272.00	1200.00	1135.00	1040.00	1017.00	1007.00	1005.00	1017.00	1059.00	1085.00	1181.00	1161.00	984.00	934.00	934.00	961.00	972.00	983.00	1029.00	1127.00	1308.00	1255.00	1330.00	1384.00	1350.00	1233.00	1122.00	1080.00	1151.00	1340.00	1447.00	1506.00	1429.00	1377.00	1271.00	1215.00	1195.00	1190.00	1108.00	1037.00	986.00	981.00	949.00	914.00	917.00	910.00	883.00	792.00	764.00	738.00	724.00	716.00	748.00	730.00	721.00	753.00	810.00	872.00	971.00	1050.00	1073.00	1110.00	1155.00	1150.00	1095.00	1024.00	1101.00	1009.00	901.00	962.00	1000.00	1014.00	1065.00	930.00	774.00	734.00	719.00	665.00	640.00	638.00	632.00	602.00	571.00	588.00	591.00	674.00	682.00	637.00	624.00	616.00	604.00	593.00	525.00	500.00	711.00	782.00	764.00	591.00	517.00	578.00	615.00	588.00	573.00	547.00	567.00	666.00	709.00	687.00	696.00	777.00	720.00	751.00	674.00	611.00	691.00	702.00	765.00	861.00	843.00	819.00	797.00	731.00	745.00	707.00	770.00	683.00	695.00	757.00	799.00	716.00	636.00	614.00	648.00	751.00	677.00	590.00	394.00	376.00	377.00	379.00	385.00	392.00	406.00	419.00	437.00	467.00	544.00	530.00	583.00	650.00	756.00	689.00	678.00	683.00	614.00	665.00	659.00	735.00
551.00	531.00	526.00	523.00	519.00	518.00	518.00	521.00	524.00	530.00	528.00	527.00	524.00	538.00	634.00	709.00	725.00	743.00	765.00	794.00	738.00	743.00	740.00	744.00	765.00	776.00	794.00	777.00	723.00	655.00	671.00	706.00	754.00	761.00	792.00	792.00	743.00	677.00	717.00	717.00	722.00	745.00	779.00	794.00	822.00	872.00	846.00	764.00	729.00	704.00	701.00	803.00	879.00	909.00	851.00	803.00	827.00	771.00	789.00	861.00	984.00	972.00	939.00	865.00	793.00	757.00	767.00	769.00	775.00	798.00	815.00	834.00	850.00	863.00	866.00	867.00	898.00	978.00	1059.00	1109.00	1142.00	1173.00	1144.00	1084.00	1072.00	1067.00	1067.00	1026.00	1071.00	1106.00	1132.00	1082.00	1013.00	994.00	1053.00	1086.00	1134.00	1274.00	1272.00	1200.00	1135.00	1040.00	1017.00	1007.00	1005.00	1017.00	1059.00	1085.00	1181.00	1161.00	984.00	934.00	934.00	961.00	972.00	983.00	1029.00	1127.00	1308.00	1255.00	1330.00	1384.00	1350.00	1233.00	1122.00	1080.00	1151.00	1340.00	1447.00	1506.00	1429.00	1377.00	1271.00	1215.00	1195.00	1190.00	1108.00	1037.00	986.00	981.00	949.00	914.00	917.00	910.00	883.00	792.00	764.00	738.00	724.00	716.00	748.00	730.00	721.00	753.00	810.00	872.00	971.00	1050.00	1073.00	1110.00	1155.00	1150.00	1095.00	1024.00	1101.00	1009.00	901.00	962.00	1000.00	1014.00	1065.00	930.00	774.00	734.00	719.00	665.00	640.00	638.00	632.00	602.00	571.00	588.00	591.00	674.00	682.00	637.00	624.00	616.00	604.00	593.00	525.00	500.00	711.00	782.00	764.00	591.00	517.00	578.00	615.00	588.00	573.00	547.00	567.00	666.00	709.00	687.00	696.00	777.00	720.00	751.00	674.00	611.00	691.00	702.00	765.00	861.00	843.00	819.00	797.00	731.00	745.00	707.00	770.00	683.00	695.00	757.00	799.00	716.00	636.00	614.00	648.00	751.00	677.00	590.00	394.00	376.00	377.00	379.00	385.00	392.00	406.00	419.00	437.00	467.00	544.00	530.00	583.00	650.00	756.00	689.00	678.00	683.00	614.00	665.00	659.00	735.00
573.00	546.00	530.00	528.00	525.00	521.00	519.00	520.00	521.00	525.00	529.00	531.00	529.00	531.00	602.00	650.00	672.00	704.00	740.00	783.00	768.00	766.00	768.00	773.00	823.00	831.00	832.00	786.00	732.00	688.00	714.00	751.00	807.00	849.00	847.00	767.00	744.00	696.00	717.00	739.00	758.00	776.00	817.00	851.00	887.00	911.00	880.00	788.00	753.00	717.00	715.00	862.00	920.00	944.00	879.00	855.00	935.00	869.00	802.00	782.00	878.00	928.00	957.00	931.00	893.00	806.00	860.00	854.00	799.00	843.00	891.00	939.00	997.00	1030.00	1017.00	973.00	911.00	1017.00	1095.00	1115.00	1178.00	1166.00	1091.00	1007.00	1020.00	1061.00	1086.00	1026.00	1055.00	1110.00	1162.00	1168.00	1126.00	1078.00	1101.00	1122.00	1226.00	1323.00	1248.00	1163.00	1108.00	1101.00	1092.00	1036.00	991.00	975.00	996.00	1021.00	1105.00	1089.00	962.00	914.00	915.00	929.00	945.00	983.00	1082.00	1212.00	1370.00	1381.00	1408.00	1289.00	1180.00	1092.00	1028.00	1080.00	1183.00	1204.00	1299.00	1557.00	1599.00	1531.00	1327.00	1196.00	1136.00	1113.00	1048.00	1015.00	986.00	957.00	909.00	875.00	863.00	857.00	860.00	807.00	768.00	736.00	718.00	747.00	853.00	809.00	768.00	794.00	749.00	781.00	830.00	867.00	893.00	920.00	951.00	1054.00	1052.00	1093.00	1156.00	1101.00	1007.00	1056.00	1152.00	1060.00	990.00	952.00	915.00	868.00	840.00	790.00	759.00	735.00	710.00	665.00	598.00	539.00	537.00	540.00	541.00	538.00	527.00	519.00	510.00	504.00	485.00	480.00	534.00	595.00	677.00	564.00	491.00	503.00	526.00	558.00	541.00	566.00	572.00	650.00	687.00	723.00	770.00	804.00	652.00	630.00	615.00	582.00	591.00	679.00	763.00	855.00	793.00	664.00	648.00	630.00	603.00	583.00	622.00	608.00	658.00	697.00	761.00	773.00	778.00	762.00	738.00	677.00	633.00	576.00	383.00	374.00	375.00	381.00	388.00	395.00	412.00	422.00	417.00	429.00	479.00	534.00	526.00	571.00	665.00	633.00	652.00	727.00	751.00	893.00	873.00	771.00
573.00	546.00	530.00	528.00	525.00	521.00	519.00	520.00	521.00	525.00	529.00	531.00	529.00	531.00	602.00	650.00	672.00	704.00	740.00	783.00	768.00	766.00	768.00	773.00	823.00	831.00	832.00	786.00	732.00	688.00	714.00	751.00	807.00	849.00	847.00	767.00	744.00	696.00	717.00	739.00	758.00	776.00	817.00	851.00	887.00	911.00	880.00	788.00	753.00	717.00	715.00	862.00	920.00	944.00	879.00	855.00	935.00	869.00	802.00	782.00	878.00	928.00	957.00	931.00	893.00	806.00	860.00	854.00	799.00	843.00	891.00	939.00	997.00	1030.00	1017.00	973.00	911.00	1017.00	1095.00	1115.00	1178.00	1166.00	1091.00	1007.00	1020.00	1061.00	1086.00	1026.00	1055.00	1110.00	1162.00	1168.00	1126.00	1078.00	1101.00	1122.00	1226.00	1323.00	1248.00	1163.00	1108.00	1101.00	1092.00	1036.00	991.00	975.00	996.00	1021.00	1105.00	1089.00	962.00	914.00	915.00	929.00	945.00	983.00	1082.00	1212.00	1370.00	1381.00	1408.00	1289.00	1180.00	1092.00	1028.00	1080.00	1183.00	1204.00	1299.00	1557.00	1599.00	1531.00	1327.00	1196.00	1136.00	1113.00	1048.00	1015.00	986.00	957.00	909.00	875.00	863.00	857.00	860.00	807.00	768.00	736.00	718.00	747.00	853.00	809.00	768.00	794.00	749.00	781.00	830.00	867.00	893.00	920.00	951.00	1054.00	1052.00	1093.00	1156.00	1101.00	1007.00	1056.00	1152.00	1060.00	990.00	952.00	915.00	868.00	840.00	790.00	759.00	735.00	710.00	665.00	598.00	539.00	537.00	540.00	541.00	538.00	527.00	519.00	510.00	504.00	485.00	480.00	534.00	595.00	677.00	564.00	491.00	503.00	526.00	558.00	541.00	566.00	572.00	650.00	687.00	723.00	770.00	804.00	652.00	630.00	615.00	582.00	591.00	679.00	763.00	855.00	793.00	664.00	648.00	630.00	603.00	583.00	622.00	608.00	658.00	697.00	761.00	773.00	778.00	762.00	738.00	677.00	633.00	576.00	383.00	374.00	375.00	381.00	388.00	395.00	412.00	422.00	417.00	429.00	479.00	534.00	526.00	571.00	665.00	633.00	652.00	727.00	751.00	893.00	873.00	771.00
593.00	563.00	538.00	533.00	531.00	529.00	523.00	522.00	522.00	524.00	526.00	531.00	531.00	528.00	555.00	605.00	637.00	672.00	715.00	721.00	702.00	701.00	704.00	711.00	821.00	842.00	801.00	734.00	700.00	698.00	743.00	813.00	859.00	914.00	896.00	830.00	793.00	724.00	749.00	755.00	782.00	815.00	859.00	892.00	937.00	915.00	877.00	793.00	764.00	732.00	720.00	893.00	937.00	914.00	908.00	964.00	985.00	903.00	820.00	843.00	864.00	858.00	873.00	885.00	905.00	871.00	936.00	897.00	823.00	856.00	919.00	975.00	1028.00	1074.00	1103.00	1046.00	962.00	1033.00	1184.00	1184.00	1187.00	1105.00	1024.00	929.00	969.00	1017.00	1031.00	965.00	949.00	967.00	1003.00	1074.00	1120.00	1051.00	1034.00	1042.00	1159.00	1333.00	1291.00	1228.00	1199.00	1117.00	1061.00	1010.00	990.00	963.00	954.00	953.00	979.00	962.00	914.00	899.00	899.00	907.00	926.00	967.00	1064.00	1180.00	1188.00	1234.00	1353.00	1279.00	1157.00	1007.00	981.00	1011.00	1045.00	1216.00	1302.00	1390.00	1455.00	1495.00	1370.00	1312.00	1258.00	1203.00	1051.00	1007.00	993.00	965.00	896.00	844.00	832.00	817.00	794.00	765.00	750.00	733.00	730.00	840.00	952.00	882.00	898.00	895.00	781.00	804.00	847.00	859.00	869.00	858.00	867.00	905.00	922.00	971.00	1057.00	1168.00	1232.00	1262.00	1149.00	1025.00	948.00	824.00	765.00	729.00	693.00	668.00	642.00	604.00	584.00	576.00	596.00	673.00	675.00	658.00	715.00	709.00	666.00	599.00	603.00	641.00	576.00	539.00	469.00	470.00	501.00	472.00	523.00	612.00	661.00	676.00	633.00	662.00	669.00	674.00	687.00	740.00	765.00	764.00	758.00	658.00	594.00	554.00	636.00	707.00	792.00	850.00	806.00	819.00	774.00	805.00	780.00	704.00	554.00	557.00	587.00	616.00	654.00	688.00	702.00	727.00	741.00	571.00	520.00	479.00	378.00	372.00	373.00	375.00	383.00	391.00	426.00	480.00	493.00	464.00	484.00	470.00	474.00	525.00	566.00	571.00	659.00	714.00	714.00	853.00	945.00	834.00
603.00	574.00	546.00	538.00	537.00	535.00	530.00	529.00	527.00	528.00	527.00	529.00	532.00	532.00	533.00	560.00	594.00	649.00	706.00	675.00	629.00	635.00	650.00	699.00	781.00	742.00	714.00	690.00	662.00	688.00	717.00	773.00	824.00	802.00	798.00	792.00	809.00	792.00	788.00	819.00	826.00	826.00	892.00	936.00	952.00	888.00	837.00	781.00	759.00	739.00	729.00	787.00	825.00	842.00	879.00	943.00	991.00	902.00	846.00	861.00	993.00	972.00	944.00	907.00	907.00	967.00	993.00	939.00	864.00	859.00	885.00	909.00	946.00	999.00	1085.00	1059.00	1040.00	1139.00	1062.00	1047.00	1114.00	1147.00	1118.00	990.00	918.00	903.00	927.00	940.00	896.00	908.00	941.00	1014.00	1015.00	978.00	1038.00	1083.00	1127.00	1302.00	1339.00	1270.00	1200.00	1069.00	1037.00	1085.00	1103.00	1048.00	991.00	940.00	930.00	929.00	912.00	896.00	886.00	886.00	905.00	929.00	975.00	1023.00	1113.00	1228.00	1266.00	1216.00	1181.00	1061.00	954.00	965.00	1025.00	1202.00	1146.00	1217.00	1317.00	1318.00	1347.00	1320.00	1248.00	1167.00	1071.00	1078.00	1068.00	994.00	879.00	838.00	812.00	794.00	775.00	749.00	736.00	736.00	766.00	804.00	962.00	1035.00	1031.00	920.00	864.00	840.00	926.00	1030.00	1090.00	985.00	886.00	990.00	1087.00	1096.00	1039.00	1096.00	1174.00	1137.00	1069.00	957.00	869.00	786.00	712.00	704.00	680.00	669.00	695.00	684.00	643.00	687.00	713.00	809.00	862.00	883.00	911.00	879.00	731.00	734.00	695.00	746.00	743.00	669.00	518.00	472.00	458.00	468.00	566.00	659.00	676.00	699.00	672.00	669.00	641.00	753.00	732.00	789.00	705.00	629.00	653.00	621.00	552.00	561.00	655.00	635.00	665.00	696.00	745.00	870.00	803.00	769.00	825.00	809.00	605.00	507.00	504.00	527.00	564.00	590.00	619.00	649.00	682.00	599.00	532.00	497.00	375.00	370.00	372.00	373.00	380.00	386.00	428.00	497.00	559.00	580.00	555.00	609.00	592.00	515.00	478.00	559.00	574.00	575.00	619.00	830.00	825.00	708.00
603.00	574.00	546.00	538.00	537.00	535.00	530.00	529.00	527.00	528.00	527.00	529.00	532.00	532.00	533.00	560.00	594.00	649.00	706.00	675.00	629.00	635.00	650.00	699.00	781.00	742.00	714.00	690.00	662.00	688.00	717.00	773.00	824.00	802.00	798.00	792.00	809.00	792.00	788.00	819.00	826.00	826.00	892.00	936.00	952.00	888.00	837.00	781.00	759.00	739.00	729.00	787.00	825.00	842.00	879.00	943.00	991.00	902.00	846.00	861.00	993.00	972.00	944.00	907.00	907.00	967.00	993.00	939.00	864.00	859.00	885.00	909.00	946.00	999.00	1085.00	1059.00	1040.00	1139.00	1062.00	1047.00	1114.00	1147.00	1118.00	990.00	918.00	903.00	927.00	940.00	896.00	908.00	941.00	1014.00	1015.00	978.00	1038.00	1083.00	1127.00	1302.00	1339.00	1270.00	1200.00	1069.00	1037.00	1085.00	1103.00	1048.00	991.00	940.00	930.00	929.00	912.00	896.00	886.00	886.00	905.00	929.00	975.00	1023.00	1113.00	1228.00	1266.00	1216.00	1181.00	1061.00	954.00	965.00	1025.00	1202.00	1146.00	1217.00	1317.00	1318.00	1347.00	1320.00	1248.00	1167.00	1071.00	1078.00	1068.00	994.00	879.00	838.00	812.00	794.00	775.00	749.00	736.00	736.00	766.00	804.00	962.00	1035.00	1031.00	920.00	864.00	840.00	926.00	1030.00	1090.00	985.00	886.00	990.00	1087.00	1096.00	1039.00	1096.00	1174.00	1137.00	1069.00	957.00	869.00	786.00	712.00	704.00	680.00	669.00	695.00	684.00	643.00	687.00	713.00	809.00	862.00	883.00	911.00	879.00	731.00	734.00	695.00	746.00	743.00	669.00	518.00	472.00	458.00	468.00	566.00	659.00	676.00	699.00	672.00	669.00	641.00	753.00	732.00	789.00	705.00	629.00	653.00	621.00	552.00	561.00	655.00	635.00	665.00	696.00	745.00	870.00	803.00	769.00	825.00	809.00	605.00	507.00	504.00	527.00	564.00	590.00	619.00	649.00	682.00	599.00	532.00	497.00	375.00	370.00	372.00	373.00	380.00	386.00	428.00	497.00	559.00	580.00	555.00	609.00	592.00	515.00	478.00	559.00	574.00	575.00	619.00	830.00	825.00	708.00
609.00	582.00	560.00	548.00	544.00	542.00	537.00	535.00	533.00	533.00	534.00	532.00	532.00	534.00	536.00	537.00	547.00	590.00	638.00	613.00	605.00	625.00	652.00	698.00	730.00	682.00	653.00	637.00	637.00	665.00	696.00	756.00	782.00	767.00	722.00	768.00	777.00	786.00	835.00	851.00	876.00	897.00	928.00	981.00	973.00	898.00	853.00	807.00	775.00	785.00	765.00	783.00	863.00	923.00	937.00	926.00	1020.00	966.00	941.00	886.00	927.00	968.00	994.00	979.00	941.00	955.00	994.00	961.00	912.00	884.00	916.00	973.00	983.00	997.00	1049.00	1070.00	1118.00	1070.00	970.00	945.00	984.00	1023.00	1062.00	1046.00	979.00	908.00	862.00	868.00	873.00	886.00	904.00	929.00	964.00	1029.00	1101.00	1130.00	1034.00	1199.00	1288.00	1280.00	1234.00	1136.00	1119.00	1158.00	1085.00	1007.00	973.00	950.00	1011.00	1028.00	958.00	931.00	901.00	878.00	874.00	896.00	920.00	954.00	1147.00	1182.00	1143.00	1022.00	1016.00	1018.00	938.00	916.00	940.00	1005.00	1008.00	1054.00	1075.00	1079.00	1121.00	1134.00	1158.00	1156.00	1042.00	1014.00	1010.00	951.00	885.00	859.00	827.00	786.00	763.00	742.00	779.00	867.00	940.00	865.00	904.00	987.00	983.00	971.00	1022.00	926.00	910.00	981.00	1049.00	1041.00	930.00	981.00	1084.00	1221.00	1174.00	1131.00	1054.00	941.00	945.00	990.00	979.00	881.00	830.00	859.00	845.00	829.00	859.00	842.00	792.00	799.00	849.00	771.00	717.00	740.00	775.00	768.00	860.00	893.00	863.00	836.00	707.00	650.00	566.00	513.00	471.00	446.00	481.00	516.00	510.00	539.00	540.00	563.00	579.00	629.00	776.00	809.00	773.00	714.00	633.00	567.00	516.00	533.00	553.00	628.00	704.00	771.00	736.00	682.00	667.00	610.00	677.00	711.00	724.00	648.00	539.00	470.00	500.00	526.00	570.00	570.00	565.00	603.00	551.00	475.00	375.00	368.00	370.00	372.00	374.00	384.00	419.00	460.00	505.00	562.00	523.00	543.00	637.00	660.00	549.00	526.00	616.00	689.00	727.00	812.00	852.00	708.00
622.00	596.00	581.00	561.00	555.00	551.00	544.00	541.00	539.00	538.00	538.00	543.00	542.00	539.00	540.00	538.00	540.00	541.00	549.00	554.00	597.00	616.00	647.00	691.00	663.00	633.00	618.00	610.00	614.00	633.00	644.00	665.00	683.00	696.00	702.00	739.00	743.00	757.00	814.00	848.00	878.00	918.00	1022.00	1039.00	1007.00	941.00	902.00	820.00	852.00	905.00	865.00	769.00	780.00	804.00	825.00	845.00	1047.00	1070.00	1043.00	1026.00	1008.00	1005.00	976.00	910.00	901.00	861.00	882.00	873.00	878.00	902.00	946.00	993.00	955.00	949.00	954.00	1009.00	1084.00	1044.00	1025.00	973.00	965.00	918.00	907.00	960.00	938.00	897.00	847.00	890.00	896.00	924.00	970.00	1058.00	1106.00	1138.00	1140.00	1095.00	972.00	1110.00	1192.00	1232.00	1194.00	1053.00	1049.00	1104.00	1056.00	1081.00	1034.00	987.00	1065.00	1116.00	1033.00	996.00	959.00	909.00	863.00	862.00	872.00	881.00	951.00	968.00	984.00	926.00	885.00	872.00	877.00	884.00	892.00	919.00	939.00	956.00	958.00	964.00	952.00	950.00	954.00	958.00	975.00	943.00	949.00	936.00	866.00	837.00	821.00	773.00	757.00	837.00	929.00	971.00	957.00	945.00	929.00	925.00	896.00	965.00	1180.00	1105.00	1083.00	1053.00	1012.00	1161.00	1093.00	1097.00	1111.00	1027.00	972.00	929.00	866.00	831.00	771.00	824.00	927.00	981.00	837.00	784.00	745.00	731.00	721.00	731.00	706.00	684.00	692.00	671.00	656.00	621.00	591.00	597.00	708.00	734.00	693.00	725.00	774.00	732.00	640.00	602.00	515.00	439.00	458.00	536.00	599.00	608.00	555.00	622.00	690.00	638.00	770.00	678.00	658.00	643.00	621.00	557.00	503.00	579.00	654.00	718.00	760.00	818.00	733.00	593.00	594.00	569.00	550.00	541.00	627.00	584.00	536.00	474.00	443.00	441.00	446.00	448.00	447.00	469.00	458.00	434.00	377.00	366.00	369.00	368.00	368.00	380.00	428.00	496.00	551.00	606.00	667.00	563.00	549.00	641.00	673.00	548.00	540.00	599.00	632.00	665.00	757.00	705.00
622.00	596.00	581.00	561.00	555.00	551.00	544.00	541.00	539.00	538.00	538.00	543.00	542.00	539.00	540.00	538.00	540.00	541.00	549.00	554.00	597.00	616.00	647.00	691.00	663.00	633.00	618.00	610.00	614.00	633.00	644.00	665.00	683.00	696.00	702.00	739.00	743.00	757.00	814.00	848.00	878.00	918.00	1022.00	1039.00	1007.00	941.00	902.00	820.00	852.00	905.00	865.00	769.00	780.00	804.00	825.00	845.00	1047.00	1070.00	1043.00	1026.00	1008.00	1005.00	976.00	910.00	901.00	861.00	882.00	873.00	878.00	902.00	946.00	993.00	955.00	949.00	954.00	1009.00	1084.00	1044.00	1025.00	973.00	965.00	918.00	907.00	960.00	938.00	897.00	847.00	890.00	896.00	924.00	970.00	1058.00	1106.00	1138.00	1140.00	1095.00	972.00	1110.00	1192.00	1232.00	1194.00	1053.00	1049.00	1104.00	1056.00	1081.00	1034.00	987.00	1065.00	1116.00	1033.00	996.00	959.00	909.00	863.00	862.00	872.00	881.00	951.00	968.00	984.00	926.00	885.00	872.00	877.00	884.00	892.00	919.00	939.00	956.00	958.00	964.00	952.00	950.00	954.00	958.00	975.00	943.00	949.00	936.00	866.00	837.00	821.00	773.00	757.00	837.00	929.00	971.00	957.00	945.00	929.00	925.00	896.00	965.00	1180.00	1105.00	1083.00	1053.00	1012.00	1161.00	1093.00	1097.00	1111.00	1027.00	972.00	929.00	866.00	831.00	771.00	824.00	927.00	981.00	837.00	784.00	745.00	731.00	721.00	731.00	706.00	684.00	692.00	671.00	656.00	621.00	591.00	597.00	708.00	734.00	693.00	725.00	774.00	732.00	640.00	602.00	515.00	439.00	458.00	536.00	599.00	608.00	555.00	622.00	690.00	638.00	770.00	678.00	658.00	643.00	621.00	557.00	503.00	579.00	654.00	718.00	760.00	818.00	733.00	593.00	594.00	569.00	550.00	541.00	627.00	584.00	536.00	474.00	443.00	441.00	446.00	448.00	447.00	469.00	458.00	434.00	377.00	366.00	369.00	368.00	368.00	380.00	428.00	496.00	551.00	606.00	667.00	563.00	549.00	641.00	673.00	548.00	540.00	599.00	632.00	665.00	757.00	705.00
650.00	626.00	596.00	572.00	564.00	559.00	551.00	547.00	544.00	543.00	544.00	547.00	550.00	551.00	538.00	539.00	541.00	542.00	545.00	546.00	554.00	571.00	607.00	633.00	603.00	591.00	591.00	600.00	612.00	641.00	653.00	664.00	673.00	706.00	743.00	791.00	755.00	741.00	808.00	838.00	838.00	866.00	1001.00	1006.00	965.00	881.00	897.00	897.00	933.00	935.00	861.00	814.00	814.00	831.00	830.00	826.00	908.00	949.00	1004.00	1071.00	996.00	935.00	906.00	841.00	816.00	875.00	804.00	804.00	816.00	871.00	929.00	953.00	884.00	863.00	948.00	1016.00	1080.00	969.00	1009.00	1060.00	1091.00	1049.00	974.00	856.00	832.00	822.00	819.00	994.00	969.00	981.00	1020.00	1090.00	1142.00	1076.00	1123.00	1100.00	934.00	1043.00	1126.00	1194.00	1168.00	1031.00	962.00	945.00	930.00	1029.00	1099.00	1063.00	1073.00	1182.00	1143.00	1081.00	1027.00	982.00	900.00	893.00	896.00	889.00	839.00	837.00	834.00	833.00	838.00	852.00	855.00	859.00	878.00	886.00	889.00	922.00	964.00	981.00	964.00	944.00	936.00	932.00	901.00	882.00	867.00	853.00	827.00	797.00	784.00	772.00	762.00	938.00	932.00	894.00	880.00	914.00	1055.00	1022.00	975.00	956.00	1154.00	1268.00	1293.00	1217.00	1174.00	1150.00	1024.00	1038.00	1120.00	1029.00	955.00	889.00	842.00	826.00	717.00	780.00	820.00	896.00	861.00	855.00	820.00	740.00	664.00	602.00	593.00	588.00	581.00	545.00	544.00	551.00	534.00	510.00	534.00	542.00	538.00	597.00	658.00	676.00	668.00	632.00	516.00	432.00	445.00	528.00	634.00	689.00	666.00	705.00	751.00	743.00	766.00	765.00	677.00	649.00	560.00	523.00	491.00	564.00	639.00	596.00	639.00	694.00	737.00	722.00	739.00	731.00	666.00	574.00	489.00	480.00	473.00	485.00	529.00	532.00	509.00	473.00	436.00	409.00	402.00	393.00	371.00	367.00	368.00	367.00	366.00	377.00	423.00	466.00	507.00	574.00	756.00	670.00	579.00	587.00	702.00	610.00	660.00	601.00	574.00	663.00	720.00	830.00
664.00	641.00	602.00	580.00	573.00	568.00	560.00	555.00	550.00	549.00	550.00	551.00	554.00	555.00	549.00	541.00	542.00	542.00	543.00	545.00	554.00	552.00	552.00	560.00	571.00	582.00	594.00	607.00	622.00	660.00	680.00	697.00	711.00	781.00	816.00	742.00	707.00	698.00	734.00	766.00	800.00	847.00	977.00	958.00	911.00	800.00	798.00	898.00	980.00	967.00	919.00	898.00	879.00	883.00	893.00	889.00	888.00	935.00	1017.00	1090.00	958.00	889.00	833.00	799.00	781.00	824.00	780.00	790.00	821.00	900.00	943.00	906.00	838.00	839.00	929.00	1003.00	1076.00	990.00	901.00	970.00	1040.00	1083.00	1050.00	876.00	818.00	799.00	830.00	974.00	981.00	1014.00	1089.00	1172.00	1046.00	986.00	1030.00	1053.00	906.00	1002.00	1081.00	1144.00	1115.00	1004.00	941.00	895.00	920.00	1006.00	998.00	932.00	997.00	1096.00	1215.00	1181.00	1143.00	1100.00	995.00	1021.00	1085.00	1117.00	857.00	822.00	825.00	830.00	864.00	931.00	960.00	1015.00	1019.00	883.00	875.00	980.00	1142.00	1193.00	1182.00	1102.00	1026.00	1001.00	1011.00	956.00	919.00	895.00	861.00	840.00	818.00	787.00	773.00	842.00	868.00	831.00	835.00	882.00	966.00	996.00	1036.00	1041.00	1201.00	1293.00	1220.00	1089.00	1010.00	925.00	860.00	933.00	992.00	924.00	945.00	929.00	932.00	841.00	693.00	685.00	702.00	870.00	865.00	807.00	749.00	687.00	669.00	674.00	660.00	689.00	649.00	588.00	629.00	672.00	622.00	552.00	572.00	521.00	513.00	498.00	483.00	490.00	500.00	517.00	472.00	429.00	444.00	519.00	587.00	590.00	612.00	630.00	712.00	666.00	628.00	723.00	706.00	624.00	536.00	488.00	500.00	533.00	550.00	637.00	679.00	700.00	757.00	662.00	636.00	608.00	574.00	528.00	604.00	556.00	571.00	566.00	678.00	685.00	641.00	581.00	513.00	450.00	435.00	419.00	374.00	367.00	367.00	366.00	366.00	370.00	415.00	475.00	530.00	595.00	827.00	735.00	634.00	590.00	640.00	767.00	752.00	672.00	605.00	698.00	784.00	856.00
672.00	643.00	628.00	594.00	586.00	583.00	573.00	563.00	557.00	558.00	558.00	556.00	557.00	559.00	554.00	551.00	549.00	547.00	545.00	546.00	548.00	549.00	551.00	552.00	563.00	574.00	587.00	601.00	618.00	659.00	691.00	722.00	746.00	830.00	799.00	662.00	662.00	679.00	726.00	754.00	790.00	850.00	921.00	890.00	847.00	745.00	761.00	858.00	919.00	956.00	928.00	998.00	1007.00	990.00	951.00	960.00	953.00	1002.00	1050.00	1066.00	987.00	943.00	880.00	811.00	778.00	755.00	769.00	791.00	835.00	907.00	940.00	894.00	812.00	819.00	914.00	985.00	1052.00	966.00	886.00	857.00	890.00	927.00	939.00	842.00	798.00	803.00	888.00	914.00	937.00	979.00	1061.00	1153.00	1092.00	1037.00	976.00	933.00	880.00	951.00	1007.00	1066.00	1062.00	938.00	886.00	888.00	968.00	935.00	869.00	872.00	989.00	1065.00	1125.00	1067.00	1027.00	971.00	956.00	959.00	1019.00	1046.00	827.00	817.00	825.00	844.00	935.00	1110.00	1166.00	1189.00	1065.00	887.00	887.00	1053.00	1195.00	1324.00	1335.00	1203.00	1125.00	1077.00	1228.00	1179.00	1120.00	1052.00	927.00	877.00	837.00	804.00	788.00	779.00	797.00	817.00	851.00	877.00	1005.00	1041.00	1080.00	1112.00	1308.00	1330.00	1221.00	1116.00	1045.00	853.00	782.00	911.00	874.00	767.00	756.00	796.00	870.00	812.00	674.00	646.00	677.00	817.00	834.00	768.00	730.00	702.00	747.00	815.00	794.00	827.00	782.00	711.00	756.00	784.00	664.00	654.00	694.00	674.00	708.00	685.00	622.00	574.00	507.00	474.00	433.00	426.00	442.00	471.00	492.00	543.00	584.00	647.00	742.00	655.00	550.00	581.00	635.00	628.00	484.00	488.00	565.00	610.00	635.00	591.00	634.00	688.00	764.00	703.00	665.00	660.00	650.00	560.00	699.00	676.00	724.00	674.00	725.00	711.00	667.00	608.00	543.00	467.00	447.00	425.00	370.00	364.00	363.00	361.00	362.00	366.00	399.00	472.00	544.00	629.00	848.00	820.00	754.00	739.00	719.00	759.00	833.00	726.00	700.00	862.00	922.00	975.00
672.00	643.00	628.00	594.00	586.00	583.00	573.00	563.00	557.00	558.00	558.00	556.00	557.00	559.00	554.00	551.00	549.00	547.00	545.00	546.00	548.00	549.00	551.00	552.00	563.00	574.00	587.00	601.00	618.00	659.00	691.00	722.00	746.00	830.00	799.00	662.00	662.00	679.00	726.00	754.00	790.00	850.00	921.00	890.00	847.00	745.00	761.00	858.00	919.00	956.00	928.00	998.00	1007.00	990.00	951.00	960.00	953.00	1002.00	1050.00	1066.00	987.00	943.00	880.00	811.00	778.00	755.00	769.00	791.00	835.00	907.00	940.00	894.00	812.00	819.00	914.00	985.00	1052.00	966.00	886.00	857.00	890.00	927.00	939.00	842.00	798.00	803.00	888.00	914.00	937.00	979.00	1061.00	1153.00	1092.00	1037.00	976.00	933.00	880.00	951.00	1007.00	1066.00	1062.00	938.00	886.00	888.00	968.00	935.00	869.00	872.00	989.00	1065.00	1125.00	1067.00	1027.00	971.00	956.00	959.00	1019.00	1046.00	827.00	817.00	825.00	844.00	935.00	1110.00	1166.00	1189.00	1065.00	887.00	887.00	1053.00	1195.00	1324.00	1335.00	1203.00	1125.00	1077.00	1228.00	1179.00	1120.00	1052.00	927.00	877.00	837.00	804.00	788.00	779.00	797.00	817.00	851.00	877.00	1005.00	1041.00	1080.00	1112.00	1308.00	1330.00	1221.00	1116.00	1045.00	853.00	782.00	911.00	874.00	767.00	756.00	796.00	870.00	812.00	674.00	646.00	677.00	817.00	834.00	768.00	730.00	702.00	747.00	815.00	794.00	827.00	782.00	711.00	756.00	784.00	664.00	654.00	694.00	674.00	708.00	685.00	622.00	574.00	507.00	474.00	433.00	426.00	442.00	471.00	492.00	543.00	584.00	647.00	742.00	655.00	550.00	581.00	635.00	628.00	484.00	488.00	565.00	610.00	635.00	591.00	634.00	688.00	764.00	703.00	665.00	660.00	650.00	560.00	699.00	676.00	724.00	674.00	725.00	711.00	667.00	608.00	543.00	467.00	447.00	425.00	370.00	364.00	363.00	361.00	362.00	366.00	399.00	472.00	544.00	629.00	848.00	820.00	754.00	739.00	719.00	759.00	833.00	726.00	700.00	862.00	922.00	975.00
672.00	643.00	628.00	594.00	586.00	583.00	573.00	563.00	557.00	558.00	558.00	556.00	557.00	559.00	554.00	551.00	549.00	547.00	545.00	546.00	548.00	549.00	551.00	552.00	563.00	574.00	587.00	601.00	618.00	659.00	691.00	722.00	746.00	830.00	799.00	662.00	662.00	679.00	726.00	754.00	790.00	850.00	921.00	890.00	847.00	745.00	761.00	858.00	919.00	956.00	928.00	998.00	1007.00	990.00	951.00	960.00	953.00	1002.00	1050.00	1066.00	987.00	943.00	880.00	811.00	778.00	755.00	769.00	791.00	835.00	907.00	940.00	894.00	812.00	819.00	914.00	985.00	1052.00	966.00	886.00	857.00	890.00	927.00	939.00	842.00	798.00	803.00	888.00	914.00	937.00	979.00	1061.00	1153.00	1092.00	1037.00	976.00	933.00	880.00	951.00	1007.00	1066.00	1062.00	938.00	886.00	888.00	968.00	935.00	869.00	872.00	989.00	1065.00	1125.00	1067.00	1027.00	971.00	956.00	959.00	1019.00	1046.00	827.00	817.00	825.00	844.00	935.00	1110.00	1166.00	1189.00	1065.00	887.00	887.00	1053.00	1195.00	1324.00	1335.00	1203.00	1125.00	1077.00	1228.00	1179.00	1120.00	1052.00	927.00	877.00	837.00	804.00	788.00	779.00	797.00	817.00	851.00	877.00	1005.00	1041.00	1080.00	1112.00	1308.00	1330.00	1221.00	1116.00	1045.00	853.00	782.00	911.00	874.00	767.00	756.00	796.00	870.00	812.00	674.00	646.00	677.00	817.00	834.00	768.00	730.00	702.00	747.00	815.00	794.00	827.00	782.00	711.00	756.00	784.00	664.00	654.00	694.00	674.00	708.00	685.00	622.00	574.00	507.00	474.00	433.00	426.00	442.00	471.00	492.00	543.00	584.00	647.00	742.00	655.00	550.00	581.00	635.00	628.00	484.00	488.00	565.00	610.00	635.00	591.00	634.00	688.00	764.00	703.00	665.00	660.00	650.00	560.00	699.00	676.00	724.00	674.00	725.00	711.00	667.00	608.00	543.00	467.00	447.00	425.00	370.00	364.00	363.00	361.00	362.00	366.00	399.00	472.00	544.00	629.00	848.00	820.00	754.00	739.00	719.00	759.00	833.00	726.00	700.00	862.00	922.00	975.00
706.00	688.00	649.00	614.00	607.00	598.00	576.00	568.00	568.00	574.00	573.00	564.00	562.00	562.00	560.00	557.00	554.00	553.00	553.00	551.00	551.00	552.00	552.00	553.00	560.00	560.00	562.00	566.00	575.00	618.00	673.00	722.00	748.00	757.00	690.00	669.00	701.00	708.00	765.00	809.00	824.00	872.00	845.00	806.00	767.00	718.00	799.00	849.00	807.00	839.00	810.00	894.00	930.00	934.00	954.00	979.00	986.00	1058.00	995.00	923.00	848.00	821.00	818.00	796.00	785.00	744.00	772.00	788.00	812.00	862.00	907.00	876.00	798.00	805.00	871.00	924.00	996.00	1011.00	896.00	908.00	863.00	834.00	830.00	800.00	775.00	829.00	931.00	935.00	951.00	984.00	1020.00	1026.00	1045.00	1103.00	1100.00	1026.00	880.00	885.00	914.00	949.00	976.00	878.00	863.00	925.00	1002.00	905.00	835.00	857.00	980.00	1036.00	968.00	911.00	869.00	844.00	830.00	821.00	821.00	825.00	812.00	839.00	887.00	921.00	944.00	1091.00	1217.00	1154.00	1034.00	901.00	895.00	987.00	1092.00	1197.00	1395.00	1280.00	1179.00	1190.00	1323.00	1225.00	1108.00	1021.00	964.00	871.00	839.00	818.00	821.00	812.00	790.00	842.00	893.00	921.00	949.00	980.00	1036.00	1111.00	1309.00	1308.00	1298.00	1232.00	1094.00	846.00	709.00	789.00	774.00	692.00	675.00	761.00	799.00	832.00	683.00	627.00	646.00	724.00	818.00	857.00	876.00	845.00	859.00	809.00	799.00	789.00	762.00	799.00	873.00	877.00	804.00	814.00	860.00	782.00	719.00	674.00	679.00	669.00	653.00	612.00	483.00	420.00	435.00	452.00	482.00	590.00	656.00	721.00	782.00	610.00	566.00	548.00	528.00	505.00	465.00	505.00	532.00	536.00	529.00	577.00	640.00	682.00	699.00	786.00	823.00	769.00	689.00	618.00	742.00	864.00	859.00	798.00	702.00	665.00	628.00	587.00	535.00	464.00	445.00	421.00	368.00	364.00	361.00	360.00	360.00	363.00	400.00	436.00	483.00	536.00	771.00	851.00	867.00	900.00	897.00	839.00	945.00	884.00	857.00	907.00	842.00	817.00
672.00	645.00	624.00	656.00	637.00	613.00	581.00	578.00	589.00	596.00	589.00	572.00	569.00	567.00	565.00	563.00	559.00	558.00	560.00	559.00	557.00	556.00	556.00	556.00	558.00	559.00	561.00	562.00	564.00	569.00	582.00	614.00	660.00	635.00	611.00	708.00	689.00	687.00	777.00	799.00	817.00	859.00	792.00	741.00	701.00	748.00	789.00	775.00	733.00	772.00	746.00	793.00	819.00	853.00	893.00	927.00	911.00	1027.00	1052.00	1017.00	901.00	835.00	784.00	759.00	747.00	724.00	747.00	767.00	791.00	830.00	870.00	884.00	791.00	796.00	838.00	888.00	919.00	997.00	1016.00	1018.00	934.00	874.00	857.00	783.00	761.00	783.00	823.00	916.00	948.00	944.00	934.00	927.00	968.00	1055.00	1133.00	1058.00	926.00	840.00	843.00	854.00	858.00	838.00	890.00	985.00	991.00	885.00	814.00	822.00	874.00	865.00	827.00	803.00	788.00	783.00	787.00	791.00	795.00	797.00	873.00	936.00	1021.00	1126.00	1126.00	1163.00	1212.00	1088.00	1002.00	1000.00	946.00	927.00	988.00	1093.00	1326.00	1412.00	1401.00	1395.00	1231.00	1118.00	1018.00	992.00	930.00	863.00	845.00	834.00	900.00	866.00	795.00	810.00	839.00	851.00	999.00	1045.00	1066.00	1119.00	1167.00	1112.00	1166.00	1157.00	1085.00	837.00	705.00	688.00	660.00	631.00	622.00	668.00	724.00	814.00	735.00	646.00	613.00	678.00	728.00	777.00	878.00	984.00	947.00	849.00	782.00	707.00	664.00	692.00	767.00	766.00	695.00	746.00	818.00	799.00	803.00	744.00	601.00	571.00	519.00	506.00	478.00	412.00	420.00	437.00	469.00	590.00	642.00	704.00	784.00	710.00	676.00	626.00	605.00	527.00	474.00	554.00	644.00	661.00	614.00	615.00	615.00	668.00	692.00	818.00	775.00	710.00	667.00	617.00	657.00	866.00	851.00	771.00	647.00	608.00	570.00	532.00	497.00	447.00	429.00	409.00	366.00	363.00	362.00	360.00	359.00	362.00	390.00	430.00	515.00	593.00	654.00	652.00	697.00	804.00	908.00	899.00	897.00	954.00	953.00	762.00	694.00	701.00
672.00	645.00	624.00	656.00	637.00	613.00	581.00	578.00	589.00	596.00	589.00	572.00	569.00	567.00	565.00	563.00	559.00	558.00	560.00	559.00	557.00	556.00	556.00	556.00	558.00	559.00	561.00	562.00	564.00	569.00	582.00	614.00	660.00	635.00	611.00	708.00	689.00	687.00	777.00	799.00	817.00	859.00	792.00	741.00	701.00	748.00	789.00	775.00	733.00	772.00	746.00	793.00	819.00	853.00	893.00	927.00	911.00	1027.00	1052.00	1017.00	901.00	835.00	784.00	759.00	747.00	724.00	747.00	767.00	791.00	830.00	870.00	884.00	791.00	796.00	838.00	888.00	919.00	997.00	1016.00	1018.00	934.00	874.00	857.00	783.00	761.00	783.00	823.00	916.00	948.00	944.00	934.00	927.00	968.00	1055.00	1133.00	1058.00	926.00	840.00	843.00	854.00	858.00	838.00	890.00	985.00	991.00	885.00	814.00	822.00	874.00	865.00	827.00	803.00	788.00	783.00	787.00	791.00	795.00	797.00	873.00	936.00	1021.00	1126.00	1126.00	1163.00	1212.00	1088.00	1002.00	1000.00	946.00	927.00	988.00	1093.00	1326.00	1412.00	1401.00	1395.00	1231.00	1118.00	1018.00	992.00	930.00	863.00	845.00	834.00	900.00	866.00	795.00	810.00	839.00	851.00	999.00	1045.00	1066.00	1119.00	1167.00	1112.00	1166.00	1157.00	1085.00	837.00	705.00	688.00	660.00	631.00	622.00	668.00	724.00	814.00	735.00	646.00	613.00	678.00	728.00	777.00	878.00	984.00	947.00	849.00	782.00	707.00	664.00	692.00	767.00	766.00	695.00	746.00	818.00	799.00	803.00	744.00	601.00	571.00	519.00	506.00	478.00	412.00	420.00	437.00	469.00	590.00	642.00	704.00	784.00	710.00	676.00	626.00	605.00	527.00	474.00	554.00	644.00	661.00	614.00	615.00	615.00	668.00	692.00	818.00	775.00	710.00	667.00	617.00	657.00	866.00	851.00	771.00	647.00	608.00	570.00	532.00	497.00	447.00	429.00	409.00	366.00	363.00	362.00	360.00	359.00	362.00	390.00	430.00	515.00	593.00	654.00	652.00	697.00	804.00	908.00	899.00	897.00	954.00	953.00	762.00	694.00	701.00
562.00	563.00	594.00	689.00	659.00	624.00	590.00	598.00	610.00	609.00	595.00	580.00	575.00	574.00	570.00	566.00	563.00	562.00	564.00	565.00	565.00	565.00	566.00	567.00	560.00	561.00	563.00	564.00	564.00	567.00	569.00	571.00	574.00	580.00	585.00	636.00	633.00	643.00	730.00	735.00	751.00	793.00	727.00	683.00	656.00	688.00	689.00	708.00	748.00	792.00	843.00	827.00	840.00	841.00	844.00	825.00	857.00	978.00	988.00	920.00	820.00	798.00	788.00	759.00	747.00	702.00	719.00	757.00	793.00	872.00	895.00	883.00	804.00	758.00	787.00	820.00	865.00	961.00	1077.00	1025.00	955.00	926.00	892.00	812.00	764.00	750.00	777.00	950.00	990.00	917.00	863.00	874.00	966.00	1081.00	1068.00	1006.00	961.00	895.00	842.00	815.00	802.00	822.00	851.00	888.00	906.00	841.00	788.00	772.00	764.00	765.00	767.00	769.00	772.00	777.00	783.00	787.00	792.00	799.00	998.00	1101.00	1161.00	1236.00	1248.00	1277.00	1234.00	1094.00	1094.00	1245.00	1140.00	941.00	949.00	1042.00	1320.00	1397.00	1493.00	1411.00	1183.00	1081.00	1077.00	1072.00	970.00	879.00	860.00	876.00	987.00	899.00	828.00	804.00	808.00	855.00	952.00	949.00	985.00	1014.00	997.00	1057.00	1111.00	1007.00	918.00	769.00	895.00	849.00	751.00	617.00	587.00	602.00	657.00	688.00	657.00	628.00	600.00	640.00	747.00	807.00	856.00	839.00	882.00	726.00	755.00	780.00	753.00	579.00	588.00	617.00	577.00	644.00	662.00	616.00	709.00	771.00	754.00	714.00	648.00	602.00	582.00	419.00	407.00	409.00	428.00	560.00	667.00	756.00	733.00	652.00	664.00	581.00	493.00	451.00	474.00	513.00	569.00	596.00	627.00	705.00	708.00	747.00	830.00	733.00	624.00	597.00	548.00	563.00	731.00	825.00	760.00	705.00	736.00	717.00	668.00	597.00	532.00	443.00	419.00	394.00	365.00	361.00	362.00	360.00	358.00	359.00	387.00	408.00	459.00	502.00	588.00	680.00	737.00	765.00	771.00	725.00	766.00	867.00	933.00	771.00	688.00	599.00
562.00	563.00	594.00	689.00	659.00	624.00	590.00	598.00	610.00	609.00	595.00	580.00	575.00	574.00	570.00	566.00	563.00	562.00	564.00	565.00	565.00	565.00	566.00	567.00	560.00	561.00	563.00	564.00	564.00	567.00	569.00	571.00	574.00	580.00	585.00	636.00	633.00	643.00	730.00	735.00	751.00	793.00	727.00	683.00	656.00	688.00	689.00	708.00	748.00	792.00	843.00	827.00	840.00	841.00	844.00	825.00	857.00	978.00	988.00	920.00	820.00	798.00	788.00	759.00	747.00	702.00	719.00	757.00	793.00	872.00	895.00	883.00	804.00	758.00	787.00	820.00	865.00	961.00	1077.00	1025.00	955.00	926.00	892.00	812.00	764.00	750.00	777.00	950.00	990.00	917.00	863.00	874.00	966.00	1081.00	1068.00	1006.00	961.00	895.00	842.00	815.00	802.00	822.00	851.00	888.00	906.00	841.00	788.00	772.00	764.00	765.00	767.00	769.00	772.00	777.00	783.00	787.00	792.00	799.00	998.00	1101.00	1161.00	1236.00	1248.00	1277.00	1234.00	1094.00	1094.00	1245.00	1140.00	941.00	949.00	1042.00	1320.00	1397.00	1493.00	1411.00	1183.00	1081.00	1077.00	1072.00	970.00	879.00	860.00	876.00	987.00	899.00	828.00	804.00	808.00	855.00	952.00	949.00	985.00	1014.00	997.00	1057.00	1111.00	1007.00	918.00	769.00	895.00	849.00	751.00	617.00	587.00	602.00	657.00	688.00	657.00	628.00	600.00	640.00	747.00	807.00	856.00	839.00	882.00	726.00	755.00	780.00	753.00	579.00	588.00	617.00	577.00	644.00	662.00	616.00	709.00	771.00	754.00	714.00	648.00	602.00	582.00	419.00	407.00	409.00	428.00	560.00	667.00	756.00	733.00	652.00	664.00	581.00	493.00	451.00	474.00	513.00	569.00	596.00	627.00	705.00	708.00	747.00	830.00	733.00	624.00	597.00	548.00	563.00	731.00	825.00	760.00	705.00	736.00	717.00	668.00	597.00	532.00	443.00	419.00	394.00	365.00	361.00	362.00	360.00	358.00	359.00	387.00	408.00	459.00	502.00	588.00	680.00	737.00	765.00	771.00	725.00	766.00	867.00	933.00	771.00	688.00	599.00
575.00	556.00	619.00	676.00	661.00	636.00	636.00	639.00	626.00	614.00	606.00	601.00	598.00	596.00	597.00	588.00	577.00	575.00	575.00	577.00	574.00	575.00	578.00	577.00	574.00	573.00	574.00	574.00	575.00	575.00	575.00	575.00	575.00	577.00	577.00	580.00	582.00	584.00	595.00	609.00	612.00	610.00	636.00	675.00	683.00	653.00	660.00	727.00	778.00	776.00	785.00	678.00	713.00	678.00	669.00	670.00	703.00	719.00	739.00	743.00	702.00	730.00	742.00	707.00	687.00	669.00	670.00	685.00	716.00	750.00	777.00	806.00	774.00	722.00	743.00	815.00	896.00	847.00	822.00	868.00	914.00	943.00	966.00	935.00	853.00	755.00	726.00	850.00	832.00	782.00	763.00	765.00	797.00	825.00	816.00	792.00	856.00	827.00	807.00	808.00	817.00	800.00	762.00	756.00	751.00	744.00	745.00	747.00	754.00	758.00	768.00	776.00	784.00	791.00	799.00	819.00	874.00	957.00	1025.00	1033.00	1055.00	1079.00	1129.00	1290.00	1340.00	1412.00	1372.00	1173.00	1227.00	1072.00	1003.00	1007.00	1151.00	1266.00	1381.00	1341.00	1143.00	1090.00	1048.00	1018.00	987.00	910.00	924.00	1015.00	1137.00	1077.00	1012.00	934.00	888.00	851.00	855.00	871.00	853.00	850.00	852.00	858.00	873.00	889.00	887.00	902.00	902.00	921.00	911.00	837.00	745.00	667.00	588.00	536.00	547.00	618.00	667.00	723.00	799.00	869.00	825.00	741.00	704.00	632.00	632.00	606.00	601.00	600.00	568.00	599.00	566.00	599.00	534.00	508.00	506.00	496.00	488.00	465.00	474.00	453.00	470.00	446.00	429.00	397.00	396.00	425.00	496.00	587.00	699.00	646.00	492.00	436.00	424.00	451.00	576.00	626.00	667.00	678.00	664.00	705.00	699.00	758.00	835.00	650.00	585.00	561.00	536.00	494.00	484.00	498.00	489.00	478.00	477.00	479.00	481.00	483.00	468.00	407.00	389.00	376.00	359.00	352.00	353.00	354.00	355.00	358.00	371.00	383.00	410.00	476.00	576.00	564.00	558.00	584.00	615.00	684.00	755.00	853.00	950.00	841.00	780.00	662.00
575.00	556.00	619.00	676.00	661.00	636.00	636.00	639.00	626.00	614.00	606.00	601.00	598.00	596.00	597.00	588.00	577.00	575.00	575.00	577.00	574.00	575.00	578.00	577.00	574.00	573.00	574.00	574.00	575.00	575.00	575.00	575.00	575.00	577.00	577.00	580.00	582.00	584.00	595.00	609.00	612.00	610.00	636.00	675.00	683.00	653.00	660.00	727.00	778.00	776.00	785.00	678.00	713.00	678.00	669.00	670.00	703.00	719.00	739.00	743.00	702.00	730.00	742.00	707.00	687.00	669.00	670.00	685.00	716.00	750.00	777.00	806.00	774.00	722.00	743.00	815.00	896.00	847.00	822.00	868.00	914.00	943.00	966.00	935.00	853.00	755.00	726.00	850.00	832.00	782.00	763.00	765.00	797.00	825.00	816.00	792.00	856.00	827.00	807.00	808.00	817.00	800.00	762.00	756.00	751.00	744.00	745.00	747.00	754.00	758.00	768.00	776.00	784.00	791.00	799.00	819.00	874.00	957.00	1025.00	1033.00	1055.00	1079.00	1129.00	1290.00	1340.00	1412.00	1372.00	1173.00	1227.00	1072.00	1003.00	1007.00	1151.00	1266.00	1381.00	1341.00	1143.00	1090.00	1048.00	1018.00	987.00	910.00	924.00	1015.00	1137.00	1077.00	1012.00	934.00	888.00	851.00	855.00	871.00	853.00	850.00	852.00	858.00	873.00	889.00	887.00	902.00	902.00	921.00	911.00	837.00	745.00	667.00	588.00	536.00	547.00	618.00	667.00	723.00	799.00	869.00	825.00	741.00	704.00	632.00	632.00	606.00	601.00	600.00	568.00	599.00	566.00	599.00	534.00	508.00	506.00	496.00	488.00	465.00	474.00	453.00	470.00	446.00	429.00	397.00	396.00	425.00	496.00	587.00	699.00	646.00	492.00	436.00	424.00	451.00	576.00	626.00	667.00	678.00	664.00	705.00	699.00	758.00	835.00	650.00	585.00	561.00	536.00	494.00	484.00	498.00	489.00	478.00	477.00	479.00	481.00	483.00	468.00	407.00	389.00	376.00	359.00	352.00	353.00	354.00	355.00	358.00	371.00	383.00	410.00	476.00	576.00	564.00	558.00	584.00	615.00	684.00	755.00	853.00	950.00	841.00	780.00	662.00
512.00	509.00	547.00	580.00	586.00	598.00	638.00	638.00	634.00	630.00	627.00	616.00	612.00	612.00	616.00	599.00	583.00	582.00	583.00	583.00	581.00	583.00	584.00	582.00	579.00	579.00	580.00	580.00	580.00	583.00	582.00	584.00	586.00	583.00	582.00	581.00	581.00	583.00	586.00	588.00	591.00	593.00	595.00	598.00	603.00	608.00	606.00	611.00	618.00	627.00	626.00	626.00	626.00	630.00	633.00	635.00	638.00	638.00	638.00	638.00	644.00	645.00	647.00	652.00	655.00	658.00	656.00	655.00	656.00	667.00	673.00	692.00	708.00	697.00	702.00	726.00	742.00	729.00	725.00	727.00	736.00	745.00	757.00	783.00	789.00	742.00	714.00	727.00	723.00	726.00	728.00	726.00	724.00	726.00	730.00	734.00	734.00	736.00	736.00	738.00	742.00	753.00	745.00	744.00	740.00	743.00	750.00	757.00	769.00	772.00	781.00	789.00	801.00	812.00	838.00	883.00	988.00	1111.00	1156.00	1085.00	1054.00	1088.00	1100.00	1222.00	1319.00	1412.00	1433.00	1297.00	1219.00	1136.00	1117.00	1044.00	1137.00	1262.00	1382.00	1333.00	1210.00	1154.00	1113.00	1082.00	997.00	950.00	966.00	1056.00	1154.00	1077.00	1018.00	957.00	921.00	851.00	969.00	1011.00	943.00	874.00	885.00	898.00	936.00	957.00	969.00	934.00	832.00	744.00	719.00	728.00	718.00	681.00	612.00	541.00	578.00	629.00	694.00	717.00	707.00	818.00	873.00	879.00	843.00	712.00	734.00	702.00	794.00	716.00	682.00	688.00	708.00	767.00	587.00	624.00	683.00	660.00	573.00	559.00	581.00	520.00	601.00	517.00	508.00	401.00	391.00	396.00	450.00	545.00	647.00	587.00	421.00	419.00	456.00	477.00	482.00	508.00	532.00	542.00	568.00	619.00	654.00	743.00	809.00	642.00	684.00	692.00	603.00	578.00	558.00	461.00	464.00	460.00	442.00	423.00	419.00	416.00	412.00	397.00	386.00	375.00	356.00	351.00	351.00	352.00	353.00	354.00	364.00	375.00	397.00	449.00	496.00	531.00	549.00	544.00	585.00	696.00	736.00	784.00	823.00	750.00	723.00	600.00
512.00	509.00	547.00	580.00	586.00	598.00	638.00	638.00	634.00	630.00	627.00	616.00	612.00	612.00	616.00	599.00	583.00	582.00	583.00	583.00	581.00	583.00	584.00	582.00	579.00	579.00	580.00	580.00	580.00	583.00	582.00	584.00	586.00	583.00	582.00	581.00	581.00	583.00	586.00	588.00	591.00	593.00	595.00	598.00	603.00	608.00	606.00	611.00	618.00	627.00	626.00	626.00	626.00	630.00	633.00	635.00	638.00	638.00	638.00	638.00	644.00	645.00	647.00	652.00	655.00	658.00	656.00	655.00	656.00	667.00	673.00	692.00	708.00	697.00	702.00	726.00	742.00	729.00	725.00	727.00	736.00	745.00	757.00	783.00	789.00	742.00	714.00	727.00	723.00	726.00	728.00	726.00	724.00	726.00	730.00	734.00	734.00	736.00	736.00	738.00	742.00	753.00	745.00	744.00	740.00	743.00	750.00	757.00	769.00	772.00	781.00	789.00	801.00	812.00	838.00	883.00	988.00	1111.00	1156.00	1085.00	1054.00	1088.00	1100.00	1222.00	1319.00	1412.00	1433.00	1297.00	1219.00	1136.00	1117.00	1044.00	1137.00	1262.00	1382.00	1333.00	1210.00	1154.00	1113.00	1082.00	997.00	950.00	966.00	1056.00	1154.00	1077.00	1018.00	957.00	921.00	851.00	969.00	1011.00	943.00	874.00	885.00	898.00	936.00	957.00	969.00	934.00	832.00	744.00	719.00	728.00	718.00	681.00	612.00	541.00	578.00	629.00	694.00	717.00	707.00	818.00	873.00	879.00	843.00	712.00	734.00	702.00	794.00	716.00	682.00	688.00	708.00	767.00	587.00	624.00	683.00	660.00	573.00	559.00	581.00	520.00	601.00	517.00	508.00	401.00	391.00	396.00	450.00	545.00	647.00	587.00	421.00	419.00	456.00	477.00	482.00	508.00	532.00	542.00	568.00	619.00	654.00	743.00	809.00	642.00	684.00	692.00	603.00	578.00	558.00	461.00	464.00	460.00	442.00	423.00	419.00	416.00	412.00	397.00	386.00	375.00	356.00	351.00	351.00	352.00	353.00	354.00	364.00	375.00	397.00	449.00	496.00	531.00	549.00	544.00	585.00	696.00	736.00	784.00	823.00	750.00	723.00	600.00
527.00	511.00	550.00	606.00	616.00	623.00	651.00	662.00	664.00	663.00	659.00	645.00	640.00	634.00	624.00	595.00	589.00	590.00	591.00	591.00	590.00	590.00	592.00	590.00	586.00	585.00	586.00	588.00	587.00	587.00	589.00	592.00	594.00	591.00	589.00	592.00	591.00	591.00	592.00	592.00	592.00	593.00	598.00	606.00	614.00	622.00	627.00	623.00	617.00	615.00	614.00	616.00	619.00	620.00	621.00	622.00	626.00	626.00	628.00	630.00	633.00	635.00	638.00	642.00	645.00	649.00	651.00	652.00	653.00	657.00	662.00	665.00	669.00	671.00	672.00	670.00	672.00	678.00	681.00	685.00	688.00	689.00	692.00	696.00	700.00	702.00	703.00	702.00	704.00	706.00	708.00	710.00	715.00	717.00	718.00	719.00	720.00	721.00	723.00	724.00	726.00	730.00	732.00	735.00	736.00	756.00	773.00	785.00	806.00	805.00	814.00	821.00	835.00	849.00	872.00	881.00	923.00	982.00	1006.00	1040.00	1118.00	1214.00	1260.00	1224.00	1276.00	1341.00	1439.00	1364.00	1336.00	1247.00	1169.00	1117.00	1118.00	1232.00	1342.00	1302.00	1147.00	1109.00	1079.00	1057.00	1028.00	981.00	1007.00	1079.00	1155.00	1017.00	971.00	948.00	904.00	841.00	1016.00	1051.00	1003.00	955.00	1107.00	1091.00	1108.00	1063.00	969.00	783.00	731.00	678.00	627.00	626.00	632.00	616.00	578.00	524.00	601.00	720.00	729.00	636.00	657.00	678.00	707.00	812.00	860.00	828.00	854.00	888.00	881.00	788.00	777.00	811.00	843.00	845.00	721.00	744.00	839.00	814.00	725.00	762.00	665.00	633.00	687.00	639.00	566.00	426.00	391.00	391.00	420.00	484.00	558.00	446.00	418.00	465.00	534.00	589.00	618.00	554.00	529.00	549.00	577.00	699.00	714.00	761.00	807.00	662.00	646.00	711.00	716.00	705.00	537.00	570.00	562.00	577.00	571.00	492.00	442.00	405.00	390.00	391.00	385.00	378.00	355.00	350.00	349.00	351.00	352.00	353.00	368.00	378.00	400.00	430.00	478.00	489.00	489.00	521.00	554.00	596.00	605.00	626.00	640.00	632.00	585.00	521.00
564.00	556.00	543.00	564.00	569.00	587.00	655.00	691.00	705.00	707.00	700.00	677.00	663.00	648.00	615.00	598.00	595.00	596.00	598.00	600.00	599.00	600.00	602.00	604.00	603.00	601.00	596.00	594.00	593.00	592.00	595.00	598.00	601.00	601.00	601.00	600.00	600.00	599.00	596.00	597.00	598.00	597.00	604.00	607.00	612.00	626.00	633.00	638.00	638.00	638.00	638.00	638.00	636.00	636.00	638.00	638.00	642.00	643.00	642.00	641.00	642.00	641.00	640.00	641.00	640.00	643.00	647.00	648.00	650.00	655.00	656.00	658.00	659.00	661.00	665.00	668.00	670.00	673.00	678.00	682.00	686.00	687.00	689.00	692.00	695.00	699.00	699.00	700.00	702.00	705.00	707.00	708.00	710.00	710.00	712.00	714.00	717.00	721.00	723.00	724.00	726.00	733.00	736.00	739.00	740.00	752.00	777.00	820.00	901.00	905.00	868.00	854.00	852.00	862.00	896.00	921.00	968.00	1018.00	1121.00	1138.00	1179.00	1263.00	1314.00	1387.00	1382.00	1410.00	1450.00	1454.00	1321.00	1242.00	1270.00	1250.00	1114.00	1185.00	1266.00	1259.00	1120.00	1090.00	1066.00	1049.00	997.00	971.00	997.00	1078.00	1144.00	1090.00	1079.00	1002.00	921.00	856.00	999.00	1032.00	1056.00	1070.00	1219.00	1231.00	1200.00	1053.00	918.00	770.00	789.00	780.00	750.00	567.00	570.00	569.00	543.00	508.00	558.00	668.00	718.00	664.00	568.00	615.00	708.00	777.00	741.00	664.00	768.00	863.00	831.00	657.00	641.00	682.00	700.00	712.00	736.00	726.00	801.00	865.00	888.00	830.00	683.00	693.00	631.00	601.00	557.00	441.00	385.00	391.00	404.00	422.00	419.00	407.00	433.00	453.00	493.00	526.00	643.00	644.00	686.00	697.00	708.00	738.00	792.00	698.00	615.00	552.00	499.00	565.00	594.00	684.00	599.00	596.00	647.00	633.00	527.00	451.00	413.00	397.00	383.00	383.00	382.00	376.00	353.00	348.00	347.00	349.00	350.00	352.00	368.00	379.00	403.00	427.00	446.00	440.00	454.00	467.00	471.00	489.00	494.00	494.00	496.00	490.00	481.00	437.00
564.00	556.00	543.00	564.00	569.00	587.00	655.00	691.00	705.00	707.00	700.00	677.00	663.00	648.00	615.00	598.00	595.00	596.00	598.00	600.00	599.00	600.00	602.00	604.00	603.00	601.00	596.00	594.00	593.00	592.00	595.00	598.00	601.00	601.00	601.00	600.00	600.00	599.00	596.00	597.00	598.00	597.00	604.00	607.00	612.00	626.00	633.00	638.00	638.00	638.00	638.00	638.00	636.00	636.00	638.00	638.00	642.00	643.00	642.00	641.00	642.00	641.00	640.00	641.00	640.00	643.00	647.00	648.00	650.00	655.00	656.00	658.00	659.00	661.00	665.00	668.00	670.00	673.00	678.00	682.00	686.00	687.00	689.00	692.00	695.00	699.00	699.00	700.00	702.00	705.00	707.00	708.00	710.00	710.00	712.00	714.00	717.00	721.00	723.00	724.00	726.00	733.00	736.00	739.00	740.00	752.00	777.00	820.00	901.00	905.00	868.00	854.00	852.00	862.00	896.00	921.00	968.00	1018.00	1121.00	1138.00	1179.00	1263.00	1314.00	1387.00	1382.00	1410.00	1450.00	1454.00	1321.00	1242.00	1270.00	1250.00	1114.00	1185.00	1266.00	1259.00	1120.00	1090.00	1066.00	1049.00	997.00	971.00	997.00	1078.00	1144.00	1090.00	1079.00	1002.00	921.00	856.00	999.00	1032.00	1056.00	1070.00	1219.00	1231.00	1200.00	1053.00	918.00	770.00	789.00	780.00	750.00	567.00	570.00	569.00	543.00	508.00	558.00	668.00	718.00	664.00	568.00	615.00	708.00	777.00	741.00	664.00	768.00	863.00	831.00	657.00	641.00	682.00	700.00	712.00	736.00	726.00	801.00	865.00	888.00	830.00	683.00	693.00	631.00	601.00	557.00	441.00	385.00	391.00	404.00	422.00	419.00	407.00	433.00	453.00	493.00	526.00	643.00	644.00	686.00	697.00	708.00	738.00	792.00	698.00	615.00	552.00	499.00	565.00	594.00	684.00	599.00	596.00	647.00	633.00	527.00	451.00	413.00	397.00	383.00	383.00	382.00	376.00	353.00	348.00	347.00	349.00	350.00	352.00	368.00	379.00	403.00	427.00	446.00	440.00	454.00	467.00	471.00	489.00	494.00	494.00	496.00	490.00	481.00	437.00
569.00	597.00	633.00	569.00	573.00	597.00	683.00	725.00	745.00	739.00	715.00	665.00	649.00	634.00	616.00	610.00	608.00	605.00	605.00	607.00	608.00	610.00	616.00	622.00	625.00	623.00	616.00	607.00	601.00	597.00	600.00	605.00	610.00	611.00	610.00	608.00	609.00	607.00	603.00	600.00	600.00	604.00	606.00	611.00	615.00	624.00	632.00	648.00	651.00	652.00	654.00	663.00	663.00	660.00	660.00	658.00	650.00	654.00	655.00	655.00	654.00	654.00	654.00	654.00	652.00	650.00	653.00	653.00	655.00	660.00	662.00	664.00	666.00	668.00	672.00	673.00	677.00	683.00	692.00	696.00	701.00	704.00	702.00	705.00	709.00	713.00	715.00	713.00	715.00	719.00	721.00	723.00	724.00	722.00	731.00	744.00	740.00	737.00	740.00	745.00	747.00	768.00	774.00	766.00	754.00	750.00	756.00	792.00	932.00	980.00	964.00	934.00	884.00	881.00	912.00	935.00	972.00	1041.00	1085.00	1091.00	1100.00	1129.00	1155.00	1204.00	1200.00	1256.00	1357.00	1552.00	1474.00	1346.00	1267.00	1207.00	1184.00	1291.00	1299.00	1232.00	1165.00	1138.00	1122.00	1111.00	984.00	949.00	952.00	1015.00	1089.00	1147.00	1095.00	1006.00	918.00	869.00	940.00	960.00	982.00	995.00	1166.00	1217.00	1212.00	1101.00	980.00	911.00	896.00	900.00	821.00	593.00	542.00	529.00	519.00	500.00	491.00	545.00	644.00	642.00	556.00	549.00	591.00	626.00	611.00	615.00	701.00	751.00	793.00	718.00	674.00	618.00	576.00	572.00	575.00	603.00	656.00	716.00	847.00	775.00	593.00	581.00	625.00	515.00	481.00	422.00	380.00	383.00	387.00	391.00	400.00	432.00	510.00	542.00	531.00	501.00	505.00	539.00	598.00	641.00	675.00	667.00	747.00	750.00	654.00	524.00	511.00	448.00	472.00	553.00	634.00	561.00	521.00	484.00	420.00	402.00	391.00	383.00	373.00	372.00	375.00	373.00	352.00	345.00	345.00	346.00	347.00	348.00	358.00	369.00	388.00	405.00	409.00	401.00	409.00	408.00	411.00	422.00	429.00	427.00	422.00	403.00	394.00	383.00
528.00	549.00	604.00	574.00	584.00	602.00	684.00	734.00	742.00	728.00	703.00	651.00	630.00	630.00	636.00	633.00	632.00	618.00	615.00	618.00	620.00	626.00	636.00	648.00	649.00	645.00	637.00	626.00	613.00	604.00	608.00	617.00	625.00	627.00	622.00	618.00	618.00	617.00	616.00	612.00	605.00	605.00	610.00	611.00	615.00	628.00	639.00	642.00	653.00	661.00	667.00	685.00	693.00	695.00	701.00	699.00	661.00	660.00	663.00	666.00	665.00	665.00	664.00	664.00	663.00	662.00	665.00	668.00	669.00	674.00	676.00	677.00	678.00	680.00	687.00	691.00	692.00	698.00	714.00	719.00	722.00	724.00	722.00	723.00	735.00	744.00	733.00	759.00	745.00	739.00	740.00	736.00	735.00	739.00	765.00	811.00	823.00	815.00	826.00	816.00	812.00	870.00	877.00	855.00	819.00	759.00	756.00	762.00	840.00	922.00	1009.00	960.00	918.00	901.00	920.00	933.00	944.00	959.00	1010.00	1031.00	1055.00	1080.00	1106.00	1146.00	1175.00	1236.00	1329.00	1491.00	1391.00	1315.00	1282.00	1213.00	1240.00	1340.00	1297.00	1233.00	1111.00	1073.00	1050.00	1037.00	967.00	937.00	919.00	920.00	969.00	1123.00	1125.00	1029.00	936.00	896.00	998.00	1066.00	1056.00	1025.00	1150.00	1202.00	1149.00	1038.00	944.00	848.00	758.00	761.00	737.00	600.00	564.00	543.00	525.00	506.00	480.00	475.00	521.00	635.00	681.00	652.00	580.00	528.00	508.00	551.00	577.00	580.00	624.00	766.00	792.00	722.00	664.00	608.00	509.00	521.00	567.00	642.00	741.00	719.00	594.00	522.00	570.00	637.00	536.00	404.00	375.00	381.00	393.00	404.00	419.00	460.00	551.00	621.00	695.00	705.00	537.00	542.00	530.00	542.00	569.00	694.00	770.00	751.00	692.00	613.00	572.00	502.00	415.00	418.00	453.00	416.00	399.00	388.00	376.00	372.00	370.00	367.00	361.00	363.00	364.00	364.00	353.00	345.00	342.00	342.00	342.00	342.00	348.00	355.00	361.00	372.00	374.00	362.00	350.00	348.00	348.00	349.00	353.00	354.00	350.00	346.00	348.00	348.00
528.00	549.00	604.00	574.00	584.00	602.00	684.00	734.00	742.00	728.00	703.00	651.00	630.00	630.00	636.00	633.00	632.00	618.00	615.00	618.00	620.00	626.00	636.00	648.00	649.00	645.00	637.00	626.00	613.00	604.00	608.00	617.00	625.00	627.00	622.00	618.00	618.00	617.00	616.00	612.00	605.00	605.00	610.00	611.00	615.00	628.00	639.00	642.00	653.00	661.00	667.00	685.00	693.00	695.00	701.00	699.00	661.00	660.00	663.00	666.00	665.00	665.00	664.00	664.00	663.00	662.00	665.00	668.00	669.00	674.00	676.00	677.00	678.00	680.00	687.00	691.00	692.00	698.00	714.00	719.00	722.00	724.00	722.00	723.00	735.00	744.00	733.00	759.00	745.00	739.00	740.00	736.00	735.00	739.00	765.00	811.00	823.00	815.00	826.00	816.00	812.00	870.00	877.00	855.00	819.00	759.00	756.00	762.00	840.00	922.00	1009.00	960.00	918.00	901.00	920.00	933.00	944.00	959.00	1010.00	1031.00	1055.00	1080.00	1106.00	1146.00	1175.00	1236.00	1329.00	1491.00	1391.00	1315.00	1282.00	1213.00	1240.00	1340.00	1297.00	1233.00	1111.00	1073.00	1050.00	1037.00	967.00	937.00	919.00	920.00	969.00	1123.00	1125.00	1029.00	936.00	896.00	998.00	1066.00	1056.00	1025.00	1150.00	1202.00	1149.00	1038.00	944.00	848.00	758.00	761.00	737.00	600.00	564.00	543.00	525.00	506.00	480.00	475.00	521.00	635.00	681.00	652.00	580.00	528.00	508.00	551.00	577.00	580.00	624.00	766.00	792.00	722.00	664.00	608.00	509.00	521.00	567.00	642.00	741.00	719.00	594.00	522.00	570.00	637.00	536.00	404.00	375.00	381.00	393.00	404.00	419.00	460.00	551.00	621.00	695.00	705.00	537.00	542.00	530.00	542.00	569.00	694.00	770.00	751.00	692.00	613.00	572.00	502.00	415.00	418.00	453.00	416.00	399.00	388.00	376.00	372.00	370.00	367.00	361.00	363.00	364.00	364.00	353.00	345.00	342.00	342.00	342.00	342.00	348.00	355.00	361.00	372.00	374.00	362.00	350.00	348.00	348.00	349.00	353.00	354.00	350.00	346.00	348.00	348.00
564.00	559.00	549.00	560.00	578.00	602.00	703.00	731.00	725.00	707.00	680.00	638.00	633.00	636.00	643.00	657.00	658.00	632.00	624.00	630.00	638.00	645.00	656.00	670.00	672.00	660.00	646.00	634.00	622.00	611.00	622.00	639.00	650.00	647.00	637.00	627.00	627.00	631.00	634.00	629.00	620.00	610.00	615.00	615.00	614.00	627.00	659.00	669.00	661.00	659.00	671.00	691.00	688.00	704.00	728.00	727.00	681.00	675.00	675.00	687.00	692.00	688.00	686.00	682.00	679.00	679.00	685.00	689.00	689.00	694.00	696.00	698.00	701.00	704.00	706.00	709.00	711.00	727.00	749.00	751.00	754.00	756.00	758.00	808.00	820.00	775.00	753.00	845.00	812.00	783.00	769.00	761.00	753.00	771.00	798.00	864.00	920.00	897.00	913.00	914.00	897.00	958.00	960.00	940.00	913.00	795.00	764.00	764.00	801.00	863.00	960.00	930.00	906.00	892.00	920.00	955.00	966.00	975.00	1020.00	1045.00	1071.00	1098.00	1123.00	1243.00	1298.00	1363.00	1452.00	1510.00	1420.00	1361.00	1296.00	1201.00	1209.00	1268.00	1247.00	1184.00	1037.00	1010.00	976.00	944.00	928.00	915.00	903.00	883.00	902.00	1030.00	1037.00	992.00	950.00	914.00	1026.00	1125.00	1148.00	1101.00	1128.00	1175.00	1089.00	946.00	854.00	746.00	685.00	659.00	640.00	585.00	569.00	564.00	550.00	530.00	487.00	472.00	464.00	515.00	658.00	689.00	695.00	664.00	600.00	488.00	482.00	495.00	516.00	724.00	752.00	752.00	713.00	689.00	550.00	481.00	503.00	548.00	598.00	600.00	553.00	505.00	491.00	548.00	467.00	377.00	371.00	385.00	402.00	423.00	453.00	504.00	607.00	669.00	707.00	726.00	639.00	674.00	653.00	651.00	722.00	681.00	667.00	608.00	526.00	469.00	439.00	413.00	387.00	356.00	349.00	343.00	342.00	342.00	345.00	346.00	346.00	346.00	345.00	351.00	351.00	349.00	345.00	342.00	346.00	348.00	349.00	345.00	342.00	342.00	344.00	348.00	345.00	344.00	344.00	346.00	346.00	349.00	349.00	349.00	350.00	350.00	349.00	351.00
636.00	646.00	584.00	574.00	587.00	602.00	701.00	698.00	684.00	666.00	650.00	650.00	644.00	643.00	657.00	686.00	687.00	642.00	633.00	644.00	652.00	658.00	669.00	686.00	677.00	663.00	651.00	638.00	626.00	621.00	637.00	658.00	673.00	667.00	653.00	638.00	635.00	641.00	653.00	650.00	640.00	622.00	616.00	621.00	621.00	628.00	654.00	694.00	694.00	689.00	699.00	747.00	746.00	761.00	760.00	725.00	699.00	695.00	696.00	714.00	738.00	724.00	725.00	720.00	703.00	714.00	740.00	729.00	732.00	736.00	726.00	738.00	756.00	751.00	756.00	733.00	735.00	771.00	834.00	809.00	795.00	804.00	824.00	942.00	897.00	815.00	778.00	914.00	865.00	807.00	812.00	814.00	769.00	796.00	817.00	862.00	976.00	970.00	1005.00	1021.00	1020.00	1031.00	1009.00	973.00	924.00	805.00	773.00	773.00	788.00	813.00	865.00	860.00	858.00	857.00	892.00	910.00	925.00	943.00	986.00	1026.00	1071.00	1082.00	1118.00	1185.00	1238.00	1327.00	1449.00	1666.00	1582.00	1395.00	1318.00	1195.00	1092.00	1101.00	1075.00	1035.00	942.00	927.00	921.00	934.00	914.00	870.00	876.00	867.00	856.00	933.00	968.00	1001.00	984.00	936.00	979.00	1045.00	1078.00	1052.00	1096.00	1163.00	1133.00	1027.00	960.00	846.00	800.00	765.00	784.00	665.00	713.00	733.00	690.00	633.00	537.00	499.00	472.00	453.00	481.00	510.00	541.00	566.00	581.00	503.00	476.00	455.00	483.00	584.00	577.00	587.00	575.00	579.00	541.00	479.00	455.00	484.00	511.00	516.00	494.00	475.00	452.00	450.00	409.00	370.00	368.00	381.00	402.00	441.00	487.00	530.00	574.00	595.00	614.00	624.00	589.00	605.00	642.00	633.00	611.00	521.00	481.00	437.00	401.00	356.00	345.00	339.00	336.00	339.00	340.00	337.00	339.00	338.00	339.00	339.00	339.00	341.00	342.00	340.00	340.00	341.00	343.00	345.00	345.00	346.00	346.00	346.00	342.00	343.00	343.00	343.00	345.00	346.00	346.00	347.00	347.00	347.00	348.00	348.00	348.00	348.00	350.00	350.00
571.00	599.00	591.00	614.00	649.00	686.00	689.00	677.00	670.00	666.00	663.00	674.00	659.00	657.00	681.00	714.00	703.00	662.00	639.00	653.00	669.00	682.00	702.00	720.00	692.00	681.00	666.00	651.00	635.00	627.00	648.00	673.00	690.00	679.00	668.00	654.00	646.00	647.00	667.00	668.00	661.00	648.00	621.00	621.00	624.00	629.00	645.00	714.00	725.00	722.00	722.00	773.00	789.00	831.00	849.00	777.00	722.00	727.00	732.00	748.00	772.00	762.00	768.00	761.00	731.00	756.00	809.00	787.00	789.00	785.00	768.00	784.00	817.00	823.00	823.00	771.00	762.00	808.00	911.00	904.00	846.00	857.00	895.00	984.00	931.00	854.00	794.00	945.00	913.00	840.00	829.00	848.00	770.00	783.00	809.00	839.00	926.00	1019.00	1085.00	1133.00	1156.00	1090.00	1032.00	966.00	903.00	792.00	782.00	782.00	795.00	804.00	818.00	826.00	836.00	849.00	872.00	885.00	898.00	914.00	972.00	993.00	1020.00	1080.00	1173.00	1297.00	1367.00	1466.00	1514.00	1525.00	1593.00	1383.00	1308.00	1226.00	1047.00	1018.00	1004.00	1005.00	1040.00	1079.00	1106.00	1100.00	913.00	854.00	844.00	835.00	827.00	861.00	927.00	1006.00	1016.00	954.00	985.00	1039.00	1060.00	1037.00	1077.00	1013.00	940.00	913.00	879.00	830.00	873.00	839.00	803.00	753.00	774.00	765.00	730.00	690.00	607.00	564.00	530.00	471.00	446.00	441.00	439.00	440.00	447.00	457.00	453.00	446.00	465.00	485.00	490.00	488.00	494.00	492.00	478.00	464.00	445.00	443.00	465.00	466.00	458.00	448.00	431.00	408.00	391.00	370.00	366.00	375.00	396.00	439.00	486.00	522.00	543.00	552.00	551.00	527.00	481.00	472.00	475.00	466.00	452.00	350.00	342.00	336.00	335.00	335.00	338.00	337.00	340.00	339.00	341.00	342.00	341.00	340.00	341.00	342.00	342.00	343.00	342.00	344.00	344.00	344.00	344.00	344.00	344.00	345.00	344.00	345.00	346.00	345.00	345.00	345.00	346.00	347.00	347.00	347.00	346.00	348.00	350.00	352.00	358.00	354.00	350.00	351.00
571.00	599.00	591.00	614.00	649.00	686.00	689.00	677.00	670.00	666.00	663.00	674.00	659.00	657.00	681.00	714.00	703.00	662.00	639.00	653.00	669.00	682.00	702.00	720.00	692.00	681.00	666.00	651.00	635.00	627.00	648.00	673.00	690.00	679.00	668.00	654.00	646.00	647.00	667.00	668.00	661.00	648.00	621.00	621.00	624.00	629.00	645.00	714.00	725.00	722.00	722.00	773.00	789.00	831.00	849.00	777.00	722.00	727.00	732.00	748.00	772.00	762.00	768.00	761.00	731.00	756.00	809.00	787.00	789.00	785.00	768.00	784.00	817.00	823.00	823.00	771.00	762.00	808.00	911.00	904.00	846.00	857.00	895.00	984.00	931.00	854.00	794.00	945.00	913.00	840.00	829.00	848.00	770.00	783.00	809.00	839.00	926.00	1019.00	1085.00	1133.00	1156.00	1090.00	1032.00	966.00	903.00	792.00	782.00	782.00	795.00	804.00	818.00	826.00	836.00	849.00	872.00	885.00	898.00	914.00	972.00	993.00	1020.00	1080.00	1173.00	1297.00	1367.00	1466.00	1514.00	1525.00	1593.00	1383.00	1308.00	1226.00	1047.00	1018.00	1004.00	1005.00	1040.00	1079.00	1106.00	1100.00	913.00	854.00	844.00	835.00	827.00	861.00	927.00	1006.00	1016.00	954.00	985.00	1039.00	1060.00	1037.00	1077.00	1013.00	940.00	913.00	879.00	830.00	873.00	839.00	803.00	753.00	774.00	765.00	730.00	690.00	607.00	564.00	530.00	471.00	446.00	441.00	439.00	440.00	447.00	457.00	453.00	446.00	465.00	485.00	490.00	488.00	494.00	492.00	478.00	464.00	445.00	443.00	465.00	466.00	458.00	448.00	431.00	408.00	391.00	370.00	366.00	375.00	396.00	439.00	486.00	522.00	543.00	552.00	551.00	527.00	481.00	472.00	475.00	466.00	452.00	350.00	342.00	336.00	335.00	335.00	338.00	337.00	340.00	339.00	341.00	342.00	341.00	340.00	341.00	342.00	342.00	343.00	342.00	344.00	344.00	344.00	344.00	344.00	344.00	345.00	344.00	345.00	346.00	345.00	345.00	345.00	346.00	347.00	347.00	347.00	346.00	348.00	350.00	352.00	358.00	354.00	350.00	351.00
594.00	611.00	577.00	601.00	647.00	691.00	696.00	692.00	699.00	700.00	684.00	698.00	694.00	709.00	726.00	720.00	693.00	646.00	653.00	663.00	697.00	722.00	746.00	741.00	715.00	697.00	679.00	661.00	645.00	636.00	659.00	689.00	713.00	698.00	695.00	683.00	659.00	659.00	679.00	688.00	687.00	677.00	638.00	626.00	627.00	633.00	640.00	733.00	797.00	813.00	778.00	790.00	855.00	887.00	830.00	779.00	730.00	720.00	729.00	744.00	798.00	794.00	801.00	795.00	764.00	784.00	825.00	838.00	843.00	818.00	807.00	827.00	856.00	874.00	858.00	816.00	792.00	842.00	915.00	932.00	896.00	918.00	983.00	1043.00	973.00	890.00	824.00	966.00	965.00	901.00	852.00	865.00	802.00	783.00	795.00	819.00	916.00	1011.00	1087.00	1168.00	1216.00	1119.00	1040.00	962.00	891.00	794.00	794.00	804.00	822.00	831.00	850.00	856.00	859.00	870.00	907.00	923.00	933.00	938.00	977.00	1027.00	1059.00	1080.00	1144.00	1285.00	1388.00	1413.00	1325.00	1393.00	1514.00	1482.00	1374.00	1263.00	1089.00	1165.00	1245.00	1273.00	1290.00	1260.00	1161.00	1082.00	942.00	874.00	852.00	836.00	819.00	815.00	869.00	936.00	975.00	929.00	1040.00	1157.00	1127.00	1007.00	1059.00	951.00	837.00	785.00	753.00	703.00	710.00	691.00	666.00	667.00	673.00	672.00	663.00	651.00	635.00	647.00	635.00	564.00	537.00	500.00	461.00	439.00	428.00	421.00	420.00	426.00	443.00	467.00	462.00	458.00	457.00	457.00	457.00	451.00	443.00	429.00	425.00	432.00	433.00	430.00	423.00	402.00	386.00	367.00	363.00	368.00	390.00	426.00	466.00	487.00	507.00	497.00	469.00	451.00	421.00	405.00	387.00	384.00	359.00	334.00	334.00	335.00	337.00	340.00	340.00	340.00	340.00	341.00	341.00	342.00	341.00	342.00	342.00	343.00	342.00	343.00	343.00	342.00	343.00	344.00	344.00	344.00	345.00	345.00	346.00	346.00	346.00	346.00	346.00	346.00	350.00	365.00	397.00	449.00	488.00	437.00	412.00	398.00	396.00	380.00	371.00	354.00
594.00	611.00	577.00	601.00	647.00	691.00	696.00	692.00	699.00	700.00	684.00	698.00	694.00	709.00	726.00	720.00	693.00	646.00	653.00	663.00	697.00	722.00	746.00	741.00	715.00	697.00	679.00	661.00	645.00	636.00	659.00	689.00	713.00	698.00	695.00	683.00	659.00	659.00	679.00	688.00	687.00	677.00	638.00	626.00	627.00	633.00	640.00	733.00	797.00	813.00	778.00	790.00	855.00	887.00	830.00	779.00	730.00	720.00	729.00	744.00	798.00	794.00	801.00	795.00	764.00	784.00	825.00	838.00	843.00	818.00	807.00	827.00	856.00	874.00	858.00	816.00	792.00	842.00	915.00	932.00	896.00	918.00	983.00	1043.00	973.00	890.00	824.00	966.00	965.00	901.00	852.00	865.00	802.00	783.00	795.00	819.00	916.00	1011.00	1087.00	1168.00	1216.00	1119.00	1040.00	962.00	891.00	794.00	794.00	804.00	822.00	831.00	850.00	856.00	859.00	870.00	907.00	923.00	933.00	938.00	977.00	1027.00	1059.00	1080.00	1144.00	1285.00	1388.00	1413.00	1325.00	1393.00	1514.00	1482.00	1374.00	1263.00	1089.00	1165.00	1245.00	1273.00	1290.00	1260.00	1161.00	1082.00	942.00	874.00	852.00	836.00	819.00	815.00	869.00	936.00	975.00	929.00	1040.00	1157.00	1127.00	1007.00	1059.00	951.00	837.00	785.00	753.00	703.00	710.00	691.00	666.00	667.00	673.00	672.00	663.00	651.00	635.00	647.00	635.00	564.00	537.00	500.00	461.00	439.00	428.00	421.00	420.00	426.00	443.00	467.00	462.00	458.00	457.00	457.00	457.00	451.00	443.00	429.00	425.00	432.00	433.00	430.00	423.00	402.00	386.00	367.00	363.00	368.00	390.00	426.00	466.00	487.00	507.00	497.00	469.00	451.00	421.00	405.00	387.00	384.00	359.00	334.00	334.00	335.00	337.00	340.00	340.00	340.00	340.00	341.00	341.00	342.00	341.00	342.00	342.00	343.00	342.00	343.00	343.00	342.00	343.00	344.00	344.00	344.00	345.00	345.00	346.00	346.00	346.00	346.00	346.00	346.00	350.00	365.00	397.00	449.00	488.00	437.00	412.00	398.00	396.00	380.00	371.00	354.00
542.00	556.00	549.00	574.00	596.00	633.00	705.00	712.00	726.00	731.00	713.00	734.00	761.00	784.00	761.00	680.00	650.00	655.00	667.00	684.00	731.00	767.00	782.00	763.00	728.00	713.00	695.00	677.00	656.00	649.00	667.00	689.00	712.00	725.00	727.00	717.00	674.00	671.00	698.00	723.00	729.00	733.00	683.00	649.00	633.00	636.00	637.00	717.00	816.00	844.00	840.00	827.00	881.00	913.00	876.00	838.00	741.00	730.00	728.00	735.00	825.00	833.00	830.00	816.00	791.00	781.00	799.00	834.00	874.00	844.00	839.00	848.00	858.00	876.00	884.00	837.00	818.00	867.00	970.00	990.00	966.00	952.00	1014.00	1094.00	1033.00	973.00	902.00	914.00	986.00	955.00	894.00	885.00	895.00	832.00	801.00	801.00	870.00	979.00	1051.00	1131.00	1197.00	1125.00	1040.00	955.00	907.00	804.00	804.00	812.00	833.00	843.00	865.00	873.00	880.00	889.00	925.00	956.00	978.00	989.00	1003.00	1050.00	1104.00	1140.00	1143.00	1206.00	1248.00	1205.00	1198.00	1364.00	1508.00	1411.00	1293.00	1245.00	1320.00	1376.00	1440.00	1406.00	1202.00	1152.00	1100.00	1099.00	1035.00	935.00	883.00	852.00	830.00	795.00	796.00	826.00	886.00	880.00	1035.00	1143.00	1063.00	935.00	946.00	998.00	917.00	874.00	843.00	713.00	649.00	622.00	595.00	577.00	577.00	577.00	575.00	574.00	576.00	586.00	613.00	643.00	678.00	601.00	519.00	460.00	436.00	418.00	413.00	411.00	415.00	459.00	462.00	452.00	443.00	439.00	441.00	440.00	436.00	431.00	412.00	408.00	411.00	411.00	409.00	397.00	382.00	363.00	360.00	360.00	381.00	406.00	444.00	449.00	437.00	425.00	416.00	410.00	383.00	369.00	352.00	335.00	337.00	337.00	338.00	338.00	340.00	339.00	338.00	339.00	339.00	340.00	341.00	341.00	342.00	342.00	342.00	343.00	343.00	343.00	343.00	345.00	345.00	344.00	345.00	346.00	346.00	347.00	348.00	349.00	388.00	421.00	412.00	398.00	484.00	525.00	558.00	578.00	586.00	560.00	545.00	535.00	494.00	420.00	404.00	376.00
580.00	564.00	547.00	564.00	579.00	603.00	667.00	694.00	724.00	778.00	779.00	795.00	808.00	810.00	749.00	663.00	662.00	673.00	686.00	706.00	769.00	800.00	808.00	791.00	779.00	769.00	731.00	698.00	665.00	659.00	675.00	692.00	715.00	753.00	761.00	744.00	688.00	689.00	727.00	769.00	798.00	805.00	738.00	699.00	660.00	640.00	639.00	684.00	747.00	824.00	920.00	895.00	905.00	924.00	917.00	872.00	753.00	741.00	732.00	734.00	823.00	874.00	871.00	858.00	861.00	798.00	797.00	804.00	816.00	849.00	863.00	877.00	885.00	889.00	945.00	881.00	836.00	898.00	1048.00	1074.00	1069.00	1049.00	1048.00	1110.00	1053.00	998.00	923.00	880.00	978.00	1006.00	948.00	914.00	912.00	904.00	935.00	884.00	838.00	947.00	1015.00	1091.00	1165.00	1163.00	1111.00	1076.00	1045.00	842.00	809.00	817.00	830.00	838.00	855.00	863.00	871.00	880.00	901.00	910.00	919.00	933.00	976.00	1005.00	1046.00	1063.00	1077.00	1095.00	1098.00	1148.00	1216.00	1419.00	1516.00	1487.00	1465.00	1466.00	1381.00	1306.00	1277.00	1286.00	1210.00	1095.00	1026.00	1097.00	1086.00	961.00	923.00	880.00	849.00	801.00	780.00	773.00	807.00	838.00	1062.00	1136.00	1036.00	909.00	878.00	1014.00	1086.00	1056.00	949.00	811.00	795.00	761.00	704.00	665.00	596.00	546.00	523.00	514.00	512.00	513.00	517.00	560.00	573.00	529.00	489.00	469.00	449.00	421.00	413.00	406.00	404.00	445.00	452.00	451.00	441.00	433.00	426.00	429.00	427.00	425.00	418.00	414.00	396.00	390.00	389.00	380.00	371.00	361.00	358.00	357.00	375.00	388.00	418.00	415.00	405.00	398.00	389.00	379.00	359.00	334.00	334.00	335.00	337.00	337.00	338.00	337.00	341.00	346.00	345.00	342.00	340.00	340.00	342.00	343.00	342.00	342.00	344.00	344.00	344.00	344.00	344.00	346.00	346.00	346.00	367.00	366.00	359.00	359.00	359.00	370.00	392.00	412.00	431.00	437.00	466.00	475.00	483.00	491.00	496.00	499.00	509.00	526.00	545.00	544.00	518.00	409.00
580.00	564.00	547.00	564.00	579.00	603.00	667.00	694.00	724.00	778.00	779.00	795.00	808.00	810.00	749.00	663.00	662.00	673.00	686.00	706.00	769.00	800.00	808.00	791.00	779.00	769.00	731.00	698.00	665.00	659.00	675.00	692.00	715.00	753.00	761.00	744.00	688.00	689.00	727.00	769.00	798.00	805.00	738.00	699.00	660.00	640.00	639.00	684.00	747.00	824.00	920.00	895.00	905.00	924.00	917.00	872.00	753.00	741.00	732.00	734.00	823.00	874.00	871.00	858.00	861.00	798.00	797.00	804.00	816.00	849.00	863.00	877.00	885.00	889.00	945.00	881.00	836.00	898.00	1048.00	1074.00	1069.00	1049.00	1048.00	1110.00	1053.00	998.00	923.00	880.00	978.00	1006.00	948.00	914.00	912.00	904.00	935.00	884.00	838.00	947.00	1015.00	1091.00	1165.00	1163.00	1111.00	1076.00	1045.00	842.00	809.00	817.00	830.00	838.00	855.00	863.00	871.00	880.00	901.00	910.00	919.00	933.00	976.00	1005.00	1046.00	1063.00	1077.00	1095.00	1098.00	1148.00	1216.00	1419.00	1516.00	1487.00	1465.00	1466.00	1381.00	1306.00	1277.00	1286.00	1210.00	1095.00	1026.00	1097.00	1086.00	961.00	923.00	880.00	849.00	801.00	780.00	773.00	807.00	838.00	1062.00	1136.00	1036.00	909.00	878.00	1014.00	1086.00	1056.00	949.00	811.00	795.00	761.00	704.00	665.00	596.00	546.00	523.00	514.00	512.00	513.00	517.00	560.00	573.00	529.00	489.00	469.00	449.00	421.00	413.00	406.00	404.00	445.00	452.00	451.00	441.00	433.00	426.00	429.00	427.00	425.00	418.00	414.00	396.00	390.00	389.00	380.00	371.00	361.00	358.00	357.00	375.00	388.00	418.00	415.00	405.00	398.00	389.00	379.00	359.00	334.00	334.00	335.00	337.00	337.00	338.00	337.00	341.00	346.00	345.00	342.00	340.00	340.00	342.00	343.00	342.00	342.00	344.00	344.00	344.00	344.00	344.00	346.00	346.00	346.00	367.00	366.00	359.00	359.00	359.00	370.00	392.00	412.00	431.00	437.00	466.00	475.00	483.00	491.00	496.00	499.00	509.00	526.00	545.00	544.00	518.00	409.00
648.00	569.00	529.00	552.00	568.00	593.00	685.00	746.00	740.00	763.00	812.00	820.00	763.00	736.00	698.00	668.00	676.00	688.00	706.00	731.00	800.00	824.00	825.00	812.00	820.00	778.00	741.00	707.00	670.00	668.00	684.00	705.00	738.00	783.00	797.00	754.00	691.00	699.00	749.00	798.00	852.00	910.00	797.00	739.00	699.00	644.00	644.00	656.00	693.00	762.00	853.00	951.00	900.00	900.00	912.00	896.00	776.00	750.00	740.00	737.00	783.00	842.00	868.00	891.00	901.00	838.00	839.00	837.00	821.00	841.00	858.00	886.00	916.00	949.00	966.00	930.00	868.00	897.00	1031.00	1101.00	1174.00	1185.00	1141.00	1054.00	988.00	942.00	932.00	887.00	923.00	988.00	989.00	973.00	1008.00	1039.00	1041.00	961.00	830.00	911.00	976.00	1052.00	1126.00	1184.00	1132.00	1063.00	989.00	888.00	840.00	822.00	839.00	847.00	861.00	867.00	872.00	876.00	884.00	890.00	900.00	918.00	979.00	1010.00	1032.00	1028.00	1019.00	1057.00	1135.00	1135.00	1132.00	1318.00	1386.00	1528.00	1428.00	1335.00	1188.00	1128.00	1101.00	1070.00	1166.00	1089.00	979.00	1039.00	1093.00	1017.00	970.00	900.00	868.00	806.00	778.00	762.00	777.00	852.00	1075.00	1101.00	977.00	849.00	832.00	961.00	1043.00	1068.00	1032.00	865.00	807.00	840.00	866.00	789.00	684.00	594.00	552.00	584.00	511.00	482.00	477.00	482.00	478.00	470.00	467.00	468.00	463.00	438.00	424.00	411.00	401.00	428.00	437.00	439.00	437.00	432.00	415.00	414.00	414.00	414.00	413.00	411.00	404.00	401.00	398.00	386.00	378.00	366.00	355.00	353.00	365.00	374.00	389.00	392.00	386.00	380.00	373.00	365.00	345.00	333.00	337.00	339.00	338.00	340.00	343.00	346.00	347.00	349.00	349.00	349.00	348.00	345.00	343.00	345.00	344.00	344.00	344.00	345.00	345.00	345.00	347.00	350.00	351.00	349.00	367.00	405.00	415.00	420.00	420.00	423.00	419.00	423.00	417.00	408.00	418.00	422.00	430.00	444.00	457.00	465.00	490.00	506.00	520.00	529.00	518.00	461.00
583.00	519.00	543.00	552.00	566.00	587.00	661.00	700.00	782.00	845.00	869.00	836.00	821.00	816.00	746.00	678.00	688.00	702.00	722.00	747.00	800.00	814.00	835.00	840.00	754.00	730.00	710.00	692.00	671.00	677.00	695.00	720.00	754.00	813.00	829.00	746.00	705.00	705.00	756.00	814.00	857.00	903.00	808.00	755.00	719.00	674.00	655.00	651.00	663.00	712.00	776.00	813.00	813.00	846.00	876.00	905.00	812.00	768.00	752.00	744.00	752.00	768.00	785.00	805.00	825.00	879.00	915.00	886.00	853.00	873.00	905.00	920.00	934.00	989.00	954.00	945.00	902.00	938.00	1049.00	1118.00	1209.00	1248.00	1142.00	1011.00	993.00	1037.00	1092.00	933.00	919.00	980.00	1018.00	1033.00	948.00	933.00	928.00	892.00	928.00	874.00	926.00	998.00	1081.00	1191.00	1155.00	1074.00	989.00	911.00	898.00	881.00	838.00	847.00	868.00	879.00	890.00	899.00	908.00	908.00	907.00	909.00	944.00	965.00	980.00	982.00	1018.00	1150.00	1272.00	1335.00	1268.00	1275.00	1344.00	1485.00	1358.00	1286.00	1260.00	1250.00	1202.00	1110.00	984.00	964.00	925.00	991.00	1082.00	1076.00	1023.00	928.00	885.00	812.00	775.00	754.00	760.00	827.00	968.00	1022.00	942.00	821.00	732.00	823.00	905.00	1002.00	1004.00	848.00	695.00	692.00	755.00	812.00	726.00	641.00	689.00	726.00	586.00	522.00	485.00	453.00	450.00	447.00	449.00	452.00	453.00	447.00	437.00	426.00	409.00	411.00	424.00	430.00	435.00	449.00	422.00	413.00	407.00	404.00	405.00	404.00	400.00	397.00	394.00	386.00	379.00	371.00	355.00	353.00	352.00	361.00	369.00	375.00	374.00	371.00	363.00	352.00	333.00	335.00	338.00	338.00	337.00	352.00	351.00	350.00	351.00	351.00	352.00	352.00	352.00	351.00	347.00	347.00	347.00	347.00	347.00	348.00	349.00	352.00	354.00	352.00	351.00	354.00	353.00	399.00	427.00	441.00	451.00	458.00	474.00	485.00	496.00	491.00	499.00	466.00	441.00	512.00	548.00	500.00	493.00	541.00	570.00	584.00	573.00	477.00
