107.00	108.00	124.00	138.00	167.00	226.00	228.00	188.00	142.00	234.00	245.00	244.00	236.00	237.00	196.00	177.00	162.00	140.00	108.00	108.00	108.00	108.00	108.00	109.00	110.00	110.00	109.00	108.00	108.00	108.00	108.00	108.00	108.00	108.00	108.00	124.00	132.00	135.00	158.00	189.00	198.00	200.00	197.00	206.00	217.00	264.00	293.00	311.00	319.00	328.00	340.00	342.00	326.00	287.00	336.00	356.00	359.00	354.00	308.00	300.00	300.00	292.00	279.00	266.00	276.00	281.00	277.00	253.00	243.00	249.00	242.00	237.00	235.00	218.00	185.00	146.00	115.00	111.00	110.00	110.00	110.00	110.00	110.00	110.00	110.00	110.00	110.00	110.00	110.00	110.00	114.00	126.00	137.00	147.00	176.00	191.00	189.00	186.00	207.00	194.00	190.00	206.00	222.00	164.00	156.00	199.00	256.00	313.00	357.00	344.00	354.00	272.00	112.00	112.00	112.00	114.00	113.00	112.00	112.00	112.00	112.00	118.00	123.00	127.00	128.00	128.00	130.00	131.00	133.00	135.00	139.00	141.00	142.00	140.00	140.00	141.00	141.00	145.00	149.00	171.00	172.00	170.00	181.00	185.00	177.00	181.00	188.00	191.00	199.00	206.00	221.00	224.00	218.00	175.00	150.00	138.00	137.00	132.00	126.00	120.00	116.00	113.00	113.00	113.00	113.00	113.00	113.00	113.00	113.00	113.00	113.00	114.00	114.00	114.00	114.00	120.00	122.00	129.00	137.00	136.00	159.00	171.00	193.00	234.00	271.00	285.00	295.00	285.00	313.00	313.00	267.00	288.00	315.00	307.00	306.00	309.00	320.00	268.00	156.00	201.00	316.00	326.00	312.00	315.00	326.00	324.00	345.00	335.00	341.00	367.00	367.00	330.00	353.00	307.00	256.00	179.00	134.00	143.00	202.00	232.00	283.00	299.00	310.00	313.00	300.00	296.00	296.00	296.00	296.00	278.00	256.00	234.00	216.00	186.00	175.00	169.00	163.00	161.00	148.00	144.00	148.00	146.00	148.00	149.00	152.00	149.00	147.00	144.00	146.00	148.00	148.00	147.00	147.00	147.00	146.00	144.00
108.00	126.00	141.00	153.00	186.00	230.00	241.00	233.00	209.00	170.00	155.00	150.00	153.00	161.00	185.00	194.00	211.00	225.00	199.00	128.00	108.00	108.00	108.00	108.00	108.00	108.00	108.00	108.00	108.00	108.00	108.00	108.00	109.00	113.00	122.00	142.00	156.00	150.00	155.00	161.00	185.00	193.00	199.00	250.00	276.00	319.00	338.00	362.00	382.00	385.00	375.00	349.00	323.00	302.00	336.00	357.00	375.00	360.00	322.00	334.00	347.00	327.00	293.00	298.00	301.00	295.00	288.00	266.00	265.00	260.00	255.00	254.00	244.00	222.00	222.00	201.00	163.00	151.00	144.00	146.00	144.00	140.00	129.00	144.00	136.00	112.00	110.00	110.00	110.00	110.00	110.00	110.00	113.00	123.00	138.00	143.00	149.00	155.00	176.00	183.00	201.00	212.00	219.00	152.00	197.00	271.00	324.00	357.00	399.00	338.00	245.00	139.00	111.00	112.00	112.00	112.00	112.00	112.00	112.00	118.00	124.00	132.00	134.00	136.00	138.00	139.00	141.00	143.00	145.00	152.00	161.00	164.00	163.00	170.00	174.00	189.00	196.00	206.00	216.00	215.00	215.00	225.00	230.00	232.00	234.00	245.00	248.00	248.00	259.00	262.00	275.00	278.00	277.00	268.00	254.00	233.00	209.00	168.00	150.00	140.00	136.00	134.00	124.00	120.00	117.00	114.00	113.00	113.00	113.00	113.00	113.00	114.00	114.00	114.00	114.00	114.00	114.00	114.00	114.00	114.00	114.00	114.00	114.00	114.00	117.00	121.00	127.00	131.00	145.00	154.00	160.00	161.00	177.00	190.00	193.00	187.00	189.00	172.00	135.00	166.00	187.00	189.00	198.00	205.00	223.00	237.00	238.00	257.00	247.00	268.00	265.00	247.00	250.00	220.00	197.00	131.00	138.00	199.00	215.00	225.00	275.00	310.00	338.00	343.00	324.00	318.00	313.00	313.00	311.00	288.00	265.00	236.00	212.00	177.00	156.00	152.00	150.00	147.00	136.00	136.00	137.00	136.00	137.00	137.00	138.00	138.00	138.00	138.00	138.00	138.00	139.00	140.00	141.00	142.00	142.00	142.00
123.00	142.00	154.00	162.00	189.00	239.00	256.00	265.00	255.00	209.00	170.00	139.00	137.00	138.00	196.00	203.00	225.00	267.00	310.00	290.00	207.00	131.00	110.00	108.00	108.00	108.00	108.00	108.00	108.00	108.00	108.00	111.00	127.00	141.00	163.00	177.00	162.00	156.00	162.00	173.00	244.00	237.00	205.00	240.00	264.00	312.00	350.00	387.00	413.00	376.00	357.00	350.00	348.00	318.00	350.00	380.00	383.00	358.00	358.00	377.00	363.00	322.00	306.00	365.00	355.00	333.00	316.00	305.00	295.00	285.00	280.00	264.00	248.00	255.00	249.00	244.00	192.00	173.00	167.00	163.00	157.00	149.00	152.00	195.00	217.00	197.00	171.00	121.00	110.00	110.00	110.00	110.00	110.00	110.00	122.00	130.00	135.00	138.00	147.00	163.00	177.00	187.00	158.00	192.00	207.00	226.00	258.00	282.00	265.00	194.00	119.00	111.00	111.00	111.00	111.00	111.00	111.00	112.00	120.00	132.00	132.00	139.00	143.00	148.00	152.00	159.00	181.00	194.00	201.00	215.00	223.00	226.00	209.00	224.00	243.00	253.00	257.00	260.00	264.00	262.00	269.00	273.00	272.00	268.00	282.00	290.00	292.00	287.00	286.00	286.00	283.00	282.00	282.00	280.00	278.00	272.00	259.00	217.00	178.00	208.00	222.00	202.00	189.00	166.00	184.00	184.00	157.00	152.00	141.00	132.00	125.00	114.00	114.00	114.00	114.00	114.00	114.00	114.00	114.00	114.00	114.00	114.00	114.00	114.00	114.00	114.00	114.00	114.00	114.00	114.00	114.00	114.00	114.00	117.00	119.00	121.00	123.00	122.00	117.00	120.00	127.00	129.00	135.00	138.00	143.00	148.00	158.00	164.00	169.00	173.00	175.00	174.00	171.00	159.00	147.00	126.00	165.00	181.00	187.00	195.00	225.00	243.00	256.00	258.00	251.00	247.00	247.00	246.00	247.00	242.00	237.00	230.00	212.00	174.00	153.00	147.00	141.00	137.00	136.00	142.00	146.00	148.00	149.00	146.00	143.00	142.00	142.00	142.00	140.00	140.00	139.00	140.00	140.00	140.00	140.00	140.00
123.00	142.00	154.00	162.00	189.00	239.00	256.00	265.00	255.00	209.00	170.00	139.00	137.00	138.00	196.00	203.00	225.00	267.00	310.00	290.00	207.00	131.00	110.00	108.00	108.00	108.00	108.00	108.00	108.00	108.00	108.00	111.00	127.00	141.00	163.00	177.00	162.00	156.00	162.00	173.00	244.00	237.00	205.00	240.00	264.00	312.00	350.00	387.00	413.00	376.00	357.00	350.00	348.00	318.00	350.00	380.00	383.00	358.00	358.00	377.00	363.00	322.00	306.00	365.00	355.00	333.00	316.00	305.00	295.00	285.00	280.00	264.00	248.00	255.00	249.00	244.00	192.00	173.00	167.00	163.00	157.00	149.00	152.00	195.00	217.00	197.00	171.00	121.00	110.00	110.00	110.00	110.00	110.00	110.00	122.00	130.00	135.00	138.00	147.00	163.00	177.00	187.00	158.00	192.00	207.00	226.00	258.00	282.00	265.00	194.00	119.00	111.00	111.00	111.00	111.00	111.00	111.00	112.00	120.00	132.00	132.00	139.00	143.00	148.00	152.00	159.00	181.00	194.00	201.00	215.00	223.00	226.00	209.00	224.00	243.00	253.00	257.00	260.00	264.00	262.00	269.00	273.00	272.00	268.00	282.00	290.00	292.00	287.00	286.00	286.00	283.00	282.00	282.00	280.00	278.00	272.00	259.00	217.00	178.00	208.00	222.00	202.00	189.00	166.00	184.00	184.00	157.00	152.00	141.00	132.00	125.00	114.00	114.00	114.00	114.00	114.00	114.00	114.00	114.00	114.00	114.00	114.00	114.00	114.00	114.00	114.00	114.00	114.00	114.00	114.00	114.00	114.00	114.00	117.00	119.00	121.00	123.00	122.00	117.00	120.00	127.00	129.00	135.00	138.00	143.00	148.00	158.00	164.00	169.00	173.00	175.00	174.00	171.00	159.00	147.00	126.00	165.00	181.00	187.00	195.00	225.00	243.00	256.00	258.00	251.00	247.00	247.00	246.00	247.00	242.00	237.00	230.00	212.00	174.00	153.00	147.00	141.00	137.00	136.00	142.00	146.00	148.00	149.00	146.00	143.00	142.00	142.00	142.00	140.00	140.00	139.00	140.00	140.00	140.00	140.00	140.00
125.00	139.00	152.00	161.00	218.00	261.00	278.00	290.00	286.00	251.00	200.00	162.00	148.00	143.00	171.00	195.00	235.00	264.00	301.00	325.00	329.00	287.00	207.00	136.00	120.00	116.00	116.00	117.00	119.00	124.00	138.00	146.00	175.00	183.00	224.00	200.00	174.00	165.00	179.00	216.00	272.00	246.00	222.00	255.00	294.00	338.00	372.00	402.00	414.00	385.00	382.00	374.00	346.00	341.00	336.00	357.00	391.00	371.00	398.00	397.00	363.00	328.00	324.00	390.00	373.00	357.00	356.00	355.00	329.00	305.00	287.00	280.00	290.00	282.00	269.00	273.00	218.00	192.00	173.00	163.00	159.00	164.00	190.00	219.00	230.00	228.00	222.00	219.00	152.00	113.00	110.00	110.00	110.00	110.00	110.00	110.00	114.00	119.00	134.00	146.00	145.00	146.00	140.00	170.00	187.00	186.00	184.00	175.00	118.00	111.00	111.00	111.00	111.00	111.00	111.00	111.00	112.00	130.00	134.00	142.00	146.00	170.00	183.00	195.00	205.00	216.00	226.00	228.00	220.00	240.00	255.00	261.00	257.00	258.00	272.00	285.00	288.00	288.00	281.00	294.00	295.00	292.00	294.00	306.00	320.00	324.00	323.00	319.00	312.00	306.00	291.00	285.00	281.00	273.00	269.00	263.00	259.00	243.00	198.00	248.00	264.00	258.00	240.00	204.00	237.00	249.00	245.00	248.00	247.00	244.00	239.00	166.00	172.00	162.00	150.00	133.00	130.00	123.00	117.00	114.00	114.00	114.00	114.00	114.00	114.00	114.00	114.00	114.00	114.00	114.00	114.00	114.00	114.00	114.00	114.00	114.00	114.00	114.00	114.00	114.00	114.00	114.00	114.00	115.00	116.00	117.00	121.00	124.00	127.00	129.00	131.00	133.00	134.00	124.00	117.00	135.00	140.00	145.00	151.00	163.00	191.00	196.00	201.00	203.00	201.00	201.00	200.00	197.00	194.00	186.00	181.00	173.00	165.00	151.00	137.00	136.00	137.00	142.00	146.00	153.00	156.00	159.00	164.00	161.00	156.00	152.00	152.00	144.00	143.00	143.00	143.00	144.00	146.00	147.00	146.00	147.00
132.00	133.00	155.00	176.00	247.00	279.00	287.00	298.00	298.00	214.00	191.00	176.00	166.00	156.00	152.00	203.00	241.00	265.00	314.00	330.00	332.00	310.00	282.00	281.00	281.00	239.00	238.00	213.00	217.00	227.00	225.00	204.00	241.00	245.00	264.00	245.00	193.00	182.00	216.00	274.00	293.00	276.00	260.00	245.00	279.00	342.00	385.00	405.00	409.00	417.00	416.00	387.00	370.00	382.00	353.00	346.00	379.00	374.00	377.00	364.00	346.00	335.00	330.00	384.00	399.00	395.00	397.00	333.00	307.00	300.00	306.00	325.00	324.00	308.00	302.00	314.00	255.00	211.00	188.00	175.00	176.00	210.00	235.00	251.00	253.00	232.00	231.00	196.00	158.00	140.00	111.00	110.00	110.00	110.00	110.00	110.00	110.00	110.00	110.00	115.00	117.00	119.00	117.00	113.00	116.00	113.00	111.00	111.00	111.00	111.00	111.00	111.00	111.00	111.00	112.00	122.00	134.00	142.00	147.00	177.00	198.00	225.00	231.00	237.00	244.00	252.00	264.00	252.00	263.00	282.00	286.00	290.00	284.00	287.00	301.00	315.00	319.00	310.00	299.00	328.00	326.00	320.00	311.00	308.00	326.00	332.00	334.00	334.00	325.00	313.00	290.00	289.00	284.00	279.00	276.00	274.00	268.00	227.00	229.00	268.00	278.00	266.00	244.00	244.00	253.00	258.00	260.00	260.00	261.00	257.00	244.00	253.00	255.00	253.00	248.00	226.00	219.00	178.00	142.00	174.00	173.00	158.00	136.00	127.00	120.00	118.00	116.00	114.00	114.00	114.00	114.00	114.00	114.00	114.00	114.00	114.00	114.00	114.00	114.00	114.00	114.00	114.00	114.00	115.00	115.00	115.00	115.00	115.00	115.00	117.00	118.00	119.00	117.00	115.00	115.00	129.00	133.00	135.00	136.00	138.00	151.00	157.00	162.00	167.00	171.00	172.00	172.00	168.00	163.00	152.00	144.00	138.00	135.00	134.00	138.00	145.00	155.00	162.00	164.00	166.00	170.00	174.00	180.00	180.00	182.00	178.00	174.00	165.00	160.00	155.00	151.00	149.00	150.00	151.00	152.00	153.00
150.00	151.00	165.00	223.00	260.00	289.00	291.00	298.00	267.00	203.00	196.00	193.00	184.00	174.00	152.00	180.00	221.00	258.00	317.00	341.00	350.00	312.00	290.00	291.00	308.00	304.00	270.00	304.00	305.00	318.00	303.00	284.00	304.00	301.00	301.00	296.00	219.00	214.00	248.00	275.00	326.00	318.00	297.00	283.00	289.00	354.00	369.00	398.00	412.00	412.00	401.00	388.00	382.00	382.00	365.00	358.00	368.00	379.00	367.00	355.00	346.00	342.00	339.00	348.00	363.00	370.00	367.00	320.00	335.00	347.00	342.00	357.00	356.00	347.00	343.00	350.00	268.00	233.00	212.00	204.00	206.00	233.00	271.00	292.00	273.00	240.00	225.00	193.00	194.00	166.00	118.00	117.00	112.00	111.00	110.00	110.00	110.00	110.00	110.00	111.00	111.00	111.00	111.00	111.00	111.00	111.00	111.00	111.00	111.00	111.00	111.00	111.00	115.00	125.00	133.00	140.00	150.00	194.00	222.00	247.00	256.00	273.00	280.00	288.00	297.00	304.00	306.00	284.00	298.00	322.00	324.00	327.00	320.00	314.00	327.00	346.00	341.00	328.00	316.00	335.00	333.00	328.00	320.00	322.00	320.00	323.00	329.00	333.00	333.00	327.00	310.00	306.00	299.00	286.00	279.00	269.00	259.00	229.00	266.00	289.00	295.00	283.00	296.00	294.00	290.00	286.00	283.00	284.00	279.00	272.00	278.00	281.00	282.00	280.00	274.00	251.00	185.00	157.00	210.00	246.00	251.00	250.00	219.00	223.00	214.00	216.00	210.00	177.00	195.00	191.00	185.00	178.00	145.00	151.00	144.00	137.00	128.00	117.00	114.00	114.00	114.00	114.00	114.00	115.00	115.00	115.00	115.00	115.00	115.00	115.00	115.00	115.00	115.00	115.00	115.00	116.00	119.00	120.00	121.00	123.00	133.00	140.00	141.00	141.00	145.00	148.00	149.00	149.00	149.00	132.00	129.00	133.00	139.00	149.00	158.00	161.00	167.00	173.00	186.00	192.00	193.00	200.00	211.00	222.00	226.00	227.00	226.00	214.00	205.00	197.00	188.00	178.00	177.00	175.00	173.00	172.00
150.00	151.00	165.00	223.00	260.00	289.00	291.00	298.00	267.00	203.00	196.00	193.00	184.00	174.00	152.00	180.00	221.00	258.00	317.00	341.00	350.00	312.00	290.00	291.00	308.00	304.00	270.00	304.00	305.00	318.00	303.00	284.00	304.00	301.00	301.00	296.00	219.00	214.00	248.00	275.00	326.00	318.00	297.00	283.00	289.00	354.00	369.00	398.00	412.00	412.00	401.00	388.00	382.00	382.00	365.00	358.00	368.00	379.00	367.00	355.00	346.00	342.00	339.00	348.00	363.00	370.00	367.00	320.00	335.00	347.00	342.00	357.00	356.00	347.00	343.00	350.00	268.00	233.00	212.00	204.00	206.00	233.00	271.00	292.00	273.00	240.00	225.00	193.00	194.00	166.00	118.00	117.00	112.00	111.00	110.00	110.00	110.00	110.00	110.00	111.00	111.00	111.00	111.00	111.00	111.00	111.00	111.00	111.00	111.00	111.00	111.00	111.00	115.00	125.00	133.00	140.00	150.00	194.00	222.00	247.00	256.00	273.00	280.00	288.00	297.00	304.00	306.00	284.00	298.00	322.00	324.00	327.00	320.00	314.00	327.00	346.00	341.00	328.00	316.00	335.00	333.00	328.00	320.00	322.00	320.00	323.00	329.00	333.00	333.00	327.00	310.00	306.00	299.00	286.00	279.00	269.00	259.00	229.00	266.00	289.00	295.00	283.00	296.00	294.00	290.00	286.00	283.00	284.00	279.00	272.00	278.00	281.00	282.00	280.00	274.00	251.00	185.00	157.00	210.00	246.00	251.00	250.00	219.00	223.00	214.00	216.00	210.00	177.00	195.00	191.00	185.00	178.00	145.00	151.00	144.00	137.00	128.00	117.00	114.00	114.00	114.00	114.00	114.00	115.00	115.00	115.00	115.00	115.00	115.00	115.00	115.00	115.00	115.00	115.00	115.00	116.00	119.00	120.00	121.00	123.00	133.00	140.00	141.00	141.00	145.00	148.00	149.00	149.00	149.00	132.00	129.00	133.00	139.00	149.00	158.00	161.00	167.00	173.00	186.00	192.00	193.00	200.00	211.00	222.00	226.00	227.00	226.00	214.00	205.00	197.00	188.00	178.00	177.00	175.00	173.00	172.00
161.00	155.00	163.00	235.00	283.00	286.00	284.00	271.00	247.00	211.00	197.00	184.00	175.00	169.00	155.00	169.00	223.00	262.00	317.00	319.00	288.00	247.00	225.00	221.00	227.00	230.00	224.00	246.00	264.00	283.00	292.00	283.00	253.00	256.00	265.00	258.00	243.00	240.00	249.00	268.00	326.00	333.00	331.00	327.00	334.00	397.00	390.00	390.00	399.00	419.00	415.00	405.00	405.00	401.00	387.00	384.00	390.00	400.00	380.00	374.00	378.00	372.00	371.00	363.00	367.00	364.00	355.00	329.00	355.00	375.00	380.00	386.00	392.00	386.00	375.00	357.00	244.00	226.00	210.00	206.00	214.00	266.00	302.00	321.00	295.00	238.00	216.00	225.00	182.00	148.00	168.00	181.00	157.00	134.00	112.00	111.00	111.00	110.00	110.00	111.00	111.00	111.00	111.00	111.00	111.00	111.00	111.00	111.00	112.00	114.00	115.00	115.00	150.00	176.00	202.00	230.00	255.00	284.00	293.00	313.00	319.00	327.00	335.00	339.00	343.00	342.00	326.00	307.00	306.00	344.00	353.00	352.00	345.00	337.00	336.00	354.00	350.00	336.00	316.00	328.00	328.00	326.00	328.00	332.00	333.00	331.00	331.00	331.00	334.00	329.00	318.00	311.00	302.00	285.00	281.00	279.00	272.00	243.00	282.00	310.00	322.00	316.00	326.00	334.00	334.00	329.00	320.00	309.00	304.00	309.00	317.00	321.00	319.00	315.00	306.00	219.00	164.00	223.00	282.00	279.00	279.00	276.00	265.00	263.00	257.00	254.00	236.00	234.00	252.00	254.00	256.00	253.00	232.00	246.00	247.00	248.00	246.00	227.00	214.00	175.00	136.00	174.00	165.00	156.00	146.00	138.00	122.00	117.00	115.00	115.00	115.00	115.00	115.00	115.00	115.00	115.00	115.00	115.00	116.00	117.00	119.00	120.00	124.00	128.00	134.00	132.00	132.00	133.00	136.00	139.00	140.00	147.00	152.00	168.00	177.00	184.00	187.00	197.00	211.00	220.00	222.00	228.00	236.00	245.00	256.00	268.00	270.00	268.00	262.00	258.00	251.00	231.00	226.00	218.00	214.00	201.00
181.00	167.00	171.00	251.00	292.00	300.00	290.00	269.00	249.00	217.00	202.00	188.00	182.00	191.00	184.00	167.00	180.00	198.00	211.00	191.00	178.00	172.00	176.00	177.00	179.00	182.00	187.00	203.00	213.00	215.00	209.00	204.00	208.00	212.00	215.00	222.00	227.00	236.00	251.00	270.00	305.00	326.00	347.00	366.00	379.00	421.00	425.00	426.00	430.00	437.00	437.00	433.00	427.00	419.00	414.00	410.00	410.00	413.00	406.00	404.00	407.00	402.00	397.00	389.00	389.00	377.00	365.00	349.00	378.00	391.00	388.00	381.00	359.00	347.00	325.00	289.00	222.00	214.00	212.00	230.00	254.00	304.00	340.00	331.00	293.00	250.00	263.00	199.00	153.00	143.00	244.00	255.00	248.00	223.00	191.00	159.00	138.00	124.00	112.00	111.00	111.00	111.00	111.00	111.00	112.00	113.00	118.00	125.00	144.00	154.00	170.00	176.00	166.00	248.00	251.00	224.00	247.00	323.00	337.00	348.00	348.00	351.00	355.00	355.00	352.00	350.00	346.00	332.00	318.00	348.00	361.00	361.00	355.00	347.00	342.00	344.00	339.00	324.00	303.00	331.00	333.00	339.00	344.00	344.00	333.00	327.00	323.00	318.00	318.00	311.00	300.00	295.00	291.00	291.00	283.00	274.00	268.00	250.00	277.00	302.00	323.00	337.00	323.00	328.00	335.00	339.00	332.00	323.00	329.00	334.00	338.00	332.00	330.00	326.00	317.00	219.00	177.00	280.00	323.00	312.00	304.00	292.00	284.00	280.00	276.00	270.00	260.00	267.00	272.00	271.00	267.00	254.00	256.00	260.00	262.00	263.00	262.00	256.00	248.00	206.00	149.00	207.00	249.00	249.00	249.00	247.00	243.00	237.00	222.00	199.00	161.00	115.00	115.00	115.00	115.00	115.00	115.00	115.00	115.00	115.00	116.00	118.00	119.00	120.00	127.00	130.00	130.00	132.00	141.00	142.00	146.00	154.00	163.00	185.00	201.00	214.00	224.00	230.00	243.00	250.00	269.00	279.00	279.00	293.00	315.00	312.00	307.00	296.00	292.00	291.00	290.00	276.00	273.00	270.00	260.00	245.00
181.00	167.00	171.00	251.00	292.00	300.00	290.00	269.00	249.00	217.00	202.00	188.00	182.00	191.00	184.00	167.00	180.00	198.00	211.00	191.00	178.00	172.00	176.00	177.00	179.00	182.00	187.00	203.00	213.00	215.00	209.00	204.00	208.00	212.00	215.00	222.00	227.00	236.00	251.00	270.00	305.00	326.00	347.00	366.00	379.00	421.00	425.00	426.00	430.00	437.00	437.00	433.00	427.00	419.00	414.00	410.00	410.00	413.00	406.00	404.00	407.00	402.00	397.00	389.00	389.00	377.00	365.00	349.00	378.00	391.00	388.00	381.00	359.00	347.00	325.00	289.00	222.00	214.00	212.00	230.00	254.00	304.00	340.00	331.00	293.00	250.00	263.00	199.00	153.00	143.00	244.00	255.00	248.00	223.00	191.00	159.00	138.00	124.00	112.00	111.00	111.00	111.00	111.00	111.00	112.00	113.00	118.00	125.00	144.00	154.00	170.00	176.00	166.00	248.00	251.00	224.00	247.00	323.00	337.00	348.00	348.00	351.00	355.00	355.00	352.00	350.00	346.00	332.00	318.00	348.00	361.00	361.00	355.00	347.00	342.00	344.00	339.00	324.00	303.00	331.00	333.00	339.00	344.00	344.00	333.00	327.00	323.00	318.00	318.00	311.00	300.00	295.00	291.00	291.00	283.00	274.00	268.00	250.00	277.00	302.00	323.00	337.00	323.00	328.00	335.00	339.00	332.00	323.00	329.00	334.00	338.00	332.00	330.00	326.00	317.00	219.00	177.00	280.00	323.00	312.00	304.00	292.00	284.00	280.00	276.00	270.00	260.00	267.00	272.00	271.00	267.00	254.00	256.00	260.00	262.00	263.00	262.00	256.00	248.00	206.00	149.00	207.00	249.00	249.00	249.00	247.00	243.00	237.00	222.00	199.00	161.00	115.00	115.00	115.00	115.00	115.00	115.00	115.00	115.00	115.00	116.00	118.00	119.00	120.00	127.00	130.00	130.00	132.00	141.00	142.00	146.00	154.00	163.00	185.00	201.00	214.00	224.00	230.00	243.00	250.00	269.00	279.00	279.00	293.00	315.00	312.00	307.00	296.00	292.00	291.00	290.00	276.00	273.00	270.00	260.00	245.00
195.00	211.00	185.00	196.00	249.00	301.00	315.00	306.00	276.00	226.00	217.00	209.00	211.00	247.00	193.00	216.00	235.00	209.00	184.00	176.00	169.00	172.00	194.00	224.00	226.00	224.00	204.00	196.00	192.00	193.00	196.00	198.00	199.00	198.00	200.00	207.00	232.00	253.00	282.00	308.00	326.00	355.00	383.00	403.00	417.00	454.00	463.00	469.00	470.00	472.00	471.00	466.00	461.00	453.00	451.00	444.00	437.00	438.00	436.00	435.00	434.00	430.00	423.00	413.00	404.00	394.00	393.00	374.00	382.00	384.00	377.00	362.00	326.00	304.00	310.00	285.00	297.00	248.00	229.00	252.00	293.00	337.00	350.00	319.00	294.00	302.00	297.00	188.00	148.00	169.00	273.00	286.00	290.00	289.00	301.00	300.00	296.00	282.00	237.00	200.00	184.00	159.00	157.00	159.00	163.00	169.00	161.00	155.00	242.00	278.00	299.00	289.00	167.00	159.00	165.00	172.00	144.00	170.00	183.00	305.00	332.00	363.00	367.00	366.00	365.00	369.00	367.00	358.00	343.00	326.00	345.00	339.00	330.00	321.00	311.00	307.00	303.00	300.00	290.00	302.00	317.00	331.00	338.00	334.00	309.00	304.00	299.00	293.00	286.00	292.00	276.00	269.00	269.00	271.00	262.00	252.00	259.00	262.00	269.00	290.00	306.00	330.00	339.00	340.00	343.00	345.00	342.00	341.00	339.00	340.00	340.00	318.00	313.00	300.00	285.00	250.00	208.00	230.00	298.00	331.00	320.00	317.00	310.00	297.00	284.00	277.00	270.00	269.00	271.00	265.00	257.00	252.00	260.00	254.00	257.00	261.00	262.00	257.00	251.00	237.00	184.00	164.00	225.00	231.00	232.00	231.00	230.00	229.00	229.00	230.00	222.00	149.00	121.00	115.00	117.00	115.00	115.00	115.00	115.00	115.00	115.00	115.00	115.00	117.00	120.00	124.00	129.00	135.00	138.00	146.00	152.00	164.00	181.00	239.00	263.00	295.00	309.00	319.00	308.00	337.00	353.00	362.00	324.00	352.00	373.00	349.00	335.00	302.00	290.00	289.00	292.00	287.00	283.00	280.00	283.00	284.00
228.00	265.00	259.00	241.00	187.00	269.00	308.00	310.00	295.00	275.00	258.00	237.00	266.00	292.00	216.00	260.00	296.00	312.00	261.00	214.00	181.00	184.00	229.00	322.00	312.00	289.00	283.00	227.00	238.00	254.00	244.00	231.00	224.00	237.00	231.00	210.00	222.00	245.00	266.00	289.00	369.00	399.00	425.00	443.00	449.00	451.00	449.00	450.00	449.00	448.00	450.00	451.00	453.00	456.00	468.00	467.00	467.00	470.00	472.00	470.00	468.00	462.00	459.00	453.00	444.00	441.00	447.00	413.00	408.00	396.00	380.00	367.00	339.00	319.00	289.00	268.00	356.00	298.00	254.00	257.00	302.00	358.00	344.00	321.00	312.00	306.00	298.00	174.00	167.00	213.00	225.00	260.00	294.00	317.00	327.00	335.00	339.00	339.00	339.00	326.00	283.00	243.00	280.00	289.00	247.00	200.00	171.00	184.00	324.00	335.00	330.00	317.00	276.00	260.00	231.00	217.00	196.00	161.00	145.00	242.00	301.00	360.00	366.00	365.00	365.00	367.00	371.00	368.00	355.00	301.00	307.00	305.00	294.00	282.00	272.00	269.00	268.00	269.00	271.00	284.00	295.00	292.00	287.00	280.00	264.00	253.00	249.00	247.00	252.00	254.00	250.00	246.00	246.00	252.00	248.00	249.00	264.00	277.00	278.00	279.00	283.00	303.00	332.00	336.00	343.00	351.00	356.00	356.00	356.00	357.00	354.00	340.00	335.00	332.00	327.00	302.00	258.00	206.00	245.00	329.00	333.00	335.00	330.00	324.00	295.00	286.00	278.00	273.00	261.00	257.00	258.00	259.00	258.00	249.00	248.00	244.00	238.00	224.00	216.00	207.00	197.00	183.00	171.00	192.00	202.00	208.00	213.00	193.00	179.00	171.00	166.00	153.00	139.00	115.00	115.00	116.00	115.00	115.00	115.00	115.00	115.00	115.00	115.00	115.00	118.00	120.00	124.00	133.00	136.00	151.00	160.00	173.00	190.00	269.00	319.00	367.00	391.00	401.00	368.00	401.00	417.00	413.00	381.00	401.00	404.00	365.00	342.00	294.00	278.00	268.00	269.00	272.00	275.00	283.00	286.00	285.00
252.00	271.00	285.00	286.00	229.00	240.00	273.00	303.00	312.00	306.00	289.00	298.00	320.00	317.00	257.00	290.00	318.00	343.00	301.00	238.00	193.00	193.00	255.00	382.00	403.00	372.00	322.00	256.00	295.00	283.00	256.00	241.00	256.00	285.00	271.00	235.00	220.00	223.00	249.00	306.00	410.00	430.00	420.00	411.00	404.00	398.00	399.00	401.00	404.00	411.00	416.00	418.00	421.00	424.00	432.00	434.00	441.00	441.00	435.00	434.00	431.00	429.00	427.00	422.00	424.00	425.00	429.00	429.00	415.00	411.00	410.00	382.00	331.00	310.00	283.00	273.00	347.00	350.00	311.00	286.00	292.00	349.00	329.00	305.00	273.00	282.00	239.00	193.00	253.00	301.00	290.00	280.00	270.00	266.00	314.00	331.00	341.00	339.00	339.00	326.00	318.00	326.00	332.00	284.00	225.00	188.00	203.00	266.00	334.00	331.00	328.00	327.00	318.00	287.00	262.00	250.00	236.00	146.00	196.00	310.00	330.00	340.00	336.00	316.00	299.00	309.00	338.00	337.00	326.00	280.00	273.00	284.00	289.00	281.00	267.00	257.00	253.00	251.00	246.00	282.00	290.00	285.00	274.00	257.00	229.00	225.00	224.00	225.00	229.00	234.00	231.00	232.00	234.00	241.00	237.00	243.00	251.00	272.00	285.00	299.00	309.00	312.00	324.00	339.00	352.00	364.00	374.00	373.00	371.00	368.00	364.00	368.00	364.00	351.00	309.00	252.00	258.00	288.00	322.00	328.00	340.00	343.00	342.00	338.00	317.00	301.00	288.00	275.00	262.00	264.00	266.00	266.00	259.00	245.00	236.00	228.00	221.00	205.00	196.00	189.00	180.00	175.00	189.00	202.00	204.00	204.00	192.00	183.00	180.00	175.00	167.00	164.00	153.00	135.00	125.00	115.00	115.00	115.00	115.00	115.00	115.00	115.00	115.00	115.00	115.00	115.00	118.00	126.00	136.00	146.00	156.00	165.00	177.00	225.00	294.00	297.00	339.00	358.00	374.00	387.00	395.00	415.00	409.00	395.00	387.00	323.00	289.00	243.00	230.00	226.00	227.00	231.00	238.00	246.00	257.00	263.00
252.00	271.00	285.00	286.00	229.00	240.00	273.00	303.00	312.00	306.00	289.00	298.00	320.00	317.00	257.00	290.00	318.00	343.00	301.00	238.00	193.00	193.00	255.00	382.00	403.00	372.00	322.00	256.00	295.00	283.00	256.00	241.00	256.00	285.00	271.00	235.00	220.00	223.00	249.00	306.00	410.00	430.00	420.00	411.00	404.00	398.00	399.00	401.00	404.00	411.00	416.00	418.00	421.00	424.00	432.00	434.00	441.00	441.00	435.00	434.00	431.00	429.00	427.00	422.00	424.00	425.00	429.00	429.00	415.00	411.00	410.00	382.00	331.00	310.00	283.00	273.00	347.00	350.00	311.00	286.00	292.00	349.00	329.00	305.00	273.00	282.00	239.00	193.00	253.00	301.00	290.00	280.00	270.00	266.00	314.00	331.00	341.00	339.00	339.00	326.00	318.00	326.00	332.00	284.00	225.00	188.00	203.00	266.00	334.00	331.00	328.00	327.00	318.00	287.00	262.00	250.00	236.00	146.00	196.00	310.00	330.00	340.00	336.00	316.00	299.00	309.00	338.00	337.00	326.00	280.00	273.00	284.00	289.00	281.00	267.00	257.00	253.00	251.00	246.00	282.00	290.00	285.00	274.00	257.00	229.00	225.00	224.00	225.00	229.00	234.00	231.00	232.00	234.00	241.00	237.00	243.00	251.00	272.00	285.00	299.00	309.00	312.00	324.00	339.00	352.00	364.00	374.00	373.00	371.00	368.00	364.00	368.00	364.00	351.00	309.00	252.00	258.00	288.00	322.00	328.00	340.00	343.00	342.00	338.00	317.00	301.00	288.00	275.00	262.00	264.00	266.00	266.00	259.00	245.00	236.00	228.00	221.00	205.00	196.00	189.00	180.00	175.00	189.00	202.00	204.00	204.00	192.00	183.00	180.00	175.00	167.00	164.00	153.00	135.00	125.00	115.00	115.00	115.00	115.00	115.00	115.00	115.00	115.00	115.00	115.00	115.00	118.00	126.00	136.00	146.00	156.00	165.00	177.00	225.00	294.00	297.00	339.00	358.00	374.00	387.00	395.00	415.00	409.00	395.00	387.00	323.00	289.00	243.00	230.00	226.00	227.00	231.00	238.00	246.00	257.00	263.00
300.00	312.00	309.00	299.00	235.00	204.00	238.00	273.00	294.00	332.00	336.00	330.00	313.00	285.00	293.00	315.00	340.00	360.00	343.00	269.00	210.00	198.00	260.00	365.00	396.00	362.00	320.00	311.00	317.00	294.00	287.00	282.00	286.00	312.00	309.00	269.00	238.00	228.00	237.00	324.00	384.00	368.00	352.00	347.00	341.00	346.00	354.00	364.00	372.00	382.00	387.00	392.00	396.00	400.00	410.00	415.00	424.00	424.00	411.00	404.00	398.00	391.00	385.00	374.00	375.00	376.00	370.00	384.00	360.00	396.00	382.00	351.00	304.00	286.00	282.00	309.00	352.00	370.00	384.00	371.00	351.00	351.00	317.00	274.00	243.00	204.00	178.00	275.00	332.00	366.00	362.00	343.00	318.00	290.00	295.00	335.00	352.00	355.00	357.00	359.00	352.00	343.00	336.00	257.00	205.00	230.00	290.00	327.00	352.00	349.00	348.00	348.00	351.00	337.00	320.00	305.00	286.00	190.00	153.00	218.00	237.00	286.00	277.00	265.00	234.00	224.00	234.00	243.00	253.00	261.00	208.00	199.00	228.00	259.00	262.00	259.00	264.00	268.00	255.00	263.00	278.00	284.00	273.00	260.00	229.00	220.00	214.00	214.00	216.00	218.00	216.00	219.00	221.00	227.00	234.00	242.00	250.00	275.00	283.00	295.00	308.00	331.00	330.00	339.00	357.00	371.00	386.00	387.00	383.00	381.00	382.00	368.00	350.00	320.00	264.00	328.00	346.00	346.00	347.00	341.00	345.00	344.00	337.00	331.00	315.00	303.00	287.00	276.00	274.00	276.00	277.00	273.00	257.00	228.00	216.00	206.00	199.00	190.00	187.00	187.00	187.00	190.00	215.00	231.00	233.00	230.00	230.00	224.00	223.00	220.00	219.00	217.00	211.00	178.00	163.00	134.00	131.00	129.00	130.00	132.00	131.00	125.00	117.00	115.00	115.00	115.00	115.00	116.00	131.00	142.00	147.00	152.00	161.00	186.00	210.00	225.00	243.00	261.00	297.00	294.00	309.00	335.00	358.00	343.00	308.00	267.00	239.00	210.00	203.00	199.00	201.00	209.00	214.00	220.00	225.00	234.00
300.00	312.00	309.00	299.00	235.00	204.00	238.00	273.00	294.00	332.00	336.00	330.00	313.00	285.00	293.00	315.00	340.00	360.00	343.00	269.00	210.00	198.00	260.00	365.00	396.00	362.00	320.00	311.00	317.00	294.00	287.00	282.00	286.00	312.00	309.00	269.00	238.00	228.00	237.00	324.00	384.00	368.00	352.00	347.00	341.00	346.00	354.00	364.00	372.00	382.00	387.00	392.00	396.00	400.00	410.00	415.00	424.00	424.00	411.00	404.00	398.00	391.00	385.00	374.00	375.00	376.00	370.00	384.00	360.00	396.00	382.00	351.00	304.00	286.00	282.00	309.00	352.00	370.00	384.00	371.00	351.00	351.00	317.00	274.00	243.00	204.00	178.00	275.00	332.00	366.00	362.00	343.00	318.00	290.00	295.00	335.00	352.00	355.00	357.00	359.00	352.00	343.00	336.00	257.00	205.00	230.00	290.00	327.00	352.00	349.00	348.00	348.00	351.00	337.00	320.00	305.00	286.00	190.00	153.00	218.00	237.00	286.00	277.00	265.00	234.00	224.00	234.00	243.00	253.00	261.00	208.00	199.00	228.00	259.00	262.00	259.00	264.00	268.00	255.00	263.00	278.00	284.00	273.00	260.00	229.00	220.00	214.00	214.00	216.00	218.00	216.00	219.00	221.00	227.00	234.00	242.00	250.00	275.00	283.00	295.00	308.00	331.00	330.00	339.00	357.00	371.00	386.00	387.00	383.00	381.00	382.00	368.00	350.00	320.00	264.00	328.00	346.00	346.00	347.00	341.00	345.00	344.00	337.00	331.00	315.00	303.00	287.00	276.00	274.00	276.00	277.00	273.00	257.00	228.00	216.00	206.00	199.00	190.00	187.00	187.00	187.00	190.00	215.00	231.00	233.00	230.00	230.00	224.00	223.00	220.00	219.00	217.00	211.00	178.00	163.00	134.00	131.00	129.00	130.00	132.00	131.00	125.00	117.00	115.00	115.00	115.00	115.00	116.00	131.00	142.00	147.00	152.00	161.00	186.00	210.00	225.00	243.00	261.00	297.00	294.00	309.00	335.00	358.00	343.00	308.00	267.00	239.00	210.00	203.00	199.00	201.00	209.00	214.00	220.00	225.00	234.00
313.00	323.00	319.00	300.00	295.00	247.00	234.00	296.00	308.00	294.00	296.00	294.00	279.00	271.00	333.00	349.00	358.00	363.00	329.00	299.00	253.00	210.00	238.00	312.00	370.00	394.00	412.00	391.00	376.00	349.00	310.00	318.00	353.00	376.00	389.00	355.00	342.00	321.00	292.00	258.00	281.00	318.00	340.00	355.00	365.00	387.00	387.00	380.00	384.00	390.00	393.00	396.00	400.00	403.00	416.00	423.00	423.00	427.00	434.00	432.00	426.00	419.00	413.00	421.00	412.00	404.00	396.00	363.00	348.00	331.00	318.00	312.00	339.00	364.00	386.00	384.00	385.00	394.00	398.00	391.00	369.00	339.00	348.00	339.00	291.00	221.00	308.00	380.00	368.00	353.00	333.00	333.00	345.00	357.00	326.00	337.00	368.00	372.00	322.00	320.00	313.00	292.00	275.00	250.00	227.00	230.00	264.00	281.00	278.00	280.00	288.00	291.00	285.00	300.00	302.00	291.00	276.00	241.00	226.00	140.00	139.00	160.00	153.00	154.00	180.00	204.00	222.00	215.00	211.00	215.00	227.00	228.00	228.00	224.00	215.00	209.00	209.00	208.00	215.00	213.00	212.00	209.00	207.00	208.00	209.00	209.00	213.00	215.00	236.00	242.00	232.00	226.00	221.00	224.00	230.00	235.00	244.00	279.00	306.00	323.00	323.00	349.00	373.00	371.00	366.00	366.00	376.00	365.00	346.00	329.00	314.00	263.00	253.00	245.00	238.00	240.00	260.00	274.00	281.00	293.00	297.00	292.00	282.00	294.00	294.00	302.00	303.00	303.00	299.00	296.00	292.00	286.00	275.00	265.00	260.00	257.00	257.00	256.00	254.00	250.00	241.00	233.00	179.00	177.00	203.00	204.00	216.00	225.00	230.00	228.00	227.00	223.00	227.00	222.00	222.00	216.00	208.00	194.00	182.00	177.00	179.00	181.00	187.00	197.00	115.00	115.00	115.00	115.00	116.00	133.00	134.00	139.00	144.00	148.00	154.00	159.00	167.00	173.00	188.00	192.00	198.00	201.00	205.00	202.00	193.00	213.00	228.00	254.00	263.00	272.00	281.00	284.00	292.00	296.00	296.00	303.00
313.00	323.00	319.00	300.00	295.00	247.00	234.00	296.00	308.00	294.00	296.00	294.00	279.00	271.00	333.00	349.00	358.00	363.00	329.00	299.00	253.00	210.00	238.00	312.00	370.00	394.00	412.00	391.00	376.00	349.00	310.00	318.00	353.00	376.00	389.00	355.00	342.00	321.00	292.00	258.00	281.00	318.00	340.00	355.00	365.00	387.00	387.00	380.00	384.00	390.00	393.00	396.00	400.00	403.00	416.00	423.00	423.00	427.00	434.00	432.00	426.00	419.00	413.00	421.00	412.00	404.00	396.00	363.00	348.00	331.00	318.00	312.00	339.00	364.00	386.00	384.00	385.00	394.00	398.00	391.00	369.00	339.00	348.00	339.00	291.00	221.00	308.00	380.00	368.00	353.00	333.00	333.00	345.00	357.00	326.00	337.00	368.00	372.00	322.00	320.00	313.00	292.00	275.00	250.00	227.00	230.00	264.00	281.00	278.00	280.00	288.00	291.00	285.00	300.00	302.00	291.00	276.00	241.00	226.00	140.00	139.00	160.00	153.00	154.00	180.00	204.00	222.00	215.00	211.00	215.00	227.00	228.00	228.00	224.00	215.00	209.00	209.00	208.00	215.00	213.00	212.00	209.00	207.00	208.00	209.00	209.00	213.00	215.00	236.00	242.00	232.00	226.00	221.00	224.00	230.00	235.00	244.00	279.00	306.00	323.00	323.00	349.00	373.00	371.00	366.00	366.00	376.00	365.00	346.00	329.00	314.00	263.00	253.00	245.00	238.00	240.00	260.00	274.00	281.00	293.00	297.00	292.00	282.00	294.00	294.00	302.00	303.00	303.00	299.00	296.00	292.00	286.00	275.00	265.00	260.00	257.00	257.00	256.00	254.00	250.00	241.00	233.00	179.00	177.00	203.00	204.00	216.00	225.00	230.00	228.00	227.00	223.00	227.00	222.00	222.00	216.00	208.00	194.00	182.00	177.00	179.00	181.00	187.00	197.00	115.00	115.00	115.00	115.00	116.00	133.00	134.00	139.00	144.00	148.00	154.00	159.00	167.00	173.00	188.00	192.00	198.00	201.00	205.00	202.00	193.00	213.00	228.00	254.00	263.00	272.00	281.00	284.00	292.00	296.00	296.00	303.00
320.00	327.00	315.00	309.00	308.00	280.00	246.00	266.00	281.00	290.00	293.00	289.00	288.00	285.00	338.00	350.00	354.00	353.00	334.00	325.00	279.00	221.00	221.00	278.00	344.00	376.00	401.00	415.00	390.00	357.00	346.00	379.00	401.00	409.00	406.00	388.00	379.00	368.00	346.00	311.00	260.00	271.00	285.00	289.00	303.00	340.00	348.00	350.00	356.00	359.00	357.00	364.00	372.00	379.00	397.00	402.00	408.00	419.00	428.00	422.00	419.00	419.00	421.00	424.00	426.00	428.00	424.00	405.00	394.00	382.00	373.00	369.00	378.00	375.00	362.00	345.00	378.00	382.00	375.00	365.00	356.00	330.00	323.00	311.00	238.00	299.00	352.00	400.00	386.00	370.00	353.00	354.00	358.00	352.00	336.00	355.00	368.00	357.00	296.00	302.00	288.00	265.00	245.00	218.00	208.00	197.00	195.00	199.00	211.00	212.00	215.00	221.00	233.00	233.00	234.00	223.00	216.00	198.00	185.00	132.00	134.00	153.00	171.00	202.00	245.00	266.00	289.00	296.00	296.00	289.00	291.00	273.00	255.00	246.00	243.00	243.00	251.00	269.00	279.00	274.00	263.00	250.00	238.00	234.00	226.00	225.00	226.00	229.00	281.00	287.00	248.00	236.00	229.00	229.00	232.00	237.00	249.00	284.00	310.00	323.00	322.00	354.00	379.00	373.00	363.00	348.00	322.00	306.00	291.00	276.00	263.00	249.00	243.00	239.00	239.00	247.00	256.00	264.00	267.00	257.00	249.00	243.00	227.00	227.00	224.00	227.00	231.00	238.00	252.00	258.00	260.00	261.00	257.00	259.00	263.00	264.00	263.00	255.00	251.00	246.00	238.00	231.00	185.00	172.00	166.00	167.00	177.00	181.00	189.00	194.00	201.00	221.00	228.00	239.00	245.00	200.00	192.00	204.00	216.00	234.00	242.00	245.00	247.00	250.00	115.00	115.00	115.00	115.00	116.00	131.00	130.00	135.00	139.00	141.00	145.00	149.00	152.00	154.00	160.00	169.00	174.00	180.00	180.00	174.00	187.00	219.00	237.00	269.00	288.00	301.00	304.00	300.00	319.00	327.00	330.00	332.00
320.00	327.00	315.00	309.00	308.00	280.00	246.00	266.00	281.00	290.00	293.00	289.00	288.00	285.00	338.00	350.00	354.00	353.00	334.00	325.00	279.00	221.00	221.00	278.00	344.00	376.00	401.00	415.00	390.00	357.00	346.00	379.00	401.00	409.00	406.00	388.00	379.00	368.00	346.00	311.00	260.00	271.00	285.00	289.00	303.00	340.00	348.00	350.00	356.00	359.00	357.00	364.00	372.00	379.00	397.00	402.00	408.00	419.00	428.00	422.00	419.00	419.00	421.00	424.00	426.00	428.00	424.00	405.00	394.00	382.00	373.00	369.00	378.00	375.00	362.00	345.00	378.00	382.00	375.00	365.00	356.00	330.00	323.00	311.00	238.00	299.00	352.00	400.00	386.00	370.00	353.00	354.00	358.00	352.00	336.00	355.00	368.00	357.00	296.00	302.00	288.00	265.00	245.00	218.00	208.00	197.00	195.00	199.00	211.00	212.00	215.00	221.00	233.00	233.00	234.00	223.00	216.00	198.00	185.00	132.00	134.00	153.00	171.00	202.00	245.00	266.00	289.00	296.00	296.00	289.00	291.00	273.00	255.00	246.00	243.00	243.00	251.00	269.00	279.00	274.00	263.00	250.00	238.00	234.00	226.00	225.00	226.00	229.00	281.00	287.00	248.00	236.00	229.00	229.00	232.00	237.00	249.00	284.00	310.00	323.00	322.00	354.00	379.00	373.00	363.00	348.00	322.00	306.00	291.00	276.00	263.00	249.00	243.00	239.00	239.00	247.00	256.00	264.00	267.00	257.00	249.00	243.00	227.00	227.00	224.00	227.00	231.00	238.00	252.00	258.00	260.00	261.00	257.00	259.00	263.00	264.00	263.00	255.00	251.00	246.00	238.00	231.00	185.00	172.00	166.00	167.00	177.00	181.00	189.00	194.00	201.00	221.00	228.00	239.00	245.00	200.00	192.00	204.00	216.00	234.00	242.00	245.00	247.00	250.00	115.00	115.00	115.00	115.00	116.00	131.00	130.00	135.00	139.00	141.00	145.00	149.00	152.00	154.00	160.00	169.00	174.00	180.00	180.00	174.00	187.00	219.00	237.00	269.00	288.00	301.00	304.00	300.00	319.00	327.00	330.00	332.00
323.00	339.00	338.00	342.00	344.00	312.00	268.00	258.00	287.00	311.00	310.00	313.00	305.00	297.00	345.00	353.00	357.00	357.00	347.00	331.00	298.00	267.00	242.00	243.00	307.00	336.00	359.00	400.00	399.00	398.00	412.00	433.00	436.00	427.00	415.00	391.00	371.00	352.00	327.00	300.00	266.00	281.00	321.00	321.00	310.00	309.00	310.00	313.00	319.00	335.00	358.00	372.00	382.00	391.00	388.00	385.00	404.00	410.00	409.00	401.00	392.00	389.00	387.00	378.00	381.00	384.00	385.00	394.00	401.00	407.00	409.00	413.00	400.00	376.00	331.00	319.00	371.00	370.00	362.00	348.00	338.00	319.00	262.00	238.00	273.00	358.00	373.00	399.00	393.00	376.00	350.00	348.00	345.00	342.00	363.00	362.00	340.00	315.00	266.00	230.00	224.00	218.00	217.00	220.00	221.00	217.00	211.00	197.00	167.00	169.00	172.00	171.00	170.00	175.00	170.00	163.00	157.00	142.00	136.00	131.00	133.00	179.00	202.00	220.00	235.00	249.00	261.00	274.00	284.00	300.00	310.00	309.00	298.00	297.00	304.00	296.00	286.00	291.00	303.00	359.00	353.00	332.00	306.00	293.00	293.00	271.00	256.00	244.00	274.00	281.00	247.00	240.00	234.00	238.00	241.00	243.00	247.00	262.00	280.00	297.00	308.00	317.00	324.00	321.00	316.00	306.00	278.00	266.00	261.00	262.00	268.00	273.00	264.00	273.00	288.00	308.00	309.00	302.00	300.00	275.00	259.00	255.00	254.00	254.00	228.00	216.00	205.00	200.00	199.00	201.00	202.00	203.00	210.00	216.00	218.00	219.00	218.00	210.00	211.00	210.00	206.00	204.00	190.00	187.00	177.00	175.00	166.00	164.00	167.00	174.00	185.00	206.00	215.00	228.00	230.00	205.00	237.00	266.00	270.00	271.00	255.00	251.00	246.00	239.00	117.00	115.00	115.00	115.00	117.00	127.00	131.00	131.00	132.00	135.00	141.00	141.00	142.00	143.00	145.00	149.00	153.00	157.00	158.00	160.00	169.00	188.00	196.00	221.00	228.00	236.00	238.00	239.00	250.00	256.00	260.00	267.00
323.00	339.00	338.00	342.00	344.00	312.00	268.00	258.00	287.00	311.00	310.00	313.00	305.00	297.00	345.00	353.00	357.00	357.00	347.00	331.00	298.00	267.00	242.00	243.00	307.00	336.00	359.00	400.00	399.00	398.00	412.00	433.00	436.00	427.00	415.00	391.00	371.00	352.00	327.00	300.00	266.00	281.00	321.00	321.00	310.00	309.00	310.00	313.00	319.00	335.00	358.00	372.00	382.00	391.00	388.00	385.00	404.00	410.00	409.00	401.00	392.00	389.00	387.00	378.00	381.00	384.00	385.00	394.00	401.00	407.00	409.00	413.00	400.00	376.00	331.00	319.00	371.00	370.00	362.00	348.00	338.00	319.00	262.00	238.00	273.00	358.00	373.00	399.00	393.00	376.00	350.00	348.00	345.00	342.00	363.00	362.00	340.00	315.00	266.00	230.00	224.00	218.00	217.00	220.00	221.00	217.00	211.00	197.00	167.00	169.00	172.00	171.00	170.00	175.00	170.00	163.00	157.00	142.00	136.00	131.00	133.00	179.00	202.00	220.00	235.00	249.00	261.00	274.00	284.00	300.00	310.00	309.00	298.00	297.00	304.00	296.00	286.00	291.00	303.00	359.00	353.00	332.00	306.00	293.00	293.00	271.00	256.00	244.00	274.00	281.00	247.00	240.00	234.00	238.00	241.00	243.00	247.00	262.00	280.00	297.00	308.00	317.00	324.00	321.00	316.00	306.00	278.00	266.00	261.00	262.00	268.00	273.00	264.00	273.00	288.00	308.00	309.00	302.00	300.00	275.00	259.00	255.00	254.00	254.00	228.00	216.00	205.00	200.00	199.00	201.00	202.00	203.00	210.00	216.00	218.00	219.00	218.00	210.00	211.00	210.00	206.00	204.00	190.00	187.00	177.00	175.00	166.00	164.00	167.00	174.00	185.00	206.00	215.00	228.00	230.00	205.00	237.00	266.00	270.00	271.00	255.00	251.00	246.00	239.00	117.00	115.00	115.00	115.00	117.00	127.00	131.00	131.00	132.00	135.00	141.00	141.00	142.00	143.00	145.00	149.00	153.00	157.00	158.00	160.00	169.00	188.00	196.00	221.00	228.00	236.00	238.00	239.00	250.00	256.00	260.00	267.00
348.00	355.00	361.00	358.00	339.00	287.00	265.00	260.00	293.00	332.00	339.00	335.00	323.00	315.00	344.00	348.00	349.00	355.00	332.00	314.00	317.00	331.00	313.00	226.00	278.00	300.00	328.00	393.00	418.00	434.00	442.00	439.00	421.00	411.00	399.00	369.00	342.00	326.00	328.00	337.00	294.00	290.00	354.00	361.00	357.00	356.00	355.00	360.00	357.00	344.00	351.00	356.00	360.00	365.00	375.00	381.00	390.00	398.00	403.00	399.00	386.00	374.00	367.00	356.00	353.00	347.00	342.00	348.00	361.00	377.00	383.00	399.00	376.00	349.00	314.00	290.00	373.00	360.00	352.00	349.00	325.00	241.00	255.00	323.00	373.00	420.00	408.00	387.00	372.00	359.00	364.00	373.00	372.00	362.00	329.00	302.00	279.00	266.00	258.00	238.00	249.00	251.00	250.00	244.00	241.00	235.00	226.00	208.00	175.00	164.00	157.00	152.00	147.00	148.00	146.00	150.00	157.00	167.00	164.00	130.00	131.00	154.00	178.00	195.00	205.00	212.00	243.00	270.00	278.00	293.00	318.00	325.00	329.00	332.00	334.00	318.00	312.00	310.00	312.00	398.00	419.00	394.00	372.00	361.00	342.00	308.00	281.00	273.00	261.00	254.00	243.00	240.00	245.00	253.00	252.00	255.00	259.00	261.00	266.00	271.00	274.00	283.00	287.00	285.00	282.00	279.00	273.00	273.00	289.00	307.00	318.00	313.00	313.00	317.00	335.00	331.00	313.00	322.00	348.00	320.00	324.00	317.00	325.00	327.00	310.00	296.00	264.00	231.00	200.00	193.00	189.00	188.00	186.00	190.00	191.00	192.00	191.00	187.00	187.00	187.00	185.00	185.00	180.00	178.00	174.00	172.00	166.00	169.00	176.00	182.00	187.00	197.00	202.00	206.00	209.00	208.00	221.00	234.00	240.00	236.00	221.00	214.00	203.00	189.00	119.00	116.00	116.00	116.00	118.00	125.00	126.00	131.00	130.00	132.00	134.00	136.00	137.00	139.00	141.00	142.00	144.00	147.00	152.00	154.00	157.00	168.00	174.00	188.00	191.00	195.00	200.00	205.00	210.00	212.00	216.00	226.00
348.00	355.00	361.00	358.00	339.00	287.00	265.00	260.00	293.00	332.00	339.00	335.00	323.00	315.00	344.00	348.00	349.00	355.00	332.00	314.00	317.00	331.00	313.00	226.00	278.00	300.00	328.00	393.00	418.00	434.00	442.00	439.00	421.00	411.00	399.00	369.00	342.00	326.00	328.00	337.00	294.00	290.00	354.00	361.00	357.00	356.00	355.00	360.00	357.00	344.00	351.00	356.00	360.00	365.00	375.00	381.00	390.00	398.00	403.00	399.00	386.00	374.00	367.00	356.00	353.00	347.00	342.00	348.00	361.00	377.00	383.00	399.00	376.00	349.00	314.00	290.00	373.00	360.00	352.00	349.00	325.00	241.00	255.00	323.00	373.00	420.00	408.00	387.00	372.00	359.00	364.00	373.00	372.00	362.00	329.00	302.00	279.00	266.00	258.00	238.00	249.00	251.00	250.00	244.00	241.00	235.00	226.00	208.00	175.00	164.00	157.00	152.00	147.00	148.00	146.00	150.00	157.00	167.00	164.00	130.00	131.00	154.00	178.00	195.00	205.00	212.00	243.00	270.00	278.00	293.00	318.00	325.00	329.00	332.00	334.00	318.00	312.00	310.00	312.00	398.00	419.00	394.00	372.00	361.00	342.00	308.00	281.00	273.00	261.00	254.00	243.00	240.00	245.00	253.00	252.00	255.00	259.00	261.00	266.00	271.00	274.00	283.00	287.00	285.00	282.00	279.00	273.00	273.00	289.00	307.00	318.00	313.00	313.00	317.00	335.00	331.00	313.00	322.00	348.00	320.00	324.00	317.00	325.00	327.00	310.00	296.00	264.00	231.00	200.00	193.00	189.00	188.00	186.00	190.00	191.00	192.00	191.00	187.00	187.00	187.00	185.00	185.00	180.00	178.00	174.00	172.00	166.00	169.00	176.00	182.00	187.00	197.00	202.00	206.00	209.00	208.00	221.00	234.00	240.00	236.00	221.00	214.00	203.00	189.00	119.00	116.00	116.00	116.00	118.00	125.00	126.00	131.00	130.00	132.00	134.00	136.00	137.00	139.00	141.00	142.00	144.00	147.00	152.00	154.00	157.00	168.00	174.00	188.00	191.00	195.00	200.00	205.00	210.00	212.00	216.00	226.00
302.00	319.00	336.00	327.00	299.00	307.00	303.00	315.00	308.00	302.00	329.00	350.00	360.00	361.00	363.00	370.00	375.00	377.00	387.00	382.00	367.00	348.00	330.00	283.00	281.00	359.00	384.00	372.00	377.00	383.00	387.00	387.00	401.00	404.00	405.00	387.00	364.00	375.00	387.00	387.00	359.00	342.00	328.00	315.00	318.00	377.00	393.00	400.00	400.00	398.00	406.00	409.00	403.00	404.00	412.00	414.00	422.00	429.00	439.00	437.00	433.00	428.00	419.00	382.00	388.00	398.00	401.00	356.00	344.00	335.00	331.00	336.00	345.00	324.00	293.00	268.00	288.00	267.00	250.00	274.00	305.00	335.00	369.00	398.00	412.00	409.00	397.00	387.00	392.00	397.00	356.00	336.00	329.00	332.00	325.00	320.00	316.00	306.00	275.00	225.00	209.00	198.00	191.00	178.00	175.00	167.00	167.00	166.00	153.00	156.00	161.00	166.00	187.00	228.00	260.00	272.00	252.00	206.00	182.00	141.00	136.00	132.00	132.00	134.00	140.00	154.00	229.00	273.00	291.00	317.00	315.00	313.00	317.00	321.00	331.00	347.00	359.00	364.00	354.00	363.00	375.00	379.00	381.00	382.00	360.00	332.00	285.00	250.00	241.00	231.00	232.00	238.00	249.00	259.00	273.00	287.00	304.00	333.00	342.00	368.00	365.00	361.00	367.00	361.00	354.00	344.00	322.00	313.00	323.00	337.00	365.00	370.00	381.00	376.00	365.00	342.00	342.00	357.00	376.00	371.00	353.00	342.00	325.00	315.00	291.00	268.00	259.00	252.00	220.00	209.00	203.00	197.00	188.00	184.00	183.00	182.00	182.00	180.00	182.00	182.00	181.00	182.00	179.00	179.00	180.00	182.00	188.00	188.00	189.00	192.00	195.00	203.00	206.00	208.00	208.00	198.00	188.00	177.00	168.00	163.00	154.00	154.00	149.00	143.00	116.00	116.00	116.00	116.00	123.00	129.00	129.00	128.00	127.00	130.00	133.00	134.00	135.00	137.00	139.00	143.00	145.00	150.00	154.00	160.00	164.00	169.00	177.00	195.00	205.00	214.00	223.00	239.00	245.00	240.00	237.00	230.00
302.00	319.00	336.00	327.00	299.00	307.00	303.00	315.00	308.00	302.00	329.00	350.00	360.00	361.00	363.00	370.00	375.00	377.00	387.00	382.00	367.00	348.00	330.00	283.00	281.00	359.00	384.00	372.00	377.00	383.00	387.00	387.00	401.00	404.00	405.00	387.00	364.00	375.00	387.00	387.00	359.00	342.00	328.00	315.00	318.00	377.00	393.00	400.00	400.00	398.00	406.00	409.00	403.00	404.00	412.00	414.00	422.00	429.00	439.00	437.00	433.00	428.00	419.00	382.00	388.00	398.00	401.00	356.00	344.00	335.00	331.00	336.00	345.00	324.00	293.00	268.00	288.00	267.00	250.00	274.00	305.00	335.00	369.00	398.00	412.00	409.00	397.00	387.00	392.00	397.00	356.00	336.00	329.00	332.00	325.00	320.00	316.00	306.00	275.00	225.00	209.00	198.00	191.00	178.00	175.00	167.00	167.00	166.00	153.00	156.00	161.00	166.00	187.00	228.00	260.00	272.00	252.00	206.00	182.00	141.00	136.00	132.00	132.00	134.00	140.00	154.00	229.00	273.00	291.00	317.00	315.00	313.00	317.00	321.00	331.00	347.00	359.00	364.00	354.00	363.00	375.00	379.00	381.00	382.00	360.00	332.00	285.00	250.00	241.00	231.00	232.00	238.00	249.00	259.00	273.00	287.00	304.00	333.00	342.00	368.00	365.00	361.00	367.00	361.00	354.00	344.00	322.00	313.00	323.00	337.00	365.00	370.00	381.00	376.00	365.00	342.00	342.00	357.00	376.00	371.00	353.00	342.00	325.00	315.00	291.00	268.00	259.00	252.00	220.00	209.00	203.00	197.00	188.00	184.00	183.00	182.00	182.00	180.00	182.00	182.00	181.00	182.00	179.00	179.00	180.00	182.00	188.00	188.00	189.00	192.00	195.00	203.00	206.00	208.00	208.00	198.00	188.00	177.00	168.00	163.00	154.00	154.00	149.00	143.00	116.00	116.00	116.00	116.00	123.00	129.00	129.00	128.00	127.00	130.00	133.00	134.00	135.00	137.00	139.00	143.00	145.00	150.00	154.00	160.00	164.00	169.00	177.00	195.00	205.00	214.00	223.00	239.00	245.00	240.00	237.00	230.00
306.00	323.00	327.00	319.00	311.00	322.00	332.00	348.00	346.00	293.00	323.00	353.00	369.00	371.00	378.00	382.00	386.00	387.00	381.00	373.00	356.00	331.00	302.00	267.00	315.00	361.00	382.00	379.00	371.00	365.00	375.00	390.00	413.00	421.00	424.00	398.00	384.00	387.00	399.00	396.00	375.00	374.00	372.00	361.00	348.00	330.00	337.00	352.00	364.00	389.00	401.00	401.00	394.00	392.00	403.00	412.00	426.00	433.00	447.00	447.00	439.00	428.00	416.00	404.00	416.00	419.00	411.00	385.00	369.00	353.00	347.00	340.00	341.00	325.00	299.00	277.00	295.00	292.00	297.00	327.00	360.00	388.00	399.00	404.00	404.00	398.00	402.00	386.00	377.00	371.00	370.00	372.00	363.00	349.00	328.00	318.00	310.00	299.00	280.00	233.00	226.00	211.00	194.00	177.00	165.00	162.00	161.00	161.00	158.00	163.00	176.00	184.00	222.00	278.00	344.00	373.00	327.00	229.00	212.00	182.00	175.00	135.00	135.00	134.00	134.00	138.00	183.00	215.00	230.00	271.00	270.00	257.00	260.00	279.00	311.00	354.00	358.00	356.00	354.00	341.00	343.00	348.00	361.00	371.00	326.00	280.00	252.00	233.00	216.00	216.00	242.00	254.00	264.00	289.00	300.00	327.00	351.00	397.00	418.00	436.00	449.00	456.00	400.00	380.00	366.00	351.00	334.00	345.00	360.00	375.00	381.00	371.00	362.00	361.00	355.00	358.00	375.00	397.00	401.00	375.00	362.00	354.00	338.00	329.00	315.00	307.00	301.00	293.00	267.00	252.00	240.00	227.00	208.00	194.00	191.00	192.00	193.00	193.00	195.00	195.00	194.00	192.00	191.00	193.00	194.00	196.00	193.00	193.00	196.00	199.00	199.00	203.00	202.00	184.00	178.00	172.00	173.00	174.00	177.00	184.00	195.00	204.00	203.00	197.00	116.00	116.00	116.00	116.00	122.00	127.00	128.00	128.00	128.00	128.00	132.00	134.00	134.00	136.00	140.00	142.00	145.00	149.00	154.00	158.00	165.00	180.00	187.00	212.00	227.00	240.00	253.00	284.00	291.00	292.00	286.00	264.00
306.00	323.00	327.00	319.00	311.00	322.00	332.00	348.00	346.00	293.00	323.00	353.00	369.00	371.00	378.00	382.00	386.00	387.00	381.00	373.00	356.00	331.00	302.00	267.00	315.00	361.00	382.00	379.00	371.00	365.00	375.00	390.00	413.00	421.00	424.00	398.00	384.00	387.00	399.00	396.00	375.00	374.00	372.00	361.00	348.00	330.00	337.00	352.00	364.00	389.00	401.00	401.00	394.00	392.00	403.00	412.00	426.00	433.00	447.00	447.00	439.00	428.00	416.00	404.00	416.00	419.00	411.00	385.00	369.00	353.00	347.00	340.00	341.00	325.00	299.00	277.00	295.00	292.00	297.00	327.00	360.00	388.00	399.00	404.00	404.00	398.00	402.00	386.00	377.00	371.00	370.00	372.00	363.00	349.00	328.00	318.00	310.00	299.00	280.00	233.00	226.00	211.00	194.00	177.00	165.00	162.00	161.00	161.00	158.00	163.00	176.00	184.00	222.00	278.00	344.00	373.00	327.00	229.00	212.00	182.00	175.00	135.00	135.00	134.00	134.00	138.00	183.00	215.00	230.00	271.00	270.00	257.00	260.00	279.00	311.00	354.00	358.00	356.00	354.00	341.00	343.00	348.00	361.00	371.00	326.00	280.00	252.00	233.00	216.00	216.00	242.00	254.00	264.00	289.00	300.00	327.00	351.00	397.00	418.00	436.00	449.00	456.00	400.00	380.00	366.00	351.00	334.00	345.00	360.00	375.00	381.00	371.00	362.00	361.00	355.00	358.00	375.00	397.00	401.00	375.00	362.00	354.00	338.00	329.00	315.00	307.00	301.00	293.00	267.00	252.00	240.00	227.00	208.00	194.00	191.00	192.00	193.00	193.00	195.00	195.00	194.00	192.00	191.00	193.00	194.00	196.00	193.00	193.00	196.00	199.00	199.00	203.00	202.00	184.00	178.00	172.00	173.00	174.00	177.00	184.00	195.00	204.00	203.00	197.00	116.00	116.00	116.00	116.00	122.00	127.00	128.00	128.00	128.00	128.00	132.00	134.00	134.00	136.00	140.00	142.00	145.00	149.00	154.00	158.00	165.00	180.00	187.00	212.00	227.00	240.00	253.00	284.00	291.00	292.00	286.00	264.00
325.00	343.00	337.00	323.00	336.00	341.00	351.00	365.00	365.00	309.00	305.00	332.00	336.00	346.00	367.00	378.00	380.00	373.00	346.00	333.00	316.00	303.00	295.00	266.00	287.00	302.00	318.00	334.00	347.00	365.00	381.00	390.00	402.00	411.00	415.00	401.00	399.00	399.00	403.00	404.00	400.00	394.00	380.00	362.00	346.00	346.00	335.00	327.00	335.00	347.00	355.00	363.00	375.00	390.00	420.00	431.00	439.00	444.00	452.00	447.00	435.00	426.00	419.00	414.00	413.00	413.00	412.00	379.00	358.00	349.00	354.00	347.00	313.00	286.00	292.00	304.00	336.00	364.00	366.00	371.00	388.00	400.00	390.00	387.00	383.00	379.00	391.00	417.00	422.00	422.00	397.00	376.00	355.00	341.00	338.00	330.00	329.00	329.00	320.00	294.00	271.00	240.00	216.00	187.00	178.00	175.00	174.00	171.00	173.00	170.00	181.00	201.00	236.00	251.00	293.00	359.00	395.00	317.00	296.00	242.00	222.00	155.00	135.00	134.00	134.00	135.00	147.00	167.00	180.00	203.00	208.00	209.00	225.00	254.00	277.00	330.00	339.00	343.00	347.00	330.00	334.00	344.00	358.00	361.00	310.00	265.00	234.00	217.00	212.00	224.00	250.00	267.00	290.00	360.00	377.00	383.00	412.00	482.00	498.00	502.00	489.00	439.00	412.00	391.00	372.00	360.00	353.00	367.00	397.00	427.00	431.00	383.00	373.00	370.00	363.00	381.00	396.00	414.00	410.00	407.00	402.00	400.00	364.00	348.00	323.00	314.00	308.00	301.00	284.00	272.00	255.00	237.00	220.00	217.00	215.00	215.00	216.00	218.00	218.00	216.00	214.00	210.00	212.00	215.00	218.00	218.00	218.00	213.00	213.00	212.00	211.00	205.00	199.00	198.00	203.00	218.00	229.00	237.00	246.00	250.00	250.00	236.00	220.00	199.00	116.00	116.00	116.00	116.00	119.00	127.00	130.00	128.00	130.00	129.00	131.00	132.00	134.00	135.00	141.00	144.00	143.00	147.00	155.00	160.00	167.00	183.00	191.00	219.00	233.00	247.00	264.00	318.00	325.00	325.00	319.00	287.00
325.00	341.00	334.00	326.00	353.00	362.00	366.00	377.00	378.00	337.00	306.00	324.00	336.00	342.00	379.00	391.00	376.00	358.00	338.00	344.00	349.00	338.00	308.00	275.00	330.00	345.00	356.00	369.00	370.00	375.00	388.00	395.00	404.00	409.00	414.00	413.00	410.00	411.00	412.00	408.00	393.00	378.00	365.00	356.00	362.00	372.00	359.00	338.00	362.00	368.00	356.00	364.00	388.00	399.00	433.00	438.00	435.00	445.00	454.00	456.00	450.00	434.00	419.00	399.00	392.00	395.00	406.00	373.00	359.00	363.00	367.00	339.00	300.00	316.00	345.00	349.00	322.00	353.00	366.00	366.00	363.00	347.00	347.00	356.00	374.00	419.00	436.00	451.00	426.00	400.00	372.00	358.00	356.00	367.00	368.00	370.00	372.00	368.00	354.00	331.00	295.00	261.00	241.00	229.00	217.00	199.00	188.00	180.00	193.00	191.00	205.00	238.00	287.00	305.00	333.00	379.00	416.00	381.00	346.00	255.00	225.00	175.00	150.00	140.00	135.00	134.00	138.00	142.00	157.00	187.00	223.00	226.00	233.00	230.00	230.00	277.00	289.00	289.00	289.00	321.00	326.00	325.00	316.00	280.00	238.00	222.00	207.00	199.00	220.00	237.00	270.00	295.00	346.00	404.00	459.00	485.00	477.00	480.00	485.00	470.00	450.00	449.00	449.00	423.00	411.00	377.00	376.00	397.00	420.00	439.00	435.00	395.00	385.00	376.00	370.00	403.00	414.00	417.00	408.00	404.00	385.00	369.00	349.00	339.00	322.00	313.00	306.00	299.00	284.00	273.00	255.00	256.00	278.00	274.00	270.00	263.00	274.00	274.00	268.00	255.00	245.00	243.00	258.00	257.00	255.00	254.00	246.00	242.00	239.00	234.00	230.00	220.00	208.00	237.00	247.00	258.00	265.00	267.00	266.00	263.00	247.00	237.00	226.00	200.00	127.00	116.00	116.00	116.00	116.00	130.00	128.00	126.00	128.00	129.00	130.00	131.00	133.00	134.00	138.00	139.00	143.00	146.00	158.00	161.00	168.00	185.00	196.00	221.00	232.00	248.00	280.00	370.00	395.00	384.00	356.00	359.00
320.00	319.00	316.00	325.00	351.00	377.00	372.00	363.00	354.00	325.00	309.00	322.00	346.00	362.00	390.00	381.00	368.00	362.00	359.00	366.00	363.00	344.00	309.00	263.00	341.00	367.00	379.00	391.00	391.00	390.00	386.00	387.00	394.00	398.00	400.00	403.00	411.00	414.00	412.00	402.00	384.00	375.00	371.00	374.00	383.00	387.00	370.00	348.00	351.00	387.00	376.00	363.00	368.00	382.00	402.00	403.00	422.00	427.00	434.00	439.00	437.00	430.00	419.00	398.00	391.00	384.00	377.00	338.00	326.00	332.00	335.00	308.00	344.00	364.00	369.00	351.00	297.00	305.00	311.00	316.00	323.00	365.00	388.00	412.00	425.00	491.00	470.00	434.00	415.00	395.00	367.00	365.00	404.00	425.00	415.00	422.00	434.00	429.00	406.00	368.00	338.00	313.00	291.00	257.00	247.00	245.00	245.00	240.00	228.00	225.00	255.00	300.00	361.00	378.00	393.00	404.00	418.00	411.00	359.00	272.00	229.00	186.00	177.00	165.00	141.00	136.00	137.00	137.00	139.00	162.00	197.00	191.00	188.00	191.00	188.00	215.00	228.00	226.00	230.00	270.00	258.00	238.00	223.00	211.00	196.00	194.00	197.00	213.00	235.00	248.00	303.00	354.00	392.00	467.00	510.00	526.00	512.00	476.00	452.00	454.00	445.00	421.00	416.00	398.00	385.00	374.00	377.00	397.00	408.00	413.00	406.00	384.00	381.00	378.00	379.00	406.00	417.00	415.00	402.00	360.00	352.00	346.00	336.00	332.00	315.00	306.00	303.00	300.00	283.00	276.00	284.00	295.00	302.00	302.00	300.00	295.00	292.00	286.00	282.00	279.00	277.00	278.00	278.00	275.00	270.00	265.00	255.00	249.00	246.00	242.00	237.00	226.00	229.00	260.00	272.00	278.00	279.00	276.00	272.00	267.00	250.00	234.00	205.00	201.00	157.00	116.00	116.00	116.00	116.00	130.00	134.00	128.00	128.00	128.00	129.00	131.00	132.00	135.00	138.00	141.00	143.00	147.00	156.00	161.00	170.00	182.00	193.00	218.00	228.00	240.00	260.00	315.00	360.00	412.00	409.00	392.00
320.00	319.00	316.00	325.00	351.00	377.00	372.00	363.00	354.00	325.00	309.00	322.00	346.00	362.00	390.00	381.00	368.00	362.00	359.00	366.00	363.00	344.00	309.00	263.00	341.00	367.00	379.00	391.00	391.00	390.00	386.00	387.00	394.00	398.00	400.00	403.00	411.00	414.00	412.00	402.00	384.00	375.00	371.00	374.00	383.00	387.00	370.00	348.00	351.00	387.00	376.00	363.00	368.00	382.00	402.00	403.00	422.00	427.00	434.00	439.00	437.00	430.00	419.00	398.00	391.00	384.00	377.00	338.00	326.00	332.00	335.00	308.00	344.00	364.00	369.00	351.00	297.00	305.00	311.00	316.00	323.00	365.00	388.00	412.00	425.00	491.00	470.00	434.00	415.00	395.00	367.00	365.00	404.00	425.00	415.00	422.00	434.00	429.00	406.00	368.00	338.00	313.00	291.00	257.00	247.00	245.00	245.00	240.00	228.00	225.00	255.00	300.00	361.00	378.00	393.00	404.00	418.00	411.00	359.00	272.00	229.00	186.00	177.00	165.00	141.00	136.00	137.00	137.00	139.00	162.00	197.00	191.00	188.00	191.00	188.00	215.00	228.00	226.00	230.00	270.00	258.00	238.00	223.00	211.00	196.00	194.00	197.00	213.00	235.00	248.00	303.00	354.00	392.00	467.00	510.00	526.00	512.00	476.00	452.00	454.00	445.00	421.00	416.00	398.00	385.00	374.00	377.00	397.00	408.00	413.00	406.00	384.00	381.00	378.00	379.00	406.00	417.00	415.00	402.00	360.00	352.00	346.00	336.00	332.00	315.00	306.00	303.00	300.00	283.00	276.00	284.00	295.00	302.00	302.00	300.00	295.00	292.00	286.00	282.00	279.00	277.00	278.00	278.00	275.00	270.00	265.00	255.00	249.00	246.00	242.00	237.00	226.00	229.00	260.00	272.00	278.00	279.00	276.00	272.00	267.00	250.00	234.00	205.00	201.00	157.00	116.00	116.00	116.00	116.00	130.00	134.00	128.00	128.00	128.00	129.00	131.00	132.00	135.00	138.00	141.00	143.00	147.00	156.00	161.00	170.00	182.00	193.00	218.00	228.00	240.00	260.00	315.00	360.00	412.00	409.00	392.00
309.00	313.00	330.00	347.00	371.00	376.00	371.00	360.00	352.00	323.00	313.00	327.00	345.00	357.00	394.00	395.00	390.00	381.00	380.00	370.00	359.00	332.00	293.00	285.00	371.00	397.00	397.00	385.00	384.00	381.00	374.00	368.00	369.00	366.00	362.00	368.00	380.00	386.00	394.00	399.00	390.00	388.00	385.00	384.00	385.00	379.00	371.00	358.00	347.00	384.00	385.00	377.00	369.00	367.00	378.00	387.00	401.00	400.00	417.00	425.00	431.00	437.00	445.00	419.00	404.00	400.00	399.00	344.00	330.00	314.00	308.00	325.00	375.00	368.00	354.00	335.00	324.00	334.00	351.00	362.00	362.00	408.00	428.00	453.00	488.00	516.00	520.00	506.00	466.00	428.00	376.00	378.00	410.00	447.00	492.00	488.00	495.00	486.00	441.00	405.00	366.00	338.00	317.00	293.00	285.00	291.00	304.00	315.00	272.00	267.00	294.00	319.00	343.00	361.00	396.00	420.00	405.00	394.00	352.00	298.00	269.00	202.00	187.00	176.00	162.00	143.00	136.00	136.00	137.00	138.00	147.00	149.00	155.00	165.00	166.00	180.00	189.00	187.00	199.00	211.00	203.00	192.00	184.00	184.00	195.00	204.00	216.00	241.00	275.00	291.00	359.00	388.00	441.00	529.00	519.00	510.00	505.00	499.00	474.00	443.00	420.00	408.00	385.00	379.00	373.00	370.00	383.00	397.00	409.00	411.00	408.00	401.00	394.00	394.00	403.00	425.00	432.00	413.00	386.00	344.00	332.00	328.00	324.00	315.00	309.00	302.00	297.00	298.00	302.00	302.00	304.00	309.00	317.00	318.00	315.00	312.00	305.00	298.00	298.00	296.00	295.00	293.00	283.00	277.00	271.00	266.00	258.00	248.00	241.00	238.00	237.00	251.00	259.00	277.00	285.00	282.00	276.00	269.00	264.00	256.00	236.00	219.00	205.00	228.00	202.00	117.00	116.00	116.00	116.00	123.00	135.00	132.00	126.00	128.00	130.00	130.00	131.00	132.00	136.00	139.00	144.00	147.00	153.00	161.00	164.00	177.00	188.00	211.00	223.00	238.00	254.00	302.00	342.00	415.00	454.00	445.00
300.00	327.00	339.00	352.00	390.00	381.00	372.00	359.00	338.00	327.00	323.00	343.00	364.00	381.00	406.00	416.00	411.00	407.00	376.00	355.00	342.00	320.00	304.00	320.00	361.00	382.00	379.00	374.00	371.00	371.00	363.00	350.00	343.00	339.00	336.00	351.00	369.00	378.00	386.00	395.00	393.00	386.00	380.00	376.00	371.00	364.00	361.00	354.00	350.00	366.00	380.00	387.00	385.00	381.00	375.00	380.00	385.00	392.00	416.00	428.00	436.00	446.00	445.00	411.00	393.00	375.00	369.00	351.00	332.00	315.00	324.00	338.00	348.00	342.00	336.00	339.00	351.00	348.00	355.00	376.00	381.00	415.00	434.00	459.00	484.00	507.00	535.00	495.00	454.00	429.00	391.00	385.00	406.00	434.00	526.00	510.00	501.00	499.00	447.00	397.00	373.00	349.00	335.00	318.00	312.00	318.00	326.00	329.00	303.00	299.00	300.00	302.00	312.00	327.00	361.00	385.00	376.00	356.00	334.00	304.00	286.00	222.00	199.00	181.00	162.00	149.00	140.00	138.00	136.00	139.00	141.00	141.00	140.00	142.00	145.00	158.00	165.00	165.00	166.00	172.00	171.00	175.00	183.00	193.00	216.00	222.00	237.00	260.00	310.00	349.00	413.00	477.00	510.00	510.00	501.00	490.00	470.00	483.00	482.00	454.00	419.00	400.00	386.00	386.00	387.00	386.00	394.00	405.00	417.00	430.00	443.00	441.00	430.00	433.00	455.00	421.00	399.00	367.00	343.00	318.00	313.00	314.00	303.00	302.00	305.00	314.00	321.00	324.00	320.00	319.00	318.00	316.00	316.00	318.00	314.00	309.00	308.00	307.00	301.00	298.00	296.00	294.00	281.00	273.00	266.00	260.00	249.00	246.00	247.00	252.00	259.00	272.00	276.00	278.00	278.00	270.00	263.00	256.00	249.00	239.00	232.00	232.00	235.00	243.00	242.00	131.00	116.00	116.00	116.00	116.00	126.00	134.00	130.00	127.00	129.00	130.00	131.00	132.00	135.00	137.00	140.00	144.00	151.00	154.00	161.00	174.00	181.00	204.00	220.00	234.00	251.00	335.00	387.00	427.00	468.00	499.00
300.00	327.00	339.00	352.00	390.00	381.00	372.00	359.00	338.00	327.00	323.00	343.00	364.00	381.00	406.00	416.00	411.00	407.00	376.00	355.00	342.00	320.00	304.00	320.00	361.00	382.00	379.00	374.00	371.00	371.00	363.00	350.00	343.00	339.00	336.00	351.00	369.00	378.00	386.00	395.00	393.00	386.00	380.00	376.00	371.00	364.00	361.00	354.00	350.00	366.00	380.00	387.00	385.00	381.00	375.00	380.00	385.00	392.00	416.00	428.00	436.00	446.00	445.00	411.00	393.00	375.00	369.00	351.00	332.00	315.00	324.00	338.00	348.00	342.00	336.00	339.00	351.00	348.00	355.00	376.00	381.00	415.00	434.00	459.00	484.00	507.00	535.00	495.00	454.00	429.00	391.00	385.00	406.00	434.00	526.00	510.00	501.00	499.00	447.00	397.00	373.00	349.00	335.00	318.00	312.00	318.00	326.00	329.00	303.00	299.00	300.00	302.00	312.00	327.00	361.00	385.00	376.00	356.00	334.00	304.00	286.00	222.00	199.00	181.00	162.00	149.00	140.00	138.00	136.00	139.00	141.00	141.00	140.00	142.00	145.00	158.00	165.00	165.00	166.00	172.00	171.00	175.00	183.00	193.00	216.00	222.00	237.00	260.00	310.00	349.00	413.00	477.00	510.00	510.00	501.00	490.00	470.00	483.00	482.00	454.00	419.00	400.00	386.00	386.00	387.00	386.00	394.00	405.00	417.00	430.00	443.00	441.00	430.00	433.00	455.00	421.00	399.00	367.00	343.00	318.00	313.00	314.00	303.00	302.00	305.00	314.00	321.00	324.00	320.00	319.00	318.00	316.00	316.00	318.00	314.00	309.00	308.00	307.00	301.00	298.00	296.00	294.00	281.00	273.00	266.00	260.00	249.00	246.00	247.00	252.00	259.00	272.00	276.00	278.00	278.00	270.00	263.00	256.00	249.00	239.00	232.00	232.00	235.00	243.00	242.00	131.00	116.00	116.00	116.00	116.00	126.00	134.00	130.00	127.00	129.00	130.00	131.00	132.00	135.00	137.00	140.00	144.00	151.00	154.00	161.00	174.00	181.00	204.00	220.00	234.00	251.00	335.00	387.00	427.00	468.00	499.00
300.00	316.00	343.00	357.00	390.00	374.00	360.00	352.00	352.00	340.00	329.00	343.00	371.00	381.00	390.00	400.00	401.00	397.00	374.00	354.00	338.00	313.00	327.00	349.00	312.00	332.00	344.00	355.00	357.00	360.00	357.00	345.00	327.00	328.00	338.00	367.00	389.00	396.00	399.00	402.00	408.00	400.00	394.00	386.00	380.00	369.00	364.00	361.00	357.00	355.00	365.00	371.00	373.00	376.00	380.00	383.00	397.00	407.00	432.00	440.00	437.00	429.00	416.00	399.00	392.00	383.00	364.00	322.00	320.00	334.00	365.00	370.00	328.00	321.00	332.00	345.00	333.00	328.00	323.00	337.00	356.00	408.00	424.00	438.00	446.00	451.00	451.00	440.00	430.00	415.00	396.00	396.00	410.00	435.00	475.00	479.00	467.00	448.00	443.00	384.00	364.00	351.00	342.00	331.00	330.00	330.00	332.00	332.00	300.00	289.00	276.00	274.00	274.00	285.00	296.00	316.00	351.00	336.00	330.00	291.00	277.00	233.00	207.00	183.00	165.00	157.00	145.00	144.00	144.00	139.00	141.00	140.00	139.00	141.00	142.00	149.00	152.00	157.00	165.00	173.00	180.00	189.00	201.00	207.00	241.00	252.00	272.00	292.00	344.00	373.00	494.00	535.00	521.00	512.00	496.00	470.00	469.00	445.00	435.00	420.00	435.00	420.00	401.00	406.00	404.00	399.00	407.00	415.00	413.00	401.00	406.00	423.00	422.00	419.00	421.00	395.00	379.00	375.00	362.00	329.00	318.00	309.00	306.00	310.00	332.00	335.00	336.00	335.00	329.00	328.00	326.00	320.00	309.00	306.00	304.00	306.00	306.00	301.00	300.00	296.00	291.00	286.00	270.00	265.00	260.00	255.00	251.00	254.00	257.00	259.00	259.00	253.00	250.00	245.00	243.00	240.00	239.00	236.00	235.00	236.00	248.00	255.00	259.00	260.00	261.00	174.00	116.00	116.00	116.00	116.00	116.00	123.00	133.00	126.00	129.00	130.00	130.00	131.00	134.00	135.00	138.00	141.00	151.00	154.00	158.00	172.00	180.00	198.00	210.00	223.00	238.00	289.00	341.00	398.00	435.00	487.00
343.00	359.00	336.00	357.00	399.00	373.00	365.00	381.00	383.00	343.00	351.00	359.00	353.00	356.00	389.00	400.00	406.00	405.00	381.00	362.00	329.00	331.00	365.00	360.00	317.00	313.00	317.00	326.00	331.00	337.00	335.00	330.00	320.00	336.00	350.00	376.00	417.00	441.00	450.00	450.00	424.00	410.00	400.00	392.00	390.00	370.00	363.00	361.00	361.00	361.00	361.00	361.00	362.00	364.00	371.00	378.00	405.00	418.00	415.00	409.00	411.00	411.00	396.00	381.00	394.00	380.00	353.00	340.00	344.00	343.00	342.00	328.00	314.00	344.00	360.00	353.00	324.00	317.00	312.00	328.00	361.00	417.00	427.00	438.00	442.00	454.00	442.00	421.00	404.00	393.00	402.00	419.00	443.00	465.00	495.00	483.00	470.00	473.00	414.00	359.00	347.00	342.00	338.00	335.00	331.00	323.00	316.00	318.00	294.00	281.00	270.00	256.00	241.00	254.00	266.00	282.00	293.00	282.00	277.00	265.00	255.00	218.00	202.00	187.00	180.00	179.00	164.00	157.00	157.00	165.00	153.00	140.00	139.00	139.00	146.00	162.00	168.00	174.00	183.00	192.00	201.00	218.00	227.00	241.00	282.00	303.00	326.00	342.00	393.00	437.00	477.00	486.00	517.00	482.00	467.00	462.00	481.00	478.00	463.00	441.00	463.00	431.00	416.00	425.00	430.00	421.00	379.00	376.00	366.00	323.00	303.00	312.00	325.00	336.00	363.00	377.00	377.00	366.00	354.00	323.00	312.00	312.00	325.00	325.00	335.00	328.00	322.00	317.00	313.00	313.00	310.00	308.00	297.00	299.00	299.00	296.00	291.00	283.00	283.00	284.00	278.00	267.00	243.00	239.00	237.00	236.00	233.00	230.00	225.00	223.00	221.00	218.00	215.00	212.00	212.00	210.00	211.00	210.00	214.00	216.00	229.00	239.00	246.00	248.00	252.00	217.00	124.00	116.00	116.00	116.00	116.00	116.00	118.00	128.00	128.00	128.00	129.00	129.00	134.00	133.00	138.00	142.00	147.00	150.00	154.00	168.00	174.00	189.00	199.00	206.00	218.00	243.00	265.00	289.00	319.00	446.00
380.00	383.00	366.00	376.00	398.00	378.00	382.00	387.00	374.00	353.00	376.00	385.00	383.00	384.00	400.00	399.00	402.00	406.00	372.00	346.00	327.00	354.00	379.00	385.00	361.00	349.00	326.00	307.00	307.00	308.00	308.00	315.00	333.00	342.00	342.00	355.00	428.00	447.00	452.00	452.00	438.00	429.00	414.00	403.00	390.00	376.00	376.00	379.00	381.00	381.00	381.00	382.00	379.00	372.00	377.00	386.00	413.00	415.00	392.00	383.00	381.00	382.00	379.00	355.00	358.00	350.00	335.00	380.00	357.00	325.00	301.00	291.00	349.00	368.00	363.00	347.00	317.00	310.00	302.00	318.00	353.00	375.00	382.00	393.00	402.00	487.00	474.00	454.00	412.00	374.00	379.00	405.00	434.00	438.00	455.00	452.00	417.00	388.00	351.00	321.00	315.00	319.00	321.00	318.00	315.00	311.00	307.00	311.00	291.00	279.00	267.00	256.00	227.00	224.00	240.00	244.00	245.00	244.00	231.00	218.00	214.00	209.00	205.00	199.00	190.00	183.00	180.00	183.00	183.00	174.00	143.00	141.00	141.00	147.00	163.00	191.00	187.00	198.00	210.00	224.00	230.00	260.00	269.00	282.00	356.00	396.00	419.00	441.00	435.00	425.00	421.00	429.00	476.00	448.00	436.00	456.00	471.00	464.00	459.00	467.00	470.00	437.00	430.00	432.00	433.00	429.00	356.00	309.00	278.00	262.00	251.00	248.00	251.00	258.00	265.00	303.00	295.00	291.00	284.00	256.00	250.00	257.00	305.00	325.00	318.00	313.00	307.00	300.00	294.00	291.00	280.00	269.00	278.00	285.00	280.00	274.00	267.00	251.00	239.00	231.00	221.00	213.00	210.00	208.00	205.00	199.00	194.00	195.00	193.00	191.00	192.00	191.00	190.00	189.00	188.00	178.00	172.00	171.00	175.00	184.00	205.00	211.00	214.00	216.00	234.00	224.00	165.00	116.00	116.00	116.00	116.00	117.00	116.00	117.00	129.00	127.00	127.00	127.00	130.00	131.00	136.00	142.00	141.00	144.00	151.00	163.00	166.00	178.00	186.00	192.00	199.00	218.00	230.00	243.00	265.00	379.00
380.00	383.00	366.00	376.00	398.00	378.00	382.00	387.00	374.00	353.00	376.00	385.00	383.00	384.00	400.00	399.00	402.00	406.00	372.00	346.00	327.00	354.00	379.00	385.00	361.00	349.00	326.00	307.00	307.00	308.00	308.00	315.00	333.00	342.00	342.00	355.00	428.00	447.00	452.00	452.00	438.00	429.00	414.00	403.00	390.00	376.00	376.00	379.00	381.00	381.00	381.00	382.00	379.00	372.00	377.00	386.00	413.00	415.00	392.00	383.00	381.00	382.00	379.00	355.00	358.00	350.00	335.00	380.00	357.00	325.00	301.00	291.00	349.00	368.00	363.00	347.00	317.00	310.00	302.00	318.00	353.00	375.00	382.00	393.00	402.00	487.00	474.00	454.00	412.00	374.00	379.00	405.00	434.00	438.00	455.00	452.00	417.00	388.00	351.00	321.00	315.00	319.00	321.00	318.00	315.00	311.00	307.00	311.00	291.00	279.00	267.00	256.00	227.00	224.00	240.00	244.00	245.00	244.00	231.00	218.00	214.00	209.00	205.00	199.00	190.00	183.00	180.00	183.00	183.00	174.00	143.00	141.00	141.00	147.00	163.00	191.00	187.00	198.00	210.00	224.00	230.00	260.00	269.00	282.00	356.00	396.00	419.00	441.00	435.00	425.00	421.00	429.00	476.00	448.00	436.00	456.00	471.00	464.00	459.00	467.00	470.00	437.00	430.00	432.00	433.00	429.00	356.00	309.00	278.00	262.00	251.00	248.00	251.00	258.00	265.00	303.00	295.00	291.00	284.00	256.00	250.00	257.00	305.00	325.00	318.00	313.00	307.00	300.00	294.00	291.00	280.00	269.00	278.00	285.00	280.00	274.00	267.00	251.00	239.00	231.00	221.00	213.00	210.00	208.00	205.00	199.00	194.00	195.00	193.00	191.00	192.00	191.00	190.00	189.00	188.00	178.00	172.00	171.00	175.00	184.00	205.00	211.00	214.00	216.00	234.00	224.00	165.00	116.00	116.00	116.00	116.00	117.00	116.00	117.00	129.00	127.00	127.00	127.00	130.00	131.00	136.00	142.00	141.00	144.00	151.00	163.00	166.00	178.00	186.00	192.00	199.00	218.00	230.00	243.00	265.00	379.00
394.00	396.00	387.00	400.00	398.00	389.00	384.00	369.00	358.00	368.00	372.00	381.00	401.00	417.00	394.00	381.00	369.00	363.00	344.00	334.00	330.00	351.00	374.00	404.00	374.00	358.00	345.00	323.00	329.00	331.00	330.00	323.00	320.00	317.00	318.00	336.00	399.00	411.00	435.00	445.00	420.00	403.00	391.00	395.00	401.00	411.00	408.00	407.00	408.00	403.00	403.00	407.00	400.00	388.00	388.00	401.00	414.00	409.00	386.00	372.00	365.00	360.00	350.00	347.00	335.00	334.00	336.00	348.00	314.00	291.00	280.00	300.00	347.00	342.00	322.00	311.00	296.00	293.00	304.00	322.00	335.00	331.00	342.00	345.00	357.00	458.00	433.00	375.00	344.00	321.00	323.00	330.00	333.00	345.00	350.00	345.00	332.00	316.00	299.00	289.00	288.00	299.00	304.00	301.00	302.00	304.00	305.00	302.00	279.00	268.00	259.00	240.00	210.00	201.00	199.00	200.00	201.00	195.00	196.00	201.00	203.00	209.00	209.00	211.00	212.00	209.00	184.00	167.00	163.00	150.00	142.00	145.00	161.00	182.00	200.00	201.00	207.00	217.00	228.00	279.00	313.00	348.00	338.00	357.00	409.00	409.00	419.00	431.00	438.00	423.00	386.00	383.00	390.00	462.00	467.00	450.00	444.00	414.00	420.00	430.00	427.00	431.00	425.00	407.00	406.00	390.00	315.00	267.00	238.00	227.00	227.00	221.00	222.00	221.00	218.00	220.00	223.00	224.00	224.00	222.00	220.00	228.00	243.00	254.00	274.00	275.00	265.00	258.00	246.00	241.00	233.00	229.00	243.00	249.00	245.00	240.00	235.00	219.00	211.00	206.00	197.00	190.00	183.00	183.00	179.00	178.00	176.00	176.00	175.00	171.00	170.00	172.00	171.00	169.00	168.00	166.00	160.00	152.00	154.00	165.00	183.00	190.00	194.00	192.00	212.00	218.00	222.00	147.00	116.00	116.00	116.00	117.00	117.00	116.00	117.00	123.00	126.00	127.00	130.00	130.00	130.00	132.00	138.00	140.00	143.00	150.00	154.00	163.00	170.00	176.00	179.00	196.00	205.00	215.00	232.00	336.00
389.00	381.00	384.00	400.00	407.00	388.00	375.00	366.00	374.00	403.00	408.00	400.00	409.00	416.00	378.00	368.00	365.00	367.00	363.00	348.00	335.00	344.00	369.00	387.00	382.00	372.00	359.00	353.00	355.00	356.00	350.00	342.00	332.00	333.00	331.00	323.00	345.00	365.00	380.00	382.00	370.00	374.00	393.00	412.00	423.00	416.00	407.00	397.00	394.00	385.00	388.00	395.00	396.00	387.00	373.00	390.00	385.00	391.00	391.00	375.00	352.00	341.00	338.00	334.00	337.00	343.00	346.00	298.00	275.00	272.00	321.00	360.00	362.00	354.00	347.00	342.00	309.00	293.00	295.00	294.00	294.00	282.00	296.00	302.00	320.00	352.00	345.00	313.00	296.00	286.00	273.00	282.00	288.00	296.00	293.00	289.00	284.00	268.00	253.00	251.00	255.00	270.00	274.00	278.00	277.00	277.00	278.00	277.00	258.00	249.00	234.00	220.00	185.00	182.00	180.00	178.00	176.00	185.00	194.00	212.00	224.00	227.00	227.00	224.00	208.00	179.00	152.00	148.00	146.00	145.00	143.00	144.00	160.00	169.00	179.00	217.00	242.00	271.00	287.00	366.00	393.00	432.00	410.00	418.00	425.00	416.00	414.00	423.00	419.00	400.00	397.00	369.00	356.00	401.00	394.00	385.00	371.00	350.00	364.00	362.00	356.00	364.00	339.00	329.00	315.00	293.00	250.00	233.00	220.00	211.00	208.00	203.00	204.00	201.00	197.00	199.00	200.00	201.00	203.00	201.00	198.00	204.00	213.00	218.00	226.00	224.00	231.00	246.00	237.00	228.00	220.00	215.00	220.00	247.00	245.00	234.00	224.00	223.00	215.00	200.00	188.00	180.00	169.00	171.00	171.00	168.00	167.00	166.00	165.00	161.00	159.00	160.00	157.00	153.00	155.00	156.00	153.00	148.00	145.00	146.00	165.00	170.00	170.00	170.00	184.00	194.00	209.00	209.00	134.00	116.00	116.00	116.00	116.00	116.00	116.00	116.00	116.00	119.00	128.00	129.00	130.00	131.00	131.00	134.00	136.00	139.00	140.00	148.00	152.00	160.00	165.00	176.00	182.00	188.00	199.00	242.00
389.00	381.00	384.00	400.00	407.00	388.00	375.00	366.00	374.00	403.00	408.00	400.00	409.00	416.00	378.00	368.00	365.00	367.00	363.00	348.00	335.00	344.00	369.00	387.00	382.00	372.00	359.00	353.00	355.00	356.00	350.00	342.00	332.00	333.00	331.00	323.00	345.00	365.00	380.00	382.00	370.00	374.00	393.00	412.00	423.00	416.00	407.00	397.00	394.00	385.00	388.00	395.00	396.00	387.00	373.00	390.00	385.00	391.00	391.00	375.00	352.00	341.00	338.00	334.00	337.00	343.00	346.00	298.00	275.00	272.00	321.00	360.00	362.00	354.00	347.00	342.00	309.00	293.00	295.00	294.00	294.00	282.00	296.00	302.00	320.00	352.00	345.00	313.00	296.00	286.00	273.00	282.00	288.00	296.00	293.00	289.00	284.00	268.00	253.00	251.00	255.00	270.00	274.00	278.00	277.00	277.00	278.00	277.00	258.00	249.00	234.00	220.00	185.00	182.00	180.00	178.00	176.00	185.00	194.00	212.00	224.00	227.00	227.00	224.00	208.00	179.00	152.00	148.00	146.00	145.00	143.00	144.00	160.00	169.00	179.00	217.00	242.00	271.00	287.00	366.00	393.00	432.00	410.00	418.00	425.00	416.00	414.00	423.00	419.00	400.00	397.00	369.00	356.00	401.00	394.00	385.00	371.00	350.00	364.00	362.00	356.00	364.00	339.00	329.00	315.00	293.00	250.00	233.00	220.00	211.00	208.00	203.00	204.00	201.00	197.00	199.00	200.00	201.00	203.00	201.00	198.00	204.00	213.00	218.00	226.00	224.00	231.00	246.00	237.00	228.00	220.00	215.00	220.00	247.00	245.00	234.00	224.00	223.00	215.00	200.00	188.00	180.00	169.00	171.00	171.00	168.00	167.00	166.00	165.00	161.00	159.00	160.00	157.00	153.00	155.00	156.00	153.00	148.00	145.00	146.00	165.00	170.00	170.00	170.00	184.00	194.00	209.00	209.00	134.00	116.00	116.00	116.00	116.00	116.00	116.00	116.00	116.00	119.00	128.00	129.00	130.00	131.00	131.00	134.00	136.00	139.00	140.00	148.00	152.00	160.00	165.00	176.00	182.00	188.00	199.00	242.00
350.00	353.00	366.00	381.00	410.00	390.00	379.00	378.00	393.00	420.00	422.00	415.00	412.00	408.00	381.00	383.00	390.00	391.00	377.00	371.00	352.00	349.00	376.00	378.00	372.00	373.00	376.00	381.00	373.00	362.00	352.00	352.00	354.00	351.00	345.00	334.00	331.00	334.00	343.00	353.00	377.00	392.00	409.00	423.00	427.00	403.00	394.00	389.00	385.00	376.00	370.00	370.00	371.00	368.00	357.00	355.00	349.00	350.00	353.00	344.00	346.00	355.00	362.00	351.00	381.00	386.00	351.00	268.00	253.00	265.00	310.00	335.00	345.00	343.00	336.00	328.00	292.00	266.00	247.00	244.00	248.00	248.00	262.00	279.00	287.00	292.00	285.00	263.00	235.00	236.00	235.00	244.00	246.00	259.00	259.00	255.00	254.00	244.00	217.00	214.00	218.00	229.00	237.00	247.00	241.00	246.00	251.00	249.00	226.00	210.00	190.00	180.00	172.00	171.00	170.00	170.00	178.00	218.00	231.00	240.00	238.00	214.00	195.00	179.00	161.00	151.00	151.00	153.00	151.00	151.00	146.00	146.00	161.00	189.00	219.00	281.00	305.00	321.00	337.00	451.00	453.00	434.00	426.00	432.00	424.00	430.00	457.00	439.00	417.00	400.00	367.00	348.00	344.00	361.00	359.00	353.00	328.00	305.00	301.00	297.00	300.00	298.00	268.00	261.00	251.00	242.00	226.00	219.00	211.00	203.00	199.00	193.00	191.00	191.00	187.00	188.00	186.00	186.00	186.00	189.00	188.00	190.00	192.00	194.00	204.00	200.00	195.00	204.00	228.00	228.00	217.00	202.00	215.00	230.00	230.00	227.00	225.00	195.00	183.00	174.00	170.00	168.00	163.00	168.00	165.00	163.00	164.00	164.00	163.00	160.00	158.00	151.00	151.00	145.00	143.00	138.00	136.00	135.00	134.00	134.00	141.00	142.00	140.00	147.00	160.00	175.00	180.00	187.00	183.00	116.00	116.00	116.00	116.00	116.00	116.00	116.00	116.00	116.00	117.00	121.00	123.00	125.00	128.00	130.00	129.00	131.00	132.00	136.00	139.00	141.00	145.00	157.00	163.00	167.00	171.00	184.00
361.00	366.00	375.00	390.00	417.00	398.00	395.00	401.00	402.00	410.00	408.00	403.00	400.00	398.00	386.00	386.00	384.00	385.00	385.00	373.00	356.00	343.00	358.00	360.00	370.00	376.00	384.00	392.00	386.00	378.00	375.00	373.00	367.00	356.00	346.00	353.00	341.00	352.00	366.00	377.00	403.00	415.00	425.00	429.00	423.00	396.00	387.00	381.00	379.00	375.00	376.00	379.00	381.00	384.00	383.00	380.00	365.00	356.00	316.00	355.00	380.00	382.00	370.00	367.00	377.00	365.00	329.00	261.00	250.00	239.00	236.00	245.00	255.00	258.00	257.00	252.00	226.00	225.00	212.00	210.00	212.00	217.00	214.00	219.00	220.00	226.00	223.00	216.00	209.00	209.00	221.00	224.00	227.00	237.00	234.00	239.00	244.00	246.00	225.00	211.00	219.00	225.00	223.00	215.00	190.00	189.00	191.00	188.00	180.00	176.00	176.00	179.00	183.00	191.00	190.00	173.00	193.00	186.00	176.00	168.00	166.00	155.00	154.00	156.00	157.00	162.00	178.00	178.00	173.00	165.00	146.00	151.00	181.00	208.00	227.00	294.00	319.00	327.00	350.00	466.00	435.00	411.00	400.00	397.00	386.00	409.00	435.00	452.00	374.00	355.00	337.00	326.00	314.00	308.00	324.00	327.00	300.00	271.00	266.00	260.00	257.00	243.00	232.00	229.00	223.00	219.00	209.00	205.00	202.00	204.00	206.00	198.00	194.00	191.00	190.00	185.00	183.00	182.00	181.00	178.00	180.00	181.00	178.00	181.00	186.00	182.00	178.00	177.00	179.00	184.00	191.00	191.00	220.00	208.00	197.00	189.00	180.00	172.00	168.00	165.00	163.00	163.00	157.00	162.00	164.00	166.00	164.00	164.00	161.00	159.00	157.00	148.00	145.00	137.00	135.00	133.00	133.00	133.00	133.00	132.00	130.00	129.00	130.00	130.00	129.00	136.00	145.00	150.00	150.00	124.00	116.00	116.00	116.00	116.00	116.00	116.00	116.00	116.00	117.00	117.00	117.00	117.00	117.00	118.00	119.00	122.00	123.00	127.00	129.00	132.00	134.00	140.00	143.00	147.00	153.00	158.00
371.00	381.00	390.00	398.00	407.00	408.00	415.00	415.00	407.00	387.00	382.00	379.00	375.00	377.00	363.00	364.00	365.00	369.00	377.00	368.00	355.00	345.00	348.00	361.00	384.00	395.00	408.00	427.00	429.00	424.00	412.00	398.00	365.00	356.00	358.00	352.00	362.00	371.00	382.00	397.00	433.00	445.00	452.00	449.00	440.00	394.00	386.00	391.00	394.00	392.00	400.00	412.00	422.00	429.00	431.00	422.00	382.00	360.00	305.00	341.00	350.00	349.00	367.00	365.00	351.00	320.00	291.00	252.00	247.00	242.00	235.00	230.00	222.00	223.00	222.00	221.00	209.00	206.00	204.00	204.00	203.00	204.00	206.00	203.00	201.00	198.00	198.00	195.00	196.00	200.00	213.00	220.00	228.00	224.00	255.00	259.00	250.00	228.00	197.00	196.00	196.00	201.00	202.00	207.00	197.00	226.00	236.00	232.00	231.00	233.00	245.00	250.00	234.00	230.00	237.00	222.00	210.00	187.00	184.00	187.00	189.00	186.00	203.00	208.00	208.00	221.00	198.00	187.00	180.00	165.00	149.00	166.00	190.00	205.00	222.00	322.00	342.00	328.00	338.00	393.00	382.00	378.00	392.00	413.00	386.00	356.00	383.00	423.00	361.00	342.00	318.00	318.00	311.00	292.00	281.00	274.00	267.00	255.00	252.00	248.00	246.00	247.00	241.00	234.00	230.00	228.00	221.00	228.00	237.00	245.00	249.00	226.00	214.00	207.00	204.00	200.00	197.00	194.00	194.00	189.00	184.00	182.00	174.00	173.00	171.00	170.00	168.00	167.00	166.00	167.00	177.00	177.00	179.00	177.00	173.00	167.00	164.00	162.00	161.00	162.00	164.00	165.00	156.00	165.00	171.00	173.00	168.00	163.00	156.00	149.00	145.00	142.00	143.00	139.00	139.00	146.00	148.00	150.00	151.00	152.00	154.00	144.00	132.00	128.00	126.00	124.00	122.00	120.00	121.00	119.00	123.00	125.00	126.00	118.00	116.00	116.00	116.00	116.00	117.00	117.00	117.00	117.00	117.00	117.00	117.00	117.00	117.00	117.00	117.00	118.00	120.00	123.00	125.00	129.00	133.00	136.00
371.00	381.00	390.00	398.00	407.00	408.00	415.00	415.00	407.00	387.00	382.00	379.00	375.00	377.00	363.00	364.00	365.00	369.00	377.00	368.00	355.00	345.00	348.00	361.00	384.00	395.00	408.00	427.00	429.00	424.00	412.00	398.00	365.00	356.00	358.00	352.00	362.00	371.00	382.00	397.00	433.00	445.00	452.00	449.00	440.00	394.00	386.00	391.00	394.00	392.00	400.00	412.00	422.00	429.00	431.00	422.00	382.00	360.00	305.00	341.00	350.00	349.00	367.00	365.00	351.00	320.00	291.00	252.00	247.00	242.00	235.00	230.00	222.00	223.00	222.00	221.00	209.00	206.00	204.00	204.00	203.00	204.00	206.00	203.00	201.00	198.00	198.00	195.00	196.00	200.00	213.00	220.00	228.00	224.00	255.00	259.00	250.00	228.00	197.00	196.00	196.00	201.00	202.00	207.00	197.00	226.00	236.00	232.00	231.00	233.00	245.00	250.00	234.00	230.00	237.00	222.00	210.00	187.00	184.00	187.00	189.00	186.00	203.00	208.00	208.00	221.00	198.00	187.00	180.00	165.00	149.00	166.00	190.00	205.00	222.00	322.00	342.00	328.00	338.00	393.00	382.00	378.00	392.00	413.00	386.00	356.00	383.00	423.00	361.00	342.00	318.00	318.00	311.00	292.00	281.00	274.00	267.00	255.00	252.00	248.00	246.00	247.00	241.00	234.00	230.00	228.00	221.00	228.00	237.00	245.00	249.00	226.00	214.00	207.00	204.00	200.00	197.00	194.00	194.00	189.00	184.00	182.00	174.00	173.00	171.00	170.00	168.00	167.00	166.00	167.00	177.00	177.00	179.00	177.00	173.00	167.00	164.00	162.00	161.00	162.00	164.00	165.00	156.00	165.00	171.00	173.00	168.00	163.00	156.00	149.00	145.00	142.00	143.00	139.00	139.00	146.00	148.00	150.00	151.00	152.00	154.00	144.00	132.00	128.00	126.00	124.00	122.00	120.00	121.00	119.00	123.00	125.00	126.00	118.00	116.00	116.00	116.00	116.00	117.00	117.00	117.00	117.00	117.00	117.00	117.00	117.00	117.00	117.00	117.00	118.00	120.00	123.00	125.00	129.00	133.00	136.00
367.00	380.00	384.00	381.00	382.00	409.00	410.00	391.00	371.00	364.00	359.00	356.00	357.00	352.00	361.00	361.00	358.00	359.00	363.00	360.00	354.00	350.00	351.00	371.00	400.00	420.00	440.00	484.00	499.00	490.00	466.00	439.00	390.00	384.00	376.00	358.00	382.00	394.00	408.00	423.00	443.00	445.00	444.00	442.00	430.00	392.00	398.00	416.00	421.00	410.00	421.00	436.00	449.00	453.00	426.00	405.00	354.00	333.00	298.00	287.00	278.00	315.00	345.00	320.00	291.00	270.00	258.00	240.00	243.00	244.00	241.00	236.00	220.00	215.00	212.00	211.00	207.00	207.00	207.00	207.00	209.00	212.00	214.00	213.00	213.00	212.00	208.00	205.00	200.00	195.00	235.00	216.00	200.00	203.00	213.00	212.00	215.00	228.00	269.00	264.00	258.00	262.00	257.00	236.00	212.00	203.00	225.00	234.00	246.00	249.00	254.00	258.00	249.00	244.00	243.00	243.00	251.00	268.00	267.00	253.00	233.00	215.00	227.00	244.00	239.00	228.00	204.00	205.00	197.00	168.00	161.00	183.00	201.00	215.00	231.00	275.00	322.00	331.00	352.00	369.00	373.00	385.00	391.00	402.00	396.00	341.00	359.00	363.00	337.00	319.00	301.00	299.00	296.00	295.00	292.00	290.00	292.00	291.00	290.00	292.00	297.00	304.00	293.00	278.00	282.00	284.00	264.00	266.00	265.00	262.00	257.00	242.00	235.00	230.00	224.00	215.00	213.00	212.00	210.00	203.00	199.00	197.00	189.00	184.00	176.00	172.00	170.00	169.00	168.00	164.00	164.00	167.00	165.00	158.00	157.00	156.00	155.00	153.00	152.00	155.00	154.00	154.00	150.00	154.00	156.00	159.00	154.00	148.00	146.00	145.00	145.00	150.00	148.00	156.00	162.00	173.00	180.00	188.00	195.00	200.00	193.00	155.00	132.00	133.00	137.00	137.00	136.00	136.00	134.00	133.00	136.00	135.00	140.00	141.00	136.00	135.00	134.00	135.00	133.00	132.00	130.00	126.00	121.00	118.00	117.00	117.00	117.00	117.00	117.00	117.00	117.00	117.00	117.00	117.00	117.00	117.00
367.00	380.00	384.00	381.00	382.00	409.00	410.00	391.00	371.00	364.00	359.00	356.00	357.00	352.00	361.00	361.00	358.00	359.00	363.00	360.00	354.00	350.00	351.00	371.00	400.00	420.00	440.00	484.00	499.00	490.00	466.00	439.00	390.00	384.00	376.00	358.00	382.00	394.00	408.00	423.00	443.00	445.00	444.00	442.00	430.00	392.00	398.00	416.00	421.00	410.00	421.00	436.00	449.00	453.00	426.00	405.00	354.00	333.00	298.00	287.00	278.00	315.00	345.00	320.00	291.00	270.00	258.00	240.00	243.00	244.00	241.00	236.00	220.00	215.00	212.00	211.00	207.00	207.00	207.00	207.00	209.00	212.00	214.00	213.00	213.00	212.00	208.00	205.00	200.00	195.00	235.00	216.00	200.00	203.00	213.00	212.00	215.00	228.00	269.00	264.00	258.00	262.00	257.00	236.00	212.00	203.00	225.00	234.00	246.00	249.00	254.00	258.00	249.00	244.00	243.00	243.00	251.00	268.00	267.00	253.00	233.00	215.00	227.00	244.00	239.00	228.00	204.00	205.00	197.00	168.00	161.00	183.00	201.00	215.00	231.00	275.00	322.00	331.00	352.00	369.00	373.00	385.00	391.00	402.00	396.00	341.00	359.00	363.00	337.00	319.00	301.00	299.00	296.00	295.00	292.00	290.00	292.00	291.00	290.00	292.00	297.00	304.00	293.00	278.00	282.00	284.00	264.00	266.00	265.00	262.00	257.00	242.00	235.00	230.00	224.00	215.00	213.00	212.00	210.00	203.00	199.00	197.00	189.00	184.00	176.00	172.00	170.00	169.00	168.00	164.00	164.00	167.00	165.00	158.00	157.00	156.00	155.00	153.00	152.00	155.00	154.00	154.00	150.00	154.00	156.00	159.00	154.00	148.00	146.00	145.00	145.00	150.00	148.00	156.00	162.00	173.00	180.00	188.00	195.00	200.00	193.00	155.00	132.00	133.00	137.00	137.00	136.00	136.00	134.00	133.00	136.00	135.00	140.00	141.00	136.00	135.00	134.00	135.00	133.00	132.00	130.00	126.00	121.00	118.00	117.00	117.00	117.00	117.00	117.00	117.00	117.00	117.00	117.00	117.00	117.00	117.00
375.00	365.00	317.00	285.00	311.00	311.00	341.00	366.00	362.00	345.00	334.00	330.00	334.00	340.00	348.00	356.00	367.00	373.00	370.00	370.00	371.00	374.00	376.00	374.00	416.00	451.00	476.00	500.00	492.00	490.00	491.00	484.00	452.00	431.00	405.00	380.00	399.00	405.00	404.00	403.00	412.00	413.00	427.00	429.00	418.00	405.00	413.00	420.00	427.00	434.00	433.00	429.00	421.00	408.00	381.00	367.00	340.00	321.00	295.00	305.00	308.00	294.00	275.00	260.00	257.00	252.00	248.00	228.00	227.00	226.00	229.00	233.00	237.00	227.00	245.00	256.00	255.00	253.00	255.00	258.00	256.00	261.00	264.00	263.00	252.00	269.00	273.00	269.00	283.00	282.00	260.00	247.00	239.00	246.00	258.00	265.00	268.00	271.00	273.00	272.00	265.00	258.00	253.00	237.00	249.00	262.00	274.00	294.00	354.00	371.00	370.00	372.00	357.00	329.00	309.00	285.00	287.00	233.00	231.00	238.00	254.00	237.00	226.00	220.00	233.00	231.00	229.00	199.00	219.00	208.00	170.00	151.00	153.00	169.00	195.00	238.00	244.00	252.00	271.00	255.00	259.00	257.00	258.00	260.00	252.00	255.00	262.00	270.00	283.00	283.00	306.00	323.00	334.00	342.00	337.00	337.00	341.00	329.00	330.00	345.00	352.00	338.00	362.00	370.00	376.00	372.00	337.00	327.00	304.00	287.00	268.00	227.00	220.00	220.00	221.00	220.00	221.00	221.00	218.00	210.00	207.00	201.00	186.00	182.00	183.00	183.00	182.00	181.00	179.00	177.00	175.00	171.00	165.00	167.00	167.00	166.00	166.00	168.00	173.00	176.00	175.00	171.00	156.00	157.00	158.00	156.00	157.00	161.00	167.00	175.00	176.00	202.00	229.00	249.00	249.00	250.00	249.00	245.00	237.00	220.00	159.00	158.00	162.00	166.00	188.00	200.00	219.00	253.00	270.00	263.00	257.00	262.00	264.00	265.00	264.00	265.00	267.00	267.00	232.00	190.00	217.00	244.00	261.00	259.00	254.00	228.00	214.00	199.00	180.00	188.00	184.00	160.00	146.00	133.00	130.00	125.00
375.00	365.00	317.00	285.00	311.00	311.00	341.00	366.00	362.00	345.00	334.00	330.00	334.00	340.00	348.00	356.00	367.00	373.00	370.00	370.00	371.00	374.00	376.00	374.00	416.00	451.00	476.00	500.00	492.00	490.00	491.00	484.00	452.00	431.00	405.00	380.00	399.00	405.00	404.00	403.00	412.00	413.00	427.00	429.00	418.00	405.00	413.00	420.00	427.00	434.00	433.00	429.00	421.00	408.00	381.00	367.00	340.00	321.00	295.00	305.00	308.00	294.00	275.00	260.00	257.00	252.00	248.00	228.00	227.00	226.00	229.00	233.00	237.00	227.00	245.00	256.00	255.00	253.00	255.00	258.00	256.00	261.00	264.00	263.00	252.00	269.00	273.00	269.00	283.00	282.00	260.00	247.00	239.00	246.00	258.00	265.00	268.00	271.00	273.00	272.00	265.00	258.00	253.00	237.00	249.00	262.00	274.00	294.00	354.00	371.00	370.00	372.00	357.00	329.00	309.00	285.00	287.00	233.00	231.00	238.00	254.00	237.00	226.00	220.00	233.00	231.00	229.00	199.00	219.00	208.00	170.00	151.00	153.00	169.00	195.00	238.00	244.00	252.00	271.00	255.00	259.00	257.00	258.00	260.00	252.00	255.00	262.00	270.00	283.00	283.00	306.00	323.00	334.00	342.00	337.00	337.00	341.00	329.00	330.00	345.00	352.00	338.00	362.00	370.00	376.00	372.00	337.00	327.00	304.00	287.00	268.00	227.00	220.00	220.00	221.00	220.00	221.00	221.00	218.00	210.00	207.00	201.00	186.00	182.00	183.00	183.00	182.00	181.00	179.00	177.00	175.00	171.00	165.00	167.00	167.00	166.00	166.00	168.00	173.00	176.00	175.00	171.00	156.00	157.00	158.00	156.00	157.00	161.00	167.00	175.00	176.00	202.00	229.00	249.00	249.00	250.00	249.00	245.00	237.00	220.00	159.00	158.00	162.00	166.00	188.00	200.00	219.00	253.00	270.00	263.00	257.00	262.00	264.00	265.00	264.00	265.00	267.00	267.00	232.00	190.00	217.00	244.00	261.00	259.00	254.00	228.00	214.00	199.00	180.00	188.00	184.00	160.00	146.00	133.00	130.00	125.00
341.00	279.00	271.00	338.00	375.00	365.00	374.00	378.00	379.00	361.00	350.00	341.00	345.00	345.00	360.00	373.00	385.00	391.00	392.00	394.00	396.00	397.00	392.00	379.00	407.00	433.00	459.00	470.00	466.00	472.00	468.00	459.00	434.00	421.00	414.00	403.00	406.00	405.00	402.00	395.00	390.00	402.00	423.00	435.00	434.00	421.00	419.00	418.00	414.00	423.00	424.00	421.00	418.00	413.00	397.00	363.00	311.00	309.00	323.00	301.00	275.00	260.00	252.00	242.00	239.00	237.00	238.00	248.00	250.00	254.00	258.00	259.00	239.00	236.00	266.00	274.00	283.00	283.00	285.00	284.00	272.00	295.00	298.00	288.00	271.00	280.00	286.00	288.00	288.00	284.00	289.00	300.00	299.00	308.00	305.00	312.00	301.00	291.00	281.00	262.00	252.00	247.00	244.00	271.00	281.00	295.00	301.00	315.00	409.00	413.00	410.00	394.00	342.00	319.00	290.00	262.00	240.00	296.00	278.00	247.00	250.00	247.00	261.00	264.00	245.00	236.00	231.00	244.00	255.00	223.00	175.00	150.00	149.00	156.00	169.00	184.00	188.00	190.00	199.00	218.00	226.00	239.00	253.00	266.00	284.00	292.00	306.00	314.00	292.00	292.00	317.00	328.00	332.00	330.00	316.00	320.00	331.00	300.00	304.00	318.00	320.00	307.00	307.00	304.00	304.00	302.00	276.00	265.00	252.00	244.00	236.00	221.00	220.00	223.00	224.00	226.00	225.00	222.00	217.00	204.00	198.00	192.00	184.00	183.00	184.00	184.00	183.00	184.00	182.00	180.00	177.00	175.00	172.00	171.00	172.00	174.00	178.00	180.00	176.00	172.00	167.00	164.00	163.00	172.00	172.00	169.00	173.00	176.00	181.00	189.00	204.00	241.00	238.00	254.00	268.00	272.00	264.00	252.00	239.00	225.00	198.00	195.00	191.00	173.00	190.00	206.00	205.00	209.00	220.00	218.00	221.00	229.00	244.00	260.00	265.00	270.00	268.00	266.00	237.00	240.00	280.00	298.00	313.00	309.00	297.00	281.00	280.00	265.00	271.00	284.00	283.00	272.00	263.00	248.00	244.00	220.00
341.00	279.00	271.00	338.00	375.00	365.00	374.00	378.00	379.00	361.00	350.00	341.00	345.00	345.00	360.00	373.00	385.00	391.00	392.00	394.00	396.00	397.00	392.00	379.00	407.00	433.00	459.00	470.00	466.00	472.00	468.00	459.00	434.00	421.00	414.00	403.00	406.00	405.00	402.00	395.00	390.00	402.00	423.00	435.00	434.00	421.00	419.00	418.00	414.00	423.00	424.00	421.00	418.00	413.00	397.00	363.00	311.00	309.00	323.00	301.00	275.00	260.00	252.00	242.00	239.00	237.00	238.00	248.00	250.00	254.00	258.00	259.00	239.00	236.00	266.00	274.00	283.00	283.00	285.00	284.00	272.00	295.00	298.00	288.00	271.00	280.00	286.00	288.00	288.00	284.00	289.00	300.00	299.00	308.00	305.00	312.00	301.00	291.00	281.00	262.00	252.00	247.00	244.00	271.00	281.00	295.00	301.00	315.00	409.00	413.00	410.00	394.00	342.00	319.00	290.00	262.00	240.00	296.00	278.00	247.00	250.00	247.00	261.00	264.00	245.00	236.00	231.00	244.00	255.00	223.00	175.00	150.00	149.00	156.00	169.00	184.00	188.00	190.00	199.00	218.00	226.00	239.00	253.00	266.00	284.00	292.00	306.00	314.00	292.00	292.00	317.00	328.00	332.00	330.00	316.00	320.00	331.00	300.00	304.00	318.00	320.00	307.00	307.00	304.00	304.00	302.00	276.00	265.00	252.00	244.00	236.00	221.00	220.00	223.00	224.00	226.00	225.00	222.00	217.00	204.00	198.00	192.00	184.00	183.00	184.00	184.00	183.00	184.00	182.00	180.00	177.00	175.00	172.00	171.00	172.00	174.00	178.00	180.00	176.00	172.00	167.00	164.00	163.00	172.00	172.00	169.00	173.00	176.00	181.00	189.00	204.00	241.00	238.00	254.00	268.00	272.00	264.00	252.00	239.00	225.00	198.00	195.00	191.00	173.00	190.00	206.00	205.00	209.00	220.00	218.00	221.00	229.00	244.00	260.00	265.00	270.00	268.00	266.00	237.00	240.00	280.00	298.00	313.00	309.00	297.00	281.00	280.00	265.00	271.00	284.00	283.00	272.00	263.00	248.00	244.00	220.00
