365.00	368.00	385.00	383.00	375.00	376.00	375.00	385.00	399.00	395.00	409.00	401.00	412.00	431.00	435.00	431.00	430.00	442.00	445.00	443.00	464.00	536.00	451.00	469.00	430.00	476.00	519.00	440.00	411.00	405.00	405.00	394.00	395.00	387.00	387.00	388.00	419.00	421.00	411.00	426.00	412.00	418.00	417.00	413.00	406.00	404.00	407.00	404.00	432.00	408.00	419.00	436.00	431.00	432.00	457.00	444.00	495.00	502.00	605.00	614.00	698.00	698.00	537.00	452.00	443.00	432.00	432.00	407.00	386.00	393.00	414.00	438.00	437.00	425.00	449.00	446.00	439.00	438.00	450.00	450.00	437.00	459.00	448.00	450.00	444.00	454.00	442.00	464.00	494.00	500.00	441.00	441.00	442.00	439.00	445.00	457.00	473.00	479.00	485.00	481.00	484.00	473.00	475.00	469.00	472.00	478.00	478.00	464.00	454.00	450.00	449.00	463.00	485.00	472.00	475.00	480.00	473.00	476.00	483.00	482.00	487.00	515.00	503.00	504.00	501.00	511.00	523.00	545.00	531.00	525.00	529.00	522.00	530.00	531.00	549.00	557.00	541.00	533.00	536.00	558.00	553.00	563.00	563.00	571.00	567.00	560.00	564.00	554.00	549.00	547.00	550.00	549.00	539.00	541.00	541.00	538.00	535.00	537.00	541.00	543.00	543.00	553.00	556.00	578.00	568.00	561.00	564.00	562.00	562.00	558.00	545.00	543.00	549.00	548.00	561.00	564.00	571.00	573.00	570.00	557.00	555.00	552.00	554.00	553.00	560.00	554.00	552.00	547.00	547.00	541.00	535.00	530.00	520.00	506.00	515.00	511.00	508.00	500.00	498.00	494.00	489.00	489.00	497.00	503.00	506.00	510.00	513.00	518.00	521.00	525.00	527.00	535.00	540.00	545.00	549.00	571.00	579.00	587.00	596.00	608.00	639.00	658.00	683.00	721.00	782.00	808.00	885.00	844.00	786.00	685.00	654.00	639.00	628.00	613.00	608.00	603.00	597.00	597.00	602.00	606.00	609.00	615.00	629.00	638.00	651.00	671.00	677.00	712.00	709.00	714.00	724.00	766.00	876.00	962.00	916.00	831.00
353.00	358.00	364.00	376.00	364.00	367.00	374.00	382.00	381.00	391.00	433.00	491.00	492.00	437.00	462.00	490.00	454.00	473.00	434.00	450.00	463.00	454.00	425.00	428.00	438.00	468.00	448.00	430.00	458.00	404.00	395.00	392.00	387.00	383.00	382.00	385.00	420.00	412.00	409.00	407.00	418.00	415.00	417.00	425.00	414.00	399.00	400.00	402.00	396.00	404.00	406.00	415.00	432.00	449.00	428.00	437.00	451.00	455.00	537.00	579.00	625.00	593.00	527.00	467.00	455.00	426.00	420.00	442.00	385.00	397.00	415.00	429.00	417.00	430.00	428.00	440.00	453.00	459.00	457.00	439.00	431.00	443.00	435.00	447.00	431.00	451.00	458.00	472.00	488.00	471.00	435.00	435.00	443.00	443.00	442.00	444.00	447.00	453.00	456.00	458.00	461.00	462.00	458.00	454.00	454.00	454.00	453.00	453.00	462.00	448.00	452.00	490.00	543.00	513.00	504.00	495.00	501.00	479.00	475.00	477.00	482.00	501.00	503.00	499.00	496.00	503.00	506.00	510.00	512.00	517.00	525.00	515.00	536.00	551.00	538.00	528.00	524.00	523.00	532.00	537.00	534.00	533.00	549.00	551.00	549.00	547.00	553.00	569.00	554.00	553.00	546.00	546.00	545.00	545.00	545.00	541.00	540.00	542.00	544.00	546.00	550.00	552.00	556.00	564.00	566.00	566.00	560.00	557.00	554.00	562.00	558.00	555.00	553.00	551.00	585.00	601.00	586.00	578.00	571.00	568.00	566.00	561.00	562.00	559.00	555.00	551.00	555.00	551.00	540.00	535.00	530.00	520.00	516.00	517.00	516.00	513.00	509.00	501.00	498.00	493.00	492.00	493.00	502.00	507.00	512.00	520.00	522.00	522.00	523.00	528.00	531.00	538.00	541.00	546.00	550.00	567.00	573.00	581.00	591.00	601.00	620.00	634.00	672.00	717.00	930.00	927.00	824.00	757.00	729.00	669.00	652.00	638.00	647.00	619.00	611.00	607.00	604.00	604.00	608.00	612.00	618.00	623.00	625.00	635.00	650.00	668.00	708.00	757.00	831.00	765.00	741.00	758.00	766.00	770.00	780.00	802.00
354.00	355.00	364.00	366.00	370.00	378.00	380.00	381.00	382.00	397.00	397.00	401.00	418.00	489.00	489.00	505.00	538.00	437.00	471.00	447.00	465.00	465.00	423.00	426.00	420.00	431.00	431.00	403.00	412.00	411.00	396.00	390.00	384.00	380.00	382.00	386.00	402.00	408.00	419.00	422.00	424.00	423.00	413.00	408.00	408.00	397.00	393.00	395.00	392.00	405.00	410.00	414.00	425.00	422.00	433.00	452.00	449.00	468.00	619.00	637.00	556.00	529.00	479.00	462.00	441.00	430.00	415.00	456.00	403.00	414.00	431.00	449.00	406.00	413.00	413.00	437.00	431.00	437.00	449.00	455.00	430.00	436.00	430.00	428.00	434.00	460.00	470.00	473.00	460.00	473.00	430.00	438.00	446.00	444.00	444.00	444.00	447.00	451.00	452.00	455.00	457.00	458.00	456.00	450.00	448.00	448.00	446.00	449.00	470.00	456.00	450.00	464.00	491.00	500.00	498.00	484.00	501.00	474.00	474.00	478.00	482.00	494.00	494.00	491.00	491.00	499.00	512.00	509.00	513.00	523.00	525.00	513.00	521.00	525.00	535.00	524.00	524.00	529.00	530.00	531.00	528.00	531.00	540.00	545.00	540.00	548.00	564.00	568.00	560.00	557.00	552.00	551.00	550.00	550.00	549.00	546.00	543.00	548.00	549.00	547.00	550.00	558.00	560.00	564.00	570.00	570.00	560.00	556.00	559.00	570.00	560.00	558.00	565.00	560.00	645.00	590.00	584.00	581.00	578.00	571.00	570.00	566.00	563.00	559.00	547.00	545.00	546.00	546.00	536.00	532.00	526.00	524.00	529.00	523.00	513.00	512.00	510.00	503.00	498.00	494.00	496.00	501.00	503.00	507.00	506.00	516.00	529.00	531.00	527.00	530.00	533.00	538.00	541.00	546.00	550.00	569.00	574.00	581.00	589.00	597.00	620.00	635.00	661.00	732.00	801.00	853.00	825.00	755.00	707.00	668.00	666.00	644.00	669.00	634.00	616.00	612.00	612.00	610.00	610.00	615.00	624.00	635.00	644.00	657.00	670.00	678.00	759.00	779.00	818.00	825.00	775.00	759.00	764.00	779.00	778.00	823.00
355.00	355.00	357.00	359.00	365.00	369.00	378.00	381.00	387.00	404.00	404.00	408.00	422.00	435.00	481.00	487.00	530.00	448.00	482.00	458.00	459.00	461.00	446.00	429.00	426.00	413.00	417.00	405.00	399.00	399.00	398.00	386.00	381.00	383.00	384.00	389.00	414.00	403.00	426.00	425.00	413.00	422.00	413.00	413.00	412.00	397.00	393.00	391.00	391.00	412.00	423.00	418.00	428.00	418.00	422.00	434.00	471.00	540.00	582.00	534.00	519.00	467.00	458.00	430.00	426.00	414.00	403.00	411.00	397.00	403.00	397.00	408.00	409.00	431.00	408.00	417.00	445.00	447.00	452.00	437.00	432.00	416.00	417.00	419.00	423.00	443.00	458.00	453.00	458.00	472.00	439.00	447.00	449.00	441.00	446.00	454.00	460.00	465.00	474.00	458.00	464.00	463.00	467.00	450.00	446.00	445.00	447.00	454.00	457.00	449.00	445.00	455.00	467.00	465.00	483.00	483.00	487.00	469.00	477.00	484.00	482.00	493.00	490.00	487.00	489.00	497.00	503.00	512.00	522.00	537.00	531.00	508.00	515.00	533.00	542.00	533.00	523.00	517.00	520.00	524.00	526.00	527.00	531.00	540.00	543.00	548.00	556.00	570.00	563.00	562.00	558.00	554.00	554.00	556.00	552.00	548.00	546.00	553.00	553.00	552.00	552.00	561.00	562.00	567.00	569.00	562.00	559.00	556.00	557.00	560.00	561.00	565.00	578.00	569.00	602.00	610.00	606.00	593.00	587.00	574.00	577.00	571.00	567.00	565.00	551.00	553.00	545.00	544.00	534.00	532.00	529.00	532.00	529.00	529.00	520.00	513.00	508.00	497.00	494.00	495.00	500.00	509.00	505.00	506.00	510.00	521.00	526.00	530.00	531.00	541.00	547.00	551.00	545.00	546.00	551.00	566.00	572.00	579.00	585.00	595.00	625.00	638.00	658.00	695.00	833.00	818.00	760.00	709.00	679.00	666.00	665.00	649.00	668.00	672.00	636.00	650.00	650.00	621.00	622.00	629.00	645.00	649.00	652.00	656.00	667.00	705.00	819.00	804.00	821.00	815.00	838.00	780.00	799.00	777.00	785.00	839.00
352.00	355.00	355.00	361.00	366.00	368.00	379.00	383.00	389.00	396.00	403.00	435.00	472.00	446.00	493.00	476.00	542.00	520.00	544.00	465.00	491.00	481.00	451.00	427.00	443.00	420.00	422.00	422.00	408.00	396.00	395.00	391.00	382.00	382.00	385.00	386.00	398.00	406.00	407.00	409.00	414.00	412.00	415.00	414.00	409.00	399.00	398.00	395.00	389.00	412.00	414.00	425.00	417.00	413.00	417.00	432.00	469.00	527.00	510.00	476.00	476.00	458.00	450.00	430.00	413.00	420.00	412.00	391.00	394.00	393.00	395.00	397.00	411.00	402.00	410.00	404.00	442.00	434.00	437.00	425.00	420.00	415.00	420.00	426.00	426.00	430.00	434.00	447.00	450.00	445.00	440.00	445.00	443.00	441.00	456.00	458.00	462.00	468.00	470.00	468.00	465.00	465.00	466.00	455.00	451.00	447.00	446.00	449.00	460.00	446.00	455.00	456.00	455.00	456.00	465.00	460.00	465.00	467.00	475.00	476.00	480.00	490.00	487.00	484.00	489.00	506.00	507.00	511.00	512.00	528.00	525.00	507.00	525.00	539.00	527.00	523.00	520.00	514.00	518.00	521.00	523.00	526.00	534.00	537.00	542.00	548.00	555.00	602.00	562.00	562.00	558.00	557.00	558.00	555.00	552.00	550.00	552.00	553.00	558.00	560.00	554.00	557.00	558.00	568.00	564.00	563.00	562.00	562.00	563.00	565.00	563.00	565.00	569.00	569.00	585.00	627.00	599.00	588.00	585.00	581.00	581.00	578.00	572.00	570.00	548.00	548.00	547.00	545.00	534.00	541.00	536.00	541.00	537.00	541.00	519.00	512.00	505.00	497.00	496.00	501.00	508.00	512.00	514.00	518.00	515.00	518.00	529.00	536.00	543.00	544.00	545.00	546.00	546.00	548.00	550.00	564.00	570.00	577.00	585.00	595.00	624.00	629.00	655.00	671.00	731.00	734.00	693.00	696.00	678.00	696.00	702.00	706.00	756.00	671.00	664.00	663.00	711.00	659.00	620.00	628.00	637.00	643.00	659.00	668.00	690.00	734.00	886.00	870.00	874.00	885.00	863.00	807.00	853.00	845.00	808.00	807.00
370.00	366.00	380.00	372.00	360.00	363.00	373.00	377.00	381.00	388.00	408.00	424.00	425.00	428.00	482.00	540.00	545.00	552.00	520.00	589.00	475.00	452.00	435.00	426.00	425.00	469.00	464.00	484.00	435.00	406.00	404.00	396.00	386.00	384.00	391.00	392.00	422.00	413.00	417.00	429.00	440.00	426.00	455.00	462.00	420.00	483.00	552.00	449.00	390.00	411.00	410.00	414.00	413.00	405.00	414.00	421.00	419.00	427.00	452.00	444.00	436.00	422.00	415.00	424.00	408.00	391.00	395.00	381.00	395.00	386.00	408.00	395.00	421.00	437.00	425.00	420.00	455.00	441.00	425.00	420.00	422.00	409.00	419.00	424.00	431.00	447.00	431.00	436.00	428.00	434.00	445.00	438.00	455.00	457.00	452.00	457.00	457.00	460.00	463.00	464.00	468.00	463.00	462.00	467.00	463.00	454.00	457.00	448.00	439.00	438.00	441.00	461.00	499.00	484.00	472.00	461.00	472.00	470.00	472.00	473.00	477.00	479.00	479.00	488.00	488.00	503.00	507.00	509.00	511.00	537.00	531.00	503.00	514.00	515.00	529.00	519.00	515.00	513.00	517.00	526.00	525.00	525.00	524.00	532.00	536.00	542.00	560.00	552.00	546.00	552.00	548.00	550.00	549.00	551.00	553.00	556.00	555.00	560.00	560.00	566.00	563.00	561.00	563.00	565.00	568.00	568.00	581.00	581.00	574.00	572.00	573.00	572.00	581.00	577.00	598.00	607.00	598.00	599.00	608.00	608.00	600.00	588.00	576.00	568.00	558.00	569.00	566.00	554.00	543.00	545.00	543.00	545.00	539.00	523.00	513.00	508.00	507.00	498.00	501.00	512.00	520.00	524.00	532.00	538.00	536.00	526.00	529.00	534.00	537.00	546.00	554.00	580.00	578.00	577.00	581.00	573.00	572.00	575.00	595.00	610.00	620.00	661.00	664.00	680.00	720.00	653.00	657.00	699.00	735.00	711.00	777.00	785.00	750.00	735.00	695.00	662.00	645.00	645.00	629.00	636.00	643.00	652.00	672.00	687.00	710.00	724.00	788.00	982.00	1022.00	975.00	1019.00	976.00	990.00	1023.00	903.00	1003.00
370.00	366.00	380.00	372.00	360.00	363.00	373.00	377.00	381.00	388.00	408.00	424.00	425.00	428.00	482.00	540.00	545.00	552.00	520.00	589.00	475.00	452.00	435.00	426.00	425.00	469.00	464.00	484.00	435.00	406.00	404.00	396.00	386.00	384.00	391.00	392.00	422.00	413.00	417.00	429.00	440.00	426.00	455.00	462.00	420.00	483.00	552.00	449.00	390.00	411.00	410.00	414.00	413.00	405.00	414.00	421.00	419.00	427.00	452.00	444.00	436.00	422.00	415.00	424.00	408.00	391.00	395.00	381.00	395.00	386.00	408.00	395.00	421.00	437.00	425.00	420.00	455.00	441.00	425.00	420.00	422.00	409.00	419.00	424.00	431.00	447.00	431.00	436.00	428.00	434.00	445.00	438.00	455.00	457.00	452.00	457.00	457.00	460.00	463.00	464.00	468.00	463.00	462.00	467.00	463.00	454.00	457.00	448.00	439.00	438.00	441.00	461.00	499.00	484.00	472.00	461.00	472.00	470.00	472.00	473.00	477.00	479.00	479.00	488.00	488.00	503.00	507.00	509.00	511.00	537.00	531.00	503.00	514.00	515.00	529.00	519.00	515.00	513.00	517.00	526.00	525.00	525.00	524.00	532.00	536.00	542.00	560.00	552.00	546.00	552.00	548.00	550.00	549.00	551.00	553.00	556.00	555.00	560.00	560.00	566.00	563.00	561.00	563.00	565.00	568.00	568.00	581.00	581.00	574.00	572.00	573.00	572.00	581.00	577.00	598.00	607.00	598.00	599.00	608.00	608.00	600.00	588.00	576.00	568.00	558.00	569.00	566.00	554.00	543.00	545.00	543.00	545.00	539.00	523.00	513.00	508.00	507.00	498.00	501.00	512.00	520.00	524.00	532.00	538.00	536.00	526.00	529.00	534.00	537.00	546.00	554.00	580.00	578.00	577.00	581.00	573.00	572.00	575.00	595.00	610.00	620.00	661.00	664.00	680.00	720.00	653.00	657.00	699.00	735.00	711.00	777.00	785.00	750.00	735.00	695.00	662.00	645.00	645.00	629.00	636.00	643.00	652.00	672.00	687.00	710.00	724.00	788.00	982.00	1022.00	975.00	1019.00	976.00	990.00	1023.00	903.00	1003.00
355.00	357.00	354.00	359.00	360.00	361.00	369.00	372.00	375.00	388.00	442.00	519.00	529.00	492.00	439.00	486.00	522.00	528.00	566.00	618.00	519.00	447.00	469.00	423.00	420.00	458.00	550.00	457.00	451.00	433.00	412.00	389.00	389.00	383.00	377.00	386.00	401.00	408.00	434.00	418.00	446.00	437.00	480.00	463.00	444.00	468.00	502.00	446.00	396.00	427.00	408.00	405.00	416.00	407.00	424.00	424.00	418.00	427.00	426.00	429.00	428.00	418.00	413.00	396.00	395.00	392.00	398.00	379.00	386.00	402.00	420.00	408.00	418.00	436.00	427.00	415.00	460.00	431.00	419.00	414.00	412.00	410.00	416.00	428.00	441.00	430.00	423.00	420.00	431.00	439.00	433.00	447.00	464.00	455.00	449.00	457.00	462.00	466.00	466.00	462.00	466.00	482.00	475.00	476.00	465.00	452.00	450.00	443.00	436.00	437.00	453.00	483.00	485.00	493.00	477.00	467.00	466.00	468.00	471.00	471.00	476.00	478.00	479.00	483.00	494.00	504.00	507.00	511.00	518.00	528.00	517.00	509.00	519.00	519.00	523.00	516.00	513.00	507.00	517.00	523.00	527.00	522.00	531.00	529.00	527.00	538.00	537.00	538.00	538.00	543.00	547.00	547.00	546.00	549.00	546.00	550.00	552.00	558.00	560.00	560.00	557.00	559.00	558.00	567.00	583.00	582.00	580.00	579.00	578.00	581.00	578.00	574.00	584.00	581.00	639.00	660.00	627.00	624.00	609.00	594.00	622.00	599.00	577.00	569.00	556.00	553.00	550.00	545.00	541.00	539.00	538.00	536.00	536.00	522.00	519.00	514.00	507.00	500.00	500.00	510.00	518.00	519.00	523.00	528.00	532.00	541.00	554.00	555.00	544.00	541.00	546.00	558.00	567.00	583.00	593.00	576.00	576.00	578.00	584.00	588.00	661.00	647.00	668.00	718.00	645.00	638.00	645.00	661.00	671.00	696.00	736.00	753.00	750.00	753.00	717.00	691.00	650.00	649.00	630.00	639.00	649.00	656.00	676.00	689.00	706.00	713.00	728.00	860.00	832.00	836.00	915.00	950.00	1046.00	1088.00	938.00	1036.00
355.00	353.00	353.00	354.00	359.00	359.00	364.00	368.00	373.00	383.00	413.00	464.00	499.00	590.00	463.00	459.00	489.00	501.00	576.00	637.00	674.00	514.00	456.00	433.00	417.00	442.00	498.00	442.00	535.00	566.00	454.00	397.00	390.00	385.00	383.00	378.00	390.00	406.00	416.00	414.00	447.00	456.00	468.00	453.00	467.00	423.00	461.00	422.00	397.00	423.00	409.00	414.00	404.00	406.00	422.00	439.00	442.00	444.00	422.00	423.00	411.00	411.00	403.00	387.00	391.00	400.00	417.00	377.00	399.00	402.00	399.00	415.00	429.00	412.00	416.00	411.00	425.00	414.00	418.00	411.00	407.00	412.00	417.00	423.00	431.00	422.00	417.00	436.00	433.00	434.00	428.00	442.00	463.00	445.00	454.00	472.00	485.00	465.00	458.00	464.00	483.00	480.00	462.00	463.00	465.00	456.00	442.00	433.00	434.00	443.00	445.00	476.00	477.00	476.00	477.00	473.00	461.00	463.00	468.00	468.00	472.00	480.00	486.00	493.00	493.00	505.00	504.00	506.00	513.00	517.00	514.00	496.00	507.00	518.00	511.00	515.00	512.00	505.00	509.00	516.00	530.00	521.00	527.00	524.00	523.00	524.00	529.00	529.00	539.00	545.00	548.00	550.00	542.00	541.00	545.00	547.00	550.00	553.00	554.00	554.00	553.00	555.00	557.00	567.00	569.00	572.00	583.00	589.00	591.00	597.00	578.00	580.00	585.00	585.00	600.00	690.00	645.00	617.00	600.00	590.00	594.00	580.00	571.00	568.00	561.00	556.00	564.00	558.00	535.00	530.00	534.00	531.00	533.00	522.00	512.00	512.00	508.00	501.00	500.00	506.00	507.00	513.00	528.00	538.00	550.00	572.00	562.00	558.00	554.00	547.00	545.00	557.00	579.00	607.00	609.00	587.00	594.00	586.00	592.00	593.00	630.00	636.00	660.00	656.00	623.00	622.00	626.00	628.00	631.00	680.00	681.00	687.00	702.00	791.00	789.00	742.00	656.00	633.00	633.00	639.00	646.00	657.00	680.00	688.00	702.00	713.00	726.00	798.00	810.00	855.00	856.00	963.00	1102.00	1056.00	929.00	989.00
340.00	343.00	345.00	350.00	356.00	358.00	362.00	375.00	371.00	375.00	378.00	384.00	400.00	529.00	544.00	560.00	524.00	543.00	605.00	625.00	577.00	477.00	471.00	423.00	409.00	412.00	421.00	442.00	554.00	523.00	432.00	381.00	374.00	371.00	375.00	389.00	398.00	423.00	426.00	423.00	427.00	465.00	456.00	437.00	418.00	398.00	394.00	391.00	397.00	399.00	397.00	404.00	394.00	407.00	422.00	439.00	421.00	402.00	413.00	401.00	400.00	406.00	414.00	402.00	408.00	406.00	395.00	396.00	412.00	412.00	410.00	418.00	411.00	412.00	402.00	399.00	411.00	414.00	416.00	409.00	401.00	402.00	408.00	418.00	432.00	446.00	434.00	428.00	432.00	428.00	427.00	432.00	443.00	441.00	505.00	516.00	523.00	469.00	455.00	470.00	476.00	451.00	448.00	449.00	439.00	438.00	440.00	432.00	449.00	449.00	449.00	460.00	484.00	497.00	477.00	457.00	463.00	462.00	466.00	471.00	477.00	487.00	492.00	496.00	498.00	501.00	491.00	494.00	495.00	505.00	495.00	491.00	495.00	506.00	525.00	520.00	511.00	499.00	511.00	514.00	524.00	508.00	512.00	513.00	519.00	524.00	526.00	531.00	540.00	542.00	541.00	538.00	532.00	539.00	543.00	545.00	543.00	551.00	552.00	550.00	545.00	552.00	557.00	558.00	563.00	567.00	570.00	566.00	568.00	573.00	579.00	579.00	584.00	591.00	608.00	617.00	611.00	608.00	601.00	586.00	579.00	567.00	568.00	608.00	544.00	541.00	537.00	541.00	530.00	525.00	521.00	518.00	516.00	517.00	519.00	522.00	520.00	526.00	513.00	504.00	503.00	511.00	520.00	525.00	531.00	537.00	546.00	550.00	552.00	560.00	559.00	560.00	566.00	569.00	568.00	571.00	575.00	580.00	581.00	593.00	587.00	587.00	589.00	593.00	598.00	603.00	639.00	666.00	695.00	660.00	677.00	699.00	745.00	732.00	817.00	757.00	673.00	640.00	635.00	643.00	647.00	658.00	675.00	684.00	692.00	708.00	708.00	731.00	841.00	931.00	870.00	1040.00	1000.00	1002.00	1025.00	870.00
351.00	352.00	350.00	353.00	353.00	356.00	364.00	390.00	382.00	375.00	377.00	380.00	386.00	430.00	525.00	606.00	529.00	556.00	635.00	713.00	628.00	510.00	443.00	448.00	406.00	412.00	418.00	440.00	554.00	448.00	403.00	369.00	366.00	369.00	373.00	381.00	396.00	406.00	414.00	410.00	430.00	463.00	443.00	430.00	438.00	418.00	407.00	383.00	389.00	393.00	385.00	386.00	392.00	403.00	435.00	468.00	456.00	416.00	419.00	423.00	400.00	404.00	406.00	419.00	402.00	385.00	379.00	400.00	402.00	394.00	408.00	417.00	403.00	420.00	406.00	409.00	404.00	401.00	408.00	400.00	399.00	408.00	414.00	418.00	442.00	433.00	424.00	437.00	440.00	440.00	432.00	446.00	463.00	445.00	447.00	446.00	454.00	458.00	473.00	464.00	465.00	449.00	441.00	438.00	435.00	454.00	445.00	431.00	444.00	445.00	446.00	470.00	474.00	499.00	501.00	464.00	458.00	461.00	470.00	479.00	488.00	482.00	484.00	492.00	498.00	491.00	483.00	488.00	488.00	491.00	493.00	488.00	501.00	509.00	516.00	518.00	519.00	498.00	498.00	502.00	506.00	505.00	509.00	520.00	524.00	527.00	529.00	532.00	545.00	539.00	536.00	535.00	530.00	538.00	540.00	537.00	541.00	552.00	548.00	545.00	543.00	550.00	552.00	556.00	564.00	564.00	560.00	557.00	564.00	566.00	572.00	576.00	580.00	594.00	593.00	635.00	619.00	603.00	591.00	578.00	571.00	563.00	564.00	573.00	540.00	537.00	533.00	531.00	525.00	524.00	524.00	522.00	528.00	527.00	522.00	526.00	528.00	515.00	511.00	505.00	504.00	507.00	517.00	519.00	525.00	532.00	539.00	544.00	546.00	552.00	556.00	558.00	559.00	560.00	561.00	566.00	568.00	573.00	571.00	574.00	579.00	582.00	585.00	588.00	595.00	598.00	668.00	694.00	712.00	646.00	702.00	758.00	807.00	731.00	758.00	686.00	663.00	645.00	638.00	643.00	649.00	656.00	667.00	677.00	681.00	679.00	671.00	689.00	733.00	869.00	952.00	1152.00	1187.00	1157.00	977.00	822.00
352.00	348.00	348.00	350.00	354.00	354.00	361.00	376.00	410.00	373.00	383.00	386.00	407.00	396.00	412.00	466.00	460.00	496.00	643.00	693.00	611.00	457.00	450.00	422.00	408.00	403.00	444.00	502.00	526.00	414.00	384.00	365.00	366.00	369.00	381.00	399.00	414.00	405.00	406.00	403.00	432.00	459.00	442.00	419.00	408.00	408.00	410.00	397.00	383.00	381.00	381.00	378.00	381.00	386.00	444.00	427.00	412.00	406.00	406.00	402.00	402.00	396.00	420.00	397.00	390.00	405.00	374.00	400.00	389.00	392.00	395.00	399.00	411.00	432.00	405.00	406.00	393.00	392.00	399.00	407.00	399.00	406.00	424.00	426.00	437.00	457.00	443.00	438.00	454.00	444.00	445.00	450.00	451.00	451.00	447.00	456.00	475.00	484.00	506.00	465.00	453.00	448.00	441.00	438.00	438.00	435.00	432.00	425.00	453.00	451.00	449.00	469.00	467.00	496.00	466.00	458.00	463.00	461.00	464.00	468.00	475.00	479.00	486.00	491.00	493.00	488.00	480.00	481.00	485.00	486.00	490.00	494.00	512.00	528.00	509.00	506.00	499.00	493.00	498.00	500.00	501.00	506.00	519.00	517.00	521.00	524.00	527.00	528.00	537.00	534.00	531.00	529.00	532.00	536.00	534.00	536.00	542.00	547.00	542.00	540.00	542.00	545.00	546.00	552.00	559.00	556.00	557.00	560.00	563.00	566.00	567.00	574.00	580.00	584.00	587.00	614.00	637.00	618.00	580.00	573.00	566.00	561.00	560.00	559.00	538.00	536.00	533.00	531.00	529.00	533.00	532.00	541.00	537.00	527.00	529.00	528.00	527.00	516.00	510.00	508.00	505.00	508.00	514.00	517.00	520.00	528.00	536.00	540.00	545.00	548.00	552.00	554.00	555.00	555.00	555.00	561.00	569.00	571.00	569.00	570.00	576.00	579.00	583.00	585.00	590.00	591.00	630.00	683.00	680.00	642.00	679.00	719.00	716.00	756.00	755.00	690.00	677.00	644.00	637.00	641.00	644.00	649.00	660.00	664.00	667.00	673.00	661.00	677.00	692.00	735.00	795.00	1017.00	1083.00	1175.00	1011.00	897.00
345.00	345.00	345.00	347.00	351.00	352.00	359.00	385.00	400.00	375.00	378.00	384.00	394.00	404.00	399.00	404.00	412.00	421.00	476.00	570.00	615.00	526.00	414.00	408.00	403.00	401.00	466.00	542.00	449.00	393.00	382.00	365.00	390.00	392.00	404.00	404.00	396.00	396.00	402.00	414.00	440.00	460.00	444.00	427.00	412.00	419.00	390.00	401.00	388.00	379.00	383.00	384.00	381.00	388.00	416.00	421.00	398.00	385.00	399.00	392.00	394.00	400.00	420.00	422.00	388.00	398.00	369.00	375.00	381.00	388.00	385.00	391.00	407.00	410.00	420.00	398.00	392.00	391.00	396.00	405.00	400.00	407.00	415.00	425.00	427.00	453.00	445.00	437.00	452.00	459.00	457.00	470.00	458.00	455.00	462.00	490.00	569.00	516.00	515.00	462.00	448.00	443.00	443.00	478.00	476.00	426.00	424.00	426.00	435.00	438.00	444.00	457.00	451.00	457.00	464.00	468.00	474.00	463.00	464.00	468.00	470.00	475.00	479.00	485.00	493.00	482.00	475.00	481.00	486.00	494.00	497.00	487.00	495.00	496.00	496.00	508.00	501.00	494.00	493.00	500.00	506.00	509.00	515.00	520.00	524.00	524.00	524.00	526.00	527.00	528.00	529.00	525.00	526.00	529.00	530.00	535.00	544.00	545.00	541.00	537.00	541.00	540.00	542.00	551.00	560.00	554.00	555.00	556.00	556.00	561.00	563.00	567.00	576.00	579.00	579.00	586.00	585.00	580.00	578.00	564.00	560.00	555.00	552.00	546.00	547.00	549.00	545.00	543.00	533.00	532.00	535.00	539.00	537.00	530.00	530.00	529.00	525.00	516.00	512.00	507.00	505.00	508.00	515.00	518.00	523.00	530.00	536.00	540.00	545.00	550.00	551.00	550.00	549.00	552.00	554.00	565.00	567.00	567.00	565.00	567.00	572.00	576.00	578.00	581.00	585.00	587.00	624.00	645.00	657.00	639.00	654.00	662.00	682.00	800.00	802.00	719.00	695.00	642.00	634.00	637.00	637.00	641.00	649.00	652.00	651.00	661.00	653.00	671.00	686.00	706.00	735.00	865.00	1001.00	1136.00	1068.00	884.00
347.00	345.00	347.00	353.00	355.00	356.00	381.00	422.00	577.00	385.00	384.00	389.00	392.00	427.00	415.00	419.00	430.00	413.00	446.00	460.00	456.00	478.00	427.00	395.00	409.00	407.00	436.00	393.00	392.00	369.00	363.00	392.00	416.00	412.00	411.00	415.00	402.00	402.00	413.00	422.00	435.00	434.00	419.00	424.00	475.00	401.00	424.00	425.00	408.00	388.00	379.00	376.00	376.00	376.00	372.00	375.00	412.00	396.00	392.00	394.00	383.00	385.00	394.00	379.00	382.00	365.00	380.00	403.00	392.00	390.00	402.00	399.00	414.00	404.00	394.00	391.00	414.00	404.00	398.00	396.00	397.00	404.00	411.00	424.00	423.00	462.00	452.00	468.00	447.00	445.00	474.00	475.00	459.00	493.00	515.00	508.00	517.00	511.00	518.00	489.00	475.00	468.00	455.00	468.00	469.00	426.00	423.00	423.00	448.00	442.00	439.00	442.00	463.00	463.00	458.00	464.00	468.00	460.00	461.00	461.00	463.00	473.00	479.00	487.00	500.00	487.00	473.00	491.00	486.00	488.00	494.00	479.00	484.00	486.00	497.00	498.00	494.00	487.00	502.00	502.00	506.00	507.00	520.00	524.00	522.00	519.00	516.00	521.00	523.00	518.00	517.00	516.00	524.00	526.00	525.00	529.00	538.00	570.00	540.00	531.00	530.00	535.00	538.00	546.00	546.00	547.00	545.00	548.00	554.00	557.00	555.00	557.00	560.00	561.00	572.00	583.00	573.00	567.00	571.00	565.00	557.00	556.00	550.00	553.00	549.00	548.00	544.00	540.00	538.00	538.00	539.00	541.00	539.00	536.00	529.00	526.00	522.00	513.00	512.00	513.00	510.00	508.00	512.00	517.00	520.00	526.00	534.00	539.00	539.00	544.00	544.00	542.00	545.00	549.00	550.00	556.00	562.00	567.00	561.00	563.00	568.00	570.00	573.00	575.00	580.00	584.00	599.00	615.00	619.00	636.00	647.00	665.00	688.00	851.00	826.00	730.00	681.00	643.00	627.00	627.00	628.00	630.00	640.00	639.00	636.00	642.00	643.00	662.00	672.00	688.00	715.00	749.00	755.00	783.00	819.00	867.00
347.00	347.00	351.00	350.00	355.00	360.00	404.00	502.00	620.00	389.00	386.00	393.00	395.00	416.00	416.00	436.00	441.00	444.00	425.00	421.00	406.00	443.00	395.00	395.00	461.00	439.00	436.00	377.00	373.00	367.00	364.00	403.00	417.00	424.00	413.00	408.00	401.00	396.00	405.00	406.00	435.00	441.00	435.00	464.00	449.00	429.00	460.00	444.00	396.00	375.00	374.00	379.00	386.00	392.00	380.00	366.00	369.00	382.00	383.00	395.00	374.00	375.00	387.00	377.00	360.00	363.00	375.00	391.00	401.00	392.00	398.00	397.00	412.00	397.00	384.00	396.00	397.00	396.00	391.00	395.00	398.00	404.00	407.00	416.00	432.00	429.00	437.00	447.00	436.00	436.00	485.00	488.00	467.00	480.00	517.00	530.00	511.00	501.00	506.00	501.00	514.00	518.00	477.00	461.00	463.00	441.00	421.00	427.00	458.00	460.00	462.00	446.00	447.00	460.00	458.00	472.00	464.00	456.00	460.00	459.00	465.00	472.00	475.00	476.00	476.00	472.00	470.00	480.00	484.00	487.00	484.00	475.00	481.00	488.00	499.00	507.00	501.00	485.00	504.00	512.00	522.00	513.00	520.00	517.00	516.00	512.00	512.00	520.00	524.00	518.00	515.00	513.00	518.00	520.00	522.00	527.00	535.00	542.00	533.00	527.00	526.00	532.00	535.00	542.00	544.00	544.00	541.00	546.00	552.00	554.00	549.00	554.00	558.00	564.00	575.00	578.00	576.00	584.00	588.00	562.00	562.00	556.00	553.00	554.00	552.00	554.00	547.00	545.00	542.00	541.00	541.00	542.00	540.00	533.00	525.00	523.00	520.00	514.00	516.00	517.00	514.00	510.00	512.00	516.00	517.00	523.00	531.00	536.00	539.00	540.00	541.00	540.00	541.00	543.00	545.00	552.00	556.00	561.00	559.00	561.00	565.00	568.00	570.00	573.00	581.00	585.00	594.00	610.00	613.00	640.00	631.00	640.00	651.00	750.00	804.00	723.00	694.00	641.00	624.00	622.00	625.00	626.00	635.00	635.00	633.00	636.00	640.00	662.00	668.00	687.00	695.00	717.00	720.00	721.00	721.00	762.00
348.00	349.00	349.00	347.00	364.00	393.00	375.00	397.00	413.00	394.00	391.00	394.00	399.00	413.00	400.00	406.00	406.00	418.00	418.00	417.00	393.00	398.00	387.00	396.00	415.00	401.00	392.00	374.00	386.00	389.00	367.00	391.00	394.00	398.00	388.00	386.00	391.00	387.00	401.00	410.00	434.00	443.00	437.00	435.00	431.00	456.00	435.00	398.00	384.00	394.00	387.00	413.00	412.00	403.00	388.00	396.00	371.00	370.00	380.00	384.00	373.00	376.00	389.00	364.00	359.00	367.00	379.00	382.00	403.00	406.00	398.00	400.00	402.00	405.00	385.00	394.00	400.00	388.00	392.00	396.00	403.00	405.00	407.00	414.00	421.00	429.00	430.00	435.00	433.00	438.00	470.00	478.00	472.00	495.00	502.00	506.00	526.00	503.00	493.00	499.00	558.00	520.00	498.00	488.00	467.00	445.00	421.00	437.00	465.00	456.00	469.00	463.00	456.00	458.00	461.00	459.00	454.00	454.00	454.00	455.00	458.00	468.00	468.00	469.00	473.00	474.00	477.00	482.00	481.00	479.00	494.00	473.00	480.00	488.00	505.00	499.00	501.00	487.00	505.00	515.00	522.00	518.00	521.00	516.00	514.00	510.00	508.00	516.00	520.00	517.00	511.00	512.00	513.00	516.00	520.00	525.00	532.00	530.00	528.00	523.00	522.00	528.00	533.00	540.00	541.00	537.00	542.00	546.00	552.00	551.00	554.00	558.00	555.00	561.00	584.00	586.00	581.00	588.00	594.00	565.00	566.00	560.00	557.00	560.00	556.00	553.00	550.00	549.00	543.00	543.00	544.00	542.00	540.00	533.00	526.00	524.00	519.00	519.00	521.00	521.00	517.00	516.00	512.00	513.00	515.00	521.00	528.00	534.00	533.00	534.00	535.00	537.00	538.00	541.00	543.00	549.00	551.00	554.00	557.00	559.00	563.00	566.00	570.00	573.00	581.00	585.00	597.00	604.00	608.00	624.00	624.00	634.00	645.00	708.00	791.00	758.00	714.00	638.00	624.00	619.00	620.00	623.00	625.00	627.00	631.00	633.00	637.00	663.00	663.00	669.00	678.00	697.00	699.00	698.00	708.00	724.00
339.00	343.00	344.00	348.00	380.00	421.00	423.00	409.00	416.00	404.00	403.00	400.00	408.00	427.00	387.00	384.00	401.00	416.00	416.00	398.00	386.00	387.00	385.00	394.00	392.00	383.00	381.00	395.00	392.00	378.00	356.00	381.00	406.00	397.00	390.00	376.00	377.00	391.00	401.00	398.00	410.00	427.00	441.00	441.00	419.00	405.00	395.00	397.00	414.00	416.00	411.00	425.00	406.00	392.00	387.00	395.00	389.00	363.00	390.00	394.00	370.00	370.00	386.00	358.00	366.00	378.00	378.00	383.00	403.00	408.00	393.00	391.00	383.00	385.00	396.00	399.00	388.00	389.00	391.00	401.00	403.00	405.00	408.00	415.00	425.00	439.00	443.00	446.00	435.00	440.00	473.00	479.00	476.00	484.00	498.00	505.00	511.00	512.00	515.00	495.00	534.00	481.00	489.00	470.00	475.00	427.00	417.00	440.00	460.00	458.00	463.00	460.00	449.00	446.00	450.00	447.00	452.00	448.00	452.00	456.00	459.00	463.00	465.00	471.00	471.00	472.00	466.00	473.00	477.00	478.00	478.00	471.00	485.00	494.00	510.00	489.00	483.00	483.00	501.00	514.00	521.00	521.00	528.00	516.00	516.00	509.00	520.00	517.00	522.00	515.00	507.00	519.00	509.00	513.00	519.00	524.00	530.00	526.00	524.00	520.00	522.00	532.00	536.00	536.00	535.00	531.00	537.00	540.00	546.00	548.00	558.00	552.00	556.00	566.00	601.00	587.00	583.00	579.00	578.00	571.00	579.00	567.00	563.00	561.00	557.00	557.00	554.00	551.00	546.00	548.00	548.00	544.00	539.00	533.00	526.00	522.00	521.00	524.00	525.00	525.00	521.00	521.00	515.00	514.00	514.00	520.00	526.00	530.00	530.00	530.00	531.00	536.00	538.00	540.00	542.00	549.00	552.00	555.00	557.00	558.00	564.00	566.00	571.00	573.00	580.00	583.00	610.00	616.00	635.00	636.00	630.00	650.00	678.00	787.00	801.00	768.00	681.00	633.00	622.00	617.00	619.00	618.00	622.00	625.00	628.00	632.00	636.00	680.00	666.00	674.00	676.00	690.00	684.00	687.00	709.00	704.00
339.00	340.00	348.00	348.00	388.00	400.00	417.00	425.00	599.00	575.00	426.00	399.00	420.00	484.00	487.00	442.00	373.00	375.00	381.00	375.00	378.00	389.00	394.00	384.00	375.00	373.00	383.00	397.00	401.00	400.00	378.00	399.00	404.00	404.00	418.00	405.00	495.00	543.00	524.00	552.00	505.00	508.00	475.00	429.00	434.00	480.00	498.00	508.00	427.00	393.00	432.00	443.00	421.00	404.00	371.00	366.00	364.00	366.00	358.00	364.00	364.00	355.00	360.00	353.00	377.00	385.00	374.00	378.00	384.00	395.00	406.00	391.00	381.00	376.00	390.00	416.00	411.00	403.00	401.00	403.00	406.00	411.00	413.00	424.00	420.00	436.00	438.00	439.00	447.00	454.00	464.00	479.00	485.00	476.00	485.00	488.00	485.00	482.00	476.00	485.00	467.00	469.00	462.00	476.00	450.00	428.00	427.00	448.00	469.00	463.00	438.00	442.00	473.00	448.00	442.00	446.00	452.00	454.00	453.00	453.00	452.00	457.00	466.00	468.00	475.00	466.00	457.00	458.00	465.00	474.00	466.00	465.00	465.00	467.00	492.00	495.00	488.00	486.00	498.00	513.00	515.00	513.00	517.00	505.00	504.00	504.00	506.00	507.00	509.00	505.00	503.00	502.00	505.00	508.00	512.00	517.00	522.00	521.00	515.00	517.00	520.00	529.00	528.00	525.00	525.00	526.00	533.00	537.00	536.00	539.00	545.00	552.00	554.00	570.00	576.00	574.00	575.00	578.00	575.00	585.00	583.00	571.00	568.00	569.00	564.00	562.00	559.00	560.00	554.00	549.00	545.00	540.00	540.00	534.00	525.00	525.00	529.00	531.00	535.00	535.00	531.00	527.00	520.00	518.00	516.00	519.00	521.00	524.00	525.00	527.00	530.00	533.00	536.00	541.00	547.00	563.00	564.00	569.00	571.00	569.00	577.00	581.00	583.00	585.00	585.00	586.00	597.00	603.00	604.00	630.00	631.00	620.00	628.00	653.00	641.00	635.00	632.00	620.00	626.00	624.00	618.00	614.00	626.00	640.00	640.00	642.00	639.00	642.00	651.00	651.00	656.00	665.00	671.00	681.00	696.00	670.00
339.00	340.00	348.00	348.00	388.00	400.00	417.00	425.00	599.00	575.00	426.00	399.00	420.00	484.00	487.00	442.00	373.00	375.00	381.00	375.00	378.00	389.00	394.00	384.00	375.00	373.00	383.00	397.00	401.00	400.00	378.00	399.00	404.00	404.00	418.00	405.00	495.00	543.00	524.00	552.00	505.00	508.00	475.00	429.00	434.00	480.00	498.00	508.00	427.00	393.00	432.00	443.00	421.00	404.00	371.00	366.00	364.00	366.00	358.00	364.00	364.00	355.00	360.00	353.00	377.00	385.00	374.00	378.00	384.00	395.00	406.00	391.00	381.00	376.00	390.00	416.00	411.00	403.00	401.00	403.00	406.00	411.00	413.00	424.00	420.00	436.00	438.00	439.00	447.00	454.00	464.00	479.00	485.00	476.00	485.00	488.00	485.00	482.00	476.00	485.00	467.00	469.00	462.00	476.00	450.00	428.00	427.00	448.00	469.00	463.00	438.00	442.00	473.00	448.00	442.00	446.00	452.00	454.00	453.00	453.00	452.00	457.00	466.00	468.00	475.00	466.00	457.00	458.00	465.00	474.00	466.00	465.00	465.00	467.00	492.00	495.00	488.00	486.00	498.00	513.00	515.00	513.00	517.00	505.00	504.00	504.00	506.00	507.00	509.00	505.00	503.00	502.00	505.00	508.00	512.00	517.00	522.00	521.00	515.00	517.00	520.00	529.00	528.00	525.00	525.00	526.00	533.00	537.00	536.00	539.00	545.00	552.00	554.00	570.00	576.00	574.00	575.00	578.00	575.00	585.00	583.00	571.00	568.00	569.00	564.00	562.00	559.00	560.00	554.00	549.00	545.00	540.00	540.00	534.00	525.00	525.00	529.00	531.00	535.00	535.00	531.00	527.00	520.00	518.00	516.00	519.00	521.00	524.00	525.00	527.00	530.00	533.00	536.00	541.00	547.00	563.00	564.00	569.00	571.00	569.00	577.00	581.00	583.00	585.00	585.00	586.00	597.00	603.00	604.00	630.00	631.00	620.00	628.00	653.00	641.00	635.00	632.00	620.00	626.00	624.00	618.00	614.00	626.00	640.00	640.00	642.00	639.00	642.00	651.00	651.00	656.00	665.00	671.00	681.00	696.00	670.00
342.00	343.00	356.00	359.00	404.00	454.00	386.00	378.00	514.00	501.00	397.00	392.00	408.00	477.00	525.00	516.00	380.00	371.00	375.00	372.00	383.00	410.00	400.00	378.00	374.00	374.00	375.00	404.00	387.00	371.00	357.00	385.00	390.00	418.00	430.00	426.00	455.00	513.00	505.00	546.00	497.00	456.00	437.00	425.00	475.00	482.00	546.00	531.00	488.00	408.00	469.00	485.00	453.00	393.00	377.00	376.00	369.00	368.00	371.00	356.00	363.00	357.00	356.00	386.00	416.00	401.00	401.00	381.00	380.00	382.00	400.00	396.00	376.00	375.00	386.00	396.00	413.00	411.00	406.00	408.00	415.00	427.00	419.00	432.00	439.00	430.00	436.00	437.00	446.00	456.00	473.00	475.00	476.00	473.00	485.00	487.00	499.00	493.00	473.00	471.00	458.00	453.00	460.00	444.00	441.00	414.00	439.00	456.00	454.00	448.00	435.00	464.00	482.00	468.00	452.00	448.00	459.00	462.00	451.00	448.00	449.00	451.00	451.00	453.00	457.00	454.00	459.00	463.00	477.00	465.00	458.00	463.00	468.00	475.00	491.00	496.00	495.00	490.00	506.00	524.00	515.00	514.00	529.00	512.00	499.00	498.00	498.00	500.00	506.00	506.00	501.00	500.00	504.00	506.00	508.00	514.00	515.00	516.00	513.00	515.00	518.00	527.00	523.00	522.00	521.00	524.00	531.00	535.00	536.00	539.00	546.00	555.00	567.00	579.00	564.00	567.00	577.00	585.00	577.00	579.00	585.00	572.00	572.00	571.00	566.00	563.00	560.00	558.00	549.00	547.00	544.00	539.00	537.00	532.00	528.00	527.00	532.00	535.00	539.00	538.00	532.00	529.00	524.00	523.00	521.00	519.00	521.00	521.00	524.00	526.00	528.00	533.00	538.00	546.00	550.00	567.00	561.00	561.00	565.00	566.00	571.00	574.00	580.00	591.00	584.00	585.00	593.00	605.00	607.00	615.00	620.00	619.00	620.00	626.00	630.00	625.00	627.00	616.00	610.00	610.00	610.00	613.00	628.00	633.00	629.00	636.00	639.00	636.00	641.00	646.00	651.00	659.00	667.00	667.00	663.00	664.00
339.00	344.00	346.00	351.00	363.00	456.00	421.00	368.00	377.00	380.00	388.00	379.00	401.00	550.00	588.00	633.00	401.00	383.00	369.00	371.00	379.00	381.00	378.00	369.00	371.00	362.00	370.00	381.00	373.00	352.00	360.00	372.00	380.00	387.00	393.00	404.00	442.00	453.00	462.00	491.00	455.00	434.00	436.00	437.00	479.00	483.00	541.00	549.00	673.00	413.00	499.00	466.00	424.00	390.00	392.00	393.00	412.00	391.00	398.00	377.00	364.00	355.00	353.00	386.00	371.00	391.00	391.00	393.00	381.00	381.00	378.00	386.00	377.00	379.00	392.00	389.00	403.00	401.00	407.00	430.00	448.00	439.00	424.00	438.00	440.00	440.00	451.00	447.00	461.00	469.00	472.00	471.00	471.00	467.00	471.00	455.00	473.00	459.00	456.00	470.00	463.00	452.00	442.00	454.00	448.00	422.00	429.00	445.00	471.00	436.00	435.00	449.00	461.00	455.00	456.00	453.00	458.00	461.00	448.00	448.00	446.00	445.00	444.00	447.00	447.00	450.00	451.00	451.00	453.00	456.00	458.00	465.00	471.00	479.00	486.00	495.00	498.00	495.00	510.00	512.00	513.00	503.00	508.00	504.00	495.00	492.00	493.00	499.00	502.00	500.00	499.00	500.00	504.00	503.00	505.00	509.00	514.00	512.00	510.00	513.00	517.00	521.00	517.00	519.00	521.00	522.00	529.00	529.00	534.00	536.00	548.00	568.00	601.00	568.00	557.00	564.00	571.00	572.00	575.00	577.00	576.00	574.00	575.00	574.00	565.00	562.00	557.00	558.00	548.00	546.00	542.00	538.00	534.00	531.00	531.00	533.00	534.00	541.00	543.00	541.00	536.00	533.00	529.00	530.00	526.00	522.00	523.00	523.00	524.00	525.00	528.00	534.00	537.00	540.00	542.00	553.00	556.00	558.00	563.00	565.00	572.00	575.00	580.00	579.00	582.00	583.00	598.00	616.00	626.00	639.00	613.00	616.00	619.00	625.00	627.00	620.00	617.00	611.00	607.00	606.00	607.00	610.00	621.00	618.00	618.00	619.00	622.00	632.00	639.00	648.00	647.00	651.00	652.00	650.00	652.00	669.00
334.00	340.00	351.00	354.00	352.00	352.00	367.00	411.00	468.00	412.00	422.00	444.00	469.00	642.00	679.00	693.00	524.00	378.00	371.00	394.00	386.00	386.00	375.00	361.00	357.00	357.00	350.00	374.00	355.00	373.00	367.00	384.00	402.00	389.00	389.00	413.00	412.00	424.00	417.00	433.00	433.00	450.00	485.00	514.00	502.00	554.00	518.00	483.00	423.00	402.00	426.00	433.00	423.00	435.00	422.00	447.00	483.00	461.00	479.00	385.00	383.00	374.00	352.00	365.00	368.00	374.00	378.00	375.00	398.00	379.00	365.00	365.00	380.00	397.00	402.00	411.00	436.00	419.00	416.00	452.00	460.00	451.00	441.00	458.00	452.00	457.00	455.00	465.00	481.00	464.00	470.00	472.00	459.00	468.00	446.00	453.00	460.00	455.00	444.00	455.00	474.00	461.00	471.00	452.00	432.00	415.00	417.00	434.00	454.00	459.00	454.00	447.00	469.00	461.00	462.00	460.00	464.00	454.00	450.00	441.00	434.00	437.00	439.00	438.00	440.00	446.00	453.00	458.00	463.00	462.00	473.00	473.00	477.00	484.00	484.00	485.00	489.00	493.00	507.00	498.00	495.00	490.00	499.00	498.00	496.00	488.00	498.00	500.00	497.00	489.00	489.00	488.00	499.00	502.00	509.00	511.00	509.00	507.00	506.00	508.00	512.00	514.00	514.00	512.00	515.00	520.00	531.00	539.00	549.00	570.00	574.00	565.00	566.00	553.00	553.00	559.00	558.00	559.00	560.00	571.00	572.00	574.00	570.00	568.00	559.00	557.00	555.00	552.00	548.00	545.00	541.00	539.00	537.00	541.00	539.00	540.00	541.00	548.00	549.00	544.00	543.00	545.00	537.00	533.00	530.00	532.00	530.00	531.00	529.00	526.00	526.00	530.00	534.00	537.00	541.00	558.00	567.00	569.00	575.00	574.00	574.00	575.00	575.00	574.00	575.00	577.00	584.00	595.00	632.00	679.00	642.00	649.00	643.00	620.00	610.00	607.00	606.00	603.00	601.00	603.00	603.00	604.00	606.00	608.00	612.00	613.00	616.00	620.00	628.00	640.00	649.00	658.00	643.00	648.00	649.00	646.00
336.00	343.00	348.00	346.00	346.00	346.00	355.00	374.00	413.00	476.00	495.00	573.00	542.00	546.00	680.00	729.00	637.00	407.00	376.00	421.00	431.00	399.00	373.00	368.00	359.00	361.00	378.00	371.00	347.00	359.00	369.00	367.00	401.00	416.00	399.00	437.00	402.00	410.00	413.00	428.00	465.00	474.00	450.00	498.00	526.00	550.00	465.00	447.00	387.00	396.00	397.00	413.00	412.00	395.00	446.00	463.00	463.00	443.00	373.00	366.00	352.00	350.00	346.00	358.00	361.00	368.00	371.00	366.00	393.00	373.00	362.00	368.00	377.00	393.00	388.00	397.00	435.00	434.00	431.00	454.00	479.00	476.00	470.00	490.00	469.00	456.00	457.00	467.00	479.00	469.00	450.00	466.00	454.00	443.00	461.00	446.00	457.00	459.00	439.00	440.00	462.00	451.00	443.00	442.00	434.00	412.00	415.00	428.00	460.00	454.00	455.00	462.00	451.00	446.00	445.00	454.00	454.00	448.00	451.00	438.00	432.00	436.00	438.00	442.00	445.00	449.00	468.00	463.00	466.00	475.00	477.00	474.00	474.00	478.00	483.00	481.00	486.00	489.00	496.00	495.00	490.00	488.00	489.00	491.00	491.00	483.00	486.00	489.00	493.00	487.00	485.00	490.00	503.00	503.00	505.00	510.00	511.00	504.00	502.00	506.00	507.00	509.00	509.00	514.00	521.00	526.00	548.00	583.00	600.00	603.00	580.00	571.00	569.00	549.00	560.00	554.00	553.00	554.00	558.00	566.00	572.00	574.00	572.00	573.00	564.00	562.00	560.00	555.00	550.00	545.00	543.00	542.00	540.00	546.00	545.00	545.00	544.00	552.00	552.00	550.00	550.00	548.00	538.00	532.00	531.00	535.00	536.00	535.00	531.00	531.00	526.00	532.00	537.00	538.00	543.00	551.00	557.00	564.00	564.00	565.00	570.00	570.00	571.00	570.00	571.00	572.00	580.00	587.00	602.00	667.00	671.00	652.00	634.00	615.00	608.00	605.00	603.00	600.00	599.00	601.00	600.00	600.00	604.00	606.00	609.00	611.00	612.00	616.00	619.00	625.00	632.00	642.00	644.00	651.00	656.00	662.00
340.00	343.00	336.00	337.00	346.00	347.00	357.00	418.00	539.00	557.00	629.00	613.00	574.00	587.00	569.00	574.00	553.00	424.00	371.00	400.00	409.00	394.00	372.00	366.00	358.00	370.00	383.00	348.00	355.00	364.00	364.00	374.00	394.00	429.00	424.00	433.00	402.00	404.00	408.00	414.00	469.00	454.00	507.00	568.00	532.00	468.00	405.00	396.00	371.00	378.00	392.00	438.00	388.00	387.00	516.00	621.00	505.00	461.00	353.00	355.00	347.00	345.00	346.00	366.00	367.00	368.00	362.00	360.00	391.00	367.00	367.00	369.00	376.00	391.00	404.00	399.00	435.00	432.00	423.00	434.00	455.00	484.00	505.00	486.00	467.00	451.00	458.00	469.00	475.00	475.00	448.00	444.00	442.00	435.00	429.00	426.00	444.00	448.00	435.00	430.00	448.00	445.00	443.00	435.00	421.00	408.00	415.00	424.00	433.00	423.00	426.00	449.00	456.00	477.00	459.00	448.00	440.00	444.00	444.00	434.00	430.00	438.00	438.00	446.00	451.00	453.00	462.00	466.00	473.00	481.00	483.00	470.00	471.00	474.00	475.00	476.00	484.00	490.00	497.00	491.00	486.00	483.00	484.00	486.00	483.00	480.00	483.00	485.00	494.00	482.00	483.00	486.00	496.00	501.00	500.00	509.00	510.00	497.00	502.00	504.00	505.00	504.00	509.00	518.00	527.00	551.00	564.00	560.00	559.00	564.00	546.00	544.00	562.00	547.00	550.00	547.00	551.00	558.00	561.00	565.00	570.00	578.00	576.00	575.00	566.00	564.00	561.00	556.00	550.00	547.00	547.00	546.00	543.00	550.00	548.00	550.00	549.00	556.00	558.00	556.00	551.00	549.00	537.00	536.00	537.00	541.00	542.00	546.00	542.00	534.00	529.00	528.00	531.00	533.00	536.00	547.00	552.00	556.00	561.00	564.00	569.00	566.00	570.00	566.00	569.00	571.00	577.00	583.00	589.00	645.00	685.00	670.00	637.00	613.00	607.00	602.00	600.00	597.00	596.00	598.00	598.00	598.00	601.00	604.00	605.00	608.00	610.00	615.00	618.00	623.00	627.00	634.00	645.00	646.00	646.00	657.00
329.00	331.00	329.00	337.00	347.00	347.00	387.00	462.00	550.00	567.00	577.00	579.00	562.00	461.00	425.00	482.00	486.00	372.00	360.00	396.00	408.00	381.00	380.00	366.00	364.00	383.00	371.00	346.00	369.00	373.00	378.00	380.00	403.00	428.00	406.00	394.00	398.00	404.00	408.00	469.00	480.00	474.00	513.00	508.00	517.00	457.00	384.00	373.00	366.00	372.00	390.00	410.00	386.00	401.00	568.00	550.00	417.00	388.00	350.00	346.00	348.00	342.00	351.00	357.00	364.00	362.00	358.00	361.00	370.00	370.00	377.00	378.00	380.00	390.00	407.00	404.00	414.00	420.00	417.00	446.00	461.00	462.00	501.00	473.00	463.00	445.00	449.00	462.00	460.00	462.00	445.00	443.00	436.00	437.00	426.00	424.00	420.00	425.00	418.00	420.00	431.00	429.00	428.00	414.00	417.00	405.00	412.00	422.00	416.00	428.00	430.00	426.00	435.00	467.00	479.00	469.00	440.00	439.00	440.00	428.00	428.00	449.00	446.00	449.00	458.00	458.00	462.00	466.00	469.00	475.00	473.00	465.00	467.00	468.00	471.00	476.00	481.00	483.00	488.00	484.00	482.00	480.00	481.00	478.00	477.00	474.00	476.00	477.00	481.00	478.00	481.00	484.00	494.00	497.00	501.00	503.00	504.00	497.00	496.00	499.00	501.00	511.00	518.00	516.00	523.00	556.00	555.00	537.00	536.00	539.00	535.00	533.00	538.00	535.00	537.00	545.00	550.00	553.00	555.00	564.00	568.00	572.00	576.00	579.00	568.00	565.00	561.00	555.00	553.00	552.00	550.00	548.00	545.00	558.00	553.00	555.00	554.00	571.00	571.00	561.00	554.00	547.00	541.00	537.00	541.00	553.00	549.00	546.00	540.00	537.00	534.00	530.00	530.00	531.00	534.00	545.00	549.00	555.00	555.00	559.00	565.00	563.00	563.00	563.00	566.00	568.00	575.00	579.00	582.00	601.00	620.00	648.00	668.00	610.00	603.00	599.00	597.00	595.00	594.00	595.00	595.00	596.00	600.00	601.00	603.00	607.00	607.00	614.00	617.00	620.00	621.00	630.00	649.00	641.00	644.00	650.00
335.00	345.00	337.00	339.00	348.00	360.00	533.00	612.00	630.00	529.00	530.00	494.00	419.00	357.00	351.00	355.00	371.00	361.00	414.00	379.00	379.00	372.00	372.00	375.00	367.00	375.00	365.00	355.00	366.00	374.00	390.00	438.00	413.00	399.00	389.00	392.00	411.00	466.00	574.00	557.00	467.00	482.00	632.00	645.00	554.00	398.00	368.00	362.00	359.00	364.00	377.00	420.00	387.00	406.00	374.00	352.00	344.00	341.00	345.00	338.00	340.00	352.00	362.00	383.00	362.00	356.00	355.00	355.00	368.00	368.00	380.00	404.00	382.00	394.00	391.00	392.00	418.00	406.00	407.00	426.00	447.00	438.00	449.00	468.00	460.00	440.00	447.00	460.00	466.00	453.00	432.00	432.00	438.00	438.00	432.00	425.00	417.00	412.00	409.00	406.00	417.00	416.00	411.00	404.00	403.00	403.00	408.00	418.00	415.00	435.00	432.00	422.00	438.00	437.00	443.00	447.00	440.00	436.00	431.00	427.00	432.00	438.00	441.00	448.00	451.00	452.00	458.00	464.00	464.00	470.00	465.00	455.00	459.00	464.00	475.00	474.00	473.00	474.00	476.00	482.00	482.00	476.00	476.00	473.00	472.00	470.00	468.00	469.00	478.00	478.00	483.00	488.00	499.00	514.00	513.00	505.00	501.00	495.00	497.00	503.00	513.00	532.00	544.00	525.00	521.00	524.00	526.00	526.00	527.00	523.00	523.00	526.00	525.00	528.00	535.00	543.00	543.00	546.00	549.00	557.00	560.00	564.00	570.00	574.00	566.00	564.00	563.00	562.00	562.00	558.00	557.00	556.00	552.00	558.00	566.00	565.00	562.00	567.00	562.00	560.00	558.00	557.00	545.00	546.00	546.00	554.00	579.00	572.00	558.00	554.00	547.00	540.00	538.00	535.00	533.00	540.00	544.00	548.00	553.00	557.00	557.00	556.00	556.00	557.00	562.00	563.00	570.00	572.00	574.00	580.00	580.00	582.00	589.00	626.00	600.00	595.00	591.00	595.00	589.00	594.00	591.00	591.00	595.00	597.00	598.00	601.00	602.00	609.00	612.00	615.00	616.00	620.00	624.00	626.00	630.00	637.00
342.00	354.00	358.00	357.00	358.00	366.00	483.00	623.00	647.00	523.00	512.00	439.00	363.00	346.00	347.00	343.00	362.00	355.00	371.00	369.00	380.00	393.00	389.00	382.00	374.00	373.00	364.00	380.00	408.00	372.00	372.00	437.00	406.00	394.00	387.00	411.00	451.00	472.00	665.00	667.00	457.00	566.00	743.00	710.00	568.00	374.00	371.00	357.00	355.00	357.00	373.00	380.00	372.00	353.00	343.00	341.00	340.00	341.00	338.00	337.00	342.00	348.00	362.00	361.00	353.00	349.00	350.00	359.00	365.00	374.00	377.00	414.00	379.00	382.00	385.00	398.00	404.00	399.00	401.00	435.00	457.00	430.00	445.00	468.00	453.00	442.00	447.00	458.00	453.00	451.00	449.00	431.00	439.00	441.00	455.00	444.00	436.00	428.00	422.00	407.00	414.00	416.00	412.00	403.00	400.00	406.00	415.00	413.00	426.00	438.00	420.00	420.00	439.00	445.00	443.00	451.00	440.00	440.00	438.00	427.00	426.00	436.00	438.00	438.00	445.00	451.00	456.00	463.00	460.00	462.00	460.00	455.00	459.00	464.00	471.00	472.00	470.00	472.00	471.00	479.00	480.00	471.00	470.00	468.00	466.00	466.00	469.00	475.00	481.00	481.00	483.00	488.00	501.00	512.00	508.00	507.00	505.00	493.00	496.00	504.00	508.00	515.00	515.00	519.00	519.00	520.00	521.00	522.00	517.00	517.00	523.00	526.00	530.00	534.00	542.00	545.00	548.00	553.00	554.00	558.00	563.00	567.00	572.00	575.00	569.00	568.00	566.00	565.00	566.00	562.00	560.00	560.00	557.00	559.00	571.00	570.00	567.00	567.00	564.00	561.00	556.00	551.00	549.00	550.00	551.00	556.00	602.00	702.00	626.00	602.00	585.00	549.00	544.00	541.00	536.00	539.00	543.00	546.00	552.00	553.00	554.00	553.00	556.00	558.00	565.00	568.00	568.00	569.00	572.00	576.00	573.00	575.00	579.00	592.00	598.00	595.00	590.00	593.00	589.00	588.00	588.00	589.00	594.00	596.00	597.00	598.00	602.00	610.00	611.00	613.00	618.00	622.00	624.00	624.00	629.00	640.00
355.00	358.00	359.00	376.00	361.00	406.00	507.00	523.00	538.00	482.00	535.00	411.00	381.00	345.00	342.00	343.00	360.00	377.00	390.00	393.00	374.00	375.00	380.00	371.00	388.00	356.00	364.00	376.00	389.00	376.00	379.00	411.00	385.00	386.00	421.00	437.00	398.00	462.00	525.00	524.00	567.00	599.00	657.00	596.00	473.00	382.00	373.00	355.00	359.00	360.00	362.00	354.00	351.00	346.00	340.00	339.00	339.00	339.00	335.00	340.00	342.00	348.00	358.00	353.00	348.00	347.00	350.00	360.00	360.00	370.00	372.00	384.00	381.00	386.00	389.00	397.00	398.00	394.00	398.00	416.00	429.00	422.00	442.00	453.00	441.00	435.00	442.00	448.00	440.00	453.00	433.00	423.00	433.00	454.00	460.00	452.00	446.00	436.00	420.00	405.00	420.00	424.00	414.00	406.00	400.00	399.00	404.00	409.00	441.00	420.00	411.00	415.00	432.00	443.00	446.00	446.00	435.00	438.00	428.00	423.00	419.00	431.00	435.00	439.00	447.00	448.00	452.00	457.00	459.00	460.00	455.00	452.00	458.00	464.00	469.00	468.00	467.00	467.00	472.00	473.00	474.00	470.00	465.00	461.00	464.00	464.00	471.00	476.00	481.00	487.00	490.00	492.00	504.00	508.00	514.00	521.00	512.00	487.00	492.00	499.00	501.00	509.00	511.00	515.00	513.00	518.00	515.00	518.00	516.00	513.00	533.00	531.00	540.00	538.00	540.00	549.00	554.00	560.00	557.00	562.00	565.00	568.00	575.00	575.00	574.00	571.00	570.00	569.00	571.00	565.00	564.00	560.00	558.00	563.00	571.00	572.00	570.00	568.00	563.00	562.00	558.00	554.00	553.00	555.00	555.00	560.00	675.00	769.00	786.00	689.00	597.00	561.00	552.00	545.00	540.00	537.00	541.00	543.00	548.00	549.00	551.00	554.00	557.00	560.00	569.00	569.00	566.00	566.00	569.00	571.00	570.00	570.00	572.00	580.00	586.00	591.00	588.00	584.00	590.00	585.00	589.00	588.00	591.00	593.00	594.00	597.00	601.00	607.00	609.00	614.00	618.00	619.00	624.00	624.00	626.00	645.00
335.00	335.00	346.00	348.00	394.00	476.00	519.00	506.00	467.00	460.00	541.00	422.00	394.00	346.00	342.00	342.00	376.00	388.00	406.00	408.00	387.00	361.00	359.00	371.00	385.00	368.00	337.00	385.00	415.00	385.00	369.00	400.00	403.00	393.00	413.00	407.00	381.00	547.00	648.00	725.00	584.00	555.00	600.00	416.00	368.00	357.00	358.00	351.00	352.00	349.00	347.00	347.00	347.00	344.00	341.00	337.00	337.00	337.00	335.00	338.00	339.00	343.00	346.00	346.00	345.00	347.00	348.00	355.00	359.00	364.00	369.00	375.00	383.00	381.00	390.00	401.00	393.00	394.00	397.00	412.00	415.00	431.00	445.00	445.00	446.00	431.00	433.00	446.00	442.00	434.00	445.00	428.00	429.00	435.00	436.00	438.00	435.00	433.00	437.00	412.00	430.00	419.00	411.00	406.00	399.00	401.00	412.00	418.00	417.00	409.00	410.00	410.00	420.00	436.00	442.00	436.00	428.00	427.00	423.00	418.00	421.00	434.00	442.00	449.00	453.00	456.00	463.00	462.00	460.00	462.00	452.00	450.00	457.00	465.00	471.00	463.00	464.00	468.00	472.00	470.00	469.00	466.00	459.00	458.00	464.00	467.00	472.00	473.00	480.00	486.00	488.00	493.00	502.00	509.00	513.00	517.00	498.00	487.00	493.00	497.00	497.00	509.00	512.00	511.00	511.00	517.00	513.00	515.00	511.00	510.00	522.00	526.00	532.00	535.00	543.00	551.00	551.00	557.00	557.00	564.00	565.00	566.00	571.00	573.00	579.00	575.00	573.00	571.00	569.00	568.00	563.00	562.00	563.00	563.00	570.00	574.00	576.00	570.00	566.00	561.00	558.00	558.00	556.00	558.00	559.00	565.00	673.00	663.00	726.00	630.00	584.00	565.00	556.00	548.00	542.00	537.00	539.00	541.00	544.00	546.00	553.00	556.00	558.00	562.00	566.00	565.00	563.00	564.00	566.00	567.00	567.00	567.00	569.00	575.00	583.00	590.00	583.00	581.00	584.00	585.00	586.00	585.00	589.00	592.00	593.00	595.00	598.00	604.00	608.00	610.00	611.00	617.00	619.00	621.00	625.00	635.00
346.00	346.00	334.00	354.00	474.00	458.00	536.00	597.00	522.00	370.00	362.00	366.00	378.00	344.00	340.00	339.00	358.00	375.00	375.00	374.00	383.00	348.00	347.00	350.00	357.00	342.00	351.00	382.00	371.00	361.00	356.00	374.00	386.00	386.00	356.00	367.00	364.00	357.00	402.00	423.00	431.00	477.00	473.00	436.00	442.00	382.00	342.00	339.00	339.00	337.00	339.00	338.00	342.00	339.00	338.00	336.00	334.00	333.00	333.00	335.00	337.00	339.00	340.00	348.00	355.00	358.00	357.00	358.00	365.00	365.00	372.00	402.00	373.00	376.00	387.00	404.00	387.00	407.00	396.00	408.00	429.00	433.00	435.00	423.00	426.00	456.00	454.00	434.00	422.00	420.00	406.00	407.00	407.00	407.00	405.00	402.00	399.00	399.00	399.00	396.00	397.00	396.00	395.00	395.00	394.00	394.00	396.00	397.00	401.00	404.00	410.00	417.00	430.00	441.00	435.00	433.00	430.00	421.00	417.00	416.00	419.00	448.00	446.00	471.00	528.00	471.00	464.00	457.00	457.00	455.00	450.00	445.00	454.00	458.00	454.00	461.00	463.00	467.00	464.00	460.00	460.00	457.00	453.00	461.00	466.00	467.00	471.00	473.00	476.00	481.00	481.00	483.00	502.00	507.00	512.00	510.00	512.00	486.00	486.00	489.00	492.00	499.00	500.00	507.00	509.00	514.00	509.00	508.00	504.00	506.00	515.00	529.00	529.00	531.00	536.00	549.00	554.00	556.00	554.00	553.00	557.00	561.00	566.00	568.00	579.00	584.00	580.00	579.00	575.00	574.00	572.00	569.00	570.00	569.00	571.00	575.00	579.00	574.00	569.00	566.00	565.00	568.00	566.00	566.00	570.00	607.00	600.00	599.00	596.00	590.00	585.00	577.00	568.00	557.00	552.00	543.00	542.00	541.00	542.00	543.00	545.00	550.00	558.00	564.00	560.00	563.00	559.00	562.00	561.00	565.00	566.00	570.00	569.00	571.00	573.00	574.00	576.00	578.00	583.00	588.00	600.00	591.00	601.00	609.00	614.00	625.00	603.00	603.00	604.00	606.00	609.00	615.00	619.00	621.00	625.00	639.00
339.00	341.00	348.00	353.00	354.00	366.00	399.00	419.00	406.00	371.00	355.00	351.00	348.00	341.00	342.00	337.00	357.00	374.00	382.00	373.00	363.00	364.00	339.00	354.00	337.00	366.00	361.00	376.00	365.00	383.00	355.00	363.00	351.00	351.00	350.00	355.00	352.00	352.00	348.00	344.00	369.00	379.00	363.00	374.00	344.00	336.00	335.00	334.00	334.00	334.00	336.00	334.00	335.00	335.00	337.00	335.00	332.00	333.00	336.00	339.00	344.00	341.00	345.00	353.00	353.00	351.00	352.00	355.00	360.00	364.00	366.00	375.00	375.00	376.00	377.00	381.00	390.00	396.00	392.00	415.00	448.00	431.00	425.00	423.00	426.00	438.00	443.00	426.00	411.00	406.00	404.00	405.00	404.00	402.00	403.00	401.00	397.00	396.00	394.00	395.00	393.00	393.00	393.00	391.00	393.00	395.00	399.00	399.00	403.00	406.00	411.00	419.00	421.00	424.00	428.00	427.00	426.00	419.00	415.00	414.00	421.00	439.00	455.00	455.00	498.00	475.00	453.00	452.00	453.00	453.00	448.00	443.00	452.00	454.00	457.00	459.00	463.00	464.00	461.00	455.00	457.00	455.00	454.00	463.00	467.00	469.00	469.00	471.00	473.00	475.00	478.00	484.00	497.00	501.00	506.00	503.00	502.00	482.00	484.00	489.00	491.00	494.00	495.00	507.00	505.00	514.00	503.00	501.00	504.00	510.00	514.00	519.00	523.00	529.00	537.00	548.00	552.00	549.00	547.00	553.00	557.00	560.00	563.00	567.00	576.00	581.00	583.00	581.00	579.00	579.00	575.00	572.00	573.00	574.00	573.00	575.00	578.00	574.00	572.00	570.00	569.00	572.00	569.00	570.00	574.00	586.00	596.00	619.00	637.00	645.00	605.00	577.00	569.00	561.00	557.00	545.00	547.00	545.00	545.00	544.00	545.00	547.00	552.00	554.00	556.00	555.00	560.00	559.00	559.00	564.00	565.00	569.00	573.00	570.00	573.00	575.00	576.00	579.00	583.00	588.00	597.00	598.00	593.00	602.00	612.00	643.00	621.00	603.00	604.00	606.00	609.00	615.00	616.00	621.00	623.00	632.00
338.00	355.00	337.00	339.00	348.00	353.00	350.00	347.00	348.00	345.00	343.00	342.00	342.00	336.00	336.00	334.00	346.00	359.00	388.00	382.00	356.00	368.00	328.00	326.00	334.00	353.00	347.00	381.00	366.00	364.00	343.00	350.00	355.00	357.00	345.00	347.00	344.00	343.00	338.00	338.00	344.00	341.00	340.00	337.00	335.00	332.00	331.00	330.00	330.00	333.00	331.00	332.00	330.00	336.00	335.00	332.00	333.00	335.00	338.00	338.00	342.00	344.00	349.00	345.00	346.00	347.00	355.00	355.00	360.00	364.00	365.00	371.00	382.00	386.00	387.00	392.00	397.00	391.00	394.00	439.00	454.00	424.00	419.00	423.00	423.00	442.00	436.00	426.00	409.00	405.00	405.00	404.00	402.00	400.00	401.00	398.00	397.00	394.00	392.00	394.00	390.00	391.00	390.00	389.00	395.00	395.00	400.00	404.00	411.00	413.00	415.00	425.00	427.00	422.00	423.00	421.00	417.00	415.00	413.00	411.00	417.00	423.00	429.00	438.00	479.00	467.00	448.00	448.00	450.00	446.00	446.00	442.00	450.00	450.00	452.00	456.00	459.00	458.00	456.00	451.00	451.00	451.00	455.00	460.00	463.00	465.00	465.00	466.00	468.00	473.00	475.00	482.00	494.00	509.00	510.00	503.00	495.00	483.00	482.00	484.00	489.00	489.00	493.00	515.00	501.00	499.00	496.00	500.00	503.00	507.00	511.00	516.00	519.00	527.00	534.00	540.00	549.00	544.00	542.00	551.00	554.00	558.00	564.00	567.00	574.00	578.00	581.00	582.00	583.00	583.00	578.00	576.00	576.00	578.00	575.00	578.00	580.00	577.00	575.00	574.00	575.00	576.00	575.00	574.00	576.00	592.00	663.00	761.00	739.00	709.00	669.00	588.00	575.00	568.00	562.00	549.00	551.00	550.00	547.00	546.00	547.00	548.00	547.00	548.00	554.00	554.00	557.00	558.00	560.00	564.00	567.00	569.00	572.00	577.00	575.00	575.00	579.00	580.00	585.00	589.00	594.00	599.00	599.00	593.00	598.00	605.00	607.00	604.00	606.00	606.00	609.00	614.00	617.00	619.00	623.00	629.00
348.00	369.00	342.00	363.00	388.00	372.00	347.00	341.00	347.00	339.00	338.00	337.00	337.00	330.00	332.00	336.00	348.00	346.00	365.00	362.00	351.00	343.00	325.00	347.00	340.00	333.00	338.00	367.00	353.00	347.00	347.00	346.00	345.00	341.00	341.00	342.00	335.00	336.00	335.00	335.00	340.00	337.00	338.00	334.00	329.00	328.00	326.00	327.00	331.00	330.00	330.00	327.00	327.00	333.00	336.00	332.00	331.00	330.00	333.00	337.00	340.00	345.00	345.00	342.00	344.00	347.00	353.00	355.00	359.00	364.00	368.00	372.00	375.00	383.00	392.00	420.00	413.00	410.00	407.00	450.00	458.00	423.00	419.00	416.00	422.00	419.00	428.00	419.00	419.00	417.00	401.00	399.00	400.00	398.00	397.00	395.00	395.00	394.00	390.00	390.00	388.00	386.00	387.00	391.00	394.00	398.00	403.00	409.00	414.00	415.00	413.00	416.00	428.00	438.00	435.00	434.00	418.00	415.00	413.00	411.00	415.00	421.00	424.00	428.00	436.00	448.00	444.00	447.00	453.00	449.00	441.00	444.00	449.00	446.00	450.00	454.00	456.00	452.00	452.00	447.00	449.00	445.00	450.00	458.00	463.00	462.00	461.00	462.00	471.00	473.00	479.00	478.00	497.00	521.00	519.00	501.00	495.00	484.00	478.00	484.00	487.00	485.00	490.00	493.00	493.00	494.00	500.00	500.00	502.00	506.00	508.00	511.00	520.00	520.00	528.00	535.00	541.00	537.00	538.00	546.00	549.00	552.00	558.00	561.00	574.00	579.00	577.00	577.00	586.00	582.00	581.00	578.00	579.00	582.00	578.00	579.00	582.00	580.00	579.00	579.00	578.00	581.00	581.00	580.00	581.00	589.00	614.00	653.00	653.00	679.00	632.00	594.00	581.00	571.00	566.00	555.00	552.00	549.00	548.00	547.00	549.00	549.00	550.00	552.00	551.00	552.00	555.00	558.00	561.00	566.00	569.00	571.00	575.00	578.00	581.00	578.00	578.00	581.00	586.00	589.00	594.00	600.00	598.00	595.00	596.00	598.00	604.00	607.00	606.00	608.00	611.00	614.00	616.00	619.00	619.00	627.00
327.00	343.00	322.00	330.00	381.00	483.00	344.00	354.00	349.00	329.00	336.00	329.00	326.00	323.00	326.00	323.00	335.00	345.00	353.00	354.00	352.00	344.00	336.00	351.00	366.00	341.00	342.00	344.00	342.00	330.00	334.00	336.00	335.00	340.00	341.00	342.00	333.00	326.00	328.00	327.00	327.00	325.00	325.00	323.00	320.00	320.00	321.00	320.00	320.00	322.00	327.00	325.00	326.00	328.00	331.00	328.00	324.00	327.00	336.00	347.00	346.00	341.00	341.00	342.00	344.00	348.00	353.00	360.00	363.00	366.00	381.00	384.00	397.00	433.00	450.00	462.00	448.00	429.00	432.00	450.00	445.00	419.00	420.00	422.00	423.00	411.00	418.00	408.00	405.00	399.00	394.00	399.00	396.00	394.00	393.00	392.00	391.00	390.00	386.00	385.00	385.00	384.00	386.00	396.00	398.00	401.00	405.00	405.00	404.00	405.00	407.00	421.00	433.00	428.00	426.00	434.00	426.00	420.00	411.00	419.00	442.00	460.00	446.00	443.00	442.00	444.00	459.00	456.00	443.00	442.00	433.00	438.00	438.00	439.00	445.00	447.00	448.00	444.00	449.00	441.00	440.00	445.00	455.00	455.00	458.00	459.00	461.00	464.00	472.00	475.00	476.00	479.00	502.00	537.00	522.00	511.00	491.00	473.00	479.00	477.00	478.00	481.00	483.00	491.00	494.00	494.00	500.00	512.00	512.00	511.00	512.00	516.00	518.00	522.00	523.00	527.00	532.00	532.00	534.00	544.00	550.00	557.00	561.00	561.00	572.00	568.00	571.00	577.00	579.00	580.00	580.00	579.00	580.00	585.00	587.00	586.00	587.00	588.00	590.00	589.00	592.00	595.00	598.00	597.00	601.00	599.00	605.00	606.00	602.00	598.00	596.00	588.00	585.00	585.00	576.00	558.00	556.00	558.00	558.00	555.00	558.00	566.00	570.00	563.00	558.00	555.00	559.00	562.00	564.00	570.00	573.00	575.00	578.00	589.00	589.00	585.00	582.00	583.00	591.00	595.00	598.00	600.00	602.00	600.00	601.00	602.00	601.00	609.00	612.00	614.00	613.00	617.00	618.00	621.00	624.00	628.00
318.00	322.00	318.00	328.00	331.00	337.00	337.00	340.00	335.00	328.00	325.00	328.00	328.00	324.00	327.00	322.00	333.00	334.00	340.00	344.00	358.00	341.00	340.00	333.00	341.00	332.00	342.00	351.00	336.00	331.00	333.00	331.00	335.00	335.00	342.00	335.00	331.00	325.00	325.00	325.00	323.00	323.00	321.00	320.00	317.00	317.00	318.00	317.00	319.00	317.00	320.00	322.00	323.00	326.00	327.00	323.00	324.00	332.00	333.00	338.00	341.00	345.00	345.00	344.00	347.00	349.00	353.00	368.00	371.00	368.00	379.00	389.00	399.00	414.00	434.00	442.00	462.00	452.00	425.00	438.00	448.00	414.00	418.00	421.00	419.00	406.00	410.00	400.00	396.00	396.00	390.00	389.00	393.00	392.00	390.00	391.00	391.00	389.00	386.00	383.00	382.00	383.00	387.00	394.00	397.00	399.00	400.00	397.00	401.00	401.00	402.00	409.00	419.00	413.00	414.00	428.00	421.00	409.00	406.00	412.00	429.00	444.00	455.00	458.00	444.00	451.00	464.00	461.00	448.00	434.00	430.00	434.00	435.00	440.00	444.00	443.00	447.00	445.00	440.00	436.00	444.00	445.00	454.00	460.00	460.00	461.00	464.00	467.00	474.00	473.00	477.00	481.00	512.00	533.00	520.00	502.00	485.00	472.00	477.00	475.00	479.00	486.00	490.00	495.00	500.00	500.00	499.00	504.00	504.00	505.00	512.00	516.00	521.00	524.00	529.00	531.00	530.00	534.00	537.00	547.00	550.00	554.00	560.00	561.00	564.00	567.00	570.00	572.00	575.00	575.00	575.00	574.00	576.00	581.00	589.00	589.00	591.00	595.00	595.00	602.00	632.00	615.00	610.00	607.00	604.00	611.00	614.00	621.00	609.00	601.00	593.00	582.00	578.00	576.00	571.00	560.00	558.00	562.00	561.00	558.00	561.00	564.00	567.00	565.00	558.00	555.00	562.00	564.00	567.00	571.00	574.00	579.00	583.00	587.00	588.00	586.00	586.00	586.00	590.00	592.00	597.00	602.00	607.00	604.00	605.00	605.00	603.00	609.00	611.00	616.00	618.00	618.00	620.00	622.00	624.00	632.00
313.00	320.00	319.00	318.00	324.00	330.00	338.00	340.00	344.00	406.00	359.00	328.00	323.00	322.00	330.00	330.00	324.00	325.00	351.00	340.00	342.00	327.00	330.00	342.00	358.00	338.00	344.00	340.00	332.00	329.00	332.00	334.00	330.00	330.00	334.00	331.00	329.00	330.00	321.00	321.00	318.00	318.00	317.00	317.00	316.00	315.00	316.00	314.00	320.00	317.00	317.00	322.00	328.00	331.00	324.00	321.00	323.00	326.00	333.00	336.00	342.00	344.00	346.00	348.00	350.00	352.00	356.00	372.00	369.00	372.00	376.00	391.00	399.00	435.00	445.00	434.00	453.00	447.00	426.00	435.00	452.00	410.00	414.00	419.00	414.00	402.00	405.00	401.00	394.00	393.00	388.00	388.00	389.00	391.00	389.00	390.00	391.00	390.00	386.00	381.00	382.00	386.00	388.00	389.00	393.00	393.00	393.00	394.00	397.00	398.00	401.00	404.00	411.00	411.00	409.00	415.00	409.00	403.00	409.00	414.00	424.00	430.00	437.00	436.00	439.00	453.00	465.00	447.00	439.00	437.00	427.00	432.00	434.00	438.00	439.00	441.00	441.00	435.00	435.00	443.00	451.00	452.00	454.00	460.00	462.00	466.00	469.00	469.00	478.00	475.00	478.00	484.00	517.00	523.00	517.00	487.00	485.00	468.00	471.00	475.00	479.00	494.00	497.00	501.00	505.00	505.00	506.00	510.00	506.00	506.00	510.00	515.00	521.00	526.00	535.00	538.00	534.00	537.00	542.00	547.00	552.00	556.00	557.00	559.00	562.00	565.00	564.00	567.00	574.00	571.00	570.00	569.00	571.00	577.00	584.00	586.00	590.00	598.00	602.00	603.00	605.00	607.00	616.00	619.00	614.00	610.00	627.00	640.00	627.00	603.00	594.00	581.00	576.00	571.00	569.00	562.00	561.00	564.00	563.00	561.00	562.00	568.00	569.00	563.00	557.00	558.00	561.00	567.00	570.00	575.00	578.00	580.00	585.00	589.00	590.00	590.00	590.00	589.00	592.00	593.00	596.00	601.00	607.00	609.00	608.00	608.00	607.00	611.00	613.00	616.00	617.00	619.00	621.00	624.00	625.00	630.00
317.00	321.00	322.00	322.00	327.00	328.00	342.00	341.00	363.00	503.00	399.00	327.00	327.00	323.00	333.00	334.00	317.00	322.00	335.00	332.00	327.00	325.00	329.00	337.00	355.00	335.00	341.00	342.00	329.00	328.00	330.00	330.00	328.00	326.00	328.00	329.00	325.00	325.00	319.00	318.00	315.00	314.00	314.00	315.00	315.00	313.00	311.00	312.00	316.00	318.00	324.00	324.00	326.00	324.00	331.00	324.00	323.00	325.00	332.00	335.00	342.00	348.00	347.00	350.00	352.00	354.00	357.00	370.00	371.00	375.00	377.00	387.00	395.00	416.00	434.00	434.00	436.00	426.00	432.00	438.00	427.00	406.00	411.00	419.00	430.00	407.00	407.00	405.00	392.00	391.00	386.00	386.00	387.00	386.00	394.00	392.00	392.00	387.00	385.00	382.00	381.00	387.00	390.00	386.00	389.00	389.00	390.00	390.00	396.00	399.00	402.00	407.00	408.00	407.00	406.00	406.00	401.00	401.00	407.00	419.00	427.00	429.00	421.00	427.00	426.00	437.00	441.00	436.00	432.00	438.00	424.00	429.00	436.00	440.00	434.00	437.00	436.00	432.00	431.00	443.00	449.00	451.00	456.00	463.00	462.00	466.00	470.00	473.00	478.00	478.00	481.00	486.00	509.00	501.00	493.00	478.00	476.00	468.00	472.00	477.00	480.00	491.00	496.00	500.00	503.00	507.00	509.00	512.00	511.00	512.00	513.00	516.00	520.00	526.00	537.00	539.00	538.00	540.00	541.00	543.00	548.00	550.00	552.00	554.00	560.00	559.00	559.00	561.00	569.00	567.00	565.00	566.00	568.00	574.00	582.00	586.00	593.00	603.00	609.00	612.00	615.00	620.00	622.00	635.00	626.00	612.00	612.00	630.00	622.00	602.00	592.00	580.00	576.00	573.00	571.00	564.00	564.00	566.00	565.00	566.00	563.00	566.00	567.00	564.00	557.00	559.00	564.00	567.00	571.00	579.00	581.00	585.00	588.00	594.00	594.00	593.00	593.00	591.00	593.00	594.00	596.00	600.00	607.00	610.00	611.00	611.00	609.00	613.00	616.00	616.00	619.00	625.00	626.00	626.00	628.00	631.00
316.00	319.00	321.00	324.00	331.00	345.00	342.00	354.00	456.00	432.00	336.00	328.00	336.00	322.00	326.00	324.00	340.00	321.00	323.00	323.00	318.00	315.00	327.00	329.00	328.00	329.00	327.00	336.00	326.00	324.00	323.00	327.00	321.00	323.00	325.00	326.00	324.00	318.00	316.00	313.00	312.00	310.00	310.00	312.00	320.00	336.00	313.00	310.00	315.00	325.00	319.00	318.00	324.00	322.00	323.00	325.00	326.00	330.00	337.00	340.00	340.00	342.00	343.00	348.00	352.00	356.00	359.00	369.00	373.00	375.00	384.00	386.00	390.00	399.00	413.00	414.00	416.00	412.00	401.00	395.00	404.00	420.00	411.00	412.00	423.00	410.00	396.00	389.00	387.00	386.00	382.00	383.00	385.00	382.00	385.00	390.00	394.00	390.00	389.00	384.00	378.00	381.00	382.00	384.00	389.00	391.00	392.00	396.00	400.00	405.00	404.00	412.00	409.00	406.00	401.00	404.00	398.00	397.00	404.00	410.00	417.00	412.00	411.00	418.00	424.00	424.00	431.00	431.00	430.00	429.00	424.00	431.00	432.00	429.00	430.00	426.00	427.00	429.00	434.00	441.00	444.00	445.00	454.00	459.00	463.00	470.00	469.00	470.00	474.00	480.00	485.00	486.00	486.00	478.00	473.00	467.00	463.00	475.00	479.00	482.00	482.00	485.00	491.00	499.00	499.00	504.00	513.00	516.00	518.00	518.00	522.00	521.00	523.00	524.00	529.00	530.00	531.00	535.00	534.00	534.00	538.00	541.00	541.00	544.00	548.00	549.00	557.00	554.00	555.00	557.00	558.00	562.00	567.00	583.00	585.00	591.00	596.00	673.00	671.00	713.00	724.00	647.00	633.00	637.00	645.00	613.00	605.00	599.00	595.00	590.00	588.00	583.00	586.00	594.00	580.00	571.00	573.00	574.00	574.00	571.00	569.00	571.00	567.00	563.00	560.00	562.00	568.00	569.00	569.00	577.00	579.00	584.00	587.00	596.00	595.00	600.00	599.00	601.00	601.00	601.00	602.00	603.00	606.00	609.00	614.00	616.00	615.00	615.00	618.00	621.00	624.00	633.00	647.00	649.00	642.00	640.00
329.00	324.00	322.00	323.00	339.00	361.00	342.00	354.00	475.00	470.00	326.00	339.00	329.00	318.00	318.00	324.00	332.00	321.00	316.00	314.00	310.00	316.00	328.00	335.00	330.00	329.00	332.00	327.00	323.00	319.00	316.00	321.00	317.00	321.00	325.00	323.00	324.00	318.00	312.00	311.00	309.00	308.00	309.00	314.00	352.00	338.00	308.00	310.00	316.00	331.00	325.00	324.00	334.00	328.00	325.00	327.00	327.00	329.00	337.00	341.00	345.00	345.00	347.00	351.00	354.00	356.00	360.00	368.00	375.00	379.00	383.00	381.00	379.00	401.00	400.00	420.00	394.00	395.00	388.00	390.00	405.00	427.00	411.00	407.00	423.00	412.00	397.00	390.00	385.00	385.00	381.00	380.00	381.00	381.00	384.00	388.00	394.00	388.00	385.00	385.00	377.00	377.00	378.00	383.00	385.00	390.00	394.00	398.00	403.00	406.00	410.00	415.00	409.00	406.00	402.00	399.00	396.00	396.00	406.00	414.00	409.00	409.00	408.00	415.00	421.00	433.00	431.00	433.00	431.00	427.00	418.00	425.00	420.00	420.00	424.00	425.00	427.00	432.00	438.00	445.00	447.00	452.00	457.00	460.00	468.00	468.00	464.00	467.00	479.00	492.00	495.00	485.00	475.00	474.00	471.00	461.00	465.00	475.00	474.00	477.00	480.00	488.00	494.00	504.00	501.00	507.00	513.00	516.00	519.00	520.00	518.00	518.00	521.00	521.00	527.00	524.00	525.00	529.00	527.00	531.00	539.00	538.00	537.00	541.00	544.00	547.00	555.00	549.00	554.00	562.00	562.00	564.00	567.00	616.00	586.00	594.00	604.00	647.00	651.00	644.00	680.00	685.00	632.00	626.00	645.00	612.00	601.00	598.00	594.00	592.00	592.00	592.00	594.00	595.00	580.00	577.00	576.00	579.00	575.00	572.00	573.00	573.00	568.00	566.00	561.00	564.00	569.00	572.00	573.00	575.00	578.00	580.00	583.00	590.00	593.00	596.00	598.00	606.00	604.00	605.00	606.00	607.00	608.00	609.00	613.00	617.00	616.00	618.00	620.00	623.00	628.00	635.00	648.00	675.00	670.00	649.00
352.00	346.00	340.00	321.00	377.00	373.00	345.00	355.00	399.00	393.00	336.00	347.00	349.00	317.00	315.00	323.00	326.00	325.00	308.00	308.00	307.00	315.00	330.00	339.00	333.00	326.00	320.00	320.00	322.00	317.00	317.00	317.00	317.00	319.00	333.00	323.00	320.00	314.00	310.00	308.00	306.00	307.00	309.00	309.00	313.00	309.00	307.00	308.00	320.00	335.00	326.00	324.00	331.00	327.00	325.00	328.00	331.00	332.00	339.00	341.00	344.00	348.00	350.00	353.00	355.00	358.00	360.00	371.00	377.00	380.00	384.00	381.00	373.00	380.00	382.00	406.00	388.00	387.00	384.00	421.00	441.00	423.00	405.00	414.00	413.00	413.00	402.00	398.00	385.00	383.00	379.00	380.00	379.00	380.00	386.00	386.00	390.00	388.00	385.00	381.00	374.00	375.00	378.00	384.00	388.00	390.00	394.00	396.00	404.00	409.00	412.00	415.00	409.00	406.00	401.00	398.00	395.00	394.00	399.00	406.00	402.00	404.00	406.00	410.00	415.00	458.00	429.00	421.00	423.00	421.00	416.00	417.00	417.00	417.00	429.00	428.00	430.00	435.00	444.00	449.00	450.00	455.00	457.00	462.00	467.00	464.00	462.00	464.00	471.00	474.00	480.00	474.00	467.00	468.00	465.00	460.00	468.00	469.00	472.00	477.00	479.00	487.00	492.00	505.00	503.00	507.00	510.00	511.00	516.00	517.00	516.00	515.00	517.00	517.00	529.00	521.00	520.00	525.00	525.00	534.00	537.00	532.00	534.00	540.00	542.00	543.00	546.00	545.00	555.00	561.00	565.00	568.00	568.00	589.00	585.00	593.00	603.00	635.00	633.00	631.00	661.00	696.00	631.00	628.00	631.00	611.00	604.00	600.00	598.00	595.00	596.00	601.00	607.00	597.00	584.00	580.00	577.00	579.00	575.00	573.00	575.00	571.00	568.00	566.00	562.00	564.00	570.00	572.00	577.00	578.00	578.00	581.00	583.00	588.00	590.00	593.00	597.00	605.00	609.00	610.00	610.00	613.00	610.00	611.00	614.00	618.00	621.00	619.00	622.00	625.00	628.00	637.00	647.00	671.00	733.00	667.00
361.00	440.00	340.00	317.00	322.00	335.00	352.00	407.00	421.00	335.00	352.00	347.00	353.00	319.00	318.00	314.00	320.00	316.00	308.00	307.00	315.00	318.00	324.00	329.00	323.00	322.00	322.00	315.00	318.00	316.00	314.00	315.00	317.00	319.00	324.00	329.00	316.00	313.00	307.00	306.00	304.00	305.00	305.00	307.00	310.00	306.00	306.00	308.00	324.00	337.00	327.00	327.00	331.00	328.00	325.00	327.00	331.00	335.00	339.00	343.00	344.00	348.00	351.00	358.00	357.00	360.00	364.00	371.00	377.00	382.00	380.00	379.00	371.00	371.00	373.00	380.00	395.00	383.00	392.00	443.00	434.00	409.00	406.00	408.00	420.00	427.00	421.00	400.00	391.00	384.00	378.00	378.00	379.00	384.00	387.00	389.00	385.00	385.00	383.00	377.00	374.00	372.00	375.00	384.00	387.00	392.00	396.00	398.00	402.00	408.00	411.00	416.00	409.00	405.00	402.00	397.00	395.00	393.00	393.00	396.00	399.00	401.00	405.00	407.00	424.00	431.00	417.00	414.00	414.00	413.00	413.00	417.00	417.00	421.00	428.00	431.00	431.00	433.00	437.00	446.00	446.00	451.00	456.00	459.00	463.00	459.00	460.00	462.00	463.00	466.00	467.00	465.00	460.00	461.00	461.00	460.00	465.00	469.00	472.00	475.00	490.00	491.00	494.00	500.00	501.00	508.00	506.00	510.00	515.00	515.00	511.00	512.00	514.00	516.00	525.00	517.00	518.00	521.00	522.00	530.00	530.00	529.00	531.00	537.00	538.00	539.00	541.00	543.00	552.00	556.00	563.00	568.00	565.00	573.00	586.00	612.00	685.00	634.00	620.00	624.00	662.00	641.00	621.00	620.00	618.00	614.00	606.00	602.00	598.00	596.00	599.00	608.00	616.00	597.00	586.00	582.00	582.00	581.00	577.00	575.00	576.00	575.00	572.00	569.00	564.00	564.00	572.00	573.00	576.00	582.00	580.00	583.00	587.00	589.00	591.00	595.00	597.00	602.00	609.00	610.00	615.00	617.00	614.00	613.00	617.00	621.00	624.00	623.00	626.00	627.00	631.00	639.00	646.00	662.00	714.00	719.00
364.00	332.00	406.00	333.00	324.00	376.00	373.00	452.00	427.00	328.00	331.00	348.00	368.00	313.00	310.00	309.00	304.00	307.00	307.00	311.00	325.00	327.00	339.00	331.00	322.00	327.00	317.00	309.00	311.00	311.00	308.00	312.00	321.00	323.00	315.00	312.00	317.00	307.00	307.00	305.00	301.00	301.00	303.00	303.00	303.00	304.00	306.00	312.00	331.00	332.00	334.00	332.00	338.00	336.00	333.00	334.00	335.00	336.00	344.00	345.00	348.00	352.00	355.00	362.00	366.00	368.00	370.00	374.00	375.00	374.00	375.00	373.00	369.00	365.00	365.00	371.00	376.00	377.00	379.00	396.00	409.00	402.00	411.00	419.00	439.00	425.00	435.00	429.00	401.00	393.00	375.00	377.00	380.00	382.00	381.00	378.00	383.00	380.00	378.00	377.00	370.00	373.00	377.00	385.00	388.00	393.00	397.00	401.00	405.00	408.00	412.00	410.00	406.00	405.00	401.00	397.00	394.00	391.00	390.00	394.00	393.00	399.00	403.00	406.00	402.00	411.00	410.00	412.00	412.00	411.00	416.00	422.00	429.00	432.00	430.00	432.00	432.00	436.00	442.00	444.00	454.00	463.00	457.00	462.00	460.00	455.00	454.00	454.00	453.00	457.00	461.00	461.00	454.00	458.00	462.00	465.00	469.00	477.00	481.00	480.00	489.00	490.00	492.00	503.00	502.00	503.00	504.00	505.00	508.00	509.00	504.00	505.00	509.00	510.00	520.00	510.00	510.00	514.00	516.00	526.00	523.00	523.00	526.00	529.00	533.00	535.00	539.00	541.00	548.00	550.00	553.00	557.00	560.00	569.00	578.00	590.00	598.00	605.00	603.00	607.00	614.00	618.00	678.00	670.00	658.00	621.00	606.00	596.00	589.00	589.00	594.00	598.00	594.00	594.00	592.00	590.00	588.00	584.00	583.00	585.00	579.00	577.00	574.00	572.00	567.00	565.00	571.00	574.00	577.00	584.00	587.00	586.00	587.00	596.00	598.00	600.00	603.00	610.00	611.00	613.00	615.00	618.00	622.00	621.00	618.00	621.00	623.00	627.00	628.00	630.00	634.00	650.00	669.00	669.00	659.00	672.00
325.00	330.00	344.00	309.00	311.00	372.00	435.00	400.00	322.00	343.00	357.00	326.00	358.00	334.00	300.00	300.00	314.00	313.00	311.00	315.00	324.00	353.00	346.00	331.00	324.00	329.00	318.00	312.00	306.00	308.00	307.00	309.00	317.00	318.00	314.00	309.00	312.00	310.00	304.00	301.00	301.00	300.00	300.00	302.00	301.00	306.00	308.00	317.00	333.00	328.00	333.00	337.00	340.00	336.00	338.00	337.00	338.00	339.00	347.00	346.00	348.00	353.00	357.00	363.00	365.00	367.00	367.00	372.00	369.00	370.00	370.00	369.00	368.00	365.00	363.00	366.00	369.00	372.00	376.00	390.00	397.00	393.00	401.00	408.00	428.00	413.00	422.00	430.00	425.00	415.00	381.00	380.00	380.00	383.00	381.00	378.00	377.00	378.00	375.00	374.00	371.00	373.00	377.00	383.00	386.00	389.00	393.00	396.00	403.00	406.00	408.00	411.00	403.00	399.00	399.00	396.00	393.00	389.00	389.00	392.00	392.00	402.00	399.00	401.00	400.00	416.00	425.00	425.00	420.00	416.00	420.00	427.00	432.00	435.00	432.00	436.00	438.00	442.00	438.00	445.00	462.00	470.00	460.00	461.00	458.00	456.00	450.00	448.00	449.00	453.00	455.00	454.00	454.00	455.00	459.00	462.00	465.00	475.00	485.00	485.00	484.00	491.00	495.00	502.00	500.00	499.00	498.00	499.00	505.00	505.00	502.00	502.00	506.00	506.00	517.00	506.00	510.00	512.00	512.00	518.00	517.00	519.00	521.00	524.00	535.00	539.00	541.00	542.00	547.00	552.00	555.00	558.00	562.00	569.00	578.00	584.00	589.00	599.00	612.00	623.00	618.00	624.00	674.00	672.00	676.00	626.00	597.00	591.00	586.00	585.00	591.00	591.00	588.00	591.00	597.00	594.00	590.00	588.00	588.00	586.00	581.00	577.00	575.00	572.00	568.00	567.00	569.00	573.00	576.00	583.00	587.00	590.00	591.00	597.00	602.00	603.00	606.00	612.00	615.00	618.00	620.00	622.00	623.00	620.00	618.00	622.00	624.00	627.00	631.00	634.00	637.00	643.00	650.00	662.00	662.00	684.00
292.00	303.00	303.00	303.00	305.00	354.00	385.00	308.00	305.00	339.00	351.00	343.00	335.00	323.00	301.00	310.00	314.00	315.00	319.00	325.00	328.00	334.00	330.00	321.00	317.00	323.00	315.00	308.00	302.00	307.00	303.00	309.00	315.00	314.00	312.00	309.00	310.00	313.00	309.00	302.00	298.00	299.00	299.00	299.00	302.00	311.00	314.00	325.00	323.00	329.00	330.00	336.00	339.00	340.00	341.00	340.00	341.00	341.00	349.00	349.00	351.00	354.00	357.00	361.00	363.00	363.00	366.00	372.00	366.00	366.00	367.00	367.00	362.00	361.00	362.00	364.00	367.00	371.00	388.00	391.00	392.00	390.00	399.00	407.00	410.00	404.00	413.00	433.00	433.00	424.00	382.00	392.00	382.00	382.00	378.00	378.00	377.00	372.00	376.00	371.00	370.00	374.00	377.00	381.00	382.00	388.00	390.00	393.00	398.00	401.00	406.00	411.00	402.00	397.00	397.00	392.00	391.00	393.00	387.00	388.00	389.00	401.00	395.00	394.00	403.00	413.00	458.00	438.00	432.00	422.00	425.00	435.00	433.00	433.00	438.00	441.00	444.00	443.00	441.00	445.00	461.00	455.00	460.00	458.00	455.00	453.00	453.00	448.00	448.00	452.00	449.00	452.00	451.00	453.00	457.00	459.00	464.00	473.00	479.00	478.00	482.00	495.00	497.00	497.00	497.00	494.00	495.00	497.00	501.00	501.00	499.00	500.00	504.00	506.00	511.00	503.00	506.00	508.00	510.00	514.00	515.00	519.00	522.00	526.00	538.00	540.00	543.00	545.00	549.00	553.00	557.00	560.00	562.00	572.00	582.00	586.00	591.00	607.00	686.00	670.00	678.00	673.00	667.00	650.00	637.00	614.00	597.00	588.00	583.00	585.00	595.00	590.00	584.00	584.00	590.00	594.00	589.00	592.00	593.00	590.00	583.00	581.00	577.00	573.00	571.00	569.00	571.00	575.00	577.00	584.00	589.00	591.00	595.00	600.00	602.00	603.00	604.00	608.00	612.00	614.00	617.00	621.00	622.00	620.00	624.00	625.00	628.00	633.00	635.00	637.00	639.00	644.00	647.00	652.00	658.00	675.00
288.00	296.00	314.00	307.00	303.00	309.00	300.00	289.00	301.00	335.00	346.00	353.00	331.00	304.00	324.00	310.00	320.00	318.00	322.00	320.00	312.00	309.00	316.00	317.00	317.00	321.00	321.00	308.00	302.00	304.00	302.00	310.00	309.00	309.00	308.00	310.00	306.00	309.00	308.00	306.00	296.00	300.00	312.00	307.00	314.00	316.00	328.00	339.00	322.00	328.00	332.00	334.00	341.00	340.00	348.00	344.00	345.00	344.00	350.00	353.00	355.00	357.00	357.00	357.00	360.00	362.00	366.00	371.00	365.00	363.00	362.00	363.00	361.00	359.00	361.00	363.00	365.00	365.00	370.00	380.00	384.00	388.00	394.00	411.00	412.00	399.00	407.00	428.00	416.00	419.00	386.00	381.00	384.00	382.00	376.00	374.00	374.00	372.00	371.00	368.00	368.00	369.00	373.00	377.00	382.00	385.00	386.00	391.00	395.00	401.00	406.00	411.00	401.00	399.00	392.00	390.00	389.00	390.00	385.00	386.00	391.00	394.00	392.00	394.00	402.00	419.00	495.00	446.00	438.00	430.00	434.00	447.00	435.00	432.00	435.00	440.00	442.00	442.00	441.00	446.00	450.00	451.00	458.00	453.00	452.00	449.00	447.00	445.00	445.00	447.00	446.00	448.00	453.00	456.00	458.00	461.00	471.00	483.00	479.00	483.00	486.00	493.00	501.00	493.00	494.00	490.00	493.00	498.00	499.00	498.00	496.00	499.00	501.00	504.00	506.00	502.00	505.00	507.00	510.00	513.00	516.00	520.00	523.00	528.00	534.00	537.00	540.00	542.00	547.00	552.00	560.00	565.00	568.00	575.00	591.00	599.00	607.00	625.00	732.00	722.00	745.00	751.00	729.00	679.00	639.00	607.00	589.00	583.00	580.00	583.00	596.00	589.00	581.00	582.00	580.00	588.00	586.00	590.00	590.00	589.00	585.00	582.00	577.00	577.00	571.00	570.00	572.00	575.00	579.00	584.00	588.00	591.00	594.00	598.00	601.00	600.00	602.00	606.00	609.00	611.00	612.00	617.00	618.00	617.00	620.00	624.00	625.00	631.00	633.00	636.00	639.00	643.00	650.00	654.00	659.00	671.00
289.00	283.00	287.00	305.00	314.00	315.00	285.00	292.00	313.00	338.00	328.00	325.00	318.00	306.00	322.00	310.00	318.00	322.00	304.00	307.00	308.00	306.00	308.00	306.00	315.00	313.00	312.00	312.00	314.00	300.00	304.00	305.00	304.00	306.00	302.00	307.00	301.00	302.00	303.00	295.00	306.00	315.00	324.00	328.00	326.00	326.00	331.00	335.00	331.00	332.00	334.00	336.00	339.00	342.00	344.00	346.00	347.00	349.00	354.00	355.00	354.00	350.00	350.00	356.00	360.00	361.00	362.00	364.00	361.00	359.00	359.00	357.00	356.00	355.00	357.00	358.00	363.00	366.00	366.00	369.00	382.00	402.00	386.00	397.00	403.00	391.00	402.00	406.00	415.00	406.00	370.00	365.00	369.00	373.00	377.00	376.00	372.00	369.00	364.00	364.00	366.00	369.00	372.00	378.00	383.00	387.00	390.00	393.00	402.00	408.00	411.00	406.00	402.00	398.00	393.00	388.00	383.00	387.00	383.00	382.00	385.00	386.00	392.00	396.00	409.00	414.00	424.00	465.00	473.00	440.00	440.00	434.00	427.00	429.00	429.00	433.00	436.00	434.00	434.00	444.00	446.00	449.00	449.00	443.00	445.00	447.00	442.00	439.00	438.00	439.00	441.00	442.00	450.00	454.00	459.00	467.00	470.00	473.00	479.00	487.00	497.00	497.00	496.00	491.00	487.00	487.00	490.00	495.00	496.00	493.00	497.00	496.00	494.00	499.00	496.00	503.00	507.00	511.00	515.00	522.00	524.00	526.00	525.00	523.00	530.00	534.00	538.00	542.00	549.00	553.00	558.00	564.00	572.00	610.00	650.00	655.00	683.00	718.00	763.00	787.00	699.00	661.00	646.00	630.00	620.00	623.00	588.00	581.00	575.00	571.00	573.00	587.00	580.00	573.00	571.00	576.00	575.00	574.00	575.00	577.00	586.00	591.00	596.00	588.00	575.00	573.00	574.00	575.00	580.00	583.00	587.00	587.00	589.00	590.00	592.00	595.00	598.00	600.00	603.00	605.00	607.00	609.00	612.00	613.00	616.00	619.00	621.00	628.00	631.00	634.00	638.00	644.00	648.00	651.00	655.00	663.00
297.00	289.00	288.00	288.00	326.00	306.00	289.00	295.00	285.00	327.00	310.00	322.00	297.00	295.00	313.00	313.00	320.00	311.00	303.00	306.00	303.00	306.00	312.00	306.00	324.00	320.00	317.00	309.00	307.00	296.00	300.00	300.00	302.00	299.00	303.00	302.00	297.00	298.00	294.00	294.00	310.00	320.00	325.00	323.00	315.00	321.00	323.00	332.00	330.00	334.00	337.00	341.00	342.00	342.00	340.00	342.00	345.00	346.00	356.00	353.00	351.00	348.00	349.00	355.00	356.00	358.00	361.00	361.00	360.00	356.00	355.00	356.00	353.00	354.00	355.00	358.00	361.00	362.00	362.00	373.00	374.00	391.00	382.00	394.00	395.00	391.00	407.00	405.00	405.00	403.00	375.00	363.00	365.00	368.00	378.00	380.00	375.00	368.00	364.00	362.00	367.00	371.00	375.00	381.00	384.00	389.00	392.00	397.00	406.00	409.00	412.00	402.00	398.00	397.00	394.00	388.00	381.00	383.00	381.00	381.00	386.00	391.00	399.00	406.00	413.00	414.00	414.00	421.00	450.00	437.00	443.00	428.00	424.00	425.00	427.00	433.00	431.00	430.00	433.00	441.00	445.00	448.00	447.00	440.00	442.00	448.00	450.00	438.00	438.00	442.00	443.00	444.00	450.00	452.00	456.00	460.00	469.00	472.00	480.00	484.00	494.00	491.00	492.00	487.00	484.00	487.00	489.00	493.00	493.00	490.00	493.00	492.00	492.00	495.00	499.00	510.00	510.00	512.00	516.00	525.00	524.00	523.00	522.00	520.00	529.00	534.00	537.00	541.00	548.00	554.00	560.00	565.00	572.00	593.00	714.00	767.00	758.00	776.00	822.00	780.00	741.00	696.00	633.00	627.00	621.00	608.00	591.00	583.00	574.00	568.00	568.00	574.00	577.00	569.00	567.00	571.00	571.00	569.00	573.00	575.00	583.00	591.00	610.00	599.00	578.00	576.00	575.00	575.00	577.00	581.00	582.00	584.00	584.00	588.00	591.00	593.00	595.00	599.00	603.00	606.00	609.00	609.00	613.00	615.00	618.00	621.00	622.00	629.00	633.00	634.00	637.00	650.00	656.00	651.00	654.00	662.00
302.00	293.00	294.00	300.00	290.00	293.00	287.00	288.00	280.00	287.00	286.00	287.00	285.00	286.00	295.00	303.00	294.00	296.00	302.00	305.00	303.00	310.00	304.00	310.00	318.00	319.00	314.00	304.00	302.00	297.00	294.00	298.00	300.00	294.00	301.00	298.00	293.00	292.00	300.00	305.00	305.00	305.00	304.00	307.00	310.00	313.00	322.00	324.00	324.00	331.00	338.00	345.00	342.00	340.00	337.00	339.00	344.00	347.00	354.00	352.00	348.00	345.00	347.00	351.00	354.00	359.00	361.00	359.00	356.00	357.00	353.00	350.00	352.00	356.00	357.00	361.00	361.00	358.00	360.00	365.00	369.00	378.00	379.00	387.00	386.00	394.00	402.00	392.00	392.00	387.00	371.00	364.00	363.00	366.00	370.00	372.00	373.00	372.00	363.00	361.00	367.00	373.00	375.00	380.00	384.00	387.00	392.00	396.00	406.00	410.00	412.00	402.00	395.00	392.00	393.00	388.00	383.00	382.00	380.00	380.00	387.00	402.00	398.00	398.00	403.00	408.00	410.00	419.00	464.00	436.00	453.00	423.00	422.00	425.00	426.00	432.00	427.00	428.00	430.00	442.00	443.00	445.00	446.00	439.00	441.00	444.00	445.00	436.00	442.00	442.00	446.00	447.00	454.00	453.00	457.00	459.00	464.00	474.00	476.00	481.00	492.00	487.00	484.00	487.00	481.00	484.00	490.00	491.00	489.00	496.00	492.00	490.00	490.00	489.00	499.00	508.00	506.00	509.00	513.00	520.00	518.00	518.00	517.00	517.00	529.00	535.00	541.00	547.00	550.00	554.00	559.00	566.00	572.00	585.00	629.00	714.00	788.00	810.00	813.00	764.00	712.00	673.00	674.00	645.00	640.00	644.00	586.00	578.00	570.00	566.00	569.00	570.00	571.00	567.00	564.00	570.00	567.00	567.00	571.00	574.00	585.00	589.00	591.00	587.00	580.00	579.00	578.00	577.00	578.00	579.00	582.00	582.00	584.00	588.00	590.00	593.00	596.00	599.00	602.00	605.00	608.00	611.00	615.00	617.00	619.00	621.00	624.00	631.00	634.00	635.00	640.00	656.00	656.00	651.00	654.00	660.00
287.00	290.00	292.00	299.00	291.00	288.00	279.00	274.00	277.00	279.00	281.00	282.00	283.00	284.00	286.00	289.00	294.00	295.00	306.00	313.00	316.00	320.00	307.00	324.00	317.00	309.00	319.00	305.00	299.00	299.00	293.00	296.00	294.00	292.00	296.00	293.00	290.00	296.00	300.00	298.00	301.00	305.00	306.00	304.00	303.00	311.00	314.00	317.00	323.00	331.00	338.00	341.00	340.00	338.00	336.00	338.00	343.00	347.00	350.00	346.00	345.00	343.00	345.00	350.00	353.00	356.00	358.00	356.00	350.00	354.00	352.00	349.00	349.00	355.00	358.00	359.00	357.00	357.00	359.00	363.00	369.00	373.00	393.00	388.00	386.00	399.00	414.00	387.00	382.00	383.00	363.00	361.00	361.00	365.00	369.00	372.00	371.00	371.00	366.00	362.00	367.00	371.00	373.00	379.00	381.00	385.00	389.00	391.00	401.00	407.00	412.00	406.00	396.00	391.00	387.00	386.00	381.00	379.00	377.00	384.00	394.00	396.00	395.00	400.00	407.00	407.00	411.00	416.00	424.00	428.00	456.00	422.00	424.00	424.00	423.00	429.00	424.00	426.00	432.00	445.00	446.00	450.00	444.00	437.00	437.00	441.00	437.00	433.00	446.00	449.00	447.00	448.00	457.00	459.00	461.00	461.00	464.00	480.00	479.00	484.00	493.00	486.00	480.00	482.00	479.00	479.00	488.00	487.00	485.00	486.00	488.00	487.00	486.00	488.00	495.00	502.00	503.00	506.00	511.00	518.00	514.00	513.00	518.00	521.00	529.00	533.00	543.00	568.00	548.00	554.00	560.00	568.00	574.00	588.00	631.00	689.00	739.00	711.00	752.00	694.00	706.00	787.00	725.00	691.00	724.00	739.00	591.00	573.00	566.00	563.00	573.00	567.00	566.00	562.00	562.00	568.00	565.00	564.00	567.00	570.00	591.00	586.00	589.00	590.00	585.00	582.00	582.00	580.00	578.00	579.00	581.00	582.00	584.00	588.00	591.00	596.00	598.00	601.00	604.00	608.00	611.00	613.00	617.00	620.00	621.00	623.00	624.00	632.00	635.00	640.00	641.00	645.00	649.00	652.00	654.00	662.00
280.00	281.00	287.00	293.00	288.00	288.00	279.00	288.00	297.00	283.00	287.00	290.00	290.00	287.00	287.00	287.00	296.00	298.00	301.00	310.00	313.00	308.00	293.00	304.00	316.00	314.00	309.00	295.00	298.00	294.00	289.00	287.00	286.00	287.00	287.00	287.00	297.00	298.00	299.00	301.00	303.00	302.00	304.00	306.00	311.00	315.00	318.00	319.00	321.00	329.00	332.00	331.00	331.00	330.00	332.00	336.00	338.00	341.00	343.00	340.00	339.00	339.00	341.00	346.00	350.00	353.00	358.00	353.00	349.00	346.00	345.00	344.00	349.00	351.00	353.00	351.00	355.00	358.00	360.00	366.00	373.00	374.00	389.00	396.00	385.00	423.00	397.00	401.00	411.00	391.00	358.00	358.00	362.00	364.00	367.00	370.00	369.00	365.00	358.00	368.00	368.00	369.00	372.00	377.00	380.00	385.00	387.00	392.00	400.00	404.00	405.00	406.00	399.00	397.00	391.00	385.00	376.00	375.00	375.00	382.00	399.00	398.00	394.00	397.00	402.00	409.00	415.00	420.00	445.00	442.00	476.00	425.00	414.00	415.00	427.00	430.00	440.00	438.00	440.00	438.00	441.00	443.00	453.00	435.00	432.00	429.00	435.00	439.00	454.00	452.00	462.00	457.00	460.00	459.00	459.00	460.00	468.00	472.00	474.00	483.00	493.00	491.00	482.00	472.00	476.00	481.00	483.00	481.00	479.00	484.00	479.00	480.00	481.00	485.00	494.00	504.00	507.00	503.00	504.00	507.00	506.00	510.00	518.00	515.00	525.00	529.00	534.00	539.00	549.00	555.00	561.00	576.00	638.00	663.00	611.00	590.00	597.00	612.00	683.00	736.00	768.00	787.00	645.00	614.00	612.00	686.00	576.00	566.00	558.00	559.00	572.00	556.00	557.00	555.00	556.00	560.00	559.00	559.00	561.00	564.00	574.00	578.00	581.00	583.00	592.00	593.00	587.00	585.00	587.00	585.00	583.00	582.00	582.00	585.00	589.00	591.00	594.00	600.00	604.00	609.00	612.00	612.00	618.00	619.00	621.00	625.00	628.00	634.00	636.00	638.00	639.00	647.00	652.00	654.00	657.00	665.00
280.00	281.00	287.00	293.00	288.00	288.00	279.00	288.00	297.00	283.00	287.00	290.00	290.00	287.00	287.00	287.00	296.00	298.00	301.00	310.00	313.00	308.00	293.00	304.00	316.00	314.00	309.00	295.00	298.00	294.00	289.00	287.00	286.00	287.00	287.00	287.00	297.00	298.00	299.00	301.00	303.00	302.00	304.00	306.00	311.00	315.00	318.00	319.00	321.00	329.00	332.00	331.00	331.00	330.00	332.00	336.00	338.00	341.00	343.00	340.00	339.00	339.00	341.00	346.00	350.00	353.00	358.00	353.00	349.00	346.00	345.00	344.00	349.00	351.00	353.00	351.00	355.00	358.00	360.00	366.00	373.00	374.00	389.00	396.00	385.00	423.00	397.00	401.00	411.00	391.00	358.00	358.00	362.00	364.00	367.00	370.00	369.00	365.00	358.00	368.00	368.00	369.00	372.00	377.00	380.00	385.00	387.00	392.00	400.00	404.00	405.00	406.00	399.00	397.00	391.00	385.00	376.00	375.00	375.00	382.00	399.00	398.00	394.00	397.00	402.00	409.00	415.00	420.00	445.00	442.00	476.00	425.00	414.00	415.00	427.00	430.00	440.00	438.00	440.00	438.00	441.00	443.00	453.00	435.00	432.00	429.00	435.00	439.00	454.00	452.00	462.00	457.00	460.00	459.00	459.00	460.00	468.00	472.00	474.00	483.00	493.00	491.00	482.00	472.00	476.00	481.00	483.00	481.00	479.00	484.00	479.00	480.00	481.00	485.00	494.00	504.00	507.00	503.00	504.00	507.00	506.00	510.00	518.00	515.00	525.00	529.00	534.00	539.00	549.00	555.00	561.00	576.00	638.00	663.00	611.00	590.00	597.00	612.00	683.00	736.00	768.00	787.00	645.00	614.00	612.00	686.00	576.00	566.00	558.00	559.00	572.00	556.00	557.00	555.00	556.00	560.00	559.00	559.00	561.00	564.00	574.00	578.00	581.00	583.00	592.00	593.00	587.00	585.00	587.00	585.00	583.00	582.00	582.00	585.00	589.00	591.00	594.00	600.00	604.00	609.00	612.00	612.00	618.00	619.00	621.00	625.00	628.00	634.00	636.00	638.00	639.00	647.00	652.00	654.00	657.00	665.00
275.00	282.00	282.00	283.00	285.00	287.00	279.00	281.00	294.00	285.00	286.00	289.00	289.00	291.00	292.00	292.00	299.00	297.00	298.00	297.00	302.00	306.00	302.00	301.00	312.00	316.00	306.00	291.00	294.00	293.00	288.00	284.00	285.00	292.00	293.00	294.00	305.00	302.00	299.00	301.00	306.00	305.00	307.00	305.00	307.00	317.00	320.00	324.00	326.00	329.00	329.00	327.00	327.00	326.00	330.00	333.00	338.00	339.00	340.00	337.00	336.00	338.00	342.00	348.00	351.00	354.00	355.00	351.00	346.00	344.00	342.00	342.00	347.00	347.00	348.00	352.00	358.00	363.00	363.00	364.00	369.00	374.00	388.00	384.00	381.00	414.00	420.00	405.00	399.00	385.00	357.00	361.00	360.00	361.00	367.00	366.00	367.00	362.00	355.00	363.00	371.00	373.00	375.00	380.00	385.00	387.00	390.00	393.00	400.00	400.00	401.00	401.00	394.00	391.00	389.00	385.00	376.00	375.00	375.00	386.00	396.00	404.00	399.00	399.00	402.00	408.00	416.00	412.00	436.00	437.00	456.00	414.00	410.00	413.00	425.00	424.00	443.00	457.00	437.00	437.00	438.00	437.00	442.00	432.00	429.00	430.00	434.00	442.00	447.00	450.00	455.00	458.00	461.00	457.00	454.00	457.00	464.00	472.00	474.00	481.00	493.00	492.00	484.00	470.00	474.00	479.00	481.00	477.00	476.00	478.00	479.00	482.00	485.00	486.00	494.00	501.00	503.00	500.00	500.00	506.00	506.00	509.00	510.00	514.00	526.00	539.00	537.00	542.00	551.00	555.00	559.00	587.00	640.00	631.00	600.00	593.00	616.00	662.00	660.00	670.00	646.00	655.00	584.00	576.00	574.00	592.00	574.00	561.00	552.00	559.00	568.00	554.00	553.00	552.00	554.00	556.00	558.00	556.00	559.00	561.00	571.00	576.00	577.00	581.00	596.00	596.00	590.00	589.00	592.00	589.00	587.00	587.00	584.00	585.00	586.00	588.00	591.00	595.00	604.00	606.00	607.00	610.00	615.00	616.00	619.00	622.00	626.00	633.00	636.00	640.00	642.00	647.00	651.00	654.00	657.00	664.00
274.00	275.00	281.00	278.00	282.00	276.00	271.00	276.00	279.00	283.00	284.00	289.00	288.00	293.00	296.00	293.00	296.00	293.00	296.00	292.00	293.00	296.00	292.00	294.00	309.00	314.00	315.00	293.00	301.00	296.00	284.00	286.00	292.00	305.00	309.00	302.00	312.00	313.00	302.00	301.00	307.00	308.00	309.00	308.00	309.00	311.00	316.00	322.00	325.00	325.00	327.00	324.00	323.00	324.00	331.00	336.00	338.00	336.00	335.00	333.00	335.00	337.00	340.00	346.00	349.00	351.00	351.00	349.00	345.00	342.00	340.00	340.00	342.00	344.00	347.00	349.00	358.00	359.00	362.00	365.00	376.00	377.00	381.00	379.00	390.00	407.00	413.00	395.00	392.00	385.00	356.00	358.00	357.00	362.00	364.00	365.00	361.00	358.00	354.00	363.00	367.00	375.00	381.00	382.00	383.00	385.00	390.00	393.00	397.00	397.00	398.00	396.00	393.00	392.00	390.00	385.00	377.00	372.00	375.00	387.00	388.00	402.00	400.00	397.00	400.00	413.00	409.00	409.00	430.00	439.00	451.00	409.00	407.00	410.00	415.00	422.00	445.00	469.00	436.00	432.00	433.00	438.00	437.00	431.00	428.00	427.00	432.00	445.00	463.00	454.00	456.00	466.00	459.00	455.00	453.00	455.00	460.00	467.00	473.00	491.00	496.00	484.00	483.00	469.00	476.00	480.00	477.00	474.00	474.00	473.00	484.00	487.00	488.00	488.00	492.00	498.00	498.00	496.00	497.00	500.00	503.00	505.00	509.00	513.00	530.00	539.00	538.00	541.00	557.00	564.00	558.00	561.00	571.00	568.00	573.00	616.00	666.00	635.00	645.00	673.00	623.00	587.00	572.00	566.00	564.00	566.00	562.00	554.00	550.00	569.00	565.00	551.00	549.00	548.00	551.00	552.00	554.00	554.00	558.00	560.00	571.00	572.00	578.00	581.00	590.00	593.00	593.00	593.00	594.00	590.00	589.00	591.00	588.00	585.00	586.00	588.00	590.00	596.00	601.00	602.00	605.00	607.00	612.00	615.00	618.00	622.00	624.00	634.00	636.00	640.00	643.00	649.00	653.00	654.00	657.00	664.00
