616.00	616.00	572.00	528.00	528.00	484.00	484.00	397.00	397.00	353.00	353.00	309.00	272.00	272.00	242.00	242.00	212.00	161.00	89.00	89.00	17.00	0.00	0.00	0.00	0.00	0.00	0.00	0.00	0.00	0.00	0.00	0.00	0.00	0.00	0.00	0.00	0.00	0.00	0.00	0.00	0.00	0.00	0.00	0.00	0.00	0.00	0.00	0.00	0.00	0.00	0.00	0.00	0.00	0.00	0.00	0.00	0.00	0.00	0.00	0.00	0.00	0.00	0.00	0.00	0.00	0.00	0.00	0.00	0.00	0.00	0.00	0.00	0.00	7.00	7.00	25.00	36.00	36.00	41.00	45.00	46.00	46.00	43.00	43.00	40.00	43.00	43.00	52.00	61.00	61.00	68.00	73.00	78.00	78.00	88.00	88.00	102.00	117.00	117.00	121.00	121.00	110.00	110.00	123.00	123.00	155.00	188.00	188.00	224.00	224.00	265.00	305.00	350.00	350.00	399.00	448.00	448.00	496.00	496.00	542.00	587.00	587.00	629.00	666.00	703.00	703.00	734.00	734.00	758.00	782.00	782.00	798.00	798.00	816.00	816.00	819.00	819.00	818.00	816.00	816.00	814.00	814.00	811.00	808.00	808.00	808.00	811.00	814.00	814.00	820.00	820.00	829.00	839.00	839.00	846.00	852.00	857.00	857.00	861.00	861.00	862.00	864.00	864.00	864.00	864.00	863.00	863.00	863.00	863.00	863.00	862.00	862.00	864.00	867.00	870.00	870.00	874.00	874.00	879.00	885.00	885.00	888.00	889.00	889.00	889.00	886.00	886.00	879.00	871.00	871.00	863.00	855.00	855.00	847.00	847.00	846.00	851.00	857.00	857.00	863.00	870.00	870.00	877.00	877.00	876.00	868.00	860.00	860.00	840.00	807.00	807.00	774.00	774.00	748.00	730.00	730.00	711.00	703.00	707.00	707.00	711.00	711.00	723.00	744.00	744.00	764.00	764.00	795.00	795.00	809.00	809.00	821.00	831.00	831.00	841.00	841.00	849.00	856.00	863.00	863.00	870.00	877.00	877.00	883.00	883.00	890.00	897.00	897.00	903.00	910.00	916.00	916.00	923.00	923.00	929.00	935.00
616.00	616.00	572.00	528.00	528.00	484.00	484.00	397.00	397.00	353.00	353.00	309.00	272.00	272.00	242.00	242.00	212.00	161.00	89.00	89.00	17.00	0.00	0.00	0.00	0.00	0.00	0.00	0.00	0.00	0.00	0.00	0.00	0.00	0.00	0.00	0.00	0.00	0.00	0.00	0.00	0.00	0.00	0.00	0.00	0.00	0.00	0.00	0.00	0.00	0.00	0.00	0.00	0.00	0.00	0.00	0.00	0.00	0.00	0.00	0.00	0.00	0.00	0.00	0.00	0.00	0.00	0.00	0.00	0.00	0.00	0.00	0.00	0.00	7.00	7.00	25.00	36.00	36.00	41.00	45.00	46.00	46.00	43.00	43.00	40.00	43.00	43.00	52.00	61.00	61.00	68.00	73.00	78.00	78.00	88.00	88.00	102.00	117.00	117.00	121.00	121.00	110.00	110.00	123.00	123.00	155.00	188.00	188.00	224.00	224.00	265.00	305.00	350.00	350.00	399.00	448.00	448.00	496.00	496.00	542.00	587.00	587.00	629.00	666.00	703.00	703.00	734.00	734.00	758.00	782.00	782.00	798.00	798.00	816.00	816.00	819.00	819.00	818.00	816.00	816.00	814.00	814.00	811.00	808.00	808.00	808.00	811.00	814.00	814.00	820.00	820.00	829.00	839.00	839.00	846.00	852.00	857.00	857.00	861.00	861.00	862.00	864.00	864.00	864.00	864.00	863.00	863.00	863.00	863.00	863.00	862.00	862.00	864.00	867.00	870.00	870.00	874.00	874.00	879.00	885.00	885.00	888.00	889.00	889.00	889.00	886.00	886.00	879.00	871.00	871.00	863.00	855.00	855.00	847.00	847.00	846.00	851.00	857.00	857.00	863.00	870.00	870.00	877.00	877.00	876.00	868.00	860.00	860.00	840.00	807.00	807.00	774.00	774.00	748.00	730.00	730.00	711.00	703.00	707.00	707.00	711.00	711.00	723.00	744.00	744.00	764.00	764.00	795.00	795.00	809.00	809.00	821.00	831.00	831.00	841.00	841.00	849.00	856.00	863.00	863.00	870.00	877.00	877.00	883.00	883.00	890.00	897.00	897.00	903.00	910.00	916.00	916.00	923.00	923.00	929.00	935.00
684.00	684.00	644.00	601.00	601.00	557.00	557.00	471.00	471.00	431.00	431.00	391.00	353.00	353.00	316.00	316.00	279.00	239.00	197.00	197.00	155.00	126.00	126.00	110.00	110.00	93.00	68.00	68.00	33.00	0.00	0.00	0.00	0.00	0.00	0.00	0.00	0.00	0.00	0.00	0.00	0.00	0.00	0.00	0.00	28.00	28.00	124.00	124.00	276.00	276.00	293.00	293.00	311.00	313.00	313.00	301.00	301.00	288.00	279.00	272.00	272.00	265.00	251.00	251.00	230.00	230.00	209.00	183.00	183.00	154.00	124.00	104.00	104.00	94.00	94.00	84.00	77.00	77.00	73.00	70.00	65.00	65.00	60.00	60.00	54.00	53.00	53.00	56.00	59.00	59.00	61.00	64.00	67.00	67.00	71.00	71.00	76.00	80.00	80.00	83.00	83.00	86.00	86.00	94.00	94.00	109.00	125.00	125.00	133.00	133.00	135.00	137.00	148.00	148.00	168.00	188.00	188.00	211.00	211.00	237.00	264.00	264.00	291.00	319.00	347.00	347.00	372.00	372.00	396.00	419.00	419.00	442.00	442.00	487.00	487.00	508.00	508.00	526.00	544.00	544.00	560.00	560.00	572.00	585.00	600.00	600.00	618.00	636.00	636.00	655.00	655.00	676.00	697.00	697.00	717.00	736.00	754.00	754.00	770.00	770.00	783.00	795.00	795.00	807.00	817.00	828.00	828.00	835.00	835.00	840.00	845.00	845.00	850.00	855.00	859.00	859.00	865.00	865.00	870.00	876.00	876.00	877.00	874.00	874.00	871.00	867.00	867.00	862.00	857.00	857.00	852.00	846.00	846.00	840.00	840.00	837.00	837.00	838.00	838.00	839.00	841.00	841.00	842.00	842.00	840.00	834.00	827.00	827.00	813.00	789.00	789.00	766.00	766.00	748.00	734.00	734.00	720.00	716.00	720.00	720.00	724.00	724.00	736.00	754.00	754.00	773.00	773.00	802.00	802.00	815.00	815.00	828.00	839.00	839.00	851.00	851.00	861.00	871.00	880.00	880.00	888.00	896.00	896.00	903.00	903.00	911.00	918.00	918.00	925.00	931.00	938.00	938.00	944.00	944.00	949.00	954.00
684.00	684.00	644.00	601.00	601.00	557.00	557.00	471.00	471.00	431.00	431.00	391.00	353.00	353.00	316.00	316.00	279.00	239.00	197.00	197.00	155.00	126.00	126.00	110.00	110.00	93.00	68.00	68.00	33.00	0.00	0.00	0.00	0.00	0.00	0.00	0.00	0.00	0.00	0.00	0.00	0.00	0.00	0.00	0.00	28.00	28.00	124.00	124.00	276.00	276.00	293.00	293.00	311.00	313.00	313.00	301.00	301.00	288.00	279.00	272.00	272.00	265.00	251.00	251.00	230.00	230.00	209.00	183.00	183.00	154.00	124.00	104.00	104.00	94.00	94.00	84.00	77.00	77.00	73.00	70.00	65.00	65.00	60.00	60.00	54.00	53.00	53.00	56.00	59.00	59.00	61.00	64.00	67.00	67.00	71.00	71.00	76.00	80.00	80.00	83.00	83.00	86.00	86.00	94.00	94.00	109.00	125.00	125.00	133.00	133.00	135.00	137.00	148.00	148.00	168.00	188.00	188.00	211.00	211.00	237.00	264.00	264.00	291.00	319.00	347.00	347.00	372.00	372.00	396.00	419.00	419.00	442.00	442.00	487.00	487.00	508.00	508.00	526.00	544.00	544.00	560.00	560.00	572.00	585.00	600.00	600.00	618.00	636.00	636.00	655.00	655.00	676.00	697.00	697.00	717.00	736.00	754.00	754.00	770.00	770.00	783.00	795.00	795.00	807.00	817.00	828.00	828.00	835.00	835.00	840.00	845.00	845.00	850.00	855.00	859.00	859.00	865.00	865.00	870.00	876.00	876.00	877.00	874.00	874.00	871.00	867.00	867.00	862.00	857.00	857.00	852.00	846.00	846.00	840.00	840.00	837.00	837.00	838.00	838.00	839.00	841.00	841.00	842.00	842.00	840.00	834.00	827.00	827.00	813.00	789.00	789.00	766.00	766.00	748.00	734.00	734.00	720.00	716.00	720.00	720.00	724.00	724.00	736.00	754.00	754.00	773.00	773.00	802.00	802.00	815.00	815.00	828.00	839.00	839.00	851.00	851.00	861.00	871.00	880.00	880.00	888.00	896.00	896.00	903.00	903.00	911.00	918.00	918.00	925.00	931.00	938.00	938.00	944.00	944.00	949.00	954.00
684.00	684.00	644.00	601.00	601.00	557.00	557.00	471.00	471.00	431.00	431.00	391.00	353.00	353.00	316.00	316.00	279.00	239.00	197.00	197.00	155.00	126.00	126.00	110.00	110.00	93.00	68.00	68.00	33.00	0.00	0.00	0.00	0.00	0.00	0.00	0.00	0.00	0.00	0.00	0.00	0.00	0.00	0.00	0.00	28.00	28.00	124.00	124.00	276.00	276.00	293.00	293.00	311.00	313.00	313.00	301.00	301.00	288.00	279.00	272.00	272.00	265.00	251.00	251.00	230.00	230.00	209.00	183.00	183.00	154.00	124.00	104.00	104.00	94.00	94.00	84.00	77.00	77.00	73.00	70.00	65.00	65.00	60.00	60.00	54.00	53.00	53.00	56.00	59.00	59.00	61.00	64.00	67.00	67.00	71.00	71.00	76.00	80.00	80.00	83.00	83.00	86.00	86.00	94.00	94.00	109.00	125.00	125.00	133.00	133.00	135.00	137.00	148.00	148.00	168.00	188.00	188.00	211.00	211.00	237.00	264.00	264.00	291.00	319.00	347.00	347.00	372.00	372.00	396.00	419.00	419.00	442.00	442.00	487.00	487.00	508.00	508.00	526.00	544.00	544.00	560.00	560.00	572.00	585.00	600.00	600.00	618.00	636.00	636.00	655.00	655.00	676.00	697.00	697.00	717.00	736.00	754.00	754.00	770.00	770.00	783.00	795.00	795.00	807.00	817.00	828.00	828.00	835.00	835.00	840.00	845.00	845.00	850.00	855.00	859.00	859.00	865.00	865.00	870.00	876.00	876.00	877.00	874.00	874.00	871.00	867.00	867.00	862.00	857.00	857.00	852.00	846.00	846.00	840.00	840.00	837.00	837.00	838.00	838.00	839.00	841.00	841.00	842.00	842.00	840.00	834.00	827.00	827.00	813.00	789.00	789.00	766.00	766.00	748.00	734.00	734.00	720.00	716.00	720.00	720.00	724.00	724.00	736.00	754.00	754.00	773.00	773.00	802.00	802.00	815.00	815.00	828.00	839.00	839.00	851.00	851.00	861.00	871.00	880.00	880.00	888.00	896.00	896.00	903.00	903.00	911.00	918.00	918.00	925.00	931.00	938.00	938.00	944.00	944.00	949.00	954.00
684.00	684.00	644.00	601.00	601.00	557.00	557.00	471.00	471.00	431.00	431.00	391.00	353.00	353.00	316.00	316.00	279.00	239.00	197.00	197.00	155.00	126.00	126.00	110.00	110.00	93.00	68.00	68.00	33.00	0.00	0.00	0.00	0.00	0.00	0.00	0.00	0.00	0.00	0.00	0.00	0.00	0.00	0.00	0.00	28.00	28.00	124.00	124.00	276.00	276.00	293.00	293.00	311.00	313.00	313.00	301.00	301.00	288.00	279.00	272.00	272.00	265.00	251.00	251.00	230.00	230.00	209.00	183.00	183.00	154.00	124.00	104.00	104.00	94.00	94.00	84.00	77.00	77.00	73.00	70.00	65.00	65.00	60.00	60.00	54.00	53.00	53.00	56.00	59.00	59.00	61.00	64.00	67.00	67.00	71.00	71.00	76.00	80.00	80.00	83.00	83.00	86.00	86.00	94.00	94.00	109.00	125.00	125.00	133.00	133.00	135.00	137.00	148.00	148.00	168.00	188.00	188.00	211.00	211.00	237.00	264.00	264.00	291.00	319.00	347.00	347.00	372.00	372.00	396.00	419.00	419.00	442.00	442.00	487.00	487.00	508.00	508.00	526.00	544.00	544.00	560.00	560.00	572.00	585.00	600.00	600.00	618.00	636.00	636.00	655.00	655.00	676.00	697.00	697.00	717.00	736.00	754.00	754.00	770.00	770.00	783.00	795.00	795.00	807.00	817.00	828.00	828.00	835.00	835.00	840.00	845.00	845.00	850.00	855.00	859.00	859.00	865.00	865.00	870.00	876.00	876.00	877.00	874.00	874.00	871.00	867.00	867.00	862.00	857.00	857.00	852.00	846.00	846.00	840.00	840.00	837.00	837.00	838.00	838.00	839.00	841.00	841.00	842.00	842.00	840.00	834.00	827.00	827.00	813.00	789.00	789.00	766.00	766.00	748.00	734.00	734.00	720.00	716.00	720.00	720.00	724.00	724.00	736.00	754.00	754.00	773.00	773.00	802.00	802.00	815.00	815.00	828.00	839.00	839.00	851.00	851.00	861.00	871.00	880.00	880.00	888.00	896.00	896.00	903.00	903.00	911.00	918.00	918.00	925.00	931.00	938.00	938.00	944.00	944.00	949.00	954.00
684.00	684.00	644.00	601.00	601.00	557.00	557.00	471.00	471.00	431.00	431.00	391.00	353.00	353.00	316.00	316.00	279.00	239.00	197.00	197.00	155.00	126.00	126.00	110.00	110.00	93.00	68.00	68.00	33.00	0.00	0.00	0.00	0.00	0.00	0.00	0.00	0.00	0.00	0.00	0.00	0.00	0.00	0.00	0.00	28.00	28.00	124.00	124.00	276.00	276.00	293.00	293.00	311.00	313.00	313.00	301.00	301.00	288.00	279.00	272.00	272.00	265.00	251.00	251.00	230.00	230.00	209.00	183.00	183.00	154.00	124.00	104.00	104.00	94.00	94.00	84.00	77.00	77.00	73.00	70.00	65.00	65.00	60.00	60.00	54.00	53.00	53.00	56.00	59.00	59.00	61.00	64.00	67.00	67.00	71.00	71.00	76.00	80.00	80.00	83.00	83.00	86.00	86.00	94.00	94.00	109.00	125.00	125.00	133.00	133.00	135.00	137.00	148.00	148.00	168.00	188.00	188.00	211.00	211.00	237.00	264.00	264.00	291.00	319.00	347.00	347.00	372.00	372.00	396.00	419.00	419.00	442.00	442.00	487.00	487.00	508.00	508.00	526.00	544.00	544.00	560.00	560.00	572.00	585.00	600.00	600.00	618.00	636.00	636.00	655.00	655.00	676.00	697.00	697.00	717.00	736.00	754.00	754.00	770.00	770.00	783.00	795.00	795.00	807.00	817.00	828.00	828.00	835.00	835.00	840.00	845.00	845.00	850.00	855.00	859.00	859.00	865.00	865.00	870.00	876.00	876.00	877.00	874.00	874.00	871.00	867.00	867.00	862.00	857.00	857.00	852.00	846.00	846.00	840.00	840.00	837.00	837.00	838.00	838.00	839.00	841.00	841.00	842.00	842.00	840.00	834.00	827.00	827.00	813.00	789.00	789.00	766.00	766.00	748.00	734.00	734.00	720.00	716.00	720.00	720.00	724.00	724.00	736.00	754.00	754.00	773.00	773.00	802.00	802.00	815.00	815.00	828.00	839.00	839.00	851.00	851.00	861.00	871.00	880.00	880.00	888.00	896.00	896.00	903.00	903.00	911.00	918.00	918.00	925.00	931.00	938.00	938.00	944.00	944.00	949.00	954.00
684.00	684.00	644.00	601.00	601.00	557.00	557.00	471.00	471.00	431.00	431.00	391.00	353.00	353.00	316.00	316.00	279.00	239.00	197.00	197.00	155.00	126.00	126.00	110.00	110.00	93.00	68.00	68.00	33.00	0.00	0.00	0.00	0.00	0.00	0.00	0.00	0.00	0.00	0.00	0.00	0.00	0.00	0.00	0.00	28.00	28.00	124.00	124.00	276.00	276.00	293.00	293.00	311.00	313.00	313.00	301.00	301.00	288.00	279.00	272.00	272.00	265.00	251.00	251.00	230.00	230.00	209.00	183.00	183.00	154.00	124.00	104.00	104.00	94.00	94.00	84.00	77.00	77.00	73.00	70.00	65.00	65.00	60.00	60.00	54.00	53.00	53.00	56.00	59.00	59.00	61.00	64.00	67.00	67.00	71.00	71.00	76.00	80.00	80.00	83.00	83.00	86.00	86.00	94.00	94.00	109.00	125.00	125.00	133.00	133.00	135.00	137.00	148.00	148.00	168.00	188.00	188.00	211.00	211.00	237.00	264.00	264.00	291.00	319.00	347.00	347.00	372.00	372.00	396.00	419.00	419.00	442.00	442.00	487.00	487.00	508.00	508.00	526.00	544.00	544.00	560.00	560.00	572.00	585.00	600.00	600.00	618.00	636.00	636.00	655.00	655.00	676.00	697.00	697.00	717.00	736.00	754.00	754.00	770.00	770.00	783.00	795.00	795.00	807.00	817.00	828.00	828.00	835.00	835.00	840.00	845.00	845.00	850.00	855.00	859.00	859.00	865.00	865.00	870.00	876.00	876.00	877.00	874.00	874.00	871.00	867.00	867.00	862.00	857.00	857.00	852.00	846.00	846.00	840.00	840.00	837.00	837.00	838.00	838.00	839.00	841.00	841.00	842.00	842.00	840.00	834.00	827.00	827.00	813.00	789.00	789.00	766.00	766.00	748.00	734.00	734.00	720.00	716.00	720.00	720.00	724.00	724.00	736.00	754.00	754.00	773.00	773.00	802.00	802.00	815.00	815.00	828.00	839.00	839.00	851.00	851.00	861.00	871.00	880.00	880.00	888.00	896.00	896.00	903.00	903.00	911.00	918.00	918.00	925.00	931.00	938.00	938.00	944.00	944.00	949.00	954.00
684.00	684.00	644.00	601.00	601.00	557.00	557.00	471.00	471.00	431.00	431.00	391.00	353.00	353.00	316.00	316.00	279.00	239.00	197.00	197.00	155.00	126.00	126.00	110.00	110.00	93.00	68.00	68.00	33.00	0.00	0.00	0.00	0.00	0.00	0.00	0.00	0.00	0.00	0.00	0.00	0.00	0.00	0.00	0.00	28.00	28.00	124.00	124.00	276.00	276.00	293.00	293.00	311.00	313.00	313.00	301.00	301.00	288.00	279.00	272.00	272.00	265.00	251.00	251.00	230.00	230.00	209.00	183.00	183.00	154.00	124.00	104.00	104.00	94.00	94.00	84.00	77.00	77.00	73.00	70.00	65.00	65.00	60.00	60.00	54.00	53.00	53.00	56.00	59.00	59.00	61.00	64.00	67.00	67.00	71.00	71.00	76.00	80.00	80.00	83.00	83.00	86.00	86.00	94.00	94.00	109.00	125.00	125.00	133.00	133.00	135.00	137.00	148.00	148.00	168.00	188.00	188.00	211.00	211.00	237.00	264.00	264.00	291.00	319.00	347.00	347.00	372.00	372.00	396.00	419.00	419.00	442.00	442.00	487.00	487.00	508.00	508.00	526.00	544.00	544.00	560.00	560.00	572.00	585.00	600.00	600.00	618.00	636.00	636.00	655.00	655.00	676.00	697.00	697.00	717.00	736.00	754.00	754.00	770.00	770.00	783.00	795.00	795.00	807.00	817.00	828.00	828.00	835.00	835.00	840.00	845.00	845.00	850.00	855.00	859.00	859.00	865.00	865.00	870.00	876.00	876.00	877.00	874.00	874.00	871.00	867.00	867.00	862.00	857.00	857.00	852.00	846.00	846.00	840.00	840.00	837.00	837.00	838.00	838.00	839.00	841.00	841.00	842.00	842.00	840.00	834.00	827.00	827.00	813.00	789.00	789.00	766.00	766.00	748.00	734.00	734.00	720.00	716.00	720.00	720.00	724.00	724.00	736.00	754.00	754.00	773.00	773.00	802.00	802.00	815.00	815.00	828.00	839.00	839.00	851.00	851.00	861.00	871.00	880.00	880.00	888.00	896.00	896.00	903.00	903.00	911.00	918.00	918.00	925.00	931.00	938.00	938.00	944.00	944.00	949.00	954.00
684.00	684.00	644.00	601.00	601.00	557.00	557.00	471.00	471.00	431.00	431.00	391.00	353.00	353.00	316.00	316.00	279.00	239.00	197.00	197.00	155.00	126.00	126.00	110.00	110.00	93.00	68.00	68.00	33.00	0.00	0.00	0.00	0.00	0.00	0.00	0.00	0.00	0.00	0.00	0.00	0.00	0.00	0.00	0.00	28.00	28.00	124.00	124.00	276.00	276.00	293.00	293.00	311.00	313.00	313.00	301.00	301.00	288.00	279.00	272.00	272.00	265.00	251.00	251.00	230.00	230.00	209.00	183.00	183.00	154.00	124.00	104.00	104.00	94.00	94.00	84.00	77.00	77.00	73.00	70.00	65.00	65.00	60.00	60.00	54.00	53.00	53.00	56.00	59.00	59.00	61.00	64.00	67.00	67.00	71.00	71.00	76.00	80.00	80.00	83.00	83.00	86.00	86.00	94.00	94.00	109.00	125.00	125.00	133.00	133.00	135.00	137.00	148.00	148.00	168.00	188.00	188.00	211.00	211.00	237.00	264.00	264.00	291.00	319.00	347.00	347.00	372.00	372.00	396.00	419.00	419.00	442.00	442.00	487.00	487.00	508.00	508.00	526.00	544.00	544.00	560.00	560.00	572.00	585.00	600.00	600.00	618.00	636.00	636.00	655.00	655.00	676.00	697.00	697.00	717.00	736.00	754.00	754.00	770.00	770.00	783.00	795.00	795.00	807.00	817.00	828.00	828.00	835.00	835.00	840.00	845.00	845.00	850.00	855.00	859.00	859.00	865.00	865.00	870.00	876.00	876.00	877.00	874.00	874.00	871.00	867.00	867.00	862.00	857.00	857.00	852.00	846.00	846.00	840.00	840.00	837.00	837.00	838.00	838.00	839.00	841.00	841.00	842.00	842.00	840.00	834.00	827.00	827.00	813.00	789.00	789.00	766.00	766.00	748.00	734.00	734.00	720.00	716.00	720.00	720.00	724.00	724.00	736.00	754.00	754.00	773.00	773.00	802.00	802.00	815.00	815.00	828.00	839.00	839.00	851.00	851.00	861.00	871.00	880.00	880.00	888.00	896.00	896.00	903.00	903.00	911.00	918.00	918.00	925.00	931.00	938.00	938.00	944.00	944.00	949.00	954.00
684.00	684.00	644.00	601.00	601.00	557.00	557.00	471.00	471.00	431.00	431.00	391.00	353.00	353.00	316.00	316.00	279.00	239.00	197.00	197.00	155.00	126.00	126.00	110.00	110.00	93.00	68.00	68.00	33.00	0.00	0.00	0.00	0.00	0.00	0.00	0.00	0.00	0.00	0.00	0.00	0.00	0.00	0.00	0.00	28.00	28.00	124.00	124.00	276.00	276.00	293.00	293.00	311.00	313.00	313.00	301.00	301.00	288.00	279.00	272.00	272.00	265.00	251.00	251.00	230.00	230.00	209.00	183.00	183.00	154.00	124.00	104.00	104.00	94.00	94.00	84.00	77.00	77.00	73.00	70.00	65.00	65.00	60.00	60.00	54.00	53.00	53.00	56.00	59.00	59.00	61.00	64.00	67.00	67.00	71.00	71.00	76.00	80.00	80.00	83.00	83.00	86.00	86.00	94.00	94.00	109.00	125.00	125.00	133.00	133.00	135.00	137.00	148.00	148.00	168.00	188.00	188.00	211.00	211.00	237.00	264.00	264.00	291.00	319.00	347.00	347.00	372.00	372.00	396.00	419.00	419.00	442.00	442.00	487.00	487.00	508.00	508.00	526.00	544.00	544.00	560.00	560.00	572.00	585.00	600.00	600.00	618.00	636.00	636.00	655.00	655.00	676.00	697.00	697.00	717.00	736.00	754.00	754.00	770.00	770.00	783.00	795.00	795.00	807.00	817.00	828.00	828.00	835.00	835.00	840.00	845.00	845.00	850.00	855.00	859.00	859.00	865.00	865.00	870.00	876.00	876.00	877.00	874.00	874.00	871.00	867.00	867.00	862.00	857.00	857.00	852.00	846.00	846.00	840.00	840.00	837.00	837.00	838.00	838.00	839.00	841.00	841.00	842.00	842.00	840.00	834.00	827.00	827.00	813.00	789.00	789.00	766.00	766.00	748.00	734.00	734.00	720.00	716.00	720.00	720.00	724.00	724.00	736.00	754.00	754.00	773.00	773.00	802.00	802.00	815.00	815.00	828.00	839.00	839.00	851.00	851.00	861.00	871.00	880.00	880.00	888.00	896.00	896.00	903.00	903.00	911.00	918.00	918.00	925.00	931.00	938.00	938.00	944.00	944.00	949.00	954.00
684.00	684.00	644.00	601.00	601.00	557.00	557.00	471.00	471.00	431.00	431.00	391.00	353.00	353.00	316.00	316.00	279.00	239.00	197.00	197.00	155.00	126.00	126.00	110.00	110.00	93.00	68.00	68.00	33.00	0.00	0.00	0.00	0.00	0.00	0.00	0.00	0.00	0.00	0.00	0.00	0.00	0.00	0.00	0.00	28.00	28.00	124.00	124.00	276.00	276.00	293.00	293.00	311.00	313.00	313.00	301.00	301.00	288.00	279.00	272.00	272.00	265.00	251.00	251.00	230.00	230.00	209.00	183.00	183.00	154.00	124.00	104.00	104.00	94.00	94.00	84.00	77.00	77.00	73.00	70.00	65.00	65.00	60.00	60.00	54.00	53.00	53.00	56.00	59.00	59.00	61.00	64.00	67.00	67.00	71.00	71.00	76.00	80.00	80.00	83.00	83.00	86.00	86.00	94.00	94.00	109.00	125.00	125.00	133.00	133.00	135.00	137.00	148.00	148.00	168.00	188.00	188.00	211.00	211.00	237.00	264.00	264.00	291.00	319.00	347.00	347.00	372.00	372.00	396.00	419.00	419.00	442.00	442.00	487.00	487.00	508.00	508.00	526.00	544.00	544.00	560.00	560.00	572.00	585.00	600.00	600.00	618.00	636.00	636.00	655.00	655.00	676.00	697.00	697.00	717.00	736.00	754.00	754.00	770.00	770.00	783.00	795.00	795.00	807.00	817.00	828.00	828.00	835.00	835.00	840.00	845.00	845.00	850.00	855.00	859.00	859.00	865.00	865.00	870.00	876.00	876.00	877.00	874.00	874.00	871.00	867.00	867.00	862.00	857.00	857.00	852.00	846.00	846.00	840.00	840.00	837.00	837.00	838.00	838.00	839.00	841.00	841.00	842.00	842.00	840.00	834.00	827.00	827.00	813.00	789.00	789.00	766.00	766.00	748.00	734.00	734.00	720.00	716.00	720.00	720.00	724.00	724.00	736.00	754.00	754.00	773.00	773.00	802.00	802.00	815.00	815.00	828.00	839.00	839.00	851.00	851.00	861.00	871.00	880.00	880.00	888.00	896.00	896.00	903.00	903.00	911.00	918.00	918.00	925.00	931.00	938.00	938.00	944.00	944.00	949.00	954.00
719.00	719.00	694.00	665.00	665.00	632.00	632.00	562.00	562.00	521.00	521.00	480.00	437.00	437.00	392.00	392.00	347.00	307.00	270.00	270.00	234.00	204.00	204.00	179.00	179.00	155.00	130.00	130.00	103.00	77.00	65.00	65.00	68.00	68.00	72.00	85.00	85.00	109.00	109.00	160.00	160.00	191.00	191.00	222.00	279.00	279.00	361.00	361.00	497.00	497.00	524.00	524.00	551.00	558.00	558.00	544.00	544.00	531.00	509.00	480.00	480.00	451.00	424.00	424.00	399.00	399.00	374.00	342.00	342.00	302.00	263.00	230.00	230.00	205.00	205.00	179.00	158.00	158.00	142.00	125.00	112.00	112.00	102.00	102.00	93.00	86.00	86.00	83.00	80.00	80.00	78.00	78.00	78.00	78.00	78.00	78.00	79.00	80.00	80.00	82.00	82.00	87.00	87.00	91.00	91.00	96.00	101.00	101.00	102.00	102.00	99.00	97.00	99.00	99.00	105.00	111.00	111.00	115.00	115.00	117.00	120.00	120.00	126.00	136.00	146.00	146.00	157.00	157.00	167.00	178.00	178.00	190.00	190.00	218.00	218.00	232.00	232.00	245.00	259.00	259.00	271.00	271.00	280.00	290.00	302.00	302.00	317.00	332.00	332.00	350.00	350.00	371.00	393.00	393.00	415.00	437.00	460.00	460.00	485.00	485.00	513.00	541.00	541.00	572.00	606.00	640.00	640.00	673.00	673.00	704.00	736.00	736.00	762.00	783.00	805.00	805.00	821.00	821.00	831.00	842.00	842.00	846.00	844.00	844.00	841.00	837.00	837.00	831.00	825.00	825.00	819.00	813.00	813.00	807.00	807.00	802.00	798.00	795.00	795.00	791.00	789.00	789.00	786.00	786.00	782.00	778.00	773.00	773.00	767.00	759.00	759.00	751.00	751.00	744.00	739.00	739.00	734.00	734.00	740.00	740.00	745.00	745.00	755.00	770.00	770.00	785.00	785.00	811.00	811.00	823.00	823.00	835.00	846.00	846.00	858.00	858.00	869.00	879.00	889.00	889.00	898.00	905.00	905.00	913.00	913.00	921.00	928.00	928.00	935.00	942.00	948.00	948.00	954.00	954.00	960.00	964.00
719.00	719.00	694.00	665.00	665.00	632.00	632.00	562.00	562.00	521.00	521.00	480.00	437.00	437.00	392.00	392.00	347.00	307.00	270.00	270.00	234.00	204.00	204.00	179.00	179.00	155.00	130.00	130.00	103.00	77.00	65.00	65.00	68.00	68.00	72.00	85.00	85.00	109.00	109.00	160.00	160.00	191.00	191.00	222.00	279.00	279.00	361.00	361.00	497.00	497.00	524.00	524.00	551.00	558.00	558.00	544.00	544.00	531.00	509.00	480.00	480.00	451.00	424.00	424.00	399.00	399.00	374.00	342.00	342.00	302.00	263.00	230.00	230.00	205.00	205.00	179.00	158.00	158.00	142.00	125.00	112.00	112.00	102.00	102.00	93.00	86.00	86.00	83.00	80.00	80.00	78.00	78.00	78.00	78.00	78.00	78.00	79.00	80.00	80.00	82.00	82.00	87.00	87.00	91.00	91.00	96.00	101.00	101.00	102.00	102.00	99.00	97.00	99.00	99.00	105.00	111.00	111.00	115.00	115.00	117.00	120.00	120.00	126.00	136.00	146.00	146.00	157.00	157.00	167.00	178.00	178.00	190.00	190.00	218.00	218.00	232.00	232.00	245.00	259.00	259.00	271.00	271.00	280.00	290.00	302.00	302.00	317.00	332.00	332.00	350.00	350.00	371.00	393.00	393.00	415.00	437.00	460.00	460.00	485.00	485.00	513.00	541.00	541.00	572.00	606.00	640.00	640.00	673.00	673.00	704.00	736.00	736.00	762.00	783.00	805.00	805.00	821.00	821.00	831.00	842.00	842.00	846.00	844.00	844.00	841.00	837.00	837.00	831.00	825.00	825.00	819.00	813.00	813.00	807.00	807.00	802.00	798.00	795.00	795.00	791.00	789.00	789.00	786.00	786.00	782.00	778.00	773.00	773.00	767.00	759.00	759.00	751.00	751.00	744.00	739.00	739.00	734.00	734.00	740.00	740.00	745.00	745.00	755.00	770.00	770.00	785.00	785.00	811.00	811.00	823.00	823.00	835.00	846.00	846.00	858.00	858.00	869.00	879.00	889.00	889.00	898.00	905.00	905.00	913.00	913.00	921.00	928.00	928.00	935.00	942.00	948.00	948.00	954.00	954.00	960.00	964.00
719.00	719.00	694.00	665.00	665.00	632.00	632.00	562.00	562.00	521.00	521.00	480.00	437.00	437.00	392.00	392.00	347.00	307.00	270.00	270.00	234.00	204.00	204.00	179.00	179.00	155.00	130.00	130.00	103.00	77.00	65.00	65.00	68.00	68.00	72.00	85.00	85.00	109.00	109.00	160.00	160.00	191.00	191.00	222.00	279.00	279.00	361.00	361.00	497.00	497.00	524.00	524.00	551.00	558.00	558.00	544.00	544.00	531.00	509.00	480.00	480.00	451.00	424.00	424.00	399.00	399.00	374.00	342.00	342.00	302.00	263.00	230.00	230.00	205.00	205.00	179.00	158.00	158.00	142.00	125.00	112.00	112.00	102.00	102.00	93.00	86.00	86.00	83.00	80.00	80.00	78.00	78.00	78.00	78.00	78.00	78.00	79.00	80.00	80.00	82.00	82.00	87.00	87.00	91.00	91.00	96.00	101.00	101.00	102.00	102.00	99.00	97.00	99.00	99.00	105.00	111.00	111.00	115.00	115.00	117.00	120.00	120.00	126.00	136.00	146.00	146.00	157.00	157.00	167.00	178.00	178.00	190.00	190.00	218.00	218.00	232.00	232.00	245.00	259.00	259.00	271.00	271.00	280.00	290.00	302.00	302.00	317.00	332.00	332.00	350.00	350.00	371.00	393.00	393.00	415.00	437.00	460.00	460.00	485.00	485.00	513.00	541.00	541.00	572.00	606.00	640.00	640.00	673.00	673.00	704.00	736.00	736.00	762.00	783.00	805.00	805.00	821.00	821.00	831.00	842.00	842.00	846.00	844.00	844.00	841.00	837.00	837.00	831.00	825.00	825.00	819.00	813.00	813.00	807.00	807.00	802.00	798.00	795.00	795.00	791.00	789.00	789.00	786.00	786.00	782.00	778.00	773.00	773.00	767.00	759.00	759.00	751.00	751.00	744.00	739.00	739.00	734.00	734.00	740.00	740.00	745.00	745.00	755.00	770.00	770.00	785.00	785.00	811.00	811.00	823.00	823.00	835.00	846.00	846.00	858.00	858.00	869.00	879.00	889.00	889.00	898.00	905.00	905.00	913.00	913.00	921.00	928.00	928.00	935.00	942.00	948.00	948.00	954.00	954.00	960.00	964.00
719.00	719.00	694.00	665.00	665.00	632.00	632.00	562.00	562.00	521.00	521.00	480.00	437.00	437.00	392.00	392.00	347.00	307.00	270.00	270.00	234.00	204.00	204.00	179.00	179.00	155.00	130.00	130.00	103.00	77.00	65.00	65.00	68.00	68.00	72.00	85.00	85.00	109.00	109.00	160.00	160.00	191.00	191.00	222.00	279.00	279.00	361.00	361.00	497.00	497.00	524.00	524.00	551.00	558.00	558.00	544.00	544.00	531.00	509.00	480.00	480.00	451.00	424.00	424.00	399.00	399.00	374.00	342.00	342.00	302.00	263.00	230.00	230.00	205.00	205.00	179.00	158.00	158.00	142.00	125.00	112.00	112.00	102.00	102.00	93.00	86.00	86.00	83.00	80.00	80.00	78.00	78.00	78.00	78.00	78.00	78.00	79.00	80.00	80.00	82.00	82.00	87.00	87.00	91.00	91.00	96.00	101.00	101.00	102.00	102.00	99.00	97.00	99.00	99.00	105.00	111.00	111.00	115.00	115.00	117.00	120.00	120.00	126.00	136.00	146.00	146.00	157.00	157.00	167.00	178.00	178.00	190.00	190.00	218.00	218.00	232.00	232.00	245.00	259.00	259.00	271.00	271.00	280.00	290.00	302.00	302.00	317.00	332.00	332.00	350.00	350.00	371.00	393.00	393.00	415.00	437.00	460.00	460.00	485.00	485.00	513.00	541.00	541.00	572.00	606.00	640.00	640.00	673.00	673.00	704.00	736.00	736.00	762.00	783.00	805.00	805.00	821.00	821.00	831.00	842.00	842.00	846.00	844.00	844.00	841.00	837.00	837.00	831.00	825.00	825.00	819.00	813.00	813.00	807.00	807.00	802.00	798.00	795.00	795.00	791.00	789.00	789.00	786.00	786.00	782.00	778.00	773.00	773.00	767.00	759.00	759.00	751.00	751.00	744.00	739.00	739.00	734.00	734.00	740.00	740.00	745.00	745.00	755.00	770.00	770.00	785.00	785.00	811.00	811.00	823.00	823.00	835.00	846.00	846.00	858.00	858.00	869.00	879.00	889.00	889.00	898.00	905.00	905.00	913.00	913.00	921.00	928.00	928.00	935.00	942.00	948.00	948.00	954.00	954.00	960.00	964.00
719.00	719.00	694.00	665.00	665.00	632.00	632.00	562.00	562.00	521.00	521.00	480.00	437.00	437.00	392.00	392.00	347.00	307.00	270.00	270.00	234.00	204.00	204.00	179.00	179.00	155.00	130.00	130.00	103.00	77.00	65.00	65.00	68.00	68.00	72.00	85.00	85.00	109.00	109.00	160.00	160.00	191.00	191.00	222.00	279.00	279.00	361.00	361.00	497.00	497.00	524.00	524.00	551.00	558.00	558.00	544.00	544.00	531.00	509.00	480.00	480.00	451.00	424.00	424.00	399.00	399.00	374.00	342.00	342.00	302.00	263.00	230.00	230.00	205.00	205.00	179.00	158.00	158.00	142.00	125.00	112.00	112.00	102.00	102.00	93.00	86.00	86.00	83.00	80.00	80.00	78.00	78.00	78.00	78.00	78.00	78.00	79.00	80.00	80.00	82.00	82.00	87.00	87.00	91.00	91.00	96.00	101.00	101.00	102.00	102.00	99.00	97.00	99.00	99.00	105.00	111.00	111.00	115.00	115.00	117.00	120.00	120.00	126.00	136.00	146.00	146.00	157.00	157.00	167.00	178.00	178.00	190.00	190.00	218.00	218.00	232.00	232.00	245.00	259.00	259.00	271.00	271.00	280.00	290.00	302.00	302.00	317.00	332.00	332.00	350.00	350.00	371.00	393.00	393.00	415.00	437.00	460.00	460.00	485.00	485.00	513.00	541.00	541.00	572.00	606.00	640.00	640.00	673.00	673.00	704.00	736.00	736.00	762.00	783.00	805.00	805.00	821.00	821.00	831.00	842.00	842.00	846.00	844.00	844.00	841.00	837.00	837.00	831.00	825.00	825.00	819.00	813.00	813.00	807.00	807.00	802.00	798.00	795.00	795.00	791.00	789.00	789.00	786.00	786.00	782.00	778.00	773.00	773.00	767.00	759.00	759.00	751.00	751.00	744.00	739.00	739.00	734.00	734.00	740.00	740.00	745.00	745.00	755.00	770.00	770.00	785.00	785.00	811.00	811.00	823.00	823.00	835.00	846.00	846.00	858.00	858.00	869.00	879.00	889.00	889.00	898.00	905.00	905.00	913.00	913.00	921.00	928.00	928.00	935.00	942.00	948.00	948.00	954.00	954.00	960.00	964.00
719.00	719.00	694.00	665.00	665.00	632.00	632.00	562.00	562.00	521.00	521.00	480.00	437.00	437.00	392.00	392.00	347.00	307.00	270.00	270.00	234.00	204.00	204.00	179.00	179.00	155.00	130.00	130.00	103.00	77.00	65.00	65.00	68.00	68.00	72.00	85.00	85.00	109.00	109.00	160.00	160.00	191.00	191.00	222.00	279.00	279.00	361.00	361.00	497.00	497.00	524.00	524.00	551.00	558.00	558.00	544.00	544.00	531.00	509.00	480.00	480.00	451.00	424.00	424.00	399.00	399.00	374.00	342.00	342.00	302.00	263.00	230.00	230.00	205.00	205.00	179.00	158.00	158.00	142.00	125.00	112.00	112.00	102.00	102.00	93.00	86.00	86.00	83.00	80.00	80.00	78.00	78.00	78.00	78.00	78.00	78.00	79.00	80.00	80.00	82.00	82.00	87.00	87.00	91.00	91.00	96.00	101.00	101.00	102.00	102.00	99.00	97.00	99.00	99.00	105.00	111.00	111.00	115.00	115.00	117.00	120.00	120.00	126.00	136.00	146.00	146.00	157.00	157.00	167.00	178.00	178.00	190.00	190.00	218.00	218.00	232.00	232.00	245.00	259.00	259.00	271.00	271.00	280.00	290.00	302.00	302.00	317.00	332.00	332.00	350.00	350.00	371.00	393.00	393.00	415.00	437.00	460.00	460.00	485.00	485.00	513.00	541.00	541.00	572.00	606.00	640.00	640.00	673.00	673.00	704.00	736.00	736.00	762.00	783.00	805.00	805.00	821.00	821.00	831.00	842.00	842.00	846.00	844.00	844.00	841.00	837.00	837.00	831.00	825.00	825.00	819.00	813.00	813.00	807.00	807.00	802.00	798.00	795.00	795.00	791.00	789.00	789.00	786.00	786.00	782.00	778.00	773.00	773.00	767.00	759.00	759.00	751.00	751.00	744.00	739.00	739.00	734.00	734.00	740.00	740.00	745.00	745.00	755.00	770.00	770.00	785.00	785.00	811.00	811.00	823.00	823.00	835.00	846.00	846.00	858.00	858.00	869.00	879.00	889.00	889.00	898.00	905.00	905.00	913.00	913.00	921.00	928.00	928.00	935.00	942.00	948.00	948.00	954.00	954.00	960.00	964.00
719.00	719.00	694.00	665.00	665.00	632.00	632.00	562.00	562.00	521.00	521.00	480.00	437.00	437.00	392.00	392.00	347.00	307.00	270.00	270.00	234.00	204.00	204.00	179.00	179.00	155.00	130.00	130.00	103.00	77.00	65.00	65.00	68.00	68.00	72.00	85.00	85.00	109.00	109.00	160.00	160.00	191.00	191.00	222.00	279.00	279.00	361.00	361.00	497.00	497.00	524.00	524.00	551.00	558.00	558.00	544.00	544.00	531.00	509.00	480.00	480.00	451.00	424.00	424.00	399.00	399.00	374.00	342.00	342.00	302.00	263.00	230.00	230.00	205.00	205.00	179.00	158.00	158.00	142.00	125.00	112.00	112.00	102.00	102.00	93.00	86.00	86.00	83.00	80.00	80.00	78.00	78.00	78.00	78.00	78.00	78.00	79.00	80.00	80.00	82.00	82.00	87.00	87.00	91.00	91.00	96.00	101.00	101.00	102.00	102.00	99.00	97.00	99.00	99.00	105.00	111.00	111.00	115.00	115.00	117.00	120.00	120.00	126.00	136.00	146.00	146.00	157.00	157.00	167.00	178.00	178.00	190.00	190.00	218.00	218.00	232.00	232.00	245.00	259.00	259.00	271.00	271.00	280.00	290.00	302.00	302.00	317.00	332.00	332.00	350.00	350.00	371.00	393.00	393.00	415.00	437.00	460.00	460.00	485.00	485.00	513.00	541.00	541.00	572.00	606.00	640.00	640.00	673.00	673.00	704.00	736.00	736.00	762.00	783.00	805.00	805.00	821.00	821.00	831.00	842.00	842.00	846.00	844.00	844.00	841.00	837.00	837.00	831.00	825.00	825.00	819.00	813.00	813.00	807.00	807.00	802.00	798.00	795.00	795.00	791.00	789.00	789.00	786.00	786.00	782.00	778.00	773.00	773.00	767.00	759.00	759.00	751.00	751.00	744.00	739.00	739.00	734.00	734.00	740.00	740.00	745.00	745.00	755.00	770.00	770.00	785.00	785.00	811.00	811.00	823.00	823.00	835.00	846.00	846.00	858.00	858.00	869.00	879.00	889.00	889.00	898.00	905.00	905.00	913.00	913.00	921.00	928.00	928.00	935.00	942.00	948.00	948.00	954.00	954.00	960.00	964.00
719.00	719.00	694.00	665.00	665.00	632.00	632.00	562.00	562.00	521.00	521.00	480.00	437.00	437.00	392.00	392.00	347.00	307.00	270.00	270.00	234.00	204.00	204.00	179.00	179.00	155.00	130.00	130.00	103.00	77.00	65.00	65.00	68.00	68.00	72.00	85.00	85.00	109.00	109.00	160.00	160.00	191.00	191.00	222.00	279.00	279.00	361.00	361.00	497.00	497.00	524.00	524.00	551.00	558.00	558.00	544.00	544.00	531.00	509.00	480.00	480.00	451.00	424.00	424.00	399.00	399.00	374.00	342.00	342.00	302.00	263.00	230.00	230.00	205.00	205.00	179.00	158.00	158.00	142.00	125.00	112.00	112.00	102.00	102.00	93.00	86.00	86.00	83.00	80.00	80.00	78.00	78.00	78.00	78.00	78.00	78.00	79.00	80.00	80.00	82.00	82.00	87.00	87.00	91.00	91.00	96.00	101.00	101.00	102.00	102.00	99.00	97.00	99.00	99.00	105.00	111.00	111.00	115.00	115.00	117.00	120.00	120.00	126.00	136.00	146.00	146.00	157.00	157.00	167.00	178.00	178.00	190.00	190.00	218.00	218.00	232.00	232.00	245.00	259.00	259.00	271.00	271.00	280.00	290.00	302.00	302.00	317.00	332.00	332.00	350.00	350.00	371.00	393.00	393.00	415.00	437.00	460.00	460.00	485.00	485.00	513.00	541.00	541.00	572.00	606.00	640.00	640.00	673.00	673.00	704.00	736.00	736.00	762.00	783.00	805.00	805.00	821.00	821.00	831.00	842.00	842.00	846.00	844.00	844.00	841.00	837.00	837.00	831.00	825.00	825.00	819.00	813.00	813.00	807.00	807.00	802.00	798.00	795.00	795.00	791.00	789.00	789.00	786.00	786.00	782.00	778.00	773.00	773.00	767.00	759.00	759.00	751.00	751.00	744.00	739.00	739.00	734.00	734.00	740.00	740.00	745.00	745.00	755.00	770.00	770.00	785.00	785.00	811.00	811.00	823.00	823.00	835.00	846.00	846.00	858.00	858.00	869.00	879.00	889.00	889.00	898.00	905.00	905.00	913.00	913.00	921.00	928.00	928.00	935.00	942.00	948.00	948.00	954.00	954.00	960.00	964.00
719.00	719.00	694.00	665.00	665.00	632.00	632.00	562.00	562.00	521.00	521.00	480.00	437.00	437.00	392.00	392.00	347.00	307.00	270.00	270.00	234.00	204.00	204.00	179.00	179.00	155.00	130.00	130.00	103.00	77.00	65.00	65.00	68.00	68.00	72.00	85.00	85.00	109.00	109.00	160.00	160.00	191.00	191.00	222.00	279.00	279.00	361.00	361.00	497.00	497.00	524.00	524.00	551.00	558.00	558.00	544.00	544.00	531.00	509.00	480.00	480.00	451.00	424.00	424.00	399.00	399.00	374.00	342.00	342.00	302.00	263.00	230.00	230.00	205.00	205.00	179.00	158.00	158.00	142.00	125.00	112.00	112.00	102.00	102.00	93.00	86.00	86.00	83.00	80.00	80.00	78.00	78.00	78.00	78.00	78.00	78.00	79.00	80.00	80.00	82.00	82.00	87.00	87.00	91.00	91.00	96.00	101.00	101.00	102.00	102.00	99.00	97.00	99.00	99.00	105.00	111.00	111.00	115.00	115.00	117.00	120.00	120.00	126.00	136.00	146.00	146.00	157.00	157.00	167.00	178.00	178.00	190.00	190.00	218.00	218.00	232.00	232.00	245.00	259.00	259.00	271.00	271.00	280.00	290.00	302.00	302.00	317.00	332.00	332.00	350.00	350.00	371.00	393.00	393.00	415.00	437.00	460.00	460.00	485.00	485.00	513.00	541.00	541.00	572.00	606.00	640.00	640.00	673.00	673.00	704.00	736.00	736.00	762.00	783.00	805.00	805.00	821.00	821.00	831.00	842.00	842.00	846.00	844.00	844.00	841.00	837.00	837.00	831.00	825.00	825.00	819.00	813.00	813.00	807.00	807.00	802.00	798.00	795.00	795.00	791.00	789.00	789.00	786.00	786.00	782.00	778.00	773.00	773.00	767.00	759.00	759.00	751.00	751.00	744.00	739.00	739.00	734.00	734.00	740.00	740.00	745.00	745.00	755.00	770.00	770.00	785.00	785.00	811.00	811.00	823.00	823.00	835.00	846.00	846.00	858.00	858.00	869.00	879.00	889.00	889.00	898.00	905.00	905.00	913.00	913.00	921.00	928.00	928.00	935.00	942.00	948.00	948.00	954.00	954.00	960.00	964.00
719.00	719.00	694.00	665.00	665.00	632.00	632.00	562.00	562.00	521.00	521.00	480.00	437.00	437.00	392.00	392.00	347.00	307.00	270.00	270.00	234.00	204.00	204.00	179.00	179.00	155.00	130.00	130.00	103.00	77.00	65.00	65.00	68.00	68.00	72.00	85.00	85.00	109.00	109.00	160.00	160.00	191.00	191.00	222.00	279.00	279.00	361.00	361.00	497.00	497.00	524.00	524.00	551.00	558.00	558.00	544.00	544.00	531.00	509.00	480.00	480.00	451.00	424.00	424.00	399.00	399.00	374.00	342.00	342.00	302.00	263.00	230.00	230.00	205.00	205.00	179.00	158.00	158.00	142.00	125.00	112.00	112.00	102.00	102.00	93.00	86.00	86.00	83.00	80.00	80.00	78.00	78.00	78.00	78.00	78.00	78.00	79.00	80.00	80.00	82.00	82.00	87.00	87.00	91.00	91.00	96.00	101.00	101.00	102.00	102.00	99.00	97.00	99.00	99.00	105.00	111.00	111.00	115.00	115.00	117.00	120.00	120.00	126.00	136.00	146.00	146.00	157.00	157.00	167.00	178.00	178.00	190.00	190.00	218.00	218.00	232.00	232.00	245.00	259.00	259.00	271.00	271.00	280.00	290.00	302.00	302.00	317.00	332.00	332.00	350.00	350.00	371.00	393.00	393.00	415.00	437.00	460.00	460.00	485.00	485.00	513.00	541.00	541.00	572.00	606.00	640.00	640.00	673.00	673.00	704.00	736.00	736.00	762.00	783.00	805.00	805.00	821.00	821.00	831.00	842.00	842.00	846.00	844.00	844.00	841.00	837.00	837.00	831.00	825.00	825.00	819.00	813.00	813.00	807.00	807.00	802.00	798.00	795.00	795.00	791.00	789.00	789.00	786.00	786.00	782.00	778.00	773.00	773.00	767.00	759.00	759.00	751.00	751.00	744.00	739.00	739.00	734.00	734.00	740.00	740.00	745.00	745.00	755.00	770.00	770.00	785.00	785.00	811.00	811.00	823.00	823.00	835.00	846.00	846.00	858.00	858.00	869.00	879.00	889.00	889.00	898.00	905.00	905.00	913.00	913.00	921.00	928.00	928.00	935.00	942.00	948.00	948.00	954.00	954.00	960.00	964.00
739.00	739.00	733.00	721.00	721.00	702.00	702.00	652.00	652.00	609.00	609.00	566.00	517.00	517.00	462.00	462.00	408.00	360.00	318.00	318.00	277.00	243.00	243.00	219.00	219.00	194.00	176.00	176.00	165.00	154.00	156.00	156.00	170.00	170.00	185.00	215.00	215.00	262.00	262.00	362.00	362.00	419.00	419.00	477.00	529.00	529.00	576.00	576.00	660.00	660.00	686.00	686.00	712.00	721.00	721.00	714.00	714.00	707.00	687.00	654.00	654.00	621.00	592.00	592.00	566.00	566.00	541.00	510.00	510.00	474.00	438.00	402.00	402.00	366.00	366.00	329.00	298.00	298.00	271.00	245.00	222.00	222.00	202.00	202.00	183.00	167.00	167.00	156.00	145.00	145.00	136.00	130.00	124.00	124.00	120.00	120.00	117.00	114.00	114.00	112.00	112.00	110.00	110.00	109.00	109.00	108.00	107.00	107.00	106.00	106.00	107.00	107.00	108.00	108.00	109.00	111.00	111.00	109.00	109.00	103.00	97.00	97.00	94.00	95.00	95.00	95.00	96.00	96.00	98.00	100.00	100.00	102.00	102.00	109.00	109.00	112.00	112.00	116.00	120.00	120.00	122.00	122.00	124.00	126.00	129.00	129.00	133.00	137.00	137.00	145.00	145.00	156.00	168.00	168.00	180.00	193.00	206.00	206.00	224.00	224.00	247.00	270.00	270.00	300.00	337.00	374.00	374.00	416.00	416.00	463.00	510.00	510.00	557.00	605.00	653.00	653.00	694.00	694.00	728.00	763.00	763.00	787.00	801.00	801.00	814.00	820.00	820.00	819.00	818.00	818.00	814.00	809.00	809.00	803.00	803.00	798.00	793.00	789.00	789.00	784.00	779.00	779.00	774.00	774.00	769.00	763.00	756.00	756.00	752.00	749.00	749.00	746.00	746.00	745.00	746.00	746.00	746.00	750.00	757.00	757.00	764.00	764.00	772.00	782.00	782.00	792.00	792.00	813.00	813.00	824.00	824.00	835.00	846.00	846.00	856.00	856.00	867.00	877.00	887.00	887.00	896.00	904.00	904.00	912.00	912.00	920.00	927.00	927.00	935.00	942.00	948.00	948.00	955.00	955.00	961.00	966.00
739.00	739.00	733.00	721.00	721.00	702.00	702.00	652.00	652.00	609.00	609.00	566.00	517.00	517.00	462.00	462.00	408.00	360.00	318.00	318.00	277.00	243.00	243.00	219.00	219.00	194.00	176.00	176.00	165.00	154.00	156.00	156.00	170.00	170.00	185.00	215.00	215.00	262.00	262.00	362.00	362.00	419.00	419.00	477.00	529.00	529.00	576.00	576.00	660.00	660.00	686.00	686.00	712.00	721.00	721.00	714.00	714.00	707.00	687.00	654.00	654.00	621.00	592.00	592.00	566.00	566.00	541.00	510.00	510.00	474.00	438.00	402.00	402.00	366.00	366.00	329.00	298.00	298.00	271.00	245.00	222.00	222.00	202.00	202.00	183.00	167.00	167.00	156.00	145.00	145.00	136.00	130.00	124.00	124.00	120.00	120.00	117.00	114.00	114.00	112.00	112.00	110.00	110.00	109.00	109.00	108.00	107.00	107.00	106.00	106.00	107.00	107.00	108.00	108.00	109.00	111.00	111.00	109.00	109.00	103.00	97.00	97.00	94.00	95.00	95.00	95.00	96.00	96.00	98.00	100.00	100.00	102.00	102.00	109.00	109.00	112.00	112.00	116.00	120.00	120.00	122.00	122.00	124.00	126.00	129.00	129.00	133.00	137.00	137.00	145.00	145.00	156.00	168.00	168.00	180.00	193.00	206.00	206.00	224.00	224.00	247.00	270.00	270.00	300.00	337.00	374.00	374.00	416.00	416.00	463.00	510.00	510.00	557.00	605.00	653.00	653.00	694.00	694.00	728.00	763.00	763.00	787.00	801.00	801.00	814.00	820.00	820.00	819.00	818.00	818.00	814.00	809.00	809.00	803.00	803.00	798.00	793.00	789.00	789.00	784.00	779.00	779.00	774.00	774.00	769.00	763.00	756.00	756.00	752.00	749.00	749.00	746.00	746.00	745.00	746.00	746.00	746.00	750.00	757.00	757.00	764.00	764.00	772.00	782.00	782.00	792.00	792.00	813.00	813.00	824.00	824.00	835.00	846.00	846.00	856.00	856.00	867.00	877.00	887.00	887.00	896.00	904.00	904.00	912.00	912.00	920.00	927.00	927.00	935.00	942.00	948.00	948.00	955.00	955.00	961.00	966.00
739.00	739.00	733.00	721.00	721.00	702.00	702.00	652.00	652.00	609.00	609.00	566.00	517.00	517.00	462.00	462.00	408.00	360.00	318.00	318.00	277.00	243.00	243.00	219.00	219.00	194.00	176.00	176.00	165.00	154.00	156.00	156.00	170.00	170.00	185.00	215.00	215.00	262.00	262.00	362.00	362.00	419.00	419.00	477.00	529.00	529.00	576.00	576.00	660.00	660.00	686.00	686.00	712.00	721.00	721.00	714.00	714.00	707.00	687.00	654.00	654.00	621.00	592.00	592.00	566.00	566.00	541.00	510.00	510.00	474.00	438.00	402.00	402.00	366.00	366.00	329.00	298.00	298.00	271.00	245.00	222.00	222.00	202.00	202.00	183.00	167.00	167.00	156.00	145.00	145.00	136.00	130.00	124.00	124.00	120.00	120.00	117.00	114.00	114.00	112.00	112.00	110.00	110.00	109.00	109.00	108.00	107.00	107.00	106.00	106.00	107.00	107.00	108.00	108.00	109.00	111.00	111.00	109.00	109.00	103.00	97.00	97.00	94.00	95.00	95.00	95.00	96.00	96.00	98.00	100.00	100.00	102.00	102.00	109.00	109.00	112.00	112.00	116.00	120.00	120.00	122.00	122.00	124.00	126.00	129.00	129.00	133.00	137.00	137.00	145.00	145.00	156.00	168.00	168.00	180.00	193.00	206.00	206.00	224.00	224.00	247.00	270.00	270.00	300.00	337.00	374.00	374.00	416.00	416.00	463.00	510.00	510.00	557.00	605.00	653.00	653.00	694.00	694.00	728.00	763.00	763.00	787.00	801.00	801.00	814.00	820.00	820.00	819.00	818.00	818.00	814.00	809.00	809.00	803.00	803.00	798.00	793.00	789.00	789.00	784.00	779.00	779.00	774.00	774.00	769.00	763.00	756.00	756.00	752.00	749.00	749.00	746.00	746.00	745.00	746.00	746.00	746.00	750.00	757.00	757.00	764.00	764.00	772.00	782.00	782.00	792.00	792.00	813.00	813.00	824.00	824.00	835.00	846.00	846.00	856.00	856.00	867.00	877.00	887.00	887.00	896.00	904.00	904.00	912.00	912.00	920.00	927.00	927.00	935.00	942.00	948.00	948.00	955.00	955.00	961.00	966.00
739.00	739.00	733.00	721.00	721.00	702.00	702.00	652.00	652.00	609.00	609.00	566.00	517.00	517.00	462.00	462.00	408.00	360.00	318.00	318.00	277.00	243.00	243.00	219.00	219.00	194.00	176.00	176.00	165.00	154.00	156.00	156.00	170.00	170.00	185.00	215.00	215.00	262.00	262.00	362.00	362.00	419.00	419.00	477.00	529.00	529.00	576.00	576.00	660.00	660.00	686.00	686.00	712.00	721.00	721.00	714.00	714.00	707.00	687.00	654.00	654.00	621.00	592.00	592.00	566.00	566.00	541.00	510.00	510.00	474.00	438.00	402.00	402.00	366.00	366.00	329.00	298.00	298.00	271.00	245.00	222.00	222.00	202.00	202.00	183.00	167.00	167.00	156.00	145.00	145.00	136.00	130.00	124.00	124.00	120.00	120.00	117.00	114.00	114.00	112.00	112.00	110.00	110.00	109.00	109.00	108.00	107.00	107.00	106.00	106.00	107.00	107.00	108.00	108.00	109.00	111.00	111.00	109.00	109.00	103.00	97.00	97.00	94.00	95.00	95.00	95.00	96.00	96.00	98.00	100.00	100.00	102.00	102.00	109.00	109.00	112.00	112.00	116.00	120.00	120.00	122.00	122.00	124.00	126.00	129.00	129.00	133.00	137.00	137.00	145.00	145.00	156.00	168.00	168.00	180.00	193.00	206.00	206.00	224.00	224.00	247.00	270.00	270.00	300.00	337.00	374.00	374.00	416.00	416.00	463.00	510.00	510.00	557.00	605.00	653.00	653.00	694.00	694.00	728.00	763.00	763.00	787.00	801.00	801.00	814.00	820.00	820.00	819.00	818.00	818.00	814.00	809.00	809.00	803.00	803.00	798.00	793.00	789.00	789.00	784.00	779.00	779.00	774.00	774.00	769.00	763.00	756.00	756.00	752.00	749.00	749.00	746.00	746.00	745.00	746.00	746.00	746.00	750.00	757.00	757.00	764.00	764.00	772.00	782.00	782.00	792.00	792.00	813.00	813.00	824.00	824.00	835.00	846.00	846.00	856.00	856.00	867.00	877.00	887.00	887.00	896.00	904.00	904.00	912.00	912.00	920.00	927.00	927.00	935.00	942.00	948.00	948.00	955.00	955.00	961.00	966.00
739.00	739.00	733.00	721.00	721.00	702.00	702.00	652.00	652.00	609.00	609.00	566.00	517.00	517.00	462.00	462.00	408.00	360.00	318.00	318.00	277.00	243.00	243.00	219.00	219.00	194.00	176.00	176.00	165.00	154.00	156.00	156.00	170.00	170.00	185.00	215.00	215.00	262.00	262.00	362.00	362.00	419.00	419.00	477.00	529.00	529.00	576.00	576.00	660.00	660.00	686.00	686.00	712.00	721.00	721.00	714.00	714.00	707.00	687.00	654.00	654.00	621.00	592.00	592.00	566.00	566.00	541.00	510.00	510.00	474.00	438.00	402.00	402.00	366.00	366.00	329.00	298.00	298.00	271.00	245.00	222.00	222.00	202.00	202.00	183.00	167.00	167.00	156.00	145.00	145.00	136.00	130.00	124.00	124.00	120.00	120.00	117.00	114.00	114.00	112.00	112.00	110.00	110.00	109.00	109.00	108.00	107.00	107.00	106.00	106.00	107.00	107.00	108.00	108.00	109.00	111.00	111.00	109.00	109.00	103.00	97.00	97.00	94.00	95.00	95.00	95.00	96.00	96.00	98.00	100.00	100.00	102.00	102.00	109.00	109.00	112.00	112.00	116.00	120.00	120.00	122.00	122.00	124.00	126.00	129.00	129.00	133.00	137.00	137.00	145.00	145.00	156.00	168.00	168.00	180.00	193.00	206.00	206.00	224.00	224.00	247.00	270.00	270.00	300.00	337.00	374.00	374.00	416.00	416.00	463.00	510.00	510.00	557.00	605.00	653.00	653.00	694.00	694.00	728.00	763.00	763.00	787.00	801.00	801.00	814.00	820.00	820.00	819.00	818.00	818.00	814.00	809.00	809.00	803.00	803.00	798.00	793.00	789.00	789.00	784.00	779.00	779.00	774.00	774.00	769.00	763.00	756.00	756.00	752.00	749.00	749.00	746.00	746.00	745.00	746.00	746.00	746.00	750.00	757.00	757.00	764.00	764.00	772.00	782.00	782.00	792.00	792.00	813.00	813.00	824.00	824.00	835.00	846.00	846.00	856.00	856.00	867.00	877.00	887.00	887.00	896.00	904.00	904.00	912.00	912.00	920.00	927.00	927.00	935.00	942.00	948.00	948.00	955.00	955.00	961.00	966.00
739.00	739.00	733.00	721.00	721.00	702.00	702.00	652.00	652.00	609.00	609.00	566.00	517.00	517.00	462.00	462.00	408.00	360.00	318.00	318.00	277.00	243.00	243.00	219.00	219.00	194.00	176.00	176.00	165.00	154.00	156.00	156.00	170.00	170.00	185.00	215.00	215.00	262.00	262.00	362.00	362.00	419.00	419.00	477.00	529.00	529.00	576.00	576.00	660.00	660.00	686.00	686.00	712.00	721.00	721.00	714.00	714.00	707.00	687.00	654.00	654.00	621.00	592.00	592.00	566.00	566.00	541.00	510.00	510.00	474.00	438.00	402.00	402.00	366.00	366.00	329.00	298.00	298.00	271.00	245.00	222.00	222.00	202.00	202.00	183.00	167.00	167.00	156.00	145.00	145.00	136.00	130.00	124.00	124.00	120.00	120.00	117.00	114.00	114.00	112.00	112.00	110.00	110.00	109.00	109.00	108.00	107.00	107.00	106.00	106.00	107.00	107.00	108.00	108.00	109.00	111.00	111.00	109.00	109.00	103.00	97.00	97.00	94.00	95.00	95.00	95.00	96.00	96.00	98.00	100.00	100.00	102.00	102.00	109.00	109.00	112.00	112.00	116.00	120.00	120.00	122.00	122.00	124.00	126.00	129.00	129.00	133.00	137.00	137.00	145.00	145.00	156.00	168.00	168.00	180.00	193.00	206.00	206.00	224.00	224.00	247.00	270.00	270.00	300.00	337.00	374.00	374.00	416.00	416.00	463.00	510.00	510.00	557.00	605.00	653.00	653.00	694.00	694.00	728.00	763.00	763.00	787.00	801.00	801.00	814.00	820.00	820.00	819.00	818.00	818.00	814.00	809.00	809.00	803.00	803.00	798.00	793.00	789.00	789.00	784.00	779.00	779.00	774.00	774.00	769.00	763.00	756.00	756.00	752.00	749.00	749.00	746.00	746.00	745.00	746.00	746.00	746.00	750.00	757.00	757.00	764.00	764.00	772.00	782.00	782.00	792.00	792.00	813.00	813.00	824.00	824.00	835.00	846.00	846.00	856.00	856.00	867.00	877.00	887.00	887.00	896.00	904.00	904.00	912.00	912.00	920.00	927.00	927.00	935.00	942.00	948.00	948.00	955.00	955.00	961.00	966.00
739.00	739.00	733.00	721.00	721.00	702.00	702.00	652.00	652.00	609.00	609.00	566.00	517.00	517.00	462.00	462.00	408.00	360.00	318.00	318.00	277.00	243.00	243.00	219.00	219.00	194.00	176.00	176.00	165.00	154.00	156.00	156.00	170.00	170.00	185.00	215.00	215.00	262.00	262.00	362.00	362.00	419.00	419.00	477.00	529.00	529.00	576.00	576.00	660.00	660.00	686.00	686.00	712.00	721.00	721.00	714.00	714.00	707.00	687.00	654.00	654.00	621.00	592.00	592.00	566.00	566.00	541.00	510.00	510.00	474.00	438.00	402.00	402.00	366.00	366.00	329.00	298.00	298.00	271.00	245.00	222.00	222.00	202.00	202.00	183.00	167.00	167.00	156.00	145.00	145.00	136.00	130.00	124.00	124.00	120.00	120.00	117.00	114.00	114.00	112.00	112.00	110.00	110.00	109.00	109.00	108.00	107.00	107.00	106.00	106.00	107.00	107.00	108.00	108.00	109.00	111.00	111.00	109.00	109.00	103.00	97.00	97.00	94.00	95.00	95.00	95.00	96.00	96.00	98.00	100.00	100.00	102.00	102.00	109.00	109.00	112.00	112.00	116.00	120.00	120.00	122.00	122.00	124.00	126.00	129.00	129.00	133.00	137.00	137.00	145.00	145.00	156.00	168.00	168.00	180.00	193.00	206.00	206.00	224.00	224.00	247.00	270.00	270.00	300.00	337.00	374.00	374.00	416.00	416.00	463.00	510.00	510.00	557.00	605.00	653.00	653.00	694.00	694.00	728.00	763.00	763.00	787.00	801.00	801.00	814.00	820.00	820.00	819.00	818.00	818.00	814.00	809.00	809.00	803.00	803.00	798.00	793.00	789.00	789.00	784.00	779.00	779.00	774.00	774.00	769.00	763.00	756.00	756.00	752.00	749.00	749.00	746.00	746.00	745.00	746.00	746.00	746.00	750.00	757.00	757.00	764.00	764.00	772.00	782.00	782.00	792.00	792.00	813.00	813.00	824.00	824.00	835.00	846.00	846.00	856.00	856.00	867.00	877.00	887.00	887.00	896.00	904.00	904.00	912.00	912.00	920.00	927.00	927.00	935.00	942.00	948.00	948.00	955.00	955.00	961.00	966.00
739.00	739.00	733.00	721.00	721.00	702.00	702.00	652.00	652.00	609.00	609.00	566.00	517.00	517.00	462.00	462.00	408.00	360.00	318.00	318.00	277.00	243.00	243.00	219.00	219.00	194.00	176.00	176.00	165.00	154.00	156.00	156.00	170.00	170.00	185.00	215.00	215.00	262.00	262.00	362.00	362.00	419.00	419.00	477.00	529.00	529.00	576.00	576.00	660.00	660.00	686.00	686.00	712.00	721.00	721.00	714.00	714.00	707.00	687.00	654.00	654.00	621.00	592.00	592.00	566.00	566.00	541.00	510.00	510.00	474.00	438.00	402.00	402.00	366.00	366.00	329.00	298.00	298.00	271.00	245.00	222.00	222.00	202.00	202.00	183.00	167.00	167.00	156.00	145.00	145.00	136.00	130.00	124.00	124.00	120.00	120.00	117.00	114.00	114.00	112.00	112.00	110.00	110.00	109.00	109.00	108.00	107.00	107.00	106.00	106.00	107.00	107.00	108.00	108.00	109.00	111.00	111.00	109.00	109.00	103.00	97.00	97.00	94.00	95.00	95.00	95.00	96.00	96.00	98.00	100.00	100.00	102.00	102.00	109.00	109.00	112.00	112.00	116.00	120.00	120.00	122.00	122.00	124.00	126.00	129.00	129.00	133.00	137.00	137.00	145.00	145.00	156.00	168.00	168.00	180.00	193.00	206.00	206.00	224.00	224.00	247.00	270.00	270.00	300.00	337.00	374.00	374.00	416.00	416.00	463.00	510.00	510.00	557.00	605.00	653.00	653.00	694.00	694.00	728.00	763.00	763.00	787.00	801.00	801.00	814.00	820.00	820.00	819.00	818.00	818.00	814.00	809.00	809.00	803.00	803.00	798.00	793.00	789.00	789.00	784.00	779.00	779.00	774.00	774.00	769.00	763.00	756.00	756.00	752.00	749.00	749.00	746.00	746.00	745.00	746.00	746.00	746.00	750.00	757.00	757.00	764.00	764.00	772.00	782.00	782.00	792.00	792.00	813.00	813.00	824.00	824.00	835.00	846.00	846.00	856.00	856.00	867.00	877.00	887.00	887.00	896.00	904.00	904.00	912.00	912.00	920.00	927.00	927.00	935.00	942.00	948.00	948.00	955.00	955.00	961.00	966.00
739.00	739.00	733.00	721.00	721.00	702.00	702.00	652.00	652.00	609.00	609.00	566.00	517.00	517.00	462.00	462.00	408.00	360.00	318.00	318.00	277.00	243.00	243.00	219.00	219.00	194.00	176.00	176.00	165.00	154.00	156.00	156.00	170.00	170.00	185.00	215.00	215.00	262.00	262.00	362.00	362.00	419.00	419.00	477.00	529.00	529.00	576.00	576.00	660.00	660.00	686.00	686.00	712.00	721.00	721.00	714.00	714.00	707.00	687.00	654.00	654.00	621.00	592.00	592.00	566.00	566.00	541.00	510.00	510.00	474.00	438.00	402.00	402.00	366.00	366.00	329.00	298.00	298.00	271.00	245.00	222.00	222.00	202.00	202.00	183.00	167.00	167.00	156.00	145.00	145.00	136.00	130.00	124.00	124.00	120.00	120.00	117.00	114.00	114.00	112.00	112.00	110.00	110.00	109.00	109.00	108.00	107.00	107.00	106.00	106.00	107.00	107.00	108.00	108.00	109.00	111.00	111.00	109.00	109.00	103.00	97.00	97.00	94.00	95.00	95.00	95.00	96.00	96.00	98.00	100.00	100.00	102.00	102.00	109.00	109.00	112.00	112.00	116.00	120.00	120.00	122.00	122.00	124.00	126.00	129.00	129.00	133.00	137.00	137.00	145.00	145.00	156.00	168.00	168.00	180.00	193.00	206.00	206.00	224.00	224.00	247.00	270.00	270.00	300.00	337.00	374.00	374.00	416.00	416.00	463.00	510.00	510.00	557.00	605.00	653.00	653.00	694.00	694.00	728.00	763.00	763.00	787.00	801.00	801.00	814.00	820.00	820.00	819.00	818.00	818.00	814.00	809.00	809.00	803.00	803.00	798.00	793.00	789.00	789.00	784.00	779.00	779.00	774.00	774.00	769.00	763.00	756.00	756.00	752.00	749.00	749.00	746.00	746.00	745.00	746.00	746.00	746.00	750.00	757.00	757.00	764.00	764.00	772.00	782.00	782.00	792.00	792.00	813.00	813.00	824.00	824.00	835.00	846.00	846.00	856.00	856.00	867.00	877.00	887.00	887.00	896.00	904.00	904.00	912.00	912.00	920.00	927.00	927.00	935.00	942.00	948.00	948.00	955.00	955.00	961.00	966.00
739.00	739.00	733.00	721.00	721.00	702.00	702.00	652.00	652.00	609.00	609.00	566.00	517.00	517.00	462.00	462.00	408.00	360.00	318.00	318.00	277.00	243.00	243.00	219.00	219.00	194.00	176.00	176.00	165.00	154.00	156.00	156.00	170.00	170.00	185.00	215.00	215.00	262.00	262.00	362.00	362.00	419.00	419.00	477.00	529.00	529.00	576.00	576.00	660.00	660.00	686.00	686.00	712.00	721.00	721.00	714.00	714.00	707.00	687.00	654.00	654.00	621.00	592.00	592.00	566.00	566.00	541.00	510.00	510.00	474.00	438.00	402.00	402.00	366.00	366.00	329.00	298.00	298.00	271.00	245.00	222.00	222.00	202.00	202.00	183.00	167.00	167.00	156.00	145.00	145.00	136.00	130.00	124.00	124.00	120.00	120.00	117.00	114.00	114.00	112.00	112.00	110.00	110.00	109.00	109.00	108.00	107.00	107.00	106.00	106.00	107.00	107.00	108.00	108.00	109.00	111.00	111.00	109.00	109.00	103.00	97.00	97.00	94.00	95.00	95.00	95.00	96.00	96.00	98.00	100.00	100.00	102.00	102.00	109.00	109.00	112.00	112.00	116.00	120.00	120.00	122.00	122.00	124.00	126.00	129.00	129.00	133.00	137.00	137.00	145.00	145.00	156.00	168.00	168.00	180.00	193.00	206.00	206.00	224.00	224.00	247.00	270.00	270.00	300.00	337.00	374.00	374.00	416.00	416.00	463.00	510.00	510.00	557.00	605.00	653.00	653.00	694.00	694.00	728.00	763.00	763.00	787.00	801.00	801.00	814.00	820.00	820.00	819.00	818.00	818.00	814.00	809.00	809.00	803.00	803.00	798.00	793.00	789.00	789.00	784.00	779.00	779.00	774.00	774.00	769.00	763.00	756.00	756.00	752.00	749.00	749.00	746.00	746.00	745.00	746.00	746.00	746.00	750.00	757.00	757.00	764.00	764.00	772.00	782.00	782.00	792.00	792.00	813.00	813.00	824.00	824.00	835.00	846.00	846.00	856.00	856.00	867.00	877.00	887.00	887.00	896.00	904.00	904.00	912.00	912.00	920.00	927.00	927.00	935.00	942.00	948.00	948.00	955.00	955.00	961.00	966.00
751.00	751.00	760.00	762.00	762.00	755.00	755.00	723.00	723.00	679.00	679.00	635.00	582.00	582.00	521.00	521.00	459.00	406.00	361.00	361.00	316.00	281.00	281.00	256.00	256.00	230.00	214.00	214.00	205.00	197.00	206.00	206.00	232.00	232.00	258.00	299.00	299.00	355.00	355.00	470.00	470.00	534.00	534.00	598.00	651.00	651.00	694.00	694.00	768.00	768.00	786.00	786.00	804.00	814.00	814.00	815.00	815.00	816.00	810.00	797.00	797.00	784.00	767.00	767.00	744.00	744.00	722.00	700.00	700.00	676.00	653.00	622.00	622.00	583.00	583.00	544.00	508.00	508.00	474.00	440.00	405.00	405.00	371.00	371.00	337.00	310.00	310.00	290.00	270.00	270.00	254.00	240.00	226.00	226.00	215.00	215.00	206.00	197.00	197.00	189.00	189.00	174.00	174.00	167.00	167.00	161.00	154.00	154.00	148.00	148.00	142.00	137.00	133.00	133.00	130.00	128.00	128.00	126.00	126.00	124.00	122.00	122.00	122.00	122.00	122.00	122.00	122.00	122.00	122.00	123.00	123.00	123.00	123.00	124.00	124.00	124.00	124.00	123.00	122.00	122.00	122.00	122.00	121.00	121.00	120.00	120.00	117.00	114.00	114.00	113.00	113.00	115.00	116.00	116.00	116.00	116.00	116.00	116.00	118.00	118.00	122.00	126.00	126.00	135.00	149.00	163.00	163.00	188.00	188.00	222.00	256.00	256.00	303.00	365.00	426.00	426.00	491.00	491.00	559.00	627.00	627.00	685.00	732.00	732.00	779.00	810.00	810.00	824.00	838.00	838.00	844.00	842.00	842.00	839.00	839.00	837.00	836.00	834.00	834.00	831.00	827.00	827.00	822.00	822.00	815.00	805.00	795.00	795.00	786.00	776.00	776.00	766.00	766.00	760.00	758.00	758.00	757.00	759.00	764.00	764.00	769.00	769.00	775.00	782.00	782.00	790.00	790.00	807.00	807.00	816.00	816.00	826.00	835.00	835.00	845.00	845.00	854.00	864.00	874.00	874.00	883.00	891.00	891.00	899.00	899.00	907.00	915.00	915.00	924.00	931.00	939.00	939.00	946.00	946.00	953.00	959.00
751.00	751.00	760.00	762.00	762.00	755.00	755.00	723.00	723.00	679.00	679.00	635.00	582.00	582.00	521.00	521.00	459.00	406.00	361.00	361.00	316.00	281.00	281.00	256.00	256.00	230.00	214.00	214.00	205.00	197.00	206.00	206.00	232.00	232.00	258.00	299.00	299.00	355.00	355.00	470.00	470.00	534.00	534.00	598.00	651.00	651.00	694.00	694.00	768.00	768.00	786.00	786.00	804.00	814.00	814.00	815.00	815.00	816.00	810.00	797.00	797.00	784.00	767.00	767.00	744.00	744.00	722.00	700.00	700.00	676.00	653.00	622.00	622.00	583.00	583.00	544.00	508.00	508.00	474.00	440.00	405.00	405.00	371.00	371.00	337.00	310.00	310.00	290.00	270.00	270.00	254.00	240.00	226.00	226.00	215.00	215.00	206.00	197.00	197.00	189.00	189.00	174.00	174.00	167.00	167.00	161.00	154.00	154.00	148.00	148.00	142.00	137.00	133.00	133.00	130.00	128.00	128.00	126.00	126.00	124.00	122.00	122.00	122.00	122.00	122.00	122.00	122.00	122.00	122.00	123.00	123.00	123.00	123.00	124.00	124.00	124.00	124.00	123.00	122.00	122.00	122.00	122.00	121.00	121.00	120.00	120.00	117.00	114.00	114.00	113.00	113.00	115.00	116.00	116.00	116.00	116.00	116.00	116.00	118.00	118.00	122.00	126.00	126.00	135.00	149.00	163.00	163.00	188.00	188.00	222.00	256.00	256.00	303.00	365.00	426.00	426.00	491.00	491.00	559.00	627.00	627.00	685.00	732.00	732.00	779.00	810.00	810.00	824.00	838.00	838.00	844.00	842.00	842.00	839.00	839.00	837.00	836.00	834.00	834.00	831.00	827.00	827.00	822.00	822.00	815.00	805.00	795.00	795.00	786.00	776.00	776.00	766.00	766.00	760.00	758.00	758.00	757.00	759.00	764.00	764.00	769.00	769.00	775.00	782.00	782.00	790.00	790.00	807.00	807.00	816.00	816.00	826.00	835.00	835.00	845.00	845.00	854.00	864.00	874.00	874.00	883.00	891.00	891.00	899.00	899.00	907.00	915.00	915.00	924.00	931.00	939.00	939.00	946.00	946.00	953.00	959.00
751.00	751.00	760.00	762.00	762.00	755.00	755.00	723.00	723.00	679.00	679.00	635.00	582.00	582.00	521.00	521.00	459.00	406.00	361.00	361.00	316.00	281.00	281.00	256.00	256.00	230.00	214.00	214.00	205.00	197.00	206.00	206.00	232.00	232.00	258.00	299.00	299.00	355.00	355.00	470.00	470.00	534.00	534.00	598.00	651.00	651.00	694.00	694.00	768.00	768.00	786.00	786.00	804.00	814.00	814.00	815.00	815.00	816.00	810.00	797.00	797.00	784.00	767.00	767.00	744.00	744.00	722.00	700.00	700.00	676.00	653.00	622.00	622.00	583.00	583.00	544.00	508.00	508.00	474.00	440.00	405.00	405.00	371.00	371.00	337.00	310.00	310.00	290.00	270.00	270.00	254.00	240.00	226.00	226.00	215.00	215.00	206.00	197.00	197.00	189.00	189.00	174.00	174.00	167.00	167.00	161.00	154.00	154.00	148.00	148.00	142.00	137.00	133.00	133.00	130.00	128.00	128.00	126.00	126.00	124.00	122.00	122.00	122.00	122.00	122.00	122.00	122.00	122.00	122.00	123.00	123.00	123.00	123.00	124.00	124.00	124.00	124.00	123.00	122.00	122.00	122.00	122.00	121.00	121.00	120.00	120.00	117.00	114.00	114.00	113.00	113.00	115.00	116.00	116.00	116.00	116.00	116.00	116.00	118.00	118.00	122.00	126.00	126.00	135.00	149.00	163.00	163.00	188.00	188.00	222.00	256.00	256.00	303.00	365.00	426.00	426.00	491.00	491.00	559.00	627.00	627.00	685.00	732.00	732.00	779.00	810.00	810.00	824.00	838.00	838.00	844.00	842.00	842.00	839.00	839.00	837.00	836.00	834.00	834.00	831.00	827.00	827.00	822.00	822.00	815.00	805.00	795.00	795.00	786.00	776.00	776.00	766.00	766.00	760.00	758.00	758.00	757.00	759.00	764.00	764.00	769.00	769.00	775.00	782.00	782.00	790.00	790.00	807.00	807.00	816.00	816.00	826.00	835.00	835.00	845.00	845.00	854.00	864.00	874.00	874.00	883.00	891.00	891.00	899.00	899.00	907.00	915.00	915.00	924.00	931.00	939.00	939.00	946.00	946.00	953.00	959.00
751.00	751.00	760.00	762.00	762.00	755.00	755.00	723.00	723.00	679.00	679.00	635.00	582.00	582.00	521.00	521.00	459.00	406.00	361.00	361.00	316.00	281.00	281.00	256.00	256.00	230.00	214.00	214.00	205.00	197.00	206.00	206.00	232.00	232.00	258.00	299.00	299.00	355.00	355.00	470.00	470.00	534.00	534.00	598.00	651.00	651.00	694.00	694.00	768.00	768.00	786.00	786.00	804.00	814.00	814.00	815.00	815.00	816.00	810.00	797.00	797.00	784.00	767.00	767.00	744.00	744.00	722.00	700.00	700.00	676.00	653.00	622.00	622.00	583.00	583.00	544.00	508.00	508.00	474.00	440.00	405.00	405.00	371.00	371.00	337.00	310.00	310.00	290.00	270.00	270.00	254.00	240.00	226.00	226.00	215.00	215.00	206.00	197.00	197.00	189.00	189.00	174.00	174.00	167.00	167.00	161.00	154.00	154.00	148.00	148.00	142.00	137.00	133.00	133.00	130.00	128.00	128.00	126.00	126.00	124.00	122.00	122.00	122.00	122.00	122.00	122.00	122.00	122.00	122.00	123.00	123.00	123.00	123.00	124.00	124.00	124.00	124.00	123.00	122.00	122.00	122.00	122.00	121.00	121.00	120.00	120.00	117.00	114.00	114.00	113.00	113.00	115.00	116.00	116.00	116.00	116.00	116.00	116.00	118.00	118.00	122.00	126.00	126.00	135.00	149.00	163.00	163.00	188.00	188.00	222.00	256.00	256.00	303.00	365.00	426.00	426.00	491.00	491.00	559.00	627.00	627.00	685.00	732.00	732.00	779.00	810.00	810.00	824.00	838.00	838.00	844.00	842.00	842.00	839.00	839.00	837.00	836.00	834.00	834.00	831.00	827.00	827.00	822.00	822.00	815.00	805.00	795.00	795.00	786.00	776.00	776.00	766.00	766.00	760.00	758.00	758.00	757.00	759.00	764.00	764.00	769.00	769.00	775.00	782.00	782.00	790.00	790.00	807.00	807.00	816.00	816.00	826.00	835.00	835.00	845.00	845.00	854.00	864.00	874.00	874.00	883.00	891.00	891.00	899.00	899.00	907.00	915.00	915.00	924.00	931.00	939.00	939.00	946.00	946.00	953.00	959.00
751.00	751.00	760.00	762.00	762.00	755.00	755.00	723.00	723.00	679.00	679.00	635.00	582.00	582.00	521.00	521.00	459.00	406.00	361.00	361.00	316.00	281.00	281.00	256.00	256.00	230.00	214.00	214.00	205.00	197.00	206.00	206.00	232.00	232.00	258.00	299.00	299.00	355.00	355.00	470.00	470.00	534.00	534.00	598.00	651.00	651.00	694.00	694.00	768.00	768.00	786.00	786.00	804.00	814.00	814.00	815.00	815.00	816.00	810.00	797.00	797.00	784.00	767.00	767.00	744.00	744.00	722.00	700.00	700.00	676.00	653.00	622.00	622.00	583.00	583.00	544.00	508.00	508.00	474.00	440.00	405.00	405.00	371.00	371.00	337.00	310.00	310.00	290.00	270.00	270.00	254.00	240.00	226.00	226.00	215.00	215.00	206.00	197.00	197.00	189.00	189.00	174.00	174.00	167.00	167.00	161.00	154.00	154.00	148.00	148.00	142.00	137.00	133.00	133.00	130.00	128.00	128.00	126.00	126.00	124.00	122.00	122.00	122.00	122.00	122.00	122.00	122.00	122.00	122.00	123.00	123.00	123.00	123.00	124.00	124.00	124.00	124.00	123.00	122.00	122.00	122.00	122.00	121.00	121.00	120.00	120.00	117.00	114.00	114.00	113.00	113.00	115.00	116.00	116.00	116.00	116.00	116.00	116.00	118.00	118.00	122.00	126.00	126.00	135.00	149.00	163.00	163.00	188.00	188.00	222.00	256.00	256.00	303.00	365.00	426.00	426.00	491.00	491.00	559.00	627.00	627.00	685.00	732.00	732.00	779.00	810.00	810.00	824.00	838.00	838.00	844.00	842.00	842.00	839.00	839.00	837.00	836.00	834.00	834.00	831.00	827.00	827.00	822.00	822.00	815.00	805.00	795.00	795.00	786.00	776.00	776.00	766.00	766.00	760.00	758.00	758.00	757.00	759.00	764.00	764.00	769.00	769.00	775.00	782.00	782.00	790.00	790.00	807.00	807.00	816.00	816.00	826.00	835.00	835.00	845.00	845.00	854.00	864.00	874.00	874.00	883.00	891.00	891.00	899.00	899.00	907.00	915.00	915.00	924.00	931.00	939.00	939.00	946.00	946.00	953.00	959.00
751.00	751.00	760.00	762.00	762.00	755.00	755.00	723.00	723.00	679.00	679.00	635.00	582.00	582.00	521.00	521.00	459.00	406.00	361.00	361.00	316.00	281.00	281.00	256.00	256.00	230.00	214.00	214.00	205.00	197.00	206.00	206.00	232.00	232.00	258.00	299.00	299.00	355.00	355.00	470.00	470.00	534.00	534.00	598.00	651.00	651.00	694.00	694.00	768.00	768.00	786.00	786.00	804.00	814.00	814.00	815.00	815.00	816.00	810.00	797.00	797.00	784.00	767.00	767.00	744.00	744.00	722.00	700.00	700.00	676.00	653.00	622.00	622.00	583.00	583.00	544.00	508.00	508.00	474.00	440.00	405.00	405.00	371.00	371.00	337.00	310.00	310.00	290.00	270.00	270.00	254.00	240.00	226.00	226.00	215.00	215.00	206.00	197.00	197.00	189.00	189.00	174.00	174.00	167.00	167.00	161.00	154.00	154.00	148.00	148.00	142.00	137.00	133.00	133.00	130.00	128.00	128.00	126.00	126.00	124.00	122.00	122.00	122.00	122.00	122.00	122.00	122.00	122.00	122.00	123.00	123.00	123.00	123.00	124.00	124.00	124.00	124.00	123.00	122.00	122.00	122.00	122.00	121.00	121.00	120.00	120.00	117.00	114.00	114.00	113.00	113.00	115.00	116.00	116.00	116.00	116.00	116.00	116.00	118.00	118.00	122.00	126.00	126.00	135.00	149.00	163.00	163.00	188.00	188.00	222.00	256.00	256.00	303.00	365.00	426.00	426.00	491.00	491.00	559.00	627.00	627.00	685.00	732.00	732.00	779.00	810.00	810.00	824.00	838.00	838.00	844.00	842.00	842.00	839.00	839.00	837.00	836.00	834.00	834.00	831.00	827.00	827.00	822.00	822.00	815.00	805.00	795.00	795.00	786.00	776.00	776.00	766.00	766.00	760.00	758.00	758.00	757.00	759.00	764.00	764.00	769.00	769.00	775.00	782.00	782.00	790.00	790.00	807.00	807.00	816.00	816.00	826.00	835.00	835.00	845.00	845.00	854.00	864.00	874.00	874.00	883.00	891.00	891.00	899.00	899.00	907.00	915.00	915.00	924.00	931.00	939.00	939.00	946.00	946.00	953.00	959.00
751.00	751.00	760.00	762.00	762.00	755.00	755.00	723.00	723.00	679.00	679.00	635.00	582.00	582.00	521.00	521.00	459.00	406.00	361.00	361.00	316.00	281.00	281.00	256.00	256.00	230.00	214.00	214.00	205.00	197.00	206.00	206.00	232.00	232.00	258.00	299.00	299.00	355.00	355.00	470.00	470.00	534.00	534.00	598.00	651.00	651.00	694.00	694.00	768.00	768.00	786.00	786.00	804.00	814.00	814.00	815.00	815.00	816.00	810.00	797.00	797.00	784.00	767.00	767.00	744.00	744.00	722.00	700.00	700.00	676.00	653.00	622.00	622.00	583.00	583.00	544.00	508.00	508.00	474.00	440.00	405.00	405.00	371.00	371.00	337.00	310.00	310.00	290.00	270.00	270.00	254.00	240.00	226.00	226.00	215.00	215.00	206.00	197.00	197.00	189.00	189.00	174.00	174.00	167.00	167.00	161.00	154.00	154.00	148.00	148.00	142.00	137.00	133.00	133.00	130.00	128.00	128.00	126.00	126.00	124.00	122.00	122.00	122.00	122.00	122.00	122.00	122.00	122.00	122.00	123.00	123.00	123.00	123.00	124.00	124.00	124.00	124.00	123.00	122.00	122.00	122.00	122.00	121.00	121.00	120.00	120.00	117.00	114.00	114.00	113.00	113.00	115.00	116.00	116.00	116.00	116.00	116.00	116.00	118.00	118.00	122.00	126.00	126.00	135.00	149.00	163.00	163.00	188.00	188.00	222.00	256.00	256.00	303.00	365.00	426.00	426.00	491.00	491.00	559.00	627.00	627.00	685.00	732.00	732.00	779.00	810.00	810.00	824.00	838.00	838.00	844.00	842.00	842.00	839.00	839.00	837.00	836.00	834.00	834.00	831.00	827.00	827.00	822.00	822.00	815.00	805.00	795.00	795.00	786.00	776.00	776.00	766.00	766.00	760.00	758.00	758.00	757.00	759.00	764.00	764.00	769.00	769.00	775.00	782.00	782.00	790.00	790.00	807.00	807.00	816.00	816.00	826.00	835.00	835.00	845.00	845.00	854.00	864.00	874.00	874.00	883.00	891.00	891.00	899.00	899.00	907.00	915.00	915.00	924.00	931.00	939.00	939.00	946.00	946.00	953.00	959.00
751.00	751.00	760.00	762.00	762.00	755.00	755.00	723.00	723.00	679.00	679.00	635.00	582.00	582.00	521.00	521.00	459.00	406.00	361.00	361.00	316.00	281.00	281.00	256.00	256.00	230.00	214.00	214.00	205.00	197.00	206.00	206.00	232.00	232.00	258.00	299.00	299.00	355.00	355.00	470.00	470.00	534.00	534.00	598.00	651.00	651.00	694.00	694.00	768.00	768.00	786.00	786.00	804.00	814.00	814.00	815.00	815.00	816.00	810.00	797.00	797.00	784.00	767.00	767.00	744.00	744.00	722.00	700.00	700.00	676.00	653.00	622.00	622.00	583.00	583.00	544.00	508.00	508.00	474.00	440.00	405.00	405.00	371.00	371.00	337.00	310.00	310.00	290.00	270.00	270.00	254.00	240.00	226.00	226.00	215.00	215.00	206.00	197.00	197.00	189.00	189.00	174.00	174.00	167.00	167.00	161.00	154.00	154.00	148.00	148.00	142.00	137.00	133.00	133.00	130.00	128.00	128.00	126.00	126.00	124.00	122.00	122.00	122.00	122.00	122.00	122.00	122.00	122.00	122.00	123.00	123.00	123.00	123.00	124.00	124.00	124.00	124.00	123.00	122.00	122.00	122.00	122.00	121.00	121.00	120.00	120.00	117.00	114.00	114.00	113.00	113.00	115.00	116.00	116.00	116.00	116.00	116.00	116.00	118.00	118.00	122.00	126.00	126.00	135.00	149.00	163.00	163.00	188.00	188.00	222.00	256.00	256.00	303.00	365.00	426.00	426.00	491.00	491.00	559.00	627.00	627.00	685.00	732.00	732.00	779.00	810.00	810.00	824.00	838.00	838.00	844.00	842.00	842.00	839.00	839.00	837.00	836.00	834.00	834.00	831.00	827.00	827.00	822.00	822.00	815.00	805.00	795.00	795.00	786.00	776.00	776.00	766.00	766.00	760.00	758.00	758.00	757.00	759.00	764.00	764.00	769.00	769.00	775.00	782.00	782.00	790.00	790.00	807.00	807.00	816.00	816.00	826.00	835.00	835.00	845.00	845.00	854.00	864.00	874.00	874.00	883.00	891.00	891.00	899.00	899.00	907.00	915.00	915.00	924.00	931.00	939.00	939.00	946.00	946.00	953.00	959.00
751.00	751.00	760.00	762.00	762.00	755.00	755.00	723.00	723.00	679.00	679.00	635.00	582.00	582.00	521.00	521.00	459.00	406.00	361.00	361.00	316.00	281.00	281.00	256.00	256.00	230.00	214.00	214.00	205.00	197.00	206.00	206.00	232.00	232.00	258.00	299.00	299.00	355.00	355.00	470.00	470.00	534.00	534.00	598.00	651.00	651.00	694.00	694.00	768.00	768.00	786.00	786.00	804.00	814.00	814.00	815.00	815.00	816.00	810.00	797.00	797.00	784.00	767.00	767.00	744.00	744.00	722.00	700.00	700.00	676.00	653.00	622.00	622.00	583.00	583.00	544.00	508.00	508.00	474.00	440.00	405.00	405.00	371.00	371.00	337.00	310.00	310.00	290.00	270.00	270.00	254.00	240.00	226.00	226.00	215.00	215.00	206.00	197.00	197.00	189.00	189.00	174.00	174.00	167.00	167.00	161.00	154.00	154.00	148.00	148.00	142.00	137.00	133.00	133.00	130.00	128.00	128.00	126.00	126.00	124.00	122.00	122.00	122.00	122.00	122.00	122.00	122.00	122.00	122.00	123.00	123.00	123.00	123.00	124.00	124.00	124.00	124.00	123.00	122.00	122.00	122.00	122.00	121.00	121.00	120.00	120.00	117.00	114.00	114.00	113.00	113.00	115.00	116.00	116.00	116.00	116.00	116.00	116.00	118.00	118.00	122.00	126.00	126.00	135.00	149.00	163.00	163.00	188.00	188.00	222.00	256.00	256.00	303.00	365.00	426.00	426.00	491.00	491.00	559.00	627.00	627.00	685.00	732.00	732.00	779.00	810.00	810.00	824.00	838.00	838.00	844.00	842.00	842.00	839.00	839.00	837.00	836.00	834.00	834.00	831.00	827.00	827.00	822.00	822.00	815.00	805.00	795.00	795.00	786.00	776.00	776.00	766.00	766.00	760.00	758.00	758.00	757.00	759.00	764.00	764.00	769.00	769.00	775.00	782.00	782.00	790.00	790.00	807.00	807.00	816.00	816.00	826.00	835.00	835.00	845.00	845.00	854.00	864.00	874.00	874.00	883.00	891.00	891.00	899.00	899.00	907.00	915.00	915.00	924.00	931.00	939.00	939.00	946.00	946.00	953.00	959.00
751.00	751.00	760.00	762.00	762.00	755.00	755.00	723.00	723.00	679.00	679.00	635.00	582.00	582.00	521.00	521.00	459.00	406.00	361.00	361.00	316.00	281.00	281.00	256.00	256.00	230.00	214.00	214.00	205.00	197.00	206.00	206.00	232.00	232.00	258.00	299.00	299.00	355.00	355.00	470.00	470.00	534.00	534.00	598.00	651.00	651.00	694.00	694.00	768.00	768.00	786.00	786.00	804.00	814.00	814.00	815.00	815.00	816.00	810.00	797.00	797.00	784.00	767.00	767.00	744.00	744.00	722.00	700.00	700.00	676.00	653.00	622.00	622.00	583.00	583.00	544.00	508.00	508.00	474.00	440.00	405.00	405.00	371.00	371.00	337.00	310.00	310.00	290.00	270.00	270.00	254.00	240.00	226.00	226.00	215.00	215.00	206.00	197.00	197.00	189.00	189.00	174.00	174.00	167.00	167.00	161.00	154.00	154.00	148.00	148.00	142.00	137.00	133.00	133.00	130.00	128.00	128.00	126.00	126.00	124.00	122.00	122.00	122.00	122.00	122.00	122.00	122.00	122.00	122.00	123.00	123.00	123.00	123.00	124.00	124.00	124.00	124.00	123.00	122.00	122.00	122.00	122.00	121.00	121.00	120.00	120.00	117.00	114.00	114.00	113.00	113.00	115.00	116.00	116.00	116.00	116.00	116.00	116.00	118.00	118.00	122.00	126.00	126.00	135.00	149.00	163.00	163.00	188.00	188.00	222.00	256.00	256.00	303.00	365.00	426.00	426.00	491.00	491.00	559.00	627.00	627.00	685.00	732.00	732.00	779.00	810.00	810.00	824.00	838.00	838.00	844.00	842.00	842.00	839.00	839.00	837.00	836.00	834.00	834.00	831.00	827.00	827.00	822.00	822.00	815.00	805.00	795.00	795.00	786.00	776.00	776.00	766.00	766.00	760.00	758.00	758.00	757.00	759.00	764.00	764.00	769.00	769.00	775.00	782.00	782.00	790.00	790.00	807.00	807.00	816.00	816.00	826.00	835.00	835.00	845.00	845.00	854.00	864.00	874.00	874.00	883.00	891.00	891.00	899.00	899.00	907.00	915.00	915.00	924.00	931.00	939.00	939.00	946.00	946.00	953.00	959.00
757.00	757.00	772.00	781.00	781.00	785.00	785.00	774.00	774.00	738.00	738.00	703.00	655.00	655.00	595.00	595.00	536.00	479.00	426.00	426.00	372.00	329.00	329.00	295.00	295.00	262.00	240.00	240.00	230.00	219.00	226.00	226.00	250.00	250.00	274.00	312.00	312.00	364.00	364.00	474.00	474.00	539.00	539.00	604.00	658.00	658.00	700.00	700.00	769.00	769.00	780.00	780.00	792.00	801.00	801.00	807.00	807.00	813.00	817.00	821.00	821.00	824.00	827.00	827.00	830.00	830.00	832.00	833.00	833.00	832.00	831.00	823.00	823.00	808.00	808.00	793.00	764.00	764.00	720.00	677.00	633.00	633.00	587.00	587.00	542.00	507.00	507.00	484.00	460.00	460.00	438.00	417.00	397.00	397.00	379.00	379.00	363.00	348.00	348.00	332.00	332.00	298.00	298.00	282.00	282.00	266.00	250.00	250.00	236.00	236.00	224.00	213.00	203.00	203.00	195.00	186.00	186.00	180.00	180.00	174.00	169.00	169.00	165.00	162.00	160.00	160.00	158.00	158.00	156.00	154.00	154.00	152.00	152.00	146.00	146.00	143.00	143.00	141.00	139.00	139.00	138.00	138.00	138.00	138.00	138.00	138.00	138.00	138.00	138.00	138.00	138.00	139.00	139.00	139.00	139.00	139.00	139.00	139.00	138.00	138.00	135.00	133.00	133.00	130.00	127.00	124.00	124.00	125.00	125.00	128.00	131.00	131.00	152.00	190.00	228.00	228.00	288.00	288.00	370.00	452.00	452.00	536.00	622.00	622.00	707.00	770.00	770.00	808.00	846.00	846.00	868.00	873.00	873.00	877.00	877.00	881.00	883.00	886.00	886.00	886.00	885.00	885.00	883.00	883.00	878.00	868.00	858.00	858.00	844.00	827.00	827.00	809.00	809.00	793.00	780.00	780.00	766.00	759.00	757.00	757.00	755.00	755.00	759.00	770.00	770.00	780.00	780.00	794.00	794.00	801.00	801.00	808.00	816.00	816.00	825.00	825.00	833.00	842.00	851.00	851.00	859.00	868.00	868.00	877.00	877.00	885.00	894.00	894.00	902.00	911.00	919.00	919.00	927.00	927.00	934.00	942.00
757.00	757.00	772.00	781.00	781.00	785.00	785.00	774.00	774.00	738.00	738.00	703.00	655.00	655.00	595.00	595.00	536.00	479.00	426.00	426.00	372.00	329.00	329.00	295.00	295.00	262.00	240.00	240.00	230.00	219.00	226.00	226.00	250.00	250.00	274.00	312.00	312.00	364.00	364.00	474.00	474.00	539.00	539.00	604.00	658.00	658.00	700.00	700.00	769.00	769.00	780.00	780.00	792.00	801.00	801.00	807.00	807.00	813.00	817.00	821.00	821.00	824.00	827.00	827.00	830.00	830.00	832.00	833.00	833.00	832.00	831.00	823.00	823.00	808.00	808.00	793.00	764.00	764.00	720.00	677.00	633.00	633.00	587.00	587.00	542.00	507.00	507.00	484.00	460.00	460.00	438.00	417.00	397.00	397.00	379.00	379.00	363.00	348.00	348.00	332.00	332.00	298.00	298.00	282.00	282.00	266.00	250.00	250.00	236.00	236.00	224.00	213.00	203.00	203.00	195.00	186.00	186.00	180.00	180.00	174.00	169.00	169.00	165.00	162.00	160.00	160.00	158.00	158.00	156.00	154.00	154.00	152.00	152.00	146.00	146.00	143.00	143.00	141.00	139.00	139.00	138.00	138.00	138.00	138.00	138.00	138.00	138.00	138.00	138.00	138.00	138.00	139.00	139.00	139.00	139.00	139.00	139.00	139.00	138.00	138.00	135.00	133.00	133.00	130.00	127.00	124.00	124.00	125.00	125.00	128.00	131.00	131.00	152.00	190.00	228.00	228.00	288.00	288.00	370.00	452.00	452.00	536.00	622.00	622.00	707.00	770.00	770.00	808.00	846.00	846.00	868.00	873.00	873.00	877.00	877.00	881.00	883.00	886.00	886.00	886.00	885.00	885.00	883.00	883.00	878.00	868.00	858.00	858.00	844.00	827.00	827.00	809.00	809.00	793.00	780.00	780.00	766.00	759.00	757.00	757.00	755.00	755.00	759.00	770.00	770.00	780.00	780.00	794.00	794.00	801.00	801.00	808.00	816.00	816.00	825.00	825.00	833.00	842.00	851.00	851.00	859.00	868.00	868.00	877.00	877.00	885.00	894.00	894.00	902.00	911.00	919.00	919.00	927.00	927.00	934.00	942.00
757.00	757.00	772.00	781.00	781.00	785.00	785.00	774.00	774.00	738.00	738.00	703.00	655.00	655.00	595.00	595.00	536.00	479.00	426.00	426.00	372.00	329.00	329.00	295.00	295.00	262.00	240.00	240.00	230.00	219.00	226.00	226.00	250.00	250.00	274.00	312.00	312.00	364.00	364.00	474.00	474.00	539.00	539.00	604.00	658.00	658.00	700.00	700.00	769.00	769.00	780.00	780.00	792.00	801.00	801.00	807.00	807.00	813.00	817.00	821.00	821.00	824.00	827.00	827.00	830.00	830.00	832.00	833.00	833.00	832.00	831.00	823.00	823.00	808.00	808.00	793.00	764.00	764.00	720.00	677.00	633.00	633.00	587.00	587.00	542.00	507.00	507.00	484.00	460.00	460.00	438.00	417.00	397.00	397.00	379.00	379.00	363.00	348.00	348.00	332.00	332.00	298.00	298.00	282.00	282.00	266.00	250.00	250.00	236.00	236.00	224.00	213.00	203.00	203.00	195.00	186.00	186.00	180.00	180.00	174.00	169.00	169.00	165.00	162.00	160.00	160.00	158.00	158.00	156.00	154.00	154.00	152.00	152.00	146.00	146.00	143.00	143.00	141.00	139.00	139.00	138.00	138.00	138.00	138.00	138.00	138.00	138.00	138.00	138.00	138.00	138.00	139.00	139.00	139.00	139.00	139.00	139.00	139.00	138.00	138.00	135.00	133.00	133.00	130.00	127.00	124.00	124.00	125.00	125.00	128.00	131.00	131.00	152.00	190.00	228.00	228.00	288.00	288.00	370.00	452.00	452.00	536.00	622.00	622.00	707.00	770.00	770.00	808.00	846.00	846.00	868.00	873.00	873.00	877.00	877.00	881.00	883.00	886.00	886.00	886.00	885.00	885.00	883.00	883.00	878.00	868.00	858.00	858.00	844.00	827.00	827.00	809.00	809.00	793.00	780.00	780.00	766.00	759.00	757.00	757.00	755.00	755.00	759.00	770.00	770.00	780.00	780.00	794.00	794.00	801.00	801.00	808.00	816.00	816.00	825.00	825.00	833.00	842.00	851.00	851.00	859.00	868.00	868.00	877.00	877.00	885.00	894.00	894.00	902.00	911.00	919.00	919.00	927.00	927.00	934.00	942.00
757.00	757.00	772.00	781.00	781.00	785.00	785.00	774.00	774.00	738.00	738.00	703.00	655.00	655.00	595.00	595.00	536.00	479.00	426.00	426.00	372.00	329.00	329.00	295.00	295.00	262.00	240.00	240.00	230.00	219.00	226.00	226.00	250.00	250.00	274.00	312.00	312.00	364.00	364.00	474.00	474.00	539.00	539.00	604.00	658.00	658.00	700.00	700.00	769.00	769.00	780.00	780.00	792.00	801.00	801.00	807.00	807.00	813.00	817.00	821.00	821.00	824.00	827.00	827.00	830.00	830.00	832.00	833.00	833.00	832.00	831.00	823.00	823.00	808.00	808.00	793.00	764.00	764.00	720.00	677.00	633.00	633.00	587.00	587.00	542.00	507.00	507.00	484.00	460.00	460.00	438.00	417.00	397.00	397.00	379.00	379.00	363.00	348.00	348.00	332.00	332.00	298.00	298.00	282.00	282.00	266.00	250.00	250.00	236.00	236.00	224.00	213.00	203.00	203.00	195.00	186.00	186.00	180.00	180.00	174.00	169.00	169.00	165.00	162.00	160.00	160.00	158.00	158.00	156.00	154.00	154.00	152.00	152.00	146.00	146.00	143.00	143.00	141.00	139.00	139.00	138.00	138.00	138.00	138.00	138.00	138.00	138.00	138.00	138.00	138.00	138.00	139.00	139.00	139.00	139.00	139.00	139.00	139.00	138.00	138.00	135.00	133.00	133.00	130.00	127.00	124.00	124.00	125.00	125.00	128.00	131.00	131.00	152.00	190.00	228.00	228.00	288.00	288.00	370.00	452.00	452.00	536.00	622.00	622.00	707.00	770.00	770.00	808.00	846.00	846.00	868.00	873.00	873.00	877.00	877.00	881.00	883.00	886.00	886.00	886.00	885.00	885.00	883.00	883.00	878.00	868.00	858.00	858.00	844.00	827.00	827.00	809.00	809.00	793.00	780.00	780.00	766.00	759.00	757.00	757.00	755.00	755.00	759.00	770.00	770.00	780.00	780.00	794.00	794.00	801.00	801.00	808.00	816.00	816.00	825.00	825.00	833.00	842.00	851.00	851.00	859.00	868.00	868.00	877.00	877.00	885.00	894.00	894.00	902.00	911.00	919.00	919.00	927.00	927.00	934.00	942.00
757.00	757.00	772.00	781.00	781.00	785.00	785.00	774.00	774.00	738.00	738.00	703.00	655.00	655.00	595.00	595.00	536.00	479.00	426.00	426.00	372.00	329.00	329.00	295.00	295.00	262.00	240.00	240.00	230.00	219.00	226.00	226.00	250.00	250.00	274.00	312.00	312.00	364.00	364.00	474.00	474.00	539.00	539.00	604.00	658.00	658.00	700.00	700.00	769.00	769.00	780.00	780.00	792.00	801.00	801.00	807.00	807.00	813.00	817.00	821.00	821.00	824.00	827.00	827.00	830.00	830.00	832.00	833.00	833.00	832.00	831.00	823.00	823.00	808.00	808.00	793.00	764.00	764.00	720.00	677.00	633.00	633.00	587.00	587.00	542.00	507.00	507.00	484.00	460.00	460.00	438.00	417.00	397.00	397.00	379.00	379.00	363.00	348.00	348.00	332.00	332.00	298.00	298.00	282.00	282.00	266.00	250.00	250.00	236.00	236.00	224.00	213.00	203.00	203.00	195.00	186.00	186.00	180.00	180.00	174.00	169.00	169.00	165.00	162.00	160.00	160.00	158.00	158.00	156.00	154.00	154.00	152.00	152.00	146.00	146.00	143.00	143.00	141.00	139.00	139.00	138.00	138.00	138.00	138.00	138.00	138.00	138.00	138.00	138.00	138.00	138.00	139.00	139.00	139.00	139.00	139.00	139.00	139.00	138.00	138.00	135.00	133.00	133.00	130.00	127.00	124.00	124.00	125.00	125.00	128.00	131.00	131.00	152.00	190.00	228.00	228.00	288.00	288.00	370.00	452.00	452.00	536.00	622.00	622.00	707.00	770.00	770.00	808.00	846.00	846.00	868.00	873.00	873.00	877.00	877.00	881.00	883.00	886.00	886.00	886.00	885.00	885.00	883.00	883.00	878.00	868.00	858.00	858.00	844.00	827.00	827.00	809.00	809.00	793.00	780.00	780.00	766.00	759.00	757.00	757.00	755.00	755.00	759.00	770.00	770.00	780.00	780.00	794.00	794.00	801.00	801.00	808.00	816.00	816.00	825.00	825.00	833.00	842.00	851.00	851.00	859.00	868.00	868.00	877.00	877.00	885.00	894.00	894.00	902.00	911.00	919.00	919.00	927.00	927.00	934.00	942.00
757.00	757.00	772.00	781.00	781.00	785.00	785.00	774.00	774.00	738.00	738.00	703.00	655.00	655.00	595.00	595.00	536.00	479.00	426.00	426.00	372.00	329.00	329.00	295.00	295.00	262.00	240.00	240.00	230.00	219.00	226.00	226.00	250.00	250.00	274.00	312.00	312.00	364.00	364.00	474.00	474.00	539.00	539.00	604.00	658.00	658.00	700.00	700.00	769.00	769.00	780.00	780.00	792.00	801.00	801.00	807.00	807.00	813.00	817.00	821.00	821.00	824.00	827.00	827.00	830.00	830.00	832.00	833.00	833.00	832.00	831.00	823.00	823.00	808.00	808.00	793.00	764.00	764.00	720.00	677.00	633.00	633.00	587.00	587.00	542.00	507.00	507.00	484.00	460.00	460.00	438.00	417.00	397.00	397.00	379.00	379.00	363.00	348.00	348.00	332.00	332.00	298.00	298.00	282.00	282.00	266.00	250.00	250.00	236.00	236.00	224.00	213.00	203.00	203.00	195.00	186.00	186.00	180.00	180.00	174.00	169.00	169.00	165.00	162.00	160.00	160.00	158.00	158.00	156.00	154.00	154.00	152.00	152.00	146.00	146.00	143.00	143.00	141.00	139.00	139.00	138.00	138.00	138.00	138.00	138.00	138.00	138.00	138.00	138.00	138.00	138.00	139.00	139.00	139.00	139.00	139.00	139.00	139.00	138.00	138.00	135.00	133.00	133.00	130.00	127.00	124.00	124.00	125.00	125.00	128.00	131.00	131.00	152.00	190.00	228.00	228.00	288.00	288.00	370.00	452.00	452.00	536.00	622.00	622.00	707.00	770.00	770.00	808.00	846.00	846.00	868.00	873.00	873.00	877.00	877.00	881.00	883.00	886.00	886.00	886.00	885.00	885.00	883.00	883.00	878.00	868.00	858.00	858.00	844.00	827.00	827.00	809.00	809.00	793.00	780.00	780.00	766.00	759.00	757.00	757.00	755.00	755.00	759.00	770.00	770.00	780.00	780.00	794.00	794.00	801.00	801.00	808.00	816.00	816.00	825.00	825.00	833.00	842.00	851.00	851.00	859.00	868.00	868.00	877.00	877.00	885.00	894.00	894.00	902.00	911.00	919.00	919.00	927.00	927.00	934.00	942.00
757.00	757.00	772.00	781.00	781.00	785.00	785.00	774.00	774.00	738.00	738.00	703.00	655.00	655.00	595.00	595.00	536.00	479.00	426.00	426.00	372.00	329.00	329.00	295.00	295.00	262.00	240.00	240.00	230.00	219.00	226.00	226.00	250.00	250.00	274.00	312.00	312.00	364.00	364.00	474.00	474.00	539.00	539.00	604.00	658.00	658.00	700.00	700.00	769.00	769.00	780.00	780.00	792.00	801.00	801.00	807.00	807.00	813.00	817.00	821.00	821.00	824.00	827.00	827.00	830.00	830.00	832.00	833.00	833.00	832.00	831.00	823.00	823.00	808.00	808.00	793.00	764.00	764.00	720.00	677.00	633.00	633.00	587.00	587.00	542.00	507.00	507.00	484.00	460.00	460.00	438.00	417.00	397.00	397.00	379.00	379.00	363.00	348.00	348.00	332.00	332.00	298.00	298.00	282.00	282.00	266.00	250.00	250.00	236.00	236.00	224.00	213.00	203.00	203.00	195.00	186.00	186.00	180.00	180.00	174.00	169.00	169.00	165.00	162.00	160.00	160.00	158.00	158.00	156.00	154.00	154.00	152.00	152.00	146.00	146.00	143.00	143.00	141.00	139.00	139.00	138.00	138.00	138.00	138.00	138.00	138.00	138.00	138.00	138.00	138.00	138.00	139.00	139.00	139.00	139.00	139.00	139.00	139.00	138.00	138.00	135.00	133.00	133.00	130.00	127.00	124.00	124.00	125.00	125.00	128.00	131.00	131.00	152.00	190.00	228.00	228.00	288.00	288.00	370.00	452.00	452.00	536.00	622.00	622.00	707.00	770.00	770.00	808.00	846.00	846.00	868.00	873.00	873.00	877.00	877.00	881.00	883.00	886.00	886.00	886.00	885.00	885.00	883.00	883.00	878.00	868.00	858.00	858.00	844.00	827.00	827.00	809.00	809.00	793.00	780.00	780.00	766.00	759.00	757.00	757.00	755.00	755.00	759.00	770.00	770.00	780.00	780.00	794.00	794.00	801.00	801.00	808.00	816.00	816.00	825.00	825.00	833.00	842.00	851.00	851.00	859.00	868.00	868.00	877.00	877.00	885.00	894.00	894.00	902.00	911.00	919.00	919.00	927.00	927.00	934.00	942.00
757.00	757.00	772.00	781.00	781.00	785.00	785.00	774.00	774.00	738.00	738.00	703.00	655.00	655.00	595.00	595.00	536.00	479.00	426.00	426.00	372.00	329.00	329.00	295.00	295.00	262.00	240.00	240.00	230.00	219.00	226.00	226.00	250.00	250.00	274.00	312.00	312.00	364.00	364.00	474.00	474.00	539.00	539.00	604.00	658.00	658.00	700.00	700.00	769.00	769.00	780.00	780.00	792.00	801.00	801.00	807.00	807.00	813.00	817.00	821.00	821.00	824.00	827.00	827.00	830.00	830.00	832.00	833.00	833.00	832.00	831.00	823.00	823.00	808.00	808.00	793.00	764.00	764.00	720.00	677.00	633.00	633.00	587.00	587.00	542.00	507.00	507.00	484.00	460.00	460.00	438.00	417.00	397.00	397.00	379.00	379.00	363.00	348.00	348.00	332.00	332.00	298.00	298.00	282.00	282.00	266.00	250.00	250.00	236.00	236.00	224.00	213.00	203.00	203.00	195.00	186.00	186.00	180.00	180.00	174.00	169.00	169.00	165.00	162.00	160.00	160.00	158.00	158.00	156.00	154.00	154.00	152.00	152.00	146.00	146.00	143.00	143.00	141.00	139.00	139.00	138.00	138.00	138.00	138.00	138.00	138.00	138.00	138.00	138.00	138.00	138.00	139.00	139.00	139.00	139.00	139.00	139.00	139.00	138.00	138.00	135.00	133.00	133.00	130.00	127.00	124.00	124.00	125.00	125.00	128.00	131.00	131.00	152.00	190.00	228.00	228.00	288.00	288.00	370.00	452.00	452.00	536.00	622.00	622.00	707.00	770.00	770.00	808.00	846.00	846.00	868.00	873.00	873.00	877.00	877.00	881.00	883.00	886.00	886.00	886.00	885.00	885.00	883.00	883.00	878.00	868.00	858.00	858.00	844.00	827.00	827.00	809.00	809.00	793.00	780.00	780.00	766.00	759.00	757.00	757.00	755.00	755.00	759.00	770.00	770.00	780.00	780.00	794.00	794.00	801.00	801.00	808.00	816.00	816.00	825.00	825.00	833.00	842.00	851.00	851.00	859.00	868.00	868.00	877.00	877.00	885.00	894.00	894.00	902.00	911.00	919.00	919.00	927.00	927.00	934.00	942.00
757.00	757.00	772.00	781.00	781.00	785.00	785.00	774.00	774.00	738.00	738.00	703.00	655.00	655.00	595.00	595.00	536.00	479.00	426.00	426.00	372.00	329.00	329.00	295.00	295.00	262.00	240.00	240.00	230.00	219.00	226.00	226.00	250.00	250.00	274.00	312.00	312.00	364.00	364.00	474.00	474.00	539.00	539.00	604.00	658.00	658.00	700.00	700.00	769.00	769.00	780.00	780.00	792.00	801.00	801.00	807.00	807.00	813.00	817.00	821.00	821.00	824.00	827.00	827.00	830.00	830.00	832.00	833.00	833.00	832.00	831.00	823.00	823.00	808.00	808.00	793.00	764.00	764.00	720.00	677.00	633.00	633.00	587.00	587.00	542.00	507.00	507.00	484.00	460.00	460.00	438.00	417.00	397.00	397.00	379.00	379.00	363.00	348.00	348.00	332.00	332.00	298.00	298.00	282.00	282.00	266.00	250.00	250.00	236.00	236.00	224.00	213.00	203.00	203.00	195.00	186.00	186.00	180.00	180.00	174.00	169.00	169.00	165.00	162.00	160.00	160.00	158.00	158.00	156.00	154.00	154.00	152.00	152.00	146.00	146.00	143.00	143.00	141.00	139.00	139.00	138.00	138.00	138.00	138.00	138.00	138.00	138.00	138.00	138.00	138.00	138.00	139.00	139.00	139.00	139.00	139.00	139.00	139.00	138.00	138.00	135.00	133.00	133.00	130.00	127.00	124.00	124.00	125.00	125.00	128.00	131.00	131.00	152.00	190.00	228.00	228.00	288.00	288.00	370.00	452.00	452.00	536.00	622.00	622.00	707.00	770.00	770.00	808.00	846.00	846.00	868.00	873.00	873.00	877.00	877.00	881.00	883.00	886.00	886.00	886.00	885.00	885.00	883.00	883.00	878.00	868.00	858.00	858.00	844.00	827.00	827.00	809.00	809.00	793.00	780.00	780.00	766.00	759.00	757.00	757.00	755.00	755.00	759.00	770.00	770.00	780.00	780.00	794.00	794.00	801.00	801.00	808.00	816.00	816.00	825.00	825.00	833.00	842.00	851.00	851.00	859.00	868.00	868.00	877.00	877.00	885.00	894.00	894.00	902.00	911.00	919.00	919.00	927.00	927.00	934.00	942.00
757.00	757.00	772.00	781.00	781.00	785.00	785.00	774.00	774.00	738.00	738.00	703.00	655.00	655.00	595.00	595.00	536.00	479.00	426.00	426.00	372.00	329.00	329.00	295.00	295.00	262.00	240.00	240.00	230.00	219.00	226.00	226.00	250.00	250.00	274.00	312.00	312.00	364.00	364.00	474.00	474.00	539.00	539.00	604.00	658.00	658.00	700.00	700.00	769.00	769.00	780.00	780.00	792.00	801.00	801.00	807.00	807.00	813.00	817.00	821.00	821.00	824.00	827.00	827.00	830.00	830.00	832.00	833.00	833.00	832.00	831.00	823.00	823.00	808.00	808.00	793.00	764.00	764.00	720.00	677.00	633.00	633.00	587.00	587.00	542.00	507.00	507.00	484.00	460.00	460.00	438.00	417.00	397.00	397.00	379.00	379.00	363.00	348.00	348.00	332.00	332.00	298.00	298.00	282.00	282.00	266.00	250.00	250.00	236.00	236.00	224.00	213.00	203.00	203.00	195.00	186.00	186.00	180.00	180.00	174.00	169.00	169.00	165.00	162.00	160.00	160.00	158.00	158.00	156.00	154.00	154.00	152.00	152.00	146.00	146.00	143.00	143.00	141.00	139.00	139.00	138.00	138.00	138.00	138.00	138.00	138.00	138.00	138.00	138.00	138.00	138.00	139.00	139.00	139.00	139.00	139.00	139.00	139.00	138.00	138.00	135.00	133.00	133.00	130.00	127.00	124.00	124.00	125.00	125.00	128.00	131.00	131.00	152.00	190.00	228.00	228.00	288.00	288.00	370.00	452.00	452.00	536.00	622.00	622.00	707.00	770.00	770.00	808.00	846.00	846.00	868.00	873.00	873.00	877.00	877.00	881.00	883.00	886.00	886.00	886.00	885.00	885.00	883.00	883.00	878.00	868.00	858.00	858.00	844.00	827.00	827.00	809.00	809.00	793.00	780.00	780.00	766.00	759.00	757.00	757.00	755.00	755.00	759.00	770.00	770.00	780.00	780.00	794.00	794.00	801.00	801.00	808.00	816.00	816.00	825.00	825.00	833.00	842.00	851.00	851.00	859.00	868.00	868.00	877.00	877.00	885.00	894.00	894.00	902.00	911.00	919.00	919.00	927.00	927.00	934.00	942.00
757.00	757.00	772.00	781.00	781.00	785.00	785.00	774.00	774.00	738.00	738.00	703.00	655.00	655.00	595.00	595.00	536.00	479.00	426.00	426.00	372.00	329.00	329.00	295.00	295.00	262.00	240.00	240.00	230.00	219.00	226.00	226.00	250.00	250.00	274.00	312.00	312.00	364.00	364.00	474.00	474.00	539.00	539.00	604.00	658.00	658.00	700.00	700.00	769.00	769.00	780.00	780.00	792.00	801.00	801.00	807.00	807.00	813.00	817.00	821.00	821.00	824.00	827.00	827.00	830.00	830.00	832.00	833.00	833.00	832.00	831.00	823.00	823.00	808.00	808.00	793.00	764.00	764.00	720.00	677.00	633.00	633.00	587.00	587.00	542.00	507.00	507.00	484.00	460.00	460.00	438.00	417.00	397.00	397.00	379.00	379.00	363.00	348.00	348.00	332.00	332.00	298.00	298.00	282.00	282.00	266.00	250.00	250.00	236.00	236.00	224.00	213.00	203.00	203.00	195.00	186.00	186.00	180.00	180.00	174.00	169.00	169.00	165.00	162.00	160.00	160.00	158.00	158.00	156.00	154.00	154.00	152.00	152.00	146.00	146.00	143.00	143.00	141.00	139.00	139.00	138.00	138.00	138.00	138.00	138.00	138.00	138.00	138.00	138.00	138.00	138.00	139.00	139.00	139.00	139.00	139.00	139.00	139.00	138.00	138.00	135.00	133.00	133.00	130.00	127.00	124.00	124.00	125.00	125.00	128.00	131.00	131.00	152.00	190.00	228.00	228.00	288.00	288.00	370.00	452.00	452.00	536.00	622.00	622.00	707.00	770.00	770.00	808.00	846.00	846.00	868.00	873.00	873.00	877.00	877.00	881.00	883.00	886.00	886.00	886.00	885.00	885.00	883.00	883.00	878.00	868.00	858.00	858.00	844.00	827.00	827.00	809.00	809.00	793.00	780.00	780.00	766.00	759.00	757.00	757.00	755.00	755.00	759.00	770.00	770.00	780.00	780.00	794.00	794.00	801.00	801.00	808.00	816.00	816.00	825.00	825.00	833.00	842.00	851.00	851.00	859.00	868.00	868.00	877.00	877.00	885.00	894.00	894.00	902.00	911.00	919.00	919.00	927.00	927.00	934.00	942.00
763.00	763.00	776.00	789.00	789.00	803.00	803.00	820.00	820.00	813.00	813.00	805.00	780.00	780.00	737.00	737.00	694.00	643.00	584.00	584.00	525.00	468.00	468.00	413.00	413.00	358.00	315.00	315.00	283.00	251.00	239.00	239.00	245.00	245.00	252.00	272.00	272.00	304.00	304.00	384.00	384.00	446.00	446.00	508.00	562.00	562.00	609.00	609.00	688.00	688.00	708.00	708.00	728.00	739.00	739.00	743.00	743.00	747.00	753.00	760.00	760.00	768.00	776.00	776.00	785.00	785.00	794.00	804.00	804.00	814.00	825.00	830.00	830.00	831.00	831.00	832.00	826.00	826.00	813.00	801.00	786.00	786.00	768.00	768.00	751.00	734.00	734.00	719.00	705.00	705.00	678.00	640.00	601.00	601.00	574.00	574.00	557.00	540.00	540.00	521.00	521.00	480.00	480.00	458.00	458.00	435.00	411.00	411.00	389.00	389.00	367.00	346.00	328.00	328.00	313.00	298.00	298.00	285.00	285.00	275.00	264.00	264.00	256.00	249.00	242.00	242.00	235.00	235.00	228.00	221.00	221.00	212.00	212.00	192.00	192.00	184.00	184.00	178.00	171.00	171.00	167.00	167.00	163.00	160.00	157.00	157.00	155.00	153.00	153.00	152.00	152.00	151.00	150.00	150.00	149.00	149.00	148.00	148.00	147.00	147.00	147.00	147.00	147.00	147.00	146.00	145.00	145.00	142.00	142.00	135.00	128.00	128.00	133.00	148.00	163.00	163.00	204.00	204.00	270.00	336.00	336.00	417.00	512.00	512.00	607.00	683.00	683.00	739.00	795.00	795.00	830.00	843.00	843.00	857.00	857.00	866.00	872.00	878.00	878.00	883.00	886.00	886.00	890.00	890.00	891.00	889.00	887.00	887.00	877.00	858.00	858.00	839.00	839.00	822.00	807.00	807.00	791.00	780.00	774.00	774.00	767.00	767.00	765.00	769.00	769.00	773.00	773.00	780.00	780.00	784.00	784.00	789.00	795.00	795.00	801.00	801.00	807.00	814.00	821.00	821.00	828.00	836.00	836.00	844.00	844.00	853.00	861.00	861.00	869.00	877.00	885.00	885.00	894.00	894.00	902.00	910.00
