884.00	884.00	884.00	885.00	886.00	886.00	887.00	889.00	890.00	890.00	891.00	889.00	888.00	888.00	889.00	889.00	888.00	889.00	888.00	889.00	889.00	889.00	888.00	887.00	878.00	875.00	865.00	860.00	883.00	894.00	895.00	903.00	903.00	906.00	903.00	900.00	899.00	899.00	892.00	890.00	887.00	884.00	877.00	875.00	875.00	874.00	874.00	873.00	873.00	869.00	869.00	868.00	867.00	867.00	865.00	865.00	866.00	866.00	863.00	860.00	858.00	857.00	857.00	857.00	858.00	861.00	860.00	859.00	860.00	864.00	865.00	863.00	863.00	863.00	865.00	864.00	863.00	862.00	861.00	860.00	857.00	854.00	852.00	850.00	848.00	848.00	848.00	847.00	849.00	849.00	851.00	851.00	851.00	851.00	851.00	853.00	857.00	859.00	860.00	860.00	863.00	869.00	873.00	875.00	873.00	875.00	877.00	879.00	877.00	875.00	873.00	869.00	871.00	872.00	870.00	868.00	864.00	864.00	866.00	867.00	868.00	869.00	862.00	858.00	854.00	855.00	854.00	848.00	846.00	846.00	845.00	843.00	843.00	843.00	843.00	841.00	841.00	840.00	838.00	838.00	835.00	834.00	833.00	831.00	831.00	829.00	827.00	826.00	825.00	826.00	827.00	827.00	828.00	828.00	829.00	829.00	829.00	829.00	830.00	830.00	830.00	830.00	829.00	829.00	828.00	828.00	827.00	825.00	824.00	824.00	824.00	822.00	820.00	822.00	822.00	820.00	822.00	821.00	824.00	822.00	822.00	822.00	821.00	821.00	822.00	815.00	819.00	818.00	817.00	817.00	812.00	807.00	799.00	793.00	792.00	814.00	820.00	821.00	818.00	826.00	826.00	827.00	828.00	830.00	831.00	832.00	835.00	837.00	837.00	839.00	839.00	841.00	842.00	842.00	842.00	844.00	846.00	852.00	853.00	856.00	858.00	863.00	862.00	863.00	863.00	862.00	858.00	857.00	855.00	855.00	853.00	852.00	850.00	847.00	845.00	838.00	836.00	832.00	831.00	828.00	826.00	823.00	820.00	819.00	810.00	816.00	820.00	813.00	805.00	807.00	810.00	811.00	809.00	804.00	802.00	810.00
887.00	887.00	887.00	888.00	888.00	888.00	890.00	890.00	891.00	892.00	893.00	892.00	891.00	891.00	892.00	891.00	892.00	892.00	892.00	893.00	893.00	894.00	895.00	895.00	896.00	892.00	887.00	878.00	858.00	863.00	872.00	885.00	895.00	895.00	896.00	899.00	900.00	901.00	894.00	890.00	886.00	882.00	877.00	877.00	876.00	876.00	875.00	875.00	874.00	873.00	872.00	871.00	871.00	870.00	869.00	868.00	867.00	868.00	866.00	863.00	863.00	863.00	861.00	861.00	863.00	865.00	864.00	864.00	863.00	868.00	869.00	869.00	868.00	869.00	870.00	870.00	868.00	866.00	864.00	865.00	863.00	862.00	860.00	857.00	856.00	853.00	850.00	849.00	848.00	850.00	850.00	852.00	851.00	850.00	852.00	855.00	858.00	860.00	861.00	862.00	863.00	873.00	876.00	875.00	876.00	877.00	877.00	878.00	878.00	877.00	874.00	873.00	872.00	871.00	870.00	869.00	867.00	866.00	863.00	863.00	865.00	865.00	865.00	862.00	858.00	857.00	856.00	849.00	848.00	847.00	845.00	844.00	843.00	843.00	842.00	842.00	841.00	841.00	840.00	839.00	836.00	835.00	835.00	834.00	832.00	832.00	830.00	829.00	829.00	828.00	829.00	829.00	829.00	830.00	830.00	831.00	830.00	831.00	833.00	833.00	832.00	833.00	831.00	830.00	829.00	829.00	829.00	826.00	825.00	825.00	825.00	825.00	822.00	824.00	822.00	821.00	821.00	822.00	823.00	824.00	823.00	823.00	824.00	823.00	823.00	821.00	821.00	821.00	820.00	821.00	819.00	821.00	821.00	821.00	808.00	810.00	811.00	814.00	817.00	828.00	828.00	828.00	829.00	832.00	833.00	834.00	837.00	838.00	839.00	840.00	840.00	840.00	842.00	842.00	843.00	844.00	845.00	850.00	852.00	854.00	856.00	862.00	862.00	862.00	860.00	859.00	857.00	856.00	855.00	853.00	850.00	849.00	846.00	845.00	842.00	837.00	834.00	832.00	830.00	829.00	828.00	829.00	827.00	826.00	818.00	812.00	809.00	805.00	814.00	814.00	813.00	812.00	812.00	806.00	807.00	812.00
887.00	887.00	887.00	888.00	888.00	888.00	890.00	890.00	891.00	892.00	893.00	892.00	891.00	891.00	892.00	891.00	892.00	892.00	892.00	893.00	893.00	894.00	895.00	895.00	896.00	892.00	887.00	878.00	858.00	863.00	872.00	885.00	895.00	895.00	896.00	899.00	900.00	901.00	894.00	890.00	886.00	882.00	877.00	877.00	876.00	876.00	875.00	875.00	874.00	873.00	872.00	871.00	871.00	870.00	869.00	868.00	867.00	868.00	866.00	863.00	863.00	863.00	861.00	861.00	863.00	865.00	864.00	864.00	863.00	868.00	869.00	869.00	868.00	869.00	870.00	870.00	868.00	866.00	864.00	865.00	863.00	862.00	860.00	857.00	856.00	853.00	850.00	849.00	848.00	850.00	850.00	852.00	851.00	850.00	852.00	855.00	858.00	860.00	861.00	862.00	863.00	873.00	876.00	875.00	876.00	877.00	877.00	878.00	878.00	877.00	874.00	873.00	872.00	871.00	870.00	869.00	867.00	866.00	863.00	863.00	865.00	865.00	865.00	862.00	858.00	857.00	856.00	849.00	848.00	847.00	845.00	844.00	843.00	843.00	842.00	842.00	841.00	841.00	840.00	839.00	836.00	835.00	835.00	834.00	832.00	832.00	830.00	829.00	829.00	828.00	829.00	829.00	829.00	830.00	830.00	831.00	830.00	831.00	833.00	833.00	832.00	833.00	831.00	830.00	829.00	829.00	829.00	826.00	825.00	825.00	825.00	825.00	822.00	824.00	822.00	821.00	821.00	822.00	823.00	824.00	823.00	823.00	824.00	823.00	823.00	821.00	821.00	821.00	820.00	821.00	819.00	821.00	821.00	821.00	808.00	810.00	811.00	814.00	817.00	828.00	828.00	828.00	829.00	832.00	833.00	834.00	837.00	838.00	839.00	840.00	840.00	840.00	842.00	842.00	843.00	844.00	845.00	850.00	852.00	854.00	856.00	862.00	862.00	862.00	860.00	859.00	857.00	856.00	855.00	853.00	850.00	849.00	846.00	845.00	842.00	837.00	834.00	832.00	830.00	829.00	828.00	829.00	827.00	826.00	818.00	812.00	809.00	805.00	814.00	814.00	813.00	812.00	812.00	806.00	807.00	812.00
891.00	890.00	890.00	890.00	891.00	892.00	893.00	893.00	893.00	894.00	895.00	894.00	893.00	893.00	894.00	895.00	894.00	895.00	895.00	896.00	896.00	897.00	898.00	900.00	901.00	901.00	900.00	899.00	879.00	861.00	858.00	858.00	859.00	865.00	874.00	881.00	886.00	895.00	892.00	889.00	885.00	883.00	879.00	879.00	878.00	878.00	876.00	875.00	875.00	875.00	876.00	875.00	874.00	872.00	872.00	873.00	871.00	870.00	868.00	866.00	867.00	866.00	865.00	866.00	866.00	866.00	866.00	867.00	866.00	871.00	873.00	874.00	873.00	873.00	873.00	872.00	871.00	868.00	867.00	868.00	868.00	865.00	863.00	860.00	857.00	855.00	854.00	851.00	851.00	851.00	852.00	851.00	851.00	852.00	854.00	856.00	859.00	860.00	862.00	863.00	864.00	873.00	873.00	874.00	873.00	877.00	876.00	877.00	876.00	878.00	875.00	874.00	875.00	872.00	871.00	870.00	869.00	867.00	863.00	862.00	863.00	866.00	866.00	863.00	861.00	859.00	859.00	854.00	852.00	851.00	848.00	844.00	843.00	843.00	842.00	841.00	842.00	841.00	840.00	840.00	839.00	837.00	836.00	835.00	835.00	833.00	833.00	832.00	831.00	830.00	830.00	830.00	830.00	830.00	832.00	832.00	832.00	832.00	835.00	835.00	835.00	833.00	832.00	831.00	831.00	830.00	830.00	828.00	827.00	827.00	827.00	828.00	827.00	826.00	824.00	823.00	822.00	822.00	824.00	824.00	824.00	824.00	825.00	825.00	825.00	823.00	823.00	823.00	823.00	823.00	823.00	824.00	823.00	823.00	818.00	813.00	810.00	812.00	820.00	831.00	832.00	832.00	833.00	835.00	837.00	838.00	839.00	839.00	841.00	840.00	841.00	842.00	843.00	843.00	844.00	845.00	846.00	849.00	851.00	852.00	853.00	859.00	859.00	859.00	859.00	858.00	854.00	853.00	854.00	852.00	848.00	845.00	841.00	840.00	841.00	837.00	835.00	832.00	831.00	827.00	827.00	826.00	827.00	824.00	821.00	820.00	814.00	814.00	819.00	815.00	813.00	813.00	808.00	806.00	814.00	818.00
895.00	896.00	896.00	896.00	897.00	897.00	897.00	897.00	897.00	898.00	897.00	898.00	898.00	898.00	898.00	898.00	898.00	898.00	898.00	899.00	899.00	899.00	900.00	900.00	899.00	901.00	903.00	905.00	907.00	907.00	904.00	898.00	897.00	896.00	888.00	865.00	858.00	858.00	859.00	870.00	874.00	882.00	885.00	884.00	882.00	882.00	879.00	878.00	878.00	876.00	876.00	877.00	878.00	878.00	880.00	877.00	875.00	874.00	874.00	872.00	872.00	873.00	872.00	872.00	873.00	874.00	875.00	875.00	875.00	876.00	878.00	879.00	879.00	880.00	879.00	877.00	874.00	873.00	872.00	870.00	870.00	870.00	867.00	864.00	863.00	862.00	860.00	858.00	858.00	857.00	857.00	857.00	858.00	858.00	860.00	861.00	861.00	862.00	865.00	866.00	867.00	870.00	874.00	871.00	874.00	873.00	873.00	874.00	874.00	878.00	877.00	875.00	878.00	880.00	879.00	873.00	871.00	870.00	865.00	865.00	866.00	866.00	867.00	861.00	861.00	861.00	861.00	860.00	859.00	859.00	857.00	852.00	849.00	848.00	847.00	845.00	842.00	841.00	841.00	840.00	840.00	839.00	838.00	837.00	837.00	835.00	835.00	835.00	835.00	835.00	834.00	834.00	833.00	833.00	833.00	834.00	835.00	835.00	835.00	836.00	836.00	836.00	835.00	833.00	833.00	833.00	833.00	832.00	832.00	831.00	831.00	830.00	828.00	826.00	824.00	824.00	825.00	823.00	824.00	825.00	826.00	827.00	827.00	827.00	827.00	828.00	828.00	827.00	827.00	827.00	827.00	828.00	828.00	829.00	832.00	828.00	816.00	810.00	812.00	839.00	840.00	839.00	840.00	840.00	839.00	840.00	844.00	845.00	845.00	846.00	847.00	848.00	851.00	851.00	851.00	851.00	850.00	852.00	850.00	852.00	853.00	853.00	853.00	856.00	854.00	854.00	851.00	849.00	848.00	849.00	848.00	844.00	844.00	842.00	839.00	840.00	838.00	833.00	831.00	828.00	826.00	825.00	822.00	822.00	823.00	823.00	822.00	821.00	811.00	812.00	818.00	821.00	821.00	821.00	821.00	821.00
895.00	896.00	896.00	896.00	897.00	897.00	897.00	897.00	897.00	898.00	897.00	898.00	898.00	898.00	898.00	898.00	898.00	898.00	898.00	899.00	899.00	899.00	900.00	900.00	899.00	901.00	903.00	905.00	907.00	907.00	904.00	898.00	897.00	896.00	888.00	865.00	858.00	858.00	859.00	870.00	874.00	882.00	885.00	884.00	882.00	882.00	879.00	878.00	878.00	876.00	876.00	877.00	878.00	878.00	880.00	877.00	875.00	874.00	874.00	872.00	872.00	873.00	872.00	872.00	873.00	874.00	875.00	875.00	875.00	876.00	878.00	879.00	879.00	880.00	879.00	877.00	874.00	873.00	872.00	870.00	870.00	870.00	867.00	864.00	863.00	862.00	860.00	858.00	858.00	857.00	857.00	857.00	858.00	858.00	860.00	861.00	861.00	862.00	865.00	866.00	867.00	870.00	874.00	871.00	874.00	873.00	873.00	874.00	874.00	878.00	877.00	875.00	878.00	880.00	879.00	873.00	871.00	870.00	865.00	865.00	866.00	866.00	867.00	861.00	861.00	861.00	861.00	860.00	859.00	859.00	857.00	852.00	849.00	848.00	847.00	845.00	842.00	841.00	841.00	840.00	840.00	839.00	838.00	837.00	837.00	835.00	835.00	835.00	835.00	835.00	834.00	834.00	833.00	833.00	833.00	834.00	835.00	835.00	835.00	836.00	836.00	836.00	835.00	833.00	833.00	833.00	833.00	832.00	832.00	831.00	831.00	830.00	828.00	826.00	824.00	824.00	825.00	823.00	824.00	825.00	826.00	827.00	827.00	827.00	827.00	828.00	828.00	827.00	827.00	827.00	827.00	828.00	828.00	829.00	832.00	828.00	816.00	810.00	812.00	839.00	840.00	839.00	840.00	840.00	839.00	840.00	844.00	845.00	845.00	846.00	847.00	848.00	851.00	851.00	851.00	851.00	850.00	852.00	850.00	852.00	853.00	853.00	853.00	856.00	854.00	854.00	851.00	849.00	848.00	849.00	848.00	844.00	844.00	842.00	839.00	840.00	838.00	833.00	831.00	828.00	826.00	825.00	822.00	822.00	823.00	823.00	822.00	821.00	811.00	812.00	818.00	821.00	821.00	821.00	821.00	821.00
899.00	900.00	899.00	899.00	899.00	900.00	901.00	901.00	901.00	900.00	900.00	900.00	900.00	899.00	900.00	900.00	901.00	902.00	902.00	904.00	904.00	904.00	903.00	902.00	900.00	900.00	900.00	899.00	899.00	902.00	903.00	904.00	904.00	899.00	892.00	883.00	875.00	862.00	858.00	858.00	863.00	871.00	876.00	885.00	887.00	885.00	882.00	879.00	880.00	879.00	879.00	879.00	879.00	880.00	882.00	881.00	880.00	879.00	877.00	877.00	876.00	875.00	876.00	875.00	876.00	877.00	877.00	876.00	875.00	876.00	877.00	878.00	879.00	882.00	882.00	880.00	876.00	874.00	872.00	873.00	871.00	871.00	869.00	868.00	867.00	866.00	865.00	863.00	863.00	863.00	864.00	863.00	863.00	862.00	863.00	864.00	864.00	863.00	865.00	866.00	867.00	869.00	871.00	874.00	873.00	874.00	873.00	874.00	876.00	877.00	876.00	879.00	879.00	879.00	881.00	876.00	873.00	872.00	868.00	867.00	868.00	867.00	869.00	865.00	860.00	861.00	862.00	861.00	860.00	858.00	859.00	854.00	850.00	850.00	848.00	846.00	843.00	843.00	843.00	843.00	842.00	840.00	840.00	839.00	838.00	837.00	835.00	836.00	836.00	837.00	836.00	836.00	836.00	836.00	835.00	835.00	837.00	836.00	836.00	837.00	837.00	837.00	837.00	837.00	836.00	835.00	835.00	836.00	834.00	834.00	833.00	832.00	828.00	828.00	828.00	825.00	825.00	824.00	824.00	826.00	827.00	829.00	828.00	829.00	830.00	831.00	830.00	829.00	829.00	829.00	829.00	829.00	831.00	831.00	833.00	834.00	831.00	813.00	810.00	836.00	840.00	840.00	840.00	841.00	842.00	842.00	846.00	848.00	850.00	851.00	851.00	852.00	854.00	855.00	855.00	854.00	854.00	853.00	853.00	852.00	855.00	854.00	854.00	854.00	855.00	855.00	852.00	852.00	852.00	851.00	848.00	849.00	849.00	844.00	841.00	838.00	836.00	834.00	832.00	828.00	826.00	825.00	825.00	824.00	823.00	822.00	821.00	821.00	811.00	817.00	817.00	819.00	825.00	826.00	824.00	821.00
904.00	904.00	904.00	904.00	904.00	904.00	905.00	905.00	905.00	904.00	904.00	904.00	904.00	905.00	905.00	905.00	905.00	907.00	907.00	908.00	909.00	908.00	908.00	907.00	904.00	903.00	902.00	900.00	897.00	896.00	896.00	897.00	895.00	892.00	892.00	895.00	897.00	892.00	880.00	870.00	859.00	858.00	862.00	876.00	888.00	889.00	881.00	881.00	884.00	882.00	882.00	883.00	884.00	885.00	886.00	881.00	882.00	884.00	883.00	880.00	879.00	880.00	880.00	880.00	880.00	878.00	878.00	878.00	878.00	879.00	880.00	880.00	880.00	882.00	882.00	883.00	881.00	878.00	876.00	874.00	872.00	870.00	870.00	870.00	870.00	870.00	870.00	868.00	868.00	869.00	870.00	869.00	869.00	869.00	867.00	868.00	866.00	866.00	867.00	867.00	868.00	871.00	870.00	874.00	873.00	874.00	874.00	875.00	877.00	876.00	878.00	884.00	882.00	879.00	879.00	879.00	875.00	872.00	869.00	869.00	867.00	867.00	869.00	868.00	866.00	862.00	860.00	863.00	863.00	862.00	860.00	855.00	851.00	851.00	849.00	849.00	844.00	845.00	845.00	844.00	843.00	843.00	841.00	839.00	839.00	839.00	838.00	838.00	839.00	839.00	838.00	838.00	837.00	838.00	837.00	837.00	838.00	839.00	838.00	838.00	838.00	839.00	841.00	840.00	838.00	836.00	837.00	835.00	835.00	835.00	835.00	835.00	832.00	831.00	829.00	830.00	826.00	825.00	825.00	827.00	828.00	827.00	827.00	828.00	829.00	832.00	832.00	831.00	831.00	830.00	830.00	830.00	833.00	833.00	833.00	833.00	837.00	833.00	815.00	818.00	829.00	839.00	841.00	841.00	842.00	843.00	847.00	847.00	852.00	851.00	853.00	852.00	855.00	858.00	857.00	856.00	855.00	858.00	857.00	856.00	855.00	855.00	856.00	854.00	852.00	852.00	854.00	855.00	854.00	852.00	847.00	847.00	846.00	845.00	842.00	840.00	836.00	833.00	832.00	828.00	826.00	826.00	827.00	826.00	825.00	824.00	822.00	822.00	818.00	822.00	820.00	819.00	820.00	825.00	823.00	822.00
909.00	908.00	907.00	909.00	909.00	910.00	909.00	908.00	908.00	908.00	908.00	908.00	909.00	908.00	908.00	909.00	910.00	911.00	911.00	911.00	911.00	910.00	910.00	910.00	908.00	907.00	905.00	904.00	901.00	899.00	898.00	898.00	897.00	900.00	900.00	899.00	899.00	896.00	890.00	890.00	874.00	860.00	858.00	858.00	865.00	874.00	879.00	885.00	887.00	887.00	886.00	887.00	888.00	889.00	887.00	887.00	886.00	887.00	886.00	885.00	884.00	884.00	883.00	883.00	881.00	881.00	882.00	882.00	882.00	881.00	880.00	881.00	880.00	883.00	882.00	880.00	878.00	878.00	877.00	877.00	875.00	875.00	874.00	873.00	872.00	873.00	873.00	872.00	872.00	872.00	872.00	872.00	871.00	871.00	869.00	869.00	869.00	867.00	868.00	868.00	871.00	872.00	871.00	873.00	875.00	875.00	876.00	877.00	878.00	885.00	887.00	882.00	884.00	879.00	878.00	880.00	876.00	873.00	870.00	870.00	869.00	869.00	870.00	867.00	865.00	865.00	864.00	861.00	858.00	858.00	859.00	856.00	852.00	851.00	850.00	848.00	847.00	845.00	844.00	844.00	843.00	844.00	843.00	842.00	840.00	839.00	839.00	839.00	840.00	840.00	838.00	839.00	839.00	838.00	838.00	838.00	838.00	839.00	839.00	839.00	840.00	840.00	840.00	839.00	839.00	838.00	837.00	836.00	836.00	836.00	835.00	834.00	833.00	832.00	832.00	833.00	831.00	829.00	827.00	827.00	828.00	829.00	829.00	829.00	829.00	834.00	834.00	833.00	833.00	832.00	833.00	834.00	834.00	834.00	833.00	832.00	832.00	833.00	827.00	810.00	813.00	832.00	842.00	842.00	843.00	843.00	845.00	846.00	849.00	850.00	853.00	853.00	855.00	855.00	857.00	856.00	857.00	857.00	858.00	858.00	858.00	851.00	855.00	854.00	851.00	850.00	851.00	855.00	853.00	851.00	848.00	848.00	847.00	845.00	844.00	841.00	837.00	835.00	833.00	831.00	827.00	826.00	827.00	825.00	824.00	823.00	822.00	820.00	823.00	824.00	823.00	822.00	820.00	823.00	826.00	824.00
914.00	913.00	913.00	913.00	914.00	914.00	912.00	913.00	913.00	912.00	912.00	912.00	912.00	912.00	911.00	913.00	913.00	914.00	914.00	914.00	913.00	913.00	913.00	912.00	911.00	910.00	909.00	908.00	905.00	903.00	901.00	899.00	898.00	898.00	899.00	901.00	900.00	897.00	892.00	884.00	880.00	887.00	862.00	858.00	858.00	859.00	890.00	890.00	890.00	888.00	888.00	888.00	889.00	888.00	889.00	890.00	889.00	890.00	888.00	888.00	888.00	888.00	887.00	886.00	884.00	885.00	884.00	883.00	883.00	882.00	882.00	883.00	883.00	881.00	881.00	880.00	880.00	879.00	879.00	878.00	877.00	876.00	875.00	875.00	875.00	874.00	875.00	873.00	873.00	872.00	872.00	871.00	871.00	871.00	870.00	870.00	868.00	868.00	869.00	870.00	872.00	873.00	872.00	874.00	877.00	875.00	878.00	879.00	882.00	887.00	885.00	882.00	884.00	879.00	879.00	880.00	879.00	876.00	872.00	871.00	871.00	871.00	872.00	871.00	868.00	866.00	867.00	865.00	866.00	865.00	862.00	854.00	855.00	855.00	853.00	850.00	848.00	847.00	846.00	845.00	846.00	846.00	846.00	844.00	843.00	841.00	841.00	841.00	841.00	840.00	840.00	840.00	840.00	839.00	839.00	839.00	839.00	839.00	839.00	839.00	839.00	839.00	839.00	838.00	838.00	838.00	839.00	836.00	836.00	835.00	836.00	835.00	834.00	834.00	836.00	835.00	836.00	833.00	832.00	830.00	830.00	829.00	829.00	829.00	829.00	832.00	833.00	835.00	836.00	834.00	835.00	835.00	835.00	835.00	835.00	834.00	833.00	834.00	832.00	810.00	810.00	812.00	830.00	843.00	844.00	844.00	845.00	845.00	846.00	848.00	850.00	852.00	856.00	856.00	856.00	856.00	855.00	856.00	859.00	859.00	860.00	855.00	853.00	851.00	850.00	850.00	852.00	852.00	850.00	851.00	850.00	849.00	848.00	847.00	846.00	842.00	842.00	835.00	835.00	832.00	829.00	828.00	826.00	824.00	821.00	821.00	820.00	821.00	824.00	824.00	824.00	823.00	824.00	824.00	823.00	826.00
914.00	913.00	913.00	913.00	914.00	914.00	912.00	913.00	913.00	912.00	912.00	912.00	912.00	912.00	911.00	913.00	913.00	914.00	914.00	914.00	913.00	913.00	913.00	912.00	911.00	910.00	909.00	908.00	905.00	903.00	901.00	899.00	898.00	898.00	899.00	901.00	900.00	897.00	892.00	884.00	880.00	887.00	862.00	858.00	858.00	859.00	890.00	890.00	890.00	888.00	888.00	888.00	889.00	888.00	889.00	890.00	889.00	890.00	888.00	888.00	888.00	888.00	887.00	886.00	884.00	885.00	884.00	883.00	883.00	882.00	882.00	883.00	883.00	881.00	881.00	880.00	880.00	879.00	879.00	878.00	877.00	876.00	875.00	875.00	875.00	874.00	875.00	873.00	873.00	872.00	872.00	871.00	871.00	871.00	870.00	870.00	868.00	868.00	869.00	870.00	872.00	873.00	872.00	874.00	877.00	875.00	878.00	879.00	882.00	887.00	885.00	882.00	884.00	879.00	879.00	880.00	879.00	876.00	872.00	871.00	871.00	871.00	872.00	871.00	868.00	866.00	867.00	865.00	866.00	865.00	862.00	854.00	855.00	855.00	853.00	850.00	848.00	847.00	846.00	845.00	846.00	846.00	846.00	844.00	843.00	841.00	841.00	841.00	841.00	840.00	840.00	840.00	840.00	839.00	839.00	839.00	839.00	839.00	839.00	839.00	839.00	839.00	839.00	838.00	838.00	838.00	839.00	836.00	836.00	835.00	836.00	835.00	834.00	834.00	836.00	835.00	836.00	833.00	832.00	830.00	830.00	829.00	829.00	829.00	829.00	832.00	833.00	835.00	836.00	834.00	835.00	835.00	835.00	835.00	835.00	834.00	833.00	834.00	832.00	810.00	810.00	812.00	830.00	843.00	844.00	844.00	845.00	845.00	846.00	848.00	850.00	852.00	856.00	856.00	856.00	856.00	855.00	856.00	859.00	859.00	860.00	855.00	853.00	851.00	850.00	850.00	852.00	852.00	850.00	851.00	850.00	849.00	848.00	847.00	846.00	842.00	842.00	835.00	835.00	832.00	829.00	828.00	826.00	824.00	821.00	821.00	820.00	821.00	824.00	824.00	824.00	823.00	824.00	824.00	823.00	826.00
920.00	917.00	918.00	919.00	918.00	917.00	916.00	917.00	917.00	917.00	917.00	917.00	915.00	915.00	916.00	917.00	919.00	918.00	918.00	917.00	917.00	916.00	915.00	915.00	912.00	913.00	912.00	911.00	908.00	907.00	905.00	903.00	900.00	899.00	898.00	898.00	899.00	895.00	898.00	896.00	894.00	893.00	890.00	873.00	859.00	858.00	890.00	894.00	895.00	893.00	892.00	893.00	893.00	892.00	892.00	893.00	894.00	893.00	893.00	892.00	890.00	889.00	888.00	887.00	885.00	885.00	884.00	884.00	884.00	884.00	884.00	884.00	883.00	885.00	885.00	885.00	884.00	882.00	881.00	880.00	879.00	879.00	878.00	877.00	876.00	876.00	876.00	874.00	876.00	876.00	875.00	873.00	872.00	874.00	873.00	873.00	871.00	869.00	870.00	871.00	874.00	875.00	874.00	874.00	877.00	875.00	877.00	879.00	883.00	887.00	885.00	882.00	883.00	881.00	880.00	881.00	880.00	877.00	873.00	873.00	873.00	874.00	874.00	874.00	871.00	870.00	868.00	867.00	866.00	866.00	865.00	859.00	856.00	856.00	854.00	854.00	850.00	846.00	845.00	845.00	846.00	846.00	845.00	846.00	844.00	843.00	842.00	843.00	844.00	842.00	841.00	841.00	840.00	840.00	840.00	840.00	839.00	839.00	839.00	840.00	839.00	839.00	840.00	840.00	840.00	839.00	839.00	838.00	837.00	837.00	836.00	836.00	836.00	837.00	838.00	834.00	836.00	835.00	836.00	834.00	833.00	832.00	834.00	831.00	831.00	830.00	832.00	833.00	835.00	835.00	836.00	836.00	837.00	838.00	838.00	838.00	837.00	836.00	833.00	820.00	811.00	810.00	811.00	836.00	843.00	844.00	844.00	845.00	846.00	848.00	850.00	852.00	854.00	855.00	856.00	856.00	855.00	856.00	856.00	856.00	857.00	858.00	854.00	852.00	851.00	851.00	850.00	850.00	850.00	850.00	849.00	849.00	849.00	848.00	846.00	842.00	841.00	837.00	834.00	831.00	829.00	826.00	826.00	825.00	823.00	820.00	820.00	823.00	826.00	827.00	825.00	825.00	826.00	824.00	822.00	826.00
926.00	926.00	926.00	925.00	923.00	923.00	921.00	920.00	921.00	921.00	921.00	922.00	922.00	921.00	922.00	923.00	923.00	923.00	923.00	922.00	922.00	921.00	920.00	920.00	917.00	916.00	915.00	915.00	912.00	911.00	909.00	908.00	906.00	903.00	901.00	900.00	901.00	898.00	898.00	898.00	898.00	897.00	893.00	887.00	877.00	858.00	874.00	898.00	899.00	898.00	898.00	898.00	899.00	899.00	898.00	900.00	899.00	900.00	901.00	899.00	898.00	896.00	894.00	892.00	890.00	890.00	889.00	888.00	887.00	888.00	888.00	889.00	890.00	891.00	890.00	889.00	889.00	888.00	886.00	887.00	885.00	883.00	883.00	882.00	884.00	886.00	886.00	887.00	885.00	884.00	883.00	879.00	878.00	879.00	881.00	883.00	882.00	880.00	879.00	879.00	879.00	878.00	878.00	877.00	877.00	880.00	880.00	878.00	882.00	886.00	883.00	880.00	881.00	883.00	883.00	883.00	884.00	882.00	877.00	876.00	875.00	877.00	878.00	878.00	879.00	876.00	874.00	871.00	870.00	868.00	866.00	863.00	861.00	859.00	858.00	855.00	851.00	849.00	848.00	850.00	850.00	851.00	851.00	852.00	851.00	848.00	847.00	845.00	846.00	845.00	845.00	844.00	844.00	845.00	843.00	843.00	842.00	842.00	841.00	842.00	842.00	840.00	840.00	840.00	839.00	839.00	839.00	839.00	839.00	838.00	839.00	839.00	839.00	838.00	839.00	839.00	838.00	838.00	837.00	837.00	836.00	835.00	836.00	835.00	836.00	833.00	832.00	831.00	833.00	836.00	838.00	837.00	836.00	837.00	836.00	837.00	838.00	838.00	838.00	839.00	841.00	840.00	833.00	810.00	822.00	839.00	844.00	846.00	850.00	852.00	853.00	853.00	855.00	856.00	857.00	858.00	859.00	858.00	858.00	859.00	858.00	858.00	858.00	857.00	858.00	856.00	853.00	851.00	851.00	852.00	849.00	846.00	845.00	844.00	843.00	839.00	837.00	837.00	836.00	835.00	835.00	834.00	832.00	832.00	828.00	828.00	826.00	825.00	827.00	827.00	828.00	830.00	831.00	827.00	826.00	828.00
926.00	926.00	926.00	925.00	923.00	923.00	921.00	920.00	921.00	921.00	921.00	922.00	922.00	921.00	922.00	923.00	923.00	923.00	923.00	922.00	922.00	921.00	920.00	920.00	917.00	916.00	915.00	915.00	912.00	911.00	909.00	908.00	906.00	903.00	901.00	900.00	901.00	898.00	898.00	898.00	898.00	897.00	893.00	887.00	877.00	858.00	874.00	898.00	899.00	898.00	898.00	898.00	899.00	899.00	898.00	900.00	899.00	900.00	901.00	899.00	898.00	896.00	894.00	892.00	890.00	890.00	889.00	888.00	887.00	888.00	888.00	889.00	890.00	891.00	890.00	889.00	889.00	888.00	886.00	887.00	885.00	883.00	883.00	882.00	884.00	886.00	886.00	887.00	885.00	884.00	883.00	879.00	878.00	879.00	881.00	883.00	882.00	880.00	879.00	879.00	879.00	878.00	878.00	877.00	877.00	880.00	880.00	878.00	882.00	886.00	883.00	880.00	881.00	883.00	883.00	883.00	884.00	882.00	877.00	876.00	875.00	877.00	878.00	878.00	879.00	876.00	874.00	871.00	870.00	868.00	866.00	863.00	861.00	859.00	858.00	855.00	851.00	849.00	848.00	850.00	850.00	851.00	851.00	852.00	851.00	848.00	847.00	845.00	846.00	845.00	845.00	844.00	844.00	845.00	843.00	843.00	842.00	842.00	841.00	842.00	842.00	840.00	840.00	840.00	839.00	839.00	839.00	839.00	839.00	838.00	839.00	839.00	839.00	838.00	839.00	839.00	838.00	838.00	837.00	837.00	836.00	835.00	836.00	835.00	836.00	833.00	832.00	831.00	833.00	836.00	838.00	837.00	836.00	837.00	836.00	837.00	838.00	838.00	838.00	839.00	841.00	840.00	833.00	810.00	822.00	839.00	844.00	846.00	850.00	852.00	853.00	853.00	855.00	856.00	857.00	858.00	859.00	858.00	858.00	859.00	858.00	858.00	858.00	857.00	858.00	856.00	853.00	851.00	851.00	852.00	849.00	846.00	845.00	844.00	843.00	839.00	837.00	837.00	836.00	835.00	835.00	834.00	832.00	832.00	828.00	828.00	826.00	825.00	827.00	827.00	828.00	830.00	831.00	827.00	826.00	828.00
926.00	926.00	926.00	925.00	923.00	923.00	921.00	920.00	921.00	921.00	921.00	922.00	922.00	921.00	922.00	923.00	923.00	923.00	923.00	922.00	922.00	921.00	920.00	920.00	917.00	916.00	915.00	915.00	912.00	911.00	909.00	908.00	906.00	903.00	901.00	900.00	901.00	898.00	898.00	898.00	898.00	897.00	893.00	887.00	877.00	858.00	874.00	898.00	899.00	898.00	898.00	898.00	899.00	899.00	898.00	900.00	899.00	900.00	901.00	899.00	898.00	896.00	894.00	892.00	890.00	890.00	889.00	888.00	887.00	888.00	888.00	889.00	890.00	891.00	890.00	889.00	889.00	888.00	886.00	887.00	885.00	883.00	883.00	882.00	884.00	886.00	886.00	887.00	885.00	884.00	883.00	879.00	878.00	879.00	881.00	883.00	882.00	880.00	879.00	879.00	879.00	878.00	878.00	877.00	877.00	880.00	880.00	878.00	882.00	886.00	883.00	880.00	881.00	883.00	883.00	883.00	884.00	882.00	877.00	876.00	875.00	877.00	878.00	878.00	879.00	876.00	874.00	871.00	870.00	868.00	866.00	863.00	861.00	859.00	858.00	855.00	851.00	849.00	848.00	850.00	850.00	851.00	851.00	852.00	851.00	848.00	847.00	845.00	846.00	845.00	845.00	844.00	844.00	845.00	843.00	843.00	842.00	842.00	841.00	842.00	842.00	840.00	840.00	840.00	839.00	839.00	839.00	839.00	839.00	838.00	839.00	839.00	839.00	838.00	839.00	839.00	838.00	838.00	837.00	837.00	836.00	835.00	836.00	835.00	836.00	833.00	832.00	831.00	833.00	836.00	838.00	837.00	836.00	837.00	836.00	837.00	838.00	838.00	838.00	839.00	841.00	840.00	833.00	810.00	822.00	839.00	844.00	846.00	850.00	852.00	853.00	853.00	855.00	856.00	857.00	858.00	859.00	858.00	858.00	859.00	858.00	858.00	858.00	857.00	858.00	856.00	853.00	851.00	851.00	852.00	849.00	846.00	845.00	844.00	843.00	839.00	837.00	837.00	836.00	835.00	835.00	834.00	832.00	832.00	828.00	828.00	826.00	825.00	827.00	827.00	828.00	830.00	831.00	827.00	826.00	828.00
928.00	928.00	927.00	926.00	925.00	925.00	923.00	923.00	924.00	923.00	923.00	924.00	924.00	925.00	924.00	924.00	924.00	925.00	925.00	923.00	923.00	923.00	923.00	921.00	920.00	919.00	918.00	917.00	915.00	913.00	912.00	911.00	909.00	906.00	905.00	903.00	901.00	899.00	900.00	899.00	899.00	899.00	895.00	893.00	885.00	866.00	866.00	899.00	900.00	900.00	901.00	900.00	900.00	902.00	902.00	902.00	902.00	902.00	901.00	899.00	898.00	898.00	898.00	897.00	894.00	893.00	892.00	891.00	891.00	892.00	892.00	892.00	893.00	893.00	892.00	891.00	890.00	890.00	888.00	887.00	886.00	886.00	886.00	886.00	886.00	888.00	889.00	888.00	888.00	887.00	885.00	885.00	884.00	884.00	885.00	885.00	885.00	884.00	882.00	880.00	878.00	879.00	878.00	878.00	879.00	880.00	882.00	883.00	887.00	883.00	881.00	881.00	881.00	884.00	882.00	882.00	884.00	884.00	877.00	877.00	876.00	877.00	879.00	879.00	878.00	878.00	876.00	870.00	868.00	868.00	868.00	864.00	860.00	860.00	859.00	856.00	854.00	854.00	851.00	849.00	851.00	852.00	853.00	852.00	852.00	851.00	851.00	850.00	849.00	848.00	847.00	847.00	845.00	844.00	843.00	843.00	843.00	842.00	842.00	842.00	842.00	842.00	840.00	839.00	840.00	842.00	841.00	840.00	839.00	840.00	839.00	839.00	838.00	839.00	841.00	841.00	839.00	840.00	838.00	837.00	837.00	836.00	835.00	836.00	835.00	837.00	836.00	835.00	834.00	834.00	836.00	836.00	835.00	836.00	837.00	836.00	836.00	837.00	838.00	839.00	840.00	841.00	840.00	819.00	810.00	821.00	843.00	844.00	852.00	852.00	854.00	855.00	858.00	859.00	860.00	859.00	860.00	860.00	860.00	860.00	861.00	860.00	860.00	859.00	860.00	860.00	856.00	854.00	854.00	853.00	848.00	847.00	844.00	841.00	840.00	837.00	835.00	834.00	833.00	834.00	833.00	833.00	833.00	832.00	831.00	831.00	829.00	827.00	829.00	829.00	829.00	829.00	832.00	829.00	829.00	830.00
931.00	931.00	930.00	929.00	929.00	927.00	927.00	926.00	926.00	925.00	927.00	927.00	927.00	928.00	927.00	927.00	927.00	927.00	927.00	925.00	926.00	925.00	924.00	923.00	922.00	921.00	921.00	920.00	918.00	918.00	915.00	914.00	912.00	908.00	908.00	906.00	904.00	901.00	900.00	902.00	901.00	899.00	899.00	896.00	892.00	880.00	859.00	891.00	906.00	905.00	906.00	905.00	905.00	904.00	905.00	904.00	904.00	903.00	902.00	902.00	901.00	901.00	898.00	897.00	897.00	895.00	894.00	893.00	894.00	893.00	894.00	895.00	895.00	893.00	893.00	892.00	890.00	890.00	890.00	889.00	888.00	889.00	888.00	889.00	889.00	889.00	891.00	891.00	891.00	890.00	890.00	884.00	884.00	883.00	884.00	885.00	888.00	892.00	890.00	886.00	881.00	881.00	882.00	881.00	881.00	881.00	883.00	883.00	882.00	882.00	882.00	883.00	883.00	882.00	882.00	883.00	885.00	885.00	878.00	877.00	877.00	878.00	879.00	879.00	879.00	878.00	879.00	873.00	872.00	870.00	869.00	865.00	864.00	863.00	862.00	859.00	854.00	854.00	855.00	853.00	851.00	850.00	850.00	851.00	851.00	852.00	852.00	851.00	851.00	850.00	850.00	848.00	848.00	848.00	844.00	844.00	843.00	842.00	843.00	843.00	844.00	844.00	843.00	840.00	840.00	841.00	840.00	841.00	841.00	841.00	841.00	841.00	841.00	842.00	843.00	842.00	842.00	841.00	839.00	839.00	838.00	836.00	836.00	837.00	838.00	837.00	836.00	836.00	838.00	837.00	835.00	835.00	835.00	836.00	838.00	837.00	838.00	839.00	841.00	840.00	841.00	840.00	840.00	839.00	820.00	810.00	833.00	847.00	850.00	854.00	857.00	859.00	862.00	861.00	861.00	860.00	860.00	859.00	861.00	862.00	862.00	862.00	861.00	862.00	861.00	862.00	858.00	856.00	854.00	852.00	847.00	846.00	845.00	842.00	839.00	835.00	835.00	835.00	834.00	834.00	833.00	833.00	834.00	832.00	831.00	831.00	831.00	832.00	829.00	829.00	830.00	830.00	830.00	831.00	830.00	831.00
934.00	933.00	932.00	931.00	930.00	929.00	928.00	928.00	927.00	928.00	929.00	929.00	930.00	929.00	928.00	929.00	929.00	929.00	929.00	930.00	930.00	929.00	928.00	927.00	924.00	924.00	923.00	922.00	920.00	919.00	918.00	915.00	915.00	913.00	912.00	910.00	908.00	903.00	901.00	899.00	901.00	902.00	900.00	899.00	896.00	890.00	858.00	861.00	881.00	907.00	908.00	909.00	909.00	909.00	909.00	909.00	908.00	908.00	907.00	906.00	903.00	902.00	902.00	900.00	901.00	898.00	896.00	896.00	896.00	895.00	895.00	896.00	896.00	895.00	895.00	894.00	893.00	893.00	892.00	891.00	891.00	890.00	889.00	888.00	890.00	892.00	893.00	893.00	893.00	894.00	894.00	888.00	887.00	888.00	888.00	888.00	888.00	893.00	895.00	889.00	887.00	884.00	885.00	883.00	882.00	883.00	883.00	884.00	884.00	883.00	884.00	883.00	882.00	881.00	882.00	882.00	885.00	885.00	880.00	879.00	877.00	879.00	879.00	880.00	878.00	878.00	877.00	876.00	872.00	871.00	870.00	870.00	865.00	864.00	863.00	861.00	855.00	854.00	853.00	855.00	855.00	852.00	852.00	853.00	853.00	851.00	851.00	850.00	850.00	850.00	851.00	850.00	850.00	848.00	847.00	846.00	845.00	845.00	843.00	842.00	844.00	845.00	845.00	842.00	841.00	842.00	842.00	843.00	844.00	844.00	844.00	844.00	843.00	843.00	845.00	845.00	842.00	841.00	841.00	840.00	839.00	838.00	838.00	838.00	838.00	838.00	838.00	837.00	837.00	837.00	837.00	836.00	836.00	837.00	839.00	839.00	840.00	840.00	841.00	841.00	843.00	842.00	841.00	843.00	841.00	826.00	812.00	831.00	852.00	855.00	859.00	860.00	863.00	863.00	862.00	862.00	861.00	861.00	861.00	862.00	863.00	861.00	862.00	861.00	860.00	860.00	857.00	858.00	854.00	852.00	848.00	847.00	845.00	843.00	841.00	836.00	834.00	837.00	838.00	836.00	835.00	835.00	833.00	834.00	831.00	829.00	830.00	830.00	830.00	830.00	830.00	833.00	831.00	831.00	832.00	833.00
938.00	935.00	934.00	933.00	932.00	931.00	930.00	930.00	930.00	930.00	931.00	931.00	931.00	930.00	930.00	930.00	930.00	929.00	929.00	930.00	931.00	932.00	931.00	930.00	928.00	926.00	926.00	925.00	922.00	921.00	920.00	918.00	918.00	917.00	915.00	914.00	912.00	907.00	903.00	902.00	901.00	901.00	902.00	902.00	900.00	898.00	878.00	860.00	858.00	869.00	878.00	896.00	906.00	909.00	910.00	910.00	910.00	910.00	909.00	908.00	905.00	905.00	903.00	901.00	900.00	900.00	900.00	899.00	898.00	898.00	898.00	898.00	900.00	898.00	898.00	897.00	895.00	896.00	895.00	895.00	893.00	892.00	893.00	893.00	893.00	895.00	895.00	896.00	896.00	895.00	894.00	892.00	890.00	890.00	891.00	893.00	891.00	892.00	895.00	891.00	891.00	888.00	886.00	885.00	884.00	884.00	885.00	886.00	886.00	885.00	884.00	883.00	887.00	881.00	880.00	880.00	883.00	884.00	881.00	879.00	877.00	879.00	880.00	880.00	879.00	878.00	878.00	877.00	876.00	874.00	871.00	870.00	868.00	867.00	866.00	863.00	858.00	856.00	857.00	856.00	853.00	853.00	855.00	858.00	857.00	856.00	856.00	855.00	853.00	850.00	851.00	852.00	850.00	849.00	848.00	846.00	846.00	846.00	845.00	844.00	843.00	844.00	844.00	844.00	844.00	844.00	844.00	845.00	844.00	843.00	844.00	844.00	844.00	843.00	845.00	844.00	843.00	843.00	842.00	842.00	841.00	839.00	840.00	840.00	841.00	839.00	839.00	838.00	837.00	838.00	839.00	839.00	838.00	840.00	840.00	840.00	841.00	841.00	842.00	843.00	843.00	841.00	841.00	843.00	844.00	844.00	810.00	817.00	848.00	849.00	851.00	851.00	857.00	859.00	860.00	860.00	860.00	862.00	862.00	862.00	863.00	861.00	861.00	860.00	859.00	858.00	856.00	856.00	854.00	853.00	850.00	849.00	847.00	845.00	842.00	837.00	836.00	836.00	834.00	835.00	834.00	834.00	835.00	835.00	831.00	830.00	829.00	830.00	833.00	833.00	832.00	835.00	833.00	832.00	833.00	833.00
938.00	935.00	934.00	933.00	932.00	931.00	930.00	930.00	930.00	930.00	931.00	931.00	931.00	930.00	930.00	930.00	930.00	929.00	929.00	930.00	931.00	932.00	931.00	930.00	928.00	926.00	926.00	925.00	922.00	921.00	920.00	918.00	918.00	917.00	915.00	914.00	912.00	907.00	903.00	902.00	901.00	901.00	902.00	902.00	900.00	898.00	878.00	860.00	858.00	869.00	878.00	896.00	906.00	909.00	910.00	910.00	910.00	910.00	909.00	908.00	905.00	905.00	903.00	901.00	900.00	900.00	900.00	899.00	898.00	898.00	898.00	898.00	900.00	898.00	898.00	897.00	895.00	896.00	895.00	895.00	893.00	892.00	893.00	893.00	893.00	895.00	895.00	896.00	896.00	895.00	894.00	892.00	890.00	890.00	891.00	893.00	891.00	892.00	895.00	891.00	891.00	888.00	886.00	885.00	884.00	884.00	885.00	886.00	886.00	885.00	884.00	883.00	887.00	881.00	880.00	880.00	883.00	884.00	881.00	879.00	877.00	879.00	880.00	880.00	879.00	878.00	878.00	877.00	876.00	874.00	871.00	870.00	868.00	867.00	866.00	863.00	858.00	856.00	857.00	856.00	853.00	853.00	855.00	858.00	857.00	856.00	856.00	855.00	853.00	850.00	851.00	852.00	850.00	849.00	848.00	846.00	846.00	846.00	845.00	844.00	843.00	844.00	844.00	844.00	844.00	844.00	844.00	845.00	844.00	843.00	844.00	844.00	844.00	843.00	845.00	844.00	843.00	843.00	842.00	842.00	841.00	839.00	840.00	840.00	841.00	839.00	839.00	838.00	837.00	838.00	839.00	839.00	838.00	840.00	840.00	840.00	841.00	841.00	842.00	843.00	843.00	841.00	841.00	843.00	844.00	844.00	810.00	817.00	848.00	849.00	851.00	851.00	857.00	859.00	860.00	860.00	860.00	862.00	862.00	862.00	863.00	861.00	861.00	860.00	859.00	858.00	856.00	856.00	854.00	853.00	850.00	849.00	847.00	845.00	842.00	837.00	836.00	836.00	834.00	835.00	834.00	834.00	835.00	835.00	831.00	830.00	829.00	830.00	833.00	833.00	832.00	835.00	833.00	832.00	833.00	833.00
936.00	936.00	937.00	937.00	937.00	937.00	936.00	936.00	936.00	936.00	935.00	935.00	937.00	939.00	938.00	935.00	935.00	935.00	935.00	935.00	935.00	936.00	935.00	934.00	933.00	932.00	932.00	930.00	928.00	928.00	927.00	926.00	926.00	924.00	922.00	922.00	922.00	919.00	915.00	911.00	907.00	904.00	900.00	900.00	900.00	901.00	901.00	901.00	902.00	901.00	893.00	875.00	865.00	859.00	860.00	896.00	913.00	916.00	914.00	911.00	910.00	909.00	906.00	906.00	905.00	906.00	905.00	905.00	905.00	905.00	905.00	905.00	906.00	905.00	904.00	902.00	901.00	901.00	900.00	899.00	899.00	899.00	898.00	898.00	898.00	899.00	901.00	901.00	902.00	903.00	904.00	901.00	900.00	896.00	897.00	899.00	898.00	896.00	896.00	896.00	895.00	891.00	889.00	889.00	888.00	887.00	888.00	886.00	887.00	887.00	884.00	890.00	889.00	890.00	891.00	885.00	880.00	878.00	881.00	879.00	878.00	878.00	879.00	879.00	880.00	881.00	880.00	879.00	878.00	877.00	874.00	869.00	867.00	867.00	866.00	865.00	866.00	865.00	863.00	861.00	857.00	856.00	856.00	860.00	859.00	858.00	859.00	860.00	861.00	857.00	857.00	855.00	854.00	852.00	849.00	848.00	847.00	846.00	846.00	846.00	845.00	845.00	845.00	845.00	845.00	845.00	845.00	847.00	846.00	845.00	845.00	845.00	845.00	846.00	845.00	845.00	845.00	844.00	845.00	845.00	843.00	842.00	841.00	841.00	842.00	841.00	840.00	840.00	839.00	839.00	839.00	839.00	839.00	840.00	840.00	842.00	843.00	842.00	842.00	843.00	841.00	841.00	842.00	844.00	845.00	847.00	810.00	813.00	845.00	846.00	848.00	850.00	853.00	855.00	855.00	856.00	858.00	865.00	866.00	866.00	865.00	865.00	865.00	862.00	862.00	862.00	860.00	858.00	857.00	856.00	853.00	853.00	851.00	848.00	846.00	841.00	841.00	840.00	840.00	837.00	838.00	838.00	837.00	836.00	833.00	831.00	832.00	833.00	834.00	834.00	833.00	835.00	838.00	841.00	843.00	842.00
936.00	936.00	937.00	937.00	937.00	937.00	936.00	936.00	936.00	936.00	935.00	935.00	937.00	939.00	938.00	935.00	935.00	935.00	935.00	935.00	935.00	936.00	935.00	934.00	933.00	932.00	932.00	930.00	928.00	928.00	927.00	926.00	926.00	924.00	922.00	922.00	922.00	919.00	915.00	911.00	907.00	904.00	900.00	900.00	900.00	901.00	901.00	901.00	902.00	901.00	893.00	875.00	865.00	859.00	860.00	896.00	913.00	916.00	914.00	911.00	910.00	909.00	906.00	906.00	905.00	906.00	905.00	905.00	905.00	905.00	905.00	905.00	906.00	905.00	904.00	902.00	901.00	901.00	900.00	899.00	899.00	899.00	898.00	898.00	898.00	899.00	901.00	901.00	902.00	903.00	904.00	901.00	900.00	896.00	897.00	899.00	898.00	896.00	896.00	896.00	895.00	891.00	889.00	889.00	888.00	887.00	888.00	886.00	887.00	887.00	884.00	890.00	889.00	890.00	891.00	885.00	880.00	878.00	881.00	879.00	878.00	878.00	879.00	879.00	880.00	881.00	880.00	879.00	878.00	877.00	874.00	869.00	867.00	867.00	866.00	865.00	866.00	865.00	863.00	861.00	857.00	856.00	856.00	860.00	859.00	858.00	859.00	860.00	861.00	857.00	857.00	855.00	854.00	852.00	849.00	848.00	847.00	846.00	846.00	846.00	845.00	845.00	845.00	845.00	845.00	845.00	845.00	847.00	846.00	845.00	845.00	845.00	845.00	846.00	845.00	845.00	845.00	844.00	845.00	845.00	843.00	842.00	841.00	841.00	842.00	841.00	840.00	840.00	839.00	839.00	839.00	839.00	839.00	840.00	840.00	842.00	843.00	842.00	842.00	843.00	841.00	841.00	842.00	844.00	845.00	847.00	810.00	813.00	845.00	846.00	848.00	850.00	853.00	855.00	855.00	856.00	858.00	865.00	866.00	866.00	865.00	865.00	865.00	862.00	862.00	862.00	860.00	858.00	857.00	856.00	853.00	853.00	851.00	848.00	846.00	841.00	841.00	840.00	840.00	837.00	838.00	838.00	837.00	836.00	833.00	831.00	832.00	833.00	834.00	834.00	833.00	835.00	838.00	841.00	843.00	842.00
938.00	939.00	939.00	939.00	939.00	938.00	938.00	939.00	938.00	938.00	938.00	939.00	940.00	940.00	939.00	937.00	938.00	938.00	937.00	939.00	939.00	938.00	938.00	937.00	935.00	935.00	935.00	934.00	930.00	931.00	930.00	930.00	929.00	926.00	926.00	926.00	924.00	923.00	921.00	918.00	916.00	914.00	911.00	909.00	907.00	904.00	903.00	901.00	899.00	895.00	893.00	888.00	887.00	878.00	872.00	859.00	866.00	879.00	894.00	908.00	911.00	908.00	905.00	906.00	906.00	906.00	905.00	904.00	904.00	903.00	903.00	902.00	902.00	905.00	905.00	904.00	903.00	903.00	901.00	901.00	900.00	900.00	902.00	901.00	902.00	902.00	902.00	901.00	903.00	904.00	903.00	901.00	902.00	900.00	900.00	900.00	900.00	900.00	900.00	898.00	894.00	892.00	892.00	890.00	890.00	888.00	888.00	889.00	889.00	885.00	883.00	891.00	887.00	886.00	889.00	888.00	886.00	880.00	879.00	878.00	878.00	877.00	877.00	878.00	880.00	880.00	881.00	879.00	878.00	878.00	876.00	870.00	867.00	866.00	867.00	868.00	866.00	865.00	864.00	863.00	862.00	861.00	860.00	859.00	858.00	859.00	858.00	858.00	860.00	860.00	859.00	858.00	856.00	854.00	851.00	851.00	849.00	848.00	846.00	846.00	846.00	845.00	846.00	848.00	847.00	846.00	847.00	847.00	847.00	847.00	848.00	847.00	846.00	846.00	847.00	847.00	846.00	848.00	846.00	847.00	846.00	843.00	843.00	843.00	843.00	843.00	843.00	841.00	840.00	840.00	839.00	841.00	839.00	839.00	840.00	842.00	841.00	842.00	842.00	842.00	843.00	842.00	842.00	844.00	846.00	848.00	813.00	810.00	844.00	847.00	848.00	848.00	852.00	855.00	856.00	856.00	857.00	864.00	864.00	864.00	864.00	867.00	866.00	866.00	866.00	865.00	863.00	861.00	858.00	856.00	855.00	854.00	852.00	851.00	849.00	843.00	842.00	842.00	841.00	840.00	838.00	838.00	837.00	837.00	835.00	834.00	835.00	836.00	838.00	835.00	837.00	843.00	839.00	842.00	843.00	842.00
940.00	941.00	942.00	941.00	941.00	941.00	941.00	941.00	941.00	941.00	941.00	941.00	941.00	940.00	940.00	940.00	940.00	940.00	939.00	940.00	940.00	940.00	940.00	939.00	937.00	936.00	936.00	936.00	933.00	933.00	932.00	932.00	933.00	931.00	928.00	928.00	926.00	925.00	925.00	923.00	921.00	919.00	918.00	919.00	918.00	916.00	916.00	916.00	914.00	911.00	908.00	905.00	901.00	897.00	888.00	868.00	859.00	858.00	858.00	865.00	880.00	875.00	875.00	888.00	902.00	904.00	905.00	908.00	907.00	907.00	906.00	905.00	889.00	908.00	906.00	907.00	906.00	906.00	904.00	903.00	904.00	904.00	905.00	904.00	904.00	904.00	905.00	904.00	903.00	905.00	905.00	903.00	902.00	900.00	900.00	900.00	900.00	899.00	899.00	899.00	894.00	892.00	892.00	890.00	889.00	889.00	891.00	892.00	891.00	886.00	884.00	890.00	889.00	887.00	887.00	886.00	886.00	885.00	878.00	875.00	879.00	879.00	877.00	877.00	878.00	879.00	880.00	878.00	878.00	878.00	878.00	873.00	870.00	869.00	868.00	868.00	868.00	867.00	866.00	865.00	865.00	864.00	864.00	862.00	862.00	863.00	863.00	862.00	860.00	859.00	860.00	860.00	858.00	857.00	853.00	852.00	852.00	849.00	848.00	848.00	848.00	847.00	847.00	847.00	846.00	847.00	847.00	850.00	850.00	850.00	850.00	849.00	849.00	849.00	847.00	848.00	850.00	851.00	850.00	848.00	849.00	845.00	844.00	845.00	844.00	843.00	842.00	841.00	841.00	841.00	840.00	840.00	840.00	841.00	841.00	840.00	842.00	842.00	841.00	842.00	842.00	844.00	845.00	846.00	848.00	847.00	838.00	814.00	826.00	842.00	847.00	848.00	850.00	852.00	855.00	857.00	859.00	861.00	861.00	862.00	864.00	866.00	867.00	866.00	867.00	866.00	865.00	861.00	860.00	858.00	856.00	854.00	853.00	851.00	849.00	845.00	844.00	842.00	841.00	841.00	838.00	838.00	838.00	837.00	839.00	840.00	841.00	843.00	838.00	840.00	841.00	841.00	841.00	843.00	843.00	841.00
941.00	942.00	942.00	942.00	942.00	942.00	942.00	942.00	942.00	942.00	943.00	943.00	942.00	941.00	941.00	941.00	941.00	941.00	940.00	940.00	939.00	939.00	940.00	939.00	939.00	939.00	939.00	938.00	937.00	936.00	936.00	935.00	935.00	934.00	933.00	930.00	929.00	928.00	926.00	925.00	924.00	924.00	923.00	924.00	925.00	921.00	921.00	921.00	921.00	921.00	920.00	920.00	920.00	919.00	915.00	909.00	895.00	893.00	878.00	860.00	858.00	858.00	858.00	858.00	860.00	864.00	866.00	867.00	872.00	872.00	868.00	866.00	864.00	868.00	874.00	889.00	901.00	908.00	907.00	906.00	906.00	908.00	907.00	907.00	906.00	906.00	907.00	907.00	907.00	908.00	909.00	905.00	903.00	902.00	901.00	901.00	901.00	900.00	899.00	899.00	895.00	892.00	890.00	889.00	892.00	889.00	891.00	892.00	888.00	887.00	884.00	892.00	892.00	891.00	890.00	888.00	885.00	885.00	881.00	877.00	876.00	882.00	880.00	878.00	878.00	879.00	879.00	878.00	877.00	876.00	878.00	874.00	871.00	870.00	869.00	869.00	867.00	868.00	867.00	868.00	866.00	867.00	865.00	864.00	864.00	864.00	865.00	865.00	865.00	861.00	859.00	859.00	858.00	858.00	855.00	854.00	855.00	853.00	852.00	849.00	848.00	847.00	846.00	849.00	851.00	851.00	851.00	851.00	851.00	852.00	852.00	851.00	850.00	849.00	850.00	849.00	849.00	848.00	847.00	848.00	849.00	847.00	847.00	846.00	847.00	844.00	844.00	843.00	843.00	842.00	841.00	842.00	842.00	841.00	841.00	841.00	842.00	842.00	843.00	842.00	843.00	844.00	845.00	848.00	846.00	844.00	841.00	828.00	794.00	823.00	844.00	845.00	848.00	849.00	851.00	853.00	855.00	861.00	861.00	861.00	862.00	863.00	865.00	863.00	864.00	864.00	863.00	861.00	861.00	859.00	856.00	853.00	853.00	852.00	849.00	846.00	847.00	844.00	843.00	841.00	839.00	840.00	839.00	839.00	841.00	841.00	844.00	843.00	841.00	842.00	843.00	842.00	844.00	844.00	843.00	840.00
941.00	942.00	942.00	941.00	941.00	940.00	940.00	942.00	943.00	944.00	943.00	943.00	943.00	943.00	943.00	942.00	942.00	942.00	942.00	941.00	941.00	942.00	941.00	941.00	941.00	941.00	941.00	941.00	939.00	939.00	939.00	939.00	937.00	936.00	935.00	933.00	931.00	929.00	928.00	927.00	928.00	927.00	928.00	929.00	928.00	927.00	925.00	926.00	925.00	925.00	924.00	925.00	924.00	923.00	921.00	920.00	919.00	918.00	911.00	897.00	877.00	866.00	863.00	870.00	864.00	869.00	862.00	865.00	864.00	862.00	861.00	860.00	860.00	862.00	859.00	858.00	859.00	866.00	896.00	896.00	909.00	911.00	911.00	910.00	910.00	910.00	911.00	910.00	910.00	909.00	909.00	908.00	906.00	905.00	904.00	903.00	904.00	903.00	902.00	900.00	897.00	893.00	890.00	890.00	892.00	888.00	890.00	891.00	885.00	886.00	883.00	892.00	892.00	893.00	892.00	892.00	888.00	886.00	882.00	879.00	874.00	883.00	884.00	881.00	879.00	878.00	878.00	877.00	876.00	876.00	876.00	876.00	873.00	872.00	871.00	871.00	870.00	869.00	868.00	869.00	868.00	868.00	868.00	867.00	867.00	868.00	868.00	868.00	867.00	865.00	865.00	864.00	864.00	862.00	861.00	860.00	856.00	855.00	854.00	853.00	851.00	850.00	849.00	850.00	850.00	851.00	852.00	850.00	851.00	851.00	851.00	851.00	849.00	848.00	849.00	849.00	850.00	852.00	852.00	853.00	853.00	849.00	848.00	849.00	849.00	846.00	846.00	844.00	845.00	844.00	844.00	843.00	842.00	843.00	842.00	842.00	842.00	843.00	844.00	844.00	845.00	846.00	845.00	845.00	843.00	842.00	839.00	841.00	802.00	791.00	805.00	814.00	847.00	847.00	849.00	851.00	853.00	857.00	857.00	857.00	859.00	861.00	863.00	863.00	863.00	863.00	861.00	862.00	861.00	860.00	858.00	857.00	855.00	853.00	853.00	848.00	848.00	845.00	845.00	843.00	842.00	843.00	843.00	845.00	842.00	842.00	842.00	843.00	846.00	845.00	847.00	846.00	845.00	844.00	844.00	843.00
940.00	941.00	941.00	941.00	941.00	940.00	940.00	941.00	942.00	943.00	944.00	944.00	943.00	943.00	943.00	942.00	942.00	941.00	942.00	943.00	943.00	943.00	942.00	942.00	943.00	943.00	943.00	944.00	943.00	942.00	941.00	941.00	939.00	938.00	937.00	935.00	936.00	934.00	932.00	931.00	931.00	930.00	930.00	930.00	931.00	931.00	931.00	930.00	929.00	928.00	928.00	928.00	927.00	925.00	925.00	923.00	922.00	922.00	921.00	905.00	916.00	905.00	904.00	915.00	897.00	904.00	893.00	905.00	905.00	904.00	903.00	901.00	898.00	889.00	880.00	876.00	868.00	865.00	860.00	864.00	889.00	900.00	908.00	909.00	909.00	911.00	912.00	912.00	911.00	910.00	909.00	908.00	908.00	906.00	905.00	905.00	905.00	904.00	902.00	901.00	900.00	896.00	892.00	891.00	893.00	890.00	888.00	886.00	882.00	883.00	885.00	893.00	893.00	890.00	889.00	889.00	890.00	888.00	882.00	879.00	872.00	875.00	884.00	884.00	880.00	879.00	878.00	876.00	875.00	875.00	875.00	875.00	876.00	875.00	874.00	872.00	871.00	871.00	871.00	871.00	869.00	870.00	869.00	869.00	869.00	869.00	870.00	870.00	869.00	868.00	868.00	868.00	867.00	866.00	864.00	863.00	860.00	858.00	858.00	856.00	854.00	852.00	850.00	850.00	849.00	850.00	852.00	853.00	852.00	853.00	853.00	853.00	852.00	852.00	852.00	853.00	853.00	854.00	854.00	852.00	853.00	850.00	852.00	851.00	850.00	847.00	846.00	846.00	846.00	846.00	845.00	845.00	845.00	846.00	845.00	844.00	845.00	845.00	846.00	847.00	847.00	845.00	845.00	843.00	842.00	843.00	842.00	841.00	832.00	818.00	796.00	789.00	842.00	847.00	848.00	848.00	849.00	852.00	854.00	855.00	855.00	857.00	859.00	861.00	862.00	862.00	862.00	861.00	859.00	860.00	860.00	859.00	859.00	856.00	853.00	850.00	849.00	848.00	847.00	844.00	846.00	847.00	847.00	845.00	844.00	844.00	844.00	843.00	848.00	847.00	847.00	845.00	845.00	848.00	847.00	846.00
940.00	941.00	941.00	941.00	941.00	940.00	940.00	941.00	942.00	943.00	944.00	944.00	943.00	943.00	943.00	942.00	942.00	941.00	942.00	943.00	943.00	943.00	942.00	942.00	943.00	943.00	943.00	944.00	943.00	942.00	941.00	941.00	939.00	938.00	937.00	935.00	936.00	934.00	932.00	931.00	931.00	930.00	930.00	930.00	931.00	931.00	931.00	930.00	929.00	928.00	928.00	928.00	927.00	925.00	925.00	923.00	922.00	922.00	921.00	905.00	916.00	905.00	904.00	915.00	897.00	904.00	893.00	905.00	905.00	904.00	903.00	901.00	898.00	889.00	880.00	876.00	868.00	865.00	860.00	864.00	889.00	900.00	908.00	909.00	909.00	911.00	912.00	912.00	911.00	910.00	909.00	908.00	908.00	906.00	905.00	905.00	905.00	904.00	902.00	901.00	900.00	896.00	892.00	891.00	893.00	890.00	888.00	886.00	882.00	883.00	885.00	893.00	893.00	890.00	889.00	889.00	890.00	888.00	882.00	879.00	872.00	875.00	884.00	884.00	880.00	879.00	878.00	876.00	875.00	875.00	875.00	875.00	876.00	875.00	874.00	872.00	871.00	871.00	871.00	871.00	869.00	870.00	869.00	869.00	869.00	869.00	870.00	870.00	869.00	868.00	868.00	868.00	867.00	866.00	864.00	863.00	860.00	858.00	858.00	856.00	854.00	852.00	850.00	850.00	849.00	850.00	852.00	853.00	852.00	853.00	853.00	853.00	852.00	852.00	852.00	853.00	853.00	854.00	854.00	852.00	853.00	850.00	852.00	851.00	850.00	847.00	846.00	846.00	846.00	846.00	845.00	845.00	845.00	846.00	845.00	844.00	845.00	845.00	846.00	847.00	847.00	845.00	845.00	843.00	842.00	843.00	842.00	841.00	832.00	818.00	796.00	789.00	842.00	847.00	848.00	848.00	849.00	852.00	854.00	855.00	855.00	857.00	859.00	861.00	862.00	862.00	862.00	861.00	859.00	860.00	860.00	859.00	859.00	856.00	853.00	850.00	849.00	848.00	847.00	844.00	846.00	847.00	847.00	845.00	844.00	844.00	844.00	843.00	848.00	847.00	847.00	845.00	845.00	848.00	847.00	846.00
940.00	941.00	941.00	940.00	940.00	940.00	940.00	942.00	943.00	943.00	944.00	944.00	944.00	945.00	944.00	945.00	944.00	943.00	943.00	943.00	943.00	943.00	944.00	944.00	945.00	944.00	945.00	945.00	945.00	944.00	945.00	945.00	945.00	944.00	942.00	941.00	941.00	942.00	941.00	940.00	939.00	938.00	936.00	936.00	935.00	936.00	935.00	935.00	934.00	935.00	934.00	933.00	931.00	930.00	930.00	929.00	928.00	926.00	925.00	923.00	923.00	922.00	922.00	922.00	920.00	919.00	919.00	919.00	919.00	917.00	917.00	916.00	915.00	915.00	916.00	914.00	909.00	911.00	898.00	896.00	882.00	878.00	858.00	849.00	843.00	843.00	843.00	847.00	855.00	869.00	886.00	905.00	908.00	908.00	907.00	905.00	907.00	906.00	905.00	906.00	905.00	901.00	898.00	894.00	889.00	892.00	882.00	886.00	888.00	890.00	889.00	887.00	885.00	884.00	882.00	881.00	875.00	870.00	873.00	875.00	872.00	863.00	866.00	871.00	878.00	881.00	883.00	882.00	879.00	878.00	877.00	877.00	876.00	876.00	878.00	880.00	879.00	878.00	878.00	877.00	876.00	874.00	873.00	873.00	873.00	873.00	873.00	873.00	872.00	871.00	871.00	871.00	871.00	870.00	868.00	868.00	868.00	868.00	867.00	865.00	863.00	860.00	857.00	853.00	852.00	852.00	853.00	854.00	854.00	855.00	856.00	857.00	856.00	855.00	854.00	853.00	853.00	852.00	852.00	852.00	853.00	854.00	853.00	852.00	853.00	851.00	850.00	848.00	847.00	847.00	847.00	847.00	847.00	846.00	843.00	842.00	842.00	842.00	843.00	843.00	844.00	845.00	845.00	846.00	846.00	845.00	844.00	844.00	844.00	844.00	845.00	841.00	791.00	821.00	844.00	846.00	847.00	850.00	850.00	851.00	847.00	842.00	849.00	846.00	853.00	856.00	858.00	858.00	859.00	859.00	859.00	858.00	857.00	857.00	855.00	855.00	855.00	853.00	853.00	851.00	850.00	849.00	848.00	848.00	848.00	847.00	847.00	846.00	848.00	845.00	845.00	845.00	844.00	847.00	848.00	847.00
940.00	941.00	941.00	940.00	940.00	940.00	940.00	942.00	943.00	943.00	944.00	944.00	944.00	945.00	944.00	945.00	944.00	943.00	943.00	943.00	943.00	943.00	944.00	944.00	945.00	944.00	945.00	945.00	945.00	944.00	945.00	945.00	945.00	944.00	942.00	941.00	941.00	942.00	941.00	940.00	939.00	938.00	936.00	936.00	935.00	936.00	935.00	935.00	934.00	935.00	934.00	933.00	931.00	930.00	930.00	929.00	928.00	926.00	925.00	923.00	923.00	922.00	922.00	922.00	920.00	919.00	919.00	919.00	919.00	917.00	917.00	916.00	915.00	915.00	916.00	914.00	909.00	911.00	898.00	896.00	882.00	878.00	858.00	849.00	843.00	843.00	843.00	847.00	855.00	869.00	886.00	905.00	908.00	908.00	907.00	905.00	907.00	906.00	905.00	906.00	905.00	901.00	898.00	894.00	889.00	892.00	882.00	886.00	888.00	890.00	889.00	887.00	885.00	884.00	882.00	881.00	875.00	870.00	873.00	875.00	872.00	863.00	866.00	871.00	878.00	881.00	883.00	882.00	879.00	878.00	877.00	877.00	876.00	876.00	878.00	880.00	879.00	878.00	878.00	877.00	876.00	874.00	873.00	873.00	873.00	873.00	873.00	873.00	872.00	871.00	871.00	871.00	871.00	870.00	868.00	868.00	868.00	868.00	867.00	865.00	863.00	860.00	857.00	853.00	852.00	852.00	853.00	854.00	854.00	855.00	856.00	857.00	856.00	855.00	854.00	853.00	853.00	852.00	852.00	852.00	853.00	854.00	853.00	852.00	853.00	851.00	850.00	848.00	847.00	847.00	847.00	847.00	847.00	846.00	843.00	842.00	842.00	842.00	843.00	843.00	844.00	845.00	845.00	846.00	846.00	845.00	844.00	844.00	844.00	844.00	845.00	841.00	791.00	821.00	844.00	846.00	847.00	850.00	850.00	851.00	847.00	842.00	849.00	846.00	853.00	856.00	858.00	858.00	859.00	859.00	859.00	858.00	857.00	857.00	855.00	855.00	855.00	853.00	853.00	851.00	850.00	849.00	848.00	848.00	848.00	847.00	847.00	846.00	848.00	845.00	845.00	845.00	844.00	847.00	848.00	847.00
940.00	940.00	940.00	940.00	940.00	940.00	941.00	941.00	942.00	942.00	943.00	944.00	945.00	945.00	945.00	945.00	944.00	943.00	944.00	943.00	943.00	944.00	944.00	945.00	944.00	945.00	945.00	945.00	946.00	946.00	945.00	945.00	945.00	944.00	945.00	945.00	944.00	946.00	945.00	945.00	943.00	942.00	940.00	939.00	938.00	937.00	937.00	936.00	937.00	936.00	938.00	935.00	934.00	933.00	932.00	930.00	929.00	928.00	927.00	926.00	925.00	925.00	924.00	923.00	921.00	920.00	921.00	922.00	921.00	919.00	919.00	918.00	919.00	918.00	918.00	918.00	917.00	917.00	916.00	914.00	904.00	912.00	900.00	898.00	884.00	877.00	866.00	853.00	846.00	840.00	838.00	857.00	868.00	883.00	890.00	895.00	906.00	905.00	901.00	904.00	905.00	903.00	901.00	897.00	891.00	883.00	889.00	894.00	894.00	886.00	883.00	875.00	858.00	866.00	863.00	866.00	859.00	848.00	853.00	863.00	866.00	864.00	857.00	861.00	868.00	874.00	876.00	879.00	880.00	878.00	877.00	879.00	878.00	877.00	877.00	877.00	881.00	882.00	881.00	880.00	878.00	878.00	878.00	876.00	874.00	874.00	875.00	875.00	875.00	873.00	872.00	872.00	871.00	870.00	868.00	868.00	868.00	868.00	869.00	869.00	866.00	865.00	862.00	857.00	854.00	855.00	857.00	855.00	855.00	854.00	854.00	854.00	855.00	855.00	854.00	855.00	855.00	855.00	856.00	855.00	856.00	855.00	856.00	855.00	854.00	853.00	850.00	848.00	848.00	849.00	849.00	850.00	849.00	847.00	846.00	844.00	843.00	843.00	844.00	845.00	846.00	846.00	847.00	846.00	847.00	847.00	845.00	846.00	846.00	846.00	845.00	846.00	805.00	791.00	811.00	830.00	835.00	816.00	807.00	803.00	803.00	811.00	832.00	827.00	834.00	834.00	846.00	856.00	854.00	858.00	857.00	856.00	856.00	855.00	854.00	855.00	856.00	856.00	855.00	854.00	852.00	851.00	850.00	849.00	853.00	851.00	848.00	847.00	847.00	847.00	847.00	845.00	847.00	848.00	845.00	843.00
941.00	942.00	942.00	942.00	942.00	943.00	943.00	942.00	943.00	944.00	945.00	946.00	946.00	946.00	946.00	945.00	945.00	944.00	945.00	944.00	945.00	945.00	945.00	944.00	944.00	944.00	945.00	945.00	946.00	947.00	947.00	947.00	945.00	945.00	945.00	946.00	946.00	948.00	948.00	947.00	946.00	945.00	943.00	941.00	941.00	940.00	940.00	939.00	938.00	939.00	939.00	939.00	936.00	936.00	935.00	932.00	931.00	928.00	928.00	928.00	927.00	926.00	926.00	926.00	924.00	924.00	923.00	923.00	923.00	922.00	921.00	921.00	920.00	920.00	919.00	920.00	920.00	920.00	919.00	918.00	918.00	917.00	917.00	915.00	912.00	910.00	895.00	900.00	893.00	886.00	876.00	841.00	835.00	834.00	835.00	838.00	846.00	845.00	842.00	844.00	848.00	863.00	874.00	884.00	878.00	865.00	873.00	868.00	855.00	841.00	834.00	832.00	826.00	830.00	831.00	829.00	830.00	827.00	837.00	847.00	848.00	854.00	838.00	839.00	854.00	860.00	863.00	868.00	866.00	868.00	870.00	876.00	878.00	879.00	879.00	880.00	879.00	879.00	880.00	881.00	882.00	881.00	881.00	879.00	878.00	877.00	876.00	875.00	876.00	876.00	874.00	873.00	872.00	873.00	871.00	870.00	870.00	870.00	869.00	870.00	869.00	869.00	866.00	861.00	858.00	859.00	859.00	858.00	857.00	858.00	858.00	858.00	857.00	858.00	859.00	858.00	858.00	858.00	858.00	859.00	857.00	858.00	858.00	859.00	857.00	854.00	851.00	850.00	850.00	850.00	851.00	851.00	850.00	850.00	848.00	845.00	844.00	844.00	845.00	846.00	846.00	846.00	847.00	847.00	847.00	847.00	847.00	846.00	846.00	846.00	845.00	847.00	845.00	824.00	795.00	789.00	790.00	785.00	785.00	788.00	794.00	786.00	788.00	789.00	788.00	787.00	791.00	819.00	840.00	848.00	844.00	853.00	855.00	855.00	854.00	856.00	856.00	857.00	858.00	856.00	855.00	853.00	852.00	852.00	855.00	852.00	849.00	847.00	848.00	848.00	848.00	848.00	846.00	831.00	816.00	797.00
941.00	944.00	945.00	945.00	945.00	945.00	946.00	946.00	947.00	947.00	948.00	949.00	950.00	950.00	949.00	949.00	948.00	947.00	947.00	945.00	945.00	945.00	945.00	946.00	944.00	943.00	944.00	944.00	945.00	945.00	946.00	946.00	946.00	946.00	946.00	946.00	946.00	946.00	947.00	947.00	949.00	948.00	947.00	944.00	943.00	943.00	945.00	942.00	941.00	941.00	941.00	941.00	938.00	937.00	935.00	932.00	931.00	930.00	930.00	931.00	929.00	930.00	928.00	928.00	928.00	927.00	927.00	926.00	926.00	923.00	923.00	923.00	922.00	922.00	921.00	922.00	921.00	921.00	922.00	921.00	920.00	919.00	919.00	919.00	917.00	911.00	909.00	914.00	913.00	911.00	904.00	911.00	899.00	887.00	877.00	866.00	860.00	857.00	852.00	857.00	846.00	831.00	830.00	828.00	827.00	825.00	823.00	822.00	823.00	828.00	832.00	839.00	837.00	823.00	818.00	815.00	813.00	813.00	814.00	815.00	815.00	820.00	827.00	829.00	820.00	827.00	842.00	839.00	842.00	842.00	849.00	866.00	878.00	880.00	881.00	881.00	880.00	878.00	880.00	880.00	881.00	882.00	882.00	881.00	880.00	881.00	880.00	879.00	878.00	877.00	877.00	875.00	874.00	874.00	872.00	872.00	871.00	870.00	869.00	869.00	868.00	868.00	868.00	864.00	860.00	860.00	860.00	859.00	860.00	860.00	861.00	861.00	861.00	861.00	860.00	860.00	859.00	859.00	860.00	860.00	860.00	858.00	858.00	858.00	858.00	854.00	853.00	852.00	852.00	852.00	853.00	852.00	851.00	850.00	848.00	847.00	846.00	846.00	846.00	846.00	846.00	846.00	847.00	847.00	847.00	847.00	848.00	847.00	847.00	847.00	847.00	847.00	848.00	848.00	839.00	824.00	808.00	812.00	824.00	841.00	843.00	824.00	815.00	808.00	805.00	808.00	789.00	788.00	792.00	795.00	797.00	812.00	828.00	844.00	847.00	853.00	855.00	857.00	857.00	858.00	856.00	854.00	854.00	853.00	852.00	851.00	847.00	849.00	854.00	852.00	849.00	840.00	798.00	787.00	785.00	791.00
942.00	945.00	946.00	945.00	946.00	947.00	948.00	949.00	950.00	950.00	951.00	952.00	953.00	953.00	953.00	953.00	952.00	951.00	951.00	948.00	948.00	948.00	948.00	948.00	947.00	946.00	947.00	945.00	943.00	942.00	942.00	941.00	943.00	945.00	946.00	946.00	947.00	947.00	946.00	946.00	947.00	947.00	947.00	947.00	947.00	947.00	947.00	946.00	944.00	943.00	943.00	941.00	940.00	937.00	935.00	933.00	932.00	933.00	933.00	933.00	931.00	931.00	931.00	931.00	931.00	931.00	929.00	930.00	929.00	928.00	927.00	926.00	926.00	925.00	925.00	924.00	924.00	924.00	923.00	923.00	922.00	923.00	923.00	922.00	921.00	921.00	921.00	920.00	919.00	919.00	919.00	914.00	915.00	915.00	916.00	915.00	912.00	912.00	910.00	910.00	908.00	893.00	870.00	869.00	866.00	860.00	868.00	872.00	879.00	883.00	883.00	876.00	863.00	851.00	843.00	825.00	820.00	819.00	815.00	813.00	812.00	811.00	810.00	811.00	811.00	810.00	811.00	813.00	816.00	821.00	832.00	854.00	879.00	883.00	882.00	882.00	882.00	882.00	883.00	882.00	881.00	880.00	881.00	882.00	882.00	882.00	881.00	882.00	882.00	881.00	880.00	878.00	877.00	876.00	872.00	871.00	870.00	869.00	869.00	868.00	868.00	868.00	867.00	866.00	862.00	861.00	862.00	862.00	862.00	861.00	862.00	862.00	862.00	861.00	860.00	860.00	862.00	861.00	860.00	860.00	860.00	859.00	859.00	859.00	858.00	856.00	857.00	856.00	855.00	854.00	854.00	853.00	852.00	852.00	850.00	849.00	848.00	848.00	848.00	847.00	847.00	847.00	847.00	847.00	847.00	848.00	848.00	847.00	848.00	848.00	848.00	848.00	848.00	849.00	849.00	848.00	849.00	850.00	849.00	850.00	851.00	851.00	852.00	853.00	853.00	852.00	843.00	815.00	810.00	807.00	785.00	785.00	785.00	791.00	808.00	852.00	854.00	855.00	855.00	856.00	855.00	855.00	854.00	852.00	853.00	855.00	849.00	847.00	842.00	820.00	802.00	792.00	788.00	796.00	812.00	827.00
940.00	943.00	944.00	945.00	946.00	947.00	949.00	950.00	951.00	952.00	952.00	953.00	954.00	955.00	955.00	956.00	956.00	955.00	954.00	952.00	952.00	951.00	951.00	951.00	951.00	949.00	948.00	948.00	945.00	945.00	945.00	943.00	942.00	943.00	942.00	944.00	947.00	948.00	947.00	946.00	946.00	945.00	946.00	946.00	946.00	947.00	946.00	946.00	945.00	945.00	944.00	942.00	940.00	938.00	937.00	936.00	936.00	935.00	936.00	934.00	935.00	933.00	933.00	932.00	933.00	933.00	931.00	932.00	931.00	930.00	929.00	929.00	929.00	928.00	928.00	928.00	928.00	928.00	927.00	926.00	926.00	927.00	926.00	925.00	925.00	925.00	926.00	927.00	926.00	927.00	925.00	925.00	922.00	917.00	914.00	915.00	913.00	914.00	914.00	912.00	910.00	906.00	903.00	904.00	902.00	897.00	898.00	898.00	898.00	895.00	890.00	887.00	879.00	867.00	858.00	846.00	842.00	843.00	834.00	837.00	831.00	837.00	816.00	814.00	811.00	811.00	812.00	810.00	811.00	811.00	815.00	845.00	876.00	881.00	881.00	882.00	882.00	883.00	884.00	884.00	882.00	883.00	882.00	882.00	883.00	884.00	883.00	883.00	883.00	883.00	883.00	881.00	880.00	878.00	874.00	873.00	873.00	871.00	869.00	868.00	868.00	869.00	869.00	866.00	865.00	865.00	866.00	864.00	864.00	863.00	863.00	863.00	863.00	862.00	863.00	862.00	862.00	861.00	862.00	862.00	861.00	861.00	860.00	859.00	858.00	858.00	857.00	857.00	857.00	856.00	855.00	854.00	853.00	852.00	851.00	851.00	851.00	851.00	850.00	849.00	849.00	849.00	848.00	848.00	848.00	849.00	849.00	848.00	849.00	848.00	849.00	849.00	850.00	850.00	850.00	851.00	850.00	850.00	851.00	852.00	851.00	854.00	852.00	854.00	850.00	850.00	852.00	850.00	850.00	849.00	807.00	797.00	792.00	786.00	785.00	823.00	846.00	853.00	853.00	853.00	855.00	856.00	854.00	852.00	854.00	854.00	848.00	833.00	794.00	789.00	788.00	795.00	821.00	825.00	836.00	841.00
940.00	943.00	944.00	945.00	946.00	947.00	949.00	950.00	951.00	952.00	952.00	953.00	954.00	955.00	955.00	956.00	956.00	955.00	954.00	952.00	952.00	951.00	951.00	951.00	951.00	949.00	948.00	948.00	945.00	945.00	945.00	943.00	942.00	943.00	942.00	944.00	947.00	948.00	947.00	946.00	946.00	945.00	946.00	946.00	946.00	947.00	946.00	946.00	945.00	945.00	944.00	942.00	940.00	938.00	937.00	936.00	936.00	935.00	936.00	934.00	935.00	933.00	933.00	932.00	933.00	933.00	931.00	932.00	931.00	930.00	929.00	929.00	929.00	928.00	928.00	928.00	928.00	928.00	927.00	926.00	926.00	927.00	926.00	925.00	925.00	925.00	926.00	927.00	926.00	927.00	925.00	925.00	922.00	917.00	914.00	915.00	913.00	914.00	914.00	912.00	910.00	906.00	903.00	904.00	902.00	897.00	898.00	898.00	898.00	895.00	890.00	887.00	879.00	867.00	858.00	846.00	842.00	843.00	834.00	837.00	831.00	837.00	816.00	814.00	811.00	811.00	812.00	810.00	811.00	811.00	815.00	845.00	876.00	881.00	881.00	882.00	882.00	883.00	884.00	884.00	882.00	883.00	882.00	882.00	883.00	884.00	883.00	883.00	883.00	883.00	883.00	881.00	880.00	878.00	874.00	873.00	873.00	871.00	869.00	868.00	868.00	869.00	869.00	866.00	865.00	865.00	866.00	864.00	864.00	863.00	863.00	863.00	863.00	862.00	863.00	862.00	862.00	861.00	862.00	862.00	861.00	861.00	860.00	859.00	858.00	858.00	857.00	857.00	857.00	856.00	855.00	854.00	853.00	852.00	851.00	851.00	851.00	851.00	850.00	849.00	849.00	849.00	848.00	848.00	848.00	849.00	849.00	848.00	849.00	848.00	849.00	849.00	850.00	850.00	850.00	851.00	850.00	850.00	851.00	852.00	851.00	854.00	852.00	854.00	850.00	850.00	852.00	850.00	850.00	849.00	807.00	797.00	792.00	786.00	785.00	823.00	846.00	853.00	853.00	853.00	855.00	856.00	854.00	852.00	854.00	854.00	848.00	833.00	794.00	789.00	788.00	795.00	821.00	825.00	836.00	841.00
938.00	939.00	939.00	937.00	937.00	937.00	942.00	942.00	945.00	945.00	947.00	948.00	947.00	948.00	949.00	950.00	951.00	952.00	953.00	952.00	952.00	950.00	951.00	954.00	955.00	957.00	955.00	954.00	951.00	952.00	955.00	956.00	955.00	953.00	950.00	947.00	944.00	944.00	945.00	945.00	945.00	946.00	947.00	946.00	945.00	945.00	944.00	944.00	944.00	943.00	944.00	944.00	942.00	942.00	941.00	939.00	939.00	938.00	938.00	938.00	938.00	937.00	937.00	937.00	935.00	936.00	936.00	936.00	936.00	934.00	933.00	933.00	933.00	935.00	934.00	933.00	932.00	932.00	931.00	931.00	932.00	931.00	932.00	933.00	933.00	933.00	934.00	935.00	934.00	935.00	934.00	933.00	932.00	932.00	930.00	930.00	926.00	926.00	925.00	921.00	913.00	913.00	907.00	905.00	905.00	902.00	902.00	901.00	900.00	898.00	896.00	897.00	894.00	882.00	876.00	870.00	863.00	856.00	859.00	862.00	862.00	863.00	864.00	863.00	853.00	846.00	856.00	827.00	820.00	818.00	820.00	814.00	820.00	827.00	826.00	824.00	836.00	848.00	855.00	859.00	869.00	877.00	886.00	885.00	884.00	884.00	883.00	885.00	885.00	886.00	885.00	884.00	883.00	881.00	879.00	878.00	877.00	876.00	873.00	872.00	872.00	871.00	869.00	868.00	868.00	868.00	868.00	868.00	868.00	868.00	868.00	867.00	867.00	866.00	866.00	864.00	864.00	864.00	865.00	865.00	865.00	864.00	864.00	864.00	863.00	863.00	861.00	861.00	860.00	859.00	857.00	856.00	855.00	854.00	854.00	854.00	854.00	854.00	854.00	853.00	853.00	853.00	852.00	851.00	851.00	851.00	851.00	851.00	852.00	851.00	852.00	852.00	851.00	852.00	852.00	854.00	852.00	852.00	852.00	853.00	853.00	853.00	854.00	853.00	852.00	851.00	851.00	851.00	850.00	851.00	846.00	839.00	822.00	803.00	791.00	785.00	785.00	801.00	808.00	807.00	802.00	795.00	791.00	789.00	789.00	796.00	803.00	808.00	837.00	840.00	850.00	852.00	851.00	853.00	853.00	852.00
938.00	939.00	939.00	937.00	937.00	937.00	942.00	942.00	945.00	945.00	947.00	948.00	947.00	948.00	949.00	950.00	951.00	952.00	953.00	952.00	952.00	950.00	951.00	954.00	955.00	957.00	955.00	954.00	951.00	952.00	955.00	956.00	955.00	953.00	950.00	947.00	944.00	944.00	945.00	945.00	945.00	946.00	947.00	946.00	945.00	945.00	944.00	944.00	944.00	943.00	944.00	944.00	942.00	942.00	941.00	939.00	939.00	938.00	938.00	938.00	938.00	937.00	937.00	937.00	935.00	936.00	936.00	936.00	936.00	934.00	933.00	933.00	933.00	935.00	934.00	933.00	932.00	932.00	931.00	931.00	932.00	931.00	932.00	933.00	933.00	933.00	934.00	935.00	934.00	935.00	934.00	933.00	932.00	932.00	930.00	930.00	926.00	926.00	925.00	921.00	913.00	913.00	907.00	905.00	905.00	902.00	902.00	901.00	900.00	898.00	896.00	897.00	894.00	882.00	876.00	870.00	863.00	856.00	859.00	862.00	862.00	863.00	864.00	863.00	853.00	846.00	856.00	827.00	820.00	818.00	820.00	814.00	820.00	827.00	826.00	824.00	836.00	848.00	855.00	859.00	869.00	877.00	886.00	885.00	884.00	884.00	883.00	885.00	885.00	886.00	885.00	884.00	883.00	881.00	879.00	878.00	877.00	876.00	873.00	872.00	872.00	871.00	869.00	868.00	868.00	868.00	868.00	868.00	868.00	868.00	868.00	867.00	867.00	866.00	866.00	864.00	864.00	864.00	865.00	865.00	865.00	864.00	864.00	864.00	863.00	863.00	861.00	861.00	860.00	859.00	857.00	856.00	855.00	854.00	854.00	854.00	854.00	854.00	854.00	853.00	853.00	853.00	852.00	851.00	851.00	851.00	851.00	851.00	852.00	851.00	852.00	852.00	851.00	852.00	852.00	854.00	852.00	852.00	852.00	853.00	853.00	853.00	854.00	853.00	852.00	851.00	851.00	851.00	850.00	851.00	846.00	839.00	822.00	803.00	791.00	785.00	785.00	801.00	808.00	807.00	802.00	795.00	791.00	789.00	789.00	796.00	803.00	808.00	837.00	840.00	850.00	852.00	851.00	853.00	853.00	852.00
936.00	938.00	937.00	938.00	939.00	936.00	937.00	937.00	940.00	942.00	944.00	944.00	944.00	944.00	945.00	948.00	948.00	949.00	949.00	950.00	950.00	950.00	949.00	951.00	952.00	953.00	953.00	952.00	953.00	952.00	951.00	951.00	951.00	955.00	957.00	954.00	949.00	941.00	943.00	943.00	942.00	944.00	945.00	945.00	944.00	944.00	946.00	945.00	945.00	944.00	943.00	942.00	943.00	943.00	942.00	942.00	941.00	941.00	939.00	940.00	939.00	938.00	938.00	938.00	938.00	938.00	938.00	938.00	937.00	936.00	936.00	937.00	937.00	936.00	935.00	935.00	934.00	933.00	934.00	933.00	933.00	933.00	935.00	937.00	938.00	939.00	940.00	941.00	940.00	939.00	939.00	936.00	935.00	934.00	933.00	932.00	931.00	930.00	929.00	928.00	925.00	922.00	919.00	915.00	910.00	906.00	907.00	907.00	905.00	900.00	899.00	899.00	897.00	885.00	877.00	874.00	874.00	868.00	870.00	872.00	873.00	874.00	875.00	875.00	872.00	867.00	864.00	834.00	846.00	843.00	848.00	849.00	831.00	823.00	815.00	813.00	814.00	813.00	814.00	815.00	821.00	827.00	838.00	866.00	881.00	886.00	884.00	881.00	884.00	886.00	886.00	886.00	885.00	882.00	880.00	880.00	879.00	878.00	876.00	876.00	875.00	873.00	872.00	868.00	869.00	870.00	870.00	870.00	869.00	869.00	869.00	869.00	869.00	868.00	867.00	867.00	866.00	866.00	866.00	865.00	865.00	865.00	866.00	867.00	865.00	865.00	863.00	863.00	861.00	860.00	859.00	858.00	856.00	856.00	855.00	856.00	856.00	856.00	857.00	856.00	856.00	856.00	854.00	853.00	852.00	853.00	852.00	853.00	852.00	853.00	855.00	854.00	853.00	853.00	854.00	853.00	853.00	853.00	852.00	852.00	853.00	852.00	852.00	852.00	850.00	850.00	850.00	853.00	852.00	850.00	820.00	799.00	789.00	793.00	801.00	811.00	809.00	791.00	790.00	790.00	792.00	796.00	804.00	804.00	835.00	845.00	835.00	852.00	852.00	855.00	856.00	856.00	853.00	854.00	855.00	854.00
934.00	935.00	935.00	936.00	939.00	940.00	937.00	936.00	936.00	937.00	942.00	942.00	943.00	945.00	946.00	948.00	949.00	950.00	951.00	951.00	951.00	950.00	950.00	950.00	950.00	951.00	950.00	949.00	952.00	951.00	951.00	952.00	952.00	954.00	955.00	955.00	952.00	944.00	941.00	941.00	940.00	942.00	943.00	943.00	944.00	943.00	944.00	946.00	946.00	946.00	946.00	944.00	944.00	944.00	942.00	941.00	941.00	942.00	943.00	941.00	941.00	940.00	939.00	940.00	939.00	940.00	940.00	940.00	939.00	939.00	939.00	939.00	939.00	938.00	937.00	937.00	935.00	935.00	935.00	935.00	934.00	936.00	937.00	939.00	940.00	941.00	941.00	941.00	940.00	940.00	941.00	939.00	939.00	938.00	937.00	935.00	933.00	933.00	932.00	931.00	929.00	926.00	924.00	920.00	917.00	912.00	910.00	908.00	907.00	903.00	900.00	898.00	896.00	891.00	888.00	885.00	882.00	881.00	881.00	882.00	884.00	883.00	882.00	882.00	880.00	875.00	855.00	858.00	865.00	869.00	869.00	865.00	877.00	872.00	867.00	857.00	834.00	843.00	848.00	866.00	858.00	842.00	827.00	822.00	827.00	844.00	851.00	861.00	862.00	882.00	884.00	884.00	885.00	885.00	883.00	881.00	880.00	880.00	880.00	879.00	877.00	876.00	875.00	872.00	870.00	870.00	871.00	874.00	874.00	872.00	872.00	870.00	869.00	869.00	869.00	869.00	867.00	866.00	867.00	867.00	867.00	868.00	867.00	866.00	866.00	865.00	864.00	863.00	863.00	862.00	862.00	861.00	860.00	858.00	857.00	857.00	857.00	857.00	858.00	858.00	859.00	858.00	857.00	855.00	854.00	854.00	854.00	855.00	855.00	855.00	856.00	855.00	855.00	855.00	855.00	855.00	854.00	854.00	854.00	854.00	854.00	854.00	854.00	854.00	853.00	851.00	851.00	848.00	836.00	820.00	791.00	797.00	817.00	843.00	849.00	848.00	847.00	822.00	828.00	847.00	850.00	851.00	852.00	847.00	855.00	856.00	852.00	859.00	859.00	858.00	857.00	857.00	856.00	856.00	857.00	857.00
934.00	931.00	933.00	936.00	938.00	939.00	940.00	941.00	940.00	939.00	940.00	938.00	941.00	942.00	945.00	947.00	948.00	948.00	949.00	951.00	951.00	950.00	950.00	949.00	950.00	950.00	951.00	952.00	952.00	952.00	951.00	952.00	951.00	952.00	952.00	952.00	952.00	949.00	945.00	944.00	943.00	942.00	944.00	945.00	946.00	947.00	946.00	946.00	945.00	946.00	945.00	947.00	947.00	947.00	946.00	943.00	943.00	943.00	942.00	943.00	944.00	943.00	943.00	943.00	941.00	941.00	940.00	940.00	940.00	940.00	940.00	942.00	941.00	940.00	938.00	937.00	938.00	937.00	937.00	936.00	938.00	938.00	940.00	941.00	942.00	941.00	941.00	941.00	940.00	940.00	940.00	940.00	940.00	940.00	938.00	938.00	935.00	934.00	933.00	931.00	927.00	926.00	924.00	923.00	921.00	917.00	914.00	912.00	910.00	905.00	903.00	900.00	897.00	894.00	894.00	892.00	890.00	890.00	889.00	889.00	889.00	887.00	885.00	884.00	882.00	867.00	871.00	872.00	876.00	880.00	882.00	866.00	882.00	883.00	882.00	881.00	874.00	869.00	873.00	880.00	881.00	876.00	869.00	853.00	839.00	823.00	820.00	820.00	821.00	831.00	840.00	855.00	864.00	873.00	884.00	882.00	882.00	882.00	881.00	881.00	881.00	880.00	879.00	875.00	873.00	872.00	872.00	873.00	874.00	875.00	874.00	873.00	870.00	870.00	871.00	870.00	869.00	868.00	869.00	869.00	869.00	869.00	869.00	868.00	868.00	868.00	867.00	867.00	866.00	865.00	864.00	863.00	863.00	862.00	861.00	858.00	858.00	858.00	858.00	859.00	859.00	860.00	859.00	857.00	856.00	855.00	857.00	857.00	858.00	858.00	857.00	857.00	857.00	858.00	857.00	857.00	856.00	856.00	855.00	855.00	856.00	857.00	856.00	853.00	853.00	852.00	853.00	843.00	819.00	795.00	805.00	845.00	854.00	855.00	851.00	846.00	847.00	843.00	852.00	854.00	855.00	856.00	855.00	855.00	855.00	860.00	861.00	863.00	861.00	860.00	861.00	860.00	860.00	860.00	859.00	854.00
929.00	931.00	932.00	933.00	933.00	937.00	937.00	936.00	937.00	939.00	941.00	941.00	940.00	940.00	942.00	947.00	947.00	946.00	946.00	948.00	948.00	948.00	947.00	948.00	950.00	951.00	951.00	951.00	951.00	953.00	953.00	953.00	953.00	951.00	949.00	950.00	951.00	950.00	948.00	948.00	947.00	946.00	947.00	948.00	949.00	949.00	949.00	948.00	946.00	944.00	945.00	945.00	946.00	947.00	947.00	947.00	947.00	947.00	945.00	944.00	942.00	944.00	943.00	942.00	943.00	942.00	944.00	943.00	943.00	941.00	940.00	940.00	940.00	939.00	939.00	939.00	939.00	939.00	939.00	938.00	939.00	940.00	941.00	941.00	941.00	940.00	941.00	939.00	939.00	939.00	939.00	938.00	938.00	937.00	937.00	936.00	934.00	933.00	933.00	931.00	929.00	925.00	923.00	922.00	921.00	919.00	917.00	916.00	913.00	908.00	906.00	901.00	901.00	896.00	896.00	897.00	895.00	895.00	892.00	892.00	890.00	889.00	885.00	885.00	876.00	876.00	882.00	881.00	883.00	885.00	884.00	881.00	879.00	883.00	883.00	883.00	883.00	883.00	879.00	878.00	882.00	883.00	884.00	884.00	883.00	873.00	864.00	845.00	844.00	827.00	819.00	816.00	818.00	824.00	871.00	874.00	880.00	880.00	876.00	876.00	878.00	879.00	879.00	877.00	876.00	876.00	875.00	873.00	875.00	876.00	876.00	875.00	872.00	872.00	871.00	871.00	870.00	870.00	870.00	871.00	871.00	871.00	871.00	871.00	870.00	869.00	868.00	869.00	868.00	866.00	866.00	866.00	865.00	865.00	862.00	861.00	861.00	861.00	862.00	860.00	861.00	861.00	862.00	861.00	860.00	860.00	860.00	860.00	861.00	860.00	858.00	859.00	859.00	860.00	860.00	858.00	858.00	858.00	858.00	858.00	857.00	859.00	857.00	857.00	855.00	856.00	853.00	799.00	792.00	798.00	844.00	855.00	856.00	857.00	851.00	849.00	837.00	851.00	854.00	855.00	854.00	855.00	855.00	854.00	859.00	862.00	862.00	861.00	865.00	864.00	865.00	865.00	864.00	861.00	857.00	853.00
923.00	923.00	923.00	923.00	923.00	924.00	924.00	925.00	925.00	925.00	927.00	927.00	926.00	926.00	927.00	928.00	931.00	933.00	936.00	941.00	944.00	943.00	944.00	945.00	944.00	946.00	947.00	948.00	947.00	948.00	948.00	951.00	952.00	953.00	953.00	953.00	953.00	951.00	953.00	952.00	951.00	950.00	951.00	951.00	951.00	951.00	949.00	949.00	949.00	946.00	945.00	944.00	945.00	946.00	947.00	948.00	948.00	948.00	948.00	946.00	945.00	945.00	944.00	943.00	942.00	942.00	943.00	943.00	943.00	943.00	943.00	943.00	941.00	939.00	939.00	938.00	938.00	937.00	938.00	938.00	939.00	938.00	938.00	938.00	938.00	938.00	937.00	936.00	935.00	936.00	936.00	935.00	936.00	935.00	935.00	935.00	933.00	932.00	933.00	931.00	930.00	927.00	925.00	923.00	921.00	918.00	917.00	916.00	915.00	912.00	910.00	906.00	904.00	902.00	901.00	900.00	900.00	900.00	897.00	893.00	891.00	889.00	886.00	883.00	878.00	884.00	885.00	885.00	886.00	885.00	885.00	884.00	882.00	882.00	884.00	884.00	884.00	885.00	883.00	884.00	889.00	889.00	889.00	892.00	892.00	888.00	879.00	880.00	883.00	880.00	873.00	865.00	845.00	837.00	818.00	827.00	835.00	843.00	847.00	851.00	856.00	863.00	862.00	878.00	877.00	877.00	877.00	875.00	874.00	874.00	876.00	876.00	876.00	875.00	876.00	875.00	874.00	873.00	871.00	871.00	870.00	872.00	872.00	871.00	872.00	871.00	871.00	871.00	870.00	868.00	868.00	868.00	867.00	866.00	865.00	864.00	865.00	864.00	864.00	864.00	862.00	864.00	864.00	862.00	863.00	862.00	863.00	861.00	863.00	861.00	863.00	862.00	862.00	861.00	860.00	861.00	860.00	858.00	858.00	859.00	859.00	858.00	858.00	856.00	856.00	855.00	811.00	798.00	821.00	848.00	857.00	858.00	857.00	854.00	848.00	841.00	840.00	851.00	852.00	854.00	854.00	853.00	854.00	855.00	862.00	864.00	864.00	864.00	867.00	867.00	869.00	867.00	864.00	861.00	859.00	857.00
923.00	923.00	923.00	923.00	923.00	924.00	924.00	925.00	925.00	925.00	927.00	927.00	926.00	926.00	927.00	928.00	931.00	933.00	936.00	941.00	944.00	943.00	944.00	945.00	944.00	946.00	947.00	948.00	947.00	948.00	948.00	951.00	952.00	953.00	953.00	953.00	953.00	951.00	953.00	952.00	951.00	950.00	951.00	951.00	951.00	951.00	949.00	949.00	949.00	946.00	945.00	944.00	945.00	946.00	947.00	948.00	948.00	948.00	948.00	946.00	945.00	945.00	944.00	943.00	942.00	942.00	943.00	943.00	943.00	943.00	943.00	943.00	941.00	939.00	939.00	938.00	938.00	937.00	938.00	938.00	939.00	938.00	938.00	938.00	938.00	938.00	937.00	936.00	935.00	936.00	936.00	935.00	936.00	935.00	935.00	935.00	933.00	932.00	933.00	931.00	930.00	927.00	925.00	923.00	921.00	918.00	917.00	916.00	915.00	912.00	910.00	906.00	904.00	902.00	901.00	900.00	900.00	900.00	897.00	893.00	891.00	889.00	886.00	883.00	878.00	884.00	885.00	885.00	886.00	885.00	885.00	884.00	882.00	882.00	884.00	884.00	884.00	885.00	883.00	884.00	889.00	889.00	889.00	892.00	892.00	888.00	879.00	880.00	883.00	880.00	873.00	865.00	845.00	837.00	818.00	827.00	835.00	843.00	847.00	851.00	856.00	863.00	862.00	878.00	877.00	877.00	877.00	875.00	874.00	874.00	876.00	876.00	876.00	875.00	876.00	875.00	874.00	873.00	871.00	871.00	870.00	872.00	872.00	871.00	872.00	871.00	871.00	871.00	870.00	868.00	868.00	868.00	867.00	866.00	865.00	864.00	865.00	864.00	864.00	864.00	862.00	864.00	864.00	862.00	863.00	862.00	863.00	861.00	863.00	861.00	863.00	862.00	862.00	861.00	860.00	861.00	860.00	858.00	858.00	859.00	859.00	858.00	858.00	856.00	856.00	855.00	811.00	798.00	821.00	848.00	857.00	858.00	857.00	854.00	848.00	841.00	840.00	851.00	852.00	854.00	854.00	853.00	854.00	855.00	862.00	864.00	864.00	864.00	867.00	867.00	869.00	867.00	864.00	861.00	859.00	857.00
925.00	925.00	927.00	930.00	930.00	931.00	931.00	930.00	928.00	927.00	927.00	927.00	929.00	932.00	931.00	930.00	927.00	918.00	916.00	920.00	920.00	920.00	919.00	921.00	921.00	923.00	931.00	935.00	937.00	938.00	938.00	939.00	941.00	944.00	947.00	949.00	952.00	955.00	956.00	957.00	957.00	955.00	955.00	955.00	954.00	954.00	952.00	953.00	954.00	951.00	952.00	950.00	949.00	949.00	950.00	948.00	947.00	947.00	947.00	946.00	947.00	947.00	947.00	947.00	948.00	947.00	947.00	947.00	947.00	945.00	944.00	943.00	942.00	941.00	941.00	941.00	941.00	941.00	940.00	939.00	939.00	938.00	939.00	939.00	938.00	938.00	937.00	938.00	938.00	938.00	938.00	936.00	935.00	934.00	932.00	930.00	928.00	928.00	927.00	927.00	927.00	925.00	925.00	924.00	923.00	921.00	919.00	917.00	916.00	914.00	913.00	915.00	915.00	914.00	913.00	913.00	912.00	907.00	901.00	898.00	897.00	894.00	888.00	886.00	885.00	885.00	886.00	888.00	889.00	890.00	890.00	889.00	888.00	887.00	887.00	887.00	889.00	889.00	890.00	891.00	892.00	893.00	894.00	893.00	895.00	893.00	894.00	895.00	895.00	893.00	891.00	889.00	886.00	883.00	865.00	850.00	833.00	819.00	810.00	809.00	808.00	810.00	813.00	852.00	879.00	878.00	879.00	877.00	876.00	875.00	875.00	875.00	877.00	877.00	878.00	877.00	878.00	877.00	876.00	876.00	872.00	873.00	874.00	874.00	872.00	874.00	874.00	874.00	875.00	875.00	873.00	872.00	872.00	870.00	870.00	867.00	868.00	868.00	868.00	867.00	867.00	868.00	868.00	867.00	868.00	867.00	867.00	867.00	868.00	867.00	867.00	866.00	865.00	865.00	864.00	864.00	865.00	864.00	863.00	862.00	859.00	838.00	830.00	807.00	797.00	798.00	830.00	859.00	862.00	862.00	858.00	858.00	851.00	846.00	850.00	850.00	851.00	855.00	855.00	857.00	859.00	860.00	862.00	863.00	865.00	866.00	868.00	870.00	870.00	869.00	868.00	866.00	865.00	861.00	859.00	857.00
925.00	925.00	927.00	930.00	930.00	931.00	931.00	930.00	928.00	927.00	927.00	927.00	929.00	932.00	931.00	930.00	927.00	918.00	916.00	920.00	920.00	920.00	919.00	921.00	921.00	923.00	931.00	935.00	937.00	938.00	938.00	939.00	941.00	944.00	947.00	949.00	952.00	955.00	956.00	957.00	957.00	955.00	955.00	955.00	954.00	954.00	952.00	953.00	954.00	951.00	952.00	950.00	949.00	949.00	950.00	948.00	947.00	947.00	947.00	946.00	947.00	947.00	947.00	947.00	948.00	947.00	947.00	947.00	947.00	945.00	944.00	943.00	942.00	941.00	941.00	941.00	941.00	941.00	940.00	939.00	939.00	938.00	939.00	939.00	938.00	938.00	937.00	938.00	938.00	938.00	938.00	936.00	935.00	934.00	932.00	930.00	928.00	928.00	927.00	927.00	927.00	925.00	925.00	924.00	923.00	921.00	919.00	917.00	916.00	914.00	913.00	915.00	915.00	914.00	913.00	913.00	912.00	907.00	901.00	898.00	897.00	894.00	888.00	886.00	885.00	885.00	886.00	888.00	889.00	890.00	890.00	889.00	888.00	887.00	887.00	887.00	889.00	889.00	890.00	891.00	892.00	893.00	894.00	893.00	895.00	893.00	894.00	895.00	895.00	893.00	891.00	889.00	886.00	883.00	865.00	850.00	833.00	819.00	810.00	809.00	808.00	810.00	813.00	852.00	879.00	878.00	879.00	877.00	876.00	875.00	875.00	875.00	877.00	877.00	878.00	877.00	878.00	877.00	876.00	876.00	872.00	873.00	874.00	874.00	872.00	874.00	874.00	874.00	875.00	875.00	873.00	872.00	872.00	870.00	870.00	867.00	868.00	868.00	868.00	867.00	867.00	868.00	868.00	867.00	868.00	867.00	867.00	867.00	868.00	867.00	867.00	866.00	865.00	865.00	864.00	864.00	865.00	864.00	863.00	862.00	859.00	838.00	830.00	807.00	797.00	798.00	830.00	859.00	862.00	862.00	858.00	858.00	851.00	846.00	850.00	850.00	851.00	855.00	855.00	857.00	859.00	860.00	862.00	863.00	865.00	866.00	868.00	870.00	870.00	869.00	868.00	866.00	865.00	861.00	859.00	857.00
925.00	925.00	927.00	930.00	930.00	931.00	931.00	930.00	928.00	927.00	927.00	927.00	929.00	932.00	931.00	930.00	927.00	918.00	916.00	920.00	920.00	920.00	919.00	921.00	921.00	923.00	931.00	935.00	937.00	938.00	938.00	939.00	941.00	944.00	947.00	949.00	952.00	955.00	956.00	957.00	957.00	955.00	955.00	955.00	954.00	954.00	952.00	953.00	954.00	951.00	952.00	950.00	949.00	949.00	950.00	948.00	947.00	947.00	947.00	946.00	947.00	947.00	947.00	947.00	948.00	947.00	947.00	947.00	947.00	945.00	944.00	943.00	942.00	941.00	941.00	941.00	941.00	941.00	940.00	939.00	939.00	938.00	939.00	939.00	938.00	938.00	937.00	938.00	938.00	938.00	938.00	936.00	935.00	934.00	932.00	930.00	928.00	928.00	927.00	927.00	927.00	925.00	925.00	924.00	923.00	921.00	919.00	917.00	916.00	914.00	913.00	915.00	915.00	914.00	913.00	913.00	912.00	907.00	901.00	898.00	897.00	894.00	888.00	886.00	885.00	885.00	886.00	888.00	889.00	890.00	890.00	889.00	888.00	887.00	887.00	887.00	889.00	889.00	890.00	891.00	892.00	893.00	894.00	893.00	895.00	893.00	894.00	895.00	895.00	893.00	891.00	889.00	886.00	883.00	865.00	850.00	833.00	819.00	810.00	809.00	808.00	810.00	813.00	852.00	879.00	878.00	879.00	877.00	876.00	875.00	875.00	875.00	877.00	877.00	878.00	877.00	878.00	877.00	876.00	876.00	872.00	873.00	874.00	874.00	872.00	874.00	874.00	874.00	875.00	875.00	873.00	872.00	872.00	870.00	870.00	867.00	868.00	868.00	868.00	867.00	867.00	868.00	868.00	867.00	868.00	867.00	867.00	867.00	868.00	867.00	867.00	866.00	865.00	865.00	864.00	864.00	865.00	864.00	863.00	862.00	859.00	838.00	830.00	807.00	797.00	798.00	830.00	859.00	862.00	862.00	858.00	858.00	851.00	846.00	850.00	850.00	851.00	855.00	855.00	857.00	859.00	860.00	862.00	863.00	865.00	866.00	868.00	870.00	870.00	869.00	868.00	866.00	865.00	861.00	859.00	857.00
926.00	930.00	932.00	935.00	940.00	944.00	944.00	943.00	942.00	940.00	941.00	943.00	944.00	943.00	943.00	943.00	943.00	941.00	935.00	919.00	917.00	920.00	922.00	922.00	925.00	924.00	921.00	923.00	940.00	941.00	940.00	940.00	939.00	939.00	942.00	944.00	946.00	948.00	952.00	953.00	954.00	955.00	957.00	958.00	957.00	956.00	954.00	955.00	954.00	953.00	953.00	952.00	952.00	952.00	952.00	950.00	948.00	948.00	947.00	945.00	945.00	945.00	945.00	946.00	946.00	946.00	945.00	947.00	948.00	947.00	947.00	946.00	945.00	943.00	942.00	941.00	941.00	941.00	939.00	938.00	937.00	936.00	937.00	937.00	937.00	937.00	936.00	937.00	937.00	937.00	937.00	937.00	937.00	936.00	935.00	933.00	930.00	928.00	927.00	925.00	924.00	924.00	923.00	923.00	922.00	921.00	920.00	919.00	918.00	915.00	915.00	914.00	913.00	912.00	912.00	914.00	912.00	909.00	904.00	900.00	898.00	895.00	890.00	888.00	888.00	888.00	887.00	889.00	891.00	892.00	893.00	893.00	891.00	890.00	889.00	889.00	890.00	891.00	892.00	892.00	893.00	894.00	895.00	895.00	896.00	895.00	895.00	894.00	893.00	893.00	892.00	891.00	890.00	890.00	880.00	866.00	852.00	839.00	829.00	825.00	824.00	815.00	810.00	816.00	847.00	854.00	874.00	876.00	876.00	876.00	875.00	875.00	875.00	875.00	877.00	876.00	876.00	874.00	871.00	866.00	865.00	864.00	865.00	870.00	865.00	875.00	876.00	876.00	877.00	877.00	876.00	875.00	875.00	874.00	873.00	871.00	871.00	871.00	871.00	870.00	870.00	870.00	870.00	869.00	870.00	870.00	870.00	869.00	869.00	868.00	868.00	867.00	868.00	868.00	867.00	866.00	866.00	865.00	865.00	861.00	853.00	816.00	801.00	798.00	804.00	830.00	862.00	862.00	863.00	862.00	856.00	850.00	847.00	850.00	854.00	856.00	855.00	857.00	859.00	861.00	864.00	863.00	864.00	866.00	868.00	869.00	870.00	872.00	872.00	868.00	867.00	867.00	862.00	861.00	862.00	862.00
928.00	931.00	933.00	936.00	937.00	939.00	943.00	945.00	945.00	945.00	947.00	947.00	946.00	944.00	943.00	943.00	942.00	944.00	943.00	944.00	942.00	941.00	939.00	938.00	926.00	917.00	914.00	917.00	943.00	943.00	942.00	940.00	940.00	942.00	941.00	940.00	942.00	942.00	941.00	941.00	942.00	944.00	945.00	946.00	950.00	954.00	958.00	958.00	957.00	957.00	957.00	956.00	955.00	955.00	954.00	953.00	953.00	951.00	950.00	950.00	948.00	948.00	949.00	948.00	947.00	946.00	945.00	945.00	944.00	945.00	944.00	944.00	944.00	943.00	941.00	942.00	943.00	943.00	943.00	942.00	940.00	939.00	937.00	937.00	936.00	935.00	935.00	936.00	936.00	936.00	935.00	934.00	934.00	935.00	935.00	934.00	933.00	932.00	931.00	930.00	927.00	925.00	924.00	921.00	920.00	919.00	919.00	919.00	919.00	920.00	918.00	916.00	915.00	915.00	914.00	911.00	911.00	910.00	907.00	904.00	902.00	900.00	894.00	894.00	892.00	892.00	891.00	894.00	895.00	895.00	896.00	896.00	895.00	895.00	895.00	895.00	894.00	894.00	893.00	894.00	896.00	896.00	896.00	897.00	898.00	898.00	898.00	898.00	898.00	896.00	895.00	894.00	894.00	894.00	893.00	891.00	886.00	883.00	886.00	887.00	886.00	886.00	884.00	848.00	814.00	808.00	814.00	837.00	847.00	851.00	866.00	862.00	854.00	833.00	841.00	823.00	805.00	803.00	803.00	805.00	807.00	813.00	811.00	813.00	811.00	821.00	836.00	856.00	871.00	877.00	879.00	878.00	878.00	878.00	875.00	874.00	874.00	873.00	872.00	850.00	847.00	836.00	830.00	827.00	826.00	823.00	830.00	835.00	848.00	852.00	855.00	856.00	847.00	846.00	846.00	832.00	819.00	804.00	804.00	805.00	809.00	829.00	846.00	857.00	863.00	865.00	867.00	865.00	864.00	863.00	849.00	853.00	863.00	865.00	865.00	860.00	860.00	864.00	864.00	866.00	870.00	871.00	870.00	871.00	873.00	874.00	874.00	875.00	874.00	874.00	872.00	871.00	869.00	868.00	867.00	866.00
928.00	931.00	933.00	936.00	937.00	939.00	943.00	945.00	945.00	945.00	947.00	947.00	946.00	944.00	943.00	943.00	942.00	944.00	943.00	944.00	942.00	941.00	939.00	938.00	926.00	917.00	914.00	917.00	943.00	943.00	942.00	940.00	940.00	942.00	941.00	940.00	942.00	942.00	941.00	941.00	942.00	944.00	945.00	946.00	950.00	954.00	958.00	958.00	957.00	957.00	957.00	956.00	955.00	955.00	954.00	953.00	953.00	951.00	950.00	950.00	948.00	948.00	949.00	948.00	947.00	946.00	945.00	945.00	944.00	945.00	944.00	944.00	944.00	943.00	941.00	942.00	943.00	943.00	943.00	942.00	940.00	939.00	937.00	937.00	936.00	935.00	935.00	936.00	936.00	936.00	935.00	934.00	934.00	935.00	935.00	934.00	933.00	932.00	931.00	930.00	927.00	925.00	924.00	921.00	920.00	919.00	919.00	919.00	919.00	920.00	918.00	916.00	915.00	915.00	914.00	911.00	911.00	910.00	907.00	904.00	902.00	900.00	894.00	894.00	892.00	892.00	891.00	894.00	895.00	895.00	896.00	896.00	895.00	895.00	895.00	895.00	894.00	894.00	893.00	894.00	896.00	896.00	896.00	897.00	898.00	898.00	898.00	898.00	898.00	896.00	895.00	894.00	894.00	894.00	893.00	891.00	886.00	883.00	886.00	887.00	886.00	886.00	884.00	848.00	814.00	808.00	814.00	837.00	847.00	851.00	866.00	862.00	854.00	833.00	841.00	823.00	805.00	803.00	803.00	805.00	807.00	813.00	811.00	813.00	811.00	821.00	836.00	856.00	871.00	877.00	879.00	878.00	878.00	878.00	875.00	874.00	874.00	873.00	872.00	850.00	847.00	836.00	830.00	827.00	826.00	823.00	830.00	835.00	848.00	852.00	855.00	856.00	847.00	846.00	846.00	832.00	819.00	804.00	804.00	805.00	809.00	829.00	846.00	857.00	863.00	865.00	867.00	865.00	864.00	863.00	849.00	853.00	863.00	865.00	865.00	860.00	860.00	864.00	864.00	866.00	870.00	871.00	870.00	871.00	873.00	874.00	874.00	875.00	874.00	874.00	872.00	871.00	869.00	868.00	867.00	866.00
931.00	935.00	938.00	940.00	941.00	940.00	940.00	939.00	938.00	939.00	941.00	943.00	942.00	939.00	938.00	941.00	945.00	944.00	943.00	945.00	945.00	944.00	942.00	942.00	943.00	942.00	929.00	913.00	935.00	947.00	947.00	945.00	942.00	942.00	939.00	938.00	937.00	944.00	940.00	940.00	942.00	944.00	946.00	948.00	951.00	952.00	954.00	954.00	954.00	955.00	958.00	957.00	959.00	959.00	957.00	954.00	953.00	953.00	952.00	952.00	950.00	951.00	951.00	950.00	949.00	948.00	947.00	946.00	946.00	945.00	945.00	944.00	944.00	941.00	941.00	941.00	942.00	942.00	941.00	941.00	939.00	939.00	938.00	937.00	935.00	933.00	932.00	933.00	933.00	934.00	934.00	933.00	932.00	933.00	933.00	933.00	933.00	933.00	932.00	930.00	928.00	926.00	926.00	924.00	922.00	922.00	921.00	920.00	920.00	920.00	920.00	917.00	917.00	913.00	912.00	911.00	910.00	908.00	904.00	901.00	901.00	898.00	896.00	895.00	896.00	895.00	894.00	897.00	899.00	899.00	899.00	897.00	897.00	896.00	895.00	895.00	896.00	895.00	895.00	895.00	896.00	897.00	897.00	898.00	899.00	898.00	898.00	898.00	899.00	898.00	897.00	897.00	896.00	895.00	894.00	893.00	893.00	892.00	891.00	892.00	891.00	890.00	888.00	875.00	856.00	824.00	812.00	809.00	812.00	816.00	827.00	824.00	814.00	809.00	803.00	803.00	804.00	813.00	833.00	849.00	862.00	868.00	862.00	868.00	867.00	820.00	814.00	816.00	825.00	843.00	876.00	878.00	877.00	879.00	877.00	873.00	860.00	850.00	834.00	819.00	821.00	823.00	824.00	823.00	822.00	822.00	819.00	817.00	812.00	812.00	812.00	813.00	811.00	810.00	812.00	813.00	817.00	848.00	855.00	859.00	855.00	862.00	864.00	866.00	861.00	861.00	863.00	864.00	865.00	862.00	854.00	862.00	864.00	865.00	864.00	862.00	864.00	867.00	869.00	870.00	872.00	872.00	873.00	874.00	875.00	876.00	876.00	875.00	877.00	876.00	875.00	873.00	871.00	868.00	867.00	867.00
