861.00	833.00	810.00	797.00	791.00	802.00	813.00	802.00	812.00	820.00	787.00	781.00	774.00	763.00	701.00	687.00	687.00	672.00	674.00	684.00	661.00	651.00	635.00	628.00	613.00	597.00	591.00	584.00	573.00	562.00	561.00	577.00	584.00	595.00	610.00	607.00	600.00	609.00	622.00	665.00	713.00	673.00	654.00	650.00	640.00	605.00	618.00	650.00	672.00	700.00	689.00	670.00	610.00	594.00	586.00	583.00	561.00	577.00	597.00	611.00	648.00	664.00	694.00	718.00	728.00	740.00	742.00	738.00	758.00	762.00	748.00	759.00	812.00	824.00	813.00	818.00	830.00	832.00	829.00	803.00	776.00	767.00	761.00	775.00	756.00	749.00	799.00	815.00	829.00	839.00	841.00	842.00	839.00	835.00	795.00	824.00	828.00	820.00	793.00	813.00	802.00	798.00	814.00	820.00	790.00	819.00	839.00	856.00	834.00	829.00	825.00	818.00	807.00	773.00	756.00	773.00	791.00	776.00	765.00	759.00	734.00	732.00	723.00	686.00	656.00	631.00	627.00	629.00	628.00	615.00	595.00	565.00	571.00	575.00	570.00	582.00	589.00	608.00	634.00	638.00	626.00	644.00	640.00	612.00	570.00	606.00	726.00	754.00	761.00	755.00	754.00	749.00	733.00	756.00	772.00	774.00	770.00	788.00	795.00	789.00	775.00	764.00	755.00	736.00	749.00	771.00	778.00	770.00	784.00	782.00	772.00	745.00	706.00	692.00	694.00	681.00	687.00	665.00	582.00	563.00	567.00	581.00	604.00	616.00	596.00	591.00	572.00	551.00	575.00	638.00	653.00	678.00	718.00	761.00	770.00	769.00	771.00	774.00	786.00	802.00	805.00	801.00	789.00	811.00	825.00	831.00	841.00	851.00	850.00	844.00	837.00	831.00	822.00	816.00	806.00	804.00	810.00	790.00	758.00	694.00	633.00	655.00	674.00	689.00	687.00	696.00	698.00	674.00	656.00	628.00	703.00	738.00	762.00	772.00	778.00	779.00	783.00	759.00	746.00	733.00	723.00	726.00	728.00	739.00	753.00	752.00	744.00	710.00	705.00	709.00	721.00	698.00	711.00	717.00	718.00	719.00
845.00	849.00	822.00	802.00	815.00	829.00	835.00	833.00	827.00	818.00	744.00	697.00	696.00	686.00	666.00	655.00	644.00	645.00	641.00	638.00	624.00	632.00	620.00	609.00	614.00	606.00	597.00	595.00	591.00	582.00	569.00	567.00	578.00	583.00	594.00	579.00	587.00	617.00	655.00	641.00	643.00	722.00	720.00	701.00	673.00	608.00	591.00	599.00	623.00	644.00	700.00	701.00	662.00	617.00	576.00	559.00	552.00	572.00	590.00	610.00	647.00	673.00	688.00	709.00	715.00	695.00	687.00	680.00	723.00	760.00	795.00	809.00	810.00	844.00	848.00	849.00	858.00	859.00	852.00	826.00	794.00	817.00	820.00	794.00	777.00	761.00	794.00	804.00	806.00	806.00	818.00	843.00	851.00	840.00	809.00	845.00	848.00	834.00	807.00	834.00	838.00	838.00	841.00	848.00	825.00	840.00	850.00	853.00	842.00	833.00	818.00	795.00	782.00	763.00	776.00	811.00	827.00	793.00	768.00	750.00	748.00	777.00	759.00	734.00	692.00	650.00	658.00	654.00	638.00	621.00	603.00	599.00	584.00	578.00	586.00	547.00	553.00	566.00	585.00	598.00	597.00	624.00	631.00	616.00	565.00	575.00	600.00	627.00	642.00	671.00	702.00	724.00	720.00	748.00	752.00	744.00	748.00	763.00	782.00	782.00	788.00	793.00	767.00	746.00	745.00	770.00	769.00	768.00	782.00	797.00	797.00	746.00	742.00	752.00	730.00	714.00	700.00	689.00	581.00	568.00	560.00	567.00	591.00	597.00	565.00	560.00	554.00	542.00	557.00	567.00	576.00	582.00	670.00	715.00	719.00	727.00	729.00	731.00	753.00	774.00	776.00	770.00	804.00	815.00	827.00	840.00	842.00	842.00	836.00	828.00	826.00	821.00	818.00	803.00	776.00	758.00	734.00	736.00	709.00	674.00	649.00	627.00	626.00	639.00	665.00	652.00	655.00	653.00	630.00	637.00	691.00	708.00	730.00	735.00	755.00	773.00	777.00	765.00	740.00	755.00	772.00	762.00	740.00	748.00	759.00	738.00	725.00	731.00	739.00	726.00	725.00	709.00	728.00	739.00	728.00	742.00
828.00	848.00	832.00	813.00	816.00	837.00	825.00	818.00	814.00	802.00	756.00	693.00	671.00	662.00	649.00	641.00	638.00	633.00	627.00	624.00	615.00	622.00	621.00	600.00	601.00	596.00	592.00	591.00	576.00	572.00	566.00	567.00	572.00	566.00	578.00	573.00	588.00	634.00	656.00	633.00	617.00	718.00	702.00	686.00	660.00	612.00	594.00	586.00	596.00	607.00	685.00	697.00	663.00	618.00	566.00	552.00	561.00	573.00	580.00	602.00	616.00	643.00	680.00	706.00	711.00	691.00	667.00	669.00	707.00	739.00	785.00	812.00	819.00	848.00	856.00	860.00	862.00	872.00	859.00	830.00	812.00	841.00	840.00	814.00	800.00	780.00	774.00	780.00	776.00	783.00	820.00	847.00	844.00	829.00	824.00	854.00	862.00	850.00	819.00	839.00	844.00	850.00	858.00	864.00	842.00	851.00	857.00	852.00	842.00	834.00	820.00	802.00	782.00	770.00	787.00	829.00	832.00	779.00	769.00	773.00	755.00	773.00	776.00	764.00	732.00	682.00	674.00	659.00	636.00	616.00	616.00	620.00	611.00	606.00	602.00	572.00	559.00	555.00	561.00	569.00	584.00	609.00	617.00	620.00	564.00	563.00	611.00	641.00	663.00	690.00	705.00	709.00	710.00	723.00	732.00	746.00	761.00	747.00	769.00	758.00	773.00	785.00	768.00	750.00	734.00	753.00	747.00	774.00	784.00	796.00	800.00	765.00	767.00	755.00	727.00	709.00	685.00	670.00	612.00	600.00	565.00	561.00	571.00	592.00	570.00	559.00	548.00	542.00	573.00	582.00	589.00	621.00	702.00	740.00	739.00	750.00	749.00	738.00	746.00	753.00	762.00	780.00	806.00	815.00	826.00	833.00	830.00	835.00	825.00	811.00	815.00	813.00	809.00	800.00	784.00	767.00	698.00	672.00	659.00	648.00	641.00	634.00	616.00	642.00	675.00	657.00	635.00	651.00	626.00	635.00	692.00	712.00	693.00	692.00	737.00	759.00	773.00	774.00	759.00	755.00	778.00	756.00	731.00	762.00	766.00	738.00	742.00	745.00	742.00	718.00	714.00	711.00	716.00	740.00	742.00	747.00
797.00	838.00	828.00	830.00	842.00	833.00	815.00	789.00	770.00	760.00	724.00	708.00	718.00	719.00	674.00	667.00	668.00	654.00	644.00	624.00	603.00	594.00	602.00	587.00	583.00	584.00	587.00	585.00	578.00	582.00	588.00	559.00	559.00	556.00	557.00	569.00	580.00	652.00	625.00	599.00	588.00	663.00	700.00	686.00	664.00	629.00	625.00	601.00	582.00	577.00	636.00	668.00	635.00	605.00	563.00	552.00	575.00	612.00	605.00	628.00	653.00	648.00	669.00	690.00	675.00	652.00	633.00	641.00	677.00	689.00	722.00	781.00	818.00	821.00	839.00	844.00	842.00	848.00	853.00	857.00	862.00	866.00	855.00	816.00	792.00	777.00	788.00	777.00	815.00	824.00	843.00	847.00	847.00	839.00	834.00	863.00	875.00	864.00	853.00	862.00	869.00	869.00	870.00	871.00	857.00	854.00	850.00	845.00	829.00	817.00	804.00	787.00	782.00	812.00	806.00	829.00	842.00	819.00	821.00	815.00	799.00	780.00	806.00	795.00	789.00	752.00	654.00	636.00	631.00	635.00	650.00	649.00	633.00	617.00	601.00	606.00	604.00	599.00	588.00	577.00	553.00	577.00	600.00	617.00	585.00	561.00	600.00	632.00	685.00	693.00	713.00	713.00	693.00	731.00	748.00	766.00	756.00	744.00	728.00	748.00	770.00	771.00	745.00	735.00	729.00	752.00	759.00	790.00	778.00	758.00	763.00	761.00	755.00	737.00	715.00	720.00	715.00	708.00	685.00	642.00	572.00	561.00	551.00	561.00	582.00	559.00	542.00	552.00	559.00	586.00	623.00	690.00	716.00	755.00	767.00	775.00	779.00	779.00	790.00	782.00	791.00	796.00	827.00	829.00	820.00	819.00	796.00	818.00	814.00	776.00	781.00	780.00	777.00	782.00	783.00	774.00	746.00	752.00	726.00	692.00	654.00	640.00	617.00	626.00	659.00	647.00	619.00	604.00	600.00	633.00	644.00	643.00	648.00	653.00	686.00	692.00	710.00	722.00	774.00	781.00	789.00	764.00	737.00	779.00	788.00	773.00	776.00	770.00	766.00	747.00	735.00	712.00	702.00	725.00	722.00	725.00
768.00	841.00	844.00	848.00	848.00	824.00	815.00	794.00	772.00	758.00	754.00	754.00	760.00	743.00	695.00	674.00	663.00	661.00	650.00	636.00	613.00	600.00	588.00	593.00	594.00	597.00	604.00	601.00	591.00	594.00	602.00	571.00	566.00	557.00	557.00	568.00	574.00	621.00	601.00	580.00	582.00	681.00	706.00	705.00	700.00	649.00	630.00	612.00	589.00	575.00	610.00	641.00	626.00	590.00	556.00	554.00	579.00	623.00	651.00	679.00	681.00	676.00	688.00	686.00	672.00	641.00	613.00	643.00	680.00	693.00	715.00	761.00	789.00	787.00	820.00	830.00	832.00	831.00	840.00	850.00	862.00	871.00	856.00	820.00	794.00	795.00	795.00	780.00	809.00	820.00	851.00	853.00	856.00	843.00	837.00	863.00	877.00	877.00	871.00	868.00	872.00	874.00	872.00	863.00	854.00	845.00	841.00	838.00	826.00	811.00	795.00	780.00	789.00	822.00	823.00	834.00	844.00	841.00	846.00	835.00	814.00	802.00	818.00	804.00	788.00	745.00	658.00	648.00	651.00	651.00	661.00	636.00	617.00	595.00	585.00	616.00	626.00	616.00	600.00	581.00	551.00	567.00	591.00	612.00	587.00	561.00	600.00	637.00	662.00	657.00	684.00	677.00	633.00	701.00	732.00	757.00	747.00	728.00	743.00	765.00	772.00	770.00	754.00	735.00	727.00	756.00	771.00	792.00	775.00	753.00	736.00	743.00	751.00	743.00	729.00	733.00	723.00	706.00	676.00	649.00	597.00	573.00	556.00	554.00	571.00	550.00	540.00	555.00	578.00	573.00	581.00	603.00	643.00	733.00	754.00	766.00	780.00	783.00	797.00	781.00	783.00	789.00	818.00	823.00	812.00	807.00	783.00	808.00	810.00	789.00	777.00	762.00	760.00	760.00	759.00	754.00	736.00	731.00	700.00	657.00	642.00	635.00	617.00	619.00	639.00	638.00	617.00	595.00	601.00	641.00	667.00	657.00	666.00	669.00	667.00	677.00	684.00	695.00	739.00	780.00	791.00	763.00	741.00	797.00	802.00	794.00	775.00	744.00	746.00	732.00	717.00	728.00	704.00	711.00	717.00	715.00
787.00	809.00	831.00	848.00	829.00	798.00	782.00	782.00	791.00	783.00	782.00	773.00	778.00	757.00	704.00	696.00	673.00	654.00	636.00	620.00	604.00	604.00	603.00	616.00	610.00	616.00	626.00	615.00	621.00	609.00	596.00	577.00	581.00	569.00	564.00	554.00	555.00	570.00	577.00	569.00	570.00	671.00	668.00	672.00	685.00	685.00	654.00	631.00	627.00	593.00	570.00	585.00	644.00	615.00	556.00	548.00	572.00	583.00	600.00	657.00	683.00	700.00	680.00	678.00	651.00	615.00	605.00	637.00	677.00	707.00	727.00	718.00	759.00	790.00	798.00	795.00	800.00	809.00	830.00	841.00	849.00	867.00	857.00	823.00	816.00	828.00	806.00	800.00	789.00	806.00	847.00	858.00	853.00	833.00	860.00	884.00	889.00	895.00	878.00	855.00	851.00	847.00	841.00	831.00	816.00	817.00	818.00	814.00	803.00	794.00	783.00	803.00	816.00	817.00	837.00	847.00	849.00	867.00	870.00	856.00	843.00	835.00	792.00	773.00	784.00	749.00	695.00	743.00	697.00	671.00	654.00	612.00	615.00	609.00	603.00	635.00	639.00	625.00	610.00	596.00	555.00	543.00	570.00	592.00	568.00	559.00	611.00	647.00	657.00	597.00	588.00	583.00	571.00	653.00	709.00	719.00	727.00	713.00	745.00	756.00	765.00	764.00	740.00	727.00	725.00	745.00	750.00	792.00	784.00	771.00	758.00	718.00	737.00	738.00	729.00	712.00	711.00	694.00	691.00	691.00	658.00	599.00	567.00	552.00	565.00	550.00	544.00	556.00	642.00	656.00	680.00	623.00	598.00	609.00	647.00	694.00	731.00	751.00	787.00	763.00	743.00	752.00	807.00	828.00	822.00	790.00	771.00	773.00	780.00	813.00	814.00	793.00	785.00	777.00	776.00	776.00	773.00	773.00	758.00	689.00	651.00	631.00	626.00	615.00	601.00	599.00	590.00	594.00	607.00	700.00	746.00	748.00	746.00	780.00	755.00	743.00	712.00	720.00	779.00	791.00	765.00	751.00	753.00	776.00	803.00	801.00	778.00	746.00	755.00	745.00	754.00	725.00	733.00	709.00	719.00	731.00
776.00	828.00	836.00	840.00	822.00	826.00	806.00	802.00	813.00	792.00	782.00	771.00	771.00	747.00	681.00	675.00	656.00	646.00	636.00	615.00	616.00	618.00	613.00	632.00	624.00	622.00	638.00	644.00	630.00	608.00	596.00	586.00	581.00	577.00	573.00	565.00	557.00	557.00	566.00	564.00	569.00	637.00	636.00	640.00	663.00	720.00	687.00	655.00	650.00	608.00	564.00	572.00	623.00	619.00	556.00	550.00	561.00	574.00	585.00	652.00	677.00	686.00	656.00	659.00	632.00	611.00	603.00	645.00	690.00	700.00	698.00	681.00	763.00	785.00	783.00	791.00	795.00	823.00	836.00	844.00	847.00	852.00	854.00	851.00	847.00	843.00	834.00	811.00	806.00	816.00	839.00	853.00	856.00	846.00	865.00	883.00	886.00	884.00	866.00	838.00	830.00	828.00	825.00	823.00	818.00	812.00	806.00	800.00	789.00	781.00	797.00	826.00	835.00	834.00	842.00	863.00	862.00	872.00	876.00	864.00	849.00	837.00	797.00	798.00	805.00	767.00	752.00	756.00	726.00	669.00	639.00	617.00	620.00	611.00	613.00	650.00	647.00	628.00	615.00	600.00	562.00	542.00	564.00	583.00	569.00	557.00	595.00	616.00	626.00	595.00	574.00	563.00	570.00	616.00	667.00	692.00	710.00	712.00	735.00	754.00	770.00	765.00	734.00	720.00	725.00	737.00	752.00	788.00	783.00	764.00	742.00	713.00	713.00	716.00	711.00	697.00	707.00	697.00	674.00	675.00	671.00	628.00	573.00	552.00	559.00	552.00	540.00	550.00	633.00	735.00	717.00	698.00	683.00	686.00	686.00	696.00	702.00	713.00	780.00	757.00	736.00	765.00	807.00	815.00	811.00	785.00	767.00	751.00	771.00	813.00	813.00	795.00	792.00	781.00	774.00	775.00	779.00	789.00	776.00	759.00	679.00	648.00	646.00	634.00	614.00	586.00	588.00	601.00	613.00	695.00	751.00	751.00	773.00	751.00	777.00	769.00	736.00	733.00	792.00	790.00	777.00	766.00	764.00	791.00	799.00	792.00	773.00	777.00	780.00	772.00	769.00	735.00	737.00	712.00	721.00	746.00
797.00	851.00	855.00	841.00	839.00	846.00	833.00	828.00	819.00	794.00	768.00	749.00	746.00	735.00	676.00	663.00	649.00	640.00	629.00	618.00	633.00	634.00	629.00	651.00	640.00	630.00	642.00	667.00	648.00	620.00	607.00	597.00	582.00	588.00	580.00	577.00	577.00	549.00	555.00	556.00	563.00	608.00	611.00	623.00	654.00	704.00	702.00	682.00	666.00	627.00	572.00	562.00	599.00	609.00	557.00	547.00	567.00	594.00	610.00	653.00	655.00	665.00	637.00	641.00	612.00	592.00	610.00	646.00	676.00	664.00	661.00	698.00	762.00	771.00	782.00	795.00	811.00	836.00	845.00	851.00	844.00	843.00	851.00	862.00	858.00	849.00	848.00	832.00	837.00	845.00	846.00	861.00	869.00	865.00	867.00	880.00	877.00	870.00	856.00	837.00	843.00	841.00	829.00	833.00	835.00	834.00	831.00	823.00	801.00	783.00	813.00	837.00	848.00	851.00	853.00	878.00	876.00	874.00	874.00	868.00	852.00	837.00	822.00	822.00	819.00	796.00	790.00	773.00	726.00	664.00	631.00	631.00	628.00	630.00	629.00	681.00	677.00	644.00	624.00	602.00	562.00	544.00	544.00	561.00	571.00	558.00	572.00	589.00	608.00	589.00	569.00	556.00	569.00	599.00	623.00	657.00	680.00	723.00	747.00	759.00	773.00	762.00	731.00	719.00	736.00	751.00	761.00	787.00	781.00	761.00	745.00	729.00	714.00	708.00	700.00	684.00	701.00	702.00	681.00	662.00	651.00	632.00	578.00	553.00	543.00	542.00	539.00	547.00	633.00	739.00	730.00	717.00	715.00	721.00	716.00	720.00	729.00	730.00	764.00	740.00	742.00	778.00	810.00	813.00	800.00	780.00	762.00	742.00	779.00	802.00	803.00	781.00	782.00	773.00	756.00	758.00	769.00	783.00	780.00	763.00	658.00	646.00	646.00	644.00	627.00	585.00	591.00	610.00	623.00	692.00	710.00	695.00	709.00	695.00	771.00	778.00	767.00	760.00	803.00	799.00	797.00	783.00	778.00	806.00	807.00	804.00	802.00	794.00	785.00	778.00	776.00	753.00	736.00	714.00	718.00	742.00
790.00	851.00	863.00	861.00	862.00	864.00	842.00	823.00	812.00	805.00	778.00	759.00	730.00	706.00	707.00	684.00	670.00	651.00	638.00	624.00	649.00	661.00	647.00	658.00	657.00	651.00	670.00	686.00	656.00	632.00	618.00	612.00	590.00	595.00	584.00	587.00	591.00	557.00	546.00	550.00	558.00	589.00	591.00	616.00	646.00	698.00	696.00	677.00	658.00	647.00	582.00	572.00	576.00	587.00	562.00	552.00	561.00	580.00	618.00	637.00	617.00	644.00	622.00	606.00	591.00	582.00	600.00	629.00	634.00	648.00	688.00	739.00	756.00	779.00	798.00	814.00	822.00	847.00	859.00	856.00	841.00	834.00	846.00	863.00	856.00	849.00	856.00	857.00	861.00	859.00	859.00	866.00	876.00	876.00	872.00	885.00	880.00	867.00	851.00	859.00	865.00	859.00	843.00	844.00	847.00	848.00	844.00	834.00	803.00	788.00	821.00	844.00	857.00	865.00	866.00	886.00	889.00	873.00	866.00	863.00	855.00	841.00	831.00	823.00	820.00	813.00	797.00	776.00	734.00	665.00	636.00	663.00	676.00	676.00	668.00	729.00	718.00	685.00	616.00	592.00	565.00	560.00	550.00	543.00	557.00	555.00	561.00	583.00	605.00	580.00	562.00	556.00	570.00	606.00	599.00	600.00	626.00	700.00	747.00	757.00	763.00	752.00	720.00	713.00	737.00	751.00	755.00	781.00	778.00	774.00	768.00	748.00	737.00	730.00	720.00	698.00	682.00	689.00	684.00	669.00	651.00	638.00	596.00	563.00	544.00	540.00	536.00	543.00	606.00	705.00	703.00	695.00	700.00	705.00	710.00	733.00	753.00	761.00	747.00	730.00	758.00	783.00	819.00	819.00	796.00	770.00	753.00	743.00	777.00	785.00	790.00	756.00	766.00	767.00	757.00	742.00	754.00	769.00	775.00	754.00	641.00	623.00	621.00	640.00	626.00	583.00	591.00	609.00	616.00	665.00	661.00	670.00	663.00	664.00	747.00	785.00	797.00	792.00	786.00	788.00	805.00	802.00	802.00	806.00	812.00	816.00	816.00	781.00	764.00	754.00	762.00	749.00	719.00	714.00	714.00	722.00
743.00	794.00	834.00	868.00	886.00	889.00	878.00	855.00	829.00	842.00	807.00	794.00	773.00	741.00	679.00	665.00	660.00	648.00	641.00	639.00	661.00	674.00	684.00	658.00	676.00	702.00	719.00	706.00	666.00	661.00	650.00	624.00	627.00	619.00	603.00	606.00	603.00	581.00	558.00	547.00	549.00	576.00	601.00	600.00	592.00	654.00	689.00	689.00	666.00	633.00	582.00	570.00	570.00	563.00	571.00	548.00	550.00	581.00	606.00	597.00	578.00	584.00	567.00	573.00	578.00	581.00	583.00	592.00	651.00	671.00	704.00	731.00	764.00	791.00	801.00	799.00	803.00	840.00	850.00	845.00	828.00	826.00	845.00	849.00	843.00	844.00	868.00	869.00	862.00	864.00	874.00	875.00	881.00	890.00	892.00	899.00	891.00	878.00	870.00	899.00	895.00	882.00	866.00	860.00	854.00	851.00	833.00	810.00	800.00	798.00	826.00	842.00	859.00	878.00	877.00	862.00	859.00	850.00	843.00	840.00	835.00	827.00	811.00	793.00	797.00	799.00	777.00	760.00	747.00	734.00	739.00	733.00	750.00	762.00	761.00	769.00	752.00	720.00	658.00	614.00	623.00	602.00	582.00	571.00	566.00	553.00	563.00	563.00	570.00	565.00	547.00	556.00	581.00	584.00	569.00	565.00	574.00	670.00	731.00	744.00	743.00	734.00	697.00	691.00	715.00	727.00	739.00	767.00	759.00	776.00	785.00	758.00	740.00	718.00	706.00	689.00	675.00	663.00	677.00	685.00	679.00	674.00	661.00	635.00	592.00	559.00	536.00	541.00	566.00	625.00	695.00	718.00	736.00	736.00	737.00	745.00	756.00	762.00	721.00	752.00	777.00	790.00	788.00	784.00	782.00	777.00	771.00	725.00	735.00	752.00	769.00	749.00	725.00	725.00	750.00	742.00	725.00	739.00	728.00	718.00	619.00	608.00	598.00	590.00	590.00	586.00	587.00	589.00	592.00	608.00	620.00	620.00	628.00	648.00	709.00	765.00	770.00	753.00	704.00	745.00	763.00	795.00	813.00	797.00	780.00	786.00	787.00	771.00	763.00	755.00	731.00	731.00	746.00	754.00	743.00	723.00
732.00	786.00	816.00	835.00	875.00	898.00	886.00	861.00	852.00	857.00	823.00	811.00	791.00	778.00	712.00	676.00	655.00	651.00	655.00	650.00	679.00	689.00	696.00	680.00	696.00	719.00	712.00	690.00	643.00	635.00	626.00	629.00	621.00	614.00	600.00	592.00	599.00	571.00	558.00	550.00	548.00	585.00	584.00	581.00	579.00	630.00	676.00	679.00	653.00	632.00	592.00	578.00	592.00	573.00	552.00	539.00	550.00	582.00	584.00	578.00	566.00	560.00	570.00	595.00	609.00	602.00	600.00	601.00	614.00	645.00	669.00	681.00	747.00	766.00	779.00	779.00	800.00	827.00	832.00	833.00	819.00	819.00	836.00	840.00	835.00	845.00	864.00	860.00	855.00	860.00	871.00	871.00	875.00	887.00	900.00	902.00	899.00	895.00	894.00	906.00	905.00	893.00	878.00	872.00	839.00	826.00	817.00	821.00	815.00	799.00	818.00	840.00	854.00	879.00	882.00	854.00	846.00	840.00	832.00	817.00	814.00	812.00	801.00	783.00	779.00	777.00	749.00	745.00	744.00	758.00	767.00	746.00	753.00	779.00	784.00	764.00	748.00	722.00	705.00	667.00	641.00	603.00	595.00	591.00	579.00	561.00	550.00	550.00	549.00	549.00	544.00	552.00	564.00	568.00	558.00	562.00	595.00	677.00	731.00	738.00	735.00	723.00	631.00	607.00	677.00	710.00	732.00	748.00	740.00	762.00	771.00	750.00	730.00	721.00	713.00	712.00	697.00	675.00	657.00	671.00	672.00	674.00	671.00	658.00	620.00	558.00	534.00	537.00	551.00	619.00	692.00	714.00	735.00	746.00	757.00	759.00	760.00	756.00	722.00	753.00	774.00	786.00	774.00	772.00	777.00	778.00	772.00	732.00	716.00	739.00	744.00	745.00	716.00	688.00	723.00	744.00	725.00	706.00	668.00	640.00	632.00	616.00	605.00	584.00	584.00	601.00	601.00	594.00	598.00	601.00	612.00	618.00	623.00	637.00	672.00	729.00	724.00	727.00	696.00	741.00	760.00	802.00	815.00	805.00	791.00	765.00	758.00	762.00	759.00	747.00	727.00	757.00	753.00	765.00	755.00	736.00
763.00	786.00	806.00	823.00	860.00	892.00	887.00	874.00	870.00	852.00	822.00	813.00	798.00	781.00	709.00	671.00	665.00	674.00	687.00	656.00	670.00	687.00	707.00	717.00	727.00	720.00	700.00	684.00	663.00	644.00	629.00	615.00	607.00	599.00	593.00	584.00	583.00	559.00	562.00	561.00	546.00	575.00	571.00	571.00	576.00	621.00	662.00	684.00	666.00	655.00	609.00	604.00	600.00	573.00	560.00	551.00	550.00	563.00	568.00	559.00	561.00	570.00	591.00	623.00	632.00	631.00	622.00	629.00	633.00	646.00	650.00	670.00	759.00	764.00	759.00	770.00	792.00	812.00	816.00	818.00	808.00	812.00	830.00	832.00	830.00	842.00	852.00	847.00	846.00	851.00	860.00	866.00	872.00	887.00	904.00	900.00	900.00	909.00	908.00	913.00	913.00	899.00	883.00	876.00	824.00	830.00	834.00	844.00	820.00	802.00	815.00	840.00	855.00	879.00	881.00	850.00	833.00	824.00	809.00	792.00	787.00	785.00	777.00	765.00	760.00	757.00	766.00	765.00	753.00	777.00	786.00	754.00	761.00	788.00	803.00	748.00	728.00	717.00	732.00	720.00	708.00	642.00	627.00	627.00	590.00	572.00	553.00	552.00	552.00	544.00	542.00	533.00	540.00	557.00	553.00	563.00	587.00	660.00	700.00	715.00	718.00	707.00	616.00	569.00	599.00	669.00	712.00	738.00	731.00	751.00	757.00	745.00	745.00	740.00	737.00	731.00	698.00	674.00	654.00	651.00	663.00	670.00	671.00	663.00	621.00	556.00	538.00	534.00	557.00	579.00	638.00	697.00	723.00	743.00	762.00	764.00	755.00	745.00	717.00	732.00	760.00	778.00	765.00	757.00	766.00	769.00	765.00	717.00	687.00	693.00	708.00	723.00	707.00	678.00	673.00	727.00	737.00	710.00	642.00	614.00	627.00	607.00	588.00	583.00	595.00	624.00	624.00	611.00	618.00	609.00	614.00	629.00	633.00	636.00	673.00	712.00	702.00	693.00	679.00	690.00	763.00	799.00	812.00	799.00	782.00	760.00	749.00	742.00	736.00	729.00	727.00	773.00	762.00	771.00	758.00	735.00
786.00	802.00	827.00	828.00	847.00	870.00	877.00	875.00	866.00	839.00	798.00	792.00	770.00	757.00	730.00	686.00	702.00	719.00	718.00	679.00	686.00	684.00	696.00	734.00	721.00	703.00	699.00	708.00	692.00	662.00	634.00	608.00	600.00	591.00	587.00	582.00	575.00	572.00	576.00	565.00	548.00	566.00	561.00	566.00	574.00	614.00	654.00	674.00	662.00	660.00	639.00	628.00	621.00	591.00	578.00	563.00	546.00	552.00	560.00	577.00	585.00	595.00	605.00	642.00	651.00	649.00	646.00	658.00	655.00	667.00	680.00	700.00	775.00	781.00	780.00	768.00	778.00	794.00	795.00	796.00	793.00	815.00	826.00	821.00	824.00	832.00	840.00	837.00	834.00	836.00	840.00	855.00	873.00	892.00	909.00	897.00	895.00	906.00	913.00	925.00	914.00	898.00	885.00	873.00	843.00	855.00	858.00	855.00	820.00	800.00	812.00	841.00	858.00	880.00	881.00	844.00	820.00	801.00	802.00	806.00	802.00	784.00	789.00	787.00	772.00	777.00	785.00	779.00	758.00	782.00	794.00	763.00	773.00	799.00	806.00	737.00	730.00	738.00	746.00	757.00	753.00	710.00	683.00	676.00	621.00	587.00	566.00	569.00	556.00	555.00	556.00	548.00	540.00	546.00	545.00	558.00	573.00	591.00	639.00	655.00	664.00	655.00	584.00	559.00	572.00	620.00	706.00	734.00	724.00	745.00	753.00	732.00	741.00	745.00	744.00	731.00	694.00	696.00	672.00	658.00	651.00	664.00	670.00	658.00	631.00	590.00	550.00	535.00	552.00	602.00	645.00	685.00	701.00	747.00	768.00	766.00	748.00	731.00	731.00	744.00	759.00	775.00	761.00	741.00	749.00	760.00	767.00	757.00	722.00	629.00	631.00	644.00	646.00	661.00	630.00	682.00	729.00	714.00	663.00	616.00	604.00	591.00	581.00	590.00	602.00	650.00	654.00	631.00	640.00	625.00	616.00	619.00	629.00	638.00	681.00	694.00	688.00	673.00	673.00	695.00	734.00	782.00	798.00	799.00	783.00	762.00	777.00	775.00	759.00	744.00	742.00	775.00	776.00	777.00	766.00	746.00
766.00	795.00	785.00	782.00	796.00	829.00	855.00	871.00	878.00	868.00	809.00	797.00	775.00	761.00	728.00	752.00	758.00	767.00	756.00	738.00	750.00	741.00	744.00	735.00	716.00	727.00	722.00	738.00	719.00	705.00	669.00	639.00	613.00	615.00	622.00	627.00	602.00	583.00	585.00	571.00	555.00	543.00	547.00	548.00	555.00	593.00	599.00	613.00	639.00	621.00	624.00	625.00	612.00	586.00	556.00	547.00	547.00	551.00	557.00	582.00	592.00	590.00	623.00	644.00	646.00	635.00	631.00	633.00	642.00	645.00	652.00	664.00	709.00	735.00	758.00	780.00	785.00	789.00	792.00	793.00	786.00	800.00	803.00	804.00	809.00	822.00	829.00	833.00	840.00	851.00	863.00	867.00	876.00	890.00	905.00	894.00	882.00	883.00	893.00	908.00	911.00	907.00	902.00	896.00	874.00	866.00	858.00	846.00	828.00	811.00	812.00	844.00	867.00	885.00	891.00	862.00	855.00	861.00	857.00	845.00	822.00	793.00	825.00	811.00	779.00	808.00	806.00	795.00	777.00	802.00	814.00	799.00	802.00	808.00	806.00	746.00	772.00	780.00	777.00	783.00	780.00	760.00	742.00	730.00	695.00	662.00	571.00	558.00	554.00	575.00	587.00	576.00	555.00	546.00	548.00	545.00	548.00	556.00	575.00	582.00	577.00	576.00	560.00	552.00	570.00	600.00	664.00	717.00	719.00	742.00	745.00	721.00	706.00	724.00	744.00	751.00	736.00	726.00	687.00	668.00	654.00	633.00	635.00	639.00	634.00	614.00	550.00	530.00	589.00	651.00	667.00	694.00	717.00	740.00	741.00	731.00	716.00	699.00	760.00	771.00	771.00	758.00	737.00	726.00	736.00	761.00	768.00	772.00	764.00	738.00	715.00	637.00	614.00	606.00	607.00	610.00	623.00	643.00	644.00	631.00	594.00	577.00	583.00	597.00	604.00	627.00	646.00	666.00	696.00	665.00	642.00	649.00	633.00	628.00	647.00	651.00	654.00	672.00	693.00	680.00	710.00	730.00	761.00	801.00	788.00	783.00	799.00	798.00	779.00	775.00	763.00	795.00	775.00	751.00	742.00	742.00
711.00	758.00	769.00	746.00	750.00	784.00	830.00	851.00	862.00	872.00	787.00	765.00	752.00	749.00	747.00	771.00	794.00	799.00	780.00	774.00	769.00	750.00	739.00	727.00	745.00	748.00	742.00	742.00	712.00	716.00	715.00	696.00	655.00	653.00	666.00	642.00	617.00	609.00	591.00	590.00	589.00	546.00	542.00	540.00	539.00	569.00	571.00	579.00	615.00	634.00	593.00	582.00	605.00	573.00	542.00	552.00	578.00	600.00	584.00	595.00	600.00	628.00	606.00	630.00	634.00	638.00	637.00	638.00	666.00	679.00	680.00	676.00	678.00	712.00	706.00	717.00	748.00	779.00	803.00	815.00	813.00	802.00	807.00	821.00	830.00	840.00	853.00	855.00	855.00	858.00	872.00	882.00	887.00	889.00	891.00	885.00	869.00	855.00	876.00	898.00	896.00	903.00	908.00	908.00	881.00	873.00	869.00	870.00	834.00	808.00	828.00	851.00	866.00	883.00	890.00	890.00	884.00	876.00	853.00	825.00	802.00	813.00	835.00	819.00	793.00	830.00	830.00	824.00	823.00	831.00	837.00	825.00	828.00	818.00	811.00	798.00	802.00	795.00	791.00	786.00	760.00	759.00	757.00	748.00	710.00	665.00	573.00	570.00	572.00	605.00	604.00	578.00	569.00	577.00	565.00	547.00	542.00	540.00	554.00	562.00	563.00	552.00	549.00	551.00	566.00	578.00	590.00	695.00	711.00	725.00	735.00	715.00	699.00	708.00	728.00	741.00	739.00	714.00	719.00	709.00	666.00	646.00	600.00	560.00	554.00	551.00	532.00	534.00	584.00	653.00	654.00	653.00	664.00	705.00	700.00	686.00	700.00	724.00	768.00	768.00	754.00	741.00	737.00	718.00	720.00	725.00	740.00	769.00	765.00	729.00	731.00	749.00	734.00	677.00	614.00	613.00	597.00	619.00	636.00	631.00	576.00	576.00	585.00	603.00	624.00	637.00	635.00	651.00	682.00	707.00	697.00	692.00	663.00	645.00	655.00	674.00	688.00	720.00	769.00	748.00	770.00	783.00	786.00	819.00	817.00	817.00	820.00	810.00	793.00	780.00	782.00	800.00	773.00	783.00	779.00	767.00
685.00	746.00	750.00	740.00	760.00	781.00	826.00	853.00	872.00	869.00	797.00	776.00	784.00	782.00	758.00	771.00	806.00	806.00	780.00	792.00	755.00	743.00	742.00	744.00	756.00	756.00	750.00	743.00	721.00	731.00	734.00	718.00	689.00	692.00	679.00	645.00	642.00	613.00	592.00	585.00	584.00	549.00	548.00	547.00	539.00	560.00	561.00	570.00	592.00	619.00	594.00	574.00	587.00	578.00	538.00	549.00	562.00	581.00	600.00	623.00	618.00	634.00	626.00	646.00	657.00	660.00	657.00	649.00	677.00	696.00	710.00	708.00	714.00	751.00	747.00	759.00	764.00	788.00	809.00	819.00	814.00	808.00	812.00	821.00	828.00	836.00	852.00	859.00	862.00	860.00	870.00	879.00	886.00	887.00	887.00	873.00	855.00	845.00	873.00	888.00	889.00	895.00	899.00	909.00	882.00	873.00	865.00	858.00	828.00	812.00	840.00	853.00	862.00	879.00	890.00	900.00	895.00	875.00	847.00	825.00	823.00	838.00	839.00	825.00	814.00	841.00	845.00	839.00	841.00	845.00	842.00	826.00	827.00	824.00	820.00	803.00	801.00	785.00	777.00	779.00	750.00	740.00	744.00	729.00	688.00	676.00	644.00	629.00	616.00	661.00	655.00	601.00	587.00	581.00	564.00	553.00	558.00	543.00	541.00	549.00	561.00	551.00	559.00	565.00	565.00	568.00	580.00	686.00	706.00	721.00	731.00	719.00	702.00	696.00	720.00	730.00	737.00	730.00	727.00	708.00	670.00	668.00	629.00	577.00	546.00	539.00	527.00	536.00	572.00	631.00	637.00	637.00	642.00	680.00	677.00	700.00	721.00	736.00	774.00	763.00	749.00	727.00	734.00	718.00	707.00	721.00	748.00	768.00	763.00	749.00	762.00	767.00	743.00	690.00	634.00	638.00	589.00	603.00	624.00	623.00	583.00	570.00	577.00	601.00	623.00	618.00	615.00	630.00	661.00	742.00	720.00	702.00	672.00	648.00	660.00	688.00	719.00	755.00	796.00	782.00	785.00	804.00	807.00	819.00	820.00	820.00	820.00	800.00	785.00	776.00	785.00	804.00	787.00	793.00	784.00	773.00
667.00	725.00	733.00	748.00	777.00	790.00	807.00	838.00	865.00	856.00	798.00	805.00	832.00	814.00	784.00	783.00	813.00	808.00	788.00	801.00	756.00	766.00	763.00	749.00	747.00	746.00	744.00	735.00	723.00	724.00	725.00	721.00	715.00	708.00	698.00	666.00	633.00	602.00	587.00	574.00	568.00	563.00	562.00	552.00	541.00	553.00	554.00	565.00	588.00	622.00	598.00	574.00	565.00	563.00	540.00	558.00	581.00	587.00	599.00	641.00	638.00	643.00	634.00	633.00	649.00	661.00	667.00	667.00	681.00	706.00	732.00	737.00	752.00	767.00	783.00	778.00	784.00	800.00	813.00	817.00	805.00	808.00	820.00	822.00	829.00	833.00	850.00	857.00	862.00	862.00	875.00	879.00	883.00	883.00	880.00	860.00	842.00	841.00	866.00	880.00	885.00	891.00	898.00	907.00	877.00	866.00	847.00	833.00	812.00	825.00	853.00	862.00	866.00	876.00	888.00	903.00	900.00	882.00	858.00	849.00	853.00	858.00	847.00	837.00	830.00	850.00	859.00	852.00	853.00	851.00	842.00	819.00	815.00	816.00	816.00	797.00	790.00	770.00	755.00	761.00	745.00	728.00	724.00	718.00	706.00	715.00	704.00	691.00	687.00	705.00	697.00	649.00	634.00	575.00	562.00	564.00	577.00	552.00	542.00	544.00	555.00	545.00	559.00	571.00	582.00	580.00	581.00	668.00	701.00	714.00	721.00	722.00	709.00	689.00	698.00	705.00	729.00	733.00	707.00	690.00	693.00	679.00	635.00	582.00	554.00	539.00	529.00	539.00	605.00	651.00	663.00	660.00	644.00	667.00	692.00	716.00	727.00	734.00	768.00	759.00	741.00	717.00	724.00	709.00	704.00	716.00	738.00	767.00	770.00	781.00	791.00	775.00	735.00	691.00	682.00	656.00	594.00	584.00	597.00	597.00	585.00	565.00	577.00	606.00	615.00	604.00	621.00	645.00	674.00	765.00	711.00	681.00	660.00	659.00	655.00	670.00	699.00	751.00	797.00	799.00	798.00	810.00	809.00	810.00	815.00	815.00	817.00	796.00	781.00	775.00	789.00	810.00	802.00	790.00	775.00	763.00
677.00	733.00	735.00	747.00	740.00	804.00	838.00	858.00	859.00	862.00	854.00	859.00	869.00	865.00	828.00	817.00	841.00	846.00	844.00	821.00	803.00	803.00	787.00	768.00	752.00	739.00	729.00	718.00	704.00	698.00	685.00	667.00	663.00	638.00	628.00	630.00	604.00	587.00	582.00	585.00	584.00	570.00	570.00	562.00	547.00	539.00	548.00	555.00	569.00	596.00	597.00	571.00	539.00	538.00	557.00	569.00	569.00	585.00	625.00	656.00	654.00	653.00	656.00	659.00	648.00	638.00	637.00	642.00	666.00	693.00	722.00	741.00	780.00	786.00	792.00	795.00	798.00	814.00	815.00	805.00	789.00	798.00	807.00	819.00	828.00	841.00	839.00	835.00	834.00	821.00	849.00	874.00	877.00	877.00	878.00	858.00	842.00	831.00	846.00	883.00	893.00	902.00	905.00	903.00	852.00	847.00	853.00	859.00	837.00	831.00	862.00	887.00	883.00	897.00	903.00	895.00	887.00	875.00	872.00	874.00	878.00	880.00	872.00	861.00	854.00	855.00	865.00	852.00	837.00	827.00	820.00	806.00	783.00	773.00	788.00	781.00	770.00	762.00	753.00	741.00	722.00	732.00	738.00	734.00	745.00	755.00	728.00	720.00	740.00	732.00	731.00	720.00	704.00	644.00	598.00	592.00	603.00	582.00	550.00	543.00	542.00	538.00	538.00	545.00	560.00	565.00	576.00	593.00	607.00	645.00	668.00	670.00	650.00	660.00	666.00	683.00	712.00	724.00	713.00	716.00	723.00	700.00	683.00	675.00	577.00	551.00	532.00	531.00	571.00	682.00	695.00	695.00	674.00	663.00	687.00	693.00	694.00	721.00	741.00	738.00	735.00	725.00	697.00	713.00	735.00	747.00	748.00	767.00	778.00	780.00	793.00	775.00	766.00	755.00	730.00	679.00	612.00	625.00	607.00	587.00	567.00	562.00	573.00	581.00	590.00	618.00	634.00	651.00	736.00	763.00	724.00	681.00	671.00	706.00	754.00	703.00	667.00	711.00	783.00	791.00	792.00	790.00	779.00	783.00	779.00	789.00	811.00	805.00	789.00	792.00	804.00	821.00	809.00	797.00	785.00	772.00
676.00	733.00	707.00	690.00	714.00	787.00	821.00	837.00	837.00	845.00	862.00	868.00	871.00	871.00	858.00	848.00	853.00	856.00	855.00	836.00	822.00	811.00	797.00	783.00	769.00	763.00	745.00	738.00	725.00	721.00	711.00	664.00	626.00	618.00	606.00	603.00	596.00	592.00	603.00	607.00	604.00	574.00	580.00	569.00	550.00	535.00	538.00	548.00	564.00	579.00	592.00	566.00	543.00	535.00	579.00	599.00	587.00	584.00	619.00	649.00	640.00	641.00	653.00	668.00	656.00	652.00	647.00	654.00	663.00	671.00	690.00	715.00	771.00	779.00	783.00	788.00	801.00	813.00	811.00	803.00	788.00	788.00	789.00	814.00	825.00	845.00	830.00	822.00	812.00	808.00	857.00	865.00	870.00	871.00	886.00	863.00	846.00	828.00	838.00	882.00	893.00	900.00	902.00	900.00	873.00	871.00	871.00	873.00	850.00	842.00	864.00	881.00	882.00	902.00	910.00	902.00	888.00	862.00	861.00	867.00	870.00	876.00	875.00	867.00	860.00	854.00	860.00	852.00	839.00	821.00	807.00	803.00	787.00	765.00	760.00	772.00	762.00	752.00	742.00	737.00	727.00	749.00	756.00	748.00	749.00	763.00	735.00	737.00	759.00	750.00	748.00	740.00	728.00	688.00	664.00	647.00	661.00	617.00	560.00	548.00	549.00	540.00	534.00	538.00	544.00	550.00	557.00	566.00	572.00	580.00	592.00	614.00	579.00	590.00	622.00	676.00	709.00	718.00	694.00	703.00	721.00	710.00	693.00	677.00	571.00	548.00	535.00	531.00	565.00	685.00	706.00	705.00	693.00	673.00	670.00	682.00	704.00	720.00	728.00	712.00	716.00	713.00	695.00	717.00	737.00	752.00	757.00	767.00	773.00	756.00	758.00	760.00	741.00	737.00	725.00	702.00	645.00	643.00	622.00	601.00	558.00	573.00	592.00	602.00	612.00	609.00	618.00	631.00	675.00	764.00	748.00	695.00	695.00	741.00	770.00	739.00	697.00	725.00	769.00	774.00	780.00	772.00	765.00	772.00	777.00	794.00	809.00	808.00	807.00	805.00	808.00	821.00	792.00	778.00	770.00	758.00
646.00	719.00	682.00	669.00	713.00	767.00	795.00	816.00	805.00	815.00	844.00	850.00	857.00	861.00	869.00	862.00	853.00	849.00	854.00	830.00	811.00	799.00	787.00	777.00	771.00	765.00	749.00	731.00	708.00	704.00	699.00	664.00	613.00	609.00	603.00	598.00	596.00	614.00	639.00	634.00	611.00	583.00	578.00	561.00	550.00	541.00	536.00	538.00	544.00	560.00	590.00	570.00	543.00	534.00	581.00	614.00	624.00	621.00	634.00	650.00	632.00	630.00	635.00	669.00	662.00	666.00	668.00	675.00	684.00	679.00	681.00	706.00	788.00	790.00	790.00	789.00	795.00	807.00	808.00	800.00	785.00	776.00	775.00	807.00	820.00	838.00	820.00	804.00	793.00	818.00	847.00	853.00	859.00	866.00	883.00	860.00	840.00	821.00	833.00	876.00	888.00	892.00	894.00	892.00	888.00	884.00	882.00	880.00	861.00	861.00	869.00	878.00	882.00	901.00	910.00	901.00	881.00	844.00	841.00	845.00	856.00	863.00	867.00	859.00	852.00	849.00	850.00	847.00	842.00	821.00	796.00	784.00	788.00	777.00	758.00	746.00	745.00	735.00	731.00	726.00	739.00	760.00	770.00	759.00	750.00	772.00	755.00	756.00	769.00	762.00	762.00	755.00	741.00	724.00	711.00	694.00	684.00	618.00	561.00	555.00	553.00	547.00	538.00	540.00	535.00	535.00	540.00	551.00	558.00	564.00	572.00	576.00	563.00	557.00	579.00	665.00	680.00	696.00	673.00	686.00	713.00	691.00	675.00	670.00	605.00	564.00	543.00	529.00	561.00	675.00	700.00	702.00	697.00	690.00	683.00	682.00	696.00	705.00	718.00	704.00	692.00	698.00	688.00	708.00	716.00	728.00	752.00	767.00	762.00	726.00	738.00	750.00	726.00	708.00	710.00	714.00	665.00	635.00	637.00	610.00	553.00	576.00	609.00	617.00	623.00	630.00	645.00	654.00	677.00	755.00	766.00	734.00	734.00	773.00	763.00	754.00	742.00	728.00	751.00	755.00	761.00	760.00	771.00	796.00	800.00	806.00	805.00	807.00	817.00	809.00	807.00	818.00	793.00	778.00	764.00	761.00
644.00	677.00	659.00	656.00	680.00	736.00	763.00	782.00	783.00	803.00	840.00	832.00	836.00	846.00	855.00	851.00	844.00	839.00	847.00	822.00	788.00	777.00	764.00	745.00	741.00	735.00	720.00	708.00	681.00	679.00	671.00	660.00	652.00	644.00	631.00	619.00	610.00	639.00	648.00	623.00	605.00	589.00	575.00	561.00	563.00	550.00	553.00	542.00	531.00	546.00	573.00	567.00	537.00	538.00	589.00	617.00	639.00	646.00	651.00	644.00	630.00	625.00	626.00	662.00	670.00	679.00	685.00	691.00	670.00	699.00	694.00	713.00	795.00	791.00	782.00	772.00	787.00	802.00	799.00	793.00	784.00	761.00	766.00	800.00	812.00	824.00	807.00	787.00	802.00	822.00	842.00	848.00	858.00	869.00	872.00	849.00	832.00	812.00	831.00	863.00	874.00	879.00	881.00	884.00	899.00	894.00	891.00	884.00	873.00	874.00	882.00	886.00	886.00	897.00	910.00	897.00	874.00	830.00	814.00	812.00	826.00	833.00	847.00	846.00	842.00	842.00	842.00	838.00	838.00	825.00	807.00	763.00	769.00	775.00	764.00	743.00	743.00	743.00	749.00	744.00	741.00	760.00	775.00	767.00	751.00	777.00	777.00	778.00	776.00	767.00	764.00	752.00	740.00	737.00	727.00	714.00	695.00	628.00	565.00	568.00	566.00	562.00	549.00	538.00	533.00	535.00	537.00	536.00	544.00	550.00	564.00	568.00	554.00	551.00	569.00	632.00	631.00	633.00	613.00	662.00	708.00	703.00	694.00	692.00	622.00	561.00	546.00	529.00	552.00	662.00	685.00	694.00	699.00	697.00	686.00	674.00	680.00	688.00	710.00	696.00	687.00	678.00	685.00	696.00	715.00	733.00	753.00	767.00	765.00	712.00	723.00	746.00	731.00	704.00	691.00	710.00	637.00	602.00	615.00	595.00	553.00	581.00	601.00	604.00	614.00	612.00	639.00	665.00	691.00	736.00	769.00	759.00	762.00	775.00	784.00	779.00	765.00	747.00	735.00	741.00	760.00	767.00	788.00	809.00	808.00	806.00	796.00	805.00	817.00	807.00	792.00	813.00	800.00	781.00	776.00	770.00
643.00	634.00	643.00	668.00	695.00	742.00	762.00	803.00	838.00	848.00	864.00	857.00	847.00	833.00	818.00	809.00	803.00	807.00	812.00	840.00	831.00	824.00	809.00	767.00	780.00	774.00	747.00	709.00	719.00	703.00	693.00	686.00	683.00	689.00	678.00	653.00	653.00	666.00	662.00	661.00	649.00	596.00	576.00	572.00	585.00	586.00	585.00	563.00	538.00	524.00	557.00	555.00	531.00	535.00	572.00	591.00	613.00	639.00	647.00	621.00	611.00	616.00	613.00	634.00	649.00	638.00	636.00	636.00	619.00	649.00	687.00	727.00	770.00	752.00	759.00	780.00	781.00	781.00	787.00	782.00	769.00	750.00	770.00	799.00	809.00	807.00	777.00	795.00	814.00	825.00	837.00	847.00	865.00	869.00	860.00	835.00	817.00	804.00	820.00	856.00	870.00	878.00	881.00	886.00	902.00	902.00	893.00	896.00	896.00	897.00	901.00	897.00	883.00	901.00	907.00	900.00	889.00	864.00	853.00	848.00	840.00	821.00	791.00	801.00	813.00	824.00	822.00	819.00	818.00	816.00	807.00	779.00	758.00	746.00	746.00	784.00	791.00	783.00	776.00	765.00	747.00	769.00	781.00	783.00	765.00	780.00	791.00	781.00	769.00	724.00	720.00	715.00	701.00	696.00	696.00	704.00	708.00	702.00	665.00	648.00	603.00	590.00	562.00	547.00	541.00	543.00	544.00	549.00	540.00	538.00	539.00	551.00	544.00	559.00	575.00	588.00	572.00	561.00	563.00	595.00	701.00	702.00	696.00	678.00	641.00	566.00	551.00	546.00	535.00	570.00	644.00	666.00	684.00	688.00	680.00	649.00	666.00	675.00	701.00	691.00	674.00	669.00	723.00	727.00	736.00	748.00	749.00	748.00	750.00	716.00	696.00	726.00	731.00	720.00	696.00	668.00	603.00	581.00	573.00	588.00	547.00	553.00	558.00	564.00	567.00	591.00	612.00	629.00	641.00	711.00	779.00	772.00	763.00	761.00	787.00	792.00	777.00	755.00	770.00	769.00	784.00	797.00	804.00	794.00	787.00	778.00	771.00	809.00	810.00	798.00	774.00	798.00	819.00	815.00	802.00	788.00
626.00	629.00	646.00	685.00	710.00	742.00	772.00	809.00	828.00	841.00	857.00	863.00	862.00	860.00	843.00	825.00	807.00	799.00	799.00	828.00	823.00	827.00	813.00	796.00	794.00	778.00	745.00	723.00	724.00	706.00	712.00	698.00	686.00	707.00	699.00	682.00	675.00	658.00	641.00	647.00	648.00	604.00	577.00	583.00	612.00	609.00	600.00	567.00	547.00	528.00	549.00	542.00	530.00	544.00	587.00	591.00	610.00	636.00	651.00	623.00	605.00	609.00	607.00	632.00	634.00	613.00	606.00	611.00	610.00	624.00	650.00	691.00	741.00	736.00	761.00	772.00	769.00	762.00	779.00	778.00	764.00	757.00	782.00	806.00	813.00	802.00	774.00	800.00	814.00	822.00	829.00	840.00	859.00	861.00	854.00	825.00	804.00	810.00	831.00	871.00	880.00	880.00	884.00	892.00	906.00	903.00	899.00	905.00	897.00	898.00	901.00	890.00	876.00	889.00	894.00	898.00	891.00	870.00	864.00	867.00	866.00	847.00	809.00	784.00	789.00	808.00	800.00	796.00	797.00	794.00	783.00	754.00	753.00	764.00	761.00	799.00	804.00	796.00	784.00	771.00	753.00	775.00	790.00	796.00	779.00	788.00	784.00	775.00	760.00	719.00	719.00	714.00	713.00	699.00	692.00	686.00	685.00	702.00	683.00	653.00	594.00	573.00	551.00	546.00	545.00	552.00	557.00	566.00	549.00	540.00	530.00	541.00	538.00	551.00	562.00	560.00	564.00	553.00	554.00	578.00	678.00	685.00	691.00	682.00	639.00	589.00	573.00	568.00	534.00	559.00	607.00	640.00	663.00	678.00	671.00	642.00	660.00	673.00	686.00	679.00	664.00	673.00	717.00	730.00	737.00	743.00	739.00	732.00	729.00	709.00	689.00	711.00	727.00	716.00	687.00	620.00	592.00	590.00	568.00	561.00	557.00	567.00	566.00	560.00	560.00	583.00	597.00	606.00	617.00	702.00	768.00	759.00	743.00	745.00	778.00	790.00	777.00	759.00	790.00	783.00	782.00	800.00	806.00	779.00	773.00	766.00	781.00	804.00	801.00	788.00	769.00	797.00	817.00	819.00	807.00	793.00
613.00	629.00	644.00	659.00	686.00	715.00	755.00	799.00	813.00	831.00	855.00	870.00	876.00	876.00	854.00	837.00	827.00	813.00	793.00	803.00	812.00	831.00	828.00	796.00	774.00	755.00	742.00	755.00	730.00	731.00	743.00	705.00	703.00	723.00	714.00	688.00	665.00	637.00	625.00	617.00	613.00	588.00	580.00	593.00	628.00	616.00	587.00	568.00	549.00	527.00	531.00	527.00	537.00	558.00	609.00	613.00	624.00	645.00	652.00	620.00	601.00	600.00	598.00	624.00	612.00	595.00	603.00	612.00	626.00	647.00	658.00	685.00	712.00	718.00	743.00	743.00	746.00	750.00	761.00	763.00	754.00	767.00	787.00	805.00	807.00	792.00	779.00	801.00	812.00	817.00	818.00	831.00	844.00	850.00	845.00	812.00	798.00	818.00	847.00	871.00	874.00	877.00	884.00	894.00	900.00	899.00	895.00	900.00	888.00	886.00	888.00	878.00	864.00	883.00	888.00	896.00	897.00	882.00	876.00	873.00	872.00	860.00	816.00	790.00	775.00	781.00	771.00	766.00	766.00	767.00	759.00	765.00	780.00	784.00	776.00	812.00	811.00	800.00	788.00	772.00	760.00	779.00	796.00	805.00	787.00	789.00	776.00	764.00	750.00	731.00	744.00	737.00	739.00	725.00	718.00	706.00	693.00	684.00	668.00	627.00	575.00	561.00	548.00	548.00	563.00	567.00	572.00	562.00	547.00	542.00	534.00	533.00	533.00	538.00	542.00	540.00	544.00	541.00	550.00	562.00	644.00	669.00	675.00	679.00	650.00	603.00	573.00	558.00	532.00	547.00	563.00	577.00	614.00	657.00	655.00	632.00	652.00	675.00	669.00	660.00	657.00	669.00	693.00	701.00	715.00	733.00	728.00	711.00	708.00	702.00	684.00	703.00	716.00	706.00	671.00	606.00	565.00	572.00	569.00	547.00	575.00	594.00	590.00	578.00	574.00	593.00	592.00	596.00	614.00	671.00	758.00	752.00	737.00	746.00	784.00	793.00	785.00	781.00	801.00	794.00	790.00	801.00	806.00	773.00	760.00	767.00	789.00	806.00	798.00	780.00	765.00	788.00	803.00	812.00	805.00	790.00
608.00	627.00	629.00	643.00	653.00	670.00	727.00	772.00	789.00	808.00	860.00	878.00	884.00	872.00	852.00	850.00	841.00	825.00	800.00	785.00	823.00	838.00	841.00	800.00	779.00	754.00	763.00	778.00	750.00	760.00	768.00	727.00	723.00	736.00	714.00	684.00	678.00	639.00	648.00	635.00	632.00	604.00	606.00	589.00	618.00	596.00	584.00	567.00	553.00	540.00	513.00	516.00	543.00	564.00	609.00	629.00	644.00	656.00	655.00	617.00	593.00	575.00	596.00	610.00	591.00	595.00	622.00	648.00	657.00	663.00	690.00	722.00	728.00	720.00	719.00	726.00	736.00	739.00	740.00	740.00	740.00	766.00	781.00	793.00	793.00	784.00	778.00	798.00	806.00	809.00	808.00	821.00	832.00	842.00	835.00	802.00	800.00	828.00	854.00	862.00	865.00	871.00	879.00	885.00	889.00	892.00	889.00	891.00	875.00	864.00	870.00	866.00	856.00	878.00	878.00	888.00	896.00	885.00	873.00	868.00	863.00	854.00	807.00	783.00	790.00	782.00	779.00	774.00	761.00	763.00	773.00	786.00	801.00	801.00	796.00	818.00	821.00	807.00	793.00	776.00	762.00	785.00	801.00	809.00	793.00	788.00	765.00	747.00	737.00	757.00	768.00	767.00	765.00	746.00	736.00	723.00	711.00	674.00	596.00	564.00	557.00	552.00	552.00	557.00	572.00	593.00	603.00	565.00	561.00	555.00	548.00	534.00	535.00	539.00	541.00	537.00	541.00	535.00	537.00	547.00	598.00	651.00	657.00	661.00	634.00	598.00	573.00	557.00	537.00	535.00	545.00	551.00	558.00	631.00	640.00	623.00	648.00	674.00	654.00	655.00	669.00	669.00	686.00	700.00	710.00	730.00	728.00	701.00	694.00	683.00	673.00	689.00	704.00	705.00	688.00	648.00	564.00	554.00	554.00	548.00	597.00	622.00	615.00	593.00	588.00	613.00	611.00	615.00	604.00	639.00	736.00	739.00	730.00	743.00	787.00	788.00	785.00	792.00	808.00	803.00	801.00	805.00	803.00	777.00	757.00	768.00	787.00	805.00	796.00	775.00	764.00	780.00	800.00	810.00	801.00	783.00
628.00	612.00	637.00	640.00	638.00	661.00	691.00	753.00	793.00	817.00	865.00	864.00	844.00	844.00	836.00	814.00	804.00	793.00	775.00	759.00	806.00	829.00	833.00	809.00	781.00	798.00	817.00	806.00	794.00	791.00	792.00	772.00	765.00	735.00	711.00	702.00	690.00	657.00	687.00	692.00	670.00	668.00	652.00	624.00	640.00	601.00	589.00	587.00	578.00	566.00	522.00	505.00	525.00	542.00	572.00	573.00	597.00	605.00	609.00	595.00	578.00	563.00	549.00	591.00	612.00	631.00	631.00	624.00	658.00	676.00	709.00	744.00	776.00	770.00	764.00	774.00	787.00	798.00	791.00	789.00	779.00	748.00	748.00	749.00	759.00	770.00	768.00	772.00	776.00	791.00	813.00	823.00	828.00	825.00	799.00	794.00	805.00	815.00	820.00	836.00	843.00	848.00	853.00	858.00	889.00	896.00	891.00	880.00	860.00	850.00	834.00	818.00	824.00	836.00	846.00	874.00	880.00	889.00	876.00	860.00	827.00	813.00	848.00	859.00	857.00	840.00	804.00	782.00	780.00	784.00	810.00	831.00	830.00	839.00	841.00	838.00	837.00	817.00	798.00	779.00	780.00	800.00	813.00	821.00	810.00	797.00	757.00	759.00	779.00	798.00	793.00	787.00	779.00	765.00	758.00	750.00	739.00	728.00	680.00	616.00	555.00	573.00	662.00	677.00	681.00	696.00	693.00	686.00	650.00	579.00	563.00	575.00	556.00	539.00	539.00	545.00	547.00	540.00	536.00	539.00	534.00	533.00	543.00	564.00	605.00	609.00	617.00	613.00	560.00	528.00	540.00	586.00	613.00	596.00	577.00	576.00	585.00	612.00	646.00	665.00	687.00	697.00	723.00	733.00	730.00	736.00	749.00	733.00	711.00	679.00	670.00	651.00	668.00	671.00	648.00	588.00	550.00	540.00	546.00	567.00	626.00	684.00	698.00	678.00	693.00	744.00	750.00	734.00	727.00	703.00	711.00	728.00	739.00	762.00	776.00	754.00	755.00	772.00	778.00	757.00	786.00	789.00	774.00	769.00	756.00	752.00	771.00	786.00	768.00	757.00	760.00	785.00	805.00	804.00	790.00	777.00
630.00	615.00	650.00	653.00	658.00	691.00	707.00	741.00	779.00	806.00	867.00	858.00	833.00	827.00	845.00	837.00	832.00	815.00	795.00	752.00	777.00	810.00	802.00	807.00	798.00	820.00	824.00	802.00	776.00	756.00	775.00	783.00	753.00	726.00	713.00	693.00	673.00	659.00	685.00	689.00	671.00	673.00	650.00	638.00	656.00	609.00	589.00	571.00	558.00	544.00	525.00	512.00	512.00	525.00	552.00	565.00	584.00	575.00	596.00	584.00	556.00	545.00	572.00	620.00	630.00	626.00	609.00	615.00	647.00	673.00	710.00	744.00	781.00	786.00	782.00	785.00	793.00	811.00	805.00	801.00	795.00	755.00	761.00	754.00	772.00	787.00	787.00	788.00	798.00	809.00	823.00	829.00	827.00	815.00	793.00	800.00	818.00	825.00	829.00	850.00	859.00	861.00	863.00	869.00	890.00	899.00	893.00	883.00	875.00	868.00	858.00	835.00	810.00	822.00	845.00	872.00	878.00	888.00	874.00	860.00	843.00	845.00	863.00	868.00	864.00	837.00	796.00	783.00	800.00	792.00	797.00	837.00	838.00	845.00	849.00	835.00	825.00	809.00	793.00	778.00	784.00	803.00	819.00	825.00	806.00	795.00	775.00	779.00	785.00	784.00	777.00	769.00	763.00	756.00	757.00	752.00	744.00	722.00	675.00	635.00	591.00	634.00	691.00	704.00	699.00	709.00	699.00	700.00	673.00	604.00	579.00	574.00	550.00	541.00	546.00	559.00	569.00	559.00	557.00	546.00	534.00	531.00	531.00	541.00	548.00	552.00	558.00	579.00	562.00	525.00	538.00	585.00	634.00	638.00	622.00	630.00	638.00	640.00	643.00	661.00	679.00	681.00	706.00	726.00	710.00	713.00	731.00	726.00	713.00	694.00	683.00	632.00	598.00	612.00	625.00	599.00	550.00	537.00	552.00	569.00	649.00	692.00	723.00	729.00	741.00	759.00	755.00	754.00	758.00	745.00	712.00	722.00	749.00	770.00	777.00	757.00	746.00	758.00	756.00	737.00	781.00	789.00	772.00	764.00	758.00	746.00	764.00	781.00	767.00	755.00	758.00	794.00	808.00	802.00	793.00	784.00
649.00	610.00	636.00	638.00	643.00	670.00	679.00	714.00	770.00	806.00	855.00	853.00	832.00	813.00	842.00	836.00	841.00	832.00	815.00	748.00	741.00	776.00	778.00	806.00	816.00	830.00	824.00	795.00	738.00	725.00	739.00	771.00	767.00	754.00	747.00	721.00	694.00	673.00	687.00	686.00	664.00	673.00	647.00	652.00	668.00	640.00	625.00	602.00	564.00	562.00	544.00	527.00	501.00	510.00	539.00	549.00	556.00	559.00	574.00	583.00	561.00	537.00	603.00	622.00	626.00	612.00	604.00	633.00	657.00	673.00	705.00	729.00	785.00	798.00	789.00	792.00	791.00	805.00	809.00	805.00	799.00	769.00	778.00	761.00	780.00	796.00	809.00	808.00	813.00	818.00	833.00	831.00	821.00	806.00	787.00	797.00	825.00	836.00	839.00	864.00	872.00	874.00	878.00	880.00	898.00	902.00	901.00	889.00	886.00	883.00	868.00	846.00	818.00	830.00	852.00	877.00	882.00	889.00	875.00	865.00	862.00	869.00	873.00	869.00	858.00	828.00	788.00	800.00	819.00	814.00	795.00	837.00	848.00	852.00	858.00	826.00	819.00	812.00	801.00	782.00	794.00	811.00	825.00	825.00	809.00	805.00	795.00	793.00	784.00	768.00	758.00	743.00	742.00	739.00	740.00	737.00	733.00	714.00	654.00	644.00	629.00	674.00	712.00	718.00	715.00	724.00	715.00	702.00	646.00	591.00	580.00	552.00	544.00	542.00	549.00	569.00	605.00	598.00	623.00	609.00	546.00	532.00	528.00	536.00	534.00	531.00	542.00	555.00	553.00	521.00	535.00	559.00	598.00	651.00	632.00	653.00	662.00	666.00	639.00	650.00	662.00	673.00	717.00	728.00	707.00	689.00	710.00	719.00	723.00	703.00	683.00	619.00	561.00	563.00	568.00	577.00	543.00	537.00	558.00	581.00	677.00	689.00	717.00	738.00	758.00	764.00	750.00	754.00	769.00	756.00	727.00	739.00	760.00	775.00	777.00	761.00	742.00	738.00	726.00	718.00	781.00	788.00	771.00	757.00	758.00	743.00	755.00	766.00	755.00	750.00	767.00	799.00	805.00	796.00	793.00	784.00
659.00	614.00	648.00	624.00	621.00	635.00	658.00	706.00	763.00	794.00	841.00	845.00	825.00	809.00	834.00	824.00	823.00	826.00	817.00	715.00	709.00	727.00	755.00	785.00	809.00	831.00	838.00	808.00	740.00	712.00	691.00	737.00	763.00	769.00	759.00	739.00	724.00	688.00	704.00	696.00	683.00	666.00	650.00	668.00	670.00	636.00	624.00	601.00	594.00	589.00	550.00	531.00	501.00	502.00	530.00	529.00	547.00	567.00	546.00	567.00	544.00	533.00	592.00	615.00	608.00	601.00	620.00	633.00	632.00	639.00	693.00	716.00	774.00	795.00	789.00	785.00	782.00	800.00	802.00	802.00	803.00	789.00	786.00	766.00	786.00	801.00	817.00	817.00	823.00	826.00	831.00	826.00	812.00	795.00	776.00	815.00	836.00	845.00	848.00	867.00	876.00	884.00	890.00	884.00	892.00	895.00	890.00	881.00	879.00	873.00	860.00	843.00	817.00	831.00	853.00	880.00	885.00	885.00	877.00	874.00	869.00	868.00	869.00	861.00	851.00	823.00	795.00	819.00	832.00	827.00	811.00	832.00	846.00	851.00	859.00	827.00	829.00	832.00	812.00	783.00	803.00	816.00	825.00	817.00	813.00	814.00	794.00	793.00	779.00	755.00	741.00	730.00	721.00	718.00	712.00	712.00	713.00	704.00	684.00	680.00	660.00	668.00	713.00	725.00	727.00	733.00	730.00	698.00	627.00	570.00	561.00	549.00	550.00	557.00	551.00	563.00	635.00	643.00	647.00	640.00	566.00	545.00	540.00	540.00	537.00	532.00	530.00	534.00	533.00	518.00	531.00	550.00	569.00	650.00	654.00	666.00	663.00	665.00	639.00	666.00	682.00	698.00	732.00	732.00	714.00	684.00	693.00	711.00	722.00	698.00	683.00	643.00	578.00	555.00	547.00	561.00	535.00	542.00	563.00	587.00	694.00	709.00	722.00	737.00	751.00	742.00	726.00	750.00	767.00	756.00	738.00	757.00	767.00	773.00	770.00	766.00	762.00	753.00	726.00	706.00	753.00	781.00	769.00	752.00	759.00	743.00	745.00	747.00	747.00	747.00	762.00	795.00	797.00	788.00	783.00	780.00
662.00	627.00	595.00	602.00	622.00	674.00	668.00	682.00	704.00	748.00	818.00	825.00	810.00	799.00	837.00	831.00	809.00	768.00	726.00	678.00	665.00	676.00	684.00	734.00	763.00	785.00	813.00	827.00	775.00	741.00	693.00	661.00	710.00	731.00	760.00	757.00	748.00	726.00	729.00	719.00	700.00	663.00	683.00	684.00	666.00	635.00	653.00	649.00	630.00	581.00	553.00	545.00	507.00	493.00	496.00	513.00	519.00	514.00	516.00	513.00	524.00	540.00	537.00	577.00	594.00	600.00	599.00	600.00	618.00	645.00	690.00	720.00	745.00	766.00	786.00	780.00	766.00	775.00	771.00	774.00	781.00	796.00	796.00	786.00	791.00	801.00	818.00	822.00	825.00	818.00	810.00	796.00	785.00	776.00	793.00	819.00	828.00	839.00	850.00	874.00	881.00	881.00	880.00	881.00	874.00	878.00	876.00	866.00	858.00	853.00	841.00	827.00	806.00	832.00	844.00	862.00	863.00	881.00	878.00	874.00	868.00	860.00	847.00	832.00	815.00	792.00	831.00	836.00	837.00	841.00	831.00	823.00	842.00	845.00	857.00	850.00	846.00	839.00	817.00	787.00	814.00	836.00	827.00	809.00	787.00	782.00	766.00	761.00	749.00	730.00	732.00	742.00	748.00	732.00	739.00	736.00	728.00	698.00	721.00	724.00	707.00	689.00	709.00	721.00	717.00	711.00	718.00	683.00	622.00	556.00	562.00	578.00	570.00	598.00	619.00	618.00	665.00	676.00	677.00	665.00	635.00	625.00	628.00	628.00	549.00	542.00	532.00	530.00	516.00	516.00	521.00	535.00	550.00	617.00	646.00	658.00	648.00	638.00	628.00	650.00	668.00	690.00	734.00	725.00	709.00	696.00	675.00	685.00	692.00	697.00	693.00	606.00	589.00	572.00	545.00	531.00	539.00	542.00	556.00	578.00	697.00	690.00	705.00	709.00	704.00	711.00	730.00	747.00	769.00	761.00	762.00	778.00	776.00	759.00	738.00	754.00	761.00	774.00	772.00	744.00	695.00	737.00	738.00	748.00	751.00	742.00	731.00	747.00	769.00	776.00	772.00	785.00	795.00	779.00	765.00	759.00
671.00	626.00	595.00	609.00	613.00	670.00	641.00	654.00	672.00	702.00	794.00	809.00	803.00	792.00	829.00	828.00	815.00	766.00	710.00	655.00	634.00	643.00	652.00	719.00	742.00	773.00	796.00	811.00	772.00	726.00	696.00	646.00	670.00	719.00	735.00	733.00	752.00	741.00	724.00	709.00	696.00	678.00	689.00	683.00	661.00	651.00	661.00	643.00	618.00	589.00	587.00	569.00	518.00	507.00	488.00	491.00	503.00	493.00	499.00	525.00	549.00	569.00	563.00	556.00	581.00	591.00	610.00	621.00	642.00	654.00	680.00	702.00	741.00	770.00	782.00	776.00	759.00	752.00	749.00	758.00	768.00	789.00	792.00	798.00	795.00	804.00	813.00	817.00	821.00	813.00	792.00	777.00	767.00	769.00	804.00	817.00	823.00	837.00	851.00	881.00	886.00	874.00	866.00	871.00	875.00	873.00	869.00	858.00	842.00	833.00	821.00	808.00	799.00	813.00	820.00	855.00	860.00	877.00	876.00	874.00	871.00	865.00	840.00	824.00	818.00	796.00	840.00	842.00	844.00	844.00	834.00	830.00	850.00	853.00	861.00	851.00	843.00	831.00	808.00	781.00	819.00	831.00	815.00	795.00	765.00	754.00	743.00	740.00	739.00	755.00	755.00	762.00	763.00	750.00	756.00	754.00	741.00	699.00	724.00	736.00	723.00	712.00	719.00	723.00	716.00	698.00	693.00	669.00	650.00	590.00	597.00	615.00	606.00	656.00	667.00	663.00	679.00	685.00	679.00	661.00	632.00	630.00	618.00	617.00	585.00	571.00	554.00	557.00	529.00	519.00	521.00	527.00	543.00	593.00	622.00	649.00	648.00	635.00	619.00	638.00	657.00	678.00	735.00	720.00	695.00	684.00	670.00	665.00	660.00	688.00	682.00	565.00	563.00	555.00	539.00	534.00	559.00	554.00	551.00	560.00	664.00	668.00	682.00	686.00	688.00	723.00	741.00	757.00	774.00	771.00	773.00	782.00	781.00	752.00	733.00	739.00	752.00	770.00	774.00	768.00	677.00	673.00	694.00	719.00	728.00	725.00	730.00	757.00	775.00	786.00	786.00	795.00	796.00	782.00	763.00	760.00
656.00	649.00	605.00	597.00	603.00	642.00	621.00	624.00	638.00	674.00	759.00	784.00	790.00	786.00	822.00	814.00	799.00	744.00	698.00	645.00	597.00	616.00	631.00	705.00	729.00	762.00	783.00	786.00	750.00	721.00	713.00	671.00	651.00	690.00	697.00	706.00	738.00	748.00	735.00	732.00	715.00	688.00	694.00	681.00	659.00	666.00	657.00	634.00	613.00	619.00	606.00	568.00	538.00	525.00	504.00	484.00	489.00	489.00	510.00	535.00	546.00	577.00	587.00	586.00	581.00	593.00	612.00	628.00	655.00	667.00	670.00	659.00	730.00	766.00	776.00	772.00	756.00	743.00	760.00	776.00	785.00	788.00	789.00	794.00	793.00	801.00	810.00	812.00	811.00	805.00	780.00	763.00	769.00	783.00	814.00	825.00	826.00	839.00	857.00	880.00	884.00	870.00	854.00	853.00	880.00	876.00	870.00	861.00	836.00	828.00	815.00	801.00	790.00	794.00	823.00	857.00	857.00	870.00	880.00	882.00	871.00	863.00	853.00	841.00	830.00	812.00	840.00	846.00	853.00	848.00	839.00	839.00	851.00	858.00	858.00	834.00	825.00	813.00	792.00	791.00	818.00	827.00	826.00	809.00	764.00	769.00	766.00	762.00	765.00	773.00	768.00	775.00	770.00	761.00	764.00	760.00	745.00	699.00	736.00	747.00	741.00	738.00	725.00	719.00	709.00	691.00	675.00	669.00	666.00	664.00	675.00	681.00	671.00	687.00	689.00	678.00	692.00	693.00	667.00	648.00	654.00	643.00	624.00	629.00	624.00	625.00	621.00	620.00	542.00	530.00	521.00	518.00	541.00	626.00	639.00	658.00	653.00	645.00	613.00	634.00	650.00	673.00	738.00	723.00	697.00	684.00	674.00	587.00	570.00	667.00	653.00	566.00	548.00	541.00	535.00	543.00	568.00	567.00	566.00	575.00	669.00	678.00	691.00	692.00	705.00	710.00	729.00	749.00	756.00	768.00	781.00	791.00	792.00	757.00	725.00	737.00	756.00	764.00	760.00	758.00	691.00	650.00	688.00	730.00	729.00	728.00	731.00	763.00	775.00	784.00	786.00	799.00	794.00	782.00	769.00	773.00
643.00	630.00	607.00	594.00	616.00	621.00	612.00	624.00	645.00	655.00	718.00	744.00	762.00	772.00	810.00	803.00	772.00	732.00	702.00	639.00	589.00	614.00	645.00	717.00	746.00	758.00	773.00	759.00	715.00	694.00	693.00	679.00	631.00	651.00	655.00	686.00	728.00	742.00	739.00	740.00	728.00	701.00	692.00	672.00	665.00	665.00	643.00	629.00	634.00	637.00	622.00	598.00	547.00	534.00	498.00	487.00	482.00	487.00	506.00	551.00	569.00	591.00	608.00	611.00	600.00	600.00	604.00	617.00	633.00	642.00	639.00	617.00	721.00	745.00	767.00	763.00	748.00	753.00	773.00	793.00	800.00	781.00	782.00	783.00	786.00	798.00	804.00	804.00	802.00	797.00	772.00	756.00	771.00	797.00	820.00	833.00	833.00	842.00	857.00	866.00	866.00	864.00	853.00	844.00	875.00	879.00	873.00	870.00	857.00	850.00	839.00	823.00	804.00	798.00	836.00	859.00	857.00	870.00	882.00	886.00	874.00	870.00	861.00	849.00	826.00	828.00	844.00	849.00	859.00	854.00	844.00	846.00	852.00	858.00	851.00	806.00	798.00	793.00	800.00	818.00	823.00	831.00	833.00	812.00	788.00	798.00	787.00	783.00	784.00	784.00	777.00	776.00	765.00	753.00	753.00	748.00	736.00	695.00	747.00	759.00	755.00	745.00	718.00	704.00	694.00	680.00	688.00	689.00	673.00	685.00	701.00	710.00	704.00	709.00	703.00	681.00	702.00	704.00	659.00	662.00	648.00	635.00	638.00	649.00	641.00	648.00	645.00	640.00	608.00	540.00	531.00	528.00	528.00	593.00	632.00	648.00	657.00	648.00	608.00	629.00	655.00	681.00	734.00	729.00	713.00	701.00	683.00	574.00	555.00	617.00	601.00	558.00	543.00	542.00	534.00	553.00	591.00	592.00	597.00	622.00	694.00	697.00	708.00	708.00	717.00	725.00	737.00	739.00	731.00	753.00	775.00	787.00	781.00	752.00	729.00	747.00	757.00	760.00	736.00	735.00	674.00	652.00	729.00	758.00	751.00	741.00	731.00	756.00	764.00	768.00	775.00	797.00	789.00	783.00	781.00	781.00
634.00	630.00	620.00	588.00	585.00	601.00	614.00	644.00	656.00	616.00	634.00	666.00	713.00	722.00	747.00	748.00	729.00	707.00	686.00	616.00	585.00	625.00	645.00	684.00	700.00	723.00	718.00	717.00	682.00	660.00	637.00	647.00	615.00	630.00	666.00	679.00	687.00	715.00	690.00	701.00	727.00	727.00	723.00	722.00	712.00	666.00	668.00	675.00	668.00	656.00	629.00	608.00	549.00	531.00	511.00	495.00	482.00	482.00	492.00	532.00	568.00	591.00	596.00	633.00	632.00	632.00	631.00	623.00	589.00	585.00	597.00	624.00	716.00	738.00	741.00	733.00	727.00	763.00	769.00	773.00	772.00	756.00	757.00	756.00	772.00	782.00	801.00	792.00	783.00	779.00	753.00	757.00	778.00	795.00	820.00	833.00	840.00	847.00	849.00	837.00	838.00	844.00	834.00	813.00	854.00	862.00	878.00	885.00	882.00	867.00	853.00	839.00	824.00	780.00	807.00	850.00	856.00	862.00	879.00	876.00	869.00	872.00	863.00	858.00	849.00	865.00	859.00	863.00	870.00	865.00	856.00	855.00	858.00	867.00	861.00	839.00	825.00	833.00	847.00	844.00	846.00	854.00	856.00	847.00	831.00	829.00	818.00	808.00	807.00	794.00	777.00	764.00	751.00	732.00	721.00	722.00	720.00	700.00	723.00	741.00	757.00	763.00	731.00	705.00	691.00	722.00	734.00	696.00	675.00	694.00	712.00	736.00	735.00	712.00	689.00	701.00	695.00	673.00	690.00	689.00	682.00	680.00	687.00	686.00	678.00	670.00	666.00	661.00	631.00	574.00	542.00	529.00	526.00	528.00	546.00	577.00	631.00	638.00	609.00	627.00	649.00	671.00	709.00	715.00	713.00	694.00	671.00	602.00	552.00	553.00	555.00	542.00	535.00	546.00	559.00	556.00	665.00	696.00	707.00	704.00	696.00	718.00	735.00	746.00	746.00	729.00	725.00	718.00	706.00	725.00	752.00	765.00	757.00	738.00	718.00	728.00	733.00	745.00	762.00	748.00	670.00	645.00	729.00	753.00	762.00	762.00	760.00	743.00	760.00	771.00	783.00	774.00	763.00	783.00	783.00	784.00
634.00	630.00	620.00	588.00	585.00	601.00	614.00	644.00	656.00	616.00	634.00	666.00	713.00	722.00	747.00	748.00	729.00	707.00	686.00	616.00	585.00	625.00	645.00	684.00	700.00	723.00	718.00	717.00	682.00	660.00	637.00	647.00	615.00	630.00	666.00	679.00	687.00	715.00	690.00	701.00	727.00	727.00	723.00	722.00	712.00	666.00	668.00	675.00	668.00	656.00	629.00	608.00	549.00	531.00	511.00	495.00	482.00	482.00	492.00	532.00	568.00	591.00	596.00	633.00	632.00	632.00	631.00	623.00	589.00	585.00	597.00	624.00	716.00	738.00	741.00	733.00	727.00	763.00	769.00	773.00	772.00	756.00	757.00	756.00	772.00	782.00	801.00	792.00	783.00	779.00	753.00	757.00	778.00	795.00	820.00	833.00	840.00	847.00	849.00	837.00	838.00	844.00	834.00	813.00	854.00	862.00	878.00	885.00	882.00	867.00	853.00	839.00	824.00	780.00	807.00	850.00	856.00	862.00	879.00	876.00	869.00	872.00	863.00	858.00	849.00	865.00	859.00	863.00	870.00	865.00	856.00	855.00	858.00	867.00	861.00	839.00	825.00	833.00	847.00	844.00	846.00	854.00	856.00	847.00	831.00	829.00	818.00	808.00	807.00	794.00	777.00	764.00	751.00	732.00	721.00	722.00	720.00	700.00	723.00	741.00	757.00	763.00	731.00	705.00	691.00	722.00	734.00	696.00	675.00	694.00	712.00	736.00	735.00	712.00	689.00	701.00	695.00	673.00	690.00	689.00	682.00	680.00	687.00	686.00	678.00	670.00	666.00	661.00	631.00	574.00	542.00	529.00	526.00	528.00	546.00	577.00	631.00	638.00	609.00	627.00	649.00	671.00	709.00	715.00	713.00	694.00	671.00	602.00	552.00	553.00	555.00	542.00	535.00	546.00	559.00	556.00	665.00	696.00	707.00	704.00	696.00	718.00	735.00	746.00	746.00	729.00	725.00	718.00	706.00	725.00	752.00	765.00	757.00	738.00	718.00	728.00	733.00	745.00	762.00	748.00	670.00	645.00	729.00	753.00	762.00	762.00	760.00	743.00	760.00	771.00	783.00	774.00	763.00	783.00	783.00	784.00
655.00	647.00	626.00	603.00	587.00	589.00	618.00	629.00	619.00	596.00	673.00	686.00	707.00	685.00	701.00	707.00	694.00	687.00	654.00	607.00	577.00	608.00	629.00	638.00	669.00	701.00	693.00	683.00	664.00	658.00	630.00	629.00	602.00	619.00	659.00	652.00	673.00	713.00	686.00	680.00	705.00	722.00	727.00	731.00	711.00	672.00	661.00	656.00	651.00	644.00	624.00	605.00	548.00	549.00	520.00	507.00	492.00	482.00	484.00	515.00	543.00	569.00	573.00	620.00	619.00	616.00	623.00	622.00	575.00	581.00	607.00	618.00	699.00	716.00	717.00	717.00	738.00	765.00	766.00	763.00	754.00	752.00	761.00	773.00	781.00	791.00	798.00	787.00	770.00	763.00	744.00	767.00	787.00	802.00	816.00	823.00	832.00	843.00	841.00	829.00	829.00	831.00	815.00	803.00	856.00	865.00	875.00	878.00	874.00	867.00	855.00	848.00	829.00	776.00	792.00	844.00	847.00	865.00	876.00	867.00	859.00	861.00	870.00	866.00	860.00	872.00	868.00	868.00	870.00	865.00	865.00	861.00	866.00	874.00	870.00	840.00	835.00	841.00	853.00	853.00	854.00	855.00	853.00	849.00	834.00	829.00	815.00	803.00	802.00	797.00	786.00	777.00	769.00	736.00	738.00	747.00	743.00	710.00	718.00	742.00	757.00	760.00	726.00	700.00	712.00	735.00	741.00	695.00	686.00	687.00	695.00	735.00	734.00	717.00	703.00	718.00	690.00	680.00	710.00	707.00	703.00	699.00	697.00	694.00	678.00	665.00	659.00	656.00	633.00	595.00	570.00	539.00	520.00	520.00	549.00	588.00	603.00	611.00	628.00	644.00	653.00	670.00	696.00	689.00	682.00	688.00	675.00	628.00	572.00	543.00	536.00	536.00	539.00	563.00	596.00	605.00	665.00	702.00	720.00	726.00	710.00	725.00	740.00	752.00	746.00	721.00	713.00	702.00	711.00	736.00	754.00	760.00	750.00	736.00	710.00	721.00	737.00	750.00	758.00	740.00	669.00	632.00	669.00	736.00	746.00	765.00	766.00	757.00	771.00	780.00	788.00	764.00	763.00	771.00	773.00	779.00
656.00	638.00	612.00	593.00	592.00	593.00	615.00	600.00	593.00	583.00	681.00	680.00	666.00	643.00	657.00	664.00	662.00	647.00	647.00	596.00	572.00	596.00	600.00	628.00	646.00	665.00	674.00	662.00	645.00	656.00	638.00	601.00	594.00	612.00	654.00	626.00	648.00	698.00	681.00	662.00	686.00	693.00	702.00	713.00	703.00	668.00	658.00	643.00	629.00	619.00	602.00	594.00	582.00	573.00	549.00	521.00	512.00	494.00	481.00	508.00	519.00	534.00	566.00	604.00	600.00	590.00	610.00	615.00	569.00	584.00	590.00	594.00	652.00	698.00	714.00	716.00	734.00	759.00	756.00	751.00	744.00	773.00	782.00	788.00	791.00	797.00	792.00	780.00	772.00	764.00	745.00	772.00	791.00	801.00	803.00	816.00	828.00	835.00	833.00	824.00	821.00	811.00	797.00	803.00	852.00	859.00	866.00	865.00	859.00	857.00	851.00	843.00	830.00	775.00	784.00	837.00	847.00	861.00	867.00	864.00	853.00	853.00	870.00	871.00	866.00	872.00	871.00	874.00	871.00	870.00	873.00	867.00	872.00	875.00	871.00	848.00	845.00	848.00	858.00	858.00	856.00	846.00	836.00	835.00	831.00	823.00	806.00	793.00	791.00	801.00	789.00	780.00	774.00	756.00	754.00	753.00	746.00	707.00	726.00	750.00	762.00	756.00	721.00	709.00	726.00	744.00	746.00	692.00	701.00	713.00	707.00	731.00	741.00	738.00	730.00	731.00	693.00	699.00	721.00	720.00	708.00	694.00	689.00	683.00	672.00	653.00	641.00	641.00	637.00	597.00	551.00	537.00	521.00	519.00	548.00	554.00	543.00	538.00	636.00	652.00	665.00	674.00	682.00	655.00	647.00	658.00	655.00	620.00	605.00	547.00	534.00	545.00	555.00	566.00	609.00	669.00	671.00	696.00	717.00	731.00	712.00	727.00	744.00	754.00	741.00	709.00	697.00	697.00	716.00	727.00	748.00	757.00	749.00	731.00	707.00	726.00	742.00	753.00	750.00	722.00	652.00	628.00	698.00	757.00	757.00	770.00	773.00	773.00	776.00	781.00	784.00	751.00	750.00	753.00	760.00	775.00
682.00	658.00	662.00	659.00	652.00	621.00	593.00	568.00	557.00	579.00	601.00	599.00	598.00	587.00	575.00	596.00	611.00	638.00	650.00	608.00	563.00	573.00	591.00	628.00	656.00	672.00	671.00	652.00	635.00	612.00	593.00	626.00	585.00	572.00	569.00	569.00	587.00	606.00	655.00	677.00	694.00	674.00	664.00	651.00	645.00	618.00	617.00	627.00	614.00	622.00	608.00	606.00	605.00	596.00	547.00	527.00	517.00	500.00	481.00	502.00	507.00	511.00	531.00	562.00	579.00	576.00	558.00	550.00	563.00	572.00	594.00	610.00	700.00	725.00	740.00	758.00	751.00	733.00	741.00	754.00	762.00	772.00	791.00	816.00	821.00	825.00	800.00	787.00	779.00	769.00	747.00	751.00	764.00	766.00	790.00	810.00	808.00	811.00	813.00	803.00	783.00	791.00	815.00	833.00	850.00	844.00	848.00	840.00	834.00	836.00	837.00	840.00	823.00	777.00	765.00	817.00	831.00	847.00	861.00	864.00	858.00	845.00	847.00	841.00	825.00	810.00	852.00	863.00	872.00	881.00	879.00	870.00	865.00	857.00	852.00	854.00	850.00	846.00	842.00	834.00	829.00	820.00	818.00	807.00	787.00	771.00	753.00	758.00	752.00	737.00	733.00	729.00	727.00	732.00	731.00	725.00	716.00	716.00	754.00	764.00	771.00	757.00	728.00	748.00	759.00	767.00	755.00	739.00	718.00	732.00	753.00	758.00	756.00	749.00	739.00	733.00	698.00	704.00	697.00	678.00	669.00	660.00	646.00	638.00	627.00	628.00	639.00	652.00	632.00	566.00	591.00	587.00	562.00	530.00	519.00	535.00	560.00	612.00	653.00	655.00	654.00	647.00	672.00	682.00	668.00	639.00	591.00	546.00	542.00	529.00	531.00	574.00	622.00	675.00	693.00	702.00	708.00	699.00	703.00	715.00	668.00	689.00	716.00	721.00	716.00	682.00	701.00	718.00	721.00	739.00	756.00	755.00	744.00	727.00	697.00	702.00	726.00	736.00	709.00	686.00	607.00	625.00	678.00	750.00	762.00	772.00	785.00	773.00	755.00	752.00	758.00	731.00	742.00	743.00	748.00	764.00
684.00	660.00	642.00	658.00	655.00	620.00	604.00	584.00	558.00	568.00	596.00	584.00	604.00	575.00	592.00	655.00	664.00	665.00	668.00	626.00	569.00	559.00	566.00	606.00	644.00	667.00	666.00	655.00	618.00	599.00	584.00	602.00	603.00	583.00	561.00	559.00	569.00	601.00	657.00	684.00	679.00	695.00	688.00	678.00	673.00	635.00	610.00	599.00	593.00	591.00	580.00	571.00	580.00	576.00	568.00	535.00	508.00	496.00	481.00	493.00	496.00	500.00	515.00	544.00	561.00	562.00	545.00	556.00	584.00	571.00	576.00	593.00	708.00	725.00	750.00	763.00	761.00	748.00	743.00	749.00	752.00	765.00	787.00	819.00	832.00	836.00	805.00	790.00	780.00	772.00	747.00	746.00	751.00	764.00	800.00	809.00	796.00	802.00	806.00	797.00	778.00	787.00	817.00	832.00	853.00	841.00	838.00	837.00	827.00	830.00	827.00	830.00	819.00	774.00	760.00	803.00	824.00	849.00	861.00	857.00	848.00	834.00	827.00	813.00	796.00	813.00	854.00	862.00	869.00	876.00	873.00	862.00	857.00	849.00	844.00	845.00	840.00	837.00	832.00	821.00	809.00	812.00	809.00	797.00	764.00	753.00	744.00	742.00	740.00	747.00	746.00	746.00	743.00	719.00	714.00	711.00	707.00	732.00	763.00	773.00	775.00	757.00	735.00	756.00	770.00	782.00	773.00	754.00	744.00	751.00	767.00	759.00	749.00	743.00	731.00	726.00	705.00	686.00	682.00	657.00	653.00	654.00	659.00	657.00	643.00	656.00	668.00	670.00	636.00	532.00	544.00	548.00	545.00	527.00	524.00	542.00	567.00	615.00	655.00	655.00	642.00	646.00	675.00	681.00	672.00	650.00	619.00	549.00	535.00	534.00	546.00	564.00	605.00	651.00	674.00	701.00	700.00	681.00	679.00	697.00	661.00	677.00	701.00	697.00	694.00	686.00	709.00	722.00	724.00	743.00	753.00	749.00	739.00	728.00	686.00	702.00	720.00	718.00	663.00	640.00	609.00	645.00	709.00	729.00	736.00	758.00	783.00	774.00	755.00	739.00	743.00	738.00	759.00	758.00	759.00	770.00
679.00	646.00	628.00	628.00	646.00	627.00	630.00	604.00	562.00	554.00	576.00	569.00	577.00	572.00	598.00	654.00	656.00	661.00	651.00	626.00	572.00	553.00	577.00	613.00	632.00	645.00	657.00	667.00	645.00	615.00	591.00	577.00	609.00	597.00	569.00	553.00	565.00	618.00	652.00	664.00	652.00	714.00	711.00	697.00	687.00	643.00	625.00	604.00	612.00	605.00	580.00	563.00	538.00	537.00	537.00	525.00	512.00	494.00	480.00	485.00	490.00	498.00	512.00	521.00	529.00	538.00	547.00	562.00	602.00	592.00	583.00	579.00	668.00	708.00	742.00	760.00	766.00	763.00	764.00	759.00	762.00	781.00	793.00	818.00	834.00	836.00	807.00	791.00	773.00	765.00	745.00	748.00	770.00	788.00	804.00	805.00	787.00	786.00	794.00	780.00	773.00	787.00	815.00	831.00	848.00	839.00	833.00	831.00	814.00	812.00	812.00	817.00	813.00	780.00	760.00	800.00	819.00	838.00	842.00	845.00	839.00	824.00	795.00	784.00	793.00	838.00	863.00	865.00	867.00	866.00	860.00	856.00	851.00	843.00	839.00	844.00	835.00	817.00	802.00	798.00	792.00	798.00	793.00	779.00	754.00	759.00	775.00	774.00	769.00	770.00	772.00	770.00	766.00	740.00	730.00	721.00	710.00	734.00	763.00	773.00	771.00	756.00	743.00	758.00	772.00	787.00	791.00	772.00	768.00	766.00	771.00	762.00	748.00	739.00	729.00	709.00	704.00	686.00	663.00	661.00	685.00	688.00	683.00	667.00	661.00	678.00	682.00	676.00	615.00	548.00	537.00	529.00	525.00	511.00	518.00	544.00	591.00	621.00	648.00	644.00	637.00	660.00	671.00	672.00	664.00	648.00	619.00	554.00	538.00	542.00	566.00	571.00	593.00	631.00	672.00	710.00	686.00	668.00	656.00	662.00	649.00	656.00	670.00	668.00	668.00	693.00	711.00	715.00	719.00	734.00	744.00	741.00	733.00	723.00	681.00	709.00	699.00	676.00	624.00	610.00	611.00	663.00	733.00	747.00	756.00	771.00	785.00	771.00	752.00	739.00	728.00	747.00	760.00	761.00	763.00	765.00
688.00	636.00	632.00	619.00	611.00	614.00	604.00	588.00	563.00	562.00	560.00	554.00	553.00	556.00	569.00	595.00	610.00	611.00	631.00	583.00	562.00	549.00	592.00	611.00	599.00	617.00	637.00	655.00	656.00	630.00	598.00	570.00	574.00	570.00	567.00	556.00	567.00	611.00	623.00	638.00	643.00	709.00	719.00	703.00	676.00	636.00	620.00	618.00	633.00	628.00	608.00	593.00	556.00	534.00	510.00	501.00	492.00	487.00	478.00	495.00	506.00	512.00	528.00	546.00	544.00	546.00	572.00	593.00	622.00	621.00	608.00	600.00	620.00	681.00	716.00	733.00	756.00	775.00	778.00	778.00	778.00	791.00	797.00	817.00	824.00	825.00	806.00	791.00	775.00	763.00	743.00	750.00	778.00	797.00	810.00	800.00	788.00	770.00	769.00	762.00	769.00	797.00	814.00	832.00	849.00	846.00	846.00	841.00	810.00	795.00	793.00	793.00	788.00	772.00	758.00	794.00	824.00	828.00	828.00	831.00	831.00	813.00	777.00	801.00	821.00	849.00	879.00	873.00	863.00	854.00	847.00	847.00	844.00	831.00	832.00	850.00	839.00	817.00	794.00	783.00	771.00	767.00	763.00	759.00	784.00	794.00	799.00	799.00	789.00	789.00	789.00	792.00	785.00	750.00	740.00	724.00	712.00	726.00	763.00	771.00	768.00	754.00	750.00	766.00	774.00	784.00	790.00	778.00	771.00	771.00	772.00	759.00	748.00	738.00	725.00	707.00	681.00	674.00	689.00	685.00	706.00	703.00	692.00	668.00	676.00	693.00	688.00	671.00	637.00	609.00	586.00	547.00	539.00	514.00	510.00	530.00	564.00	582.00	645.00	634.00	640.00	662.00	666.00	662.00	655.00	635.00	601.00	558.00	535.00	543.00	575.00	604.00	637.00	655.00	677.00	697.00	668.00	648.00	637.00	633.00	645.00	660.00	660.00	675.00	683.00	681.00	695.00	704.00	711.00	726.00	729.00	723.00	720.00	713.00	674.00	698.00	688.00	648.00	605.00	593.00	618.00	678.00	716.00	748.00	765.00	781.00	785.00	768.00	757.00	743.00	725.00	741.00	756.00	756.00	750.00	753.00
697.00	640.00	620.00	612.00	620.00	612.00	605.00	614.00	614.00	598.00	553.00	566.00	567.00	565.00	542.00	546.00	561.00	557.00	568.00	574.00	538.00	553.00	582.00	601.00	572.00	565.00	585.00	598.00	632.00	640.00	641.00	594.00	571.00	555.00	546.00	556.00	568.00	601.00	599.00	645.00	671.00	709.00	722.00	721.00	710.00	670.00	661.00	659.00	648.00	630.00	621.00	619.00	598.00	586.00	558.00	533.00	494.00	481.00	491.00	492.00	496.00	499.00	517.00	545.00	548.00	563.00	577.00	580.00	610.00	632.00	641.00	671.00	635.00	621.00	648.00	695.00	735.00	792.00	785.00	766.00	765.00	785.00	777.00	778.00	783.00	773.00	806.00	795.00	783.00	773.00	753.00	742.00	765.00	782.00	793.00	767.00	768.00	757.00	747.00	787.00	796.00	795.00	811.00	827.00	854.00	857.00	856.00	852.00	837.00	830.00	822.00	818.00	805.00	780.00	770.00	767.00	802.00	814.00	809.00	810.00	794.00	770.00	800.00	824.00	833.00	855.00	870.00	863.00	857.00	852.00	840.00	836.00	820.00	796.00	823.00	851.00	846.00	833.00	823.00	809.00	793.00	808.00	804.00	805.00	823.00	824.00	821.00	815.00	813.00	820.00	815.00	807.00	797.00	759.00	741.00	723.00	739.00	759.00	767.00	773.00	762.00	745.00	769.00	778.00	780.00	777.00	777.00	766.00	756.00	759.00	763.00	744.00	731.00	720.00	706.00	702.00	724.00	720.00	729.00	724.00	710.00	692.00	676.00	663.00	696.00	686.00	670.00	659.00	673.00	667.00	658.00	649.00	623.00	526.00	530.00	524.00	518.00	516.00	624.00	617.00	621.00	639.00	653.00	656.00	640.00	590.00	552.00	538.00	523.00	547.00	568.00	632.00	638.00	610.00	595.00	578.00	569.00	614.00	638.00	638.00	667.00	665.00	693.00	712.00	717.00	711.00	699.00	704.00	699.00	716.00	731.00	730.00	717.00	704.00	596.00	606.00	639.00	627.00	580.00	590.00	656.00	723.00	743.00	778.00	775.00	762.00	751.00	744.00	747.00	732.00	720.00	757.00	754.00	737.00	746.00	756.00
693.00	648.00	633.00	652.00	627.00	630.00	622.00	627.00	609.00	584.00	568.00	571.00	595.00	583.00	557.00	546.00	542.00	542.00	555.00	557.00	535.00	557.00	576.00	598.00	575.00	551.00	568.00	581.00	607.00	634.00	643.00	601.00	591.00	567.00	546.00	551.00	573.00	618.00	607.00	622.00	660.00	727.00	724.00	710.00	685.00	649.00	647.00	647.00	633.00	613.00	594.00	594.00	599.00	594.00	543.00	513.00	494.00	481.00	485.00	494.00	504.00	510.00	510.00	535.00	541.00	550.00	560.00	568.00	590.00	610.00	629.00	651.00	647.00	653.00	672.00	707.00	732.00	790.00	777.00	749.00	751.00	766.00	753.00	769.00	762.00	763.00	798.00	793.00	782.00	765.00	751.00	739.00	745.00	765.00	762.00	745.00	745.00	750.00	753.00	792.00	809.00	818.00	823.00	829.00	846.00	851.00	849.00	846.00	839.00	840.00	841.00	833.00	818.00	781.00	766.00	770.00	795.00	805.00	799.00	786.00	766.00	763.00	816.00	836.00	838.00	852.00	852.00	853.00	854.00	846.00	834.00	827.00	809.00	789.00	818.00	850.00	844.00	830.00	814.00	793.00	817.00	823.00	814.00	813.00	827.00	831.00	823.00	818.00	820.00	823.00	813.00	798.00	786.00	754.00	730.00	730.00	748.00	764.00	770.00	773.00	766.00	763.00	773.00	773.00	771.00	770.00	768.00	756.00	731.00	737.00	751.00	743.00	722.00	709.00	714.00	719.00	735.00	731.00	739.00	737.00	711.00	683.00	667.00	680.00	701.00	695.00	686.00	675.00	686.00	678.00	662.00	655.00	627.00	528.00	526.00	517.00	514.00	511.00	599.00	573.00	560.00	606.00	638.00	653.00	638.00	595.00	559.00	528.00	520.00	548.00	583.00	607.00	597.00	566.00	550.00	543.00	593.00	638.00	660.00	666.00	681.00	671.00	682.00	706.00	721.00	729.00	721.00	725.00	718.00	725.00	736.00	737.00	716.00	694.00	588.00	582.00	600.00	609.00	580.00	603.00	676.00	728.00	745.00	779.00	782.00	770.00	754.00	730.00	736.00	722.00	724.00	758.00	753.00	733.00	742.00	751.00
734.00	676.00	669.00	659.00	639.00	645.00	635.00	616.00	594.00	585.00	590.00	582.00	591.00	607.00	583.00	555.00	541.00	534.00	536.00	537.00	530.00	539.00	552.00	571.00	575.00	545.00	552.00	574.00	600.00	631.00	643.00	588.00	569.00	562.00	545.00	547.00	567.00	632.00	628.00	618.00	656.00	738.00	724.00	706.00	680.00	628.00	618.00	623.00	610.00	596.00	590.00	579.00	577.00	574.00	551.00	528.00	504.00	487.00	479.00	499.00	518.00	539.00	526.00	544.00	568.00	580.00	587.00	595.00	582.00	597.00	623.00	653.00	707.00	708.00	699.00	732.00	753.00	780.00	767.00	748.00	734.00	747.00	733.00	756.00	740.00	762.00	795.00	799.00	792.00	780.00	760.00	750.00	737.00	745.00	744.00	741.00	763.00	777.00	770.00	793.00	811.00	826.00	830.00	837.00	836.00	839.00	838.00	834.00	832.00	834.00	839.00	838.00	823.00	778.00	760.00	763.00	788.00	798.00	780.00	756.00	757.00	779.00	831.00	844.00	841.00	843.00	836.00	843.00	852.00	843.00	835.00	817.00	797.00	787.00	819.00	843.00	843.00	831.00	817.00	808.00	826.00	828.00	821.00	820.00	829.00	832.00	816.00	814.00	814.00	817.00	807.00	787.00	772.00	742.00	729.00	734.00	747.00	762.00	775.00	777.00	772.00	772.00	766.00	767.00	762.00	762.00	759.00	746.00	719.00	720.00	741.00	745.00	734.00	727.00	730.00	730.00	743.00	739.00	744.00	744.00	714.00	690.00	673.00	692.00	714.00	710.00	703.00	687.00	697.00	679.00	657.00	634.00	612.00	549.00	543.00	527.00	519.00	509.00	547.00	537.00	537.00	572.00	640.00	652.00	641.00	602.00	562.00	529.00	522.00	563.00	602.00	567.00	550.00	538.00	537.00	566.00	623.00	656.00	678.00	693.00	699.00	692.00	692.00	702.00	723.00	744.00	735.00	736.00	731.00	730.00	734.00	743.00	725.00	710.00	612.00	585.00	579.00	584.00	585.00	608.00	706.00	722.00	729.00	760.00	786.00	785.00	766.00	722.00	718.00	714.00	733.00	751.00	750.00	736.00	728.00	739.00
785.00	744.00	739.00	703.00	661.00	630.00	622.00	600.00	594.00	607.00	610.00	606.00	601.00	610.00	585.00	556.00	555.00	553.00	543.00	531.00	527.00	527.00	528.00	542.00	556.00	537.00	558.00	572.00	593.00	617.00	633.00	602.00	562.00	545.00	543.00	557.00	571.00	619.00	643.00	631.00	643.00	735.00	713.00	685.00	681.00	645.00	612.00	596.00	589.00	575.00	589.00	594.00	560.00	549.00	520.00	514.00	513.00	497.00	482.00	498.00	524.00	551.00	549.00	547.00	562.00	579.00	598.00	615.00	595.00	590.00	615.00	652.00	741.00	734.00	728.00	749.00	771.00	775.00	759.00	742.00	721.00	724.00	724.00	731.00	738.00	756.00	805.00	811.00	805.00	792.00	768.00	756.00	742.00	732.00	754.00	761.00	764.00	786.00	783.00	788.00	815.00	827.00	834.00	842.00	830.00	828.00	826.00	822.00	818.00	820.00	825.00	832.00	825.00	779.00	770.00	747.00	780.00	771.00	751.00	756.00	781.00	802.00	829.00	837.00	842.00	837.00	828.00	835.00	845.00	839.00	839.00	814.00	792.00	783.00	813.00	833.00	838.00	830.00	823.00	823.00	828.00	829.00	826.00	827.00	831.00	830.00	811.00	801.00	802.00	802.00	792.00	773.00	752.00	735.00	744.00	743.00	742.00	762.00	775.00	779.00	776.00	776.00	757.00	754.00	750.00	745.00	740.00	740.00	716.00	712.00	732.00	741.00	738.00	738.00	737.00	737.00	742.00	731.00	736.00	739.00	720.00	702.00	682.00	692.00	717.00	711.00	699.00	687.00	687.00	667.00	645.00	621.00	621.00	596.00	596.00	555.00	522.00	521.00	522.00	517.00	520.00	533.00	623.00	629.00	615.00	590.00	562.00	526.00	520.00	578.00	600.00	540.00	531.00	538.00	555.00	626.00	638.00	650.00	679.00	703.00	718.00	708.00	709.00	713.00	723.00	750.00	743.00	730.00	724.00	728.00	718.00	731.00	730.00	723.00	621.00	599.00	585.00	566.00	607.00	608.00	701.00	708.00	721.00	768.00	807.00	795.00	772.00	730.00	712.00	714.00	738.00	734.00	753.00	741.00	722.00	736.00
811.00	815.00	801.00	761.00	707.00	630.00	622.00	626.00	622.00	600.00	612.00	633.00	619.00	594.00	567.00	575.00	587.00	603.00	576.00	573.00	582.00	578.00	565.00	528.00	521.00	522.00	539.00	548.00	560.00	590.00	616.00	583.00	565.00	556.00	541.00	562.00	595.00	630.00	641.00	657.00	673.00	706.00	686.00	669.00	647.00	645.00	634.00	615.00	603.00	598.00	555.00	564.00	544.00	521.00	512.00	506.00	490.00	483.00	480.00	514.00	528.00	540.00	531.00	561.00	580.00	593.00	600.00	615.00	635.00	617.00	616.00	641.00	729.00	726.00	747.00	767.00	779.00	765.00	743.00	729.00	724.00	700.00	714.00	755.00	778.00	792.00	807.00	814.00	810.00	793.00	761.00	747.00	734.00	738.00	780.00	792.00	786.00	789.00	795.00	785.00	803.00	823.00	833.00	837.00	825.00	818.00	809.00	798.00	795.00	801.00	808.00	816.00	823.00	790.00	771.00	737.00	754.00	747.00	770.00	790.00	817.00	820.00	826.00	837.00	850.00	828.00	814.00	821.00	824.00	824.00	822.00	816.00	799.00	773.00	785.00	828.00	820.00	819.00	835.00	844.00	836.00	830.00	820.00	817.00	817.00	830.00	797.00	773.00	762.00	757.00	752.00	754.00	754.00	762.00	767.00	771.00	767.00	763.00	775.00	776.00	770.00	763.00	742.00	741.00	735.00	724.00	714.00	727.00	722.00	702.00	714.00	739.00	737.00	722.00	723.00	735.00	726.00	717.00	699.00	720.00	735.00	736.00	727.00	725.00	720.00	698.00	678.00	680.00	672.00	655.00	654.00	658.00	670.00	652.00	627.00	602.00	619.00	610.00	542.00	514.00	508.00	506.00	530.00	543.00	534.00	538.00	545.00	523.00	524.00	551.00	534.00	542.00	576.00	628.00	661.00	681.00	678.00	671.00	682.00	703.00	709.00	708.00	708.00	685.00	696.00	732.00	724.00	718.00	704.00	700.00	704.00	713.00	713.00	704.00	616.00	604.00	591.00	567.00	643.00	732.00	738.00	746.00	748.00	766.00	783.00	774.00	765.00	745.00	723.00	704.00	706.00	731.00	749.00	737.00	714.00	723.00
796.00	815.00	808.00	774.00	737.00	643.00	642.00	629.00	609.00	589.00	605.00	623.00	616.00	591.00	586.00	586.00	605.00	607.00	572.00	588.00	596.00	580.00	555.00	540.00	532.00	525.00	521.00	528.00	572.00	590.00	602.00	593.00	551.00	539.00	534.00	566.00	580.00	607.00	644.00	664.00	677.00	689.00	704.00	689.00	662.00	622.00	626.00	613.00	591.00	574.00	555.00	552.00	545.00	543.00	531.00	527.00	505.00	480.00	484.00	518.00	525.00	525.00	523.00	527.00	555.00	570.00	584.00	608.00	623.00	619.00	632.00	655.00	722.00	725.00	748.00	766.00	771.00	759.00	742.00	721.00	707.00	706.00	727.00	761.00	776.00	788.00	798.00	804.00	803.00	789.00	762.00	737.00	734.00	754.00	782.00	799.00	796.00	799.00	804.00	795.00	807.00	822.00	827.00	831.00	822.00	818.00	811.00	803.00	783.00	779.00	789.00	806.00	816.00	793.00	778.00	742.00	730.00	761.00	785.00	807.00	823.00	827.00	828.00	838.00	853.00	827.00	803.00	810.00	818.00	818.00	814.00	809.00	797.00	770.00	783.00	813.00	810.00	818.00	830.00	840.00	843.00	833.00	821.00	812.00	804.00	805.00	767.00	761.00	767.00	774.00	779.00	779.00	758.00	775.00	780.00	785.00	783.00	772.00	776.00	777.00	773.00	768.00	761.00	757.00	756.00	748.00	731.00	705.00	706.00	697.00	706.00	732.00	732.00	712.00	703.00	723.00	715.00	708.00	691.00	714.00	730.00	731.00	731.00	734.00	716.00	700.00	700.00	706.00	678.00	676.00	676.00	675.00	687.00	670.00	648.00	628.00	649.00	640.00	590.00	540.00	514.00	508.00	509.00	514.00	519.00	528.00	553.00	521.00	523.00	529.00	519.00	577.00	625.00	645.00	683.00	700.00	697.00	700.00	708.00	715.00	689.00	708.00	707.00	676.00	677.00	694.00	693.00	720.00	716.00	680.00	706.00	705.00	706.00	699.00	591.00	582.00	584.00	564.00	610.00	684.00	756.00	755.00	751.00	760.00	763.00	762.00	772.00	754.00	728.00	706.00	697.00	721.00	749.00	738.00	716.00	705.00
734.00	780.00	793.00	808.00	800.00	740.00	645.00	633.00	614.00	610.00	638.00	622.00	602.00	601.00	607.00	623.00	609.00	580.00	569.00	607.00	586.00	568.00	572.00	577.00	558.00	537.00	525.00	520.00	537.00	554.00	575.00	596.00	561.00	542.00	529.00	545.00	568.00	615.00	628.00	625.00	613.00	673.00	701.00	690.00	668.00	623.00	606.00	591.00	596.00	604.00	592.00	583.00	581.00	567.00	543.00	519.00	504.00	495.00	479.00	488.00	505.00	498.00	518.00	542.00	553.00	558.00	561.00	566.00	583.00	589.00	605.00	633.00	704.00	710.00	728.00	744.00	751.00	753.00	751.00	747.00	725.00	691.00	718.00	748.00	741.00	757.00	775.00	779.00	785.00	778.00	754.00	730.00	738.00	769.00	793.00	797.00	793.00	800.00	801.00	800.00	807.00	814.00	813.00	817.00	823.00	820.00	815.00	809.00	796.00	783.00	765.00	771.00	789.00	807.00	790.00	756.00	731.00	767.00	789.00	800.00	814.00	829.00	816.00	819.00	836.00	824.00	800.00	789.00	798.00	800.00	805.00	798.00	782.00	756.00	774.00	801.00	808.00	819.00	834.00	852.00	861.00	855.00	834.00	829.00	801.00	789.00	809.00	817.00	809.00	825.00	815.00	791.00	763.00	796.00	806.00	810.00	809.00	794.00	778.00	760.00	754.00	747.00	752.00	759.00	762.00	758.00	751.00	727.00	714.00	702.00	696.00	697.00	713.00	717.00	696.00	694.00	709.00	700.00	685.00	703.00	697.00	707.00	714.00	721.00	720.00	723.00	727.00	724.00	691.00	708.00	706.00	700.00	698.00	663.00	663.00	676.00	676.00	670.00	595.00	555.00	534.00	519.00	516.00	509.00	513.00	523.00	522.00	532.00	519.00	517.00	544.00	549.00	602.00	648.00	687.00	708.00	729.00	718.00	704.00	688.00	669.00	675.00	669.00	656.00	662.00	688.00	713.00	722.00	721.00	685.00	680.00	683.00	690.00	675.00	622.00	596.00	574.00	556.00	603.00	651.00	706.00	714.00	712.00	766.00	780.00	734.00	752.00	770.00	744.00	717.00	696.00	727.00	743.00	732.00	716.00	695.00
761.00	781.00	800.00	812.00	814.00	792.00	723.00	653.00	627.00	624.00	644.00	630.00	616.00	618.00	618.00	620.00	593.00	574.00	590.00	618.00	617.00	580.00	601.00	566.00	549.00	538.00	537.00	531.00	519.00	534.00	549.00	574.00	556.00	545.00	528.00	539.00	563.00	616.00	604.00	603.00	582.00	650.00	682.00	703.00	688.00	638.00	634.00	603.00	611.00	632.00	617.00	615.00	579.00	565.00	536.00	539.00	527.00	512.00	487.00	477.00	488.00	488.00	523.00	567.00	580.00	588.00	587.00	588.00	608.00	612.00	615.00	643.00	700.00	723.00	740.00	751.00	756.00	744.00	739.00	734.00	720.00	696.00	723.00	722.00	730.00	748.00	759.00	771.00	778.00	773.00	748.00	727.00	748.00	774.00	791.00	787.00	790.00	793.00	789.00	789.00	803.00	805.00	804.00	807.00	821.00	818.00	812.00	807.00	793.00	780.00	772.00	767.00	767.00	799.00	786.00	757.00	735.00	762.00	781.00	792.00	805.00	817.00	814.00	812.00	824.00	821.00	805.00	793.00	786.00	798.00	805.00	793.00	769.00	762.00	783.00	805.00	814.00	828.00	846.00	862.00	858.00	855.00	841.00	835.00	810.00	809.00	827.00	822.00	815.00	840.00	824.00	798.00	769.00	796.00	810.00	816.00	817.00	802.00	793.00	783.00	777.00	766.00	738.00	746.00	754.00	760.00	757.00	735.00	726.00	719.00	712.00	687.00	694.00	706.00	698.00	681.00	696.00	695.00	673.00	682.00	674.00	696.00	706.00	710.00	707.00	711.00	717.00	718.00	704.00	721.00	719.00	710.00	698.00	676.00	682.00	675.00	664.00	661.00	608.00	556.00	533.00	541.00	517.00	510.00	511.00	518.00	517.00	536.00	524.00	514.00	533.00	591.00	621.00	660.00	680.00	683.00	724.00	704.00	695.00	681.00	651.00	651.00	658.00	675.00	689.00	697.00	712.00	720.00	721.00	688.00	674.00	696.00	704.00	701.00	607.00	584.00	566.00	551.00	591.00	599.00	655.00	703.00	728.00	766.00	765.00	727.00	733.00	769.00	751.00	729.00	703.00	723.00	734.00	719.00	700.00	694.00
734.00	797.00	809.00	802.00	780.00	805.00	769.00	724.00	686.00	651.00	717.00	727.00	692.00	708.00	635.00	606.00	587.00	605.00	662.00	691.00	679.00	672.00	646.00	579.00	564.00	590.00	580.00	556.00	534.00	520.00	515.00	528.00	534.00	522.00	539.00	554.00	567.00	574.00	585.00	575.00	559.00	635.00	656.00	690.00	695.00	663.00	660.00	651.00	639.00	633.00	641.00	627.00	568.00	534.00	520.00	511.00	510.00	519.00	525.00	492.00	478.00	473.00	519.00	543.00	559.00	557.00	573.00	597.00	630.00	622.00	618.00	636.00	720.00	733.00	742.00	739.00	737.00	705.00	716.00	714.00	696.00	691.00	695.00	702.00	713.00	726.00	757.00	766.00	771.00	765.00	739.00	722.00	746.00	769.00	777.00	771.00	775.00	767.00	765.00	780.00	786.00	786.00	791.00	795.00	821.00	820.00	815.00	812.00	813.00	812.00	798.00	776.00	756.00	768.00	770.00	751.00	731.00	762.00	785.00	792.00	798.00	803.00	798.00	790.00	803.00	822.00	798.00	791.00	783.00	766.00	770.00	760.00	757.00	779.00	787.00	822.00	815.00	815.00	832.00	854.00	848.00	842.00	846.00	853.00	821.00	820.00	838.00	835.00	833.00	829.00	818.00	794.00	771.00	801.00	807.00	810.00	823.00	818.00	818.00	811.00	801.00	791.00	757.00	727.00	725.00	734.00	738.00	726.00	731.00	727.00	718.00	693.00	674.00	672.00	673.00	678.00	679.00	672.00	669.00	672.00	649.00	657.00	662.00	669.00	658.00	666.00	686.00	694.00	718.00	719.00	724.00	712.00	702.00	689.00	676.00	661.00	652.00	635.00	635.00	620.00	587.00	575.00	577.00	548.00	521.00	514.00	513.00	510.00	516.00	519.00	517.00	569.00	601.00	634.00	644.00	675.00	701.00	678.00	653.00	645.00	662.00	670.00	678.00	694.00	705.00	701.00	698.00	704.00	696.00	665.00	678.00	680.00	653.00	646.00	608.00	595.00	575.00	558.00	558.00	567.00	670.00	719.00	740.00	743.00	737.00	736.00	739.00	712.00	729.00	731.00	714.00	623.00	697.00	687.00	707.00	724.00
720.00	795.00	805.00	794.00	770.00	804.00	793.00	777.00	747.00	710.00	783.00	756.00	753.00	767.00	635.00	603.00	600.00	625.00	689.00	706.00	712.00	700.00	667.00	608.00	593.00	605.00	587.00	572.00	556.00	537.00	529.00	511.00	521.00	522.00	547.00	570.00	585.00	553.00	561.00	559.00	549.00	607.00	635.00	661.00	674.00	643.00	636.00	646.00	638.00	620.00	611.00	593.00	548.00	532.00	524.00	532.00	531.00	544.00	533.00	507.00	493.00	477.00	493.00	517.00	527.00	545.00	572.00	585.00	616.00	599.00	583.00	576.00	720.00	706.00	720.00	728.00	725.00	705.00	689.00	689.00	677.00	686.00	687.00	702.00	725.00	737.00	758.00	771.00	774.00	766.00	738.00	722.00	756.00	769.00	768.00	760.00	759.00	759.00	767.00	777.00	780.00	789.00	801.00	809.00	821.00	817.00	812.00	805.00	809.00	814.00	805.00	780.00	768.00	746.00	755.00	744.00	727.00	765.00	785.00	788.00	789.00	791.00	769.00	777.00	799.00	820.00	802.00	791.00	786.00	775.00	754.00	747.00	772.00	790.00	787.00	803.00	800.00	807.00	826.00	853.00	836.00	835.00	851.00	855.00	831.00	825.00	841.00	845.00	845.00	822.00	806.00	785.00	784.00	807.00	819.00	820.00	821.00	815.00	811.00	812.00	807.00	792.00	761.00	742.00	727.00	716.00	726.00	703.00	706.00	703.00	692.00	678.00	676.00	679.00	677.00	693.00	698.00	685.00	689.00	687.00	660.00	644.00	645.00	641.00	639.00	647.00	668.00	683.00	701.00	706.00	708.00	687.00	683.00	689.00	675.00	661.00	647.00	630.00	652.00	634.00	611.00	621.00	607.00	588.00	545.00	521.00	515.00	507.00	507.00	517.00	517.00	546.00	569.00	613.00	643.00	680.00	692.00	674.00	653.00	632.00	657.00	658.00	666.00	692.00	703.00	700.00	688.00	693.00	682.00	656.00	686.00	682.00	642.00	605.00	584.00	574.00	564.00	557.00	555.00	575.00	709.00	728.00	732.00	733.00	726.00	721.00	749.00	698.00	714.00	727.00	705.00	605.00	639.00	693.00	720.00	730.00
661.00	773.00	802.00	789.00	764.00	793.00	807.00	813.00	796.00	780.00	805.00	798.00	788.00	792.00	651.00	612.00	612.00	640.00	701.00	724.00	722.00	711.00	694.00	650.00	629.00	617.00	601.00	594.00	572.00	558.00	546.00	509.00	513.00	532.00	545.00	571.00	584.00	552.00	541.00	541.00	558.00	594.00	615.00	642.00	665.00	635.00	623.00	623.00	626.00	613.00	604.00	577.00	547.00	550.00	541.00	553.00	547.00	544.00	529.00	508.00	488.00	475.00	489.00	524.00	527.00	537.00	555.00	570.00	601.00	578.00	558.00	555.00	689.00	675.00	701.00	710.00	708.00	700.00	678.00	674.00	692.00	716.00	716.00	697.00	717.00	726.00	757.00	773.00	777.00	772.00	735.00	720.00	749.00	750.00	754.00	752.00	755.00	769.00	780.00	787.00	789.00	797.00	809.00	820.00	821.00	817.00	811.00	802.00	802.00	807.00	806.00	794.00	779.00	741.00	735.00	735.00	725.00	775.00	783.00	781.00	780.00	780.00	759.00	785.00	802.00	825.00	809.00	793.00	784.00	778.00	762.00	754.00	779.00	792.00	782.00	778.00	790.00	804.00	821.00	836.00	828.00	830.00	850.00	853.00	841.00	830.00	837.00	847.00	848.00	828.00	808.00	802.00	807.00	815.00	826.00	832.00	822.00	810.00	791.00	800.00	803.00	793.00	770.00	758.00	739.00	718.00	708.00	695.00	693.00	690.00	694.00	704.00	708.00	698.00	683.00	701.00	707.00	692.00	700.00	697.00	677.00	654.00	666.00	658.00	659.00	636.00	638.00	654.00	677.00	694.00	696.00	677.00	658.00	685.00	677.00	663.00	652.00	641.00	660.00	653.00	652.00	649.00	624.00	600.00	562.00	547.00	541.00	514.00	505.00	515.00	514.00	547.00	568.00	594.00	632.00	664.00	677.00	665.00	647.00	626.00	641.00	643.00	666.00	689.00	700.00	696.00	683.00	675.00	668.00	662.00	698.00	697.00	681.00	658.00	596.00	584.00	572.00	561.00	558.00	586.00	700.00	715.00	721.00	723.00	711.00	702.00	719.00	698.00	691.00	695.00	690.00	595.00	649.00	698.00	720.00	721.00
638.00	747.00	788.00	782.00	760.00	789.00	803.00	817.00	807.00	798.00	813.00	813.00	806.00	797.00	675.00	622.00	633.00	679.00	732.00	742.00	718.00	704.00	690.00	647.00	621.00	599.00	591.00	581.00	555.00	545.00	537.00	508.00	513.00	534.00	555.00	566.00	559.00	548.00	533.00	551.00	563.00	603.00	628.00	657.00	680.00	651.00	625.00	609.00	602.00	599.00	604.00	596.00	581.00	582.00	560.00	573.00	565.00	546.00	517.00	492.00	479.00	478.00	508.00	542.00	552.00	563.00	569.00	579.00	609.00	574.00	552.00	541.00	609.00	643.00	689.00	694.00	684.00	679.00	672.00	687.00	714.00	741.00	734.00	705.00	706.00	713.00	735.00	762.00	776.00	773.00	736.00	712.00	720.00	730.00	747.00	755.00	764.00	774.00	786.00	802.00	807.00	809.00	815.00	824.00	817.00	812.00	800.00	792.00	790.00	791.00	790.00	781.00	766.00	738.00	738.00	724.00	723.00	774.00	777.00	775.00	771.00	770.00	764.00	791.00	803.00	824.00	808.00	797.00	788.00	776.00	763.00	753.00	774.00	782.00	775.00	775.00	789.00	808.00	830.00	829.00	823.00	824.00	841.00	842.00	846.00	841.00	835.00	838.00	838.00	823.00	813.00	821.00	829.00	824.00	826.00	831.00	822.00	801.00	755.00	773.00	786.00	785.00	761.00	750.00	729.00	709.00	708.00	711.00	706.00	706.00	730.00	736.00	727.00	706.00	691.00	712.00	717.00	696.00	708.00	704.00	683.00	663.00	682.00	676.00	676.00	661.00	643.00	630.00	656.00	684.00	692.00	682.00	653.00	689.00	686.00	675.00	668.00	662.00	676.00	676.00	673.00	648.00	607.00	597.00	583.00	576.00	574.00	516.00	503.00	506.00	509.00	527.00	535.00	552.00	593.00	622.00	664.00	648.00	634.00	620.00	673.00	667.00	661.00	678.00	700.00	697.00	693.00	684.00	671.00	659.00	699.00	703.00	704.00	696.00	633.00	599.00	574.00	562.00	552.00	579.00	666.00	703.00	699.00	715.00	700.00	693.00	717.00	715.00	691.00	645.00	631.00	583.00	638.00	676.00	702.00	705.00
