495.00	484.00	487.00	490.00	491.00	490.00	489.00	488.00	490.00	492.00	490.00	490.00	490.00	491.00	492.00	491.00	494.00	496.00	496.00	495.00	491.00	491.00	491.00	490.00	489.00	486.00	484.00	484.00	484.00	484.00	485.00	482.00	480.00	480.00	476.00	478.00	477.00	476.00	476.00	473.00	472.00	473.00	474.00	473.00	473.00	472.00	473.00	473.00	473.00	472.00	471.00	471.00	470.00	468.00	467.00	464.00	465.00	464.00	463.00	463.00	465.00	461.00	461.00	461.00	462.00	463.00	463.00	462.00	463.00	464.00	465.00	465.00	464.00	463.00	462.00	461.00	459.00	461.00	463.00	459.00	461.00	461.00	459.00	460.00	462.00	460.00	461.00	463.00	461.00	460.00	460.00	460.00	463.00	459.00	457.00	458.00	458.00	460.00	461.00	462.00	462.00	462.00	463.00	464.00	464.00	463.00	462.00	462.00	462.00	462.00	461.00	462.00	462.00	463.00	463.00	463.00	465.00	470.00	463.00	472.00	473.00	467.00	462.00	463.00	453.00	452.00	453.00	452.00	450.00	445.00	444.00	442.00	443.00	448.00	449.00	457.00	457.00	456.00	457.00	458.00	458.00	459.00	459.00	460.00	460.00	460.00	460.00	461.00	460.00	460.00	460.00	463.00	465.00	463.00	462.00	461.00	462.00	463.00	463.00	462.00	460.00	460.00	460.00	460.00	459.00	459.00	459.00	459.00	459.00	459.00	458.00	457.00	457.00	457.00	458.00	457.00	458.00	462.00	467.00	467.00	468.00	465.00	465.00	467.00	469.00	471.00	469.00	466.00	467.00	471.00	478.00	476.00	476.00	477.00	474.00	473.00	471.00	472.00	469.00	469.00	468.00	470.00	469.00	471.00	471.00	468.00	466.00	468.00	468.00	468.00	469.00	470.00	468.00	469.00	471.00	475.00	475.00	476.00	475.00	474.00	477.00	478.00	470.00	481.00	483.00	483.00	483.00	485.00	483.00	486.00	486.00	482.00	481.00	482.00	476.00	477.00	477.00	476.00	474.00	473.00	484.00	484.00	480.00	478.00	477.00	477.00	477.00	476.00	474.00	477.00	477.00	474.00	478.00	482.00	478.00	481.00
491.00	483.00	480.00	489.00	490.00	490.00	488.00	491.00	493.00	493.00	493.00	492.00	495.00	496.00	496.00	494.00	494.00	494.00	494.00	494.00	494.00	496.00	494.00	492.00	490.00	488.00	488.00	487.00	486.00	484.00	483.00	483.00	483.00	483.00	478.00	476.00	477.00	477.00	476.00	476.00	476.00	476.00	476.00	475.00	475.00	474.00	473.00	473.00	472.00	471.00	472.00	471.00	471.00	471.00	471.00	471.00	465.00	466.00	468.00	468.00	468.00	466.00	464.00	462.00	461.00	462.00	461.00	461.00	460.00	461.00	464.00	464.00	463.00	462.00	461.00	460.00	459.00	460.00	459.00	459.00	461.00	460.00	458.00	459.00	461.00	460.00	461.00	460.00	461.00	461.00	461.00	461.00	462.00	463.00	459.00	457.00	458.00	461.00	461.00	462.00	463.00	461.00	461.00	463.00	463.00	463.00	461.00	462.00	461.00	464.00	463.00	462.00	463.00	463.00	463.00	462.00	463.00	464.00	463.00	466.00	461.00	459.00	459.00	460.00	453.00	453.00	453.00	453.00	449.00	445.00	443.00	443.00	442.00	444.00	451.00	459.00	459.00	457.00	457.00	457.00	458.00	459.00	460.00	460.00	460.00	460.00	461.00	460.00	461.00	461.00	460.00	461.00	464.00	465.00	461.00	460.00	461.00	461.00	462.00	463.00	462.00	461.00	460.00	461.00	459.00	459.00	458.00	458.00	459.00	459.00	458.00	457.00	458.00	457.00	457.00	457.00	457.00	458.00	474.00	470.00	469.00	471.00	466.00	469.00	470.00	472.00	474.00	467.00	467.00	472.00	478.00	479.00	474.00	474.00	474.00	471.00	468.00	469.00	468.00	467.00	466.00	466.00	467.00	465.00	465.00	465.00	467.00	469.00	469.00	466.00	467.00	469.00	468.00	467.00	471.00	473.00	474.00	470.00	473.00	473.00	474.00	476.00	469.00	479.00	481.00	482.00	482.00	482.00	482.00	482.00	482.00	476.00	473.00	478.00	477.00	476.00	480.00	481.00	479.00	474.00	479.00	483.00	484.00	481.00	480.00	479.00	480.00	476.00	475.00	477.00	488.00	481.00	472.00	475.00	478.00	475.00
482.00	480.00	479.00	488.00	488.00	488.00	489.00	491.00	492.00	493.00	493.00	495.00	494.00	494.00	494.00	494.00	492.00	494.00	495.00	494.00	494.00	496.00	493.00	491.00	489.00	489.00	489.00	488.00	488.00	488.00	485.00	485.00	482.00	481.00	482.00	479.00	476.00	475.00	476.00	475.00	475.00	474.00	475.00	476.00	476.00	474.00	475.00	473.00	473.00	472.00	471.00	471.00	472.00	471.00	471.00	472.00	466.00	466.00	468.00	469.00	469.00	468.00	467.00	465.00	464.00	462.00	460.00	461.00	459.00	460.00	463.00	463.00	463.00	460.00	459.00	460.00	461.00	462.00	461.00	460.00	461.00	459.00	460.00	460.00	461.00	462.00	464.00	461.00	461.00	461.00	461.00	461.00	461.00	463.00	461.00	459.00	458.00	461.00	462.00	462.00	462.00	463.00	462.00	463.00	463.00	463.00	462.00	461.00	462.00	461.00	473.00	470.00	464.00	474.00	477.00	465.00	463.00	462.00	462.00	466.00	461.00	464.00	461.00	460.00	452.00	452.00	454.00	452.00	449.00	444.00	444.00	443.00	444.00	445.00	450.00	459.00	459.00	458.00	457.00	457.00	458.00	459.00	460.00	460.00	460.00	460.00	461.00	461.00	461.00	460.00	460.00	460.00	460.00	462.00	461.00	460.00	460.00	461.00	460.00	461.00	463.00	463.00	461.00	461.00	459.00	459.00	459.00	459.00	459.00	459.00	459.00	458.00	458.00	458.00	457.00	457.00	455.00	455.00	461.00	466.00	467.00	470.00	467.00	469.00	470.00	473.00	472.00	471.00	470.00	474.00	480.00	471.00	467.00	469.00	471.00	470.00	469.00	470.00	471.00	478.00	469.00	466.00	465.00	467.00	468.00	465.00	465.00	466.00	466.00	467.00	467.00	466.00	466.00	467.00	470.00	472.00	473.00	470.00	470.00	473.00	473.00	474.00	472.00	472.00	477.00	480.00	481.00	480.00	478.00	476.00	475.00	477.00	477.00	477.00	480.00	480.00	484.00	484.00	484.00	479.00	483.00	481.00	478.00	480.00	486.00	494.00	489.00	485.00	482.00	479.00	481.00	482.00	480.00	486.00	488.00	478.00
473.00	475.00	475.00	485.00	488.00	489.00	491.00	494.00	494.00	497.00	500.00	501.00	496.00	496.00	494.00	494.00	495.00	495.00	494.00	492.00	492.00	493.00	493.00	494.00	491.00	490.00	489.00	490.00	489.00	488.00	486.00	484.00	482.00	483.00	481.00	480.00	479.00	478.00	477.00	476.00	476.00	475.00	474.00	475.00	475.00	476.00	475.00	474.00	473.00	472.00	472.00	471.00	471.00	471.00	471.00	470.00	469.00	465.00	467.00	469.00	468.00	467.00	467.00	467.00	466.00	464.00	463.00	461.00	459.00	458.00	459.00	460.00	460.00	460.00	462.00	461.00	462.00	462.00	462.00	461.00	460.00	460.00	461.00	461.00	460.00	461.00	461.00	460.00	463.00	462.00	462.00	462.00	462.00	462.00	463.00	459.00	459.00	461.00	462.00	463.00	463.00	463.00	463.00	463.00	462.00	463.00	462.00	463.00	462.00	462.00	471.00	468.00	467.00	468.00	471.00	474.00	477.00	466.00	462.00	464.00	465.00	465.00	463.00	461.00	452.00	453.00	452.00	452.00	447.00	445.00	445.00	445.00	445.00	446.00	448.00	458.00	459.00	458.00	457.00	457.00	460.00	462.00	464.00	466.00	468.00	469.00	467.00	462.00	461.00	460.00	459.00	460.00	460.00	461.00	462.00	460.00	460.00	459.00	459.00	459.00	463.00	461.00	461.00	461.00	460.00	459.00	459.00	460.00	460.00	459.00	459.00	459.00	459.00	459.00	458.00	459.00	458.00	457.00	455.00	456.00	459.00	463.00	469.00	470.00	472.00	471.00	471.00	471.00	473.00	474.00	482.00	471.00	470.00	469.00	470.00	470.00	469.00	471.00	470.00	471.00	468.00	467.00	467.00	468.00	471.00	467.00	465.00	467.00	467.00	469.00	470.00	469.00	470.00	469.00	469.00	470.00	471.00	469.00	474.00	475.00	473.00	473.00	475.00	471.00	471.00	476.00	478.00	476.00	475.00	476.00	475.00	475.00	475.00	477.00	479.00	480.00	482.00	482.00	483.00	482.00	477.00	479.00	479.00	478.00	485.00	501.00	499.00	491.00	485.00	480.00	480.00	480.00	482.00	489.00	497.00	479.00
473.00	475.00	475.00	485.00	488.00	489.00	491.00	494.00	494.00	497.00	500.00	501.00	496.00	496.00	494.00	494.00	495.00	495.00	494.00	492.00	492.00	493.00	493.00	494.00	491.00	490.00	489.00	490.00	489.00	488.00	486.00	484.00	482.00	483.00	481.00	480.00	479.00	478.00	477.00	476.00	476.00	475.00	474.00	475.00	475.00	476.00	475.00	474.00	473.00	472.00	472.00	471.00	471.00	471.00	471.00	470.00	469.00	465.00	467.00	469.00	468.00	467.00	467.00	467.00	466.00	464.00	463.00	461.00	459.00	458.00	459.00	460.00	460.00	460.00	462.00	461.00	462.00	462.00	462.00	461.00	460.00	460.00	461.00	461.00	460.00	461.00	461.00	460.00	463.00	462.00	462.00	462.00	462.00	462.00	463.00	459.00	459.00	461.00	462.00	463.00	463.00	463.00	463.00	463.00	462.00	463.00	462.00	463.00	462.00	462.00	471.00	468.00	467.00	468.00	471.00	474.00	477.00	466.00	462.00	464.00	465.00	465.00	463.00	461.00	452.00	453.00	452.00	452.00	447.00	445.00	445.00	445.00	445.00	446.00	448.00	458.00	459.00	458.00	457.00	457.00	460.00	462.00	464.00	466.00	468.00	469.00	467.00	462.00	461.00	460.00	459.00	460.00	460.00	461.00	462.00	460.00	460.00	459.00	459.00	459.00	463.00	461.00	461.00	461.00	460.00	459.00	459.00	460.00	460.00	459.00	459.00	459.00	459.00	459.00	458.00	459.00	458.00	457.00	455.00	456.00	459.00	463.00	469.00	470.00	472.00	471.00	471.00	471.00	473.00	474.00	482.00	471.00	470.00	469.00	470.00	470.00	469.00	471.00	470.00	471.00	468.00	467.00	467.00	468.00	471.00	467.00	465.00	467.00	467.00	469.00	470.00	469.00	470.00	469.00	469.00	470.00	471.00	469.00	474.00	475.00	473.00	473.00	475.00	471.00	471.00	476.00	478.00	476.00	475.00	476.00	475.00	475.00	475.00	477.00	479.00	480.00	482.00	482.00	483.00	482.00	477.00	479.00	479.00	478.00	485.00	501.00	499.00	491.00	485.00	480.00	480.00	480.00	482.00	489.00	497.00	479.00
471.00	474.00	480.00	487.00	486.00	487.00	488.00	495.00	496.00	498.00	499.00	499.00	502.00	501.00	499.00	499.00	498.00	496.00	495.00	496.00	496.00	494.00	496.00	495.00	492.00	489.00	488.00	488.00	488.00	489.00	488.00	485.00	486.00	485.00	481.00	482.00	481.00	480.00	481.00	479.00	478.00	476.00	478.00	478.00	479.00	477.00	474.00	476.00	475.00	475.00	475.00	474.00	472.00	473.00	472.00	471.00	471.00	469.00	470.00	470.00	469.00	468.00	466.00	464.00	464.00	464.00	464.00	464.00	464.00	463.00	463.00	462.00	459.00	459.00	459.00	458.00	459.00	461.00	461.00	459.00	464.00	465.00	464.00	459.00	460.00	461.00	461.00	460.00	462.00	463.00	462.00	463.00	463.00	464.00	464.00	462.00	459.00	459.00	463.00	462.00	462.00	463.00	463.00	464.00	463.00	463.00	463.00	463.00	462.00	462.00	469.00	467.00	468.00	466.00	468.00	462.00	461.00	461.00	461.00	462.00	462.00	461.00	461.00	461.00	456.00	454.00	453.00	450.00	449.00	447.00	445.00	445.00	446.00	444.00	445.00	452.00	460.00	460.00	460.00	459.00	458.00	459.00	459.00	459.00	459.00	459.00	459.00	459.00	459.00	459.00	459.00	461.00	462.00	463.00	461.00	459.00	459.00	459.00	460.00	460.00	458.00	458.00	460.00	463.00	461.00	462.00	463.00	463.00	460.00	461.00	459.00	459.00	459.00	459.00	458.00	459.00	459.00	458.00	458.00	457.00	457.00	456.00	463.00	464.00	464.00	464.00	465.00	467.00	474.00	478.00	474.00	470.00	471.00	471.00	470.00	470.00	470.00	468.00	470.00	470.00	470.00	471.00	471.00	470.00	469.00	467.00	468.00	471.00	468.00	470.00	471.00	471.00	471.00	472.00	472.00	475.00	477.00	476.00	467.00	467.00	467.00	468.00	469.00	473.00	476.00	471.00	473.00	481.00	480.00	475.00	474.00	473.00	474.00	478.00	477.00	478.00	479.00	479.00	480.00	480.00	472.00	476.00	478.00	478.00	481.00	488.00	486.00	485.00	486.00	480.00	479.00	483.00	484.00	484.00	486.00	489.00
471.00	474.00	480.00	487.00	486.00	487.00	488.00	495.00	496.00	498.00	499.00	499.00	502.00	501.00	499.00	499.00	498.00	496.00	495.00	496.00	496.00	494.00	496.00	495.00	492.00	489.00	488.00	488.00	488.00	489.00	488.00	485.00	486.00	485.00	481.00	482.00	481.00	480.00	481.00	479.00	478.00	476.00	478.00	478.00	479.00	477.00	474.00	476.00	475.00	475.00	475.00	474.00	472.00	473.00	472.00	471.00	471.00	469.00	470.00	470.00	469.00	468.00	466.00	464.00	464.00	464.00	464.00	464.00	464.00	463.00	463.00	462.00	459.00	459.00	459.00	458.00	459.00	461.00	461.00	459.00	464.00	465.00	464.00	459.00	460.00	461.00	461.00	460.00	462.00	463.00	462.00	463.00	463.00	464.00	464.00	462.00	459.00	459.00	463.00	462.00	462.00	463.00	463.00	464.00	463.00	463.00	463.00	463.00	462.00	462.00	469.00	467.00	468.00	466.00	468.00	462.00	461.00	461.00	461.00	462.00	462.00	461.00	461.00	461.00	456.00	454.00	453.00	450.00	449.00	447.00	445.00	445.00	446.00	444.00	445.00	452.00	460.00	460.00	460.00	459.00	458.00	459.00	459.00	459.00	459.00	459.00	459.00	459.00	459.00	459.00	459.00	461.00	462.00	463.00	461.00	459.00	459.00	459.00	460.00	460.00	458.00	458.00	460.00	463.00	461.00	462.00	463.00	463.00	460.00	461.00	459.00	459.00	459.00	459.00	458.00	459.00	459.00	458.00	458.00	457.00	457.00	456.00	463.00	464.00	464.00	464.00	465.00	467.00	474.00	478.00	474.00	470.00	471.00	471.00	470.00	470.00	470.00	468.00	470.00	470.00	470.00	471.00	471.00	470.00	469.00	467.00	468.00	471.00	468.00	470.00	471.00	471.00	471.00	472.00	472.00	475.00	477.00	476.00	467.00	467.00	467.00	468.00	469.00	473.00	476.00	471.00	473.00	481.00	480.00	475.00	474.00	473.00	474.00	478.00	477.00	478.00	479.00	479.00	480.00	480.00	472.00	476.00	478.00	478.00	481.00	488.00	486.00	485.00	486.00	480.00	479.00	483.00	484.00	484.00	486.00	489.00
471.00	471.00	471.00	492.00	489.00	487.00	485.00	489.00	493.00	500.00	509.00	506.00	500.00	499.00	497.00	497.00	497.00	496.00	497.00	495.00	496.00	494.00	493.00	493.00	492.00	490.00	488.00	487.00	486.00	486.00	487.00	486.00	485.00	485.00	481.00	482.00	482.00	481.00	481.00	480.00	478.00	479.00	482.00	482.00	482.00	481.00	479.00	473.00	472.00	473.00	475.00	474.00	472.00	469.00	472.00	472.00	472.00	471.00	471.00	470.00	469.00	468.00	468.00	468.00	468.00	465.00	463.00	463.00	461.00	461.00	461.00	462.00	462.00	460.00	462.00	462.00	461.00	459.00	459.00	459.00	460.00	461.00	461.00	461.00	461.00	461.00	461.00	462.00	462.00	463.00	463.00	463.00	463.00	465.00	465.00	463.00	460.00	459.00	462.00	462.00	462.00	463.00	464.00	464.00	463.00	464.00	463.00	463.00	463.00	463.00	468.00	469.00	467.00	466.00	465.00	460.00	460.00	462.00	463.00	463.00	462.00	462.00	461.00	461.00	454.00	453.00	453.00	449.00	450.00	446.00	445.00	445.00	447.00	444.00	445.00	449.00	457.00	458.00	459.00	458.00	458.00	458.00	458.00	458.00	459.00	459.00	458.00	458.00	458.00	458.00	459.00	460.00	460.00	461.00	460.00	459.00	459.00	459.00	459.00	459.00	458.00	458.00	458.00	459.00	460.00	460.00	462.00	463.00	461.00	462.00	462.00	460.00	459.00	459.00	459.00	459.00	459.00	459.00	458.00	458.00	457.00	457.00	460.00	465.00	463.00	463.00	466.00	469.00	478.00	478.00	468.00	467.00	470.00	469.00	468.00	469.00	469.00	467.00	469.00	469.00	470.00	471.00	471.00	471.00	471.00	471.00	467.00	466.00	469.00	472.00	472.00	472.00	473.00	475.00	478.00	480.00	479.00	476.00	471.00	469.00	468.00	469.00	469.00	469.00	470.00	472.00	476.00	472.00	473.00	476.00	476.00	472.00	476.00	479.00	477.00	478.00	480.00	479.00	478.00	478.00	472.00	474.00	476.00	477.00	479.00	487.00	484.00	483.00	486.00	478.00	479.00	483.00	483.00	485.00	489.00	492.00
472.00	471.00	471.00	491.00	493.00	489.00	486.00	487.00	491.00	501.00	508.00	504.00	500.00	501.00	498.00	499.00	496.00	495.00	495.00	495.00	497.00	493.00	493.00	493.00	492.00	492.00	491.00	488.00	488.00	488.00	487.00	486.00	485.00	486.00	483.00	482.00	482.00	481.00	481.00	480.00	480.00	480.00	481.00	479.00	480.00	480.00	479.00	478.00	476.00	474.00	473.00	471.00	472.00	472.00	470.00	470.00	468.00	470.00	471.00	471.00	470.00	470.00	468.00	469.00	467.00	466.00	464.00	464.00	464.00	462.00	463.00	464.00	463.00	463.00	461.00	465.00	463.00	465.00	467.00	469.00	465.00	466.00	470.00	468.00	465.00	463.00	462.00	462.00	462.00	462.00	462.00	463.00	465.00	466.00	465.00	463.00	460.00	458.00	462.00	462.00	463.00	464.00	464.00	464.00	464.00	464.00	464.00	463.00	463.00	461.00	467.00	468.00	468.00	466.00	463.00	460.00	460.00	462.00	462.00	460.00	458.00	458.00	458.00	459.00	452.00	453.00	451.00	448.00	449.00	446.00	448.00	448.00	447.00	445.00	446.00	447.00	456.00	459.00	459.00	458.00	458.00	458.00	458.00	459.00	458.00	458.00	458.00	458.00	458.00	458.00	458.00	459.00	459.00	459.00	460.00	459.00	460.00	458.00	458.00	459.00	459.00	460.00	458.00	458.00	460.00	460.00	460.00	462.00	462.00	461.00	461.00	460.00	459.00	459.00	459.00	458.00	459.00	459.00	459.00	458.00	458.00	458.00	459.00	462.00	462.00	463.00	472.00	472.00	474.00	480.00	472.00	466.00	467.00	467.00	467.00	467.00	468.00	464.00	468.00	468.00	470.00	471.00	471.00	471.00	470.00	469.00	467.00	468.00	469.00	473.00	472.00	471.00	472.00	474.00	475.00	478.00	476.00	476.00	473.00	473.00	473.00	474.00	474.00	469.00	467.00	470.00	477.00	468.00	471.00	474.00	473.00	471.00	476.00	480.00	481.00	479.00	478.00	479.00	477.00	476.00	471.00	474.00	475.00	476.00	479.00	485.00	483.00	483.00	484.00	480.00	479.00	480.00	482.00	484.00	486.00	492.00
481.00	474.00	470.00	471.00	485.00	496.00	492.00	486.00	487.00	492.00	501.00	501.00	500.00	500.00	499.00	499.00	498.00	494.00	494.00	494.00	494.00	495.00	493.00	493.00	492.00	489.00	488.00	487.00	486.00	486.00	486.00	485.00	484.00	483.00	485.00	483.00	481.00	481.00	482.00	481.00	480.00	482.00	483.00	480.00	480.00	481.00	481.00	478.00	478.00	476.00	476.00	476.00	475.00	473.00	474.00	471.00	471.00	467.00	468.00	469.00	470.00	470.00	468.00	466.00	466.00	465.00	467.00	466.00	464.00	462.00	463.00	463.00	464.00	464.00	464.00	465.00	466.00	466.00	468.00	466.00	466.00	464.00	465.00	466.00	466.00	469.00	469.00	468.00	461.00	461.00	462.00	462.00	463.00	464.00	465.00	465.00	460.00	458.00	461.00	464.00	464.00	464.00	465.00	465.00	464.00	464.00	462.00	463.00	462.00	462.00	468.00	470.00	469.00	466.00	463.00	462.00	460.00	459.00	457.00	454.00	455.00	455.00	453.00	451.00	446.00	448.00	447.00	448.00	447.00	449.00	449.00	447.00	446.00	446.00	447.00	447.00	455.00	458.00	459.00	459.00	458.00	458.00	458.00	458.00	457.00	458.00	457.00	458.00	458.00	458.00	458.00	458.00	458.00	458.00	458.00	458.00	459.00	458.00	458.00	458.00	460.00	460.00	459.00	458.00	458.00	459.00	459.00	459.00	460.00	462.00	461.00	461.00	460.00	460.00	459.00	461.00	460.00	459.00	459.00	461.00	459.00	458.00	459.00	461.00	463.00	462.00	469.00	473.00	473.00	471.00	464.00	467.00	466.00	465.00	465.00	466.00	466.00	463.00	465.00	466.00	469.00	469.00	470.00	471.00	468.00	467.00	469.00	469.00	470.00	469.00	470.00	470.00	472.00	474.00	476.00	475.00	475.00	475.00	476.00	475.00	474.00	475.00	474.00	472.00	472.00	470.00	468.00	467.00	467.00	469.00	472.00	470.00	471.00	475.00	479.00	481.00	478.00	476.00	477.00	476.00	471.00	476.00	475.00	476.00	477.00	482.00	481.00	481.00	482.00	480.00	478.00	482.00	482.00	485.00	484.00	492.00
485.00	482.00	476.00	471.00	471.00	479.00	491.00	491.00	486.00	485.00	495.00	498.00	499.00	499.00	499.00	500.00	498.00	493.00	493.00	494.00	494.00	493.00	493.00	493.00	493.00	492.00	491.00	489.00	487.00	486.00	484.00	485.00	485.00	484.00	483.00	482.00	482.00	481.00	482.00	481.00	480.00	481.00	482.00	481.00	480.00	482.00	483.00	479.00	478.00	477.00	476.00	476.00	475.00	476.00	474.00	473.00	472.00	470.00	468.00	468.00	469.00	469.00	470.00	471.00	467.00	466.00	466.00	465.00	463.00	464.00	463.00	463.00	464.00	463.00	464.00	467.00	468.00	466.00	461.00	463.00	464.00	464.00	468.00	471.00	468.00	465.00	467.00	470.00	468.00	465.00	463.00	464.00	462.00	463.00	465.00	466.00	462.00	457.00	460.00	465.00	465.00	464.00	464.00	463.00	462.00	462.00	462.00	461.00	460.00	460.00	468.00	469.00	468.00	465.00	461.00	458.00	456.00	455.00	456.00	453.00	449.00	447.00	446.00	446.00	450.00	448.00	447.00	448.00	448.00	448.00	448.00	446.00	446.00	445.00	447.00	453.00	456.00	457.00	458.00	458.00	457.00	458.00	457.00	457.00	458.00	457.00	457.00	458.00	457.00	458.00	458.00	458.00	458.00	458.00	458.00	458.00	458.00	459.00	458.00	458.00	460.00	459.00	458.00	458.00	465.00	463.00	465.00	462.00	461.00	463.00	466.00	462.00	461.00	460.00	459.00	460.00	460.00	460.00	458.00	459.00	459.00	459.00	460.00	461.00	461.00	462.00	466.00	471.00	468.00	466.00	463.00	460.00	462.00	461.00	461.00	461.00	461.00	460.00	461.00	463.00	465.00	467.00	469.00	469.00	468.00	470.00	471.00	471.00	471.00	471.00	471.00	471.00	472.00	470.00	470.00	469.00	470.00	472.00	477.00	476.00	474.00	474.00	476.00	474.00	470.00	469.00	467.00	470.00	470.00	469.00	468.00	470.00	472.00	474.00	475.00	475.00	473.00	473.00	473.00	471.00	474.00	476.00	475.00	475.00	474.00	481.00	480.00	484.00	481.00	482.00	482.00	483.00	484.00	486.00	485.00	487.00
494.00	482.00	478.00	471.00	471.00	471.00	475.00	497.00	487.00	484.00	490.00	499.00	501.00	502.00	502.00	501.00	498.00	493.00	493.00	494.00	494.00	493.00	494.00	494.00	495.00	493.00	493.00	491.00	489.00	487.00	487.00	488.00	488.00	487.00	482.00	482.00	481.00	483.00	480.00	480.00	481.00	481.00	481.00	481.00	481.00	481.00	481.00	479.00	479.00	477.00	477.00	476.00	475.00	474.00	474.00	474.00	472.00	472.00	472.00	473.00	473.00	474.00	473.00	472.00	471.00	468.00	466.00	464.00	466.00	465.00	465.00	464.00	464.00	464.00	463.00	464.00	467.00	468.00	462.00	462.00	464.00	466.00	480.00	478.00	475.00	471.00	469.00	469.00	471.00	469.00	468.00	466.00	465.00	465.00	465.00	464.00	463.00	458.00	461.00	462.00	460.00	459.00	459.00	458.00	458.00	458.00	458.00	458.00	458.00	457.00	457.00	461.00	459.00	456.00	456.00	454.00	455.00	455.00	453.00	446.00	447.00	450.00	448.00	449.00	451.00	448.00	447.00	447.00	445.00	447.00	446.00	446.00	447.00	450.00	455.00	455.00	456.00	457.00	457.00	457.00	458.00	457.00	457.00	457.00	457.00	457.00	457.00	457.00	457.00	458.00	458.00	458.00	457.00	457.00	457.00	458.00	458.00	458.00	458.00	458.00	460.00	463.00	461.00	460.00	463.00	467.00	470.00	467.00	468.00	466.00	464.00	460.00	461.00	460.00	458.00	458.00	458.00	458.00	457.00	458.00	459.00	460.00	462.00	465.00	466.00	463.00	463.00	463.00	462.00	460.00	460.00	460.00	458.00	458.00	457.00	458.00	458.00	458.00	459.00	462.00	463.00	464.00	466.00	466.00	471.00	472.00	474.00	473.00	473.00	473.00	473.00	472.00	472.00	470.00	469.00	468.00	468.00	469.00	475.00	477.00	475.00	474.00	475.00	477.00	472.00	469.00	468.00	469.00	470.00	470.00	470.00	469.00	473.00	476.00	472.00	472.00	471.00	473.00	471.00	472.00	477.00	475.00	476.00	477.00	474.00	479.00	484.00	484.00	481.00	483.00	482.00	483.00	485.00	484.00	484.00	484.00
494.00	482.00	478.00	471.00	471.00	471.00	475.00	497.00	487.00	484.00	490.00	499.00	501.00	502.00	502.00	501.00	498.00	493.00	493.00	494.00	494.00	493.00	494.00	494.00	495.00	493.00	493.00	491.00	489.00	487.00	487.00	488.00	488.00	487.00	482.00	482.00	481.00	483.00	480.00	480.00	481.00	481.00	481.00	481.00	481.00	481.00	481.00	479.00	479.00	477.00	477.00	476.00	475.00	474.00	474.00	474.00	472.00	472.00	472.00	473.00	473.00	474.00	473.00	472.00	471.00	468.00	466.00	464.00	466.00	465.00	465.00	464.00	464.00	464.00	463.00	464.00	467.00	468.00	462.00	462.00	464.00	466.00	480.00	478.00	475.00	471.00	469.00	469.00	471.00	469.00	468.00	466.00	465.00	465.00	465.00	464.00	463.00	458.00	461.00	462.00	460.00	459.00	459.00	458.00	458.00	458.00	458.00	458.00	458.00	457.00	457.00	461.00	459.00	456.00	456.00	454.00	455.00	455.00	453.00	446.00	447.00	450.00	448.00	449.00	451.00	448.00	447.00	447.00	445.00	447.00	446.00	446.00	447.00	450.00	455.00	455.00	456.00	457.00	457.00	457.00	458.00	457.00	457.00	457.00	457.00	457.00	457.00	457.00	457.00	458.00	458.00	458.00	457.00	457.00	457.00	458.00	458.00	458.00	458.00	458.00	460.00	463.00	461.00	460.00	463.00	467.00	470.00	467.00	468.00	466.00	464.00	460.00	461.00	460.00	458.00	458.00	458.00	458.00	457.00	458.00	459.00	460.00	462.00	465.00	466.00	463.00	463.00	463.00	462.00	460.00	460.00	460.00	458.00	458.00	457.00	458.00	458.00	458.00	459.00	462.00	463.00	464.00	466.00	466.00	471.00	472.00	474.00	473.00	473.00	473.00	473.00	472.00	472.00	470.00	469.00	468.00	468.00	469.00	475.00	477.00	475.00	474.00	475.00	477.00	472.00	469.00	468.00	469.00	470.00	470.00	470.00	469.00	473.00	476.00	472.00	472.00	471.00	473.00	471.00	472.00	477.00	475.00	476.00	477.00	474.00	479.00	484.00	484.00	481.00	483.00	482.00	483.00	485.00	484.00	484.00	484.00
491.00	493.00	494.00	479.00	472.00	469.00	469.00	473.00	480.00	480.00	480.00	488.00	499.00	504.00	503.00	502.00	498.00	496.00	493.00	495.00	495.00	496.00	494.00	494.00	496.00	496.00	494.00	493.00	493.00	491.00	488.00	488.00	488.00	487.00	484.00	484.00	483.00	483.00	482.00	483.00	482.00	482.00	482.00	481.00	481.00	481.00	483.00	482.00	482.00	482.00	480.00	478.00	477.00	477.00	478.00	482.00	474.00	473.00	472.00	474.00	473.00	471.00	471.00	470.00	468.00	468.00	469.00	468.00	469.00	468.00	466.00	467.00	466.00	465.00	464.00	466.00	468.00	468.00	468.00	479.00	479.00	484.00	477.00	475.00	474.00	476.00	475.00	475.00	474.00	465.00	467.00	466.00	466.00	467.00	467.00	463.00	457.00	459.00	458.00	457.00	457.00	458.00	458.00	458.00	458.00	459.00	459.00	460.00	459.00	461.00	460.00	459.00	457.00	457.00	453.00	451.00	450.00	448.00	448.00	448.00	449.00	449.00	448.00	450.00	453.00	456.00	458.00	460.00	458.00	459.00	459.00	459.00	460.00	459.00	460.00	459.00	457.00	457.00	457.00	458.00	456.00	457.00	457.00	457.00	457.00	457.00	457.00	457.00	457.00	458.00	457.00	457.00	457.00	457.00	458.00	457.00	457.00	457.00	457.00	457.00	457.00	457.00	457.00	456.00	456.00	456.00	456.00	457.00	457.00	456.00	457.00	456.00	457.00	456.00	458.00	458.00	457.00	457.00	458.00	458.00	459.00	467.00	463.00	462.00	461.00	461.00	463.00	463.00	463.00	462.00	462.00	465.00	462.00	460.00	458.00	457.00	456.00	457.00	458.00	459.00	460.00	465.00	466.00	468.00	482.00	484.00	485.00	485.00	482.00	480.00	478.00	477.00	477.00	474.00	471.00	471.00	471.00	471.00	471.00	469.00	470.00	470.00	472.00	475.00	471.00	471.00	477.00	475.00	475.00	475.00	476.00	476.00	473.00	471.00	469.00	469.00	472.00	471.00	469.00	470.00	469.00	470.00	478.00	476.00	477.00	480.00	475.00	475.00	476.00	482.00	482.00	485.00	485.00	485.00	483.00	486.00
491.00	493.00	494.00	479.00	472.00	469.00	469.00	473.00	480.00	480.00	480.00	488.00	499.00	504.00	503.00	502.00	498.00	496.00	493.00	495.00	495.00	496.00	494.00	494.00	496.00	496.00	494.00	493.00	493.00	491.00	488.00	488.00	488.00	487.00	484.00	484.00	483.00	483.00	482.00	483.00	482.00	482.00	482.00	481.00	481.00	481.00	483.00	482.00	482.00	482.00	480.00	478.00	477.00	477.00	478.00	482.00	474.00	473.00	472.00	474.00	473.00	471.00	471.00	470.00	468.00	468.00	469.00	468.00	469.00	468.00	466.00	467.00	466.00	465.00	464.00	466.00	468.00	468.00	468.00	479.00	479.00	484.00	477.00	475.00	474.00	476.00	475.00	475.00	474.00	465.00	467.00	466.00	466.00	467.00	467.00	463.00	457.00	459.00	458.00	457.00	457.00	458.00	458.00	458.00	458.00	459.00	459.00	460.00	459.00	461.00	460.00	459.00	457.00	457.00	453.00	451.00	450.00	448.00	448.00	448.00	449.00	449.00	448.00	450.00	453.00	456.00	458.00	460.00	458.00	459.00	459.00	459.00	460.00	459.00	460.00	459.00	457.00	457.00	457.00	458.00	456.00	457.00	457.00	457.00	457.00	457.00	457.00	457.00	457.00	458.00	457.00	457.00	457.00	457.00	458.00	457.00	457.00	457.00	457.00	457.00	457.00	457.00	457.00	456.00	456.00	456.00	456.00	457.00	457.00	456.00	457.00	456.00	457.00	456.00	458.00	458.00	457.00	457.00	458.00	458.00	459.00	467.00	463.00	462.00	461.00	461.00	463.00	463.00	463.00	462.00	462.00	465.00	462.00	460.00	458.00	457.00	456.00	457.00	458.00	459.00	460.00	465.00	466.00	468.00	482.00	484.00	485.00	485.00	482.00	480.00	478.00	477.00	477.00	474.00	471.00	471.00	471.00	471.00	471.00	469.00	470.00	470.00	472.00	475.00	471.00	471.00	477.00	475.00	475.00	475.00	476.00	476.00	473.00	471.00	469.00	469.00	472.00	471.00	469.00	470.00	469.00	470.00	478.00	476.00	477.00	480.00	475.00	475.00	476.00	482.00	482.00	485.00	485.00	485.00	483.00	486.00
515.00	502.00	487.00	498.00	488.00	472.00	470.00	471.00	470.00	471.00	473.00	480.00	494.00	498.00	498.00	499.00	496.00	497.00	496.00	495.00	494.00	494.00	495.00	495.00	495.00	494.00	494.00	495.00	493.00	492.00	490.00	489.00	489.00	488.00	486.00	484.00	485.00	482.00	482.00	481.00	482.00	482.00	482.00	481.00	481.00	481.00	480.00	482.00	481.00	482.00	481.00	480.00	477.00	476.00	476.00	478.00	476.00	473.00	470.00	469.00	472.00	470.00	470.00	470.00	470.00	469.00	469.00	468.00	469.00	468.00	467.00	466.00	466.00	466.00	467.00	467.00	470.00	474.00	486.00	489.00	488.00	483.00	479.00	478.00	484.00	478.00	473.00	473.00	475.00	471.00	469.00	467.00	468.00	469.00	469.00	458.00	456.00	457.00	457.00	457.00	458.00	458.00	459.00	459.00	459.00	460.00	461.00	460.00	462.00	463.00	461.00	458.00	455.00	453.00	452.00	451.00	451.00	457.00	463.00	460.00	456.00	456.00	453.00	449.00	457.00	458.00	460.00	461.00	457.00	457.00	458.00	457.00	457.00	458.00	457.00	457.00	457.00	457.00	456.00	456.00	456.00	456.00	457.00	456.00	457.00	457.00	457.00	457.00	457.00	457.00	457.00	457.00	456.00	456.00	457.00	457.00	457.00	457.00	457.00	456.00	457.00	457.00	456.00	456.00	455.00	455.00	456.00	456.00	456.00	456.00	456.00	456.00	456.00	456.00	456.00	456.00	457.00	457.00	456.00	457.00	460.00	461.00	462.00	461.00	462.00	462.00	463.00	465.00	463.00	465.00	466.00	467.00	463.00	464.00	463.00	457.00	456.00	456.00	458.00	458.00	460.00	462.00	464.00	466.00	474.00	478.00	485.00	488.00	488.00	485.00	481.00	479.00	477.00	475.00	473.00	471.00	471.00	471.00	470.00	470.00	469.00	471.00	472.00	470.00	467.00	473.00	479.00	480.00	477.00	477.00	478.00	476.00	476.00	474.00	472.00	470.00	470.00	471.00	471.00	471.00	472.00	469.00	468.00	472.00	474.00	478.00	478.00	477.00	474.00	475.00	477.00	481.00	483.00	487.00	487.00	492.00
515.00	502.00	487.00	498.00	488.00	472.00	470.00	471.00	470.00	471.00	473.00	480.00	494.00	498.00	498.00	499.00	496.00	497.00	496.00	495.00	494.00	494.00	495.00	495.00	495.00	494.00	494.00	495.00	493.00	492.00	490.00	489.00	489.00	488.00	486.00	484.00	485.00	482.00	482.00	481.00	482.00	482.00	482.00	481.00	481.00	481.00	480.00	482.00	481.00	482.00	481.00	480.00	477.00	476.00	476.00	478.00	476.00	473.00	470.00	469.00	472.00	470.00	470.00	470.00	470.00	469.00	469.00	468.00	469.00	468.00	467.00	466.00	466.00	466.00	467.00	467.00	470.00	474.00	486.00	489.00	488.00	483.00	479.00	478.00	484.00	478.00	473.00	473.00	475.00	471.00	469.00	467.00	468.00	469.00	469.00	458.00	456.00	457.00	457.00	457.00	458.00	458.00	459.00	459.00	459.00	460.00	461.00	460.00	462.00	463.00	461.00	458.00	455.00	453.00	452.00	451.00	451.00	457.00	463.00	460.00	456.00	456.00	453.00	449.00	457.00	458.00	460.00	461.00	457.00	457.00	458.00	457.00	457.00	458.00	457.00	457.00	457.00	457.00	456.00	456.00	456.00	456.00	457.00	456.00	457.00	457.00	457.00	457.00	457.00	457.00	457.00	457.00	456.00	456.00	457.00	457.00	457.00	457.00	457.00	456.00	457.00	457.00	456.00	456.00	455.00	455.00	456.00	456.00	456.00	456.00	456.00	456.00	456.00	456.00	456.00	456.00	457.00	457.00	456.00	457.00	460.00	461.00	462.00	461.00	462.00	462.00	463.00	465.00	463.00	465.00	466.00	467.00	463.00	464.00	463.00	457.00	456.00	456.00	458.00	458.00	460.00	462.00	464.00	466.00	474.00	478.00	485.00	488.00	488.00	485.00	481.00	479.00	477.00	475.00	473.00	471.00	471.00	471.00	470.00	470.00	469.00	471.00	472.00	470.00	467.00	473.00	479.00	480.00	477.00	477.00	478.00	476.00	476.00	474.00	472.00	470.00	470.00	471.00	471.00	471.00	472.00	469.00	468.00	472.00	474.00	478.00	478.00	477.00	474.00	475.00	477.00	481.00	483.00	487.00	487.00	492.00
505.00	510.00	519.00	517.00	509.00	513.00	494.00	470.00	471.00	472.00	468.00	469.00	470.00	480.00	494.00	494.00	492.00	495.00	496.00	495.00	495.00	495.00	495.00	497.00	497.00	497.00	495.00	496.00	496.00	495.00	495.00	492.00	491.00	490.00	491.00	489.00	487.00	486.00	485.00	484.00	484.00	483.00	482.00	481.00	482.00	482.00	482.00	479.00	479.00	479.00	480.00	481.00	478.00	479.00	479.00	476.00	476.00	475.00	472.00	471.00	473.00	474.00	474.00	475.00	473.00	472.00	472.00	472.00	471.00	471.00	470.00	470.00	467.00	467.00	472.00	474.00	473.00	467.00	467.00	470.00	471.00	471.00	477.00	486.00	480.00	479.00	478.00	480.00	472.00	476.00	473.00	473.00	470.00	473.00	460.00	454.00	453.00	458.00	457.00	458.00	458.00	458.00	458.00	458.00	456.00	455.00	452.00	451.00	449.00	449.00	448.00	450.00	449.00	448.00	453.00	473.00	476.00	477.00	477.00	471.00	469.00	463.00	461.00	459.00	449.00	453.00	457.00	459.00	456.00	458.00	459.00	458.00	456.00	456.00	456.00	455.00	456.00	456.00	457.00	457.00	457.00	458.00	457.00	457.00	457.00	457.00	456.00	456.00	456.00	456.00	457.00	457.00	458.00	457.00	457.00	457.00	457.00	457.00	457.00	457.00	457.00	457.00	457.00	457.00	456.00	456.00	456.00	456.00	455.00	456.00	455.00	455.00	455.00	454.00	455.00	456.00	455.00	455.00	455.00	455.00	456.00	457.00	459.00	459.00	459.00	461.00	463.00	465.00	465.00	466.00	466.00	459.00	459.00	458.00	457.00	457.00	456.00	455.00	456.00	456.00	459.00	460.00	460.00	460.00	463.00	463.00	467.00	470.00	473.00	476.00	480.00	481.00	480.00	476.00	474.00	474.00	473.00	471.00	471.00	469.00	470.00	469.00	471.00	470.00	467.00	470.00	473.00	473.00	473.00	475.00	479.00	490.00	484.00	485.00	479.00	483.00	478.00	480.00	482.00	480.00	477.00	478.00	473.00	471.00	473.00	475.00	475.00	476.00	477.00	481.00	480.00	480.00	482.00	482.00	477.00	480.00
505.00	510.00	519.00	517.00	509.00	513.00	494.00	470.00	471.00	472.00	468.00	469.00	470.00	480.00	494.00	494.00	492.00	495.00	496.00	495.00	495.00	495.00	495.00	497.00	497.00	497.00	495.00	496.00	496.00	495.00	495.00	492.00	491.00	490.00	491.00	489.00	487.00	486.00	485.00	484.00	484.00	483.00	482.00	481.00	482.00	482.00	482.00	479.00	479.00	479.00	480.00	481.00	478.00	479.00	479.00	476.00	476.00	475.00	472.00	471.00	473.00	474.00	474.00	475.00	473.00	472.00	472.00	472.00	471.00	471.00	470.00	470.00	467.00	467.00	472.00	474.00	473.00	467.00	467.00	470.00	471.00	471.00	477.00	486.00	480.00	479.00	478.00	480.00	472.00	476.00	473.00	473.00	470.00	473.00	460.00	454.00	453.00	458.00	457.00	458.00	458.00	458.00	458.00	458.00	456.00	455.00	452.00	451.00	449.00	449.00	448.00	450.00	449.00	448.00	453.00	473.00	476.00	477.00	477.00	471.00	469.00	463.00	461.00	459.00	449.00	453.00	457.00	459.00	456.00	458.00	459.00	458.00	456.00	456.00	456.00	455.00	456.00	456.00	457.00	457.00	457.00	458.00	457.00	457.00	457.00	457.00	456.00	456.00	456.00	456.00	457.00	457.00	458.00	457.00	457.00	457.00	457.00	457.00	457.00	457.00	457.00	457.00	457.00	457.00	456.00	456.00	456.00	456.00	455.00	456.00	455.00	455.00	455.00	454.00	455.00	456.00	455.00	455.00	455.00	455.00	456.00	457.00	459.00	459.00	459.00	461.00	463.00	465.00	465.00	466.00	466.00	459.00	459.00	458.00	457.00	457.00	456.00	455.00	456.00	456.00	459.00	460.00	460.00	460.00	463.00	463.00	467.00	470.00	473.00	476.00	480.00	481.00	480.00	476.00	474.00	474.00	473.00	471.00	471.00	469.00	470.00	469.00	471.00	470.00	467.00	470.00	473.00	473.00	473.00	475.00	479.00	490.00	484.00	485.00	479.00	483.00	478.00	480.00	482.00	480.00	477.00	478.00	473.00	471.00	473.00	475.00	475.00	476.00	477.00	481.00	480.00	480.00	482.00	482.00	477.00	480.00
525.00	526.00	526.00	522.00	520.00	521.00	515.00	477.00	471.00	468.00	469.00	470.00	468.00	469.00	481.00	485.00	495.00	497.00	499.00	498.00	499.00	498.00	498.00	497.00	498.00	498.00	498.00	497.00	498.00	500.00	499.00	496.00	493.00	491.00	491.00	491.00	489.00	487.00	486.00	487.00	486.00	484.00	483.00	482.00	481.00	481.00	481.00	480.00	481.00	482.00	482.00	481.00	482.00	482.00	481.00	478.00	480.00	479.00	475.00	474.00	475.00	476.00	473.00	473.00	473.00	473.00	475.00	473.00	472.00	471.00	470.00	469.00	468.00	470.00	475.00	475.00	476.00	471.00	467.00	468.00	470.00	472.00	471.00	478.00	478.00	483.00	484.00	484.00	465.00	470.00	473.00	474.00	472.00	466.00	457.00	456.00	452.00	451.00	452.00	453.00	453.00	453.00	452.00	452.00	451.00	449.00	450.00	448.00	448.00	447.00	447.00	447.00	448.00	454.00	466.00	474.00	476.00	480.00	483.00	469.00	467.00	464.00	463.00	461.00	456.00	451.00	454.00	458.00	459.00	459.00	460.00	459.00	459.00	456.00	455.00	455.00	455.00	458.00	457.00	456.00	458.00	457.00	457.00	457.00	456.00	456.00	457.00	457.00	457.00	457.00	457.00	457.00	457.00	458.00	458.00	458.00	458.00	459.00	458.00	459.00	458.00	458.00	458.00	457.00	456.00	456.00	456.00	456.00	457.00	455.00	456.00	456.00	455.00	455.00	456.00	455.00	454.00	455.00	453.00	453.00	454.00	454.00	456.00	457.00	457.00	458.00	459.00	460.00	463.00	462.00	463.00	460.00	457.00	458.00	457.00	455.00	456.00	456.00	455.00	455.00	457.00	457.00	457.00	459.00	459.00	459.00	460.00	462.00	466.00	468.00	472.00	476.00	475.00	475.00	476.00	476.00	473.00	472.00	470.00	470.00	469.00	470.00	471.00	470.00	466.00	469.00	469.00	473.00	474.00	474.00	475.00	482.00	487.00	484.00	482.00	486.00	480.00	479.00	478.00	476.00	475.00	475.00	473.00	470.00	472.00	474.00	475.00	476.00	476.00	479.00	480.00	482.00	485.00	486.00	482.00	485.00
530.00	530.00	530.00	528.00	527.00	521.00	511.00	495.00	481.00	470.00	468.00	468.00	470.00	468.00	470.00	475.00	492.00	493.00	497.00	499.00	502.00	500.00	498.00	497.00	497.00	496.00	495.00	495.00	497.00	498.00	499.00	499.00	498.00	495.00	489.00	490.00	490.00	490.00	489.00	489.00	489.00	488.00	486.00	485.00	484.00	482.00	482.00	482.00	483.00	483.00	482.00	482.00	483.00	483.00	482.00	483.00	480.00	479.00	477.00	476.00	475.00	476.00	475.00	474.00	475.00	476.00	474.00	474.00	474.00	474.00	469.00	470.00	473.00	475.00	476.00	476.00	474.00	471.00	470.00	470.00	471.00	477.00	474.00	470.00	471.00	477.00	482.00	486.00	477.00	466.00	472.00	474.00	471.00	462.00	454.00	451.00	450.00	450.00	450.00	450.00	450.00	449.00	449.00	450.00	451.00	449.00	448.00	448.00	448.00	448.00	448.00	452.00	459.00	460.00	468.00	479.00	484.00	485.00	487.00	467.00	464.00	465.00	463.00	463.00	459.00	457.00	450.00	453.00	455.00	455.00	455.00	455.00	455.00	456.00	457.00	456.00	456.00	456.00	456.00	456.00	457.00	457.00	458.00	457.00	456.00	456.00	456.00	457.00	457.00	457.00	457.00	458.00	458.00	459.00	459.00	460.00	460.00	460.00	461.00	460.00	460.00	459.00	459.00	458.00	457.00	457.00	457.00	457.00	456.00	456.00	455.00	456.00	455.00	456.00	455.00	455.00	455.00	454.00	453.00	453.00	453.00	453.00	454.00	453.00	453.00	453.00	456.00	457.00	459.00	459.00	459.00	458.00	456.00	455.00	453.00	455.00	456.00	455.00	455.00	455.00	455.00	455.00	456.00	461.00	458.00	458.00	458.00	457.00	458.00	461.00	463.00	466.00	469.00	475.00	476.00	475.00	473.00	472.00	470.00	470.00	470.00	470.00	470.00	469.00	468.00	473.00	470.00	471.00	473.00	475.00	474.00	475.00	476.00	483.00	477.00	483.00	476.00	478.00	478.00	477.00	477.00	476.00	476.00	473.00	471.00	472.00	474.00	476.00	475.00	478.00	481.00	486.00	486.00	481.00	480.00	479.00
531.00	531.00	531.00	527.00	523.00	520.00	524.00	520.00	505.00	495.00	487.00	477.00	471.00	469.00	470.00	471.00	477.00	492.00	496.00	498.00	501.00	500.00	499.00	497.00	496.00	496.00	495.00	494.00	495.00	496.00	496.00	497.00	499.00	499.00	494.00	492.00	493.00	492.00	491.00	491.00	492.00	491.00	489.00	488.00	487.00	486.00	485.00	483.00	482.00	484.00	485.00	483.00	482.00	483.00	483.00	482.00	480.00	478.00	479.00	477.00	475.00	478.00	475.00	474.00	475.00	478.00	476.00	474.00	475.00	476.00	472.00	474.00	476.00	479.00	478.00	476.00	474.00	468.00	467.00	467.00	467.00	471.00	474.00	468.00	470.00	472.00	476.00	480.00	487.00	481.00	471.00	472.00	475.00	460.00	451.00	451.00	451.00	451.00	453.00	453.00	452.00	449.00	448.00	449.00	448.00	449.00	448.00	448.00	448.00	450.00	460.00	463.00	463.00	467.00	474.00	485.00	486.00	487.00	487.00	471.00	465.00	465.00	464.00	463.00	462.00	459.00	457.00	453.00	455.00	456.00	455.00	453.00	452.00	455.00	458.00	458.00	456.00	454.00	455.00	457.00	457.00	457.00	458.00	457.00	456.00	456.00	457.00	456.00	457.00	457.00	458.00	458.00	459.00	460.00	460.00	460.00	461.00	461.00	463.00	465.00	462.00	463.00	461.00	460.00	458.00	459.00	458.00	458.00	458.00	457.00	457.00	457.00	457.00	457.00	457.00	456.00	456.00	457.00	454.00	453.00	453.00	453.00	453.00	453.00	454.00	454.00	456.00	456.00	458.00	457.00	458.00	457.00	456.00	454.00	454.00	455.00	455.00	454.00	454.00	454.00	453.00	453.00	453.00	455.00	457.00	457.00	457.00	456.00	457.00	458.00	457.00	457.00	458.00	471.00	473.00	474.00	473.00	474.00	472.00	471.00	472.00	472.00	470.00	466.00	473.00	475.00	473.00	471.00	473.00	473.00	473.00	475.00	475.00	476.00	475.00	475.00	479.00	479.00	478.00	477.00	477.00	478.00	480.00	478.00	476.00	474.00	475.00	479.00	478.00	477.00	483.00	485.00	486.00	478.00	480.00	484.00
532.00	531.00	531.00	530.00	530.00	529.00	527.00	520.00	515.00	513.00	506.00	494.00	491.00	477.00	471.00	472.00	467.00	471.00	484.00	494.00	500.00	501.00	500.00	500.00	498.00	496.00	495.00	494.00	494.00	494.00	496.00	498.00	497.00	497.00	497.00	491.00	491.00	493.00	492.00	491.00	492.00	492.00	492.00	490.00	488.00	486.00	485.00	483.00	483.00	484.00	484.00	483.00	482.00	483.00	483.00	483.00	481.00	480.00	479.00	478.00	476.00	476.00	476.00	475.00	475.00	476.00	475.00	477.00	479.00	480.00	477.00	478.00	479.00	481.00	479.00	474.00	472.00	468.00	467.00	469.00	467.00	467.00	469.00	472.00	471.00	473.00	475.00	479.00	489.00	484.00	480.00	474.00	461.00	454.00	450.00	452.00	452.00	449.00	450.00	451.00	450.00	449.00	450.00	450.00	451.00	452.00	451.00	453.00	457.00	461.00	465.00	463.00	470.00	476.00	479.00	484.00	486.00	488.00	484.00	468.00	467.00	465.00	464.00	464.00	464.00	463.00	462.00	461.00	458.00	457.00	456.00	456.00	456.00	453.00	457.00	458.00	457.00	456.00	457.00	458.00	458.00	458.00	457.00	457.00	456.00	457.00	457.00	457.00	457.00	457.00	458.00	460.00	459.00	460.00	460.00	461.00	462.00	462.00	463.00	463.00	463.00	462.00	463.00	463.00	462.00	461.00	461.00	461.00	460.00	460.00	460.00	460.00	460.00	459.00	459.00	458.00	459.00	459.00	456.00	453.00	453.00	453.00	453.00	454.00	455.00	456.00	456.00	456.00	456.00	456.00	456.00	457.00	456.00	455.00	456.00	454.00	455.00	456.00	455.00	454.00	453.00	453.00	453.00	453.00	455.00	455.00	455.00	456.00	456.00	456.00	456.00	457.00	457.00	459.00	463.00	467.00	467.00	470.00	471.00	470.00	468.00	466.00	465.00	474.00	475.00	476.00	474.00	478.00	479.00	479.00	475.00	472.00	473.00	473.00	472.00	473.00	477.00	481.00	476.00	473.00	477.00	478.00	477.00	478.00	481.00	480.00	480.00	483.00	483.00	477.00	479.00	482.00	491.00	485.00	482.00	486.00
532.00	530.00	531.00	532.00	532.00	531.00	529.00	523.00	523.00	520.00	515.00	511.00	502.00	507.00	489.00	472.00	467.00	466.00	469.00	484.00	498.00	503.00	502.00	501.00	500.00	499.00	498.00	497.00	496.00	495.00	497.00	497.00	497.00	496.00	498.00	493.00	491.00	491.00	490.00	490.00	490.00	489.00	490.00	488.00	488.00	485.00	486.00	483.00	483.00	484.00	484.00	483.00	483.00	484.00	483.00	483.00	483.00	481.00	479.00	479.00	477.00	478.00	478.00	476.00	474.00	477.00	475.00	477.00	481.00	479.00	482.00	482.00	483.00	481.00	478.00	474.00	472.00	468.00	468.00	467.00	468.00	468.00	470.00	474.00	477.00	477.00	479.00	484.00	490.00	486.00	484.00	483.00	465.00	452.00	452.00	452.00	450.00	449.00	449.00	449.00	450.00	461.00	464.00	463.00	467.00	467.00	464.00	463.00	465.00	466.00	465.00	471.00	473.00	476.00	479.00	483.00	485.00	486.00	483.00	469.00	469.00	466.00	466.00	465.00	465.00	464.00	464.00	463.00	462.00	464.00	462.00	461.00	461.00	456.00	459.00	460.00	462.00	463.00	463.00	460.00	458.00	458.00	458.00	458.00	459.00	460.00	460.00	459.00	458.00	458.00	459.00	460.00	461.00	461.00	461.00	461.00	462.00	463.00	463.00	464.00	464.00	464.00	464.00	465.00	463.00	464.00	464.00	464.00	464.00	465.00	462.00	463.00	463.00	463.00	462.00	462.00	462.00	460.00	455.00	453.00	453.00	453.00	455.00	454.00	456.00	457.00	456.00	455.00	457.00	457.00	457.00	460.00	459.00	459.00	456.00	458.00	465.00	465.00	460.00	460.00	457.00	453.00	453.00	454.00	455.00	455.00	455.00	454.00	456.00	456.00	455.00	456.00	456.00	457.00	459.00	462.00	461.00	462.00	464.00	464.00	464.00	467.00	467.00	480.00	484.00	473.00	471.00	482.00	486.00	489.00	484.00	476.00	472.00	471.00	473.00	471.00	474.00	475.00	474.00	471.00	468.00	468.00	468.00	468.00	470.00	485.00	486.00	487.00	484.00	477.00	478.00	477.00	483.00	484.00	485.00	491.00
531.00	529.00	530.00	533.00	530.00	531.00	528.00	525.00	522.00	519.00	517.00	513.00	513.00	513.00	509.00	504.00	468.00	469.00	467.00	470.00	484.00	502.00	502.00	502.00	500.00	498.00	499.00	500.00	499.00	497.00	496.00	495.00	496.00	496.00	495.00	494.00	493.00	492.00	492.00	490.00	490.00	491.00	489.00	490.00	489.00	486.00	485.00	484.00	484.00	484.00	484.00	483.00	484.00	485.00	485.00	484.00	482.00	481.00	480.00	480.00	479.00	478.00	480.00	479.00	475.00	476.00	476.00	477.00	480.00	481.00	483.00	484.00	482.00	481.00	474.00	472.00	471.00	470.00	470.00	468.00	468.00	467.00	469.00	471.00	475.00	479.00	480.00	481.00	490.00	491.00	492.00	487.00	459.00	453.00	452.00	450.00	449.00	450.00	450.00	454.00	460.00	465.00	465.00	465.00	466.00	466.00	466.00	466.00	465.00	465.00	472.00	474.00	476.00	476.00	477.00	481.00	485.00	484.00	478.00	472.00	469.00	467.00	466.00	466.00	465.00	465.00	464.00	464.00	463.00	464.00	463.00	462.00	458.00	460.00	463.00	464.00	464.00	464.00	463.00	465.00	462.00	461.00	459.00	460.00	460.00	460.00	460.00	460.00	460.00	460.00	461.00	461.00	461.00	461.00	461.00	461.00	462.00	463.00	464.00	467.00	467.00	466.00	466.00	468.00	467.00	468.00	469.00	471.00	472.00	471.00	468.00	466.00	466.00	467.00	468.00	468.00	469.00	467.00	454.00	454.00	454.00	455.00	456.00	456.00	457.00	456.00	455.00	456.00	456.00	457.00	457.00	457.00	457.00	456.00	455.00	460.00	465.00	465.00	469.00	474.00	474.00	459.00	456.00	456.00	454.00	455.00	455.00	455.00	455.00	456.00	456.00	456.00	456.00	457.00	458.00	466.00	470.00	469.00	467.00	466.00	468.00	467.00	462.00	468.00	469.00	469.00	466.00	476.00	480.00	482.00	487.00	484.00	477.00	474.00	473.00	471.00	475.00	474.00	474.00	476.00	476.00	474.00	471.00	470.00	470.00	487.00	487.00	489.00	487.00	475.00	479.00	477.00	477.00	479.00	481.00	487.00
531.00	530.00	528.00	534.00	533.00	532.00	530.00	526.00	523.00	520.00	519.00	517.00	519.00	517.00	507.00	506.00	470.00	468.00	468.00	468.00	472.00	501.00	500.00	502.00	499.00	498.00	499.00	500.00	500.00	500.00	499.00	498.00	496.00	495.00	496.00	495.00	493.00	492.00	492.00	490.00	490.00	490.00	490.00	492.00	491.00	489.00	487.00	487.00	486.00	486.00	484.00	484.00	487.00	486.00	488.00	487.00	485.00	482.00	481.00	482.00	481.00	479.00	479.00	480.00	480.00	481.00	478.00	478.00	478.00	480.00	484.00	482.00	481.00	479.00	473.00	472.00	471.00	471.00	470.00	469.00	470.00	470.00	470.00	472.00	474.00	477.00	481.00	483.00	486.00	488.00	491.00	480.00	453.00	454.00	454.00	451.00	450.00	451.00	458.00	464.00	465.00	467.00	465.00	465.00	466.00	466.00	464.00	465.00	467.00	473.00	474.00	474.00	476.00	478.00	479.00	480.00	480.00	480.00	476.00	472.00	467.00	465.00	466.00	466.00	466.00	465.00	464.00	464.00	465.00	464.00	462.00	458.00	459.00	463.00	465.00	464.00	463.00	463.00	465.00	466.00	463.00	461.00	462.00	462.00	461.00	461.00	461.00	462.00	462.00	463.00	462.00	461.00	461.00	462.00	462.00	462.00	463.00	463.00	465.00	470.00	469.00	467.00	468.00	467.00	471.00	475.00	478.00	479.00	476.00	476.00	473.00	469.00	469.00	470.00	471.00	471.00	471.00	470.00	466.00	462.00	462.00	459.00	463.00	461.00	459.00	459.00	459.00	458.00	458.00	457.00	456.00	456.00	455.00	455.00	456.00	458.00	457.00	455.00	458.00	463.00	466.00	460.00	456.00	462.00	456.00	455.00	455.00	453.00	453.00	453.00	454.00	456.00	455.00	457.00	458.00	462.00	469.00	470.00	470.00	468.00	467.00	467.00	464.00	464.00	465.00	467.00	466.00	470.00	476.00	478.00	486.00	488.00	488.00	483.00	476.00	474.00	474.00	473.00	475.00	475.00	475.00	477.00	479.00	477.00	471.00	485.00	490.00	487.00	484.00	475.00	475.00	480.00	474.00	473.00	472.00	480.00
529.00	528.00	528.00	533.00	534.00	532.00	532.00	528.00	525.00	521.00	522.00	522.00	520.00	519.00	507.00	497.00	474.00	467.00	467.00	467.00	467.00	483.00	494.00	495.00	491.00	500.00	498.00	497.00	499.00	502.00	500.00	501.00	501.00	500.00	496.00	497.00	496.00	493.00	492.00	490.00	490.00	491.00	490.00	493.00	493.00	490.00	489.00	486.00	486.00	484.00	484.00	483.00	483.00	486.00	488.00	487.00	484.00	483.00	482.00	482.00	484.00	487.00	484.00	484.00	486.00	484.00	483.00	481.00	478.00	478.00	478.00	478.00	478.00	476.00	473.00	473.00	473.00	472.00	472.00	470.00	470.00	470.00	470.00	474.00	475.00	477.00	479.00	484.00	482.00	483.00	485.00	476.00	451.00	453.00	452.00	453.00	452.00	457.00	465.00	464.00	466.00	466.00	469.00	477.00	476.00	473.00	472.00	473.00	475.00	475.00	478.00	478.00	479.00	482.00	483.00	485.00	484.00	480.00	479.00	470.00	467.00	466.00	466.00	466.00	466.00	465.00	465.00	464.00	465.00	462.00	460.00	462.00	464.00	465.00	465.00	465.00	464.00	464.00	463.00	463.00	463.00	463.00	463.00	462.00	462.00	463.00	462.00	462.00	462.00	463.00	463.00	462.00	462.00	462.00	463.00	464.00	464.00	464.00	464.00	464.00	467.00	468.00	467.00	471.00	480.00	482.00	483.00	482.00	479.00	479.00	478.00	473.00	471.00	476.00	476.00	476.00	475.00	473.00	471.00	468.00	466.00	466.00	468.00	469.00	465.00	464.00	464.00	463.00	462.00	461.00	461.00	457.00	457.00	456.00	456.00	465.00	462.00	457.00	460.00	465.00	462.00	460.00	461.00	472.00	462.00	457.00	456.00	454.00	453.00	453.00	455.00	456.00	455.00	456.00	458.00	463.00	468.00	471.00	472.00	471.00	473.00	474.00	474.00	470.00	468.00	466.00	465.00	465.00	466.00	470.00	476.00	486.00	487.00	488.00	484.00	479.00	473.00	473.00	473.00	473.00	475.00	475.00	475.00	477.00	476.00	476.00	485.00	483.00	477.00	479.00	477.00	478.00	476.00	473.00	470.00	476.00
529.00	528.00	528.00	533.00	534.00	532.00	532.00	528.00	525.00	521.00	522.00	522.00	520.00	519.00	507.00	497.00	474.00	467.00	467.00	467.00	467.00	483.00	494.00	495.00	491.00	500.00	498.00	497.00	499.00	502.00	500.00	501.00	501.00	500.00	496.00	497.00	496.00	493.00	492.00	490.00	490.00	491.00	490.00	493.00	493.00	490.00	489.00	486.00	486.00	484.00	484.00	483.00	483.00	486.00	488.00	487.00	484.00	483.00	482.00	482.00	484.00	487.00	484.00	484.00	486.00	484.00	483.00	481.00	478.00	478.00	478.00	478.00	478.00	476.00	473.00	473.00	473.00	472.00	472.00	470.00	470.00	470.00	470.00	474.00	475.00	477.00	479.00	484.00	482.00	483.00	485.00	476.00	451.00	453.00	452.00	453.00	452.00	457.00	465.00	464.00	466.00	466.00	469.00	477.00	476.00	473.00	472.00	473.00	475.00	475.00	478.00	478.00	479.00	482.00	483.00	485.00	484.00	480.00	479.00	470.00	467.00	466.00	466.00	466.00	466.00	465.00	465.00	464.00	465.00	462.00	460.00	462.00	464.00	465.00	465.00	465.00	464.00	464.00	463.00	463.00	463.00	463.00	463.00	462.00	462.00	463.00	462.00	462.00	462.00	463.00	463.00	462.00	462.00	462.00	463.00	464.00	464.00	464.00	464.00	464.00	467.00	468.00	467.00	471.00	480.00	482.00	483.00	482.00	479.00	479.00	478.00	473.00	471.00	476.00	476.00	476.00	475.00	473.00	471.00	468.00	466.00	466.00	468.00	469.00	465.00	464.00	464.00	463.00	462.00	461.00	461.00	457.00	457.00	456.00	456.00	465.00	462.00	457.00	460.00	465.00	462.00	460.00	461.00	472.00	462.00	457.00	456.00	454.00	453.00	453.00	455.00	456.00	455.00	456.00	458.00	463.00	468.00	471.00	472.00	471.00	473.00	474.00	474.00	470.00	468.00	466.00	465.00	465.00	466.00	470.00	476.00	486.00	487.00	488.00	484.00	479.00	473.00	473.00	473.00	473.00	475.00	475.00	475.00	477.00	476.00	476.00	485.00	483.00	477.00	479.00	477.00	478.00	476.00	473.00	470.00	476.00
531.00	528.00	526.00	528.00	527.00	526.00	528.00	529.00	527.00	526.00	525.00	523.00	522.00	520.00	513.00	512.00	491.00	467.00	465.00	466.00	466.00	468.00	477.00	485.00	491.00	500.00	500.00	497.00	498.00	500.00	502.00	502.00	501.00	501.00	500.00	501.00	499.00	495.00	493.00	491.00	491.00	490.00	490.00	491.00	493.00	492.00	492.00	488.00	486.00	485.00	484.00	483.00	483.00	484.00	487.00	486.00	484.00	485.00	484.00	483.00	484.00	488.00	487.00	487.00	486.00	486.00	485.00	482.00	480.00	478.00	475.00	474.00	474.00	474.00	476.00	474.00	474.00	473.00	474.00	472.00	471.00	471.00	471.00	474.00	476.00	480.00	481.00	485.00	485.00	485.00	477.00	465.00	451.00	451.00	452.00	453.00	453.00	460.00	466.00	468.00	469.00	474.00	475.00	477.00	477.00	480.00	481.00	480.00	479.00	481.00	481.00	484.00	484.00	486.00	487.00	485.00	482.00	478.00	474.00	468.00	467.00	467.00	467.00	466.00	466.00	465.00	464.00	464.00	464.00	460.00	460.00	465.00	465.00	465.00	465.00	465.00	463.00	464.00	463.00	464.00	464.00	464.00	463.00	463.00	463.00	463.00	463.00	462.00	463.00	466.00	464.00	463.00	463.00	467.00	466.00	464.00	463.00	464.00	463.00	464.00	467.00	467.00	469.00	478.00	501.00	493.00	478.00	474.00	473.00	473.00	474.00	473.00	473.00	478.00	476.00	474.00	473.00	475.00	476.00	471.00	469.00	468.00	465.00	463.00	464.00	463.00	462.00	462.00	463.00	462.00	460.00	459.00	458.00	457.00	456.00	459.00	459.00	459.00	459.00	460.00	459.00	459.00	462.00	467.00	468.00	464.00	461.00	459.00	456.00	455.00	456.00	455.00	454.00	455.00	463.00	469.00	471.00	472.00	478.00	478.00	479.00	477.00	475.00	476.00	474.00	475.00	472.00	465.00	465.00	465.00	465.00	473.00	475.00	479.00	486.00	483.00	478.00	475.00	473.00	473.00	473.00	474.00	474.00	475.00	475.00	476.00	477.00	477.00	478.00	478.00	474.00	474.00	475.00	477.00	470.00	471.00
534.00	533.00	531.00	522.00	512.00	512.00	511.00	509.00	508.00	513.00	501.00	495.00	489.00	491.00	491.00	492.00	513.00	517.00	492.00	470.00	469.00	467.00	468.00	470.00	474.00	492.00	497.00	504.00	507.00	508.00	506.00	504.00	501.00	502.00	503.00	500.00	498.00	496.00	498.00	493.00	493.00	491.00	491.00	490.00	491.00	493.00	491.00	490.00	489.00	488.00	488.00	487.00	485.00	487.00	487.00	488.00	489.00	488.00	488.00	490.00	488.00	486.00	487.00	489.00	489.00	485.00	483.00	484.00	485.00	486.00	483.00	479.00	476.00	474.00	477.00	477.00	477.00	476.00	475.00	473.00	473.00	473.00	473.00	474.00	477.00	483.00	490.00	494.00	478.00	466.00	453.00	452.00	451.00	451.00	452.00	452.00	451.00	464.00	470.00	468.00	470.00	484.00	484.00	484.00	482.00	484.00	484.00	481.00	482.00	486.00	483.00	481.00	478.00	476.00	472.00	471.00	470.00	471.00	470.00	470.00	469.00	467.00	466.00	465.00	465.00	466.00	464.00	464.00	459.00	465.00	466.00	467.00	467.00	467.00	466.00	465.00	465.00	465.00	465.00	464.00	464.00	464.00	464.00	464.00	463.00	464.00	464.00	464.00	465.00	464.00	466.00	467.00	466.00	465.00	466.00	466.00	466.00	466.00	465.00	465.00	466.00	466.00	467.00	466.00	476.00	485.00	488.00	476.00	472.00	467.00	467.00	469.00	471.00	472.00	469.00	471.00	474.00	472.00	467.00	468.00	468.00	468.00	463.00	464.00	464.00	463.00	462.00	461.00	461.00	459.00	458.00	461.00	462.00	463.00	465.00	465.00	465.00	465.00	465.00	464.00	468.00	469.00	465.00	462.00	460.00	458.00	458.00	458.00	460.00	463.00	459.00	455.00	455.00	456.00	466.00	476.00	482.00	485.00	481.00	477.00	477.00	479.00	485.00	476.00	474.00	472.00	474.00	480.00	481.00	483.00	477.00	468.00	466.00	466.00	469.00	479.00	478.00	481.00	478.00	476.00	474.00	474.00	472.00	471.00	472.00	474.00	474.00	476.00	475.00	477.00	476.00	474.00	474.00	476.00	475.00	481.00
534.00	533.00	531.00	522.00	512.00	512.00	511.00	509.00	508.00	513.00	501.00	495.00	489.00	491.00	491.00	492.00	513.00	517.00	492.00	470.00	469.00	467.00	468.00	470.00	474.00	492.00	497.00	504.00	507.00	508.00	506.00	504.00	501.00	502.00	503.00	500.00	498.00	496.00	498.00	493.00	493.00	491.00	491.00	490.00	491.00	493.00	491.00	490.00	489.00	488.00	488.00	487.00	485.00	487.00	487.00	488.00	489.00	488.00	488.00	490.00	488.00	486.00	487.00	489.00	489.00	485.00	483.00	484.00	485.00	486.00	483.00	479.00	476.00	474.00	477.00	477.00	477.00	476.00	475.00	473.00	473.00	473.00	473.00	474.00	477.00	483.00	490.00	494.00	478.00	466.00	453.00	452.00	451.00	451.00	452.00	452.00	451.00	464.00	470.00	468.00	470.00	484.00	484.00	484.00	482.00	484.00	484.00	481.00	482.00	486.00	483.00	481.00	478.00	476.00	472.00	471.00	470.00	471.00	470.00	470.00	469.00	467.00	466.00	465.00	465.00	466.00	464.00	464.00	459.00	465.00	466.00	467.00	467.00	467.00	466.00	465.00	465.00	465.00	465.00	464.00	464.00	464.00	464.00	464.00	463.00	464.00	464.00	464.00	465.00	464.00	466.00	467.00	466.00	465.00	466.00	466.00	466.00	466.00	465.00	465.00	466.00	466.00	467.00	466.00	476.00	485.00	488.00	476.00	472.00	467.00	467.00	469.00	471.00	472.00	469.00	471.00	474.00	472.00	467.00	468.00	468.00	468.00	463.00	464.00	464.00	463.00	462.00	461.00	461.00	459.00	458.00	461.00	462.00	463.00	465.00	465.00	465.00	465.00	465.00	464.00	468.00	469.00	465.00	462.00	460.00	458.00	458.00	458.00	460.00	463.00	459.00	455.00	455.00	456.00	466.00	476.00	482.00	485.00	481.00	477.00	477.00	479.00	485.00	476.00	474.00	472.00	474.00	480.00	481.00	483.00	477.00	468.00	466.00	466.00	469.00	479.00	478.00	481.00	478.00	476.00	474.00	474.00	472.00	471.00	472.00	474.00	474.00	476.00	475.00	477.00	476.00	474.00	474.00	476.00	475.00	481.00
527.00	521.00	519.00	524.00	528.00	526.00	526.00	523.00	518.00	503.00	507.00	508.00	518.00	516.00	502.00	488.00	483.00	484.00	496.00	488.00	468.00	466.00	468.00	471.00	469.00	490.00	498.00	507.00	510.00	508.00	508.00	505.00	501.00	501.00	504.00	502.00	500.00	497.00	496.00	496.00	494.00	492.00	492.00	491.00	491.00	494.00	494.00	494.00	492.00	491.00	490.00	490.00	488.00	490.00	490.00	490.00	490.00	488.00	490.00	490.00	488.00	487.00	485.00	487.00	487.00	486.00	483.00	485.00	486.00	486.00	485.00	481.00	480.00	479.00	476.00	476.00	476.00	479.00	479.00	476.00	474.00	474.00	472.00	476.00	478.00	482.00	485.00	486.00	465.00	456.00	454.00	454.00	452.00	452.00	452.00	453.00	452.00	471.00	469.00	470.00	469.00	474.00	478.00	479.00	482.00	477.00	472.00	472.00	474.00	476.00	473.00	470.00	470.00	470.00	469.00	469.00	470.00	470.00	470.00	468.00	471.00	470.00	473.00	469.00	467.00	465.00	463.00	459.00	462.00	466.00	467.00	468.00	467.00	467.00	466.00	466.00	466.00	465.00	466.00	465.00	465.00	464.00	464.00	463.00	464.00	465.00	464.00	464.00	464.00	464.00	465.00	468.00	467.00	467.00	466.00	469.00	467.00	466.00	465.00	466.00	466.00	466.00	465.00	465.00	465.00	468.00	476.00	477.00	477.00	467.00	468.00	467.00	466.00	471.00	474.00	472.00	467.00	466.00	468.00	469.00	465.00	464.00	464.00	463.00	465.00	462.00	461.00	462.00	460.00	460.00	459.00	462.00	466.00	467.00	467.00	469.00	468.00	466.00	467.00	465.00	468.00	468.00	467.00	468.00	465.00	462.00	461.00	464.00	464.00	480.00	475.00	462.00	456.00	456.00	459.00	472.00	484.00	485.00	481.00	480.00	478.00	480.00	482.00	479.00	476.00	478.00	481.00	482.00	482.00	491.00	491.00	480.00	471.00	469.00	464.00	471.00	480.00	484.00	481.00	477.00	474.00	473.00	472.00	469.00	469.00	470.00	473.00	474.00	479.00	481.00	477.00	475.00	477.00	477.00	473.00	494.00
534.00	533.00	533.00	531.00	532.00	531.00	529.00	513.00	511.00	520.00	525.00	527.00	523.00	522.00	517.00	510.00	489.00	479.00	474.00	475.00	474.00	466.00	467.00	469.00	470.00	490.00	496.00	505.00	503.00	505.00	504.00	504.00	500.00	500.00	503.00	503.00	502.00	499.00	496.00	495.00	495.00	493.00	494.00	493.00	491.00	494.00	494.00	496.00	495.00	493.00	491.00	492.00	491.00	488.00	489.00	490.00	490.00	491.00	494.00	490.00	487.00	486.00	485.00	485.00	486.00	487.00	484.00	483.00	483.00	486.00	493.00	493.00	492.00	489.00	477.00	475.00	476.00	479.00	480.00	478.00	475.00	475.00	473.00	477.00	479.00	479.00	483.00	480.00	457.00	454.00	455.00	458.00	472.00	470.00	468.00	468.00	470.00	470.00	470.00	472.00	472.00	472.00	472.00	471.00	472.00	473.00	473.00	473.00	473.00	472.00	471.00	472.00	471.00	471.00	471.00	470.00	469.00	469.00	468.00	468.00	472.00	470.00	469.00	470.00	466.00	464.00	459.00	462.00	466.00	466.00	466.00	467.00	466.00	466.00	466.00	466.00	467.00	465.00	466.00	466.00	465.00	464.00	464.00	464.00	464.00	463.00	464.00	464.00	465.00	464.00	464.00	465.00	466.00	466.00	467.00	467.00	467.00	466.00	465.00	465.00	466.00	467.00	465.00	465.00	464.00	466.00	465.00	467.00	469.00	469.00	472.00	467.00	466.00	467.00	469.00	468.00	468.00	469.00	463.00	463.00	467.00	470.00	464.00	463.00	463.00	462.00	461.00	464.00	464.00	464.00	464.00	466.00	469.00	470.00	471.00	472.00	471.00	470.00	470.00	470.00	469.00	468.00	468.00	468.00	467.00	466.00	465.00	467.00	467.00	476.00	488.00	476.00	465.00	454.00	456.00	462.00	473.00	477.00	482.00	480.00	481.00	482.00	484.00	483.00	485.00	483.00	485.00	488.00	488.00	499.00	497.00	487.00	481.00	475.00	466.00	465.00	467.00	475.00	475.00	480.00	476.00	476.00	478.00	477.00	474.00	471.00	473.00	475.00	480.00	478.00	481.00	479.00	476.00	474.00	473.00	484.00
539.00	535.00	536.00	532.00	529.00	523.00	517.00	530.00	527.00	528.00	530.00	528.00	525.00	524.00	514.00	503.00	514.00	501.00	495.00	500.00	503.00	468.00	466.00	468.00	469.00	478.00	492.00	499.00	495.00	498.00	501.00	502.00	501.00	500.00	503.00	503.00	502.00	501.00	497.00	493.00	494.00	495.00	493.00	492.00	490.00	495.00	496.00	496.00	495.00	495.00	492.00	492.00	487.00	486.00	485.00	485.00	488.00	489.00	490.00	489.00	488.00	485.00	487.00	485.00	486.00	487.00	486.00	485.00	484.00	485.00	507.00	512.00	510.00	508.00	491.00	484.00	480.00	478.00	480.00	480.00	478.00	475.00	475.00	476.00	478.00	479.00	481.00	476.00	455.00	456.00	459.00	467.00	472.00	471.00	470.00	471.00	472.00	472.00	473.00	473.00	473.00	472.00	472.00	469.00	466.00	471.00	472.00	472.00	472.00	472.00	471.00	471.00	471.00	470.00	471.00	470.00	470.00	469.00	468.00	466.00	466.00	465.00	465.00	467.00	468.00	464.00	460.00	466.00	466.00	467.00	466.00	467.00	466.00	466.00	465.00	466.00	466.00	466.00	466.00	465.00	465.00	465.00	465.00	464.00	464.00	465.00	465.00	465.00	464.00	464.00	463.00	464.00	465.00	466.00	467.00	467.00	469.00	466.00	467.00	467.00	466.00	466.00	466.00	467.00	467.00	465.00	466.00	464.00	462.00	463.00	472.00	474.00	469.00	468.00	468.00	469.00	470.00	465.00	462.00	463.00	465.00	470.00	465.00	468.00	466.00	465.00	463.00	464.00	464.00	467.00	469.00	471.00	472.00	473.00	476.00	478.00	477.00	475.00	475.00	474.00	472.00	470.00	471.00	471.00	469.00	468.00	467.00	467.00	467.00	471.00	485.00	481.00	466.00	454.00	455.00	456.00	462.00	472.00	479.00	477.00	477.00	483.00	484.00	482.00	481.00	483.00	490.00	487.00	492.00	506.00	501.00	489.00	488.00	486.00	472.00	478.00	467.00	465.00	472.00	477.00	480.00	479.00	477.00	478.00	475.00	471.00	473.00	476.00	477.00	477.00	479.00	480.00	480.00	476.00	473.00	476.00
540.00	538.00	539.00	532.00	525.00	524.00	532.00	533.00	531.00	529.00	528.00	529.00	526.00	523.00	512.00	516.00	515.00	510.00	514.00	514.00	505.00	477.00	469.00	467.00	467.00	470.00	476.00	485.00	490.00	492.00	497.00	497.00	497.00	498.00	500.00	498.00	497.00	496.00	494.00	493.00	493.00	493.00	493.00	493.00	489.00	493.00	493.00	493.00	494.00	494.00	491.00	490.00	490.00	484.00	484.00	484.00	485.00	487.00	488.00	487.00	488.00	486.00	486.00	486.00	485.00	486.00	485.00	486.00	486.00	487.00	504.00	496.00	495.00	497.00	485.00	477.00	471.00	469.00	470.00	475.00	478.00	478.00	477.00	470.00	474.00	473.00	469.00	460.00	455.00	470.00	476.00	477.00	472.00	476.00	472.00	470.00	470.00	472.00	472.00	472.00	472.00	470.00	470.00	468.00	467.00	468.00	472.00	471.00	471.00	470.00	471.00	472.00	472.00	472.00	471.00	471.00	471.00	469.00	468.00	466.00	465.00	464.00	465.00	466.00	464.00	462.00	464.00	466.00	467.00	465.00	466.00	468.00	466.00	466.00	466.00	466.00	465.00	466.00	465.00	466.00	464.00	465.00	465.00	465.00	465.00	465.00	465.00	465.00	465.00	464.00	465.00	465.00	465.00	465.00	465.00	466.00	467.00	469.00	466.00	469.00	468.00	468.00	467.00	467.00	465.00	465.00	468.00	469.00	463.00	464.00	464.00	468.00	472.00	472.00	475.00	475.00	473.00	469.00	466.00	464.00	463.00	468.00	465.00	467.00	466.00	464.00	463.00	465.00	467.00	469.00	471.00	474.00	478.00	480.00	482.00	488.00	489.00	485.00	481.00	482.00	479.00	474.00	473.00	470.00	467.00	468.00	468.00	467.00	468.00	471.00	479.00	491.00	482.00	454.00	454.00	454.00	455.00	457.00	467.00	470.00	479.00	486.00	483.00	480.00	479.00	484.00	494.00	487.00	495.00	506.00	502.00	491.00	490.00	490.00	482.00	483.00	472.00	468.00	473.00	472.00	473.00	472.00	477.00	476.00	473.00	472.00	472.00	478.00	485.00	475.00	473.00	475.00	477.00	477.00	475.00	476.00
540.00	541.00	541.00	530.00	533.00	535.00	535.00	534.00	532.00	529.00	528.00	526.00	517.00	518.00	525.00	523.00	522.00	522.00	518.00	509.00	485.00	497.00	483.00	467.00	466.00	470.00	470.00	473.00	484.00	489.00	492.00	494.00	493.00	489.00	495.00	493.00	492.00	491.00	489.00	492.00	490.00	490.00	493.00	491.00	489.00	491.00	490.00	492.00	492.00	493.00	492.00	490.00	487.00	485.00	484.00	483.00	485.00	487.00	487.00	487.00	488.00	488.00	490.00	487.00	486.00	485.00	485.00	485.00	485.00	484.00	497.00	496.00	481.00	476.00	466.00	465.00	464.00	460.00	457.00	456.00	455.00	456.00	457.00	454.00	456.00	456.00	456.00	456.00	476.00	482.00	481.00	480.00	476.00	474.00	476.00	472.00	476.00	476.00	474.00	471.00	470.00	470.00	471.00	468.00	469.00	467.00	469.00	471.00	471.00	471.00	470.00	471.00	471.00	471.00	472.00	471.00	470.00	469.00	469.00	468.00	467.00	465.00	463.00	463.00	463.00	462.00	464.00	464.00	466.00	464.00	464.00	465.00	464.00	465.00	465.00	465.00	465.00	465.00	466.00	465.00	466.00	465.00	465.00	464.00	465.00	465.00	464.00	465.00	465.00	465.00	467.00	467.00	467.00	464.00	465.00	465.00	466.00	466.00	465.00	467.00	466.00	466.00	467.00	467.00	466.00	465.00	464.00	465.00	465.00	466.00	465.00	464.00	465.00	475.00	483.00	487.00	481.00	475.00	469.00	463.00	464.00	469.00	468.00	465.00	464.00	465.00	466.00	466.00	468.00	472.00	473.00	479.00	484.00	489.00	494.00	493.00	492.00	491.00	489.00	494.00	491.00	479.00	471.00	468.00	466.00	470.00	471.00	469.00	469.00	468.00	473.00	482.00	492.00	456.00	455.00	454.00	454.00	454.00	459.00	463.00	471.00	480.00	478.00	480.00	479.00	482.00	487.00	488.00	494.00	502.00	497.00	486.00	485.00	484.00	486.00	486.00	482.00	472.00	474.00	477.00	472.00	467.00	469.00	468.00	469.00	473.00	472.00	474.00	479.00	472.00	474.00	476.00	480.00	481.00	479.00	481.00
540.00	541.00	541.00	530.00	533.00	535.00	535.00	534.00	532.00	529.00	528.00	526.00	517.00	518.00	525.00	523.00	522.00	522.00	518.00	509.00	485.00	497.00	483.00	467.00	466.00	470.00	470.00	473.00	484.00	489.00	492.00	494.00	493.00	489.00	495.00	493.00	492.00	491.00	489.00	492.00	490.00	490.00	493.00	491.00	489.00	491.00	490.00	492.00	492.00	493.00	492.00	490.00	487.00	485.00	484.00	483.00	485.00	487.00	487.00	487.00	488.00	488.00	490.00	487.00	486.00	485.00	485.00	485.00	485.00	484.00	497.00	496.00	481.00	476.00	466.00	465.00	464.00	460.00	457.00	456.00	455.00	456.00	457.00	454.00	456.00	456.00	456.00	456.00	476.00	482.00	481.00	480.00	476.00	474.00	476.00	472.00	476.00	476.00	474.00	471.00	470.00	470.00	471.00	468.00	469.00	467.00	469.00	471.00	471.00	471.00	470.00	471.00	471.00	471.00	472.00	471.00	470.00	469.00	469.00	468.00	467.00	465.00	463.00	463.00	463.00	462.00	464.00	464.00	466.00	464.00	464.00	465.00	464.00	465.00	465.00	465.00	465.00	465.00	466.00	465.00	466.00	465.00	465.00	464.00	465.00	465.00	464.00	465.00	465.00	465.00	467.00	467.00	467.00	464.00	465.00	465.00	466.00	466.00	465.00	467.00	466.00	466.00	467.00	467.00	466.00	465.00	464.00	465.00	465.00	466.00	465.00	464.00	465.00	475.00	483.00	487.00	481.00	475.00	469.00	463.00	464.00	469.00	468.00	465.00	464.00	465.00	466.00	466.00	468.00	472.00	473.00	479.00	484.00	489.00	494.00	493.00	492.00	491.00	489.00	494.00	491.00	479.00	471.00	468.00	466.00	470.00	471.00	469.00	469.00	468.00	473.00	482.00	492.00	456.00	455.00	454.00	454.00	454.00	459.00	463.00	471.00	480.00	478.00	480.00	479.00	482.00	487.00	488.00	494.00	502.00	497.00	486.00	485.00	484.00	486.00	486.00	482.00	472.00	474.00	477.00	472.00	467.00	469.00	468.00	469.00	473.00	472.00	474.00	479.00	472.00	474.00	476.00	480.00	481.00	479.00	481.00
544.00	542.00	542.00	541.00	541.00	538.00	537.00	535.00	534.00	533.00	531.00	531.00	531.00	529.00	528.00	527.00	519.00	510.00	502.00	512.00	522.00	520.00	519.00	515.00	491.00	465.00	465.00	466.00	470.00	471.00	484.00	493.00	497.00	491.00	484.00	483.00	485.00	489.00	495.00	488.00	487.00	486.00	486.00	486.00	488.00	490.00	490.00	493.00	493.00	492.00	492.00	491.00	492.00	492.00	489.00	487.00	485.00	485.00	485.00	487.00	488.00	490.00	494.00	497.00	499.00	493.00	491.00	490.00	489.00	489.00	471.00	465.00	462.00	459.00	455.00	456.00	456.00	457.00	456.00	457.00	458.00	461.00	461.00	460.00	465.00	478.00	482.00	476.00	482.00	481.00	482.00	484.00	483.00	485.00	484.00	487.00	488.00	480.00	480.00	480.00	480.00	474.00	469.00	470.00	471.00	470.00	470.00	471.00	471.00	472.00	471.00	472.00	472.00	470.00	468.00	470.00	468.00	467.00	469.00	467.00	467.00	468.00	467.00	464.00	464.00	464.00	463.00	462.00	463.00	464.00	466.00	467.00	466.00	464.00	463.00	463.00	465.00	464.00	466.00	465.00	466.00	466.00	465.00	464.00	465.00	464.00	467.00	466.00	465.00	465.00	465.00	467.00	470.00	473.00	469.00	467.00	462.00	462.00	463.00	465.00	467.00	466.00	466.00	466.00	467.00	470.00	470.00	469.00	467.00	465.00	465.00	461.00	462.00	474.00	465.00	465.00	478.00	480.00	473.00	472.00	467.00	465.00	466.00	466.00	464.00	465.00	482.00	489.00	487.00	489.00	489.00	489.00	492.00	492.00	492.00	480.00	478.00	477.00	479.00	479.00	475.00	474.00	474.00	469.00	468.00	466.00	467.00	469.00	468.00	471.00	471.00	475.00	481.00	471.00	467.00	456.00	455.00	454.00	455.00	455.00	458.00	462.00	484.00	489.00	482.00	483.00	488.00	482.00	482.00	489.00	487.00	479.00	480.00	481.00	477.00	479.00	485.00	483.00	484.00	481.00	473.00	473.00	471.00	467.00	469.00	472.00	471.00	471.00	470.00	473.00	473.00	475.00	479.00	475.00	487.00	484.00
544.00	542.00	542.00	541.00	541.00	538.00	537.00	535.00	534.00	533.00	531.00	531.00	531.00	529.00	528.00	527.00	519.00	510.00	502.00	512.00	522.00	520.00	519.00	515.00	491.00	465.00	465.00	466.00	470.00	471.00	484.00	493.00	497.00	491.00	484.00	483.00	485.00	489.00	495.00	488.00	487.00	486.00	486.00	486.00	488.00	490.00	490.00	493.00	493.00	492.00	492.00	491.00	492.00	492.00	489.00	487.00	485.00	485.00	485.00	487.00	488.00	490.00	494.00	497.00	499.00	493.00	491.00	490.00	489.00	489.00	471.00	465.00	462.00	459.00	455.00	456.00	456.00	457.00	456.00	457.00	458.00	461.00	461.00	460.00	465.00	478.00	482.00	476.00	482.00	481.00	482.00	484.00	483.00	485.00	484.00	487.00	488.00	480.00	480.00	480.00	480.00	474.00	469.00	470.00	471.00	470.00	470.00	471.00	471.00	472.00	471.00	472.00	472.00	470.00	468.00	470.00	468.00	467.00	469.00	467.00	467.00	468.00	467.00	464.00	464.00	464.00	463.00	462.00	463.00	464.00	466.00	467.00	466.00	464.00	463.00	463.00	465.00	464.00	466.00	465.00	466.00	466.00	465.00	464.00	465.00	464.00	467.00	466.00	465.00	465.00	465.00	467.00	470.00	473.00	469.00	467.00	462.00	462.00	463.00	465.00	467.00	466.00	466.00	466.00	467.00	470.00	470.00	469.00	467.00	465.00	465.00	461.00	462.00	474.00	465.00	465.00	478.00	480.00	473.00	472.00	467.00	465.00	466.00	466.00	464.00	465.00	482.00	489.00	487.00	489.00	489.00	489.00	492.00	492.00	492.00	480.00	478.00	477.00	479.00	479.00	475.00	474.00	474.00	469.00	468.00	466.00	467.00	469.00	468.00	471.00	471.00	475.00	481.00	471.00	467.00	456.00	455.00	454.00	455.00	455.00	458.00	462.00	484.00	489.00	482.00	483.00	488.00	482.00	482.00	489.00	487.00	479.00	480.00	481.00	477.00	479.00	485.00	483.00	484.00	481.00	473.00	473.00	471.00	467.00	469.00	472.00	471.00	471.00	470.00	473.00	473.00	475.00	479.00	475.00	487.00	484.00
545.00	547.00	547.00	543.00	542.00	541.00	539.00	538.00	536.00	535.00	534.00	533.00	531.00	524.00	518.00	515.00	517.00	519.00	522.00	525.00	522.00	517.00	506.00	510.00	497.00	466.00	465.00	465.00	467.00	470.00	470.00	472.00	478.00	487.00	483.00	483.00	485.00	493.00	493.00	489.00	492.00	493.00	486.00	487.00	488.00	491.00	489.00	490.00	492.00	490.00	490.00	488.00	490.00	492.00	495.00	491.00	484.00	485.00	487.00	489.00	491.00	494.00	497.00	503.00	507.00	499.00	499.00	492.00	487.00	482.00	465.00	459.00	457.00	455.00	456.00	458.00	460.00	467.00	469.00	471.00	471.00	470.00	468.00	472.00	477.00	484.00	482.00	482.00	483.00	483.00	481.00	484.00	485.00	484.00	485.00	487.00	485.00	481.00	481.00	479.00	480.00	478.00	474.00	469.00	470.00	470.00	470.00	470.00	470.00	468.00	471.00	472.00	473.00	471.00	470.00	467.00	467.00	468.00	468.00	467.00	468.00	468.00	466.00	462.00	469.00	469.00	468.00	467.00	463.00	460.00	464.00	469.00	469.00	468.00	466.00	465.00	464.00	463.00	464.00	465.00	465.00	466.00	465.00	466.00	466.00	465.00	465.00	466.00	465.00	467.00	466.00	469.00	468.00	472.00	471.00	468.00	465.00	462.00	462.00	462.00	465.00	465.00	466.00	466.00	468.00	469.00	473.00	473.00	469.00	465.00	466.00	465.00	461.00	466.00	466.00	463.00	466.00	478.00	477.00	472.00	469.00	467.00	465.00	465.00	465.00	465.00	481.00	487.00	484.00	483.00	484.00	483.00	482.00	483.00	486.00	479.00	477.00	479.00	476.00	475.00	477.00	477.00	478.00	470.00	467.00	469.00	471.00	471.00	469.00	471.00	472.00	473.00	475.00	473.00	474.00	466.00	456.00	454.00	456.00	456.00	456.00	459.00	471.00	484.00	485.00	485.00	488.00	479.00	472.00	472.00	476.00	473.00	472.00	473.00	473.00	473.00	476.00	477.00	480.00	482.00	473.00	469.00	469.00	469.00	472.00	470.00	471.00	472.00	471.00	472.00	472.00	469.00	472.00	475.00	479.00	487.00
550.00	549.00	548.00	545.00	544.00	542.00	541.00	537.00	536.00	533.00	530.00	529.00	523.00	526.00	526.00	527.00	527.00	527.00	525.00	522.00	515.00	493.00	486.00	476.00	478.00	479.00	480.00	470.00	468.00	466.00	465.00	465.00	466.00	468.00	478.00	485.00	482.00	480.00	483.00	487.00	490.00	495.00	478.00	487.00	487.00	491.00	489.00	488.00	489.00	488.00	489.00	489.00	489.00	488.00	489.00	488.00	486.00	487.00	490.00	491.00	493.00	496.00	501.00	509.00	508.00	490.00	489.00	485.00	477.00	472.00	457.00	456.00	458.00	457.00	469.00	474.00	476.00	474.00	473.00	472.00	472.00	473.00	472.00	481.00	482.00	484.00	484.00	484.00	484.00	484.00	484.00	484.00	484.00	484.00	483.00	483.00	483.00	484.00	481.00	481.00	480.00	482.00	481.00	478.00	472.00	469.00	470.00	471.00	466.00	467.00	470.00	470.00	469.00	469.00	470.00	468.00	467.00	466.00	467.00	467.00	467.00	466.00	463.00	465.00	468.00	467.00	467.00	468.00	467.00	461.00	459.00	461.00	464.00	467.00	468.00	468.00	466.00	466.00	466.00	467.00	468.00	467.00	467.00	467.00	467.00	466.00	466.00	467.00	469.00	470.00	469.00	466.00	468.00	467.00	469.00	469.00	464.00	462.00	462.00	463.00	465.00	466.00	466.00	466.00	466.00	467.00	468.00	468.00	469.00	466.00	467.00	469.00	471.00	461.00	461.00	461.00	461.00	463.00	471.00	480.00	483.00	473.00	468.00	467.00	466.00	467.00	472.00	476.00	482.00	485.00	486.00	481.00	488.00	486.00	482.00	476.00	475.00	477.00	476.00	475.00	483.00	476.00	472.00	473.00	469.00	468.00	468.00	469.00	473.00	474.00	471.00	470.00	472.00	476.00	474.00	468.00	460.00	454.00	454.00	454.00	454.00	456.00	460.00	470.00	474.00	480.00	481.00	481.00	468.00	461.00	462.00	467.00	468.00	470.00	471.00	472.00	473.00	473.00	472.00	474.00	476.00	468.00	467.00	469.00	471.00	472.00	469.00	467.00	470.00	472.00	471.00	471.00	471.00	474.00	482.00	496.00
552.00	551.00	550.00	545.00	543.00	541.00	541.00	538.00	537.00	537.00	536.00	534.00	532.00	531.00	528.00	526.00	518.00	517.00	512.00	509.00	507.00	489.00	478.00	488.00	498.00	511.00	494.00	483.00	488.00	472.00	468.00	466.00	465.00	466.00	464.00	465.00	466.00	466.00	466.00	470.00	470.00	470.00	474.00	485.00	491.00	489.00	487.00	490.00	490.00	490.00	489.00	488.00	488.00	487.00	488.00	486.00	488.00	490.00	493.00	495.00	494.00	503.00	510.00	509.00	502.00	490.00	484.00	476.00	473.00	465.00	458.00	457.00	461.00	471.00	477.00	476.00	477.00	473.00	474.00	477.00	477.00	476.00	472.00	484.00	488.00	486.00	485.00	485.00	484.00	484.00	484.00	484.00	483.00	483.00	483.00	483.00	483.00	486.00	487.00	483.00	483.00	482.00	481.00	483.00	482.00	477.00	469.00	469.00	468.00	467.00	468.00	468.00	468.00	467.00	467.00	469.00	471.00	471.00	470.00	465.00	464.00	465.00	466.00	467.00	469.00	469.00	469.00	469.00	469.00	467.00	463.00	458.00	458.00	460.00	463.00	465.00	465.00	468.00	469.00	469.00	467.00	467.00	466.00	466.00	467.00	467.00	467.00	468.00	467.00	468.00	469.00	467.00	468.00	468.00	469.00	469.00	468.00	465.00	464.00	465.00	465.00	465.00	465.00	465.00	465.00	467.00	468.00	467.00	466.00	468.00	467.00	470.00	476.00	474.00	466.00	462.00	461.00	462.00	465.00	467.00	472.00	472.00	468.00	468.00	467.00	467.00	471.00	470.00	473.00	476.00	479.00	480.00	476.00	476.00	474.00	473.00	474.00	475.00	472.00	472.00	474.00	472.00	474.00	477.00	481.00	473.00	468.00	470.00	471.00	471.00	469.00	469.00	471.00	483.00	478.00	472.00	472.00	458.00	454.00	453.00	454.00	453.00	454.00	459.00	464.00	467.00	473.00	483.00	474.00	461.00	460.00	467.00	474.00	472.00	469.00	469.00	477.00	473.00	473.00	473.00	471.00	467.00	466.00	468.00	470.00	473.00	474.00	470.00	468.00	467.00	471.00	472.00	472.00	473.00	482.00	499.00
552.00	551.00	551.00	547.00	545.00	545.00	544.00	541.00	541.00	539.00	537.00	536.00	531.00	528.00	525.00	524.00	512.00	503.00	498.00	495.00	490.00	480.00	501.00	516.00	517.00	494.00	497.00	511.00	495.00	476.00	491.00	486.00	480.00	479.00	470.00	470.00	467.00	464.00	464.00	464.00	464.00	464.00	462.00	467.00	476.00	487.00	488.00	487.00	488.00	489.00	489.00	487.00	485.00	484.00	487.00	488.00	490.00	493.00	496.00	497.00	499.00	510.00	510.00	499.00	493.00	486.00	480.00	468.00	464.00	456.00	459.00	458.00	467.00	477.00	476.00	475.00	473.00	476.00	478.00	480.00	477.00	477.00	474.00	488.00	485.00	488.00	486.00	486.00	485.00	486.00	487.00	486.00	485.00	484.00	484.00	484.00	483.00	484.00	486.00	487.00	483.00	483.00	484.00	483.00	484.00	483.00	476.00	472.00	468.00	467.00	468.00	468.00	468.00	468.00	468.00	469.00	472.00	474.00	473.00	464.00	465.00	466.00	467.00	468.00	469.00	469.00	469.00	467.00	470.00	468.00	467.00	465.00	462.00	462.00	459.00	460.00	461.00	463.00	465.00	467.00	465.00	464.00	466.00	466.00	468.00	467.00	467.00	466.00	468.00	467.00	467.00	469.00	469.00	470.00	468.00	469.00	471.00	471.00	469.00	467.00	464.00	464.00	464.00	464.00	464.00	466.00	466.00	465.00	465.00	469.00	468.00	467.00	471.00	477.00	466.00	465.00	465.00	465.00	465.00	464.00	465.00	466.00	467.00	467.00	467.00	467.00	473.00	471.00	471.00	470.00	471.00	473.00	473.00	472.00	470.00	472.00	474.00	475.00	473.00	471.00	469.00	472.00	477.00	483.00	491.00	482.00	477.00	477.00	477.00	471.00	470.00	468.00	466.00	477.00	479.00	477.00	476.00	476.00	455.00	454.00	453.00	452.00	451.00	452.00	453.00	459.00	465.00	482.00	476.00	467.00	460.00	465.00	471.00	468.00	460.00	460.00	463.00	467.00	469.00	471.00	471.00	465.00	470.00	471.00	473.00	472.00	474.00	474.00	472.00	468.00	468.00	471.00	473.00	474.00	490.00	492.00
555.00	553.00	552.00	550.00	549.00	548.00	546.00	543.00	540.00	538.00	536.00	533.00	533.00	525.00	513.00	508.00	517.00	523.00	525.00	521.00	508.00	505.00	518.00	519.00	516.00	505.00	517.00	518.00	496.00	484.00	511.00	516.00	511.00	510.00	491.00	495.00	495.00	496.00	486.00	471.00	469.00	467.00	462.00	463.00	463.00	469.00	480.00	486.00	487.00	487.00	487.00	484.00	487.00	490.00	491.00	492.00	490.00	494.00	500.00	504.00	507.00	499.00	496.00	491.00	490.00	484.00	472.00	463.00	457.00	456.00	457.00	466.00	476.00	478.00	475.00	476.00	479.00	479.00	479.00	478.00	480.00	478.00	475.00	491.00	489.00	484.00	484.00	485.00	485.00	486.00	488.00	487.00	486.00	487.00	486.00	486.00	486.00	485.00	484.00	487.00	488.00	486.00	485.00	485.00	484.00	485.00	480.00	475.00	471.00	468.00	468.00	468.00	467.00	467.00	468.00	469.00	471.00	472.00	469.00	466.00	467.00	467.00	467.00	467.00	468.00	469.00	470.00	468.00	466.00	466.00	467.00	467.00	467.00	468.00	465.00	460.00	460.00	461.00	462.00	462.00	464.00	467.00	470.00	467.00	466.00	466.00	469.00	468.00	468.00	469.00	468.00	470.00	470.00	471.00	471.00	469.00	468.00	467.00	467.00	466.00	463.00	463.00	462.00	462.00	463.00	463.00	463.00	463.00	465.00	466.00	468.00	469.00	468.00	468.00	465.00	467.00	470.00	471.00	466.00	467.00	470.00	468.00	466.00	467.00	467.00	468.00	468.00	467.00	468.00	467.00	468.00	471.00	473.00	471.00	471.00	471.00	471.00	472.00	472.00	472.00	469.00	470.00	473.00	478.00	495.00	493.00	492.00	489.00	485.00	481.00	483.00	483.00	473.00	488.00	480.00	480.00	481.00	474.00	468.00	458.00	454.00	453.00	451.00	451.00	451.00	451.00	454.00	467.00	467.00	460.00	459.00	464.00	461.00	460.00	460.00	460.00	460.00	460.00	462.00	462.00	461.00	464.00	467.00	470.00	474.00	473.00	476.00	473.00	473.00	472.00	468.00	467.00	470.00	472.00	481.00	486.00
557.00	557.00	555.00	552.00	551.00	549.00	547.00	543.00	540.00	540.00	540.00	535.00	523.00	523.00	520.00	528.00	528.00	520.00	503.00	500.00	500.00	521.00	523.00	522.00	510.00	517.00	521.00	520.00	501.00	493.00	521.00	519.00	515.00	512.00	503.00	509.00	508.00	505.00	499.00	480.00	497.00	494.00	483.00	462.00	461.00	464.00	462.00	473.00	483.00	484.00	477.00	480.00	489.00	491.00	492.00	493.00	493.00	497.00	502.00	500.00	494.00	494.00	493.00	486.00	482.00	475.00	462.00	459.00	456.00	455.00	466.00	475.00	476.00	476.00	478.00	480.00	480.00	480.00	480.00	479.00	477.00	476.00	473.00	471.00	477.00	484.00	483.00	483.00	487.00	485.00	488.00	487.00	488.00	489.00	489.00	490.00	490.00	486.00	486.00	486.00	486.00	488.00	486.00	486.00	485.00	483.00	483.00	480.00	474.00	473.00	468.00	469.00	468.00	468.00	468.00	468.00	468.00	466.00	466.00	470.00	468.00	467.00	467.00	468.00	469.00	471.00	471.00	469.00	467.00	467.00	467.00	467.00	467.00	470.00	470.00	469.00	469.00	464.00	465.00	463.00	465.00	468.00	470.00	471.00	470.00	466.00	468.00	468.00	471.00	470.00	467.00	471.00	471.00	473.00	471.00	470.00	469.00	468.00	468.00	467.00	464.00	463.00	462.00	462.00	462.00	462.00	462.00	462.00	464.00	464.00	465.00	466.00	466.00	465.00	466.00	470.00	474.00	478.00	473.00	469.00	469.00	467.00	467.00	469.00	466.00	467.00	469.00	468.00	469.00	469.00	468.00	469.00	468.00	468.00	469.00	468.00	469.00	470.00	470.00	469.00	469.00	471.00	472.00	473.00	483.00	487.00	489.00	490.00	492.00	489.00	489.00	485.00	474.00	477.00	481.00	483.00	485.00	479.00	480.00	477.00	465.00	459.00	453.00	451.00	451.00	451.00	451.00	459.00	456.00	458.00	464.00	464.00	465.00	466.00	471.00	470.00	472.00	468.00	467.00	468.00	468.00	472.00	472.00	470.00	468.00	472.00	477.00	477.00	472.00	473.00	472.00	469.00	468.00	470.00	478.00	485.00
560.00	558.00	556.00	552.00	551.00	548.00	547.00	545.00	545.00	542.00	538.00	524.00	536.00	528.00	534.00	532.00	510.00	507.00	519.00	524.00	526.00	526.00	525.00	516.00	519.00	521.00	523.00	525.00	515.00	493.00	521.00	523.00	521.00	518.00	510.00	512.00	511.00	508.00	492.00	505.00	505.00	501.00	497.00	483.00	467.00	461.00	462.00	462.00	465.00	469.00	478.00	483.00	492.00	492.00	492.00	491.00	494.00	494.00	491.00	493.00	493.00	488.00	484.00	478.00	476.00	464.00	459.00	456.00	458.00	472.00	481.00	482.00	483.00	483.00	482.00	484.00	485.00	481.00	481.00	480.00	478.00	477.00	477.00	471.00	475.00	480.00	484.00	485.00	486.00	485.00	485.00	488.00	489.00	489.00	491.00	491.00	490.00	487.00	485.00	485.00	486.00	490.00	488.00	486.00	486.00	485.00	483.00	482.00	476.00	474.00	470.00	469.00	469.00	468.00	468.00	468.00	466.00	468.00	472.00	473.00	472.00	469.00	468.00	468.00	470.00	471.00	474.00	474.00	473.00	471.00	468.00	471.00	471.00	469.00	468.00	466.00	466.00	471.00	470.00	471.00	469.00	468.00	469.00	470.00	470.00	470.00	466.00	468.00	471.00	470.00	468.00	472.00	472.00	472.00	472.00	470.00	470.00	470.00	469.00	468.00	469.00	465.00	462.00	462.00	462.00	462.00	462.00	463.00	464.00	463.00	464.00	464.00	465.00	466.00	466.00	468.00	474.00	476.00	469.00	467.00	468.00	469.00	469.00	470.00	468.00	467.00	468.00	469.00	469.00	476.00	475.00	468.00	467.00	467.00	466.00	466.00	469.00	467.00	467.00	468.00	470.00	472.00	473.00	473.00	478.00	477.00	477.00	479.00	479.00	481.00	479.00	478.00	473.00	476.00	474.00	483.00	482.00	483.00	483.00	489.00	489.00	482.00	467.00	455.00	451.00	451.00	451.00	451.00	452.00	460.00	465.00	475.00	477.00	475.00	476.00	476.00	484.00	484.00	483.00	484.00	476.00	475.00	475.00	478.00	480.00	470.00	473.00	478.00	480.00	477.00	473.00	472.00	467.00	467.00	474.00	484.00
562.00	561.00	558.00	554.00	554.00	550.00	548.00	544.00	540.00	531.00	535.00	538.00	535.00	536.00	532.00	520.00	529.00	529.00	531.00	530.00	528.00	526.00	519.00	521.00	525.00	524.00	523.00	521.00	511.00	500.00	522.00	521.00	519.00	518.00	509.00	509.00	501.00	494.00	497.00	508.00	507.00	507.00	504.00	502.00	497.00	470.00	462.00	460.00	460.00	462.00	465.00	477.00	488.00	488.00	494.00	490.00	488.00	489.00	489.00	489.00	491.00	478.00	475.00	472.00	467.00	459.00	459.00	459.00	476.00	489.00	488.00	486.00	487.00	486.00	486.00	485.00	484.00	484.00	483.00	481.00	480.00	478.00	477.00	481.00	472.00	468.00	470.00	476.00	486.00	486.00	488.00	488.00	490.00	490.00	491.00	493.00	492.00	490.00	488.00	487.00	486.00	486.00	486.00	484.00	483.00	484.00	483.00	482.00	479.00	475.00	472.00	470.00	469.00	470.00	469.00	467.00	465.00	470.00	472.00	474.00	473.00	473.00	472.00	471.00	467.00	468.00	472.00	475.00	478.00	473.00	474.00	470.00	469.00	466.00	465.00	467.00	470.00	472.00	473.00	472.00	472.00	471.00	466.00	470.00	468.00	471.00	469.00	468.00	467.00	467.00	469.00	473.00	473.00	471.00	470.00	472.00	473.00	472.00	471.00	470.00	469.00	468.00	465.00	462.00	462.00	462.00	462.00	464.00	463.00	466.00	465.00	466.00	465.00	465.00	466.00	466.00	468.00	468.00	469.00	469.00	473.00	474.00	474.00	474.00	474.00	469.00	468.00	472.00	468.00	470.00	483.00	473.00	469.00	470.00	469.00	469.00	470.00	470.00	471.00	466.00	470.00	472.00	473.00	472.00	473.00	474.00	475.00	475.00	475.00	475.00	476.00	474.00	474.00	487.00	478.00	479.00	483.00	491.00	486.00	488.00	493.00	494.00	486.00	483.00	465.00	452.00	451.00	451.00	451.00	452.00	463.00	475.00	476.00	477.00	485.00	485.00	483.00	484.00	483.00	484.00	479.00	479.00	475.00	482.00	485.00	479.00	480.00	477.00	481.00	480.00	478.00	475.00	471.00	467.00	468.00	478.00
562.00	561.00	558.00	554.00	554.00	550.00	548.00	544.00	540.00	531.00	535.00	538.00	535.00	536.00	532.00	520.00	529.00	529.00	531.00	530.00	528.00	526.00	519.00	521.00	525.00	524.00	523.00	521.00	511.00	500.00	522.00	521.00	519.00	518.00	509.00	509.00	501.00	494.00	497.00	508.00	507.00	507.00	504.00	502.00	497.00	470.00	462.00	460.00	460.00	462.00	465.00	477.00	488.00	488.00	494.00	490.00	488.00	489.00	489.00	489.00	491.00	478.00	475.00	472.00	467.00	459.00	459.00	459.00	476.00	489.00	488.00	486.00	487.00	486.00	486.00	485.00	484.00	484.00	483.00	481.00	480.00	478.00	477.00	481.00	472.00	468.00	470.00	476.00	486.00	486.00	488.00	488.00	490.00	490.00	491.00	493.00	492.00	490.00	488.00	487.00	486.00	486.00	486.00	484.00	483.00	484.00	483.00	482.00	479.00	475.00	472.00	470.00	469.00	470.00	469.00	467.00	465.00	470.00	472.00	474.00	473.00	473.00	472.00	471.00	467.00	468.00	472.00	475.00	478.00	473.00	474.00	470.00	469.00	466.00	465.00	467.00	470.00	472.00	473.00	472.00	472.00	471.00	466.00	470.00	468.00	471.00	469.00	468.00	467.00	467.00	469.00	473.00	473.00	471.00	470.00	472.00	473.00	472.00	471.00	470.00	469.00	468.00	465.00	462.00	462.00	462.00	462.00	464.00	463.00	466.00	465.00	466.00	465.00	465.00	466.00	466.00	468.00	468.00	469.00	469.00	473.00	474.00	474.00	474.00	474.00	469.00	468.00	472.00	468.00	470.00	483.00	473.00	469.00	470.00	469.00	469.00	470.00	470.00	471.00	466.00	470.00	472.00	473.00	472.00	473.00	474.00	475.00	475.00	475.00	475.00	476.00	474.00	474.00	487.00	478.00	479.00	483.00	491.00	486.00	488.00	493.00	494.00	486.00	483.00	465.00	452.00	451.00	451.00	451.00	452.00	463.00	475.00	476.00	477.00	485.00	485.00	483.00	484.00	483.00	484.00	479.00	479.00	475.00	482.00	485.00	479.00	480.00	477.00	481.00	480.00	478.00	475.00	471.00	467.00	468.00	478.00
563.00	562.00	556.00	551.00	547.00	547.00	548.00	546.00	545.00	545.00	545.00	542.00	540.00	539.00	516.00	527.00	535.00	535.00	532.00	531.00	525.00	525.00	527.00	527.00	526.00	525.00	521.00	509.00	499.00	515.00	523.00	520.00	520.00	519.00	504.00	503.00	506.00	498.00	510.00	510.00	508.00	506.00	505.00	504.00	499.00	488.00	479.00	460.00	459.00	459.00	460.00	462.00	472.00	472.00	478.00	482.00	483.00	486.00	485.00	483.00	483.00	470.00	464.00	459.00	459.00	458.00	464.00	481.00	489.00	488.00	489.00	487.00	488.00	488.00	485.00	486.00	486.00	487.00	486.00	483.00	487.00	484.00	478.00	478.00	481.00	472.00	468.00	472.00	486.00	487.00	488.00	490.00	489.00	490.00	492.00	490.00	493.00	491.00	490.00	488.00	485.00	486.00	486.00	488.00	487.00	484.00	481.00	484.00	483.00	481.00	476.00	474.00	470.00	467.00	467.00	468.00	466.00	467.00	470.00	471.00	471.00	473.00	472.00	471.00	469.00	469.00	467.00	468.00	471.00	469.00	472.00	472.00	469.00	470.00	470.00	470.00	472.00	475.00	478.00	477.00	475.00	473.00	466.00	469.00	469.00	470.00	467.00	471.00	472.00	471.00	472.00	470.00	470.00	471.00	471.00	474.00	474.00	472.00	470.00	472.00	472.00	473.00	469.00	466.00	462.00	462.00	462.00	465.00	467.00	465.00	467.00	469.00	468.00	467.00	467.00	467.00	469.00	474.00	481.00	480.00	474.00	475.00	474.00	474.00	474.00	470.00	469.00	471.00	469.00	471.00	479.00	482.00	473.00	472.00	473.00	469.00	469.00	469.00	469.00	469.00	468.00	469.00	468.00	469.00	467.00	470.00	472.00	475.00	474.00	474.00	473.00	473.00	471.00	478.00	477.00	471.00	472.00	479.00	486.00	487.00	489.00	487.00	482.00	484.00	475.00	467.00	454.00	451.00	451.00	451.00	454.00	479.00	483.00	487.00	483.00	479.00	475.00	476.00	477.00	477.00	483.00	483.00	478.00	475.00	478.00	480.00	480.00	484.00	487.00	491.00	483.00	479.00	478.00	473.00	467.00	472.00
566.00	568.00	566.00	562.00	560.00	558.00	557.00	553.00	552.00	549.00	545.00	544.00	533.00	528.00	541.00	541.00	539.00	537.00	536.00	535.00	534.00	533.00	533.00	532.00	530.00	514.00	524.00	526.00	524.00	525.00	524.00	524.00	522.00	515.00	519.00	518.00	515.00	512.00	514.00	514.00	513.00	511.00	510.00	508.00	506.00	508.00	508.00	505.00	498.00	493.00	482.00	469.00	462.00	460.00	460.00	459.00	462.00	462.00	461.00	461.00	460.00	459.00	457.00	457.00	457.00	478.00	488.00	489.00	488.00	489.00	488.00	487.00	489.00	488.00	488.00	487.00	487.00	493.00	491.00	492.00	492.00	487.00	482.00	480.00	480.00	478.00	477.00	474.00	475.00	480.00	482.00	485.00	488.00	490.00	491.00	490.00	492.00	493.00	493.00	492.00	492.00	490.00	487.00	487.00	487.00	489.00	487.00	485.00	487.00	486.00	484.00	482.00	478.00	474.00	472.00	471.00	469.00	467.00	465.00	467.00	468.00	469.00	471.00	473.00	470.00	472.00	472.00	470.00	473.00	473.00	474.00	473.00	472.00	473.00	474.00	474.00	475.00	477.00	478.00	477.00	479.00	477.00	471.00	470.00	474.00	471.00	473.00	474.00	473.00	472.00	473.00	474.00	473.00	474.00	476.00	473.00	472.00	472.00	474.00	474.00	473.00	473.00	476.00	478.00	470.00	467.00	466.00	465.00	467.00	464.00	464.00	466.00	467.00	467.00	468.00	469.00	469.00	470.00	481.00	479.00	473.00	472.00	470.00	471.00	470.00	468.00	473.00	481.00	484.00	482.00	478.00	478.00	483.00	481.00	480.00	474.00	469.00	466.00	468.00	468.00	469.00	471.00	472.00	465.00	465.00	463.00	464.00	466.00	467.00	470.00	470.00	473.00	479.00	485.00	485.00	483.00	484.00	481.00	470.00	475.00	485.00	486.00	487.00	479.00	474.00	470.00	465.00	451.00	451.00	451.00	451.00	451.00	453.00	457.00	468.00	465.00	470.00	469.00	471.00	476.00	483.00	473.00	475.00	477.00	480.00	479.00	488.00	489.00	489.00	490.00	489.00	490.00	488.00	485.00	482.00	476.00
566.00	568.00	566.00	562.00	560.00	558.00	557.00	553.00	552.00	549.00	545.00	544.00	533.00	528.00	541.00	541.00	539.00	537.00	536.00	535.00	534.00	533.00	533.00	532.00	530.00	514.00	524.00	526.00	524.00	525.00	524.00	524.00	522.00	515.00	519.00	518.00	515.00	512.00	514.00	514.00	513.00	511.00	510.00	508.00	506.00	508.00	508.00	505.00	498.00	493.00	482.00	469.00	462.00	460.00	460.00	459.00	462.00	462.00	461.00	461.00	460.00	459.00	457.00	457.00	457.00	478.00	488.00	489.00	488.00	489.00	488.00	487.00	489.00	488.00	488.00	487.00	487.00	493.00	491.00	492.00	492.00	487.00	482.00	480.00	480.00	478.00	477.00	474.00	475.00	480.00	482.00	485.00	488.00	490.00	491.00	490.00	492.00	493.00	493.00	492.00	492.00	490.00	487.00	487.00	487.00	489.00	487.00	485.00	487.00	486.00	484.00	482.00	478.00	474.00	472.00	471.00	469.00	467.00	465.00	467.00	468.00	469.00	471.00	473.00	470.00	472.00	472.00	470.00	473.00	473.00	474.00	473.00	472.00	473.00	474.00	474.00	475.00	477.00	478.00	477.00	479.00	477.00	471.00	470.00	474.00	471.00	473.00	474.00	473.00	472.00	473.00	474.00	473.00	474.00	476.00	473.00	472.00	472.00	474.00	474.00	473.00	473.00	476.00	478.00	470.00	467.00	466.00	465.00	467.00	464.00	464.00	466.00	467.00	467.00	468.00	469.00	469.00	470.00	481.00	479.00	473.00	472.00	470.00	471.00	470.00	468.00	473.00	481.00	484.00	482.00	478.00	478.00	483.00	481.00	480.00	474.00	469.00	466.00	468.00	468.00	469.00	471.00	472.00	465.00	465.00	463.00	464.00	466.00	467.00	470.00	470.00	473.00	479.00	485.00	485.00	483.00	484.00	481.00	470.00	475.00	485.00	486.00	487.00	479.00	474.00	470.00	465.00	451.00	451.00	451.00	451.00	451.00	453.00	457.00	468.00	465.00	470.00	469.00	471.00	476.00	483.00	473.00	475.00	477.00	480.00	479.00	488.00	489.00	489.00	490.00	489.00	490.00	488.00	485.00	482.00	476.00
573.00	569.00	565.00	563.00	562.00	560.00	558.00	555.00	554.00	548.00	551.00	548.00	548.00	546.00	544.00	543.00	540.00	540.00	539.00	538.00	538.00	536.00	535.00	532.00	526.00	528.00	528.00	528.00	528.00	527.00	524.00	523.00	521.00	516.00	521.00	519.00	517.00	517.00	516.00	516.00	516.00	516.00	515.00	511.00	513.00	515.00	509.00	510.00	508.00	499.00	486.00	469.00	491.00	481.00	464.00	461.00	462.00	461.00	461.00	460.00	458.00	458.00	457.00	459.00	468.00	482.00	486.00	487.00	486.00	487.00	488.00	488.00	487.00	489.00	488.00	488.00	488.00	491.00	490.00	489.00	491.00	487.00	483.00	481.00	481.00	481.00	478.00	478.00	473.00	474.00	477.00	482.00	487.00	489.00	489.00	489.00	490.00	491.00	492.00	492.00	492.00	492.00	487.00	487.00	488.00	489.00	492.00	489.00	488.00	487.00	487.00	485.00	483.00	479.00	477.00	478.00	478.00	474.00	472.00	467.00	468.00	467.00	468.00	471.00	474.00	475.00	471.00	469.00	472.00	474.00	470.00	471.00	473.00	470.00	472.00	471.00	471.00	477.00	479.00	481.00	479.00	477.00	474.00	473.00	476.00	477.00	473.00	474.00	477.00	472.00	475.00	474.00	475.00	475.00	476.00	475.00	475.00	475.00	474.00	474.00	474.00	473.00	475.00	479.00	472.00	470.00	471.00	471.00	469.00	464.00	464.00	464.00	465.00	470.00	470.00	469.00	468.00	467.00	469.00	473.00	474.00	475.00	470.00	468.00	467.00	467.00	471.00	474.00	489.00	507.00	489.00	481.00	487.00	485.00	485.00	480.00	475.00	473.00	469.00	472.00	470.00	471.00	474.00	472.00	470.00	467.00	462.00	462.00	462.00	463.00	465.00	465.00	472.00	487.00	485.00	480.00	474.00	474.00	477.00	467.00	472.00	478.00	486.00	483.00	477.00	468.00	459.00	453.00	457.00	458.00	461.00	453.00	451.00	452.00	456.00	459.00	455.00	458.00	464.00	469.00	475.00	472.00	475.00	475.00	479.00	475.00	479.00	482.00	487.00	495.00	491.00	488.00	482.00	484.00	482.00	478.00
570.00	562.00	564.00	568.00	565.00	563.00	561.00	557.00	554.00	553.00	543.00	546.00	550.00	549.00	547.00	544.00	542.00	542.00	541.00	541.00	541.00	537.00	532.00	525.00	527.00	532.00	531.00	530.00	529.00	528.00	524.00	521.00	519.00	522.00	521.00	523.00	520.00	520.00	520.00	518.00	519.00	520.00	518.00	517.00	517.00	510.00	512.00	512.00	496.00	479.00	473.00	484.00	494.00	478.00	464.00	477.00	492.00	489.00	474.00	476.00	467.00	473.00	476.00	477.00	480.00	483.00	486.00	487.00	485.00	486.00	488.00	488.00	489.00	489.00	490.00	489.00	488.00	488.00	490.00	488.00	487.00	488.00	489.00	484.00	482.00	481.00	481.00	479.00	472.00	472.00	475.00	477.00	484.00	486.00	488.00	489.00	489.00	490.00	491.00	492.00	493.00	490.00	488.00	488.00	487.00	488.00	490.00	491.00	489.00	488.00	488.00	487.00	486.00	484.00	481.00	476.00	478.00	471.00	471.00	467.00	468.00	469.00	469.00	470.00	469.00	470.00	470.00	471.00	471.00	475.00	469.00	466.00	467.00	470.00	470.00	472.00	474.00	474.00	476.00	478.00	475.00	476.00	475.00	475.00	477.00	476.00	479.00	478.00	477.00	476.00	475.00	473.00	474.00	474.00	474.00	476.00	476.00	476.00	475.00	476.00	472.00	474.00	474.00	474.00	477.00	471.00	470.00	472.00	472.00	464.00	465.00	464.00	464.00	468.00	474.00	474.00	469.00	467.00	468.00	470.00	475.00	482.00	472.00	470.00	470.00	467.00	470.00	471.00	480.00	496.00	491.00	478.00	484.00	487.00	486.00	483.00	476.00	472.00	473.00	479.00	481.00	481.00	475.00	467.00	468.00	472.00	469.00	462.00	462.00	463.00	460.00	460.00	463.00	478.00	475.00	469.00	465.00	463.00	463.00	464.00	466.00	466.00	470.00	466.00	465.00	460.00	460.00	457.00	461.00	469.00	474.00	473.00	464.00	461.00	456.00	454.00	454.00	453.00	453.00	451.00	451.00	452.00	456.00	461.00	467.00	471.00	471.00	478.00	485.00	497.00	491.00	488.00	486.00	487.00	482.00	481.00
