538.00	542.00	543.00	540.00	530.00	529.00	525.00	522.00	520.00	518.00	514.00	513.00	511.00	509.00	506.00	507.00	504.00	500.00	495.00	493.00	491.00	487.00	482.00	482.00	481.00	479.00	476.00	471.00	472.00	475.00	476.00	476.00	478.00	479.00	482.00	476.00	464.00	454.00	456.00	459.00	475.00	480.00	474.00	470.00	466.00	464.00	466.00	463.00	464.00	466.00	465.00	462.00	462.00	461.00	458.00	458.00	460.00	464.00	467.00	480.00	485.00	481.00	475.00	469.00	464.00	466.00	466.00	467.00	470.00	470.00	468.00	469.00	468.00	461.00	463.00	456.00	457.00	452.00	456.00	458.00	461.00	465.00	470.00	467.00	463.00	465.00	466.00	464.00	465.00	467.00	471.00	467.00	468.00	478.00	475.00	478.00	478.00	488.00	492.00	488.00	487.00	490.00	491.00	490.00	493.00	490.00	490.00	493.00	494.00	495.00	496.00	498.00	499.00	499.00	499.00	501.00	507.00	510.00	516.00	493.00	490.00	491.00	514.00	515.00	515.00	516.00	515.00	509.00	506.00	506.00	518.00	503.00	499.00	511.00	506.00	502.00	481.00	496.00	517.00	513.00	515.00	510.00	511.00	508.00	506.00	502.00	503.00	503.00	502.00	503.00	507.00	514.00	519.00	519.00	523.00	529.00	530.00	532.00	529.00	527.00	524.00	535.00	506.00	503.00	504.00	503.00	505.00	507.00	508.00	513.00	510.00	511.00	514.00	512.00	513.00	514.00	515.00	516.00	519.00	518.00	517.00	518.00	514.00	515.00	520.00	517.00	520.00	520.00	519.00	524.00	523.00	521.00	522.00	523.00	522.00	523.00	524.00	523.00	525.00	525.00	524.00	526.00	525.00	524.00	523.00	522.00	518.00	518.00	519.00	517.00	516.00	521.00	536.00	538.00	535.00	530.00	531.00	536.00	535.00	533.00	532.00	543.00	550.00	557.00	555.00	556.00	557.00	559.00	555.00	551.00	568.00	573.00	568.00	557.00	559.00	563.00	578.00	582.00	584.00	592.00	591.00	590.00	589.00	576.00	573.00	589.00	585.00	587.00	602.00	592.00	602.00	609.00	604.00	597.00	598.00	601.00
541.00	538.00	540.00	540.00	533.00	531.00	526.00	523.00	521.00	519.00	515.00	514.00	511.00	509.00	509.00	507.00	502.00	500.00	496.00	492.00	490.00	488.00	483.00	482.00	485.00	486.00	482.00	479.00	480.00	478.00	476.00	474.00	481.00	489.00	490.00	475.00	470.00	471.00	468.00	468.00	475.00	477.00	471.00	467.00	464.00	462.00	466.00	468.00	469.00	469.00	464.00	463.00	460.00	459.00	457.00	455.00	461.00	469.00	470.00	480.00	482.00	476.00	473.00	469.00	467.00	464.00	464.00	468.00	471.00	470.00	472.00	472.00	466.00	462.00	462.00	457.00	454.00	449.00	453.00	458.00	460.00	462.00	460.00	463.00	463.00	462.00	466.00	464.00	464.00	467.00	470.00	476.00	474.00	482.00	476.00	478.00	481.00	482.00	496.00	499.00	489.00	491.00	494.00	492.00	496.00	495.00	494.00	495.00	495.00	498.00	499.00	500.00	500.00	503.00	502.00	505.00	511.00	512.00	514.00	502.00	500.00	497.00	515.00	514.00	515.00	514.00	511.00	505.00	504.00	504.00	513.00	496.00	497.00	514.00	517.00	515.00	495.00	517.00	518.00	510.00	510.00	511.00	511.00	509.00	512.00	503.00	502.00	503.00	504.00	506.00	511.00	519.00	522.00	522.00	523.00	528.00	531.00	534.00	535.00	536.00	533.00	524.00	507.00	503.00	500.00	501.00	499.00	508.00	509.00	510.00	510.00	511.00	513.00	512.00	513.00	515.00	516.00	518.00	517.00	520.00	517.00	520.00	520.00	519.00	521.00	518.00	519.00	519.00	519.00	522.00	524.00	523.00	522.00	524.00	523.00	525.00	525.00	525.00	527.00	528.00	526.00	528.00	528.00	526.00	524.00	523.00	524.00	524.00	519.00	519.00	519.00	520.00	528.00	538.00	538.00	534.00	532.00	533.00	536.00	534.00	533.00	539.00	547.00	558.00	558.00	557.00	558.00	562.00	561.00	556.00	555.00	555.00	556.00	556.00	560.00	563.00	573.00	576.00	583.00	594.00	595.00	596.00	594.00	585.00	577.00	588.00	584.00	586.00	600.00	605.00	619.00	619.00	601.00	599.00	595.00	598.00
530.00	531.00	534.00	538.00	543.00	541.00	532.00	528.00	525.00	523.00	517.00	514.00	514.00	513.00	506.00	504.00	502.00	501.00	500.00	495.00	490.00	485.00	485.00	491.00	495.00	492.00	486.00	489.00	483.00	480.00	476.00	475.00	483.00	488.00	486.00	479.00	476.00	481.00	469.00	461.00	465.00	471.00	468.00	457.00	457.00	466.00	466.00	468.00	468.00	468.00	470.00	466.00	463.00	462.00	463.00	462.00	473.00	477.00	477.00	482.00	477.00	478.00	469.00	468.00	468.00	468.00	471.00	469.00	468.00	469.00	469.00	466.00	467.00	454.00	453.00	461.00	453.00	453.00	452.00	459.00	459.00	455.00	456.00	455.00	457.00	461.00	462.00	464.00	466.00	465.00	468.00	467.00	467.00	473.00	474.00	484.00	485.00	489.00	491.00	498.00	494.00	495.00	496.00	496.00	498.00	498.00	500.00	502.00	503.00	505.00	506.00	508.00	508.00	510.00	508.00	508.00	512.00	511.00	509.00	512.00	513.00	513.00	515.00	514.00	512.00	510.00	506.00	502.00	504.00	504.00	506.00	509.00	513.00	515.00	515.00	517.00	521.00	518.00	505.00	500.00	505.00	506.00	510.00	513.00	507.00	511.00	511.00	511.00	509.00	513.00	517.00	518.00	521.00	531.00	530.00	530.00	529.00	530.00	537.00	530.00	525.00	521.00	509.00	503.00	501.00	503.00	507.00	508.00	512.00	510.00	511.00	513.00	514.00	513.00	514.00	516.00	517.00	516.00	516.00	518.00	519.00	519.00	523.00	524.00	521.00	520.00	520.00	519.00	520.00	523.00	524.00	524.00	522.00	524.00	526.00	523.00	523.00	525.00	527.00	527.00	528.00	529.00	530.00	529.00	529.00	527.00	525.00	525.00	522.00	521.00	525.00	525.00	540.00	544.00	538.00	545.00	547.00	541.00	536.00	538.00	539.00	549.00	554.00	552.00	561.00	563.00	561.00	565.00	566.00	566.00	564.00	562.00	561.00	560.00	563.00	572.00	568.00	583.00	589.00	586.00	584.00	589.00	578.00	575.00	578.00	589.00	589.00	587.00	598.00	606.00	609.00	611.00	597.00	594.00	595.00	592.00
528.00	529.00	533.00	538.00	540.00	539.00	533.00	529.00	528.00	524.00	519.00	517.00	517.00	513.00	507.00	503.00	502.00	495.00	495.00	491.00	487.00	487.00	491.00	489.00	491.00	488.00	486.00	488.00	482.00	479.00	479.00	478.00	482.00	484.00	485.00	477.00	479.00	477.00	465.00	464.00	470.00	473.00	462.00	456.00	459.00	463.00	470.00	467.00	465.00	471.00	467.00	465.00	467.00	470.00	464.00	464.00	478.00	479.00	477.00	482.00	480.00	471.00	463.00	462.00	468.00	471.00	469.00	470.00	469.00	471.00	467.00	464.00	461.00	453.00	456.00	459.00	456.00	449.00	452.00	461.00	459.00	454.00	455.00	457.00	460.00	463.00	465.00	462.00	462.00	460.00	460.00	466.00	470.00	474.00	474.00	479.00	482.00	489.00	499.00	497.00	498.00	497.00	498.00	497.00	499.00	501.00	501.00	503.00	506.00	508.00	510.00	510.00	512.00	516.00	512.00	514.00	516.00	510.00	509.00	510.00	510.00	513.00	515.00	513.00	511.00	507.00	503.00	502.00	502.00	500.00	501.00	508.00	509.00	512.00	511.00	514.00	517.00	512.00	505.00	501.00	500.00	504.00	505.00	501.00	504.00	515.00	513.00	515.00	514.00	517.00	519.00	524.00	526.00	534.00	531.00	526.00	525.00	530.00	534.00	525.00	517.00	528.00	516.00	506.00	499.00	503.00	506.00	509.00	511.00	512.00	513.00	515.00	517.00	516.00	516.00	515.00	517.00	517.00	517.00	519.00	520.00	520.00	521.00	526.00	524.00	521.00	522.00	520.00	520.00	523.00	524.00	526.00	524.00	525.00	525.00	525.00	525.00	525.00	526.00	527.00	528.00	530.00	529.00	530.00	529.00	529.00	524.00	521.00	519.00	521.00	522.00	528.00	533.00	540.00	542.00	553.00	548.00	547.00	542.00	541.00	542.00	546.00	547.00	550.00	559.00	564.00	565.00	568.00	569.00	569.00	565.00	565.00	564.00	563.00	582.00	589.00	583.00	567.00	570.00	570.00	573.00	569.00	571.00	574.00	580.00	581.00	584.00	589.00	597.00	601.00	604.00	606.00	598.00	590.00	593.00	593.00
523.00	527.00	531.00	533.00	535.00	535.00	531.00	527.00	526.00	524.00	518.00	517.00	514.00	512.00	499.00	496.00	492.00	489.00	486.00	490.00	488.00	484.00	487.00	486.00	488.00	495.00	491.00	489.00	480.00	479.00	481.00	481.00	484.00	486.00	484.00	482.00	482.00	474.00	471.00	474.00	477.00	476.00	460.00	459.00	458.00	462.00	467.00	467.00	465.00	465.00	471.00	467.00	472.00	476.00	464.00	468.00	482.00	481.00	482.00	484.00	475.00	463.00	462.00	463.00	472.00	469.00	470.00	469.00	467.00	468.00	468.00	464.00	460.00	462.00	457.00	462.00	459.00	459.00	457.00	460.00	458.00	457.00	456.00	453.00	455.00	464.00	464.00	460.00	459.00	457.00	459.00	463.00	465.00	467.00	467.00	473.00	482.00	488.00	499.00	502.00	497.00	495.00	500.00	498.00	503.00	505.00	506.00	507.00	509.00	513.00	516.00	518.00	515.00	518.00	515.00	519.00	516.00	510.00	508.00	509.00	509.00	511.00	512.00	510.00	509.00	506.00	503.00	502.00	500.00	499.00	501.00	506.00	509.00	511.00	507.00	507.00	509.00	507.00	505.00	500.00	496.00	498.00	500.00	505.00	509.00	511.00	516.00	517.00	515.00	516.00	522.00	526.00	531.00	536.00	532.00	526.00	522.00	522.00	522.00	512.00	515.00	515.00	517.00	504.00	501.00	503.00	507.00	510.00	512.00	515.00	517.00	514.00	515.00	516.00	516.00	515.00	517.00	519.00	517.00	518.00	521.00	520.00	520.00	522.00	527.00	523.00	523.00	522.00	521.00	523.00	525.00	525.00	525.00	525.00	527.00	527.00	527.00	527.00	527.00	528.00	528.00	531.00	531.00	531.00	530.00	529.00	526.00	524.00	523.00	522.00	523.00	525.00	528.00	538.00	540.00	543.00	547.00	547.00	551.00	554.00	550.00	550.00	551.00	556.00	557.00	562.00	567.00	570.00	570.00	573.00	569.00	567.00	567.00	568.00	581.00	587.00	589.00	584.00	576.00	591.00	584.00	569.00	568.00	578.00	574.00	576.00	583.00	591.00	595.00	600.00	603.00	602.00	594.00	586.00	589.00	588.00
520.00	525.00	527.00	529.00	530.00	530.00	528.00	527.00	524.00	521.00	516.00	515.00	510.00	508.00	497.00	491.00	484.00	482.00	484.00	479.00	480.00	485.00	486.00	484.00	495.00	495.00	489.00	484.00	479.00	482.00	483.00	485.00	484.00	483.00	483.00	484.00	481.00	477.00	478.00	478.00	469.00	473.00	465.00	464.00	454.00	460.00	470.00	467.00	467.00	467.00	466.00	470.00	485.00	470.00	472.00	476.00	483.00	480.00	484.00	479.00	463.00	463.00	462.00	465.00	470.00	467.00	467.00	467.00	464.00	463.00	462.00	459.00	461.00	457.00	458.00	461.00	462.00	466.00	464.00	464.00	462.00	458.00	456.00	452.00	452.00	459.00	464.00	462.00	459.00	456.00	456.00	459.00	462.00	465.00	466.00	477.00	482.00	485.00	495.00	502.00	493.00	499.00	504.00	501.00	504.00	506.00	509.00	510.00	514.00	519.00	519.00	518.00	518.00	518.00	517.00	516.00	513.00	509.00	508.00	508.00	507.00	508.00	509.00	508.00	509.00	505.00	502.00	501.00	500.00	497.00	502.00	503.00	508.00	504.00	503.00	501.00	504.00	502.00	500.00	499.00	494.00	499.00	501.00	504.00	507.00	515.00	518.00	521.00	518.00	518.00	527.00	530.00	532.00	537.00	535.00	529.00	527.00	526.00	511.00	511.00	508.00	512.00	511.00	503.00	503.00	506.00	509.00	511.00	512.00	512.00	515.00	514.00	515.00	515.00	516.00	515.00	515.00	518.00	518.00	518.00	520.00	519.00	523.00	531.00	533.00	524.00	524.00	524.00	522.00	522.00	525.00	525.00	525.00	526.00	527.00	526.00	529.00	528.00	530.00	529.00	529.00	530.00	530.00	529.00	529.00	527.00	527.00	526.00	523.00	527.00	527.00	524.00	528.00	539.00	535.00	536.00	540.00	545.00	552.00	559.00	553.00	550.00	554.00	561.00	561.00	559.00	562.00	569.00	573.00	575.00	573.00	573.00	572.00	572.00	583.00	584.00	588.00	589.00	589.00	587.00	583.00	569.00	573.00	570.00	570.00	576.00	583.00	595.00	597.00	597.00	598.00	597.00	591.00	584.00	583.00	583.00
519.00	519.00	521.00	520.00	521.00	520.00	521.00	519.00	517.00	517.00	509.00	512.00	511.00	504.00	495.00	488.00	484.00	474.00	470.00	472.00	474.00	478.00	485.00	485.00	486.00	490.00	485.00	485.00	485.00	484.00	482.00	483.00	479.00	482.00	483.00	469.00	474.00	475.00	462.00	452.00	447.00	470.00	468.00	458.00	453.00	459.00	466.00	468.00	465.00	466.00	474.00	481.00	471.00	476.00	478.00	467.00	476.00	473.00	473.00	465.00	460.00	461.00	463.00	459.00	466.00	469.00	470.00	466.00	463.00	459.00	457.00	457.00	459.00	466.00	466.00	463.00	463.00	485.00	484.00	474.00	464.00	462.00	458.00	458.00	458.00	464.00	463.00	457.00	457.00	455.00	457.00	458.00	459.00	461.00	464.00	470.00	471.00	477.00	488.00	493.00	490.00	500.00	504.00	504.00	508.00	510.00	515.00	516.00	517.00	517.00	515.00	513.00	517.00	514.00	512.00	511.00	509.00	508.00	507.00	507.00	506.00	506.00	508.00	508.00	506.00	503.00	501.00	499.00	500.00	502.00	503.00	505.00	499.00	491.00	490.00	491.00	499.00	498.00	494.00	492.00	494.00	497.00	499.00	501.00	503.00	516.00	521.00	523.00	520.00	524.00	530.00	532.00	533.00	533.00	535.00	531.00	527.00	512.00	506.00	504.00	504.00	503.00	507.00	503.00	505.00	508.00	509.00	510.00	511.00	511.00	512.00	512.00	515.00	513.00	516.00	516.00	515.00	517.00	517.00	519.00	518.00	519.00	526.00	531.00	531.00	529.00	528.00	526.00	525.00	524.00	524.00	524.00	525.00	526.00	527.00	529.00	529.00	529.00	531.00	531.00	531.00	530.00	530.00	529.00	529.00	529.00	530.00	529.00	529.00	530.00	532.00	527.00	527.00	529.00	532.00	531.00	541.00	549.00	558.00	560.00	557.00	555.00	556.00	560.00	569.00	569.00	568.00	575.00	574.00	579.00	582.00	584.00	584.00	583.00	592.00	588.00	589.00	590.00	590.00	591.00	589.00	575.00	568.00	567.00	569.00	580.00	585.00	589.00	592.00	590.00	592.00	594.00	581.00	577.00	577.00	602.00
514.00	512.00	511.00	511.00	512.00	518.00	516.00	518.00	518.00	517.00	507.00	508.00	506.00	501.00	490.00	482.00	475.00	469.00	469.00	470.00	475.00	478.00	481.00	482.00	484.00	490.00	487.00	484.00	485.00	482.00	483.00	482.00	473.00	478.00	477.00	469.00	481.00	462.00	445.00	440.00	442.00	472.00	469.00	456.00	453.00	463.00	465.00	467.00	468.00	468.00	477.00	473.00	464.00	467.00	475.00	474.00	467.00	465.00	468.00	470.00	463.00	464.00	458.00	466.00	465.00	472.00	465.00	463.00	464.00	458.00	456.00	460.00	465.00	468.00	468.00	465.00	467.00	481.00	480.00	472.00	465.00	461.00	459.00	458.00	462.00	467.00	462.00	458.00	459.00	458.00	457.00	457.00	458.00	461.00	474.00	477.00	473.00	474.00	481.00	485.00	491.00	496.00	499.00	500.00	505.00	507.00	510.00	512.00	511.00	511.00	511.00	511.00	513.00	513.00	513.00	511.00	509.00	508.00	509.00	506.00	504.00	508.00	509.00	507.00	505.00	501.00	498.00	499.00	501.00	503.00	501.00	503.00	495.00	487.00	486.00	486.00	497.00	495.00	494.00	495.00	493.00	495.00	498.00	500.00	502.00	514.00	520.00	522.00	522.00	523.00	530.00	534.00	533.00	527.00	521.00	523.00	514.00	511.00	506.00	504.00	508.00	514.00	502.00	508.00	506.00	507.00	508.00	508.00	510.00	511.00	514.00	514.00	514.00	513.00	515.00	516.00	515.00	515.00	517.00	517.00	521.00	521.00	521.00	524.00	526.00	531.00	531.00	529.00	527.00	523.00	524.00	525.00	525.00	526.00	527.00	531.00	530.00	529.00	531.00	531.00	532.00	530.00	529.00	533.00	531.00	529.00	529.00	532.00	532.00	532.00	533.00	530.00	527.00	532.00	533.00	532.00	548.00	553.00	551.00	556.00	560.00	566.00	567.00	568.00	568.00	574.00	574.00	573.00	581.00	584.00	587.00	591.00	589.00	588.00	595.00	594.00	593.00	590.00	586.00	586.00	582.00	575.00	577.00	573.00	572.00	581.00	583.00	586.00	587.00	587.00	588.00	588.00	577.00	575.00	578.00	606.00
509.00	508.00	506.00	507.00	509.00	512.00	514.00	515.00	514.00	512.00	504.00	502.00	500.00	498.00	485.00	476.00	470.00	470.00	465.00	469.00	472.00	480.00	482.00	478.00	487.00	487.00	485.00	486.00	487.00	481.00	482.00	483.00	478.00	478.00	473.00	477.00	479.00	447.00	438.00	435.00	442.00	473.00	462.00	453.00	455.00	461.00	465.00	466.00	470.00	469.00	467.00	459.00	459.00	468.00	470.00	470.00	461.00	461.00	463.00	471.00	463.00	464.00	462.00	467.00	466.00	468.00	465.00	461.00	461.00	462.00	465.00	462.00	464.00	472.00	471.00	471.00	471.00	464.00	474.00	468.00	463.00	461.00	457.00	458.00	462.00	462.00	462.00	459.00	459.00	459.00	457.00	458.00	459.00	471.00	479.00	476.00	473.00	473.00	477.00	479.00	491.00	491.00	495.00	496.00	500.00	503.00	508.00	510.00	511.00	507.00	508.00	506.00	508.00	510.00	508.00	509.00	509.00	509.00	506.00	504.00	506.00	509.00	509.00	506.00	505.00	504.00	499.00	501.00	504.00	502.00	499.00	498.00	490.00	486.00	484.00	482.00	495.00	494.00	493.00	495.00	496.00	497.00	497.00	499.00	504.00	514.00	521.00	526.00	524.00	526.00	532.00	534.00	532.00	522.00	520.00	515.00	511.00	507.00	505.00	507.00	517.00	512.00	506.00	511.00	511.00	507.00	508.00	509.00	513.00	513.00	531.00	516.00	514.00	516.00	517.00	517.00	519.00	518.00	518.00	519.00	521.00	520.00	522.00	523.00	524.00	529.00	531.00	530.00	527.00	524.00	523.00	526.00	526.00	527.00	529.00	532.00	531.00	531.00	531.00	530.00	532.00	532.00	532.00	532.00	531.00	532.00	530.00	533.00	533.00	532.00	533.00	533.00	528.00	531.00	536.00	537.00	546.00	546.00	561.00	565.00	566.00	573.00	578.00	582.00	579.00	573.00	575.00	581.00	582.00	580.00	586.00	591.00	591.00	589.00	589.00	586.00	583.00	581.00	580.00	577.00	575.00	579.00	582.00	577.00	575.00	576.00	580.00	582.00	583.00	586.00	587.00	584.00	578.00	580.00	592.00	609.00
507.00	505.00	503.00	503.00	505.00	506.00	511.00	510.00	510.00	507.00	504.00	499.00	499.00	497.00	485.00	474.00	471.00	467.00	467.00	466.00	469.00	472.00	474.00	477.00	485.00	485.00	484.00	488.00	483.00	481.00	484.00	487.00	481.00	477.00	473.00	480.00	477.00	445.00	436.00	435.00	444.00	474.00	461.00	453.00	455.00	462.00	462.00	471.00	473.00	468.00	460.00	461.00	461.00	475.00	470.00	455.00	458.00	458.00	462.00	467.00	468.00	465.00	463.00	471.00	469.00	470.00	465.00	462.00	465.00	468.00	465.00	465.00	468.00	477.00	478.00	477.00	474.00	464.00	468.00	465.00	465.00	464.00	459.00	459.00	459.00	461.00	464.00	462.00	460.00	460.00	460.00	461.00	463.00	475.00	476.00	478.00	475.00	477.00	476.00	478.00	486.00	489.00	493.00	493.00	499.00	501.00	509.00	508.00	506.00	502.00	504.00	504.00	504.00	505.00	508.00	507.00	507.00	510.00	506.00	505.00	508.00	508.00	505.00	505.00	505.00	503.00	499.00	501.00	501.00	501.00	496.00	494.00	483.00	481.00	483.00	481.00	491.00	491.00	493.00	493.00	494.00	493.00	497.00	499.00	501.00	513.00	521.00	524.00	523.00	524.00	531.00	532.00	528.00	516.00	515.00	513.00	506.00	506.00	504.00	515.00	528.00	517.00	507.00	513.00	514.00	510.00	510.00	511.00	512.00	522.00	560.00	517.00	518.00	520.00	523.00	521.00	519.00	518.00	518.00	518.00	521.00	522.00	524.00	523.00	524.00	525.00	527.00	527.00	526.00	526.00	525.00	525.00	527.00	529.00	531.00	532.00	530.00	530.00	531.00	531.00	532.00	532.00	532.00	534.00	534.00	532.00	531.00	533.00	533.00	533.00	534.00	534.00	530.00	530.00	536.00	536.00	545.00	556.00	566.00	566.00	567.00	573.00	577.00	579.00	584.00	582.00	581.00	574.00	568.00	564.00	575.00	579.00	577.00	572.00	575.00	568.00	571.00	572.00	578.00	574.00	576.00	588.00	590.00	581.00	584.00	576.00	577.00	580.00	582.00	582.00	582.00	581.00	583.00	591.00	596.00	607.00
502.00	501.00	501.00	501.00	506.00	506.00	501.00	502.00	503.00	502.00	498.00	495.00	495.00	497.00	474.00	469.00	467.00	466.00	466.00	462.00	461.00	462.00	464.00	469.00	484.00	486.00	487.00	481.00	480.00	477.00	472.00	475.00	474.00	471.00	472.00	469.00	467.00	467.00	451.00	442.00	443.00	455.00	459.00	457.00	459.00	460.00	464.00	463.00	464.00	465.00	464.00	463.00	462.00	465.00	449.00	460.00	469.00	470.00	473.00	459.00	464.00	463.00	461.00	462.00	461.00	459.00	465.00	462.00	457.00	459.00	462.00	466.00	465.00	485.00	489.00	483.00	475.00	471.00	472.00	472.00	470.00	468.00	462.00	460.00	462.00	460.00	465.00	465.00	468.00	465.00	463.00	463.00	467.00	471.00	473.00	478.00	475.00	476.00	482.00	482.00	486.00	488.00	491.00	494.00	502.00	503.00	500.00	499.00	499.00	495.00	498.00	501.00	503.00	504.00	503.00	504.00	506.00	510.00	509.00	509.00	507.00	507.00	501.00	501.00	500.00	496.00	501.00	500.00	499.00	498.00	495.00	493.00	485.00	482.00	479.00	483.00	486.00	487.00	485.00	486.00	489.00	491.00	494.00	498.00	500.00	512.00	518.00	522.00	525.00	520.00	524.00	519.00	517.00	509.00	509.00	503.00	503.00	507.00	515.00	521.00	531.00	523.00	521.00	533.00	532.00	525.00	512.00	507.00	505.00	507.00	521.00	545.00	551.00	549.00	539.00	527.00	524.00	518.00	518.00	519.00	519.00	520.00	524.00	524.00	523.00	525.00	526.00	525.00	526.00	526.00	526.00	527.00	527.00	530.00	530.00	531.00	532.00	532.00	534.00	533.00	533.00	535.00	534.00	534.00	534.00	534.00	535.00	533.00	535.00	535.00	534.00	535.00	534.00	529.00	531.00	534.00	547.00	552.00	558.00	561.00	563.00	569.00	571.00	572.00	570.00	559.00	556.00	555.00	557.00	554.00	555.00	560.00	559.00	555.00	554.00	558.00	562.00	575.00	576.00	577.00	590.00	595.00	593.00	587.00	583.00	581.00	578.00	580.00	580.00	579.00	577.00	577.00	586.00	585.00	584.00	590.00
501.00	497.00	494.00	493.00	505.00	505.00	502.00	503.00	504.00	503.00	499.00	496.00	495.00	491.00	475.00	472.00	468.00	466.00	465.00	464.00	461.00	461.00	463.00	468.00	486.00	484.00	478.00	473.00	474.00	474.00	470.00	471.00	459.00	449.00	452.00	454.00	458.00	473.00	463.00	443.00	443.00	449.00	461.00	465.00	456.00	457.00	462.00	460.00	461.00	464.00	466.00	464.00	465.00	457.00	446.00	445.00	468.00	463.00	456.00	463.00	464.00	464.00	461.00	457.00	457.00	461.00	463.00	460.00	456.00	456.00	457.00	458.00	461.00	474.00	477.00	477.00	475.00	476.00	476.00	472.00	469.00	466.00	463.00	463.00	462.00	462.00	465.00	468.00	469.00	467.00	465.00	466.00	467.00	468.00	471.00	476.00	477.00	478.00	482.00	485.00	485.00	484.00	488.00	492.00	499.00	500.00	498.00	495.00	494.00	493.00	498.00	501.00	504.00	502.00	502.00	502.00	506.00	509.00	508.00	507.00	504.00	503.00	498.00	499.00	498.00	494.00	500.00	500.00	498.00	496.00	496.00	496.00	488.00	488.00	484.00	486.00	486.00	486.00	484.00	485.00	488.00	488.00	492.00	496.00	500.00	511.00	520.00	523.00	522.00	521.00	520.00	517.00	509.00	504.00	505.00	503.00	506.00	508.00	530.00	526.00	529.00	526.00	529.00	545.00	543.00	526.00	512.00	501.00	501.00	503.00	514.00	543.00	548.00	544.00	538.00	533.00	521.00	514.00	517.00	519.00	520.00	520.00	524.00	523.00	524.00	525.00	526.00	526.00	527.00	528.00	528.00	527.00	528.00	527.00	530.00	531.00	532.00	532.00	532.00	533.00	535.00	535.00	535.00	535.00	535.00	535.00	537.00	535.00	536.00	535.00	535.00	537.00	535.00	532.00	532.00	535.00	549.00	555.00	562.00	564.00	563.00	566.00	567.00	567.00	558.00	546.00	549.00	549.00	552.00	561.00	549.00	555.00	553.00	552.00	553.00	556.00	559.00	561.00	561.00	574.00	582.00	587.00	583.00	586.00	586.00	580.00	578.00	580.00	581.00	580.00	583.00	582.00	587.00	581.00	583.00	587.00
500.00	494.00	492.00	492.00	504.00	505.00	490.00	483.00	500.00	505.00	502.00	499.00	497.00	491.00	479.00	474.00	469.00	466.00	463.00	464.00	460.00	461.00	465.00	474.00	491.00	480.00	473.00	474.00	471.00	467.00	470.00	468.00	443.00	438.00	438.00	445.00	455.00	474.00	462.00	443.00	445.00	452.00	468.00	467.00	459.00	461.00	463.00	463.00	465.00	467.00	464.00	465.00	469.00	449.00	446.00	441.00	444.00	447.00	454.00	456.00	459.00	460.00	462.00	458.00	462.00	458.00	460.00	461.00	461.00	455.00	455.00	457.00	461.00	464.00	467.00	471.00	474.00	481.00	478.00	475.00	470.00	468.00	465.00	466.00	466.00	465.00	463.00	471.00	470.00	468.00	469.00	469.00	469.00	470.00	472.00	475.00	475.00	477.00	483.00	485.00	479.00	483.00	488.00	491.00	496.00	497.00	496.00	494.00	489.00	491.00	497.00	499.00	502.00	503.00	503.00	504.00	503.00	507.00	507.00	505.00	503.00	503.00	498.00	498.00	497.00	491.00	494.00	501.00	497.00	491.00	497.00	496.00	492.00	488.00	484.00	486.00	489.00	489.00	486.00	485.00	483.00	486.00	492.00	495.00	499.00	510.00	516.00	523.00	522.00	519.00	518.00	513.00	504.00	506.00	504.00	504.00	506.00	507.00	525.00	521.00	523.00	520.00	535.00	542.00	539.00	531.00	514.00	502.00	500.00	502.00	521.00	545.00	542.00	540.00	532.00	533.00	509.00	512.00	516.00	517.00	520.00	520.00	524.00	524.00	524.00	524.00	526.00	526.00	527.00	528.00	529.00	528.00	529.00	529.00	531.00	532.00	531.00	532.00	532.00	534.00	535.00	536.00	536.00	536.00	536.00	536.00	537.00	536.00	537.00	538.00	537.00	539.00	534.00	533.00	533.00	536.00	550.00	560.00	567.00	567.00	565.00	563.00	563.00	557.00	546.00	547.00	551.00	550.00	556.00	555.00	551.00	553.00	551.00	550.00	552.00	555.00	558.00	558.00	558.00	569.00	573.00	576.00	578.00	593.00	589.00	585.00	587.00	585.00	579.00	579.00	582.00	584.00	583.00	583.00	586.00	586.00
496.00	494.00	493.00	498.00	496.00	477.00	450.00	451.00	465.00	498.00	505.00	503.00	498.00	490.00	477.00	476.00	471.00	466.00	465.00	463.00	464.00	463.00	465.00	489.00	482.00	466.00	458.00	465.00	464.00	467.00	465.00	468.00	436.00	432.00	431.00	444.00	460.00	471.00	454.00	442.00	447.00	464.00	475.00	469.00	468.00	467.00	466.00	467.00	468.00	467.00	461.00	463.00	458.00	451.00	447.00	442.00	449.00	454.00	461.00	460.00	461.00	460.00	457.00	456.00	453.00	453.00	461.00	459.00	457.00	454.00	456.00	458.00	458.00	461.00	464.00	467.00	470.00	487.00	485.00	478.00	473.00	471.00	464.00	462.00	463.00	465.00	460.00	471.00	472.00	472.00	471.00	471.00	472.00	472.00	472.00	473.00	473.00	476.00	480.00	478.00	478.00	479.00	482.00	489.00	496.00	498.00	495.00	493.00	490.00	492.00	496.00	499.00	503.00	510.00	507.00	503.00	502.00	502.00	505.00	505.00	505.00	503.00	496.00	498.00	497.00	495.00	487.00	498.00	495.00	490.00	500.00	497.00	489.00	487.00	490.00	493.00	493.00	491.00	490.00	489.00	485.00	489.00	489.00	496.00	500.00	508.00	516.00	519.00	522.00	515.00	512.00	506.00	500.00	501.00	506.00	506.00	502.00	513.00	516.00	518.00	522.00	514.00	531.00	540.00	545.00	544.00	523.00	502.00	500.00	499.00	517.00	537.00	533.00	525.00	521.00	522.00	507.00	511.00	517.00	521.00	520.00	520.00	522.00	523.00	523.00	524.00	525.00	526.00	526.00	528.00	528.00	528.00	529.00	531.00	532.00	532.00	531.00	532.00	534.00	534.00	535.00	535.00	537.00	536.00	538.00	538.00	536.00	537.00	538.00	539.00	538.00	538.00	535.00	532.00	533.00	537.00	548.00	562.00	570.00	567.00	562.00	562.00	557.00	552.00	547.00	548.00	550.00	551.00	558.00	554.00	553.00	556.00	552.00	552.00	555.00	557.00	558.00	558.00	560.00	564.00	568.00	571.00	573.00	591.00	583.00	583.00	586.00	587.00	584.00	582.00	586.00	591.00	584.00	584.00	585.00	587.00
492.00	499.00	498.00	500.00	460.00	446.00	441.00	441.00	440.00	447.00	465.00	481.00	493.00	484.00	478.00	479.00	475.00	469.00	467.00	465.00	469.00	469.00	486.00	501.00	463.00	448.00	444.00	446.00	469.00	469.00	459.00	437.00	429.00	431.00	436.00	440.00	449.00	445.00	444.00	448.00	462.00	470.00	471.00	473.00	474.00	474.00	465.00	465.00	468.00	463.00	459.00	462.00	460.00	450.00	445.00	447.00	452.00	457.00	462.00	462.00	458.00	456.00	452.00	452.00	454.00	454.00	454.00	454.00	455.00	456.00	456.00	454.00	456.00	459.00	459.00	461.00	465.00	483.00	484.00	482.00	474.00	473.00	468.00	461.00	459.00	460.00	460.00	467.00	470.00	471.00	471.00	471.00	471.00	470.00	471.00	471.00	473.00	474.00	476.00	474.00	474.00	477.00	478.00	482.00	497.00	499.00	495.00	494.00	492.00	490.00	491.00	492.00	497.00	520.00	513.00	501.00	500.00	498.00	504.00	507.00	510.00	509.00	498.00	495.00	500.00	494.00	496.00	494.00	488.00	480.00	504.00	499.00	492.00	489.00	492.00	496.00	501.00	500.00	496.00	499.00	492.00	490.00	490.00	496.00	502.00	509.00	514.00	520.00	515.00	507.00	502.00	505.00	503.00	506.00	507.00	507.00	509.00	511.00	533.00	531.00	529.00	525.00	524.00	529.00	540.00	542.00	534.00	506.00	499.00	503.00	509.00	530.00	527.00	521.00	513.00	508.00	505.00	508.00	517.00	519.00	521.00	520.00	522.00	522.00	523.00	524.00	524.00	524.00	525.00	529.00	529.00	530.00	529.00	531.00	532.00	532.00	534.00	535.00	535.00	536.00	534.00	535.00	535.00	539.00	548.00	542.00	538.00	538.00	538.00	540.00	539.00	536.00	535.00	537.00	538.00	544.00	556.00	558.00	559.00	558.00	558.00	553.00	553.00	553.00	550.00	557.00	553.00	556.00	556.00	557.00	560.00	560.00	561.00	559.00	562.00	563.00	564.00	564.00	566.00	566.00	567.00	567.00	569.00	569.00	571.00	569.00	568.00	577.00	593.00	592.00	598.00	600.00	587.00	586.00	590.00	589.00
504.00	497.00	490.00	484.00	454.00	449.00	446.00	443.00	445.00	441.00	459.00	479.00	482.00	488.00	482.00	477.00	473.00	471.00	467.00	469.00	473.00	487.00	503.00	500.00	453.00	443.00	439.00	445.00	473.00	472.00	435.00	428.00	429.00	432.00	432.00	436.00	439.00	439.00	441.00	462.00	467.00	464.00	468.00	470.00	472.00	469.00	463.00	466.00	465.00	462.00	460.00	458.00	454.00	450.00	448.00	449.00	453.00	462.00	462.00	459.00	454.00	453.00	451.00	455.00	450.00	452.00	453.00	452.00	456.00	457.00	456.00	454.00	454.00	457.00	460.00	461.00	465.00	476.00	479.00	476.00	472.00	473.00	469.00	463.00	459.00	457.00	460.00	471.00	473.00	474.00	473.00	467.00	468.00	469.00	470.00	471.00	473.00	472.00	474.00	473.00	478.00	477.00	478.00	480.00	492.00	499.00	501.00	498.00	494.00	490.00	493.00	495.00	505.00	517.00	512.00	499.00	495.00	493.00	504.00	508.00	512.00	511.00	499.00	500.00	501.00	497.00	494.00	489.00	479.00	464.00	495.00	499.00	490.00	485.00	488.00	493.00	498.00	501.00	503.00	501.00	494.00	492.00	493.00	498.00	503.00	510.00	514.00	516.00	513.00	504.00	505.00	502.00	508.00	507.00	506.00	507.00	511.00	514.00	536.00	542.00	541.00	533.00	531.00	535.00	541.00	538.00	536.00	510.00	501.00	502.00	515.00	536.00	529.00	523.00	515.00	510.00	507.00	511.00	517.00	516.00	520.00	520.00	521.00	522.00	523.00	523.00	524.00	525.00	524.00	529.00	528.00	528.00	530.00	530.00	531.00	533.00	533.00	534.00	536.00	534.00	536.00	536.00	536.00	538.00	541.00	549.00	541.00	538.00	539.00	540.00	537.00	538.00	537.00	538.00	543.00	551.00	551.00	550.00	550.00	551.00	552.00	553.00	554.00	554.00	551.00	555.00	553.00	555.00	556.00	558.00	560.00	560.00	559.00	561.00	558.00	559.00	559.00	561.00	564.00	568.00	568.00	568.00	570.00	571.00	571.00	571.00	571.00	571.00	579.00	580.00	585.00	582.00	588.00	585.00	582.00	586.00
512.00	498.00	496.00	474.00	454.00	451.00	448.00	446.00	448.00	445.00	449.00	457.00	472.00	489.00	489.00	481.00	474.00	474.00	470.00	476.00	502.00	510.00	510.00	486.00	442.00	438.00	440.00	459.00	472.00	451.00	430.00	431.00	427.00	432.00	434.00	436.00	435.00	442.00	458.00	467.00	466.00	467.00	468.00	467.00	469.00	471.00	462.00	465.00	463.00	462.00	460.00	458.00	455.00	450.00	447.00	451.00	459.00	460.00	464.00	462.00	456.00	454.00	453.00	451.00	452.00	451.00	449.00	452.00	459.00	460.00	459.00	456.00	454.00	457.00	459.00	461.00	462.00	470.00	474.00	471.00	471.00	472.00	468.00	463.00	460.00	459.00	461.00	472.00	474.00	477.00	472.00	465.00	467.00	467.00	468.00	470.00	471.00	469.00	474.00	475.00	478.00	481.00	481.00	480.00	489.00	497.00	502.00	501.00	497.00	491.00	495.00	506.00	514.00	510.00	499.00	500.00	491.00	493.00	503.00	508.00	512.00	513.00	501.00	501.00	498.00	496.00	482.00	481.00	467.00	459.00	477.00	498.00	489.00	487.00	488.00	491.00	496.00	499.00	503.00	505.00	495.00	495.00	493.00	499.00	503.00	510.00	511.00	514.00	509.00	503.00	502.00	501.00	504.00	504.00	505.00	508.00	514.00	518.00	545.00	547.00	548.00	545.00	541.00	540.00	539.00	536.00	537.00	510.00	507.00	508.00	525.00	536.00	529.00	523.00	519.00	515.00	508.00	510.00	513.00	513.00	520.00	525.00	527.00	524.00	525.00	524.00	524.00	525.00	523.00	528.00	528.00	530.00	530.00	531.00	532.00	535.00	534.00	534.00	535.00	534.00	536.00	536.00	536.00	538.00	539.00	545.00	554.00	539.00	539.00	540.00	538.00	539.00	537.00	537.00	542.00	549.00	546.00	546.00	549.00	550.00	552.00	553.00	554.00	554.00	555.00	557.00	556.00	557.00	557.00	557.00	557.00	555.00	553.00	554.00	556.00	557.00	560.00	561.00	565.00	570.00	569.00	567.00	569.00	571.00	571.00	569.00	570.00	572.00	572.00	575.00	576.00	577.00	582.00	580.00	586.00	604.00
511.00	503.00	496.00	485.00	454.00	452.00	448.00	450.00	450.00	448.00	445.00	449.00	457.00	467.00	490.00	485.00	477.00	477.00	475.00	502.00	508.00	512.00	510.00	459.00	440.00	442.00	460.00	476.00	456.00	433.00	431.00	434.00	426.00	429.00	435.00	436.00	436.00	452.00	461.00	461.00	465.00	469.00	467.00	460.00	464.00	475.00	465.00	461.00	464.00	461.00	457.00	455.00	454.00	452.00	449.00	450.00	464.00	465.00	464.00	460.00	458.00	456.00	458.00	453.00	452.00	452.00	454.00	456.00	463.00	464.00	459.00	457.00	456.00	456.00	459.00	458.00	462.00	467.00	469.00	469.00	470.00	477.00	463.00	462.00	462.00	461.00	466.00	471.00	470.00	473.00	471.00	466.00	465.00	466.00	468.00	469.00	469.00	470.00	476.00	474.00	478.00	481.00	480.00	483.00	486.00	488.00	497.00	500.00	497.00	491.00	495.00	498.00	500.00	492.00	496.00	492.00	490.00	500.00	503.00	505.00	508.00	512.00	504.00	500.00	494.00	494.00	480.00	456.00	458.00	459.00	480.00	496.00	487.00	487.00	488.00	490.00	494.00	495.00	498.00	503.00	500.00	497.00	496.00	499.00	503.00	509.00	507.00	508.00	502.00	504.00	502.00	499.00	501.00	504.00	505.00	512.00	516.00	532.00	547.00	552.00	553.00	552.00	548.00	543.00	537.00	533.00	534.00	525.00	524.00	511.00	516.00	535.00	528.00	524.00	520.00	520.00	512.00	511.00	513.00	512.00	523.00	525.00	528.00	531.00	527.00	526.00	526.00	527.00	525.00	526.00	528.00	529.00	527.00	531.00	532.00	533.00	533.00	533.00	534.00	535.00	536.00	536.00	537.00	539.00	541.00	540.00	548.00	540.00	539.00	541.00	537.00	539.00	539.00	541.00	540.00	543.00	544.00	546.00	549.00	550.00	552.00	553.00	553.00	552.00	555.00	556.00	556.00	557.00	558.00	557.00	551.00	552.00	555.00	555.00	559.00	559.00	559.00	561.00	565.00	569.00	570.00	569.00	570.00	569.00	569.00	571.00	571.00	571.00	575.00	574.00	575.00	575.00	578.00	579.00	594.00	611.00
505.00	483.00	466.00	461.00	457.00	454.00	453.00	454.00	453.00	451.00	447.00	446.00	445.00	449.00	495.00	491.00	487.00	484.00	491.00	490.00	503.00	487.00	452.00	439.00	460.00	487.00	453.00	434.00	427.00	427.00	433.00	434.00	436.00	439.00	445.00	454.00	448.00	450.00	453.00	467.00	475.00	475.00	466.00	458.00	456.00	458.00	463.00	461.00	462.00	463.00	461.00	457.00	452.00	455.00	449.00	454.00	458.00	461.00	458.00	457.00	464.00	466.00	464.00	459.00	458.00	458.00	467.00	466.00	460.00	457.00	455.00	453.00	454.00	455.00	457.00	459.00	462.00	470.00	468.00	467.00	470.00	464.00	458.00	460.00	461.00	461.00	462.00	462.00	463.00	469.00	466.00	467.00	473.00	471.00	465.00	467.00	469.00	466.00	475.00	481.00	480.00	477.00	479.00	485.00	497.00	489.00	492.00	493.00	493.00	492.00	503.00	504.00	502.00	498.00	491.00	482.00	499.00	503.00	493.00	491.00	492.00	501.00	499.00	500.00	497.00	481.00	458.00	457.00	458.00	456.00	493.00	490.00	485.00	485.00	487.00	491.00	499.00	505.00	504.00	503.00	503.00	501.00	497.00	499.00	503.00	505.00	501.00	497.00	497.00	501.00	499.00	500.00	499.00	503.00	514.00	526.00	544.00	567.00	579.00	581.00	583.00	552.00	545.00	540.00	532.00	528.00	528.00	533.00	529.00	519.00	529.00	534.00	530.00	533.00	533.00	531.00	520.00	520.00	519.00	519.00	519.00	522.00	524.00	530.00	532.00	532.00	529.00	528.00	528.00	527.00	527.00	527.00	527.00	531.00	531.00	532.00	533.00	535.00	536.00	535.00	538.00	538.00	536.00	545.00	540.00	540.00	540.00	541.00	540.00	538.00	539.00	540.00	543.00	549.00	551.00	552.00	544.00	546.00	548.00	549.00	551.00	553.00	555.00	554.00	557.00	557.00	558.00	558.00	559.00	558.00	554.00	557.00	560.00	562.00	564.00	566.00	567.00	567.00	567.00	568.00	569.00	569.00	570.00	572.00	572.00	573.00	572.00	574.00	574.00	574.00	576.00	577.00	578.00	579.00	580.00	587.00
489.00	468.00	464.00	460.00	457.00	455.00	457.00	455.00	457.00	453.00	446.00	447.00	445.00	446.00	490.00	471.00	462.00	461.00	463.00	463.00	467.00	452.00	442.00	441.00	485.00	473.00	438.00	431.00	432.00	429.00	435.00	437.00	457.00	463.00	468.00	463.00	460.00	443.00	451.00	470.00	473.00	474.00	465.00	460.00	458.00	458.00	463.00	461.00	465.00	461.00	457.00	457.00	455.00	454.00	449.00	455.00	455.00	446.00	449.00	457.00	462.00	466.00	466.00	463.00	465.00	466.00	467.00	466.00	458.00	458.00	455.00	455.00	452.00	453.00	456.00	458.00	458.00	463.00	463.00	465.00	466.00	462.00	458.00	459.00	459.00	458.00	465.00	463.00	466.00	472.00	468.00	468.00	474.00	468.00	466.00	466.00	466.00	465.00	469.00	477.00	482.00	480.00	480.00	488.00	494.00	488.00	486.00	490.00	490.00	495.00	501.00	492.00	487.00	481.00	478.00	479.00	480.00	489.00	488.00	485.00	488.00	490.00	501.00	504.00	493.00	475.00	454.00	455.00	458.00	456.00	485.00	489.00	485.00	485.00	488.00	496.00	500.00	498.00	500.00	501.00	501.00	498.00	497.00	497.00	501.00	506.00	500.00	497.00	498.00	498.00	499.00	498.00	500.00	506.00	516.00	528.00	552.00	576.00	578.00	576.00	584.00	552.00	543.00	537.00	529.00	525.00	525.00	532.00	526.00	532.00	539.00	539.00	540.00	546.00	537.00	531.00	522.00	519.00	518.00	512.00	518.00	527.00	524.00	532.00	534.00	533.00	536.00	533.00	530.00	528.00	527.00	527.00	528.00	530.00	533.00	536.00	537.00	537.00	535.00	535.00	537.00	538.00	537.00	541.00	541.00	542.00	541.00	542.00	541.00	541.00	541.00	539.00	547.00	554.00	554.00	548.00	547.00	550.00	550.00	552.00	552.00	554.00	554.00	555.00	557.00	556.00	557.00	558.00	559.00	560.00	558.00	559.00	561.00	562.00	565.00	566.00	567.00	566.00	566.00	567.00	566.00	566.00	569.00	571.00	572.00	576.00	576.00	575.00	574.00	576.00	577.00	576.00	579.00	580.00	582.00	583.00
473.00	468.00	466.00	465.00	460.00	459.00	457.00	458.00	459.00	456.00	449.00	448.00	447.00	444.00	455.00	445.00	442.00	443.00	440.00	441.00	438.00	440.00	439.00	448.00	486.00	453.00	437.00	437.00	435.00	434.00	438.00	441.00	466.00	469.00	468.00	467.00	459.00	443.00	448.00	457.00	472.00	470.00	460.00	458.00	458.00	460.00	461.00	462.00	468.00	462.00	456.00	455.00	457.00	457.00	453.00	457.00	452.00	445.00	447.00	455.00	459.00	466.00	469.00	465.00	468.00	467.00	468.00	466.00	461.00	459.00	456.00	454.00	451.00	451.00	452.00	455.00	457.00	461.00	459.00	463.00	466.00	461.00	457.00	458.00	460.00	459.00	463.00	468.00	466.00	472.00	473.00	471.00	469.00	471.00	468.00	466.00	466.00	466.00	466.00	470.00	478.00	483.00	480.00	486.00	485.00	486.00	485.00	488.00	487.00	498.00	493.00	482.00	477.00	475.00	476.00	476.00	476.00	476.00	476.00	481.00	481.00	494.00	503.00	505.00	487.00	459.00	453.00	452.00	453.00	454.00	488.00	488.00	490.00	484.00	489.00	492.00	494.00	494.00	496.00	496.00	498.00	497.00	494.00	498.00	502.00	505.00	499.00	497.00	498.00	498.00	497.00	503.00	505.00	508.00	517.00	528.00	560.00	576.00	569.00	577.00	592.00	553.00	538.00	534.00	529.00	520.00	520.00	522.00	519.00	526.00	529.00	532.00	533.00	547.00	537.00	522.00	518.00	516.00	517.00	514.00	520.00	522.00	521.00	526.00	531.00	531.00	534.00	532.00	525.00	526.00	528.00	528.00	529.00	531.00	537.00	538.00	538.00	538.00	535.00	536.00	537.00	537.00	537.00	540.00	540.00	541.00	542.00	541.00	542.00	541.00	540.00	538.00	549.00	550.00	548.00	548.00	550.00	552.00	552.00	552.00	553.00	553.00	554.00	555.00	556.00	557.00	556.00	558.00	559.00	560.00	560.00	561.00	562.00	563.00	565.00	565.00	564.00	564.00	564.00	566.00	566.00	568.00	567.00	570.00	572.00	573.00	574.00	572.00	575.00	576.00	578.00	577.00	579.00	581.00	581.00	584.00
466.00	467.00	465.00	463.00	460.00	458.00	459.00	461.00	459.00	456.00	452.00	450.00	450.00	444.00	441.00	440.00	439.00	436.00	437.00	435.00	435.00	435.00	440.00	464.00	481.00	453.00	439.00	436.00	434.00	438.00	443.00	445.00	462.00	470.00	469.00	464.00	450.00	440.00	446.00	451.00	465.00	467.00	460.00	458.00	463.00	463.00	462.00	465.00	465.00	460.00	454.00	455.00	458.00	458.00	457.00	458.00	456.00	452.00	452.00	459.00	463.00	465.00	467.00	469.00	470.00	468.00	466.00	468.00	466.00	462.00	457.00	453.00	450.00	448.00	450.00	453.00	457.00	458.00	461.00	462.00	461.00	456.00	458.00	460.00	460.00	460.00	466.00	473.00	469.00	470.00	472.00	480.00	477.00	471.00	469.00	467.00	464.00	466.00	469.00	475.00	477.00	482.00	478.00	481.00	483.00	484.00	487.00	487.00	486.00	495.00	490.00	480.00	477.00	473.00	475.00	475.00	475.00	473.00	472.00	477.00	479.00	492.00	494.00	493.00	471.00	454.00	452.00	453.00	454.00	454.00	496.00	489.00	484.00	487.00	490.00	488.00	491.00	491.00	494.00	495.00	498.00	496.00	497.00	501.00	502.00	499.00	497.00	500.00	501.00	499.00	499.00	507.00	509.00	509.00	518.00	545.00	568.00	571.00	562.00	574.00	579.00	554.00	534.00	528.00	520.00	517.00	516.00	517.00	522.00	519.00	524.00	526.00	534.00	545.00	537.00	523.00	516.00	515.00	515.00	518.00	518.00	521.00	516.00	520.00	525.00	529.00	530.00	530.00	524.00	526.00	528.00	531.00	531.00	530.00	535.00	536.00	535.00	534.00	532.00	535.00	537.00	537.00	538.00	540.00	541.00	542.00	542.00	542.00	544.00	543.00	542.00	540.00	552.00	545.00	547.00	549.00	551.00	550.00	552.00	553.00	552.00	554.00	553.00	555.00	555.00	556.00	555.00	557.00	558.00	557.00	559.00	561.00	561.00	563.00	563.00	563.00	564.00	564.00	564.00	567.00	566.00	568.00	568.00	568.00	568.00	571.00	570.00	572.00	575.00	575.00	576.00	576.00	581.00	582.00	581.00	584.00
465.00	464.00	462.00	461.00	459.00	456.00	462.00	454.00	454.00	454.00	449.00	448.00	444.00	438.00	434.00	434.00	434.00	432.00	433.00	435.00	435.00	439.00	466.00	477.00	475.00	459.00	448.00	443.00	448.00	463.00	468.00	456.00	457.00	468.00	472.00	472.00	453.00	446.00	447.00	447.00	458.00	459.00	458.00	471.00	470.00	465.00	458.00	454.00	459.00	458.00	459.00	456.00	459.00	458.00	460.00	459.00	459.00	457.00	460.00	458.00	465.00	463.00	462.00	466.00	472.00	468.00	470.00	470.00	470.00	468.00	459.00	453.00	449.00	448.00	445.00	447.00	450.00	456.00	454.00	453.00	455.00	458.00	461.00	460.00	461.00	465.00	475.00	484.00	479.00	471.00	479.00	478.00	481.00	478.00	474.00	466.00	464.00	467.00	474.00	471.00	475.00	476.00	475.00	477.00	478.00	480.00	482.00	484.00	485.00	504.00	504.00	490.00	477.00	473.00	473.00	473.00	472.00	471.00	469.00	474.00	481.00	487.00	471.00	455.00	454.00	453.00	452.00	451.00	452.00	454.00	489.00	479.00	482.00	487.00	483.00	483.00	488.00	489.00	494.00	494.00	503.00	506.00	505.00	502.00	500.00	496.00	500.00	500.00	505.00	503.00	519.00	523.00	526.00	541.00	551.00	551.00	559.00	548.00	563.00	565.00	564.00	553.00	533.00	534.00	528.00	516.00	512.00	512.00	514.00	514.00	510.00	525.00	545.00	540.00	528.00	521.00	509.00	516.00	515.00	515.00	514.00	513.00	514.00	515.00	517.00	526.00	526.00	525.00	528.00	525.00	526.00	528.00	529.00	533.00	534.00	533.00	532.00	531.00	536.00	534.00	536.00	538.00	537.00	539.00	540.00	542.00	543.00	544.00	543.00	545.00	544.00	542.00	551.00	550.00	547.00	548.00	549.00	550.00	551.00	552.00	553.00	554.00	553.00	553.00	556.00	558.00	558.00	558.00	559.00	560.00	560.00	560.00	560.00	560.00	562.00	562.00	564.00	563.00	565.00	567.00	568.00	567.00	570.00	571.00	572.00	571.00	571.00	573.00	573.00	576.00	575.00	576.00	577.00	577.00	578.00	580.00
465.00	464.00	462.00	461.00	459.00	456.00	462.00	454.00	454.00	454.00	449.00	448.00	444.00	438.00	434.00	434.00	434.00	432.00	433.00	435.00	435.00	439.00	466.00	477.00	475.00	459.00	448.00	443.00	448.00	463.00	468.00	456.00	457.00	468.00	472.00	472.00	453.00	446.00	447.00	447.00	458.00	459.00	458.00	471.00	470.00	465.00	458.00	454.00	459.00	458.00	459.00	456.00	459.00	458.00	460.00	459.00	459.00	457.00	460.00	458.00	465.00	463.00	462.00	466.00	472.00	468.00	470.00	470.00	470.00	468.00	459.00	453.00	449.00	448.00	445.00	447.00	450.00	456.00	454.00	453.00	455.00	458.00	461.00	460.00	461.00	465.00	475.00	484.00	479.00	471.00	479.00	478.00	481.00	478.00	474.00	466.00	464.00	467.00	474.00	471.00	475.00	476.00	475.00	477.00	478.00	480.00	482.00	484.00	485.00	504.00	504.00	490.00	477.00	473.00	473.00	473.00	472.00	471.00	469.00	474.00	481.00	487.00	471.00	455.00	454.00	453.00	452.00	451.00	452.00	454.00	489.00	479.00	482.00	487.00	483.00	483.00	488.00	489.00	494.00	494.00	503.00	506.00	505.00	502.00	500.00	496.00	500.00	500.00	505.00	503.00	519.00	523.00	526.00	541.00	551.00	551.00	559.00	548.00	563.00	565.00	564.00	553.00	533.00	534.00	528.00	516.00	512.00	512.00	514.00	514.00	510.00	525.00	545.00	540.00	528.00	521.00	509.00	516.00	515.00	515.00	514.00	513.00	514.00	515.00	517.00	526.00	526.00	525.00	528.00	525.00	526.00	528.00	529.00	533.00	534.00	533.00	532.00	531.00	536.00	534.00	536.00	538.00	537.00	539.00	540.00	542.00	543.00	544.00	543.00	545.00	544.00	542.00	551.00	550.00	547.00	548.00	549.00	550.00	551.00	552.00	553.00	554.00	553.00	553.00	556.00	558.00	558.00	558.00	559.00	560.00	560.00	560.00	560.00	560.00	562.00	562.00	564.00	563.00	565.00	567.00	568.00	567.00	570.00	571.00	572.00	571.00	571.00	573.00	573.00	576.00	575.00	576.00	577.00	577.00	578.00	580.00
471.00	466.00	464.00	461.00	460.00	457.00	455.00	454.00	450.00	451.00	449.00	445.00	439.00	435.00	428.00	430.00	435.00	432.00	432.00	434.00	438.00	458.00	488.00	477.00	474.00	468.00	463.00	454.00	456.00	470.00	471.00	468.00	456.00	469.00	475.00	464.00	448.00	448.00	448.00	447.00	452.00	453.00	455.00	459.00	465.00	467.00	458.00	457.00	460.00	457.00	458.00	458.00	456.00	461.00	457.00	461.00	460.00	457.00	454.00	459.00	464.00	463.00	460.00	464.00	469.00	470.00	468.00	469.00	466.00	463.00	457.00	451.00	447.00	446.00	446.00	448.00	449.00	452.00	453.00	452.00	455.00	456.00	463.00	461.00	461.00	464.00	472.00	481.00	476.00	473.00	485.00	479.00	481.00	480.00	473.00	468.00	466.00	468.00	469.00	469.00	473.00	474.00	473.00	475.00	478.00	479.00	483.00	482.00	485.00	505.00	514.00	493.00	479.00	475.00	473.00	472.00	471.00	471.00	467.00	473.00	492.00	484.00	456.00	452.00	453.00	452.00	452.00	453.00	454.00	455.00	486.00	476.00	480.00	479.00	476.00	481.00	484.00	489.00	491.00	493.00	505.00	507.00	506.00	499.00	500.00	496.00	499.00	500.00	505.00	515.00	528.00	529.00	532.00	542.00	541.00	544.00	547.00	547.00	564.00	561.00	554.00	550.00	542.00	545.00	544.00	524.00	512.00	510.00	513.00	512.00	511.00	523.00	534.00	527.00	517.00	516.00	513.00	518.00	516.00	517.00	516.00	516.00	516.00	517.00	519.00	524.00	524.00	523.00	525.00	524.00	526.00	528.00	529.00	533.00	537.00	537.00	533.00	533.00	533.00	534.00	535.00	538.00	538.00	540.00	541.00	542.00	542.00	545.00	544.00	543.00	545.00	547.00	547.00	548.00	547.00	547.00	549.00	551.00	552.00	551.00	553.00	552.00	552.00	553.00	554.00	557.00	557.00	558.00	559.00	558.00	561.00	561.00	561.00	562.00	563.00	563.00	565.00	564.00	566.00	567.00	568.00	569.00	570.00	571.00	573.00	573.00	572.00	571.00	572.00	575.00	575.00	575.00	579.00	577.00	580.00	578.00
479.00	469.00	464.00	463.00	464.00	459.00	456.00	452.00	450.00	447.00	446.00	443.00	436.00	433.00	433.00	436.00	434.00	436.00	436.00	439.00	443.00	476.00	485.00	481.00	473.00	467.00	468.00	464.00	464.00	475.00	469.00	467.00	462.00	471.00	476.00	459.00	451.00	451.00	451.00	450.00	452.00	455.00	456.00	460.00	463.00	465.00	459.00	462.00	459.00	459.00	461.00	459.00	457.00	459.00	460.00	459.00	461.00	460.00	455.00	460.00	463.00	461.00	459.00	458.00	469.00	469.00	464.00	464.00	465.00	460.00	455.00	451.00	445.00	444.00	448.00	449.00	449.00	452.00	453.00	453.00	456.00	456.00	461.00	461.00	463.00	464.00	472.00	474.00	475.00	475.00	476.00	477.00	477.00	474.00	471.00	471.00	467.00	465.00	467.00	470.00	472.00	472.00	474.00	476.00	477.00	478.00	481.00	480.00	481.00	512.00	512.00	498.00	483.00	476.00	474.00	474.00	473.00	470.00	469.00	471.00	497.00	481.00	458.00	452.00	454.00	454.00	453.00	456.00	459.00	463.00	483.00	475.00	474.00	476.00	480.00	480.00	484.00	488.00	491.00	492.00	505.00	506.00	503.00	501.00	497.00	500.00	500.00	500.00	503.00	521.00	526.00	525.00	532.00	531.00	523.00	515.00	518.00	537.00	568.00	567.00	545.00	543.00	533.00	547.00	552.00	527.00	511.00	509.00	508.00	509.00	512.00	514.00	518.00	517.00	515.00	516.00	515.00	516.00	519.00	520.00	519.00	518.00	519.00	520.00	521.00	524.00	524.00	523.00	524.00	524.00	526.00	527.00	529.00	534.00	538.00	540.00	537.00	534.00	533.00	535.00	534.00	536.00	538.00	539.00	542.00	542.00	542.00	544.00	545.00	545.00	546.00	546.00	546.00	548.00	548.00	548.00	550.00	551.00	550.00	550.00	550.00	553.00	554.00	554.00	554.00	555.00	555.00	557.00	555.00	558.00	560.00	562.00	563.00	563.00	562.00	565.00	565.00	565.00	565.00	569.00	567.00	570.00	570.00	572.00	572.00	574.00	573.00	573.00	574.00	573.00	574.00	574.00	579.00	579.00	580.00	579.00
471.00	472.00	470.00	468.00	457.00	457.00	455.00	452.00	451.00	450.00	444.00	442.00	437.00	435.00	473.00	454.00	437.00	437.00	435.00	452.00	469.00	475.00	485.00	481.00	468.00	463.00	466.00	467.00	471.00	473.00	464.00	460.00	461.00	463.00	469.00	465.00	446.00	450.00	452.00	453.00	457.00	464.00	468.00	468.00	466.00	465.00	465.00	463.00	461.00	462.00	459.00	458.00	458.00	457.00	453.00	459.00	463.00	460.00	460.00	466.00	464.00	465.00	465.00	464.00	469.00	467.00	462.00	458.00	463.00	464.00	463.00	465.00	449.00	444.00	446.00	449.00	451.00	455.00	458.00	458.00	459.00	461.00	465.00	467.00	467.00	467.00	472.00	474.00	475.00	475.00	476.00	477.00	478.00	475.00	474.00	474.00	472.00	471.00	467.00	470.00	471.00	471.00	472.00	473.00	472.00	475.00	477.00	476.00	477.00	521.00	514.00	508.00	501.00	481.00	479.00	476.00	475.00	475.00	472.00	469.00	487.00	486.00	484.00	458.00	453.00	455.00	455.00	457.00	458.00	466.00	471.00	474.00	474.00	479.00	481.00	483.00	485.00	488.00	492.00	496.00	500.00	500.00	499.00	498.00	498.00	504.00	503.00	501.00	498.00	515.00	526.00	536.00	522.00	496.00	499.00	501.00	505.00	533.00	547.00	543.00	538.00	533.00	523.00	535.00	549.00	523.00	506.00	506.00	507.00	508.00	508.00	512.00	513.00	513.00	512.00	512.00	512.00	520.00	518.00	519.00	519.00	520.00	522.00	523.00	523.00	525.00	524.00	523.00	524.00	528.00	527.00	529.00	529.00	534.00	537.00	538.00	537.00	539.00	536.00	536.00	536.00	536.00	536.00	544.00	547.00	547.00	546.00	542.00	542.00	543.00	544.00	544.00	545.00	548.00	549.00	549.00	548.00	549.00	550.00	552.00	553.00	557.00	558.00	559.00	559.00	557.00	558.00	559.00	561.00	561.00	560.00	560.00	561.00	561.00	564.00	561.00	562.00	562.00	561.00	567.00	571.00	571.00	571.00	572.00	571.00	569.00	571.00	574.00	575.00	576.00	576.00	576.00	574.00	574.00	575.00	582.00
458.00	449.00	449.00	460.00	441.00	448.00	456.00	453.00	452.00	457.00	450.00	443.00	439.00	436.00	482.00	472.00	443.00	440.00	445.00	466.00	468.00	469.00	480.00	474.00	458.00	456.00	469.00	470.00	471.00	474.00	468.00	460.00	467.00	465.00	454.00	450.00	446.00	452.00	454.00	455.00	460.00	467.00	468.00	469.00	466.00	466.00	463.00	460.00	462.00	460.00	462.00	457.00	454.00	455.00	454.00	459.00	462.00	461.00	461.00	468.00	466.00	467.00	465.00	464.00	467.00	466.00	467.00	458.00	454.00	456.00	458.00	461.00	461.00	449.00	448.00	450.00	452.00	456.00	456.00	458.00	461.00	462.00	465.00	467.00	469.00	471.00	470.00	473.00	476.00	477.00	477.00	479.00	480.00	478.00	477.00	476.00	475.00	473.00	470.00	469.00	470.00	472.00	470.00	471.00	472.00	473.00	476.00	475.00	476.00	514.00	514.00	509.00	504.00	486.00	484.00	480.00	478.00	476.00	476.00	474.00	472.00	470.00	471.00	459.00	457.00	454.00	455.00	457.00	460.00	469.00	472.00	475.00	479.00	482.00	485.00	486.00	489.00	490.00	492.00	496.00	496.00	494.00	494.00	494.00	498.00	501.00	502.00	500.00	497.00	525.00	536.00	536.00	526.00	495.00	496.00	499.00	502.00	527.00	534.00	534.00	538.00	533.00	519.00	529.00	532.00	513.00	505.00	506.00	508.00	508.00	510.00	509.00	510.00	512.00	513.00	516.00	518.00	517.00	520.00	520.00	521.00	522.00	523.00	523.00	523.00	522.00	522.00	523.00	525.00	530.00	531.00	531.00	531.00	535.00	531.00	532.00	532.00	533.00	536.00	537.00	538.00	537.00	535.00	539.00	539.00	540.00	540.00	540.00	542.00	542.00	543.00	543.00	546.00	546.00	546.00	546.00	549.00	550.00	552.00	551.00	557.00	558.00	559.00	560.00	562.00	558.00	557.00	558.00	561.00	560.00	562.00	560.00	561.00	561.00	559.00	561.00	562.00	563.00	563.00	564.00	567.00	570.00	568.00	568.00	568.00	571.00	571.00	573.00	572.00	574.00	574.00	573.00	571.00	572.00	575.00	582.00
440.00	435.00	438.00	456.00	438.00	437.00	456.00	450.00	450.00	489.00	456.00	440.00	438.00	441.00	492.00	485.00	453.00	448.00	480.00	464.00	449.00	448.00	456.00	456.00	445.00	448.00	465.00	467.00	458.00	459.00	464.00	468.00	478.00	472.00	448.00	447.00	448.00	452.00	456.00	458.00	463.00	470.00	472.00	467.00	465.00	467.00	461.00	460.00	460.00	461.00	461.00	459.00	453.00	453.00	453.00	462.00	462.00	462.00	457.00	468.00	468.00	465.00	468.00	465.00	468.00	468.00	474.00	461.00	453.00	457.00	458.00	459.00	462.00	453.00	451.00	451.00	452.00	458.00	460.00	461.00	463.00	465.00	466.00	468.00	480.00	471.00	472.00	475.00	476.00	478.00	480.00	481.00	483.00	483.00	481.00	478.00	476.00	474.00	472.00	469.00	471.00	472.00	469.00	472.00	473.00	471.00	475.00	475.00	477.00	509.00	507.00	502.00	495.00	492.00	486.00	484.00	482.00	483.00	480.00	475.00	471.00	470.00	460.00	460.00	459.00	457.00	459.00	460.00	462.00	476.00	478.00	480.00	484.00	488.00	487.00	488.00	490.00	492.00	495.00	498.00	495.00	495.00	497.00	498.00	496.00	501.00	500.00	500.00	494.00	531.00	538.00	540.00	521.00	495.00	495.00	496.00	500.00	516.00	529.00	532.00	523.00	518.00	516.00	526.00	524.00	509.00	502.00	505.00	505.00	507.00	509.00	512.00	513.00	515.00	519.00	520.00	519.00	520.00	515.00	518.00	520.00	521.00	526.00	526.00	523.00	524.00	525.00	526.00	528.00	529.00	530.00	530.00	531.00	530.00	530.00	530.00	530.00	530.00	534.00	535.00	540.00	540.00	535.00	539.00	538.00	539.00	537.00	538.00	538.00	540.00	541.00	543.00	546.00	549.00	549.00	549.00	550.00	551.00	551.00	556.00	560.00	559.00	558.00	557.00	560.00	557.00	557.00	559.00	560.00	558.00	558.00	561.00	562.00	560.00	557.00	557.00	560.00	563.00	562.00	564.00	566.00	566.00	567.00	567.00	567.00	571.00	573.00	569.00	567.00	568.00	569.00	572.00	570.00	574.00	579.00	580.00
432.00	433.00	433.00	444.00	433.00	430.00	447.00	448.00	453.00	501.00	448.00	441.00	443.00	445.00	496.00	485.00	457.00	465.00	486.00	447.00	443.00	442.00	442.00	441.00	440.00	442.00	445.00	443.00	440.00	441.00	444.00	457.00	485.00	458.00	443.00	448.00	449.00	452.00	455.00	458.00	461.00	470.00	472.00	468.00	465.00	465.00	461.00	458.00	461.00	466.00	462.00	459.00	456.00	455.00	458.00	462.00	460.00	460.00	460.00	468.00	468.00	468.00	466.00	466.00	470.00	468.00	468.00	467.00	456.00	457.00	458.00	459.00	461.00	466.00	460.00	453.00	457.00	462.00	464.00	469.00	470.00	469.00	467.00	470.00	477.00	476.00	476.00	478.00	481.00	482.00	486.00	485.00	487.00	485.00	484.00	482.00	480.00	474.00	470.00	470.00	472.00	473.00	471.00	473.00	473.00	473.00	475.00	475.00	476.00	499.00	501.00	500.00	494.00	491.00	486.00	485.00	488.00	486.00	486.00	478.00	472.00	471.00	464.00	461.00	458.00	460.00	461.00	464.00	465.00	479.00	484.00	484.00	487.00	490.00	492.00	491.00	494.00	495.00	497.00	499.00	494.00	495.00	497.00	498.00	496.00	500.00	499.00	500.00	502.00	545.00	548.00	538.00	526.00	499.00	497.00	498.00	503.00	513.00	529.00	528.00	520.00	508.00	515.00	519.00	517.00	506.00	503.00	504.00	506.00	505.00	506.00	514.00	514.00	517.00	521.00	523.00	523.00	522.00	514.00	510.00	517.00	520.00	524.00	525.00	524.00	524.00	526.00	530.00	532.00	530.00	531.00	530.00	529.00	525.00	528.00	533.00	534.00	530.00	537.00	535.00	539.00	541.00	536.00	539.00	540.00	537.00	538.00	539.00	540.00	542.00	542.00	544.00	549.00	550.00	553.00	549.00	548.00	548.00	553.00	558.00	557.00	557.00	556.00	558.00	558.00	558.00	558.00	558.00	559.00	560.00	561.00	561.00	560.00	560.00	560.00	559.00	561.00	563.00	564.00	565.00	564.00	566.00	567.00	566.00	568.00	570.00	571.00	566.00	563.00	564.00	569.00	568.00	571.00	575.00	577.00	577.00
428.00	422.00	427.00	433.00	420.00	421.00	439.00	451.00	500.00	458.00	439.00	443.00	441.00	458.00	496.00	494.00	491.00	466.00	449.00	437.00	435.00	436.00	436.00	434.00	435.00	432.00	432.00	432.00	431.00	432.00	436.00	439.00	440.00	442.00	446.00	452.00	456.00	455.00	458.00	459.00	460.00	469.00	469.00	466.00	465.00	460.00	459.00	461.00	464.00	464.00	464.00	461.00	458.00	460.00	461.00	456.00	452.00	454.00	456.00	463.00	462.00	462.00	464.00	464.00	469.00	469.00	468.00	465.00	460.00	461.00	464.00	464.00	466.00	469.00	471.00	474.00	475.00	469.00	476.00	477.00	480.00	484.00	476.00	474.00	474.00	477.00	483.00	485.00	485.00	486.00	488.00	484.00	481.00	481.00	479.00	479.00	480.00	480.00	477.00	474.00	474.00	475.00	477.00	476.00	477.00	475.00	477.00	479.00	480.00	488.00	494.00	495.00	495.00	490.00	491.00	492.00	492.00	491.00	492.00	485.00	480.00	484.00	475.00	477.00	474.00	474.00	471.00	473.00	477.00	489.00	496.00	492.00	494.00	496.00	498.00	497.00	497.00	498.00	495.00	490.00	494.00	494.00	493.00	495.00	495.00	502.00	504.00	512.00	513.00	553.00	546.00	551.00	543.00	510.00	509.00	513.00	523.00	534.00	522.00	510.00	506.00	505.00	503.00	506.00	506.00	504.00	504.00	502.00	504.00	508.00	509.00	512.00	515.00	522.00	529.00	533.00	522.00	522.00	515.00	515.00	514.00	513.00	513.00	513.00	514.00	524.00	529.00	529.00	531.00	527.00	528.00	529.00	528.00	522.00	522.00	526.00	532.00	540.00	543.00	535.00	535.00	538.00	541.00	538.00	535.00	535.00	537.00	540.00	540.00	541.00	544.00	548.00	548.00	550.00	551.00	553.00	555.00	555.00	554.00	553.00	554.00	558.00	558.00	557.00	553.00	555.00	554.00	556.00	556.00	559.00	561.00	560.00	561.00	561.00	562.00	563.00	564.00	565.00	565.00	561.00	572.00	588.00	584.00	570.00	569.00	569.00	569.00	566.00	568.00	565.00	568.00	572.00	576.00	578.00	579.00	576.00
426.00	418.00	427.00	425.00	416.00	416.00	441.00	464.00	473.00	445.00	435.00	436.00	437.00	457.00	494.00	493.00	483.00	450.00	441.00	435.00	436.00	435.00	434.00	436.00	436.00	435.00	435.00	434.00	432.00	433.00	435.00	437.00	434.00	437.00	439.00	445.00	450.00	461.00	461.00	462.00	466.00	467.00	466.00	464.00	461.00	460.00	459.00	463.00	462.00	464.00	457.00	458.00	455.00	452.00	453.00	453.00	451.00	453.00	454.00	463.00	465.00	462.00	463.00	464.00	468.00	466.00	468.00	467.00	464.00	465.00	469.00	470.00	471.00	468.00	471.00	474.00	476.00	477.00	478.00	481.00	484.00	484.00	480.00	478.00	480.00	478.00	482.00	482.00	482.00	484.00	485.00	480.00	479.00	480.00	477.00	477.00	479.00	482.00	480.00	479.00	476.00	478.00	478.00	479.00	480.00	478.00	477.00	481.00	484.00	487.00	491.00	495.00	494.00	486.00	489.00	488.00	490.00	493.00	494.00	485.00	482.00	481.00	483.00	489.00	496.00	486.00	477.00	481.00	488.00	496.00	496.00	497.00	498.00	499.00	501.00	501.00	495.00	493.00	491.00	490.00	498.00	496.00	498.00	498.00	497.00	502.00	508.00	511.00	516.00	556.00	559.00	558.00	546.00	530.00	531.00	530.00	542.00	537.00	504.00	501.00	501.00	502.00	504.00	503.00	504.00	503.00	502.00	503.00	507.00	509.00	509.00	510.00	518.00	532.00	535.00	538.00	526.00	520.00	517.00	516.00	516.00	517.00	516.00	516.00	517.00	529.00	530.00	531.00	530.00	528.00	528.00	529.00	528.00	524.00	524.00	530.00	534.00	539.00	537.00	533.00	534.00	535.00	537.00	538.00	536.00	537.00	537.00	539.00	540.00	542.00	546.00	548.00	548.00	550.00	552.00	553.00	554.00	553.00	553.00	553.00	555.00	557.00	557.00	555.00	551.00	554.00	555.00	555.00	556.00	558.00	560.00	561.00	561.00	560.00	561.00	562.00	564.00	565.00	565.00	560.00	569.00	576.00	577.00	570.00	569.00	565.00	567.00	567.00	567.00	564.00	568.00	571.00	578.00	577.00	577.00	577.00
420.00	416.00	427.00	416.00	410.00	411.00	440.00	440.00	443.00	438.00	430.00	432.00	438.00	442.00	483.00	474.00	458.00	446.00	445.00	437.00	436.00	432.00	434.00	436.00	438.00	438.00	437.00	435.00	433.00	435.00	431.00	429.00	433.00	433.00	442.00	447.00	448.00	462.00	467.00	469.00	471.00	464.00	463.00	462.00	459.00	460.00	461.00	464.00	463.00	461.00	457.00	457.00	453.00	451.00	450.00	445.00	452.00	450.00	453.00	464.00	467.00	468.00	464.00	463.00	464.00	466.00	468.00	469.00	471.00	472.00	472.00	472.00	474.00	473.00	472.00	473.00	474.00	477.00	480.00	483.00	483.00	485.00	486.00	483.00	485.00	484.00	485.00	483.00	480.00	480.00	481.00	478.00	477.00	477.00	476.00	478.00	479.00	481.00	482.00	482.00	478.00	479.00	479.00	479.00	481.00	482.00	480.00	484.00	489.00	490.00	492.00	497.00	491.00	488.00	487.00	487.00	490.00	492.00	494.00	486.00	484.00	482.00	494.00	501.00	499.00	494.00	490.00	490.00	494.00	499.00	499.00	499.00	500.00	499.00	500.00	497.00	500.00	499.00	493.00	489.00	500.00	497.00	497.00	496.00	495.00	500.00	510.00	513.00	520.00	544.00	562.00	558.00	551.00	543.00	552.00	545.00	547.00	532.00	501.00	502.00	500.00	502.00	502.00	503.00	504.00	502.00	502.00	507.00	509.00	507.00	509.00	510.00	521.00	545.00	545.00	543.00	523.00	520.00	517.00	517.00	518.00	518.00	520.00	520.00	519.00	527.00	530.00	528.00	529.00	529.00	530.00	529.00	527.00	526.00	527.00	534.00	535.00	535.00	533.00	531.00	533.00	536.00	535.00	537.00	538.00	537.00	536.00	539.00	541.00	546.00	548.00	546.00	548.00	549.00	549.00	551.00	550.00	552.00	553.00	554.00	555.00	552.00	552.00	550.00	553.00	553.00	554.00	554.00	555.00	556.00	559.00	559.00	560.00	559.00	562.00	562.00	564.00	563.00	564.00	559.00	561.00	575.00	572.00	566.00	567.00	566.00	565.00	567.00	567.00	565.00	567.00	573.00	576.00	577.00	576.00	575.00
416.00	417.00	417.00	412.00	411.00	412.00	433.00	434.00	435.00	433.00	426.00	430.00	436.00	440.00	478.00	462.00	449.00	442.00	445.00	446.00	445.00	437.00	437.00	438.00	438.00	438.00	437.00	433.00	427.00	427.00	427.00	428.00	429.00	428.00	433.00	451.00	452.00	462.00	468.00	470.00	474.00	465.00	464.00	461.00	460.00	459.00	461.00	464.00	457.00	460.00	459.00	457.00	452.00	448.00	448.00	446.00	448.00	449.00	452.00	467.00	468.00	469.00	468.00	465.00	462.00	464.00	466.00	467.00	471.00	470.00	471.00	472.00	473.00	470.00	469.00	471.00	474.00	476.00	479.00	481.00	481.00	484.00	486.00	488.00	491.00	491.00	487.00	481.00	479.00	479.00	479.00	475.00	475.00	477.00	475.00	478.00	478.00	480.00	485.00	485.00	480.00	481.00	481.00	480.00	484.00	485.00	485.00	491.00	493.00	493.00	492.00	493.00	493.00	488.00	490.00	489.00	490.00	491.00	495.00	487.00	484.00	482.00	499.00	503.00	499.00	497.00	498.00	495.00	496.00	501.00	498.00	499.00	500.00	498.00	496.00	496.00	498.00	498.00	490.00	491.00	497.00	497.00	494.00	497.00	496.00	502.00	515.00	519.00	521.00	527.00	559.00	559.00	552.00	550.00	551.00	550.00	547.00	524.00	501.00	501.00	503.00	502.00	505.00	504.00	503.00	503.00	504.00	510.00	507.00	507.00	510.00	512.00	535.00	548.00	541.00	534.00	522.00	520.00	518.00	517.00	517.00	518.00	523.00	525.00	524.00	529.00	527.00	526.00	528.00	528.00	529.00	530.00	529.00	529.00	527.00	534.00	537.00	533.00	533.00	531.00	533.00	535.00	533.00	536.00	537.00	537.00	540.00	542.00	546.00	546.00	543.00	544.00	546.00	545.00	548.00	550.00	551.00	551.00	551.00	553.00	550.00	550.00	549.00	551.00	551.00	551.00	553.00	552.00	554.00	556.00	557.00	557.00	560.00	560.00	559.00	560.00	562.00	563.00	565.00	561.00	560.00	569.00	569.00	569.00	567.00	567.00	568.00	570.00	567.00	567.00	570.00	574.00	576.00	575.00	575.00	574.00
418.00	416.00	412.00	410.00	423.00	429.00	425.00	424.00	424.00	431.00	427.00	433.00	438.00	436.00	461.00	447.00	454.00	461.00	460.00	466.00	465.00	461.00	442.00	440.00	439.00	438.00	431.00	426.00	417.00	421.00	420.00	424.00	424.00	424.00	429.00	455.00	458.00	465.00	469.00	473.00	469.00	464.00	462.00	457.00	461.00	462.00	464.00	462.00	463.00	465.00	464.00	460.00	455.00	452.00	456.00	452.00	451.00	454.00	461.00	468.00	467.00	470.00	470.00	467.00	464.00	465.00	465.00	465.00	471.00	470.00	470.00	470.00	472.00	471.00	469.00	470.00	472.00	480.00	478.00	481.00	483.00	485.00	491.00	495.00	498.00	495.00	487.00	481.00	481.00	484.00	484.00	475.00	476.00	475.00	476.00	477.00	479.00	480.00	484.00	488.00	485.00	488.00	489.00	487.00	491.00	492.00	492.00	493.00	492.00	491.00	493.00	492.00	492.00	490.00	489.00	490.00	493.00	495.00	496.00	486.00	485.00	489.00	486.00	487.00	496.00	499.00	498.00	498.00	501.00	497.00	496.00	499.00	498.00	494.00	493.00	492.00	489.00	490.00	491.00	494.00	495.00	495.00	491.00	491.00	494.00	503.00	522.00	528.00	534.00	528.00	555.00	578.00	562.00	539.00	538.00	531.00	515.00	504.00	501.00	502.00	503.00	503.00	504.00	504.00	508.00	510.00	511.00	509.00	507.00	510.00	509.00	524.00	544.00	546.00	547.00	546.00	522.00	516.00	517.00	517.00	518.00	520.00	522.00	527.00	527.00	527.00	525.00	527.00	527.00	529.00	530.00	531.00	532.00	531.00	527.00	535.00	537.00	532.00	533.00	533.00	533.00	536.00	536.00	539.00	539.00	539.00	531.00	530.00	533.00	534.00	536.00	539.00	545.00	549.00	551.00	550.00	542.00	542.00	542.00	542.00	543.00	548.00	547.00	546.00	550.00	547.00	547.00	549.00	553.00	557.00	552.00	554.00	553.00	557.00	562.00	562.00	563.00	564.00	564.00	565.00	567.00	568.00	568.00	567.00	568.00	569.00	564.00	563.00	573.00	577.00	575.00	575.00	575.00	575.00	573.00	572.00
420.00	413.00	412.00	412.00	425.00	431.00	427.00	428.00	435.00	435.00	437.00	437.00	443.00	440.00	451.00	452.00	450.00	449.00	450.00	452.00	456.00	452.00	447.00	443.00	442.00	437.00	431.00	425.00	422.00	419.00	419.00	423.00	422.00	423.00	431.00	458.00	459.00	461.00	463.00	466.00	467.00	465.00	460.00	460.00	459.00	464.00	462.00	460.00	460.00	465.00	467.00	462.00	456.00	454.00	453.00	456.00	458.00	462.00	469.00	468.00	469.00	470.00	472.00	468.00	465.00	464.00	462.00	466.00	470.00	468.00	469.00	471.00	471.00	470.00	470.00	469.00	472.00	478.00	482.00	482.00	484.00	485.00	495.00	496.00	494.00	490.00	486.00	482.00	486.00	500.00	489.00	477.00	476.00	478.00	477.00	478.00	482.00	481.00	484.00	486.00	490.00	490.00	493.00	492.00	491.00	494.00	493.00	493.00	492.00	490.00	490.00	491.00	489.00	487.00	490.00	494.00	493.00	491.00	493.00	488.00	486.00	487.00	485.00	486.00	497.00	501.00	496.00	499.00	500.00	498.00	500.00	498.00	497.00	495.00	494.00	493.00	490.00	489.00	493.00	493.00	495.00	494.00	493.00	492.00	494.00	502.00	523.00	534.00	547.00	539.00	539.00	557.00	556.00	531.00	522.00	521.00	510.00	499.00	501.00	504.00	503.00	503.00	504.00	505.00	510.00	511.00	507.00	507.00	507.00	510.00	508.00	533.00	536.00	543.00	549.00	548.00	526.00	517.00	515.00	516.00	519.00	521.00	527.00	526.00	525.00	527.00	528.00	527.00	529.00	531.00	530.00	532.00	531.00	531.00	531.00	534.00	535.00	533.00	534.00	533.00	534.00	538.00	538.00	539.00	539.00	533.00	528.00	530.00	532.00	534.00	536.00	539.00	546.00	550.00	550.00	545.00	539.00	539.00	541.00	543.00	547.00	546.00	548.00	547.00	553.00	547.00	547.00	549.00	552.00	556.00	550.00	552.00	552.00	557.00	562.00	562.00	564.00	565.00	565.00	565.00	565.00	566.00	566.00	567.00	568.00	567.00	562.00	564.00	575.00	576.00	575.00	577.00	577.00	576.00	573.00	571.00
425.00	416.00	410.00	411.00	430.00	427.00	420.00	420.00	428.00	432.00	438.00	441.00	445.00	439.00	442.00	444.00	446.00	449.00	449.00	449.00	448.00	448.00	446.00	444.00	445.00	440.00	431.00	427.00	421.00	422.00	420.00	422.00	422.00	422.00	430.00	454.00	460.00	458.00	458.00	461.00	463.00	463.00	459.00	456.00	460.00	463.00	463.00	460.00	461.00	465.00	467.00	467.00	460.00	458.00	455.00	460.00	459.00	459.00	463.00	470.00	469.00	470.00	470.00	470.00	467.00	467.00	465.00	466.00	470.00	468.00	469.00	472.00	470.00	472.00	469.00	470.00	471.00	475.00	477.00	479.00	482.00	486.00	491.00	491.00	488.00	487.00	484.00	492.00	490.00	486.00	476.00	474.00	477.00	479.00	479.00	479.00	481.00	482.00	488.00	490.00	490.00	490.00	492.00	490.00	494.00	493.00	492.00	494.00	493.00	488.00	486.00	487.00	486.00	488.00	492.00	492.00	492.00	491.00	492.00	494.00	492.00	490.00	488.00	488.00	494.00	502.00	498.00	500.00	502.00	499.00	499.00	497.00	493.00	493.00	493.00	493.00	493.00	492.00	494.00	495.00	494.00	493.00	495.00	492.00	493.00	497.00	516.00	530.00	535.00	536.00	547.00	557.00	541.00	514.00	511.00	510.00	500.00	498.00	501.00	502.00	503.00	503.00	503.00	505.00	508.00	516.00	509.00	506.00	510.00	509.00	510.00	527.00	533.00	549.00	552.00	550.00	528.00	518.00	516.00	515.00	518.00	520.00	526.00	525.00	525.00	526.00	527.00	528.00	530.00	529.00	530.00	533.00	531.00	531.00	531.00	531.00	533.00	532.00	535.00	534.00	535.00	537.00	537.00	539.00	535.00	526.00	527.00	530.00	533.00	534.00	536.00	540.00	548.00	548.00	547.00	546.00	543.00	542.00	543.00	545.00	544.00	545.00	544.00	545.00	548.00	547.00	548.00	549.00	550.00	554.00	550.00	553.00	557.00	559.00	561.00	563.00	562.00	565.00	566.00	563.00	566.00	563.00	563.00	566.00	569.00	567.00	565.00	567.00	572.00	575.00	575.00	577.00	580.00	582.00	577.00	572.00
424.00	417.00	410.00	415.00	425.00	427.00	423.00	423.00	425.00	424.00	422.00	426.00	436.00	431.00	434.00	435.00	432.00	437.00	439.00	445.00	449.00	450.00	452.00	448.00	447.00	447.00	434.00	426.00	423.00	423.00	422.00	422.00	422.00	423.00	430.00	457.00	459.00	457.00	456.00	457.00	462.00	461.00	460.00	459.00	462.00	466.00	462.00	460.00	459.00	461.00	468.00	467.00	461.00	460.00	458.00	459.00	458.00	457.00	457.00	461.00	465.00	468.00	469.00	471.00	469.00	470.00	468.00	466.00	470.00	469.00	470.00	471.00	473.00	477.00	474.00	471.00	469.00	475.00	477.00	478.00	481.00	487.00	488.00	487.00	484.00	483.00	482.00	492.00	478.00	474.00	473.00	477.00	479.00	480.00	480.00	482.00	484.00	482.00	487.00	487.00	491.00	490.00	492.00	492.00	494.00	493.00	493.00	494.00	492.00	485.00	484.00	486.00	488.00	492.00	493.00	491.00	489.00	490.00	494.00	496.00	498.00	496.00	494.00	497.00	498.00	500.00	497.00	499.00	501.00	501.00	497.00	494.00	492.00	492.00	491.00	491.00	491.00	493.00	496.00	493.00	492.00	494.00	492.00	492.00	492.00	492.00	504.00	525.00	516.00	539.00	558.00	556.00	543.00	511.00	509.00	502.00	498.00	494.00	502.00	503.00	502.00	502.00	503.00	504.00	506.00	520.00	511.00	509.00	509.00	508.00	511.00	526.00	527.00	540.00	551.00	550.00	532.00	521.00	516.00	514.00	520.00	523.00	524.00	524.00	524.00	525.00	526.00	528.00	531.00	531.00	531.00	531.00	530.00	530.00	533.00	533.00	533.00	533.00	537.00	536.00	537.00	536.00	535.00	536.00	531.00	526.00	526.00	530.00	533.00	536.00	540.00	542.00	545.00	547.00	544.00	544.00	544.00	546.00	544.00	544.00	544.00	543.00	543.00	543.00	546.00	552.00	550.00	553.00	556.00	557.00	553.00	556.00	559.00	560.00	563.00	562.00	562.00	563.00	563.00	562.00	565.00	566.00	569.00	569.00	569.00	572.00	572.00	573.00	575.00	574.00	573.00	581.00	584.00	589.00	586.00	576.00
417.00	417.00	416.00	418.00	433.00	423.00	426.00	420.00	418.00	417.00	417.00	416.00	435.00	435.00	410.00	413.00	418.00	419.00	418.00	435.00	435.00	448.00	446.00	441.00	448.00	444.00	435.00	432.00	428.00	426.00	426.00	426.00	428.00	430.00	434.00	463.00	457.00	462.00	456.00	457.00	466.00	459.00	456.00	457.00	458.00	464.00	462.00	461.00	463.00	464.00	466.00	468.00	466.00	462.00	460.00	458.00	457.00	459.00	456.00	455.00	460.00	466.00	470.00	472.00	470.00	469.00	470.00	472.00	471.00	470.00	471.00	469.00	470.00	473.00	475.00	477.00	476.00	474.00	473.00	476.00	477.00	477.00	478.00	480.00	482.00	479.00	482.00	479.00	475.00	475.00	476.00	479.00	480.00	481.00	481.00	485.00	484.00	485.00	484.00	484.00	488.00	486.00	488.00	489.00	490.00	492.00	491.00	490.00	487.00	485.00	487.00	489.00	492.00	493.00	493.00	488.00	481.00	482.00	489.00	492.00	490.00	491.00	496.00	497.00	497.00	496.00	496.00	500.00	497.00	495.00	495.00	492.00	491.00	493.00	491.00	491.00	492.00	492.00	495.00	493.00	493.00	493.00	493.00	492.00	493.00	493.00	493.00	497.00	492.00	500.00	512.00	519.00	541.00	514.00	501.00	500.00	498.00	497.00	500.00	498.00	500.00	502.00	506.00	506.00	507.00	510.00	508.00	509.00	509.00	509.00	522.00	529.00	531.00	550.00	544.00	548.00	533.00	527.00	528.00	524.00	520.00	523.00	521.00	523.00	524.00	527.00	530.00	527.00	527.00	528.00	531.00	534.00	534.00	531.00	533.00	533.00	537.00	538.00	539.00	533.00	533.00	531.00	529.00	537.00	530.00	525.00	524.00	533.00	538.00	543.00	542.00	540.00	542.00	541.00	542.00	543.00	545.00	543.00	543.00	543.00	542.00	544.00	545.00	545.00	545.00	551.00	550.00	552.00	554.00	557.00	556.00	555.00	556.00	557.00	560.00	560.00	562.00	561.00	563.00	567.00	566.00	567.00	569.00	571.00	572.00	568.00	569.00	571.00	583.00	576.00	576.00	588.00	589.00	593.00	600.00	592.00
413.00	414.00	418.00	427.00	430.00	424.00	430.00	428.00	426.00	424.00	420.00	422.00	419.00	418.00	416.00	416.00	417.00	418.00	425.00	428.00	426.00	431.00	426.00	439.00	453.00	444.00	437.00	435.00	430.00	429.00	425.00	420.00	431.00	434.00	433.00	446.00	454.00	461.00	458.00	458.00	461.00	459.00	456.00	459.00	461.00	465.00	460.00	460.00	461.00	462.00	466.00	468.00	467.00	463.00	460.00	458.00	459.00	462.00	460.00	459.00	462.00	465.00	469.00	470.00	470.00	470.00	473.00	475.00	474.00	471.00	472.00	471.00	469.00	471.00	471.00	475.00	475.00	472.00	473.00	472.00	474.00	475.00	476.00	478.00	480.00	481.00	483.00	478.00	478.00	477.00	478.00	482.00	482.00	481.00	484.00	483.00	483.00	484.00	483.00	482.00	484.00	484.00	485.00	490.00	492.00	491.00	489.00	488.00	487.00	486.00	490.00	492.00	492.00	491.00	489.00	488.00	482.00	480.00	483.00	490.00	489.00	488.00	494.00	496.00	496.00	496.00	497.00	499.00	496.00	498.00	497.00	489.00	490.00	493.00	488.00	492.00	489.00	491.00	493.00	495.00	492.00	493.00	492.00	496.00	494.00	492.00	490.00	490.00	491.00	493.00	514.00	523.00	547.00	511.00	504.00	501.00	498.00	498.00	499.00	501.00	501.00	505.00	505.00	507.00	507.00	508.00	509.00	509.00	509.00	510.00	531.00	534.00	537.00	541.00	538.00	538.00	528.00	523.00	526.00	524.00	523.00	521.00	521.00	523.00	523.00	527.00	527.00	525.00	524.00	527.00	530.00	531.00	534.00	533.00	529.00	531.00	534.00	536.00	538.00	534.00	534.00	532.00	530.00	538.00	530.00	528.00	528.00	538.00	542.00	542.00	541.00	540.00	543.00	540.00	542.00	544.00	543.00	542.00	541.00	542.00	544.00	545.00	545.00	544.00	546.00	549.00	552.00	552.00	554.00	555.00	555.00	556.00	556.00	555.00	561.00	560.00	562.00	564.00	562.00	560.00	561.00	562.00	568.00	569.00	570.00	569.00	567.00	572.00	582.00	579.00	579.00	586.00	594.00	603.00	611.00	600.00
409.00	423.00	430.00	423.00	424.00	424.00	430.00	429.00	429.00	428.00	424.00	423.00	422.00	420.00	420.00	419.00	419.00	420.00	432.00	452.00	450.00	450.00	433.00	444.00	445.00	441.00	439.00	437.00	432.00	429.00	430.00	432.00	435.00	435.00	436.00	444.00	452.00	461.00	460.00	457.00	460.00	461.00	462.00	461.00	464.00	464.00	461.00	463.00	461.00	464.00	466.00	469.00	469.00	464.00	464.00	459.00	456.00	458.00	466.00	462.00	466.00	466.00	471.00	473.00	472.00	472.00	473.00	475.00	476.00	475.00	475.00	474.00	471.00	471.00	472.00	473.00	471.00	472.00	476.00	476.00	472.00	474.00	481.00	481.00	482.00	484.00	482.00	481.00	480.00	479.00	480.00	480.00	482.00	481.00	482.00	480.00	482.00	484.00	484.00	481.00	479.00	482.00	483.00	488.00	490.00	488.00	486.00	485.00	482.00	484.00	490.00	490.00	488.00	488.00	489.00	488.00	487.00	485.00	485.00	491.00	490.00	488.00	493.00	492.00	493.00	496.00	494.00	499.00	496.00	498.00	497.00	490.00	491.00	492.00	489.00	497.00	491.00	492.00	493.00	497.00	495.00	496.00	493.00	493.00	494.00	493.00	491.00	492.00	492.00	494.00	514.00	519.00	542.00	508.00	505.00	503.00	500.00	500.00	500.00	500.00	501.00	504.00	507.00	507.00	508.00	509.00	510.00	509.00	509.00	511.00	528.00	532.00	532.00	523.00	523.00	522.00	523.00	524.00	523.00	521.00	520.00	521.00	520.00	523.00	523.00	525.00	520.00	518.00	519.00	525.00	531.00	531.00	532.00	534.00	531.00	533.00	535.00	537.00	538.00	533.00	537.00	539.00	537.00	535.00	532.00	530.00	532.00	541.00	540.00	541.00	540.00	538.00	543.00	539.00	539.00	539.00	540.00	542.00	544.00	544.00	544.00	546.00	546.00	547.00	547.00	550.00	552.00	551.00	551.00	553.00	555.00	555.00	556.00	556.00	561.00	559.00	562.00	563.00	560.00	560.00	564.00	566.00	566.00	569.00	568.00	566.00	567.00	573.00	581.00	580.00	581.00	588.00	598.00	608.00	611.00	598.00
402.00	420.00	423.00	425.00	428.00	426.00	431.00	432.00	429.00	430.00	428.00	428.00	428.00	428.00	425.00	425.00	425.00	427.00	441.00	454.00	449.00	452.00	435.00	448.00	447.00	440.00	441.00	440.00	434.00	432.00	431.00	433.00	437.00	438.00	439.00	446.00	452.00	462.00	461.00	458.00	459.00	457.00	459.00	464.00	464.00	465.00	463.00	463.00	463.00	465.00	467.00	469.00	469.00	468.00	467.00	461.00	457.00	459.00	462.00	470.00	471.00	470.00	474.00	473.00	473.00	474.00	474.00	474.00	476.00	476.00	476.00	475.00	471.00	472.00	473.00	473.00	472.00	469.00	471.00	474.00	474.00	480.00	482.00	480.00	482.00	483.00	480.00	481.00	482.00	482.00	480.00	478.00	478.00	481.00	479.00	477.00	479.00	482.00	482.00	479.00	479.00	480.00	481.00	483.00	485.00	486.00	482.00	482.00	482.00	484.00	487.00	486.00	486.00	488.00	489.00	490.00	490.00	486.00	485.00	492.00	491.00	493.00	490.00	493.00	494.00	495.00	496.00	499.00	498.00	499.00	498.00	491.00	491.00	493.00	495.00	496.00	492.00	496.00	497.00	496.00	494.00	493.00	493.00	492.00	494.00	493.00	491.00	491.00	493.00	497.00	506.00	533.00	542.00	515.00	512.00	507.00	501.00	501.00	500.00	500.00	500.00	504.00	504.00	506.00	505.00	507.00	508.00	508.00	510.00	510.00	513.00	521.00	516.00	513.00	515.00	519.00	523.00	527.00	521.00	522.00	521.00	521.00	521.00	520.00	521.00	522.00	516.00	515.00	516.00	523.00	525.00	529.00	532.00	535.00	532.00	533.00	536.00	537.00	531.00	530.00	535.00	539.00	537.00	533.00	535.00	532.00	536.00	539.00	538.00	538.00	537.00	539.00	538.00	539.00	540.00	541.00	543.00	544.00	545.00	546.00	544.00	545.00	548.00	548.00	548.00	547.00	546.00	546.00	548.00	550.00	553.00	552.00	555.00	558.00	560.00	561.00	563.00	560.00	561.00	562.00	564.00	566.00	567.00	567.00	565.00	570.00	567.00	571.00	578.00	580.00	584.00	587.00	598.00	604.00	602.00	594.00
420.00	417.00	417.00	417.00	416.00	417.00	416.00	416.00	417.00	416.00	416.00	420.00	420.00	421.00	428.00	428.00	438.00	438.00	445.00	444.00	455.00	453.00	456.00	455.00	449.00	449.00	447.00	445.00	438.00	439.00	441.00	443.00	452.00	451.00	447.00	451.00	458.00	462.00	465.00	459.00	456.00	459.00	458.00	460.00	464.00	465.00	462.00	461.00	462.00	466.00	468.00	469.00	470.00	469.00	470.00	470.00	464.00	469.00	470.00	473.00	474.00	473.00	473.00	473.00	472.00	473.00	475.00	474.00	477.00	476.00	475.00	476.00	476.00	473.00	473.00	472.00	474.00	475.00	473.00	473.00	474.00	473.00	473.00	478.00	483.00	479.00	480.00	481.00	483.00	481.00	477.00	476.00	476.00	477.00	475.00	477.00	478.00	478.00	480.00	480.00	481.00	479.00	481.00	481.00	481.00	481.00	479.00	482.00	483.00	485.00	486.00	481.00	484.00	486.00	490.00	491.00	491.00	487.00	486.00	487.00	492.00	491.00	489.00	493.00	494.00	494.00	497.00	498.00	497.00	497.00	489.00	492.00	492.00	493.00	493.00	494.00	495.00	497.00	498.00	500.00	489.00	490.00	486.00	488.00	492.00	492.00	489.00	491.00	502.00	512.00	531.00	559.00	545.00	541.00	533.00	518.00	502.00	502.00	499.00	501.00	503.00	502.00	505.00	504.00	505.00	507.00	507.00	509.00	510.00	511.00	512.00	512.00	513.00	512.00	511.00	509.00	521.00	520.00	522.00	522.00	521.00	523.00	519.00	522.00	521.00	518.00	515.00	513.00	514.00	521.00	523.00	525.00	532.00	528.00	527.00	530.00	532.00	535.00	534.00	528.00	527.00	533.00	533.00	529.00	536.00	535.00	535.00	537.00	538.00	536.00	538.00	538.00	538.00	540.00	541.00	539.00	541.00	542.00	543.00	545.00	544.00	544.00	542.00	546.00	547.00	547.00	548.00	552.00	550.00	545.00	547.00	550.00	554.00	557.00	558.00	555.00	554.00	551.00	552.00	563.00	566.00	565.00	561.00	557.00	557.00	568.00	574.00	574.00	577.00	580.00	583.00	588.00	594.00	586.00	584.00	576.00
430.00	420.00	418.00	418.00	416.00	417.00	417.00	418.00	418.00	417.00	415.00	415.00	414.00	416.00	420.00	422.00	435.00	438.00	434.00	449.00	455.00	455.00	456.00	457.00	456.00	452.00	448.00	450.00	444.00	447.00	446.00	451.00	457.00	453.00	449.00	456.00	462.00	464.00	461.00	457.00	456.00	460.00	459.00	458.00	462.00	465.00	461.00	462.00	464.00	466.00	469.00	470.00	469.00	469.00	471.00	470.00	469.00	472.00	471.00	472.00	471.00	474.00	472.00	473.00	471.00	469.00	474.00	474.00	475.00	475.00	473.00	471.00	475.00	476.00	475.00	475.00	476.00	476.00	476.00	475.00	474.00	477.00	473.00	477.00	474.00	475.00	478.00	480.00	480.00	478.00	475.00	477.00	476.00	476.00	479.00	481.00	481.00	479.00	485.00	483.00	484.00	484.00	484.00	483.00	481.00	482.00	481.00	482.00	484.00	486.00	484.00	486.00	485.00	483.00	485.00	486.00	489.00	492.00	488.00	488.00	490.00	487.00	490.00	492.00	495.00	494.00	497.00	491.00	494.00	493.00	491.00	493.00	494.00	495.00	494.00	495.00	494.00	498.00	500.00	497.00	483.00	484.00	483.00	485.00	491.00	492.00	491.00	500.00	508.00	526.00	539.00	566.00	552.00	544.00	531.00	517.00	510.00	508.00	498.00	500.00	501.00	502.00	505.00	505.00	507.00	507.00	512.00	509.00	509.00	511.00	511.00	513.00	513.00	515.00	514.00	514.00	518.00	517.00	520.00	519.00	520.00	521.00	515.00	513.00	513.00	514.00	512.00	511.00	514.00	524.00	526.00	528.00	529.00	528.00	527.00	524.00	527.00	532.00	533.00	528.00	526.00	532.00	532.00	529.00	536.00	536.00	535.00	538.00	540.00	539.00	541.00	540.00	536.00	539.00	540.00	539.00	542.00	543.00	542.00	542.00	542.00	543.00	546.00	547.00	552.00	549.00	550.00	553.00	553.00	548.00	549.00	552.00	557.00	562.00	558.00	554.00	551.00	550.00	554.00	563.00	562.00	557.00	556.00	556.00	558.00	564.00	570.00	571.00	577.00	581.00	585.00	591.00	584.00	581.00	579.00	570.00
427.00	421.00	420.00	420.00	418.00	418.00	418.00	418.00	418.00	416.00	416.00	416.00	414.00	414.00	421.00	423.00	430.00	436.00	440.00	451.00	458.00	457.00	456.00	458.00	458.00	452.00	452.00	452.00	451.00	453.00	455.00	459.00	463.00	458.00	456.00	460.00	463.00	462.00	458.00	456.00	457.00	458.00	461.00	460.00	463.00	463.00	460.00	462.00	466.00	468.00	469.00	470.00	468.00	471.00	471.00	472.00	471.00	471.00	472.00	474.00	470.00	474.00	472.00	472.00	472.00	472.00	473.00	472.00	473.00	471.00	471.00	473.00	475.00	476.00	475.00	476.00	476.00	476.00	477.00	478.00	478.00	478.00	476.00	475.00	475.00	474.00	476.00	477.00	478.00	476.00	475.00	479.00	478.00	479.00	480.00	481.00	482.00	482.00	485.00	483.00	485.00	486.00	488.00	487.00	485.00	483.00	483.00	484.00	488.00	489.00	490.00	490.00	489.00	484.00	483.00	483.00	485.00	492.00	493.00	489.00	488.00	490.00	487.00	490.00	493.00	493.00	495.00	492.00	490.00	491.00	492.00	492.00	495.00	496.00	497.00	499.00	497.00	498.00	499.00	488.00	482.00	482.00	483.00	485.00	490.00	498.00	504.00	509.00	520.00	533.00	577.00	579.00	550.00	539.00	534.00	522.00	516.00	514.00	497.00	499.00	501.00	503.00	504.00	506.00	505.00	507.00	510.00	510.00	509.00	512.00	514.00	518.00	516.00	515.00	516.00	516.00	515.00	517.00	518.00	518.00	518.00	519.00	514.00	513.00	513.00	517.00	514.00	516.00	520.00	525.00	525.00	526.00	526.00	529.00	524.00	523.00	524.00	528.00	532.00	531.00	525.00	529.00	530.00	534.00	533.00	534.00	536.00	536.00	535.00	537.00	541.00	539.00	539.00	541.00	541.00	541.00	542.00	542.00	541.00	543.00	543.00	547.00	549.00	550.00	553.00	550.00	551.00	552.00	557.00	551.00	549.00	553.00	558.00	567.00	554.00	551.00	551.00	553.00	561.00	561.00	557.00	553.00	552.00	556.00	558.00	562.00	566.00	569.00	580.00	586.00	586.00	587.00	580.00	573.00	574.00	568.00
431.00	430.00	428.00	426.00	419.00	417.00	416.00	416.00	416.00	417.00	417.00	417.00	416.00	416.00	413.00	418.00	423.00	432.00	453.00	457.00	457.00	455.00	459.00	459.00	463.00	458.00	457.00	457.00	450.00	455.00	461.00	467.00	464.00	460.00	458.00	458.00	464.00	460.00	456.00	461.00	460.00	461.00	459.00	461.00	462.00	463.00	465.00	466.00	465.00	466.00	467.00	470.00	469.00	469.00	470.00	470.00	471.00	471.00	470.00	470.00	473.00	473.00	473.00	474.00	472.00	473.00	473.00	474.00	473.00	473.00	474.00	474.00	474.00	472.00	473.00	474.00	476.00	476.00	478.00	481.00	482.00	481.00	477.00	477.00	475.00	476.00	478.00	475.00	475.00	475.00	477.00	479.00	480.00	482.00	480.00	482.00	483.00	485.00	480.00	484.00	486.00	489.00	491.00	491.00	488.00	485.00	484.00	486.00	490.00	493.00	492.00	492.00	492.00	488.00	487.00	485.00	486.00	485.00	493.00	494.00	491.00	490.00	490.00	491.00	492.00	493.00	495.00	488.00	490.00	493.00	492.00	494.00	492.00	494.00	492.00	494.00	497.00	500.00	491.00	484.00	479.00	481.00	483.00	483.00	491.00	501.00	513.00	522.00	529.00	554.00	594.00	566.00	548.00	538.00	533.00	525.00	519.00	520.00	498.00	499.00	500.00	504.00	509.00	507.00	508.00	510.00	510.00	510.00	509.00	511.00	512.00	519.00	515.00	516.00	516.00	517.00	518.00	518.00	521.00	520.00	518.00	522.00	518.00	517.00	519.00	522.00	521.00	524.00	526.00	524.00	524.00	524.00	522.00	529.00	525.00	526.00	526.00	529.00	531.00	532.00	525.00	528.00	529.00	532.00	532.00	535.00	535.00	536.00	533.00	532.00	537.00	537.00	539.00	540.00	541.00	541.00	543.00	544.00	543.00	546.00	548.00	554.00	551.00	551.00	556.00	553.00	553.00	554.00	559.00	553.00	551.00	553.00	562.00	564.00	552.00	551.00	554.00	558.00	560.00	558.00	553.00	551.00	552.00	555.00	558.00	565.00	564.00	566.00	574.00	584.00	580.00	578.00	570.00	570.00	572.00	573.00
426.00	424.00	424.00	423.00	424.00	425.00	427.00	428.00	429.00	429.00	424.00	424.00	422.00	422.00	420.00	418.00	415.00	416.00	418.00	456.00	458.00	453.00	453.00	456.00	460.00	463.00	462.00	459.00	451.00	450.00	451.00	453.00	453.00	454.00	454.00	457.00	457.00	455.00	454.00	463.00	458.00	461.00	463.00	462.00	462.00	459.00	465.00	467.00	469.00	469.00	470.00	469.00	469.00	470.00	470.00	467.00	464.00	462.00	458.00	457.00	459.00	460.00	466.00	469.00	473.00	473.00	473.00	473.00	474.00	472.00	471.00	469.00	469.00	469.00	472.00	476.00	477.00	477.00	477.00	477.00	478.00	477.00	479.00	479.00	479.00	480.00	478.00	475.00	476.00	476.00	478.00	482.00	481.00	484.00	485.00	484.00	482.00	483.00	484.00	484.00	489.00	489.00	490.00	492.00	492.00	490.00	487.00	490.00	492.00	489.00	489.00	489.00	489.00	491.00	490.00	491.00	491.00	489.00	489.00	495.00	496.00	495.00	491.00	492.00	495.00	494.00	496.00	488.00	490.00	494.00	491.00	491.00	495.00	496.00	497.00	500.00	495.00	487.00	483.00	484.00	487.00	486.00	487.00	485.00	490.00	508.00	518.00	530.00	534.00	570.00	555.00	556.00	543.00	532.00	530.00	527.00	518.00	515.00	496.00	497.00	499.00	509.00	516.00	519.00	515.00	509.00	506.00	511.00	511.00	512.00	512.00	525.00	518.00	513.00	513.00	516.00	516.00	518.00	519.00	521.00	521.00	522.00	525.00	525.00	525.00	528.00	523.00	523.00	524.00	523.00	521.00	520.00	522.00	522.00	525.00	526.00	527.00	528.00	528.00	529.00	531.00	529.00	530.00	534.00	531.00	531.00	535.00	537.00	532.00	532.00	533.00	534.00	535.00	537.00	536.00	535.00	541.00	543.00	544.00	552.00	554.00	560.00	564.00	559.00	559.00	560.00	562.00	562.00	565.00	561.00	560.00	558.00	559.00	556.00	556.00	558.00	558.00	554.00	550.00	548.00	547.00	550.00	553.00	556.00	561.00	569.00	566.00	562.00	565.00	565.00	566.00	567.00	567.00	564.00	568.00	565.00
423.00	425.00	425.00	426.00	423.00	424.00	422.00	422.00	422.00	424.00	428.00	429.00	430.00	429.00	426.00	424.00	421.00	424.00	422.00	456.00	458.00	459.00	456.00	458.00	462.00	461.00	461.00	457.00	451.00	450.00	452.00	451.00	454.00	453.00	455.00	454.00	458.00	457.00	457.00	460.00	460.00	462.00	459.00	457.00	458.00	460.00	466.00	469.00	469.00	469.00	469.00	468.00	469.00	472.00	468.00	460.00	459.00	457.00	454.00	452.00	455.00	460.00	461.00	464.00	470.00	473.00	474.00	473.00	474.00	470.00	471.00	470.00	469.00	472.00	472.00	473.00	477.00	473.00	478.00	478.00	478.00	479.00	478.00	478.00	479.00	479.00	479.00	478.00	477.00	477.00	479.00	484.00	484.00	485.00	486.00	485.00	485.00	486.00	485.00	487.00	489.00	489.00	491.00	492.00	491.00	490.00	489.00	489.00	489.00	491.00	489.00	491.00	489.00	490.00	490.00	489.00	489.00	490.00	489.00	495.00	496.00	493.00	491.00	492.00	496.00	495.00	496.00	490.00	489.00	493.00	487.00	489.00	492.00	496.00	499.00	499.00	490.00	485.00	486.00	489.00	490.00	489.00	488.00	489.00	498.00	521.00	522.00	532.00	547.00	559.00	553.00	543.00	540.00	535.00	528.00	522.00	516.00	505.00	497.00	496.00	499.00	509.00	515.00	514.00	511.00	508.00	507.00	512.00	512.00	510.00	512.00	525.00	515.00	511.00	508.00	509.00	517.00	519.00	521.00	522.00	524.00	523.00	525.00	525.00	524.00	522.00	521.00	522.00	522.00	522.00	521.00	523.00	523.00	524.00	527.00	528.00	529.00	529.00	530.00	528.00	529.00	529.00	529.00	536.00	529.00	528.00	534.00	535.00	533.00	533.00	533.00	532.00	533.00	534.00	533.00	535.00	540.00	544.00	545.00	550.00	556.00	568.00	569.00	567.00	565.00	566.00	565.00	565.00	564.00	563.00	559.00	555.00	556.00	554.00	556.00	557.00	551.00	548.00	547.00	544.00	545.00	546.00	553.00	558.00	564.00	569.00	567.00	562.00	561.00	562.00	562.00	564.00	563.00	561.00	564.00	567.00
423.00	422.00	422.00	421.00	421.00	423.00	423.00	423.00	422.00	421.00	422.00	422.00	423.00	430.00	439.00	438.00	442.00	448.00	441.00	456.00	458.00	456.00	458.00	455.00	459.00	458.00	460.00	457.00	453.00	453.00	453.00	452.00	454.00	454.00	454.00	453.00	457.00	459.00	458.00	459.00	459.00	459.00	459.00	460.00	460.00	460.00	467.00	468.00	468.00	468.00	468.00	468.00	469.00	469.00	465.00	458.00	455.00	455.00	453.00	455.00	456.00	457.00	457.00	458.00	465.00	472.00	473.00	474.00	471.00	468.00	469.00	470.00	472.00	467.00	463.00	466.00	468.00	476.00	476.00	477.00	479.00	479.00	480.00	477.00	479.00	479.00	480.00	481.00	480.00	480.00	480.00	485.00	486.00	486.00	486.00	487.00	487.00	489.00	487.00	488.00	489.00	490.00	490.00	489.00	490.00	491.00	488.00	488.00	490.00	491.00	492.00	490.00	490.00	491.00	492.00	492.00	491.00	489.00	488.00	490.00	489.00	487.00	492.00	490.00	495.00	493.00	491.00	488.00	489.00	494.00	489.00	489.00	495.00	499.00	497.00	496.00	491.00	488.00	488.00	493.00	495.00	492.00	490.00	492.00	495.00	508.00	520.00	543.00	542.00	549.00	549.00	536.00	528.00	520.00	515.00	508.00	509.00	500.00	499.00	500.00	501.00	504.00	510.00	507.00	511.00	509.00	508.00	509.00	512.00	511.00	509.00	529.00	521.00	513.00	507.00	505.00	516.00	520.00	521.00	523.00	525.00	524.00	523.00	523.00	522.00	523.00	519.00	518.00	518.00	521.00	521.00	520.00	521.00	528.00	526.00	528.00	528.00	525.00	530.00	528.00	530.00	533.00	528.00	536.00	528.00	527.00	532.00	534.00	536.00	534.00	534.00	534.00	535.00	532.00	534.00	537.00	541.00	544.00	547.00	549.00	556.00	562.00	564.00	565.00	566.00	572.00	569.00	566.00	565.00	558.00	557.00	553.00	551.00	551.00	557.00	551.00	548.00	546.00	544.00	544.00	544.00	546.00	554.00	562.00	567.00	568.00	565.00	563.00	558.00	558.00	560.00	561.00	563.00	559.00	562.00	566.00
429.00	428.00	427.00	427.00	423.00	422.00	420.00	420.00	421.00	422.00	424.00	424.00	432.00	456.00	456.00	452.00	453.00	452.00	452.00	457.00	459.00	458.00	459.00	461.00	457.00	456.00	456.00	460.00	457.00	456.00	452.00	454.00	452.00	452.00	456.00	456.00	454.00	460.00	458.00	459.00	458.00	458.00	459.00	458.00	462.00	462.00	468.00	470.00	467.00	469.00	471.00	469.00	466.00	462.00	457.00	453.00	458.00	455.00	456.00	455.00	458.00	458.00	457.00	457.00	462.00	468.00	473.00	470.00	468.00	466.00	467.00	469.00	468.00	469.00	466.00	466.00	469.00	479.00	479.00	479.00	479.00	479.00	480.00	479.00	478.00	481.00	482.00	485.00	484.00	484.00	484.00	488.00	484.00	485.00	485.00	489.00	487.00	488.00	486.00	488.00	487.00	488.00	489.00	490.00	490.00	490.00	491.00	491.00	491.00	492.00	494.00	492.00	491.00	489.00	490.00	490.00	491.00	491.00	487.00	484.00	486.00	488.00	492.00	492.00	492.00	487.00	487.00	487.00	488.00	491.00	491.00	496.00	496.00	495.00	493.00	494.00	496.00	493.00	491.00	495.00	495.00	494.00	496.00	493.00	496.00	511.00	535.00	542.00	535.00	534.00	541.00	520.00	520.00	506.00	504.00	500.00	503.00	500.00	499.00	500.00	502.00	502.00	502.00	499.00	506.00	515.00	516.00	511.00	511.00	514.00	512.00	528.00	516.00	516.00	512.00	506.00	508.00	516.00	519.00	522.00	523.00	524.00	519.00	520.00	522.00	520.00	519.00	519.00	520.00	520.00	520.00	522.00	522.00	529.00	526.00	528.00	526.00	522.00	524.00	527.00	528.00	533.00	529.00	533.00	529.00	525.00	529.00	538.00	535.00	537.00	537.00	536.00	534.00	534.00	535.00	538.00	543.00	545.00	548.00	551.00	557.00	558.00	560.00	563.00	569.00	571.00	568.00	564.00	561.00	557.00	553.00	550.00	549.00	553.00	553.00	547.00	546.00	543.00	542.00	543.00	545.00	547.00	551.00	563.00	566.00	564.00	565.00	565.00	558.00	559.00	559.00	560.00	562.00	563.00	560.00	561.00
422.00	422.00	424.00	431.00	435.00	443.00	445.00	445.00	445.00	444.00	446.00	449.00	453.00	453.00	457.00	458.00	456.00	457.00	457.00	463.00	461.00	463.00	463.00	456.00	462.00	463.00	462.00	463.00	453.00	453.00	450.00	451.00	458.00	458.00	461.00	472.00	472.00	458.00	456.00	452.00	453.00	456.00	457.00	458.00	458.00	463.00	466.00	468.00	466.00	469.00	464.00	460.00	456.00	455.00	452.00	452.00	475.00	470.00	470.00	470.00	473.00	476.00	475.00	467.00	463.00	464.00	467.00	470.00	469.00	469.00	470.00	472.00	474.00	481.00	482.00	483.00	483.00	480.00	472.00	474.00	479.00	482.00	483.00	484.00	484.00	484.00	486.00	485.00	486.00	485.00	485.00	487.00	486.00	486.00	486.00	487.00	488.00	488.00	489.00	490.00	490.00	490.00	488.00	487.00	488.00	489.00	490.00	489.00	491.00	490.00	488.00	489.00	490.00	492.00	490.00	490.00	491.00	492.00	493.00	493.00	493.00	495.00	491.00	488.00	491.00	494.00	495.00	498.00	497.00	495.00	496.00	490.00	495.00	495.00	494.00	497.00	498.00	499.00	499.00	496.00	498.00	493.00	491.00	488.00	491.00	544.00	532.00	527.00	522.00	511.00	505.00	506.00	511.00	499.00	501.00	499.00	501.00	501.00	501.00	502.00	501.00	499.00	495.00	491.00	490.00	500.00	518.00	511.00	509.00	512.00	513.00	505.00	510.00	518.00	508.00	512.00	509.00	517.00	520.00	520.00	518.00	521.00	520.00	522.00	521.00	520.00	522.00	521.00	522.00	522.00	522.00	525.00	530.00	521.00	527.00	525.00	525.00	519.00	518.00	528.00	526.00	528.00	531.00	531.00	534.00	532.00	523.00	531.00	537.00	539.00	539.00	539.00	538.00	536.00	537.00	541.00	552.00	557.00	564.00	562.00	563.00	562.00	565.00	568.00	567.00	565.00	563.00	558.00	555.00	555.00	550.00	547.00	549.00	550.00	546.00	542.00	539.00	541.00	543.00	548.00	550.00	550.00	555.00	556.00	557.00	557.00	556.00	555.00	561.00	560.00	557.00	558.00	560.00	561.00	561.00	561.00
418.00	423.00	427.00	428.00	430.00	434.00	432.00	436.00	438.00	442.00	452.00	449.00	448.00	449.00	456.00	458.00	459.00	463.00	461.00	463.00	462.00	462.00	462.00	460.00	465.00	466.00	468.00	463.00	451.00	452.00	450.00	450.00	457.00	460.00	466.00	467.00	475.00	461.00	455.00	455.00	452.00	455.00	454.00	457.00	460.00	464.00	469.00	468.00	467.00	464.00	458.00	455.00	454.00	452.00	451.00	462.00	477.00	476.00	477.00	475.00	479.00	482.00	475.00	468.00	464.00	465.00	465.00	474.00	474.00	473.00	475.00	475.00	477.00	479.00	481.00	481.00	477.00	469.00	469.00	473.00	475.00	477.00	482.00	484.00	485.00	485.00	486.00	485.00	487.00	485.00	486.00	486.00	486.00	485.00	487.00	487.00	487.00	488.00	489.00	490.00	487.00	487.00	487.00	482.00	486.00	487.00	486.00	486.00	488.00	489.00	491.00	488.00	487.00	491.00	491.00	492.00	491.00	490.00	492.00	490.00	493.00	492.00	489.00	492.00	495.00	496.00	497.00	494.00	495.00	491.00	497.00	489.00	495.00	499.00	498.00	499.00	501.00	501.00	501.00	499.00	500.00	495.00	490.00	489.00	496.00	534.00	528.00	521.00	512.00	504.00	501.00	499.00	503.00	496.00	503.00	503.00	502.00	505.00	499.00	501.00	500.00	499.00	492.00	488.00	488.00	492.00	505.00	508.00	504.00	507.00	509.00	507.00	507.00	507.00	503.00	507.00	510.00	517.00	519.00	520.00	517.00	520.00	523.00	521.00	519.00	518.00	520.00	522.00	521.00	522.00	523.00	530.00	527.00	522.00	526.00	526.00	523.00	520.00	519.00	518.00	521.00	526.00	530.00	532.00	537.00	534.00	525.00	527.00	530.00	534.00	539.00	541.00	543.00	541.00	541.00	547.00	559.00	559.00	559.00	559.00	556.00	557.00	562.00	566.00	566.00	563.00	560.00	560.00	555.00	551.00	548.00	546.00	549.00	548.00	541.00	540.00	539.00	541.00	542.00	553.00	552.00	554.00	557.00	556.00	558.00	556.00	556.00	555.00	558.00	559.00	558.00	558.00	559.00	559.00	560.00	560.00
416.00	416.00	418.00	422.00	424.00	426.00	429.00	432.00	433.00	432.00	433.00	435.00	436.00	445.00	453.00	456.00	461.00	462.00	464.00	459.00	459.00	459.00	460.00	461.00	469.00	471.00	471.00	464.00	455.00	451.00	449.00	447.00	458.00	463.00	475.00	477.00	476.00	458.00	458.00	458.00	459.00	452.00	457.00	457.00	461.00	462.00	466.00	461.00	462.00	459.00	450.00	450.00	452.00	452.00	452.00	467.00	474.00	474.00	476.00	477.00	479.00	476.00	471.00	468.00	464.00	465.00	467.00	475.00	479.00	479.00	477.00	475.00	475.00	476.00	478.00	473.00	467.00	465.00	467.00	469.00	471.00	472.00	483.00	485.00	486.00	485.00	486.00	487.00	485.00	485.00	486.00	486.00	485.00	486.00	488.00	486.00	485.00	486.00	489.00	490.00	484.00	487.00	485.00	484.00	488.00	488.00	485.00	488.00	489.00	489.00	490.00	490.00	489.00	490.00	490.00	492.00	493.00	491.00	491.00	491.00	493.00	493.00	495.00	492.00	491.00	491.00	493.00	493.00	493.00	492.00	496.00	492.00	494.00	497.00	496.00	497.00	502.00	502.00	501.00	501.00	499.00	500.00	492.00	490.00	498.00	521.00	515.00	522.00	508.00	503.00	499.00	500.00	500.00	500.00	503.00	497.00	500.00	506.00	500.00	500.00	500.00	499.00	494.00	489.00	487.00	489.00	497.00	506.00	508.00	504.00	505.00	510.00	506.00	506.00	506.00	509.00	511.00	516.00	517.00	518.00	516.00	517.00	521.00	518.00	519.00	517.00	523.00	521.00	522.00	523.00	526.00	526.00	524.00	525.00	524.00	524.00	523.00	521.00	517.00	506.00	506.00	518.00	527.00	534.00	539.00	537.00	530.00	529.00	531.00	532.00	534.00	540.00	545.00	544.00	546.00	552.00	555.00	548.00	551.00	549.00	548.00	555.00	557.00	560.00	566.00	562.00	559.00	558.00	554.00	551.00	545.00	547.00	548.00	546.00	541.00	540.00	540.00	543.00	547.00	555.00	555.00	557.00	558.00	558.00	557.00	556.00	555.00	556.00	557.00	560.00	561.00	558.00	558.00	559.00	561.00	561.00
