111.00	110.00	117.00	111.00	98.00	110.00	117.00	115.00	114.00	102.00	102.00	103.00	104.00	106.00	105.00	102.00	104.00	109.00	119.00	128.00	120.00	127.00	123.00	126.00	129.00	136.00	130.00	121.00	141.00	133.00	137.00	123.00	135.00	151.00	150.00	141.00	128.00	129.00	137.00	137.00	142.00	148.00	162.00	167.00	159.00	158.00	159.00	161.00	169.00	167.00	170.00	171.00	176.00	175.00	169.00	159.00	156.00	165.00	159.00	149.00	158.00	152.00	166.00	170.00	179.00	181.00	173.00	169.00	150.00	148.00	165.00	161.00	143.00	139.00	144.00	131.00	130.00	153.00	143.00	148.00	157.00	183.00	179.00	167.00	173.00	167.00	177.00	175.00	180.00	171.00	164.00	182.00	167.00	155.00	182.00	152.00	155.00	171.00	171.00	176.00	161.00	158.00	162.00	156.00	185.00	177.00	181.00	166.00	170.00	182.00	183.00	169.00	165.00	170.00	169.00	190.00	201.00	200.00	190.00	191.00	190.00	205.00	202.00	199.00	189.00	170.00	195.00	206.00	188.00	189.00	173.00	191.00	196.00	177.00	168.00	165.00	212.00	208.00	201.00	184.00	205.00	207.00	198.00	189.00	206.00	183.00	180.00	173.00	165.00	180.00	181.00	183.00	191.00	207.00	200.00	193.00	187.00	169.00	187.00	187.00	208.00	204.00	202.00	179.00	195.00	197.00	206.00	228.00	226.00	224.00	225.00	229.00	213.00	212.00	201.00	195.00	191.00	183.00	203.00	189.00	180.00	207.00	203.00	210.00	230.00	249.00	286.00	310.00	333.00	358.00	287.00	262.00	260.00	268.00	250.00	246.00	278.00	337.00	273.00	273.00	251.00	243.00	250.00	221.00	231.00	238.00	249.00	276.00	313.00	371.00	334.00	298.00	339.00	328.00	328.00	300.00	313.00	324.00	356.00	354.00	356.00	326.00	301.00	314.00	340.00	366.00	369.00	369.00	365.00	354.00	328.00	321.00	298.00	313.00	283.00	303.00	329.00	351.00	355.00	358.00	360.00	357.00	333.00	284.00	301.00	281.00	294.00	335.00	366.00	367.00	365.00	366.00	347.00	332.00	335.00	363.00
116.00	114.00	121.00	117.00	99.00	102.00	114.00	110.00	109.00	100.00	98.00	104.00	104.00	105.00	109.00	108.00	105.00	105.00	116.00	117.00	124.00	139.00	135.00	139.00	135.00	139.00	136.00	126.00	138.00	131.00	130.00	122.00	134.00	149.00	146.00	137.00	132.00	127.00	134.00	146.00	155.00	163.00	166.00	171.00	168.00	170.00	162.00	171.00	168.00	172.00	178.00	179.00	172.00	170.00	172.00	155.00	159.00	167.00	157.00	157.00	166.00	152.00	150.00	175.00	155.00	174.00	172.00	162.00	164.00	151.00	143.00	155.00	159.00	149.00	137.00	129.00	134.00	145.00	149.00	156.00	168.00	186.00	176.00	187.00	174.00	162.00	169.00	189.00	179.00	173.00	164.00	186.00	186.00	165.00	172.00	159.00	146.00	158.00	167.00	172.00	153.00	159.00	167.00	175.00	177.00	184.00	167.00	160.00	156.00	184.00	170.00	165.00	165.00	164.00	171.00	187.00	199.00	192.00	203.00	183.00	195.00	195.00	182.00	205.00	191.00	169.00	190.00	201.00	183.00	182.00	174.00	177.00	178.00	160.00	162.00	172.00	209.00	204.00	187.00	179.00	199.00	202.00	189.00	187.00	193.00	200.00	201.00	183.00	167.00	191.00	199.00	196.00	191.00	195.00	208.00	192.00	183.00	177.00	197.00	196.00	208.00	200.00	197.00	174.00	188.00	199.00	211.00	227.00	218.00	223.00	226.00	230.00	209.00	203.00	203.00	199.00	196.00	183.00	185.00	175.00	189.00	213.00	212.00	205.00	224.00	264.00	255.00	270.00	310.00	353.00	315.00	262.00	246.00	240.00	230.00	235.00	250.00	328.00	298.00	248.00	245.00	236.00	230.00	224.00	239.00	237.00	241.00	254.00	328.00	360.00	301.00	296.00	290.00	287.00	297.00	300.00	340.00	343.00	359.00	362.00	365.00	348.00	318.00	302.00	329.00	363.00	367.00	369.00	366.00	363.00	347.00	339.00	321.00	310.00	278.00	300.00	320.00	339.00	356.00	359.00	358.00	340.00	329.00	287.00	309.00	290.00	285.00	310.00	359.00	364.00	368.00	372.00	353.00	347.00	358.00	360.00
116.00	108.00	115.00	117.00	101.00	104.00	113.00	118.00	111.00	107.00	106.00	102.00	102.00	105.00	109.00	111.00	106.00	109.00	109.00	113.00	125.00	140.00	141.00	140.00	147.00	145.00	133.00	128.00	148.00	136.00	127.00	121.00	134.00	155.00	153.00	150.00	131.00	152.00	149.00	156.00	162.00	167.00	169.00	164.00	168.00	164.00	162.00	167.00	172.00	175.00	182.00	179.00	174.00	169.00	168.00	163.00	154.00	152.00	157.00	149.00	155.00	160.00	141.00	166.00	147.00	154.00	174.00	160.00	172.00	162.00	152.00	141.00	147.00	150.00	137.00	128.00	130.00	146.00	155.00	153.00	171.00	173.00	184.00	194.00	163.00	159.00	178.00	184.00	178.00	170.00	168.00	171.00	170.00	172.00	158.00	178.00	154.00	150.00	158.00	159.00	167.00	179.00	181.00	178.00	171.00	175.00	171.00	165.00	163.00	170.00	164.00	180.00	182.00	185.00	179.00	186.00	194.00	187.00	189.00	184.00	187.00	192.00	186.00	188.00	179.00	167.00	173.00	201.00	187.00	182.00	190.00	173.00	164.00	167.00	190.00	174.00	206.00	195.00	188.00	184.00	206.00	202.00	194.00	179.00	187.00	193.00	205.00	170.00	169.00	192.00	195.00	203.00	197.00	185.00	199.00	199.00	189.00	170.00	181.00	183.00	199.00	193.00	190.00	176.00	192.00	200.00	215.00	219.00	212.00	219.00	225.00	229.00	222.00	211.00	212.00	207.00	208.00	193.00	184.00	191.00	197.00	207.00	215.00	217.00	217.00	259.00	251.00	254.00	263.00	332.00	318.00	273.00	253.00	232.00	228.00	252.00	262.00	256.00	273.00	231.00	243.00	231.00	224.00	228.00	227.00	223.00	231.00	259.00	317.00	318.00	273.00	277.00	268.00	298.00	315.00	324.00	338.00	358.00	364.00	364.00	366.00	352.00	323.00	323.00	327.00	361.00	368.00	368.00	367.00	366.00	363.00	355.00	317.00	306.00	279.00	301.00	332.00	340.00	357.00	364.00	359.00	324.00	301.00	304.00	329.00	309.00	285.00	293.00	350.00	363.00	371.00	373.00	362.00	357.00	364.00	369.00
109.00	108.00	111.00	111.00	106.00	99.00	109.00	117.00	120.00	111.00	116.00	108.00	107.00	108.00	107.00	112.00	107.00	112.00	111.00	112.00	116.00	129.00	127.00	130.00	146.00	148.00	143.00	137.00	145.00	138.00	124.00	120.00	139.00	154.00	154.00	138.00	124.00	156.00	159.00	166.00	160.00	166.00	158.00	166.00	160.00	153.00	155.00	157.00	172.00	176.00	170.00	173.00	169.00	167.00	163.00	160.00	160.00	152.00	150.00	152.00	148.00	143.00	140.00	140.00	143.00	149.00	177.00	159.00	175.00	173.00	170.00	159.00	140.00	138.00	133.00	141.00	148.00	142.00	153.00	172.00	172.00	156.00	180.00	177.00	163.00	163.00	172.00	181.00	172.00	177.00	174.00	161.00	162.00	157.00	155.00	171.00	173.00	151.00	148.00	152.00	173.00	174.00	169.00	180.00	164.00	163.00	163.00	157.00	155.00	176.00	161.00	171.00	184.00	196.00	185.00	195.00	190.00	185.00	185.00	177.00	186.00	193.00	188.00	200.00	185.00	167.00	185.00	197.00	194.00	183.00	176.00	168.00	172.00	185.00	193.00	185.00	201.00	197.00	179.00	183.00	199.00	201.00	198.00	175.00	188.00	184.00	193.00	174.00	167.00	178.00	183.00	194.00	198.00	187.00	186.00	187.00	181.00	180.00	177.00	188.00	209.00	209.00	201.00	179.00	187.00	199.00	197.00	209.00	221.00	224.00	234.00	239.00	210.00	213.00	202.00	208.00	197.00	177.00	174.00	208.00	205.00	195.00	202.00	223.00	237.00	246.00	239.00	263.00	259.00	294.00	276.00	252.00	244.00	237.00	233.00	249.00	249.00	243.00	260.00	222.00	230.00	230.00	216.00	211.00	212.00	217.00	218.00	242.00	267.00	281.00	265.00	254.00	283.00	317.00	333.00	342.00	353.00	360.00	366.00	366.00	366.00	355.00	327.00	330.00	348.00	364.00	366.00	366.00	369.00	367.00	366.00	357.00	336.00	323.00	291.00	291.00	305.00	334.00	351.00	361.00	360.00	343.00	318.00	323.00	333.00	306.00	305.00	290.00	337.00	352.00	365.00	374.00	366.00	360.00	366.00	368.00
128.00	126.00	135.00	124.00	121.00	114.00	108.00	120.00	125.00	124.00	124.00	124.00	119.00	121.00	118.00	119.00	120.00	115.00	118.00	124.00	120.00	118.00	117.00	124.00	137.00	144.00	142.00	139.00	147.00	131.00	120.00	120.00	139.00	148.00	143.00	130.00	125.00	156.00	157.00	165.00	155.00	150.00	146.00	151.00	160.00	160.00	157.00	163.00	164.00	156.00	149.00	162.00	169.00	177.00	180.00	168.00	168.00	170.00	173.00	161.00	167.00	176.00	176.00	151.00	152.00	143.00	139.00	136.00	146.00	158.00	167.00	162.00	149.00	141.00	139.00	139.00	137.00	169.00	172.00	183.00	184.00	164.00	164.00	165.00	186.00	176.00	160.00	162.00	190.00	176.00	177.00	158.00	168.00	176.00	179.00	152.00	149.00	144.00	152.00	167.00	170.00	165.00	165.00	154.00	152.00	152.00	147.00	157.00	173.00	168.00	163.00	153.00	152.00	183.00	184.00	192.00	180.00	178.00	174.00	173.00	179.00	186.00	180.00	180.00	177.00	165.00	181.00	185.00	172.00	188.00	178.00	150.00	160.00	166.00	175.00	177.00	191.00	175.00	175.00	187.00	204.00	199.00	192.00	171.00	176.00	185.00	166.00	169.00	171.00	180.00	189.00	198.00	198.00	206.00	184.00	197.00	178.00	165.00	186.00	195.00	188.00	196.00	190.00	173.00	164.00	174.00	184.00	205.00	212.00	214.00	197.00	199.00	202.00	196.00	189.00	180.00	177.00	160.00	176.00	184.00	198.00	200.00	205.00	237.00	249.00	231.00	221.00	240.00	225.00	240.00	263.00	254.00	250.00	240.00	221.00	211.00	217.00	233.00	245.00	230.00	220.00	203.00	199.00	214.00	224.00	237.00	249.00	277.00	258.00	243.00	243.00	254.00	318.00	355.00	326.00	277.00	287.00	324.00	313.00	296.00	272.00	298.00	309.00	344.00	341.00	359.00	361.00	361.00	360.00	360.00	365.00	371.00	367.00	354.00	294.00	318.00	318.00	305.00	321.00	363.00	360.00	339.00	350.00	358.00	349.00	354.00	346.00	328.00	311.00	336.00	355.00	361.00	370.00	364.00	370.00	369.00
124.00	132.00	144.00	133.00	117.00	119.00	118.00	113.00	123.00	127.00	128.00	138.00	136.00	118.00	118.00	122.00	126.00	122.00	125.00	125.00	123.00	125.00	120.00	124.00	137.00	145.00	150.00	141.00	136.00	130.00	118.00	124.00	134.00	141.00	130.00	127.00	127.00	151.00	155.00	167.00	153.00	145.00	144.00	149.00	155.00	156.00	152.00	161.00	158.00	151.00	146.00	161.00	163.00	170.00	181.00	180.00	169.00	181.00	170.00	161.00	176.00	180.00	165.00	155.00	166.00	165.00	148.00	140.00	137.00	145.00	158.00	165.00	142.00	159.00	147.00	156.00	139.00	158.00	162.00	179.00	179.00	163.00	181.00	182.00	187.00	183.00	154.00	169.00	190.00	176.00	178.00	164.00	165.00	165.00	162.00	161.00	147.00	140.00	150.00	149.00	173.00	164.00	150.00	157.00	147.00	147.00	162.00	171.00	174.00	157.00	157.00	147.00	159.00	191.00	178.00	189.00	181.00	183.00	165.00	174.00	187.00	193.00	183.00	184.00	178.00	168.00	169.00	178.00	167.00	169.00	174.00	155.00	167.00	177.00	171.00	184.00	188.00	174.00	175.00	202.00	217.00	204.00	188.00	177.00	161.00	183.00	157.00	170.00	168.00	179.00	193.00	201.00	190.00	189.00	169.00	171.00	167.00	172.00	187.00	185.00	183.00	198.00	195.00	163.00	169.00	173.00	182.00	209.00	213.00	209.00	200.00	189.00	194.00	205.00	202.00	193.00	163.00	161.00	182.00	182.00	186.00	206.00	221.00	242.00	245.00	224.00	213.00	224.00	219.00	246.00	254.00	245.00	234.00	237.00	229.00	216.00	212.00	223.00	231.00	221.00	216.00	203.00	200.00	225.00	232.00	246.00	263.00	269.00	247.00	238.00	248.00	262.00	324.00	319.00	295.00	270.00	255.00	268.00	270.00	267.00	256.00	266.00	287.00	326.00	348.00	354.00	362.00	364.00	362.00	359.00	363.00	370.00	366.00	337.00	301.00	328.00	344.00	317.00	338.00	372.00	363.00	358.00	360.00	363.00	362.00	360.00	344.00	325.00	316.00	316.00	332.00	348.00	375.00	373.00	367.00	362.00
152.00	139.00	148.00	124.00	129.00	131.00	135.00	125.00	127.00	130.00	134.00	137.00	135.00	120.00	123.00	128.00	129.00	133.00	138.00	131.00	133.00	135.00	127.00	132.00	136.00	136.00	144.00	139.00	123.00	125.00	117.00	127.00	134.00	136.00	129.00	119.00	131.00	150.00	150.00	161.00	164.00	150.00	140.00	150.00	152.00	145.00	157.00	155.00	152.00	149.00	145.00	147.00	155.00	164.00	175.00	187.00	177.00	175.00	169.00	167.00	168.00	165.00	159.00	164.00	176.00	172.00	155.00	161.00	142.00	153.00	152.00	152.00	134.00	153.00	164.00	158.00	149.00	144.00	168.00	182.00	175.00	161.00	181.00	177.00	178.00	187.00	150.00	163.00	180.00	168.00	174.00	159.00	166.00	157.00	167.00	156.00	144.00	141.00	142.00	158.00	160.00	163.00	149.00	164.00	145.00	161.00	173.00	164.00	160.00	154.00	150.00	149.00	167.00	187.00	172.00	186.00	178.00	175.00	169.00	177.00	186.00	205.00	188.00	188.00	179.00	176.00	159.00	185.00	174.00	163.00	166.00	155.00	173.00	166.00	167.00	177.00	178.00	166.00	172.00	189.00	201.00	202.00	191.00	182.00	162.00	176.00	167.00	181.00	187.00	197.00	201.00	202.00	194.00	181.00	169.00	170.00	169.00	161.00	186.00	177.00	171.00	189.00	185.00	168.00	169.00	177.00	193.00	209.00	216.00	208.00	197.00	186.00	189.00	204.00	209.00	207.00	172.00	163.00	189.00	199.00	198.00	203.00	226.00	242.00	229.00	221.00	207.00	215.00	233.00	239.00	246.00	234.00	225.00	235.00	229.00	212.00	198.00	216.00	221.00	210.00	203.00	195.00	203.00	220.00	226.00	239.00	255.00	260.00	241.00	230.00	243.00	254.00	280.00	268.00	268.00	261.00	244.00	247.00	251.00	254.00	254.00	262.00	277.00	298.00	310.00	358.00	367.00	371.00	370.00	366.00	367.00	366.00	366.00	339.00	310.00	327.00	347.00	343.00	347.00	376.00	368.00	372.00	365.00	364.00	366.00	361.00	346.00	324.00	339.00	334.00	323.00	337.00	373.00	373.00	373.00	366.00
160.00	148.00	148.00	142.00	138.00	139.00	132.00	126.00	121.00	127.00	140.00	141.00	142.00	125.00	125.00	128.00	147.00	135.00	129.00	129.00	139.00	153.00	147.00	144.00	128.00	132.00	143.00	137.00	128.00	122.00	115.00	122.00	134.00	138.00	126.00	120.00	147.00	156.00	155.00	156.00	160.00	153.00	144.00	146.00	143.00	147.00	162.00	150.00	147.00	139.00	143.00	153.00	165.00	164.00	174.00	188.00	172.00	179.00	180.00	168.00	169.00	170.00	162.00	171.00	164.00	173.00	160.00	160.00	134.00	153.00	146.00	136.00	130.00	152.00	149.00	162.00	166.00	166.00	162.00	172.00	165.00	168.00	168.00	169.00	175.00	181.00	146.00	156.00	171.00	161.00	167.00	162.00	151.00	149.00	172.00	159.00	159.00	144.00	139.00	157.00	149.00	159.00	147.00	160.00	145.00	156.00	165.00	149.00	147.00	163.00	168.00	163.00	158.00	180.00	169.00	185.00	186.00	173.00	172.00	178.00	185.00	193.00	184.00	176.00	163.00	172.00	164.00	181.00	176.00	167.00	157.00	157.00	159.00	164.00	180.00	194.00	184.00	173.00	169.00	183.00	191.00	194.00	197.00	194.00	174.00	173.00	167.00	177.00	181.00	208.00	197.00	192.00	211.00	194.00	177.00	168.00	156.00	174.00	178.00	168.00	181.00	173.00	171.00	181.00	183.00	182.00	200.00	218.00	218.00	213.00	205.00	204.00	191.00	206.00	202.00	197.00	178.00	162.00	188.00	197.00	191.00	206.00	221.00	230.00	216.00	218.00	202.00	207.00	221.00	240.00	250.00	244.00	234.00	218.00	208.00	199.00	196.00	198.00	207.00	209.00	197.00	193.00	196.00	205.00	214.00	233.00	253.00	244.00	235.00	223.00	243.00	256.00	263.00	254.00	254.00	252.00	246.00	235.00	242.00	255.00	242.00	266.00	268.00	277.00	295.00	367.00	370.00	373.00	373.00	372.00	370.00	365.00	355.00	340.00	316.00	338.00	354.00	358.00	361.00	380.00	377.00	376.00	373.00	364.00	369.00	347.00	337.00	326.00	351.00	344.00	342.00	333.00	369.00	376.00	371.00	369.00
148.00	136.00	146.00	148.00	140.00	140.00	142.00	136.00	135.00	141.00	141.00	133.00	130.00	130.00	128.00	132.00	130.00	136.00	141.00	143.00	157.00	136.00	129.00	135.00	135.00	125.00	122.00	122.00	121.00	117.00	114.00	122.00	143.00	139.00	130.00	133.00	155.00	155.00	160.00	157.00	150.00	156.00	142.00	149.00	152.00	157.00	143.00	137.00	141.00	151.00	144.00	145.00	155.00	167.00	175.00	169.00	169.00	164.00	173.00	165.00	178.00	164.00	157.00	156.00	141.00	145.00	149.00	141.00	138.00	143.00	133.00	127.00	125.00	144.00	143.00	153.00	159.00	170.00	158.00	164.00	165.00	151.00	160.00	158.00	185.00	176.00	151.00	172.00	179.00	170.00	166.00	164.00	157.00	145.00	163.00	150.00	154.00	142.00	140.00	153.00	138.00	141.00	142.00	140.00	143.00	147.00	150.00	148.00	159.00	167.00	179.00	181.00	179.00	160.00	160.00	181.00	167.00	158.00	168.00	168.00	153.00	165.00	172.00	176.00	172.00	183.00	166.00	174.00	176.00	178.00	174.00	159.00	144.00	161.00	175.00	183.00	174.00	178.00	170.00	164.00	180.00	177.00	176.00	173.00	166.00	167.00	155.00	176.00	180.00	192.00	184.00	179.00	185.00	180.00	167.00	152.00	164.00	169.00	181.00	174.00	178.00	164.00	151.00	172.00	184.00	194.00	201.00	217.00	211.00	196.00	184.00	179.00	174.00	173.00	176.00	180.00	166.00	154.00	173.00	171.00	175.00	199.00	211.00	207.00	207.00	202.00	207.00	220.00	227.00	226.00	237.00	236.00	242.00	237.00	225.00	212.00	202.00	192.00	200.00	208.00	194.00	191.00	205.00	226.00	230.00	233.00	235.00	227.00	216.00	227.00	248.00	256.00	263.00	253.00	244.00	236.00	234.00	226.00	227.00	228.00	240.00	250.00	256.00	251.00	262.00	333.00	374.00	376.00	376.00	375.00	377.00	369.00	361.00	354.00	316.00	347.00	358.00	361.00	371.00	378.00	381.00	377.00	374.00	334.00	278.00	270.00	301.00	302.00	282.00	302.00	322.00	370.00	371.00	376.00	374.00	372.00
137.00	136.00	138.00	140.00	134.00	129.00	127.00	134.00	130.00	125.00	125.00	121.00	124.00	127.00	124.00	127.00	136.00	135.00	137.00	149.00	152.00	140.00	133.00	142.00	130.00	122.00	137.00	134.00	133.00	122.00	113.00	120.00	132.00	141.00	128.00	144.00	147.00	154.00	163.00	152.00	145.00	155.00	147.00	156.00	158.00	163.00	139.00	150.00	156.00	155.00	151.00	155.00	154.00	164.00	177.00	164.00	163.00	159.00	155.00	172.00	166.00	162.00	156.00	143.00	142.00	142.00	143.00	143.00	146.00	134.00	124.00	127.00	146.00	162.00	159.00	161.00	177.00	176.00	152.00	159.00	161.00	147.00	172.00	169.00	183.00	180.00	148.00	170.00	170.00	162.00	164.00	165.00	158.00	147.00	165.00	144.00	141.00	140.00	142.00	151.00	136.00	150.00	151.00	155.00	159.00	161.00	151.00	163.00	162.00	178.00	179.00	179.00	177.00	162.00	159.00	171.00	171.00	154.00	161.00	170.00	155.00	162.00	166.00	181.00	181.00	177.00	163.00	192.00	192.00	187.00	177.00	167.00	145.00	169.00	176.00	177.00	176.00	178.00	162.00	163.00	176.00	173.00	174.00	174.00	168.00	164.00	156.00	171.00	178.00	187.00	181.00	168.00	168.00	163.00	148.00	150.00	168.00	178.00	181.00	182.00	182.00	169.00	158.00	169.00	179.00	191.00	193.00	201.00	201.00	196.00	193.00	189.00	189.00	187.00	182.00	185.00	160.00	161.00	171.00	185.00	183.00	205.00	204.00	199.00	189.00	211.00	216.00	216.00	222.00	225.00	222.00	224.00	238.00	243.00	231.00	225.00	212.00	198.00	196.00	200.00	188.00	201.00	209.00	223.00	226.00	236.00	237.00	216.00	217.00	231.00	243.00	250.00	258.00	251.00	243.00	238.00	224.00	221.00	231.00	246.00	243.00	261.00	261.00	239.00	260.00	312.00	364.00	375.00	377.00	375.00	378.00	377.00	373.00	359.00	318.00	328.00	340.00	362.00	375.00	370.00	372.00	378.00	371.00	286.00	260.00	253.00	264.00	266.00	254.00	272.00	312.00	366.00	373.00	375.00	376.00	374.00
121.00	133.00	134.00	130.00	128.00	127.00	125.00	126.00	123.00	120.00	122.00	124.00	133.00	138.00	129.00	132.00	138.00	143.00	147.00	154.00	147.00	135.00	139.00	133.00	121.00	131.00	137.00	134.00	135.00	123.00	115.00	112.00	121.00	135.00	130.00	141.00	139.00	157.00	159.00	151.00	145.00	146.00	149.00	148.00	149.00	150.00	149.00	156.00	153.00	155.00	157.00	163.00	170.00	173.00	176.00	168.00	168.00	162.00	147.00	153.00	148.00	162.00	172.00	147.00	147.00	156.00	152.00	138.00	149.00	125.00	122.00	132.00	152.00	161.00	177.00	171.00	179.00	182.00	153.00	155.00	160.00	145.00	172.00	171.00	156.00	161.00	148.00	161.00	162.00	156.00	156.00	155.00	148.00	149.00	164.00	151.00	138.00	134.00	147.00	151.00	134.00	158.00	162.00	162.00	159.00	171.00	160.00	162.00	175.00	177.00	176.00	179.00	176.00	170.00	158.00	159.00	169.00	167.00	162.00	181.00	161.00	164.00	180.00	161.00	169.00	161.00	167.00	187.00	185.00	175.00	164.00	158.00	145.00	165.00	173.00	177.00	172.00	170.00	150.00	163.00	175.00	167.00	174.00	175.00	167.00	143.00	146.00	166.00	178.00	182.00	181.00	165.00	157.00	160.00	153.00	171.00	173.00	173.00	172.00	186.00	171.00	161.00	146.00	180.00	187.00	185.00	188.00	187.00	192.00	197.00	193.00	200.00	201.00	188.00	177.00	174.00	155.00	153.00	186.00	195.00	194.00	208.00	203.00	189.00	190.00	217.00	222.00	217.00	222.00	232.00	216.00	219.00	229.00	241.00	214.00	216.00	210.00	201.00	191.00	190.00	186.00	189.00	196.00	224.00	234.00	246.00	243.00	216.00	224.00	237.00	239.00	240.00	238.00	254.00	250.00	243.00	219.00	227.00	237.00	244.00	259.00	262.00	256.00	234.00	243.00	264.00	332.00	363.00	374.00	377.00	384.00	382.00	373.00	357.00	335.00	350.00	338.00	347.00	355.00	370.00	372.00	385.00	330.00	255.00	248.00	242.00	247.00	240.00	250.00	278.00	280.00	325.00	379.00	379.00	380.00	377.00
118.00	139.00	128.00	126.00	124.00	128.00	119.00	119.00	120.00	127.00	127.00	131.00	132.00	138.00	137.00	132.00	135.00	138.00	142.00	152.00	143.00	140.00	141.00	130.00	126.00	133.00	141.00	138.00	147.00	147.00	128.00	113.00	118.00	131.00	128.00	141.00	140.00	144.00	151.00	154.00	150.00	140.00	140.00	139.00	140.00	138.00	160.00	156.00	152.00	154.00	151.00	170.00	171.00	173.00	171.00	154.00	156.00	166.00	153.00	141.00	148.00	161.00	176.00	158.00	143.00	139.00	149.00	136.00	141.00	122.00	128.00	148.00	160.00	149.00	174.00	177.00	174.00	172.00	158.00	145.00	152.00	140.00	167.00	164.00	164.00	151.00	156.00	160.00	157.00	153.00	152.00	147.00	141.00	151.00	161.00	150.00	132.00	136.00	160.00	157.00	131.00	149.00	151.00	165.00	159.00	166.00	168.00	167.00	176.00	176.00	174.00	176.00	174.00	170.00	168.00	150.00	162.00	168.00	168.00	180.00	163.00	159.00	181.00	164.00	153.00	151.00	164.00	181.00	180.00	173.00	156.00	142.00	154.00	166.00	173.00	177.00	166.00	173.00	156.00	157.00	171.00	161.00	171.00	173.00	166.00	146.00	152.00	171.00	172.00	175.00	177.00	175.00	163.00	150.00	156.00	183.00	191.00	181.00	165.00	181.00	165.00	150.00	151.00	181.00	186.00	177.00	184.00	178.00	186.00	182.00	170.00	199.00	202.00	186.00	175.00	171.00	152.00	161.00	175.00	177.00	184.00	197.00	191.00	183.00	196.00	206.00	216.00	221.00	234.00	234.00	220.00	211.00	218.00	227.00	202.00	197.00	195.00	197.00	190.00	185.00	197.00	202.00	202.00	204.00	220.00	232.00	229.00	203.00	216.00	231.00	223.00	224.00	237.00	255.00	252.00	238.00	215.00	217.00	231.00	231.00	257.00	256.00	244.00	231.00	240.00	249.00	288.00	326.00	341.00	355.00	353.00	378.00	364.00	353.00	349.00	360.00	356.00	358.00	360.00	373.00	378.00	356.00	291.00	247.00	238.00	232.00	246.00	234.00	252.00	258.00	264.00	298.00	378.00	379.00	381.00	379.00
114.00	118.00	118.00	115.00	117.00	119.00	123.00	131.00	136.00	143.00	142.00	137.00	141.00	142.00	144.00	135.00	136.00	143.00	145.00	157.00	144.00	140.00	131.00	132.00	136.00	136.00	143.00	147.00	132.00	124.00	139.00	135.00	131.00	125.00	122.00	127.00	129.00	145.00	147.00	142.00	141.00	133.00	149.00	149.00	144.00	158.00	151.00	153.00	163.00	160.00	155.00	162.00	160.00	155.00	158.00	148.00	158.00	152.00	159.00	148.00	138.00	149.00	154.00	161.00	171.00	163.00	147.00	134.00	135.00	127.00	129.00	132.00	135.00	157.00	172.00	191.00	195.00	179.00	163.00	151.00	143.00	145.00	160.00	157.00	154.00	149.00	153.00	158.00	151.00	142.00	149.00	160.00	146.00	155.00	154.00	132.00	129.00	145.00	144.00	138.00	130.00	148.00	154.00	168.00	171.00	172.00	174.00	172.00	168.00	172.00	173.00	168.00	169.00	161.00	153.00	146.00	158.00	166.00	150.00	149.00	147.00	145.00	166.00	153.00	143.00	152.00	168.00	169.00	171.00	171.00	157.00	145.00	146.00	164.00	168.00	172.00	156.00	167.00	159.00	148.00	153.00	165.00	168.00	170.00	166.00	159.00	152.00	160.00	159.00	162.00	167.00	170.00	164.00	149.00	154.00	174.00	175.00	181.00	175.00	161.00	153.00	155.00	177.00	186.00	176.00	177.00	198.00	173.00	166.00	173.00	166.00	173.00	187.00	184.00	175.00	165.00	150.00	164.00	170.00	189.00	198.00	187.00	178.00	195.00	203.00	197.00	203.00	213.00	227.00	210.00	202.00	213.00	202.00	223.00	217.00	210.00	205.00	191.00	182.00	196.00	201.00	213.00	213.00	227.00	215.00	218.00	211.00	216.00	204.00	203.00	220.00	226.00	239.00	257.00	263.00	252.00	223.00	209.00	223.00	236.00	245.00	264.00	254.00	245.00	226.00	232.00	246.00	259.00	260.00	260.00	268.00	306.00	374.00	378.00	359.00	369.00	372.00	373.00	372.00	271.00	266.00	271.00	257.00	236.00	225.00	225.00	217.00	218.00	233.00	250.00	255.00	262.00	325.00	354.00	360.00	334.00
116.00	114.00	117.00	118.00	123.00	126.00	133.00	131.00	138.00	141.00	131.00	130.00	146.00	153.00	147.00	144.00	137.00	148.00	148.00	153.00	151.00	138.00	137.00	136.00	140.00	138.00	138.00	130.00	130.00	136.00	153.00	144.00	142.00	137.00	135.00	123.00	120.00	138.00	142.00	136.00	133.00	138.00	146.00	152.00	150.00	164.00	168.00	164.00	166.00	164.00	166.00	175.00	164.00	163.00	152.00	149.00	147.00	142.00	149.00	157.00	143.00	141.00	164.00	162.00	165.00	161.00	138.00	134.00	130.00	126.00	126.00	149.00	153.00	153.00	157.00	173.00	174.00	183.00	170.00	165.00	148.00	139.00	161.00	154.00	146.00	140.00	143.00	143.00	152.00	147.00	139.00	152.00	141.00	155.00	153.00	135.00	135.00	146.00	136.00	132.00	138.00	151.00	157.00	155.00	170.00	170.00	171.00	171.00	167.00	174.00	173.00	170.00	163.00	165.00	161.00	142.00	153.00	163.00	163.00	158.00	158.00	147.00	160.00	149.00	150.00	159.00	168.00	161.00	164.00	167.00	160.00	141.00	155.00	161.00	168.00	172.00	152.00	164.00	163.00	146.00	159.00	166.00	160.00	166.00	163.00	166.00	162.00	148.00	152.00	155.00	159.00	166.00	167.00	157.00	151.00	169.00	162.00	175.00	171.00	159.00	160.00	169.00	178.00	178.00	169.00	173.00	189.00	191.00	171.00	161.00	174.00	164.00	181.00	186.00	174.00	161.00	162.00	162.00	170.00	174.00	194.00	177.00	178.00	195.00	208.00	217.00	219.00	213.00	215.00	218.00	192.00	191.00	189.00	207.00	217.00	197.00	187.00	188.00	180.00	186.00	193.00	197.00	206.00	221.00	208.00	198.00	207.00	219.00	208.00	198.00	226.00	235.00	247.00	257.00	255.00	246.00	222.00	206.00	210.00	233.00	242.00	274.00	252.00	253.00	230.00	225.00	242.00	243.00	248.00	248.00	251.00	296.00	370.00	357.00	372.00	373.00	376.00	382.00	370.00	266.00	252.00	244.00	244.00	235.00	225.00	214.00	214.00	218.00	233.00	241.00	247.00	266.00	282.00	287.00	309.00	304.00
109.00	123.00	122.00	124.00	132.00	138.00	134.00	127.00	131.00	136.00	120.00	129.00	145.00	151.00	143.00	150.00	142.00	147.00	147.00	152.00	158.00	138.00	146.00	140.00	152.00	143.00	141.00	140.00	141.00	130.00	133.00	142.00	143.00	148.00	142.00	127.00	115.00	135.00	140.00	130.00	133.00	140.00	144.00	152.00	155.00	162.00	149.00	153.00	156.00	160.00	164.00	173.00	150.00	167.00	161.00	155.00	142.00	141.00	140.00	156.00	152.00	141.00	165.00	178.00	161.00	162.00	147.00	132.00	131.00	126.00	143.00	161.00	165.00	149.00	147.00	150.00	151.00	189.00	182.00	164.00	149.00	137.00	158.00	148.00	144.00	149.00	139.00	133.00	148.00	149.00	147.00	138.00	139.00	156.00	147.00	134.00	142.00	145.00	136.00	137.00	154.00	150.00	149.00	155.00	167.00	169.00	170.00	169.00	165.00	172.00	171.00	170.00	165.00	170.00	167.00	148.00	140.00	151.00	162.00	161.00	163.00	153.00	151.00	143.00	158.00	163.00	167.00	156.00	159.00	165.00	162.00	141.00	153.00	160.00	165.00	168.00	150.00	160.00	161.00	147.00	155.00	166.00	160.00	160.00	156.00	167.00	166.00	143.00	135.00	166.00	166.00	167.00	169.00	161.00	145.00	161.00	154.00	174.00	168.00	162.00	155.00	172.00	177.00	172.00	163.00	177.00	181.00	199.00	187.00	160.00	157.00	159.00	195.00	191.00	171.00	164.00	151.00	155.00	168.00	184.00	197.00	170.00	177.00	188.00	203.00	214.00	219.00	207.00	191.00	217.00	194.00	182.00	187.00	186.00	209.00	210.00	189.00	181.00	172.00	194.00	185.00	201.00	211.00	216.00	204.00	187.00	195.00	216.00	200.00	194.00	221.00	226.00	240.00	250.00	245.00	239.00	224.00	209.00	209.00	228.00	239.00	263.00	249.00	231.00	224.00	220.00	243.00	239.00	232.00	237.00	251.00	275.00	343.00	306.00	369.00	339.00	350.00	383.00	313.00	257.00	256.00	227.00	226.00	234.00	220.00	211.00	210.00	214.00	230.00	240.00	260.00	274.00	262.00	270.00	282.00	289.00
108.00	126.00	130.00	139.00	145.00	136.00	126.00	126.00	133.00	137.00	120.00	131.00	127.00	130.00	141.00	155.00	153.00	143.00	150.00	155.00	159.00	148.00	150.00	149.00	155.00	149.00	145.00	136.00	129.00	128.00	126.00	125.00	127.00	136.00	139.00	126.00	118.00	125.00	135.00	134.00	144.00	151.00	152.00	155.00	157.00	150.00	161.00	166.00	157.00	160.00	173.00	164.00	150.00	154.00	159.00	152.00	154.00	144.00	137.00	142.00	143.00	147.00	155.00	174.00	150.00	161.00	152.00	132.00	128.00	123.00	133.00	158.00	164.00	142.00	142.00	163.00	171.00	198.00	188.00	158.00	146.00	135.00	152.00	150.00	154.00	157.00	147.00	133.00	132.00	131.00	143.00	143.00	134.00	155.00	144.00	141.00	144.00	141.00	134.00	139.00	147.00	144.00	158.00	165.00	167.00	167.00	169.00	167.00	164.00	170.00	168.00	167.00	167.00	167.00	170.00	159.00	143.00	145.00	151.00	151.00	164.00	154.00	149.00	141.00	162.00	166.00	164.00	156.00	157.00	165.00	160.00	140.00	144.00	157.00	163.00	162.00	141.00	152.00	159.00	154.00	154.00	166.00	160.00	150.00	155.00	165.00	163.00	150.00	134.00	165.00	164.00	159.00	167.00	157.00	141.00	153.00	150.00	162.00	180.00	166.00	147.00	157.00	176.00	171.00	157.00	170.00	170.00	190.00	194.00	176.00	161.00	159.00	186.00	187.00	172.00	160.00	148.00	157.00	184.00	191.00	189.00	164.00	178.00	191.00	190.00	201.00	198.00	189.00	188.00	195.00	179.00	178.00	183.00	176.00	194.00	193.00	204.00	194.00	179.00	191.00	199.00	195.00	192.00	220.00	209.00	184.00	196.00	206.00	190.00	199.00	205.00	213.00	225.00	241.00	234.00	225.00	221.00	205.00	213.00	226.00	229.00	240.00	239.00	212.00	220.00	211.00	225.00	238.00	224.00	221.00	240.00	277.00	329.00	286.00	316.00	267.00	277.00	308.00	306.00	245.00	239.00	226.00	217.00	226.00	217.00	208.00	214.00	227.00	252.00	258.00	264.00	261.00	263.00	268.00	272.00	266.00
138.00	128.00	124.00	132.00	127.00	120.00	122.00	131.00	129.00	123.00	117.00	124.00	120.00	119.00	127.00	139.00	139.00	152.00	143.00	138.00	134.00	132.00	131.00	142.00	138.00	149.00	144.00	137.00	149.00	138.00	135.00	143.00	142.00	136.00	124.00	128.00	123.00	121.00	125.00	135.00	136.00	137.00	150.00	138.00	139.00	140.00	150.00	157.00	163.00	171.00	169.00	155.00	161.00	151.00	149.00	157.00	147.00	145.00	148.00	154.00	165.00	165.00	173.00	160.00	139.00	150.00	151.00	135.00	128.00	145.00	151.00	138.00	138.00	147.00	136.00	128.00	129.00	154.00	155.00	149.00	135.00	135.00	156.00	159.00	158.00	159.00	158.00	149.00	150.00	151.00	145.00	126.00	138.00	143.00	130.00	145.00	134.00	152.00	149.00	138.00	154.00	154.00	158.00	150.00	164.00	167.00	163.00	164.00	174.00	178.00	174.00	170.00	170.00	155.00	167.00	161.00	156.00	156.00	133.00	130.00	141.00	152.00	143.00	149.00	156.00	159.00	156.00	164.00	161.00	157.00	159.00	159.00	153.00	144.00	138.00	160.00	139.00	150.00	140.00	135.00	155.00	148.00	141.00	149.00	160.00	154.00	157.00	136.00	132.00	145.00	155.00	155.00	165.00	168.00	145.00	137.00	155.00	168.00	158.00	141.00	149.00	165.00	177.00	180.00	168.00	152.00	161.00	167.00	171.00	170.00	157.00	140.00	140.00	146.00	145.00	157.00	163.00	171.00	177.00	170.00	175.00	170.00	181.00	192.00	193.00	209.00	192.00	196.00	178.00	188.00	175.00	161.00	174.00	184.00	182.00	177.00	179.00	167.00	170.00	175.00	181.00	190.00	213.00	192.00	184.00	183.00	170.00	203.00	186.00	176.00	177.00	194.00	216.00	222.00	213.00	205.00	195.00	199.00	204.00	224.00	209.00	215.00	228.00	211.00	194.00	202.00	206.00	217.00	201.00	221.00	247.00	243.00	243.00	255.00	284.00	255.00	238.00	227.00	224.00	240.00	236.00	213.00	209.00	199.00	197.00	216.00	211.00	223.00	239.00	243.00	233.00	224.00	251.00	247.00	243.00	226.00
139.00	136.00	129.00	139.00	133.00	121.00	127.00	134.00	130.00	121.00	121.00	118.00	123.00	123.00	131.00	132.00	129.00	135.00	129.00	136.00	132.00	125.00	135.00	145.00	132.00	141.00	139.00	136.00	142.00	146.00	136.00	133.00	136.00	138.00	140.00	137.00	139.00	118.00	114.00	130.00	138.00	132.00	133.00	139.00	145.00	154.00	162.00	157.00	160.00	173.00	176.00	158.00	146.00	149.00	142.00	146.00	145.00	142.00	144.00	155.00	158.00	165.00	171.00	153.00	143.00	143.00	142.00	138.00	127.00	141.00	148.00	147.00	146.00	131.00	127.00	131.00	133.00	134.00	134.00	138.00	138.00	139.00	158.00	160.00	159.00	158.00	159.00	155.00	149.00	152.00	149.00	129.00	135.00	137.00	133.00	160.00	137.00	151.00	158.00	150.00	163.00	158.00	149.00	145.00	166.00	164.00	157.00	162.00	172.00	168.00	166.00	168.00	168.00	146.00	156.00	165.00	158.00	147.00	148.00	136.00	133.00	149.00	143.00	146.00	147.00	141.00	156.00	166.00	158.00	155.00	162.00	158.00	160.00	150.00	137.00	155.00	139.00	146.00	134.00	150.00	144.00	138.00	151.00	155.00	156.00	165.00	164.00	134.00	130.00	140.00	145.00	156.00	156.00	160.00	148.00	138.00	150.00	159.00	150.00	141.00	156.00	169.00	173.00	177.00	177.00	168.00	151.00	165.00	166.00	162.00	153.00	135.00	146.00	157.00	153.00	162.00	177.00	177.00	168.00	165.00	177.00	162.00	167.00	173.00	168.00	196.00	190.00	201.00	184.00	181.00	165.00	162.00	177.00	201.00	190.00	176.00	165.00	165.00	177.00	185.00	194.00	205.00	201.00	182.00	172.00	189.00	172.00	198.00	192.00	171.00	183.00	188.00	206.00	211.00	199.00	191.00	211.00	215.00	211.00	227.00	204.00	195.00	210.00	199.00	188.00	188.00	201.00	213.00	200.00	214.00	237.00	239.00	241.00	249.00	268.00	250.00	229.00	221.00	210.00	226.00	223.00	219.00	215.00	201.00	199.00	241.00	230.00	219.00	224.00	222.00	224.00	222.00	236.00	243.00	223.00	215.00
141.00	142.00	135.00	151.00	134.00	121.00	127.00	141.00	131.00	120.00	125.00	114.00	120.00	118.00	119.00	130.00	125.00	123.00	133.00	141.00	133.00	124.00	133.00	144.00	133.00	135.00	136.00	130.00	136.00	148.00	142.00	135.00	131.00	138.00	146.00	136.00	129.00	117.00	115.00	121.00	130.00	130.00	146.00	150.00	158.00	157.00	152.00	162.00	166.00	166.00	176.00	164.00	153.00	152.00	148.00	136.00	139.00	136.00	138.00	158.00	156.00	161.00	163.00	165.00	156.00	149.00	143.00	133.00	131.00	153.00	155.00	149.00	139.00	128.00	124.00	145.00	148.00	140.00	144.00	148.00	148.00	145.00	154.00	155.00	151.00	152.00	160.00	148.00	138.00	138.00	149.00	129.00	126.00	125.00	129.00	161.00	161.00	165.00	158.00	155.00	157.00	155.00	143.00	154.00	163.00	158.00	152.00	164.00	168.00	168.00	160.00	167.00	166.00	156.00	145.00	161.00	164.00	156.00	155.00	147.00	131.00	144.00	148.00	139.00	130.00	146.00	162.00	163.00	158.00	152.00	160.00	154.00	157.00	148.00	132.00	138.00	146.00	138.00	138.00	153.00	142.00	137.00	148.00	161.00	163.00	151.00	152.00	131.00	132.00	146.00	158.00	161.00	149.00	147.00	138.00	135.00	157.00	169.00	138.00	152.00	162.00	165.00	166.00	171.00	176.00	171.00	156.00	165.00	163.00	154.00	141.00	143.00	157.00	166.00	165.00	165.00	187.00	179.00	158.00	166.00	178.00	171.00	156.00	158.00	175.00	187.00	181.00	193.00	185.00	169.00	157.00	160.00	185.00	197.00	190.00	177.00	161.00	165.00	168.00	179.00	189.00	196.00	186.00	179.00	168.00	179.00	172.00	184.00	189.00	173.00	186.00	180.00	197.00	199.00	188.00	187.00	223.00	226.00	232.00	230.00	198.00	188.00	191.00	208.00	209.00	183.00	201.00	201.00	201.00	210.00	224.00	234.00	242.00	247.00	270.00	252.00	231.00	214.00	208.00	209.00	214.00	222.00	227.00	200.00	196.00	216.00	209.00	207.00	211.00	209.00	212.00	217.00	234.00	220.00	213.00	217.00
147.00	139.00	158.00	162.00	132.00	119.00	119.00	132.00	128.00	120.00	119.00	111.00	116.00	119.00	124.00	127.00	119.00	126.00	139.00	140.00	131.00	126.00	134.00	137.00	136.00	128.00	125.00	134.00	133.00	145.00	151.00	137.00	127.00	129.00	137.00	142.00	133.00	121.00	117.00	118.00	126.00	130.00	147.00	147.00	151.00	144.00	157.00	170.00	167.00	164.00	171.00	177.00	166.00	159.00	149.00	148.00	131.00	137.00	152.00	159.00	150.00	154.00	160.00	170.00	142.00	141.00	143.00	133.00	118.00	142.00	151.00	149.00	148.00	136.00	124.00	140.00	145.00	144.00	150.00	157.00	157.00	150.00	147.00	145.00	145.00	147.00	160.00	158.00	152.00	137.00	131.00	127.00	123.00	131.00	151.00	150.00	163.00	166.00	155.00	144.00	147.00	149.00	148.00	158.00	162.00	150.00	157.00	164.00	172.00	163.00	154.00	165.00	165.00	165.00	159.00	147.00	159.00	161.00	155.00	145.00	135.00	132.00	143.00	131.00	132.00	149.00	154.00	161.00	158.00	156.00	166.00	158.00	153.00	154.00	143.00	138.00	135.00	137.00	149.00	155.00	139.00	137.00	151.00	161.00	155.00	157.00	144.00	137.00	130.00	144.00	161.00	157.00	152.00	138.00	131.00	136.00	153.00	166.00	137.00	155.00	164.00	163.00	159.00	174.00	175.00	169.00	155.00	159.00	153.00	141.00	142.00	155.00	170.00	176.00	178.00	167.00	180.00	179.00	162.00	180.00	184.00	162.00	154.00	165.00	176.00	187.00	172.00	179.00	179.00	166.00	155.00	176.00	183.00	189.00	187.00	165.00	159.00	177.00	176.00	168.00	178.00	180.00	172.00	170.00	163.00	162.00	162.00	180.00	174.00	168.00	177.00	186.00	183.00	182.00	188.00	185.00	200.00	221.00	230.00	229.00	188.00	179.00	189.00	192.00	198.00	183.00	192.00	199.00	216.00	223.00	231.00	245.00	252.00	248.00	274.00	240.00	228.00	226.00	218.00	203.00	213.00	217.00	227.00	193.00	189.00	203.00	196.00	199.00	208.00	218.00	222.00	223.00	221.00	212.00	204.00	216.00
124.00	125.00	139.00	132.00	121.00	116.00	112.00	112.00	112.00	113.00	114.00	113.00	122.00	127.00	127.00	123.00	120.00	130.00	131.00	126.00	125.00	139.00	133.00	129.00	146.00	143.00	135.00	124.00	132.00	152.00	143.00	156.00	145.00	132.00	123.00	120.00	132.00	123.00	119.00	115.00	133.00	145.00	135.00	133.00	138.00	151.00	158.00	156.00	171.00	169.00	172.00	177.00	161.00	166.00	161.00	141.00	133.00	151.00	151.00	158.00	155.00	160.00	166.00	157.00	145.00	145.00	138.00	131.00	130.00	152.00	140.00	148.00	151.00	137.00	128.00	123.00	142.00	155.00	153.00	150.00	148.00	143.00	138.00	146.00	156.00	157.00	154.00	142.00	148.00	150.00	156.00	128.00	126.00	135.00	156.00	154.00	162.00	156.00	149.00	138.00	146.00	154.00	153.00	147.00	154.00	146.00	163.00	163.00	162.00	160.00	146.00	158.00	161.00	158.00	161.00	148.00	134.00	137.00	152.00	145.00	144.00	136.00	132.00	141.00	138.00	153.00	162.00	152.00	141.00	151.00	163.00	144.00	149.00	158.00	152.00	146.00	127.00	126.00	146.00	147.00	138.00	130.00	142.00	140.00	148.00	150.00	153.00	148.00	140.00	132.00	156.00	163.00	151.00	131.00	154.00	158.00	153.00	146.00	132.00	156.00	173.00	165.00	149.00	164.00	162.00	147.00	147.00	157.00	149.00	139.00	140.00	156.00	176.00	183.00	179.00	163.00	172.00	173.00	161.00	177.00	174.00	167.00	159.00	151.00	163.00	174.00	160.00	161.00	173.00	163.00	162.00	162.00	167.00	168.00	182.00	169.00	152.00	156.00	160.00	172.00	174.00	167.00	157.00	169.00	157.00	166.00	172.00	170.00	168.00	179.00	198.00	194.00	184.00	173.00	175.00	183.00	213.00	209.00	215.00	209.00	185.00	172.00	176.00	176.00	177.00	182.00	207.00	237.00	233.00	215.00	232.00	246.00	256.00	265.00	250.00	240.00	248.00	232.00	220.00	204.00	199.00	212.00	211.00	182.00	195.00	200.00	208.00	219.00	238.00	251.00	257.00	258.00	219.00	204.00	198.00	200.00
124.00	125.00	139.00	132.00	121.00	116.00	112.00	112.00	112.00	113.00	114.00	113.00	122.00	127.00	127.00	123.00	120.00	130.00	131.00	126.00	125.00	139.00	133.00	129.00	146.00	143.00	135.00	124.00	132.00	152.00	143.00	156.00	145.00	132.00	123.00	120.00	132.00	123.00	119.00	115.00	133.00	145.00	135.00	133.00	138.00	151.00	158.00	156.00	171.00	169.00	172.00	177.00	161.00	166.00	161.00	141.00	133.00	151.00	151.00	158.00	155.00	160.00	166.00	157.00	145.00	145.00	138.00	131.00	130.00	152.00	140.00	148.00	151.00	137.00	128.00	123.00	142.00	155.00	153.00	150.00	148.00	143.00	138.00	146.00	156.00	157.00	154.00	142.00	148.00	150.00	156.00	128.00	126.00	135.00	156.00	154.00	162.00	156.00	149.00	138.00	146.00	154.00	153.00	147.00	154.00	146.00	163.00	163.00	162.00	160.00	146.00	158.00	161.00	158.00	161.00	148.00	134.00	137.00	152.00	145.00	144.00	136.00	132.00	141.00	138.00	153.00	162.00	152.00	141.00	151.00	163.00	144.00	149.00	158.00	152.00	146.00	127.00	126.00	146.00	147.00	138.00	130.00	142.00	140.00	148.00	150.00	153.00	148.00	140.00	132.00	156.00	163.00	151.00	131.00	154.00	158.00	153.00	146.00	132.00	156.00	173.00	165.00	149.00	164.00	162.00	147.00	147.00	157.00	149.00	139.00	140.00	156.00	176.00	183.00	179.00	163.00	172.00	173.00	161.00	177.00	174.00	167.00	159.00	151.00	163.00	174.00	160.00	161.00	173.00	163.00	162.00	162.00	167.00	168.00	182.00	169.00	152.00	156.00	160.00	172.00	174.00	167.00	157.00	169.00	157.00	166.00	172.00	170.00	168.00	179.00	198.00	194.00	184.00	173.00	175.00	183.00	213.00	209.00	215.00	209.00	185.00	172.00	176.00	176.00	177.00	182.00	207.00	237.00	233.00	215.00	232.00	246.00	256.00	265.00	250.00	240.00	248.00	232.00	220.00	204.00	199.00	212.00	211.00	182.00	195.00	200.00	208.00	219.00	238.00	251.00	257.00	258.00	219.00	204.00	198.00	200.00
115.00	127.00	147.00	144.00	129.00	123.00	109.00	107.00	106.00	107.00	117.00	119.00	122.00	128.00	129.00	115.00	119.00	122.00	132.00	125.00	117.00	137.00	135.00	133.00	155.00	154.00	147.00	129.00	131.00	142.00	135.00	147.00	151.00	150.00	139.00	122.00	120.00	135.00	122.00	113.00	142.00	149.00	147.00	142.00	146.00	145.00	165.00	156.00	162.00	164.00	175.00	174.00	152.00	161.00	155.00	152.00	134.00	152.00	149.00	157.00	160.00	169.00	176.00	160.00	157.00	160.00	151.00	132.00	128.00	139.00	144.00	151.00	155.00	141.00	127.00	123.00	139.00	158.00	155.00	152.00	147.00	138.00	145.00	149.00	152.00	157.00	160.00	152.00	135.00	141.00	151.00	134.00	128.00	135.00	145.00	145.00	157.00	148.00	138.00	133.00	139.00	145.00	144.00	144.00	147.00	151.00	156.00	152.00	142.00	159.00	145.00	149.00	154.00	159.00	159.00	145.00	137.00	135.00	142.00	151.00	138.00	132.00	134.00	133.00	143.00	153.00	161.00	155.00	152.00	142.00	150.00	136.00	150.00	156.00	160.00	153.00	139.00	125.00	129.00	135.00	126.00	133.00	138.00	148.00	152.00	137.00	147.00	143.00	141.00	126.00	135.00	154.00	140.00	128.00	152.00	143.00	143.00	146.00	130.00	149.00	162.00	159.00	148.00	151.00	147.00	141.00	150.00	156.00	151.00	141.00	133.00	146.00	176.00	177.00	169.00	155.00	175.00	175.00	155.00	174.00	175.00	156.00	148.00	145.00	163.00	171.00	155.00	162.00	168.00	172.00	152.00	151.00	152.00	160.00	177.00	166.00	153.00	167.00	180.00	162.00	166.00	166.00	151.00	161.00	157.00	157.00	166.00	177.00	178.00	174.00	198.00	181.00	174.00	165.00	175.00	187.00	190.00	193.00	216.00	220.00	190.00	169.00	168.00	173.00	163.00	186.00	195.00	213.00	199.00	189.00	202.00	233.00	232.00	233.00	222.00	217.00	226.00	226.00	223.00	215.00	206.00	201.00	198.00	186.00	190.00	197.00	202.00	209.00	241.00	249.00	259.00	257.00	202.00	198.00	199.00	192.00
112.00	126.00	131.00	131.00	134.00	128.00	113.00	103.00	109.00	118.00	124.00	115.00	117.00	125.00	126.00	124.00	114.00	123.00	124.00	117.00	118.00	127.00	125.00	143.00	147.00	144.00	136.00	131.00	122.00	135.00	132.00	136.00	147.00	152.00	141.00	127.00	117.00	135.00	122.00	113.00	131.00	142.00	153.00	151.00	149.00	150.00	157.00	156.00	170.00	174.00	173.00	160.00	158.00	143.00	150.00	137.00	143.00	150.00	145.00	157.00	156.00	164.00	170.00	165.00	155.00	158.00	152.00	134.00	128.00	142.00	146.00	150.00	145.00	138.00	128.00	126.00	133.00	142.00	148.00	148.00	142.00	140.00	140.00	148.00	143.00	145.00	155.00	152.00	142.00	131.00	131.00	130.00	125.00	126.00	141.00	140.00	147.00	138.00	135.00	143.00	148.00	137.00	138.00	147.00	147.00	149.00	145.00	137.00	140.00	157.00	139.00	152.00	154.00	156.00	159.00	156.00	148.00	151.00	132.00	150.00	142.00	125.00	145.00	143.00	155.00	161.00	163.00	147.00	151.00	144.00	137.00	132.00	140.00	154.00	156.00	151.00	141.00	137.00	124.00	132.00	144.00	146.00	144.00	139.00	142.00	137.00	143.00	141.00	143.00	130.00	132.00	148.00	137.00	133.00	148.00	138.00	142.00	150.00	137.00	150.00	160.00	157.00	148.00	144.00	139.00	141.00	149.00	152.00	149.00	139.00	129.00	140.00	173.00	173.00	168.00	150.00	178.00	175.00	151.00	163.00	171.00	164.00	147.00	143.00	160.00	154.00	151.00	161.00	159.00	167.00	146.00	157.00	169.00	175.00	170.00	165.00	151.00	160.00	179.00	177.00	160.00	159.00	157.00	161.00	165.00	162.00	160.00	162.00	168.00	166.00	199.00	184.00	166.00	162.00	172.00	184.00	182.00	182.00	200.00	202.00	194.00	171.00	165.00	164.00	159.00	185.00	184.00	189.00	182.00	182.00	199.00	209.00	209.00	216.00	209.00	203.00	204.00	209.00	215.00	199.00	196.00	189.00	183.00	186.00	178.00	183.00	192.00	202.00	231.00	239.00	232.00	220.00	192.00	193.00	185.00	186.00
111.00	126.00	121.00	112.00	117.00	120.00	107.00	103.00	115.00	120.00	114.00	110.00	113.00	127.00	129.00	120.00	114.00	117.00	117.00	133.00	145.00	147.00	131.00	136.00	142.00	132.00	135.00	149.00	132.00	124.00	125.00	140.00	140.00	127.00	134.00	127.00	119.00	120.00	111.00	109.00	114.00	125.00	144.00	154.00	157.00	160.00	150.00	156.00	162.00	175.00	171.00	152.00	141.00	143.00	135.00	139.00	137.00	142.00	145.00	159.00	163.00	157.00	140.00	164.00	157.00	155.00	155.00	136.00	123.00	139.00	141.00	138.00	144.00	136.00	137.00	133.00	125.00	142.00	139.00	146.00	146.00	143.00	137.00	142.00	132.00	129.00	139.00	141.00	144.00	148.00	149.00	134.00	125.00	128.00	150.00	149.00	141.00	129.00	138.00	151.00	155.00	152.00	149.00	150.00	155.00	153.00	154.00	154.00	145.00	139.00	144.00	149.00	133.00	146.00	147.00	163.00	162.00	151.00	135.00	125.00	136.00	132.00	144.00	149.00	158.00	160.00	156.00	145.00	135.00	140.00	138.00	144.00	154.00	158.00	154.00	157.00	139.00	134.00	130.00	119.00	122.00	126.00	136.00	128.00	127.00	138.00	136.00	141.00	141.00	137.00	132.00	122.00	129.00	129.00	139.00	136.00	138.00	145.00	132.00	143.00	152.00	152.00	141.00	137.00	133.00	136.00	139.00	143.00	140.00	128.00	143.00	156.00	158.00	160.00	158.00	150.00	174.00	171.00	146.00	150.00	162.00	165.00	159.00	144.00	140.00	147.00	147.00	150.00	148.00	140.00	162.00	163.00	177.00	172.00	151.00	150.00	163.00	172.00	178.00	174.00	172.00	155.00	152.00	157.00	163.00	159.00	151.00	159.00	160.00	166.00	176.00	166.00	167.00	156.00	158.00	163.00	174.00	193.00	187.00	174.00	180.00	176.00	173.00	155.00	156.00	171.00	173.00	174.00	170.00	167.00	232.00	213.00	201.00	189.00	203.00	193.00	190.00	196.00	190.00	214.00	202.00	202.00	188.00	184.00	193.00	193.00	194.00	200.00	200.00	196.00	189.00	186.00	180.00	179.00	182.00	189.00
116.00	127.00	126.00	114.00	108.00	120.00	103.00	106.00	112.00	110.00	109.00	118.00	118.00	122.00	127.00	128.00	119.00	115.00	120.00	136.00	144.00	151.00	152.00	148.00	127.00	133.00	141.00	149.00	136.00	126.00	121.00	129.00	148.00	123.00	131.00	126.00	122.00	107.00	107.00	113.00	134.00	130.00	145.00	149.00	144.00	151.00	165.00	153.00	161.00	173.00	177.00	159.00	149.00	139.00	134.00	146.00	145.00	151.00	156.00	159.00	162.00	157.00	138.00	158.00	150.00	150.00	152.00	144.00	126.00	152.00	146.00	136.00	147.00	139.00	133.00	128.00	122.00	138.00	129.00	134.00	142.00	139.00	138.00	141.00	134.00	135.00	143.00	153.00	146.00	148.00	151.00	133.00	129.00	126.00	140.00	154.00	145.00	130.00	135.00	137.00	150.00	147.00	138.00	137.00	148.00	155.00	159.00	158.00	152.00	131.00	137.00	135.00	136.00	155.00	154.00	166.00	164.00	161.00	141.00	137.00	129.00	131.00	131.00	143.00	159.00	159.00	155.00	158.00	144.00	134.00	128.00	146.00	143.00	154.00	148.00	154.00	148.00	141.00	134.00	130.00	132.00	120.00	117.00	123.00	123.00	138.00	129.00	140.00	136.00	139.00	135.00	123.00	118.00	137.00	140.00	139.00	134.00	144.00	128.00	146.00	152.00	150.00	138.00	128.00	130.00	135.00	137.00	142.00	140.00	129.00	139.00	145.00	146.00	145.00	145.00	143.00	166.00	169.00	145.00	154.00	163.00	167.00	156.00	150.00	139.00	139.00	135.00	135.00	132.00	143.00	171.00	179.00	177.00	160.00	147.00	157.00	169.00	176.00	176.00	162.00	167.00	155.00	149.00	154.00	160.00	154.00	143.00	158.00	161.00	159.00	176.00	170.00	156.00	153.00	176.00	180.00	187.00	192.00	181.00	170.00	180.00	163.00	160.00	152.00	156.00	162.00	163.00	164.00	161.00	171.00	238.00	224.00	205.00	194.00	187.00	181.00	198.00	195.00	187.00	185.00	213.00	213.00	202.00	176.00	175.00	207.00	217.00	198.00	190.00	197.00	201.00	186.00	173.00	174.00	187.00	191.00
118.00	125.00	125.00	119.00	116.00	108.00	104.00	103.00	106.00	106.00	111.00	122.00	120.00	120.00	133.00	132.00	122.00	116.00	121.00	127.00	143.00	143.00	146.00	140.00	123.00	131.00	140.00	157.00	141.00	133.00	125.00	119.00	145.00	120.00	128.00	127.00	123.00	108.00	107.00	113.00	140.00	143.00	130.00	129.00	126.00	133.00	156.00	167.00	161.00	158.00	160.00	147.00	141.00	141.00	132.00	151.00	150.00	152.00	158.00	150.00	144.00	160.00	143.00	155.00	151.00	154.00	151.00	145.00	122.00	143.00	132.00	141.00	145.00	139.00	138.00	134.00	124.00	128.00	124.00	139.00	147.00	141.00	128.00	126.00	123.00	128.00	138.00	149.00	153.00	140.00	139.00	129.00	123.00	128.00	137.00	139.00	138.00	147.00	151.00	146.00	134.00	135.00	141.00	148.00	151.00	157.00	162.00	157.00	150.00	133.00	128.00	127.00	138.00	144.00	146.00	155.00	160.00	160.00	147.00	138.00	125.00	120.00	131.00	151.00	160.00	160.00	153.00	156.00	152.00	138.00	126.00	137.00	134.00	143.00	133.00	144.00	140.00	147.00	148.00	143.00	136.00	131.00	125.00	127.00	119.00	124.00	135.00	136.00	134.00	142.00	139.00	126.00	115.00	134.00	137.00	133.00	131.00	143.00	127.00	138.00	147.00	143.00	128.00	131.00	133.00	133.00	134.00	139.00	139.00	131.00	129.00	139.00	138.00	137.00	135.00	136.00	152.00	153.00	144.00	156.00	161.00	157.00	153.00	148.00	137.00	136.00	129.00	127.00	130.00	156.00	168.00	173.00	172.00	157.00	148.00	164.00	176.00	178.00	180.00	160.00	157.00	146.00	151.00	156.00	145.00	143.00	140.00	149.00	154.00	162.00	165.00	166.00	150.00	153.00	162.00	174.00	180.00	171.00	173.00	171.00	163.00	176.00	157.00	150.00	151.00	160.00	167.00	169.00	171.00	171.00	240.00	238.00	219.00	209.00	176.00	176.00	186.00	196.00	199.00	178.00	204.00	212.00	212.00	171.00	164.00	172.00	185.00	186.00	183.00	191.00	208.00	188.00	176.00	201.00	201.00	195.00
113.00	129.00	120.00	109.00	106.00	101.00	108.00	105.00	114.00	115.00	113.00	115.00	120.00	125.00	131.00	132.00	123.00	115.00	112.00	125.00	137.00	143.00	135.00	136.00	119.00	127.00	124.00	131.00	142.00	142.00	130.00	120.00	146.00	124.00	116.00	114.00	112.00	111.00	108.00	127.00	146.00	153.00	132.00	142.00	150.00	143.00	147.00	158.00	176.00	168.00	165.00	157.00	147.00	136.00	133.00	154.00	156.00	155.00	150.00	139.00	128.00	134.00	143.00	155.00	153.00	152.00	149.00	140.00	119.00	122.00	129.00	130.00	132.00	141.00	141.00	135.00	128.00	128.00	136.00	133.00	138.00	143.00	140.00	138.00	138.00	139.00	120.00	123.00	131.00	142.00	137.00	122.00	116.00	122.00	122.00	141.00	141.00	133.00	148.00	155.00	148.00	152.00	151.00	149.00	151.00	153.00	152.00	153.00	154.00	148.00	143.00	143.00	128.00	132.00	152.00	137.00	148.00	156.00	149.00	150.00	148.00	136.00	127.00	140.00	136.00	141.00	150.00	156.00	153.00	145.00	144.00	126.00	125.00	138.00	140.00	145.00	138.00	136.00	141.00	139.00	132.00	135.00	136.00	140.00	135.00	125.00	132.00	132.00	128.00	136.00	128.00	117.00	119.00	135.00	135.00	126.00	135.00	137.00	130.00	119.00	126.00	129.00	121.00	129.00	129.00	129.00	128.00	131.00	133.00	125.00	127.00	134.00	136.00	138.00	144.00	139.00	137.00	138.00	143.00	145.00	143.00	146.00	147.00	147.00	143.00	129.00	128.00	136.00	139.00	160.00	175.00	170.00	161.00	148.00	153.00	168.00	170.00	170.00	172.00	155.00	155.00	144.00	142.00	152.00	141.00	144.00	151.00	180.00	188.00	173.00	163.00	156.00	149.00	161.00	160.00	163.00	165.00	156.00	164.00	167.00	155.00	153.00	145.00	150.00	158.00	186.00	183.00	176.00	178.00	192.00	219.00	217.00	219.00	198.00	176.00	171.00	166.00	165.00	169.00	191.00	172.00	173.00	170.00	166.00	174.00	181.00	187.00	184.00	177.00	175.00	171.00	164.00	192.00	223.00	187.00	194.00
111.00	109.00	108.00	103.00	96.00	108.00	119.00	110.00	117.00	115.00	123.00	126.00	120.00	121.00	128.00	119.00	119.00	114.00	108.00	131.00	134.00	129.00	131.00	136.00	117.00	117.00	125.00	131.00	143.00	153.00	132.00	119.00	134.00	129.00	123.00	116.00	110.00	112.00	135.00	142.00	134.00	135.00	148.00	151.00	168.00	157.00	160.00	174.00	164.00	154.00	147.00	154.00	149.00	141.00	128.00	134.00	146.00	137.00	136.00	132.00	137.00	148.00	154.00	156.00	150.00	155.00	156.00	141.00	111.00	115.00	131.00	139.00	147.00	137.00	140.00	139.00	132.00	118.00	119.00	125.00	130.00	144.00	133.00	132.00	119.00	121.00	126.00	127.00	125.00	129.00	131.00	116.00	119.00	129.00	143.00	143.00	149.00	148.00	149.00	149.00	154.00	161.00	163.00	149.00	145.00	153.00	151.00	148.00	151.00	157.00	158.00	151.00	139.00	132.00	140.00	138.00	142.00	132.00	145.00	153.00	158.00	154.00	132.00	122.00	126.00	128.00	148.00	140.00	142.00	146.00	141.00	126.00	121.00	124.00	138.00	139.00	129.00	132.00	132.00	135.00	134.00	132.00	131.00	137.00	135.00	118.00	131.00	119.00	125.00	133.00	134.00	123.00	113.00	124.00	128.00	124.00	130.00	134.00	126.00	121.00	139.00	139.00	132.00	135.00	135.00	131.00	132.00	139.00	139.00	130.00	123.00	127.00	136.00	141.00	135.00	128.00	144.00	147.00	136.00	140.00	142.00	144.00	145.00	142.00	129.00	139.00	144.00	153.00	157.00	167.00	167.00	166.00	164.00	156.00	146.00	156.00	164.00	167.00	164.00	161.00	169.00	159.00	146.00	138.00	137.00	136.00	143.00	164.00	163.00	169.00	147.00	143.00	168.00	169.00	158.00	168.00	164.00	156.00	148.00	155.00	162.00	148.00	157.00	168.00	179.00	170.00	168.00	164.00	175.00	172.00	205.00	222.00	214.00	196.00	194.00	185.00	182.00	178.00	163.00	167.00	160.00	187.00	195.00	178.00	189.00	184.00	187.00	185.00	163.00	158.00	160.00	166.00	239.00	228.00	199.00	198.00
102.00	100.00	97.00	95.00	99.00	106.00	123.00	120.00	119.00	122.00	122.00	120.00	124.00	120.00	114.00	124.00	117.00	111.00	106.00	126.00	135.00	121.00	131.00	135.00	117.00	117.00	137.00	148.00	134.00	127.00	122.00	116.00	125.00	128.00	122.00	113.00	104.00	128.00	152.00	153.00	149.00	145.00	154.00	158.00	164.00	160.00	164.00	174.00	164.00	154.00	149.00	153.00	141.00	130.00	124.00	121.00	128.00	133.00	127.00	135.00	145.00	149.00	151.00	157.00	150.00	147.00	138.00	132.00	116.00	111.00	128.00	137.00	137.00	129.00	136.00	139.00	135.00	120.00	132.00	137.00	133.00	142.00	140.00	137.00	123.00	114.00	120.00	119.00	120.00	120.00	122.00	115.00	116.00	128.00	129.00	141.00	148.00	140.00	146.00	138.00	162.00	160.00	150.00	137.00	150.00	153.00	152.00	147.00	155.00	156.00	153.00	149.00	136.00	122.00	125.00	147.00	126.00	136.00	144.00	149.00	150.00	147.00	130.00	117.00	138.00	147.00	159.00	128.00	139.00	151.00	146.00	140.00	131.00	120.00	124.00	134.00	125.00	129.00	130.00	134.00	135.00	133.00	128.00	136.00	137.00	115.00	123.00	123.00	128.00	130.00	131.00	126.00	117.00	119.00	124.00	137.00	137.00	133.00	129.00	118.00	133.00	135.00	131.00	131.00	130.00	135.00	131.00	139.00	137.00	136.00	126.00	121.00	131.00	132.00	130.00	128.00	147.00	143.00	147.00	148.00	148.00	142.00	143.00	142.00	135.00	139.00	144.00	144.00	148.00	151.00	149.00	145.00	146.00	144.00	132.00	141.00	154.00	156.00	151.00	163.00	168.00	166.00	157.00	151.00	144.00	134.00	134.00	158.00	154.00	156.00	158.00	145.00	159.00	179.00	168.00	168.00	160.00	154.00	152.00	145.00	146.00	143.00	157.00	162.00	163.00	161.00	160.00	162.00	165.00	168.00	204.00	220.00	228.00	217.00	179.00	172.00	175.00	176.00	170.00	155.00	155.00	195.00	195.00	166.00	190.00	182.00	172.00	170.00	155.00	157.00	166.00	172.00	234.00	227.00	206.00	202.00
101.00	95.00	96.00	103.00	108.00	105.00	131.00	121.00	128.00	135.00	118.00	110.00	123.00	112.00	109.00	117.00	123.00	117.00	109.00	129.00	129.00	119.00	129.00	148.00	118.00	114.00	131.00	144.00	128.00	123.00	121.00	114.00	128.00	126.00	118.00	111.00	105.00	127.00	145.00	155.00	149.00	149.00	169.00	156.00	149.00	145.00	157.00	166.00	167.00	152.00	145.00	151.00	136.00	136.00	134.00	121.00	120.00	126.00	135.00	136.00	146.00	151.00	156.00	153.00	145.00	147.00	138.00	136.00	119.00	112.00	127.00	139.00	141.00	126.00	134.00	135.00	132.00	122.00	132.00	136.00	141.00	138.00	130.00	130.00	124.00	114.00	115.00	116.00	118.00	119.00	121.00	116.00	123.00	137.00	135.00	139.00	143.00	135.00	136.00	141.00	155.00	153.00	141.00	142.00	155.00	157.00	153.00	144.00	150.00	155.00	150.00	142.00	135.00	139.00	121.00	141.00	123.00	136.00	131.00	137.00	129.00	123.00	121.00	115.00	134.00	153.00	150.00	136.00	143.00	137.00	143.00	129.00	134.00	125.00	119.00	131.00	129.00	122.00	131.00	133.00	134.00	132.00	128.00	132.00	135.00	124.00	111.00	125.00	127.00	128.00	130.00	131.00	125.00	116.00	127.00	131.00	137.00	138.00	126.00	117.00	130.00	137.00	133.00	126.00	125.00	129.00	129.00	132.00	131.00	135.00	129.00	133.00	127.00	128.00	131.00	127.00	140.00	142.00	143.00	140.00	143.00	140.00	140.00	141.00	136.00	132.00	141.00	140.00	140.00	143.00	143.00	142.00	142.00	140.00	132.00	137.00	151.00	147.00	139.00	166.00	168.00	167.00	166.00	149.00	138.00	129.00	140.00	165.00	151.00	149.00	147.00	152.00	165.00	183.00	194.00	198.00	170.00	159.00	162.00	153.00	141.00	149.00	153.00	154.00	149.00	152.00	156.00	159.00	169.00	169.00	202.00	215.00	223.00	221.00	179.00	174.00	164.00	160.00	160.00	151.00	161.00	184.00	170.00	162.00	174.00	178.00	168.00	160.00	153.00	162.00	163.00	171.00	233.00	220.00	200.00	196.00
95.00	95.00	98.00	104.00	112.00	108.00	116.00	109.00	118.00	123.00	111.00	108.00	117.00	121.00	108.00	123.00	131.00	132.00	114.00	112.00	114.00	115.00	123.00	135.00	116.00	112.00	118.00	125.00	132.00	132.00	123.00	112.00	128.00	118.00	114.00	107.00	107.00	130.00	142.00	146.00	136.00	136.00	166.00	159.00	155.00	136.00	150.00	155.00	159.00	158.00	148.00	150.00	149.00	148.00	141.00	128.00	122.00	129.00	131.00	141.00	142.00	144.00	146.00	144.00	153.00	155.00	152.00	143.00	121.00	117.00	118.00	140.00	144.00	126.00	130.00	129.00	120.00	120.00	125.00	133.00	140.00	139.00	125.00	124.00	124.00	111.00	125.00	126.00	137.00	137.00	139.00	127.00	140.00	142.00	143.00	142.00	135.00	130.00	138.00	141.00	137.00	137.00	134.00	144.00	144.00	146.00	146.00	142.00	143.00	154.00	152.00	151.00	156.00	147.00	130.00	125.00	119.00	122.00	121.00	143.00	147.00	132.00	117.00	121.00	137.00	147.00	132.00	135.00	141.00	126.00	133.00	126.00	138.00	123.00	115.00	132.00	127.00	120.00	131.00	132.00	131.00	130.00	129.00	127.00	131.00	130.00	115.00	126.00	127.00	127.00	126.00	123.00	120.00	112.00	127.00	126.00	126.00	139.00	134.00	119.00	123.00	132.00	129.00	116.00	118.00	125.00	127.00	126.00	127.00	131.00	128.00	124.00	121.00	126.00	133.00	125.00	137.00	145.00	139.00	138.00	136.00	141.00	139.00	138.00	135.00	129.00	140.00	138.00	139.00	145.00	143.00	142.00	140.00	138.00	135.00	133.00	148.00	153.00	140.00	166.00	166.00	165.00	164.00	151.00	140.00	128.00	136.00	156.00	142.00	144.00	147.00	159.00	178.00	186.00	196.00	197.00	181.00	177.00	178.00	163.00	145.00	143.00	144.00	143.00	143.00	157.00	165.00	168.00	176.00	187.00	201.00	216.00	224.00	219.00	173.00	169.00	164.00	171.00	160.00	149.00	159.00	163.00	154.00	153.00	159.00	167.00	165.00	156.00	149.00	159.00	165.00	179.00	229.00	211.00	200.00	190.00
92.00	93.00	92.00	95.00	98.00	103.00	98.00	103.00	108.00	115.00	107.00	104.00	106.00	110.00	109.00	113.00	117.00	131.00	129.00	106.00	104.00	114.00	115.00	125.00	110.00	117.00	123.00	121.00	135.00	125.00	119.00	114.00	118.00	114.00	108.00	100.00	111.00	138.00	131.00	130.00	131.00	141.00	146.00	145.00	157.00	154.00	136.00	154.00	145.00	137.00	140.00	140.00	146.00	151.00	139.00	133.00	127.00	121.00	110.00	120.00	133.00	143.00	145.00	145.00	149.00	150.00	144.00	135.00	129.00	116.00	115.00	136.00	146.00	136.00	132.00	116.00	118.00	138.00	138.00	136.00	135.00	140.00	137.00	136.00	119.00	115.00	130.00	119.00	114.00	118.00	127.00	127.00	128.00	129.00	119.00	123.00	124.00	124.00	126.00	137.00	153.00	150.00	143.00	145.00	149.00	149.00	144.00	149.00	153.00	155.00	156.00	157.00	142.00	131.00	143.00	141.00	143.00	129.00	126.00	113.00	131.00	135.00	116.00	136.00	148.00	153.00	155.00	128.00	124.00	125.00	130.00	109.00	126.00	127.00	118.00	110.00	119.00	117.00	124.00	123.00	115.00	112.00	107.00	103.00	102.00	101.00	101.00	104.00	103.00	101.00	102.00	102.00	101.00	103.00	103.00	102.00	101.00	105.00	103.00	112.00	111.00	109.00	106.00	112.00	110.00	105.00	105.00	120.00	121.00	125.00	122.00	115.00	133.00	134.00	134.00	133.00	124.00	127.00	132.00	131.00	134.00	134.00	134.00	133.00	126.00	134.00	136.00	133.00	134.00	137.00	139.00	138.00	135.00	137.00	137.00	135.00	130.00	130.00	134.00	151.00	149.00	153.00	153.00	143.00	132.00	125.00	140.00	136.00	140.00	147.00	162.00	166.00	155.00	160.00	160.00	172.00	168.00	171.00	179.00	159.00	143.00	137.00	150.00	160.00	156.00	169.00	163.00	170.00	186.00	196.00	183.00	190.00	204.00	192.00	178.00	172.00	173.00	190.00	176.00	165.00	148.00	148.00	142.00	143.00	145.00	144.00	147.00	155.00	165.00	164.00	181.00	213.00	214.00	193.00	185.00	176.00
91.00	100.00	94.00	93.00	95.00	96.00	104.00	120.00	122.00	114.00	103.00	102.00	110.00	111.00	106.00	106.00	112.00	147.00	141.00	111.00	103.00	116.00	107.00	112.00	109.00	116.00	118.00	121.00	140.00	131.00	121.00	116.00	116.00	112.00	102.00	99.00	110.00	144.00	138.00	143.00	136.00	129.00	152.00	157.00	166.00	156.00	134.00	139.00	138.00	142.00	133.00	140.00	146.00	148.00	136.00	126.00	118.00	119.00	115.00	132.00	134.00	136.00	143.00	144.00	157.00	154.00	146.00	133.00	129.00	119.00	115.00	139.00	145.00	124.00	119.00	119.00	125.00	143.00	143.00	130.00	131.00	139.00	141.00	140.00	123.00	112.00	126.00	124.00	127.00	128.00	136.00	123.00	118.00	122.00	125.00	121.00	124.00	140.00	137.00	145.00	155.00	154.00	155.00	153.00	155.00	155.00	150.00	152.00	155.00	162.00	155.00	155.00	141.00	142.00	146.00	146.00	137.00	126.00	141.00	116.00	125.00	117.00	119.00	127.00	137.00	148.00	137.00	131.00	137.00	130.00	129.00	116.00	109.00	118.00	110.00	102.00	104.00	107.00	105.00	102.00	101.00	100.00	103.00	104.00	102.00	102.00	101.00	102.00	102.00	102.00	102.00	104.00	104.00	102.00	103.00	103.00	102.00	101.00	101.00	109.00	106.00	105.00	105.00	104.00	103.00	103.00	102.00	103.00	109.00	118.00	118.00	115.00	132.00	132.00	129.00	126.00	134.00	139.00	136.00	136.00	135.00	134.00	133.00	129.00	122.00	128.00	133.00	133.00	136.00	137.00	137.00	135.00	134.00	136.00	136.00	135.00	133.00	128.00	127.00	142.00	143.00	151.00	152.00	148.00	135.00	126.00	137.00	134.00	142.00	155.00	167.00	162.00	146.00	151.00	158.00	168.00	158.00	169.00	174.00	157.00	138.00	139.00	158.00	178.00	169.00	175.00	172.00	183.00	187.00	186.00	174.00	185.00	198.00	180.00	184.00	181.00	185.00	206.00	212.00	159.00	169.00	154.00	146.00	154.00	155.00	157.00	151.00	164.00	172.00	168.00	193.00	218.00	192.00	190.00	184.00	173.00
91.00	91.00	92.00	92.00	93.00	94.00	107.00	119.00	122.00	109.00	102.00	106.00	107.00	108.00	104.00	110.00	115.00	115.00	123.00	115.00	107.00	110.00	108.00	106.00	108.00	112.00	115.00	123.00	131.00	124.00	117.00	113.00	109.00	112.00	105.00	104.00	117.00	142.00	141.00	148.00	143.00	146.00	160.00	164.00	159.00	152.00	143.00	141.00	129.00	127.00	124.00	129.00	129.00	142.00	146.00	137.00	143.00	135.00	120.00	133.00	145.00	145.00	139.00	151.00	155.00	151.00	139.00	134.00	131.00	124.00	117.00	133.00	138.00	124.00	117.00	123.00	133.00	145.00	146.00	133.00	129.00	140.00	132.00	140.00	123.00	113.00	136.00	124.00	135.00	138.00	135.00	134.00	128.00	125.00	141.00	126.00	131.00	136.00	145.00	153.00	143.00	144.00	147.00	149.00	161.00	162.00	155.00	147.00	155.00	163.00	152.00	148.00	151.00	154.00	151.00	140.00	143.00	147.00	124.00	111.00	112.00	125.00	125.00	135.00	145.00	137.00	126.00	128.00	122.00	130.00	119.00	112.00	102.00	101.00	100.00	101.00	100.00	101.00	101.00	102.00	98.00	101.00	103.00	103.00	104.00	101.00	103.00	103.00	103.00	103.00	103.00	104.00	102.00	102.00	100.00	100.00	99.00	102.00	101.00	103.00	104.00	106.00	103.00	102.00	102.00	102.00	102.00	100.00	100.00	102.00	105.00	120.00	135.00	136.00	136.00	130.00	143.00	142.00	138.00	136.00	137.00	142.00	142.00	129.00	123.00	126.00	128.00	134.00	136.00	136.00	134.00	134.00	135.00	136.00	133.00	134.00	132.00	125.00	127.00	137.00	144.00	147.00	153.00	132.00	126.00	131.00	129.00	142.00	149.00	150.00	164.00	153.00	152.00	155.00	162.00	168.00	156.00	171.00	171.00	158.00	134.00	153.00	175.00	190.00	166.00	183.00	191.00	196.00	188.00	174.00	174.00	179.00	184.00	176.00	180.00	189.00	207.00	217.00	209.00	197.00	189.00	149.00	140.00	150.00	161.00	160.00	162.00	161.00	169.00	182.00	207.00	215.00	183.00	179.00	178.00	170.00
92.00	90.00	90.00	92.00	94.00	94.00	103.00	115.00	110.00	105.00	104.00	110.00	105.00	103.00	101.00	108.00	111.00	107.00	113.00	111.00	109.00	104.00	110.00	105.00	110.00	116.00	119.00	125.00	131.00	124.00	124.00	121.00	105.00	111.00	103.00	103.00	125.00	149.00	145.00	147.00	152.00	159.00	159.00	154.00	151.00	155.00	152.00	148.00	134.00	128.00	135.00	127.00	138.00	145.00	152.00	145.00	148.00	145.00	126.00	135.00	143.00	149.00	147.00	155.00	152.00	152.00	148.00	140.00	129.00	123.00	116.00	124.00	128.00	119.00	118.00	128.00	136.00	144.00	144.00	135.00	126.00	138.00	130.00	133.00	117.00	114.00	131.00	133.00	136.00	139.00	129.00	142.00	128.00	135.00	149.00	127.00	124.00	134.00	150.00	155.00	144.00	149.00	149.00	151.00	163.00	168.00	163.00	149.00	154.00	163.00	149.00	145.00	152.00	142.00	139.00	133.00	144.00	144.00	118.00	107.00	121.00	135.00	137.00	143.00	135.00	126.00	126.00	130.00	116.00	111.00	111.00	100.00	102.00	101.00	100.00	101.00	99.00	102.00	101.00	98.00	101.00	100.00	97.00	102.00	99.00	97.00	97.00	98.00	98.00	96.00	97.00	97.00	97.00	96.00	95.00	95.00	96.00	99.00	103.00	103.00	103.00	103.00	106.00	102.00	105.00	102.00	102.00	101.00	102.00	101.00	105.00	109.00	129.00	133.00	130.00	125.00	135.00	135.00	136.00	133.00	135.00	145.00	136.00	129.00	126.00	133.00	133.00	133.00	135.00	137.00	135.00	137.00	136.00	136.00	133.00	133.00	129.00	122.00	129.00	139.00	139.00	142.00	144.00	129.00	133.00	130.00	125.00	151.00	148.00	145.00	160.00	146.00	161.00	168.00	169.00	166.00	157.00	169.00	167.00	152.00	134.00	154.00	167.00	174.00	164.00	192.00	199.00	188.00	186.00	168.00	181.00	178.00	177.00	172.00	178.00	187.00	203.00	196.00	197.00	190.00	173.00	142.00	147.00	152.00	156.00	158.00	161.00	165.00	166.00	171.00	204.00	207.00	179.00	172.00	171.00	168.00
85.00	93.00	92.00	89.00	90.00	89.00	92.00	92.00	96.00	104.00	103.00	105.00	100.00	99.00	98.00	102.00	107.00	102.00	101.00	101.00	101.00	103.00	106.00	105.00	128.00	138.00	136.00	120.00	117.00	122.00	125.00	116.00	105.00	108.00	101.00	99.00	116.00	134.00	137.00	144.00	145.00	155.00	140.00	139.00	142.00	132.00	134.00	142.00	144.00	152.00	155.00	140.00	136.00	135.00	142.00	137.00	137.00	139.00	138.00	128.00	147.00	145.00	146.00	146.00	149.00	149.00	148.00	139.00	132.00	128.00	120.00	118.00	127.00	119.00	126.00	132.00	136.00	141.00	131.00	121.00	117.00	122.00	115.00	109.00	119.00	136.00	143.00	140.00	137.00	138.00	147.00	144.00	137.00	148.00	145.00	140.00	141.00	128.00	134.00	138.00	135.00	140.00	147.00	147.00	159.00	167.00	156.00	153.00	157.00	149.00	147.00	138.00	148.00	148.00	146.00	132.00	119.00	115.00	124.00	107.00	114.00	123.00	142.00	130.00	123.00	116.00	128.00	107.00	102.00	102.00	102.00	102.00	102.00	104.00	101.00	97.00	102.00	104.00	104.00	102.00	101.00	96.00	93.00	94.00	97.00	95.00	94.00	94.00	97.00	99.00	99.00	102.00	100.00	103.00	102.00	99.00	103.00	95.00	99.00	103.00	102.00	103.00	105.00	104.00	105.00	107.00	104.00	103.00	102.00	104.00	101.00	101.00	102.00	105.00	110.00	110.00	105.00	107.00	133.00	123.00	130.00	135.00	123.00	119.00	138.00	141.00	145.00	150.00	150.00	128.00	133.00	133.00	131.00	133.00	130.00	129.00	126.00	121.00	127.00	138.00	137.00	139.00	140.00	126.00	121.00	123.00	129.00	142.00	137.00	142.00	149.00	139.00	151.00	158.00	162.00	152.00	161.00	166.00	158.00	149.00	126.00	151.00	158.00	150.00	150.00	163.00	163.00	156.00	159.00	166.00	193.00	175.00	163.00	179.00	194.00	208.00	209.00	192.00	170.00	168.00	140.00	143.00	137.00	144.00	142.00	145.00	155.00	161.00	171.00	177.00	202.00	208.00	172.00	171.00	167.00	160.00
87.00	93.00	87.00	86.00	88.00	91.00	92.00	97.00	94.00	95.00	113.00	102.00	99.00	96.00	100.00	102.00	102.00	100.00	105.00	101.00	101.00	101.00	102.00	102.00	119.00	136.00	128.00	115.00	112.00	118.00	120.00	114.00	109.00	101.00	99.00	101.00	114.00	126.00	132.00	142.00	139.00	142.00	125.00	139.00	148.00	148.00	135.00	145.00	146.00	148.00	152.00	147.00	125.00	128.00	137.00	139.00	137.00	137.00	135.00	126.00	141.00	143.00	142.00	145.00	144.00	144.00	145.00	140.00	132.00	130.00	121.00	117.00	129.00	124.00	134.00	137.00	130.00	133.00	121.00	121.00	114.00	110.00	111.00	105.00	120.00	136.00	142.00	144.00	143.00	143.00	157.00	141.00	133.00	138.00	146.00	142.00	139.00	136.00	132.00	135.00	138.00	144.00	150.00	153.00	161.00	167.00	161.00	157.00	158.00	152.00	148.00	134.00	130.00	149.00	140.00	120.00	117.00	127.00	122.00	107.00	109.00	125.00	133.00	128.00	118.00	115.00	130.00	102.00	101.00	103.00	102.00	102.00	99.00	99.00	101.00	101.00	99.00	100.00	99.00	97.00	93.00	93.00	93.00	93.00	94.00	97.00	95.00	100.00	103.00	102.00	103.00	104.00	103.00	104.00	103.00	102.00	107.00	99.00	95.00	101.00	103.00	104.00	106.00	104.00	104.00	105.00	106.00	105.00	104.00	102.00	102.00	101.00	102.00	100.00	101.00	101.00	102.00	100.00	114.00	121.00	134.00	121.00	117.00	132.00	139.00	143.00	142.00	146.00	145.00	130.00	131.00	131.00	130.00	133.00	131.00	128.00	126.00	120.00	128.00	139.00	137.00	138.00	139.00	125.00	120.00	122.00	132.00	146.00	137.00	136.00	136.00	132.00	148.00	145.00	144.00	144.00	162.00	159.00	150.00	137.00	138.00	160.00	148.00	144.00	145.00	154.00	150.00	157.00	170.00	175.00	185.00	172.00	165.00	181.00	199.00	198.00	197.00	191.00	171.00	164.00	145.00	136.00	146.00	145.00	146.00	148.00	156.00	162.00	167.00	181.00	207.00	204.00	178.00	170.00	162.00	157.00
90.00	98.00	98.00	93.00	88.00	92.00	95.00	93.00	91.00	96.00	99.00	97.00	98.00	98.00	97.00	100.00	103.00	100.00	100.00	100.00	98.00	101.00	100.00	101.00	103.00	107.00	105.00	104.00	103.00	103.00	102.00	102.00	102.00	103.00	114.00	108.00	105.00	122.00	123.00	126.00	124.00	140.00	137.00	139.00	147.00	143.00	133.00	148.00	145.00	146.00	141.00	151.00	140.00	119.00	132.00	143.00	144.00	143.00	136.00	123.00	140.00	141.00	140.00	150.00	147.00	147.00	143.00	142.00	136.00	127.00	122.00	116.00	119.00	126.00	127.00	126.00	117.00	117.00	110.00	108.00	106.00	105.00	116.00	125.00	126.00	135.00	116.00	125.00	140.00	141.00	151.00	147.00	147.00	140.00	142.00	144.00	145.00	146.00	147.00	145.00	149.00	149.00	144.00	143.00	155.00	159.00	158.00	156.00	157.00	158.00	152.00	137.00	138.00	133.00	132.00	130.00	147.00	135.00	136.00	128.00	108.00	107.00	110.00	115.00	109.00	108.00	100.00	98.00	99.00	102.00	97.00	95.00	92.00	92.00	92.00	92.00	93.00	93.00	93.00	94.00	100.00	102.00	102.00	104.00	102.00	102.00	102.00	104.00	105.00	107.00	106.00	106.00	105.00	106.00	106.00	105.00	104.00	104.00	96.00	95.00	97.00	102.00	104.00	106.00	105.00	104.00	104.00	107.00	107.00	106.00	106.00	107.00	105.00	105.00	104.00	102.00	99.00	101.00	99.00	101.00	111.00	113.00	132.00	140.00	126.00	141.00	143.00	138.00	131.00	138.00	127.00	126.00	130.00	130.00	129.00	128.00	127.00	123.00	120.00	136.00	135.00	136.00	135.00	121.00	117.00	118.00	136.00	140.00	138.00	131.00	124.00	134.00	139.00	144.00	149.00	151.00	151.00	146.00	140.00	126.00	148.00	144.00	135.00	144.00	150.00	152.00	153.00	165.00	170.00	165.00	170.00	154.00	166.00	166.00	173.00	175.00	181.00	178.00	164.00	132.00	127.00	159.00	158.00	156.00	150.00	158.00	163.00	159.00	169.00	198.00	200.00	205.00	173.00	170.00	195.00	163.00
83.00	93.00	94.00	93.00	95.00	92.00	91.00	92.00	91.00	96.00	95.00	95.00	96.00	96.00	96.00	101.00	102.00	106.00	107.00	99.00	98.00	100.00	99.00	100.00	100.00	100.00	100.00	100.00	100.00	100.00	101.00	101.00	100.00	102.00	108.00	112.00	105.00	108.00	114.00	120.00	121.00	131.00	130.00	133.00	133.00	136.00	130.00	144.00	140.00	136.00	130.00	141.00	140.00	129.00	119.00	142.00	140.00	138.00	126.00	125.00	140.00	145.00	147.00	148.00	148.00	147.00	148.00	147.00	133.00	128.00	122.00	113.00	121.00	124.00	125.00	117.00	117.00	113.00	109.00	106.00	114.00	119.00	127.00	135.00	127.00	136.00	127.00	130.00	133.00	142.00	140.00	147.00	146.00	144.00	142.00	143.00	144.00	143.00	143.00	148.00	150.00	150.00	150.00	148.00	149.00	153.00	146.00	145.00	145.00	147.00	150.00	147.00	136.00	147.00	140.00	145.00	148.00	136.00	127.00	115.00	117.00	114.00	106.00	104.00	101.00	97.00	92.00	93.00	93.00	92.00	92.00	93.00	93.00	92.00	93.00	96.00	100.00	100.00	101.00	103.00	102.00	101.00	101.00	101.00	103.00	101.00	102.00	102.00	104.00	104.00	104.00	104.00	106.00	107.00	107.00	106.00	106.00	105.00	102.00	95.00	95.00	96.00	98.00	102.00	101.00	103.00	105.00	103.00	103.00	103.00	103.00	103.00	105.00	108.00	106.00	104.00	101.00	100.00	101.00	102.00	107.00	117.00	135.00	135.00	121.00	141.00	142.00	138.00	130.00	137.00	127.00	128.00	129.00	128.00	127.00	127.00	128.00	123.00	121.00	130.00	133.00	134.00	134.00	123.00	118.00	115.00	130.00	135.00	133.00	124.00	125.00	137.00	142.00	143.00	147.00	152.00	142.00	135.00	126.00	124.00	144.00	141.00	130.00	141.00	153.00	172.00	171.00	166.00	159.00	151.00	169.00	157.00	153.00	153.00	166.00	177.00	175.00	168.00	147.00	128.00	136.00	153.00	162.00	160.00	163.00	158.00	170.00	166.00	173.00	196.00	199.00	206.00	180.00	181.00	207.00	171.00
87.00	86.00	93.00	95.00	89.00	87.00	90.00	95.00	94.00	96.00	96.00	95.00	96.00	96.00	92.00	104.00	106.00	106.00	105.00	97.00	98.00	99.00	99.00	99.00	102.00	98.00	98.00	96.00	98.00	98.00	100.00	100.00	101.00	100.00	102.00	105.00	98.00	110.00	117.00	111.00	116.00	129.00	131.00	128.00	122.00	121.00	134.00	135.00	136.00	141.00	140.00	129.00	135.00	129.00	115.00	138.00	125.00	116.00	123.00	141.00	147.00	146.00	148.00	147.00	145.00	145.00	147.00	147.00	138.00	135.00	124.00	118.00	112.00	119.00	119.00	106.00	104.00	122.00	126.00	122.00	117.00	120.00	136.00	130.00	133.00	138.00	142.00	145.00	147.00	142.00	143.00	146.00	151.00	151.00	148.00	142.00	151.00	155.00	154.00	153.00	152.00	140.00	150.00	154.00	145.00	137.00	136.00	136.00	127.00	128.00	138.00	144.00	143.00	151.00	151.00	153.00	141.00	131.00	120.00	125.00	133.00	131.00	119.00	112.00	95.00	92.00	90.00	92.00	92.00	92.00	92.00	95.00	100.00	102.00	101.00	101.00	102.00	101.00	101.00	102.00	101.00	105.00	104.00	105.00	106.00	103.00	103.00	107.00	110.00	110.00	111.00	111.00	109.00	109.00	108.00	104.00	106.00	105.00	107.00	106.00	104.00	97.00	95.00	95.00	95.00	95.00	95.00	96.00	97.00	100.00	102.00	103.00	101.00	100.00	103.00	104.00	104.00	102.00	101.00	102.00	103.00	104.00	106.00	113.00	129.00	135.00	138.00	131.00	123.00	133.00	121.00	126.00	126.00	127.00	127.00	124.00	124.00	123.00	120.00	129.00	132.00	132.00	132.00	121.00	113.00	115.00	132.00	133.00	126.00	121.00	134.00	123.00	113.00	114.00	115.00	123.00	135.00	120.00	128.00	142.00	144.00	133.00	132.00	150.00	157.00	159.00	164.00	162.00	159.00	144.00	162.00	152.00	146.00	148.00	176.00	173.00	160.00	128.00	149.00	145.00	173.00	176.00	195.00	187.00	195.00	176.00	195.00	186.00	202.00	187.00	195.00	204.00	171.00	166.00	192.00	159.00
87.00	87.00	91.00	93.00	91.00	88.00	88.00	90.00	94.00	95.00	93.00	94.00	93.00	93.00	91.00	103.00	104.00	104.00	99.00	96.00	96.00	95.00	100.00	99.00	101.00	100.00	96.00	97.00	100.00	99.00	100.00	101.00	101.00	101.00	101.00	101.00	99.00	107.00	114.00	113.00	117.00	116.00	122.00	126.00	124.00	119.00	135.00	132.00	131.00	132.00	131.00	127.00	139.00	137.00	116.00	126.00	115.00	113.00	129.00	140.00	142.00	144.00	144.00	143.00	142.00	143.00	146.00	147.00	140.00	135.00	125.00	115.00	111.00	116.00	110.00	105.00	105.00	114.00	130.00	130.00	123.00	126.00	130.00	129.00	139.00	140.00	144.00	146.00	150.00	150.00	141.00	141.00	153.00	151.00	142.00	138.00	144.00	149.00	153.00	155.00	147.00	132.00	138.00	146.00	148.00	144.00	147.00	150.00	144.00	134.00	143.00	148.00	152.00	149.00	144.00	138.00	142.00	134.00	133.00	132.00	133.00	119.00	97.00	92.00	92.00	92.00	91.00	90.00	91.00	92.00	94.00	99.00	101.00	104.00	101.00	102.00	101.00	100.00	101.00	101.00	102.00	103.00	104.00	104.00	104.00	106.00	101.00	108.00	107.00	109.00	108.00	107.00	105.00	104.00	111.00	110.00	109.00	106.00	105.00	105.00	105.00	105.00	102.00	100.00	99.00	101.00	96.00	96.00	95.00	95.00	97.00	101.00	103.00	101.00	101.00	104.00	106.00	106.00	101.00	100.00	102.00	104.00	107.00	108.00	109.00	116.00	114.00	113.00	109.00	130.00	123.00	127.00	126.00	130.00	124.00	127.00	121.00	117.00	120.00	130.00	131.00	131.00	131.00	121.00	113.00	119.00	133.00	135.00	126.00	119.00	115.00	108.00	109.00	106.00	109.00	114.00	115.00	113.00	119.00	126.00	140.00	124.00	134.00	150.00	153.00	144.00	149.00	145.00	141.00	143.00	167.00	147.00	139.00	152.00	167.00	162.00	156.00	136.00	121.00	161.00	168.00	174.00	191.00	204.00	206.00	196.00	206.00	194.00	189.00	184.00	194.00	205.00	169.00	161.00	167.00	158.00
83.00	84.00	85.00	89.00	88.00	88.00	87.00	88.00	92.00	92.00	95.00	95.00	91.00	95.00	93.00	95.00	97.00	97.00	95.00	97.00	96.00	97.00	100.00	100.00	99.00	98.00	97.00	99.00	99.00	100.00	101.00	103.00	102.00	101.00	101.00	101.00	100.00	103.00	110.00	117.00	115.00	113.00	122.00	127.00	122.00	119.00	124.00	124.00	124.00	132.00	127.00	126.00	141.00	136.00	123.00	113.00	111.00	121.00	130.00	133.00	138.00	137.00	141.00	142.00	138.00	142.00	146.00	144.00	138.00	128.00	123.00	119.00	113.00	111.00	107.00	103.00	111.00	114.00	130.00	134.00	136.00	134.00	131.00	121.00	139.00	146.00	139.00	140.00	142.00	149.00	146.00	147.00	149.00	142.00	131.00	136.00	138.00	145.00	153.00	156.00	136.00	132.00	127.00	132.00	144.00	142.00	137.00	146.00	125.00	133.00	134.00	146.00	159.00	142.00	133.00	137.00	134.00	135.00	120.00	119.00	126.00	125.00	92.00	92.00	92.00	92.00	93.00	94.00	96.00	97.00	99.00	100.00	105.00	105.00	101.00	102.00	100.00	101.00	100.00	101.00	101.00	100.00	101.00	102.00	103.00	105.00	101.00	104.00	105.00	104.00	103.00	104.00	104.00	109.00	108.00	109.00	110.00	110.00	108.00	105.00	106.00	104.00	104.00	105.00	107.00	106.00	105.00	96.00	95.00	95.00	95.00	95.00	101.00	102.00	102.00	104.00	107.00	107.00	105.00	103.00	103.00	104.00	105.00	105.00	106.00	107.00	106.00	107.00	106.00	109.00	127.00	135.00	131.00	135.00	122.00	117.00	116.00	120.00	125.00	130.00	130.00	131.00	130.00	122.00	117.00	128.00	129.00	126.00	119.00	116.00	109.00	111.00	105.00	104.00	107.00	105.00	119.00	119.00	116.00	115.00	119.00	118.00	125.00	127.00	139.00	136.00	131.00	129.00	136.00	151.00	155.00	141.00	146.00	163.00	161.00	144.00	133.00	129.00	118.00	158.00	154.00	176.00	187.00	193.00	198.00	188.00	188.00	188.00	174.00	187.00	200.00	208.00	185.00	180.00	175.00	155.00
81.00	85.00	84.00	87.00	88.00	88.00	86.00	88.00	89.00	90.00	92.00	90.00	93.00	99.00	93.00	95.00	95.00	93.00	98.00	98.00	99.00	98.00	102.00	101.00	96.00	97.00	97.00	98.00	99.00	100.00	100.00	101.00	101.00	101.00	100.00	100.00	100.00	99.00	100.00	108.00	116.00	117.00	115.00	123.00	123.00	119.00	125.00	123.00	121.00	125.00	120.00	122.00	125.00	123.00	118.00	122.00	135.00	139.00	141.00	126.00	132.00	137.00	138.00	142.00	138.00	141.00	144.00	140.00	136.00	137.00	131.00	121.00	118.00	108.00	113.00	115.00	115.00	118.00	129.00	135.00	145.00	145.00	138.00	124.00	149.00	149.00	139.00	127.00	130.00	141.00	142.00	142.00	136.00	137.00	128.00	131.00	136.00	142.00	151.00	151.00	141.00	138.00	137.00	122.00	136.00	144.00	129.00	130.00	115.00	146.00	139.00	140.00	149.00	148.00	126.00	135.00	131.00	121.00	114.00	110.00	116.00	103.00	93.00	97.00	101.00	102.00	101.00	101.00	99.00	98.00	99.00	102.00	101.00	103.00	106.00	103.00	101.00	101.00	101.00	100.00	101.00	102.00	103.00	102.00	101.00	101.00	101.00	100.00	102.00	104.00	102.00	108.00	111.00	107.00	104.00	106.00	108.00	109.00	108.00	107.00	108.00	105.00	111.00	106.00	107.00	109.00	108.00	100.00	97.00	96.00	96.00	96.00	95.00	96.00	101.00	102.00	107.00	106.00	108.00	103.00	106.00	103.00	109.00	105.00	107.00	111.00	108.00	113.00	110.00	109.00	114.00	128.00	128.00	132.00	119.00	116.00	121.00	127.00	130.00	128.00	132.00	132.00	130.00	114.00	113.00	116.00	115.00	110.00	109.00	109.00	110.00	108.00	103.00	104.00	105.00	106.00	114.00	116.00	111.00	107.00	115.00	116.00	121.00	120.00	118.00	132.00	121.00	134.00	146.00	148.00	138.00	141.00	155.00	165.00	153.00	139.00	124.00	119.00	127.00	145.00	155.00	184.00	185.00	179.00	187.00	183.00	176.00	174.00	171.00	185.00	196.00	201.00	213.00	204.00	193.00	163.00
79.00	87.00	85.00	84.00	85.00	92.00	89.00	88.00	90.00	88.00	90.00	96.00	97.00	92.00	95.00	100.00	101.00	97.00	98.00	105.00	103.00	97.00	97.00	98.00	96.00	96.00	97.00	97.00	99.00	100.00	100.00	100.00	102.00	101.00	100.00	99.00	99.00	99.00	98.00	102.00	112.00	116.00	113.00	118.00	122.00	120.00	122.00	124.00	124.00	120.00	122.00	120.00	121.00	117.00	112.00	121.00	124.00	123.00	124.00	124.00	132.00	135.00	131.00	132.00	132.00	128.00	132.00	126.00	130.00	132.00	134.00	129.00	120.00	104.00	125.00	127.00	128.00	130.00	130.00	131.00	133.00	135.00	145.00	144.00	144.00	144.00	130.00	123.00	126.00	137.00	134.00	122.00	117.00	119.00	131.00	136.00	142.00	148.00	147.00	131.00	139.00	131.00	137.00	116.00	135.00	134.00	127.00	113.00	120.00	142.00	125.00	129.00	140.00	132.00	123.00	108.00	108.00	102.00	99.00	91.00	91.00	99.00	100.00	102.00	105.00	103.00	104.00	104.00	106.00	101.00	102.00	102.00	102.00	103.00	102.00	103.00	100.00	100.00	101.00	103.00	102.00	100.00	102.00	102.00	103.00	101.00	100.00	107.00	109.00	110.00	108.00	106.00	107.00	110.00	103.00	101.00	109.00	110.00	110.00	109.00	109.00	107.00	107.00	102.00	104.00	105.00	107.00	103.00	104.00	102.00	102.00	105.00	103.00	101.00	97.00	96.00	95.00	95.00	99.00	103.00	101.00	103.00	105.00	104.00	108.00	110.00	111.00	111.00	110.00	112.00	111.00	112.00	107.00	106.00	106.00	105.00	109.00	118.00	129.00	127.00	131.00	118.00	104.00	104.00	106.00	114.00	117.00	111.00	106.00	106.00	106.00	104.00	104.00	105.00	104.00	105.00	107.00	104.00	104.00	106.00	105.00	107.00	108.00	110.00	107.00	105.00	111.00	130.00	141.00	143.00	147.00	158.00	154.00	150.00	128.00	119.00	116.00	138.00	135.00	149.00	163.00	179.00	173.00	166.00	176.00	167.00	163.00	152.00	165.00	170.00	183.00	170.00	192.00	191.00	180.00	174.00
79.00	85.00	84.00	85.00	84.00	90.00	97.00	96.00	90.00	88.00	90.00	95.00	96.00	93.00	91.00	94.00	99.00	98.00	100.00	97.00	93.00	96.00	96.00	103.00	100.00	97.00	98.00	97.00	98.00	99.00	99.00	99.00	100.00	101.00	100.00	101.00	113.00	111.00	98.00	100.00	108.00	114.00	114.00	120.00	121.00	114.00	120.00	121.00	122.00	121.00	119.00	123.00	120.00	116.00	110.00	117.00	121.00	120.00	119.00	116.00	118.00	121.00	125.00	128.00	130.00	130.00	129.00	125.00	122.00	126.00	128.00	124.00	123.00	105.00	128.00	119.00	119.00	131.00	137.00	138.00	139.00	142.00	143.00	143.00	136.00	133.00	125.00	118.00	128.00	131.00	130.00	114.00	128.00	131.00	139.00	128.00	138.00	144.00	146.00	144.00	123.00	122.00	126.00	117.00	137.00	135.00	127.00	115.00	122.00	144.00	129.00	114.00	131.00	119.00	105.00	98.00	100.00	100.00	92.00	91.00	95.00	100.00	101.00	102.00	102.00	102.00	104.00	103.00	105.00	103.00	101.00	102.00	99.00	102.00	103.00	102.00	99.00	101.00	102.00	103.00	102.00	100.00	100.00	100.00	99.00	104.00	107.00	105.00	106.00	108.00	105.00	101.00	103.00	109.00	100.00	100.00	102.00	105.00	105.00	106.00	109.00	110.00	111.00	106.00	104.00	106.00	109.00	103.00	102.00	102.00	103.00	104.00	106.00	106.00	104.00	100.00	95.00	95.00	95.00	96.00	101.00	105.00	108.00	110.00	113.00	109.00	109.00	110.00	112.00	112.00	109.00	110.00	107.00	105.00	117.00	115.00	107.00	106.00	111.00	126.00	114.00	103.00	102.00	104.00	104.00	104.00	107.00	105.00	104.00	104.00	106.00	104.00	105.00	104.00	104.00	104.00	104.00	104.00	105.00	106.00	110.00	111.00	108.00	110.00	109.00	107.00	107.00	107.00	116.00	127.00	154.00	152.00	141.00	133.00	116.00	121.00	135.00	138.00	136.00	156.00	166.00	161.00	150.00	161.00	162.00	161.00	152.00	162.00	176.00	183.00	173.00	162.00	173.00	184.00	185.00	168.00
80.00	86.00	85.00	85.00	84.00	85.00	96.00	97.00	94.00	90.00	92.00	96.00	93.00	95.00	96.00	98.00	96.00	95.00	100.00	95.00	90.00	100.00	101.00	98.00	99.00	99.00	100.00	104.00	99.00	100.00	98.00	101.00	99.00	101.00	100.00	99.00	110.00	113.00	105.00	97.00	101.00	107.00	116.00	112.00	121.00	120.00	121.00	122.00	121.00	116.00	121.00	122.00	118.00	115.00	109.00	120.00	120.00	119.00	120.00	116.00	115.00	115.00	119.00	125.00	130.00	131.00	128.00	123.00	120.00	119.00	123.00	121.00	123.00	105.00	114.00	130.00	124.00	129.00	134.00	144.00	143.00	135.00	135.00	136.00	134.00	126.00	127.00	119.00	125.00	128.00	119.00	124.00	135.00	140.00	133.00	125.00	126.00	136.00	138.00	144.00	141.00	128.00	118.00	114.00	140.00	129.00	131.00	113.00	123.00	132.00	120.00	108.00	107.00	95.00	97.00	99.00	102.00	100.00	91.00	92.00	99.00	102.00	100.00	102.00	102.00	105.00	102.00	102.00	105.00	102.00	101.00	103.00	100.00	100.00	101.00	102.00	99.00	99.00	100.00	104.00	101.00	99.00	100.00	100.00	101.00	108.00	106.00	109.00	106.00	108.00	105.00	107.00	102.00	109.00	102.00	104.00	104.00	105.00	107.00	105.00	104.00	108.00	108.00	103.00	102.00	102.00	104.00	102.00	102.00	102.00	104.00	104.00	104.00	105.00	104.00	106.00	102.00	103.00	97.00	95.00	95.00	106.00	108.00	106.00	107.00	102.00	103.00	104.00	106.00	110.00	114.00	113.00	106.00	106.00	114.00	110.00	106.00	106.00	105.00	116.00	104.00	104.00	103.00	103.00	104.00	104.00	103.00	105.00	107.00	107.00	104.00	105.00	106.00	104.00	104.00	104.00	105.00	104.00	106.00	109.00	105.00	106.00	106.00	107.00	109.00	110.00	111.00	110.00	111.00	110.00	148.00	141.00	136.00	119.00	128.00	137.00	142.00	128.00	139.00	171.00	168.00	141.00	144.00	153.00	149.00	160.00	145.00	149.00	181.00	184.00	174.00	156.00	177.00	181.00	183.00	169.00
81.00	85.00	86.00	88.00	88.00	88.00	96.00	91.00	94.00	89.00	91.00	92.00	91.00	93.00	95.00	102.00	99.00	91.00	90.00	90.00	91.00	99.00	97.00	100.00	100.00	100.00	104.00	104.00	99.00	100.00	99.00	104.00	104.00	103.00	100.00	99.00	98.00	113.00	105.00	95.00	101.00	110.00	116.00	115.00	119.00	119.00	123.00	124.00	124.00	121.00	117.00	122.00	115.00	111.00	112.00	121.00	120.00	119.00	121.00	119.00	118.00	118.00	117.00	120.00	126.00	127.00	125.00	122.00	118.00	119.00	117.00	119.00	118.00	105.00	121.00	129.00	126.00	124.00	131.00	140.00	140.00	137.00	125.00	131.00	130.00	122.00	127.00	120.00	124.00	117.00	112.00	129.00	137.00	139.00	123.00	121.00	117.00	129.00	144.00	143.00	135.00	126.00	116.00	135.00	129.00	123.00	114.00	111.00	119.00	107.00	100.00	98.00	97.00	97.00	99.00	100.00	101.00	100.00	91.00	93.00	98.00	102.00	102.00	101.00	101.00	105.00	104.00	103.00	100.00	102.00	100.00	101.00	99.00	100.00	101.00	103.00	101.00	99.00	102.00	103.00	102.00	102.00	101.00	101.00	105.00	108.00	106.00	105.00	102.00	106.00	103.00	107.00	108.00	105.00	102.00	110.00	111.00	112.00	111.00	109.00	102.00	107.00	105.00	103.00	103.00	102.00	104.00	102.00	103.00	103.00	105.00	103.00	104.00	106.00	103.00	103.00	104.00	106.00	107.00	101.00	96.00	99.00	104.00	104.00	103.00	100.00	104.00	106.00	105.00	105.00	104.00	106.00	106.00	109.00	112.00	105.00	104.00	104.00	103.00	104.00	105.00	105.00	105.00	104.00	104.00	105.00	103.00	107.00	104.00	104.00	103.00	103.00	103.00	104.00	103.00	103.00	107.00	108.00	106.00	105.00	105.00	105.00	105.00	105.00	105.00	105.00	105.00	106.00	107.00	106.00	128.00	135.00	117.00	109.00	123.00	130.00	133.00	124.00	144.00	155.00	151.00	135.00	152.00	142.00	157.00	142.00	149.00	164.00	181.00	173.00	162.00	151.00	175.00	169.00	168.00	164.00
83.00	85.00	84.00	84.00	85.00	88.00	91.00	95.00	93.00	89.00	92.00	90.00	89.00	88.00	91.00	96.00	93.00	91.00	89.00	95.00	95.00	95.00	99.00	97.00	100.00	103.00	101.00	97.00	101.00	98.00	99.00	102.00	100.00	107.00	105.00	99.00	100.00	99.00	101.00	112.00	108.00	99.00	115.00	113.00	112.00	113.00	119.00	121.00	117.00	118.00	117.00	114.00	110.00	102.00	118.00	114.00	118.00	110.00	113.00	115.00	119.00	122.00	119.00	118.00	116.00	120.00	121.00	122.00	118.00	118.00	117.00	115.00	114.00	105.00	110.00	119.00	114.00	122.00	125.00	134.00	142.00	135.00	124.00	130.00	131.00	117.00	129.00	128.00	113.00	118.00	129.00	124.00	128.00	125.00	115.00	110.00	124.00	136.00	129.00	121.00	126.00	114.00	111.00	122.00	132.00	137.00	130.00	103.00	98.00	97.00	98.00	99.00	97.00	106.00	101.00	103.00	100.00	99.00	91.00	91.00	98.00	99.00	102.00	100.00	98.00	100.00	100.00	99.00	101.00	102.00	100.00	99.00	99.00	100.00	101.00	102.00	102.00	101.00	102.00	100.00	105.00	106.00	103.00	102.00	102.00	102.00	103.00	102.00	103.00	109.00	102.00	104.00	105.00	110.00	109.00	104.00	100.00	104.00	108.00	108.00	107.00	103.00	105.00	103.00	102.00	102.00	103.00	103.00	102.00	102.00	104.00	104.00	103.00	102.00	102.00	103.00	103.00	105.00	105.00	106.00	107.00	96.00	95.00	97.00	101.00	103.00	101.00	101.00	102.00	106.00	103.00	103.00	107.00	107.00	110.00	107.00	105.00	103.00	104.00	102.00	102.00	102.00	103.00	103.00	103.00	107.00	105.00	103.00	109.00	110.00	112.00	112.00	104.00	103.00	103.00	108.00	105.00	105.00	106.00	107.00	104.00	104.00	104.00	104.00	104.00	105.00	104.00	106.00	107.00	106.00	106.00	106.00	106.00	107.00	105.00	105.00	106.00	106.00	105.00	112.00	119.00	143.00	139.00	136.00	147.00	145.00	159.00	162.00	149.00	139.00	154.00	162.00	161.00	154.00	145.00	144.00
89.00	84.00	85.00	87.00	95.00	92.00	88.00	88.00	87.00	88.00	95.00	97.00	92.00	90.00	91.00	92.00	89.00	88.00	87.00	89.00	89.00	98.00	100.00	100.00	100.00	99.00	97.00	100.00	97.00	97.00	98.00	98.00	101.00	100.00	107.00	106.00	105.00	100.00	102.00	106.00	97.00	97.00	112.00	102.00	103.00	96.00	108.00	102.00	105.00	109.00	110.00	112.00	107.00	112.00	117.00	114.00	110.00	118.00	114.00	115.00	117.00	114.00	118.00	115.00	114.00	118.00	119.00	118.00	116.00	117.00	116.00	114.00	112.00	108.00	108.00	107.00	107.00	115.00	117.00	119.00	118.00	117.00	115.00	113.00	115.00	113.00	107.00	107.00	105.00	106.00	103.00	103.00	106.00	109.00	117.00	104.00	112.00	117.00	114.00	117.00	112.00	104.00	109.00	100.00	97.00	99.00	97.00	98.00	98.00	97.00	97.00	96.00	104.00	99.00	100.00	106.00	101.00	99.00	91.00	93.00	100.00	104.00	98.00	97.00	97.00	98.00	102.00	97.00	99.00	99.00	99.00	100.00	99.00	101.00	100.00	100.00	99.00	100.00	100.00	103.00	105.00	103.00	106.00	103.00	106.00	102.00	102.00	105.00	106.00	105.00	105.00	101.00	100.00	101.00	100.00	101.00	101.00	109.00	105.00	104.00	103.00	107.00	107.00	104.00	103.00	103.00	103.00	106.00	105.00	104.00	103.00	104.00	105.00	104.00	105.00	104.00	104.00	105.00	103.00	103.00	103.00	103.00	103.00	104.00	102.00	99.00	99.00	99.00	102.00	101.00	102.00	102.00	103.00	104.00	107.00	106.00	107.00	104.00	104.00	103.00	104.00	103.00	103.00	109.00	107.00	107.00	104.00	105.00	105.00	105.00	104.00	103.00	105.00	106.00	107.00	106.00	106.00	108.00	107.00	106.00	103.00	105.00	110.00	107.00	108.00	104.00	105.00	108.00	111.00	109.00	111.00	109.00	109.00	108.00	109.00	111.00	110.00	107.00	106.00	105.00	105.00	118.00	118.00	146.00	154.00	149.00	151.00	142.00	138.00	165.00	174.00	174.00	170.00	158.00	133.00	139.00
86.00	83.00	87.00	87.00	88.00	86.00	87.00	97.00	89.00	88.00	92.00	88.00	90.00	91.00	90.00	90.00	91.00	93.00	87.00	90.00	90.00	107.00	103.00	101.00	106.00	96.00	93.00	95.00	97.00	96.00	96.00	97.00	102.00	100.00	106.00	108.00	107.00	98.00	103.00	107.00	104.00	95.00	106.00	96.00	95.00	94.00	106.00	105.00	102.00	99.00	100.00	108.00	96.00	118.00	115.00	104.00	110.00	107.00	106.00	112.00	114.00	114.00	111.00	114.00	117.00	118.00	116.00	116.00	115.00	116.00	114.00	112.00	110.00	106.00	106.00	106.00	110.00	114.00	115.00	113.00	113.00	112.00	111.00	114.00	110.00	108.00	100.00	104.00	99.00	97.00	97.00	94.00	95.00	96.00	101.00	100.00	106.00	114.00	106.00	121.00	101.00	98.00	96.00	96.00	100.00	99.00	98.00	97.00	96.00	97.00	98.00	102.00	100.00	100.00	101.00	104.00	99.00	97.00	91.00	96.00	99.00	101.00	97.00	98.00	97.00	98.00	103.00	97.00	98.00	98.00	98.00	99.00	100.00	100.00	100.00	99.00	100.00	100.00	100.00	103.00	104.00	102.00	104.00	102.00	102.00	108.00	115.00	104.00	106.00	107.00	106.00	103.00	101.00	100.00	101.00	100.00	100.00	104.00	103.00	105.00	111.00	111.00	108.00	106.00	105.00	105.00	105.00	106.00	105.00	104.00	106.00	104.00	106.00	106.00	107.00	108.00	106.00	106.00	110.00	106.00	108.00	104.00	107.00	113.00	111.00	105.00	102.00	99.00	99.00	103.00	104.00	106.00	105.00	105.00	103.00	105.00	106.00	106.00	109.00	107.00	106.00	103.00	105.00	107.00	104.00	104.00	104.00	103.00	104.00	104.00	104.00	103.00	107.00	106.00	104.00	104.00	106.00	107.00	108.00	109.00	107.00	105.00	107.00	107.00	108.00	105.00	104.00	106.00	108.00	108.00	107.00	109.00	108.00	106.00	106.00	106.00	108.00	109.00	109.00	105.00	105.00	105.00	105.00	110.00	122.00	143.00	150.00	133.00	147.00	157.00	172.00	173.00	157.00	148.00	127.00	134.00
87.00	89.00	84.00	83.00	85.00	88.00	89.00	89.00	94.00	89.00	89.00	89.00	89.00	86.00	86.00	88.00	91.00	94.00	91.00	87.00	90.00	106.00	106.00	100.00	103.00	96.00	97.00	93.00	94.00	94.00	95.00	102.00	98.00	103.00	105.00	107.00	105.00	100.00	99.00	95.00	92.00	91.00	100.00	98.00	94.00	104.00	100.00	98.00	102.00	98.00	104.00	102.00	95.00	110.00	114.00	100.00	107.00	106.00	106.00	107.00	109.00	107.00	105.00	104.00	106.00	112.00	108.00	107.00	114.00	114.00	112.00	112.00	101.00	104.00	105.00	111.00	110.00	110.00	111.00	110.00	110.00	108.00	109.00	108.00	109.00	100.00	98.00	102.00	96.00	95.00	97.00	94.00	94.00	95.00	94.00	97.00	95.00	96.00	98.00	102.00	97.00	100.00	97.00	98.00	99.00	97.00	97.00	96.00	97.00	97.00	99.00	101.00	100.00	100.00	99.00	100.00	99.00	94.00	91.00	100.00	100.00	99.00	99.00	99.00	97.00	98.00	98.00	98.00	100.00	98.00	98.00	98.00	98.00	102.00	99.00	99.00	100.00	101.00	99.00	101.00	100.00	101.00	103.00	103.00	102.00	111.00	130.00	110.00	105.00	103.00	106.00	106.00	102.00	101.00	101.00	101.00	101.00	104.00	109.00	122.00	139.00	121.00	113.00	108.00	107.00	107.00	106.00	106.00	106.00	106.00	105.00	107.00	106.00	108.00	110.00	111.00	111.00	109.00	117.00	126.00	112.00	111.00	113.00	118.00	117.00	104.00	104.00	104.00	102.00	100.00	101.00	102.00	102.00	103.00	105.00	106.00	106.00	107.00	108.00	106.00	107.00	106.00	109.00	107.00	104.00	104.00	104.00	103.00	103.00	104.00	104.00	106.00	106.00	104.00	104.00	105.00	106.00	107.00	110.00	111.00	107.00	109.00	106.00	106.00	107.00	107.00	105.00	106.00	108.00	106.00	109.00	108.00	106.00	108.00	108.00	106.00	107.00	107.00	108.00	113.00	108.00	105.00	107.00	106.00	110.00	123.00	133.00	125.00	156.00	173.00	173.00	164.00	135.00	126.00	127.00	149.00
92.00	88.00	89.00	89.00	86.00	87.00	89.00	94.00	87.00	85.00	88.00	87.00	88.00	88.00	86.00	86.00	87.00	88.00	87.00	89.00	93.00	98.00	104.00	97.00	94.00	94.00	94.00	95.00	95.00	95.00	96.00	98.00	96.00	96.00	97.00	97.00	96.00	93.00	101.00	103.00	103.00	102.00	89.00	94.00	92.00	93.00	84.00	86.00	87.00	91.00	93.00	108.00	103.00	103.00	103.00	100.00	103.00	104.00	107.00	108.00	109.00	104.00	102.00	102.00	106.00	106.00	110.00	110.00	104.00	111.00	111.00	108.00	102.00	106.00	105.00	109.00	104.00	108.00	108.00	108.00	107.00	104.00	104.00	106.00	103.00	97.00	97.00	96.00	94.00	96.00	97.00	96.00	93.00	92.00	93.00	94.00	95.00	94.00	95.00	96.00	99.00	98.00	97.00	97.00	96.00	96.00	96.00	96.00	95.00	96.00	97.00	94.00	96.00	100.00	101.00	101.00	97.00	91.00	94.00	99.00	99.00	98.00	96.00	99.00	97.00	98.00	98.00	99.00	97.00	99.00	99.00	101.00	101.00	101.00	101.00	102.00	100.00	100.00	100.00	101.00	101.00	101.00	102.00	108.00	121.00	114.00	125.00	136.00	131.00	124.00	114.00	107.00	114.00	119.00	113.00	113.00	118.00	110.00	135.00	128.00	119.00	116.00	120.00	113.00	113.00	113.00	110.00	121.00	117.00	113.00	112.00	115.00	116.00	119.00	115.00	112.00	117.00	120.00	124.00	122.00	120.00	126.00	137.00	124.00	128.00	139.00	130.00	117.00	110.00	107.00	107.00	106.00	104.00	102.00	105.00	105.00	105.00	105.00	107.00	103.00	103.00	103.00	103.00	103.00	103.00	103.00	104.00	104.00	104.00	104.00	103.00	103.00	104.00	107.00	107.00	106.00	107.00	107.00	109.00	111.00	108.00	107.00	106.00	108.00	110.00	111.00	112.00	109.00	108.00	106.00	110.00	111.00	110.00	110.00	108.00	108.00	107.00	107.00	107.00	106.00	106.00	114.00	107.00	105.00	105.00	114.00	120.00	130.00	152.00	154.00	163.00	160.00	122.00	143.00	149.00	153.00
