231.00	234.00	238.00	238.00	242.00	242.00	248.00	253.00	253.00	258.00	258.00	267.00	267.00	272.00	272.00	276.00	281.00	281.00	285.00	285.00	292.00	292.00	294.00	294.00	296.00	297.00	297.00	297.00	297.00	298.00	298.00	299.00	299.00	300.00	299.00	299.00	296.00	296.00	293.00	290.00	290.00	286.00	284.00	281.00	281.00	281.00	281.00	281.00	282.00	282.00	283.00	283.00	287.00	287.00	289.00	289.00	291.00	294.00	294.00	296.00	296.00	299.00	302.00	305.00	305.00	308.00	311.00	311.00	314.00	314.00	317.00	320.00	320.00	323.00	327.00	332.00	332.00	336.00	336.00	341.00	345.00	345.00	349.00	353.00	356.00	356.00	360.00	360.00	363.00	367.00	367.00	369.00	372.00	372.00	374.00	375.00	375.00	377.00	379.00	379.00	381.00	382.00	382.00	383.00	383.00	384.00	385.00	386.00	386.00	389.00	392.00	392.00	396.00	396.00	400.00	404.00	409.00	409.00	412.00	412.00	412.00	412.00	412.00	412.00	412.00	412.00	411.00	410.00	408.00	408.00	407.00	407.00	406.00	405.00	405.00	405.00	406.00	407.00	407.00	408.00	408.00	409.00	410.00	410.00	410.00	410.00	412.00	412.00	413.00	413.00	415.00	416.00	416.00	417.00	417.00	417.00	417.00	418.00	418.00	418.00	419.00	419.00	420.00	420.00	420.00	419.00	419.00	418.00	417.00	416.00	416.00	416.00	416.00	412.00	409.00	409.00	406.00	404.00	401.00	401.00	399.00	399.00	395.00	391.00	391.00	387.00	383.00	383.00	379.00	376.00	376.00	371.00	366.00	366.00	361.00	356.00	356.00	350.00	350.00	344.00	337.00	331.00	331.00	324.00	316.00	316.00	308.00	308.00	300.00	292.00	283.00	283.00	274.00	265.00	265.00	255.00	255.00	245.00	242.00	242.00	243.00	244.00	245.00	245.00	247.00	247.00	250.00	251.00	251.00	250.00	250.00	247.00	247.00	244.00	244.00	241.00	237.00	237.00	232.00	232.00	227.00	222.00	216.00	216.00	210.00	210.00	210.00	216.00	216.00	221.00	227.00	232.00	232.00	237.00	242.00	242.00
231.00	234.00	238.00	238.00	242.00	242.00	248.00	253.00	253.00	258.00	258.00	267.00	267.00	272.00	272.00	276.00	281.00	281.00	285.00	285.00	292.00	292.00	294.00	294.00	296.00	297.00	297.00	297.00	297.00	298.00	298.00	299.00	299.00	300.00	299.00	299.00	296.00	296.00	293.00	290.00	290.00	286.00	284.00	281.00	281.00	281.00	281.00	281.00	282.00	282.00	283.00	283.00	287.00	287.00	289.00	289.00	291.00	294.00	294.00	296.00	296.00	299.00	302.00	305.00	305.00	308.00	311.00	311.00	314.00	314.00	317.00	320.00	320.00	323.00	327.00	332.00	332.00	336.00	336.00	341.00	345.00	345.00	349.00	353.00	356.00	356.00	360.00	360.00	363.00	367.00	367.00	369.00	372.00	372.00	374.00	375.00	375.00	377.00	379.00	379.00	381.00	382.00	382.00	383.00	383.00	384.00	385.00	386.00	386.00	389.00	392.00	392.00	396.00	396.00	400.00	404.00	409.00	409.00	412.00	412.00	412.00	412.00	412.00	412.00	412.00	412.00	411.00	410.00	408.00	408.00	407.00	407.00	406.00	405.00	405.00	405.00	406.00	407.00	407.00	408.00	408.00	409.00	410.00	410.00	410.00	410.00	412.00	412.00	413.00	413.00	415.00	416.00	416.00	417.00	417.00	417.00	417.00	418.00	418.00	418.00	419.00	419.00	420.00	420.00	420.00	419.00	419.00	418.00	417.00	416.00	416.00	416.00	416.00	412.00	409.00	409.00	406.00	404.00	401.00	401.00	399.00	399.00	395.00	391.00	391.00	387.00	383.00	383.00	379.00	376.00	376.00	371.00	366.00	366.00	361.00	356.00	356.00	350.00	350.00	344.00	337.00	331.00	331.00	324.00	316.00	316.00	308.00	308.00	300.00	292.00	283.00	283.00	274.00	265.00	265.00	255.00	255.00	245.00	242.00	242.00	243.00	244.00	245.00	245.00	247.00	247.00	250.00	251.00	251.00	250.00	250.00	247.00	247.00	244.00	244.00	241.00	237.00	237.00	232.00	232.00	227.00	222.00	216.00	216.00	210.00	210.00	210.00	216.00	216.00	221.00	227.00	232.00	232.00	237.00	242.00	242.00
231.00	234.00	238.00	238.00	242.00	242.00	248.00	253.00	253.00	258.00	258.00	267.00	267.00	272.00	272.00	276.00	281.00	281.00	285.00	285.00	292.00	292.00	294.00	294.00	296.00	297.00	297.00	297.00	297.00	298.00	298.00	299.00	299.00	300.00	299.00	299.00	296.00	296.00	293.00	290.00	290.00	286.00	284.00	281.00	281.00	281.00	281.00	281.00	282.00	282.00	283.00	283.00	287.00	287.00	289.00	289.00	291.00	294.00	294.00	296.00	296.00	299.00	302.00	305.00	305.00	308.00	311.00	311.00	314.00	314.00	317.00	320.00	320.00	323.00	327.00	332.00	332.00	336.00	336.00	341.00	345.00	345.00	349.00	353.00	356.00	356.00	360.00	360.00	363.00	367.00	367.00	369.00	372.00	372.00	374.00	375.00	375.00	377.00	379.00	379.00	381.00	382.00	382.00	383.00	383.00	384.00	385.00	386.00	386.00	389.00	392.00	392.00	396.00	396.00	400.00	404.00	409.00	409.00	412.00	412.00	412.00	412.00	412.00	412.00	412.00	412.00	411.00	410.00	408.00	408.00	407.00	407.00	406.00	405.00	405.00	405.00	406.00	407.00	407.00	408.00	408.00	409.00	410.00	410.00	410.00	410.00	412.00	412.00	413.00	413.00	415.00	416.00	416.00	417.00	417.00	417.00	417.00	418.00	418.00	418.00	419.00	419.00	420.00	420.00	420.00	419.00	419.00	418.00	417.00	416.00	416.00	416.00	416.00	412.00	409.00	409.00	406.00	404.00	401.00	401.00	399.00	399.00	395.00	391.00	391.00	387.00	383.00	383.00	379.00	376.00	376.00	371.00	366.00	366.00	361.00	356.00	356.00	350.00	350.00	344.00	337.00	331.00	331.00	324.00	316.00	316.00	308.00	308.00	300.00	292.00	283.00	283.00	274.00	265.00	265.00	255.00	255.00	245.00	242.00	242.00	243.00	244.00	245.00	245.00	247.00	247.00	250.00	251.00	251.00	250.00	250.00	247.00	247.00	244.00	244.00	241.00	237.00	237.00	232.00	232.00	227.00	222.00	216.00	216.00	210.00	210.00	210.00	216.00	216.00	221.00	227.00	232.00	232.00	237.00	242.00	242.00
231.00	234.00	238.00	238.00	242.00	242.00	248.00	253.00	253.00	258.00	258.00	267.00	267.00	272.00	272.00	276.00	281.00	281.00	285.00	285.00	292.00	292.00	294.00	294.00	296.00	297.00	297.00	297.00	297.00	298.00	298.00	299.00	299.00	300.00	299.00	299.00	296.00	296.00	293.00	290.00	290.00	286.00	284.00	281.00	281.00	281.00	281.00	281.00	282.00	282.00	283.00	283.00	287.00	287.00	289.00	289.00	291.00	294.00	294.00	296.00	296.00	299.00	302.00	305.00	305.00	308.00	311.00	311.00	314.00	314.00	317.00	320.00	320.00	323.00	327.00	332.00	332.00	336.00	336.00	341.00	345.00	345.00	349.00	353.00	356.00	356.00	360.00	360.00	363.00	367.00	367.00	369.00	372.00	372.00	374.00	375.00	375.00	377.00	379.00	379.00	381.00	382.00	382.00	383.00	383.00	384.00	385.00	386.00	386.00	389.00	392.00	392.00	396.00	396.00	400.00	404.00	409.00	409.00	412.00	412.00	412.00	412.00	412.00	412.00	412.00	412.00	411.00	410.00	408.00	408.00	407.00	407.00	406.00	405.00	405.00	405.00	406.00	407.00	407.00	408.00	408.00	409.00	410.00	410.00	410.00	410.00	412.00	412.00	413.00	413.00	415.00	416.00	416.00	417.00	417.00	417.00	417.00	418.00	418.00	418.00	419.00	419.00	420.00	420.00	420.00	419.00	419.00	418.00	417.00	416.00	416.00	416.00	416.00	412.00	409.00	409.00	406.00	404.00	401.00	401.00	399.00	399.00	395.00	391.00	391.00	387.00	383.00	383.00	379.00	376.00	376.00	371.00	366.00	366.00	361.00	356.00	356.00	350.00	350.00	344.00	337.00	331.00	331.00	324.00	316.00	316.00	308.00	308.00	300.00	292.00	283.00	283.00	274.00	265.00	265.00	255.00	255.00	245.00	242.00	242.00	243.00	244.00	245.00	245.00	247.00	247.00	250.00	251.00	251.00	250.00	250.00	247.00	247.00	244.00	244.00	241.00	237.00	237.00	232.00	232.00	227.00	222.00	216.00	216.00	210.00	210.00	210.00	216.00	216.00	221.00	227.00	232.00	232.00	237.00	242.00	242.00
231.00	234.00	238.00	238.00	242.00	242.00	248.00	253.00	253.00	258.00	258.00	267.00	267.00	272.00	272.00	276.00	281.00	281.00	285.00	285.00	292.00	292.00	294.00	294.00	296.00	297.00	297.00	297.00	297.00	298.00	298.00	299.00	299.00	300.00	299.00	299.00	296.00	296.00	293.00	290.00	290.00	286.00	284.00	281.00	281.00	281.00	281.00	281.00	282.00	282.00	283.00	283.00	287.00	287.00	289.00	289.00	291.00	294.00	294.00	296.00	296.00	299.00	302.00	305.00	305.00	308.00	311.00	311.00	314.00	314.00	317.00	320.00	320.00	323.00	327.00	332.00	332.00	336.00	336.00	341.00	345.00	345.00	349.00	353.00	356.00	356.00	360.00	360.00	363.00	367.00	367.00	369.00	372.00	372.00	374.00	375.00	375.00	377.00	379.00	379.00	381.00	382.00	382.00	383.00	383.00	384.00	385.00	386.00	386.00	389.00	392.00	392.00	396.00	396.00	400.00	404.00	409.00	409.00	412.00	412.00	412.00	412.00	412.00	412.00	412.00	412.00	411.00	410.00	408.00	408.00	407.00	407.00	406.00	405.00	405.00	405.00	406.00	407.00	407.00	408.00	408.00	409.00	410.00	410.00	410.00	410.00	412.00	412.00	413.00	413.00	415.00	416.00	416.00	417.00	417.00	417.00	417.00	418.00	418.00	418.00	419.00	419.00	420.00	420.00	420.00	419.00	419.00	418.00	417.00	416.00	416.00	416.00	416.00	412.00	409.00	409.00	406.00	404.00	401.00	401.00	399.00	399.00	395.00	391.00	391.00	387.00	383.00	383.00	379.00	376.00	376.00	371.00	366.00	366.00	361.00	356.00	356.00	350.00	350.00	344.00	337.00	331.00	331.00	324.00	316.00	316.00	308.00	308.00	300.00	292.00	283.00	283.00	274.00	265.00	265.00	255.00	255.00	245.00	242.00	242.00	243.00	244.00	245.00	245.00	247.00	247.00	250.00	251.00	251.00	250.00	250.00	247.00	247.00	244.00	244.00	241.00	237.00	237.00	232.00	232.00	227.00	222.00	216.00	216.00	210.00	210.00	210.00	216.00	216.00	221.00	227.00	232.00	232.00	237.00	242.00	242.00
231.00	234.00	238.00	238.00	242.00	242.00	248.00	253.00	253.00	258.00	258.00	267.00	267.00	272.00	272.00	276.00	281.00	281.00	285.00	285.00	292.00	292.00	294.00	294.00	296.00	297.00	297.00	297.00	297.00	298.00	298.00	299.00	299.00	300.00	299.00	299.00	296.00	296.00	293.00	290.00	290.00	286.00	284.00	281.00	281.00	281.00	281.00	281.00	282.00	282.00	283.00	283.00	287.00	287.00	289.00	289.00	291.00	294.00	294.00	296.00	296.00	299.00	302.00	305.00	305.00	308.00	311.00	311.00	314.00	314.00	317.00	320.00	320.00	323.00	327.00	332.00	332.00	336.00	336.00	341.00	345.00	345.00	349.00	353.00	356.00	356.00	360.00	360.00	363.00	367.00	367.00	369.00	372.00	372.00	374.00	375.00	375.00	377.00	379.00	379.00	381.00	382.00	382.00	383.00	383.00	384.00	385.00	386.00	386.00	389.00	392.00	392.00	396.00	396.00	400.00	404.00	409.00	409.00	412.00	412.00	412.00	412.00	412.00	412.00	412.00	412.00	411.00	410.00	408.00	408.00	407.00	407.00	406.00	405.00	405.00	405.00	406.00	407.00	407.00	408.00	408.00	409.00	410.00	410.00	410.00	410.00	412.00	412.00	413.00	413.00	415.00	416.00	416.00	417.00	417.00	417.00	417.00	418.00	418.00	418.00	419.00	419.00	420.00	420.00	420.00	419.00	419.00	418.00	417.00	416.00	416.00	416.00	416.00	412.00	409.00	409.00	406.00	404.00	401.00	401.00	399.00	399.00	395.00	391.00	391.00	387.00	383.00	383.00	379.00	376.00	376.00	371.00	366.00	366.00	361.00	356.00	356.00	350.00	350.00	344.00	337.00	331.00	331.00	324.00	316.00	316.00	308.00	308.00	300.00	292.00	283.00	283.00	274.00	265.00	265.00	255.00	255.00	245.00	242.00	242.00	243.00	244.00	245.00	245.00	247.00	247.00	250.00	251.00	251.00	250.00	250.00	247.00	247.00	244.00	244.00	241.00	237.00	237.00	232.00	232.00	227.00	222.00	216.00	216.00	210.00	210.00	210.00	216.00	216.00	221.00	227.00	232.00	232.00	237.00	242.00	242.00
236.00	243.00	251.00	251.00	257.00	257.00	264.00	271.00	271.00	278.00	278.00	291.00	291.00	295.00	295.00	298.00	302.00	302.00	305.00	305.00	310.00	310.00	311.00	311.00	312.00	313.00	313.00	312.00	312.00	311.00	310.00	309.00	309.00	308.00	307.00	307.00	305.00	305.00	304.00	301.00	301.00	298.00	295.00	293.00	293.00	291.00	291.00	288.00	287.00	287.00	290.00	290.00	295.00	295.00	297.00	297.00	298.00	300.00	300.00	303.00	303.00	307.00	312.00	318.00	318.00	325.00	332.00	332.00	335.00	335.00	338.00	342.00	342.00	346.00	351.00	356.00	356.00	360.00	360.00	364.00	368.00	368.00	369.00	371.00	373.00	373.00	376.00	376.00	378.00	381.00	381.00	384.00	386.00	386.00	389.00	390.00	390.00	391.00	393.00	393.00	394.00	395.00	395.00	397.00	397.00	397.00	398.00	398.00	398.00	398.00	397.00	397.00	397.00	397.00	400.00	403.00	405.00	405.00	408.00	410.00	410.00	411.00	411.00	411.00	411.00	411.00	411.00	411.00	411.00	411.00	411.00	411.00	410.00	410.00	410.00	409.00	409.00	411.00	411.00	412.00	412.00	413.00	414.00	414.00	415.00	415.00	417.00	417.00	418.00	418.00	419.00	421.00	421.00	423.00	423.00	425.00	428.00	431.00	431.00	433.00	434.00	434.00	435.00	435.00	436.00	437.00	437.00	438.00	438.00	438.00	438.00	438.00	438.00	438.00	438.00	438.00	438.00	436.00	433.00	433.00	432.00	432.00	430.00	429.00	429.00	428.00	426.00	426.00	423.00	420.00	420.00	417.00	414.00	414.00	410.00	403.00	403.00	396.00	396.00	389.00	381.00	374.00	374.00	366.00	358.00	358.00	350.00	350.00	344.00	337.00	331.00	331.00	324.00	317.00	317.00	311.00	311.00	304.00	299.00	299.00	293.00	290.00	291.00	291.00	295.00	295.00	299.00	302.00	302.00	304.00	304.00	306.00	306.00	303.00	303.00	302.00	303.00	303.00	305.00	305.00	306.00	307.00	308.00	308.00	309.00	309.00	309.00	310.00	310.00	313.00	319.00	327.00	327.00	335.00	343.00	343.00
236.00	243.00	251.00	251.00	257.00	257.00	264.00	271.00	271.00	278.00	278.00	291.00	291.00	295.00	295.00	298.00	302.00	302.00	305.00	305.00	310.00	310.00	311.00	311.00	312.00	313.00	313.00	312.00	312.00	311.00	310.00	309.00	309.00	308.00	307.00	307.00	305.00	305.00	304.00	301.00	301.00	298.00	295.00	293.00	293.00	291.00	291.00	288.00	287.00	287.00	290.00	290.00	295.00	295.00	297.00	297.00	298.00	300.00	300.00	303.00	303.00	307.00	312.00	318.00	318.00	325.00	332.00	332.00	335.00	335.00	338.00	342.00	342.00	346.00	351.00	356.00	356.00	360.00	360.00	364.00	368.00	368.00	369.00	371.00	373.00	373.00	376.00	376.00	378.00	381.00	381.00	384.00	386.00	386.00	389.00	390.00	390.00	391.00	393.00	393.00	394.00	395.00	395.00	397.00	397.00	397.00	398.00	398.00	398.00	398.00	397.00	397.00	397.00	397.00	400.00	403.00	405.00	405.00	408.00	410.00	410.00	411.00	411.00	411.00	411.00	411.00	411.00	411.00	411.00	411.00	411.00	411.00	410.00	410.00	410.00	409.00	409.00	411.00	411.00	412.00	412.00	413.00	414.00	414.00	415.00	415.00	417.00	417.00	418.00	418.00	419.00	421.00	421.00	423.00	423.00	425.00	428.00	431.00	431.00	433.00	434.00	434.00	435.00	435.00	436.00	437.00	437.00	438.00	438.00	438.00	438.00	438.00	438.00	438.00	438.00	438.00	438.00	436.00	433.00	433.00	432.00	432.00	430.00	429.00	429.00	428.00	426.00	426.00	423.00	420.00	420.00	417.00	414.00	414.00	410.00	403.00	403.00	396.00	396.00	389.00	381.00	374.00	374.00	366.00	358.00	358.00	350.00	350.00	344.00	337.00	331.00	331.00	324.00	317.00	317.00	311.00	311.00	304.00	299.00	299.00	293.00	290.00	291.00	291.00	295.00	295.00	299.00	302.00	302.00	304.00	304.00	306.00	306.00	303.00	303.00	302.00	303.00	303.00	305.00	305.00	306.00	307.00	308.00	308.00	309.00	309.00	309.00	310.00	310.00	313.00	319.00	327.00	327.00	335.00	343.00	343.00
236.00	243.00	251.00	251.00	257.00	257.00	264.00	271.00	271.00	278.00	278.00	291.00	291.00	295.00	295.00	298.00	302.00	302.00	305.00	305.00	310.00	310.00	311.00	311.00	312.00	313.00	313.00	312.00	312.00	311.00	310.00	309.00	309.00	308.00	307.00	307.00	305.00	305.00	304.00	301.00	301.00	298.00	295.00	293.00	293.00	291.00	291.00	288.00	287.00	287.00	290.00	290.00	295.00	295.00	297.00	297.00	298.00	300.00	300.00	303.00	303.00	307.00	312.00	318.00	318.00	325.00	332.00	332.00	335.00	335.00	338.00	342.00	342.00	346.00	351.00	356.00	356.00	360.00	360.00	364.00	368.00	368.00	369.00	371.00	373.00	373.00	376.00	376.00	378.00	381.00	381.00	384.00	386.00	386.00	389.00	390.00	390.00	391.00	393.00	393.00	394.00	395.00	395.00	397.00	397.00	397.00	398.00	398.00	398.00	398.00	397.00	397.00	397.00	397.00	400.00	403.00	405.00	405.00	408.00	410.00	410.00	411.00	411.00	411.00	411.00	411.00	411.00	411.00	411.00	411.00	411.00	411.00	410.00	410.00	410.00	409.00	409.00	411.00	411.00	412.00	412.00	413.00	414.00	414.00	415.00	415.00	417.00	417.00	418.00	418.00	419.00	421.00	421.00	423.00	423.00	425.00	428.00	431.00	431.00	433.00	434.00	434.00	435.00	435.00	436.00	437.00	437.00	438.00	438.00	438.00	438.00	438.00	438.00	438.00	438.00	438.00	438.00	436.00	433.00	433.00	432.00	432.00	430.00	429.00	429.00	428.00	426.00	426.00	423.00	420.00	420.00	417.00	414.00	414.00	410.00	403.00	403.00	396.00	396.00	389.00	381.00	374.00	374.00	366.00	358.00	358.00	350.00	350.00	344.00	337.00	331.00	331.00	324.00	317.00	317.00	311.00	311.00	304.00	299.00	299.00	293.00	290.00	291.00	291.00	295.00	295.00	299.00	302.00	302.00	304.00	304.00	306.00	306.00	303.00	303.00	302.00	303.00	303.00	305.00	305.00	306.00	307.00	308.00	308.00	309.00	309.00	309.00	310.00	310.00	313.00	319.00	327.00	327.00	335.00	343.00	343.00
236.00	243.00	251.00	251.00	257.00	257.00	264.00	271.00	271.00	278.00	278.00	291.00	291.00	295.00	295.00	298.00	302.00	302.00	305.00	305.00	310.00	310.00	311.00	311.00	312.00	313.00	313.00	312.00	312.00	311.00	310.00	309.00	309.00	308.00	307.00	307.00	305.00	305.00	304.00	301.00	301.00	298.00	295.00	293.00	293.00	291.00	291.00	288.00	287.00	287.00	290.00	290.00	295.00	295.00	297.00	297.00	298.00	300.00	300.00	303.00	303.00	307.00	312.00	318.00	318.00	325.00	332.00	332.00	335.00	335.00	338.00	342.00	342.00	346.00	351.00	356.00	356.00	360.00	360.00	364.00	368.00	368.00	369.00	371.00	373.00	373.00	376.00	376.00	378.00	381.00	381.00	384.00	386.00	386.00	389.00	390.00	390.00	391.00	393.00	393.00	394.00	395.00	395.00	397.00	397.00	397.00	398.00	398.00	398.00	398.00	397.00	397.00	397.00	397.00	400.00	403.00	405.00	405.00	408.00	410.00	410.00	411.00	411.00	411.00	411.00	411.00	411.00	411.00	411.00	411.00	411.00	411.00	410.00	410.00	410.00	409.00	409.00	411.00	411.00	412.00	412.00	413.00	414.00	414.00	415.00	415.00	417.00	417.00	418.00	418.00	419.00	421.00	421.00	423.00	423.00	425.00	428.00	431.00	431.00	433.00	434.00	434.00	435.00	435.00	436.00	437.00	437.00	438.00	438.00	438.00	438.00	438.00	438.00	438.00	438.00	438.00	438.00	436.00	433.00	433.00	432.00	432.00	430.00	429.00	429.00	428.00	426.00	426.00	423.00	420.00	420.00	417.00	414.00	414.00	410.00	403.00	403.00	396.00	396.00	389.00	381.00	374.00	374.00	366.00	358.00	358.00	350.00	350.00	344.00	337.00	331.00	331.00	324.00	317.00	317.00	311.00	311.00	304.00	299.00	299.00	293.00	290.00	291.00	291.00	295.00	295.00	299.00	302.00	302.00	304.00	304.00	306.00	306.00	303.00	303.00	302.00	303.00	303.00	305.00	305.00	306.00	307.00	308.00	308.00	309.00	309.00	309.00	310.00	310.00	313.00	319.00	327.00	327.00	335.00	343.00	343.00
236.00	243.00	251.00	251.00	257.00	257.00	264.00	271.00	271.00	278.00	278.00	291.00	291.00	295.00	295.00	298.00	302.00	302.00	305.00	305.00	310.00	310.00	311.00	311.00	312.00	313.00	313.00	312.00	312.00	311.00	310.00	309.00	309.00	308.00	307.00	307.00	305.00	305.00	304.00	301.00	301.00	298.00	295.00	293.00	293.00	291.00	291.00	288.00	287.00	287.00	290.00	290.00	295.00	295.00	297.00	297.00	298.00	300.00	300.00	303.00	303.00	307.00	312.00	318.00	318.00	325.00	332.00	332.00	335.00	335.00	338.00	342.00	342.00	346.00	351.00	356.00	356.00	360.00	360.00	364.00	368.00	368.00	369.00	371.00	373.00	373.00	376.00	376.00	378.00	381.00	381.00	384.00	386.00	386.00	389.00	390.00	390.00	391.00	393.00	393.00	394.00	395.00	395.00	397.00	397.00	397.00	398.00	398.00	398.00	398.00	397.00	397.00	397.00	397.00	400.00	403.00	405.00	405.00	408.00	410.00	410.00	411.00	411.00	411.00	411.00	411.00	411.00	411.00	411.00	411.00	411.00	411.00	410.00	410.00	410.00	409.00	409.00	411.00	411.00	412.00	412.00	413.00	414.00	414.00	415.00	415.00	417.00	417.00	418.00	418.00	419.00	421.00	421.00	423.00	423.00	425.00	428.00	431.00	431.00	433.00	434.00	434.00	435.00	435.00	436.00	437.00	437.00	438.00	438.00	438.00	438.00	438.00	438.00	438.00	438.00	438.00	438.00	436.00	433.00	433.00	432.00	432.00	430.00	429.00	429.00	428.00	426.00	426.00	423.00	420.00	420.00	417.00	414.00	414.00	410.00	403.00	403.00	396.00	396.00	389.00	381.00	374.00	374.00	366.00	358.00	358.00	350.00	350.00	344.00	337.00	331.00	331.00	324.00	317.00	317.00	311.00	311.00	304.00	299.00	299.00	293.00	290.00	291.00	291.00	295.00	295.00	299.00	302.00	302.00	304.00	304.00	306.00	306.00	303.00	303.00	302.00	303.00	303.00	305.00	305.00	306.00	307.00	308.00	308.00	309.00	309.00	309.00	310.00	310.00	313.00	319.00	327.00	327.00	335.00	343.00	343.00
236.00	243.00	251.00	251.00	257.00	257.00	264.00	271.00	271.00	278.00	278.00	291.00	291.00	295.00	295.00	298.00	302.00	302.00	305.00	305.00	310.00	310.00	311.00	311.00	312.00	313.00	313.00	312.00	312.00	311.00	310.00	309.00	309.00	308.00	307.00	307.00	305.00	305.00	304.00	301.00	301.00	298.00	295.00	293.00	293.00	291.00	291.00	288.00	287.00	287.00	290.00	290.00	295.00	295.00	297.00	297.00	298.00	300.00	300.00	303.00	303.00	307.00	312.00	318.00	318.00	325.00	332.00	332.00	335.00	335.00	338.00	342.00	342.00	346.00	351.00	356.00	356.00	360.00	360.00	364.00	368.00	368.00	369.00	371.00	373.00	373.00	376.00	376.00	378.00	381.00	381.00	384.00	386.00	386.00	389.00	390.00	390.00	391.00	393.00	393.00	394.00	395.00	395.00	397.00	397.00	397.00	398.00	398.00	398.00	398.00	397.00	397.00	397.00	397.00	400.00	403.00	405.00	405.00	408.00	410.00	410.00	411.00	411.00	411.00	411.00	411.00	411.00	411.00	411.00	411.00	411.00	411.00	410.00	410.00	410.00	409.00	409.00	411.00	411.00	412.00	412.00	413.00	414.00	414.00	415.00	415.00	417.00	417.00	418.00	418.00	419.00	421.00	421.00	423.00	423.00	425.00	428.00	431.00	431.00	433.00	434.00	434.00	435.00	435.00	436.00	437.00	437.00	438.00	438.00	438.00	438.00	438.00	438.00	438.00	438.00	438.00	438.00	436.00	433.00	433.00	432.00	432.00	430.00	429.00	429.00	428.00	426.00	426.00	423.00	420.00	420.00	417.00	414.00	414.00	410.00	403.00	403.00	396.00	396.00	389.00	381.00	374.00	374.00	366.00	358.00	358.00	350.00	350.00	344.00	337.00	331.00	331.00	324.00	317.00	317.00	311.00	311.00	304.00	299.00	299.00	293.00	290.00	291.00	291.00	295.00	295.00	299.00	302.00	302.00	304.00	304.00	306.00	306.00	303.00	303.00	302.00	303.00	303.00	305.00	305.00	306.00	307.00	308.00	308.00	309.00	309.00	309.00	310.00	310.00	313.00	319.00	327.00	327.00	335.00	343.00	343.00
236.00	243.00	251.00	251.00	257.00	257.00	264.00	271.00	271.00	278.00	278.00	291.00	291.00	295.00	295.00	298.00	302.00	302.00	305.00	305.00	310.00	310.00	311.00	311.00	312.00	313.00	313.00	312.00	312.00	311.00	310.00	309.00	309.00	308.00	307.00	307.00	305.00	305.00	304.00	301.00	301.00	298.00	295.00	293.00	293.00	291.00	291.00	288.00	287.00	287.00	290.00	290.00	295.00	295.00	297.00	297.00	298.00	300.00	300.00	303.00	303.00	307.00	312.00	318.00	318.00	325.00	332.00	332.00	335.00	335.00	338.00	342.00	342.00	346.00	351.00	356.00	356.00	360.00	360.00	364.00	368.00	368.00	369.00	371.00	373.00	373.00	376.00	376.00	378.00	381.00	381.00	384.00	386.00	386.00	389.00	390.00	390.00	391.00	393.00	393.00	394.00	395.00	395.00	397.00	397.00	397.00	398.00	398.00	398.00	398.00	397.00	397.00	397.00	397.00	400.00	403.00	405.00	405.00	408.00	410.00	410.00	411.00	411.00	411.00	411.00	411.00	411.00	411.00	411.00	411.00	411.00	411.00	410.00	410.00	410.00	409.00	409.00	411.00	411.00	412.00	412.00	413.00	414.00	414.00	415.00	415.00	417.00	417.00	418.00	418.00	419.00	421.00	421.00	423.00	423.00	425.00	428.00	431.00	431.00	433.00	434.00	434.00	435.00	435.00	436.00	437.00	437.00	438.00	438.00	438.00	438.00	438.00	438.00	438.00	438.00	438.00	438.00	436.00	433.00	433.00	432.00	432.00	430.00	429.00	429.00	428.00	426.00	426.00	423.00	420.00	420.00	417.00	414.00	414.00	410.00	403.00	403.00	396.00	396.00	389.00	381.00	374.00	374.00	366.00	358.00	358.00	350.00	350.00	344.00	337.00	331.00	331.00	324.00	317.00	317.00	311.00	311.00	304.00	299.00	299.00	293.00	290.00	291.00	291.00	295.00	295.00	299.00	302.00	302.00	304.00	304.00	306.00	306.00	303.00	303.00	302.00	303.00	303.00	305.00	305.00	306.00	307.00	308.00	308.00	309.00	309.00	309.00	310.00	310.00	313.00	319.00	327.00	327.00	335.00	343.00	343.00
238.00	247.00	256.00	256.00	265.00	265.00	274.00	282.00	282.00	289.00	289.00	304.00	304.00	312.00	312.00	320.00	326.00	326.00	329.00	329.00	336.00	336.00	340.00	340.00	343.00	345.00	345.00	341.00	341.00	337.00	333.00	330.00	330.00	326.00	323.00	323.00	321.00	321.00	318.00	314.00	314.00	310.00	306.00	303.00	303.00	302.00	302.00	300.00	298.00	298.00	296.00	296.00	293.00	293.00	294.00	294.00	297.00	300.00	300.00	303.00	303.00	307.00	313.00	320.00	320.00	328.00	336.00	336.00	344.00	344.00	352.00	358.00	358.00	361.00	365.00	368.00	368.00	371.00	371.00	374.00	377.00	377.00	379.00	382.00	385.00	385.00	387.00	387.00	390.00	393.00	393.00	395.00	397.00	397.00	399.00	401.00	401.00	403.00	405.00	405.00	406.00	407.00	407.00	408.00	408.00	410.00	411.00	412.00	412.00	411.00	410.00	410.00	409.00	409.00	408.00	408.00	408.00	408.00	410.00	411.00	411.00	411.00	411.00	410.00	409.00	409.00	408.00	410.00	413.00	413.00	415.00	415.00	417.00	418.00	418.00	419.00	420.00	421.00	421.00	422.00	422.00	424.00	426.00	426.00	429.00	429.00	432.00	432.00	433.00	433.00	435.00	436.00	436.00	436.00	436.00	440.00	443.00	447.00	447.00	450.00	453.00	453.00	456.00	456.00	457.00	459.00	459.00	460.00	461.00	462.00	462.00	463.00	463.00	463.00	464.00	464.00	464.00	464.00	465.00	465.00	465.00	465.00	465.00	463.00	463.00	462.00	461.00	461.00	460.00	459.00	459.00	456.00	452.00	452.00	447.00	443.00	443.00	437.00	437.00	432.00	425.00	418.00	418.00	412.00	406.00	406.00	401.00	401.00	396.00	391.00	384.00	384.00	379.00	374.00	374.00	369.00	369.00	365.00	362.00	362.00	360.00	359.00	358.00	358.00	361.00	361.00	365.00	370.00	370.00	376.00	376.00	387.00	387.00	392.00	392.00	397.00	401.00	401.00	404.00	404.00	409.00	413.00	418.00	418.00	421.00	425.00	425.00	430.00	430.00	436.00	442.00	449.00	449.00	459.00	468.00	468.00
238.00	247.00	256.00	256.00	265.00	265.00	274.00	282.00	282.00	289.00	289.00	304.00	304.00	312.00	312.00	320.00	326.00	326.00	329.00	329.00	336.00	336.00	340.00	340.00	343.00	345.00	345.00	341.00	341.00	337.00	333.00	330.00	330.00	326.00	323.00	323.00	321.00	321.00	318.00	314.00	314.00	310.00	306.00	303.00	303.00	302.00	302.00	300.00	298.00	298.00	296.00	296.00	293.00	293.00	294.00	294.00	297.00	300.00	300.00	303.00	303.00	307.00	313.00	320.00	320.00	328.00	336.00	336.00	344.00	344.00	352.00	358.00	358.00	361.00	365.00	368.00	368.00	371.00	371.00	374.00	377.00	377.00	379.00	382.00	385.00	385.00	387.00	387.00	390.00	393.00	393.00	395.00	397.00	397.00	399.00	401.00	401.00	403.00	405.00	405.00	406.00	407.00	407.00	408.00	408.00	410.00	411.00	412.00	412.00	411.00	410.00	410.00	409.00	409.00	408.00	408.00	408.00	408.00	410.00	411.00	411.00	411.00	411.00	410.00	409.00	409.00	408.00	410.00	413.00	413.00	415.00	415.00	417.00	418.00	418.00	419.00	420.00	421.00	421.00	422.00	422.00	424.00	426.00	426.00	429.00	429.00	432.00	432.00	433.00	433.00	435.00	436.00	436.00	436.00	436.00	440.00	443.00	447.00	447.00	450.00	453.00	453.00	456.00	456.00	457.00	459.00	459.00	460.00	461.00	462.00	462.00	463.00	463.00	463.00	464.00	464.00	464.00	464.00	465.00	465.00	465.00	465.00	465.00	463.00	463.00	462.00	461.00	461.00	460.00	459.00	459.00	456.00	452.00	452.00	447.00	443.00	443.00	437.00	437.00	432.00	425.00	418.00	418.00	412.00	406.00	406.00	401.00	401.00	396.00	391.00	384.00	384.00	379.00	374.00	374.00	369.00	369.00	365.00	362.00	362.00	360.00	359.00	358.00	358.00	361.00	361.00	365.00	370.00	370.00	376.00	376.00	387.00	387.00	392.00	392.00	397.00	401.00	401.00	404.00	404.00	409.00	413.00	418.00	418.00	421.00	425.00	425.00	430.00	430.00	436.00	442.00	449.00	449.00	459.00	468.00	468.00
238.00	247.00	256.00	256.00	265.00	265.00	274.00	282.00	282.00	289.00	289.00	304.00	304.00	312.00	312.00	320.00	326.00	326.00	329.00	329.00	336.00	336.00	340.00	340.00	343.00	345.00	345.00	341.00	341.00	337.00	333.00	330.00	330.00	326.00	323.00	323.00	321.00	321.00	318.00	314.00	314.00	310.00	306.00	303.00	303.00	302.00	302.00	300.00	298.00	298.00	296.00	296.00	293.00	293.00	294.00	294.00	297.00	300.00	300.00	303.00	303.00	307.00	313.00	320.00	320.00	328.00	336.00	336.00	344.00	344.00	352.00	358.00	358.00	361.00	365.00	368.00	368.00	371.00	371.00	374.00	377.00	377.00	379.00	382.00	385.00	385.00	387.00	387.00	390.00	393.00	393.00	395.00	397.00	397.00	399.00	401.00	401.00	403.00	405.00	405.00	406.00	407.00	407.00	408.00	408.00	410.00	411.00	412.00	412.00	411.00	410.00	410.00	409.00	409.00	408.00	408.00	408.00	408.00	410.00	411.00	411.00	411.00	411.00	410.00	409.00	409.00	408.00	410.00	413.00	413.00	415.00	415.00	417.00	418.00	418.00	419.00	420.00	421.00	421.00	422.00	422.00	424.00	426.00	426.00	429.00	429.00	432.00	432.00	433.00	433.00	435.00	436.00	436.00	436.00	436.00	440.00	443.00	447.00	447.00	450.00	453.00	453.00	456.00	456.00	457.00	459.00	459.00	460.00	461.00	462.00	462.00	463.00	463.00	463.00	464.00	464.00	464.00	464.00	465.00	465.00	465.00	465.00	465.00	463.00	463.00	462.00	461.00	461.00	460.00	459.00	459.00	456.00	452.00	452.00	447.00	443.00	443.00	437.00	437.00	432.00	425.00	418.00	418.00	412.00	406.00	406.00	401.00	401.00	396.00	391.00	384.00	384.00	379.00	374.00	374.00	369.00	369.00	365.00	362.00	362.00	360.00	359.00	358.00	358.00	361.00	361.00	365.00	370.00	370.00	376.00	376.00	387.00	387.00	392.00	392.00	397.00	401.00	401.00	404.00	404.00	409.00	413.00	418.00	418.00	421.00	425.00	425.00	430.00	430.00	436.00	442.00	449.00	449.00	459.00	468.00	468.00
238.00	247.00	256.00	256.00	265.00	265.00	274.00	282.00	282.00	289.00	289.00	304.00	304.00	312.00	312.00	320.00	326.00	326.00	329.00	329.00	336.00	336.00	340.00	340.00	343.00	345.00	345.00	341.00	341.00	337.00	333.00	330.00	330.00	326.00	323.00	323.00	321.00	321.00	318.00	314.00	314.00	310.00	306.00	303.00	303.00	302.00	302.00	300.00	298.00	298.00	296.00	296.00	293.00	293.00	294.00	294.00	297.00	300.00	300.00	303.00	303.00	307.00	313.00	320.00	320.00	328.00	336.00	336.00	344.00	344.00	352.00	358.00	358.00	361.00	365.00	368.00	368.00	371.00	371.00	374.00	377.00	377.00	379.00	382.00	385.00	385.00	387.00	387.00	390.00	393.00	393.00	395.00	397.00	397.00	399.00	401.00	401.00	403.00	405.00	405.00	406.00	407.00	407.00	408.00	408.00	410.00	411.00	412.00	412.00	411.00	410.00	410.00	409.00	409.00	408.00	408.00	408.00	408.00	410.00	411.00	411.00	411.00	411.00	410.00	409.00	409.00	408.00	410.00	413.00	413.00	415.00	415.00	417.00	418.00	418.00	419.00	420.00	421.00	421.00	422.00	422.00	424.00	426.00	426.00	429.00	429.00	432.00	432.00	433.00	433.00	435.00	436.00	436.00	436.00	436.00	440.00	443.00	447.00	447.00	450.00	453.00	453.00	456.00	456.00	457.00	459.00	459.00	460.00	461.00	462.00	462.00	463.00	463.00	463.00	464.00	464.00	464.00	464.00	465.00	465.00	465.00	465.00	465.00	463.00	463.00	462.00	461.00	461.00	460.00	459.00	459.00	456.00	452.00	452.00	447.00	443.00	443.00	437.00	437.00	432.00	425.00	418.00	418.00	412.00	406.00	406.00	401.00	401.00	396.00	391.00	384.00	384.00	379.00	374.00	374.00	369.00	369.00	365.00	362.00	362.00	360.00	359.00	358.00	358.00	361.00	361.00	365.00	370.00	370.00	376.00	376.00	387.00	387.00	392.00	392.00	397.00	401.00	401.00	404.00	404.00	409.00	413.00	418.00	418.00	421.00	425.00	425.00	430.00	430.00	436.00	442.00	449.00	449.00	459.00	468.00	468.00
238.00	247.00	256.00	256.00	265.00	265.00	274.00	282.00	282.00	289.00	289.00	304.00	304.00	312.00	312.00	320.00	326.00	326.00	329.00	329.00	336.00	336.00	340.00	340.00	343.00	345.00	345.00	341.00	341.00	337.00	333.00	330.00	330.00	326.00	323.00	323.00	321.00	321.00	318.00	314.00	314.00	310.00	306.00	303.00	303.00	302.00	302.00	300.00	298.00	298.00	296.00	296.00	293.00	293.00	294.00	294.00	297.00	300.00	300.00	303.00	303.00	307.00	313.00	320.00	320.00	328.00	336.00	336.00	344.00	344.00	352.00	358.00	358.00	361.00	365.00	368.00	368.00	371.00	371.00	374.00	377.00	377.00	379.00	382.00	385.00	385.00	387.00	387.00	390.00	393.00	393.00	395.00	397.00	397.00	399.00	401.00	401.00	403.00	405.00	405.00	406.00	407.00	407.00	408.00	408.00	410.00	411.00	412.00	412.00	411.00	410.00	410.00	409.00	409.00	408.00	408.00	408.00	408.00	410.00	411.00	411.00	411.00	411.00	410.00	409.00	409.00	408.00	410.00	413.00	413.00	415.00	415.00	417.00	418.00	418.00	419.00	420.00	421.00	421.00	422.00	422.00	424.00	426.00	426.00	429.00	429.00	432.00	432.00	433.00	433.00	435.00	436.00	436.00	436.00	436.00	440.00	443.00	447.00	447.00	450.00	453.00	453.00	456.00	456.00	457.00	459.00	459.00	460.00	461.00	462.00	462.00	463.00	463.00	463.00	464.00	464.00	464.00	464.00	465.00	465.00	465.00	465.00	465.00	463.00	463.00	462.00	461.00	461.00	460.00	459.00	459.00	456.00	452.00	452.00	447.00	443.00	443.00	437.00	437.00	432.00	425.00	418.00	418.00	412.00	406.00	406.00	401.00	401.00	396.00	391.00	384.00	384.00	379.00	374.00	374.00	369.00	369.00	365.00	362.00	362.00	360.00	359.00	358.00	358.00	361.00	361.00	365.00	370.00	370.00	376.00	376.00	387.00	387.00	392.00	392.00	397.00	401.00	401.00	404.00	404.00	409.00	413.00	418.00	418.00	421.00	425.00	425.00	430.00	430.00	436.00	442.00	449.00	449.00	459.00	468.00	468.00
238.00	247.00	256.00	256.00	265.00	265.00	274.00	282.00	282.00	289.00	289.00	304.00	304.00	312.00	312.00	320.00	326.00	326.00	329.00	329.00	336.00	336.00	340.00	340.00	343.00	345.00	345.00	341.00	341.00	337.00	333.00	330.00	330.00	326.00	323.00	323.00	321.00	321.00	318.00	314.00	314.00	310.00	306.00	303.00	303.00	302.00	302.00	300.00	298.00	298.00	296.00	296.00	293.00	293.00	294.00	294.00	297.00	300.00	300.00	303.00	303.00	307.00	313.00	320.00	320.00	328.00	336.00	336.00	344.00	344.00	352.00	358.00	358.00	361.00	365.00	368.00	368.00	371.00	371.00	374.00	377.00	377.00	379.00	382.00	385.00	385.00	387.00	387.00	390.00	393.00	393.00	395.00	397.00	397.00	399.00	401.00	401.00	403.00	405.00	405.00	406.00	407.00	407.00	408.00	408.00	410.00	411.00	412.00	412.00	411.00	410.00	410.00	409.00	409.00	408.00	408.00	408.00	408.00	410.00	411.00	411.00	411.00	411.00	410.00	409.00	409.00	408.00	410.00	413.00	413.00	415.00	415.00	417.00	418.00	418.00	419.00	420.00	421.00	421.00	422.00	422.00	424.00	426.00	426.00	429.00	429.00	432.00	432.00	433.00	433.00	435.00	436.00	436.00	436.00	436.00	440.00	443.00	447.00	447.00	450.00	453.00	453.00	456.00	456.00	457.00	459.00	459.00	460.00	461.00	462.00	462.00	463.00	463.00	463.00	464.00	464.00	464.00	464.00	465.00	465.00	465.00	465.00	465.00	463.00	463.00	462.00	461.00	461.00	460.00	459.00	459.00	456.00	452.00	452.00	447.00	443.00	443.00	437.00	437.00	432.00	425.00	418.00	418.00	412.00	406.00	406.00	401.00	401.00	396.00	391.00	384.00	384.00	379.00	374.00	374.00	369.00	369.00	365.00	362.00	362.00	360.00	359.00	358.00	358.00	361.00	361.00	365.00	370.00	370.00	376.00	376.00	387.00	387.00	392.00	392.00	397.00	401.00	401.00	404.00	404.00	409.00	413.00	418.00	418.00	421.00	425.00	425.00	430.00	430.00	436.00	442.00	449.00	449.00	459.00	468.00	468.00
238.00	247.00	256.00	256.00	265.00	265.00	274.00	282.00	282.00	289.00	289.00	304.00	304.00	312.00	312.00	320.00	326.00	326.00	329.00	329.00	336.00	336.00	340.00	340.00	343.00	345.00	345.00	341.00	341.00	337.00	333.00	330.00	330.00	326.00	323.00	323.00	321.00	321.00	318.00	314.00	314.00	310.00	306.00	303.00	303.00	302.00	302.00	300.00	298.00	298.00	296.00	296.00	293.00	293.00	294.00	294.00	297.00	300.00	300.00	303.00	303.00	307.00	313.00	320.00	320.00	328.00	336.00	336.00	344.00	344.00	352.00	358.00	358.00	361.00	365.00	368.00	368.00	371.00	371.00	374.00	377.00	377.00	379.00	382.00	385.00	385.00	387.00	387.00	390.00	393.00	393.00	395.00	397.00	397.00	399.00	401.00	401.00	403.00	405.00	405.00	406.00	407.00	407.00	408.00	408.00	410.00	411.00	412.00	412.00	411.00	410.00	410.00	409.00	409.00	408.00	408.00	408.00	408.00	410.00	411.00	411.00	411.00	411.00	410.00	409.00	409.00	408.00	410.00	413.00	413.00	415.00	415.00	417.00	418.00	418.00	419.00	420.00	421.00	421.00	422.00	422.00	424.00	426.00	426.00	429.00	429.00	432.00	432.00	433.00	433.00	435.00	436.00	436.00	436.00	436.00	440.00	443.00	447.00	447.00	450.00	453.00	453.00	456.00	456.00	457.00	459.00	459.00	460.00	461.00	462.00	462.00	463.00	463.00	463.00	464.00	464.00	464.00	464.00	465.00	465.00	465.00	465.00	465.00	463.00	463.00	462.00	461.00	461.00	460.00	459.00	459.00	456.00	452.00	452.00	447.00	443.00	443.00	437.00	437.00	432.00	425.00	418.00	418.00	412.00	406.00	406.00	401.00	401.00	396.00	391.00	384.00	384.00	379.00	374.00	374.00	369.00	369.00	365.00	362.00	362.00	360.00	359.00	358.00	358.00	361.00	361.00	365.00	370.00	370.00	376.00	376.00	387.00	387.00	392.00	392.00	397.00	401.00	401.00	404.00	404.00	409.00	413.00	418.00	418.00	421.00	425.00	425.00	430.00	430.00	436.00	442.00	449.00	449.00	459.00	468.00	468.00
252.00	257.00	264.00	264.00	273.00	273.00	282.00	291.00	291.00	300.00	300.00	318.00	318.00	325.00	325.00	333.00	340.00	340.00	347.00	347.00	357.00	357.00	358.00	358.00	359.00	359.00	359.00	358.00	358.00	357.00	355.00	352.00	352.00	348.00	345.00	345.00	342.00	342.00	338.00	335.00	335.00	331.00	327.00	323.00	323.00	319.00	319.00	316.00	313.00	313.00	311.00	311.00	307.00	307.00	305.00	305.00	303.00	303.00	303.00	309.00	309.00	315.00	320.00	325.00	325.00	328.00	333.00	333.00	340.00	340.00	347.00	354.00	354.00	361.00	369.00	376.00	376.00	380.00	380.00	384.00	387.00	387.00	391.00	394.00	397.00	397.00	400.00	400.00	401.00	403.00	403.00	404.00	406.00	406.00	408.00	409.00	409.00	411.00	412.00	412.00	414.00	415.00	415.00	417.00	417.00	418.00	419.00	420.00	420.00	421.00	421.00	421.00	422.00	422.00	422.00	422.00	423.00	423.00	425.00	426.00	426.00	427.00	427.00	427.00	428.00	428.00	429.00	430.00	432.00	432.00	433.00	433.00	433.00	434.00	434.00	435.00	437.00	438.00	438.00	440.00	440.00	442.00	444.00	444.00	446.00	446.00	451.00	451.00	453.00	453.00	454.00	456.00	456.00	458.00	458.00	461.00	463.00	466.00	466.00	468.00	470.00	470.00	473.00	473.00	476.00	479.00	479.00	482.00	484.00	485.00	485.00	486.00	486.00	486.00	486.00	486.00	487.00	487.00	488.00	488.00	488.00	488.00	489.00	490.00	490.00	490.00	489.00	489.00	487.00	485.00	485.00	483.00	482.00	482.00	480.00	476.00	476.00	470.00	470.00	465.00	460.00	455.00	455.00	451.00	447.00	447.00	443.00	443.00	439.00	436.00	433.00	433.00	430.00	429.00	429.00	430.00	430.00	431.00	433.00	433.00	435.00	438.00	442.00	442.00	446.00	446.00	451.00	458.00	458.00	467.00	467.00	486.00	486.00	494.00	494.00	503.00	512.00	512.00	521.00	521.00	530.00	538.00	544.00	544.00	550.00	558.00	558.00	566.00	566.00	575.00	584.00	593.00	593.00	602.00	610.00	610.00
252.00	257.00	264.00	264.00	273.00	273.00	282.00	291.00	291.00	300.00	300.00	318.00	318.00	325.00	325.00	333.00	340.00	340.00	347.00	347.00	357.00	357.00	358.00	358.00	359.00	359.00	359.00	358.00	358.00	357.00	355.00	352.00	352.00	348.00	345.00	345.00	342.00	342.00	338.00	335.00	335.00	331.00	327.00	323.00	323.00	319.00	319.00	316.00	313.00	313.00	311.00	311.00	307.00	307.00	305.00	305.00	303.00	303.00	303.00	309.00	309.00	315.00	320.00	325.00	325.00	328.00	333.00	333.00	340.00	340.00	347.00	354.00	354.00	361.00	369.00	376.00	376.00	380.00	380.00	384.00	387.00	387.00	391.00	394.00	397.00	397.00	400.00	400.00	401.00	403.00	403.00	404.00	406.00	406.00	408.00	409.00	409.00	411.00	412.00	412.00	414.00	415.00	415.00	417.00	417.00	418.00	419.00	420.00	420.00	421.00	421.00	421.00	422.00	422.00	422.00	422.00	423.00	423.00	425.00	426.00	426.00	427.00	427.00	427.00	428.00	428.00	429.00	430.00	432.00	432.00	433.00	433.00	433.00	434.00	434.00	435.00	437.00	438.00	438.00	440.00	440.00	442.00	444.00	444.00	446.00	446.00	451.00	451.00	453.00	453.00	454.00	456.00	456.00	458.00	458.00	461.00	463.00	466.00	466.00	468.00	470.00	470.00	473.00	473.00	476.00	479.00	479.00	482.00	484.00	485.00	485.00	486.00	486.00	486.00	486.00	486.00	487.00	487.00	488.00	488.00	488.00	488.00	489.00	490.00	490.00	490.00	489.00	489.00	487.00	485.00	485.00	483.00	482.00	482.00	480.00	476.00	476.00	470.00	470.00	465.00	460.00	455.00	455.00	451.00	447.00	447.00	443.00	443.00	439.00	436.00	433.00	433.00	430.00	429.00	429.00	430.00	430.00	431.00	433.00	433.00	435.00	438.00	442.00	442.00	446.00	446.00	451.00	458.00	458.00	467.00	467.00	486.00	486.00	494.00	494.00	503.00	512.00	512.00	521.00	521.00	530.00	538.00	544.00	544.00	550.00	558.00	558.00	566.00	566.00	575.00	584.00	593.00	593.00	602.00	610.00	610.00
252.00	257.00	264.00	264.00	273.00	273.00	282.00	291.00	291.00	300.00	300.00	318.00	318.00	325.00	325.00	333.00	340.00	340.00	347.00	347.00	357.00	357.00	358.00	358.00	359.00	359.00	359.00	358.00	358.00	357.00	355.00	352.00	352.00	348.00	345.00	345.00	342.00	342.00	338.00	335.00	335.00	331.00	327.00	323.00	323.00	319.00	319.00	316.00	313.00	313.00	311.00	311.00	307.00	307.00	305.00	305.00	303.00	303.00	303.00	309.00	309.00	315.00	320.00	325.00	325.00	328.00	333.00	333.00	340.00	340.00	347.00	354.00	354.00	361.00	369.00	376.00	376.00	380.00	380.00	384.00	387.00	387.00	391.00	394.00	397.00	397.00	400.00	400.00	401.00	403.00	403.00	404.00	406.00	406.00	408.00	409.00	409.00	411.00	412.00	412.00	414.00	415.00	415.00	417.00	417.00	418.00	419.00	420.00	420.00	421.00	421.00	421.00	422.00	422.00	422.00	422.00	423.00	423.00	425.00	426.00	426.00	427.00	427.00	427.00	428.00	428.00	429.00	430.00	432.00	432.00	433.00	433.00	433.00	434.00	434.00	435.00	437.00	438.00	438.00	440.00	440.00	442.00	444.00	444.00	446.00	446.00	451.00	451.00	453.00	453.00	454.00	456.00	456.00	458.00	458.00	461.00	463.00	466.00	466.00	468.00	470.00	470.00	473.00	473.00	476.00	479.00	479.00	482.00	484.00	485.00	485.00	486.00	486.00	486.00	486.00	486.00	487.00	487.00	488.00	488.00	488.00	488.00	489.00	490.00	490.00	490.00	489.00	489.00	487.00	485.00	485.00	483.00	482.00	482.00	480.00	476.00	476.00	470.00	470.00	465.00	460.00	455.00	455.00	451.00	447.00	447.00	443.00	443.00	439.00	436.00	433.00	433.00	430.00	429.00	429.00	430.00	430.00	431.00	433.00	433.00	435.00	438.00	442.00	442.00	446.00	446.00	451.00	458.00	458.00	467.00	467.00	486.00	486.00	494.00	494.00	503.00	512.00	512.00	521.00	521.00	530.00	538.00	544.00	544.00	550.00	558.00	558.00	566.00	566.00	575.00	584.00	593.00	593.00	602.00	610.00	610.00
252.00	257.00	264.00	264.00	273.00	273.00	282.00	291.00	291.00	300.00	300.00	318.00	318.00	325.00	325.00	333.00	340.00	340.00	347.00	347.00	357.00	357.00	358.00	358.00	359.00	359.00	359.00	358.00	358.00	357.00	355.00	352.00	352.00	348.00	345.00	345.00	342.00	342.00	338.00	335.00	335.00	331.00	327.00	323.00	323.00	319.00	319.00	316.00	313.00	313.00	311.00	311.00	307.00	307.00	305.00	305.00	303.00	303.00	303.00	309.00	309.00	315.00	320.00	325.00	325.00	328.00	333.00	333.00	340.00	340.00	347.00	354.00	354.00	361.00	369.00	376.00	376.00	380.00	380.00	384.00	387.00	387.00	391.00	394.00	397.00	397.00	400.00	400.00	401.00	403.00	403.00	404.00	406.00	406.00	408.00	409.00	409.00	411.00	412.00	412.00	414.00	415.00	415.00	417.00	417.00	418.00	419.00	420.00	420.00	421.00	421.00	421.00	422.00	422.00	422.00	422.00	423.00	423.00	425.00	426.00	426.00	427.00	427.00	427.00	428.00	428.00	429.00	430.00	432.00	432.00	433.00	433.00	433.00	434.00	434.00	435.00	437.00	438.00	438.00	440.00	440.00	442.00	444.00	444.00	446.00	446.00	451.00	451.00	453.00	453.00	454.00	456.00	456.00	458.00	458.00	461.00	463.00	466.00	466.00	468.00	470.00	470.00	473.00	473.00	476.00	479.00	479.00	482.00	484.00	485.00	485.00	486.00	486.00	486.00	486.00	486.00	487.00	487.00	488.00	488.00	488.00	488.00	489.00	490.00	490.00	490.00	489.00	489.00	487.00	485.00	485.00	483.00	482.00	482.00	480.00	476.00	476.00	470.00	470.00	465.00	460.00	455.00	455.00	451.00	447.00	447.00	443.00	443.00	439.00	436.00	433.00	433.00	430.00	429.00	429.00	430.00	430.00	431.00	433.00	433.00	435.00	438.00	442.00	442.00	446.00	446.00	451.00	458.00	458.00	467.00	467.00	486.00	486.00	494.00	494.00	503.00	512.00	512.00	521.00	521.00	530.00	538.00	544.00	544.00	550.00	558.00	558.00	566.00	566.00	575.00	584.00	593.00	593.00	602.00	610.00	610.00
252.00	257.00	264.00	264.00	273.00	273.00	282.00	291.00	291.00	300.00	300.00	318.00	318.00	325.00	325.00	333.00	340.00	340.00	347.00	347.00	357.00	357.00	358.00	358.00	359.00	359.00	359.00	358.00	358.00	357.00	355.00	352.00	352.00	348.00	345.00	345.00	342.00	342.00	338.00	335.00	335.00	331.00	327.00	323.00	323.00	319.00	319.00	316.00	313.00	313.00	311.00	311.00	307.00	307.00	305.00	305.00	303.00	303.00	303.00	309.00	309.00	315.00	320.00	325.00	325.00	328.00	333.00	333.00	340.00	340.00	347.00	354.00	354.00	361.00	369.00	376.00	376.00	380.00	380.00	384.00	387.00	387.00	391.00	394.00	397.00	397.00	400.00	400.00	401.00	403.00	403.00	404.00	406.00	406.00	408.00	409.00	409.00	411.00	412.00	412.00	414.00	415.00	415.00	417.00	417.00	418.00	419.00	420.00	420.00	421.00	421.00	421.00	422.00	422.00	422.00	422.00	423.00	423.00	425.00	426.00	426.00	427.00	427.00	427.00	428.00	428.00	429.00	430.00	432.00	432.00	433.00	433.00	433.00	434.00	434.00	435.00	437.00	438.00	438.00	440.00	440.00	442.00	444.00	444.00	446.00	446.00	451.00	451.00	453.00	453.00	454.00	456.00	456.00	458.00	458.00	461.00	463.00	466.00	466.00	468.00	470.00	470.00	473.00	473.00	476.00	479.00	479.00	482.00	484.00	485.00	485.00	486.00	486.00	486.00	486.00	486.00	487.00	487.00	488.00	488.00	488.00	488.00	489.00	490.00	490.00	490.00	489.00	489.00	487.00	485.00	485.00	483.00	482.00	482.00	480.00	476.00	476.00	470.00	470.00	465.00	460.00	455.00	455.00	451.00	447.00	447.00	443.00	443.00	439.00	436.00	433.00	433.00	430.00	429.00	429.00	430.00	430.00	431.00	433.00	433.00	435.00	438.00	442.00	442.00	446.00	446.00	451.00	458.00	458.00	467.00	467.00	486.00	486.00	494.00	494.00	503.00	512.00	512.00	521.00	521.00	530.00	538.00	544.00	544.00	550.00	558.00	558.00	566.00	566.00	575.00	584.00	593.00	593.00	602.00	610.00	610.00
252.00	257.00	264.00	264.00	273.00	273.00	282.00	291.00	291.00	300.00	300.00	318.00	318.00	325.00	325.00	333.00	340.00	340.00	347.00	347.00	357.00	357.00	358.00	358.00	359.00	359.00	359.00	358.00	358.00	357.00	355.00	352.00	352.00	348.00	345.00	345.00	342.00	342.00	338.00	335.00	335.00	331.00	327.00	323.00	323.00	319.00	319.00	316.00	313.00	313.00	311.00	311.00	307.00	307.00	305.00	305.00	303.00	303.00	303.00	309.00	309.00	315.00	320.00	325.00	325.00	328.00	333.00	333.00	340.00	340.00	347.00	354.00	354.00	361.00	369.00	376.00	376.00	380.00	380.00	384.00	387.00	387.00	391.00	394.00	397.00	397.00	400.00	400.00	401.00	403.00	403.00	404.00	406.00	406.00	408.00	409.00	409.00	411.00	412.00	412.00	414.00	415.00	415.00	417.00	417.00	418.00	419.00	420.00	420.00	421.00	421.00	421.00	422.00	422.00	422.00	422.00	423.00	423.00	425.00	426.00	426.00	427.00	427.00	427.00	428.00	428.00	429.00	430.00	432.00	432.00	433.00	433.00	433.00	434.00	434.00	435.00	437.00	438.00	438.00	440.00	440.00	442.00	444.00	444.00	446.00	446.00	451.00	451.00	453.00	453.00	454.00	456.00	456.00	458.00	458.00	461.00	463.00	466.00	466.00	468.00	470.00	470.00	473.00	473.00	476.00	479.00	479.00	482.00	484.00	485.00	485.00	486.00	486.00	486.00	486.00	486.00	487.00	487.00	488.00	488.00	488.00	488.00	489.00	490.00	490.00	490.00	489.00	489.00	487.00	485.00	485.00	483.00	482.00	482.00	480.00	476.00	476.00	470.00	470.00	465.00	460.00	455.00	455.00	451.00	447.00	447.00	443.00	443.00	439.00	436.00	433.00	433.00	430.00	429.00	429.00	430.00	430.00	431.00	433.00	433.00	435.00	438.00	442.00	442.00	446.00	446.00	451.00	458.00	458.00	467.00	467.00	486.00	486.00	494.00	494.00	503.00	512.00	512.00	521.00	521.00	530.00	538.00	544.00	544.00	550.00	558.00	558.00	566.00	566.00	575.00	584.00	593.00	593.00	602.00	610.00	610.00
252.00	257.00	264.00	264.00	273.00	273.00	282.00	291.00	291.00	300.00	300.00	318.00	318.00	325.00	325.00	333.00	340.00	340.00	347.00	347.00	357.00	357.00	358.00	358.00	359.00	359.00	359.00	358.00	358.00	357.00	355.00	352.00	352.00	348.00	345.00	345.00	342.00	342.00	338.00	335.00	335.00	331.00	327.00	323.00	323.00	319.00	319.00	316.00	313.00	313.00	311.00	311.00	307.00	307.00	305.00	305.00	303.00	303.00	303.00	309.00	309.00	315.00	320.00	325.00	325.00	328.00	333.00	333.00	340.00	340.00	347.00	354.00	354.00	361.00	369.00	376.00	376.00	380.00	380.00	384.00	387.00	387.00	391.00	394.00	397.00	397.00	400.00	400.00	401.00	403.00	403.00	404.00	406.00	406.00	408.00	409.00	409.00	411.00	412.00	412.00	414.00	415.00	415.00	417.00	417.00	418.00	419.00	420.00	420.00	421.00	421.00	421.00	422.00	422.00	422.00	422.00	423.00	423.00	425.00	426.00	426.00	427.00	427.00	427.00	428.00	428.00	429.00	430.00	432.00	432.00	433.00	433.00	433.00	434.00	434.00	435.00	437.00	438.00	438.00	440.00	440.00	442.00	444.00	444.00	446.00	446.00	451.00	451.00	453.00	453.00	454.00	456.00	456.00	458.00	458.00	461.00	463.00	466.00	466.00	468.00	470.00	470.00	473.00	473.00	476.00	479.00	479.00	482.00	484.00	485.00	485.00	486.00	486.00	486.00	486.00	486.00	487.00	487.00	488.00	488.00	488.00	488.00	489.00	490.00	490.00	490.00	489.00	489.00	487.00	485.00	485.00	483.00	482.00	482.00	480.00	476.00	476.00	470.00	470.00	465.00	460.00	455.00	455.00	451.00	447.00	447.00	443.00	443.00	439.00	436.00	433.00	433.00	430.00	429.00	429.00	430.00	430.00	431.00	433.00	433.00	435.00	438.00	442.00	442.00	446.00	446.00	451.00	458.00	458.00	467.00	467.00	486.00	486.00	494.00	494.00	503.00	512.00	512.00	521.00	521.00	530.00	538.00	544.00	544.00	550.00	558.00	558.00	566.00	566.00	575.00	584.00	593.00	593.00	602.00	610.00	610.00
264.00	271.00	278.00	278.00	286.00	286.00	294.00	302.00	302.00	311.00	311.00	329.00	329.00	338.00	338.00	347.00	354.00	354.00	360.00	360.00	369.00	369.00	372.00	372.00	375.00	376.00	376.00	374.00	374.00	372.00	371.00	369.00	369.00	367.00	365.00	365.00	362.00	362.00	359.00	356.00	356.00	353.00	350.00	347.00	347.00	344.00	344.00	340.00	338.00	338.00	335.00	335.00	330.00	330.00	331.00	331.00	331.00	332.00	332.00	334.00	334.00	335.00	338.00	343.00	343.00	347.00	352.00	352.00	357.00	357.00	362.00	368.00	368.00	376.00	383.00	389.00	389.00	393.00	393.00	397.00	400.00	400.00	401.00	402.00	404.00	404.00	405.00	405.00	405.00	406.00	406.00	409.00	411.00	411.00	413.00	415.00	415.00	417.00	419.00	419.00	420.00	422.00	422.00	423.00	423.00	425.00	426.00	428.00	428.00	429.00	430.00	430.00	431.00	431.00	432.00	434.00	435.00	435.00	436.00	437.00	437.00	439.00	439.00	440.00	441.00	441.00	443.00	444.00	445.00	445.00	446.00	446.00	447.00	449.00	449.00	450.00	451.00	453.00	453.00	454.00	454.00	456.00	458.00	458.00	459.00	459.00	463.00	463.00	465.00	465.00	467.00	469.00	469.00	471.00	471.00	473.00	475.00	478.00	478.00	480.00	483.00	483.00	485.00	485.00	487.00	490.00	490.00	493.00	495.00	498.00	498.00	500.00	500.00	501.00	502.00	502.00	502.00	502.00	502.00	502.00	503.00	503.00	503.00	503.00	503.00	503.00	503.00	503.00	504.00	504.00	504.00	502.00	500.00	500.00	498.00	496.00	496.00	495.00	495.00	493.00	490.00	487.00	487.00	484.00	483.00	483.00	483.00	483.00	483.00	484.00	486.00	486.00	488.00	492.00	492.00	497.00	497.00	503.00	510.00	510.00	514.00	520.00	527.00	527.00	535.00	535.00	544.00	554.00	554.00	564.00	564.00	584.00	584.00	596.00	596.00	609.00	622.00	622.00	633.00	633.00	643.00	654.00	666.00	666.00	677.00	686.00	686.00	692.00	692.00	699.00	706.00	713.00	713.00	720.00	728.00	728.00
264.00	271.00	278.00	278.00	286.00	286.00	294.00	302.00	302.00	311.00	311.00	329.00	329.00	338.00	338.00	347.00	354.00	354.00	360.00	360.00	369.00	369.00	372.00	372.00	375.00	376.00	376.00	374.00	374.00	372.00	371.00	369.00	369.00	367.00	365.00	365.00	362.00	362.00	359.00	356.00	356.00	353.00	350.00	347.00	347.00	344.00	344.00	340.00	338.00	338.00	335.00	335.00	330.00	330.00	331.00	331.00	331.00	332.00	332.00	334.00	334.00	335.00	338.00	343.00	343.00	347.00	352.00	352.00	357.00	357.00	362.00	368.00	368.00	376.00	383.00	389.00	389.00	393.00	393.00	397.00	400.00	400.00	401.00	402.00	404.00	404.00	405.00	405.00	405.00	406.00	406.00	409.00	411.00	411.00	413.00	415.00	415.00	417.00	419.00	419.00	420.00	422.00	422.00	423.00	423.00	425.00	426.00	428.00	428.00	429.00	430.00	430.00	431.00	431.00	432.00	434.00	435.00	435.00	436.00	437.00	437.00	439.00	439.00	440.00	441.00	441.00	443.00	444.00	445.00	445.00	446.00	446.00	447.00	449.00	449.00	450.00	451.00	453.00	453.00	454.00	454.00	456.00	458.00	458.00	459.00	459.00	463.00	463.00	465.00	465.00	467.00	469.00	469.00	471.00	471.00	473.00	475.00	478.00	478.00	480.00	483.00	483.00	485.00	485.00	487.00	490.00	490.00	493.00	495.00	498.00	498.00	500.00	500.00	501.00	502.00	502.00	502.00	502.00	502.00	502.00	503.00	503.00	503.00	503.00	503.00	503.00	503.00	503.00	504.00	504.00	504.00	502.00	500.00	500.00	498.00	496.00	496.00	495.00	495.00	493.00	490.00	487.00	487.00	484.00	483.00	483.00	483.00	483.00	483.00	484.00	486.00	486.00	488.00	492.00	492.00	497.00	497.00	503.00	510.00	510.00	514.00	520.00	527.00	527.00	535.00	535.00	544.00	554.00	554.00	564.00	564.00	584.00	584.00	596.00	596.00	609.00	622.00	622.00	633.00	633.00	643.00	654.00	666.00	666.00	677.00	686.00	686.00	692.00	692.00	699.00	706.00	713.00	713.00	720.00	728.00	728.00
264.00	271.00	278.00	278.00	286.00	286.00	294.00	302.00	302.00	311.00	311.00	329.00	329.00	338.00	338.00	347.00	354.00	354.00	360.00	360.00	369.00	369.00	372.00	372.00	375.00	376.00	376.00	374.00	374.00	372.00	371.00	369.00	369.00	367.00	365.00	365.00	362.00	362.00	359.00	356.00	356.00	353.00	350.00	347.00	347.00	344.00	344.00	340.00	338.00	338.00	335.00	335.00	330.00	330.00	331.00	331.00	331.00	332.00	332.00	334.00	334.00	335.00	338.00	343.00	343.00	347.00	352.00	352.00	357.00	357.00	362.00	368.00	368.00	376.00	383.00	389.00	389.00	393.00	393.00	397.00	400.00	400.00	401.00	402.00	404.00	404.00	405.00	405.00	405.00	406.00	406.00	409.00	411.00	411.00	413.00	415.00	415.00	417.00	419.00	419.00	420.00	422.00	422.00	423.00	423.00	425.00	426.00	428.00	428.00	429.00	430.00	430.00	431.00	431.00	432.00	434.00	435.00	435.00	436.00	437.00	437.00	439.00	439.00	440.00	441.00	441.00	443.00	444.00	445.00	445.00	446.00	446.00	447.00	449.00	449.00	450.00	451.00	453.00	453.00	454.00	454.00	456.00	458.00	458.00	459.00	459.00	463.00	463.00	465.00	465.00	467.00	469.00	469.00	471.00	471.00	473.00	475.00	478.00	478.00	480.00	483.00	483.00	485.00	485.00	487.00	490.00	490.00	493.00	495.00	498.00	498.00	500.00	500.00	501.00	502.00	502.00	502.00	502.00	502.00	502.00	503.00	503.00	503.00	503.00	503.00	503.00	503.00	503.00	504.00	504.00	504.00	502.00	500.00	500.00	498.00	496.00	496.00	495.00	495.00	493.00	490.00	487.00	487.00	484.00	483.00	483.00	483.00	483.00	483.00	484.00	486.00	486.00	488.00	492.00	492.00	497.00	497.00	503.00	510.00	510.00	514.00	520.00	527.00	527.00	535.00	535.00	544.00	554.00	554.00	564.00	564.00	584.00	584.00	596.00	596.00	609.00	622.00	622.00	633.00	633.00	643.00	654.00	666.00	666.00	677.00	686.00	686.00	692.00	692.00	699.00	706.00	713.00	713.00	720.00	728.00	728.00
264.00	271.00	278.00	278.00	286.00	286.00	294.00	302.00	302.00	311.00	311.00	329.00	329.00	338.00	338.00	347.00	354.00	354.00	360.00	360.00	369.00	369.00	372.00	372.00	375.00	376.00	376.00	374.00	374.00	372.00	371.00	369.00	369.00	367.00	365.00	365.00	362.00	362.00	359.00	356.00	356.00	353.00	350.00	347.00	347.00	344.00	344.00	340.00	338.00	338.00	335.00	335.00	330.00	330.00	331.00	331.00	331.00	332.00	332.00	334.00	334.00	335.00	338.00	343.00	343.00	347.00	352.00	352.00	357.00	357.00	362.00	368.00	368.00	376.00	383.00	389.00	389.00	393.00	393.00	397.00	400.00	400.00	401.00	402.00	404.00	404.00	405.00	405.00	405.00	406.00	406.00	409.00	411.00	411.00	413.00	415.00	415.00	417.00	419.00	419.00	420.00	422.00	422.00	423.00	423.00	425.00	426.00	428.00	428.00	429.00	430.00	430.00	431.00	431.00	432.00	434.00	435.00	435.00	436.00	437.00	437.00	439.00	439.00	440.00	441.00	441.00	443.00	444.00	445.00	445.00	446.00	446.00	447.00	449.00	449.00	450.00	451.00	453.00	453.00	454.00	454.00	456.00	458.00	458.00	459.00	459.00	463.00	463.00	465.00	465.00	467.00	469.00	469.00	471.00	471.00	473.00	475.00	478.00	478.00	480.00	483.00	483.00	485.00	485.00	487.00	490.00	490.00	493.00	495.00	498.00	498.00	500.00	500.00	501.00	502.00	502.00	502.00	502.00	502.00	502.00	503.00	503.00	503.00	503.00	503.00	503.00	503.00	503.00	504.00	504.00	504.00	502.00	500.00	500.00	498.00	496.00	496.00	495.00	495.00	493.00	490.00	487.00	487.00	484.00	483.00	483.00	483.00	483.00	483.00	484.00	486.00	486.00	488.00	492.00	492.00	497.00	497.00	503.00	510.00	510.00	514.00	520.00	527.00	527.00	535.00	535.00	544.00	554.00	554.00	564.00	564.00	584.00	584.00	596.00	596.00	609.00	622.00	622.00	633.00	633.00	643.00	654.00	666.00	666.00	677.00	686.00	686.00	692.00	692.00	699.00	706.00	713.00	713.00	720.00	728.00	728.00
264.00	271.00	278.00	278.00	286.00	286.00	294.00	302.00	302.00	311.00	311.00	329.00	329.00	338.00	338.00	347.00	354.00	354.00	360.00	360.00	369.00	369.00	372.00	372.00	375.00	376.00	376.00	374.00	374.00	372.00	371.00	369.00	369.00	367.00	365.00	365.00	362.00	362.00	359.00	356.00	356.00	353.00	350.00	347.00	347.00	344.00	344.00	340.00	338.00	338.00	335.00	335.00	330.00	330.00	331.00	331.00	331.00	332.00	332.00	334.00	334.00	335.00	338.00	343.00	343.00	347.00	352.00	352.00	357.00	357.00	362.00	368.00	368.00	376.00	383.00	389.00	389.00	393.00	393.00	397.00	400.00	400.00	401.00	402.00	404.00	404.00	405.00	405.00	405.00	406.00	406.00	409.00	411.00	411.00	413.00	415.00	415.00	417.00	419.00	419.00	420.00	422.00	422.00	423.00	423.00	425.00	426.00	428.00	428.00	429.00	430.00	430.00	431.00	431.00	432.00	434.00	435.00	435.00	436.00	437.00	437.00	439.00	439.00	440.00	441.00	441.00	443.00	444.00	445.00	445.00	446.00	446.00	447.00	449.00	449.00	450.00	451.00	453.00	453.00	454.00	454.00	456.00	458.00	458.00	459.00	459.00	463.00	463.00	465.00	465.00	467.00	469.00	469.00	471.00	471.00	473.00	475.00	478.00	478.00	480.00	483.00	483.00	485.00	485.00	487.00	490.00	490.00	493.00	495.00	498.00	498.00	500.00	500.00	501.00	502.00	502.00	502.00	502.00	502.00	502.00	503.00	503.00	503.00	503.00	503.00	503.00	503.00	503.00	504.00	504.00	504.00	502.00	500.00	500.00	498.00	496.00	496.00	495.00	495.00	493.00	490.00	487.00	487.00	484.00	483.00	483.00	483.00	483.00	483.00	484.00	486.00	486.00	488.00	492.00	492.00	497.00	497.00	503.00	510.00	510.00	514.00	520.00	527.00	527.00	535.00	535.00	544.00	554.00	554.00	564.00	564.00	584.00	584.00	596.00	596.00	609.00	622.00	622.00	633.00	633.00	643.00	654.00	666.00	666.00	677.00	686.00	686.00	692.00	692.00	699.00	706.00	713.00	713.00	720.00	728.00	728.00
264.00	271.00	278.00	278.00	286.00	286.00	294.00	302.00	302.00	311.00	311.00	329.00	329.00	338.00	338.00	347.00	354.00	354.00	360.00	360.00	369.00	369.00	372.00	372.00	375.00	376.00	376.00	374.00	374.00	372.00	371.00	369.00	369.00	367.00	365.00	365.00	362.00	362.00	359.00	356.00	356.00	353.00	350.00	347.00	347.00	344.00	344.00	340.00	338.00	338.00	335.00	335.00	330.00	330.00	331.00	331.00	331.00	332.00	332.00	334.00	334.00	335.00	338.00	343.00	343.00	347.00	352.00	352.00	357.00	357.00	362.00	368.00	368.00	376.00	383.00	389.00	389.00	393.00	393.00	397.00	400.00	400.00	401.00	402.00	404.00	404.00	405.00	405.00	405.00	406.00	406.00	409.00	411.00	411.00	413.00	415.00	415.00	417.00	419.00	419.00	420.00	422.00	422.00	423.00	423.00	425.00	426.00	428.00	428.00	429.00	430.00	430.00	431.00	431.00	432.00	434.00	435.00	435.00	436.00	437.00	437.00	439.00	439.00	440.00	441.00	441.00	443.00	444.00	445.00	445.00	446.00	446.00	447.00	449.00	449.00	450.00	451.00	453.00	453.00	454.00	454.00	456.00	458.00	458.00	459.00	459.00	463.00	463.00	465.00	465.00	467.00	469.00	469.00	471.00	471.00	473.00	475.00	478.00	478.00	480.00	483.00	483.00	485.00	485.00	487.00	490.00	490.00	493.00	495.00	498.00	498.00	500.00	500.00	501.00	502.00	502.00	502.00	502.00	502.00	502.00	503.00	503.00	503.00	503.00	503.00	503.00	503.00	503.00	504.00	504.00	504.00	502.00	500.00	500.00	498.00	496.00	496.00	495.00	495.00	493.00	490.00	487.00	487.00	484.00	483.00	483.00	483.00	483.00	483.00	484.00	486.00	486.00	488.00	492.00	492.00	497.00	497.00	503.00	510.00	510.00	514.00	520.00	527.00	527.00	535.00	535.00	544.00	554.00	554.00	564.00	564.00	584.00	584.00	596.00	596.00	609.00	622.00	622.00	633.00	633.00	643.00	654.00	666.00	666.00	677.00	686.00	686.00	692.00	692.00	699.00	706.00	713.00	713.00	720.00	728.00	728.00
264.00	271.00	278.00	278.00	286.00	286.00	294.00	302.00	302.00	311.00	311.00	329.00	329.00	338.00	338.00	347.00	354.00	354.00	360.00	360.00	369.00	369.00	372.00	372.00	375.00	376.00	376.00	374.00	374.00	372.00	371.00	369.00	369.00	367.00	365.00	365.00	362.00	362.00	359.00	356.00	356.00	353.00	350.00	347.00	347.00	344.00	344.00	340.00	338.00	338.00	335.00	335.00	330.00	330.00	331.00	331.00	331.00	332.00	332.00	334.00	334.00	335.00	338.00	343.00	343.00	347.00	352.00	352.00	357.00	357.00	362.00	368.00	368.00	376.00	383.00	389.00	389.00	393.00	393.00	397.00	400.00	400.00	401.00	402.00	404.00	404.00	405.00	405.00	405.00	406.00	406.00	409.00	411.00	411.00	413.00	415.00	415.00	417.00	419.00	419.00	420.00	422.00	422.00	423.00	423.00	425.00	426.00	428.00	428.00	429.00	430.00	430.00	431.00	431.00	432.00	434.00	435.00	435.00	436.00	437.00	437.00	439.00	439.00	440.00	441.00	441.00	443.00	444.00	445.00	445.00	446.00	446.00	447.00	449.00	449.00	450.00	451.00	453.00	453.00	454.00	454.00	456.00	458.00	458.00	459.00	459.00	463.00	463.00	465.00	465.00	467.00	469.00	469.00	471.00	471.00	473.00	475.00	478.00	478.00	480.00	483.00	483.00	485.00	485.00	487.00	490.00	490.00	493.00	495.00	498.00	498.00	500.00	500.00	501.00	502.00	502.00	502.00	502.00	502.00	502.00	503.00	503.00	503.00	503.00	503.00	503.00	503.00	503.00	504.00	504.00	504.00	502.00	500.00	500.00	498.00	496.00	496.00	495.00	495.00	493.00	490.00	487.00	487.00	484.00	483.00	483.00	483.00	483.00	483.00	484.00	486.00	486.00	488.00	492.00	492.00	497.00	497.00	503.00	510.00	510.00	514.00	520.00	527.00	527.00	535.00	535.00	544.00	554.00	554.00	564.00	564.00	584.00	584.00	596.00	596.00	609.00	622.00	622.00	633.00	633.00	643.00	654.00	666.00	666.00	677.00	686.00	686.00	692.00	692.00	699.00	706.00	713.00	713.00	720.00	728.00	728.00
282.00	286.00	293.00	293.00	301.00	301.00	309.00	317.00	317.00	326.00	326.00	343.00	343.00	351.00	351.00	359.00	366.00	366.00	373.00	373.00	384.00	384.00	386.00	386.00	387.00	388.00	388.00	389.00	389.00	390.00	389.00	387.00	387.00	385.00	383.00	383.00	381.00	381.00	379.00	378.00	378.00	377.00	376.00	375.00	375.00	375.00	375.00	375.00	374.00	374.00	371.00	371.00	366.00	366.00	363.00	363.00	360.00	359.00	359.00	362.00	362.00	365.00	368.00	372.00	372.00	376.00	380.00	380.00	385.00	385.00	390.00	394.00	394.00	398.00	401.00	405.00	405.00	408.00	408.00	410.00	411.00	411.00	412.00	413.00	414.00	414.00	415.00	415.00	416.00	417.00	417.00	418.00	419.00	419.00	420.00	422.00	422.00	424.00	426.00	426.00	427.00	428.00	428.00	429.00	429.00	431.00	433.00	435.00	435.00	436.00	438.00	438.00	440.00	440.00	441.00	443.00	445.00	445.00	446.00	448.00	448.00	450.00	450.00	452.00	453.00	453.00	455.00	456.00	458.00	458.00	459.00	459.00	461.00	462.00	462.00	463.00	464.00	465.00	465.00	466.00	466.00	468.00	469.00	469.00	470.00	470.00	472.00	472.00	473.00	473.00	475.00	477.00	477.00	479.00	479.00	480.00	481.00	483.00	483.00	485.00	487.00	487.00	490.00	490.00	493.00	495.00	495.00	497.00	499.00	500.00	500.00	502.00	502.00	503.00	505.00	505.00	506.00	507.00	507.00	507.00	507.00	507.00	507.00	507.00	507.00	506.00	506.00	506.00	506.00	507.00	507.00	507.00	508.00	508.00	509.00	509.00	509.00	508.00	508.00	508.00	508.00	509.00	509.00	511.00	512.00	512.00	514.00	514.00	517.00	521.00	525.00	525.00	530.00	536.00	536.00	544.00	544.00	552.00	562.00	562.00	573.00	586.00	597.00	597.00	607.00	607.00	616.00	626.00	626.00	636.00	636.00	658.00	658.00	672.00	672.00	684.00	695.00	695.00	707.00	707.00	719.00	730.00	740.00	740.00	750.00	763.00	763.00	777.00	777.00	787.00	797.00	800.00	800.00	803.00	808.00	808.00
282.00	286.00	293.00	293.00	301.00	301.00	309.00	317.00	317.00	326.00	326.00	343.00	343.00	351.00	351.00	359.00	366.00	366.00	373.00	373.00	384.00	384.00	386.00	386.00	387.00	388.00	388.00	389.00	389.00	390.00	389.00	387.00	387.00	385.00	383.00	383.00	381.00	381.00	379.00	378.00	378.00	377.00	376.00	375.00	375.00	375.00	375.00	375.00	374.00	374.00	371.00	371.00	366.00	366.00	363.00	363.00	360.00	359.00	359.00	362.00	362.00	365.00	368.00	372.00	372.00	376.00	380.00	380.00	385.00	385.00	390.00	394.00	394.00	398.00	401.00	405.00	405.00	408.00	408.00	410.00	411.00	411.00	412.00	413.00	414.00	414.00	415.00	415.00	416.00	417.00	417.00	418.00	419.00	419.00	420.00	422.00	422.00	424.00	426.00	426.00	427.00	428.00	428.00	429.00	429.00	431.00	433.00	435.00	435.00	436.00	438.00	438.00	440.00	440.00	441.00	443.00	445.00	445.00	446.00	448.00	448.00	450.00	450.00	452.00	453.00	453.00	455.00	456.00	458.00	458.00	459.00	459.00	461.00	462.00	462.00	463.00	464.00	465.00	465.00	466.00	466.00	468.00	469.00	469.00	470.00	470.00	472.00	472.00	473.00	473.00	475.00	477.00	477.00	479.00	479.00	480.00	481.00	483.00	483.00	485.00	487.00	487.00	490.00	490.00	493.00	495.00	495.00	497.00	499.00	500.00	500.00	502.00	502.00	503.00	505.00	505.00	506.00	507.00	507.00	507.00	507.00	507.00	507.00	507.00	507.00	506.00	506.00	506.00	506.00	507.00	507.00	507.00	508.00	508.00	509.00	509.00	509.00	508.00	508.00	508.00	508.00	509.00	509.00	511.00	512.00	512.00	514.00	514.00	517.00	521.00	525.00	525.00	530.00	536.00	536.00	544.00	544.00	552.00	562.00	562.00	573.00	586.00	597.00	597.00	607.00	607.00	616.00	626.00	626.00	636.00	636.00	658.00	658.00	672.00	672.00	684.00	695.00	695.00	707.00	707.00	719.00	730.00	740.00	740.00	750.00	763.00	763.00	777.00	777.00	787.00	797.00	800.00	800.00	803.00	808.00	808.00
282.00	286.00	293.00	293.00	301.00	301.00	309.00	317.00	317.00	326.00	326.00	343.00	343.00	351.00	351.00	359.00	366.00	366.00	373.00	373.00	384.00	384.00	386.00	386.00	387.00	388.00	388.00	389.00	389.00	390.00	389.00	387.00	387.00	385.00	383.00	383.00	381.00	381.00	379.00	378.00	378.00	377.00	376.00	375.00	375.00	375.00	375.00	375.00	374.00	374.00	371.00	371.00	366.00	366.00	363.00	363.00	360.00	359.00	359.00	362.00	362.00	365.00	368.00	372.00	372.00	376.00	380.00	380.00	385.00	385.00	390.00	394.00	394.00	398.00	401.00	405.00	405.00	408.00	408.00	410.00	411.00	411.00	412.00	413.00	414.00	414.00	415.00	415.00	416.00	417.00	417.00	418.00	419.00	419.00	420.00	422.00	422.00	424.00	426.00	426.00	427.00	428.00	428.00	429.00	429.00	431.00	433.00	435.00	435.00	436.00	438.00	438.00	440.00	440.00	441.00	443.00	445.00	445.00	446.00	448.00	448.00	450.00	450.00	452.00	453.00	453.00	455.00	456.00	458.00	458.00	459.00	459.00	461.00	462.00	462.00	463.00	464.00	465.00	465.00	466.00	466.00	468.00	469.00	469.00	470.00	470.00	472.00	472.00	473.00	473.00	475.00	477.00	477.00	479.00	479.00	480.00	481.00	483.00	483.00	485.00	487.00	487.00	490.00	490.00	493.00	495.00	495.00	497.00	499.00	500.00	500.00	502.00	502.00	503.00	505.00	505.00	506.00	507.00	507.00	507.00	507.00	507.00	507.00	507.00	507.00	506.00	506.00	506.00	506.00	507.00	507.00	507.00	508.00	508.00	509.00	509.00	509.00	508.00	508.00	508.00	508.00	509.00	509.00	511.00	512.00	512.00	514.00	514.00	517.00	521.00	525.00	525.00	530.00	536.00	536.00	544.00	544.00	552.00	562.00	562.00	573.00	586.00	597.00	597.00	607.00	607.00	616.00	626.00	626.00	636.00	636.00	658.00	658.00	672.00	672.00	684.00	695.00	695.00	707.00	707.00	719.00	730.00	740.00	740.00	750.00	763.00	763.00	777.00	777.00	787.00	797.00	800.00	800.00	803.00	808.00	808.00
282.00	286.00	293.00	293.00	301.00	301.00	309.00	317.00	317.00	326.00	326.00	343.00	343.00	351.00	351.00	359.00	366.00	366.00	373.00	373.00	384.00	384.00	386.00	386.00	387.00	388.00	388.00	389.00	389.00	390.00	389.00	387.00	387.00	385.00	383.00	383.00	381.00	381.00	379.00	378.00	378.00	377.00	376.00	375.00	375.00	375.00	375.00	375.00	374.00	374.00	371.00	371.00	366.00	366.00	363.00	363.00	360.00	359.00	359.00	362.00	362.00	365.00	368.00	372.00	372.00	376.00	380.00	380.00	385.00	385.00	390.00	394.00	394.00	398.00	401.00	405.00	405.00	408.00	408.00	410.00	411.00	411.00	412.00	413.00	414.00	414.00	415.00	415.00	416.00	417.00	417.00	418.00	419.00	419.00	420.00	422.00	422.00	424.00	426.00	426.00	427.00	428.00	428.00	429.00	429.00	431.00	433.00	435.00	435.00	436.00	438.00	438.00	440.00	440.00	441.00	443.00	445.00	445.00	446.00	448.00	448.00	450.00	450.00	452.00	453.00	453.00	455.00	456.00	458.00	458.00	459.00	459.00	461.00	462.00	462.00	463.00	464.00	465.00	465.00	466.00	466.00	468.00	469.00	469.00	470.00	470.00	472.00	472.00	473.00	473.00	475.00	477.00	477.00	479.00	479.00	480.00	481.00	483.00	483.00	485.00	487.00	487.00	490.00	490.00	493.00	495.00	495.00	497.00	499.00	500.00	500.00	502.00	502.00	503.00	505.00	505.00	506.00	507.00	507.00	507.00	507.00	507.00	507.00	507.00	507.00	506.00	506.00	506.00	506.00	507.00	507.00	507.00	508.00	508.00	509.00	509.00	509.00	508.00	508.00	508.00	508.00	509.00	509.00	511.00	512.00	512.00	514.00	514.00	517.00	521.00	525.00	525.00	530.00	536.00	536.00	544.00	544.00	552.00	562.00	562.00	573.00	586.00	597.00	597.00	607.00	607.00	616.00	626.00	626.00	636.00	636.00	658.00	658.00	672.00	672.00	684.00	695.00	695.00	707.00	707.00	719.00	730.00	740.00	740.00	750.00	763.00	763.00	777.00	777.00	787.00	797.00	800.00	800.00	803.00	808.00	808.00
282.00	286.00	293.00	293.00	301.00	301.00	309.00	317.00	317.00	326.00	326.00	343.00	343.00	351.00	351.00	359.00	366.00	366.00	373.00	373.00	384.00	384.00	386.00	386.00	387.00	388.00	388.00	389.00	389.00	390.00	389.00	387.00	387.00	385.00	383.00	383.00	381.00	381.00	379.00	378.00	378.00	377.00	376.00	375.00	375.00	375.00	375.00	375.00	374.00	374.00	371.00	371.00	366.00	366.00	363.00	363.00	360.00	359.00	359.00	362.00	362.00	365.00	368.00	372.00	372.00	376.00	380.00	380.00	385.00	385.00	390.00	394.00	394.00	398.00	401.00	405.00	405.00	408.00	408.00	410.00	411.00	411.00	412.00	413.00	414.00	414.00	415.00	415.00	416.00	417.00	417.00	418.00	419.00	419.00	420.00	422.00	422.00	424.00	426.00	426.00	427.00	428.00	428.00	429.00	429.00	431.00	433.00	435.00	435.00	436.00	438.00	438.00	440.00	440.00	441.00	443.00	445.00	445.00	446.00	448.00	448.00	450.00	450.00	452.00	453.00	453.00	455.00	456.00	458.00	458.00	459.00	459.00	461.00	462.00	462.00	463.00	464.00	465.00	465.00	466.00	466.00	468.00	469.00	469.00	470.00	470.00	472.00	472.00	473.00	473.00	475.00	477.00	477.00	479.00	479.00	480.00	481.00	483.00	483.00	485.00	487.00	487.00	490.00	490.00	493.00	495.00	495.00	497.00	499.00	500.00	500.00	502.00	502.00	503.00	505.00	505.00	506.00	507.00	507.00	507.00	507.00	507.00	507.00	507.00	507.00	506.00	506.00	506.00	506.00	507.00	507.00	507.00	508.00	508.00	509.00	509.00	509.00	508.00	508.00	508.00	508.00	509.00	509.00	511.00	512.00	512.00	514.00	514.00	517.00	521.00	525.00	525.00	530.00	536.00	536.00	544.00	544.00	552.00	562.00	562.00	573.00	586.00	597.00	597.00	607.00	607.00	616.00	626.00	626.00	636.00	636.00	658.00	658.00	672.00	672.00	684.00	695.00	695.00	707.00	707.00	719.00	730.00	740.00	740.00	750.00	763.00	763.00	777.00	777.00	787.00	797.00	800.00	800.00	803.00	808.00	808.00
282.00	286.00	293.00	293.00	301.00	301.00	309.00	317.00	317.00	326.00	326.00	343.00	343.00	351.00	351.00	359.00	366.00	366.00	373.00	373.00	384.00	384.00	386.00	386.00	387.00	388.00	388.00	389.00	389.00	390.00	389.00	387.00	387.00	385.00	383.00	383.00	381.00	381.00	379.00	378.00	378.00	377.00	376.00	375.00	375.00	375.00	375.00	375.00	374.00	374.00	371.00	371.00	366.00	366.00	363.00	363.00	360.00	359.00	359.00	362.00	362.00	365.00	368.00	372.00	372.00	376.00	380.00	380.00	385.00	385.00	390.00	394.00	394.00	398.00	401.00	405.00	405.00	408.00	408.00	410.00	411.00	411.00	412.00	413.00	414.00	414.00	415.00	415.00	416.00	417.00	417.00	418.00	419.00	419.00	420.00	422.00	422.00	424.00	426.00	426.00	427.00	428.00	428.00	429.00	429.00	431.00	433.00	435.00	435.00	436.00	438.00	438.00	440.00	440.00	441.00	443.00	445.00	445.00	446.00	448.00	448.00	450.00	450.00	452.00	453.00	453.00	455.00	456.00	458.00	458.00	459.00	459.00	461.00	462.00	462.00	463.00	464.00	465.00	465.00	466.00	466.00	468.00	469.00	469.00	470.00	470.00	472.00	472.00	473.00	473.00	475.00	477.00	477.00	479.00	479.00	480.00	481.00	483.00	483.00	485.00	487.00	487.00	490.00	490.00	493.00	495.00	495.00	497.00	499.00	500.00	500.00	502.00	502.00	503.00	505.00	505.00	506.00	507.00	507.00	507.00	507.00	507.00	507.00	507.00	507.00	506.00	506.00	506.00	506.00	507.00	507.00	507.00	508.00	508.00	509.00	509.00	509.00	508.00	508.00	508.00	508.00	509.00	509.00	511.00	512.00	512.00	514.00	514.00	517.00	521.00	525.00	525.00	530.00	536.00	536.00	544.00	544.00	552.00	562.00	562.00	573.00	586.00	597.00	597.00	607.00	607.00	616.00	626.00	626.00	636.00	636.00	658.00	658.00	672.00	672.00	684.00	695.00	695.00	707.00	707.00	719.00	730.00	740.00	740.00	750.00	763.00	763.00	777.00	777.00	787.00	797.00	800.00	800.00	803.00	808.00	808.00
282.00	286.00	293.00	293.00	301.00	301.00	309.00	317.00	317.00	326.00	326.00	343.00	343.00	351.00	351.00	359.00	366.00	366.00	373.00	373.00	384.00	384.00	386.00	386.00	387.00	388.00	388.00	389.00	389.00	390.00	389.00	387.00	387.00	385.00	383.00	383.00	381.00	381.00	379.00	378.00	378.00	377.00	376.00	375.00	375.00	375.00	375.00	375.00	374.00	374.00	371.00	371.00	366.00	366.00	363.00	363.00	360.00	359.00	359.00	362.00	362.00	365.00	368.00	372.00	372.00	376.00	380.00	380.00	385.00	385.00	390.00	394.00	394.00	398.00	401.00	405.00	405.00	408.00	408.00	410.00	411.00	411.00	412.00	413.00	414.00	414.00	415.00	415.00	416.00	417.00	417.00	418.00	419.00	419.00	420.00	422.00	422.00	424.00	426.00	426.00	427.00	428.00	428.00	429.00	429.00	431.00	433.00	435.00	435.00	436.00	438.00	438.00	440.00	440.00	441.00	443.00	445.00	445.00	446.00	448.00	448.00	450.00	450.00	452.00	453.00	453.00	455.00	456.00	458.00	458.00	459.00	459.00	461.00	462.00	462.00	463.00	464.00	465.00	465.00	466.00	466.00	468.00	469.00	469.00	470.00	470.00	472.00	472.00	473.00	473.00	475.00	477.00	477.00	479.00	479.00	480.00	481.00	483.00	483.00	485.00	487.00	487.00	490.00	490.00	493.00	495.00	495.00	497.00	499.00	500.00	500.00	502.00	502.00	503.00	505.00	505.00	506.00	507.00	507.00	507.00	507.00	507.00	507.00	507.00	507.00	506.00	506.00	506.00	506.00	507.00	507.00	507.00	508.00	508.00	509.00	509.00	509.00	508.00	508.00	508.00	508.00	509.00	509.00	511.00	512.00	512.00	514.00	514.00	517.00	521.00	525.00	525.00	530.00	536.00	536.00	544.00	544.00	552.00	562.00	562.00	573.00	586.00	597.00	597.00	607.00	607.00	616.00	626.00	626.00	636.00	636.00	658.00	658.00	672.00	672.00	684.00	695.00	695.00	707.00	707.00	719.00	730.00	740.00	740.00	750.00	763.00	763.00	777.00	777.00	787.00	797.00	800.00	800.00	803.00	808.00	808.00
282.00	286.00	293.00	293.00	301.00	301.00	309.00	317.00	317.00	326.00	326.00	343.00	343.00	351.00	351.00	359.00	366.00	366.00	373.00	373.00	384.00	384.00	386.00	386.00	387.00	388.00	388.00	389.00	389.00	390.00	389.00	387.00	387.00	385.00	383.00	383.00	381.00	381.00	379.00	378.00	378.00	377.00	376.00	375.00	375.00	375.00	375.00	375.00	374.00	374.00	371.00	371.00	366.00	366.00	363.00	363.00	360.00	359.00	359.00	362.00	362.00	365.00	368.00	372.00	372.00	376.00	380.00	380.00	385.00	385.00	390.00	394.00	394.00	398.00	401.00	405.00	405.00	408.00	408.00	410.00	411.00	411.00	412.00	413.00	414.00	414.00	415.00	415.00	416.00	417.00	417.00	418.00	419.00	419.00	420.00	422.00	422.00	424.00	426.00	426.00	427.00	428.00	428.00	429.00	429.00	431.00	433.00	435.00	435.00	436.00	438.00	438.00	440.00	440.00	441.00	443.00	445.00	445.00	446.00	448.00	448.00	450.00	450.00	452.00	453.00	453.00	455.00	456.00	458.00	458.00	459.00	459.00	461.00	462.00	462.00	463.00	464.00	465.00	465.00	466.00	466.00	468.00	469.00	469.00	470.00	470.00	472.00	472.00	473.00	473.00	475.00	477.00	477.00	479.00	479.00	480.00	481.00	483.00	483.00	485.00	487.00	487.00	490.00	490.00	493.00	495.00	495.00	497.00	499.00	500.00	500.00	502.00	502.00	503.00	505.00	505.00	506.00	507.00	507.00	507.00	507.00	507.00	507.00	507.00	507.00	506.00	506.00	506.00	506.00	507.00	507.00	507.00	508.00	508.00	509.00	509.00	509.00	508.00	508.00	508.00	508.00	509.00	509.00	511.00	512.00	512.00	514.00	514.00	517.00	521.00	525.00	525.00	530.00	536.00	536.00	544.00	544.00	552.00	562.00	562.00	573.00	586.00	597.00	597.00	607.00	607.00	616.00	626.00	626.00	636.00	636.00	658.00	658.00	672.00	672.00	684.00	695.00	695.00	707.00	707.00	719.00	730.00	740.00	740.00	750.00	763.00	763.00	777.00	777.00	787.00	797.00	800.00	800.00	803.00	808.00	808.00
307.00	313.00	320.00	320.00	326.00	326.00	333.00	340.00	340.00	348.00	348.00	364.00	364.00	371.00	371.00	377.00	383.00	383.00	389.00	389.00	398.00	398.00	402.00	402.00	405.00	406.00	406.00	407.00	407.00	407.00	407.00	408.00	408.00	408.00	407.00	407.00	406.00	406.00	404.00	403.00	403.00	402.00	401.00	401.00	401.00	402.00	402.00	404.00	406.00	406.00	408.00	408.00	411.00	411.00	407.00	407.00	404.00	401.00	401.00	399.00	399.00	398.00	399.00	403.00	403.00	407.00	411.00	411.00	415.00	415.00	418.00	420.00	420.00	422.00	424.00	425.00	425.00	427.00	427.00	428.00	429.00	429.00	430.00	430.00	431.00	431.00	431.00	431.00	431.00	432.00	432.00	433.00	434.00	434.00	435.00	436.00	436.00	436.00	437.00	437.00	438.00	438.00	438.00	439.00	439.00	440.00	440.00	441.00	441.00	443.00	445.00	445.00	447.00	447.00	449.00	452.00	454.00	454.00	456.00	459.00	459.00	461.00	461.00	463.00	465.00	465.00	467.00	469.00	471.00	471.00	472.00	472.00	474.00	475.00	475.00	477.00	478.00	479.00	479.00	480.00	480.00	481.00	482.00	482.00	482.00	482.00	484.00	484.00	485.00	485.00	485.00	486.00	486.00	486.00	486.00	486.00	486.00	487.00	487.00	487.00	488.00	488.00	489.00	489.00	491.00	493.00	493.00	495.00	497.00	499.00	499.00	501.00	501.00	502.00	504.00	504.00	505.00	507.00	508.00	508.00	510.00	510.00	510.00	509.00	509.00	509.00	508.00	508.00	508.00	507.00	507.00	507.00	508.00	508.00	509.00	508.00	508.00	508.00	508.00	509.00	511.00	515.00	515.00	519.00	525.00	525.00	533.00	533.00	541.00	549.00	555.00	555.00	562.00	571.00	571.00	581.00	581.00	593.00	606.00	606.00	619.00	632.00	645.00	645.00	657.00	657.00	670.00	683.00	683.00	692.00	692.00	709.00	709.00	718.00	718.00	727.00	736.00	736.00	744.00	744.00	752.00	762.00	772.00	772.00	783.00	795.00	795.00	806.00	806.00	816.00	827.00	833.00	833.00	839.00	845.00	845.00
307.00	313.00	320.00	320.00	326.00	326.00	333.00	340.00	340.00	348.00	348.00	364.00	364.00	371.00	371.00	377.00	383.00	383.00	389.00	389.00	398.00	398.00	402.00	402.00	405.00	406.00	406.00	407.00	407.00	407.00	407.00	408.00	408.00	408.00	407.00	407.00	406.00	406.00	404.00	403.00	403.00	402.00	401.00	401.00	401.00	402.00	402.00	404.00	406.00	406.00	408.00	408.00	411.00	411.00	407.00	407.00	404.00	401.00	401.00	399.00	399.00	398.00	399.00	403.00	403.00	407.00	411.00	411.00	415.00	415.00	418.00	420.00	420.00	422.00	424.00	425.00	425.00	427.00	427.00	428.00	429.00	429.00	430.00	430.00	431.00	431.00	431.00	431.00	431.00	432.00	432.00	433.00	434.00	434.00	435.00	436.00	436.00	436.00	437.00	437.00	438.00	438.00	438.00	439.00	439.00	440.00	440.00	441.00	441.00	443.00	445.00	445.00	447.00	447.00	449.00	452.00	454.00	454.00	456.00	459.00	459.00	461.00	461.00	463.00	465.00	465.00	467.00	469.00	471.00	471.00	472.00	472.00	474.00	475.00	475.00	477.00	478.00	479.00	479.00	480.00	480.00	481.00	482.00	482.00	482.00	482.00	484.00	484.00	485.00	485.00	485.00	486.00	486.00	486.00	486.00	486.00	486.00	487.00	487.00	487.00	488.00	488.00	489.00	489.00	491.00	493.00	493.00	495.00	497.00	499.00	499.00	501.00	501.00	502.00	504.00	504.00	505.00	507.00	508.00	508.00	510.00	510.00	510.00	509.00	509.00	509.00	508.00	508.00	508.00	507.00	507.00	507.00	508.00	508.00	509.00	508.00	508.00	508.00	508.00	509.00	511.00	515.00	515.00	519.00	525.00	525.00	533.00	533.00	541.00	549.00	555.00	555.00	562.00	571.00	571.00	581.00	581.00	593.00	606.00	606.00	619.00	632.00	645.00	645.00	657.00	657.00	670.00	683.00	683.00	692.00	692.00	709.00	709.00	718.00	718.00	727.00	736.00	736.00	744.00	744.00	752.00	762.00	772.00	772.00	783.00	795.00	795.00	806.00	806.00	816.00	827.00	833.00	833.00	839.00	845.00	845.00
307.00	313.00	320.00	320.00	326.00	326.00	333.00	340.00	340.00	348.00	348.00	364.00	364.00	371.00	371.00	377.00	383.00	383.00	389.00	389.00	398.00	398.00	402.00	402.00	405.00	406.00	406.00	407.00	407.00	407.00	407.00	408.00	408.00	408.00	407.00	407.00	406.00	406.00	404.00	403.00	403.00	402.00	401.00	401.00	401.00	402.00	402.00	404.00	406.00	406.00	408.00	408.00	411.00	411.00	407.00	407.00	404.00	401.00	401.00	399.00	399.00	398.00	399.00	403.00	403.00	407.00	411.00	411.00	415.00	415.00	418.00	420.00	420.00	422.00	424.00	425.00	425.00	427.00	427.00	428.00	429.00	429.00	430.00	430.00	431.00	431.00	431.00	431.00	431.00	432.00	432.00	433.00	434.00	434.00	435.00	436.00	436.00	436.00	437.00	437.00	438.00	438.00	438.00	439.00	439.00	440.00	440.00	441.00	441.00	443.00	445.00	445.00	447.00	447.00	449.00	452.00	454.00	454.00	456.00	459.00	459.00	461.00	461.00	463.00	465.00	465.00	467.00	469.00	471.00	471.00	472.00	472.00	474.00	475.00	475.00	477.00	478.00	479.00	479.00	480.00	480.00	481.00	482.00	482.00	482.00	482.00	484.00	484.00	485.00	485.00	485.00	486.00	486.00	486.00	486.00	486.00	486.00	487.00	487.00	487.00	488.00	488.00	489.00	489.00	491.00	493.00	493.00	495.00	497.00	499.00	499.00	501.00	501.00	502.00	504.00	504.00	505.00	507.00	508.00	508.00	510.00	510.00	510.00	509.00	509.00	509.00	508.00	508.00	508.00	507.00	507.00	507.00	508.00	508.00	509.00	508.00	508.00	508.00	508.00	509.00	511.00	515.00	515.00	519.00	525.00	525.00	533.00	533.00	541.00	549.00	555.00	555.00	562.00	571.00	571.00	581.00	581.00	593.00	606.00	606.00	619.00	632.00	645.00	645.00	657.00	657.00	670.00	683.00	683.00	692.00	692.00	709.00	709.00	718.00	718.00	727.00	736.00	736.00	744.00	744.00	752.00	762.00	772.00	772.00	783.00	795.00	795.00	806.00	806.00	816.00	827.00	833.00	833.00	839.00	845.00	845.00
307.00	313.00	320.00	320.00	326.00	326.00	333.00	340.00	340.00	348.00	348.00	364.00	364.00	371.00	371.00	377.00	383.00	383.00	389.00	389.00	398.00	398.00	402.00	402.00	405.00	406.00	406.00	407.00	407.00	407.00	407.00	408.00	408.00	408.00	407.00	407.00	406.00	406.00	404.00	403.00	403.00	402.00	401.00	401.00	401.00	402.00	402.00	404.00	406.00	406.00	408.00	408.00	411.00	411.00	407.00	407.00	404.00	401.00	401.00	399.00	399.00	398.00	399.00	403.00	403.00	407.00	411.00	411.00	415.00	415.00	418.00	420.00	420.00	422.00	424.00	425.00	425.00	427.00	427.00	428.00	429.00	429.00	430.00	430.00	431.00	431.00	431.00	431.00	431.00	432.00	432.00	433.00	434.00	434.00	435.00	436.00	436.00	436.00	437.00	437.00	438.00	438.00	438.00	439.00	439.00	440.00	440.00	441.00	441.00	443.00	445.00	445.00	447.00	447.00	449.00	452.00	454.00	454.00	456.00	459.00	459.00	461.00	461.00	463.00	465.00	465.00	467.00	469.00	471.00	471.00	472.00	472.00	474.00	475.00	475.00	477.00	478.00	479.00	479.00	480.00	480.00	481.00	482.00	482.00	482.00	482.00	484.00	484.00	485.00	485.00	485.00	486.00	486.00	486.00	486.00	486.00	486.00	487.00	487.00	487.00	488.00	488.00	489.00	489.00	491.00	493.00	493.00	495.00	497.00	499.00	499.00	501.00	501.00	502.00	504.00	504.00	505.00	507.00	508.00	508.00	510.00	510.00	510.00	509.00	509.00	509.00	508.00	508.00	508.00	507.00	507.00	507.00	508.00	508.00	509.00	508.00	508.00	508.00	508.00	509.00	511.00	515.00	515.00	519.00	525.00	525.00	533.00	533.00	541.00	549.00	555.00	555.00	562.00	571.00	571.00	581.00	581.00	593.00	606.00	606.00	619.00	632.00	645.00	645.00	657.00	657.00	670.00	683.00	683.00	692.00	692.00	709.00	709.00	718.00	718.00	727.00	736.00	736.00	744.00	744.00	752.00	762.00	772.00	772.00	783.00	795.00	795.00	806.00	806.00	816.00	827.00	833.00	833.00	839.00	845.00	845.00
307.00	313.00	320.00	320.00	326.00	326.00	333.00	340.00	340.00	348.00	348.00	364.00	364.00	371.00	371.00	377.00	383.00	383.00	389.00	389.00	398.00	398.00	402.00	402.00	405.00	406.00	406.00	407.00	407.00	407.00	407.00	408.00	408.00	408.00	407.00	407.00	406.00	406.00	404.00	403.00	403.00	402.00	401.00	401.00	401.00	402.00	402.00	404.00	406.00	406.00	408.00	408.00	411.00	411.00	407.00	407.00	404.00	401.00	401.00	399.00	399.00	398.00	399.00	403.00	403.00	407.00	411.00	411.00	415.00	415.00	418.00	420.00	420.00	422.00	424.00	425.00	425.00	427.00	427.00	428.00	429.00	429.00	430.00	430.00	431.00	431.00	431.00	431.00	431.00	432.00	432.00	433.00	434.00	434.00	435.00	436.00	436.00	436.00	437.00	437.00	438.00	438.00	438.00	439.00	439.00	440.00	440.00	441.00	441.00	443.00	445.00	445.00	447.00	447.00	449.00	452.00	454.00	454.00	456.00	459.00	459.00	461.00	461.00	463.00	465.00	465.00	467.00	469.00	471.00	471.00	472.00	472.00	474.00	475.00	475.00	477.00	478.00	479.00	479.00	480.00	480.00	481.00	482.00	482.00	482.00	482.00	484.00	484.00	485.00	485.00	485.00	486.00	486.00	486.00	486.00	486.00	486.00	487.00	487.00	487.00	488.00	488.00	489.00	489.00	491.00	493.00	493.00	495.00	497.00	499.00	499.00	501.00	501.00	502.00	504.00	504.00	505.00	507.00	508.00	508.00	510.00	510.00	510.00	509.00	509.00	509.00	508.00	508.00	508.00	507.00	507.00	507.00	508.00	508.00	509.00	508.00	508.00	508.00	508.00	509.00	511.00	515.00	515.00	519.00	525.00	525.00	533.00	533.00	541.00	549.00	555.00	555.00	562.00	571.00	571.00	581.00	581.00	593.00	606.00	606.00	619.00	632.00	645.00	645.00	657.00	657.00	670.00	683.00	683.00	692.00	692.00	709.00	709.00	718.00	718.00	727.00	736.00	736.00	744.00	744.00	752.00	762.00	772.00	772.00	783.00	795.00	795.00	806.00	806.00	816.00	827.00	833.00	833.00	839.00	845.00	845.00
307.00	313.00	320.00	320.00	326.00	326.00	333.00	340.00	340.00	348.00	348.00	364.00	364.00	371.00	371.00	377.00	383.00	383.00	389.00	389.00	398.00	398.00	402.00	402.00	405.00	406.00	406.00	407.00	407.00	407.00	407.00	408.00	408.00	408.00	407.00	407.00	406.00	406.00	404.00	403.00	403.00	402.00	401.00	401.00	401.00	402.00	402.00	404.00	406.00	406.00	408.00	408.00	411.00	411.00	407.00	407.00	404.00	401.00	401.00	399.00	399.00	398.00	399.00	403.00	403.00	407.00	411.00	411.00	415.00	415.00	418.00	420.00	420.00	422.00	424.00	425.00	425.00	427.00	427.00	428.00	429.00	429.00	430.00	430.00	431.00	431.00	431.00	431.00	431.00	432.00	432.00	433.00	434.00	434.00	435.00	436.00	436.00	436.00	437.00	437.00	438.00	438.00	438.00	439.00	439.00	440.00	440.00	441.00	441.00	443.00	445.00	445.00	447.00	447.00	449.00	452.00	454.00	454.00	456.00	459.00	459.00	461.00	461.00	463.00	465.00	465.00	467.00	469.00	471.00	471.00	472.00	472.00	474.00	475.00	475.00	477.00	478.00	479.00	479.00	480.00	480.00	481.00	482.00	482.00	482.00	482.00	484.00	484.00	485.00	485.00	485.00	486.00	486.00	486.00	486.00	486.00	486.00	487.00	487.00	487.00	488.00	488.00	489.00	489.00	491.00	493.00	493.00	495.00	497.00	499.00	499.00	501.00	501.00	502.00	504.00	504.00	505.00	507.00	508.00	508.00	510.00	510.00	510.00	509.00	509.00	509.00	508.00	508.00	508.00	507.00	507.00	507.00	508.00	508.00	509.00	508.00	508.00	508.00	508.00	509.00	511.00	515.00	515.00	519.00	525.00	525.00	533.00	533.00	541.00	549.00	555.00	555.00	562.00	571.00	571.00	581.00	581.00	593.00	606.00	606.00	619.00	632.00	645.00	645.00	657.00	657.00	670.00	683.00	683.00	692.00	692.00	709.00	709.00	718.00	718.00	727.00	736.00	736.00	744.00	744.00	752.00	762.00	772.00	772.00	783.00	795.00	795.00	806.00	806.00	816.00	827.00	833.00	833.00	839.00	845.00	845.00
345.00	349.00	355.00	355.00	361.00	361.00	367.00	373.00	373.00	378.00	378.00	390.00	390.00	396.00	396.00	401.00	406.00	406.00	411.00	411.00	418.00	418.00	421.00	421.00	423.00	424.00	424.00	426.00	426.00	427.00	428.00	429.00	429.00	430.00	432.00	432.00	433.00	433.00	434.00	434.00	434.00	433.00	433.00	433.00	433.00	434.00	434.00	435.00	437.00	437.00	439.00	439.00	442.00	442.00	442.00	442.00	442.00	441.00	441.00	440.00	440.00	440.00	441.00	442.00	442.00	444.00	446.00	446.00	448.00	448.00	449.00	449.00	449.00	448.00	448.00	448.00	448.00	450.00	450.00	451.00	453.00	453.00	454.00	455.00	455.00	455.00	455.00	455.00	455.00	455.00	455.00	454.00	454.00	454.00	453.00	453.00	453.00	453.00	453.00	453.00	452.00	451.00	451.00	450.00	450.00	451.00	452.00	453.00	453.00	454.00	454.00	454.00	456.00	456.00	458.00	461.00	464.00	464.00	467.00	469.00	469.00	472.00	472.00	474.00	477.00	477.00	479.00	481.00	483.00	483.00	485.00	485.00	486.00	488.00	488.00	489.00	491.00	492.00	492.00	493.00	493.00	494.00	495.00	495.00	494.00	494.00	493.00	493.00	493.00	493.00	492.00	491.00	491.00	490.00	490.00	489.00	488.00	488.00	488.00	489.00	491.00	491.00	492.00	492.00	493.00	494.00	494.00	495.00	496.00	498.00	498.00	500.00	500.00	502.00	503.00	503.00	505.00	506.00	508.00	508.00	510.00	510.00	511.00	513.00	513.00	513.00	510.00	510.00	505.00	500.00	500.00	494.00	488.00	488.00	481.00	479.00	479.00	481.00	481.00	486.00	495.00	505.00	505.00	514.00	523.00	523.00	533.00	533.00	543.00	553.00	564.00	564.00	575.00	586.00	586.00	598.00	598.00	611.00	624.00	624.00	637.00	651.00	665.00	665.00	678.00	678.00	693.00	704.00	704.00	714.00	714.00	731.00	731.00	734.00	734.00	739.00	744.00	744.00	750.00	750.00	757.00	764.00	775.00	775.00	784.00	792.00	792.00	800.00	800.00	806.00	811.00	817.00	817.00	823.00	827.00	827.00
345.00	349.00	355.00	355.00	361.00	361.00	367.00	373.00	373.00	378.00	378.00	390.00	390.00	396.00	396.00	401.00	406.00	406.00	411.00	411.00	418.00	418.00	421.00	421.00	423.00	424.00	424.00	426.00	426.00	427.00	428.00	429.00	429.00	430.00	432.00	432.00	433.00	433.00	434.00	434.00	434.00	433.00	433.00	433.00	433.00	434.00	434.00	435.00	437.00	437.00	439.00	439.00	442.00	442.00	442.00	442.00	442.00	441.00	441.00	440.00	440.00	440.00	441.00	442.00	442.00	444.00	446.00	446.00	448.00	448.00	449.00	449.00	449.00	448.00	448.00	448.00	448.00	450.00	450.00	451.00	453.00	453.00	454.00	455.00	455.00	455.00	455.00	455.00	455.00	455.00	455.00	454.00	454.00	454.00	453.00	453.00	453.00	453.00	453.00	453.00	452.00	451.00	451.00	450.00	450.00	451.00	452.00	453.00	453.00	454.00	454.00	454.00	456.00	456.00	458.00	461.00	464.00	464.00	467.00	469.00	469.00	472.00	472.00	474.00	477.00	477.00	479.00	481.00	483.00	483.00	485.00	485.00	486.00	488.00	488.00	489.00	491.00	492.00	492.00	493.00	493.00	494.00	495.00	495.00	494.00	494.00	493.00	493.00	493.00	493.00	492.00	491.00	491.00	490.00	490.00	489.00	488.00	488.00	488.00	489.00	491.00	491.00	492.00	492.00	493.00	494.00	494.00	495.00	496.00	498.00	498.00	500.00	500.00	502.00	503.00	503.00	505.00	506.00	508.00	508.00	510.00	510.00	511.00	513.00	513.00	513.00	510.00	510.00	505.00	500.00	500.00	494.00	488.00	488.00	481.00	479.00	479.00	481.00	481.00	486.00	495.00	505.00	505.00	514.00	523.00	523.00	533.00	533.00	543.00	553.00	564.00	564.00	575.00	586.00	586.00	598.00	598.00	611.00	624.00	624.00	637.00	651.00	665.00	665.00	678.00	678.00	693.00	704.00	704.00	714.00	714.00	731.00	731.00	734.00	734.00	739.00	744.00	744.00	750.00	750.00	757.00	764.00	775.00	775.00	784.00	792.00	792.00	800.00	800.00	806.00	811.00	817.00	817.00	823.00	827.00	827.00
345.00	349.00	355.00	355.00	361.00	361.00	367.00	373.00	373.00	378.00	378.00	390.00	390.00	396.00	396.00	401.00	406.00	406.00	411.00	411.00	418.00	418.00	421.00	421.00	423.00	424.00	424.00	426.00	426.00	427.00	428.00	429.00	429.00	430.00	432.00	432.00	433.00	433.00	434.00	434.00	434.00	433.00	433.00	433.00	433.00	434.00	434.00	435.00	437.00	437.00	439.00	439.00	442.00	442.00	442.00	442.00	442.00	441.00	441.00	440.00	440.00	440.00	441.00	442.00	442.00	444.00	446.00	446.00	448.00	448.00	449.00	449.00	449.00	448.00	448.00	448.00	448.00	450.00	450.00	451.00	453.00	453.00	454.00	455.00	455.00	455.00	455.00	455.00	455.00	455.00	455.00	454.00	454.00	454.00	453.00	453.00	453.00	453.00	453.00	453.00	452.00	451.00	451.00	450.00	450.00	451.00	452.00	453.00	453.00	454.00	454.00	454.00	456.00	456.00	458.00	461.00	464.00	464.00	467.00	469.00	469.00	472.00	472.00	474.00	477.00	477.00	479.00	481.00	483.00	483.00	485.00	485.00	486.00	488.00	488.00	489.00	491.00	492.00	492.00	493.00	493.00	494.00	495.00	495.00	494.00	494.00	493.00	493.00	493.00	493.00	492.00	491.00	491.00	490.00	490.00	489.00	488.00	488.00	488.00	489.00	491.00	491.00	492.00	492.00	493.00	494.00	494.00	495.00	496.00	498.00	498.00	500.00	500.00	502.00	503.00	503.00	505.00	506.00	508.00	508.00	510.00	510.00	511.00	513.00	513.00	513.00	510.00	510.00	505.00	500.00	500.00	494.00	488.00	488.00	481.00	479.00	479.00	481.00	481.00	486.00	495.00	505.00	505.00	514.00	523.00	523.00	533.00	533.00	543.00	553.00	564.00	564.00	575.00	586.00	586.00	598.00	598.00	611.00	624.00	624.00	637.00	651.00	665.00	665.00	678.00	678.00	693.00	704.00	704.00	714.00	714.00	731.00	731.00	734.00	734.00	739.00	744.00	744.00	750.00	750.00	757.00	764.00	775.00	775.00	784.00	792.00	792.00	800.00	800.00	806.00	811.00	817.00	817.00	823.00	827.00	827.00
345.00	349.00	355.00	355.00	361.00	361.00	367.00	373.00	373.00	378.00	378.00	390.00	390.00	396.00	396.00	401.00	406.00	406.00	411.00	411.00	418.00	418.00	421.00	421.00	423.00	424.00	424.00	426.00	426.00	427.00	428.00	429.00	429.00	430.00	432.00	432.00	433.00	433.00	434.00	434.00	434.00	433.00	433.00	433.00	433.00	434.00	434.00	435.00	437.00	437.00	439.00	439.00	442.00	442.00	442.00	442.00	442.00	441.00	441.00	440.00	440.00	440.00	441.00	442.00	442.00	444.00	446.00	446.00	448.00	448.00	449.00	449.00	449.00	448.00	448.00	448.00	448.00	450.00	450.00	451.00	453.00	453.00	454.00	455.00	455.00	455.00	455.00	455.00	455.00	455.00	455.00	454.00	454.00	454.00	453.00	453.00	453.00	453.00	453.00	453.00	452.00	451.00	451.00	450.00	450.00	451.00	452.00	453.00	453.00	454.00	454.00	454.00	456.00	456.00	458.00	461.00	464.00	464.00	467.00	469.00	469.00	472.00	472.00	474.00	477.00	477.00	479.00	481.00	483.00	483.00	485.00	485.00	486.00	488.00	488.00	489.00	491.00	492.00	492.00	493.00	493.00	494.00	495.00	495.00	494.00	494.00	493.00	493.00	493.00	493.00	492.00	491.00	491.00	490.00	490.00	489.00	488.00	488.00	488.00	489.00	491.00	491.00	492.00	492.00	493.00	494.00	494.00	495.00	496.00	498.00	498.00	500.00	500.00	502.00	503.00	503.00	505.00	506.00	508.00	508.00	510.00	510.00	511.00	513.00	513.00	513.00	510.00	510.00	505.00	500.00	500.00	494.00	488.00	488.00	481.00	479.00	479.00	481.00	481.00	486.00	495.00	505.00	505.00	514.00	523.00	523.00	533.00	533.00	543.00	553.00	564.00	564.00	575.00	586.00	586.00	598.00	598.00	611.00	624.00	624.00	637.00	651.00	665.00	665.00	678.00	678.00	693.00	704.00	704.00	714.00	714.00	731.00	731.00	734.00	734.00	739.00	744.00	744.00	750.00	750.00	757.00	764.00	775.00	775.00	784.00	792.00	792.00	800.00	800.00	806.00	811.00	817.00	817.00	823.00	827.00	827.00
345.00	349.00	355.00	355.00	361.00	361.00	367.00	373.00	373.00	378.00	378.00	390.00	390.00	396.00	396.00	401.00	406.00	406.00	411.00	411.00	418.00	418.00	421.00	421.00	423.00	424.00	424.00	426.00	426.00	427.00	428.00	429.00	429.00	430.00	432.00	432.00	433.00	433.00	434.00	434.00	434.00	433.00	433.00	433.00	433.00	434.00	434.00	435.00	437.00	437.00	439.00	439.00	442.00	442.00	442.00	442.00	442.00	441.00	441.00	440.00	440.00	440.00	441.00	442.00	442.00	444.00	446.00	446.00	448.00	448.00	449.00	449.00	449.00	448.00	448.00	448.00	448.00	450.00	450.00	451.00	453.00	453.00	454.00	455.00	455.00	455.00	455.00	455.00	455.00	455.00	455.00	454.00	454.00	454.00	453.00	453.00	453.00	453.00	453.00	453.00	452.00	451.00	451.00	450.00	450.00	451.00	452.00	453.00	453.00	454.00	454.00	454.00	456.00	456.00	458.00	461.00	464.00	464.00	467.00	469.00	469.00	472.00	472.00	474.00	477.00	477.00	479.00	481.00	483.00	483.00	485.00	485.00	486.00	488.00	488.00	489.00	491.00	492.00	492.00	493.00	493.00	494.00	495.00	495.00	494.00	494.00	493.00	493.00	493.00	493.00	492.00	491.00	491.00	490.00	490.00	489.00	488.00	488.00	488.00	489.00	491.00	491.00	492.00	492.00	493.00	494.00	494.00	495.00	496.00	498.00	498.00	500.00	500.00	502.00	503.00	503.00	505.00	506.00	508.00	508.00	510.00	510.00	511.00	513.00	513.00	513.00	510.00	510.00	505.00	500.00	500.00	494.00	488.00	488.00	481.00	479.00	479.00	481.00	481.00	486.00	495.00	505.00	505.00	514.00	523.00	523.00	533.00	533.00	543.00	553.00	564.00	564.00	575.00	586.00	586.00	598.00	598.00	611.00	624.00	624.00	637.00	651.00	665.00	665.00	678.00	678.00	693.00	704.00	704.00	714.00	714.00	731.00	731.00	734.00	734.00	739.00	744.00	744.00	750.00	750.00	757.00	764.00	775.00	775.00	784.00	792.00	792.00	800.00	800.00	806.00	811.00	817.00	817.00	823.00	827.00	827.00
