400.00	397.00	392.00	385.00	380.00	367.00	358.00	357.00	353.00	339.00	328.00	335.00	338.00	337.00	338.00	338.00	337.00	337.00	337.00	332.00	329.00	325.00	321.00	314.00	310.00	307.00	306.00	308.00	313.00	316.00	322.00	327.00	337.00	342.00	346.00	350.00	352.00	359.00	366.00	372.00	376.00	389.00	400.00	410.00	421.00	437.00	479.00	494.00	491.00	480.00	462.00	458.00	454.00	443.00	429.00	411.00	401.00	390.00	390.00	434.00	447.00	456.00	461.00	465.00	464.00	456.00	447.00	447.00	474.00	492.00	503.00	512.00	513.00	512.00	518.00	525.00	530.00	520.00	506.00	488.00	454.00	445.00	443.00	450.00	461.00	482.00	528.00	547.00	570.00	584.00	570.00	544.00	546.00	558.00	573.00	583.00	572.00	553.00	538.00	533.00	559.00	572.00	581.00	591.00	603.00	596.00	581.00	560.00	537.00	520.00	533.00	572.00	590.00	610.00	610.00	603.00	597.00	595.00	608.00	626.00	648.00	671.00	732.00	741.00	740.00	727.00	706.00	647.00	622.00	609.00	613.00	661.00	695.00	698.00	693.00	684.00	666.00	661.00	657.00	656.00	635.00	621.00	611.00	605.00	610.00	617.00	627.00	636.00	643.00	655.00	659.00	663.00	671.00	680.00	680.00	680.00	681.00	680.00	670.00	667.00	663.00	660.00	653.00	641.00	632.00	621.00	610.00	592.00	584.00	575.00	565.00	542.00	530.00	523.00	525.00	528.00	532.00	532.00	532.00	535.00	528.00	529.00	534.00	543.00	554.00	555.00	550.00	548.00	548.00	547.00	550.00	554.00	554.00	548.00	534.00	527.00	521.00	513.00	504.00	497.00	489.00	482.00	471.00	427.00	405.00	393.00	407.00	426.00	430.00	439.00	452.00	457.00	478.00	488.00	500.00	506.00	526.00	534.00	542.00	550.00	557.00	586.00	605.00	622.00	633.00	662.00	679.00	684.00	690.00	691.00	664.00	655.00	653.00	659.00	684.00	686.00	678.00	659.00	653.00	641.00	640.00	642.00	644.00	653.00	661.00	662.00	655.00	645.00	618.00	619.00	623.00	625.00	620.00	616.00	611.00	606.00
400.00	397.00	392.00	385.00	380.00	367.00	358.00	357.00	353.00	339.00	328.00	335.00	338.00	337.00	338.00	338.00	337.00	337.00	337.00	332.00	329.00	325.00	321.00	314.00	310.00	307.00	306.00	308.00	313.00	316.00	322.00	327.00	337.00	342.00	346.00	350.00	352.00	359.00	366.00	372.00	376.00	389.00	400.00	410.00	421.00	437.00	479.00	494.00	491.00	480.00	462.00	458.00	454.00	443.00	429.00	411.00	401.00	390.00	390.00	434.00	447.00	456.00	461.00	465.00	464.00	456.00	447.00	447.00	474.00	492.00	503.00	512.00	513.00	512.00	518.00	525.00	530.00	520.00	506.00	488.00	454.00	445.00	443.00	450.00	461.00	482.00	528.00	547.00	570.00	584.00	570.00	544.00	546.00	558.00	573.00	583.00	572.00	553.00	538.00	533.00	559.00	572.00	581.00	591.00	603.00	596.00	581.00	560.00	537.00	520.00	533.00	572.00	590.00	610.00	610.00	603.00	597.00	595.00	608.00	626.00	648.00	671.00	732.00	741.00	740.00	727.00	706.00	647.00	622.00	609.00	613.00	661.00	695.00	698.00	693.00	684.00	666.00	661.00	657.00	656.00	635.00	621.00	611.00	605.00	610.00	617.00	627.00	636.00	643.00	655.00	659.00	663.00	671.00	680.00	680.00	680.00	681.00	680.00	670.00	667.00	663.00	660.00	653.00	641.00	632.00	621.00	610.00	592.00	584.00	575.00	565.00	542.00	530.00	523.00	525.00	528.00	532.00	532.00	532.00	535.00	528.00	529.00	534.00	543.00	554.00	555.00	550.00	548.00	548.00	547.00	550.00	554.00	554.00	548.00	534.00	527.00	521.00	513.00	504.00	497.00	489.00	482.00	471.00	427.00	405.00	393.00	407.00	426.00	430.00	439.00	452.00	457.00	478.00	488.00	500.00	506.00	526.00	534.00	542.00	550.00	557.00	586.00	605.00	622.00	633.00	662.00	679.00	684.00	690.00	691.00	664.00	655.00	653.00	659.00	684.00	686.00	678.00	659.00	653.00	641.00	640.00	642.00	644.00	653.00	661.00	662.00	655.00	645.00	618.00	619.00	623.00	625.00	620.00	616.00	611.00	606.00
356.00	355.00	351.00	349.00	350.00	355.00	353.00	352.00	350.00	347.00	329.00	321.00	317.00	317.00	325.00	328.00	331.00	337.00	340.00	334.00	328.00	322.00	316.00	310.00	312.00	316.00	321.00	327.00	339.00	342.00	346.00	349.00	354.00	359.00	363.00	368.00	373.00	385.00	392.00	398.00	403.00	419.00	432.00	445.00	458.00	473.00	503.00	515.00	536.00	536.00	518.00	507.00	495.00	481.00	468.00	447.00	434.00	419.00	405.00	397.00	402.00	407.00	412.00	417.00	425.00	434.00	446.00	459.00	482.00	505.00	517.00	520.00	521.00	520.00	519.00	516.00	511.00	498.00	491.00	484.00	483.00	491.00	487.00	477.00	471.00	474.00	491.00	496.00	498.00	502.00	529.00	584.00	618.00	643.00	645.00	615.00	606.00	604.00	606.00	610.00	617.00	620.00	625.00	634.00	647.00	642.00	629.00	601.00	568.00	554.00	583.00	648.00	678.00	719.00	725.00	717.00	697.00	672.00	641.00	643.00	655.00	677.00	744.00	751.00	747.00	738.00	724.00	694.00	682.00	673.00	676.00	723.00	751.00	752.00	751.00	747.00	730.00	724.00	717.00	707.00	683.00	671.00	660.00	632.00	600.00	591.00	587.00	586.00	586.00	589.00	594.00	600.00	601.00	612.00	614.00	615.00	618.00	618.00	618.00	618.00	620.00	620.00	614.00	606.00	601.00	598.00	594.00	586.00	580.00	576.00	574.00	564.00	556.00	546.00	521.00	514.00	511.00	517.00	524.00	524.00	518.00	513.00	510.00	511.00	514.00	522.00	523.00	526.00	528.00	527.00	528.00	528.00	524.00	517.00	509.00	503.00	499.00	497.00	493.00	487.00	478.00	459.00	438.00	385.00	392.00	410.00	438.00	449.00	459.00	465.00	474.00	485.00	506.00	516.00	525.00	530.00	551.00	561.00	573.00	584.00	592.00	610.00	614.00	622.00	632.00	654.00	696.00	724.00	744.00	740.00	702.00	689.00	684.00	683.00	684.00	680.00	675.00	675.00	677.00	696.00	705.00	704.00	697.00	682.00	674.00	662.00	652.00	640.00	639.00	641.00	641.00	643.00	645.00	647.00	649.00	647.00
356.00	355.00	351.00	349.00	350.00	355.00	353.00	352.00	350.00	347.00	329.00	321.00	317.00	317.00	325.00	328.00	331.00	337.00	340.00	334.00	328.00	322.00	316.00	310.00	312.00	316.00	321.00	327.00	339.00	342.00	346.00	349.00	354.00	359.00	363.00	368.00	373.00	385.00	392.00	398.00	403.00	419.00	432.00	445.00	458.00	473.00	503.00	515.00	536.00	536.00	518.00	507.00	495.00	481.00	468.00	447.00	434.00	419.00	405.00	397.00	402.00	407.00	412.00	417.00	425.00	434.00	446.00	459.00	482.00	505.00	517.00	520.00	521.00	520.00	519.00	516.00	511.00	498.00	491.00	484.00	483.00	491.00	487.00	477.00	471.00	474.00	491.00	496.00	498.00	502.00	529.00	584.00	618.00	643.00	645.00	615.00	606.00	604.00	606.00	610.00	617.00	620.00	625.00	634.00	647.00	642.00	629.00	601.00	568.00	554.00	583.00	648.00	678.00	719.00	725.00	717.00	697.00	672.00	641.00	643.00	655.00	677.00	744.00	751.00	747.00	738.00	724.00	694.00	682.00	673.00	676.00	723.00	751.00	752.00	751.00	747.00	730.00	724.00	717.00	707.00	683.00	671.00	660.00	632.00	600.00	591.00	587.00	586.00	586.00	589.00	594.00	600.00	601.00	612.00	614.00	615.00	618.00	618.00	618.00	618.00	620.00	620.00	614.00	606.00	601.00	598.00	594.00	586.00	580.00	576.00	574.00	564.00	556.00	546.00	521.00	514.00	511.00	517.00	524.00	524.00	518.00	513.00	510.00	511.00	514.00	522.00	523.00	526.00	528.00	527.00	528.00	528.00	524.00	517.00	509.00	503.00	499.00	497.00	493.00	487.00	478.00	459.00	438.00	385.00	392.00	410.00	438.00	449.00	459.00	465.00	474.00	485.00	506.00	516.00	525.00	530.00	551.00	561.00	573.00	584.00	592.00	610.00	614.00	622.00	632.00	654.00	696.00	724.00	744.00	740.00	702.00	689.00	684.00	683.00	684.00	680.00	675.00	675.00	677.00	696.00	705.00	704.00	697.00	682.00	674.00	662.00	652.00	640.00	639.00	641.00	641.00	643.00	645.00	647.00	649.00	647.00
356.00	355.00	351.00	349.00	350.00	355.00	353.00	352.00	350.00	347.00	329.00	321.00	317.00	317.00	325.00	328.00	331.00	337.00	340.00	334.00	328.00	322.00	316.00	310.00	312.00	316.00	321.00	327.00	339.00	342.00	346.00	349.00	354.00	359.00	363.00	368.00	373.00	385.00	392.00	398.00	403.00	419.00	432.00	445.00	458.00	473.00	503.00	515.00	536.00	536.00	518.00	507.00	495.00	481.00	468.00	447.00	434.00	419.00	405.00	397.00	402.00	407.00	412.00	417.00	425.00	434.00	446.00	459.00	482.00	505.00	517.00	520.00	521.00	520.00	519.00	516.00	511.00	498.00	491.00	484.00	483.00	491.00	487.00	477.00	471.00	474.00	491.00	496.00	498.00	502.00	529.00	584.00	618.00	643.00	645.00	615.00	606.00	604.00	606.00	610.00	617.00	620.00	625.00	634.00	647.00	642.00	629.00	601.00	568.00	554.00	583.00	648.00	678.00	719.00	725.00	717.00	697.00	672.00	641.00	643.00	655.00	677.00	744.00	751.00	747.00	738.00	724.00	694.00	682.00	673.00	676.00	723.00	751.00	752.00	751.00	747.00	730.00	724.00	717.00	707.00	683.00	671.00	660.00	632.00	600.00	591.00	587.00	586.00	586.00	589.00	594.00	600.00	601.00	612.00	614.00	615.00	618.00	618.00	618.00	618.00	620.00	620.00	614.00	606.00	601.00	598.00	594.00	586.00	580.00	576.00	574.00	564.00	556.00	546.00	521.00	514.00	511.00	517.00	524.00	524.00	518.00	513.00	510.00	511.00	514.00	522.00	523.00	526.00	528.00	527.00	528.00	528.00	524.00	517.00	509.00	503.00	499.00	497.00	493.00	487.00	478.00	459.00	438.00	385.00	392.00	410.00	438.00	449.00	459.00	465.00	474.00	485.00	506.00	516.00	525.00	530.00	551.00	561.00	573.00	584.00	592.00	610.00	614.00	622.00	632.00	654.00	696.00	724.00	744.00	740.00	702.00	689.00	684.00	683.00	684.00	680.00	675.00	675.00	677.00	696.00	705.00	704.00	697.00	682.00	674.00	662.00	652.00	640.00	639.00	641.00	641.00	643.00	645.00	647.00	649.00	647.00
356.00	355.00	351.00	349.00	350.00	355.00	353.00	352.00	350.00	347.00	329.00	321.00	317.00	317.00	325.00	328.00	331.00	337.00	340.00	334.00	328.00	322.00	316.00	310.00	312.00	316.00	321.00	327.00	339.00	342.00	346.00	349.00	354.00	359.00	363.00	368.00	373.00	385.00	392.00	398.00	403.00	419.00	432.00	445.00	458.00	473.00	503.00	515.00	536.00	536.00	518.00	507.00	495.00	481.00	468.00	447.00	434.00	419.00	405.00	397.00	402.00	407.00	412.00	417.00	425.00	434.00	446.00	459.00	482.00	505.00	517.00	520.00	521.00	520.00	519.00	516.00	511.00	498.00	491.00	484.00	483.00	491.00	487.00	477.00	471.00	474.00	491.00	496.00	498.00	502.00	529.00	584.00	618.00	643.00	645.00	615.00	606.00	604.00	606.00	610.00	617.00	620.00	625.00	634.00	647.00	642.00	629.00	601.00	568.00	554.00	583.00	648.00	678.00	719.00	725.00	717.00	697.00	672.00	641.00	643.00	655.00	677.00	744.00	751.00	747.00	738.00	724.00	694.00	682.00	673.00	676.00	723.00	751.00	752.00	751.00	747.00	730.00	724.00	717.00	707.00	683.00	671.00	660.00	632.00	600.00	591.00	587.00	586.00	586.00	589.00	594.00	600.00	601.00	612.00	614.00	615.00	618.00	618.00	618.00	618.00	620.00	620.00	614.00	606.00	601.00	598.00	594.00	586.00	580.00	576.00	574.00	564.00	556.00	546.00	521.00	514.00	511.00	517.00	524.00	524.00	518.00	513.00	510.00	511.00	514.00	522.00	523.00	526.00	528.00	527.00	528.00	528.00	524.00	517.00	509.00	503.00	499.00	497.00	493.00	487.00	478.00	459.00	438.00	385.00	392.00	410.00	438.00	449.00	459.00	465.00	474.00	485.00	506.00	516.00	525.00	530.00	551.00	561.00	573.00	584.00	592.00	610.00	614.00	622.00	632.00	654.00	696.00	724.00	744.00	740.00	702.00	689.00	684.00	683.00	684.00	680.00	675.00	675.00	677.00	696.00	705.00	704.00	697.00	682.00	674.00	662.00	652.00	640.00	639.00	641.00	641.00	643.00	645.00	647.00	649.00	647.00
349.00	344.00	343.00	343.00	343.00	345.00	347.00	348.00	349.00	346.00	336.00	329.00	323.00	314.00	314.00	321.00	325.00	327.00	326.00	320.00	314.00	310.00	310.00	325.00	330.00	334.00	339.00	343.00	356.00	359.00	361.00	365.00	375.00	378.00	380.00	385.00	390.00	415.00	421.00	426.00	430.00	435.00	442.00	450.00	460.00	470.00	497.00	514.00	546.00	553.00	544.00	527.00	505.00	484.00	468.00	439.00	431.00	428.00	420.00	400.00	402.00	404.00	410.00	419.00	443.00	459.00	473.00	489.00	523.00	560.00	578.00	593.00	604.00	609.00	597.00	580.00	563.00	536.00	524.00	518.00	528.00	535.00	535.00	529.00	527.00	529.00	522.00	512.00	500.00	500.00	545.00	604.00	624.00	631.00	631.00	647.00	663.00	675.00	684.00	692.00	722.00	730.00	736.00	737.00	703.00	671.00	641.00	612.00	584.00	575.00	595.00	647.00	674.00	726.00	747.00	761.00	769.00	769.00	753.00	740.00	740.00	756.00	795.00	803.00	811.00	816.00	813.00	796.00	784.00	773.00	765.00	755.00	755.00	751.00	748.00	744.00	730.00	722.00	712.00	701.00	675.00	668.00	661.00	640.00	624.00	617.00	612.00	603.00	594.00	579.00	573.00	568.00	566.00	557.00	558.00	560.00	560.00	562.00	573.00	578.00	579.00	579.00	578.00	575.00	571.00	567.00	566.00	565.00	558.00	555.00	560.00	569.00	563.00	559.00	540.00	528.00	515.00	512.00	510.00	505.00	499.00	499.00	502.00	500.00	496.00	497.00	504.00	512.00	514.00	504.00	502.00	500.00	499.00	498.00	483.00	469.00	464.00	461.00	460.00	453.00	441.00	425.00	412.00	384.00	403.00	434.00	454.00	475.00	487.00	500.00	508.00	513.00	523.00	530.00	540.00	551.00	588.00	597.00	604.00	612.00	617.00	621.00	622.00	626.00	632.00	646.00	677.00	688.00	696.00	688.00	677.00	681.00	687.00	692.00	699.00	698.00	696.00	707.00	716.00	720.00	708.00	694.00	688.00	672.00	665.00	660.00	659.00	661.00	668.00	670.00	673.00	677.00	678.00	681.00	681.00	684.00
349.00	344.00	343.00	343.00	343.00	345.00	347.00	348.00	349.00	346.00	336.00	329.00	323.00	314.00	314.00	321.00	325.00	327.00	326.00	320.00	314.00	310.00	310.00	325.00	330.00	334.00	339.00	343.00	356.00	359.00	361.00	365.00	375.00	378.00	380.00	385.00	390.00	415.00	421.00	426.00	430.00	435.00	442.00	450.00	460.00	470.00	497.00	514.00	546.00	553.00	544.00	527.00	505.00	484.00	468.00	439.00	431.00	428.00	420.00	400.00	402.00	404.00	410.00	419.00	443.00	459.00	473.00	489.00	523.00	560.00	578.00	593.00	604.00	609.00	597.00	580.00	563.00	536.00	524.00	518.00	528.00	535.00	535.00	529.00	527.00	529.00	522.00	512.00	500.00	500.00	545.00	604.00	624.00	631.00	631.00	647.00	663.00	675.00	684.00	692.00	722.00	730.00	736.00	737.00	703.00	671.00	641.00	612.00	584.00	575.00	595.00	647.00	674.00	726.00	747.00	761.00	769.00	769.00	753.00	740.00	740.00	756.00	795.00	803.00	811.00	816.00	813.00	796.00	784.00	773.00	765.00	755.00	755.00	751.00	748.00	744.00	730.00	722.00	712.00	701.00	675.00	668.00	661.00	640.00	624.00	617.00	612.00	603.00	594.00	579.00	573.00	568.00	566.00	557.00	558.00	560.00	560.00	562.00	573.00	578.00	579.00	579.00	578.00	575.00	571.00	567.00	566.00	565.00	558.00	555.00	560.00	569.00	563.00	559.00	540.00	528.00	515.00	512.00	510.00	505.00	499.00	499.00	502.00	500.00	496.00	497.00	504.00	512.00	514.00	504.00	502.00	500.00	499.00	498.00	483.00	469.00	464.00	461.00	460.00	453.00	441.00	425.00	412.00	384.00	403.00	434.00	454.00	475.00	487.00	500.00	508.00	513.00	523.00	530.00	540.00	551.00	588.00	597.00	604.00	612.00	617.00	621.00	622.00	626.00	632.00	646.00	677.00	688.00	696.00	688.00	677.00	681.00	687.00	692.00	699.00	698.00	696.00	707.00	716.00	720.00	708.00	694.00	688.00	672.00	665.00	660.00	659.00	661.00	668.00	670.00	673.00	677.00	678.00	681.00	681.00	684.00
349.00	344.00	343.00	343.00	343.00	345.00	347.00	348.00	349.00	346.00	336.00	329.00	323.00	314.00	314.00	321.00	325.00	327.00	326.00	320.00	314.00	310.00	310.00	325.00	330.00	334.00	339.00	343.00	356.00	359.00	361.00	365.00	375.00	378.00	380.00	385.00	390.00	415.00	421.00	426.00	430.00	435.00	442.00	450.00	460.00	470.00	497.00	514.00	546.00	553.00	544.00	527.00	505.00	484.00	468.00	439.00	431.00	428.00	420.00	400.00	402.00	404.00	410.00	419.00	443.00	459.00	473.00	489.00	523.00	560.00	578.00	593.00	604.00	609.00	597.00	580.00	563.00	536.00	524.00	518.00	528.00	535.00	535.00	529.00	527.00	529.00	522.00	512.00	500.00	500.00	545.00	604.00	624.00	631.00	631.00	647.00	663.00	675.00	684.00	692.00	722.00	730.00	736.00	737.00	703.00	671.00	641.00	612.00	584.00	575.00	595.00	647.00	674.00	726.00	747.00	761.00	769.00	769.00	753.00	740.00	740.00	756.00	795.00	803.00	811.00	816.00	813.00	796.00	784.00	773.00	765.00	755.00	755.00	751.00	748.00	744.00	730.00	722.00	712.00	701.00	675.00	668.00	661.00	640.00	624.00	617.00	612.00	603.00	594.00	579.00	573.00	568.00	566.00	557.00	558.00	560.00	560.00	562.00	573.00	578.00	579.00	579.00	578.00	575.00	571.00	567.00	566.00	565.00	558.00	555.00	560.00	569.00	563.00	559.00	540.00	528.00	515.00	512.00	510.00	505.00	499.00	499.00	502.00	500.00	496.00	497.00	504.00	512.00	514.00	504.00	502.00	500.00	499.00	498.00	483.00	469.00	464.00	461.00	460.00	453.00	441.00	425.00	412.00	384.00	403.00	434.00	454.00	475.00	487.00	500.00	508.00	513.00	523.00	530.00	540.00	551.00	588.00	597.00	604.00	612.00	617.00	621.00	622.00	626.00	632.00	646.00	677.00	688.00	696.00	688.00	677.00	681.00	687.00	692.00	699.00	698.00	696.00	707.00	716.00	720.00	708.00	694.00	688.00	672.00	665.00	660.00	659.00	661.00	668.00	670.00	673.00	677.00	678.00	681.00	681.00	684.00
340.00	335.00	335.00	336.00	336.00	333.00	326.00	329.00	331.00	332.00	332.00	333.00	336.00	335.00	311.00	313.00	316.00	312.00	310.00	315.00	318.00	326.00	334.00	342.00	346.00	351.00	355.00	358.00	363.00	366.00	369.00	373.00	379.00	382.00	383.00	383.00	386.00	411.00	419.00	424.00	429.00	421.00	423.00	431.00	442.00	452.00	470.00	482.00	505.00	508.00	486.00	465.00	451.00	445.00	439.00	425.00	421.00	427.00	440.00	454.00	441.00	430.00	425.00	428.00	447.00	463.00	482.00	503.00	547.00	585.00	608.00	631.00	649.00	669.00	667.00	652.00	623.00	567.00	558.00	564.00	589.00	597.00	597.00	590.00	586.00	581.00	555.00	538.00	521.00	511.00	521.00	539.00	548.00	560.00	575.00	598.00	606.00	612.00	620.00	636.00	690.00	701.00	706.00	707.00	690.00	677.00	661.00	641.00	622.00	595.00	593.00	608.00	624.00	664.00	691.00	719.00	741.00	759.00	777.00	775.00	775.00	776.00	754.00	742.00	739.00	744.00	752.00	768.00	770.00	769.00	769.00	761.00	752.00	751.00	748.00	754.00	755.00	749.00	739.00	722.00	687.00	670.00	652.00	632.00	614.00	608.00	603.00	599.00	597.00	599.00	601.00	601.00	596.00	571.00	566.00	562.00	557.00	554.00	550.00	548.00	544.00	539.00	539.00	538.00	536.00	535.00	537.00	540.00	539.00	535.00	537.00	547.00	547.00	544.00	532.00	527.00	518.00	516.00	515.00	507.00	495.00	492.00	490.00	485.00	482.00	480.00	480.00	477.00	473.00	463.00	454.00	453.00	451.00	445.00	435.00	430.00	433.00	437.00	437.00	432.00	420.00	405.00	395.00	388.00	403.00	440.00	478.00	487.00	493.00	500.00	504.00	512.00	534.00	545.00	558.00	576.00	616.00	615.00	616.00	613.00	606.00	599.00	603.00	607.00	611.00	627.00	642.00	653.00	662.00	666.00	681.00	689.00	700.00	705.00	713.00	721.00	725.00	719.00	704.00	680.00	677.00	678.00	677.00	683.00	687.00	691.00	696.00	702.00	718.00	723.00	725.00	722.00	718.00	714.00	712.00	708.00
340.00	335.00	335.00	336.00	336.00	333.00	326.00	329.00	331.00	332.00	332.00	333.00	336.00	335.00	311.00	313.00	316.00	312.00	310.00	315.00	318.00	326.00	334.00	342.00	346.00	351.00	355.00	358.00	363.00	366.00	369.00	373.00	379.00	382.00	383.00	383.00	386.00	411.00	419.00	424.00	429.00	421.00	423.00	431.00	442.00	452.00	470.00	482.00	505.00	508.00	486.00	465.00	451.00	445.00	439.00	425.00	421.00	427.00	440.00	454.00	441.00	430.00	425.00	428.00	447.00	463.00	482.00	503.00	547.00	585.00	608.00	631.00	649.00	669.00	667.00	652.00	623.00	567.00	558.00	564.00	589.00	597.00	597.00	590.00	586.00	581.00	555.00	538.00	521.00	511.00	521.00	539.00	548.00	560.00	575.00	598.00	606.00	612.00	620.00	636.00	690.00	701.00	706.00	707.00	690.00	677.00	661.00	641.00	622.00	595.00	593.00	608.00	624.00	664.00	691.00	719.00	741.00	759.00	777.00	775.00	775.00	776.00	754.00	742.00	739.00	744.00	752.00	768.00	770.00	769.00	769.00	761.00	752.00	751.00	748.00	754.00	755.00	749.00	739.00	722.00	687.00	670.00	652.00	632.00	614.00	608.00	603.00	599.00	597.00	599.00	601.00	601.00	596.00	571.00	566.00	562.00	557.00	554.00	550.00	548.00	544.00	539.00	539.00	538.00	536.00	535.00	537.00	540.00	539.00	535.00	537.00	547.00	547.00	544.00	532.00	527.00	518.00	516.00	515.00	507.00	495.00	492.00	490.00	485.00	482.00	480.00	480.00	477.00	473.00	463.00	454.00	453.00	451.00	445.00	435.00	430.00	433.00	437.00	437.00	432.00	420.00	405.00	395.00	388.00	403.00	440.00	478.00	487.00	493.00	500.00	504.00	512.00	534.00	545.00	558.00	576.00	616.00	615.00	616.00	613.00	606.00	599.00	603.00	607.00	611.00	627.00	642.00	653.00	662.00	666.00	681.00	689.00	700.00	705.00	713.00	721.00	725.00	719.00	704.00	680.00	677.00	678.00	677.00	683.00	687.00	691.00	696.00	702.00	718.00	723.00	725.00	722.00	718.00	714.00	712.00	708.00
334.00	332.00	329.00	326.00	324.00	320.00	315.00	320.00	322.00	322.00	318.00	318.00	320.00	322.00	310.00	306.00	308.00	311.00	316.00	331.00	337.00	340.00	342.00	347.00	349.00	351.00	353.00	354.00	363.00	367.00	369.00	375.00	407.00	430.00	451.00	466.00	469.00	423.00	414.00	407.00	404.00	410.00	414.00	417.00	418.00	416.00	423.00	427.00	429.00	430.00	425.00	424.00	423.00	423.00	426.00	450.00	471.00	498.00	528.00	564.00	542.00	519.00	496.00	476.00	455.00	458.00	468.00	486.00	528.00	571.00	591.00	606.00	616.00	621.00	614.00	593.00	568.00	572.00	593.00	621.00	672.00	692.00	690.00	667.00	643.00	622.00	593.00	581.00	567.00	558.00	577.00	586.00	580.00	571.00	561.00	552.00	558.00	568.00	579.00	589.00	622.00	633.00	645.00	655.00	687.00	704.00	717.00	721.00	717.00	704.00	709.00	704.00	689.00	662.00	654.00	648.00	648.00	652.00	674.00	684.00	694.00	704.00	724.00	717.00	706.00	695.00	687.00	681.00	684.00	691.00	701.00	707.00	700.00	702.00	706.00	712.00	730.00	742.00	750.00	753.00	742.00	732.00	719.00	692.00	668.00	659.00	646.00	644.00	648.00	634.00	624.00	614.00	604.00	599.00	598.00	596.00	590.00	582.00	572.00	569.00	570.00	569.00	562.00	547.00	544.00	538.00	531.00	520.00	515.00	515.00	516.00	515.00	513.00	512.00	520.00	519.00	520.00	520.00	519.00	516.00	509.00	500.00	490.00	485.00	484.00	487.00	480.00	473.00	468.00	453.00	449.00	447.00	447.00	445.00	432.00	435.00	433.00	427.00	416.00	412.00	408.00	404.00	398.00	400.00	412.00	428.00	453.00	470.00	481.00	493.00	504.00	516.00	545.00	570.00	603.00	617.00	606.00	596.00	588.00	583.00	590.00	614.00	627.00	638.00	646.00	656.00	666.00	669.00	678.00	685.00	708.00	713.00	717.00	714.00	696.00	683.00	673.00	649.00	648.00	667.00	679.00	689.00	700.00	722.00	734.00	742.00	750.00	755.00	756.00	743.00	734.00	728.00	722.00	718.00	715.00	713.00
334.00	332.00	329.00	326.00	324.00	320.00	315.00	320.00	322.00	322.00	318.00	318.00	320.00	322.00	310.00	306.00	308.00	311.00	316.00	331.00	337.00	340.00	342.00	347.00	349.00	351.00	353.00	354.00	363.00	367.00	369.00	375.00	407.00	430.00	451.00	466.00	469.00	423.00	414.00	407.00	404.00	410.00	414.00	417.00	418.00	416.00	423.00	427.00	429.00	430.00	425.00	424.00	423.00	423.00	426.00	450.00	471.00	498.00	528.00	564.00	542.00	519.00	496.00	476.00	455.00	458.00	468.00	486.00	528.00	571.00	591.00	606.00	616.00	621.00	614.00	593.00	568.00	572.00	593.00	621.00	672.00	692.00	690.00	667.00	643.00	622.00	593.00	581.00	567.00	558.00	577.00	586.00	580.00	571.00	561.00	552.00	558.00	568.00	579.00	589.00	622.00	633.00	645.00	655.00	687.00	704.00	717.00	721.00	717.00	704.00	709.00	704.00	689.00	662.00	654.00	648.00	648.00	652.00	674.00	684.00	694.00	704.00	724.00	717.00	706.00	695.00	687.00	681.00	684.00	691.00	701.00	707.00	700.00	702.00	706.00	712.00	730.00	742.00	750.00	753.00	742.00	732.00	719.00	692.00	668.00	659.00	646.00	644.00	648.00	634.00	624.00	614.00	604.00	599.00	598.00	596.00	590.00	582.00	572.00	569.00	570.00	569.00	562.00	547.00	544.00	538.00	531.00	520.00	515.00	515.00	516.00	515.00	513.00	512.00	520.00	519.00	520.00	520.00	519.00	516.00	509.00	500.00	490.00	485.00	484.00	487.00	480.00	473.00	468.00	453.00	449.00	447.00	447.00	445.00	432.00	435.00	433.00	427.00	416.00	412.00	408.00	404.00	398.00	400.00	412.00	428.00	453.00	470.00	481.00	493.00	504.00	516.00	545.00	570.00	603.00	617.00	606.00	596.00	588.00	583.00	590.00	614.00	627.00	638.00	646.00	656.00	666.00	669.00	678.00	685.00	708.00	713.00	717.00	714.00	696.00	683.00	673.00	649.00	648.00	667.00	679.00	689.00	700.00	722.00	734.00	742.00	750.00	755.00	756.00	743.00	734.00	728.00	722.00	718.00	715.00	713.00
334.00	332.00	329.00	326.00	324.00	320.00	315.00	320.00	322.00	322.00	318.00	318.00	320.00	322.00	310.00	306.00	308.00	311.00	316.00	331.00	337.00	340.00	342.00	347.00	349.00	351.00	353.00	354.00	363.00	367.00	369.00	375.00	407.00	430.00	451.00	466.00	469.00	423.00	414.00	407.00	404.00	410.00	414.00	417.00	418.00	416.00	423.00	427.00	429.00	430.00	425.00	424.00	423.00	423.00	426.00	450.00	471.00	498.00	528.00	564.00	542.00	519.00	496.00	476.00	455.00	458.00	468.00	486.00	528.00	571.00	591.00	606.00	616.00	621.00	614.00	593.00	568.00	572.00	593.00	621.00	672.00	692.00	690.00	667.00	643.00	622.00	593.00	581.00	567.00	558.00	577.00	586.00	580.00	571.00	561.00	552.00	558.00	568.00	579.00	589.00	622.00	633.00	645.00	655.00	687.00	704.00	717.00	721.00	717.00	704.00	709.00	704.00	689.00	662.00	654.00	648.00	648.00	652.00	674.00	684.00	694.00	704.00	724.00	717.00	706.00	695.00	687.00	681.00	684.00	691.00	701.00	707.00	700.00	702.00	706.00	712.00	730.00	742.00	750.00	753.00	742.00	732.00	719.00	692.00	668.00	659.00	646.00	644.00	648.00	634.00	624.00	614.00	604.00	599.00	598.00	596.00	590.00	582.00	572.00	569.00	570.00	569.00	562.00	547.00	544.00	538.00	531.00	520.00	515.00	515.00	516.00	515.00	513.00	512.00	520.00	519.00	520.00	520.00	519.00	516.00	509.00	500.00	490.00	485.00	484.00	487.00	480.00	473.00	468.00	453.00	449.00	447.00	447.00	445.00	432.00	435.00	433.00	427.00	416.00	412.00	408.00	404.00	398.00	400.00	412.00	428.00	453.00	470.00	481.00	493.00	504.00	516.00	545.00	570.00	603.00	617.00	606.00	596.00	588.00	583.00	590.00	614.00	627.00	638.00	646.00	656.00	666.00	669.00	678.00	685.00	708.00	713.00	717.00	714.00	696.00	683.00	673.00	649.00	648.00	667.00	679.00	689.00	700.00	722.00	734.00	742.00	750.00	755.00	756.00	743.00	734.00	728.00	722.00	718.00	715.00	713.00
326.00	327.00	326.00	321.00	316.00	306.00	299.00	299.00	300.00	301.00	301.00	303.00	306.00	310.00	315.00	318.00	321.00	326.00	330.00	341.00	346.00	351.00	356.00	362.00	362.00	362.00	367.00	372.00	384.00	390.00	403.00	421.00	459.00	472.00	481.00	485.00	486.00	461.00	455.00	452.00	457.00	491.00	506.00	508.00	502.00	491.00	469.00	473.00	515.00	531.00	529.00	521.00	516.00	505.00	498.00	500.00	503.00	515.00	531.00	562.00	552.00	537.00	522.00	515.00	522.00	519.00	505.00	486.00	458.00	473.00	489.00	502.00	508.00	517.00	516.00	514.00	516.00	548.00	566.00	587.00	627.00	648.00	686.00	700.00	705.00	699.00	654.00	631.00	608.00	598.00	629.00	669.00	675.00	667.00	647.00	605.00	595.00	588.00	586.00	591.00	626.00	639.00	650.00	660.00	688.00	709.00	729.00	741.00	747.00	754.00	755.00	747.00	740.00	721.00	706.00	693.00	678.00	664.00	635.00	628.00	628.00	633.00	656.00	664.00	670.00	673.00	670.00	649.00	643.00	642.00	645.00	644.00	641.00	642.00	647.00	655.00	683.00	703.00	725.00	741.00	749.00	751.00	748.00	740.00	724.00	716.00	704.00	695.00	688.00	677.00	668.00	660.00	648.00	619.00	614.00	612.00	613.00	612.00	603.00	610.00	608.00	605.00	592.00	582.00	579.00	576.00	567.00	544.00	536.00	531.00	525.00	507.00	501.00	497.00	495.00	496.00	500.00	506.00	508.00	504.00	504.00	510.00	513.00	514.00	511.00	483.00	473.00	467.00	458.00	453.00	452.00	452.00	449.00	444.00	426.00	412.00	410.00	408.00	398.00	396.00	401.00	413.00	433.00	455.00	454.00	448.00	451.00	463.00	473.00	483.00	491.00	499.00	547.00	570.00	580.00	582.00	570.00	575.00	584.00	602.00	611.00	626.00	631.00	634.00	638.00	657.00	665.00	668.00	671.00	677.00	693.00	690.00	682.00	665.00	632.00	629.00	633.00	651.00	671.00	696.00	712.00	723.00	729.00	746.00	757.00	761.00	755.00	747.00	722.00	717.00	708.00	702.00	692.00	688.00	681.00	675.00
326.00	327.00	326.00	321.00	316.00	306.00	299.00	299.00	300.00	301.00	301.00	303.00	306.00	310.00	315.00	318.00	321.00	326.00	330.00	341.00	346.00	351.00	356.00	362.00	362.00	362.00	367.00	372.00	384.00	390.00	403.00	421.00	459.00	472.00	481.00	485.00	486.00	461.00	455.00	452.00	457.00	491.00	506.00	508.00	502.00	491.00	469.00	473.00	515.00	531.00	529.00	521.00	516.00	505.00	498.00	500.00	503.00	515.00	531.00	562.00	552.00	537.00	522.00	515.00	522.00	519.00	505.00	486.00	458.00	473.00	489.00	502.00	508.00	517.00	516.00	514.00	516.00	548.00	566.00	587.00	627.00	648.00	686.00	700.00	705.00	699.00	654.00	631.00	608.00	598.00	629.00	669.00	675.00	667.00	647.00	605.00	595.00	588.00	586.00	591.00	626.00	639.00	650.00	660.00	688.00	709.00	729.00	741.00	747.00	754.00	755.00	747.00	740.00	721.00	706.00	693.00	678.00	664.00	635.00	628.00	628.00	633.00	656.00	664.00	670.00	673.00	670.00	649.00	643.00	642.00	645.00	644.00	641.00	642.00	647.00	655.00	683.00	703.00	725.00	741.00	749.00	751.00	748.00	740.00	724.00	716.00	704.00	695.00	688.00	677.00	668.00	660.00	648.00	619.00	614.00	612.00	613.00	612.00	603.00	610.00	608.00	605.00	592.00	582.00	579.00	576.00	567.00	544.00	536.00	531.00	525.00	507.00	501.00	497.00	495.00	496.00	500.00	506.00	508.00	504.00	504.00	510.00	513.00	514.00	511.00	483.00	473.00	467.00	458.00	453.00	452.00	452.00	449.00	444.00	426.00	412.00	410.00	408.00	398.00	396.00	401.00	413.00	433.00	455.00	454.00	448.00	451.00	463.00	473.00	483.00	491.00	499.00	547.00	570.00	580.00	582.00	570.00	575.00	584.00	602.00	611.00	626.00	631.00	634.00	638.00	657.00	665.00	668.00	671.00	677.00	693.00	690.00	682.00	665.00	632.00	629.00	633.00	651.00	671.00	696.00	712.00	723.00	729.00	746.00	757.00	761.00	755.00	747.00	722.00	717.00	708.00	702.00	692.00	688.00	681.00	675.00
326.00	327.00	326.00	321.00	316.00	306.00	299.00	299.00	300.00	301.00	301.00	303.00	306.00	310.00	315.00	318.00	321.00	326.00	330.00	341.00	346.00	351.00	356.00	362.00	362.00	362.00	367.00	372.00	384.00	390.00	403.00	421.00	459.00	472.00	481.00	485.00	486.00	461.00	455.00	452.00	457.00	491.00	506.00	508.00	502.00	491.00	469.00	473.00	515.00	531.00	529.00	521.00	516.00	505.00	498.00	500.00	503.00	515.00	531.00	562.00	552.00	537.00	522.00	515.00	522.00	519.00	505.00	486.00	458.00	473.00	489.00	502.00	508.00	517.00	516.00	514.00	516.00	548.00	566.00	587.00	627.00	648.00	686.00	700.00	705.00	699.00	654.00	631.00	608.00	598.00	629.00	669.00	675.00	667.00	647.00	605.00	595.00	588.00	586.00	591.00	626.00	639.00	650.00	660.00	688.00	709.00	729.00	741.00	747.00	754.00	755.00	747.00	740.00	721.00	706.00	693.00	678.00	664.00	635.00	628.00	628.00	633.00	656.00	664.00	670.00	673.00	670.00	649.00	643.00	642.00	645.00	644.00	641.00	642.00	647.00	655.00	683.00	703.00	725.00	741.00	749.00	751.00	748.00	740.00	724.00	716.00	704.00	695.00	688.00	677.00	668.00	660.00	648.00	619.00	614.00	612.00	613.00	612.00	603.00	610.00	608.00	605.00	592.00	582.00	579.00	576.00	567.00	544.00	536.00	531.00	525.00	507.00	501.00	497.00	495.00	496.00	500.00	506.00	508.00	504.00	504.00	510.00	513.00	514.00	511.00	483.00	473.00	467.00	458.00	453.00	452.00	452.00	449.00	444.00	426.00	412.00	410.00	408.00	398.00	396.00	401.00	413.00	433.00	455.00	454.00	448.00	451.00	463.00	473.00	483.00	491.00	499.00	547.00	570.00	580.00	582.00	570.00	575.00	584.00	602.00	611.00	626.00	631.00	634.00	638.00	657.00	665.00	668.00	671.00	677.00	693.00	690.00	682.00	665.00	632.00	629.00	633.00	651.00	671.00	696.00	712.00	723.00	729.00	746.00	757.00	761.00	755.00	747.00	722.00	717.00	708.00	702.00	692.00	688.00	681.00	675.00
326.00	327.00	326.00	321.00	316.00	306.00	299.00	299.00	300.00	301.00	301.00	303.00	306.00	310.00	315.00	318.00	321.00	326.00	330.00	341.00	346.00	351.00	356.00	362.00	362.00	362.00	367.00	372.00	384.00	390.00	403.00	421.00	459.00	472.00	481.00	485.00	486.00	461.00	455.00	452.00	457.00	491.00	506.00	508.00	502.00	491.00	469.00	473.00	515.00	531.00	529.00	521.00	516.00	505.00	498.00	500.00	503.00	515.00	531.00	562.00	552.00	537.00	522.00	515.00	522.00	519.00	505.00	486.00	458.00	473.00	489.00	502.00	508.00	517.00	516.00	514.00	516.00	548.00	566.00	587.00	627.00	648.00	686.00	700.00	705.00	699.00	654.00	631.00	608.00	598.00	629.00	669.00	675.00	667.00	647.00	605.00	595.00	588.00	586.00	591.00	626.00	639.00	650.00	660.00	688.00	709.00	729.00	741.00	747.00	754.00	755.00	747.00	740.00	721.00	706.00	693.00	678.00	664.00	635.00	628.00	628.00	633.00	656.00	664.00	670.00	673.00	670.00	649.00	643.00	642.00	645.00	644.00	641.00	642.00	647.00	655.00	683.00	703.00	725.00	741.00	749.00	751.00	748.00	740.00	724.00	716.00	704.00	695.00	688.00	677.00	668.00	660.00	648.00	619.00	614.00	612.00	613.00	612.00	603.00	610.00	608.00	605.00	592.00	582.00	579.00	576.00	567.00	544.00	536.00	531.00	525.00	507.00	501.00	497.00	495.00	496.00	500.00	506.00	508.00	504.00	504.00	510.00	513.00	514.00	511.00	483.00	473.00	467.00	458.00	453.00	452.00	452.00	449.00	444.00	426.00	412.00	410.00	408.00	398.00	396.00	401.00	413.00	433.00	455.00	454.00	448.00	451.00	463.00	473.00	483.00	491.00	499.00	547.00	570.00	580.00	582.00	570.00	575.00	584.00	602.00	611.00	626.00	631.00	634.00	638.00	657.00	665.00	668.00	671.00	677.00	693.00	690.00	682.00	665.00	632.00	629.00	633.00	651.00	671.00	696.00	712.00	723.00	729.00	746.00	757.00	761.00	755.00	747.00	722.00	717.00	708.00	702.00	692.00	688.00	681.00	675.00
303.00	297.00	297.00	297.00	295.00	297.00	304.00	308.00	310.00	311.00	313.00	314.00	316.00	319.00	326.00	327.00	329.00	336.00	341.00	353.00	359.00	363.00	367.00	375.00	379.00	383.00	386.00	385.00	387.00	398.00	410.00	420.00	426.00	433.00	439.00	447.00	462.00	519.00	548.00	572.00	592.00	624.00	640.00	647.00	649.00	647.00	601.00	592.00	642.00	670.00	698.00	707.00	709.00	695.00	673.00	642.00	619.00	588.00	560.00	514.00	509.00	499.00	489.00	492.00	554.00	585.00	609.00	613.00	547.00	487.00	481.00	491.00	510.00	558.00	578.00	590.00	599.00	605.00	598.00	588.00	584.00	592.00	637.00	672.00	706.00	734.00	747.00	728.00	701.00	675.00	661.00	699.00	712.00	718.00	721.00	710.00	693.00	674.00	666.00	667.00	642.00	647.00	665.00	688.00	718.00	720.00	716.00	711.00	707.00	704.00	700.00	689.00	686.00	686.00	682.00	676.00	671.00	667.00	655.00	646.00	634.00	622.00	623.00	635.00	647.00	653.00	652.00	639.00	634.00	626.00	619.00	612.00	609.00	605.00	602.00	606.00	637.00	654.00	674.00	690.00	707.00	715.00	718.00	716.00	712.00	709.00	700.00	691.00	687.00	681.00	677.00	673.00	669.00	651.00	645.00	642.00	639.00	637.00	616.00	605.00	596.00	588.00	579.00	576.00	570.00	564.00	557.00	554.00	552.00	550.00	549.00	547.00	546.00	543.00	537.00	530.00	521.00	510.00	500.00	492.00	492.00	491.00	486.00	482.00	476.00	468.00	469.00	475.00	479.00	474.00	474.00	478.00	480.00	472.00	414.00	397.00	402.00	412.00	435.00	440.00	439.00	445.00	463.00	496.00	495.00	485.00	487.00	495.00	495.00	486.00	477.00	477.00	501.00	513.00	519.00	528.00	574.00	585.00	591.00	596.00	600.00	602.00	612.00	622.00	631.00	648.00	661.00	665.00	671.00	674.00	649.00	638.00	628.00	621.00	625.00	635.00	651.00	682.00	699.00	732.00	733.00	722.00	710.00	702.00	702.00	702.00	703.00	705.00	689.00	683.00	679.00	672.00	654.00	638.00	631.00	630.00
303.00	297.00	297.00	297.00	295.00	297.00	304.00	308.00	310.00	311.00	313.00	314.00	316.00	319.00	326.00	327.00	329.00	336.00	341.00	353.00	359.00	363.00	367.00	375.00	379.00	383.00	386.00	385.00	387.00	398.00	410.00	420.00	426.00	433.00	439.00	447.00	462.00	519.00	548.00	572.00	592.00	624.00	640.00	647.00	649.00	647.00	601.00	592.00	642.00	670.00	698.00	707.00	709.00	695.00	673.00	642.00	619.00	588.00	560.00	514.00	509.00	499.00	489.00	492.00	554.00	585.00	609.00	613.00	547.00	487.00	481.00	491.00	510.00	558.00	578.00	590.00	599.00	605.00	598.00	588.00	584.00	592.00	637.00	672.00	706.00	734.00	747.00	728.00	701.00	675.00	661.00	699.00	712.00	718.00	721.00	710.00	693.00	674.00	666.00	667.00	642.00	647.00	665.00	688.00	718.00	720.00	716.00	711.00	707.00	704.00	700.00	689.00	686.00	686.00	682.00	676.00	671.00	667.00	655.00	646.00	634.00	622.00	623.00	635.00	647.00	653.00	652.00	639.00	634.00	626.00	619.00	612.00	609.00	605.00	602.00	606.00	637.00	654.00	674.00	690.00	707.00	715.00	718.00	716.00	712.00	709.00	700.00	691.00	687.00	681.00	677.00	673.00	669.00	651.00	645.00	642.00	639.00	637.00	616.00	605.00	596.00	588.00	579.00	576.00	570.00	564.00	557.00	554.00	552.00	550.00	549.00	547.00	546.00	543.00	537.00	530.00	521.00	510.00	500.00	492.00	492.00	491.00	486.00	482.00	476.00	468.00	469.00	475.00	479.00	474.00	474.00	478.00	480.00	472.00	414.00	397.00	402.00	412.00	435.00	440.00	439.00	445.00	463.00	496.00	495.00	485.00	487.00	495.00	495.00	486.00	477.00	477.00	501.00	513.00	519.00	528.00	574.00	585.00	591.00	596.00	600.00	602.00	612.00	622.00	631.00	648.00	661.00	665.00	671.00	674.00	649.00	638.00	628.00	621.00	625.00	635.00	651.00	682.00	699.00	732.00	733.00	722.00	710.00	702.00	702.00	702.00	703.00	705.00	689.00	683.00	679.00	672.00	654.00	638.00	631.00	630.00
303.00	297.00	297.00	297.00	295.00	297.00	304.00	308.00	310.00	311.00	313.00	314.00	316.00	319.00	326.00	327.00	329.00	336.00	341.00	353.00	359.00	363.00	367.00	375.00	379.00	383.00	386.00	385.00	387.00	398.00	410.00	420.00	426.00	433.00	439.00	447.00	462.00	519.00	548.00	572.00	592.00	624.00	640.00	647.00	649.00	647.00	601.00	592.00	642.00	670.00	698.00	707.00	709.00	695.00	673.00	642.00	619.00	588.00	560.00	514.00	509.00	499.00	489.00	492.00	554.00	585.00	609.00	613.00	547.00	487.00	481.00	491.00	510.00	558.00	578.00	590.00	599.00	605.00	598.00	588.00	584.00	592.00	637.00	672.00	706.00	734.00	747.00	728.00	701.00	675.00	661.00	699.00	712.00	718.00	721.00	710.00	693.00	674.00	666.00	667.00	642.00	647.00	665.00	688.00	718.00	720.00	716.00	711.00	707.00	704.00	700.00	689.00	686.00	686.00	682.00	676.00	671.00	667.00	655.00	646.00	634.00	622.00	623.00	635.00	647.00	653.00	652.00	639.00	634.00	626.00	619.00	612.00	609.00	605.00	602.00	606.00	637.00	654.00	674.00	690.00	707.00	715.00	718.00	716.00	712.00	709.00	700.00	691.00	687.00	681.00	677.00	673.00	669.00	651.00	645.00	642.00	639.00	637.00	616.00	605.00	596.00	588.00	579.00	576.00	570.00	564.00	557.00	554.00	552.00	550.00	549.00	547.00	546.00	543.00	537.00	530.00	521.00	510.00	500.00	492.00	492.00	491.00	486.00	482.00	476.00	468.00	469.00	475.00	479.00	474.00	474.00	478.00	480.00	472.00	414.00	397.00	402.00	412.00	435.00	440.00	439.00	445.00	463.00	496.00	495.00	485.00	487.00	495.00	495.00	486.00	477.00	477.00	501.00	513.00	519.00	528.00	574.00	585.00	591.00	596.00	600.00	602.00	612.00	622.00	631.00	648.00	661.00	665.00	671.00	674.00	649.00	638.00	628.00	621.00	625.00	635.00	651.00	682.00	699.00	732.00	733.00	722.00	710.00	702.00	702.00	702.00	703.00	705.00	689.00	683.00	679.00	672.00	654.00	638.00	631.00	630.00
292.00	299.00	301.00	303.00	305.00	309.00	313.00	315.00	318.00	320.00	328.00	329.00	330.00	331.00	335.00	337.00	340.00	344.00	348.00	357.00	360.00	361.00	364.00	369.00	374.00	376.00	378.00	382.00	387.00	394.00	401.00	408.00	421.00	433.00	454.00	481.00	506.00	552.00	574.00	586.00	584.00	582.00	585.00	594.00	604.00	615.00	632.00	641.00	655.00	668.00	717.00	747.00	763.00	756.00	729.00	658.00	631.00	611.00	589.00	544.00	529.00	510.00	497.00	496.00	530.00	556.00	577.00	584.00	546.00	509.00	513.00	531.00	553.00	602.00	629.00	658.00	687.00	723.00	719.00	704.00	665.00	649.00	643.00	658.00	679.00	706.00	764.00	784.00	795.00	792.00	774.00	745.00	744.00	759.00	777.00	789.00	790.00	791.00	793.00	790.00	744.00	739.00	738.00	736.00	723.00	715.00	706.00	698.00	692.00	677.00	670.00	660.00	654.00	647.00	642.00	636.00	630.00	626.00	619.00	616.00	613.00	608.00	601.00	616.00	635.00	654.00	669.00	676.00	664.00	646.00	633.00	621.00	603.00	599.00	596.00	592.00	589.00	595.00	603.00	612.00	641.00	650.00	652.00	657.00	658.00	658.00	654.00	650.00	646.00	646.00	649.00	652.00	657.00	667.00	665.00	662.00	654.00	642.00	623.00	612.00	602.00	592.00	585.00	581.00	581.00	586.00	595.00	591.00	589.00	586.00	583.00	573.00	571.00	573.00	565.00	559.00	544.00	539.00	536.00	530.00	519.00	510.00	502.00	497.00	494.00	495.00	493.00	486.00	481.00	470.00	476.00	476.00	464.00	449.00	403.00	422.00	450.00	475.00	489.00	475.00	462.00	458.00	465.00	486.00	489.00	491.00	507.00	513.00	517.00	519.00	516.00	515.00	514.00	522.00	529.00	535.00	549.00	549.00	555.00	564.00	569.00	580.00	591.00	605.00	615.00	615.00	605.00	601.00	607.00	604.00	617.00	627.00	637.00	643.00	667.00	678.00	690.00	710.00	719.00	720.00	701.00	687.00	677.00	665.00	662.00	663.00	665.00	668.00	665.00	658.00	651.00	641.00	619.00	614.00	616.00	630.00
292.00	299.00	301.00	303.00	305.00	309.00	313.00	315.00	318.00	320.00	328.00	329.00	330.00	331.00	335.00	337.00	340.00	344.00	348.00	357.00	360.00	361.00	364.00	369.00	374.00	376.00	378.00	382.00	387.00	394.00	401.00	408.00	421.00	433.00	454.00	481.00	506.00	552.00	574.00	586.00	584.00	582.00	585.00	594.00	604.00	615.00	632.00	641.00	655.00	668.00	717.00	747.00	763.00	756.00	729.00	658.00	631.00	611.00	589.00	544.00	529.00	510.00	497.00	496.00	530.00	556.00	577.00	584.00	546.00	509.00	513.00	531.00	553.00	602.00	629.00	658.00	687.00	723.00	719.00	704.00	665.00	649.00	643.00	658.00	679.00	706.00	764.00	784.00	795.00	792.00	774.00	745.00	744.00	759.00	777.00	789.00	790.00	791.00	793.00	790.00	744.00	739.00	738.00	736.00	723.00	715.00	706.00	698.00	692.00	677.00	670.00	660.00	654.00	647.00	642.00	636.00	630.00	626.00	619.00	616.00	613.00	608.00	601.00	616.00	635.00	654.00	669.00	676.00	664.00	646.00	633.00	621.00	603.00	599.00	596.00	592.00	589.00	595.00	603.00	612.00	641.00	650.00	652.00	657.00	658.00	658.00	654.00	650.00	646.00	646.00	649.00	652.00	657.00	667.00	665.00	662.00	654.00	642.00	623.00	612.00	602.00	592.00	585.00	581.00	581.00	586.00	595.00	591.00	589.00	586.00	583.00	573.00	571.00	573.00	565.00	559.00	544.00	539.00	536.00	530.00	519.00	510.00	502.00	497.00	494.00	495.00	493.00	486.00	481.00	470.00	476.00	476.00	464.00	449.00	403.00	422.00	450.00	475.00	489.00	475.00	462.00	458.00	465.00	486.00	489.00	491.00	507.00	513.00	517.00	519.00	516.00	515.00	514.00	522.00	529.00	535.00	549.00	549.00	555.00	564.00	569.00	580.00	591.00	605.00	615.00	615.00	605.00	601.00	607.00	604.00	617.00	627.00	637.00	643.00	667.00	678.00	690.00	710.00	719.00	720.00	701.00	687.00	677.00	665.00	662.00	663.00	665.00	668.00	665.00	658.00	651.00	641.00	619.00	614.00	616.00	630.00
292.00	299.00	301.00	303.00	305.00	309.00	313.00	315.00	318.00	320.00	328.00	329.00	330.00	331.00	335.00	337.00	340.00	344.00	348.00	357.00	360.00	361.00	364.00	369.00	374.00	376.00	378.00	382.00	387.00	394.00	401.00	408.00	421.00	433.00	454.00	481.00	506.00	552.00	574.00	586.00	584.00	582.00	585.00	594.00	604.00	615.00	632.00	641.00	655.00	668.00	717.00	747.00	763.00	756.00	729.00	658.00	631.00	611.00	589.00	544.00	529.00	510.00	497.00	496.00	530.00	556.00	577.00	584.00	546.00	509.00	513.00	531.00	553.00	602.00	629.00	658.00	687.00	723.00	719.00	704.00	665.00	649.00	643.00	658.00	679.00	706.00	764.00	784.00	795.00	792.00	774.00	745.00	744.00	759.00	777.00	789.00	790.00	791.00	793.00	790.00	744.00	739.00	738.00	736.00	723.00	715.00	706.00	698.00	692.00	677.00	670.00	660.00	654.00	647.00	642.00	636.00	630.00	626.00	619.00	616.00	613.00	608.00	601.00	616.00	635.00	654.00	669.00	676.00	664.00	646.00	633.00	621.00	603.00	599.00	596.00	592.00	589.00	595.00	603.00	612.00	641.00	650.00	652.00	657.00	658.00	658.00	654.00	650.00	646.00	646.00	649.00	652.00	657.00	667.00	665.00	662.00	654.00	642.00	623.00	612.00	602.00	592.00	585.00	581.00	581.00	586.00	595.00	591.00	589.00	586.00	583.00	573.00	571.00	573.00	565.00	559.00	544.00	539.00	536.00	530.00	519.00	510.00	502.00	497.00	494.00	495.00	493.00	486.00	481.00	470.00	476.00	476.00	464.00	449.00	403.00	422.00	450.00	475.00	489.00	475.00	462.00	458.00	465.00	486.00	489.00	491.00	507.00	513.00	517.00	519.00	516.00	515.00	514.00	522.00	529.00	535.00	549.00	549.00	555.00	564.00	569.00	580.00	591.00	605.00	615.00	615.00	605.00	601.00	607.00	604.00	617.00	627.00	637.00	643.00	667.00	678.00	690.00	710.00	719.00	720.00	701.00	687.00	677.00	665.00	662.00	663.00	665.00	668.00	665.00	658.00	651.00	641.00	619.00	614.00	616.00	630.00
297.00	301.00	305.00	308.00	310.00	315.00	323.00	327.00	333.00	336.00	338.00	339.00	341.00	344.00	353.00	355.00	358.00	371.00	376.00	390.00	398.00	407.00	410.00	394.00	380.00	372.00	374.00	381.00	399.00	400.00	403.00	408.00	421.00	428.00	435.00	442.00	447.00	460.00	468.00	474.00	480.00	493.00	504.00	517.00	532.00	550.00	600.00	628.00	677.00	698.00	742.00	760.00	767.00	760.00	741.00	694.00	671.00	649.00	621.00	558.00	542.00	530.00	527.00	527.00	530.00	533.00	531.00	526.00	504.00	511.00	526.00	542.00	561.00	604.00	621.00	632.00	639.00	656.00	674.00	696.00	746.00	767.00	782.00	778.00	778.00	784.00	782.00	771.00	755.00	740.00	716.00	736.00	765.00	798.00	824.00	849.00	854.00	857.00	856.00	855.00	838.00	831.00	822.00	813.00	785.00	765.00	751.00	741.00	731.00	704.00	692.00	675.00	670.00	663.00	657.00	650.00	644.00	638.00	620.00	611.00	605.00	600.00	585.00	587.00	594.00	610.00	630.00	672.00	675.00	670.00	664.00	653.00	630.00	618.00	608.00	598.00	580.00	574.00	573.00	576.00	588.00	589.00	593.00	596.00	597.00	594.00	595.00	594.00	594.00	603.00	608.00	620.00	633.00	670.00	675.00	673.00	665.00	656.00	641.00	632.00	626.00	620.00	599.00	583.00	577.00	575.00	570.00	563.00	560.00	557.00	553.00	549.00	550.00	550.00	552.00	550.00	544.00	543.00	541.00	533.00	515.00	511.00	507.00	506.00	506.00	496.00	494.00	490.00	486.00	472.00	460.00	447.00	431.00	419.00	409.00	458.00	476.00	484.00	484.00	484.00	482.00	479.00	477.00	487.00	491.00	499.00	512.00	516.00	528.00	537.00	542.00	540.00	538.00	544.00	546.00	547.00	550.00	550.00	549.00	552.00	560.00	567.00	573.00	574.00	573.00	570.00	581.00	590.00	604.00	615.00	641.00	649.00	660.00	662.00	669.00	672.00	679.00	693.00	689.00	688.00	685.00	676.00	663.00	642.00	637.00	630.00	627.00	629.00	638.00	633.00	626.00	621.00	604.00	599.00	604.00	615.00
297.00	301.00	305.00	308.00	310.00	315.00	323.00	327.00	333.00	336.00	338.00	339.00	341.00	344.00	353.00	355.00	358.00	371.00	376.00	390.00	398.00	407.00	410.00	394.00	380.00	372.00	374.00	381.00	399.00	400.00	403.00	408.00	421.00	428.00	435.00	442.00	447.00	460.00	468.00	474.00	480.00	493.00	504.00	517.00	532.00	550.00	600.00	628.00	677.00	698.00	742.00	760.00	767.00	760.00	741.00	694.00	671.00	649.00	621.00	558.00	542.00	530.00	527.00	527.00	530.00	533.00	531.00	526.00	504.00	511.00	526.00	542.00	561.00	604.00	621.00	632.00	639.00	656.00	674.00	696.00	746.00	767.00	782.00	778.00	778.00	784.00	782.00	771.00	755.00	740.00	716.00	736.00	765.00	798.00	824.00	849.00	854.00	857.00	856.00	855.00	838.00	831.00	822.00	813.00	785.00	765.00	751.00	741.00	731.00	704.00	692.00	675.00	670.00	663.00	657.00	650.00	644.00	638.00	620.00	611.00	605.00	600.00	585.00	587.00	594.00	610.00	630.00	672.00	675.00	670.00	664.00	653.00	630.00	618.00	608.00	598.00	580.00	574.00	573.00	576.00	588.00	589.00	593.00	596.00	597.00	594.00	595.00	594.00	594.00	603.00	608.00	620.00	633.00	670.00	675.00	673.00	665.00	656.00	641.00	632.00	626.00	620.00	599.00	583.00	577.00	575.00	570.00	563.00	560.00	557.00	553.00	549.00	550.00	550.00	552.00	550.00	544.00	543.00	541.00	533.00	515.00	511.00	507.00	506.00	506.00	496.00	494.00	490.00	486.00	472.00	460.00	447.00	431.00	419.00	409.00	458.00	476.00	484.00	484.00	484.00	482.00	479.00	477.00	487.00	491.00	499.00	512.00	516.00	528.00	537.00	542.00	540.00	538.00	544.00	546.00	547.00	550.00	550.00	549.00	552.00	560.00	567.00	573.00	574.00	573.00	570.00	581.00	590.00	604.00	615.00	641.00	649.00	660.00	662.00	669.00	672.00	679.00	693.00	689.00	688.00	685.00	676.00	663.00	642.00	637.00	630.00	627.00	629.00	638.00	633.00	626.00	621.00	604.00	599.00	604.00	615.00
297.00	301.00	305.00	308.00	310.00	315.00	323.00	327.00	333.00	336.00	338.00	339.00	341.00	344.00	353.00	355.00	358.00	371.00	376.00	390.00	398.00	407.00	410.00	394.00	380.00	372.00	374.00	381.00	399.00	400.00	403.00	408.00	421.00	428.00	435.00	442.00	447.00	460.00	468.00	474.00	480.00	493.00	504.00	517.00	532.00	550.00	600.00	628.00	677.00	698.00	742.00	760.00	767.00	760.00	741.00	694.00	671.00	649.00	621.00	558.00	542.00	530.00	527.00	527.00	530.00	533.00	531.00	526.00	504.00	511.00	526.00	542.00	561.00	604.00	621.00	632.00	639.00	656.00	674.00	696.00	746.00	767.00	782.00	778.00	778.00	784.00	782.00	771.00	755.00	740.00	716.00	736.00	765.00	798.00	824.00	849.00	854.00	857.00	856.00	855.00	838.00	831.00	822.00	813.00	785.00	765.00	751.00	741.00	731.00	704.00	692.00	675.00	670.00	663.00	657.00	650.00	644.00	638.00	620.00	611.00	605.00	600.00	585.00	587.00	594.00	610.00	630.00	672.00	675.00	670.00	664.00	653.00	630.00	618.00	608.00	598.00	580.00	574.00	573.00	576.00	588.00	589.00	593.00	596.00	597.00	594.00	595.00	594.00	594.00	603.00	608.00	620.00	633.00	670.00	675.00	673.00	665.00	656.00	641.00	632.00	626.00	620.00	599.00	583.00	577.00	575.00	570.00	563.00	560.00	557.00	553.00	549.00	550.00	550.00	552.00	550.00	544.00	543.00	541.00	533.00	515.00	511.00	507.00	506.00	506.00	496.00	494.00	490.00	486.00	472.00	460.00	447.00	431.00	419.00	409.00	458.00	476.00	484.00	484.00	484.00	482.00	479.00	477.00	487.00	491.00	499.00	512.00	516.00	528.00	537.00	542.00	540.00	538.00	544.00	546.00	547.00	550.00	550.00	549.00	552.00	560.00	567.00	573.00	574.00	573.00	570.00	581.00	590.00	604.00	615.00	641.00	649.00	660.00	662.00	669.00	672.00	679.00	693.00	689.00	688.00	685.00	676.00	663.00	642.00	637.00	630.00	627.00	629.00	638.00	633.00	626.00	621.00	604.00	599.00	604.00	615.00
299.00	302.00	307.00	312.00	314.00	318.00	324.00	328.00	333.00	337.00	343.00	348.00	357.00	366.00	378.00	385.00	394.00	408.00	412.00	420.00	432.00	445.00	451.00	433.00	418.00	411.00	411.00	409.00	400.00	400.00	404.00	414.00	447.00	461.00	469.00	472.00	474.00	493.00	497.00	498.00	495.00	497.00	500.00	502.00	504.00	508.00	521.00	532.00	562.00	578.00	611.00	625.00	637.00	654.00	671.00	685.00	670.00	646.00	619.00	566.00	565.00	566.00	564.00	558.00	540.00	533.00	528.00	524.00	511.00	511.00	520.00	529.00	539.00	561.00	563.00	564.00	572.00	612.00	643.00	674.00	741.00	771.00	801.00	805.00	805.00	799.00	746.00	714.00	684.00	666.00	673.00	703.00	717.00	729.00	742.00	772.00	786.00	799.00	814.00	825.00	845.00	853.00	865.00	875.00	870.00	857.00	838.00	815.00	790.00	743.00	728.00	715.00	706.00	685.00	673.00	665.00	658.00	651.00	634.00	625.00	616.00	609.00	599.00	596.00	589.00	583.00	580.00	594.00	612.00	629.00	645.00	657.00	646.00	634.00	625.00	616.00	596.00	587.00	577.00	567.00	554.00	557.00	561.00	564.00	557.00	560.00	564.00	569.00	582.00	608.00	627.00	642.00	654.00	719.00	731.00	732.00	731.00	726.00	704.00	690.00	677.00	660.00	637.00	613.00	602.00	587.00	577.00	563.00	557.00	550.00	542.00	532.00	531.00	533.00	544.00	541.00	526.00	521.00	517.00	513.00	507.00	504.00	500.00	498.00	496.00	490.00	484.00	476.00	468.00	447.00	432.00	418.00	419.00	429.00	447.00	468.00	473.00	473.00	477.00	480.00	483.00	486.00	492.00	499.00	501.00	505.00	510.00	514.00	522.00	526.00	528.00	531.00	535.00	538.00	537.00	535.00	538.00	538.00	544.00	547.00	549.00	556.00	555.00	556.00	562.00	581.00	605.00	615.00	622.00	624.00	623.00	626.00	627.00	629.00	649.00	659.00	666.00	671.00	667.00	659.00	656.00	650.00	641.00	633.00	618.00	608.00	603.00	601.00	605.00	607.00	605.00	597.00	584.00	583.00	586.00	596.00
299.00	302.00	307.00	312.00	314.00	318.00	324.00	328.00	333.00	337.00	343.00	348.00	357.00	366.00	378.00	385.00	394.00	408.00	412.00	420.00	432.00	445.00	451.00	433.00	418.00	411.00	411.00	409.00	400.00	400.00	404.00	414.00	447.00	461.00	469.00	472.00	474.00	493.00	497.00	498.00	495.00	497.00	500.00	502.00	504.00	508.00	521.00	532.00	562.00	578.00	611.00	625.00	637.00	654.00	671.00	685.00	670.00	646.00	619.00	566.00	565.00	566.00	564.00	558.00	540.00	533.00	528.00	524.00	511.00	511.00	520.00	529.00	539.00	561.00	563.00	564.00	572.00	612.00	643.00	674.00	741.00	771.00	801.00	805.00	805.00	799.00	746.00	714.00	684.00	666.00	673.00	703.00	717.00	729.00	742.00	772.00	786.00	799.00	814.00	825.00	845.00	853.00	865.00	875.00	870.00	857.00	838.00	815.00	790.00	743.00	728.00	715.00	706.00	685.00	673.00	665.00	658.00	651.00	634.00	625.00	616.00	609.00	599.00	596.00	589.00	583.00	580.00	594.00	612.00	629.00	645.00	657.00	646.00	634.00	625.00	616.00	596.00	587.00	577.00	567.00	554.00	557.00	561.00	564.00	557.00	560.00	564.00	569.00	582.00	608.00	627.00	642.00	654.00	719.00	731.00	732.00	731.00	726.00	704.00	690.00	677.00	660.00	637.00	613.00	602.00	587.00	577.00	563.00	557.00	550.00	542.00	532.00	531.00	533.00	544.00	541.00	526.00	521.00	517.00	513.00	507.00	504.00	500.00	498.00	496.00	490.00	484.00	476.00	468.00	447.00	432.00	418.00	419.00	429.00	447.00	468.00	473.00	473.00	477.00	480.00	483.00	486.00	492.00	499.00	501.00	505.00	510.00	514.00	522.00	526.00	528.00	531.00	535.00	538.00	537.00	535.00	538.00	538.00	544.00	547.00	549.00	556.00	555.00	556.00	562.00	581.00	605.00	615.00	622.00	624.00	623.00	626.00	627.00	629.00	649.00	659.00	666.00	671.00	667.00	659.00	656.00	650.00	641.00	633.00	618.00	608.00	603.00	601.00	605.00	607.00	605.00	597.00	584.00	583.00	586.00	596.00
299.00	302.00	307.00	312.00	314.00	318.00	324.00	328.00	333.00	337.00	343.00	348.00	357.00	366.00	378.00	385.00	394.00	408.00	412.00	420.00	432.00	445.00	451.00	433.00	418.00	411.00	411.00	409.00	400.00	400.00	404.00	414.00	447.00	461.00	469.00	472.00	474.00	493.00	497.00	498.00	495.00	497.00	500.00	502.00	504.00	508.00	521.00	532.00	562.00	578.00	611.00	625.00	637.00	654.00	671.00	685.00	670.00	646.00	619.00	566.00	565.00	566.00	564.00	558.00	540.00	533.00	528.00	524.00	511.00	511.00	520.00	529.00	539.00	561.00	563.00	564.00	572.00	612.00	643.00	674.00	741.00	771.00	801.00	805.00	805.00	799.00	746.00	714.00	684.00	666.00	673.00	703.00	717.00	729.00	742.00	772.00	786.00	799.00	814.00	825.00	845.00	853.00	865.00	875.00	870.00	857.00	838.00	815.00	790.00	743.00	728.00	715.00	706.00	685.00	673.00	665.00	658.00	651.00	634.00	625.00	616.00	609.00	599.00	596.00	589.00	583.00	580.00	594.00	612.00	629.00	645.00	657.00	646.00	634.00	625.00	616.00	596.00	587.00	577.00	567.00	554.00	557.00	561.00	564.00	557.00	560.00	564.00	569.00	582.00	608.00	627.00	642.00	654.00	719.00	731.00	732.00	731.00	726.00	704.00	690.00	677.00	660.00	637.00	613.00	602.00	587.00	577.00	563.00	557.00	550.00	542.00	532.00	531.00	533.00	544.00	541.00	526.00	521.00	517.00	513.00	507.00	504.00	500.00	498.00	496.00	490.00	484.00	476.00	468.00	447.00	432.00	418.00	419.00	429.00	447.00	468.00	473.00	473.00	477.00	480.00	483.00	486.00	492.00	499.00	501.00	505.00	510.00	514.00	522.00	526.00	528.00	531.00	535.00	538.00	537.00	535.00	538.00	538.00	544.00	547.00	549.00	556.00	555.00	556.00	562.00	581.00	605.00	615.00	622.00	624.00	623.00	626.00	627.00	629.00	649.00	659.00	666.00	671.00	667.00	659.00	656.00	650.00	641.00	633.00	618.00	608.00	603.00	601.00	605.00	607.00	605.00	597.00	584.00	583.00	586.00	596.00
303.00	312.00	316.00	319.00	321.00	329.00	339.00	345.00	353.00	360.00	372.00	378.00	386.00	396.00	417.00	426.00	431.00	442.00	448.00	458.00	460.00	463.00	464.00	463.00	463.00	463.00	461.00	457.00	452.00	440.00	427.00	424.00	461.00	489.00	513.00	532.00	551.00	610.00	624.00	632.00	637.00	649.00	651.00	652.00	645.00	623.00	569.00	557.00	549.00	546.00	550.00	556.00	564.00	574.00	586.00	603.00	612.00	621.00	625.00	627.00	622.00	605.00	595.00	594.00	586.00	580.00	572.00	562.00	539.00	529.00	536.00	550.00	567.00	594.00	594.00	593.00	592.00	595.00	598.00	605.00	631.00	644.00	670.00	681.00	687.00	687.00	656.00	642.00	641.00	655.00	695.00	715.00	721.00	730.00	745.00	782.00	805.00	829.00	853.00	875.00	927.00	938.00	945.00	953.00	962.00	948.00	929.00	906.00	878.00	831.00	808.00	768.00	753.00	719.00	704.00	697.00	696.00	691.00	660.00	646.00	633.00	624.00	604.00	593.00	585.00	580.00	576.00	574.00	575.00	579.00	586.00	607.00	625.00	623.00	615.00	604.00	586.00	581.00	572.00	566.00	551.00	544.00	543.00	540.00	554.00	565.00	583.00	600.00	619.00	665.00	681.00	693.00	706.00	729.00	733.00	735.00	732.00	720.00	690.00	677.00	665.00	653.00	629.00	603.00	599.00	593.00	588.00	564.00	556.00	548.00	538.00	521.00	515.00	513.00	513.00	511.00	511.00	508.00	504.00	500.00	495.00	491.00	489.00	485.00	482.00	468.00	450.00	432.00	421.00	427.00	435.00	447.00	458.00	466.00	470.00	475.00	479.00	482.00	488.00	491.00	494.00	493.00	493.00	497.00	500.00	504.00	510.00	511.00	513.00	513.00	513.00	513.00	520.00	523.00	526.00	530.00	539.00	546.00	551.00	558.00	564.00	562.00	558.00	559.00	564.00	580.00	587.00	587.00	586.00	589.00	593.00	600.00	608.00	619.00	632.00	636.00	639.00	642.00	640.00	638.00	633.00	629.00	627.00	613.00	606.00	597.00	589.00	581.00	569.00	571.00	574.00	572.00	570.00	574.00	578.00	585.00
303.00	312.00	316.00	319.00	321.00	329.00	339.00	345.00	353.00	360.00	372.00	378.00	386.00	396.00	417.00	426.00	431.00	442.00	448.00	458.00	460.00	463.00	464.00	463.00	463.00	463.00	461.00	457.00	452.00	440.00	427.00	424.00	461.00	489.00	513.00	532.00	551.00	610.00	624.00	632.00	637.00	649.00	651.00	652.00	645.00	623.00	569.00	557.00	549.00	546.00	550.00	556.00	564.00	574.00	586.00	603.00	612.00	621.00	625.00	627.00	622.00	605.00	595.00	594.00	586.00	580.00	572.00	562.00	539.00	529.00	536.00	550.00	567.00	594.00	594.00	593.00	592.00	595.00	598.00	605.00	631.00	644.00	670.00	681.00	687.00	687.00	656.00	642.00	641.00	655.00	695.00	715.00	721.00	730.00	745.00	782.00	805.00	829.00	853.00	875.00	927.00	938.00	945.00	953.00	962.00	948.00	929.00	906.00	878.00	831.00	808.00	768.00	753.00	719.00	704.00	697.00	696.00	691.00	660.00	646.00	633.00	624.00	604.00	593.00	585.00	580.00	576.00	574.00	575.00	579.00	586.00	607.00	625.00	623.00	615.00	604.00	586.00	581.00	572.00	566.00	551.00	544.00	543.00	540.00	554.00	565.00	583.00	600.00	619.00	665.00	681.00	693.00	706.00	729.00	733.00	735.00	732.00	720.00	690.00	677.00	665.00	653.00	629.00	603.00	599.00	593.00	588.00	564.00	556.00	548.00	538.00	521.00	515.00	513.00	513.00	511.00	511.00	508.00	504.00	500.00	495.00	491.00	489.00	485.00	482.00	468.00	450.00	432.00	421.00	427.00	435.00	447.00	458.00	466.00	470.00	475.00	479.00	482.00	488.00	491.00	494.00	493.00	493.00	497.00	500.00	504.00	510.00	511.00	513.00	513.00	513.00	513.00	520.00	523.00	526.00	530.00	539.00	546.00	551.00	558.00	564.00	562.00	558.00	559.00	564.00	580.00	587.00	587.00	586.00	589.00	593.00	600.00	608.00	619.00	632.00	636.00	639.00	642.00	640.00	638.00	633.00	629.00	627.00	613.00	606.00	597.00	589.00	581.00	569.00	571.00	574.00	572.00	570.00	574.00	578.00	585.00
303.00	312.00	316.00	319.00	321.00	329.00	339.00	345.00	353.00	360.00	372.00	378.00	386.00	396.00	417.00	426.00	431.00	442.00	448.00	458.00	460.00	463.00	464.00	463.00	463.00	463.00	461.00	457.00	452.00	440.00	427.00	424.00	461.00	489.00	513.00	532.00	551.00	610.00	624.00	632.00	637.00	649.00	651.00	652.00	645.00	623.00	569.00	557.00	549.00	546.00	550.00	556.00	564.00	574.00	586.00	603.00	612.00	621.00	625.00	627.00	622.00	605.00	595.00	594.00	586.00	580.00	572.00	562.00	539.00	529.00	536.00	550.00	567.00	594.00	594.00	593.00	592.00	595.00	598.00	605.00	631.00	644.00	670.00	681.00	687.00	687.00	656.00	642.00	641.00	655.00	695.00	715.00	721.00	730.00	745.00	782.00	805.00	829.00	853.00	875.00	927.00	938.00	945.00	953.00	962.00	948.00	929.00	906.00	878.00	831.00	808.00	768.00	753.00	719.00	704.00	697.00	696.00	691.00	660.00	646.00	633.00	624.00	604.00	593.00	585.00	580.00	576.00	574.00	575.00	579.00	586.00	607.00	625.00	623.00	615.00	604.00	586.00	581.00	572.00	566.00	551.00	544.00	543.00	540.00	554.00	565.00	583.00	600.00	619.00	665.00	681.00	693.00	706.00	729.00	733.00	735.00	732.00	720.00	690.00	677.00	665.00	653.00	629.00	603.00	599.00	593.00	588.00	564.00	556.00	548.00	538.00	521.00	515.00	513.00	513.00	511.00	511.00	508.00	504.00	500.00	495.00	491.00	489.00	485.00	482.00	468.00	450.00	432.00	421.00	427.00	435.00	447.00	458.00	466.00	470.00	475.00	479.00	482.00	488.00	491.00	494.00	493.00	493.00	497.00	500.00	504.00	510.00	511.00	513.00	513.00	513.00	513.00	520.00	523.00	526.00	530.00	539.00	546.00	551.00	558.00	564.00	562.00	558.00	559.00	564.00	580.00	587.00	587.00	586.00	589.00	593.00	600.00	608.00	619.00	632.00	636.00	639.00	642.00	640.00	638.00	633.00	629.00	627.00	613.00	606.00	597.00	589.00	581.00	569.00	571.00	574.00	572.00	570.00	574.00	578.00	585.00
303.00	312.00	316.00	319.00	321.00	329.00	339.00	345.00	353.00	360.00	372.00	378.00	386.00	396.00	417.00	426.00	431.00	442.00	448.00	458.00	460.00	463.00	464.00	463.00	463.00	463.00	461.00	457.00	452.00	440.00	427.00	424.00	461.00	489.00	513.00	532.00	551.00	610.00	624.00	632.00	637.00	649.00	651.00	652.00	645.00	623.00	569.00	557.00	549.00	546.00	550.00	556.00	564.00	574.00	586.00	603.00	612.00	621.00	625.00	627.00	622.00	605.00	595.00	594.00	586.00	580.00	572.00	562.00	539.00	529.00	536.00	550.00	567.00	594.00	594.00	593.00	592.00	595.00	598.00	605.00	631.00	644.00	670.00	681.00	687.00	687.00	656.00	642.00	641.00	655.00	695.00	715.00	721.00	730.00	745.00	782.00	805.00	829.00	853.00	875.00	927.00	938.00	945.00	953.00	962.00	948.00	929.00	906.00	878.00	831.00	808.00	768.00	753.00	719.00	704.00	697.00	696.00	691.00	660.00	646.00	633.00	624.00	604.00	593.00	585.00	580.00	576.00	574.00	575.00	579.00	586.00	607.00	625.00	623.00	615.00	604.00	586.00	581.00	572.00	566.00	551.00	544.00	543.00	540.00	554.00	565.00	583.00	600.00	619.00	665.00	681.00	693.00	706.00	729.00	733.00	735.00	732.00	720.00	690.00	677.00	665.00	653.00	629.00	603.00	599.00	593.00	588.00	564.00	556.00	548.00	538.00	521.00	515.00	513.00	513.00	511.00	511.00	508.00	504.00	500.00	495.00	491.00	489.00	485.00	482.00	468.00	450.00	432.00	421.00	427.00	435.00	447.00	458.00	466.00	470.00	475.00	479.00	482.00	488.00	491.00	494.00	493.00	493.00	497.00	500.00	504.00	510.00	511.00	513.00	513.00	513.00	513.00	520.00	523.00	526.00	530.00	539.00	546.00	551.00	558.00	564.00	562.00	558.00	559.00	564.00	580.00	587.00	587.00	586.00	589.00	593.00	600.00	608.00	619.00	632.00	636.00	639.00	642.00	640.00	638.00	633.00	629.00	627.00	613.00	606.00	597.00	589.00	581.00	569.00	571.00	574.00	572.00	570.00	574.00	578.00	585.00
316.00	326.00	329.00	331.00	334.00	345.00	366.00	380.00	397.00	415.00	435.00	433.00	433.00	439.00	459.00	467.00	481.00	536.00	559.00	551.00	538.00	531.00	537.00	547.00	537.00	525.00	519.00	518.00	496.00	466.00	444.00	430.00	436.00	455.00	480.00	505.00	528.00	606.00	630.00	651.00	671.00	714.00	735.00	750.00	754.00	742.00	686.00	672.00	651.00	630.00	599.00	589.00	583.00	586.00	597.00	618.00	624.00	629.00	641.00	685.00	684.00	677.00	671.00	660.00	636.00	623.00	610.00	595.00	557.00	541.00	554.00	576.00	600.00	631.00	639.00	644.00	646.00	643.00	638.00	629.00	612.00	600.00	585.00	587.00	590.00	594.00	614.00	632.00	654.00	676.00	732.00	787.00	809.00	824.00	835.00	852.00	862.00	871.00	882.00	895.00	944.00	956.00	966.00	973.00	984.00	987.00	987.00	984.00	975.00	923.00	892.00	828.00	801.00	773.00	770.00	766.00	752.00	728.00	692.00	682.00	683.00	691.00	656.00	631.00	609.00	594.00	588.00	583.00	580.00	577.00	575.00	564.00	562.00	562.00	560.00	557.00	548.00	543.00	543.00	546.00	543.00	544.00	542.00	530.00	538.00	553.00	566.00	582.00	599.00	631.00	644.00	653.00	657.00	667.00	677.00	679.00	680.00	688.00	691.00	677.00	665.00	652.00	637.00	631.00	631.00	627.00	618.00	603.00	595.00	578.00	553.00	535.00	529.00	519.00	504.00	496.00	484.00	484.00	484.00	486.00	480.00	474.00	462.00	456.00	448.00	429.00	436.00	440.00	434.00	418.00	417.00	428.00	437.00	446.00	460.00	473.00	478.00	482.00	486.00	486.00	485.00	486.00	487.00	497.00	501.00	503.00	500.00	504.00	511.00	518.00	526.00	535.00	545.00	547.00	548.00	546.00	539.00	538.00	539.00	541.00	542.00	543.00	548.00	556.00	558.00	564.00	567.00	567.00	568.00	569.00	583.00	592.00	596.00	600.00	606.00	611.00	611.00	608.00	609.00	602.00	598.00	595.00	592.00	584.00	576.00	575.00	570.00	566.00	560.00	560.00	558.00	557.00	566.00	570.00	572.00	572.00
316.00	326.00	329.00	331.00	334.00	345.00	366.00	380.00	397.00	415.00	435.00	433.00	433.00	439.00	459.00	467.00	481.00	536.00	559.00	551.00	538.00	531.00	537.00	547.00	537.00	525.00	519.00	518.00	496.00	466.00	444.00	430.00	436.00	455.00	480.00	505.00	528.00	606.00	630.00	651.00	671.00	714.00	735.00	750.00	754.00	742.00	686.00	672.00	651.00	630.00	599.00	589.00	583.00	586.00	597.00	618.00	624.00	629.00	641.00	685.00	684.00	677.00	671.00	660.00	636.00	623.00	610.00	595.00	557.00	541.00	554.00	576.00	600.00	631.00	639.00	644.00	646.00	643.00	638.00	629.00	612.00	600.00	585.00	587.00	590.00	594.00	614.00	632.00	654.00	676.00	732.00	787.00	809.00	824.00	835.00	852.00	862.00	871.00	882.00	895.00	944.00	956.00	966.00	973.00	984.00	987.00	987.00	984.00	975.00	923.00	892.00	828.00	801.00	773.00	770.00	766.00	752.00	728.00	692.00	682.00	683.00	691.00	656.00	631.00	609.00	594.00	588.00	583.00	580.00	577.00	575.00	564.00	562.00	562.00	560.00	557.00	548.00	543.00	543.00	546.00	543.00	544.00	542.00	530.00	538.00	553.00	566.00	582.00	599.00	631.00	644.00	653.00	657.00	667.00	677.00	679.00	680.00	688.00	691.00	677.00	665.00	652.00	637.00	631.00	631.00	627.00	618.00	603.00	595.00	578.00	553.00	535.00	529.00	519.00	504.00	496.00	484.00	484.00	484.00	486.00	480.00	474.00	462.00	456.00	448.00	429.00	436.00	440.00	434.00	418.00	417.00	428.00	437.00	446.00	460.00	473.00	478.00	482.00	486.00	486.00	485.00	486.00	487.00	497.00	501.00	503.00	500.00	504.00	511.00	518.00	526.00	535.00	545.00	547.00	548.00	546.00	539.00	538.00	539.00	541.00	542.00	543.00	548.00	556.00	558.00	564.00	567.00	567.00	568.00	569.00	583.00	592.00	596.00	600.00	606.00	611.00	611.00	608.00	609.00	602.00	598.00	595.00	592.00	584.00	576.00	575.00	570.00	566.00	560.00	560.00	558.00	557.00	566.00	570.00	572.00	572.00
341.00	351.00	356.00	360.00	365.00	381.00	407.00	423.00	436.00	447.00	487.00	511.00	524.00	519.00	525.00	536.00	552.00	602.00	631.00	677.00	684.00	689.00	691.00	645.00	613.00	584.00	558.00	528.00	468.00	454.00	446.00	439.00	436.00	443.00	454.00	468.00	482.00	530.00	549.00	569.00	587.00	629.00	651.00	673.00	695.00	718.00	758.00	771.00	776.00	770.00	756.00	745.00	741.00	741.00	748.00	755.00	755.00	750.00	751.00	742.00	733.00	722.00	703.00	681.00	636.00	618.00	604.00	589.00	557.00	546.00	552.00	563.00	575.00	596.00	603.00	609.00	612.00	605.00	602.00	604.00	595.00	582.00	564.00	566.00	572.00	581.00	612.00	626.00	640.00	657.00	702.00	753.00	773.00	787.00	797.00	795.00	791.00	793.00	806.00	829.00	919.00	943.00	960.00	970.00	987.00	995.00	1003.00	1007.00	1007.00	986.00	972.00	936.00	911.00	844.00	807.00	778.00	763.00	762.00	750.00	746.00	747.00	747.00	702.00	682.00	661.00	648.00	642.00	627.00	612.00	598.00	589.00	576.00	568.00	562.00	556.00	551.00	541.00	537.00	535.00	534.00	530.00	525.00	523.00	522.00	532.00	539.00	549.00	562.00	571.00	581.00	583.00	580.00	580.00	601.00	610.00	626.00	648.00	670.00	690.00	695.00	699.00	703.00	701.00	670.00	648.00	633.00	610.00	573.00	557.00	543.00	533.00	514.00	510.00	507.00	500.00	499.00	489.00	479.00	471.00	462.00	441.00	433.00	447.00	457.00	460.00	469.00	471.00	475.00	475.00	456.00	445.00	426.00	414.00	427.00	460.00	473.00	475.00	475.00	478.00	482.00	487.00	488.00	487.00	487.00	490.00	494.00	508.00	528.00	535.00	540.00	548.00	549.00	548.00	546.00	544.00	546.00	526.00	528.00	531.00	534.00	535.00	533.00	534.00	536.00	541.00	550.00	556.00	554.00	554.00	557.00	566.00	570.00	574.00	579.00	583.00	583.00	580.00	573.00	569.00	563.00	563.00	563.00	561.00	556.00	553.00	552.00	549.00	549.00	549.00	549.00	548.00	550.00	558.00	560.00	562.00	567.00
341.00	351.00	356.00	360.00	365.00	381.00	407.00	423.00	436.00	447.00	487.00	511.00	524.00	519.00	525.00	536.00	552.00	602.00	631.00	677.00	684.00	689.00	691.00	645.00	613.00	584.00	558.00	528.00	468.00	454.00	446.00	439.00	436.00	443.00	454.00	468.00	482.00	530.00	549.00	569.00	587.00	629.00	651.00	673.00	695.00	718.00	758.00	771.00	776.00	770.00	756.00	745.00	741.00	741.00	748.00	755.00	755.00	750.00	751.00	742.00	733.00	722.00	703.00	681.00	636.00	618.00	604.00	589.00	557.00	546.00	552.00	563.00	575.00	596.00	603.00	609.00	612.00	605.00	602.00	604.00	595.00	582.00	564.00	566.00	572.00	581.00	612.00	626.00	640.00	657.00	702.00	753.00	773.00	787.00	797.00	795.00	791.00	793.00	806.00	829.00	919.00	943.00	960.00	970.00	987.00	995.00	1003.00	1007.00	1007.00	986.00	972.00	936.00	911.00	844.00	807.00	778.00	763.00	762.00	750.00	746.00	747.00	747.00	702.00	682.00	661.00	648.00	642.00	627.00	612.00	598.00	589.00	576.00	568.00	562.00	556.00	551.00	541.00	537.00	535.00	534.00	530.00	525.00	523.00	522.00	532.00	539.00	549.00	562.00	571.00	581.00	583.00	580.00	580.00	601.00	610.00	626.00	648.00	670.00	690.00	695.00	699.00	703.00	701.00	670.00	648.00	633.00	610.00	573.00	557.00	543.00	533.00	514.00	510.00	507.00	500.00	499.00	489.00	479.00	471.00	462.00	441.00	433.00	447.00	457.00	460.00	469.00	471.00	475.00	475.00	456.00	445.00	426.00	414.00	427.00	460.00	473.00	475.00	475.00	478.00	482.00	487.00	488.00	487.00	487.00	490.00	494.00	508.00	528.00	535.00	540.00	548.00	549.00	548.00	546.00	544.00	546.00	526.00	528.00	531.00	534.00	535.00	533.00	534.00	536.00	541.00	550.00	556.00	554.00	554.00	557.00	566.00	570.00	574.00	579.00	583.00	583.00	580.00	573.00	569.00	563.00	563.00	563.00	561.00	556.00	553.00	552.00	549.00	549.00	549.00	549.00	548.00	550.00	558.00	560.00	562.00	567.00
341.00	351.00	356.00	360.00	365.00	381.00	407.00	423.00	436.00	447.00	487.00	511.00	524.00	519.00	525.00	536.00	552.00	602.00	631.00	677.00	684.00	689.00	691.00	645.00	613.00	584.00	558.00	528.00	468.00	454.00	446.00	439.00	436.00	443.00	454.00	468.00	482.00	530.00	549.00	569.00	587.00	629.00	651.00	673.00	695.00	718.00	758.00	771.00	776.00	770.00	756.00	745.00	741.00	741.00	748.00	755.00	755.00	750.00	751.00	742.00	733.00	722.00	703.00	681.00	636.00	618.00	604.00	589.00	557.00	546.00	552.00	563.00	575.00	596.00	603.00	609.00	612.00	605.00	602.00	604.00	595.00	582.00	564.00	566.00	572.00	581.00	612.00	626.00	640.00	657.00	702.00	753.00	773.00	787.00	797.00	795.00	791.00	793.00	806.00	829.00	919.00	943.00	960.00	970.00	987.00	995.00	1003.00	1007.00	1007.00	986.00	972.00	936.00	911.00	844.00	807.00	778.00	763.00	762.00	750.00	746.00	747.00	747.00	702.00	682.00	661.00	648.00	642.00	627.00	612.00	598.00	589.00	576.00	568.00	562.00	556.00	551.00	541.00	537.00	535.00	534.00	530.00	525.00	523.00	522.00	532.00	539.00	549.00	562.00	571.00	581.00	583.00	580.00	580.00	601.00	610.00	626.00	648.00	670.00	690.00	695.00	699.00	703.00	701.00	670.00	648.00	633.00	610.00	573.00	557.00	543.00	533.00	514.00	510.00	507.00	500.00	499.00	489.00	479.00	471.00	462.00	441.00	433.00	447.00	457.00	460.00	469.00	471.00	475.00	475.00	456.00	445.00	426.00	414.00	427.00	460.00	473.00	475.00	475.00	478.00	482.00	487.00	488.00	487.00	487.00	490.00	494.00	508.00	528.00	535.00	540.00	548.00	549.00	548.00	546.00	544.00	546.00	526.00	528.00	531.00	534.00	535.00	533.00	534.00	536.00	541.00	550.00	556.00	554.00	554.00	557.00	566.00	570.00	574.00	579.00	583.00	583.00	580.00	573.00	569.00	563.00	563.00	563.00	561.00	556.00	553.00	552.00	549.00	549.00	549.00	549.00	548.00	550.00	558.00	560.00	562.00	567.00
366.00	388.00	399.00	408.00	413.00	420.00	442.00	453.00	461.00	471.00	518.00	544.00	562.00	569.00	578.00	590.00	610.00	677.00	715.00	769.00	772.00	752.00	715.00	627.00	600.00	584.00	554.00	521.00	481.00	483.00	489.00	492.00	471.00	460.00	458.00	464.00	473.00	504.00	516.00	528.00	538.00	564.00	579.00	595.00	613.00	633.00	687.00	715.00	790.00	818.00	838.00	846.00	849.00	842.00	830.00	828.00	831.00	839.00	845.00	836.00	825.00	810.00	789.00	760.00	695.00	665.00	639.00	617.00	586.00	561.00	550.00	542.00	540.00	548.00	554.00	559.00	563.00	560.00	557.00	555.00	549.00	544.00	555.00	565.00	575.00	585.00	608.00	617.00	624.00	628.00	649.00	676.00	688.00	697.00	703.00	715.00	725.00	741.00	766.00	800.00	903.00	923.00	938.00	949.00	951.00	937.00	919.00	916.00	929.00	960.00	974.00	983.00	973.00	929.00	913.00	907.00	903.00	887.00	815.00	774.00	741.00	717.00	711.00	725.00	738.00	747.00	743.00	705.00	681.00	656.00	637.00	614.00	588.00	573.00	563.00	560.00	553.00	552.00	551.00	547.00	538.00	534.00	530.00	525.00	526.00	525.00	525.00	526.00	529.00	535.00	539.00	546.00	556.00	591.00	607.00	629.00	655.00	673.00	690.00	690.00	688.00	670.00	634.00	592.00	573.00	555.00	544.00	519.00	513.00	509.00	504.00	500.00	499.00	496.00	491.00	484.00	475.00	461.00	441.00	441.00	456.00	467.00	473.00	481.00	487.00	482.00	482.00	483.00	483.00	470.00	449.00	431.00	417.00	424.00	445.00	471.00	474.00	479.00	490.00	489.00	489.00	489.00	490.00	494.00	495.00	498.00	513.00	525.00	530.00	535.00	536.00	536.00	537.00	538.00	536.00	530.00	524.00	523.00	524.00	525.00	527.00	530.00	530.00	531.00	535.00	539.00	544.00	540.00	540.00	540.00	542.00	541.00	542.00	543.00	551.00	550.00	549.00	548.00	547.00	545.00	546.00	544.00	541.00	535.00	534.00	535.00	536.00	537.00	548.00	555.00	561.00	567.00	577.00	580.00	585.00	593.00
366.00	388.00	399.00	408.00	413.00	420.00	442.00	453.00	461.00	471.00	518.00	544.00	562.00	569.00	578.00	590.00	610.00	677.00	715.00	769.00	772.00	752.00	715.00	627.00	600.00	584.00	554.00	521.00	481.00	483.00	489.00	492.00	471.00	460.00	458.00	464.00	473.00	504.00	516.00	528.00	538.00	564.00	579.00	595.00	613.00	633.00	687.00	715.00	790.00	818.00	838.00	846.00	849.00	842.00	830.00	828.00	831.00	839.00	845.00	836.00	825.00	810.00	789.00	760.00	695.00	665.00	639.00	617.00	586.00	561.00	550.00	542.00	540.00	548.00	554.00	559.00	563.00	560.00	557.00	555.00	549.00	544.00	555.00	565.00	575.00	585.00	608.00	617.00	624.00	628.00	649.00	676.00	688.00	697.00	703.00	715.00	725.00	741.00	766.00	800.00	903.00	923.00	938.00	949.00	951.00	937.00	919.00	916.00	929.00	960.00	974.00	983.00	973.00	929.00	913.00	907.00	903.00	887.00	815.00	774.00	741.00	717.00	711.00	725.00	738.00	747.00	743.00	705.00	681.00	656.00	637.00	614.00	588.00	573.00	563.00	560.00	553.00	552.00	551.00	547.00	538.00	534.00	530.00	525.00	526.00	525.00	525.00	526.00	529.00	535.00	539.00	546.00	556.00	591.00	607.00	629.00	655.00	673.00	690.00	690.00	688.00	670.00	634.00	592.00	573.00	555.00	544.00	519.00	513.00	509.00	504.00	500.00	499.00	496.00	491.00	484.00	475.00	461.00	441.00	441.00	456.00	467.00	473.00	481.00	487.00	482.00	482.00	483.00	483.00	470.00	449.00	431.00	417.00	424.00	445.00	471.00	474.00	479.00	490.00	489.00	489.00	489.00	490.00	494.00	495.00	498.00	513.00	525.00	530.00	535.00	536.00	536.00	537.00	538.00	536.00	530.00	524.00	523.00	524.00	525.00	527.00	530.00	530.00	531.00	535.00	539.00	544.00	540.00	540.00	540.00	542.00	541.00	542.00	543.00	551.00	550.00	549.00	548.00	547.00	545.00	546.00	544.00	541.00	535.00	534.00	535.00	536.00	537.00	548.00	555.00	561.00	567.00	577.00	580.00	585.00	593.00
366.00	388.00	399.00	408.00	413.00	420.00	442.00	453.00	461.00	471.00	518.00	544.00	562.00	569.00	578.00	590.00	610.00	677.00	715.00	769.00	772.00	752.00	715.00	627.00	600.00	584.00	554.00	521.00	481.00	483.00	489.00	492.00	471.00	460.00	458.00	464.00	473.00	504.00	516.00	528.00	538.00	564.00	579.00	595.00	613.00	633.00	687.00	715.00	790.00	818.00	838.00	846.00	849.00	842.00	830.00	828.00	831.00	839.00	845.00	836.00	825.00	810.00	789.00	760.00	695.00	665.00	639.00	617.00	586.00	561.00	550.00	542.00	540.00	548.00	554.00	559.00	563.00	560.00	557.00	555.00	549.00	544.00	555.00	565.00	575.00	585.00	608.00	617.00	624.00	628.00	649.00	676.00	688.00	697.00	703.00	715.00	725.00	741.00	766.00	800.00	903.00	923.00	938.00	949.00	951.00	937.00	919.00	916.00	929.00	960.00	974.00	983.00	973.00	929.00	913.00	907.00	903.00	887.00	815.00	774.00	741.00	717.00	711.00	725.00	738.00	747.00	743.00	705.00	681.00	656.00	637.00	614.00	588.00	573.00	563.00	560.00	553.00	552.00	551.00	547.00	538.00	534.00	530.00	525.00	526.00	525.00	525.00	526.00	529.00	535.00	539.00	546.00	556.00	591.00	607.00	629.00	655.00	673.00	690.00	690.00	688.00	670.00	634.00	592.00	573.00	555.00	544.00	519.00	513.00	509.00	504.00	500.00	499.00	496.00	491.00	484.00	475.00	461.00	441.00	441.00	456.00	467.00	473.00	481.00	487.00	482.00	482.00	483.00	483.00	470.00	449.00	431.00	417.00	424.00	445.00	471.00	474.00	479.00	490.00	489.00	489.00	489.00	490.00	494.00	495.00	498.00	513.00	525.00	530.00	535.00	536.00	536.00	537.00	538.00	536.00	530.00	524.00	523.00	524.00	525.00	527.00	530.00	530.00	531.00	535.00	539.00	544.00	540.00	540.00	540.00	542.00	541.00	542.00	543.00	551.00	550.00	549.00	548.00	547.00	545.00	546.00	544.00	541.00	535.00	534.00	535.00	536.00	537.00	548.00	555.00	561.00	567.00	577.00	580.00	585.00	593.00
400.00	414.00	422.00	434.00	448.00	477.00	509.00	531.00	551.00	557.00	579.00	586.00	589.00	595.00	617.00	649.00	700.00	789.00	809.00	778.00	735.00	691.00	654.00	592.00	574.00	561.00	547.00	536.00	518.00	523.00	529.00	530.00	511.00	497.00	485.00	480.00	483.00	509.00	519.00	525.00	528.00	541.00	553.00	567.00	588.00	613.00	672.00	695.00	712.00	716.00	717.00	709.00	697.00	699.00	696.00	713.00	732.00	751.00	764.00	761.00	770.00	788.00	807.00	816.00	793.00	765.00	733.00	699.00	630.00	591.00	586.00	584.00	578.00	559.00	547.00	536.00	529.00	527.00	528.00	531.00	535.00	538.00	553.00	560.00	567.00	576.00	597.00	607.00	618.00	627.00	646.00	664.00	674.00	686.00	697.00	710.00	711.00	710.00	711.00	719.00	784.00	810.00	827.00	838.00	826.00	804.00	788.00	790.00	811.00	887.00	921.00	951.00	948.00	935.00	936.00	940.00	928.00	895.00	809.00	781.00	766.00	758.00	813.00	818.00	804.00	779.00	753.00	713.00	710.00	712.00	718.00	719.00	681.00	656.00	632.00	603.00	575.00	564.00	557.00	551.00	544.00	544.00	543.00	541.00	533.00	530.00	526.00	520.00	517.00	519.00	523.00	527.00	530.00	558.00	579.00	596.00	606.00	610.00	595.00	586.00	575.00	562.00	539.00	520.00	515.00	510.00	507.00	501.00	498.00	496.00	493.00	488.00	487.00	488.00	483.00	482.00	471.00	458.00	435.00	447.00	467.00	472.00	482.00	484.00	482.00	484.00	485.00	481.00	472.00	457.00	450.00	442.00	434.00	423.00	442.00	463.00	466.00	474.00	474.00	474.00	480.00	485.00	489.00	492.00	496.00	499.00	510.00	512.00	511.00	514.00	515.00	516.00	516.00	512.00	508.00	508.00	510.00	513.00	514.00	516.00	521.00	525.00	524.00	525.00	525.00	528.00	529.00	530.00	532.00	532.00	532.00	534.00	536.00	533.00	534.00	536.00	533.00	527.00	525.00	525.00	524.00	525.00	527.00	532.00	536.00	539.00	546.00	553.00	576.00	583.00	587.00	594.00	612.00	618.00	623.00	634.00
400.00	414.00	422.00	434.00	448.00	477.00	509.00	531.00	551.00	557.00	579.00	586.00	589.00	595.00	617.00	649.00	700.00	789.00	809.00	778.00	735.00	691.00	654.00	592.00	574.00	561.00	547.00	536.00	518.00	523.00	529.00	530.00	511.00	497.00	485.00	480.00	483.00	509.00	519.00	525.00	528.00	541.00	553.00	567.00	588.00	613.00	672.00	695.00	712.00	716.00	717.00	709.00	697.00	699.00	696.00	713.00	732.00	751.00	764.00	761.00	770.00	788.00	807.00	816.00	793.00	765.00	733.00	699.00	630.00	591.00	586.00	584.00	578.00	559.00	547.00	536.00	529.00	527.00	528.00	531.00	535.00	538.00	553.00	560.00	567.00	576.00	597.00	607.00	618.00	627.00	646.00	664.00	674.00	686.00	697.00	710.00	711.00	710.00	711.00	719.00	784.00	810.00	827.00	838.00	826.00	804.00	788.00	790.00	811.00	887.00	921.00	951.00	948.00	935.00	936.00	940.00	928.00	895.00	809.00	781.00	766.00	758.00	813.00	818.00	804.00	779.00	753.00	713.00	710.00	712.00	718.00	719.00	681.00	656.00	632.00	603.00	575.00	564.00	557.00	551.00	544.00	544.00	543.00	541.00	533.00	530.00	526.00	520.00	517.00	519.00	523.00	527.00	530.00	558.00	579.00	596.00	606.00	610.00	595.00	586.00	575.00	562.00	539.00	520.00	515.00	510.00	507.00	501.00	498.00	496.00	493.00	488.00	487.00	488.00	483.00	482.00	471.00	458.00	435.00	447.00	467.00	472.00	482.00	484.00	482.00	484.00	485.00	481.00	472.00	457.00	450.00	442.00	434.00	423.00	442.00	463.00	466.00	474.00	474.00	474.00	480.00	485.00	489.00	492.00	496.00	499.00	510.00	512.00	511.00	514.00	515.00	516.00	516.00	512.00	508.00	508.00	510.00	513.00	514.00	516.00	521.00	525.00	524.00	525.00	525.00	528.00	529.00	530.00	532.00	532.00	532.00	534.00	536.00	533.00	534.00	536.00	533.00	527.00	525.00	525.00	524.00	525.00	527.00	532.00	536.00	539.00	546.00	553.00	576.00	583.00	587.00	594.00	612.00	618.00	623.00	634.00
400.00	414.00	422.00	434.00	448.00	477.00	509.00	531.00	551.00	557.00	579.00	586.00	589.00	595.00	617.00	649.00	700.00	789.00	809.00	778.00	735.00	691.00	654.00	592.00	574.00	561.00	547.00	536.00	518.00	523.00	529.00	530.00	511.00	497.00	485.00	480.00	483.00	509.00	519.00	525.00	528.00	541.00	553.00	567.00	588.00	613.00	672.00	695.00	712.00	716.00	717.00	709.00	697.00	699.00	696.00	713.00	732.00	751.00	764.00	761.00	770.00	788.00	807.00	816.00	793.00	765.00	733.00	699.00	630.00	591.00	586.00	584.00	578.00	559.00	547.00	536.00	529.00	527.00	528.00	531.00	535.00	538.00	553.00	560.00	567.00	576.00	597.00	607.00	618.00	627.00	646.00	664.00	674.00	686.00	697.00	710.00	711.00	710.00	711.00	719.00	784.00	810.00	827.00	838.00	826.00	804.00	788.00	790.00	811.00	887.00	921.00	951.00	948.00	935.00	936.00	940.00	928.00	895.00	809.00	781.00	766.00	758.00	813.00	818.00	804.00	779.00	753.00	713.00	710.00	712.00	718.00	719.00	681.00	656.00	632.00	603.00	575.00	564.00	557.00	551.00	544.00	544.00	543.00	541.00	533.00	530.00	526.00	520.00	517.00	519.00	523.00	527.00	530.00	558.00	579.00	596.00	606.00	610.00	595.00	586.00	575.00	562.00	539.00	520.00	515.00	510.00	507.00	501.00	498.00	496.00	493.00	488.00	487.00	488.00	483.00	482.00	471.00	458.00	435.00	447.00	467.00	472.00	482.00	484.00	482.00	484.00	485.00	481.00	472.00	457.00	450.00	442.00	434.00	423.00	442.00	463.00	466.00	474.00	474.00	474.00	480.00	485.00	489.00	492.00	496.00	499.00	510.00	512.00	511.00	514.00	515.00	516.00	516.00	512.00	508.00	508.00	510.00	513.00	514.00	516.00	521.00	525.00	524.00	525.00	525.00	528.00	529.00	530.00	532.00	532.00	532.00	534.00	536.00	533.00	534.00	536.00	533.00	527.00	525.00	525.00	524.00	525.00	527.00	532.00	536.00	539.00	546.00	553.00	576.00	583.00	587.00	594.00	612.00	618.00	623.00	634.00
400.00	414.00	422.00	434.00	448.00	477.00	509.00	531.00	551.00	557.00	579.00	586.00	589.00	595.00	617.00	649.00	700.00	789.00	809.00	778.00	735.00	691.00	654.00	592.00	574.00	561.00	547.00	536.00	518.00	523.00	529.00	530.00	511.00	497.00	485.00	480.00	483.00	509.00	519.00	525.00	528.00	541.00	553.00	567.00	588.00	613.00	672.00	695.00	712.00	716.00	717.00	709.00	697.00	699.00	696.00	713.00	732.00	751.00	764.00	761.00	770.00	788.00	807.00	816.00	793.00	765.00	733.00	699.00	630.00	591.00	586.00	584.00	578.00	559.00	547.00	536.00	529.00	527.00	528.00	531.00	535.00	538.00	553.00	560.00	567.00	576.00	597.00	607.00	618.00	627.00	646.00	664.00	674.00	686.00	697.00	710.00	711.00	710.00	711.00	719.00	784.00	810.00	827.00	838.00	826.00	804.00	788.00	790.00	811.00	887.00	921.00	951.00	948.00	935.00	936.00	940.00	928.00	895.00	809.00	781.00	766.00	758.00	813.00	818.00	804.00	779.00	753.00	713.00	710.00	712.00	718.00	719.00	681.00	656.00	632.00	603.00	575.00	564.00	557.00	551.00	544.00	544.00	543.00	541.00	533.00	530.00	526.00	520.00	517.00	519.00	523.00	527.00	530.00	558.00	579.00	596.00	606.00	610.00	595.00	586.00	575.00	562.00	539.00	520.00	515.00	510.00	507.00	501.00	498.00	496.00	493.00	488.00	487.00	488.00	483.00	482.00	471.00	458.00	435.00	447.00	467.00	472.00	482.00	484.00	482.00	484.00	485.00	481.00	472.00	457.00	450.00	442.00	434.00	423.00	442.00	463.00	466.00	474.00	474.00	474.00	480.00	485.00	489.00	492.00	496.00	499.00	510.00	512.00	511.00	514.00	515.00	516.00	516.00	512.00	508.00	508.00	510.00	513.00	514.00	516.00	521.00	525.00	524.00	525.00	525.00	528.00	529.00	530.00	532.00	532.00	532.00	534.00	536.00	533.00	534.00	536.00	533.00	527.00	525.00	525.00	524.00	525.00	527.00	532.00	536.00	539.00	546.00	553.00	576.00	583.00	587.00	594.00	612.00	618.00	623.00	634.00
436.00	455.00	466.00	481.00	502.00	566.00	661.00	698.00	722.00	734.00	696.00	663.00	640.00	640.00	677.00	727.00	777.00	837.00	837.00	776.00	737.00	698.00	660.00	598.00	577.00	563.00	554.00	547.00	521.00	513.00	510.00	509.00	511.00	512.00	513.00	515.00	520.00	545.00	557.00	568.00	574.00	575.00	575.00	573.00	577.00	591.00	627.00	645.00	637.00	629.00	625.00	621.00	618.00	618.00	620.00	644.00	657.00	664.00	665.00	692.00	726.00	761.00	794.00	818.00	815.00	790.00	760.00	728.00	684.00	682.00	684.00	679.00	667.00	625.00	600.00	569.00	541.00	514.00	515.00	520.00	532.00	536.00	552.00	564.00	580.00	597.00	626.00	637.00	647.00	658.00	674.00	678.00	684.00	692.00	700.00	709.00	704.00	695.00	684.00	670.00	674.00	688.00	700.00	709.00	717.00	723.00	739.00	766.00	801.00	858.00	860.00	832.00	825.00	855.00	880.00	899.00	902.00	892.00	851.00	834.00	831.00	844.00	876.00	847.00	812.00	788.00	776.00	767.00	760.00	743.00	725.00	694.00	677.00	665.00	645.00	621.00	609.00	605.00	597.00	590.00	568.00	559.00	553.00	545.00	529.00	523.00	520.00	521.00	520.00	513.00	508.00	503.00	502.00	518.00	519.00	520.00	523.00	523.00	520.00	519.00	513.00	509.00	500.00	498.00	496.00	494.00	490.00	490.00	490.00	488.00	487.00	483.00	482.00	481.00	481.00	477.00	455.00	442.00	446.00	457.00	469.00	475.00	478.00	479.00	483.00	491.00	490.00	487.00	483.00	481.00	482.00	473.00	455.00	430.00	430.00	446.00	450.00	455.00	462.00	468.00	472.00	474.00	478.00	492.00	499.00	506.00	506.00	508.00	504.00	499.00	497.00	499.00	498.00	494.00	493.00	496.00	511.00	512.00	514.00	514.00	513.00	511.00	511.00	512.00	515.00	516.00	516.00	515.00	518.00	520.00	522.00	522.00	517.00	516.00	513.00	513.00	513.00	518.00	520.00	526.00	532.00	538.00	546.00	559.00	566.00	574.00	587.00	596.00	624.00	632.00	640.00	647.00	653.00	660.00	669.00	679.00
436.00	455.00	466.00	481.00	502.00	566.00	661.00	698.00	722.00	734.00	696.00	663.00	640.00	640.00	677.00	727.00	777.00	837.00	837.00	776.00	737.00	698.00	660.00	598.00	577.00	563.00	554.00	547.00	521.00	513.00	510.00	509.00	511.00	512.00	513.00	515.00	520.00	545.00	557.00	568.00	574.00	575.00	575.00	573.00	577.00	591.00	627.00	645.00	637.00	629.00	625.00	621.00	618.00	618.00	620.00	644.00	657.00	664.00	665.00	692.00	726.00	761.00	794.00	818.00	815.00	790.00	760.00	728.00	684.00	682.00	684.00	679.00	667.00	625.00	600.00	569.00	541.00	514.00	515.00	520.00	532.00	536.00	552.00	564.00	580.00	597.00	626.00	637.00	647.00	658.00	674.00	678.00	684.00	692.00	700.00	709.00	704.00	695.00	684.00	670.00	674.00	688.00	700.00	709.00	717.00	723.00	739.00	766.00	801.00	858.00	860.00	832.00	825.00	855.00	880.00	899.00	902.00	892.00	851.00	834.00	831.00	844.00	876.00	847.00	812.00	788.00	776.00	767.00	760.00	743.00	725.00	694.00	677.00	665.00	645.00	621.00	609.00	605.00	597.00	590.00	568.00	559.00	553.00	545.00	529.00	523.00	520.00	521.00	520.00	513.00	508.00	503.00	502.00	518.00	519.00	520.00	523.00	523.00	520.00	519.00	513.00	509.00	500.00	498.00	496.00	494.00	490.00	490.00	490.00	488.00	487.00	483.00	482.00	481.00	481.00	477.00	455.00	442.00	446.00	457.00	469.00	475.00	478.00	479.00	483.00	491.00	490.00	487.00	483.00	481.00	482.00	473.00	455.00	430.00	430.00	446.00	450.00	455.00	462.00	468.00	472.00	474.00	478.00	492.00	499.00	506.00	506.00	508.00	504.00	499.00	497.00	499.00	498.00	494.00	493.00	496.00	511.00	512.00	514.00	514.00	513.00	511.00	511.00	512.00	515.00	516.00	516.00	515.00	518.00	520.00	522.00	522.00	517.00	516.00	513.00	513.00	513.00	518.00	520.00	526.00	532.00	538.00	546.00	559.00	566.00	574.00	587.00	596.00	624.00	632.00	640.00	647.00	653.00	660.00	669.00	679.00
470.00	490.00	504.00	522.00	550.00	659.00	761.00	791.00	807.00	811.00	782.00	774.00	781.00	793.00	810.00	826.00	835.00	810.00	781.00	722.00	702.00	681.00	652.00	595.00	577.00	569.00	567.00	565.00	538.00	534.00	533.00	530.00	519.00	518.00	523.00	533.00	544.00	595.00	605.00	616.00	626.00	647.00	647.00	636.00	619.00	601.00	588.00	591.00	595.00	596.00	597.00	593.00	589.00	587.00	585.00	591.00	599.00	606.00	615.00	676.00	705.00	732.00	755.00	769.00	767.00	742.00	707.00	674.00	646.00	665.00	678.00	688.00	692.00	671.00	633.00	590.00	554.00	514.00	514.00	518.00	525.00	530.00	546.00	556.00	568.00	582.00	601.00	609.00	615.00	618.00	627.00	636.00	642.00	651.00	663.00	678.00	676.00	671.00	661.00	647.00	623.00	627.00	637.00	649.00	677.00	691.00	708.00	725.00	740.00	755.00	751.00	740.00	756.00	805.00	816.00	810.00	790.00	771.00	784.00	812.00	849.00	884.00	895.00	868.00	840.00	816.00	794.00	749.00	730.00	713.00	692.00	662.00	688.00	700.00	698.00	692.00	658.00	634.00	610.00	605.00	597.00	601.00	618.00	630.00	594.00	569.00	545.00	533.00	520.00	506.00	501.00	498.00	496.00	493.00	491.00	490.00	490.00	494.00	496.00	494.00	493.00	491.00	490.00	487.00	486.00	488.00	490.00	490.00	488.00	485.00	485.00	481.00	476.00	476.00	473.00	471.00	443.00	448.00	459.00	467.00	477.00	479.00	478.00	482.00	485.00	482.00	482.00	483.00	484.00	484.00	483.00	476.00	470.00	465.00	460.00	444.00	444.00	439.00	435.00	442.00	447.00	452.00	463.00	479.00	482.00	483.00	483.00	488.00	487.00	483.00	480.00	478.00	475.00	478.00	482.00	491.00	492.00	493.00	493.00	491.00	493.00	499.00	504.00	507.00	510.00	508.00	511.00	511.00	510.00	510.00	509.00	507.00	508.00	511.00	514.00	517.00	520.00	527.00	531.00	546.00	551.00	557.00	565.00	580.00	590.00	603.00	618.00	630.00	660.00	670.00	678.00	683.00	699.00	708.00	715.00	721.00
470.00	490.00	504.00	522.00	550.00	659.00	761.00	791.00	807.00	811.00	782.00	774.00	781.00	793.00	810.00	826.00	835.00	810.00	781.00	722.00	702.00	681.00	652.00	595.00	577.00	569.00	567.00	565.00	538.00	534.00	533.00	530.00	519.00	518.00	523.00	533.00	544.00	595.00	605.00	616.00	626.00	647.00	647.00	636.00	619.00	601.00	588.00	591.00	595.00	596.00	597.00	593.00	589.00	587.00	585.00	591.00	599.00	606.00	615.00	676.00	705.00	732.00	755.00	769.00	767.00	742.00	707.00	674.00	646.00	665.00	678.00	688.00	692.00	671.00	633.00	590.00	554.00	514.00	514.00	518.00	525.00	530.00	546.00	556.00	568.00	582.00	601.00	609.00	615.00	618.00	627.00	636.00	642.00	651.00	663.00	678.00	676.00	671.00	661.00	647.00	623.00	627.00	637.00	649.00	677.00	691.00	708.00	725.00	740.00	755.00	751.00	740.00	756.00	805.00	816.00	810.00	790.00	771.00	784.00	812.00	849.00	884.00	895.00	868.00	840.00	816.00	794.00	749.00	730.00	713.00	692.00	662.00	688.00	700.00	698.00	692.00	658.00	634.00	610.00	605.00	597.00	601.00	618.00	630.00	594.00	569.00	545.00	533.00	520.00	506.00	501.00	498.00	496.00	493.00	491.00	490.00	490.00	494.00	496.00	494.00	493.00	491.00	490.00	487.00	486.00	488.00	490.00	490.00	488.00	485.00	485.00	481.00	476.00	476.00	473.00	471.00	443.00	448.00	459.00	467.00	477.00	479.00	478.00	482.00	485.00	482.00	482.00	483.00	484.00	484.00	483.00	476.00	470.00	465.00	460.00	444.00	444.00	439.00	435.00	442.00	447.00	452.00	463.00	479.00	482.00	483.00	483.00	488.00	487.00	483.00	480.00	478.00	475.00	478.00	482.00	491.00	492.00	493.00	493.00	491.00	493.00	499.00	504.00	507.00	510.00	508.00	511.00	511.00	510.00	510.00	509.00	507.00	508.00	511.00	514.00	517.00	520.00	527.00	531.00	546.00	551.00	557.00	565.00	580.00	590.00	603.00	618.00	630.00	660.00	670.00	678.00	683.00	699.00	708.00	715.00	721.00
470.00	490.00	504.00	522.00	550.00	659.00	761.00	791.00	807.00	811.00	782.00	774.00	781.00	793.00	810.00	826.00	835.00	810.00	781.00	722.00	702.00	681.00	652.00	595.00	577.00	569.00	567.00	565.00	538.00	534.00	533.00	530.00	519.00	518.00	523.00	533.00	544.00	595.00	605.00	616.00	626.00	647.00	647.00	636.00	619.00	601.00	588.00	591.00	595.00	596.00	597.00	593.00	589.00	587.00	585.00	591.00	599.00	606.00	615.00	676.00	705.00	732.00	755.00	769.00	767.00	742.00	707.00	674.00	646.00	665.00	678.00	688.00	692.00	671.00	633.00	590.00	554.00	514.00	514.00	518.00	525.00	530.00	546.00	556.00	568.00	582.00	601.00	609.00	615.00	618.00	627.00	636.00	642.00	651.00	663.00	678.00	676.00	671.00	661.00	647.00	623.00	627.00	637.00	649.00	677.00	691.00	708.00	725.00	740.00	755.00	751.00	740.00	756.00	805.00	816.00	810.00	790.00	771.00	784.00	812.00	849.00	884.00	895.00	868.00	840.00	816.00	794.00	749.00	730.00	713.00	692.00	662.00	688.00	700.00	698.00	692.00	658.00	634.00	610.00	605.00	597.00	601.00	618.00	630.00	594.00	569.00	545.00	533.00	520.00	506.00	501.00	498.00	496.00	493.00	491.00	490.00	490.00	494.00	496.00	494.00	493.00	491.00	490.00	487.00	486.00	488.00	490.00	490.00	488.00	485.00	485.00	481.00	476.00	476.00	473.00	471.00	443.00	448.00	459.00	467.00	477.00	479.00	478.00	482.00	485.00	482.00	482.00	483.00	484.00	484.00	483.00	476.00	470.00	465.00	460.00	444.00	444.00	439.00	435.00	442.00	447.00	452.00	463.00	479.00	482.00	483.00	483.00	488.00	487.00	483.00	480.00	478.00	475.00	478.00	482.00	491.00	492.00	493.00	493.00	491.00	493.00	499.00	504.00	507.00	510.00	508.00	511.00	511.00	510.00	510.00	509.00	507.00	508.00	511.00	514.00	517.00	520.00	527.00	531.00	546.00	551.00	557.00	565.00	580.00	590.00	603.00	618.00	630.00	660.00	670.00	678.00	683.00	699.00	708.00	715.00	721.00
565.00	550.00	552.00	566.00	587.00	646.00	707.00	731.00	754.00	778.00	819.00	838.00	854.00	865.00	883.00	881.00	850.00	763.00	724.00	661.00	638.00	625.00	618.00	619.00	627.00	631.00	627.00	610.00	548.00	546.00	548.00	549.00	539.00	537.00	541.00	555.00	576.00	636.00	655.00	676.00	697.00	721.00	727.00	728.00	712.00	685.00	636.00	625.00	610.00	603.00	592.00	585.00	577.00	571.00	568.00	567.00	572.00	580.00	590.00	633.00	653.00	669.00	680.00	682.00	664.00	649.00	627.00	603.00	585.00	616.00	627.00	629.00	624.00	600.00	573.00	544.00	523.00	509.00	512.00	519.00	549.00	572.00	608.00	619.00	625.00	622.00	608.00	604.00	607.00	612.00	626.00	635.00	638.00	641.00	644.00	651.00	653.00	655.00	650.00	639.00	604.00	604.00	610.00	618.00	647.00	658.00	667.00	672.00	676.00	672.00	670.00	678.00	687.00	702.00	703.00	696.00	696.00	711.00	762.00	787.00	806.00	821.00	861.00	871.00	885.00	898.00	889.00	841.00	821.00	808.00	795.00	791.00	805.00	795.00	774.00	744.00	690.00	675.00	663.00	666.00	691.00	707.00	714.00	692.00	640.00	615.00	588.00	565.00	543.00	516.00	508.00	506.00	502.00	492.00	487.00	482.00	479.00	476.00	483.00	484.00	483.00	482.00	482.00	485.00	486.00	487.00	488.00	484.00	485.00	485.00	481.00	478.00	476.00	473.00	465.00	458.00	445.00	451.00	456.00	459.00	466.00	469.00	475.00	482.00	485.00	481.00	481.00	482.00	482.00	480.00	480.00	480.00	478.00	483.00	492.00	491.00	487.00	478.00	457.00	450.00	446.00	446.00	447.00	447.00	445.00	444.00	450.00	455.00	455.00	454.00	453.00	456.00	471.00	474.00	477.00	478.00	483.00	485.00	484.00	483.00	482.00	484.00	489.00	492.00	492.00	498.00	498.00	501.00	502.00	503.00	507.00	512.00	518.00	522.00	528.00	531.00	534.00	539.00	544.00	554.00	559.00	563.00	569.00	586.00	593.00	606.00	623.00	638.00	680.00	689.00	699.00	706.00	717.00	722.00	732.00	740.00
565.00	550.00	552.00	566.00	587.00	646.00	707.00	731.00	754.00	778.00	819.00	838.00	854.00	865.00	883.00	881.00	850.00	763.00	724.00	661.00	638.00	625.00	618.00	619.00	627.00	631.00	627.00	610.00	548.00	546.00	548.00	549.00	539.00	537.00	541.00	555.00	576.00	636.00	655.00	676.00	697.00	721.00	727.00	728.00	712.00	685.00	636.00	625.00	610.00	603.00	592.00	585.00	577.00	571.00	568.00	567.00	572.00	580.00	590.00	633.00	653.00	669.00	680.00	682.00	664.00	649.00	627.00	603.00	585.00	616.00	627.00	629.00	624.00	600.00	573.00	544.00	523.00	509.00	512.00	519.00	549.00	572.00	608.00	619.00	625.00	622.00	608.00	604.00	607.00	612.00	626.00	635.00	638.00	641.00	644.00	651.00	653.00	655.00	650.00	639.00	604.00	604.00	610.00	618.00	647.00	658.00	667.00	672.00	676.00	672.00	670.00	678.00	687.00	702.00	703.00	696.00	696.00	711.00	762.00	787.00	806.00	821.00	861.00	871.00	885.00	898.00	889.00	841.00	821.00	808.00	795.00	791.00	805.00	795.00	774.00	744.00	690.00	675.00	663.00	666.00	691.00	707.00	714.00	692.00	640.00	615.00	588.00	565.00	543.00	516.00	508.00	506.00	502.00	492.00	487.00	482.00	479.00	476.00	483.00	484.00	483.00	482.00	482.00	485.00	486.00	487.00	488.00	484.00	485.00	485.00	481.00	478.00	476.00	473.00	465.00	458.00	445.00	451.00	456.00	459.00	466.00	469.00	475.00	482.00	485.00	481.00	481.00	482.00	482.00	480.00	480.00	480.00	478.00	483.00	492.00	491.00	487.00	478.00	457.00	450.00	446.00	446.00	447.00	447.00	445.00	444.00	450.00	455.00	455.00	454.00	453.00	456.00	471.00	474.00	477.00	478.00	483.00	485.00	484.00	483.00	482.00	484.00	489.00	492.00	492.00	498.00	498.00	501.00	502.00	503.00	507.00	512.00	518.00	522.00	528.00	531.00	534.00	539.00	544.00	554.00	559.00	563.00	569.00	586.00	593.00	606.00	623.00	638.00	680.00	689.00	699.00	706.00	717.00	722.00	732.00	740.00
