157.00	157.00	157.00	157.00	157.00	157.00	157.00	157.00	157.00	157.00	157.00	157.00	168.00	239.00	231.00	216.00	232.00	240.00	237.00	231.00	227.00	228.00	230.00	222.00	213.00	206.00	196.00	187.00	180.00	174.00	171.00	165.00	157.00	157.00	157.00	157.00	157.00	157.00	157.00	157.00	157.00	157.00	157.00	157.00	157.00	157.00	157.00	157.00	157.00	157.00	157.00	157.00	157.00	157.00	157.00	157.00	157.00	157.00	157.00	157.00	157.00	157.00	157.00	157.00	157.00	157.00	157.00	157.00	179.00	213.00	235.00	250.00	258.00	273.00	278.00	284.00	283.00	284.00	295.00	296.00	289.00	294.00	291.00	275.00	253.00	216.00	158.00	157.00	157.00	157.00	157.00	157.00	157.00	157.00	157.00	157.00	157.00	157.00	157.00	157.00	157.00	157.00	157.00	157.00	157.00	157.00	157.00	157.00	160.00	223.00	266.00	279.00	288.00	314.00	320.00	327.00	338.00	349.00	234.00	213.00	193.00	170.00	157.00	157.00	157.00	157.00	157.00	157.00	157.00	157.00	157.00	157.00	157.00	157.00	157.00	157.00	157.00	157.00	157.00	157.00	157.00	157.00	157.00	157.00	157.00	157.00	157.00	157.00	157.00	157.00	157.00	157.00	157.00	157.00	157.00	157.00	157.00	157.00	157.00	157.00	157.00	157.00	157.00	157.00	157.00	157.00	157.00	157.00	157.00	157.00	157.00	157.00	157.00	157.00	157.00	157.00	157.00	157.00	157.00	157.00	157.00	157.00	157.00	157.00	157.00	157.00	157.00	157.00	157.00	157.00	157.00	157.00	157.00	157.00	157.00	157.00	157.00	157.00	157.00	157.00	157.00	157.00	157.00	157.00	157.00	159.00	157.00	157.00	157.00	157.00	157.00	157.00	157.00	157.00	157.00	157.00	157.00	157.00	157.00	157.00	157.00	157.00	157.00	157.00	157.00	157.00	157.00	157.00	157.00	157.00	157.00	157.00	157.00	157.00	157.00	157.00	157.00	157.00	157.00	157.00	157.00	157.00	157.00	157.00	157.00	157.00	157.00	157.00	157.00	157.00	157.00	157.00	157.00	157.00	157.00	157.00
157.00	157.00	157.00	157.00	157.00	157.00	157.00	157.00	157.00	157.00	157.00	157.00	168.00	239.00	231.00	216.00	232.00	240.00	237.00	231.00	227.00	228.00	230.00	222.00	213.00	206.00	196.00	187.00	180.00	174.00	171.00	165.00	157.00	157.00	157.00	157.00	157.00	157.00	157.00	157.00	157.00	157.00	157.00	157.00	157.00	157.00	157.00	157.00	157.00	157.00	157.00	157.00	157.00	157.00	157.00	157.00	157.00	157.00	157.00	157.00	157.00	157.00	157.00	157.00	157.00	157.00	157.00	157.00	179.00	213.00	235.00	250.00	258.00	273.00	278.00	284.00	283.00	284.00	295.00	296.00	289.00	294.00	291.00	275.00	253.00	216.00	158.00	157.00	157.00	157.00	157.00	157.00	157.00	157.00	157.00	157.00	157.00	157.00	157.00	157.00	157.00	157.00	157.00	157.00	157.00	157.00	157.00	157.00	160.00	223.00	266.00	279.00	288.00	314.00	320.00	327.00	338.00	349.00	234.00	213.00	193.00	170.00	157.00	157.00	157.00	157.00	157.00	157.00	157.00	157.00	157.00	157.00	157.00	157.00	157.00	157.00	157.00	157.00	157.00	157.00	157.00	157.00	157.00	157.00	157.00	157.00	157.00	157.00	157.00	157.00	157.00	157.00	157.00	157.00	157.00	157.00	157.00	157.00	157.00	157.00	157.00	157.00	157.00	157.00	157.00	157.00	157.00	157.00	157.00	157.00	157.00	157.00	157.00	157.00	157.00	157.00	157.00	157.00	157.00	157.00	157.00	157.00	157.00	157.00	157.00	157.00	157.00	157.00	157.00	157.00	157.00	157.00	157.00	157.00	157.00	157.00	157.00	157.00	157.00	157.00	157.00	157.00	157.00	157.00	157.00	159.00	157.00	157.00	157.00	157.00	157.00	157.00	157.00	157.00	157.00	157.00	157.00	157.00	157.00	157.00	157.00	157.00	157.00	157.00	157.00	157.00	157.00	157.00	157.00	157.00	157.00	157.00	157.00	157.00	157.00	157.00	157.00	157.00	157.00	157.00	157.00	157.00	157.00	157.00	157.00	157.00	157.00	157.00	157.00	157.00	157.00	157.00	157.00	157.00	157.00	157.00
157.00	157.00	157.00	157.00	157.00	157.00	166.00	174.00	183.00	173.00	198.00	195.00	219.00	222.00	223.00	224.00	223.00	217.00	212.00	197.00	194.00	192.00	190.00	195.00	189.00	181.00	171.00	162.00	158.00	157.00	157.00	157.00	157.00	157.00	157.00	157.00	157.00	157.00	157.00	157.00	157.00	157.00	157.00	157.00	157.00	157.00	157.00	157.00	157.00	157.00	157.00	157.00	157.00	157.00	157.00	157.00	157.00	157.00	157.00	157.00	157.00	157.00	157.00	157.00	157.00	160.00	190.00	232.00	273.00	274.00	268.00	263.00	260.00	257.00	256.00	256.00	259.00	267.00	271.00	270.00	270.00	270.00	271.00	276.00	293.00	307.00	227.00	189.00	168.00	159.00	157.00	157.00	157.00	157.00	157.00	157.00	157.00	157.00	157.00	157.00	157.00	157.00	157.00	157.00	157.00	157.00	157.00	157.00	160.00	198.00	229.00	254.00	279.00	293.00	293.00	292.00	302.00	310.00	310.00	281.00	263.00	233.00	186.00	171.00	160.00	157.00	157.00	157.00	157.00	157.00	157.00	165.00	171.00	162.00	157.00	157.00	157.00	157.00	157.00	157.00	157.00	157.00	157.00	157.00	157.00	157.00	157.00	157.00	157.00	157.00	157.00	157.00	157.00	157.00	157.00	157.00	157.00	157.00	157.00	157.00	157.00	157.00	157.00	157.00	157.00	157.00	157.00	157.00	157.00	157.00	157.00	157.00	157.00	157.00	157.00	157.00	157.00	157.00	157.00	157.00	157.00	157.00	157.00	157.00	157.00	157.00	157.00	157.00	157.00	158.00	157.00	157.00	157.00	157.00	157.00	157.00	157.00	157.00	157.00	157.00	159.00	160.00	172.00	195.00	218.00	228.00	213.00	184.00	172.00	165.00	159.00	157.00	157.00	157.00	157.00	157.00	157.00	157.00	157.00	157.00	157.00	157.00	157.00	157.00	157.00	157.00	157.00	157.00	157.00	157.00	157.00	157.00	157.00	157.00	157.00	157.00	157.00	157.00	157.00	157.00	157.00	157.00	157.00	157.00	157.00	157.00	157.00	157.00	157.00	157.00	157.00	157.00	157.00	157.00	157.00	157.00
157.00	157.00	157.00	158.00	163.00	199.00	229.00	228.00	225.00	216.00	210.00	206.00	202.00	192.00	188.00	186.00	184.00	187.00	179.00	175.00	172.00	163.00	161.00	166.00	170.00	166.00	157.00	157.00	157.00	157.00	157.00	157.00	157.00	157.00	157.00	157.00	157.00	157.00	157.00	157.00	157.00	157.00	157.00	157.00	157.00	157.00	157.00	157.00	157.00	157.00	157.00	157.00	157.00	157.00	157.00	157.00	157.00	157.00	157.00	157.00	157.00	157.00	157.00	157.00	182.00	237.00	250.00	247.00	245.00	242.00	238.00	236.00	234.00	231.00	231.00	231.00	240.00	243.00	244.00	250.00	248.00	236.00	227.00	235.00	261.00	288.00	308.00	267.00	227.00	204.00	189.00	195.00	195.00	194.00	196.00	208.00	222.00	219.00	215.00	217.00	204.00	186.00	166.00	157.00	157.00	157.00	157.00	157.00	157.00	201.00	243.00	255.00	254.00	265.00	264.00	264.00	267.00	272.00	321.00	342.00	348.00	329.00	251.00	222.00	192.00	163.00	158.00	165.00	177.00	178.00	191.00	229.00	242.00	252.00	253.00	186.00	164.00	157.00	157.00	157.00	157.00	157.00	157.00	157.00	157.00	157.00	157.00	157.00	157.00	157.00	157.00	157.00	157.00	157.00	157.00	157.00	157.00	157.00	157.00	157.00	157.00	157.00	157.00	157.00	157.00	157.00	157.00	157.00	157.00	157.00	157.00	157.00	157.00	158.00	160.00	160.00	161.00	162.00	163.00	164.00	174.00	175.00	175.00	177.00	176.00	175.00	177.00	180.00	182.00	207.00	211.00	181.00	182.00	184.00	175.00	170.00	171.00	179.00	219.00	251.00	279.00	305.00	348.00	376.00	380.00	378.00	383.00	354.00	327.00	283.00	238.00	215.00	158.00	157.00	157.00	157.00	157.00	157.00	157.00	157.00	157.00	157.00	157.00	157.00	157.00	157.00	157.00	157.00	157.00	157.00	157.00	157.00	157.00	157.00	157.00	157.00	157.00	157.00	157.00	157.00	157.00	157.00	157.00	157.00	157.00	157.00	157.00	157.00	157.00	157.00	157.00	157.00	157.00	157.00	157.00	157.00
157.00	157.00	157.00	158.00	163.00	199.00	229.00	228.00	225.00	216.00	210.00	206.00	202.00	192.00	188.00	186.00	184.00	187.00	179.00	175.00	172.00	163.00	161.00	166.00	170.00	166.00	157.00	157.00	157.00	157.00	157.00	157.00	157.00	157.00	157.00	157.00	157.00	157.00	157.00	157.00	157.00	157.00	157.00	157.00	157.00	157.00	157.00	157.00	157.00	157.00	157.00	157.00	157.00	157.00	157.00	157.00	157.00	157.00	157.00	157.00	157.00	157.00	157.00	157.00	182.00	237.00	250.00	247.00	245.00	242.00	238.00	236.00	234.00	231.00	231.00	231.00	240.00	243.00	244.00	250.00	248.00	236.00	227.00	235.00	261.00	288.00	308.00	267.00	227.00	204.00	189.00	195.00	195.00	194.00	196.00	208.00	222.00	219.00	215.00	217.00	204.00	186.00	166.00	157.00	157.00	157.00	157.00	157.00	157.00	201.00	243.00	255.00	254.00	265.00	264.00	264.00	267.00	272.00	321.00	342.00	348.00	329.00	251.00	222.00	192.00	163.00	158.00	165.00	177.00	178.00	191.00	229.00	242.00	252.00	253.00	186.00	164.00	157.00	157.00	157.00	157.00	157.00	157.00	157.00	157.00	157.00	157.00	157.00	157.00	157.00	157.00	157.00	157.00	157.00	157.00	157.00	157.00	157.00	157.00	157.00	157.00	157.00	157.00	157.00	157.00	157.00	157.00	157.00	157.00	157.00	157.00	157.00	157.00	158.00	160.00	160.00	161.00	162.00	163.00	164.00	174.00	175.00	175.00	177.00	176.00	175.00	177.00	180.00	182.00	207.00	211.00	181.00	182.00	184.00	175.00	170.00	171.00	179.00	219.00	251.00	279.00	305.00	348.00	376.00	380.00	378.00	383.00	354.00	327.00	283.00	238.00	215.00	158.00	157.00	157.00	157.00	157.00	157.00	157.00	157.00	157.00	157.00	157.00	157.00	157.00	157.00	157.00	157.00	157.00	157.00	157.00	157.00	157.00	157.00	157.00	157.00	157.00	157.00	157.00	157.00	157.00	157.00	157.00	157.00	157.00	157.00	157.00	157.00	157.00	157.00	157.00	157.00	157.00	157.00	157.00	157.00
157.00	158.00	184.00	189.00	198.00	191.00	190.00	186.00	184.00	180.00	169.00	165.00	164.00	166.00	161.00	158.00	157.00	157.00	157.00	158.00	157.00	157.00	157.00	157.00	157.00	157.00	157.00	157.00	157.00	157.00	157.00	157.00	157.00	157.00	157.00	157.00	157.00	157.00	157.00	157.00	157.00	157.00	157.00	157.00	157.00	157.00	157.00	157.00	157.00	157.00	157.00	157.00	157.00	157.00	157.00	157.00	157.00	157.00	157.00	157.00	157.00	157.00	171.00	212.00	237.00	230.00	220.00	213.00	213.00	208.00	206.00	205.00	201.00	202.00	203.00	205.00	216.00	215.00	214.00	215.00	213.00	197.00	185.00	195.00	227.00	260.00	292.00	279.00	277.00	293.00	312.00	326.00	345.00	349.00	355.00	376.00	358.00	355.00	354.00	344.00	296.00	260.00	209.00	164.00	157.00	157.00	157.00	157.00	160.00	226.00	235.00	237.00	236.00	221.00	223.00	229.00	228.00	229.00	272.00	295.00	317.00	336.00	312.00	268.00	246.00	223.00	215.00	227.00	294.00	315.00	327.00	304.00	294.00	287.00	276.00	266.00	255.00	234.00	225.00	215.00	213.00	210.00	202.00	192.00	182.00	177.00	171.00	167.00	166.00	176.00	183.00	189.00	192.00	192.00	188.00	182.00	174.00	168.00	157.00	157.00	157.00	157.00	157.00	157.00	158.00	161.00	167.00	178.00	185.00	192.00	210.00	220.00	233.00	240.00	243.00	242.00	239.00	236.00	235.00	235.00	239.00	239.00	237.00	240.00	242.00	243.00	250.00	262.00	280.00	291.00	303.00	295.00	298.00	309.00	321.00	338.00	342.00	351.00	366.00	369.00	374.00	375.00	393.00	395.00	396.00	399.00	404.00	412.00	423.00	422.00	386.00	312.00	186.00	159.00	157.00	157.00	157.00	157.00	157.00	157.00	157.00	157.00	157.00	157.00	157.00	157.00	157.00	157.00	157.00	157.00	157.00	157.00	157.00	157.00	157.00	157.00	157.00	157.00	157.00	157.00	157.00	157.00	157.00	157.00	157.00	157.00	157.00	157.00	157.00	157.00	157.00	157.00	157.00	157.00	157.00	157.00
157.00	159.00	157.00	158.00	158.00	158.00	160.00	159.00	157.00	157.00	157.00	157.00	157.00	157.00	157.00	157.00	157.00	157.00	157.00	157.00	157.00	157.00	157.00	157.00	157.00	157.00	157.00	157.00	157.00	157.00	157.00	157.00	157.00	157.00	157.00	157.00	157.00	157.00	157.00	157.00	157.00	157.00	157.00	157.00	157.00	158.00	157.00	157.00	157.00	157.00	157.00	157.00	157.00	157.00	157.00	157.00	157.00	157.00	157.00	157.00	158.00	196.00	230.00	227.00	212.00	201.00	189.00	185.00	184.00	178.00	180.00	176.00	172.00	174.00	173.00	175.00	173.00	179.00	174.00	169.00	164.00	164.00	168.00	190.00	210.00	233.00	261.00	275.00	310.00	334.00	346.00	357.00	355.00	360.00	365.00	369.00	364.00	355.00	348.00	352.00	365.00	355.00	305.00	212.00	158.00	157.00	157.00	201.00	235.00	228.00	229.00	216.00	204.00	189.00	195.00	196.00	195.00	201.00	244.00	271.00	295.00	320.00	330.00	318.00	300.00	269.00	250.00	272.00	324.00	349.00	358.00	403.00	391.00	388.00	376.00	356.00	371.00	382.00	385.00	372.00	329.00	316.00	304.00	294.00	288.00	280.00	274.00	268.00	272.00	295.00	296.00	294.00	288.00	276.00	261.00	254.00	252.00	246.00	215.00	204.00	203.00	210.00	231.00	242.00	248.00	251.00	260.00	280.00	290.00	294.00	311.00	325.00	324.00	316.00	324.00	340.00	352.00	356.00	364.00	369.00	366.00	361.00	351.00	350.00	351.00	348.00	347.00	366.00	373.00	372.00	370.00	353.00	360.00	347.00	340.00	336.00	332.00	334.00	338.00	339.00	346.00	353.00	371.00	381.00	385.00	386.00	391.00	409.00	414.00	414.00	418.00	379.00	241.00	191.00	165.00	158.00	157.00	157.00	157.00	157.00	157.00	157.00	157.00	157.00	157.00	157.00	157.00	157.00	157.00	157.00	157.00	157.00	157.00	157.00	157.00	157.00	157.00	157.00	157.00	157.00	157.00	157.00	157.00	157.00	157.00	157.00	157.00	157.00	157.00	157.00	157.00	157.00	157.00	157.00	157.00	157.00
157.00	159.00	157.00	158.00	158.00	158.00	160.00	159.00	157.00	157.00	157.00	157.00	157.00	157.00	157.00	157.00	157.00	157.00	157.00	157.00	157.00	157.00	157.00	157.00	157.00	157.00	157.00	157.00	157.00	157.00	157.00	157.00	157.00	157.00	157.00	157.00	157.00	157.00	157.00	157.00	157.00	157.00	157.00	157.00	157.00	158.00	157.00	157.00	157.00	157.00	157.00	157.00	157.00	157.00	157.00	157.00	157.00	157.00	157.00	157.00	158.00	196.00	230.00	227.00	212.00	201.00	189.00	185.00	184.00	178.00	180.00	176.00	172.00	174.00	173.00	175.00	173.00	179.00	174.00	169.00	164.00	164.00	168.00	190.00	210.00	233.00	261.00	275.00	310.00	334.00	346.00	357.00	355.00	360.00	365.00	369.00	364.00	355.00	348.00	352.00	365.00	355.00	305.00	212.00	158.00	157.00	157.00	201.00	235.00	228.00	229.00	216.00	204.00	189.00	195.00	196.00	195.00	201.00	244.00	271.00	295.00	320.00	330.00	318.00	300.00	269.00	250.00	272.00	324.00	349.00	358.00	403.00	391.00	388.00	376.00	356.00	371.00	382.00	385.00	372.00	329.00	316.00	304.00	294.00	288.00	280.00	274.00	268.00	272.00	295.00	296.00	294.00	288.00	276.00	261.00	254.00	252.00	246.00	215.00	204.00	203.00	210.00	231.00	242.00	248.00	251.00	260.00	280.00	290.00	294.00	311.00	325.00	324.00	316.00	324.00	340.00	352.00	356.00	364.00	369.00	366.00	361.00	351.00	350.00	351.00	348.00	347.00	366.00	373.00	372.00	370.00	353.00	360.00	347.00	340.00	336.00	332.00	334.00	338.00	339.00	346.00	353.00	371.00	381.00	385.00	386.00	391.00	409.00	414.00	414.00	418.00	379.00	241.00	191.00	165.00	158.00	157.00	157.00	157.00	157.00	157.00	157.00	157.00	157.00	157.00	157.00	157.00	157.00	157.00	157.00	157.00	157.00	157.00	157.00	157.00	157.00	157.00	157.00	157.00	157.00	157.00	157.00	157.00	157.00	157.00	157.00	157.00	157.00	157.00	157.00	157.00	157.00	157.00	157.00	157.00	157.00
157.00	157.00	157.00	157.00	157.00	157.00	157.00	157.00	157.00	157.00	157.00	157.00	157.00	157.00	157.00	157.00	157.00	157.00	157.00	157.00	157.00	157.00	157.00	157.00	157.00	157.00	157.00	157.00	157.00	157.00	157.00	157.00	157.00	157.00	157.00	157.00	157.00	157.00	157.00	157.00	157.00	157.00	157.00	157.00	157.00	157.00	157.00	157.00	157.00	157.00	157.00	157.00	157.00	157.00	157.00	157.00	157.00	157.00	157.00	174.00	193.00	196.00	201.00	195.00	184.00	177.00	169.00	169.00	163.00	161.00	161.00	157.00	158.00	158.00	157.00	157.00	157.00	157.00	157.00	157.00	157.00	157.00	158.00	165.00	176.00	189.00	229.00	268.00	301.00	300.00	303.00	309.00	316.00	317.00	321.00	329.00	333.00	328.00	330.00	326.00	342.00	355.00	342.00	275.00	212.00	197.00	169.00	231.00	217.00	196.00	198.00	192.00	171.00	166.00	167.00	169.00	174.00	181.00	220.00	246.00	272.00	299.00	348.00	373.00	354.00	313.00	272.00	256.00	312.00	313.00	325.00	381.00	395.00	391.00	386.00	384.00	390.00	402.00	405.00	411.00	413.00	408.00	402.00	392.00	407.00	416.00	414.00	405.00	403.00	400.00	395.00	391.00	380.00	351.00	345.00	352.00	372.00	383.00	373.00	351.00	350.00	344.00	375.00	385.00	375.00	371.00	375.00	400.00	395.00	391.00	390.00	388.00	373.00	365.00	380.00	374.00	372.00	380.00	380.00	382.00	375.00	366.00	356.00	349.00	346.00	343.00	341.00	340.00	338.00	329.00	330.00	327.00	321.00	308.00	309.00	308.00	305.00	304.00	312.00	317.00	326.00	336.00	353.00	363.00	369.00	375.00	384.00	401.00	406.00	405.00	410.00	403.00	308.00	273.00	246.00	225.00	199.00	198.00	196.00	193.00	189.00	173.00	159.00	157.00	157.00	157.00	157.00	157.00	157.00	157.00	157.00	157.00	157.00	157.00	157.00	157.00	157.00	157.00	157.00	157.00	157.00	157.00	157.00	157.00	157.00	157.00	157.00	157.00	157.00	157.00	157.00	157.00	157.00	157.00	157.00	157.00
157.00	157.00	157.00	157.00	157.00	157.00	157.00	157.00	157.00	157.00	157.00	157.00	157.00	157.00	157.00	157.00	157.00	157.00	157.00	157.00	157.00	157.00	157.00	157.00	157.00	157.00	157.00	157.00	157.00	157.00	157.00	157.00	157.00	157.00	157.00	157.00	157.00	157.00	157.00	157.00	157.00	157.00	157.00	157.00	157.00	157.00	157.00	157.00	157.00	157.00	157.00	157.00	157.00	157.00	157.00	157.00	157.00	157.00	157.00	174.00	193.00	196.00	201.00	195.00	184.00	177.00	169.00	169.00	163.00	161.00	161.00	157.00	158.00	158.00	157.00	157.00	157.00	157.00	157.00	157.00	157.00	157.00	158.00	165.00	176.00	189.00	229.00	268.00	301.00	300.00	303.00	309.00	316.00	317.00	321.00	329.00	333.00	328.00	330.00	326.00	342.00	355.00	342.00	275.00	212.00	197.00	169.00	231.00	217.00	196.00	198.00	192.00	171.00	166.00	167.00	169.00	174.00	181.00	220.00	246.00	272.00	299.00	348.00	373.00	354.00	313.00	272.00	256.00	312.00	313.00	325.00	381.00	395.00	391.00	386.00	384.00	390.00	402.00	405.00	411.00	413.00	408.00	402.00	392.00	407.00	416.00	414.00	405.00	403.00	400.00	395.00	391.00	380.00	351.00	345.00	352.00	372.00	383.00	373.00	351.00	350.00	344.00	375.00	385.00	375.00	371.00	375.00	400.00	395.00	391.00	390.00	388.00	373.00	365.00	380.00	374.00	372.00	380.00	380.00	382.00	375.00	366.00	356.00	349.00	346.00	343.00	341.00	340.00	338.00	329.00	330.00	327.00	321.00	308.00	309.00	308.00	305.00	304.00	312.00	317.00	326.00	336.00	353.00	363.00	369.00	375.00	384.00	401.00	406.00	405.00	410.00	403.00	308.00	273.00	246.00	225.00	199.00	198.00	196.00	193.00	189.00	173.00	159.00	157.00	157.00	157.00	157.00	157.00	157.00	157.00	157.00	157.00	157.00	157.00	157.00	157.00	157.00	157.00	157.00	157.00	157.00	157.00	157.00	157.00	157.00	157.00	157.00	157.00	157.00	157.00	157.00	157.00	157.00	157.00	157.00	157.00
157.00	157.00	157.00	157.00	157.00	157.00	157.00	157.00	157.00	157.00	157.00	157.00	157.00	157.00	157.00	157.00	157.00	157.00	157.00	157.00	157.00	157.00	157.00	157.00	157.00	157.00	157.00	157.00	157.00	157.00	157.00	157.00	157.00	157.00	157.00	157.00	157.00	157.00	157.00	157.00	157.00	157.00	157.00	157.00	158.00	157.00	157.00	157.00	157.00	157.00	157.00	157.00	157.00	157.00	157.00	157.00	157.00	157.00	157.00	199.00	203.00	194.00	176.00	171.00	163.00	159.00	158.00	157.00	157.00	157.00	157.00	157.00	157.00	157.00	157.00	157.00	157.00	157.00	157.00	157.00	157.00	157.00	157.00	157.00	157.00	167.00	219.00	253.00	268.00	271.00	270.00	279.00	279.00	284.00	299.00	302.00	301.00	298.00	296.00	304.00	311.00	329.00	310.00	262.00	257.00	243.00	196.00	202.00	186.00	163.00	162.00	161.00	158.00	157.00	157.00	157.00	159.00	165.00	211.00	229.00	254.00	280.00	342.00	360.00	381.00	387.00	343.00	317.00	290.00	277.00	300.00	351.00	369.00	373.00	372.00	371.00	375.00	376.00	378.00	391.00	406.00	406.00	405.00	393.00	406.00	407.00	409.00	410.00	400.00	387.00	386.00	378.00	376.00	371.00	374.00	388.00	399.00	398.00	398.00	398.00	385.00	380.00	384.00	374.00	367.00	372.00	364.00	347.00	344.00	344.00	347.00	344.00	334.00	337.00	340.00	343.00	342.00	341.00	339.00	342.00	327.00	318.00	310.00	307.00	308.00	309.00	305.00	300.00	293.00	291.00	293.00	291.00	278.00	278.00	277.00	272.00	272.00	273.00	288.00	305.00	318.00	330.00	337.00	352.00	361.00	368.00	377.00	393.00	396.00	405.00	412.00	399.00	388.00	382.00	365.00	364.00	340.00	350.00	354.00	342.00	321.00	270.00	235.00	223.00	212.00	187.00	174.00	165.00	159.00	157.00	157.00	157.00	157.00	157.00	157.00	157.00	157.00	157.00	157.00	157.00	157.00	157.00	157.00	157.00	157.00	157.00	157.00	157.00	157.00	157.00	157.00	157.00	157.00	157.00	157.00	157.00
157.00	157.00	157.00	157.00	157.00	157.00	157.00	157.00	157.00	157.00	157.00	157.00	157.00	157.00	157.00	157.00	157.00	157.00	157.00	157.00	157.00	157.00	157.00	157.00	157.00	157.00	157.00	157.00	158.00	157.00	157.00	157.00	157.00	157.00	157.00	157.00	157.00	157.00	158.00	162.00	161.00	160.00	162.00	181.00	187.00	180.00	161.00	157.00	157.00	157.00	157.00	157.00	157.00	157.00	157.00	157.00	157.00	158.00	176.00	177.00	171.00	160.00	157.00	157.00	157.00	157.00	157.00	157.00	157.00	157.00	157.00	157.00	157.00	157.00	157.00	157.00	157.00	157.00	157.00	157.00	157.00	157.00	157.00	157.00	157.00	157.00	210.00	230.00	244.00	243.00	247.00	247.00	248.00	262.00	268.00	267.00	270.00	263.00	271.00	276.00	286.00	297.00	302.00	310.00	315.00	295.00	213.00	168.00	161.00	157.00	157.00	157.00	157.00	157.00	157.00	157.00	157.00	157.00	205.00	233.00	268.00	289.00	317.00	331.00	346.00	358.00	384.00	325.00	268.00	273.00	296.00	322.00	347.00	350.00	344.00	349.00	348.00	347.00	352.00	367.00	371.00	372.00	368.00	362.00	367.00	369.00	371.00	373.00	368.00	367.00	369.00	365.00	361.00	360.00	371.00	367.00	375.00	384.00	370.00	347.00	343.00	348.00	336.00	338.00	334.00	326.00	308.00	303.00	303.00	300.00	302.00	301.00	307.00	302.00	305.00	304.00	314.00	306.00	302.00	297.00	288.00	275.00	270.00	269.00	272.00	273.00	269.00	263.00	263.00	264.00	265.00	256.00	251.00	249.00	258.00	260.00	268.00	272.00	288.00	307.00	313.00	315.00	331.00	355.00	366.00	375.00	380.00	387.00	392.00	393.00	395.00	390.00	375.00	369.00	357.00	358.00	357.00	365.00	372.00	381.00	382.00	390.00	325.00	304.00	298.00	278.00	263.00	244.00	224.00	199.00	171.00	164.00	159.00	157.00	157.00	157.00	157.00	157.00	157.00	157.00	157.00	157.00	157.00	157.00	157.00	157.00	157.00	157.00	157.00	157.00	157.00	157.00	157.00	157.00	157.00	157.00
157.00	157.00	157.00	157.00	157.00	157.00	157.00	157.00	157.00	157.00	157.00	157.00	157.00	157.00	157.00	157.00	157.00	157.00	157.00	157.00	157.00	157.00	157.00	157.00	157.00	157.00	157.00	157.00	158.00	157.00	157.00	157.00	157.00	157.00	157.00	157.00	157.00	157.00	158.00	162.00	161.00	160.00	162.00	181.00	187.00	180.00	161.00	157.00	157.00	157.00	157.00	157.00	157.00	157.00	157.00	157.00	157.00	158.00	176.00	177.00	171.00	160.00	157.00	157.00	157.00	157.00	157.00	157.00	157.00	157.00	157.00	157.00	157.00	157.00	157.00	157.00	157.00	157.00	157.00	157.00	157.00	157.00	157.00	157.00	157.00	157.00	210.00	230.00	244.00	243.00	247.00	247.00	248.00	262.00	268.00	267.00	270.00	263.00	271.00	276.00	286.00	297.00	302.00	310.00	315.00	295.00	213.00	168.00	161.00	157.00	157.00	157.00	157.00	157.00	157.00	157.00	157.00	157.00	205.00	233.00	268.00	289.00	317.00	331.00	346.00	358.00	384.00	325.00	268.00	273.00	296.00	322.00	347.00	350.00	344.00	349.00	348.00	347.00	352.00	367.00	371.00	372.00	368.00	362.00	367.00	369.00	371.00	373.00	368.00	367.00	369.00	365.00	361.00	360.00	371.00	367.00	375.00	384.00	370.00	347.00	343.00	348.00	336.00	338.00	334.00	326.00	308.00	303.00	303.00	300.00	302.00	301.00	307.00	302.00	305.00	304.00	314.00	306.00	302.00	297.00	288.00	275.00	270.00	269.00	272.00	273.00	269.00	263.00	263.00	264.00	265.00	256.00	251.00	249.00	258.00	260.00	268.00	272.00	288.00	307.00	313.00	315.00	331.00	355.00	366.00	375.00	380.00	387.00	392.00	393.00	395.00	390.00	375.00	369.00	357.00	358.00	357.00	365.00	372.00	381.00	382.00	390.00	325.00	304.00	298.00	278.00	263.00	244.00	224.00	199.00	171.00	164.00	159.00	157.00	157.00	157.00	157.00	157.00	157.00	157.00	157.00	157.00	157.00	157.00	157.00	157.00	157.00	157.00	157.00	157.00	157.00	157.00	157.00	157.00	157.00	157.00
157.00	157.00	157.00	157.00	157.00	157.00	157.00	157.00	157.00	157.00	157.00	157.00	157.00	157.00	157.00	157.00	157.00	157.00	157.00	157.00	157.00	157.00	157.00	157.00	157.00	164.00	172.00	178.00	169.00	161.00	157.00	157.00	157.00	158.00	157.00	157.00	157.00	160.00	162.00	161.00	160.00	158.00	158.00	159.00	168.00	167.00	160.00	157.00	157.00	157.00	157.00	157.00	157.00	157.00	157.00	157.00	157.00	157.00	158.00	157.00	157.00	157.00	157.00	157.00	157.00	157.00	157.00	157.00	157.00	157.00	157.00	157.00	157.00	157.00	157.00	157.00	157.00	157.00	157.00	157.00	157.00	157.00	157.00	157.00	157.00	157.00	176.00	186.00	200.00	205.00	204.00	204.00	213.00	225.00	228.00	238.00	239.00	244.00	244.00	245.00	252.00	264.00	279.00	282.00	279.00	271.00	186.00	157.00	157.00	157.00	157.00	157.00	157.00	157.00	157.00	157.00	157.00	158.00	190.00	210.00	235.00	261.00	291.00	290.00	291.00	320.00	324.00	275.00	295.00	268.00	287.00	302.00	311.00	309.00	310.00	312.00	316.00	321.00	327.00	329.00	335.00	334.00	333.00	337.00	341.00	342.00	342.00	344.00	342.00	338.00	339.00	339.00	340.00	339.00	333.00	327.00	328.00	325.00	316.00	309.00	297.00	299.00	291.00	283.00	274.00	268.00	271.00	271.00	276.00	272.00	266.00	261.00	269.00	269.00	280.00	281.00	267.00	255.00	244.00	245.00	250.00	253.00	258.00	255.00	252.00	239.00	237.00	229.00	229.00	227.00	228.00	232.00	235.00	239.00	256.00	265.00	269.00	273.00	280.00	281.00	288.00	298.00	322.00	346.00	356.00	357.00	356.00	359.00	356.00	346.00	338.00	330.00	324.00	323.00	322.00	323.00	320.00	326.00	335.00	343.00	352.00	368.00	376.00	376.00	377.00	372.00	377.00	364.00	325.00	290.00	248.00	232.00	214.00	189.00	168.00	161.00	158.00	157.00	157.00	157.00	157.00	157.00	157.00	157.00	157.00	157.00	157.00	157.00	157.00	157.00	157.00	157.00	157.00	157.00	157.00	157.00
157.00	159.00	157.00	157.00	157.00	157.00	157.00	157.00	157.00	157.00	157.00	157.00	157.00	157.00	157.00	157.00	157.00	157.00	157.00	157.00	157.00	157.00	157.00	178.00	211.00	224.00	209.00	197.00	174.00	159.00	157.00	157.00	157.00	159.00	157.00	157.00	157.00	157.00	157.00	157.00	157.00	157.00	157.00	157.00	157.00	157.00	157.00	157.00	157.00	157.00	157.00	157.00	157.00	157.00	157.00	157.00	157.00	157.00	157.00	157.00	157.00	157.00	157.00	157.00	157.00	157.00	157.00	157.00	157.00	157.00	157.00	157.00	157.00	157.00	157.00	157.00	157.00	157.00	157.00	157.00	157.00	157.00	157.00	157.00	157.00	157.00	157.00	157.00	164.00	171.00	163.00	170.00	185.00	192.00	203.00	207.00	207.00	212.00	210.00	211.00	225.00	233.00	248.00	255.00	263.00	226.00	159.00	157.00	157.00	157.00	157.00	157.00	157.00	157.00	157.00	157.00	157.00	167.00	203.00	223.00	242.00	250.00	279.00	288.00	285.00	264.00	246.00	285.00	306.00	276.00	276.00	283.00	285.00	276.00	273.00	280.00	289.00	293.00	296.00	294.00	291.00	290.00	300.00	302.00	298.00	294.00	297.00	297.00	296.00	298.00	294.00	289.00	296.00	310.00	308.00	300.00	288.00	287.00	279.00	277.00	270.00	260.00	249.00	242.00	240.00	240.00	243.00	232.00	229.00	225.00	225.00	233.00	229.00	222.00	220.00	221.00	220.00	219.00	217.00	218.00	219.00	225.00	227.00	226.00	220.00	212.00	206.00	207.00	208.00	212.00	218.00	226.00	225.00	226.00	227.00	233.00	241.00	247.00	261.00	261.00	271.00	282.00	302.00	300.00	294.00	288.00	293.00	281.00	279.00	284.00	280.00	279.00	294.00	298.00	299.00	298.00	306.00	311.00	314.00	321.00	324.00	336.00	350.00	359.00	369.00	398.00	408.00	418.00	424.00	406.00	316.00	298.00	288.00	266.00	237.00	221.00	203.00	185.00	173.00	160.00	157.00	157.00	157.00	157.00	157.00	157.00	157.00	157.00	157.00	157.00	157.00	157.00	157.00	157.00	157.00	157.00
157.00	159.00	157.00	157.00	157.00	157.00	157.00	157.00	157.00	157.00	157.00	157.00	157.00	157.00	157.00	157.00	157.00	157.00	157.00	157.00	157.00	157.00	157.00	178.00	211.00	224.00	209.00	197.00	174.00	159.00	157.00	157.00	157.00	159.00	157.00	157.00	157.00	157.00	157.00	157.00	157.00	157.00	157.00	157.00	157.00	157.00	157.00	157.00	157.00	157.00	157.00	157.00	157.00	157.00	157.00	157.00	157.00	157.00	157.00	157.00	157.00	157.00	157.00	157.00	157.00	157.00	157.00	157.00	157.00	157.00	157.00	157.00	157.00	157.00	157.00	157.00	157.00	157.00	157.00	157.00	157.00	157.00	157.00	157.00	157.00	157.00	157.00	157.00	164.00	171.00	163.00	170.00	185.00	192.00	203.00	207.00	207.00	212.00	210.00	211.00	225.00	233.00	248.00	255.00	263.00	226.00	159.00	157.00	157.00	157.00	157.00	157.00	157.00	157.00	157.00	157.00	157.00	167.00	203.00	223.00	242.00	250.00	279.00	288.00	285.00	264.00	246.00	285.00	306.00	276.00	276.00	283.00	285.00	276.00	273.00	280.00	289.00	293.00	296.00	294.00	291.00	290.00	300.00	302.00	298.00	294.00	297.00	297.00	296.00	298.00	294.00	289.00	296.00	310.00	308.00	300.00	288.00	287.00	279.00	277.00	270.00	260.00	249.00	242.00	240.00	240.00	243.00	232.00	229.00	225.00	225.00	233.00	229.00	222.00	220.00	221.00	220.00	219.00	217.00	218.00	219.00	225.00	227.00	226.00	220.00	212.00	206.00	207.00	208.00	212.00	218.00	226.00	225.00	226.00	227.00	233.00	241.00	247.00	261.00	261.00	271.00	282.00	302.00	300.00	294.00	288.00	293.00	281.00	279.00	284.00	280.00	279.00	294.00	298.00	299.00	298.00	306.00	311.00	314.00	321.00	324.00	336.00	350.00	359.00	369.00	398.00	408.00	418.00	424.00	406.00	316.00	298.00	288.00	266.00	237.00	221.00	203.00	185.00	173.00	160.00	157.00	157.00	157.00	157.00	157.00	157.00	157.00	157.00	157.00	157.00	157.00	157.00	157.00	157.00	157.00	157.00
157.00	157.00	157.00	157.00	157.00	157.00	157.00	157.00	157.00	157.00	157.00	157.00	157.00	157.00	157.00	157.00	157.00	157.00	157.00	157.00	157.00	157.00	157.00	198.00	199.00	196.00	200.00	212.00	199.00	187.00	178.00	187.00	172.00	157.00	157.00	157.00	157.00	157.00	157.00	157.00	157.00	157.00	157.00	157.00	157.00	157.00	157.00	157.00	157.00	157.00	157.00	157.00	157.00	157.00	157.00	157.00	157.00	157.00	157.00	157.00	157.00	157.00	157.00	157.00	157.00	157.00	157.00	157.00	157.00	157.00	157.00	157.00	157.00	157.00	157.00	157.00	157.00	157.00	157.00	157.00	157.00	157.00	157.00	157.00	157.00	157.00	157.00	157.00	157.00	157.00	157.00	157.00	157.00	159.00	173.00	170.00	178.00	186.00	188.00	187.00	190.00	208.00	228.00	235.00	222.00	164.00	157.00	157.00	157.00	157.00	157.00	157.00	157.00	157.00	157.00	157.00	157.00	157.00	204.00	216.00	220.00	229.00	249.00	262.00	272.00	257.00	237.00	270.00	258.00	251.00	246.00	254.00	258.00	248.00	246.00	254.00	253.00	254.00	260.00	270.00	276.00	275.00	270.00	259.00	261.00	266.00	265.00	268.00	268.00	272.00	262.00	256.00	256.00	268.00	262.00	261.00	257.00	248.00	239.00	241.00	235.00	226.00	221.00	215.00	214.00	211.00	192.00	168.00	177.00	184.00	190.00	188.00	179.00	184.00	188.00	185.00	178.00	177.00	173.00	179.00	190.00	191.00	193.00	190.00	193.00	191.00	198.00	199.00	192.00	188.00	195.00	206.00	207.00	211.00	219.00	222.00	223.00	226.00	228.00	236.00	243.00	249.00	261.00	234.00	225.00	233.00	245.00	242.00	248.00	247.00	249.00	250.00	260.00	260.00	260.00	266.00	273.00	276.00	278.00	286.00	289.00	298.00	324.00	340.00	335.00	360.00	377.00	381.00	384.00	399.00	413.00	396.00	393.00	379.00	329.00	298.00	275.00	255.00	240.00	206.00	192.00	179.00	170.00	157.00	157.00	157.00	157.00	157.00	157.00	157.00	157.00	157.00	157.00	157.00	157.00	157.00
157.00	157.00	157.00	157.00	157.00	157.00	157.00	157.00	157.00	157.00	157.00	157.00	157.00	157.00	157.00	157.00	157.00	157.00	157.00	157.00	157.00	157.00	157.00	198.00	199.00	196.00	200.00	212.00	199.00	187.00	178.00	187.00	172.00	157.00	157.00	157.00	157.00	157.00	157.00	157.00	157.00	157.00	157.00	157.00	157.00	157.00	157.00	157.00	157.00	157.00	157.00	157.00	157.00	157.00	157.00	157.00	157.00	157.00	157.00	157.00	157.00	157.00	157.00	157.00	157.00	157.00	157.00	157.00	157.00	157.00	157.00	157.00	157.00	157.00	157.00	157.00	157.00	157.00	157.00	157.00	157.00	157.00	157.00	157.00	157.00	157.00	157.00	157.00	157.00	157.00	157.00	157.00	157.00	159.00	173.00	170.00	178.00	186.00	188.00	187.00	190.00	208.00	228.00	235.00	222.00	164.00	157.00	157.00	157.00	157.00	157.00	157.00	157.00	157.00	157.00	157.00	157.00	157.00	204.00	216.00	220.00	229.00	249.00	262.00	272.00	257.00	237.00	270.00	258.00	251.00	246.00	254.00	258.00	248.00	246.00	254.00	253.00	254.00	260.00	270.00	276.00	275.00	270.00	259.00	261.00	266.00	265.00	268.00	268.00	272.00	262.00	256.00	256.00	268.00	262.00	261.00	257.00	248.00	239.00	241.00	235.00	226.00	221.00	215.00	214.00	211.00	192.00	168.00	177.00	184.00	190.00	188.00	179.00	184.00	188.00	185.00	178.00	177.00	173.00	179.00	190.00	191.00	193.00	190.00	193.00	191.00	198.00	199.00	192.00	188.00	195.00	206.00	207.00	211.00	219.00	222.00	223.00	226.00	228.00	236.00	243.00	249.00	261.00	234.00	225.00	233.00	245.00	242.00	248.00	247.00	249.00	250.00	260.00	260.00	260.00	266.00	273.00	276.00	278.00	286.00	289.00	298.00	324.00	340.00	335.00	360.00	377.00	381.00	384.00	399.00	413.00	396.00	393.00	379.00	329.00	298.00	275.00	255.00	240.00	206.00	192.00	179.00	170.00	157.00	157.00	157.00	157.00	157.00	157.00	157.00	157.00	157.00	157.00	157.00	157.00	157.00
157.00	157.00	157.00	157.00	157.00	157.00	157.00	157.00	157.00	157.00	157.00	157.00	157.00	157.00	157.00	157.00	157.00	157.00	157.00	157.00	157.00	157.00	157.00	160.00	161.00	162.00	163.00	168.00	172.00	170.00	170.00	168.00	161.00	157.00	157.00	157.00	157.00	157.00	157.00	157.00	157.00	157.00	157.00	157.00	157.00	157.00	157.00	157.00	157.00	157.00	157.00	157.00	157.00	157.00	157.00	157.00	157.00	157.00	157.00	157.00	157.00	157.00	157.00	157.00	157.00	157.00	157.00	157.00	157.00	157.00	157.00	157.00	157.00	157.00	157.00	157.00	157.00	157.00	157.00	157.00	157.00	157.00	157.00	157.00	157.00	157.00	157.00	157.00	157.00	157.00	157.00	157.00	157.00	157.00	157.00	157.00	158.00	164.00	169.00	165.00	172.00	193.00	202.00	214.00	175.00	158.00	157.00	157.00	157.00	157.00	157.00	157.00	157.00	157.00	157.00	157.00	157.00	157.00	186.00	200.00	202.00	202.00	226.00	237.00	228.00	218.00	217.00	254.00	236.00	223.00	225.00	237.00	238.00	226.00	215.00	215.00	206.00	207.00	217.00	227.00	234.00	240.00	242.00	230.00	236.00	241.00	237.00	240.00	243.00	230.00	226.00	223.00	222.00	216.00	219.00	215.00	210.00	210.00	201.00	190.00	188.00	190.00	190.00	190.00	194.00	172.00	164.00	157.00	158.00	161.00	167.00	160.00	159.00	160.00	160.00	159.00	157.00	158.00	157.00	161.00	167.00	169.00	172.00	174.00	180.00	171.00	176.00	178.00	175.00	176.00	183.00	187.00	195.00	194.00	203.00	200.00	200.00	199.00	211.00	215.00	215.00	217.00	233.00	222.00	213.00	217.00	217.00	213.00	213.00	217.00	219.00	221.00	226.00	228.00	228.00	230.00	231.00	227.00	230.00	234.00	242.00	273.00	295.00	306.00	317.00	335.00	338.00	342.00	357.00	379.00	397.00	411.00	418.00	399.00	429.00	430.00	414.00	394.00	367.00	287.00	261.00	244.00	228.00	182.00	169.00	162.00	158.00	157.00	157.00	157.00	157.00	157.00	157.00	157.00	157.00	157.00
157.00	157.00	157.00	157.00	157.00	157.00	157.00	157.00	157.00	157.00	157.00	157.00	157.00	157.00	157.00	157.00	157.00	157.00	157.00	157.00	157.00	157.00	160.00	157.00	157.00	157.00	157.00	157.00	157.00	157.00	157.00	157.00	157.00	157.00	157.00	157.00	157.00	157.00	157.00	157.00	157.00	157.00	157.00	157.00	157.00	157.00	157.00	157.00	157.00	157.00	157.00	157.00	157.00	157.00	157.00	157.00	157.00	157.00	157.00	157.00	157.00	157.00	157.00	157.00	157.00	157.00	157.00	157.00	157.00	157.00	157.00	157.00	157.00	157.00	157.00	157.00	157.00	157.00	157.00	157.00	157.00	157.00	157.00	157.00	157.00	157.00	157.00	157.00	157.00	157.00	157.00	157.00	157.00	157.00	157.00	157.00	157.00	157.00	157.00	157.00	165.00	173.00	180.00	181.00	157.00	157.00	157.00	157.00	157.00	157.00	157.00	157.00	157.00	157.00	157.00	157.00	157.00	157.00	171.00	185.00	186.00	189.00	207.00	234.00	237.00	225.00	227.00	219.00	208.00	196.00	192.00	191.00	196.00	191.00	180.00	183.00	176.00	168.00	174.00	186.00	194.00	195.00	194.00	193.00	195.00	194.00	197.00	209.00	210.00	190.00	188.00	185.00	181.00	180.00	183.00	180.00	174.00	171.00	182.00	172.00	171.00	172.00	181.00	172.00	160.00	157.00	157.00	157.00	157.00	157.00	157.00	157.00	157.00	157.00	157.00	157.00	157.00	157.00	157.00	157.00	157.00	157.00	158.00	157.00	157.00	157.00	157.00	157.00	157.00	158.00	163.00	161.00	173.00	175.00	186.00	185.00	180.00	181.00	185.00	171.00	166.00	166.00	181.00	183.00	182.00	179.00	181.00	185.00	186.00	190.00	192.00	190.00	195.00	195.00	196.00	201.00	205.00	203.00	206.00	211.00	218.00	247.00	269.00	277.00	279.00	276.00	280.00	292.00	308.00	323.00	372.00	391.00	390.00	406.00	426.00	426.00	429.00	438.00	441.00	426.00	395.00	337.00	286.00	241.00	227.00	210.00	193.00	182.00	166.00	161.00	158.00	157.00	157.00	157.00	157.00	157.00
157.00	157.00	157.00	157.00	157.00	157.00	157.00	157.00	157.00	157.00	157.00	157.00	157.00	157.00	157.00	157.00	157.00	157.00	157.00	157.00	157.00	157.00	160.00	157.00	157.00	157.00	157.00	157.00	157.00	157.00	157.00	157.00	157.00	157.00	157.00	157.00	157.00	157.00	157.00	157.00	157.00	157.00	157.00	157.00	157.00	157.00	157.00	157.00	157.00	157.00	157.00	157.00	157.00	157.00	157.00	157.00	157.00	157.00	157.00	157.00	157.00	157.00	157.00	157.00	157.00	157.00	157.00	157.00	157.00	157.00	157.00	157.00	157.00	157.00	157.00	157.00	157.00	157.00	157.00	157.00	157.00	157.00	157.00	157.00	157.00	157.00	157.00	157.00	157.00	157.00	157.00	157.00	157.00	157.00	157.00	157.00	157.00	157.00	157.00	157.00	165.00	173.00	180.00	181.00	157.00	157.00	157.00	157.00	157.00	157.00	157.00	157.00	157.00	157.00	157.00	157.00	157.00	157.00	171.00	185.00	186.00	189.00	207.00	234.00	237.00	225.00	227.00	219.00	208.00	196.00	192.00	191.00	196.00	191.00	180.00	183.00	176.00	168.00	174.00	186.00	194.00	195.00	194.00	193.00	195.00	194.00	197.00	209.00	210.00	190.00	188.00	185.00	181.00	180.00	183.00	180.00	174.00	171.00	182.00	172.00	171.00	172.00	181.00	172.00	160.00	157.00	157.00	157.00	157.00	157.00	157.00	157.00	157.00	157.00	157.00	157.00	157.00	157.00	157.00	157.00	157.00	157.00	158.00	157.00	157.00	157.00	157.00	157.00	157.00	158.00	163.00	161.00	173.00	175.00	186.00	185.00	180.00	181.00	185.00	171.00	166.00	166.00	181.00	183.00	182.00	179.00	181.00	185.00	186.00	190.00	192.00	190.00	195.00	195.00	196.00	201.00	205.00	203.00	206.00	211.00	218.00	247.00	269.00	277.00	279.00	276.00	280.00	292.00	308.00	323.00	372.00	391.00	390.00	406.00	426.00	426.00	429.00	438.00	441.00	426.00	395.00	337.00	286.00	241.00	227.00	210.00	193.00	182.00	166.00	161.00	158.00	157.00	157.00	157.00	157.00	157.00
157.00	157.00	157.00	157.00	157.00	157.00	157.00	157.00	157.00	157.00	157.00	157.00	157.00	157.00	157.00	157.00	157.00	157.00	157.00	157.00	157.00	157.00	158.00	157.00	157.00	157.00	157.00	157.00	157.00	157.00	157.00	157.00	157.00	157.00	157.00	157.00	157.00	157.00	157.00	157.00	157.00	157.00	157.00	157.00	157.00	157.00	157.00	157.00	157.00	157.00	157.00	157.00	157.00	157.00	157.00	157.00	157.00	157.00	157.00	157.00	157.00	157.00	157.00	157.00	157.00	157.00	157.00	157.00	157.00	157.00	157.00	157.00	157.00	157.00	157.00	157.00	157.00	157.00	157.00	157.00	157.00	157.00	157.00	157.00	157.00	157.00	157.00	157.00	157.00	157.00	157.00	157.00	157.00	157.00	157.00	157.00	157.00	157.00	158.00	160.00	158.00	158.00	158.00	157.00	157.00	157.00	157.00	157.00	157.00	157.00	157.00	157.00	157.00	157.00	157.00	157.00	157.00	157.00	165.00	173.00	177.00	176.00	189.00	221.00	228.00	234.00	210.00	191.00	178.00	174.00	169.00	162.00	158.00	158.00	157.00	158.00	158.00	157.00	157.00	159.00	166.00	165.00	163.00	165.00	177.00	183.00	176.00	175.00	178.00	162.00	164.00	162.00	163.00	165.00	165.00	163.00	162.00	161.00	164.00	163.00	167.00	169.00	167.00	159.00	157.00	157.00	157.00	157.00	157.00	157.00	157.00	157.00	157.00	157.00	157.00	157.00	157.00	157.00	157.00	157.00	157.00	157.00	157.00	157.00	157.00	157.00	157.00	157.00	157.00	157.00	157.00	157.00	158.00	161.00	163.00	162.00	160.00	158.00	159.00	157.00	157.00	157.00	158.00	163.00	164.00	161.00	163.00	163.00	161.00	161.00	162.00	162.00	171.00	178.00	183.00	188.00	195.00	196.00	206.00	213.00	189.00	206.00	207.00	209.00	219.00	229.00	237.00	245.00	257.00	269.00	313.00	342.00	358.00	384.00	405.00	406.00	409.00	413.00	419.00	428.00	431.00	420.00	377.00	306.00	292.00	278.00	263.00	246.00	216.00	202.00	189.00	181.00	173.00	170.00	162.00	160.00
157.00	157.00	157.00	157.00	157.00	157.00	157.00	157.00	157.00	157.00	157.00	157.00	157.00	157.00	157.00	157.00	157.00	157.00	157.00	157.00	157.00	157.00	157.00	157.00	157.00	157.00	157.00	157.00	157.00	157.00	157.00	157.00	157.00	157.00	157.00	157.00	157.00	157.00	157.00	157.00	157.00	157.00	157.00	157.00	157.00	157.00	157.00	157.00	157.00	157.00	157.00	157.00	157.00	157.00	157.00	157.00	157.00	157.00	157.00	157.00	157.00	157.00	157.00	157.00	157.00	157.00	157.00	157.00	157.00	157.00	157.00	157.00	157.00	157.00	157.00	157.00	157.00	157.00	157.00	157.00	157.00	157.00	157.00	157.00	157.00	157.00	157.00	157.00	157.00	157.00	157.00	157.00	157.00	157.00	159.00	164.00	170.00	177.00	180.00	181.00	172.00	173.00	178.00	188.00	194.00	196.00	200.00	191.00	189.00	166.00	160.00	157.00	157.00	157.00	157.00	157.00	157.00	157.00	157.00	157.00	158.00	158.00	159.00	161.00	163.00	171.00	165.00	163.00	157.00	157.00	157.00	157.00	157.00	157.00	157.00	157.00	157.00	157.00	157.00	157.00	157.00	157.00	157.00	157.00	158.00	159.00	159.00	158.00	157.00	157.00	157.00	157.00	157.00	157.00	157.00	157.00	157.00	157.00	159.00	157.00	157.00	157.00	157.00	157.00	157.00	157.00	157.00	157.00	157.00	157.00	157.00	157.00	157.00	157.00	157.00	157.00	157.00	157.00	157.00	157.00	157.00	157.00	157.00	157.00	157.00	157.00	157.00	157.00	157.00	157.00	157.00	157.00	157.00	157.00	157.00	157.00	159.00	169.00	157.00	157.00	157.00	157.00	157.00	157.00	157.00	157.00	157.00	157.00	157.00	157.00	157.00	157.00	163.00	176.00	177.00	175.00	186.00	188.00	193.00	194.00	164.00	173.00	177.00	180.00	184.00	196.00	206.00	214.00	221.00	229.00	262.00	285.00	307.00	342.00	376.00	386.00	393.00	402.00	412.00	422.00	421.00	425.00	431.00	412.00	407.00	399.00	383.00	364.00	332.00	315.00	298.00	277.00	237.00	230.00	204.00	191.00
157.00	157.00	157.00	157.00	157.00	157.00	157.00	157.00	157.00	157.00	157.00	157.00	157.00	157.00	157.00	157.00	157.00	157.00	157.00	157.00	157.00	157.00	157.00	157.00	157.00	157.00	157.00	157.00	157.00	157.00	157.00	157.00	157.00	157.00	157.00	157.00	157.00	157.00	157.00	157.00	157.00	157.00	157.00	157.00	157.00	157.00	157.00	157.00	157.00	157.00	157.00	157.00	157.00	157.00	157.00	157.00	157.00	157.00	157.00	157.00	157.00	157.00	157.00	157.00	157.00	157.00	157.00	157.00	157.00	157.00	157.00	157.00	157.00	157.00	157.00	157.00	157.00	157.00	157.00	157.00	157.00	157.00	157.00	157.00	157.00	157.00	157.00	157.00	157.00	157.00	157.00	157.00	157.00	157.00	159.00	164.00	170.00	177.00	180.00	181.00	172.00	173.00	178.00	188.00	194.00	196.00	200.00	191.00	189.00	166.00	160.00	157.00	157.00	157.00	157.00	157.00	157.00	157.00	157.00	157.00	158.00	158.00	159.00	161.00	163.00	171.00	165.00	163.00	157.00	157.00	157.00	157.00	157.00	157.00	157.00	157.00	157.00	157.00	157.00	157.00	157.00	157.00	157.00	157.00	158.00	159.00	159.00	158.00	157.00	157.00	157.00	157.00	157.00	157.00	157.00	157.00	157.00	157.00	159.00	157.00	157.00	157.00	157.00	157.00	157.00	157.00	157.00	157.00	157.00	157.00	157.00	157.00	157.00	157.00	157.00	157.00	157.00	157.00	157.00	157.00	157.00	157.00	157.00	157.00	157.00	157.00	157.00	157.00	157.00	157.00	157.00	157.00	157.00	157.00	157.00	157.00	159.00	169.00	157.00	157.00	157.00	157.00	157.00	157.00	157.00	157.00	157.00	157.00	157.00	157.00	157.00	157.00	163.00	176.00	177.00	175.00	186.00	188.00	193.00	194.00	164.00	173.00	177.00	180.00	184.00	196.00	206.00	214.00	221.00	229.00	262.00	285.00	307.00	342.00	376.00	386.00	393.00	402.00	412.00	422.00	421.00	425.00	431.00	412.00	407.00	399.00	383.00	364.00	332.00	315.00	298.00	277.00	237.00	230.00	204.00	191.00
157.00	157.00	157.00	157.00	157.00	157.00	157.00	157.00	157.00	157.00	157.00	157.00	157.00	157.00	157.00	157.00	157.00	157.00	157.00	157.00	157.00	157.00	157.00	157.00	157.00	157.00	157.00	157.00	157.00	157.00	157.00	157.00	157.00	157.00	157.00	157.00	157.00	157.00	157.00	157.00	157.00	157.00	157.00	157.00	157.00	157.00	157.00	157.00	157.00	157.00	157.00	157.00	157.00	157.00	157.00	157.00	157.00	157.00	157.00	157.00	157.00	157.00	157.00	157.00	157.00	158.00	157.00	159.00	157.00	157.00	157.00	157.00	157.00	157.00	157.00	157.00	157.00	157.00	157.00	158.00	159.00	159.00	177.00	189.00	189.00	192.00	208.00	207.00	201.00	196.00	201.00	204.00	189.00	190.00	201.00	203.00	202.00	202.00	195.00	191.00	194.00	205.00	217.00	237.00	284.00	288.00	280.00	218.00	221.00	203.00	192.00	173.00	159.00	157.00	157.00	157.00	157.00	157.00	157.00	157.00	157.00	157.00	157.00	157.00	157.00	157.00	157.00	157.00	157.00	157.00	157.00	157.00	157.00	157.00	157.00	157.00	157.00	157.00	157.00	157.00	157.00	157.00	157.00	157.00	157.00	157.00	157.00	157.00	157.00	157.00	157.00	157.00	157.00	157.00	157.00	157.00	157.00	157.00	157.00	157.00	157.00	157.00	157.00	157.00	157.00	157.00	157.00	157.00	157.00	157.00	157.00	157.00	157.00	157.00	157.00	157.00	157.00	157.00	157.00	157.00	157.00	157.00	157.00	157.00	157.00	157.00	157.00	157.00	157.00	157.00	157.00	157.00	157.00	157.00	157.00	157.00	157.00	157.00	157.00	157.00	157.00	157.00	157.00	157.00	157.00	157.00	157.00	157.00	157.00	157.00	157.00	157.00	157.00	157.00	157.00	157.00	161.00	164.00	165.00	159.00	157.00	159.00	162.00	166.00	171.00	183.00	189.00	198.00	207.00	219.00	244.00	257.00	278.00	330.00	368.00	377.00	385.00	392.00	393.00	393.00	398.00	399.00	398.00	404.00	409.00	409.00	410.00	414.00	421.00	424.00	418.00	414.00	398.00	372.00	291.00	263.00
157.00	157.00	157.00	157.00	157.00	157.00	157.00	157.00	157.00	157.00	157.00	157.00	157.00	157.00	157.00	157.00	157.00	157.00	157.00	157.00	157.00	157.00	157.00	157.00	157.00	157.00	157.00	157.00	157.00	157.00	157.00	157.00	157.00	157.00	157.00	157.00	157.00	157.00	157.00	157.00	157.00	157.00	157.00	157.00	157.00	157.00	157.00	157.00	157.00	157.00	157.00	157.00	157.00	157.00	157.00	157.00	157.00	157.00	157.00	157.00	157.00	157.00	157.00	157.00	157.00	158.00	157.00	159.00	157.00	157.00	157.00	157.00	157.00	157.00	157.00	157.00	157.00	157.00	157.00	158.00	159.00	159.00	177.00	189.00	189.00	192.00	208.00	207.00	201.00	196.00	201.00	204.00	189.00	190.00	201.00	203.00	202.00	202.00	195.00	191.00	194.00	205.00	217.00	237.00	284.00	288.00	280.00	218.00	221.00	203.00	192.00	173.00	159.00	157.00	157.00	157.00	157.00	157.00	157.00	157.00	157.00	157.00	157.00	157.00	157.00	157.00	157.00	157.00	157.00	157.00	157.00	157.00	157.00	157.00	157.00	157.00	157.00	157.00	157.00	157.00	157.00	157.00	157.00	157.00	157.00	157.00	157.00	157.00	157.00	157.00	157.00	157.00	157.00	157.00	157.00	157.00	157.00	157.00	157.00	157.00	157.00	157.00	157.00	157.00	157.00	157.00	157.00	157.00	157.00	157.00	157.00	157.00	157.00	157.00	157.00	157.00	157.00	157.00	157.00	157.00	157.00	157.00	157.00	157.00	157.00	157.00	157.00	157.00	157.00	157.00	157.00	157.00	157.00	157.00	157.00	157.00	157.00	157.00	157.00	157.00	157.00	157.00	157.00	157.00	157.00	157.00	157.00	157.00	157.00	157.00	157.00	157.00	157.00	157.00	157.00	157.00	161.00	164.00	165.00	159.00	157.00	159.00	162.00	166.00	171.00	183.00	189.00	198.00	207.00	219.00	244.00	257.00	278.00	330.00	368.00	377.00	385.00	392.00	393.00	393.00	398.00	399.00	398.00	404.00	409.00	409.00	410.00	414.00	421.00	424.00	418.00	414.00	398.00	372.00	291.00	263.00
157.00	157.00	157.00	157.00	157.00	157.00	157.00	157.00	157.00	157.00	157.00	157.00	157.00	157.00	157.00	157.00	157.00	157.00	157.00	157.00	157.00	157.00	157.00	157.00	157.00	157.00	157.00	157.00	157.00	157.00	157.00	157.00	157.00	157.00	157.00	157.00	157.00	157.00	157.00	157.00	157.00	157.00	157.00	157.00	157.00	157.00	157.00	157.00	157.00	157.00	157.00	157.00	157.00	157.00	157.00	157.00	157.00	157.00	157.00	157.00	158.00	161.00	165.00	178.00	201.00	241.00	243.00	245.00	189.00	185.00	181.00	179.00	179.00	184.00	188.00	194.00	204.00	209.00	221.00	226.00	226.00	220.00	216.00	216.00	215.00	215.00	218.00	219.00	219.00	221.00	222.00	221.00	219.00	215.00	212.00	213.00	204.00	203.00	203.00	203.00	215.00	225.00	239.00	263.00	271.00	270.00	267.00	236.00	234.00	229.00	225.00	218.00	197.00	160.00	157.00	157.00	157.00	157.00	157.00	157.00	157.00	157.00	157.00	157.00	162.00	162.00	158.00	157.00	157.00	157.00	157.00	157.00	157.00	157.00	157.00	157.00	157.00	157.00	157.00	157.00	157.00	157.00	157.00	157.00	157.00	157.00	157.00	157.00	157.00	157.00	157.00	157.00	157.00	157.00	157.00	157.00	157.00	157.00	157.00	157.00	157.00	157.00	157.00	157.00	157.00	157.00	157.00	157.00	157.00	157.00	157.00	157.00	157.00	157.00	157.00	157.00	157.00	157.00	157.00	157.00	157.00	157.00	157.00	157.00	157.00	157.00	157.00	157.00	157.00	157.00	157.00	157.00	157.00	157.00	157.00	157.00	157.00	157.00	157.00	157.00	157.00	157.00	157.00	157.00	157.00	157.00	157.00	157.00	157.00	157.00	157.00	157.00	157.00	157.00	157.00	157.00	157.00	157.00	157.00	157.00	157.00	157.00	157.00	165.00	176.00	205.00	220.00	226.00	226.00	237.00	268.00	283.00	295.00	328.00	361.00	366.00	364.00	360.00	359.00	366.00	369.00	371.00	372.00	381.00	383.00	386.00	389.00	393.00	403.00	409.00	408.00	403.00	411.00	408.00	413.00	395.00
157.00	157.00	157.00	157.00	157.00	157.00	157.00	157.00	157.00	157.00	157.00	157.00	157.00	157.00	157.00	157.00	157.00	157.00	157.00	157.00	157.00	157.00	157.00	157.00	157.00	157.00	157.00	157.00	157.00	157.00	157.00	157.00	157.00	157.00	157.00	157.00	157.00	157.00	157.00	157.00	157.00	157.00	157.00	157.00	157.00	157.00	160.00	170.00	179.00	185.00	194.00	200.00	207.00	212.00	223.00	223.00	222.00	213.00	207.00	230.00	240.00	234.00	243.00	246.00	253.00	258.00	251.00	245.00	244.00	245.00	243.00	240.00	240.00	233.00	225.00	221.00	219.00	220.00	217.00	211.00	210.00	209.00	212.00	212.00	212.00	218.00	243.00	236.00	224.00	209.00	203.00	203.00	203.00	204.00	206.00	205.00	213.00	212.00	214.00	222.00	242.00	250.00	256.00	256.00	252.00	251.00	249.00	224.00	212.00	207.00	204.00	204.00	205.00	201.00	189.00	176.00	164.00	164.00	157.00	157.00	157.00	157.00	157.00	157.00	174.00	233.00	230.00	198.00	198.00	184.00	164.00	163.00	161.00	158.00	157.00	157.00	157.00	157.00	157.00	157.00	157.00	157.00	157.00	157.00	157.00	157.00	157.00	157.00	157.00	157.00	157.00	157.00	157.00	157.00	157.00	157.00	157.00	157.00	157.00	157.00	157.00	157.00	157.00	157.00	157.00	157.00	157.00	157.00	157.00	157.00	157.00	157.00	157.00	157.00	157.00	157.00	157.00	157.00	157.00	157.00	157.00	157.00	157.00	157.00	157.00	157.00	157.00	157.00	157.00	157.00	157.00	157.00	157.00	157.00	157.00	157.00	157.00	157.00	157.00	157.00	157.00	157.00	157.00	157.00	157.00	157.00	157.00	157.00	157.00	157.00	157.00	157.00	157.00	157.00	157.00	157.00	157.00	157.00	157.00	157.00	157.00	157.00	168.00	186.00	195.00	220.00	234.00	244.00	255.00	273.00	294.00	297.00	304.00	312.00	322.00	324.00	323.00	324.00	324.00	334.00	337.00	338.00	342.00	354.00	361.00	370.00	379.00	387.00	390.00	397.00	398.00	401.00	411.00	412.00	417.00	431.00
157.00	157.00	157.00	157.00	157.00	157.00	157.00	157.00	157.00	157.00	157.00	157.00	157.00	157.00	157.00	157.00	157.00	157.00	157.00	157.00	157.00	157.00	157.00	157.00	157.00	157.00	157.00	157.00	157.00	157.00	157.00	157.00	157.00	157.00	157.00	157.00	157.00	157.00	157.00	157.00	157.00	157.00	157.00	157.00	157.00	157.00	160.00	170.00	179.00	185.00	194.00	200.00	207.00	212.00	223.00	223.00	222.00	213.00	207.00	230.00	240.00	234.00	243.00	246.00	253.00	258.00	251.00	245.00	244.00	245.00	243.00	240.00	240.00	233.00	225.00	221.00	219.00	220.00	217.00	211.00	210.00	209.00	212.00	212.00	212.00	218.00	243.00	236.00	224.00	209.00	203.00	203.00	203.00	204.00	206.00	205.00	213.00	212.00	214.00	222.00	242.00	250.00	256.00	256.00	252.00	251.00	249.00	224.00	212.00	207.00	204.00	204.00	205.00	201.00	189.00	176.00	164.00	164.00	157.00	157.00	157.00	157.00	157.00	157.00	174.00	233.00	230.00	198.00	198.00	184.00	164.00	163.00	161.00	158.00	157.00	157.00	157.00	157.00	157.00	157.00	157.00	157.00	157.00	157.00	157.00	157.00	157.00	157.00	157.00	157.00	157.00	157.00	157.00	157.00	157.00	157.00	157.00	157.00	157.00	157.00	157.00	157.00	157.00	157.00	157.00	157.00	157.00	157.00	157.00	157.00	157.00	157.00	157.00	157.00	157.00	157.00	157.00	157.00	157.00	157.00	157.00	157.00	157.00	157.00	157.00	157.00	157.00	157.00	157.00	157.00	157.00	157.00	157.00	157.00	157.00	157.00	157.00	157.00	157.00	157.00	157.00	157.00	157.00	157.00	157.00	157.00	157.00	157.00	157.00	157.00	157.00	157.00	157.00	157.00	157.00	157.00	157.00	157.00	157.00	157.00	157.00	157.00	168.00	186.00	195.00	220.00	234.00	244.00	255.00	273.00	294.00	297.00	304.00	312.00	322.00	324.00	323.00	324.00	324.00	334.00	337.00	338.00	342.00	354.00	361.00	370.00	379.00	387.00	390.00	397.00	398.00	401.00	411.00	412.00	417.00	431.00
157.00	157.00	157.00	157.00	157.00	157.00	157.00	157.00	157.00	157.00	157.00	157.00	157.00	157.00	157.00	157.00	157.00	157.00	157.00	157.00	157.00	157.00	157.00	157.00	157.00	157.00	157.00	157.00	157.00	157.00	157.00	157.00	157.00	157.00	157.00	157.00	157.00	157.00	157.00	157.00	157.00	157.00	159.00	172.00	199.00	216.00	261.00	265.00	263.00	258.00	257.00	259.00	260.00	257.00	256.00	248.00	251.00	257.00	252.00	236.00	230.00	227.00	228.00	229.00	243.00	252.00	245.00	243.00	244.00	245.00	243.00	232.00	225.00	218.00	213.00	211.00	207.00	205.00	205.00	212.00	214.00	217.00	216.00	215.00	218.00	223.00	215.00	212.00	205.00	203.00	203.00	206.00	208.00	208.00	208.00	212.00	224.00	233.00	245.00	250.00	256.00	256.00	256.00	251.00	248.00	246.00	243.00	225.00	212.00	199.00	196.00	193.00	194.00	198.00	195.00	190.00	192.00	194.00	157.00	157.00	157.00	157.00	162.00	202.00	249.00	277.00	288.00	251.00	257.00	254.00	242.00	246.00	241.00	238.00	222.00	176.00	162.00	157.00	157.00	157.00	157.00	157.00	157.00	157.00	157.00	157.00	157.00	157.00	157.00	157.00	157.00	157.00	157.00	157.00	157.00	157.00	157.00	157.00	157.00	157.00	157.00	157.00	157.00	157.00	157.00	157.00	157.00	157.00	157.00	157.00	157.00	157.00	157.00	157.00	157.00	157.00	157.00	157.00	157.00	157.00	157.00	157.00	157.00	157.00	157.00	157.00	157.00	157.00	157.00	157.00	157.00	157.00	157.00	157.00	157.00	157.00	157.00	157.00	157.00	157.00	157.00	157.00	157.00	157.00	157.00	157.00	157.00	157.00	157.00	157.00	157.00	157.00	157.00	157.00	157.00	157.00	157.00	157.00	157.00	157.00	157.00	157.00	180.00	193.00	199.00	217.00	229.00	241.00	253.00	257.00	260.00	265.00	270.00	273.00	281.00	285.00	290.00	294.00	296.00	307.00	311.00	315.00	320.00	335.00	340.00	346.00	350.00	350.00	366.00	373.00	381.00	387.00	398.00	399.00	412.00	423.00
157.00	157.00	157.00	157.00	157.00	157.00	157.00	157.00	157.00	157.00	157.00	157.00	157.00	157.00	157.00	157.00	157.00	157.00	157.00	157.00	157.00	157.00	157.00	157.00	157.00	157.00	157.00	157.00	157.00	157.00	157.00	157.00	157.00	157.00	157.00	157.00	157.00	157.00	159.00	164.00	177.00	221.00	242.00	255.00	260.00	266.00	254.00	249.00	247.00	243.00	241.00	242.00	240.00	237.00	235.00	231.00	232.00	238.00	239.00	227.00	230.00	236.00	239.00	240.00	243.00	242.00	243.00	247.00	257.00	248.00	244.00	242.00	240.00	227.00	215.00	206.00	203.00	204.00	208.00	208.00	209.00	209.00	214.00	222.00	220.00	221.00	219.00	225.00	233.00	229.00	221.00	211.00	212.00	210.00	210.00	216.00	232.00	240.00	248.00	253.00	244.00	239.00	239.00	235.00	230.00	228.00	228.00	214.00	209.00	202.00	195.00	193.00	198.00	207.00	206.00	198.00	199.00	197.00	157.00	157.00	157.00	157.00	186.00	228.00	248.00	271.00	283.00	259.00	244.00	248.00	241.00	227.00	231.00	232.00	232.00	212.00	198.00	168.00	157.00	157.00	157.00	157.00	157.00	157.00	157.00	157.00	157.00	157.00	157.00	157.00	157.00	157.00	157.00	157.00	157.00	157.00	157.00	157.00	157.00	157.00	157.00	157.00	157.00	157.00	157.00	157.00	157.00	157.00	157.00	157.00	157.00	157.00	157.00	157.00	157.00	157.00	157.00	157.00	157.00	157.00	157.00	157.00	157.00	157.00	157.00	157.00	157.00	157.00	160.00	157.00	157.00	157.00	157.00	157.00	157.00	157.00	157.00	157.00	158.00	157.00	157.00	157.00	157.00	157.00	157.00	157.00	157.00	157.00	157.00	157.00	157.00	157.00	157.00	157.00	157.00	157.00	157.00	157.00	157.00	157.00	157.00	157.00	178.00	190.00	198.00	219.00	225.00	228.00	229.00	227.00	234.00	237.00	237.00	242.00	252.00	256.00	259.00	262.00	268.00	283.00	287.00	294.00	301.00	309.00	313.00	319.00	327.00	337.00	357.00	360.00	360.00	360.00	368.00	374.00	393.00	389.00
157.00	157.00	157.00	157.00	157.00	157.00	157.00	157.00	157.00	157.00	157.00	157.00	157.00	157.00	157.00	157.00	157.00	157.00	157.00	157.00	157.00	157.00	157.00	157.00	157.00	157.00	157.00	157.00	157.00	157.00	157.00	157.00	157.00	157.00	157.00	157.00	157.00	157.00	159.00	164.00	177.00	221.00	242.00	255.00	260.00	266.00	254.00	249.00	247.00	243.00	241.00	242.00	240.00	237.00	235.00	231.00	232.00	238.00	239.00	227.00	230.00	236.00	239.00	240.00	243.00	242.00	243.00	247.00	257.00	248.00	244.00	242.00	240.00	227.00	215.00	206.00	203.00	204.00	208.00	208.00	209.00	209.00	214.00	222.00	220.00	221.00	219.00	225.00	233.00	229.00	221.00	211.00	212.00	210.00	210.00	216.00	232.00	240.00	248.00	253.00	244.00	239.00	239.00	235.00	230.00	228.00	228.00	214.00	209.00	202.00	195.00	193.00	198.00	207.00	206.00	198.00	199.00	197.00	157.00	157.00	157.00	157.00	186.00	228.00	248.00	271.00	283.00	259.00	244.00	248.00	241.00	227.00	231.00	232.00	232.00	212.00	198.00	168.00	157.00	157.00	157.00	157.00	157.00	157.00	157.00	157.00	157.00	157.00	157.00	157.00	157.00	157.00	157.00	157.00	157.00	157.00	157.00	157.00	157.00	157.00	157.00	157.00	157.00	157.00	157.00	157.00	157.00	157.00	157.00	157.00	157.00	157.00	157.00	157.00	157.00	157.00	157.00	157.00	157.00	157.00	157.00	157.00	157.00	157.00	157.00	157.00	157.00	157.00	160.00	157.00	157.00	157.00	157.00	157.00	157.00	157.00	157.00	157.00	158.00	157.00	157.00	157.00	157.00	157.00	157.00	157.00	157.00	157.00	157.00	157.00	157.00	157.00	157.00	157.00	157.00	157.00	157.00	157.00	157.00	157.00	157.00	157.00	178.00	190.00	198.00	219.00	225.00	228.00	229.00	227.00	234.00	237.00	237.00	242.00	252.00	256.00	259.00	262.00	268.00	283.00	287.00	294.00	301.00	309.00	313.00	319.00	327.00	337.00	357.00	360.00	360.00	360.00	368.00	374.00	393.00	389.00
157.00	157.00	157.00	157.00	157.00	157.00	157.00	157.00	157.00	157.00	157.00	157.00	157.00	157.00	157.00	157.00	157.00	157.00	157.00	157.00	157.00	157.00	157.00	157.00	157.00	157.00	157.00	157.00	157.00	157.00	157.00	157.00	157.00	157.00	157.00	157.00	157.00	157.00	159.00	164.00	177.00	221.00	242.00	255.00	260.00	266.00	254.00	249.00	247.00	243.00	241.00	242.00	240.00	237.00	235.00	231.00	232.00	238.00	239.00	227.00	230.00	236.00	239.00	240.00	243.00	242.00	243.00	247.00	257.00	248.00	244.00	242.00	240.00	227.00	215.00	206.00	203.00	204.00	208.00	208.00	209.00	209.00	214.00	222.00	220.00	221.00	219.00	225.00	233.00	229.00	221.00	211.00	212.00	210.00	210.00	216.00	232.00	240.00	248.00	253.00	244.00	239.00	239.00	235.00	230.00	228.00	228.00	214.00	209.00	202.00	195.00	193.00	198.00	207.00	206.00	198.00	199.00	197.00	157.00	157.00	157.00	157.00	186.00	228.00	248.00	271.00	283.00	259.00	244.00	248.00	241.00	227.00	231.00	232.00	232.00	212.00	198.00	168.00	157.00	157.00	157.00	157.00	157.00	157.00	157.00	157.00	157.00	157.00	157.00	157.00	157.00	157.00	157.00	157.00	157.00	157.00	157.00	157.00	157.00	157.00	157.00	157.00	157.00	157.00	157.00	157.00	157.00	157.00	157.00	157.00	157.00	157.00	157.00	157.00	157.00	157.00	157.00	157.00	157.00	157.00	157.00	157.00	157.00	157.00	157.00	157.00	157.00	157.00	160.00	157.00	157.00	157.00	157.00	157.00	157.00	157.00	157.00	157.00	158.00	157.00	157.00	157.00	157.00	157.00	157.00	157.00	157.00	157.00	157.00	157.00	157.00	157.00	157.00	157.00	157.00	157.00	157.00	157.00	157.00	157.00	157.00	157.00	178.00	190.00	198.00	219.00	225.00	228.00	229.00	227.00	234.00	237.00	237.00	242.00	252.00	256.00	259.00	262.00	268.00	283.00	287.00	294.00	301.00	309.00	313.00	319.00	327.00	337.00	357.00	360.00	360.00	360.00	368.00	374.00	393.00	389.00
157.00	157.00	157.00	157.00	157.00	157.00	157.00	157.00	157.00	157.00	157.00	157.00	157.00	157.00	157.00	157.00	157.00	157.00	157.00	157.00	157.00	157.00	157.00	163.00	191.00	222.00	233.00	232.00	224.00	220.00	218.00	221.00	221.00	215.00	221.00	224.00	230.00	245.00	243.00	242.00	248.00	232.00	226.00	228.00	234.00	238.00	237.00	235.00	232.00	227.00	225.00	225.00	225.00	225.00	225.00	227.00	233.00	238.00	244.00	264.00	274.00	276.00	276.00	281.00	259.00	245.00	251.00	254.00	258.00	257.00	257.00	259.00	256.00	256.00	248.00	238.00	204.00	217.00	225.00	235.00	239.00	246.00	254.00	260.00	269.00	280.00	261.00	255.00	258.00	264.00	269.00	265.00	256.00	248.00	238.00	222.00	225.00	230.00	233.00	236.00	241.00	237.00	236.00	227.00	215.00	213.00	209.00	199.00	197.00	195.00	193.00	193.00	191.00	188.00	189.00	187.00	187.00	192.00	157.00	157.00	157.00	157.00	186.00	245.00	265.00	268.00	275.00	270.00	239.00	245.00	241.00	211.00	210.00	205.00	198.00	188.00	183.00	166.00	157.00	157.00	157.00	157.00	157.00	158.00	163.00	167.00	175.00	180.00	183.00	175.00	177.00	176.00	169.00	157.00	157.00	157.00	157.00	157.00	157.00	159.00	161.00	165.00	170.00	170.00	165.00	158.00	157.00	157.00	157.00	157.00	157.00	157.00	157.00	157.00	157.00	157.00	157.00	157.00	157.00	158.00	157.00	162.00	167.00	171.00	173.00	168.00	167.00	174.00	182.00	157.00	156.00	157.00	158.00	162.00	167.00	168.00	169.00	174.00	187.00	191.00	166.00	158.00	158.00	158.00	158.00	158.00	158.00	158.00	158.00	158.00	158.00	158.00	158.00	158.00	158.00	158.00	158.00	158.00	158.00	158.00	158.00	158.00	171.00	182.00	189.00	198.00	196.00	191.00	193.00	199.00	209.00	213.00	218.00	231.00	232.00	237.00	235.00	241.00	250.00	263.00	267.00	268.00	272.00	283.00	283.00	283.00	295.00	305.00	306.00	312.00	315.00	326.00	350.00	354.00	364.00	372.00
157.00	157.00	157.00	157.00	157.00	157.00	157.00	157.00	157.00	157.00	157.00	157.00	157.00	157.00	157.00	157.00	157.00	157.00	157.00	157.00	166.00	201.00	237.00	262.00	288.00	291.00	290.00	288.00	284.00	279.00	274.00	269.00	269.00	269.00	279.00	277.00	276.00	263.00	251.00	241.00	240.00	231.00	226.00	225.00	225.00	225.00	225.00	225.00	225.00	225.00	225.00	225.00	226.00	233.00	235.00	257.00	263.00	265.00	264.00	264.00	262.00	264.00	259.00	253.00	251.00	245.00	247.00	246.00	246.00	243.00	245.00	245.00	240.00	237.00	231.00	232.00	233.00	245.00	250.00	266.00	279.00	292.00	323.00	351.00	381.00	391.00	339.00	327.00	313.00	315.00	327.00	302.00	292.00	282.00	275.00	262.00	250.00	247.00	249.00	250.00	249.00	246.00	245.00	247.00	244.00	244.00	241.00	234.00	230.00	225.00	224.00	223.00	218.00	196.00	186.00	176.00	180.00	189.00	157.00	157.00	158.00	166.00	194.00	223.00	228.00	227.00	222.00	227.00	235.00	236.00	235.00	221.00	215.00	222.00	222.00	222.00	222.00	203.00	180.00	176.00	173.00	173.00	177.00	179.00	192.00	204.00	215.00	218.00	221.00	182.00	183.00	190.00	188.00	163.00	157.00	157.00	159.00	164.00	185.00	201.00	206.00	213.00	201.00	198.00	194.00	170.00	157.00	157.00	157.00	160.00	165.00	180.00	184.00	187.00	189.00	191.00	186.00	177.00	166.00	160.00	163.00	161.00	159.00	161.00	159.00	157.00	163.00	179.00	183.00	196.00	187.00	189.00	200.00	207.00	205.00	203.00	204.00	204.00	207.00	201.00	180.00	160.00	166.00	158.00	158.00	158.00	158.00	158.00	158.00	158.00	158.00	158.00	161.00	162.00	162.00	161.00	158.00	158.00	158.00	158.00	158.00	158.00	158.00	159.00	161.00	161.00	160.00	163.00	165.00	169.00	186.00	199.00	206.00	216.00	213.00	217.00	215.00	219.00	218.00	228.00	235.00	235.00	237.00	245.00	256.00	259.00	263.00	272.00	279.00	284.00	295.00	301.00	312.00	317.00	327.00	341.00
157.00	157.00	157.00	157.00	157.00	157.00	157.00	157.00	157.00	157.00	157.00	157.00	157.00	157.00	157.00	157.00	157.00	157.00	157.00	157.00	166.00	201.00	237.00	262.00	288.00	291.00	290.00	288.00	284.00	279.00	274.00	269.00	269.00	269.00	279.00	277.00	276.00	263.00	251.00	241.00	240.00	231.00	226.00	225.00	225.00	225.00	225.00	225.00	225.00	225.00	225.00	225.00	226.00	233.00	235.00	257.00	263.00	265.00	264.00	264.00	262.00	264.00	259.00	253.00	251.00	245.00	247.00	246.00	246.00	243.00	245.00	245.00	240.00	237.00	231.00	232.00	233.00	245.00	250.00	266.00	279.00	292.00	323.00	351.00	381.00	391.00	339.00	327.00	313.00	315.00	327.00	302.00	292.00	282.00	275.00	262.00	250.00	247.00	249.00	250.00	249.00	246.00	245.00	247.00	244.00	244.00	241.00	234.00	230.00	225.00	224.00	223.00	218.00	196.00	186.00	176.00	180.00	189.00	157.00	157.00	158.00	166.00	194.00	223.00	228.00	227.00	222.00	227.00	235.00	236.00	235.00	221.00	215.00	222.00	222.00	222.00	222.00	203.00	180.00	176.00	173.00	173.00	177.00	179.00	192.00	204.00	215.00	218.00	221.00	182.00	183.00	190.00	188.00	163.00	157.00	157.00	159.00	164.00	185.00	201.00	206.00	213.00	201.00	198.00	194.00	170.00	157.00	157.00	157.00	160.00	165.00	180.00	184.00	187.00	189.00	191.00	186.00	177.00	166.00	160.00	163.00	161.00	159.00	161.00	159.00	157.00	163.00	179.00	183.00	196.00	187.00	189.00	200.00	207.00	205.00	203.00	204.00	204.00	207.00	201.00	180.00	160.00	166.00	158.00	158.00	158.00	158.00	158.00	158.00	158.00	158.00	158.00	161.00	162.00	162.00	161.00	158.00	158.00	158.00	158.00	158.00	158.00	158.00	159.00	161.00	161.00	160.00	163.00	165.00	169.00	186.00	199.00	206.00	216.00	213.00	217.00	215.00	219.00	218.00	228.00	235.00	235.00	237.00	245.00	256.00	259.00	263.00	272.00	279.00	284.00	295.00	301.00	312.00	317.00	327.00	341.00
157.00	157.00	157.00	157.00	157.00	157.00	157.00	157.00	157.00	157.00	157.00	157.00	157.00	157.00	157.00	157.00	158.00	170.00	200.00	267.00	289.00	291.00	281.00	272.00	273.00	271.00	270.00	269.00	269.00	269.00	269.00	273.00	293.00	315.00	319.00	320.00	315.00	293.00	266.00	235.00	232.00	225.00	225.00	226.00	227.00	230.00	234.00	234.00	233.00	237.00	247.00	246.00	248.00	248.00	246.00	246.00	247.00	247.00	247.00	247.00	245.00	245.00	245.00	245.00	245.00	248.00	248.00	247.00	248.00	251.00	258.00	263.00	263.00	257.00	255.00	259.00	269.00	310.00	332.00	344.00	350.00	379.00	378.00	395.00	399.00	398.00	393.00	391.00	374.00	369.00	391.00	392.00	377.00	344.00	317.00	288.00	292.00	284.00	277.00	276.00	256.00	248.00	248.00	250.00	256.00	264.00	274.00	304.00	319.00	305.00	291.00	272.00	256.00	215.00	190.00	173.00	168.00	172.00	157.00	159.00	161.00	164.00	176.00	180.00	184.00	186.00	187.00	203.00	239.00	238.00	237.00	246.00	216.00	216.00	218.00	210.00	196.00	188.00	195.00	197.00	190.00	191.00	193.00	199.00	204.00	203.00	196.00	193.00	194.00	163.00	163.00	164.00	167.00	163.00	164.00	167.00	176.00	188.00	207.00	214.00	215.00	214.00	202.00	188.00	172.00	159.00	158.00	168.00	176.00	186.00	198.00	213.00	224.00	227.00	226.00	212.00	187.00	174.00	167.00	164.00	157.00	157.00	157.00	157.00	157.00	165.00	176.00	182.00	191.00	200.00	203.00	213.00	208.00	208.00	208.00	207.00	209.00	211.00	213.00	212.00	197.00	177.00	203.00	193.00	181.00	173.00	173.00	168.00	171.00	177.00	184.00	199.00	205.00	203.00	197.00	186.00	172.00	167.00	159.00	158.00	158.00	158.00	158.00	158.00	158.00	158.00	158.00	158.00	159.00	162.00	173.00	184.00	192.00	193.00	193.00	195.00	196.00	199.00	202.00	208.00	210.00	213.00	216.00	218.00	227.00	235.00	243.00	249.00	258.00	261.00	263.00	263.00	279.00	300.00	327.00	335.00
157.00	157.00	157.00	157.00	157.00	157.00	157.00	157.00	157.00	157.00	157.00	157.00	157.00	157.00	157.00	157.00	158.00	170.00	200.00	267.00	289.00	291.00	281.00	272.00	273.00	271.00	270.00	269.00	269.00	269.00	269.00	273.00	293.00	315.00	319.00	320.00	315.00	293.00	266.00	235.00	232.00	225.00	225.00	226.00	227.00	230.00	234.00	234.00	233.00	237.00	247.00	246.00	248.00	248.00	246.00	246.00	247.00	247.00	247.00	247.00	245.00	245.00	245.00	245.00	245.00	248.00	248.00	247.00	248.00	251.00	258.00	263.00	263.00	257.00	255.00	259.00	269.00	310.00	332.00	344.00	350.00	379.00	378.00	395.00	399.00	398.00	393.00	391.00	374.00	369.00	391.00	392.00	377.00	344.00	317.00	288.00	292.00	284.00	277.00	276.00	256.00	248.00	248.00	250.00	256.00	264.00	274.00	304.00	319.00	305.00	291.00	272.00	256.00	215.00	190.00	173.00	168.00	172.00	157.00	159.00	161.00	164.00	176.00	180.00	184.00	186.00	187.00	203.00	239.00	238.00	237.00	246.00	216.00	216.00	218.00	210.00	196.00	188.00	195.00	197.00	190.00	191.00	193.00	199.00	204.00	203.00	196.00	193.00	194.00	163.00	163.00	164.00	167.00	163.00	164.00	167.00	176.00	188.00	207.00	214.00	215.00	214.00	202.00	188.00	172.00	159.00	158.00	168.00	176.00	186.00	198.00	213.00	224.00	227.00	226.00	212.00	187.00	174.00	167.00	164.00	157.00	157.00	157.00	157.00	157.00	165.00	176.00	182.00	191.00	200.00	203.00	213.00	208.00	208.00	208.00	207.00	209.00	211.00	213.00	212.00	197.00	177.00	203.00	193.00	181.00	173.00	173.00	168.00	171.00	177.00	184.00	199.00	205.00	203.00	197.00	186.00	172.00	167.00	159.00	158.00	158.00	158.00	158.00	158.00	158.00	158.00	158.00	158.00	159.00	162.00	173.00	184.00	192.00	193.00	193.00	195.00	196.00	199.00	202.00	208.00	210.00	213.00	216.00	218.00	227.00	235.00	243.00	249.00	258.00	261.00	263.00	263.00	279.00	300.00	327.00	335.00
157.00	157.00	157.00	157.00	157.00	157.00	157.00	157.00	157.00	157.00	157.00	157.00	157.00	157.00	162.00	187.00	231.00	267.00	281.00	282.00	277.00	274.00	271.00	268.00	268.00	268.00	269.00	276.00	297.00	289.00	299.00	301.00	309.00	301.00	291.00	283.00	277.00	266.00	260.00	257.00	257.00	246.00	255.00	252.00	249.00	252.00	259.00	263.00	264.00	267.00	263.00	258.00	257.00	263.00	269.00	261.00	262.00	268.00	280.00	285.00	278.00	255.00	245.00	245.00	252.00	273.00	267.00	264.00	283.00	298.00	308.00	311.00	313.00	336.00	333.00	330.00	322.00	381.00	404.00	406.00	400.00	395.00	393.00	400.00	405.00	406.00	398.00	397.00	400.00	401.00	399.00	384.00	397.00	406.00	402.00	381.00	350.00	372.00	376.00	367.00	312.00	325.00	334.00	322.00	281.00	299.00	353.00	377.00	399.00	407.00	399.00	395.00	379.00	263.00	213.00	172.00	157.00	157.00	173.00	220.00	197.00	182.00	178.00	178.00	179.00	183.00	189.00	215.00	248.00	271.00	271.00	265.00	258.00	243.00	239.00	224.00	222.00	211.00	192.00	186.00	182.00	183.00	179.00	184.00	164.00	163.00	164.00	169.00	173.00	171.00	166.00	167.00	170.00	184.00	194.00	204.00	210.00	211.00	211.00	213.00	213.00	212.00	189.00	170.00	162.00	171.00	185.00	198.00	200.00	201.00	213.00	219.00	226.00	236.00	251.00	232.00	177.00	162.00	157.00	158.00	157.00	157.00	157.00	157.00	165.00	197.00	203.00	207.00	212.00	216.00	220.00	216.00	212.00	200.00	192.00	185.00	183.00	184.00	186.00	173.00	176.00	175.00	177.00	189.00	192.00	198.00	204.00	202.00	209.00	210.00	203.00	206.00	211.00	212.00	210.00	203.00	187.00	188.00	182.00	173.00	171.00	172.00	159.00	158.00	158.00	158.00	158.00	158.00	158.00	158.00	159.00	164.00	170.00	177.00	181.00	181.00	186.00	191.00	194.00	199.00	201.00	202.00	203.00	210.00	209.00	214.00	220.00	229.00	230.00	239.00	241.00	243.00	264.00	278.00	293.00	300.00
157.00	157.00	157.00	157.00	157.00	157.00	157.00	157.00	157.00	157.00	157.00	157.00	157.00	157.00	162.00	187.00	231.00	267.00	281.00	282.00	277.00	274.00	271.00	268.00	268.00	268.00	269.00	276.00	297.00	289.00	299.00	301.00	309.00	301.00	291.00	283.00	277.00	266.00	260.00	257.00	257.00	246.00	255.00	252.00	249.00	252.00	259.00	263.00	264.00	267.00	263.00	258.00	257.00	263.00	269.00	261.00	262.00	268.00	280.00	285.00	278.00	255.00	245.00	245.00	252.00	273.00	267.00	264.00	283.00	298.00	308.00	311.00	313.00	336.00	333.00	330.00	322.00	381.00	404.00	406.00	400.00	395.00	393.00	400.00	405.00	406.00	398.00	397.00	400.00	401.00	399.00	384.00	397.00	406.00	402.00	381.00	350.00	372.00	376.00	367.00	312.00	325.00	334.00	322.00	281.00	299.00	353.00	377.00	399.00	407.00	399.00	395.00	379.00	263.00	213.00	172.00	157.00	157.00	173.00	220.00	197.00	182.00	178.00	178.00	179.00	183.00	189.00	215.00	248.00	271.00	271.00	265.00	258.00	243.00	239.00	224.00	222.00	211.00	192.00	186.00	182.00	183.00	179.00	184.00	164.00	163.00	164.00	169.00	173.00	171.00	166.00	167.00	170.00	184.00	194.00	204.00	210.00	211.00	211.00	213.00	213.00	212.00	189.00	170.00	162.00	171.00	185.00	198.00	200.00	201.00	213.00	219.00	226.00	236.00	251.00	232.00	177.00	162.00	157.00	158.00	157.00	157.00	157.00	157.00	165.00	197.00	203.00	207.00	212.00	216.00	220.00	216.00	212.00	200.00	192.00	185.00	183.00	184.00	186.00	173.00	176.00	175.00	177.00	189.00	192.00	198.00	204.00	202.00	209.00	210.00	203.00	206.00	211.00	212.00	210.00	203.00	187.00	188.00	182.00	173.00	171.00	172.00	159.00	158.00	158.00	158.00	158.00	158.00	158.00	158.00	159.00	164.00	170.00	177.00	181.00	181.00	186.00	191.00	194.00	199.00	201.00	202.00	203.00	210.00	209.00	214.00	220.00	229.00	230.00	239.00	241.00	243.00	264.00	278.00	293.00	300.00
157.00	157.00	157.00	157.00	157.00	157.00	157.00	157.00	157.00	157.00	157.00	157.00	157.00	171.00	239.00	263.00	263.00	263.00	267.00	273.00	277.00	277.00	273.00	269.00	277.00	287.00	296.00	304.00	294.00	287.00	282.00	278.00	268.00	264.00	261.00	258.00	259.00	257.00	261.00	259.00	262.00	263.00	266.00	274.00	305.00	356.00	373.00	378.00	383.00	395.00	382.00	355.00	333.00	367.00	396.00	365.00	360.00	374.00	385.00	335.00	307.00	282.00	250.00	247.00	270.00	285.00	289.00	312.00	370.00	392.00	405.00	405.00	405.00	406.00	407.00	407.00	418.00	420.00	424.00	423.00	418.00	415.00	402.00	389.00	392.00	395.00	372.00	373.00	378.00	378.00	373.00	384.00	389.00	398.00	409.00	411.00	405.00	406.00	397.00	387.00	378.00	396.00	409.00	413.00	360.00	318.00	310.00	410.00	407.00	409.00	409.00	409.00	400.00	338.00	255.00	180.00	157.00	157.00	237.00	258.00	266.00	268.00	250.00	230.00	214.00	244.00	294.00	361.00	399.00	401.00	401.00	378.00	366.00	365.00	388.00	365.00	326.00	290.00	288.00	296.00	247.00	244.00	244.00	232.00	213.00	216.00	212.00	212.00	205.00	199.00	198.00	198.00	198.00	203.00	208.00	216.00	222.00	225.00	241.00	223.00	210.00	197.00	182.00	181.00	182.00	187.00	196.00	225.00	232.00	236.00	231.00	246.00	255.00	266.00	270.00	266.00	259.00	236.00	187.00	160.00	157.00	157.00	159.00	194.00	231.00	241.00	239.00	237.00	235.00	234.00	237.00	242.00	243.00	228.00	196.00	184.00	182.00	181.00	183.00	189.00	198.00	197.00	177.00	184.00	183.00	185.00	187.00	188.00	187.00	187.00	188.00	188.00	192.00	197.00	193.00	191.00	187.00	194.00	196.00	198.00	199.00	198.00	187.00	177.00	174.00	166.00	160.00	158.00	159.00	158.00	158.00	158.00	158.00	161.00	161.00	162.00	165.00	169.00	172.00	176.00	176.00	176.00	178.00	185.00	193.00	204.00	219.00	236.00	260.00	253.00	240.00	245.00	262.00	275.00	289.00	297.00
157.00	157.00	157.00	157.00	157.00	157.00	157.00	157.00	157.00	157.00	157.00	157.00	157.00	171.00	239.00	263.00	263.00	263.00	267.00	273.00	277.00	277.00	273.00	269.00	277.00	287.00	296.00	304.00	294.00	287.00	282.00	278.00	268.00	264.00	261.00	258.00	259.00	257.00	261.00	259.00	262.00	263.00	266.00	274.00	305.00	356.00	373.00	378.00	383.00	395.00	382.00	355.00	333.00	367.00	396.00	365.00	360.00	374.00	385.00	335.00	307.00	282.00	250.00	247.00	270.00	285.00	289.00	312.00	370.00	392.00	405.00	405.00	405.00	406.00	407.00	407.00	418.00	420.00	424.00	423.00	418.00	415.00	402.00	389.00	392.00	395.00	372.00	373.00	378.00	378.00	373.00	384.00	389.00	398.00	409.00	411.00	405.00	406.00	397.00	387.00	378.00	396.00	409.00	413.00	360.00	318.00	310.00	410.00	407.00	409.00	409.00	409.00	400.00	338.00	255.00	180.00	157.00	157.00	237.00	258.00	266.00	268.00	250.00	230.00	214.00	244.00	294.00	361.00	399.00	401.00	401.00	378.00	366.00	365.00	388.00	365.00	326.00	290.00	288.00	296.00	247.00	244.00	244.00	232.00	213.00	216.00	212.00	212.00	205.00	199.00	198.00	198.00	198.00	203.00	208.00	216.00	222.00	225.00	241.00	223.00	210.00	197.00	182.00	181.00	182.00	187.00	196.00	225.00	232.00	236.00	231.00	246.00	255.00	266.00	270.00	266.00	259.00	236.00	187.00	160.00	157.00	157.00	159.00	194.00	231.00	241.00	239.00	237.00	235.00	234.00	237.00	242.00	243.00	228.00	196.00	184.00	182.00	181.00	183.00	189.00	198.00	197.00	177.00	184.00	183.00	185.00	187.00	188.00	187.00	187.00	188.00	188.00	192.00	197.00	193.00	191.00	187.00	194.00	196.00	198.00	199.00	198.00	187.00	177.00	174.00	166.00	160.00	158.00	159.00	158.00	158.00	158.00	158.00	161.00	161.00	162.00	165.00	169.00	172.00	176.00	176.00	176.00	178.00	185.00	193.00	204.00	219.00	236.00	260.00	253.00	240.00	245.00	262.00	275.00	289.00	297.00
157.00	157.00	157.00	157.00	157.00	157.00	157.00	157.00	157.00	157.00	158.00	168.00	188.00	246.00	258.00	256.00	261.00	268.00	272.00	273.00	272.00	275.00	280.00	301.00	303.00	301.00	299.00	298.00	281.00	274.00	269.00	261.00	259.00	268.00	269.00	271.00	270.00	270.00	287.00	308.00	330.00	359.00	375.00	381.00	397.00	397.00	407.00	411.00	410.00	410.00	411.00	403.00	398.00	406.00	407.00	399.00	395.00	390.00	393.00	301.00	273.00	279.00	309.00	344.00	390.00	388.00	397.00	408.00	411.00	412.00	412.00	417.00	418.00	399.00	405.00	403.00	410.00	405.00	401.00	394.00	387.00	383.00	367.00	359.00	354.00	349.00	366.00	380.00	394.00	403.00	406.00	403.00	397.00	397.00	395.00	411.00	409.00	400.00	377.00	369.00	400.00	406.00	410.00	412.00	403.00	383.00	318.00	396.00	409.00	410.00	410.00	411.00	402.00	330.00	255.00	182.00	159.00	157.00	295.00	342.00	376.00	375.00	293.00	271.00	280.00	378.00	410.00	411.00	404.00	397.00	389.00	374.00	374.00	380.00	402.00	411.00	403.00	376.00	391.00	415.00	399.00	375.00	360.00	356.00	345.00	335.00	320.00	305.00	282.00	283.00	293.00	283.00	265.00	244.00	252.00	260.00	264.00	267.00	266.00	224.00	219.00	220.00	230.00	247.00	258.00	253.00	255.00	261.00	267.00	268.00	297.00	354.00	370.00	380.00	379.00	379.00	352.00	263.00	203.00	181.00	169.00	200.00	274.00	371.00	394.00	402.00	399.00	393.00	378.00	352.00	331.00	298.00	279.00	250.00	213.00	201.00	193.00	191.00	194.00	199.00	203.00	208.00	188.00	192.00	196.00	195.00	191.00	187.00	186.00	182.00	181.00	182.00	198.00	196.00	188.00	189.00	191.00	191.00	193.00	194.00	194.00	194.00	187.00	186.00	195.00	199.00	197.00	198.00	202.00	199.00	189.00	181.00	176.00	164.00	158.00	158.00	158.00	158.00	158.00	158.00	159.00	159.00	161.00	198.00	212.00	203.00	194.00	194.00	205.00	212.00	217.00	224.00	244.00	249.00	261.00	262.00
157.00	157.00	157.00	157.00	157.00	157.00	157.00	157.00	157.00	157.00	179.00	221.00	244.00	249.00	255.00	257.00	256.00	258.00	260.00	276.00	297.00	302.00	303.00	292.00	285.00	279.00	276.00	276.00	271.00	270.00	271.00	280.00	301.00	310.00	309.00	321.00	336.00	374.00	405.00	416.00	422.00	422.00	420.00	417.00	412.00	403.00	408.00	410.00	411.00	410.00	411.00	412.00	410.00	409.00	406.00	404.00	394.00	389.00	374.00	326.00	345.00	383.00	397.00	398.00	411.00	406.00	400.00	404.00	401.00	400.00	397.00	400.00	399.00	392.00	387.00	380.00	369.00	351.00	343.00	341.00	341.00	344.00	348.00	351.00	354.00	378.00	383.00	395.00	399.00	405.00	411.00	413.00	411.00	410.00	409.00	396.00	404.00	406.00	375.00	378.00	411.00	409.00	408.00	410.00	397.00	388.00	364.00	345.00	331.00	402.00	406.00	406.00	403.00	236.00	180.00	157.00	157.00	157.00	402.00	406.00	395.00	380.00	302.00	343.00	387.00	392.00	388.00	384.00	386.00	392.00	396.00	387.00	359.00	357.00	367.00	380.00	382.00	382.00	396.00	400.00	410.00	409.00	407.00	409.00	411.00	413.00	413.00	400.00	392.00	402.00	405.00	402.00	376.00	328.00	340.00	339.00	304.00	284.00	273.00	274.00	284.00	292.00	347.00	357.00	356.00	353.00	355.00	351.00	351.00	335.00	268.00	354.00	361.00	355.00	351.00	346.00	237.00	218.00	213.00	225.00	322.00	349.00	365.00	370.00	377.00	393.00	389.00	389.00	387.00	397.00	386.00	368.00	337.00	294.00	240.00	239.00	244.00	245.00	249.00	241.00	240.00	252.00	216.00	200.00	197.00	198.00	204.00	205.00	202.00	199.00	191.00	182.00	196.00	193.00	191.00	194.00	196.00	198.00	198.00	194.00	191.00	191.00	191.00	191.00	191.00	192.00	193.00	194.00	194.00	195.00	199.00	203.00	208.00	211.00	199.00	188.00	182.00	183.00	174.00	163.00	167.00	180.00	190.00	222.00	226.00	225.00	211.00	201.00	200.00	198.00	199.00	202.00	212.00	216.00	234.00	239.00
157.00	157.00	157.00	157.00	157.00	157.00	157.00	157.00	157.00	157.00	179.00	221.00	244.00	249.00	255.00	257.00	256.00	258.00	260.00	276.00	297.00	302.00	303.00	292.00	285.00	279.00	276.00	276.00	271.00	270.00	271.00	280.00	301.00	310.00	309.00	321.00	336.00	374.00	405.00	416.00	422.00	422.00	420.00	417.00	412.00	403.00	408.00	410.00	411.00	410.00	411.00	412.00	410.00	409.00	406.00	404.00	394.00	389.00	374.00	326.00	345.00	383.00	397.00	398.00	411.00	406.00	400.00	404.00	401.00	400.00	397.00	400.00	399.00	392.00	387.00	380.00	369.00	351.00	343.00	341.00	341.00	344.00	348.00	351.00	354.00	378.00	383.00	395.00	399.00	405.00	411.00	413.00	411.00	410.00	409.00	396.00	404.00	406.00	375.00	378.00	411.00	409.00	408.00	410.00	397.00	388.00	364.00	345.00	331.00	402.00	406.00	406.00	403.00	236.00	180.00	157.00	157.00	157.00	402.00	406.00	395.00	380.00	302.00	343.00	387.00	392.00	388.00	384.00	386.00	392.00	396.00	387.00	359.00	357.00	367.00	380.00	382.00	382.00	396.00	400.00	410.00	409.00	407.00	409.00	411.00	413.00	413.00	400.00	392.00	402.00	405.00	402.00	376.00	328.00	340.00	339.00	304.00	284.00	273.00	274.00	284.00	292.00	347.00	357.00	356.00	353.00	355.00	351.00	351.00	335.00	268.00	354.00	361.00	355.00	351.00	346.00	237.00	218.00	213.00	225.00	322.00	349.00	365.00	370.00	377.00	393.00	389.00	389.00	387.00	397.00	386.00	368.00	337.00	294.00	240.00	239.00	244.00	245.00	249.00	241.00	240.00	252.00	216.00	200.00	197.00	198.00	204.00	205.00	202.00	199.00	191.00	182.00	196.00	193.00	191.00	194.00	196.00	198.00	198.00	194.00	191.00	191.00	191.00	191.00	191.00	192.00	193.00	194.00	194.00	195.00	199.00	203.00	208.00	211.00	199.00	188.00	182.00	183.00	174.00	163.00	167.00	180.00	190.00	222.00	226.00	225.00	211.00	201.00	200.00	198.00	199.00	202.00	212.00	216.00	234.00	239.00
157.00	157.00	157.00	157.00	157.00	161.00	176.00	188.00	200.00	209.00	237.00	237.00	235.00	244.00	242.00	245.00	245.00	255.00	268.00	289.00	289.00	287.00	285.00	277.00	275.00	270.00	268.00	272.00	311.00	320.00	341.00	364.00	379.00	396.00	407.00	414.00	422.00	419.00	411.00	412.00	409.00	400.00	399.00	399.00	399.00	397.00	388.00	396.00	404.00	403.00	395.00	396.00	399.00	395.00	382.00	379.00	378.00	375.00	330.00	320.00	359.00	367.00	368.00	369.00	374.00	374.00	374.00	376.00	380.00	379.00	378.00	379.00	369.00	355.00	349.00	343.00	345.00	354.00	350.00	353.00	354.00	358.00	365.00	375.00	382.00	374.00	391.00	404.00	412.00	409.00	410.00	412.00	413.00	412.00	407.00	397.00	384.00	376.00	383.00	404.00	410.00	405.00	407.00	407.00	401.00	399.00	390.00	365.00	326.00	330.00	365.00	344.00	280.00	159.00	157.00	157.00	157.00	161.00	392.00	393.00	380.00	345.00	340.00	369.00	371.00	369.00	369.00	368.00	376.00	385.00	386.00	386.00	362.00	324.00	323.00	332.00	356.00	370.00	384.00	394.00	396.00	393.00	397.00	397.00	403.00	392.00	382.00	379.00	374.00	379.00	378.00	376.00	357.00	303.00	286.00	278.00	288.00	302.00	338.00	361.00	359.00	343.00	350.00	349.00	346.00	348.00	343.00	327.00	330.00	319.00	278.00	310.00	324.00	324.00	310.00	271.00	247.00	220.00	217.00	252.00	346.00	344.00	348.00	347.00	354.00	369.00	371.00	368.00	369.00	366.00	354.00	296.00	283.00	296.00	342.00	356.00	357.00	352.00	345.00	343.00	342.00	333.00	289.00	245.00	230.00	220.00	222.00	225.00	229.00	235.00	241.00	235.00	224.00	215.00	214.00	225.00	221.00	209.00	207.00	209.00	210.00	212.00	211.00	204.00	201.00	196.00	193.00	191.00	191.00	191.00	191.00	192.00	192.00	195.00	197.00	197.00	200.00	204.00	202.00	200.00	212.00	213.00	212.00	214.00	213.00	213.00	212.00	212.00	222.00	220.00	201.00	198.00	215.00	221.00	219.00	223.00
157.00	157.00	164.00	182.00	200.00	239.00	237.00	237.00	236.00	235.00	235.00	235.00	235.00	235.00	245.00	262.00	275.00	272.00	269.00	272.00	275.00	275.00	273.00	300.00	306.00	317.00	323.00	333.00	350.00	373.00	388.00	400.00	400.00	408.00	404.00	400.00	396.00	384.00	380.00	380.00	379.00	383.00	388.00	398.00	392.00	388.00	382.00	389.00	385.00	380.00	368.00	367.00	369.00	376.00	370.00	395.00	363.00	307.00	275.00	360.00	361.00	365.00	368.00	377.00	364.00	358.00	355.00	352.00	362.00	365.00	358.00	344.00	345.00	351.00	356.00	364.00	387.00	395.00	395.00	405.00	415.00	420.00	386.00	378.00	382.00	369.00	396.00	411.00	412.00	412.00	411.00	411.00	412.00	412.00	407.00	398.00	374.00	373.00	402.00	413.00	411.00	411.00	410.00	408.00	408.00	409.00	404.00	325.00	273.00	214.00	223.00	188.00	169.00	157.00	157.00	161.00	172.00	197.00	368.00	363.00	350.00	324.00	358.00	359.00	358.00	357.00	356.00	350.00	361.00	361.00	367.00	368.00	356.00	326.00	304.00	310.00	327.00	355.00	362.00	369.00	382.00	381.00	378.00	386.00	367.00	361.00	354.00	347.00	344.00	347.00	328.00	291.00	269.00	286.00	308.00	321.00	317.00	314.00	311.00	315.00	319.00	325.00	313.00	320.00	318.00	311.00	308.00	298.00	294.00	287.00	288.00	302.00	304.00	291.00	259.00	252.00	207.00	198.00	247.00	338.00	332.00	323.00	319.00	322.00	329.00	363.00	369.00	366.00	362.00	354.00	348.00	359.00	375.00	374.00	380.00	374.00	377.00	373.00	359.00	331.00	314.00	292.00	285.00	281.00	284.00	280.00	292.00	331.00	338.00	336.00	309.00	296.00	249.00	245.00	246.00	246.00	244.00	236.00	235.00	240.00	249.00	267.00	269.00	262.00	256.00	247.00	235.00	220.00	204.00	194.00	191.00	191.00	191.00	191.00	192.00	192.00	191.00	192.00	193.00	197.00	202.00	210.00	213.00	210.00	205.00	206.00	208.00	205.00	211.00	212.00	206.00	209.00	220.00	224.00	229.00	224.00
157.00	157.00	164.00	182.00	200.00	239.00	237.00	237.00	236.00	235.00	235.00	235.00	235.00	235.00	245.00	262.00	275.00	272.00	269.00	272.00	275.00	275.00	273.00	300.00	306.00	317.00	323.00	333.00	350.00	373.00	388.00	400.00	400.00	408.00	404.00	400.00	396.00	384.00	380.00	380.00	379.00	383.00	388.00	398.00	392.00	388.00	382.00	389.00	385.00	380.00	368.00	367.00	369.00	376.00	370.00	395.00	363.00	307.00	275.00	360.00	361.00	365.00	368.00	377.00	364.00	358.00	355.00	352.00	362.00	365.00	358.00	344.00	345.00	351.00	356.00	364.00	387.00	395.00	395.00	405.00	415.00	420.00	386.00	378.00	382.00	369.00	396.00	411.00	412.00	412.00	411.00	411.00	412.00	412.00	407.00	398.00	374.00	373.00	402.00	413.00	411.00	411.00	410.00	408.00	408.00	409.00	404.00	325.00	273.00	214.00	223.00	188.00	169.00	157.00	157.00	161.00	172.00	197.00	368.00	363.00	350.00	324.00	358.00	359.00	358.00	357.00	356.00	350.00	361.00	361.00	367.00	368.00	356.00	326.00	304.00	310.00	327.00	355.00	362.00	369.00	382.00	381.00	378.00	386.00	367.00	361.00	354.00	347.00	344.00	347.00	328.00	291.00	269.00	286.00	308.00	321.00	317.00	314.00	311.00	315.00	319.00	325.00	313.00	320.00	318.00	311.00	308.00	298.00	294.00	287.00	288.00	302.00	304.00	291.00	259.00	252.00	207.00	198.00	247.00	338.00	332.00	323.00	319.00	322.00	329.00	363.00	369.00	366.00	362.00	354.00	348.00	359.00	375.00	374.00	380.00	374.00	377.00	373.00	359.00	331.00	314.00	292.00	285.00	281.00	284.00	280.00	292.00	331.00	338.00	336.00	309.00	296.00	249.00	245.00	246.00	246.00	244.00	236.00	235.00	240.00	249.00	267.00	269.00	262.00	256.00	247.00	235.00	220.00	204.00	194.00	191.00	191.00	191.00	191.00	192.00	192.00	191.00	192.00	193.00	197.00	202.00	210.00	213.00	210.00	205.00	206.00	208.00	205.00	211.00	212.00	206.00	209.00	220.00	224.00	229.00	224.00
160.00	192.00	242.00	241.00	240.00	240.00	239.00	251.00	261.00	266.00	267.00	262.00	259.00	261.00	278.00	277.00	278.00	279.00	283.00	285.00	296.00	308.00	328.00	394.00	404.00	408.00	412.00	403.00	407.00	407.00	405.00	403.00	394.00	391.00	395.00	397.00	394.00	369.00	346.00	346.00	346.00	350.00	368.00	378.00	369.00	355.00	330.00	314.00	315.00	320.00	358.00	382.00	393.00	391.00	391.00	351.00	276.00	251.00	313.00	367.00	372.00	372.00	368.00	373.00	365.00	350.00	340.00	340.00	341.00	340.00	340.00	344.00	355.00	373.00	373.00	382.00	377.00	377.00	383.00	393.00	394.00	402.00	398.00	384.00	378.00	374.00	387.00	404.00	404.00	399.00	404.00	411.00	411.00	411.00	404.00	396.00	367.00	374.00	398.00	404.00	413.00	411.00	408.00	413.00	407.00	405.00	374.00	278.00	209.00	157.00	157.00	157.00	157.00	157.00	166.00	184.00	197.00	219.00	345.00	343.00	325.00	341.00	349.00	347.00	345.00	342.00	340.00	335.00	327.00	327.00	330.00	336.00	333.00	327.00	303.00	319.00	303.00	312.00	344.00	361.00	353.00	352.00	351.00	351.00	346.00	339.00	335.00	329.00	328.00	309.00	309.00	310.00	320.00	316.00	309.00	310.00	311.00	317.00	320.00	294.00	306.00	298.00	303.00	290.00	289.00	289.00	287.00	277.00	277.00	284.00	282.00	268.00	257.00	253.00	249.00	238.00	214.00	266.00	299.00	308.00	325.00	317.00	310.00	311.00	318.00	335.00	339.00	338.00	331.00	343.00	341.00	354.00	345.00	355.00	365.00	367.00	372.00	362.00	327.00	302.00	316.00	321.00	313.00	339.00	344.00	345.00	340.00	359.00	357.00	355.00	356.00	366.00	347.00	327.00	319.00	320.00	284.00	272.00	266.00	255.00	258.00	289.00	296.00	295.00	289.00	254.00	253.00	249.00	247.00	238.00	222.00	218.00	214.00	210.00	210.00	207.00	204.00	197.00	191.00	190.00	199.00	210.00	211.00	218.00	202.00	193.00	188.00	187.00	196.00	197.00	190.00	194.00	206.00	210.00	215.00	216.00
160.00	192.00	242.00	241.00	240.00	240.00	239.00	251.00	261.00	266.00	267.00	262.00	259.00	261.00	278.00	277.00	278.00	279.00	283.00	285.00	296.00	308.00	328.00	394.00	404.00	408.00	412.00	403.00	407.00	407.00	405.00	403.00	394.00	391.00	395.00	397.00	394.00	369.00	346.00	346.00	346.00	350.00	368.00	378.00	369.00	355.00	330.00	314.00	315.00	320.00	358.00	382.00	393.00	391.00	391.00	351.00	276.00	251.00	313.00	367.00	372.00	372.00	368.00	373.00	365.00	350.00	340.00	340.00	341.00	340.00	340.00	344.00	355.00	373.00	373.00	382.00	377.00	377.00	383.00	393.00	394.00	402.00	398.00	384.00	378.00	374.00	387.00	404.00	404.00	399.00	404.00	411.00	411.00	411.00	404.00	396.00	367.00	374.00	398.00	404.00	413.00	411.00	408.00	413.00	407.00	405.00	374.00	278.00	209.00	157.00	157.00	157.00	157.00	157.00	166.00	184.00	197.00	219.00	345.00	343.00	325.00	341.00	349.00	347.00	345.00	342.00	340.00	335.00	327.00	327.00	330.00	336.00	333.00	327.00	303.00	319.00	303.00	312.00	344.00	361.00	353.00	352.00	351.00	351.00	346.00	339.00	335.00	329.00	328.00	309.00	309.00	310.00	320.00	316.00	309.00	310.00	311.00	317.00	320.00	294.00	306.00	298.00	303.00	290.00	289.00	289.00	287.00	277.00	277.00	284.00	282.00	268.00	257.00	253.00	249.00	238.00	214.00	266.00	299.00	308.00	325.00	317.00	310.00	311.00	318.00	335.00	339.00	338.00	331.00	343.00	341.00	354.00	345.00	355.00	365.00	367.00	372.00	362.00	327.00	302.00	316.00	321.00	313.00	339.00	344.00	345.00	340.00	359.00	357.00	355.00	356.00	366.00	347.00	327.00	319.00	320.00	284.00	272.00	266.00	255.00	258.00	289.00	296.00	295.00	289.00	254.00	253.00	249.00	247.00	238.00	222.00	218.00	214.00	210.00	210.00	207.00	204.00	197.00	191.00	190.00	199.00	210.00	211.00	218.00	202.00	193.00	188.00	187.00	196.00	197.00	190.00	194.00	206.00	210.00	215.00	216.00
226.00	228.00	229.00	229.00	237.00	264.00	280.00	292.00	285.00	281.00	275.00	274.00	275.00	286.00	307.00	314.00	318.00	320.00	323.00	362.00	385.00	381.00	391.00	415.00	414.00	408.00	404.00	402.00	394.00	393.00	395.00	399.00	404.00	405.00	407.00	408.00	409.00	403.00	401.00	387.00	384.00	366.00	350.00	331.00	314.00	327.00	335.00	341.00	344.00	331.00	290.00	268.00	288.00	305.00	312.00	264.00	250.00	293.00	360.00	365.00	364.00	358.00	352.00	344.00	343.00	340.00	340.00	341.00	360.00	366.00	366.00	365.00	368.00	383.00	389.00	380.00	377.00	383.00	381.00	383.00	384.00	382.00	405.00	390.00	346.00	327.00	385.00	399.00	403.00	400.00	397.00	405.00	410.00	409.00	405.00	388.00	368.00	388.00	393.00	394.00	397.00	394.00	391.00	390.00	379.00	365.00	306.00	182.00	159.00	157.00	157.00	157.00	157.00	161.00	174.00	180.00	191.00	206.00	323.00	314.00	325.00	333.00	320.00	320.00	318.00	314.00	325.00	321.00	311.00	307.00	304.00	306.00	307.00	314.00	314.00	305.00	301.00	280.00	312.00	314.00	323.00	327.00	333.00	330.00	305.00	296.00	292.00	297.00	300.00	315.00	322.00	320.00	317.00	305.00	288.00	288.00	289.00	294.00	289.00	275.00	281.00	278.00	280.00	278.00	268.00	273.00	274.00	256.00	257.00	261.00	269.00	172.00	208.00	214.00	186.00	181.00	265.00	285.00	300.00	293.00	302.00	301.00	303.00	306.00	305.00	315.00	314.00	307.00	306.00	305.00	307.00	321.00	320.00	320.00	317.00	319.00	324.00	320.00	290.00	264.00	260.00	255.00	274.00	318.00	331.00	337.00	344.00	367.00	363.00	353.00	356.00	355.00	344.00	331.00	332.00	327.00	287.00	270.00	260.00	253.00	265.00	342.00	307.00	287.00	285.00	272.00	262.00	256.00	255.00	254.00	253.00	257.00	257.00	255.00	250.00	244.00	241.00	230.00	218.00	197.00	190.00	186.00	192.00	189.00	188.00	188.00	191.00	187.00	185.00	185.00	185.00	186.00	193.00	194.00	208.00	215.00
246.00	268.00	278.00	268.00	264.00	253.00	254.00	256.00	256.00	258.00	277.00	292.00	312.00	343.00	361.00	369.00	368.00	381.00	409.00	403.00	403.00	409.00	407.00	394.00	391.00	390.00	389.00	385.00	396.00	406.00	412.00	414.00	402.00	398.00	395.00	392.00	390.00	385.00	385.00	379.00	372.00	373.00	368.00	356.00	338.00	347.00	346.00	344.00	346.00	357.00	363.00	341.00	301.00	264.00	259.00	249.00	264.00	303.00	376.00	398.00	393.00	391.00	390.00	382.00	347.00	340.00	356.00	366.00	371.00	370.00	370.00	368.00	366.00	365.00	362.00	361.00	362.00	364.00	370.00	375.00	379.00	381.00	381.00	381.00	381.00	377.00	348.00	393.00	382.00	370.00	378.00	393.00	399.00	403.00	394.00	366.00	373.00	374.00	373.00	373.00	357.00	351.00	337.00	334.00	313.00	270.00	212.00	157.00	157.00	157.00	157.00	157.00	157.00	158.00	159.00	169.00	187.00	203.00	269.00	279.00	291.00	297.00	288.00	283.00	282.00	280.00	275.00	277.00	286.00	280.00	279.00	278.00	281.00	288.00	295.00	274.00	288.00	274.00	273.00	276.00	281.00	279.00	284.00	285.00	282.00	275.00	280.00	288.00	284.00	279.00	284.00	283.00	281.00	278.00	274.00	268.00	273.00	274.00	270.00	255.00	253.00	259.00	260.00	257.00	250.00	243.00	242.00	240.00	236.00	235.00	208.00	157.00	174.00	191.00	218.00	242.00	259.00	269.00	272.00	276.00	285.00	287.00	292.00	286.00	282.00	293.00	294.00	302.00	304.00	288.00	285.00	305.00	308.00	301.00	258.00	246.00	241.00	238.00	250.00	271.00	286.00	296.00	300.00	303.00	315.00	296.00	310.00	325.00	331.00	333.00	337.00	329.00	298.00	292.00	295.00	291.00	240.00	254.00	273.00	279.00	284.00	327.00	372.00	372.00	369.00	375.00	373.00	364.00	355.00	350.00	338.00	330.00	321.00	285.00	253.00	246.00	244.00	248.00	253.00	248.00	239.00	213.00	192.00	209.00	201.00	190.00	185.00	185.00	185.00	185.00	185.00	185.00	191.00	191.00	199.00	202.00
246.00	268.00	278.00	268.00	264.00	253.00	254.00	256.00	256.00	258.00	277.00	292.00	312.00	343.00	361.00	369.00	368.00	381.00	409.00	403.00	403.00	409.00	407.00	394.00	391.00	390.00	389.00	385.00	396.00	406.00	412.00	414.00	402.00	398.00	395.00	392.00	390.00	385.00	385.00	379.00	372.00	373.00	368.00	356.00	338.00	347.00	346.00	344.00	346.00	357.00	363.00	341.00	301.00	264.00	259.00	249.00	264.00	303.00	376.00	398.00	393.00	391.00	390.00	382.00	347.00	340.00	356.00	366.00	371.00	370.00	370.00	368.00	366.00	365.00	362.00	361.00	362.00	364.00	370.00	375.00	379.00	381.00	381.00	381.00	381.00	377.00	348.00	393.00	382.00	370.00	378.00	393.00	399.00	403.00	394.00	366.00	373.00	374.00	373.00	373.00	357.00	351.00	337.00	334.00	313.00	270.00	212.00	157.00	157.00	157.00	157.00	157.00	157.00	158.00	159.00	169.00	187.00	203.00	269.00	279.00	291.00	297.00	288.00	283.00	282.00	280.00	275.00	277.00	286.00	280.00	279.00	278.00	281.00	288.00	295.00	274.00	288.00	274.00	273.00	276.00	281.00	279.00	284.00	285.00	282.00	275.00	280.00	288.00	284.00	279.00	284.00	283.00	281.00	278.00	274.00	268.00	273.00	274.00	270.00	255.00	253.00	259.00	260.00	257.00	250.00	243.00	242.00	240.00	236.00	235.00	208.00	157.00	174.00	191.00	218.00	242.00	259.00	269.00	272.00	276.00	285.00	287.00	292.00	286.00	282.00	293.00	294.00	302.00	304.00	288.00	285.00	305.00	308.00	301.00	258.00	246.00	241.00	238.00	250.00	271.00	286.00	296.00	300.00	303.00	315.00	296.00	310.00	325.00	331.00	333.00	337.00	329.00	298.00	292.00	295.00	291.00	240.00	254.00	273.00	279.00	284.00	327.00	372.00	372.00	369.00	375.00	373.00	364.00	355.00	350.00	338.00	330.00	321.00	285.00	253.00	246.00	244.00	248.00	253.00	248.00	239.00	213.00	192.00	209.00	201.00	190.00	185.00	185.00	185.00	185.00	185.00	185.00	191.00	191.00	199.00	202.00
