752.00	753.00	751.00	747.00	744.00	744.00	742.00	740.00	738.00	743.00	737.00	738.00	741.00	745.00	739.00	738.00	737.00	735.00	737.00	736.00	737.00	734.00	730.00	733.00	733.00	737.00	738.00	735.00	731.00	733.00	734.00	730.00	728.00	736.00	744.00	757.00	760.00	759.00	762.00	770.00	774.00	766.00	765.00	768.00	767.00	769.00	760.00	759.00	760.00	761.00	754.00	753.00	751.00	746.00	748.00	750.00	751.00	750.00	751.00	746.00	744.00	740.00	736.00	735.00	733.00	732.00	737.00	739.00	736.00	736.00	737.00	736.00	735.00	736.00	736.00	734.00	736.00	737.00	732.00	730.00	730.00	731.00	734.00	729.00	728.00	727.00	730.00	730.00	730.00	727.00	727.00	729.00	731.00	725.00	724.00	723.00	726.00	729.00	728.00	726.00	729.00	722.00	721.00	722.00	715.00	715.00	715.00	718.00	720.00	719.00	716.00	717.00	715.00	717.00	717.00	714.00	715.00	718.00	721.00	723.00	720.00	715.00	710.00	710.00	713.00	715.00	715.00	711.00	712.00	710.00	712.00	715.00	715.00	716.00	711.00	715.00	714.00	715.00	717.00	715.00	715.00	714.00	714.00	716.00	716.00	717.00	715.00	714.00	712.00	713.00	712.00	713.00	711.00	711.00	710.00	709.00	706.00	706.00	706.00	707.00	705.00	705.00	705.00	705.00	707.00	708.00	706.00	706.00	706.00	709.00	707.00	705.00	705.00	705.00	704.00	705.00	697.00	671.00	666.00	664.00	663.00	662.00	662.00	662.00	660.00	663.00	663.00	659.00	657.00	656.00	656.00	657.00	658.00	658.00	660.00	662.00	667.00	673.00	695.00	707.00	707.00	706.00	706.00	705.00	707.00	705.00	704.00	704.00	703.00	702.00	701.00	698.00	697.00	697.00	697.00	695.00	696.00	695.00	695.00	696.00	694.00	683.00	680.00	679.00	683.00	677.00	673.00	677.00	685.00	685.00	670.00	669.00	673.00	675.00	662.00	663.00	663.00	661.00	662.00	668.00	659.00	651.00	650.00	655.00	634.00	630.00	631.00	629.00	633.00	634.00	618.00	615.00	609.00	607.00	610.00	604.00
750.00	750.00	751.00	750.00	750.00	745.00	744.00	746.00	743.00	743.00	741.00	740.00	747.00	741.00	739.00	744.00	739.00	737.00	737.00	734.00	729.00	732.00	730.00	733.00	735.00	733.00	735.00	738.00	734.00	734.00	734.00	732.00	729.00	729.00	736.00	739.00	749.00	763.00	768.00	770.00	769.00	766.00	770.00	770.00	769.00	770.00	762.00	759.00	755.00	756.00	754.00	750.00	745.00	748.00	750.00	749.00	745.00	745.00	747.00	741.00	746.00	746.00	732.00	731.00	733.00	729.00	729.00	731.00	736.00	732.00	733.00	734.00	733.00	728.00	729.00	727.00	731.00	732.00	730.00	729.00	729.00	726.00	726.00	726.00	726.00	725.00	723.00	723.00	726.00	725.00	725.00	722.00	723.00	725.00	722.00	724.00	730.00	729.00	725.00	722.00	727.00	723.00	725.00	721.00	711.00	710.00	712.00	716.00	719.00	712.00	712.00	714.00	715.00	714.00	717.00	716.00	712.00	710.00	714.00	711.00	715.00	715.00	706.00	710.00	712.00	712.00	709.00	711.00	711.00	711.00	711.00	714.00	712.00	715.00	715.00	709.00	712.00	712.00	712.00	715.00	716.00	716.00	714.00	713.00	712.00	710.00	713.00	714.00	713.00	709.00	710.00	711.00	710.00	710.00	709.00	707.00	708.00	711.00	706.00	703.00	703.00	703.00	704.00	705.00	705.00	706.00	705.00	702.00	701.00	702.00	702.00	704.00	703.00	704.00	704.00	703.00	703.00	696.00	677.00	679.00	661.00	662.00	662.00	661.00	660.00	662.00	664.00	662.00	662.00	657.00	657.00	654.00	655.00	655.00	657.00	657.00	657.00	659.00	668.00	676.00	682.00	692.00	702.00	702.00	704.00	703.00	703.00	703.00	703.00	700.00	699.00	698.00	695.00	697.00	697.00	695.00	693.00	693.00	693.00	695.00	694.00	686.00	689.00	690.00	691.00	673.00	671.00	672.00	678.00	683.00	668.00	665.00	665.00	667.00	666.00	673.00	667.00	663.00	664.00	663.00	663.00	668.00	669.00	648.00	644.00	650.00	650.00	628.00	621.00	623.00	618.00	602.00	598.00	598.00	599.00	595.00
752.00	750.00	751.00	749.00	752.00	749.00	744.00	743.00	743.00	743.00	742.00	740.00	741.00	741.00	741.00	743.00	738.00	739.00	735.00	736.00	731.00	733.00	730.00	727.00	734.00	734.00	733.00	739.00	732.00	732.00	733.00	731.00	730.00	728.00	730.00	740.00	750.00	757.00	759.00	767.00	769.00	766.00	766.00	767.00	769.00	767.00	763.00	760.00	756.00	754.00	752.00	746.00	743.00	748.00	749.00	749.00	744.00	744.00	744.00	742.00	748.00	742.00	731.00	732.00	735.00	729.00	728.00	728.00	733.00	732.00	731.00	733.00	732.00	726.00	726.00	726.00	726.00	730.00	727.00	730.00	731.00	729.00	727.00	725.00	724.00	723.00	721.00	720.00	722.00	722.00	723.00	721.00	720.00	722.00	721.00	724.00	729.00	727.00	723.00	722.00	725.00	727.00	729.00	721.00	711.00	709.00	710.00	712.00	713.00	715.00	710.00	709.00	713.00	713.00	716.00	715.00	709.00	707.00	710.00	708.00	712.00	715.00	704.00	704.00	709.00	710.00	708.00	709.00	709.00	709.00	710.00	712.00	712.00	713.00	714.00	710.00	712.00	711.00	712.00	715.00	715.00	714.00	717.00	715.00	711.00	709.00	712.00	713.00	713.00	709.00	709.00	710.00	708.00	711.00	708.00	707.00	708.00	711.00	706.00	704.00	703.00	702.00	702.00	703.00	703.00	704.00	704.00	702.00	701.00	702.00	702.00	701.00	704.00	705.00	704.00	705.00	698.00	698.00	697.00	702.00	665.00	661.00	661.00	660.00	660.00	660.00	659.00	658.00	659.00	662.00	658.00	656.00	655.00	656.00	656.00	656.00	657.00	656.00	663.00	668.00	671.00	676.00	680.00	703.00	703.00	702.00	701.00	702.00	703.00	701.00	698.00	700.00	695.00	695.00	696.00	695.00	694.00	692.00	693.00	693.00	692.00	690.00	693.00	693.00	689.00	673.00	670.00	668.00	672.00	678.00	668.00	665.00	663.00	663.00	667.00	672.00	666.00	662.00	664.00	665.00	664.00	670.00	668.00	656.00	663.00	663.00	655.00	637.00	624.00	622.00	616.00	610.00	595.00	596.00	593.00	586.00
755.00	752.00	753.00	754.00	753.00	749.00	748.00	746.00	746.00	743.00	739.00	740.00	742.00	742.00	742.00	742.00	739.00	743.00	736.00	737.00	732.00	732.00	733.00	729.00	736.00	733.00	734.00	734.00	734.00	732.00	733.00	731.00	730.00	728.00	729.00	734.00	739.00	754.00	755.00	760.00	766.00	762.00	763.00	764.00	763.00	766.00	762.00	761.00	759.00	755.00	753.00	745.00	743.00	745.00	747.00	747.00	742.00	743.00	742.00	744.00	748.00	739.00	730.00	731.00	735.00	731.00	727.00	727.00	730.00	731.00	731.00	732.00	731.00	729.00	725.00	724.00	722.00	727.00	727.00	729.00	730.00	729.00	729.00	724.00	723.00	723.00	720.00	719.00	719.00	720.00	721.00	719.00	719.00	720.00	720.00	727.00	732.00	730.00	724.00	720.00	725.00	728.00	728.00	722.00	710.00	707.00	708.00	711.00	711.00	713.00	712.00	708.00	711.00	711.00	714.00	715.00	712.00	711.00	704.00	707.00	708.00	714.00	710.00	705.00	704.00	708.00	710.00	712.00	709.00	708.00	710.00	711.00	710.00	712.00	714.00	711.00	711.00	712.00	714.00	712.00	714.00	710.00	711.00	711.00	711.00	711.00	712.00	713.00	710.00	712.00	710.00	708.00	707.00	709.00	708.00	705.00	708.00	709.00	706.00	705.00	703.00	704.00	701.00	702.00	702.00	703.00	704.00	702.00	701.00	701.00	701.00	699.00	701.00	704.00	706.00	706.00	699.00	698.00	698.00	699.00	668.00	664.00	663.00	663.00	660.00	660.00	660.00	663.00	661.00	656.00	658.00	656.00	655.00	655.00	656.00	656.00	656.00	656.00	658.00	662.00	663.00	666.00	671.00	690.00	698.00	700.00	701.00	701.00	702.00	700.00	699.00	699.00	697.00	697.00	694.00	695.00	692.00	691.00	692.00	693.00	691.00	689.00	690.00	691.00	685.00	680.00	670.00	667.00	667.00	668.00	665.00	666.00	664.00	662.00	664.00	665.00	666.00	663.00	658.00	661.00	662.00	661.00	661.00	660.00	669.00	665.00	657.00	642.00	626.00	618.00	610.00	614.00	603.00	596.00	590.00	582.00
756.00	754.00	752.00	755.00	752.00	751.00	750.00	749.00	749.00	749.00	740.00	740.00	741.00	744.00	739.00	738.00	740.00	741.00	736.00	739.00	731.00	732.00	731.00	730.00	730.00	731.00	730.00	729.00	735.00	733.00	733.00	730.00	731.00	729.00	729.00	731.00	736.00	751.00	755.00	759.00	765.00	760.00	759.00	759.00	760.00	765.00	764.00	762.00	757.00	753.00	754.00	746.00	741.00	744.00	745.00	743.00	740.00	741.00	741.00	742.00	745.00	736.00	729.00	731.00	733.00	732.00	726.00	726.00	728.00	729.00	732.00	731.00	730.00	729.00	725.00	722.00	721.00	723.00	725.00	728.00	729.00	727.00	726.00	722.00	722.00	721.00	720.00	719.00	717.00	718.00	720.00	719.00	717.00	719.00	721.00	724.00	725.00	724.00	721.00	720.00	722.00	721.00	725.00	722.00	708.00	707.00	708.00	710.00	708.00	708.00	707.00	710.00	710.00	710.00	711.00	714.00	715.00	713.00	705.00	709.00	707.00	712.00	715.00	712.00	705.00	707.00	711.00	713.00	710.00	709.00	711.00	710.00	710.00	712.00	711.00	710.00	711.00	710.00	712.00	712.00	711.00	710.00	710.00	709.00	712.00	710.00	708.00	710.00	709.00	711.00	709.00	708.00	707.00	708.00	711.00	707.00	708.00	706.00	703.00	703.00	702.00	703.00	701.00	702.00	701.00	701.00	701.00	700.00	700.00	701.00	699.00	696.00	700.00	702.00	705.00	705.00	699.00	698.00	697.00	696.00	675.00	672.00	672.00	678.00	665.00	666.00	669.00	677.00	666.00	662.00	656.00	653.00	655.00	654.00	655.00	655.00	655.00	655.00	654.00	656.00	659.00	660.00	664.00	672.00	687.00	698.00	695.00	698.00	701.00	700.00	700.00	698.00	696.00	695.00	695.00	694.00	691.00	690.00	690.00	690.00	690.00	691.00	690.00	689.00	687.00	685.00	674.00	672.00	669.00	666.00	667.00	667.00	665.00	664.00	664.00	664.00	665.00	661.00	653.00	655.00	654.00	658.00	658.00	659.00	662.00	660.00	658.00	653.00	621.00	615.00	608.00	616.00	602.00	595.00	596.00	585.00
761.00	757.00	754.00	754.00	755.00	750.00	749.00	753.00	753.00	751.00	748.00	745.00	743.00	745.00	739.00	743.00	743.00	738.00	737.00	738.00	729.00	727.00	730.00	731.00	730.00	730.00	729.00	728.00	733.00	734.00	732.00	734.00	731.00	731.00	732.00	739.00	748.00	758.00	766.00	769.00	767.00	757.00	754.00	756.00	761.00	762.00	759.00	759.00	759.00	755.00	754.00	749.00	740.00	740.00	740.00	743.00	739.00	736.00	734.00	738.00	737.00	733.00	730.00	727.00	727.00	726.00	727.00	727.00	728.00	729.00	730.00	728.00	726.00	725.00	723.00	722.00	720.00	719.00	721.00	727.00	726.00	722.00	720.00	720.00	720.00	719.00	717.00	716.00	716.00	714.00	714.00	720.00	716.00	718.00	719.00	721.00	722.00	722.00	719.00	717.00	718.00	718.00	718.00	716.00	705.00	705.00	707.00	708.00	705.00	706.00	708.00	710.00	710.00	707.00	709.00	712.00	713.00	710.00	706.00	706.00	709.00	707.00	707.00	709.00	708.00	706.00	707.00	709.00	710.00	709.00	707.00	708.00	710.00	710.00	711.00	708.00	710.00	709.00	710.00	709.00	709.00	709.00	707.00	709.00	707.00	706.00	706.00	707.00	707.00	706.00	705.00	707.00	706.00	705.00	706.00	704.00	707.00	705.00	703.00	704.00	705.00	706.00	699.00	699.00	700.00	701.00	704.00	699.00	698.00	698.00	698.00	697.00	698.00	698.00	697.00	699.00	698.00	696.00	698.00	700.00	697.00	698.00	697.00	701.00	693.00	700.00	699.00	695.00	692.00	697.00	699.00	673.00	653.00	652.00	653.00	654.00	654.00	653.00	654.00	654.00	654.00	653.00	653.00	657.00	661.00	665.00	674.00	698.00	698.00	699.00	698.00	699.00	697.00	697.00	696.00	694.00	693.00	692.00	690.00	689.00	690.00	689.00	689.00	688.00	686.00	685.00	684.00	684.00	679.00	672.00	665.00	665.00	664.00	669.00	665.00	661.00	661.00	656.00	656.00	646.00	652.00	659.00	660.00	662.00	655.00	650.00	652.00	650.00	620.00	620.00	613.00	614.00	598.00	597.00	593.00	591.00
759.00	761.00	756.00	758.00	758.00	752.00	754.00	752.00	753.00	753.00	745.00	745.00	748.00	744.00	744.00	747.00	741.00	738.00	735.00	736.00	730.00	726.00	729.00	729.00	729.00	729.00	729.00	728.00	733.00	732.00	731.00	732.00	731.00	731.00	735.00	740.00	749.00	763.00	769.00	769.00	767.00	757.00	755.00	757.00	761.00	761.00	756.00	754.00	756.00	755.00	753.00	746.00	741.00	737.00	741.00	742.00	739.00	735.00	733.00	736.00	735.00	732.00	733.00	727.00	726.00	724.00	724.00	723.00	730.00	727.00	727.00	728.00	727.00	724.00	724.00	723.00	721.00	722.00	723.00	723.00	725.00	723.00	721.00	718.00	718.00	717.00	716.00	716.00	716.00	713.00	717.00	718.00	713.00	718.00	719.00	717.00	720.00	718.00	719.00	717.00	718.00	717.00	715.00	715.00	702.00	704.00	706.00	707.00	702.00	709.00	709.00	710.00	708.00	707.00	708.00	708.00	710.00	709.00	705.00	704.00	706.00	706.00	704.00	706.00	705.00	705.00	702.00	708.00	709.00	707.00	706.00	708.00	708.00	708.00	710.00	709.00	709.00	709.00	710.00	709.00	708.00	707.00	708.00	708.00	706.00	705.00	706.00	705.00	705.00	704.00	704.00	706.00	706.00	704.00	704.00	705.00	704.00	705.00	702.00	702.00	702.00	702.00	700.00	698.00	700.00	699.00	701.00	697.00	696.00	697.00	700.00	695.00	694.00	695.00	695.00	697.00	700.00	697.00	697.00	698.00	697.00	700.00	699.00	699.00	696.00	704.00	704.00	701.00	693.00	693.00	699.00	685.00	654.00	653.00	652.00	655.00	653.00	652.00	653.00	653.00	653.00	653.00	653.00	654.00	657.00	659.00	665.00	691.00	694.00	697.00	698.00	699.00	697.00	696.00	696.00	693.00	692.00	691.00	689.00	689.00	687.00	687.00	687.00	687.00	686.00	684.00	681.00	679.00	672.00	669.00	661.00	659.00	664.00	674.00	663.00	661.00	661.00	662.00	657.00	643.00	647.00	654.00	665.00	662.00	654.00	643.00	642.00	640.00	617.00	615.00	613.00	606.00	594.00	590.00	591.00	589.00
763.00	765.00	759.00	760.00	761.00	753.00	755.00	752.00	751.00	750.00	748.00	747.00	746.00	742.00	750.00	749.00	740.00	738.00	737.00	736.00	728.00	727.00	731.00	731.00	728.00	729.00	727.00	727.00	731.00	733.00	730.00	733.00	732.00	733.00	737.00	744.00	750.00	767.00	771.00	768.00	766.00	758.00	755.00	754.00	756.00	760.00	755.00	752.00	752.00	753.00	751.00	744.00	739.00	735.00	741.00	742.00	739.00	732.00	731.00	733.00	734.00	732.00	734.00	728.00	723.00	724.00	722.00	725.00	726.00	726.00	724.00	724.00	725.00	724.00	725.00	721.00	721.00	721.00	723.00	720.00	721.00	725.00	720.00	716.00	718.00	716.00	715.00	715.00	714.00	713.00	713.00	717.00	712.00	714.00	717.00	715.00	716.00	716.00	715.00	715.00	717.00	715.00	714.00	713.00	701.00	703.00	705.00	704.00	703.00	707.00	707.00	709.00	709.00	708.00	709.00	709.00	707.00	704.00	706.00	702.00	706.00	708.00	704.00	707.00	705.00	699.00	699.00	707.00	709.00	704.00	704.00	709.00	708.00	707.00	708.00	707.00	707.00	708.00	710.00	708.00	708.00	707.00	707.00	706.00	706.00	705.00	707.00	705.00	704.00	706.00	704.00	705.00	706.00	703.00	705.00	705.00	702.00	702.00	704.00	700.00	699.00	699.00	699.00	699.00	700.00	699.00	699.00	697.00	695.00	696.00	699.00	695.00	693.00	696.00	696.00	698.00	697.00	693.00	693.00	696.00	697.00	696.00	697.00	696.00	697.00	699.00	701.00	702.00	693.00	690.00	696.00	692.00	660.00	651.00	651.00	652.00	653.00	653.00	653.00	653.00	653.00	652.00	652.00	652.00	652.00	653.00	656.00	674.00	675.00	697.00	696.00	698.00	696.00	696.00	695.00	694.00	694.00	692.00	689.00	690.00	689.00	686.00	686.00	685.00	685.00	687.00	684.00	679.00	678.00	670.00	661.00	662.00	665.00	670.00	661.00	662.00	663.00	659.00	650.00	645.00	645.00	650.00	658.00	657.00	654.00	642.00	638.00	644.00	615.00	611.00	614.00	605.00	594.00	590.00	588.00	588.00
765.00	766.00	760.00	759.00	759.00	756.00	755.00	753.00	753.00	753.00	751.00	751.00	749.00	745.00	742.00	747.00	739.00	737.00	738.00	736.00	734.00	732.00	735.00	743.00	730.00	729.00	728.00	729.00	727.00	733.00	731.00	732.00	732.00	734.00	740.00	745.00	751.00	769.00	772.00	771.00	768.00	757.00	754.00	753.00	752.00	755.00	755.00	753.00	750.00	752.00	750.00	742.00	738.00	733.00	735.00	740.00	738.00	732.00	731.00	732.00	729.00	728.00	733.00	730.00	720.00	721.00	722.00	724.00	725.00	725.00	721.00	722.00	723.00	724.00	725.00	722.00	721.00	719.00	722.00	719.00	719.00	720.00	722.00	717.00	716.00	715.00	716.00	714.00	711.00	711.00	712.00	717.00	712.00	713.00	715.00	715.00	717.00	716.00	713.00	714.00	712.00	712.00	712.00	711.00	701.00	702.00	704.00	701.00	705.00	706.00	706.00	706.00	706.00	708.00	710.00	710.00	706.00	703.00	704.00	702.00	703.00	706.00	704.00	705.00	703.00	703.00	702.00	706.00	706.00	703.00	705.00	708.00	707.00	706.00	706.00	706.00	703.00	707.00	709.00	709.00	709.00	707.00	707.00	704.00	706.00	706.00	704.00	706.00	704.00	703.00	703.00	703.00	704.00	706.00	707.00	704.00	702.00	701.00	703.00	702.00	699.00	698.00	698.00	699.00	701.00	702.00	699.00	698.00	696.00	695.00	696.00	696.00	694.00	695.00	697.00	697.00	694.00	693.00	691.00	694.00	698.00	696.00	694.00	695.00	694.00	697.00	697.00	697.00	698.00	689.00	688.00	691.00	661.00	652.00	650.00	650.00	651.00	652.00	651.00	652.00	652.00	652.00	651.00	652.00	651.00	651.00	651.00	657.00	665.00	694.00	694.00	697.00	695.00	696.00	694.00	694.00	692.00	692.00	691.00	688.00	688.00	684.00	685.00	685.00	685.00	684.00	685.00	685.00	685.00	677.00	664.00	668.00	671.00	668.00	662.00	666.00	669.00	665.00	656.00	647.00	648.00	653.00	655.00	655.00	653.00	640.00	634.00	637.00	618.00	614.00	611.00	607.00	596.00	592.00	588.00	586.00
779.00	784.00	763.00	762.00	762.00	758.00	757.00	759.00	758.00	756.00	753.00	754.00	749.00	747.00	748.00	745.00	747.00	749.00	745.00	739.00	742.00	739.00	741.00	756.00	751.00	737.00	727.00	728.00	725.00	727.00	728.00	730.00	732.00	736.00	739.00	745.00	752.00	772.00	771.00	769.00	767.00	756.00	753.00	752.00	749.00	750.00	748.00	747.00	746.00	747.00	747.00	740.00	737.00	734.00	730.00	738.00	739.00	737.00	731.00	727.00	724.00	724.00	731.00	729.00	720.00	722.00	723.00	722.00	721.00	720.00	717.00	724.00	723.00	717.00	720.00	723.00	721.00	721.00	717.00	719.00	718.00	718.00	718.00	710.00	711.00	712.00	711.00	711.00	711.00	710.00	712.00	712.00	708.00	715.00	716.00	716.00	717.00	711.00	707.00	707.00	708.00	706.00	705.00	703.00	698.00	699.00	699.00	701.00	703.00	703.00	704.00	705.00	701.00	705.00	709.00	710.00	709.00	704.00	700.00	701.00	701.00	702.00	704.00	702.00	700.00	702.00	697.00	705.00	702.00	703.00	706.00	705.00	705.00	705.00	703.00	703.00	703.00	703.00	704.00	706.00	709.00	707.00	705.00	703.00	708.00	706.00	704.00	706.00	704.00	703.00	702.00	703.00	704.00	705.00	704.00	701.00	701.00	700.00	701.00	700.00	702.00	699.00	698.00	699.00	699.00	699.00	697.00	697.00	697.00	695.00	693.00	694.00	694.00	696.00	699.00	699.00	696.00	693.00	692.00	693.00	694.00	693.00	693.00	695.00	693.00	687.00	685.00	692.00	695.00	692.00	691.00	690.00	689.00	669.00	650.00	650.00	646.00	648.00	651.00	650.00	650.00	651.00	651.00	651.00	650.00	649.00	650.00	649.00	650.00	667.00	679.00	680.00	693.00	694.00	694.00	693.00	693.00	693.00	691.00	688.00	685.00	685.00	683.00	682.00	681.00	682.00	683.00	684.00	684.00	684.00	678.00	679.00	677.00	672.00	672.00	674.00	673.00	671.00	666.00	655.00	662.00	656.00	653.00	651.00	646.00	650.00	645.00	636.00	627.00	620.00	618.00	610.00	603.00	596.00	594.00	590.00
779.00	784.00	763.00	762.00	762.00	758.00	757.00	759.00	758.00	756.00	753.00	754.00	749.00	747.00	748.00	745.00	747.00	749.00	745.00	739.00	742.00	739.00	741.00	756.00	751.00	737.00	727.00	728.00	725.00	727.00	728.00	730.00	732.00	736.00	739.00	745.00	752.00	772.00	771.00	769.00	767.00	756.00	753.00	752.00	749.00	750.00	748.00	747.00	746.00	747.00	747.00	740.00	737.00	734.00	730.00	738.00	739.00	737.00	731.00	727.00	724.00	724.00	731.00	729.00	720.00	722.00	723.00	722.00	721.00	720.00	717.00	724.00	723.00	717.00	720.00	723.00	721.00	721.00	717.00	719.00	718.00	718.00	718.00	710.00	711.00	712.00	711.00	711.00	711.00	710.00	712.00	712.00	708.00	715.00	716.00	716.00	717.00	711.00	707.00	707.00	708.00	706.00	705.00	703.00	698.00	699.00	699.00	701.00	703.00	703.00	704.00	705.00	701.00	705.00	709.00	710.00	709.00	704.00	700.00	701.00	701.00	702.00	704.00	702.00	700.00	702.00	697.00	705.00	702.00	703.00	706.00	705.00	705.00	705.00	703.00	703.00	703.00	703.00	704.00	706.00	709.00	707.00	705.00	703.00	708.00	706.00	704.00	706.00	704.00	703.00	702.00	703.00	704.00	705.00	704.00	701.00	701.00	700.00	701.00	700.00	702.00	699.00	698.00	699.00	699.00	699.00	697.00	697.00	697.00	695.00	693.00	694.00	694.00	696.00	699.00	699.00	696.00	693.00	692.00	693.00	694.00	693.00	693.00	695.00	693.00	687.00	685.00	692.00	695.00	692.00	691.00	690.00	689.00	669.00	650.00	650.00	646.00	648.00	651.00	650.00	650.00	651.00	651.00	651.00	650.00	649.00	650.00	649.00	650.00	667.00	679.00	680.00	693.00	694.00	694.00	693.00	693.00	693.00	691.00	688.00	685.00	685.00	683.00	682.00	681.00	682.00	683.00	684.00	684.00	684.00	678.00	679.00	677.00	672.00	672.00	674.00	673.00	671.00	666.00	655.00	662.00	656.00	653.00	651.00	646.00	650.00	645.00	636.00	627.00	620.00	618.00	610.00	603.00	596.00	594.00	590.00
777.00	779.00	766.00	763.00	761.00	765.00	766.00	765.00	761.00	757.00	756.00	755.00	753.00	751.00	750.00	748.00	746.00	748.00	747.00	741.00	760.00	755.00	736.00	744.00	753.00	740.00	731.00	728.00	724.00	727.00	726.00	729.00	731.00	734.00	738.00	743.00	749.00	768.00	771.00	770.00	765.00	757.00	752.00	751.00	750.00	747.00	747.00	745.00	741.00	741.00	745.00	739.00	735.00	733.00	729.00	736.00	737.00	736.00	728.00	727.00	723.00	723.00	728.00	728.00	718.00	720.00	722.00	721.00	718.00	718.00	721.00	723.00	719.00	721.00	720.00	720.00	721.00	714.00	713.00	718.00	716.00	717.00	716.00	710.00	709.00	711.00	709.00	711.00	709.00	709.00	711.00	709.00	706.00	712.00	712.00	716.00	710.00	704.00	705.00	704.00	706.00	705.00	706.00	702.00	703.00	705.00	708.00	703.00	704.00	704.00	703.00	702.00	701.00	703.00	705.00	707.00	709.00	707.00	700.00	703.00	702.00	700.00	703.00	703.00	699.00	697.00	695.00	700.00	700.00	700.00	704.00	706.00	706.00	705.00	702.00	704.00	703.00	702.00	702.00	702.00	708.00	709.00	707.00	706.00	706.00	704.00	704.00	705.00	702.00	704.00	703.00	704.00	704.00	703.00	701.00	699.00	700.00	700.00	699.00	698.00	699.00	698.00	698.00	697.00	700.00	699.00	697.00	694.00	694.00	693.00	694.00	693.00	694.00	695.00	699.00	699.00	697.00	695.00	693.00	692.00	692.00	690.00	691.00	692.00	693.00	688.00	685.00	695.00	695.00	691.00	691.00	691.00	690.00	677.00	652.00	650.00	649.00	647.00	648.00	649.00	650.00	650.00	651.00	650.00	649.00	650.00	648.00	648.00	648.00	654.00	660.00	670.00	690.00	691.00	693.00	692.00	692.00	692.00	690.00	686.00	686.00	684.00	683.00	683.00	683.00	681.00	682.00	685.00	682.00	684.00	682.00	678.00	676.00	674.00	671.00	671.00	665.00	660.00	658.00	665.00	667.00	662.00	657.00	650.00	651.00	655.00	660.00	642.00	628.00	625.00	623.00	609.00	607.00	600.00	599.00	592.00
771.00	768.00	766.00	767.00	774.00	775.00	777.00	768.00	761.00	759.00	755.00	756.00	755.00	754.00	749.00	752.00	749.00	746.00	747.00	743.00	772.00	775.00	744.00	765.00	772.00	760.00	747.00	737.00	727.00	726.00	728.00	729.00	733.00	734.00	736.00	741.00	746.00	759.00	768.00	771.00	767.00	757.00	753.00	750.00	748.00	748.00	750.00	746.00	742.00	738.00	743.00	738.00	734.00	733.00	731.00	728.00	732.00	732.00	727.00	727.00	723.00	721.00	727.00	727.00	718.00	719.00	721.00	720.00	718.00	719.00	721.00	720.00	716.00	722.00	723.00	721.00	719.00	712.00	712.00	716.00	716.00	718.00	714.00	709.00	709.00	709.00	708.00	709.00	708.00	707.00	709.00	705.00	707.00	710.00	710.00	713.00	704.00	702.00	701.00	703.00	704.00	703.00	702.00	701.00	705.00	706.00	708.00	707.00	707.00	706.00	702.00	701.00	700.00	700.00	699.00	703.00	706.00	707.00	703.00	706.00	701.00	699.00	700.00	701.00	700.00	700.00	699.00	696.00	700.00	701.00	704.00	705.00	705.00	702.00	700.00	705.00	703.00	704.00	702.00	704.00	707.00	705.00	707.00	706.00	706.00	701.00	704.00	703.00	701.00	706.00	707.00	705.00	704.00	699.00	698.00	698.00	700.00	700.00	695.00	696.00	700.00	698.00	697.00	698.00	699.00	699.00	695.00	693.00	693.00	692.00	693.00	693.00	692.00	692.00	694.00	697.00	697.00	696.00	693.00	692.00	691.00	693.00	689.00	686.00	688.00	689.00	689.00	693.00	694.00	690.00	691.00	693.00	693.00	678.00	656.00	658.00	654.00	650.00	646.00	648.00	649.00	649.00	650.00	649.00	649.00	648.00	647.00	648.00	648.00	650.00	653.00	658.00	688.00	688.00	690.00	691.00	692.00	690.00	690.00	688.00	686.00	683.00	682.00	682.00	680.00	680.00	680.00	682.00	681.00	681.00	683.00	680.00	680.00	677.00	672.00	667.00	662.00	660.00	658.00	662.00	671.00	668.00	661.00	647.00	654.00	659.00	661.00	641.00	631.00	630.00	623.00	610.00	606.00	606.00	600.00	592.00
782.00	785.00	784.00	779.00	784.00	774.00	776.00	781.00	775.00	768.00	762.00	759.00	758.00	758.00	756.00	758.00	754.00	752.00	752.00	769.00	772.00	759.00	745.00	757.00	766.00	766.00	757.00	747.00	735.00	725.00	727.00	728.00	732.00	733.00	731.00	730.00	732.00	749.00	752.00	757.00	762.00	758.00	755.00	751.00	749.00	747.00	751.00	747.00	743.00	739.00	743.00	734.00	732.00	730.00	733.00	729.00	726.00	722.00	722.00	719.00	718.00	717.00	721.00	725.00	715.00	715.00	718.00	718.00	718.00	715.00	711.00	712.00	712.00	718.00	717.00	716.00	716.00	706.00	707.00	715.00	715.00	717.00	715.00	709.00	707.00	706.00	708.00	710.00	711.00	706.00	708.00	703.00	701.00	711.00	709.00	704.00	702.00	697.00	699.00	700.00	699.00	700.00	698.00	700.00	701.00	702.00	704.00	707.00	710.00	709.00	703.00	697.00	695.00	697.00	695.00	697.00	700.00	703.00	699.00	704.00	707.00	706.00	697.00	699.00	702.00	704.00	704.00	693.00	694.00	693.00	690.00	700.00	700.00	704.00	703.00	704.00	703.00	704.00	702.00	703.00	699.00	701.00	701.00	705.00	704.00	705.00	705.00	702.00	705.00	707.00	707.00	708.00	702.00	703.00	702.00	699.00	700.00	701.00	695.00	693.00	692.00	695.00	696.00	696.00	694.00	693.00	693.00	693.00	693.00	696.00	695.00	691.00	691.00	693.00	695.00	694.00	694.00	694.00	692.00	694.00	690.00	688.00	690.00	689.00	684.00	676.00	678.00	686.00	689.00	682.00	684.00	688.00	689.00	690.00	688.00	688.00	689.00	694.00	645.00	646.00	644.00	646.00	646.00	648.00	648.00	647.00	647.00	647.00	647.00	646.00	646.00	646.00	654.00	657.00	667.00	684.00	691.00	689.00	687.00	688.00	687.00	684.00	683.00	681.00	680.00	677.00	678.00	678.00	679.00	680.00	682.00	679.00	679.00	678.00	677.00	675.00	674.00	672.00	665.00	663.00	663.00	660.00	653.00	658.00	654.00	651.00	653.00	658.00	642.00	631.00	626.00	612.00	605.00	603.00	602.00	602.00
782.00	785.00	784.00	779.00	784.00	774.00	776.00	781.00	775.00	768.00	762.00	759.00	758.00	758.00	756.00	758.00	754.00	752.00	752.00	769.00	772.00	759.00	745.00	757.00	766.00	766.00	757.00	747.00	735.00	725.00	727.00	728.00	732.00	733.00	731.00	730.00	732.00	749.00	752.00	757.00	762.00	758.00	755.00	751.00	749.00	747.00	751.00	747.00	743.00	739.00	743.00	734.00	732.00	730.00	733.00	729.00	726.00	722.00	722.00	719.00	718.00	717.00	721.00	725.00	715.00	715.00	718.00	718.00	718.00	715.00	711.00	712.00	712.00	718.00	717.00	716.00	716.00	706.00	707.00	715.00	715.00	717.00	715.00	709.00	707.00	706.00	708.00	710.00	711.00	706.00	708.00	703.00	701.00	711.00	709.00	704.00	702.00	697.00	699.00	700.00	699.00	700.00	698.00	700.00	701.00	702.00	704.00	707.00	710.00	709.00	703.00	697.00	695.00	697.00	695.00	697.00	700.00	703.00	699.00	704.00	707.00	706.00	697.00	699.00	702.00	704.00	704.00	693.00	694.00	693.00	690.00	700.00	700.00	704.00	703.00	704.00	703.00	704.00	702.00	703.00	699.00	701.00	701.00	705.00	704.00	705.00	705.00	702.00	705.00	707.00	707.00	708.00	702.00	703.00	702.00	699.00	700.00	701.00	695.00	693.00	692.00	695.00	696.00	696.00	694.00	693.00	693.00	693.00	693.00	696.00	695.00	691.00	691.00	693.00	695.00	694.00	694.00	694.00	692.00	694.00	690.00	688.00	690.00	689.00	684.00	676.00	678.00	686.00	689.00	682.00	684.00	688.00	689.00	690.00	688.00	688.00	689.00	694.00	645.00	646.00	644.00	646.00	646.00	648.00	648.00	647.00	647.00	647.00	647.00	646.00	646.00	646.00	654.00	657.00	667.00	684.00	691.00	689.00	687.00	688.00	687.00	684.00	683.00	681.00	680.00	677.00	678.00	678.00	679.00	680.00	682.00	679.00	679.00	678.00	677.00	675.00	674.00	672.00	665.00	663.00	663.00	660.00	653.00	658.00	654.00	651.00	653.00	658.00	642.00	631.00	626.00	612.00	605.00	603.00	602.00	602.00
794.00	796.00	793.00	787.00	785.00	784.00	776.00	784.00	782.00	774.00	771.00	764.00	763.00	762.00	761.00	757.00	754.00	754.00	754.00	773.00	764.00	764.00	759.00	735.00	736.00	732.00	736.00	749.00	741.00	730.00	725.00	727.00	731.00	733.00	732.00	729.00	732.00	745.00	747.00	749.00	752.00	759.00	755.00	751.00	749.00	749.00	751.00	749.00	745.00	741.00	742.00	733.00	731.00	728.00	730.00	728.00	725.00	726.00	722.00	718.00	717.00	717.00	717.00	719.00	718.00	713.00	717.00	717.00	716.00	715.00	712.00	710.00	713.00	714.00	714.00	715.00	713.00	713.00	709.00	712.00	713.00	717.00	716.00	710.00	709.00	710.00	708.00	708.00	708.00	704.00	706.00	706.00	700.00	710.00	705.00	700.00	698.00	695.00	697.00	698.00	695.00	696.00	698.00	699.00	699.00	698.00	697.00	698.00	706.00	707.00	702.00	700.00	697.00	698.00	696.00	696.00	700.00	702.00	700.00	703.00	707.00	708.00	698.00	697.00	700.00	701.00	705.00	701.00	697.00	698.00	691.00	699.00	700.00	703.00	703.00	703.00	702.00	703.00	702.00	702.00	700.00	699.00	705.00	703.00	702.00	703.00	702.00	702.00	704.00	705.00	706.00	706.00	705.00	701.00	700.00	701.00	698.00	697.00	696.00	695.00	693.00	695.00	697.00	696.00	697.00	694.00	694.00	692.00	691.00	692.00	693.00	693.00	691.00	692.00	694.00	695.00	691.00	691.00	690.00	693.00	691.00	688.00	689.00	690.00	688.00	681.00	679.00	683.00	683.00	676.00	681.00	684.00	686.00	687.00	685.00	686.00	690.00	691.00	652.00	644.00	644.00	646.00	645.00	648.00	647.00	647.00	647.00	646.00	647.00	646.00	646.00	645.00	649.00	650.00	656.00	670.00	689.00	688.00	687.00	688.00	686.00	684.00	683.00	683.00	679.00	678.00	677.00	677.00	676.00	678.00	681.00	680.00	679.00	679.00	678.00	676.00	675.00	676.00	675.00	669.00	657.00	655.00	653.00	658.00	651.00	650.00	656.00	657.00	639.00	633.00	628.00	615.00	608.00	605.00	604.00	609.00
807.00	813.00	803.00	805.00	800.00	785.00	787.00	790.00	789.00	786.00	772.00	768.00	767.00	770.00	759.00	760.00	759.00	761.00	762.00	757.00	757.00	780.00	777.00	738.00	737.00	733.00	733.00	753.00	748.00	740.00	729.00	727.00	729.00	732.00	732.00	730.00	733.00	744.00	745.00	746.00	746.00	759.00	754.00	751.00	750.00	749.00	751.00	749.00	747.00	744.00	744.00	733.00	730.00	728.00	729.00	726.00	724.00	723.00	720.00	717.00	716.00	716.00	716.00	718.00	716.00	711.00	716.00	715.00	715.00	714.00	714.00	713.00	712.00	711.00	711.00	712.00	711.00	710.00	705.00	706.00	713.00	718.00	713.00	711.00	711.00	713.00	709.00	706.00	706.00	705.00	702.00	705.00	699.00	706.00	702.00	699.00	695.00	693.00	697.00	694.00	692.00	694.00	694.00	695.00	698.00	696.00	698.00	695.00	697.00	703.00	703.00	702.00	697.00	698.00	694.00	695.00	698.00	700.00	700.00	698.00	705.00	708.00	698.00	697.00	696.00	699.00	700.00	699.00	698.00	699.00	696.00	694.00	700.00	702.00	702.00	700.00	700.00	703.00	702.00	702.00	700.00	698.00	703.00	701.00	698.00	697.00	697.00	699.00	701.00	703.00	700.00	700.00	698.00	699.00	699.00	699.00	696.00	696.00	696.00	696.00	695.00	695.00	697.00	695.00	696.00	696.00	695.00	692.00	693.00	692.00	690.00	689.00	691.00	692.00	694.00	693.00	689.00	689.00	690.00	688.00	692.00	688.00	687.00	685.00	686.00	684.00	682.00	685.00	680.00	673.00	674.00	677.00	681.00	685.00	681.00	681.00	685.00	689.00	650.00	644.00	644.00	646.00	644.00	647.00	646.00	647.00	646.00	646.00	647.00	645.00	645.00	645.00	645.00	647.00	650.00	661.00	688.00	687.00	686.00	684.00	683.00	685.00	684.00	683.00	681.00	677.00	677.00	675.00	675.00	675.00	680.00	681.00	679.00	680.00	677.00	677.00	676.00	674.00	673.00	671.00	660.00	658.00	657.00	651.00	649.00	654.00	663.00	655.00	651.00	635.00	625.00	620.00	605.00	606.00	605.00	614.00
833.00	848.00	835.00	826.00	816.00	814.00	810.00	803.00	797.00	795.00	773.00	767.00	765.00	765.00	773.00	778.00	780.00	779.00	777.00	772.00	760.00	788.00	783.00	755.00	741.00	738.00	731.00	746.00	768.00	750.00	738.00	726.00	728.00	729.00	731.00	730.00	729.00	739.00	742.00	743.00	742.00	753.00	757.00	755.00	756.00	754.00	750.00	751.00	748.00	746.00	744.00	734.00	729.00	726.00	729.00	723.00	721.00	720.00	716.00	716.00	714.00	713.00	714.00	715.00	713.00	709.00	709.00	711.00	713.00	712.00	712.00	714.00	707.00	705.00	707.00	707.00	704.00	709.00	704.00	706.00	712.00	714.00	714.00	716.00	715.00	714.00	711.00	709.00	708.00	707.00	701.00	699.00	698.00	696.00	696.00	698.00	695.00	689.00	688.00	693.00	691.00	692.00	691.00	688.00	693.00	693.00	696.00	698.00	696.00	700.00	705.00	698.00	699.00	695.00	701.00	695.00	690.00	690.00	697.00	697.00	695.00	693.00	707.00	698.00	695.00	696.00	698.00	694.00	694.00	695.00	689.00	697.00	699.00	697.00	696.00	701.00	702.00	701.00	699.00	701.00	700.00	697.00	698.00	699.00	701.00	695.00	694.00	694.00	692.00	695.00	698.00	696.00	691.00	700.00	698.00	695.00	696.00	695.00	698.00	697.00	694.00	693.00	689.00	690.00	691.00	692.00	691.00	690.00	690.00	690.00	692.00	689.00	689.00	688.00	690.00	690.00	688.00	689.00	689.00	690.00	692.00	693.00	689.00	684.00	687.00	686.00	682.00	683.00	686.00	681.00	677.00	678.00	681.00	681.00	684.00	687.00	688.00	692.00	647.00	644.00	643.00	643.00	643.00	646.00	646.00	645.00	645.00	645.00	645.00	644.00	644.00	643.00	644.00	643.00	644.00	651.00	684.00	684.00	683.00	683.00	682.00	682.00	681.00	683.00	684.00	681.00	679.00	677.00	676.00	676.00	673.00	675.00	676.00	677.00	675.00	676.00	675.00	673.00	674.00	672.00	669.00	672.00	669.00	658.00	659.00	657.00	661.00	659.00	655.00	638.00	639.00	634.00	616.00	612.00	612.00	619.00
824.00	852.00	843.00	843.00	834.00	818.00	815.00	810.00	803.00	791.00	771.00	769.00	771.00	776.00	786.00	785.00	775.00	770.00	764.00	755.00	750.00	758.00	749.00	749.00	739.00	735.00	729.00	761.00	772.00	754.00	742.00	723.00	727.00	728.00	728.00	729.00	728.00	732.00	739.00	741.00	740.00	747.00	754.00	758.00	761.00	758.00	753.00	750.00	750.00	750.00	747.00	734.00	730.00	728.00	728.00	722.00	719.00	719.00	717.00	716.00	712.00	712.00	715.00	714.00	712.00	709.00	709.00	708.00	711.00	711.00	710.00	710.00	706.00	704.00	708.00	704.00	704.00	706.00	703.00	704.00	708.00	717.00	719.00	718.00	714.00	715.00	707.00	705.00	705.00	706.00	706.00	704.00	701.00	699.00	696.00	691.00	691.00	691.00	686.00	692.00	689.00	687.00	687.00	688.00	694.00	689.00	690.00	695.00	695.00	699.00	697.00	692.00	695.00	697.00	701.00	700.00	693.00	688.00	695.00	697.00	695.00	689.00	698.00	694.00	694.00	695.00	703.00	692.00	693.00	694.00	694.00	689.00	696.00	695.00	699.00	699.00	701.00	700.00	698.00	701.00	702.00	697.00	698.00	696.00	698.00	698.00	697.00	695.00	693.00	698.00	696.00	694.00	692.00	693.00	695.00	695.00	696.00	693.00	700.00	698.00	694.00	691.00	690.00	689.00	688.00	690.00	688.00	688.00	689.00	691.00	693.00	687.00	686.00	686.00	687.00	688.00	691.00	689.00	687.00	687.00	687.00	690.00	690.00	688.00	687.00	685.00	682.00	682.00	685.00	684.00	683.00	682.00	685.00	683.00	677.00	678.00	682.00	685.00	645.00	644.00	642.00	643.00	643.00	646.00	646.00	645.00	645.00	645.00	644.00	644.00	643.00	643.00	643.00	642.00	643.00	647.00	666.00	681.00	683.00	682.00	683.00	683.00	682.00	682.00	681.00	679.00	678.00	678.00	677.00	675.00	672.00	671.00	673.00	674.00	675.00	670.00	672.00	674.00	674.00	665.00	671.00	672.00	667.00	662.00	656.00	652.00	653.00	658.00	653.00	641.00	643.00	658.00	620.00	615.00	615.00	627.00
848.00	861.00	856.00	845.00	839.00	826.00	809.00	796.00	791.00	781.00	777.00	781.00	782.00	786.00	784.00	787.00	772.00	756.00	751.00	754.00	747.00	740.00	737.00	770.00	749.00	736.00	730.00	737.00	749.00	749.00	739.00	724.00	728.00	727.00	727.00	727.00	728.00	728.00	735.00	740.00	739.00	743.00	749.00	752.00	759.00	760.00	755.00	750.00	747.00	749.00	748.00	737.00	731.00	730.00	728.00	726.00	719.00	719.00	717.00	715.00	711.00	712.00	714.00	715.00	711.00	708.00	707.00	707.00	710.00	710.00	710.00	709.00	707.00	702.00	700.00	704.00	705.00	707.00	704.00	705.00	709.00	714.00	718.00	719.00	715.00	712.00	706.00	705.00	705.00	706.00	706.00	705.00	699.00	699.00	698.00	697.00	696.00	693.00	687.00	686.00	682.00	689.00	692.00	692.00	697.00	693.00	687.00	693.00	698.00	698.00	694.00	694.00	697.00	697.00	694.00	697.00	689.00	684.00	694.00	697.00	698.00	694.00	694.00	696.00	694.00	693.00	697.00	693.00	691.00	692.00	689.00	690.00	694.00	694.00	698.00	695.00	696.00	697.00	698.00	698.00	700.00	697.00	692.00	694.00	694.00	696.00	699.00	694.00	692.00	693.00	694.00	691.00	691.00	691.00	692.00	691.00	697.00	696.00	699.00	696.00	692.00	690.00	690.00	691.00	688.00	689.00	688.00	688.00	690.00	691.00	692.00	688.00	687.00	686.00	686.00	686.00	691.00	689.00	686.00	685.00	685.00	688.00	690.00	688.00	687.00	686.00	683.00	682.00	685.00	680.00	678.00	679.00	682.00	683.00	677.00	676.00	683.00	685.00	644.00	644.00	642.00	643.00	642.00	645.00	645.00	645.00	644.00	644.00	643.00	644.00	643.00	643.00	643.00	642.00	642.00	644.00	660.00	682.00	682.00	680.00	680.00	682.00	681.00	681.00	680.00	679.00	679.00	678.00	677.00	676.00	673.00	672.00	672.00	672.00	672.00	666.00	673.00	674.00	673.00	663.00	673.00	672.00	660.00	660.00	651.00	648.00	649.00	658.00	645.00	640.00	652.00	655.00	621.00	617.00	623.00	640.00
852.00	853.00	848.00	829.00	830.00	810.00	802.00	790.00	787.00	787.00	788.00	792.00	789.00	785.00	776.00	760.00	750.00	749.00	749.00	751.00	747.00	741.00	745.00	750.00	743.00	737.00	730.00	728.00	765.00	775.00	753.00	728.00	726.00	728.00	727.00	727.00	727.00	728.00	734.00	738.00	737.00	746.00	748.00	750.00	755.00	759.00	756.00	750.00	750.00	748.00	747.00	738.00	733.00	728.00	726.00	726.00	718.00	717.00	715.00	714.00	710.00	712.00	712.00	712.00	711.00	704.00	706.00	709.00	708.00	708.00	709.00	710.00	708.00	703.00	703.00	701.00	700.00	707.00	701.00	702.00	705.00	710.00	715.00	715.00	712.00	711.00	706.00	706.00	705.00	706.00	709.00	707.00	704.00	697.00	697.00	694.00	695.00	695.00	690.00	688.00	682.00	691.00	691.00	690.00	698.00	698.00	691.00	692.00	702.00	696.00	697.00	698.00	697.00	695.00	689.00	690.00	688.00	683.00	692.00	696.00	696.00	696.00	691.00	695.00	693.00	693.00	694.00	695.00	692.00	689.00	683.00	692.00	693.00	698.00	699.00	694.00	693.00	696.00	698.00	697.00	699.00	699.00	693.00	692.00	695.00	693.00	696.00	691.00	690.00	690.00	693.00	696.00	692.00	690.00	690.00	690.00	700.00	699.00	698.00	693.00	690.00	690.00	690.00	691.00	691.00	690.00	690.00	690.00	691.00	692.00	691.00	687.00	686.00	686.00	685.00	685.00	689.00	688.00	687.00	686.00	683.00	685.00	688.00	687.00	687.00	685.00	684.00	685.00	683.00	679.00	675.00	671.00	677.00	682.00	679.00	680.00	682.00	686.00	656.00	645.00	642.00	644.00	643.00	645.00	645.00	645.00	644.00	644.00	643.00	643.00	642.00	642.00	642.00	641.00	641.00	642.00	657.00	679.00	682.00	679.00	680.00	681.00	680.00	681.00	681.00	679.00	680.00	679.00	678.00	678.00	673.00	672.00	672.00	672.00	672.00	671.00	673.00	673.00	670.00	666.00	672.00	667.00	662.00	654.00	648.00	646.00	648.00	654.00	643.00	645.00	658.00	658.00	622.00	623.00	632.00	648.00
848.00	842.00	836.00	818.00	810.00	803.00	800.00	797.00	804.00	802.00	787.00	774.00	761.00	759.00	754.00	752.00	749.00	749.00	750.00	752.00	746.00	745.00	762.00	748.00	746.00	742.00	732.00	729.00	775.00	793.00	777.00	734.00	723.00	726.00	726.00	727.00	726.00	728.00	731.00	736.00	737.00	749.00	744.00	746.00	752.00	756.00	756.00	751.00	751.00	751.00	742.00	738.00	734.00	728.00	723.00	714.00	716.00	715.00	713.00	713.00	709.00	709.00	711.00	712.00	710.00	706.00	706.00	708.00	707.00	708.00	709.00	708.00	707.00	703.00	703.00	703.00	705.00	702.00	699.00	703.00	703.00	705.00	714.00	713.00	712.00	709.00	705.00	705.00	707.00	711.00	716.00	709.00	705.00	697.00	697.00	695.00	695.00	694.00	691.00	690.00	681.00	686.00	686.00	687.00	697.00	699.00	691.00	694.00	703.00	698.00	698.00	696.00	696.00	694.00	695.00	692.00	691.00	686.00	687.00	691.00	691.00	692.00	695.00	691.00	692.00	694.00	693.00	693.00	695.00	690.00	682.00	691.00	691.00	695.00	698.00	697.00	695.00	696.00	698.00	696.00	697.00	699.00	699.00	692.00	696.00	692.00	694.00	689.00	691.00	690.00	695.00	695.00	695.00	689.00	689.00	693.00	695.00	691.00	693.00	691.00	689.00	690.00	688.00	689.00	691.00	690.00	690.00	685.00	689.00	689.00	687.00	690.00	688.00	686.00	683.00	683.00	683.00	686.00	687.00	684.00	684.00	682.00	684.00	681.00	681.00	685.00	683.00	684.00	680.00	675.00	674.00	675.00	676.00	678.00	681.00	680.00	680.00	682.00	669.00	644.00	640.00	641.00	640.00	644.00	645.00	645.00	644.00	643.00	643.00	642.00	644.00	642.00	642.00	641.00	641.00	641.00	652.00	677.00	682.00	680.00	679.00	679.00	679.00	678.00	680.00	680.00	679.00	679.00	678.00	677.00	674.00	675.00	674.00	672.00	671.00	669.00	671.00	671.00	669.00	673.00	671.00	662.00	660.00	652.00	649.00	648.00	649.00	655.00	650.00	651.00	656.00	648.00	625.00	627.00	632.00	649.00
838.00	847.00	833.00	819.00	812.00	810.00	814.00	817.00	822.00	812.00	763.00	762.00	762.00	762.00	756.00	753.00	749.00	749.00	751.00	748.00	750.00	755.00	771.00	756.00	763.00	755.00	736.00	729.00	779.00	797.00	792.00	733.00	722.00	723.00	727.00	725.00	726.00	726.00	732.00	735.00	736.00	744.00	743.00	745.00	748.00	753.00	752.00	754.00	753.00	752.00	742.00	734.00	731.00	725.00	721.00	713.00	712.00	713.00	710.00	709.00	710.00	707.00	709.00	710.00	709.00	703.00	705.00	708.00	706.00	708.00	708.00	707.00	702.00	704.00	705.00	703.00	704.00	700.00	697.00	696.00	699.00	706.00	713.00	712.00	711.00	709.00	704.00	705.00	711.00	712.00	716.00	708.00	706.00	697.00	698.00	693.00	695.00	692.00	691.00	690.00	685.00	680.00	680.00	686.00	693.00	693.00	691.00	692.00	701.00	697.00	696.00	696.00	696.00	692.00	696.00	694.00	692.00	692.00	685.00	684.00	688.00	692.00	692.00	697.00	699.00	693.00	691.00	690.00	695.00	688.00	686.00	684.00	689.00	690.00	694.00	700.00	699.00	699.00	699.00	696.00	697.00	698.00	697.00	691.00	698.00	694.00	693.00	690.00	691.00	691.00	694.00	695.00	696.00	689.00	692.00	694.00	690.00	687.00	691.00	693.00	689.00	689.00	688.00	689.00	690.00	690.00	690.00	685.00	685.00	688.00	687.00	691.00	688.00	686.00	682.00	681.00	681.00	682.00	685.00	685.00	686.00	682.00	682.00	680.00	677.00	686.00	685.00	682.00	679.00	670.00	673.00	675.00	679.00	682.00	676.00	676.00	680.00	680.00	653.00	646.00	641.00	640.00	640.00	640.00	644.00	643.00	644.00	643.00	643.00	642.00	641.00	642.00	641.00	640.00	641.00	640.00	650.00	675.00	682.00	679.00	680.00	678.00	677.00	678.00	678.00	679.00	679.00	678.00	677.00	676.00	676.00	675.00	675.00	674.00	671.00	670.00	668.00	670.00	671.00	673.00	666.00	661.00	656.00	649.00	653.00	653.00	656.00	660.00	657.00	649.00	654.00	635.00	627.00	631.00	636.00	653.00
845.00	838.00	832.00	826.00	828.00	820.00	808.00	797.00	784.00	772.00	774.00	775.00	773.00	771.00	763.00	755.00	752.00	749.00	747.00	747.00	754.00	759.00	778.00	759.00	771.00	766.00	745.00	737.00	772.00	785.00	783.00	743.00	723.00	721.00	723.00	725.00	725.00	723.00	727.00	733.00	735.00	740.00	742.00	744.00	744.00	749.00	750.00	755.00	753.00	751.00	741.00	734.00	725.00	719.00	720.00	713.00	712.00	711.00	708.00	709.00	709.00	707.00	707.00	710.00	707.00	702.00	703.00	704.00	706.00	706.00	706.00	707.00	700.00	700.00	708.00	703.00	702.00	698.00	696.00	697.00	698.00	705.00	712.00	711.00	710.00	708.00	704.00	705.00	711.00	713.00	712.00	704.00	701.00	692.00	694.00	693.00	689.00	692.00	691.00	688.00	686.00	684.00	676.00	684.00	688.00	683.00	692.00	693.00	692.00	695.00	693.00	691.00	687.00	689.00	694.00	692.00	690.00	688.00	685.00	686.00	685.00	687.00	690.00	699.00	699.00	689.00	689.00	690.00	683.00	679.00	680.00	682.00	694.00	693.00	692.00	698.00	697.00	697.00	698.00	697.00	695.00	696.00	693.00	689.00	694.00	695.00	690.00	693.00	694.00	693.00	694.00	694.00	694.00	690.00	694.00	693.00	692.00	689.00	692.00	692.00	689.00	688.00	685.00	687.00	688.00	687.00	688.00	687.00	688.00	686.00	687.00	689.00	685.00	686.00	683.00	680.00	683.00	682.00	682.00	685.00	686.00	683.00	682.00	679.00	676.00	680.00	682.00	682.00	679.00	676.00	676.00	675.00	677.00	678.00	675.00	675.00	681.00	681.00	668.00	647.00	641.00	640.00	639.00	638.00	642.00	644.00	644.00	642.00	643.00	641.00	642.00	641.00	641.00	640.00	640.00	640.00	646.00	659.00	676.00	681.00	679.00	677.00	675.00	677.00	678.00	678.00	678.00	678.00	676.00	674.00	675.00	675.00	677.00	675.00	671.00	670.00	668.00	670.00	672.00	671.00	657.00	653.00	649.00	655.00	660.00	658.00	660.00	664.00	656.00	650.00	656.00	636.00	630.00	633.00	644.00	654.00
828.00	841.00	843.00	840.00	836.00	785.00	777.00	777.00	779.00	781.00	789.00	787.00	787.00	785.00	772.00	764.00	755.00	749.00	746.00	746.00	761.00	749.00	756.00	743.00	761.00	758.00	747.00	742.00	748.00	751.00	755.00	742.00	723.00	720.00	721.00	726.00	725.00	724.00	727.00	732.00	734.00	738.00	741.00	743.00	743.00	744.00	752.00	753.00	751.00	750.00	742.00	729.00	725.00	718.00	716.00	714.00	712.00	711.00	707.00	709.00	709.00	706.00	705.00	709.00	707.00	701.00	701.00	703.00	704.00	705.00	704.00	705.00	700.00	700.00	704.00	701.00	700.00	695.00	693.00	696.00	699.00	704.00	712.00	710.00	709.00	710.00	707.00	708.00	708.00	709.00	710.00	701.00	702.00	687.00	691.00	692.00	689.00	689.00	684.00	687.00	687.00	686.00	675.00	687.00	687.00	679.00	684.00	690.00	690.00	692.00	686.00	681.00	683.00	689.00	693.00	693.00	690.00	684.00	684.00	687.00	688.00	687.00	690.00	697.00	698.00	688.00	691.00	689.00	680.00	681.00	689.00	692.00	696.00	693.00	691.00	693.00	694.00	696.00	696.00	699.00	696.00	694.00	693.00	688.00	686.00	691.00	690.00	692.00	691.00	693.00	693.00	694.00	694.00	694.00	694.00	691.00	689.00	688.00	689.00	690.00	688.00	689.00	684.00	685.00	687.00	685.00	685.00	688.00	688.00	685.00	687.00	683.00	684.00	688.00	686.00	682.00	682.00	681.00	682.00	685.00	685.00	683.00	681.00	678.00	676.00	678.00	680.00	679.00	678.00	679.00	680.00	679.00	680.00	674.00	673.00	674.00	679.00	681.00	677.00	669.00	643.00	640.00	640.00	638.00	642.00	643.00	643.00	642.00	641.00	642.00	641.00	640.00	640.00	640.00	640.00	639.00	643.00	649.00	655.00	679.00	679.00	678.00	675.00	674.00	676.00	677.00	677.00	676.00	676.00	675.00	674.00	675.00	676.00	674.00	671.00	670.00	669.00	670.00	671.00	668.00	654.00	649.00	649.00	659.00	664.00	661.00	663.00	659.00	652.00	657.00	655.00	638.00	636.00	644.00	644.00	647.00
795.00	794.00	792.00	790.00	791.00	799.00	800.00	790.00	789.00	788.00	767.00	766.00	764.00	767.00	770.00	754.00	753.00	754.00	743.00	735.00	760.00	746.00	738.00	739.00	730.00	745.00	759.00	755.00	722.00	741.00	773.00	780.00	726.00	720.00	719.00	723.00	722.00	721.00	721.00	728.00	733.00	735.00	737.00	740.00	740.00	742.00	751.00	751.00	749.00	745.00	738.00	725.00	722.00	723.00	715.00	711.00	710.00	712.00	708.00	705.00	704.00	704.00	705.00	706.00	706.00	700.00	700.00	698.00	707.00	700.00	699.00	701.00	703.00	699.00	701.00	698.00	697.00	696.00	701.00	703.00	699.00	698.00	710.00	706.00	706.00	706.00	710.00	708.00	706.00	703.00	704.00	695.00	694.00	691.00	688.00	681.00	683.00	682.00	683.00	684.00	682.00	685.00	684.00	675.00	688.00	688.00	687.00	683.00	680.00	687.00	685.00	674.00	677.00	681.00	687.00	687.00	686.00	687.00	683.00	683.00	686.00	685.00	687.00	693.00	691.00	692.00	689.00	689.00	688.00	678.00	679.00	687.00	693.00	690.00	689.00	689.00	692.00	696.00	695.00	694.00	690.00	689.00	688.00	687.00	683.00	688.00	690.00	689.00	686.00	688.00	690.00	692.00	692.00	686.00	691.00	689.00	689.00	690.00	688.00	689.00	688.00	686.00	685.00	685.00	684.00	684.00	683.00	688.00	688.00	688.00	688.00	684.00	683.00	682.00	684.00	685.00	678.00	677.00	678.00	681.00	682.00	682.00	680.00	687.00	682.00	668.00	674.00	680.00	674.00	669.00	676.00	679.00	678.00	672.00	674.00	676.00	674.00	676.00	670.00	651.00	644.00	640.00	639.00	639.00	639.00	641.00	642.00	641.00	641.00	641.00	640.00	640.00	638.00	639.00	639.00	638.00	638.00	640.00	646.00	677.00	678.00	677.00	676.00	676.00	673.00	676.00	674.00	674.00	674.00	674.00	673.00	673.00	672.00	671.00	670.00	671.00	671.00	670.00	670.00	665.00	657.00	656.00	657.00	667.00	664.00	655.00	654.00	658.00	663.00	657.00	648.00	641.00	654.00	654.00	646.00	637.00
789.00	798.00	799.00	800.00	803.00	803.00	797.00	786.00	778.00	774.00	764.00	762.00	761.00	758.00	763.00	762.00	746.00	741.00	738.00	736.00	750.00	741.00	747.00	749.00	735.00	752.00	765.00	758.00	725.00	739.00	778.00	786.00	726.00	720.00	718.00	722.00	722.00	722.00	721.00	721.00	730.00	735.00	738.00	740.00	739.00	741.00	749.00	750.00	749.00	748.00	742.00	725.00	722.00	719.00	716.00	711.00	711.00	714.00	710.00	705.00	703.00	704.00	701.00	704.00	706.00	699.00	698.00	697.00	704.00	700.00	700.00	701.00	702.00	697.00	700.00	698.00	695.00	695.00	698.00	700.00	698.00	695.00	705.00	705.00	705.00	707.00	709.00	707.00	705.00	701.00	703.00	694.00	688.00	690.00	685.00	683.00	677.00	679.00	680.00	681.00	684.00	683.00	681.00	675.00	689.00	690.00	690.00	683.00	682.00	685.00	684.00	680.00	674.00	681.00	686.00	685.00	687.00	689.00	688.00	685.00	686.00	687.00	686.00	687.00	684.00	691.00	695.00	684.00	685.00	680.00	677.00	689.00	689.00	690.00	689.00	689.00	694.00	695.00	693.00	690.00	690.00	689.00	686.00	686.00	682.00	689.00	688.00	687.00	687.00	688.00	689.00	690.00	690.00	688.00	690.00	688.00	689.00	690.00	687.00	685.00	688.00	688.00	684.00	687.00	687.00	687.00	681.00	686.00	689.00	687.00	686.00	687.00	682.00	680.00	680.00	682.00	676.00	676.00	678.00	680.00	681.00	680.00	679.00	686.00	682.00	672.00	674.00	679.00	672.00	669.00	673.00	678.00	677.00	675.00	674.00	675.00	675.00	674.00	672.00	662.00	660.00	648.00	639.00	637.00	637.00	637.00	640.00	642.00	640.00	640.00	640.00	639.00	639.00	638.00	639.00	638.00	637.00	639.00	642.00	671.00	679.00	678.00	675.00	674.00	675.00	674.00	673.00	672.00	672.00	672.00	671.00	671.00	670.00	669.00	669.00	670.00	670.00	671.00	669.00	665.00	666.00	664.00	663.00	665.00	657.00	651.00	652.00	656.00	659.00	648.00	643.00	647.00	658.00	649.00	638.00	633.00
782.00	785.00	789.00	793.00	796.00	801.00	805.00	792.00	784.00	770.00	769.00	773.00	771.00	764.00	752.00	748.00	740.00	739.00	737.00	735.00	746.00	738.00	744.00	756.00	741.00	762.00	772.00	758.00	724.00	732.00	776.00	781.00	720.00	720.00	716.00	721.00	722.00	721.00	720.00	720.00	727.00	736.00	738.00	738.00	739.00	739.00	747.00	749.00	746.00	747.00	742.00	728.00	721.00	718.00	715.00	708.00	708.00	711.00	710.00	707.00	703.00	703.00	700.00	698.00	703.00	699.00	697.00	697.00	704.00	701.00	696.00	698.00	699.00	696.00	698.00	698.00	694.00	694.00	694.00	696.00	696.00	696.00	701.00	702.00	704.00	705.00	705.00	704.00	700.00	700.00	703.00	694.00	688.00	687.00	683.00	685.00	678.00	680.00	680.00	683.00	683.00	682.00	675.00	677.00	688.00	694.00	692.00	687.00	680.00	683.00	682.00	683.00	682.00	682.00	685.00	684.00	685.00	686.00	685.00	684.00	684.00	685.00	690.00	688.00	685.00	692.00	694.00	679.00	675.00	674.00	676.00	685.00	686.00	687.00	688.00	687.00	691.00	694.00	692.00	687.00	688.00	686.00	686.00	686.00	685.00	689.00	686.00	686.00	687.00	689.00	688.00	687.00	684.00	690.00	691.00	689.00	688.00	687.00	685.00	682.00	684.00	687.00	684.00	687.00	689.00	689.00	684.00	684.00	685.00	684.00	682.00	685.00	680.00	680.00	680.00	681.00	676.00	676.00	676.00	677.00	677.00	677.00	677.00	681.00	679.00	678.00	678.00	678.00	670.00	667.00	669.00	677.00	676.00	673.00	673.00	673.00	676.00	670.00	669.00	671.00	666.00	657.00	639.00	635.00	636.00	639.00	637.00	641.00	640.00	639.00	640.00	639.00	639.00	638.00	638.00	638.00	637.00	637.00	638.00	661.00	677.00	677.00	676.00	676.00	674.00	673.00	673.00	670.00	672.00	672.00	670.00	670.00	669.00	669.00	669.00	669.00	669.00	668.00	670.00	665.00	664.00	665.00	664.00	663.00	654.00	649.00	652.00	658.00	651.00	645.00	642.00	652.00	655.00	640.00	635.00	632.00
760.00	762.00	783.00	794.00	774.00	785.00	797.00	801.00	787.00	777.00	772.00	763.00	752.00	745.00	739.00	737.00	737.00	737.00	736.00	736.00	750.00	754.00	739.00	743.00	742.00	756.00	761.00	746.00	721.00	728.00	764.00	769.00	731.00	719.00	716.00	718.00	718.00	720.00	720.00	719.00	720.00	735.00	738.00	737.00	740.00	740.00	745.00	745.00	744.00	742.00	739.00	727.00	721.00	716.00	713.00	706.00	705.00	706.00	706.00	705.00	703.00	702.00	700.00	699.00	701.00	701.00	698.00	696.00	700.00	701.00	693.00	693.00	693.00	697.00	702.00	696.00	693.00	696.00	694.00	693.00	693.00	693.00	700.00	702.00	700.00	702.00	702.00	696.00	696.00	697.00	700.00	693.00	688.00	683.00	681.00	683.00	677.00	677.00	678.00	681.00	681.00	681.00	673.00	679.00	685.00	687.00	681.00	686.00	685.00	682.00	681.00	681.00	684.00	682.00	683.00	683.00	684.00	685.00	682.00	683.00	682.00	685.00	688.00	684.00	686.00	690.00	691.00	684.00	677.00	675.00	681.00	687.00	683.00	687.00	689.00	687.00	692.00	694.00	692.00	691.00	685.00	682.00	684.00	685.00	683.00	682.00	685.00	685.00	685.00	689.00	687.00	683.00	687.00	680.00	686.00	689.00	688.00	686.00	686.00	682.00	685.00	685.00	684.00	687.00	688.00	687.00	683.00	684.00	681.00	681.00	681.00	682.00	683.00	681.00	682.00	680.00	681.00	677.00	677.00	680.00	679.00	676.00	676.00	673.00	677.00	678.00	678.00	676.00	669.00	666.00	668.00	670.00	669.00	670.00	673.00	674.00	675.00	670.00	669.00	669.00	662.00	655.00	641.00	637.00	634.00	635.00	636.00	640.00	640.00	640.00	639.00	639.00	638.00	638.00	637.00	637.00	636.00	637.00	637.00	652.00	673.00	677.00	677.00	675.00	673.00	673.00	671.00	671.00	670.00	671.00	670.00	669.00	667.00	667.00	668.00	667.00	667.00	665.00	666.00	664.00	663.00	662.00	662.00	661.00	657.00	650.00	655.00	658.00	646.00	642.00	644.00	659.00	643.00	637.00	635.00	636.00
743.00	761.00	759.00	755.00	773.00	777.00	781.00	781.00	769.00	762.00	743.00	741.00	741.00	740.00	738.00	737.00	737.00	737.00	738.00	739.00	756.00	760.00	751.00	753.00	740.00	755.00	765.00	764.00	739.00	721.00	736.00	765.00	735.00	725.00	722.00	716.00	718.00	718.00	718.00	720.00	723.00	732.00	736.00	736.00	737.00	739.00	741.00	742.00	743.00	740.00	731.00	722.00	720.00	718.00	715.00	708.00	707.00	704.00	704.00	705.00	701.00	698.00	700.00	699.00	695.00	695.00	696.00	696.00	697.00	695.00	692.00	691.00	690.00	692.00	691.00	699.00	688.00	685.00	689.00	692.00	691.00	690.00	696.00	695.00	694.00	697.00	695.00	700.00	696.00	694.00	695.00	692.00	686.00	681.00	683.00	681.00	677.00	675.00	671.00	676.00	679.00	679.00	672.00	671.00	675.00	675.00	677.00	681.00	680.00	673.00	677.00	674.00	678.00	680.00	681.00	682.00	680.00	680.00	683.00	683.00	679.00	680.00	683.00	683.00	684.00	687.00	683.00	676.00	675.00	686.00	689.00	690.00	693.00	691.00	685.00	686.00	691.00	692.00	693.00	691.00	684.00	683.00	684.00	685.00	682.00	676.00	687.00	685.00	682.00	688.00	685.00	680.00	680.00	685.00	686.00	686.00	688.00	689.00	685.00	683.00	682.00	680.00	681.00	681.00	682.00	683.00	684.00	678.00	677.00	677.00	680.00	682.00	679.00	680.00	682.00	680.00	679.00	679.00	678.00	677.00	678.00	677.00	672.00	672.00	671.00	669.00	673.00	669.00	673.00	676.00	670.00	666.00	664.00	662.00	665.00	674.00	672.00	667.00	663.00	662.00	663.00	659.00	650.00	638.00	637.00	636.00	634.00	636.00	634.00	639.00	639.00	638.00	637.00	637.00	636.00	637.00	636.00	635.00	636.00	647.00	663.00	672.00	673.00	672.00	671.00	668.00	666.00	670.00	670.00	670.00	669.00	669.00	669.00	668.00	667.00	665.00	665.00	666.00	668.00	665.00	663.00	662.00	661.00	661.00	658.00	659.00	659.00	653.00	642.00	643.00	647.00	647.00	636.00	638.00	645.00	651.00
736.00	746.00	751.00	756.00	776.00	766.00	770.00	769.00	761.00	755.00	747.00	745.00	743.00	742.00	741.00	739.00	740.00	740.00	743.00	754.00	745.00	737.00	738.00	734.00	732.00	757.00	765.00	764.00	740.00	725.00	731.00	776.00	751.00	725.00	719.00	715.00	714.00	718.00	717.00	717.00	722.00	731.00	735.00	735.00	736.00	737.00	741.00	741.00	741.00	741.00	729.00	722.00	718.00	716.00	715.00	708.00	705.00	704.00	704.00	706.00	703.00	696.00	699.00	697.00	694.00	694.00	694.00	693.00	698.00	696.00	693.00	690.00	691.00	684.00	684.00	695.00	689.00	688.00	693.00	688.00	687.00	688.00	695.00	692.00	692.00	695.00	691.00	696.00	692.00	689.00	692.00	690.00	684.00	681.00	681.00	677.00	679.00	676.00	670.00	675.00	677.00	678.00	678.00	677.00	670.00	668.00	669.00	675.00	682.00	665.00	667.00	670.00	677.00	680.00	683.00	682.00	679.00	680.00	678.00	678.00	677.00	682.00	681.00	681.00	683.00	683.00	681.00	678.00	675.00	688.00	689.00	687.00	689.00	687.00	682.00	686.00	690.00	690.00	690.00	685.00	682.00	684.00	685.00	685.00	681.00	680.00	688.00	683.00	680.00	686.00	685.00	679.00	679.00	684.00	685.00	683.00	687.00	688.00	684.00	677.00	679.00	678.00	680.00	678.00	680.00	680.00	683.00	680.00	675.00	675.00	675.00	679.00	677.00	680.00	678.00	677.00	678.00	678.00	677.00	675.00	679.00	675.00	671.00	675.00	673.00	674.00	670.00	669.00	668.00	676.00	669.00	662.00	663.00	665.00	669.00	672.00	669.00	671.00	665.00	661.00	659.00	661.00	656.00	637.00	637.00	636.00	634.00	633.00	633.00	638.00	638.00	638.00	636.00	636.00	636.00	636.00	636.00	635.00	635.00	650.00	667.00	671.00	672.00	671.00	670.00	670.00	667.00	667.00	666.00	668.00	668.00	669.00	669.00	669.00	668.00	666.00	666.00	665.00	666.00	663.00	663.00	661.00	659.00	661.00	661.00	660.00	656.00	648.00	652.00	654.00	653.00	640.00	635.00	643.00	650.00	645.00
736.00	746.00	751.00	756.00	776.00	766.00	770.00	769.00	761.00	755.00	747.00	745.00	743.00	742.00	741.00	739.00	740.00	740.00	743.00	754.00	745.00	737.00	738.00	734.00	732.00	757.00	765.00	764.00	740.00	725.00	731.00	776.00	751.00	725.00	719.00	715.00	714.00	718.00	717.00	717.00	722.00	731.00	735.00	735.00	736.00	737.00	741.00	741.00	741.00	741.00	729.00	722.00	718.00	716.00	715.00	708.00	705.00	704.00	704.00	706.00	703.00	696.00	699.00	697.00	694.00	694.00	694.00	693.00	698.00	696.00	693.00	690.00	691.00	684.00	684.00	695.00	689.00	688.00	693.00	688.00	687.00	688.00	695.00	692.00	692.00	695.00	691.00	696.00	692.00	689.00	692.00	690.00	684.00	681.00	681.00	677.00	679.00	676.00	670.00	675.00	677.00	678.00	678.00	677.00	670.00	668.00	669.00	675.00	682.00	665.00	667.00	670.00	677.00	680.00	683.00	682.00	679.00	680.00	678.00	678.00	677.00	682.00	681.00	681.00	683.00	683.00	681.00	678.00	675.00	688.00	689.00	687.00	689.00	687.00	682.00	686.00	690.00	690.00	690.00	685.00	682.00	684.00	685.00	685.00	681.00	680.00	688.00	683.00	680.00	686.00	685.00	679.00	679.00	684.00	685.00	683.00	687.00	688.00	684.00	677.00	679.00	678.00	680.00	678.00	680.00	680.00	683.00	680.00	675.00	675.00	675.00	679.00	677.00	680.00	678.00	677.00	678.00	678.00	677.00	675.00	679.00	675.00	671.00	675.00	673.00	674.00	670.00	669.00	668.00	676.00	669.00	662.00	663.00	665.00	669.00	672.00	669.00	671.00	665.00	661.00	659.00	661.00	656.00	637.00	637.00	636.00	634.00	633.00	633.00	638.00	638.00	638.00	636.00	636.00	636.00	636.00	636.00	635.00	635.00	650.00	667.00	671.00	672.00	671.00	670.00	670.00	667.00	667.00	666.00	668.00	668.00	669.00	669.00	669.00	668.00	666.00	666.00	665.00	666.00	663.00	663.00	661.00	659.00	661.00	661.00	660.00	656.00	648.00	652.00	654.00	653.00	640.00	635.00	643.00	650.00	645.00
731.00	740.00	754.00	757.00	760.00	757.00	759.00	759.00	756.00	750.00	756.00	749.00	748.00	747.00	752.00	749.00	748.00	744.00	742.00	754.00	743.00	738.00	730.00	722.00	737.00	758.00	760.00	759.00	731.00	722.00	722.00	774.00	766.00	730.00	723.00	716.00	713.00	717.00	717.00	718.00	717.00	730.00	733.00	733.00	734.00	735.00	738.00	739.00	738.00	739.00	726.00	720.00	718.00	713.00	711.00	705.00	700.00	702.00	704.00	702.00	701.00	694.00	698.00	695.00	693.00	693.00	694.00	693.00	698.00	697.00	693.00	690.00	690.00	688.00	684.00	691.00	688.00	684.00	685.00	686.00	686.00	686.00	692.00	691.00	691.00	691.00	690.00	690.00	687.00	686.00	686.00	682.00	680.00	679.00	679.00	675.00	677.00	673.00	671.00	677.00	678.00	680.00	681.00	679.00	677.00	675.00	672.00	671.00	666.00	663.00	663.00	665.00	674.00	678.00	677.00	676.00	678.00	680.00	676.00	677.00	676.00	679.00	683.00	681.00	682.00	681.00	675.00	671.00	678.00	689.00	689.00	680.00	681.00	681.00	684.00	685.00	684.00	687.00	687.00	688.00	679.00	681.00	684.00	684.00	679.00	687.00	683.00	685.00	682.00	686.00	687.00	678.00	679.00	684.00	682.00	681.00	680.00	685.00	681.00	676.00	677.00	681.00	677.00	677.00	679.00	679.00	680.00	682.00	675.00	675.00	675.00	677.00	679.00	679.00	678.00	678.00	675.00	675.00	672.00	673.00	677.00	675.00	671.00	671.00	671.00	674.00	672.00	670.00	672.00	676.00	669.00	661.00	659.00	663.00	673.00	671.00	672.00	671.00	665.00	661.00	659.00	658.00	658.00	637.00	636.00	636.00	635.00	635.00	632.00	637.00	637.00	636.00	636.00	635.00	635.00	635.00	636.00	635.00	635.00	652.00	671.00	669.00	670.00	671.00	668.00	669.00	668.00	668.00	664.00	665.00	666.00	667.00	668.00	668.00	668.00	666.00	665.00	665.00	665.00	665.00	664.00	662.00	659.00	654.00	659.00	662.00	658.00	650.00	657.00	655.00	645.00	635.00	640.00	650.00	647.00	642.00
730.00	740.00	733.00	739.00	742.00	745.00	746.00	749.00	753.00	754.00	763.00	763.00	763.00	761.00	742.00	737.00	732.00	731.00	739.00	752.00	758.00	760.00	737.00	741.00	748.00	743.00	736.00	738.00	735.00	728.00	715.00	772.00	773.00	747.00	722.00	717.00	714.00	716.00	717.00	718.00	719.00	723.00	725.00	730.00	730.00	732.00	733.00	731.00	734.00	734.00	724.00	720.00	715.00	713.00	712.00	707.00	702.00	700.00	697.00	699.00	698.00	697.00	692.00	696.00	691.00	692.00	691.00	692.00	690.00	691.00	689.00	688.00	687.00	690.00	684.00	686.00	689.00	683.00	684.00	686.00	687.00	690.00	689.00	689.00	689.00	687.00	686.00	685.00	684.00	681.00	680.00	677.00	680.00	676.00	672.00	675.00	676.00	673.00	670.00	675.00	675.00	672.00	677.00	678.00	674.00	677.00	677.00	677.00	677.00	660.00	660.00	668.00	676.00	676.00	673.00	675.00	677.00	677.00	678.00	677.00	674.00	675.00	680.00	678.00	679.00	667.00	671.00	689.00	685.00	683.00	680.00	680.00	681.00	685.00	686.00	683.00	682.00	679.00	684.00	690.00	686.00	678.00	679.00	680.00	678.00	677.00	675.00	682.00	685.00	687.00	685.00	684.00	682.00	686.00	684.00	678.00	681.00	680.00	671.00	676.00	682.00	683.00	681.00	678.00	677.00	676.00	676.00	678.00	674.00	672.00	675.00	679.00	681.00	677.00	678.00	677.00	678.00	672.00	672.00	671.00	670.00	670.00	671.00	671.00	671.00	668.00	672.00	669.00	673.00	671.00	670.00	665.00	657.00	658.00	662.00	664.00	667.00	670.00	655.00	656.00	664.00	658.00	657.00	642.00	635.00	634.00	634.00	633.00	631.00	635.00	636.00	635.00	635.00	635.00	635.00	635.00	635.00	634.00	636.00	649.00	670.00	668.00	662.00	668.00	668.00	666.00	668.00	667.00	668.00	668.00	664.00	663.00	663.00	664.00	664.00	664.00	665.00	664.00	664.00	663.00	662.00	660.00	657.00	658.00	658.00	659.00	658.00	657.00	645.00	639.00	637.00	637.00	651.00	657.00	647.00	634.00
734.00	728.00	730.00	736.00	741.00	746.00	748.00	750.00	752.00	753.00	757.00	746.00	740.00	740.00	730.00	728.00	729.00	727.00	728.00	740.00	746.00	754.00	739.00	753.00	749.00	734.00	737.00	744.00	745.00	731.00	721.00	766.00	768.00	728.00	719.00	715.00	715.00	717.00	716.00	718.00	719.00	723.00	724.00	726.00	728.00	733.00	734.00	731.00	729.00	732.00	721.00	718.00	716.00	714.00	714.00	707.00	705.00	700.00	697.00	694.00	695.00	695.00	691.00	693.00	690.00	691.00	691.00	690.00	691.00	690.00	688.00	686.00	686.00	692.00	690.00	684.00	687.00	683.00	686.00	690.00	689.00	689.00	684.00	688.00	688.00	687.00	684.00	686.00	683.00	679.00	676.00	676.00	681.00	672.00	672.00	678.00	675.00	673.00	669.00	669.00	673.00	669.00	674.00	678.00	673.00	672.00	677.00	676.00	677.00	666.00	664.00	671.00	676.00	671.00	673.00	675.00	675.00	677.00	677.00	676.00	672.00	675.00	677.00	676.00	676.00	665.00	671.00	685.00	679.00	673.00	677.00	680.00	684.00	685.00	683.00	681.00	681.00	679.00	685.00	690.00	686.00	676.00	673.00	678.00	679.00	679.00	673.00	681.00	687.00	686.00	684.00	684.00	685.00	684.00	685.00	680.00	682.00	681.00	671.00	679.00	682.00	682.00	680.00	680.00	678.00	676.00	675.00	676.00	674.00	670.00	675.00	677.00	679.00	677.00	676.00	675.00	677.00	673.00	676.00	673.00	671.00	670.00	672.00	670.00	672.00	666.00	666.00	668.00	667.00	667.00	663.00	662.00	668.00	665.00	660.00	662.00	668.00	671.00	662.00	663.00	665.00	654.00	655.00	646.00	636.00	634.00	633.00	630.00	631.00	634.00	634.00	634.00	634.00	634.00	634.00	634.00	634.00	634.00	636.00	655.00	671.00	668.00	661.00	667.00	669.00	665.00	666.00	668.00	668.00	666.00	665.00	661.00	663.00	663.00	662.00	662.00	663.00	665.00	663.00	662.00	658.00	657.00	656.00	658.00	657.00	658.00	658.00	654.00	642.00	638.00	637.00	641.00	657.00	649.00	643.00	638.00
725.00	728.00	733.00	745.00	746.00	749.00	753.00	754.00	750.00	751.00	736.00	731.00	729.00	726.00	725.00	726.00	734.00	730.00	728.00	724.00	722.00	724.00	733.00	743.00	738.00	730.00	745.00	751.00	743.00	734.00	725.00	756.00	758.00	735.00	723.00	719.00	721.00	715.00	716.00	716.00	716.00	722.00	724.00	725.00	726.00	733.00	733.00	735.00	731.00	727.00	721.00	718.00	716.00	714.00	712.00	707.00	704.00	701.00	697.00	690.00	695.00	692.00	691.00	691.00	688.00	689.00	691.00	690.00	691.00	691.00	689.00	687.00	685.00	692.00	690.00	688.00	685.00	680.00	685.00	687.00	684.00	682.00	681.00	688.00	688.00	689.00	684.00	684.00	679.00	677.00	675.00	676.00	678.00	674.00	678.00	675.00	675.00	673.00	670.00	668.00	668.00	666.00	670.00	671.00	677.00	667.00	673.00	673.00	672.00	679.00	677.00	676.00	677.00	672.00	676.00	679.00	676.00	672.00	674.00	675.00	672.00	670.00	675.00	676.00	670.00	663.00	671.00	680.00	678.00	672.00	672.00	678.00	680.00	679.00	677.00	682.00	681.00	683.00	688.00	689.00	685.00	679.00	672.00	675.00	682.00	679.00	675.00	676.00	681.00	684.00	684.00	685.00	685.00	681.00	676.00	677.00	681.00	678.00	681.00	679.00	681.00	681.00	678.00	678.00	677.00	676.00	677.00	677.00	674.00	672.00	673.00	677.00	676.00	673.00	674.00	673.00	674.00	669.00	671.00	672.00	670.00	672.00	672.00	669.00	669.00	666.00	667.00	670.00	670.00	661.00	664.00	669.00	669.00	666.00	664.00	666.00	670.00	668.00	656.00	662.00	664.00	655.00	652.00	653.00	643.00	637.00	639.00	630.00	629.00	633.00	633.00	634.00	634.00	634.00	633.00	634.00	633.00	634.00	641.00	659.00	672.00	668.00	663.00	668.00	669.00	663.00	666.00	669.00	668.00	667.00	666.00	663.00	663.00	660.00	658.00	659.00	659.00	660.00	661.00	659.00	656.00	655.00	657.00	658.00	658.00	658.00	658.00	657.00	645.00	644.00	643.00	652.00	652.00	643.00	638.00	634.00
721.00	733.00	732.00	735.00	739.00	750.00	747.00	753.00	747.00	739.00	728.00	724.00	722.00	721.00	723.00	724.00	723.00	723.00	728.00	725.00	722.00	728.00	745.00	734.00	735.00	739.00	749.00	754.00	734.00	724.00	719.00	748.00	771.00	754.00	727.00	727.00	715.00	714.00	713.00	713.00	716.00	723.00	721.00	722.00	725.00	732.00	733.00	733.00	733.00	725.00	720.00	718.00	715.00	712.00	710.00	706.00	701.00	699.00	697.00	693.00	693.00	692.00	690.00	691.00	687.00	687.00	689.00	688.00	691.00	690.00	687.00	686.00	684.00	693.00	688.00	691.00	686.00	677.00	681.00	685.00	682.00	678.00	678.00	687.00	690.00	689.00	682.00	683.00	679.00	676.00	674.00	675.00	674.00	674.00	675.00	675.00	674.00	672.00	671.00	671.00	670.00	665.00	663.00	665.00	673.00	660.00	661.00	664.00	660.00	669.00	675.00	672.00	674.00	673.00	679.00	678.00	672.00	667.00	673.00	670.00	673.00	671.00	672.00	672.00	666.00	668.00	674.00	678.00	677.00	673.00	673.00	674.00	679.00	677.00	673.00	678.00	683.00	686.00	689.00	689.00	683.00	682.00	675.00	674.00	679.00	675.00	674.00	670.00	676.00	682.00	683.00	683.00	684.00	675.00	669.00	673.00	681.00	678.00	676.00	673.00	679.00	678.00	680.00	678.00	677.00	677.00	678.00	676.00	672.00	670.00	670.00	673.00	674.00	674.00	676.00	676.00	674.00	674.00	672.00	668.00	670.00	670.00	669.00	668.00	670.00	668.00	669.00	669.00	668.00	660.00	665.00	665.00	667.00	664.00	662.00	667.00	669.00	662.00	657.00	661.00	664.00	661.00	658.00	661.00	654.00	645.00	655.00	629.00	631.00	632.00	632.00	633.00	634.00	634.00	633.00	633.00	633.00	637.00	652.00	656.00	673.00	663.00	661.00	669.00	670.00	664.00	667.00	668.00	667.00	666.00	666.00	666.00	662.00	660.00	657.00	657.00	657.00	658.00	659.00	658.00	656.00	654.00	656.00	656.00	656.00	657.00	657.00	654.00	651.00	652.00	652.00	656.00	642.00	638.00	634.00	635.00
722.00	722.00	723.00	723.00	725.00	728.00	732.00	732.00	730.00	728.00	721.00	721.00	720.00	717.00	719.00	717.00	718.00	718.00	717.00	719.00	751.00	744.00	739.00	733.00	742.00	749.00	747.00	744.00	721.00	723.00	722.00	723.00	760.00	753.00	743.00	730.00	723.00	711.00	716.00	709.00	708.00	710.00	708.00	711.00	720.00	726.00	729.00	728.00	721.00	721.00	716.00	713.00	714.00	710.00	711.00	709.00	707.00	703.00	698.00	699.00	695.00	695.00	690.00	690.00	685.00	685.00	686.00	685.00	688.00	687.00	686.00	691.00	682.00	689.00	694.00	693.00	688.00	680.00	681.00	684.00	680.00	675.00	676.00	690.00	695.00	694.00	678.00	677.00	676.00	676.00	674.00	670.00	668.00	671.00	672.00	673.00	675.00	675.00	671.00	668.00	670.00	665.00	662.00	667.00	660.00	655.00	658.00	655.00	661.00	667.00	669.00	669.00	674.00	660.00	662.00	665.00	665.00	665.00	666.00	666.00	667.00	669.00	668.00	662.00	671.00	673.00	674.00	671.00	673.00	675.00	676.00	670.00	671.00	679.00	679.00	671.00	676.00	682.00	686.00	685.00	686.00	680.00	674.00	675.00	681.00	680.00	673.00	676.00	675.00	682.00	682.00	681.00	681.00	668.00	670.00	671.00	679.00	681.00	673.00	673.00	669.00	666.00	676.00	677.00	678.00	678.00	676.00	675.00	675.00	673.00	673.00	672.00	669.00	671.00	673.00	671.00	671.00	673.00	673.00	669.00	669.00	664.00	660.00	663.00	669.00	671.00	670.00	667.00	663.00	667.00	668.00	669.00	666.00	660.00	658.00	658.00	657.00	653.00	655.00	657.00	656.00	651.00	649.00	648.00	646.00	648.00	639.00	631.00	629.00	629.00	630.00	631.00	631.00	633.00	632.00	632.00	636.00	655.00	647.00	664.00	664.00	666.00	667.00	670.00	668.00	667.00	666.00	664.00	663.00	663.00	664.00	664.00	663.00	661.00	658.00	656.00	657.00	655.00	654.00	655.00	653.00	652.00	651.00	649.00	652.00	654.00	652.00	650.00	652.00	652.00	652.00	651.00	637.00	642.00	639.00	650.00
730.00	724.00	724.00	726.00	724.00	723.00	724.00	726.00	727.00	729.00	725.00	722.00	719.00	718.00	718.00	718.00	716.00	716.00	716.00	728.00	761.00	752.00	738.00	737.00	743.00	747.00	736.00	738.00	727.00	728.00	726.00	715.00	747.00	751.00	755.00	744.00	724.00	710.00	712.00	710.00	707.00	704.00	709.00	709.00	714.00	722.00	726.00	724.00	720.00	719.00	715.00	711.00	711.00	710.00	709.00	707.00	705.00	704.00	701.00	699.00	697.00	697.00	694.00	692.00	685.00	684.00	682.00	681.00	683.00	687.00	682.00	683.00	682.00	686.00	692.00	692.00	689.00	680.00	681.00	682.00	679.00	679.00	677.00	690.00	693.00	691.00	677.00	677.00	674.00	673.00	673.00	666.00	663.00	665.00	668.00	668.00	674.00	672.00	669.00	668.00	669.00	667.00	663.00	662.00	668.00	655.00	654.00	655.00	656.00	665.00	666.00	671.00	675.00	657.00	657.00	656.00	665.00	667.00	667.00	667.00	667.00	669.00	663.00	663.00	672.00	670.00	673.00	669.00	671.00	675.00	675.00	670.00	668.00	677.00	677.00	673.00	674.00	678.00	677.00	682.00	684.00	674.00	672.00	673.00	676.00	673.00	673.00	675.00	677.00	681.00	681.00	681.00	682.00	667.00	665.00	668.00	680.00	675.00	674.00	673.00	673.00	670.00	675.00	676.00	674.00	677.00	677.00	674.00	675.00	672.00	670.00	669.00	668.00	670.00	669.00	667.00	668.00	672.00	672.00	669.00	667.00	667.00	664.00	665.00	667.00	668.00	669.00	670.00	662.00	662.00	666.00	667.00	665.00	661.00	659.00	661.00	663.00	663.00	650.00	651.00	653.00	649.00	645.00	645.00	646.00	640.00	636.00	627.00	628.00	629.00	629.00	630.00	630.00	632.00	632.00	631.00	634.00	637.00	645.00	652.00	651.00	651.00	667.00	670.00	667.00	660.00	661.00	664.00	664.00	664.00	663.00	662.00	662.00	661.00	659.00	657.00	656.00	654.00	653.00	653.00	652.00	649.00	650.00	648.00	648.00	649.00	650.00	651.00	652.00	649.00	650.00	649.00	642.00	639.00	640.00	649.00
724.00	719.00	728.00	727.00	722.00	720.00	721.00	723.00	723.00	724.00	730.00	725.00	718.00	717.00	718.00	718.00	717.00	716.00	714.00	718.00	754.00	745.00	736.00	740.00	751.00	742.00	731.00	730.00	739.00	736.00	735.00	718.00	749.00	755.00	760.00	752.00	732.00	709.00	710.00	708.00	705.00	705.00	707.00	709.00	715.00	722.00	726.00	720.00	715.00	717.00	714.00	710.00	709.00	709.00	708.00	705.00	705.00	703.00	701.00	700.00	701.00	701.00	698.00	698.00	686.00	683.00	682.00	679.00	682.00	684.00	681.00	680.00	681.00	670.00	681.00	693.00	683.00	677.00	679.00	682.00	683.00	683.00	679.00	692.00	694.00	689.00	677.00	675.00	674.00	671.00	670.00	663.00	660.00	664.00	665.00	668.00	672.00	670.00	670.00	668.00	668.00	667.00	666.00	663.00	671.00	664.00	658.00	657.00	654.00	663.00	665.00	668.00	666.00	661.00	656.00	657.00	665.00	665.00	666.00	667.00	667.00	667.00	663.00	661.00	669.00	663.00	666.00	669.00	675.00	674.00	673.00	670.00	665.00	672.00	676.00	673.00	671.00	669.00	674.00	682.00	677.00	673.00	671.00	671.00	671.00	673.00	668.00	676.00	680.00	680.00	680.00	680.00	677.00	668.00	665.00	666.00	670.00	672.00	675.00	678.00	676.00	676.00	671.00	670.00	672.00	673.00	673.00	671.00	671.00	670.00	671.00	673.00	673.00	670.00	666.00	666.00	670.00	672.00	671.00	667.00	665.00	666.00	668.00	669.00	666.00	665.00	669.00	668.00	664.00	663.00	665.00	665.00	666.00	663.00	662.00	666.00	666.00	663.00	650.00	647.00	645.00	645.00	647.00	643.00	644.00	635.00	632.00	628.00	630.00	628.00	627.00	628.00	629.00	631.00	631.00	632.00	632.00	637.00	656.00	650.00	645.00	646.00	655.00	666.00	667.00	657.00	655.00	662.00	662.00	663.00	661.00	662.00	662.00	658.00	659.00	656.00	654.00	654.00	652.00	652.00	651.00	650.00	649.00	650.00	648.00	648.00	648.00	650.00	649.00	649.00	651.00	645.00	643.00	647.00	648.00	650.00
722.00	718.00	720.00	719.00	718.00	718.00	719.00	721.00	726.00	722.00	722.00	719.00	718.00	718.00	717.00	717.00	717.00	716.00	716.00	718.00	742.00	737.00	728.00	739.00	748.00	742.00	731.00	723.00	747.00	740.00	735.00	719.00	739.00	737.00	738.00	736.00	723.00	712.00	708.00	708.00	707.00	714.00	713.00	718.00	714.00	716.00	719.00	716.00	714.00	715.00	712.00	710.00	709.00	709.00	707.00	704.00	700.00	703.00	703.00	702.00	703.00	701.00	699.00	697.00	688.00	683.00	681.00	678.00	682.00	685.00	682.00	680.00	679.00	663.00	670.00	690.00	681.00	673.00	680.00	685.00	683.00	676.00	685.00	693.00	693.00	689.00	677.00	669.00	670.00	670.00	669.00	662.00	659.00	663.00	663.00	667.00	669.00	669.00	670.00	671.00	666.00	666.00	666.00	663.00	662.00	658.00	662.00	660.00	657.00	654.00	656.00	662.00	662.00	661.00	651.00	651.00	662.00	664.00	665.00	666.00	660.00	660.00	659.00	664.00	668.00	665.00	665.00	667.00	669.00	674.00	674.00	670.00	670.00	669.00	673.00	671.00	670.00	667.00	668.00	672.00	672.00	671.00	671.00	669.00	672.00	671.00	673.00	678.00	676.00	680.00	679.00	675.00	671.00	671.00	669.00	674.00	666.00	665.00	673.00	677.00	677.00	678.00	672.00	667.00	671.00	671.00	671.00	669.00	665.00	665.00	670.00	673.00	669.00	665.00	666.00	668.00	671.00	671.00	669.00	662.00	662.00	668.00	670.00	668.00	663.00	662.00	665.00	665.00	662.00	663.00	666.00	666.00	662.00	655.00	658.00	663.00	664.00	663.00	654.00	649.00	644.00	645.00	649.00	643.00	641.00	632.00	628.00	628.00	625.00	626.00	626.00	627.00	629.00	629.00	631.00	631.00	630.00	632.00	644.00	649.00	642.00	641.00	645.00	653.00	667.00	654.00	656.00	662.00	663.00	663.00	661.00	659.00	658.00	657.00	657.00	655.00	654.00	654.00	653.00	651.00	649.00	649.00	649.00	649.00	648.00	646.00	646.00	648.00	648.00	649.00	649.00	641.00	647.00	648.00	648.00	649.00
723.00	716.00	717.00	717.00	717.00	718.00	720.00	726.00	735.00	721.00	718.00	719.00	722.00	724.00	717.00	716.00	717.00	715.00	714.00	713.00	729.00	723.00	721.00	727.00	737.00	732.00	722.00	722.00	744.00	738.00	729.00	714.00	736.00	739.00	740.00	738.00	733.00	719.00	711.00	711.00	714.00	715.00	719.00	722.00	717.00	712.00	713.00	713.00	713.00	713.00	710.00	711.00	708.00	707.00	705.00	703.00	703.00	704.00	704.00	705.00	705.00	704.00	698.00	696.00	687.00	684.00	680.00	678.00	682.00	688.00	689.00	688.00	678.00	662.00	662.00	684.00	683.00	673.00	676.00	678.00	676.00	676.00	689.00	691.00	689.00	684.00	669.00	665.00	669.00	669.00	668.00	664.00	660.00	661.00	665.00	667.00	667.00	670.00	672.00	672.00	667.00	666.00	665.00	664.00	657.00	655.00	659.00	661.00	660.00	652.00	652.00	652.00	655.00	661.00	662.00	654.00	650.00	659.00	663.00	664.00	657.00	656.00	662.00	666.00	667.00	665.00	666.00	664.00	664.00	670.00	666.00	670.00	668.00	667.00	671.00	672.00	669.00	667.00	667.00	668.00	670.00	671.00	671.00	671.00	670.00	672.00	679.00	678.00	672.00	678.00	675.00	671.00	668.00	670.00	674.00	678.00	664.00	661.00	672.00	677.00	678.00	677.00	670.00	667.00	668.00	672.00	674.00	667.00	666.00	668.00	670.00	670.00	660.00	658.00	661.00	666.00	672.00	667.00	665.00	662.00	658.00	663.00	665.00	664.00	664.00	664.00	665.00	663.00	660.00	661.00	664.00	665.00	661.00	654.00	655.00	662.00	663.00	657.00	654.00	652.00	651.00	648.00	646.00	648.00	643.00	633.00	627.00	628.00	627.00	632.00	628.00	625.00	629.00	629.00	630.00	631.00	630.00	628.00	632.00	646.00	640.00	640.00	642.00	645.00	652.00	650.00	660.00	664.00	662.00	662.00	660.00	661.00	657.00	655.00	655.00	655.00	655.00	652.00	653.00	651.00	649.00	649.00	648.00	649.00	648.00	647.00	647.00	645.00	646.00	645.00	645.00	643.00	646.00	648.00	647.00	647.00
723.00	718.00	719.00	717.00	718.00	720.00	728.00	728.00	732.00	722.00	719.00	721.00	728.00	733.00	714.00	714.00	713.00	708.00	710.00	720.00	732.00	730.00	722.00	721.00	719.00	722.00	723.00	721.00	730.00	726.00	724.00	720.00	738.00	741.00	742.00	745.00	744.00	721.00	717.00	720.00	719.00	717.00	720.00	723.00	722.00	716.00	711.00	711.00	711.00	712.00	711.00	714.00	711.00	710.00	709.00	703.00	702.00	702.00	703.00	701.00	704.00	702.00	694.00	694.00	688.00	683.00	680.00	678.00	681.00	683.00	688.00	693.00	683.00	663.00	663.00	683.00	684.00	674.00	674.00	676.00	675.00	679.00	683.00	689.00	685.00	677.00	665.00	662.00	667.00	665.00	667.00	670.00	663.00	659.00	663.00	666.00	667.00	668.00	670.00	670.00	667.00	668.00	664.00	663.00	659.00	659.00	660.00	661.00	659.00	652.00	651.00	651.00	650.00	661.00	660.00	660.00	654.00	655.00	661.00	656.00	654.00	654.00	655.00	666.00	667.00	665.00	664.00	663.00	662.00	669.00	666.00	668.00	669.00	668.00	669.00	676.00	673.00	666.00	667.00	666.00	669.00	666.00	668.00	668.00	669.00	670.00	675.00	676.00	676.00	676.00	673.00	670.00	667.00	671.00	678.00	672.00	669.00	667.00	675.00	676.00	677.00	675.00	667.00	666.00	668.00	674.00	673.00	669.00	670.00	671.00	671.00	670.00	662.00	657.00	656.00	660.00	670.00	662.00	662.00	663.00	660.00	656.00	658.00	661.00	665.00	662.00	660.00	656.00	657.00	662.00	664.00	661.00	659.00	656.00	659.00	662.00	654.00	650.00	652.00	648.00	652.00	654.00	647.00	652.00	648.00	637.00	629.00	627.00	626.00	629.00	626.00	625.00	628.00	629.00	629.00	630.00	630.00	626.00	629.00	641.00	641.00	637.00	637.00	637.00	640.00	650.00	658.00	664.00	660.00	659.00	658.00	660.00	655.00	654.00	655.00	655.00	652.00	651.00	652.00	652.00	649.00	648.00	647.00	647.00	648.00	647.00	647.00	647.00	644.00	642.00	642.00	644.00	646.00	646.00	646.00	645.00
726.00	719.00	719.00	720.00	719.00	720.00	728.00	737.00	731.00	719.00	721.00	728.00	731.00	726.00	709.00	708.00	708.00	707.00	708.00	718.00	742.00	739.00	727.00	731.00	737.00	730.00	723.00	721.00	732.00	733.00	733.00	722.00	737.00	737.00	738.00	739.00	747.00	715.00	721.00	726.00	725.00	721.00	720.00	721.00	721.00	716.00	709.00	712.00	713.00	715.00	717.00	715.00	714.00	711.00	707.00	702.00	702.00	702.00	702.00	699.00	701.00	701.00	692.00	694.00	690.00	683.00	680.00	677.00	677.00	680.00	680.00	680.00	679.00	661.00	664.00	681.00	683.00	677.00	678.00	677.00	680.00	684.00	680.00	682.00	677.00	675.00	664.00	662.00	663.00	664.00	665.00	662.00	658.00	657.00	661.00	664.00	661.00	660.00	665.00	671.00	664.00	666.00	665.00	662.00	658.00	659.00	655.00	657.00	656.00	654.00	651.00	650.00	649.00	655.00	661.00	661.00	662.00	659.00	665.00	657.00	654.00	652.00	650.00	661.00	666.00	663.00	665.00	663.00	661.00	667.00	668.00	672.00	670.00	669.00	669.00	678.00	676.00	671.00	667.00	665.00	668.00	672.00	667.00	666.00	660.00	664.00	672.00	674.00	676.00	667.00	667.00	666.00	664.00	673.00	671.00	665.00	674.00	676.00	676.00	676.00	674.00	673.00	661.00	667.00	672.00	673.00	671.00	672.00	672.00	672.00	671.00	669.00	667.00	664.00	660.00	660.00	666.00	662.00	659.00	665.00	661.00	658.00	656.00	658.00	662.00	657.00	656.00	655.00	655.00	664.00	664.00	661.00	657.00	654.00	655.00	658.00	652.00	649.00	649.00	646.00	646.00	643.00	645.00	652.00	654.00	642.00	635.00	628.00	628.00	625.00	629.00	624.00	628.00	627.00	628.00	629.00	629.00	626.00	625.00	631.00	635.00	631.00	633.00	635.00	640.00	647.00	652.00	661.00	658.00	658.00	657.00	656.00	654.00	652.00	653.00	654.00	652.00	652.00	651.00	651.00	649.00	648.00	647.00	646.00	647.00	647.00	646.00	645.00	644.00	643.00	643.00	642.00	644.00	645.00	643.00	640.00
734.00	725.00	718.00	726.00	722.00	717.00	724.00	736.00	725.00	718.00	727.00	735.00	727.00	717.00	710.00	706.00	706.00	706.00	706.00	715.00	742.00	742.00	723.00	742.00	746.00	739.00	728.00	730.00	737.00	736.00	732.00	720.00	727.00	728.00	727.00	742.00	750.00	717.00	720.00	729.00	726.00	721.00	718.00	718.00	720.00	716.00	707.00	713.00	712.00	716.00	714.00	712.00	712.00	711.00	708.00	702.00	701.00	700.00	703.00	696.00	698.00	700.00	693.00	691.00	691.00	685.00	679.00	677.00	674.00	678.00	678.00	677.00	679.00	661.00	665.00	679.00	681.00	679.00	682.00	684.00	687.00	687.00	676.00	676.00	677.00	674.00	661.00	660.00	659.00	664.00	662.00	659.00	654.00	657.00	660.00	655.00	655.00	657.00	661.00	668.00	662.00	662.00	662.00	664.00	657.00	657.00	653.00	657.00	657.00	657.00	655.00	650.00	650.00	649.00	656.00	661.00	664.00	671.00	675.00	681.00	674.00	674.00	650.00	654.00	662.00	665.00	669.00	666.00	660.00	660.00	667.00	670.00	670.00	670.00	667.00	676.00	670.00	669.00	667.00	663.00	671.00	674.00	666.00	665.00	657.00	658.00	665.00	670.00	676.00	664.00	662.00	664.00	663.00	675.00	667.00	659.00	670.00	674.00	675.00	674.00	672.00	670.00	664.00	668.00	671.00	669.00	670.00	673.00	673.00	672.00	670.00	669.00	666.00	665.00	661.00	658.00	663.00	662.00	665.00	666.00	660.00	658.00	658.00	662.00	663.00	653.00	651.00	652.00	654.00	664.00	659.00	655.00	655.00	653.00	653.00	651.00	651.00	653.00	641.00	641.00	637.00	640.00	643.00	644.00	658.00	650.00	645.00	628.00	627.00	626.00	628.00	625.00	627.00	627.00	628.00	628.00	630.00	629.00	628.00	626.00	626.00	629.00	636.00	641.00	642.00	643.00	652.00	655.00	652.00	650.00	651.00	652.00	655.00	654.00	651.00	653.00	651.00	653.00	651.00	651.00	647.00	647.00	648.00	646.00	647.00	645.00	646.00	645.00	644.00	644.00	644.00	640.00	641.00	640.00	637.00	638.00
709.00	706.00	711.00	708.00	713.00	715.00	715.00	715.00	713.00	709.00	708.00	708.00	706.00	706.00	705.00	702.00	701.00	701.00	702.00	709.00	716.00	730.00	726.00	729.00	729.00	725.00	727.00	727.00	728.00	733.00	733.00	722.00	720.00	726.00	741.00	754.00	746.00	715.00	722.00	728.00	725.00	718.00	716.00	718.00	716.00	713.00	708.00	706.00	709.00	710.00	707.00	705.00	703.00	703.00	704.00	699.00	696.00	697.00	702.00	694.00	693.00	698.00	698.00	695.00	692.00	691.00	689.00	682.00	672.00	673.00	675.00	675.00	683.00	660.00	669.00	676.00	678.00	684.00	680.00	672.00	671.00	678.00	672.00	676.00	673.00	666.00	665.00	659.00	659.00	660.00	657.00	654.00	655.00	657.00	664.00	650.00	651.00	653.00	653.00	655.00	656.00	657.00	660.00	661.00	658.00	655.00	652.00	654.00	655.00	658.00	657.00	657.00	659.00	647.00	648.00	660.00	678.00	661.00	663.00	664.00	659.00	655.00	648.00	649.00	654.00	661.00	662.00	658.00	653.00	651.00	654.00	660.00	654.00	663.00	664.00	662.00	662.00	659.00	660.00	664.00	672.00	668.00	663.00	660.00	656.00	654.00	667.00	665.00	662.00	655.00	663.00	670.00	670.00	659.00	659.00	661.00	671.00	670.00	668.00	668.00	669.00	669.00	666.00	665.00	662.00	668.00	671.00	668.00	667.00	665.00	669.00	661.00	664.00	666.00	662.00	652.00	655.00	660.00	661.00	660.00	656.00	660.00	664.00	665.00	662.00	655.00	654.00	652.00	658.00	651.00	648.00	650.00	650.00	652.00	653.00	655.00	653.00	652.00	647.00	644.00	643.00	644.00	639.00	629.00	633.00	638.00	647.00	629.00	626.00	626.00	625.00	627.00	623.00	625.00	637.00	652.00	643.00	650.00	652.00	641.00	633.00	637.00	639.00	644.00	643.00	642.00	643.00	642.00	642.00	642.00	638.00	639.00	638.00	639.00	646.00	645.00	644.00	649.00	652.00	647.00	646.00	648.00	647.00	645.00	645.00	645.00	645.00	645.00	643.00	644.00	642.00	640.00	639.00	638.00	638.00	638.00
706.00	706.00	709.00	716.00	715.00	713.00	708.00	707.00	707.00	707.00	709.00	706.00	706.00	706.00	698.00	702.00	701.00	700.00	704.00	707.00	738.00	741.00	737.00	725.00	723.00	726.00	728.00	729.00	729.00	726.00	730.00	724.00	723.00	735.00	747.00	753.00	745.00	720.00	720.00	725.00	725.00	716.00	719.00	718.00	717.00	713.00	707.00	705.00	707.00	707.00	704.00	704.00	704.00	702.00	701.00	696.00	695.00	696.00	700.00	691.00	689.00	689.00	698.00	696.00	691.00	688.00	687.00	682.00	672.00	672.00	674.00	673.00	673.00	662.00	662.00	674.00	675.00	673.00	671.00	673.00	673.00	677.00	675.00	670.00	669.00	662.00	662.00	662.00	660.00	659.00	658.00	653.00	653.00	652.00	657.00	650.00	651.00	652.00	651.00	650.00	651.00	652.00	659.00	661.00	660.00	658.00	652.00	649.00	650.00	651.00	659.00	665.00	667.00	651.00	645.00	655.00	655.00	651.00	658.00	656.00	656.00	655.00	648.00	654.00	657.00	655.00	654.00	652.00	656.00	649.00	648.00	649.00	652.00	663.00	664.00	663.00	662.00	658.00	659.00	663.00	668.00	666.00	662.00	659.00	654.00	652.00	659.00	664.00	661.00	662.00	669.00	664.00	666.00	660.00	659.00	664.00	663.00	666.00	669.00	666.00	666.00	661.00	659.00	661.00	667.00	668.00	669.00	668.00	667.00	667.00	662.00	654.00	662.00	664.00	658.00	652.00	654.00	660.00	662.00	664.00	654.00	659.00	664.00	662.00	654.00	653.00	654.00	652.00	650.00	653.00	648.00	648.00	650.00	649.00	650.00	648.00	647.00	649.00	650.00	648.00	646.00	645.00	637.00	628.00	631.00	642.00	640.00	628.00	626.00	626.00	625.00	624.00	622.00	624.00	647.00	649.00	644.00	649.00	649.00	636.00	637.00	629.00	633.00	635.00	634.00	639.00	637.00	644.00	642.00	641.00	634.00	634.00	634.00	635.00	641.00	644.00	642.00	647.00	650.00	645.00	645.00	645.00	645.00	645.00	645.00	645.00	644.00	645.00	644.00	644.00	642.00	641.00	639.00	637.00	637.00	636.00
705.00	712.00	724.00	741.00	726.00	709.00	705.00	706.00	706.00	706.00	707.00	703.00	701.00	701.00	697.00	699.00	703.00	701.00	705.00	711.00	739.00	743.00	741.00	720.00	730.00	731.00	733.00	729.00	728.00	731.00	739.00	732.00	729.00	739.00	740.00	740.00	738.00	723.00	720.00	725.00	724.00	714.00	719.00	717.00	715.00	714.00	715.00	707.00	706.00	707.00	706.00	711.00	711.00	710.00	708.00	703.00	699.00	698.00	701.00	693.00	689.00	688.00	695.00	696.00	690.00	686.00	684.00	684.00	671.00	671.00	675.00	675.00	673.00	669.00	656.00	662.00	672.00	668.00	668.00	672.00	676.00	678.00	672.00	667.00	664.00	658.00	659.00	658.00	661.00	661.00	658.00	652.00	655.00	650.00	655.00	650.00	650.00	651.00	650.00	648.00	647.00	649.00	655.00	659.00	658.00	656.00	649.00	648.00	648.00	646.00	651.00	657.00	656.00	655.00	651.00	644.00	645.00	646.00	653.00	657.00	654.00	647.00	658.00	662.00	662.00	658.00	649.00	657.00	649.00	644.00	645.00	643.00	647.00	661.00	663.00	658.00	664.00	660.00	657.00	657.00	663.00	666.00	659.00	655.00	649.00	651.00	651.00	657.00	662.00	663.00	659.00	658.00	660.00	666.00	669.00	666.00	657.00	661.00	664.00	666.00	661.00	657.00	656.00	663.00	668.00	668.00	671.00	668.00	668.00	666.00	657.00	649.00	652.00	654.00	656.00	655.00	655.00	657.00	661.00	656.00	652.00	656.00	663.00	657.00	649.00	652.00	652.00	653.00	649.00	653.00	651.00	651.00	654.00	652.00	648.00	645.00	643.00	642.00	641.00	645.00	648.00	647.00	641.00	629.00	642.00	643.00	644.00	629.00	625.00	625.00	624.00	624.00	622.00	622.00	636.00	640.00	637.00	635.00	637.00	637.00	642.00	631.00	634.00	635.00	632.00	633.00	636.00	641.00	641.00	637.00	632.00	633.00	632.00	633.00	637.00	648.00	645.00	646.00	646.00	645.00	644.00	644.00	643.00	645.00	644.00	645.00	644.00	644.00	646.00	643.00	643.00	642.00	640.00	637.00	635.00	635.00
704.00	729.00	754.00	744.00	723.00	709.00	706.00	704.00	704.00	705.00	704.00	700.00	697.00	697.00	699.00	709.00	704.00	702.00	706.00	711.00	726.00	727.00	725.00	730.00	742.00	741.00	738.00	728.00	730.00	737.00	742.00	734.00	733.00	739.00	732.00	733.00	732.00	719.00	718.00	721.00	720.00	717.00	718.00	715.00	711.00	709.00	711.00	710.00	706.00	705.00	706.00	710.00	710.00	708.00	708.00	704.00	700.00	699.00	700.00	694.00	690.00	689.00	692.00	694.00	690.00	686.00	682.00	681.00	672.00	670.00	671.00	671.00	672.00	674.00	666.00	657.00	663.00	672.00	670.00	674.00	673.00	673.00	666.00	663.00	661.00	657.00	658.00	655.00	662.00	665.00	660.00	650.00	654.00	650.00	654.00	654.00	655.00	650.00	648.00	647.00	644.00	646.00	647.00	650.00	651.00	647.00	646.00	648.00	648.00	644.00	644.00	644.00	645.00	649.00	653.00	649.00	644.00	643.00	645.00	652.00	649.00	646.00	660.00	661.00	657.00	660.00	652.00	655.00	648.00	641.00	639.00	640.00	642.00	653.00	656.00	664.00	667.00	662.00	659.00	655.00	657.00	665.00	664.00	657.00	646.00	646.00	648.00	661.00	664.00	661.00	654.00	653.00	658.00	669.00	667.00	661.00	652.00	658.00	665.00	664.00	659.00	655.00	657.00	663.00	668.00	669.00	669.00	668.00	668.00	660.00	654.00	650.00	645.00	646.00	653.00	661.00	656.00	656.00	656.00	653.00	653.00	661.00	658.00	651.00	648.00	646.00	647.00	649.00	657.00	651.00	652.00	657.00	657.00	656.00	646.00	646.00	647.00	647.00	639.00	640.00	645.00	643.00	637.00	635.00	642.00	643.00	647.00	627.00	624.00	625.00	624.00	623.00	622.00	622.00	629.00	637.00	634.00	633.00	632.00	636.00	635.00	632.00	632.00	636.00	638.00	639.00	637.00	633.00	632.00	634.00	636.00	635.00	635.00	633.00	635.00	640.00	637.00	640.00	640.00	642.00	643.00	643.00	642.00	643.00	643.00	643.00	643.00	644.00	644.00	643.00	642.00	642.00	638.00	637.00	635.00	634.00
703.00	705.00	707.00	707.00	705.00	702.00	703.00	701.00	701.00	696.00	698.00	696.00	696.00	695.00	698.00	697.00	698.00	702.00	708.00	729.00	748.00	740.00	723.00	723.00	723.00	719.00	723.00	727.00	728.00	728.00	725.00	732.00	731.00	734.00	736.00	739.00	738.00	731.00	722.00	714.00	714.00	717.00	715.00	711.00	708.00	707.00	705.00	706.00	704.00	702.00	702.00	700.00	699.00	698.00	698.00	698.00	699.00	698.00	697.00	697.00	696.00	693.00	693.00	694.00	691.00	689.00	684.00	681.00	675.00	672.00	670.00	671.00	672.00	669.00	669.00	658.00	653.00	669.00	670.00	666.00	662.00	662.00	656.00	656.00	660.00	657.00	658.00	656.00	654.00	651.00	653.00	650.00	651.00	647.00	647.00	651.00	651.00	647.00	645.00	644.00	641.00	639.00	642.00	645.00	645.00	640.00	643.00	647.00	651.00	649.00	647.00	644.00	641.00	638.00	649.00	647.00	648.00	651.00	648.00	645.00	647.00	644.00	647.00	658.00	656.00	657.00	660.00	663.00	653.00	641.00	639.00	636.00	638.00	641.00	649.00	663.00	661.00	660.00	658.00	655.00	655.00	659.00	662.00	656.00	640.00	640.00	649.00	655.00	658.00	654.00	648.00	645.00	646.00	659.00	655.00	656.00	660.00	666.00	661.00	660.00	658.00	657.00	665.00	667.00	666.00	663.00	662.00	659.00	657.00	657.00	659.00	649.00	646.00	648.00	660.00	664.00	661.00	652.00	652.00	649.00	661.00	658.00	651.00	650.00	650.00	642.00	647.00	657.00	650.00	647.00	650.00	653.00	648.00	647.00	648.00	647.00	651.00	651.00	642.00	644.00	645.00	646.00	647.00	643.00	641.00	639.00	644.00	626.00	623.00	623.00	623.00	621.00	625.00	635.00	637.00	643.00	637.00	636.00	635.00	629.00	626.00	630.00	632.00	633.00	637.00	637.00	636.00	634.00	632.00	636.00	637.00	630.00	630.00	628.00	625.00	626.00	626.00	630.00	632.00	634.00	633.00	634.00	637.00	639.00	641.00	641.00	640.00	642.00	641.00	642.00	642.00	640.00	639.00	638.00	636.00	634.00
700.00	704.00	706.00	704.00	703.00	698.00	696.00	696.00	698.00	691.00	697.00	698.00	697.00	701.00	703.00	704.00	704.00	707.00	710.00	724.00	735.00	725.00	718.00	733.00	729.00	720.00	719.00	724.00	727.00	726.00	725.00	726.00	729.00	729.00	736.00	739.00	739.00	731.00	724.00	715.00	714.00	716.00	714.00	710.00	707.00	705.00	704.00	702.00	702.00	700.00	700.00	698.00	698.00	699.00	697.00	698.00	700.00	697.00	694.00	697.00	695.00	692.00	687.00	690.00	688.00	691.00	688.00	684.00	677.00	672.00	671.00	669.00	670.00	669.00	669.00	665.00	663.00	655.00	664.00	662.00	659.00	655.00	658.00	656.00	660.00	657.00	654.00	653.00	651.00	649.00	650.00	649.00	648.00	645.00	644.00	648.00	646.00	644.00	644.00	643.00	642.00	638.00	642.00	647.00	649.00	639.00	638.00	644.00	648.00	647.00	649.00	647.00	643.00	636.00	647.00	648.00	645.00	649.00	651.00	647.00	644.00	644.00	643.00	652.00	656.00	655.00	655.00	659.00	656.00	645.00	646.00	640.00	641.00	642.00	652.00	660.00	664.00	663.00	661.00	661.00	650.00	660.00	661.00	656.00	645.00	642.00	646.00	654.00	655.00	654.00	648.00	642.00	642.00	653.00	655.00	655.00	667.00	662.00	656.00	655.00	658.00	664.00	667.00	667.00	664.00	661.00	661.00	652.00	652.00	654.00	660.00	649.00	647.00	654.00	661.00	663.00	652.00	648.00	647.00	654.00	660.00	651.00	646.00	642.00	641.00	643.00	649.00	652.00	647.00	646.00	655.00	650.00	644.00	648.00	644.00	645.00	647.00	648.00	644.00	641.00	641.00	646.00	645.00	639.00	636.00	637.00	640.00	625.00	623.00	623.00	622.00	621.00	624.00	637.00	640.00	647.00	635.00	637.00	635.00	631.00	630.00	628.00	631.00	630.00	629.00	627.00	629.00	630.00	636.00	637.00	634.00	634.00	630.00	629.00	627.00	629.00	625.00	626.00	629.00	632.00	629.00	630.00	632.00	637.00	638.00	639.00	640.00	640.00	640.00	640.00	640.00	639.00	638.00	638.00	636.00	634.00
701.00	703.00	702.00	703.00	703.00	690.00	692.00	692.00	694.00	697.00	695.00	699.00	704.00	705.00	703.00	706.00	706.00	708.00	723.00	746.00	732.00	717.00	712.00	742.00	736.00	727.00	722.00	725.00	729.00	728.00	725.00	733.00	729.00	726.00	730.00	732.00	729.00	739.00	736.00	722.00	712.00	714.00	710.00	708.00	705.00	704.00	703.00	701.00	700.00	699.00	699.00	698.00	698.00	698.00	699.00	698.00	698.00	697.00	695.00	695.00	695.00	692.00	687.00	686.00	685.00	689.00	687.00	686.00	682.00	674.00	670.00	669.00	668.00	667.00	669.00	664.00	659.00	662.00	654.00	659.00	657.00	654.00	657.00	655.00	659.00	657.00	652.00	652.00	650.00	651.00	651.00	647.00	646.00	644.00	642.00	641.00	644.00	643.00	644.00	643.00	642.00	640.00	639.00	644.00	643.00	638.00	635.00	639.00	643.00	648.00	650.00	648.00	648.00	636.00	640.00	644.00	646.00	645.00	646.00	647.00	645.00	643.00	642.00	645.00	652.00	654.00	653.00	643.00	647.00	645.00	645.00	646.00	644.00	643.00	651.00	657.00	659.00	666.00	662.00	653.00	648.00	657.00	657.00	658.00	657.00	657.00	655.00	652.00	649.00	651.00	648.00	645.00	640.00	646.00	658.00	659.00	661.00	657.00	659.00	659.00	662.00	665.00	663.00	660.00	656.00	660.00	663.00	654.00	652.00	652.00	658.00	647.00	647.00	656.00	661.00	659.00	654.00	645.00	647.00	656.00	653.00	642.00	639.00	637.00	636.00	648.00	653.00	650.00	642.00	649.00	649.00	647.00	650.00	649.00	641.00	643.00	639.00	639.00	638.00	638.00	641.00	643.00	642.00	645.00	642.00	642.00	636.00	629.00	622.00	622.00	620.00	623.00	620.00	629.00	643.00	643.00	639.00	636.00	631.00	629.00	631.00	631.00	629.00	627.00	629.00	625.00	625.00	626.00	627.00	625.00	628.00	630.00	631.00	632.00	631.00	629.00	628.00	622.00	624.00	632.00	630.00	629.00	630.00	629.00	631.00	633.00	638.00	640.00	637.00	639.00	640.00	639.00	637.00	637.00	636.00	633.00
701.00	703.00	702.00	703.00	703.00	690.00	692.00	692.00	694.00	697.00	695.00	699.00	704.00	705.00	703.00	706.00	706.00	708.00	723.00	746.00	732.00	717.00	712.00	742.00	736.00	727.00	722.00	725.00	729.00	728.00	725.00	733.00	729.00	726.00	730.00	732.00	729.00	739.00	736.00	722.00	712.00	714.00	710.00	708.00	705.00	704.00	703.00	701.00	700.00	699.00	699.00	698.00	698.00	698.00	699.00	698.00	698.00	697.00	695.00	695.00	695.00	692.00	687.00	686.00	685.00	689.00	687.00	686.00	682.00	674.00	670.00	669.00	668.00	667.00	669.00	664.00	659.00	662.00	654.00	659.00	657.00	654.00	657.00	655.00	659.00	657.00	652.00	652.00	650.00	651.00	651.00	647.00	646.00	644.00	642.00	641.00	644.00	643.00	644.00	643.00	642.00	640.00	639.00	644.00	643.00	638.00	635.00	639.00	643.00	648.00	650.00	648.00	648.00	636.00	640.00	644.00	646.00	645.00	646.00	647.00	645.00	643.00	642.00	645.00	652.00	654.00	653.00	643.00	647.00	645.00	645.00	646.00	644.00	643.00	651.00	657.00	659.00	666.00	662.00	653.00	648.00	657.00	657.00	658.00	657.00	657.00	655.00	652.00	649.00	651.00	648.00	645.00	640.00	646.00	658.00	659.00	661.00	657.00	659.00	659.00	662.00	665.00	663.00	660.00	656.00	660.00	663.00	654.00	652.00	652.00	658.00	647.00	647.00	656.00	661.00	659.00	654.00	645.00	647.00	656.00	653.00	642.00	639.00	637.00	636.00	648.00	653.00	650.00	642.00	649.00	649.00	647.00	650.00	649.00	641.00	643.00	639.00	639.00	638.00	638.00	641.00	643.00	642.00	645.00	642.00	642.00	636.00	629.00	622.00	622.00	620.00	623.00	620.00	629.00	643.00	643.00	639.00	636.00	631.00	629.00	631.00	631.00	629.00	627.00	629.00	625.00	625.00	626.00	627.00	625.00	628.00	630.00	631.00	632.00	631.00	629.00	628.00	622.00	624.00	632.00	630.00	629.00	630.00	629.00	631.00	633.00	638.00	640.00	637.00	639.00	640.00	639.00	637.00	637.00	636.00	633.00
