95.00	96.00	95.00	96.00	95.00	96.00	96.00	98.00	101.00	100.00	100.00	100.00	100.00	101.00	100.00	100.00	101.00	101.00	101.00	101.00	101.00	101.00	100.00	101.00	101.00	101.00	101.00	101.00	102.00	102.00	102.00	102.00	103.00	102.00	102.00	104.00	103.00	104.00	104.00	104.00	105.00	105.00	105.00	104.00	105.00	105.00	104.00	105.00	105.00	104.00	105.00	105.00	105.00	105.00	105.00	104.00	105.00	105.00	105.00	106.00	105.00	105.00	104.00	102.00	105.00	105.00	105.00	103.00	104.00	105.00	105.00	106.00	105.00	106.00	107.00	108.00	108.00	109.00	108.00	110.00	109.00	109.00	111.00	111.00	110.00	112.00	111.00	111.00	109.00	110.00	110.00	110.00	110.00	111.00	111.00	111.00	112.00	111.00	110.00	109.00	109.00	109.00	110.00	112.00	112.00	112.00	113.00	111.00	112.00	113.00	113.00	113.00	113.00	113.00	114.00	113.00	116.00	115.00	114.00	117.00	115.00	115.00	115.00	116.00	115.00	117.00	119.00	117.00	117.00	122.00	120.00	121.00	118.00	118.00	118.00	117.00	120.00	120.00	117.00	116.00	118.00	115.00	114.00	117.00	121.00	120.00	120.00	123.00	123.00	121.00	120.00	123.00	123.00	124.00	124.00	124.00	121.00	122.00	122.00	121.00	122.00	126.00	126.00	126.00	127.00	130.00	132.00	133.00	135.00	139.00	142.00	146.00	148.00	149.00	153.00	156.00	160.00	162.00	163.00	166.00	170.00	175.00	181.00	193.00	199.00	216.00	244.00	266.00	201.00	199.00	213.00	228.00	197.00	189.00	191.00	191.00	187.00	171.00	168.00	164.00	162.00	160.00	162.00	186.00	255.00	234.00	149.00	148.00	147.00	146.00	146.00	144.00	144.00	144.00	143.00	143.00	143.00	144.00	146.00	148.00	149.00	150.00	149.00	151.00	153.00	156.00	164.00	173.00	225.00	234.00	209.00	195.00	186.00	174.00	170.00	167.00	165.00	162.00	160.00	159.00	159.00	161.00	160.00	161.00	161.00	160.00	162.00	162.00	162.00	162.00	163.00	167.00	166.00	167.00	165.00	167.00
96.00	95.00	96.00	96.00	95.00	96.00	96.00	98.00	99.00	99.00	100.00	100.00	100.00	100.00	101.00	101.00	101.00	99.00	100.00	100.00	101.00	100.00	101.00	101.00	101.00	101.00	101.00	102.00	102.00	102.00	102.00	103.00	103.00	103.00	103.00	104.00	104.00	104.00	104.00	103.00	104.00	104.00	104.00	105.00	105.00	105.00	105.00	105.00	105.00	105.00	105.00	105.00	105.00	106.00	105.00	104.00	104.00	104.00	103.00	104.00	105.00	104.00	103.00	104.00	104.00	104.00	104.00	104.00	105.00	103.00	105.00	106.00	107.00	108.00	107.00	108.00	108.00	107.00	109.00	110.00	111.00	109.00	110.00	111.00	113.00	111.00	111.00	109.00	109.00	108.00	109.00	108.00	109.00	110.00	111.00	111.00	111.00	111.00	109.00	110.00	110.00	111.00	110.00	110.00	112.00	111.00	111.00	111.00	112.00	113.00	113.00	113.00	113.00	113.00	114.00	114.00	114.00	114.00	116.00	118.00	116.00	115.00	115.00	115.00	114.00	120.00	118.00	116.00	117.00	118.00	119.00	118.00	118.00	118.00	118.00	118.00	118.00	122.00	118.00	117.00	117.00	116.00	116.00	114.00	115.00	121.00	122.00	122.00	119.00	119.00	119.00	120.00	122.00	123.00	121.00	124.00	121.00	120.00	121.00	121.00	122.00	127.00	127.00	127.00	127.00	130.00	132.00	134.00	136.00	138.00	142.00	143.00	144.00	146.00	149.00	153.00	158.00	156.00	157.00	162.00	166.00	171.00	175.00	186.00	194.00	205.00	212.00	275.00	195.00	207.00	223.00	213.00	197.00	196.00	202.00	208.00	210.00	169.00	168.00	165.00	164.00	158.00	158.00	178.00	248.00	234.00	150.00	148.00	148.00	147.00	145.00	145.00	145.00	144.00	144.00	144.00	144.00	146.00	147.00	150.00	151.00	152.00	152.00	153.00	155.00	156.00	160.00	169.00	243.00	222.00	210.00	194.00	185.00	176.00	171.00	170.00	165.00	161.00	160.00	160.00	161.00	162.00	163.00	163.00	163.00	163.00	164.00	163.00	165.00	165.00	165.00	167.00	168.00	167.00	167.00	167.00
95.00	96.00	96.00	96.00	96.00	96.00	97.00	100.00	99.00	99.00	100.00	100.00	100.00	100.00	100.00	100.00	100.00	99.00	99.00	99.00	101.00	101.00	101.00	102.00	101.00	101.00	101.00	102.00	102.00	102.00	101.00	103.00	103.00	103.00	103.00	104.00	103.00	103.00	103.00	104.00	104.00	105.00	104.00	105.00	105.00	105.00	105.00	105.00	106.00	106.00	106.00	106.00	105.00	106.00	105.00	104.00	104.00	104.00	103.00	103.00	102.00	103.00	103.00	104.00	103.00	103.00	103.00	104.00	104.00	106.00	105.00	106.00	107.00	108.00	107.00	108.00	108.00	109.00	110.00	110.00	110.00	110.00	111.00	113.00	113.00	110.00	109.00	110.00	110.00	110.00	109.00	109.00	108.00	110.00	110.00	110.00	111.00	110.00	111.00	111.00	112.00	111.00	110.00	110.00	110.00	111.00	110.00	111.00	111.00	111.00	111.00	112.00	113.00	113.00	113.00	113.00	114.00	114.00	118.00	116.00	115.00	115.00	114.00	114.00	116.00	118.00	116.00	119.00	121.00	119.00	119.00	117.00	117.00	119.00	120.00	118.00	118.00	118.00	117.00	115.00	116.00	118.00	117.00	115.00	115.00	123.00	124.00	122.00	119.00	117.00	117.00	119.00	122.00	120.00	120.00	122.00	120.00	122.00	119.00	122.00	123.00	127.00	127.00	128.00	127.00	130.00	132.00	133.00	136.00	138.00	140.00	140.00	143.00	143.00	148.00	152.00	160.00	154.00	154.00	159.00	163.00	168.00	171.00	179.00	186.00	191.00	198.00	220.00	190.00	208.00	229.00	213.00	204.00	202.00	208.00	218.00	222.00	168.00	166.00	166.00	163.00	158.00	158.00	170.00	232.00	236.00	150.00	149.00	149.00	148.00	147.00	145.00	145.00	144.00	144.00	145.00	145.00	148.00	149.00	151.00	152.00	163.00	177.00	159.00	157.00	159.00	161.00	165.00	254.00	212.00	203.00	193.00	189.00	178.00	172.00	169.00	166.00	162.00	161.00	161.00	162.00	163.00	163.00	164.00	164.00	164.00	165.00	165.00	167.00	167.00	169.00	169.00	169.00	172.00	172.00	169.00
95.00	96.00	96.00	96.00	97.00	98.00	100.00	100.00	99.00	99.00	99.00	99.00	99.00	100.00	100.00	99.00	100.00	100.00	100.00	99.00	100.00	101.00	100.00	101.00	101.00	101.00	102.00	101.00	102.00	101.00	102.00	102.00	103.00	102.00	102.00	103.00	103.00	103.00	104.00	104.00	105.00	105.00	106.00	105.00	105.00	106.00	105.00	105.00	105.00	106.00	106.00	105.00	106.00	105.00	105.00	104.00	104.00	104.00	104.00	104.00	103.00	104.00	104.00	104.00	103.00	103.00	102.00	104.00	105.00	105.00	106.00	107.00	107.00	107.00	107.00	108.00	109.00	109.00	110.00	110.00	109.00	109.00	110.00	114.00	112.00	109.00	108.00	110.00	110.00	109.00	109.00	109.00	111.00	110.00	109.00	109.00	110.00	110.00	111.00	111.00	111.00	111.00	110.00	111.00	111.00	111.00	112.00	111.00	111.00	110.00	110.00	111.00	113.00	115.00	112.00	113.00	114.00	114.00	114.00	115.00	113.00	114.00	114.00	117.00	119.00	114.00	115.00	117.00	119.00	118.00	117.00	116.00	115.00	117.00	118.00	117.00	114.00	114.00	115.00	113.00	113.00	114.00	114.00	117.00	118.00	123.00	123.00	120.00	120.00	118.00	117.00	119.00	118.00	118.00	119.00	119.00	122.00	121.00	122.00	125.00	127.00	130.00	133.00	132.00	132.00	134.00	135.00	136.00	139.00	137.00	142.00	143.00	144.00	147.00	145.00	147.00	148.00	149.00	151.00	154.00	157.00	161.00	161.00	167.00	170.00	173.00	175.00	181.00	190.00	197.00	222.00	242.00	227.00	226.00	217.00	237.00	254.00	182.00	173.00	171.00	159.00	155.00	158.00	157.00	176.00	172.00	151.00	150.00	148.00	147.00	146.00	146.00	146.00	146.00	146.00	147.00	147.00	148.00	152.00	153.00	155.00	162.00	169.00	164.00	165.00	173.00	164.00	164.00	196.00	243.00	216.00	207.00	194.00	181.00	173.00	169.00	166.00	164.00	163.00	163.00	165.00	164.00	166.00	167.00	167.00	168.00	169.00	170.00	170.00	169.00	172.00	173.00	175.00	179.00	183.00	189.00
96.00	95.00	96.00	97.00	98.00	99.00	100.00	99.00	99.00	99.00	99.00	99.00	99.00	99.00	99.00	99.00	99.00	99.00	99.00	99.00	100.00	100.00	100.00	100.00	101.00	100.00	102.00	101.00	100.00	101.00	101.00	102.00	103.00	103.00	103.00	104.00	103.00	104.00	104.00	104.00	104.00	104.00	105.00	105.00	106.00	107.00	106.00	106.00	106.00	106.00	106.00	107.00	106.00	106.00	104.00	105.00	105.00	104.00	103.00	103.00	103.00	104.00	103.00	102.00	103.00	104.00	104.00	104.00	105.00	105.00	106.00	107.00	107.00	107.00	108.00	108.00	110.00	110.00	110.00	110.00	110.00	109.00	112.00	114.00	111.00	108.00	109.00	109.00	110.00	109.00	109.00	109.00	110.00	109.00	108.00	109.00	108.00	110.00	110.00	110.00	110.00	111.00	111.00	111.00	111.00	112.00	111.00	112.00	110.00	111.00	110.00	111.00	116.00	114.00	112.00	114.00	113.00	114.00	113.00	113.00	114.00	114.00	115.00	116.00	115.00	114.00	116.00	117.00	115.00	116.00	116.00	115.00	114.00	115.00	118.00	116.00	114.00	114.00	114.00	113.00	112.00	113.00	115.00	119.00	121.00	123.00	122.00	122.00	119.00	117.00	115.00	117.00	118.00	118.00	118.00	121.00	122.00	121.00	123.00	125.00	128.00	131.00	130.00	128.00	130.00	131.00	133.00	133.00	134.00	133.00	143.00	145.00	148.00	149.00	145.00	146.00	147.00	148.00	149.00	152.00	154.00	157.00	159.00	164.00	166.00	169.00	171.00	186.00	204.00	197.00	219.00	244.00	243.00	243.00	223.00	239.00	252.00	197.00	177.00	166.00	161.00	155.00	155.00	155.00	166.00	158.00	151.00	150.00	148.00	147.00	146.00	147.00	146.00	146.00	146.00	147.00	149.00	149.00	151.00	153.00	154.00	156.00	158.00	158.00	172.00	184.00	176.00	168.00	187.00	225.00	234.00	207.00	205.00	182.00	175.00	170.00	167.00	164.00	165.00	166.00	165.00	166.00	168.00	169.00	168.00	168.00	172.00	171.00	174.00	174.00	174.00	174.00	177.00	181.00	187.00	200.00
96.00	96.00	97.00	98.00	98.00	98.00	99.00	99.00	99.00	99.00	99.00	99.00	99.00	99.00	98.00	99.00	99.00	99.00	100.00	100.00	99.00	100.00	99.00	100.00	100.00	100.00	101.00	101.00	101.00	102.00	101.00	102.00	102.00	103.00	103.00	104.00	104.00	104.00	104.00	105.00	104.00	104.00	105.00	105.00	105.00	105.00	106.00	105.00	106.00	107.00	106.00	106.00	106.00	105.00	105.00	105.00	104.00	104.00	105.00	104.00	103.00	103.00	103.00	103.00	104.00	104.00	103.00	103.00	104.00	106.00	106.00	107.00	107.00	107.00	108.00	109.00	110.00	110.00	109.00	109.00	109.00	108.00	110.00	110.00	108.00	109.00	110.00	109.00	110.00	109.00	109.00	110.00	109.00	109.00	108.00	109.00	109.00	110.00	110.00	110.00	110.00	109.00	110.00	111.00	111.00	111.00	112.00	111.00	111.00	110.00	113.00	112.00	116.00	114.00	114.00	113.00	113.00	112.00	112.00	112.00	113.00	113.00	115.00	117.00	114.00	116.00	120.00	117.00	116.00	116.00	115.00	115.00	114.00	115.00	114.00	113.00	114.00	118.00	115.00	116.00	112.00	113.00	118.00	121.00	124.00	125.00	123.00	121.00	119.00	118.00	114.00	116.00	117.00	116.00	117.00	119.00	121.00	124.00	122.00	127.00	127.00	128.00	129.00	127.00	128.00	130.00	130.00	130.00	129.00	131.00	143.00	144.00	143.00	145.00	143.00	142.00	145.00	146.00	148.00	153.00	156.00	157.00	159.00	163.00	164.00	167.00	171.00	190.00	215.00	198.00	211.00	244.00	260.00	259.00	221.00	221.00	233.00	187.00	173.00	168.00	164.00	157.00	158.00	161.00	200.00	178.00	150.00	150.00	149.00	148.00	147.00	146.00	146.00	146.00	146.00	147.00	148.00	151.00	153.00	154.00	156.00	157.00	159.00	159.00	175.00	204.00	208.00	178.00	180.00	199.00	244.00	206.00	211.00	185.00	176.00	172.00	170.00	169.00	168.00	169.00	167.00	168.00	169.00	171.00	170.00	170.00	173.00	174.00	174.00	174.00	176.00	178.00	180.00	183.00	189.00	200.00
96.00	96.00	97.00	98.00	98.00	98.00	99.00	99.00	99.00	99.00	99.00	99.00	99.00	99.00	98.00	99.00	99.00	99.00	100.00	100.00	99.00	100.00	99.00	100.00	100.00	100.00	101.00	101.00	101.00	102.00	101.00	102.00	102.00	103.00	103.00	104.00	104.00	104.00	104.00	105.00	104.00	104.00	105.00	105.00	105.00	105.00	106.00	105.00	106.00	107.00	106.00	106.00	106.00	105.00	105.00	105.00	104.00	104.00	105.00	104.00	103.00	103.00	103.00	103.00	104.00	104.00	103.00	103.00	104.00	106.00	106.00	107.00	107.00	107.00	108.00	109.00	110.00	110.00	109.00	109.00	109.00	108.00	110.00	110.00	108.00	109.00	110.00	109.00	110.00	109.00	109.00	110.00	109.00	109.00	108.00	109.00	109.00	110.00	110.00	110.00	110.00	109.00	110.00	111.00	111.00	111.00	112.00	111.00	111.00	110.00	113.00	112.00	116.00	114.00	114.00	113.00	113.00	112.00	112.00	112.00	113.00	113.00	115.00	117.00	114.00	116.00	120.00	117.00	116.00	116.00	115.00	115.00	114.00	115.00	114.00	113.00	114.00	118.00	115.00	116.00	112.00	113.00	118.00	121.00	124.00	125.00	123.00	121.00	119.00	118.00	114.00	116.00	117.00	116.00	117.00	119.00	121.00	124.00	122.00	127.00	127.00	128.00	129.00	127.00	128.00	130.00	130.00	130.00	129.00	131.00	143.00	144.00	143.00	145.00	143.00	142.00	145.00	146.00	148.00	153.00	156.00	157.00	159.00	163.00	164.00	167.00	171.00	190.00	215.00	198.00	211.00	244.00	260.00	259.00	221.00	221.00	233.00	187.00	173.00	168.00	164.00	157.00	158.00	161.00	200.00	178.00	150.00	150.00	149.00	148.00	147.00	146.00	146.00	146.00	146.00	147.00	148.00	151.00	153.00	154.00	156.00	157.00	159.00	159.00	175.00	204.00	208.00	178.00	180.00	199.00	244.00	206.00	211.00	185.00	176.00	172.00	170.00	169.00	168.00	169.00	167.00	168.00	169.00	171.00	170.00	170.00	173.00	174.00	174.00	174.00	176.00	178.00	180.00	183.00	189.00	200.00
97.00	97.00	97.00	98.00	98.00	98.00	98.00	98.00	98.00	97.00	98.00	98.00	98.00	99.00	98.00	99.00	100.00	99.00	99.00	99.00	100.00	100.00	100.00	100.00	100.00	100.00	101.00	101.00	101.00	101.00	101.00	102.00	102.00	102.00	103.00	103.00	104.00	105.00	104.00	104.00	104.00	104.00	104.00	104.00	104.00	105.00	104.00	104.00	105.00	106.00	105.00	105.00	106.00	106.00	106.00	105.00	104.00	104.00	105.00	105.00	105.00	104.00	104.00	103.00	103.00	102.00	102.00	103.00	104.00	104.00	106.00	108.00	108.00	106.00	107.00	109.00	109.00	108.00	108.00	110.00	110.00	110.00	111.00	110.00	109.00	109.00	109.00	110.00	111.00	113.00	110.00	109.00	109.00	109.00	107.00	109.00	109.00	109.00	108.00	110.00	111.00	111.00	112.00	112.00	112.00	111.00	112.00	112.00	112.00	112.00	114.00	113.00	113.00	113.00	112.00	112.00	111.00	111.00	112.00	112.00	113.00	114.00	114.00	115.00	116.00	123.00	119.00	117.00	117.00	118.00	118.00	118.00	118.00	115.00	115.00	116.00	118.00	119.00	120.00	115.00	116.00	118.00	121.00	125.00	124.00	124.00	124.00	122.00	119.00	119.00	116.00	115.00	118.00	118.00	119.00	122.00	124.00	123.00	121.00	123.00	122.00	125.00	123.00	123.00	124.00	124.00	125.00	126.00	127.00	129.00	133.00	135.00	134.00	137.00	140.00	141.00	144.00	147.00	151.00	151.00	152.00	153.00	155.00	158.00	160.00	162.00	170.00	187.00	217.00	194.00	188.00	201.00	250.00	247.00	218.00	210.00	232.00	183.00	178.00	172.00	167.00	159.00	169.00	176.00	222.00	219.00	149.00	149.00	150.00	149.00	147.00	146.00	146.00	147.00	146.00	148.00	149.00	151.00	154.00	157.00	158.00	160.00	162.00	164.00	167.00	174.00	187.00	216.00	172.00	179.00	196.00	235.00	196.00	205.00	187.00	180.00	177.00	175.00	173.00	173.00	172.00	174.00	172.00	173.00	174.00	173.00	176.00	177.00	178.00	179.00	184.00	184.00	186.00	188.00	191.00	210.00
97.00	97.00	98.00	98.00	98.00	98.00	98.00	98.00	98.00	98.00	98.00	98.00	98.00	99.00	99.00	100.00	100.00	100.00	99.00	100.00	100.00	100.00	100.00	100.00	101.00	101.00	100.00	100.00	101.00	101.00	102.00	102.00	102.00	103.00	104.00	103.00	103.00	104.00	106.00	103.00	103.00	104.00	104.00	104.00	104.00	105.00	104.00	104.00	104.00	105.00	104.00	105.00	105.00	105.00	105.00	105.00	104.00	105.00	105.00	105.00	104.00	104.00	104.00	104.00	103.00	103.00	102.00	104.00	105.00	105.00	105.00	107.00	106.00	107.00	108.00	108.00	108.00	108.00	109.00	110.00	110.00	110.00	109.00	109.00	109.00	109.00	110.00	110.00	111.00	111.00	111.00	110.00	108.00	108.00	109.00	109.00	108.00	108.00	109.00	109.00	110.00	111.00	111.00	112.00	112.00	111.00	113.00	112.00	112.00	114.00	113.00	112.00	111.00	112.00	111.00	113.00	111.00	111.00	112.00	111.00	113.00	113.00	114.00	117.00	116.00	122.00	119.00	116.00	118.00	118.00	117.00	116.00	118.00	115.00	114.00	114.00	114.00	117.00	116.00	116.00	119.00	122.00	124.00	123.00	123.00	124.00	124.00	120.00	119.00	120.00	118.00	118.00	118.00	119.00	119.00	121.00	122.00	121.00	122.00	120.00	119.00	120.00	122.00	121.00	121.00	122.00	124.00	125.00	126.00	128.00	132.00	133.00	135.00	138.00	138.00	139.00	143.00	147.00	148.00	149.00	150.00	152.00	153.00	156.00	156.00	161.00	168.00	181.00	203.00	187.00	182.00	190.00	221.00	246.00	236.00	221.00	248.00	189.00	184.00	179.00	167.00	160.00	172.00	182.00	240.00	227.00	148.00	147.00	149.00	147.00	147.00	147.00	147.00	146.00	147.00	148.00	149.00	152.00	152.00	158.00	160.00	160.00	162.00	165.00	167.00	169.00	177.00	200.00	173.00	174.00	183.00	207.00	204.00	210.00	200.00	188.00	184.00	179.00	179.00	177.00	176.00	175.00	175.00	174.00	176.00	175.00	177.00	179.00	180.00	183.00	189.00	186.00	188.00	190.00	193.00	202.00
96.00	97.00	98.00	98.00	98.00	98.00	98.00	98.00	98.00	97.00	98.00	98.00	98.00	99.00	99.00	99.00	99.00	100.00	99.00	100.00	100.00	100.00	100.00	100.00	100.00	100.00	100.00	102.00	102.00	101.00	102.00	102.00	103.00	103.00	104.00	103.00	103.00	103.00	104.00	104.00	104.00	104.00	104.00	103.00	104.00	104.00	104.00	103.00	103.00	104.00	104.00	104.00	105.00	105.00	105.00	105.00	105.00	105.00	105.00	105.00	105.00	105.00	105.00	104.00	104.00	104.00	103.00	104.00	105.00	106.00	105.00	106.00	107.00	108.00	107.00	106.00	107.00	108.00	108.00	109.00	110.00	112.00	109.00	109.00	109.00	109.00	110.00	111.00	111.00	111.00	110.00	110.00	109.00	109.00	109.00	109.00	108.00	108.00	108.00	109.00	110.00	111.00	111.00	111.00	111.00	112.00	114.00	112.00	113.00	112.00	113.00	113.00	111.00	111.00	112.00	112.00	111.00	110.00	112.00	112.00	113.00	113.00	115.00	118.00	117.00	117.00	115.00	116.00	116.00	116.00	117.00	115.00	115.00	113.00	113.00	114.00	116.00	117.00	116.00	119.00	122.00	124.00	123.00	123.00	123.00	121.00	120.00	119.00	118.00	120.00	123.00	119.00	118.00	119.00	119.00	121.00	120.00	120.00	121.00	119.00	117.00	119.00	120.00	119.00	120.00	121.00	122.00	124.00	127.00	127.00	130.00	131.00	135.00	134.00	138.00	137.00	141.00	143.00	146.00	147.00	150.00	150.00	152.00	154.00	154.00	158.00	163.00	172.00	180.00	178.00	179.00	186.00	208.00	232.00	257.00	227.00	231.00	203.00	203.00	193.00	166.00	162.00	175.00	191.00	252.00	212.00	146.00	147.00	146.00	145.00	149.00	147.00	145.00	146.00	147.00	148.00	150.00	151.00	153.00	158.00	163.00	164.00	162.00	164.00	170.00	169.00	171.00	177.00	174.00	175.00	178.00	183.00	195.00	197.00	214.00	198.00	191.00	185.00	183.00	182.00	180.00	180.00	177.00	178.00	178.00	177.00	179.00	182.00	182.00	183.00	190.00	190.00	192.00	194.00	197.00	205.00
97.00	97.00	97.00	98.00	98.00	98.00	98.00	98.00	99.00	98.00	98.00	98.00	99.00	98.00	99.00	99.00	99.00	99.00	99.00	100.00	100.00	100.00	101.00	100.00	100.00	100.00	102.00	102.00	102.00	101.00	104.00	103.00	104.00	103.00	103.00	103.00	103.00	103.00	103.00	103.00	103.00	104.00	104.00	104.00	104.00	104.00	103.00	103.00	103.00	104.00	104.00	105.00	104.00	104.00	103.00	105.00	105.00	105.00	105.00	105.00	105.00	105.00	105.00	104.00	104.00	104.00	104.00	105.00	105.00	105.00	105.00	105.00	106.00	107.00	106.00	106.00	108.00	109.00	109.00	109.00	111.00	110.00	109.00	109.00	109.00	109.00	110.00	110.00	111.00	110.00	110.00	110.00	110.00	108.00	111.00	109.00	109.00	108.00	109.00	109.00	109.00	109.00	110.00	110.00	111.00	112.00	113.00	112.00	112.00	112.00	112.00	112.00	111.00	112.00	111.00	112.00	110.00	112.00	113.00	112.00	113.00	113.00	119.00	116.00	116.00	114.00	114.00	116.00	117.00	117.00	115.00	113.00	112.00	113.00	113.00	115.00	117.00	116.00	117.00	120.00	123.00	123.00	123.00	123.00	122.00	119.00	119.00	119.00	119.00	122.00	123.00	121.00	119.00	119.00	120.00	121.00	120.00	119.00	119.00	117.00	117.00	118.00	118.00	119.00	119.00	121.00	122.00	124.00	127.00	127.00	130.00	131.00	132.00	132.00	135.00	135.00	139.00	141.00	143.00	146.00	147.00	148.00	149.00	153.00	155.00	158.00	162.00	166.00	171.00	174.00	180.00	185.00	206.00	234.00	260.00	238.00	241.00	213.00	206.00	183.00	165.00	165.00	179.00	195.00	249.00	188.00	145.00	145.00	144.00	144.00	148.00	145.00	145.00	147.00	148.00	148.00	149.00	150.00	152.00	159.00	172.00	168.00	162.00	165.00	191.00	177.00	175.00	173.00	175.00	176.00	178.00	181.00	198.00	206.00	204.00	209.00	200.00	192.00	190.00	188.00	184.00	182.00	180.00	180.00	181.00	181.00	184.00	185.00	185.00	186.00	191.00	194.00	197.00	199.00	201.00	210.00
97.00	97.00	97.00	97.00	97.00	98.00	98.00	98.00	98.00	98.00	98.00	98.00	98.00	98.00	98.00	98.00	99.00	100.00	100.00	101.00	100.00	101.00	101.00	101.00	101.00	101.00	103.00	103.00	101.00	102.00	101.00	102.00	102.00	102.00	103.00	103.00	103.00	103.00	102.00	103.00	103.00	103.00	103.00	103.00	103.00	103.00	105.00	104.00	104.00	103.00	104.00	105.00	104.00	105.00	104.00	104.00	105.00	105.00	105.00	106.00	106.00	106.00	107.00	106.00	106.00	105.00	106.00	106.00	105.00	105.00	106.00	107.00	107.00	107.00	105.00	106.00	108.00	109.00	111.00	109.00	108.00	107.00	107.00	107.00	109.00	110.00	110.00	109.00	112.00	111.00	110.00	109.00	109.00	109.00	111.00	111.00	112.00	109.00	106.00	107.00	108.00	109.00	109.00	110.00	111.00	110.00	112.00	112.00	111.00	112.00	111.00	110.00	111.00	112.00	110.00	111.00	111.00	112.00	111.00	111.00	112.00	112.00	115.00	114.00	116.00	117.00	117.00	117.00	117.00	117.00	117.00	116.00	115.00	115.00	114.00	115.00	116.00	115.00	116.00	120.00	122.00	121.00	119.00	121.00	116.00	117.00	116.00	121.00	120.00	121.00	118.00	118.00	119.00	118.00	118.00	117.00	116.00	116.00	116.00	116.00	116.00	117.00	116.00	118.00	119.00	118.00	122.00	124.00	124.00	125.00	127.00	128.00	130.00	130.00	133.00	137.00	137.00	138.00	139.00	144.00	144.00	146.00	147.00	152.00	155.00	158.00	160.00	165.00	177.00	184.00	191.00	197.00	195.00	206.00	226.00	227.00	250.00	200.00	179.00	171.00	165.00	170.00	182.00	202.00	207.00	162.00	144.00	143.00	143.00	144.00	145.00	146.00	146.00	146.00	146.00	148.00	150.00	149.00	150.00	156.00	164.00	170.00	164.00	170.00	233.00	206.00	197.00	186.00	181.00	181.00	181.00	181.00	183.00	219.00	253.00	223.00	216.00	217.00	206.00	202.00	196.00	192.00	186.00	188.00	188.00	189.00	190.00	191.00	191.00	194.00	199.00	203.00	207.00	209.00	211.00	216.00
96.00	97.00	97.00	97.00	97.00	97.00	98.00	98.00	97.00	98.00	97.00	98.00	98.00	98.00	98.00	98.00	99.00	99.00	99.00	100.00	100.00	101.00	100.00	101.00	101.00	102.00	102.00	101.00	103.00	102.00	102.00	102.00	102.00	102.00	103.00	103.00	103.00	103.00	103.00	103.00	101.00	102.00	103.00	103.00	103.00	103.00	104.00	104.00	104.00	104.00	105.00	105.00	105.00	104.00	104.00	104.00	105.00	105.00	106.00	106.00	107.00	106.00	106.00	106.00	106.00	106.00	106.00	106.00	106.00	106.00	105.00	107.00	106.00	106.00	106.00	106.00	107.00	110.00	110.00	107.00	106.00	107.00	107.00	108.00	109.00	109.00	110.00	110.00	112.00	112.00	110.00	109.00	109.00	110.00	110.00	111.00	111.00	109.00	110.00	109.00	109.00	109.00	109.00	110.00	110.00	110.00	113.00	112.00	110.00	111.00	112.00	111.00	112.00	111.00	111.00	109.00	110.00	110.00	112.00	112.00	111.00	113.00	116.00	116.00	115.00	115.00	118.00	117.00	117.00	116.00	116.00	115.00	114.00	114.00	116.00	115.00	116.00	117.00	120.00	124.00	122.00	120.00	119.00	116.00	115.00	117.00	116.00	118.00	118.00	118.00	117.00	117.00	118.00	117.00	116.00	117.00	113.00	113.00	113.00	116.00	116.00	115.00	115.00	116.00	116.00	118.00	121.00	122.00	125.00	124.00	126.00	127.00	129.00	130.00	131.00	134.00	136.00	136.00	137.00	141.00	142.00	144.00	147.00	152.00	154.00	156.00	158.00	168.00	183.00	193.00	203.00	213.00	199.00	202.00	216.00	221.00	242.00	187.00	174.00	167.00	163.00	170.00	183.00	206.00	206.00	159.00	142.00	143.00	143.00	144.00	145.00	146.00	147.00	147.00	147.00	148.00	150.00	152.00	151.00	159.00	173.00	177.00	168.00	169.00	218.00	218.00	202.00	192.00	192.00	190.00	191.00	184.00	185.00	193.00	217.00	253.00	261.00	226.00	216.00	206.00	200.00	198.00	191.00	194.00	192.00	193.00	195.00	196.00	197.00	200.00	204.00	211.00	213.00	214.00	217.00	223.00
96.00	97.00	97.00	97.00	97.00	97.00	98.00	98.00	97.00	98.00	97.00	98.00	98.00	98.00	98.00	98.00	99.00	99.00	99.00	100.00	100.00	101.00	100.00	101.00	101.00	102.00	102.00	101.00	103.00	102.00	102.00	102.00	102.00	102.00	103.00	103.00	103.00	103.00	103.00	103.00	101.00	102.00	103.00	103.00	103.00	103.00	104.00	104.00	104.00	104.00	105.00	105.00	105.00	104.00	104.00	104.00	105.00	105.00	106.00	106.00	107.00	106.00	106.00	106.00	106.00	106.00	106.00	106.00	106.00	106.00	105.00	107.00	106.00	106.00	106.00	106.00	107.00	110.00	110.00	107.00	106.00	107.00	107.00	108.00	109.00	109.00	110.00	110.00	112.00	112.00	110.00	109.00	109.00	110.00	110.00	111.00	111.00	109.00	110.00	109.00	109.00	109.00	109.00	110.00	110.00	110.00	113.00	112.00	110.00	111.00	112.00	111.00	112.00	111.00	111.00	109.00	110.00	110.00	112.00	112.00	111.00	113.00	116.00	116.00	115.00	115.00	118.00	117.00	117.00	116.00	116.00	115.00	114.00	114.00	116.00	115.00	116.00	117.00	120.00	124.00	122.00	120.00	119.00	116.00	115.00	117.00	116.00	118.00	118.00	118.00	117.00	117.00	118.00	117.00	116.00	117.00	113.00	113.00	113.00	116.00	116.00	115.00	115.00	116.00	116.00	118.00	121.00	122.00	125.00	124.00	126.00	127.00	129.00	130.00	131.00	134.00	136.00	136.00	137.00	141.00	142.00	144.00	147.00	152.00	154.00	156.00	158.00	168.00	183.00	193.00	203.00	213.00	199.00	202.00	216.00	221.00	242.00	187.00	174.00	167.00	163.00	170.00	183.00	206.00	206.00	159.00	142.00	143.00	143.00	144.00	145.00	146.00	147.00	147.00	147.00	148.00	150.00	152.00	151.00	159.00	173.00	177.00	168.00	169.00	218.00	218.00	202.00	192.00	192.00	190.00	191.00	184.00	185.00	193.00	217.00	253.00	261.00	226.00	216.00	206.00	200.00	198.00	191.00	194.00	192.00	193.00	195.00	196.00	197.00	200.00	204.00	211.00	213.00	214.00	217.00	223.00
96.00	97.00	97.00	97.00	97.00	96.00	96.00	97.00	98.00	97.00	98.00	98.00	98.00	98.00	98.00	98.00	98.00	98.00	99.00	100.00	100.00	100.00	100.00	101.00	101.00	103.00	102.00	101.00	102.00	102.00	101.00	101.00	102.00	102.00	103.00	103.00	103.00	103.00	103.00	103.00	102.00	102.00	103.00	103.00	103.00	103.00	103.00	104.00	104.00	105.00	104.00	104.00	105.00	104.00	104.00	105.00	104.00	104.00	105.00	106.00	105.00	105.00	105.00	107.00	106.00	106.00	106.00	106.00	106.00	106.00	105.00	106.00	106.00	106.00	106.00	110.00	112.00	110.00	109.00	107.00	107.00	107.00	107.00	108.00	109.00	109.00	109.00	110.00	112.00	110.00	109.00	109.00	108.00	109.00	110.00	111.00	112.00	111.00	111.00	110.00	108.00	110.00	109.00	109.00	110.00	110.00	112.00	110.00	110.00	110.00	111.00	110.00	111.00	111.00	111.00	111.00	111.00	112.00	111.00	111.00	112.00	113.00	118.00	114.00	115.00	118.00	117.00	116.00	116.00	116.00	117.00	115.00	115.00	114.00	115.00	117.00	117.00	118.00	123.00	125.00	120.00	116.00	117.00	115.00	116.00	115.00	116.00	117.00	117.00	116.00	116.00	117.00	119.00	116.00	115.00	116.00	115.00	113.00	113.00	115.00	115.00	115.00	114.00	116.00	115.00	119.00	121.00	121.00	123.00	127.00	126.00	126.00	126.00	127.00	131.00	133.00	134.00	136.00	137.00	140.00	142.00	145.00	147.00	151.00	153.00	155.00	155.00	170.00	184.00	201.00	226.00	234.00	208.00	202.00	205.00	221.00	234.00	179.00	169.00	164.00	162.00	171.00	183.00	215.00	237.00	159.00	143.00	142.00	144.00	144.00	146.00	148.00	149.00	148.00	148.00	148.00	149.00	150.00	151.00	167.00	187.00	177.00	166.00	166.00	193.00	204.00	197.00	218.00	203.00	203.00	208.00	198.00	190.00	189.00	191.00	204.00	239.00	253.00	261.00	228.00	219.00	211.00	201.00	200.00	198.00	199.00	201.00	201.00	202.00	206.00	212.00	217.00	219.00	221.00	223.00	230.00
96.00	96.00	96.00	96.00	96.00	97.00	97.00	96.00	97.00	97.00	97.00	97.00	97.00	97.00	97.00	98.00	98.00	98.00	99.00	99.00	99.00	99.00	101.00	101.00	101.00	103.00	101.00	101.00	101.00	102.00	101.00	102.00	102.00	102.00	102.00	101.00	101.00	102.00	102.00	102.00	103.00	104.00	103.00	104.00	102.00	103.00	103.00	103.00	104.00	104.00	105.00	105.00	104.00	105.00	104.00	104.00	105.00	104.00	105.00	105.00	105.00	107.00	106.00	107.00	106.00	107.00	107.00	106.00	105.00	105.00	105.00	105.00	105.00	108.00	109.00	108.00	105.00	106.00	105.00	105.00	106.00	107.00	108.00	108.00	109.00	109.00	109.00	109.00	109.00	108.00	108.00	107.00	109.00	108.00	109.00	110.00	111.00	110.00	110.00	109.00	108.00	109.00	108.00	108.00	110.00	110.00	111.00	109.00	110.00	110.00	110.00	111.00	111.00	111.00	111.00	111.00	114.00	112.00	114.00	113.00	112.00	113.00	118.00	114.00	115.00	115.00	117.00	116.00	116.00	117.00	117.00	120.00	120.00	119.00	118.00	119.00	115.00	118.00	118.00	121.00	119.00	114.00	114.00	118.00	119.00	112.00	113.00	113.00	113.00	113.00	116.00	115.00	114.00	114.00	117.00	114.00	113.00	112.00	113.00	114.00	115.00	114.00	114.00	117.00	117.00	116.00	118.00	119.00	122.00	125.00	121.00	124.00	124.00	125.00	128.00	128.00	131.00	131.00	133.00	137.00	138.00	141.00	144.00	146.00	147.00	150.00	151.00	163.00	177.00	188.00	206.00	242.00	210.00	196.00	196.00	221.00	217.00	176.00	168.00	164.00	160.00	168.00	183.00	251.00	241.00	155.00	142.00	142.00	144.00	144.00	147.00	146.00	147.00	147.00	148.00	150.00	149.00	151.00	152.00	178.00	188.00	167.00	162.00	165.00	178.00	184.00	189.00	194.00	228.00	244.00	232.00	247.00	247.00	203.00	200.00	195.00	195.00	197.00	200.00	227.00	273.00	312.00	225.00	218.00	212.00	211.00	219.00	220.00	221.00	224.00	230.00	237.00	242.00	247.00	265.00	258.00
95.00	95.00	95.00	96.00	96.00	97.00	97.00	96.00	97.00	97.00	97.00	97.00	97.00	97.00	97.00	97.00	97.00	99.00	99.00	99.00	99.00	99.00	101.00	101.00	103.00	101.00	101.00	101.00	101.00	101.00	102.00	102.00	102.00	102.00	102.00	101.00	102.00	102.00	102.00	102.00	103.00	103.00	103.00	103.00	103.00	102.00	102.00	102.00	103.00	104.00	105.00	105.00	105.00	105.00	105.00	105.00	105.00	104.00	105.00	105.00	106.00	107.00	106.00	106.00	106.00	106.00	106.00	106.00	105.00	105.00	106.00	107.00	110.00	108.00	106.00	105.00	104.00	104.00	105.00	105.00	106.00	107.00	108.00	109.00	108.00	108.00	108.00	109.00	108.00	108.00	107.00	107.00	109.00	109.00	110.00	110.00	111.00	110.00	109.00	109.00	108.00	109.00	109.00	108.00	108.00	109.00	110.00	109.00	109.00	109.00	110.00	110.00	112.00	111.00	112.00	111.00	112.00	113.00	114.00	114.00	114.00	111.00	115.00	112.00	113.00	114.00	117.00	115.00	115.00	117.00	124.00	126.00	124.00	122.00	117.00	116.00	116.00	116.00	115.00	115.00	114.00	114.00	114.00	115.00	115.00	112.00	111.00	112.00	112.00	113.00	118.00	117.00	113.00	114.00	115.00	115.00	113.00	112.00	113.00	114.00	115.00	113.00	115.00	117.00	115.00	116.00	117.00	119.00	121.00	122.00	123.00	123.00	125.00	125.00	128.00	128.00	129.00	130.00	133.00	137.00	137.00	140.00	144.00	143.00	145.00	149.00	148.00	157.00	171.00	177.00	188.00	208.00	201.00	188.00	192.00	213.00	202.00	175.00	168.00	164.00	160.00	168.00	186.00	266.00	204.00	149.00	142.00	142.00	143.00	145.00	146.00	148.00	146.00	147.00	149.00	152.00	152.00	152.00	154.00	183.00	185.00	162.00	161.00	164.00	175.00	189.00	207.00	203.00	238.00	246.00	257.00	243.00	233.00	210.00	209.00	202.00	200.00	201.00	202.00	204.00	214.00	237.00	286.00	248.00	225.00	222.00	224.00	226.00	231.00	238.00	252.00	258.00	277.00	300.00	321.00	309.00
95.00	95.00	96.00	96.00	96.00	97.00	97.00	96.00	96.00	97.00	97.00	97.00	97.00	97.00	97.00	98.00	98.00	98.00	98.00	99.00	99.00	100.00	100.00	101.00	102.00	101.00	101.00	101.00	101.00	101.00	101.00	101.00	100.00	102.00	102.00	102.00	101.00	102.00	103.00	102.00	103.00	103.00	103.00	103.00	102.00	102.00	102.00	102.00	104.00	104.00	105.00	105.00	105.00	105.00	104.00	106.00	106.00	104.00	105.00	106.00	105.00	107.00	106.00	106.00	106.00	105.00	105.00	106.00	106.00	106.00	106.00	108.00	110.00	107.00	106.00	105.00	106.00	104.00	105.00	105.00	107.00	107.00	108.00	108.00	108.00	108.00	108.00	108.00	108.00	107.00	107.00	107.00	106.00	108.00	110.00	109.00	110.00	109.00	111.00	109.00	109.00	110.00	109.00	108.00	108.00	109.00	109.00	113.00	113.00	111.00	110.00	110.00	115.00	111.00	111.00	111.00	111.00	111.00	112.00	111.00	113.00	110.00	114.00	113.00	113.00	114.00	116.00	115.00	116.00	118.00	126.00	128.00	126.00	122.00	117.00	118.00	116.00	115.00	115.00	114.00	114.00	114.00	114.00	114.00	113.00	110.00	110.00	111.00	112.00	113.00	119.00	116.00	114.00	114.00	115.00	116.00	113.00	111.00	112.00	113.00	114.00	113.00	114.00	116.00	116.00	118.00	118.00	120.00	120.00	120.00	120.00	121.00	123.00	123.00	125.00	127.00	128.00	129.00	132.00	133.00	135.00	136.00	139.00	141.00	140.00	144.00	146.00	154.00	165.00	172.00	179.00	196.00	190.00	182.00	190.00	221.00	213.00	179.00	165.00	161.00	158.00	168.00	197.00	260.00	176.00	145.00	142.00	142.00	144.00	144.00	146.00	148.00	150.00	148.00	150.00	152.00	152.00	154.00	155.00	178.00	167.00	158.00	159.00	163.00	172.00	188.00	208.00	208.00	240.00	266.00	257.00	240.00	229.00	228.00	244.00	217.00	214.00	209.00	207.00	205.00	207.00	213.00	263.00	289.00	254.00	236.00	229.00	233.00	240.00	255.00	325.00	310.00	358.00	407.00	404.00	360.00
96.00	96.00	96.00	96.00	96.00	97.00	97.00	96.00	97.00	96.00	97.00	97.00	97.00	97.00	97.00	98.00	98.00	98.00	99.00	100.00	100.00	100.00	100.00	101.00	102.00	101.00	101.00	101.00	101.00	101.00	101.00	102.00	102.00	102.00	102.00	101.00	102.00	102.00	102.00	102.00	102.00	102.00	102.00	102.00	102.00	102.00	102.00	103.00	104.00	103.00	104.00	104.00	105.00	106.00	106.00	106.00	106.00	105.00	106.00	106.00	107.00	106.00	106.00	106.00	105.00	106.00	106.00	106.00	106.00	106.00	106.00	110.00	108.00	106.00	105.00	107.00	105.00	105.00	105.00	105.00	106.00	107.00	108.00	109.00	108.00	108.00	108.00	108.00	108.00	107.00	106.00	107.00	107.00	108.00	110.00	110.00	110.00	109.00	108.00	109.00	109.00	108.00	109.00	108.00	108.00	109.00	111.00	110.00	111.00	110.00	110.00	112.00	115.00	111.00	112.00	112.00	113.00	112.00	112.00	111.00	111.00	111.00	113.00	115.00	112.00	113.00	116.00	115.00	117.00	121.00	129.00	126.00	122.00	121.00	116.00	116.00	115.00	115.00	114.00	114.00	114.00	115.00	115.00	110.00	109.00	109.00	107.00	109.00	110.00	112.00	113.00	115.00	112.00	113.00	114.00	114.00	113.00	112.00	112.00	113.00	113.00	114.00	115.00	116.00	116.00	117.00	120.00	117.00	118.00	118.00	119.00	121.00	122.00	121.00	123.00	125.00	125.00	128.00	130.00	131.00	132.00	135.00	137.00	139.00	142.00	144.00	149.00	151.00	162.00	167.00	174.00	198.00	183.00	179.00	189.00	220.00	226.00	181.00	160.00	157.00	155.00	170.00	208.00	273.00	169.00	143.00	142.00	143.00	144.00	145.00	146.00	148.00	149.00	149.00	150.00	152.00	153.00	154.00	154.00	159.00	158.00	156.00	157.00	161.00	172.00	182.00	190.00	194.00	221.00	253.00	270.00	243.00	257.00	257.00	266.00	239.00	244.00	231.00	218.00	212.00	209.00	210.00	218.00	235.00	270.00	285.00	235.00	235.00	242.00	249.00	313.00	405.00	424.00	414.00	403.00	368.00
95.00	95.00	95.00	95.00	96.00	95.00	95.00	96.00	96.00	96.00	97.00	97.00	97.00	98.00	98.00	98.00	99.00	99.00	99.00	99.00	100.00	100.00	100.00	100.00	102.00	101.00	101.00	101.00	101.00	100.00	101.00	102.00	102.00	101.00	101.00	101.00	101.00	101.00	102.00	102.00	102.00	102.00	102.00	102.00	102.00	103.00	103.00	103.00	103.00	103.00	103.00	103.00	104.00	106.00	107.00	106.00	106.00	105.00	106.00	106.00	106.00	106.00	106.00	106.00	106.00	106.00	106.00	105.00	106.00	107.00	105.00	108.00	108.00	106.00	106.00	106.00	105.00	105.00	105.00	105.00	106.00	107.00	108.00	108.00	108.00	107.00	107.00	107.00	107.00	108.00	106.00	107.00	107.00	108.00	108.00	108.00	108.00	108.00	108.00	109.00	109.00	108.00	108.00	112.00	111.00	110.00	109.00	110.00	110.00	109.00	110.00	111.00	111.00	109.00	110.00	109.00	111.00	111.00	111.00	109.00	111.00	111.00	112.00	114.00	113.00	114.00	119.00	120.00	122.00	126.00	128.00	125.00	120.00	118.00	114.00	113.00	114.00	113.00	113.00	115.00	113.00	113.00	110.00	106.00	109.00	108.00	108.00	111.00	110.00	112.00	115.00	115.00	113.00	114.00	113.00	113.00	113.00	110.00	108.00	112.00	116.00	117.00	114.00	113.00	116.00	116.00	117.00	116.00	116.00	116.00	119.00	119.00	119.00	119.00	120.00	121.00	124.00	126.00	126.00	128.00	129.00	131.00	132.00	134.00	136.00	137.00	141.00	151.00	152.00	156.00	162.00	168.00	171.00	173.00	177.00	185.00	213.00	157.00	151.00	151.00	151.00	173.00	249.00	196.00	144.00	142.00	141.00	145.00	145.00	145.00	147.00	149.00	149.00	152.00	153.00	152.00	153.00	153.00	155.00	158.00	157.00	158.00	159.00	159.00	168.00	175.00	180.00	188.00	218.00	261.00	247.00	245.00	257.00	273.00	276.00	265.00	244.00	229.00	220.00	241.00	250.00	239.00	224.00	219.00	220.00	226.00	270.00	304.00	322.00	343.00	471.00	383.00	347.00	348.00	329.00	278.00
94.00	95.00	94.00	95.00	95.00	95.00	95.00	95.00	96.00	97.00	97.00	97.00	97.00	97.00	97.00	98.00	99.00	98.00	99.00	99.00	99.00	100.00	99.00	100.00	102.00	101.00	100.00	100.00	101.00	101.00	101.00	101.00	102.00	101.00	101.00	101.00	101.00	102.00	102.00	102.00	102.00	102.00	102.00	103.00	103.00	103.00	104.00	103.00	103.00	104.00	103.00	103.00	103.00	105.00	107.00	107.00	107.00	105.00	105.00	106.00	107.00	107.00	108.00	107.00	106.00	106.00	106.00	106.00	106.00	106.00	106.00	109.00	107.00	107.00	106.00	105.00	105.00	105.00	105.00	105.00	106.00	107.00	108.00	107.00	107.00	107.00	106.00	107.00	108.00	107.00	107.00	108.00	108.00	108.00	108.00	108.00	109.00	109.00	109.00	109.00	109.00	109.00	108.00	109.00	110.00	109.00	111.00	109.00	111.00	113.00	111.00	110.00	108.00	109.00	109.00	110.00	111.00	110.00	110.00	110.00	113.00	111.00	112.00	113.00	113.00	114.00	119.00	119.00	121.00	123.00	124.00	123.00	120.00	118.00	114.00	113.00	113.00	112.00	114.00	114.00	113.00	111.00	108.00	106.00	110.00	110.00	108.00	110.00	111.00	114.00	116.00	116.00	113.00	113.00	112.00	114.00	113.00	110.00	111.00	113.00	116.00	113.00	113.00	113.00	114.00	114.00	114.00	115.00	115.00	117.00	120.00	119.00	119.00	119.00	119.00	120.00	122.00	127.00	124.00	126.00	128.00	130.00	131.00	134.00	136.00	137.00	142.00	149.00	149.00	154.00	157.00	160.00	165.00	166.00	170.00	181.00	213.00	154.00	149.00	149.00	152.00	180.00	231.00	165.00	144.00	141.00	141.00	145.00	146.00	146.00	148.00	149.00	150.00	154.00	154.00	153.00	154.00	155.00	156.00	157.00	158.00	159.00	159.00	159.00	166.00	171.00	179.00	200.00	232.00	259.00	238.00	230.00	239.00	278.00	260.00	251.00	252.00	230.00	241.00	229.00	241.00	257.00	237.00	227.00	226.00	224.00	239.00	257.00	279.00	333.00	372.00	311.00	303.00	300.00	283.00	267.00
94.00	95.00	94.00	95.00	95.00	95.00	95.00	95.00	96.00	97.00	97.00	97.00	97.00	97.00	97.00	98.00	99.00	98.00	99.00	99.00	99.00	100.00	99.00	100.00	102.00	101.00	100.00	100.00	101.00	101.00	101.00	101.00	102.00	101.00	101.00	101.00	101.00	102.00	102.00	102.00	102.00	102.00	102.00	103.00	103.00	103.00	104.00	103.00	103.00	104.00	103.00	103.00	103.00	105.00	107.00	107.00	107.00	105.00	105.00	106.00	107.00	107.00	108.00	107.00	106.00	106.00	106.00	106.00	106.00	106.00	106.00	109.00	107.00	107.00	106.00	105.00	105.00	105.00	105.00	105.00	106.00	107.00	108.00	107.00	107.00	107.00	106.00	107.00	108.00	107.00	107.00	108.00	108.00	108.00	108.00	108.00	109.00	109.00	109.00	109.00	109.00	109.00	108.00	109.00	110.00	109.00	111.00	109.00	111.00	113.00	111.00	110.00	108.00	109.00	109.00	110.00	111.00	110.00	110.00	110.00	113.00	111.00	112.00	113.00	113.00	114.00	119.00	119.00	121.00	123.00	124.00	123.00	120.00	118.00	114.00	113.00	113.00	112.00	114.00	114.00	113.00	111.00	108.00	106.00	110.00	110.00	108.00	110.00	111.00	114.00	116.00	116.00	113.00	113.00	112.00	114.00	113.00	110.00	111.00	113.00	116.00	113.00	113.00	113.00	114.00	114.00	114.00	115.00	115.00	117.00	120.00	119.00	119.00	119.00	119.00	120.00	122.00	127.00	124.00	126.00	128.00	130.00	131.00	134.00	136.00	137.00	142.00	149.00	149.00	154.00	157.00	160.00	165.00	166.00	170.00	181.00	213.00	154.00	149.00	149.00	152.00	180.00	231.00	165.00	144.00	141.00	141.00	145.00	146.00	146.00	148.00	149.00	150.00	154.00	154.00	153.00	154.00	155.00	156.00	157.00	158.00	159.00	159.00	159.00	166.00	171.00	179.00	200.00	232.00	259.00	238.00	230.00	239.00	278.00	260.00	251.00	252.00	230.00	241.00	229.00	241.00	257.00	237.00	227.00	226.00	224.00	239.00	257.00	279.00	333.00	372.00	311.00	303.00	300.00	283.00	267.00
94.00	95.00	95.00	95.00	95.00	95.00	96.00	95.00	96.00	96.00	96.00	96.00	97.00	97.00	98.00	98.00	98.00	99.00	99.00	99.00	100.00	101.00	99.00	100.00	101.00	101.00	100.00	100.00	101.00	100.00	101.00	101.00	101.00	100.00	100.00	100.00	101.00	101.00	102.00	101.00	103.00	102.00	102.00	102.00	102.00	103.00	102.00	102.00	104.00	104.00	103.00	103.00	104.00	105.00	107.00	106.00	107.00	107.00	106.00	106.00	106.00	107.00	111.00	111.00	111.00	111.00	107.00	106.00	106.00	108.00	109.00	107.00	107.00	106.00	105.00	106.00	105.00	105.00	105.00	106.00	106.00	107.00	107.00	107.00	106.00	106.00	106.00	107.00	107.00	107.00	107.00	108.00	109.00	108.00	108.00	108.00	107.00	109.00	108.00	109.00	110.00	109.00	108.00	111.00	112.00	110.00	110.00	110.00	114.00	113.00	112.00	110.00	110.00	109.00	108.00	109.00	111.00	109.00	109.00	109.00	113.00	110.00	112.00	113.00	114.00	113.00	117.00	121.00	121.00	123.00	124.00	122.00	121.00	117.00	116.00	113.00	112.00	112.00	113.00	113.00	112.00	109.00	106.00	109.00	109.00	110.00	108.00	111.00	114.00	114.00	115.00	113.00	113.00	114.00	113.00	113.00	114.00	113.00	113.00	113.00	112.00	113.00	116.00	117.00	115.00	110.00	112.00	116.00	117.00	117.00	118.00	119.00	119.00	118.00	119.00	119.00	122.00	124.00	123.00	125.00	127.00	128.00	129.00	130.00	131.00	133.00	141.00	146.00	149.00	152.00	157.00	160.00	169.00	161.00	166.00	180.00	214.00	150.00	147.00	147.00	151.00	186.00	211.00	149.00	143.00	141.00	143.00	146.00	146.00	146.00	147.00	149.00	150.00	155.00	154.00	153.00	154.00	160.00	182.00	158.00	159.00	160.00	160.00	160.00	164.00	166.00	174.00	191.00	237.00	259.00	230.00	226.00	239.00	289.00	281.00	262.00	254.00	235.00	240.00	231.00	243.00	254.00	241.00	237.00	247.00	236.00	232.00	241.00	251.00	270.00	289.00	286.00	285.00	280.00	268.00	258.00
94.00	94.00	94.00	94.00	94.00	95.00	95.00	95.00	96.00	96.00	96.00	97.00	97.00	97.00	97.00	98.00	98.00	98.00	99.00	99.00	99.00	100.00	100.00	101.00	101.00	101.00	99.00	100.00	99.00	99.00	101.00	103.00	102.00	100.00	101.00	101.00	101.00	102.00	101.00	102.00	101.00	102.00	102.00	102.00	102.00	102.00	103.00	102.00	104.00	104.00	104.00	104.00	105.00	106.00	106.00	105.00	105.00	105.00	106.00	106.00	106.00	109.00	106.00	106.00	107.00	108.00	108.00	108.00	107.00	107.00	107.00	106.00	107.00	106.00	105.00	106.00	105.00	106.00	106.00	107.00	108.00	107.00	107.00	107.00	105.00	106.00	107.00	106.00	105.00	107.00	107.00	108.00	108.00	107.00	108.00	108.00	107.00	107.00	108.00	109.00	108.00	107.00	109.00	112.00	111.00	110.00	109.00	109.00	110.00	108.00	108.00	108.00	109.00	106.00	106.00	111.00	109.00	109.00	109.00	110.00	109.00	110.00	113.00	113.00	115.00	120.00	121.00	123.00	124.00	124.00	120.00	119.00	118.00	116.00	115.00	114.00	113.00	113.00	113.00	113.00	113.00	110.00	110.00	110.00	110.00	113.00	113.00	113.00	111.00	111.00	110.00	112.00	113.00	114.00	113.00	112.00	112.00	112.00	112.00	112.00	112.00	113.00	114.00	114.00	115.00	113.00	111.00	114.00	116.00	116.00	117.00	117.00	118.00	118.00	118.00	118.00	118.00	119.00	121.00	121.00	123.00	123.00	124.00	129.00	131.00	132.00	135.00	139.00	143.00	147.00	150.00	156.00	168.00	159.00	161.00	176.00	211.00	144.00	145.00	146.00	151.00	205.00	159.00	141.00	141.00	141.00	143.00	144.00	145.00	146.00	148.00	149.00	149.00	150.00	151.00	153.00	154.00	160.00	182.00	159.00	160.00	161.00	162.00	163.00	164.00	167.00	172.00	179.00	231.00	232.00	220.00	213.00	216.00	232.00	240.00	258.00	275.00	277.00	264.00	250.00	260.00	259.00	266.00	270.00	258.00	276.00	268.00	252.00	244.00	242.00	249.00	269.00	270.00	269.00	266.00	273.00
94.00	94.00	94.00	94.00	94.00	95.00	95.00	95.00	96.00	96.00	96.00	97.00	97.00	97.00	97.00	98.00	98.00	98.00	99.00	99.00	99.00	100.00	100.00	101.00	101.00	101.00	99.00	100.00	99.00	99.00	101.00	103.00	102.00	100.00	101.00	101.00	101.00	102.00	101.00	102.00	101.00	102.00	102.00	102.00	102.00	102.00	103.00	102.00	104.00	104.00	104.00	104.00	105.00	106.00	106.00	105.00	105.00	105.00	106.00	106.00	106.00	109.00	106.00	106.00	107.00	108.00	108.00	108.00	107.00	107.00	107.00	106.00	107.00	106.00	105.00	106.00	105.00	106.00	106.00	107.00	108.00	107.00	107.00	107.00	105.00	106.00	107.00	106.00	105.00	107.00	107.00	108.00	108.00	107.00	108.00	108.00	107.00	107.00	108.00	109.00	108.00	107.00	109.00	112.00	111.00	110.00	109.00	109.00	110.00	108.00	108.00	108.00	109.00	106.00	106.00	111.00	109.00	109.00	109.00	110.00	109.00	110.00	113.00	113.00	115.00	120.00	121.00	123.00	124.00	124.00	120.00	119.00	118.00	116.00	115.00	114.00	113.00	113.00	113.00	113.00	113.00	110.00	110.00	110.00	110.00	113.00	113.00	113.00	111.00	111.00	110.00	112.00	113.00	114.00	113.00	112.00	112.00	112.00	112.00	112.00	112.00	113.00	114.00	114.00	115.00	113.00	111.00	114.00	116.00	116.00	117.00	117.00	118.00	118.00	118.00	118.00	118.00	119.00	121.00	121.00	123.00	123.00	124.00	129.00	131.00	132.00	135.00	139.00	143.00	147.00	150.00	156.00	168.00	159.00	161.00	176.00	211.00	144.00	145.00	146.00	151.00	205.00	159.00	141.00	141.00	141.00	143.00	144.00	145.00	146.00	148.00	149.00	149.00	150.00	151.00	153.00	154.00	160.00	182.00	159.00	160.00	161.00	162.00	163.00	164.00	167.00	172.00	179.00	231.00	232.00	220.00	213.00	216.00	232.00	240.00	258.00	275.00	277.00	264.00	250.00	260.00	259.00	266.00	270.00	258.00	276.00	268.00	252.00	244.00	242.00	249.00	269.00	270.00	269.00	266.00	273.00
94.00	94.00	94.00	94.00	94.00	94.00	95.00	94.00	96.00	96.00	96.00	97.00	97.00	98.00	98.00	98.00	98.00	98.00	99.00	99.00	100.00	100.00	101.00	99.00	100.00	99.00	100.00	99.00	99.00	99.00	103.00	101.00	101.00	101.00	100.00	101.00	101.00	102.00	101.00	101.00	102.00	101.00	102.00	102.00	102.00	103.00	103.00	104.00	105.00	104.00	104.00	105.00	105.00	105.00	104.00	104.00	104.00	106.00	106.00	107.00	107.00	109.00	105.00	107.00	106.00	106.00	106.00	107.00	106.00	106.00	107.00	107.00	105.00	106.00	107.00	106.00	107.00	107.00	108.00	107.00	107.00	108.00	106.00	106.00	106.00	106.00	106.00	106.00	106.00	105.00	108.00	108.00	107.00	107.00	108.00	108.00	107.00	108.00	108.00	108.00	108.00	107.00	107.00	110.00	110.00	111.00	110.00	109.00	110.00	109.00	110.00	108.00	108.00	107.00	107.00	108.00	108.00	110.00	110.00	109.00	110.00	110.00	113.00	114.00	119.00	122.00	122.00	123.00	123.00	122.00	118.00	115.00	116.00	115.00	113.00	113.00	112.00	112.00	113.00	114.00	113.00	112.00	113.00	111.00	113.00	115.00	112.00	109.00	110.00	110.00	110.00	111.00	112.00	112.00	112.00	111.00	111.00	112.00	112.00	111.00	112.00	113.00	113.00	114.00	116.00	115.00	116.00	116.00	116.00	116.00	117.00	117.00	117.00	118.00	117.00	118.00	119.00	120.00	119.00	121.00	121.00	122.00	123.00	127.00	129.00	131.00	133.00	135.00	141.00	144.00	151.00	158.00	169.00	157.00	159.00	177.00	197.00	142.00	143.00	144.00	151.00	218.00	151.00	140.00	140.00	141.00	144.00	144.00	145.00	146.00	148.00	149.00	150.00	150.00	151.00	154.00	154.00	157.00	161.00	160.00	161.00	162.00	164.00	164.00	165.00	165.00	168.00	175.00	222.00	216.00	208.00	207.00	207.00	218.00	226.00	232.00	241.00	259.00	261.00	261.00	259.00	261.00	268.00	266.00	266.00	272.00	300.00	280.00	259.00	255.00	252.00	261.00	263.00	269.00	272.00	293.00
94.00	94.00	94.00	94.00	94.00	94.00	94.00	95.00	95.00	96.00	96.00	97.00	97.00	97.00	98.00	98.00	98.00	99.00	99.00	98.00	99.00	99.00	101.00	102.00	101.00	102.00	100.00	100.00	99.00	99.00	103.00	103.00	102.00	100.00	102.00	101.00	101.00	102.00	102.00	102.00	101.00	101.00	102.00	102.00	102.00	102.00	102.00	103.00	103.00	104.00	105.00	106.00	104.00	104.00	105.00	105.00	105.00	106.00	109.00	110.00	111.00	109.00	106.00	105.00	105.00	107.00	107.00	107.00	107.00	107.00	107.00	106.00	106.00	106.00	107.00	107.00	108.00	108.00	107.00	107.00	107.00	107.00	106.00	106.00	105.00	107.00	106.00	106.00	106.00	106.00	108.00	108.00	107.00	107.00	108.00	108.00	108.00	109.00	108.00	108.00	108.00	108.00	109.00	111.00	108.00	108.00	108.00	109.00	110.00	110.00	109.00	108.00	107.00	107.00	109.00	109.00	109.00	109.00	111.00	109.00	110.00	114.00	114.00	118.00	121.00	123.00	122.00	121.00	122.00	122.00	113.00	113.00	114.00	113.00	112.00	112.00	112.00	111.00	115.00	113.00	112.00	112.00	111.00	112.00	112.00	115.00	112.00	110.00	110.00	110.00	112.00	110.00	110.00	110.00	110.00	110.00	113.00	113.00	112.00	112.00	112.00	114.00	113.00	114.00	115.00	115.00	115.00	116.00	118.00	117.00	116.00	117.00	117.00	117.00	118.00	116.00	118.00	118.00	119.00	120.00	120.00	121.00	122.00	125.00	128.00	128.00	130.00	134.00	139.00	144.00	150.00	155.00	162.00	156.00	154.00	176.00	166.00	140.00	142.00	143.00	149.00	189.00	142.00	139.00	140.00	141.00	143.00	145.00	145.00	146.00	148.00	150.00	150.00	152.00	152.00	155.00	155.00	156.00	158.00	160.00	162.00	162.00	163.00	164.00	166.00	166.00	168.00	173.00	211.00	212.00	200.00	201.00	202.00	209.00	213.00	219.00	226.00	240.00	235.00	235.00	234.00	235.00	243.00	250.00	255.00	255.00	279.00	289.00	284.00	288.00	280.00	266.00	270.00	277.00	281.00	325.00
94.00	94.00	94.00	94.00	94.00	94.00	94.00	94.00	95.00	96.00	96.00	96.00	97.00	97.00	98.00	98.00	98.00	98.00	98.00	99.00	99.00	99.00	100.00	101.00	100.00	99.00	99.00	103.00	101.00	101.00	103.00	102.00	101.00	101.00	101.00	101.00	102.00	103.00	104.00	105.00	106.00	105.00	104.00	101.00	103.00	102.00	103.00	104.00	105.00	104.00	105.00	103.00	102.00	103.00	104.00	104.00	106.00	108.00	107.00	107.00	106.00	105.00	104.00	105.00	106.00	106.00	107.00	106.00	107.00	106.00	107.00	106.00	107.00	108.00	108.00	108.00	109.00	108.00	108.00	107.00	106.00	106.00	106.00	106.00	105.00	105.00	105.00	106.00	106.00	106.00	107.00	107.00	106.00	107.00	108.00	108.00	108.00	108.00	109.00	108.00	108.00	107.00	109.00	109.00	109.00	109.00	110.00	110.00	111.00	110.00	110.00	110.00	110.00	108.00	109.00	110.00	110.00	109.00	109.00	109.00	110.00	112.00	111.00	113.00	119.00	118.00	118.00	120.00	116.00	112.00	109.00	109.00	110.00	117.00	116.00	115.00	113.00	112.00	112.00	113.00	111.00	112.00	112.00	111.00	112.00	109.00	108.00	112.00	113.00	110.00	109.00	112.00	112.00	114.00	113.00	112.00	114.00	113.00	113.00	112.00	113.00	114.00	113.00	114.00	115.00	114.00	114.00	114.00	115.00	117.00	116.00	116.00	116.00	117.00	117.00	118.00	120.00	121.00	121.00	120.00	120.00	122.00	123.00	125.00	128.00	128.00	130.00	128.00	135.00	140.00	148.00	154.00	166.00	155.00	145.00	142.00	140.00	138.00	140.00	141.00	150.00	147.00	139.00	140.00	140.00	141.00	143.00	144.00	145.00	146.00	148.00	150.00	150.00	151.00	153.00	155.00	158.00	162.00	161.00	161.00	161.00	163.00	166.00	168.00	176.00	170.00	171.00	171.00	190.00	205.00	192.00	193.00	202.00	244.00	260.00	245.00	235.00	209.00	211.00	213.00	211.00	212.00	224.00	222.00	234.00	241.00	229.00	239.00	242.00	261.00	295.00	318.00	335.00	319.00	304.00	316.00
93.00	94.00	94.00	94.00	94.00	94.00	94.00	94.00	95.00	96.00	97.00	96.00	96.00	97.00	98.00	97.00	97.00	98.00	98.00	98.00	99.00	99.00	100.00	100.00	99.00	101.00	101.00	102.00	99.00	103.00	103.00	100.00	100.00	100.00	101.00	103.00	103.00	104.00	105.00	106.00	106.00	104.00	102.00	102.00	102.00	102.00	102.00	103.00	103.00	104.00	106.00	105.00	106.00	104.00	104.00	104.00	107.00	107.00	105.00	105.00	105.00	105.00	106.00	107.00	107.00	107.00	108.00	106.00	106.00	106.00	107.00	107.00	106.00	107.00	108.00	108.00	108.00	108.00	108.00	107.00	107.00	107.00	106.00	106.00	104.00	106.00	106.00	106.00	106.00	107.00	106.00	106.00	106.00	106.00	108.00	108.00	109.00	108.00	110.00	108.00	108.00	109.00	107.00	108.00	108.00	109.00	109.00	109.00	110.00	109.00	107.00	108.00	108.00	108.00	110.00	109.00	108.00	109.00	110.00	109.00	111.00	110.00	110.00	111.00	116.00	115.00	115.00	115.00	112.00	112.00	109.00	110.00	111.00	115.00	115.00	115.00	112.00	112.00	111.00	112.00	111.00	111.00	111.00	109.00	111.00	109.00	108.00	112.00	112.00	108.00	108.00	108.00	114.00	114.00	113.00	113.00	113.00	113.00	114.00	114.00	113.00	114.00	115.00	114.00	114.00	115.00	115.00	115.00	116.00	116.00	116.00	117.00	116.00	117.00	118.00	118.00	120.00	120.00	120.00	120.00	120.00	122.00	124.00	127.00	129.00	130.00	128.00	128.00	136.00	141.00	146.00	151.00	167.00	161.00	147.00	140.00	139.00	138.00	138.00	140.00	150.00	142.00	139.00	139.00	140.00	141.00	143.00	144.00	146.00	147.00	148.00	149.00	150.00	152.00	153.00	157.00	165.00	193.00	159.00	159.00	161.00	162.00	166.00	174.00	189.00	170.00	170.00	172.00	187.00	210.00	196.00	190.00	206.00	248.00	233.00	223.00	224.00	202.00	207.00	208.00	204.00	205.00	216.00	212.00	222.00	228.00	223.00	226.00	232.00	244.00	257.00	287.00	336.00	375.00	359.00	347.00
93.00	94.00	94.00	94.00	94.00	94.00	94.00	94.00	96.00	96.00	96.00	96.00	96.00	97.00	97.00	97.00	97.00	99.00	98.00	99.00	100.00	99.00	98.00	100.00	102.00	100.00	101.00	99.00	102.00	105.00	102.00	100.00	100.00	100.00	100.00	103.00	101.00	103.00	102.00	102.00	106.00	104.00	103.00	102.00	103.00	103.00	103.00	103.00	104.00	105.00	105.00	105.00	103.00	107.00	106.00	106.00	108.00	106.00	104.00	104.00	104.00	105.00	107.00	107.00	107.00	107.00	107.00	107.00	106.00	106.00	106.00	107.00	107.00	108.00	107.00	108.00	108.00	108.00	107.00	107.00	106.00	107.00	106.00	105.00	106.00	106.00	106.00	106.00	107.00	106.00	105.00	107.00	106.00	106.00	107.00	109.00	108.00	108.00	108.00	109.00	109.00	107.00	108.00	109.00	107.00	109.00	109.00	110.00	109.00	108.00	110.00	108.00	108.00	109.00	109.00	108.00	109.00	110.00	110.00	110.00	110.00	109.00	111.00	111.00	115.00	113.00	113.00	114.00	114.00	115.00	111.00	109.00	112.00	112.00	113.00	112.00	111.00	110.00	111.00	111.00	111.00	112.00	110.00	107.00	106.00	107.00	110.00	111.00	106.00	107.00	107.00	109.00	113.00	115.00	114.00	113.00	114.00	115.00	114.00	114.00	114.00	115.00	115.00	114.00	115.00	115.00	116.00	115.00	116.00	115.00	115.00	117.00	116.00	117.00	118.00	119.00	119.00	120.00	120.00	121.00	121.00	125.00	125.00	126.00	126.00	129.00	128.00	131.00	137.00	140.00	145.00	151.00	169.00	163.00	146.00	138.00	137.00	136.00	137.00	138.00	146.00	139.00	138.00	139.00	141.00	141.00	144.00	145.00	146.00	146.00	148.00	150.00	150.00	151.00	156.00	169.00	205.00	209.00	158.00	160.00	161.00	162.00	171.00	183.00	201.00	174.00	171.00	172.00	178.00	195.00	197.00	186.00	207.00	215.00	202.00	202.00	201.00	195.00	196.00	207.00	199.00	200.00	206.00	209.00	212.00	215.00	220.00	225.00	229.00	232.00	251.00	282.00	313.00	353.00	388.00	399.00
93.00	94.00	94.00	94.00	94.00	94.00	94.00	94.00	96.00	96.00	96.00	96.00	96.00	97.00	97.00	97.00	97.00	99.00	98.00	99.00	100.00	99.00	98.00	100.00	102.00	100.00	101.00	99.00	102.00	105.00	102.00	100.00	100.00	100.00	100.00	103.00	101.00	103.00	102.00	102.00	106.00	104.00	103.00	102.00	103.00	103.00	103.00	103.00	104.00	105.00	105.00	105.00	103.00	107.00	106.00	106.00	108.00	106.00	104.00	104.00	104.00	105.00	107.00	107.00	107.00	107.00	107.00	107.00	106.00	106.00	106.00	107.00	107.00	108.00	107.00	108.00	108.00	108.00	107.00	107.00	106.00	107.00	106.00	105.00	106.00	106.00	106.00	106.00	107.00	106.00	105.00	107.00	106.00	106.00	107.00	109.00	108.00	108.00	108.00	109.00	109.00	107.00	108.00	109.00	107.00	109.00	109.00	110.00	109.00	108.00	110.00	108.00	108.00	109.00	109.00	108.00	109.00	110.00	110.00	110.00	110.00	109.00	111.00	111.00	115.00	113.00	113.00	114.00	114.00	115.00	111.00	109.00	112.00	112.00	113.00	112.00	111.00	110.00	111.00	111.00	111.00	112.00	110.00	107.00	106.00	107.00	110.00	111.00	106.00	107.00	107.00	109.00	113.00	115.00	114.00	113.00	114.00	115.00	114.00	114.00	114.00	115.00	115.00	114.00	115.00	115.00	116.00	115.00	116.00	115.00	115.00	117.00	116.00	117.00	118.00	119.00	119.00	120.00	120.00	121.00	121.00	125.00	125.00	126.00	126.00	129.00	128.00	131.00	137.00	140.00	145.00	151.00	169.00	163.00	146.00	138.00	137.00	136.00	137.00	138.00	146.00	139.00	138.00	139.00	141.00	141.00	144.00	145.00	146.00	146.00	148.00	150.00	150.00	151.00	156.00	169.00	205.00	209.00	158.00	160.00	161.00	162.00	171.00	183.00	201.00	174.00	171.00	172.00	178.00	195.00	197.00	186.00	207.00	215.00	202.00	202.00	201.00	195.00	196.00	207.00	199.00	200.00	206.00	209.00	212.00	215.00	220.00	225.00	229.00	232.00	251.00	282.00	313.00	353.00	388.00	399.00
93.00	93.00	94.00	94.00	94.00	95.00	95.00	95.00	95.00	95.00	95.00	96.00	96.00	96.00	96.00	97.00	97.00	97.00	99.00	99.00	99.00	99.00	102.00	102.00	102.00	104.00	102.00	103.00	105.00	101.00	99.00	100.00	100.00	100.00	99.00	104.00	105.00	104.00	104.00	104.00	105.00	104.00	105.00	104.00	106.00	106.00	106.00	104.00	103.00	104.00	103.00	102.00	102.00	103.00	104.00	104.00	103.00	103.00	105.00	105.00	104.00	105.00	106.00	105.00	106.00	107.00	107.00	107.00	106.00	107.00	107.00	106.00	108.00	107.00	107.00	108.00	108.00	108.00	107.00	107.00	107.00	107.00	107.00	108.00	107.00	106.00	107.00	107.00	106.00	106.00	106.00	106.00	106.00	106.00	106.00	109.00	108.00	108.00	108.00	109.00	108.00	107.00	108.00	108.00	105.00	107.00	107.00	109.00	108.00	108.00	108.00	108.00	108.00	109.00	109.00	110.00	112.00	110.00	110.00	111.00	110.00	109.00	108.00	108.00	111.00	114.00	114.00	116.00	116.00	113.00	109.00	110.00	110.00	109.00	113.00	113.00	111.00	110.00	108.00	111.00	112.00	109.00	105.00	107.00	107.00	110.00	109.00	113.00	112.00	111.00	112.00	110.00	114.00	114.00	113.00	113.00	114.00	114.00	116.00	115.00	116.00	117.00	118.00	118.00	118.00	116.00	117.00	117.00	118.00	117.00	118.00	118.00	118.00	119.00	120.00	120.00	121.00	120.00	121.00	121.00	122.00	126.00	127.00	126.00	126.00	126.00	126.00	127.00	134.00	139.00	148.00	154.00	177.00	161.00	142.00	135.00	133.00	134.00	135.00	135.00	143.00	137.00	139.00	140.00	140.00	143.00	142.00	143.00	144.00	145.00	145.00	148.00	151.00	157.00	166.00	208.00	207.00	167.00	158.00	158.00	159.00	166.00	183.00	235.00	205.00	184.00	179.00	176.00	176.00	177.00	181.00	182.00	185.00	184.00	186.00	186.00	189.00	189.00	189.00	194.00	196.00	201.00	206.00	217.00	215.00	216.00	230.00	238.00	250.00	243.00	248.00	277.00	289.00	302.00	321.00	395.00
93.00	93.00	94.00	94.00	95.00	94.00	95.00	95.00	95.00	95.00	96.00	96.00	96.00	96.00	97.00	97.00	97.00	98.00	99.00	101.00	99.00	100.00	103.00	102.00	102.00	104.00	103.00	102.00	101.00	100.00	99.00	99.00	100.00	100.00	99.00	103.00	105.00	104.00	102.00	102.00	105.00	104.00	105.00	103.00	102.00	105.00	105.00	104.00	104.00	104.00	102.00	102.00	102.00	104.00	103.00	104.00	102.00	104.00	104.00	105.00	104.00	105.00	105.00	105.00	105.00	106.00	107.00	107.00	106.00	106.00	107.00	107.00	107.00	107.00	107.00	107.00	107.00	108.00	107.00	106.00	106.00	107.00	107.00	107.00	107.00	108.00	107.00	107.00	106.00	105.00	106.00	105.00	105.00	106.00	106.00	105.00	106.00	106.00	109.00	109.00	108.00	109.00	109.00	108.00	107.00	106.00	107.00	110.00	109.00	109.00	107.00	108.00	108.00	111.00	110.00	111.00	111.00	111.00	109.00	110.00	109.00	109.00	110.00	107.00	112.00	115.00	113.00	116.00	121.00	116.00	108.00	109.00	110.00	109.00	111.00	111.00	111.00	110.00	108.00	108.00	110.00	108.00	102.00	106.00	108.00	109.00	110.00	113.00	111.00	111.00	111.00	111.00	112.00	112.00	113.00	114.00	115.00	118.00	117.00	118.00	119.00	120.00	121.00	120.00	119.00	118.00	117.00	119.00	118.00	117.00	118.00	119.00	119.00	119.00	120.00	119.00	120.00	121.00	121.00	122.00	123.00	125.00	124.00	125.00	127.00	127.00	127.00	129.00	133.00	137.00	144.00	151.00	167.00	149.00	137.00	133.00	131.00	133.00	134.00	135.00	136.00	137.00	139.00	139.00	140.00	142.00	141.00	142.00	143.00	144.00	146.00	147.00	154.00	163.00	175.00	251.00	193.00	165.00	158.00	158.00	161.00	171.00	194.00	257.00	199.00	188.00	180.00	178.00	178.00	178.00	178.00	177.00	179.00	181.00	182.00	181.00	184.00	190.00	193.00	193.00	195.00	198.00	210.00	220.00	232.00	229.00	231.00	248.00	259.00	253.00	253.00	268.00	278.00	290.00	304.00	342.00
93.00	93.00	94.00	94.00	95.00	95.00	95.00	95.00	95.00	96.00	95.00	96.00	96.00	96.00	96.00	96.00	96.00	98.00	99.00	99.00	100.00	100.00	98.00	99.00	102.00	101.00	100.00	99.00	98.00	98.00	99.00	99.00	99.00	101.00	102.00	102.00	104.00	103.00	101.00	102.00	102.00	103.00	105.00	103.00	103.00	105.00	106.00	105.00	105.00	107.00	103.00	103.00	102.00	103.00	103.00	103.00	104.00	103.00	104.00	104.00	104.00	104.00	105.00	105.00	105.00	106.00	106.00	107.00	106.00	107.00	106.00	107.00	107.00	107.00	107.00	108.00	108.00	107.00	107.00	107.00	106.00	106.00	108.00	108.00	108.00	106.00	107.00	106.00	106.00	106.00	106.00	106.00	106.00	105.00	105.00	106.00	106.00	107.00	108.00	108.00	108.00	109.00	108.00	108.00	109.00	107.00	107.00	110.00	109.00	109.00	109.00	108.00	110.00	111.00	112.00	111.00	109.00	108.00	108.00	111.00	109.00	109.00	112.00	115.00	115.00	112.00	114.00	115.00	116.00	111.00	107.00	110.00	110.00	110.00	111.00	110.00	110.00	109.00	107.00	103.00	104.00	104.00	102.00	105.00	109.00	109.00	109.00	110.00	110.00	112.00	111.00	112.00	111.00	112.00	113.00	113.00	118.00	122.00	120.00	121.00	125.00	122.00	123.00	122.00	121.00	119.00	119.00	119.00	120.00	118.00	119.00	120.00	120.00	119.00	120.00	120.00	120.00	120.00	121.00	122.00	123.00	124.00	124.00	125.00	126.00	126.00	126.00	128.00	132.00	134.00	137.00	144.00	149.00	141.00	134.00	132.00	132.00	133.00	135.00	135.00	136.00	136.00	138.00	141.00	140.00	140.00	140.00	141.00	145.00	145.00	145.00	149.00	156.00	170.00	199.00	269.00	182.00	161.00	157.00	159.00	165.00	177.00	228.00	248.00	203.00	186.00	180.00	181.00	183.00	181.00	180.00	181.00	180.00	190.00	182.00	181.00	183.00	187.00	189.00	196.00	197.00	196.00	210.00	216.00	233.00	237.00	232.00	246.00	270.00	262.00	270.00	263.00	278.00	289.00	302.00	339.00
94.00	93.00	94.00	94.00	94.00	94.00	95.00	95.00	95.00	95.00	95.00	95.00	95.00	95.00	96.00	96.00	96.00	97.00	99.00	97.00	98.00	97.00	98.00	98.00	98.00	99.00	98.00	98.00	98.00	99.00	99.00	101.00	101.00	103.00	103.00	102.00	101.00	101.00	101.00	101.00	102.00	103.00	106.00	103.00	105.00	103.00	104.00	105.00	106.00	107.00	107.00	105.00	103.00	103.00	104.00	104.00	105.00	105.00	104.00	104.00	104.00	104.00	104.00	105.00	105.00	105.00	106.00	107.00	107.00	106.00	107.00	108.00	107.00	107.00	107.00	108.00	107.00	107.00	106.00	106.00	107.00	107.00	107.00	108.00	108.00	106.00	108.00	106.00	106.00	106.00	105.00	106.00	106.00	106.00	107.00	106.00	107.00	108.00	107.00	108.00	109.00	109.00	106.00	105.00	107.00	106.00	108.00	108.00	108.00	108.00	108.00	108.00	109.00	111.00	110.00	111.00	109.00	109.00	108.00	110.00	111.00	112.00	113.00	115.00	116.00	114.00	112.00	112.00	109.00	107.00	108.00	111.00	112.00	111.00	110.00	110.00	110.00	108.00	105.00	103.00	104.00	108.00	105.00	107.00	111.00	108.00	109.00	110.00	112.00	112.00	112.00	112.00	112.00	111.00	113.00	115.00	121.00	124.00	125.00	127.00	128.00	125.00	123.00	123.00	122.00	121.00	121.00	121.00	120.00	121.00	120.00	121.00	121.00	119.00	121.00	121.00	121.00	121.00	122.00	122.00	123.00	124.00	124.00	125.00	126.00	126.00	126.00	128.00	131.00	133.00	134.00	136.00	136.00	131.00	130.00	132.00	133.00	133.00	134.00	134.00	135.00	135.00	138.00	138.00	139.00	139.00	140.00	141.00	144.00	142.00	147.00	154.00	163.00	175.00	237.00	249.00	184.00	163.00	158.00	162.00	171.00	186.00	256.00	220.00	204.00	183.00	181.00	189.00	188.00	187.00	188.00	189.00	192.00	209.00	189.00	182.00	183.00	185.00	188.00	198.00	198.00	198.00	215.00	222.00	230.00	245.00	237.00	244.00	265.00	286.00	286.00	266.00	269.00	283.00	300.00	323.00
93.00	93.00	94.00	94.00	94.00	95.00	95.00	95.00	96.00	96.00	96.00	96.00	97.00	97.00	97.00	96.00	98.00	98.00	99.00	97.00	97.00	96.00	97.00	97.00	97.00	97.00	100.00	99.00	99.00	98.00	99.00	101.00	101.00	100.00	100.00	100.00	101.00	101.00	101.00	100.00	102.00	102.00	101.00	102.00	102.00	102.00	101.00	102.00	106.00	109.00	103.00	103.00	103.00	103.00	103.00	103.00	104.00	104.00	103.00	103.00	104.00	104.00	104.00	104.00	104.00	104.00	105.00	105.00	106.00	106.00	107.00	107.00	107.00	107.00	107.00	107.00	107.00	107.00	107.00	108.00	108.00	108.00	108.00	109.00	108.00	108.00	107.00	107.00	106.00	106.00	106.00	106.00	106.00	105.00	108.00	109.00	107.00	106.00	105.00	105.00	106.00	107.00	106.00	107.00	107.00	107.00	108.00	110.00	107.00	108.00	108.00	109.00	115.00	111.00	109.00	109.00	108.00	108.00	108.00	110.00	109.00	107.00	106.00	108.00	107.00	107.00	107.00	109.00	109.00	108.00	111.00	112.00	111.00	110.00	109.00	110.00	109.00	110.00	110.00	106.00	109.00	109.00	109.00	108.00	109.00	109.00	108.00	109.00	110.00	110.00	111.00	112.00	113.00	113.00	113.00	114.00	122.00	125.00	131.00	132.00	131.00	133.00	130.00	126.00	123.00	123.00	124.00	126.00	126.00	126.00	126.00	126.00	125.00	124.00	122.00	123.00	125.00	124.00	124.00	124.00	125.00	125.00	126.00	127.00	128.00	129.00	129.00	131.00	131.00	131.00	132.00	132.00	129.00	131.00	131.00	131.00	131.00	134.00	133.00	134.00	134.00	134.00	136.00	136.00	137.00	137.00	139.00	138.00	141.00	142.00	149.00	160.00	194.00	239.00	262.00	199.00	171.00	161.00	159.00	174.00	185.00	242.00	245.00	222.00	195.00	188.00	193.00	208.00	206.00	208.00	201.00	202.00	216.00	226.00	202.00	191.00	187.00	185.00	189.00	194.00	198.00	201.00	215.00	227.00	228.00	231.00	250.00	249.00	250.00	269.00	341.00	330.00	313.00	283.00	283.00	299.00
93.00	94.00	97.00	98.00	94.00	95.00	95.00	95.00	96.00	96.00	95.00	96.00	95.00	96.00	96.00	96.00	97.00	99.00	97.00	97.00	97.00	97.00	98.00	99.00	100.00	99.00	98.00	98.00	98.00	98.00	99.00	99.00	100.00	101.00	100.00	100.00	101.00	100.00	102.00	102.00	103.00	101.00	101.00	102.00	102.00	101.00	102.00	102.00	105.00	105.00	103.00	102.00	104.00	103.00	103.00	104.00	103.00	103.00	103.00	103.00	103.00	103.00	104.00	104.00	104.00	104.00	104.00	105.00	106.00	106.00	106.00	106.00	107.00	107.00	106.00	107.00	106.00	106.00	107.00	107.00	107.00	107.00	108.00	109.00	109.00	108.00	106.00	107.00	107.00	106.00	106.00	106.00	105.00	105.00	106.00	107.00	105.00	107.00	106.00	105.00	106.00	106.00	107.00	107.00	106.00	106.00	107.00	108.00	108.00	109.00	109.00	108.00	111.00	109.00	108.00	107.00	110.00	111.00	110.00	109.00	108.00	107.00	106.00	106.00	108.00	105.00	105.00	104.00	106.00	106.00	110.00	109.00	110.00	110.00	108.00	110.00	110.00	110.00	110.00	106.00	106.00	108.00	110.00	107.00	106.00	107.00	107.00	109.00	110.00	111.00	111.00	112.00	112.00	114.00	114.00	116.00	124.00	126.00	128.00	129.00	130.00	131.00	132.00	130.00	126.00	123.00	126.00	127.00	128.00	128.00	128.00	126.00	126.00	125.00	124.00	124.00	129.00	126.00	126.00	127.00	127.00	127.00	127.00	129.00	130.00	130.00	131.00	133.00	132.00	132.00	134.00	133.00	129.00	130.00	128.00	129.00	130.00	136.00	134.00	133.00	133.00	134.00	135.00	135.00	136.00	136.00	138.00	137.00	139.00	143.00	152.00	163.00	189.00	276.00	276.00	184.00	168.00	162.00	162.00	180.00	196.00	276.00	243.00	237.00	194.00	194.00	205.00	210.00	221.00	226.00	210.00	210.00	232.00	227.00	207.00	197.00	192.00	187.00	188.00	196.00	198.00	201.00	212.00	218.00	217.00	221.00	241.00	239.00	252.00	270.00	317.00	303.00	310.00	314.00	305.00	296.00
93.00	94.00	97.00	98.00	94.00	95.00	95.00	95.00	96.00	96.00	95.00	96.00	95.00	96.00	96.00	96.00	97.00	99.00	97.00	97.00	97.00	97.00	98.00	99.00	100.00	99.00	98.00	98.00	98.00	98.00	99.00	99.00	100.00	101.00	100.00	100.00	101.00	100.00	102.00	102.00	103.00	101.00	101.00	102.00	102.00	101.00	102.00	102.00	105.00	105.00	103.00	102.00	104.00	103.00	103.00	104.00	103.00	103.00	103.00	103.00	103.00	103.00	104.00	104.00	104.00	104.00	104.00	105.00	106.00	106.00	106.00	106.00	107.00	107.00	106.00	107.00	106.00	106.00	107.00	107.00	107.00	107.00	108.00	109.00	109.00	108.00	106.00	107.00	107.00	106.00	106.00	106.00	105.00	105.00	106.00	107.00	105.00	107.00	106.00	105.00	106.00	106.00	107.00	107.00	106.00	106.00	107.00	108.00	108.00	109.00	109.00	108.00	111.00	109.00	108.00	107.00	110.00	111.00	110.00	109.00	108.00	107.00	106.00	106.00	108.00	105.00	105.00	104.00	106.00	106.00	110.00	109.00	110.00	110.00	108.00	110.00	110.00	110.00	110.00	106.00	106.00	108.00	110.00	107.00	106.00	107.00	107.00	109.00	110.00	111.00	111.00	112.00	112.00	114.00	114.00	116.00	124.00	126.00	128.00	129.00	130.00	131.00	132.00	130.00	126.00	123.00	126.00	127.00	128.00	128.00	128.00	126.00	126.00	125.00	124.00	124.00	129.00	126.00	126.00	127.00	127.00	127.00	127.00	129.00	130.00	130.00	131.00	133.00	132.00	132.00	134.00	133.00	129.00	130.00	128.00	129.00	130.00	136.00	134.00	133.00	133.00	134.00	135.00	135.00	136.00	136.00	138.00	137.00	139.00	143.00	152.00	163.00	189.00	276.00	276.00	184.00	168.00	162.00	162.00	180.00	196.00	276.00	243.00	237.00	194.00	194.00	205.00	210.00	221.00	226.00	210.00	210.00	232.00	227.00	207.00	197.00	192.00	187.00	188.00	196.00	198.00	201.00	212.00	218.00	217.00	221.00	241.00	239.00	252.00	270.00	317.00	303.00	310.00	314.00	305.00	296.00
94.00	94.00	98.00	97.00	94.00	94.00	94.00	95.00	95.00	95.00	95.00	95.00	95.00	96.00	95.00	95.00	96.00	98.00	99.00	96.00	96.00	96.00	98.00	96.00	98.00	98.00	97.00	97.00	97.00	98.00	101.00	99.00	99.00	100.00	100.00	100.00	100.00	100.00	100.00	101.00	104.00	104.00	104.00	102.00	101.00	101.00	101.00	103.00	107.00	104.00	103.00	103.00	102.00	104.00	103.00	104.00	103.00	103.00	102.00	103.00	104.00	103.00	103.00	104.00	104.00	104.00	105.00	104.00	106.00	105.00	106.00	106.00	106.00	106.00	106.00	105.00	107.00	106.00	108.00	107.00	107.00	107.00	107.00	109.00	108.00	107.00	107.00	106.00	107.00	106.00	107.00	105.00	106.00	105.00	106.00	105.00	106.00	105.00	105.00	104.00	105.00	108.00	105.00	106.00	106.00	107.00	107.00	107.00	108.00	109.00	108.00	109.00	109.00	108.00	107.00	108.00	112.00	115.00	111.00	109.00	108.00	106.00	104.00	103.00	106.00	105.00	105.00	105.00	105.00	108.00	108.00	108.00	108.00	109.00	107.00	108.00	113.00	110.00	107.00	106.00	109.00	108.00	108.00	107.00	107.00	108.00	107.00	108.00	110.00	111.00	113.00	113.00	113.00	114.00	115.00	116.00	121.00	122.00	124.00	126.00	128.00	131.00	130.00	130.00	126.00	124.00	128.00	130.00	131.00	133.00	128.00	126.00	126.00	125.00	126.00	128.00	131.00	129.00	128.00	129.00	129.00	128.00	129.00	131.00	132.00	132.00	133.00	134.00	135.00	136.00	134.00	134.00	130.00	129.00	130.00	131.00	130.00	136.00	135.00	133.00	132.00	133.00	135.00	135.00	136.00	136.00	136.00	137.00	142.00	145.00	155.00	162.00	182.00	225.00	245.00	179.00	167.00	164.00	167.00	187.00	214.00	284.00	244.00	239.00	198.00	202.00	214.00	212.00	236.00	239.00	220.00	217.00	249.00	231.00	211.00	201.00	196.00	189.00	190.00	195.00	197.00	201.00	209.00	212.00	214.00	218.00	230.00	232.00	246.00	246.00	289.00	282.00	286.00	313.00	348.00	316.00
94.00	97.00	95.00	94.00	94.00	94.00	95.00	95.00	95.00	95.00	95.00	94.00	94.00	96.00	97.00	97.00	97.00	97.00	96.00	96.00	97.00	97.00	96.00	96.00	96.00	96.00	97.00	97.00	97.00	98.00	100.00	99.00	99.00	100.00	99.00	100.00	100.00	102.00	102.00	101.00	100.00	101.00	101.00	101.00	101.00	101.00	101.00	105.00	106.00	105.00	103.00	103.00	102.00	103.00	102.00	103.00	103.00	102.00	102.00	102.00	102.00	103.00	104.00	103.00	103.00	104.00	104.00	105.00	105.00	105.00	105.00	105.00	106.00	106.00	105.00	106.00	106.00	106.00	107.00	107.00	107.00	107.00	107.00	107.00	108.00	107.00	107.00	106.00	107.00	107.00	107.00	106.00	106.00	108.00	106.00	106.00	106.00	103.00	106.00	105.00	104.00	105.00	104.00	106.00	106.00	106.00	107.00	107.00	107.00	106.00	108.00	109.00	107.00	107.00	106.00	109.00	108.00	109.00	108.00	107.00	108.00	103.00	104.00	106.00	105.00	101.00	102.00	106.00	105.00	103.00	104.00	106.00	105.00	105.00	105.00	107.00	106.00	108.00	107.00	108.00	107.00	106.00	106.00	109.00	107.00	107.00	107.00	107.00	111.00	112.00	116.00	118.00	120.00	118.00	116.00	116.00	122.00	125.00	126.00	127.00	130.00	131.00	127.00	126.00	124.00	125.00	132.00	136.00	137.00	135.00	133.00	131.00	127.00	126.00	128.00	130.00	133.00	131.00	129.00	131.00	131.00	131.00	133.00	135.00	137.00	138.00	138.00	138.00	139.00	139.00	138.00	137.00	134.00	130.00	128.00	131.00	129.00	133.00	133.00	132.00	131.00	134.00	133.00	134.00	137.00	137.00	136.00	135.00	141.00	145.00	158.00	166.00	181.00	205.00	223.00	177.00	171.00	169.00	175.00	206.00	237.00	283.00	266.00	219.00	210.00	215.00	218.00	218.00	246.00	262.00	234.00	233.00	273.00	229.00	222.00	213.00	205.00	197.00	195.00	196.00	198.00	200.00	222.00	228.00	223.00	224.00	223.00	223.00	231.00	239.00	262.00	273.00	299.00	320.00	340.00	349.00
95.00	95.00	93.00	94.00	94.00	94.00	95.00	95.00	94.00	95.00	96.00	95.00	95.00	97.00	96.00	96.00	97.00	98.00	98.00	96.00	96.00	95.00	96.00	96.00	96.00	97.00	96.00	97.00	98.00	98.00	98.00	99.00	99.00	99.00	99.00	99.00	102.00	100.00	101.00	100.00	100.00	100.00	100.00	100.00	101.00	101.00	103.00	104.00	106.00	102.00	102.00	102.00	103.00	102.00	103.00	102.00	102.00	103.00	102.00	103.00	103.00	103.00	102.00	103.00	103.00	104.00	104.00	105.00	105.00	105.00	105.00	105.00	105.00	105.00	106.00	105.00	106.00	106.00	106.00	106.00	107.00	107.00	107.00	107.00	107.00	107.00	107.00	107.00	107.00	107.00	107.00	106.00	107.00	108.00	106.00	105.00	105.00	104.00	104.00	104.00	105.00	105.00	105.00	105.00	106.00	105.00	107.00	108.00	107.00	107.00	111.00	109.00	109.00	107.00	109.00	113.00	107.00	106.00	106.00	109.00	107.00	103.00	103.00	108.00	104.00	100.00	102.00	104.00	102.00	104.00	104.00	106.00	105.00	105.00	106.00	106.00	106.00	108.00	107.00	106.00	107.00	105.00	104.00	107.00	106.00	107.00	107.00	109.00	110.00	113.00	118.00	116.00	120.00	119.00	118.00	119.00	126.00	127.00	129.00	129.00	131.00	132.00	131.00	126.00	124.00	124.00	128.00	130.00	131.00	131.00	131.00	130.00	128.00	126.00	129.00	131.00	131.00	130.00	129.00	132.00	132.00	132.00	133.00	139.00	142.00	143.00	142.00	140.00	141.00	142.00	140.00	139.00	137.00	134.00	131.00	131.00	129.00	133.00	134.00	132.00	131.00	133.00	133.00	132.00	135.00	135.00	135.00	135.00	142.00	148.00	159.00	169.00	182.00	225.00	208.00	170.00	169.00	172.00	176.00	222.00	279.00	298.00	232.00	210.00	224.00	226.00	225.00	231.00	241.00	260.00	245.00	247.00	290.00	238.00	233.00	219.00	210.00	207.00	204.00	204.00	206.00	209.00	227.00	238.00	229.00	235.00	233.00	233.00	229.00	237.00	250.00	274.00	298.00	329.00	335.00	335.00
94.00	94.00	94.00	94.00	94.00	95.00	94.00	94.00	95.00	95.00	96.00	97.00	97.00	97.00	96.00	97.00	96.00	98.00	96.00	95.00	96.00	95.00	96.00	96.00	96.00	96.00	96.00	97.00	97.00	98.00	98.00	99.00	99.00	99.00	99.00	101.00	99.00	100.00	101.00	101.00	100.00	100.00	100.00	100.00	102.00	103.00	102.00	104.00	104.00	102.00	102.00	102.00	102.00	102.00	102.00	103.00	103.00	103.00	101.00	101.00	103.00	103.00	100.00	102.00	103.00	104.00	104.00	105.00	104.00	104.00	105.00	104.00	105.00	104.00	105.00	106.00	106.00	106.00	106.00	107.00	106.00	107.00	107.00	107.00	107.00	106.00	107.00	106.00	106.00	107.00	106.00	107.00	106.00	106.00	105.00	105.00	106.00	105.00	106.00	106.00	105.00	105.00	105.00	105.00	107.00	105.00	105.00	107.00	107.00	107.00	109.00	109.00	109.00	108.00	111.00	114.00	105.00	105.00	105.00	106.00	106.00	105.00	104.00	105.00	103.00	104.00	101.00	102.00	104.00	103.00	106.00	106.00	106.00	108.00	106.00	105.00	105.00	106.00	108.00	106.00	106.00	106.00	105.00	105.00	107.00	107.00	108.00	110.00	114.00	116.00	116.00	114.00	119.00	120.00	121.00	121.00	125.00	124.00	127.00	125.00	125.00	126.00	126.00	126.00	124.00	124.00	126.00	128.00	131.00	134.00	130.00	129.00	128.00	127.00	129.00	131.00	131.00	129.00	130.00	136.00	134.00	134.00	134.00	141.00	145.00	147.00	146.00	143.00	143.00	144.00	143.00	143.00	139.00	137.00	135.00	133.00	132.00	135.00	137.00	136.00	131.00	133.00	132.00	130.00	134.00	134.00	135.00	135.00	143.00	148.00	163.00	172.00	187.00	216.00	184.00	167.00	169.00	175.00	180.00	250.00	317.00	248.00	208.00	202.00	230.00	238.00	239.00	238.00	244.00	272.00	255.00	279.00	314.00	252.00	245.00	225.00	217.00	211.00	208.00	209.00	212.00	213.00	227.00	241.00	241.00	238.00	248.00	239.00	236.00	237.00	247.00	288.00	306.00	328.00	327.00	311.00
93.00	94.00	93.00	94.00	94.00	94.00	94.00	94.00	95.00	95.00	95.00	96.00	96.00	97.00	96.00	96.00	96.00	97.00	96.00	95.00	96.00	97.00	95.00	95.00	96.00	95.00	97.00	97.00	97.00	98.00	99.00	99.00	98.00	98.00	101.00	100.00	100.00	100.00	100.00	100.00	101.00	101.00	100.00	100.00	102.00	101.00	101.00	103.00	104.00	101.00	102.00	102.00	102.00	102.00	102.00	102.00	102.00	103.00	102.00	102.00	103.00	103.00	104.00	102.00	104.00	104.00	104.00	105.00	103.00	103.00	104.00	103.00	104.00	104.00	105.00	105.00	106.00	107.00	106.00	106.00	105.00	107.00	107.00	107.00	106.00	106.00	106.00	107.00	106.00	107.00	106.00	106.00	106.00	106.00	106.00	105.00	106.00	106.00	107.00	106.00	106.00	105.00	106.00	106.00	107.00	107.00	105.00	106.00	107.00	106.00	109.00	108.00	108.00	108.00	109.00	110.00	105.00	104.00	104.00	107.00	107.00	105.00	104.00	105.00	104.00	101.00	101.00	102.00	107.00	104.00	108.00	107.00	106.00	107.00	108.00	106.00	107.00	106.00	108.00	106.00	106.00	106.00	105.00	106.00	108.00	109.00	109.00	110.00	113.00	114.00	112.00	114.00	121.00	123.00	123.00	122.00	122.00	123.00	123.00	123.00	125.00	126.00	126.00	125.00	126.00	125.00	127.00	129.00	134.00	136.00	135.00	132.00	131.00	130.00	131.00	131.00	133.00	132.00	134.00	138.00	136.00	136.00	135.00	143.00	146.00	151.00	149.00	146.00	146.00	145.00	146.00	146.00	142.00	141.00	138.00	136.00	134.00	138.00	144.00	141.00	134.00	133.00	132.00	133.00	134.00	134.00	134.00	137.00	143.00	151.00	168.00	192.00	211.00	192.00	172.00	163.00	167.00	174.00	183.00	271.00	261.00	209.00	199.00	204.00	247.00	251.00	256.00	244.00	243.00	255.00	267.00	310.00	339.00	267.00	254.00	233.00	224.00	216.00	211.00	212.00	216.00	214.00	222.00	236.00	252.00	240.00	260.00	244.00	247.00	242.00	254.00	276.00	298.00	319.00	310.00	300.00
94.00	94.00	94.00	94.00	94.00	94.00	94.00	94.00	94.00	95.00	94.00	95.00	94.00	95.00	95.00	95.00	95.00	95.00	97.00	96.00	95.00	95.00	97.00	95.00	95.00	96.00	96.00	97.00	97.00	97.00	98.00	98.00	99.00	100.00	99.00	99.00	99.00	99.00	99.00	100.00	102.00	103.00	103.00	102.00	105.00	104.00	101.00	101.00	101.00	101.00	101.00	101.00	101.00	102.00	102.00	102.00	102.00	103.00	102.00	101.00	101.00	103.00	103.00	103.00	104.00	103.00	102.00	103.00	103.00	103.00	104.00	104.00	104.00	104.00	104.00	105.00	105.00	106.00	105.00	106.00	107.00	106.00	107.00	107.00	106.00	107.00	107.00	107.00	106.00	107.00	108.00	107.00	107.00	106.00	106.00	106.00	105.00	106.00	105.00	105.00	106.00	106.00	105.00	107.00	106.00	105.00	104.00	106.00	107.00	106.00	109.00	108.00	108.00	106.00	106.00	105.00	104.00	103.00	106.00	104.00	106.00	105.00	104.00	103.00	104.00	103.00	103.00	104.00	104.00	106.00	107.00	106.00	107.00	107.00	105.00	106.00	105.00	104.00	104.00	107.00	108.00	106.00	106.00	109.00	107.00	107.00	109.00	110.00	110.00	112.00	113.00	114.00	118.00	119.00	121.00	122.00	117.00	118.00	119.00	121.00	123.00	126.00	126.00	125.00	124.00	126.00	127.00	128.00	129.00	130.00	132.00	133.00	135.00	138.00	140.00	137.00	134.00	133.00	135.00	136.00	137.00	138.00	141.00	145.00	149.00	153.00	152.00	154.00	151.00	151.00	151.00	151.00	151.00	152.00	155.00	148.00	141.00	143.00	153.00	150.00	140.00	133.00	136.00	134.00	135.00	135.00	136.00	139.00	146.00	153.00	178.00	196.00	171.00	159.00	157.00	161.00	168.00	174.00	184.00	196.00	191.00	193.00	201.00	215.00	274.00	292.00	281.00	262.00	272.00	262.00	300.00	353.00	325.00	292.00	259.00	240.00	235.00	229.00	223.00	218.00	220.00	225.00	232.00	239.00	260.00	258.00	275.00	275.00	266.00	267.00	255.00	292.00	297.00	281.00	279.00	301.00
94.00	94.00	94.00	94.00	94.00	94.00	94.00	94.00	94.00	94.00	94.00	94.00	94.00	94.00	94.00	95.00	95.00	95.00	97.00	95.00	95.00	95.00	98.00	95.00	96.00	96.00	96.00	97.00	97.00	98.00	98.00	97.00	99.00	99.00	98.00	99.00	99.00	99.00	99.00	100.00	101.00	102.00	102.00	104.00	102.00	102.00	101.00	101.00	101.00	101.00	101.00	101.00	101.00	101.00	101.00	102.00	102.00	102.00	101.00	101.00	101.00	103.00	103.00	103.00	104.00	103.00	103.00	104.00	104.00	103.00	104.00	105.00	104.00	104.00	104.00	105.00	105.00	105.00	106.00	105.00	106.00	106.00	106.00	107.00	106.00	107.00	106.00	107.00	106.00	107.00	106.00	107.00	106.00	107.00	107.00	106.00	106.00	108.00	106.00	107.00	106.00	105.00	106.00	107.00	106.00	104.00	105.00	104.00	106.00	108.00	111.00	110.00	108.00	106.00	104.00	104.00	103.00	102.00	103.00	103.00	106.00	103.00	105.00	103.00	104.00	105.00	105.00	105.00	104.00	104.00	108.00	106.00	107.00	105.00	108.00	104.00	103.00	103.00	102.00	108.00	107.00	106.00	106.00	112.00	108.00	110.00	106.00	109.00	108.00	111.00	111.00	114.00	119.00	120.00	117.00	119.00	116.00	119.00	123.00	126.00	127.00	123.00	123.00	122.00	122.00	123.00	125.00	124.00	127.00	127.00	129.00	133.00	136.00	139.00	140.00	136.00	133.00	134.00	135.00	137.00	139.00	142.00	143.00	146.00	154.00	156.00	155.00	158.00	155.00	153.00	153.00	153.00	158.00	160.00	161.00	159.00	146.00	144.00	154.00	153.00	143.00	134.00	135.00	135.00	135.00	136.00	137.00	138.00	145.00	153.00	177.00	177.00	160.00	157.00	156.00	162.00	169.00	177.00	181.00	186.00	191.00	198.00	207.00	221.00	318.00	311.00	280.00	271.00	283.00	299.00	338.00	346.00	317.00	289.00	262.00	247.00	246.00	233.00	229.00	221.00	224.00	233.00	243.00	241.00	259.00	267.00	277.00	289.00	293.00	283.00	270.00	280.00	278.00	273.00	279.00	304.00
94.00	94.00	94.00	94.00	94.00	94.00	94.00	94.00	94.00	94.00	94.00	94.00	94.00	94.00	94.00	95.00	95.00	95.00	97.00	95.00	95.00	95.00	98.00	95.00	96.00	96.00	96.00	97.00	97.00	98.00	98.00	97.00	99.00	99.00	98.00	99.00	99.00	99.00	99.00	100.00	101.00	102.00	102.00	104.00	102.00	102.00	101.00	101.00	101.00	101.00	101.00	101.00	101.00	101.00	101.00	102.00	102.00	102.00	101.00	101.00	101.00	103.00	103.00	103.00	104.00	103.00	103.00	104.00	104.00	103.00	104.00	105.00	104.00	104.00	104.00	105.00	105.00	105.00	106.00	105.00	106.00	106.00	106.00	107.00	106.00	107.00	106.00	107.00	106.00	107.00	106.00	107.00	106.00	107.00	107.00	106.00	106.00	108.00	106.00	107.00	106.00	105.00	106.00	107.00	106.00	104.00	105.00	104.00	106.00	108.00	111.00	110.00	108.00	106.00	104.00	104.00	103.00	102.00	103.00	103.00	106.00	103.00	105.00	103.00	104.00	105.00	105.00	105.00	104.00	104.00	108.00	106.00	107.00	105.00	108.00	104.00	103.00	103.00	102.00	108.00	107.00	106.00	106.00	112.00	108.00	110.00	106.00	109.00	108.00	111.00	111.00	114.00	119.00	120.00	117.00	119.00	116.00	119.00	123.00	126.00	127.00	123.00	123.00	122.00	122.00	123.00	125.00	124.00	127.00	127.00	129.00	133.00	136.00	139.00	140.00	136.00	133.00	134.00	135.00	137.00	139.00	142.00	143.00	146.00	154.00	156.00	155.00	158.00	155.00	153.00	153.00	153.00	158.00	160.00	161.00	159.00	146.00	144.00	154.00	153.00	143.00	134.00	135.00	135.00	135.00	136.00	137.00	138.00	145.00	153.00	177.00	177.00	160.00	157.00	156.00	162.00	169.00	177.00	181.00	186.00	191.00	198.00	207.00	221.00	318.00	311.00	280.00	271.00	283.00	299.00	338.00	346.00	317.00	289.00	262.00	247.00	246.00	233.00	229.00	221.00	224.00	233.00	243.00	241.00	259.00	267.00	277.00	289.00	293.00	283.00	270.00	280.00	278.00	273.00	279.00	304.00
94.00	95.00	94.00	94.00	94.00	94.00	94.00	93.00	94.00	94.00	94.00	94.00	94.00	94.00	94.00	95.00	95.00	96.00	97.00	95.00	95.00	96.00	95.00	96.00	96.00	95.00	97.00	97.00	97.00	98.00	98.00	98.00	98.00	98.00	98.00	98.00	98.00	98.00	99.00	99.00	101.00	100.00	100.00	101.00	101.00	101.00	101.00	101.00	101.00	100.00	100.00	100.00	101.00	100.00	101.00	102.00	102.00	101.00	102.00	102.00	101.00	102.00	103.00	103.00	104.00	104.00	104.00	104.00	104.00	105.00	104.00	104.00	105.00	105.00	104.00	105.00	105.00	105.00	105.00	104.00	105.00	106.00	106.00	106.00	106.00	106.00	106.00	107.00	106.00	106.00	106.00	106.00	106.00	107.00	106.00	107.00	106.00	107.00	106.00	106.00	104.00	105.00	106.00	106.00	105.00	104.00	105.00	106.00	107.00	110.00	111.00	110.00	107.00	105.00	104.00	103.00	103.00	103.00	104.00	103.00	105.00	104.00	104.00	104.00	102.00	105.00	104.00	105.00	105.00	106.00	108.00	105.00	108.00	103.00	105.00	102.00	101.00	99.00	101.00	105.00	107.00	106.00	107.00	109.00	110.00	105.00	103.00	105.00	106.00	107.00	110.00	116.00	118.00	118.00	116.00	115.00	115.00	118.00	122.00	122.00	122.00	120.00	119.00	118.00	119.00	121.00	121.00	122.00	123.00	125.00	128.00	134.00	138.00	142.00	139.00	136.00	134.00	135.00	135.00	137.00	140.00	143.00	145.00	150.00	156.00	155.00	157.00	161.00	159.00	158.00	155.00	156.00	170.00	174.00	173.00	166.00	148.00	146.00	160.00	155.00	141.00	134.00	136.00	136.00	137.00	138.00	138.00	139.00	143.00	152.00	182.00	163.00	154.00	153.00	155.00	164.00	173.00	185.00	180.00	187.00	197.00	210.00	225.00	256.00	349.00	301.00	283.00	294.00	357.00	336.00	316.00	310.00	301.00	299.00	284.00	257.00	249.00	240.00	237.00	225.00	228.00	238.00	262.00	255.00	260.00	277.00	296.00	301.00	315.00	306.00	300.00	281.00	268.00	271.00	287.00	292.00
94.00	94.00	94.00	94.00	94.00	93.00	93.00	93.00	94.00	94.00	94.00	94.00	94.00	94.00	94.00	95.00	95.00	96.00	97.00	96.00	97.00	97.00	95.00	96.00	96.00	96.00	96.00	96.00	97.00	96.00	97.00	97.00	98.00	97.00	97.00	98.00	98.00	98.00	99.00	99.00	101.00	100.00	100.00	100.00	100.00	100.00	100.00	100.00	100.00	100.00	101.00	101.00	101.00	100.00	101.00	101.00	102.00	102.00	102.00	102.00	102.00	103.00	103.00	103.00	103.00	104.00	104.00	104.00	104.00	104.00	104.00	105.00	104.00	104.00	104.00	104.00	104.00	104.00	104.00	105.00	105.00	106.00	106.00	106.00	105.00	106.00	106.00	105.00	106.00	106.00	106.00	106.00	107.00	105.00	106.00	106.00	106.00	106.00	106.00	106.00	105.00	105.00	105.00	106.00	104.00	105.00	105.00	107.00	107.00	108.00	110.00	107.00	105.00	104.00	106.00	104.00	102.00	103.00	105.00	105.00	103.00	105.00	103.00	104.00	104.00	104.00	104.00	106.00	106.00	107.00	106.00	103.00	102.00	103.00	103.00	103.00	103.00	103.00	103.00	107.00	106.00	106.00	108.00	112.00	111.00	98.00	101.00	107.00	104.00	105.00	109.00	113.00	109.00	110.00	112.00	112.00	109.00	111.00	114.00	117.00	118.00	116.00	115.00	114.00	115.00	116.00	119.00	119.00	121.00	121.00	130.00	133.00	135.00	135.00	136.00	134.00	134.00	135.00	137.00	143.00	144.00	145.00	145.00	148.00	155.00	158.00	159.00	161.00	155.00	152.00	151.00	152.00	161.00	165.00	160.00	148.00	143.00	152.00	159.00	146.00	137.00	135.00	136.00	137.00	138.00	139.00	140.00	142.00	143.00	146.00	152.00	150.00	153.00	156.00	159.00	165.00	168.00	172.00	174.00	203.00	225.00	264.00	370.00	375.00	318.00	340.00	345.00	377.00	303.00	283.00	271.00	273.00	274.00	291.00	290.00	280.00	275.00	264.00	256.00	240.00	237.00	250.00	291.00	290.00	280.00	275.00	303.00	321.00	340.00	363.00	318.00	272.00	261.00	256.00	263.00	265.00
94.00	94.00	94.00	94.00	93.00	93.00	94.00	94.00	94.00	93.00	94.00	94.00	94.00	93.00	94.00	95.00	96.00	96.00	97.00	96.00	96.00	95.00	96.00	96.00	96.00	97.00	96.00	97.00	96.00	97.00	97.00	97.00	97.00	97.00	97.00	98.00	98.00	98.00	99.00	99.00	100.00	100.00	100.00	100.00	99.00	100.00	100.00	100.00	100.00	101.00	100.00	100.00	100.00	101.00	101.00	102.00	102.00	102.00	103.00	102.00	102.00	103.00	103.00	103.00	104.00	104.00	104.00	104.00	104.00	104.00	104.00	104.00	104.00	104.00	104.00	104.00	103.00	102.00	103.00	104.00	104.00	105.00	105.00	105.00	106.00	105.00	105.00	106.00	106.00	107.00	106.00	106.00	106.00	106.00	106.00	105.00	106.00	106.00	106.00	105.00	106.00	106.00	105.00	105.00	105.00	105.00	106.00	105.00	105.00	108.00	107.00	106.00	105.00	105.00	104.00	105.00	102.00	105.00	105.00	104.00	102.00	103.00	105.00	104.00	106.00	106.00	106.00	106.00	107.00	106.00	105.00	101.00	104.00	104.00	104.00	105.00	103.00	103.00	105.00	108.00	107.00	106.00	107.00	113.00	112.00	103.00	104.00	105.00	104.00	105.00	106.00	107.00	106.00	107.00	110.00	113.00	109.00	109.00	114.00	114.00	113.00	114.00	112.00	113.00	114.00	116.00	120.00	119.00	120.00	122.00	128.00	133.00	131.00	133.00	134.00	134.00	134.00	137.00	140.00	146.00	146.00	144.00	144.00	147.00	151.00	153.00	155.00	161.00	156.00	153.00	149.00	148.00	156.00	154.00	147.00	143.00	143.00	151.00	149.00	140.00	136.00	136.00	137.00	138.00	138.00	139.00	141.00	142.00	144.00	146.00	148.00	150.00	154.00	156.00	159.00	165.00	166.00	171.00	177.00	219.00	283.00	375.00	357.00	308.00	334.00	332.00	313.00	337.00	283.00	266.00	261.00	259.00	271.00	274.00	281.00	267.00	272.00	271.00	270.00	256.00	245.00	257.00	308.00	309.00	297.00	295.00	327.00	346.00	348.00	350.00	346.00	273.00	262.00	254.00	252.00	255.00
94.00	94.00	93.00	93.00	93.00	93.00	94.00	94.00	94.00	94.00	94.00	94.00	94.00	94.00	94.00	95.00	95.00	95.00	97.00	95.00	98.00	96.00	95.00	95.00	96.00	98.00	97.00	97.00	97.00	98.00	97.00	97.00	97.00	97.00	96.00	97.00	97.00	97.00	98.00	99.00	101.00	100.00	100.00	100.00	99.00	99.00	100.00	100.00	100.00	101.00	101.00	101.00	101.00	101.00	102.00	101.00	102.00	102.00	102.00	101.00	102.00	102.00	104.00	104.00	104.00	104.00	103.00	104.00	104.00	104.00	104.00	104.00	104.00	104.00	104.00	103.00	102.00	104.00	103.00	104.00	104.00	104.00	104.00	104.00	105.00	105.00	104.00	106.00	106.00	106.00	107.00	106.00	106.00	106.00	107.00	106.00	106.00	106.00	105.00	106.00	106.00	106.00	106.00	106.00	104.00	104.00	107.00	106.00	106.00	107.00	105.00	105.00	104.00	104.00	104.00	103.00	102.00	103.00	104.00	105.00	104.00	103.00	104.00	105.00	104.00	108.00	105.00	104.00	103.00	103.00	100.00	101.00	103.00	104.00	103.00	104.00	104.00	106.00	108.00	107.00	108.00	108.00	110.00	112.00	111.00	106.00	105.00	106.00	110.00	107.00	106.00	105.00	104.00	107.00	110.00	109.00	108.00	110.00	111.00	112.00	112.00	111.00	111.00	112.00	114.00	115.00	122.00	124.00	122.00	123.00	129.00	132.00	133.00	131.00	132.00	132.00	136.00	138.00	143.00	148.00	144.00	142.00	141.00	145.00	148.00	150.00	153.00	160.00	158.00	153.00	148.00	146.00	148.00	148.00	144.00	141.00	140.00	149.00	141.00	137.00	137.00	138.00	139.00	139.00	140.00	141.00	142.00	142.00	144.00	147.00	149.00	151.00	153.00	156.00	157.00	164.00	168.00	175.00	186.00	310.00	358.00	329.00	280.00	290.00	337.00	301.00	278.00	286.00	256.00	250.00	250.00	247.00	252.00	263.00	270.00	256.00	260.00	260.00	267.00	275.00	258.00	262.00	313.00	328.00	324.00	318.00	343.00	352.00	333.00	322.00	320.00	274.00	262.00	256.00	250.00	245.00
94.00	94.00	93.00	93.00	93.00	93.00	94.00	94.00	94.00	94.00	94.00	94.00	94.00	94.00	95.00	94.00	95.00	96.00	99.00	95.00	98.00	96.00	96.00	96.00	98.00	96.00	96.00	97.00	98.00	98.00	97.00	96.00	97.00	97.00	97.00	97.00	97.00	97.00	98.00	98.00	99.00	99.00	99.00	99.00	100.00	99.00	100.00	100.00	100.00	100.00	101.00	101.00	101.00	101.00	101.00	102.00	102.00	102.00	101.00	101.00	101.00	102.00	103.00	104.00	104.00	104.00	104.00	104.00	104.00	104.00	104.00	104.00	104.00	103.00	103.00	103.00	103.00	103.00	104.00	103.00	104.00	104.00	103.00	103.00	104.00	105.00	105.00	106.00	105.00	106.00	106.00	105.00	105.00	106.00	106.00	106.00	107.00	105.00	105.00	105.00	105.00	104.00	105.00	104.00	104.00	105.00	106.00	110.00	109.00	108.00	105.00	106.00	107.00	105.00	105.00	105.00	101.00	103.00	104.00	104.00	102.00	103.00	104.00	105.00	104.00	107.00	105.00	106.00	103.00	104.00	101.00	103.00	103.00	102.00	104.00	105.00	106.00	106.00	109.00	109.00	111.00	109.00	112.00	116.00	115.00	113.00	110.00	107.00	101.00	98.00	105.00	108.00	105.00	107.00	109.00	109.00	108.00	108.00	110.00	110.00	110.00	112.00	113.00	114.00	115.00	117.00	123.00	126.00	123.00	124.00	129.00	130.00	129.00	128.00	131.00	133.00	136.00	141.00	143.00	149.00	145.00	140.00	141.00	145.00	147.00	149.00	153.00	158.00	160.00	153.00	150.00	147.00	143.00	141.00	140.00	138.00	138.00	139.00	137.00	136.00	137.00	138.00	138.00	139.00	142.00	141.00	143.00	144.00	146.00	146.00	148.00	151.00	152.00	155.00	158.00	163.00	174.00	189.00	205.00	372.00	302.00	278.00	265.00	277.00	293.00	271.00	259.00	253.00	241.00	239.00	237.00	239.00	242.00	252.00	259.00	247.00	251.00	251.00	254.00	281.00	270.00	263.00	302.00	325.00	336.00	324.00	342.00	355.00	349.00	324.00	287.00	271.00	263.00	257.00	253.00	245.00
93.00	93.00	93.00	94.00	94.00	94.00	94.00	94.00	94.00	94.00	94.00	94.00	93.00	94.00	94.00	95.00	95.00	95.00	95.00	99.00	97.00	97.00	96.00	96.00	96.00	96.00	96.00	96.00	96.00	97.00	96.00	96.00	96.00	97.00	96.00	97.00	97.00	97.00	97.00	97.00	98.00	99.00	99.00	100.00	99.00	101.00	100.00	100.00	100.00	101.00	101.00	101.00	101.00	100.00	100.00	101.00	101.00	101.00	101.00	101.00	101.00	102.00	102.00	104.00	104.00	104.00	104.00	104.00	104.00	104.00	104.00	103.00	103.00	103.00	104.00	103.00	104.00	103.00	103.00	103.00	104.00	104.00	104.00	103.00	104.00	104.00	105.00	105.00	105.00	105.00	105.00	105.00	105.00	106.00	107.00	107.00	107.00	106.00	105.00	105.00	107.00	107.00	106.00	104.00	104.00	105.00	107.00	109.00	109.00	108.00	106.00	106.00	105.00	104.00	103.00	102.00	105.00	106.00	103.00	102.00	103.00	103.00	106.00	106.00	104.00	104.00	105.00	104.00	104.00	102.00	103.00	104.00	98.00	101.00	107.00	108.00	109.00	107.00	107.00	110.00	109.00	113.00	112.00	113.00	115.00	117.00	111.00	109.00	106.00	105.00	107.00	105.00	106.00	104.00	105.00	105.00	109.00	109.00	111.00	111.00	113.00	114.00	115.00	117.00	117.00	118.00	124.00	125.00	129.00	131.00	127.00	127.00	126.00	126.00	130.00	130.00	132.00	135.00	141.00	144.00	144.00	139.00	140.00	147.00	152.00	153.00	155.00	160.00	155.00	153.00	151.00	146.00	140.00	138.00	137.00	136.00	135.00	136.00	138.00	137.00	138.00	138.00	139.00	140.00	141.00	143.00	144.00	144.00	146.00	147.00	148.00	150.00	151.00	153.00	159.00	179.00	203.00	293.00	390.00	262.00	248.00	249.00	250.00	246.00	241.00	234.00	232.00	230.00	222.00	223.00	225.00	225.00	227.00	233.00	240.00	232.00	233.00	247.00	255.00	266.00	277.00	272.00	287.00	294.00	308.00	302.00	311.00	321.00	345.00	340.00	335.00	286.00	268.00	253.00	246.00	238.00
92.00	93.00	93.00	93.00	93.00	94.00	93.00	94.00	93.00	93.00	94.00	94.00	94.00	95.00	95.00	95.00	96.00	96.00	95.00	99.00	96.00	95.00	95.00	95.00	96.00	95.00	95.00	96.00	97.00	96.00	97.00	96.00	96.00	96.00	97.00	96.00	96.00	96.00	97.00	97.00	98.00	98.00	100.00	100.00	100.00	99.00	99.00	99.00	99.00	100.00	101.00	101.00	101.00	101.00	101.00	101.00	102.00	102.00	102.00	101.00	101.00	103.00	103.00	104.00	103.00	103.00	103.00	103.00	103.00	104.00	103.00	103.00	103.00	103.00	103.00	103.00	102.00	103.00	103.00	103.00	104.00	103.00	102.00	104.00	104.00	105.00	104.00	104.00	105.00	106.00	105.00	105.00	105.00	106.00	107.00	107.00	107.00	106.00	105.00	105.00	105.00	106.00	105.00	104.00	104.00	105.00	107.00	110.00	106.00	104.00	106.00	104.00	104.00	104.00	103.00	103.00	104.00	105.00	103.00	101.00	102.00	105.00	107.00	106.00	105.00	102.00	105.00	105.00	103.00	104.00	102.00	101.00	99.00	102.00	107.00	107.00	107.00	106.00	107.00	105.00	109.00	109.00	109.00	113.00	116.00	119.00	116.00	111.00	107.00	108.00	104.00	103.00	106.00	105.00	104.00	105.00	108.00	110.00	111.00	111.00	114.00	115.00	119.00	121.00	121.00	121.00	123.00	123.00	127.00	130.00	131.00	127.00	125.00	126.00	128.00	130.00	132.00	134.00	140.00	143.00	143.00	139.00	140.00	146.00	148.00	151.00	153.00	160.00	156.00	154.00	152.00	143.00	139.00	137.00	136.00	136.00	138.00	137.00	137.00	137.00	138.00	138.00	139.00	140.00	142.00	144.00	146.00	146.00	148.00	148.00	150.00	150.00	151.00	155.00	161.00	192.00	231.00	376.00	363.00	261.00	262.00	240.00	234.00	233.00	229.00	223.00	222.00	219.00	216.00	217.00	219.00	220.00	221.00	226.00	229.00	227.00	229.00	248.00	247.00	259.00	272.00	265.00	279.00	296.00	303.00	290.00	320.00	337.00	357.00	368.00	374.00	302.00	268.00	250.00	243.00	234.00
92.00	93.00	93.00	93.00	93.00	94.00	93.00	94.00	93.00	93.00	94.00	94.00	94.00	95.00	95.00	95.00	96.00	96.00	95.00	99.00	96.00	95.00	95.00	95.00	96.00	95.00	95.00	96.00	97.00	96.00	97.00	96.00	96.00	96.00	97.00	96.00	96.00	96.00	97.00	97.00	98.00	98.00	100.00	100.00	100.00	99.00	99.00	99.00	99.00	100.00	101.00	101.00	101.00	101.00	101.00	101.00	102.00	102.00	102.00	101.00	101.00	103.00	103.00	104.00	103.00	103.00	103.00	103.00	103.00	104.00	103.00	103.00	103.00	103.00	103.00	103.00	102.00	103.00	103.00	103.00	104.00	103.00	102.00	104.00	104.00	105.00	104.00	104.00	105.00	106.00	105.00	105.00	105.00	106.00	107.00	107.00	107.00	106.00	105.00	105.00	105.00	106.00	105.00	104.00	104.00	105.00	107.00	110.00	106.00	104.00	106.00	104.00	104.00	104.00	103.00	103.00	104.00	105.00	103.00	101.00	102.00	105.00	107.00	106.00	105.00	102.00	105.00	105.00	103.00	104.00	102.00	101.00	99.00	102.00	107.00	107.00	107.00	106.00	107.00	105.00	109.00	109.00	109.00	113.00	116.00	119.00	116.00	111.00	107.00	108.00	104.00	103.00	106.00	105.00	104.00	105.00	108.00	110.00	111.00	111.00	114.00	115.00	119.00	121.00	121.00	121.00	123.00	123.00	127.00	130.00	131.00	127.00	125.00	126.00	128.00	130.00	132.00	134.00	140.00	143.00	143.00	139.00	140.00	146.00	148.00	151.00	153.00	160.00	156.00	154.00	152.00	143.00	139.00	137.00	136.00	136.00	138.00	137.00	137.00	137.00	138.00	138.00	139.00	140.00	142.00	144.00	146.00	146.00	148.00	148.00	150.00	150.00	151.00	155.00	161.00	192.00	231.00	376.00	363.00	261.00	262.00	240.00	234.00	233.00	229.00	223.00	222.00	219.00	216.00	217.00	219.00	220.00	221.00	226.00	229.00	227.00	229.00	248.00	247.00	259.00	272.00	265.00	279.00	296.00	303.00	290.00	320.00	337.00	357.00	368.00	374.00	302.00	268.00	250.00	243.00	234.00
