1574.00	1576.00	1577.00	1577.00	1578.00	1579.00	1580.00	1580.00	1580.00	1580.00	1580.00	1580.00	1579.00	1579.00	1579.00	1579.00	1579.00	1578.00	1578.00	1578.00	1577.00	1577.00	1576.00	1573.00	1572.00	1571.00	1568.00	1566.00	1563.00	1562.00	1560.00	1559.00	1554.00	1552.00	1550.00	1547.00	1546.00	1539.00	1537.00	1534.00	1531.00	1526.00	1523.00	1520.00	1517.00	1515.00	1507.00	1504.00	1501.00	1499.00	1495.00	1493.00	1491.00	1489.00	1487.00	1483.00	1481.00	1477.00	1475.00	1472.00	1470.00	1469.00	1467.00	1466.00	1463.00	1461.00	1460.00	1458.00	1451.00	1447.00	1445.00	1442.00	1439.00	1434.00	1431.00	1429.00	1426.00	1421.00	1415.00	1412.00	1408.00	1405.00	1398.00	1393.00	1388.00	1383.00	1377.00	1375.00	1373.00	1370.00	1369.00	1367.00	1367.00	1368.00	1369.00	1375.00	1378.00	1382.00	1387.00	1392.00	1400.00	1402.00	1404.00	1406.00	1410.00	1411.00	1413.00	1415.00	1417.00	1423.00	1426.00	1428.00	1430.00	1435.00	1437.00	1441.00	1446.00	1451.00	1460.00	1465.00	1475.00	1480.00	1490.00	1495.00	1498.00	1498.00	1503.00	1505.00	1507.00	1509.00	1511.00	1517.00	1518.00	1518.00	1519.00	1519.00	1520.00	1520.00	1521.00	1521.00	1520.00	1520.00	1519.00	1519.00	1518.00	1517.00	1516.00	1515.00	1514.00	1512.00	1511.00	1509.00	1507.00	1504.00	1503.00	1502.00	1501.00	1499.00	1490.00	1482.00	1474.00	1466.00	1442.00	1434.00	1426.00	1418.00	1408.00	1387.00	1377.00	1370.00	1363.00	1353.00	1342.00	1337.00	1330.00	1323.00	1297.00	1269.00	1233.00	1204.00	1183.00	1173.00	1164.00	1144.00	1134.00	1115.00	1105.00	1093.00	1078.00	1045.00	1029.00	1013.00	999.00	993.00	978.00	973.00	968.00	962.00	945.00	933.00	919.00	908.00	894.00	846.00	798.00	770.00	743.00	713.00	702.00	691.00	681.00	672.00	663.00	667.00	670.00	676.00	700.00	744.00	801.00	860.00	909.00	987.00	1000.00	980.00	946.00	697.00	614.00	536.00	448.00	381.00	367.00	403.00	464.00	541.00	680.00	754.00	783.00	814.00	824.00	767.00	731.00	685.00	593.00	416.00	334.00	264.00	156.00	118.00	56.00	42.00	28.00	18.00	13.00	12.00	12.00	11.00
1570.00	1572.00	1573.00	1573.00	1574.00	1576.00	1577.00	1577.00	1577.00	1578.00	1578.00	1578.00	1578.00	1578.00	1578.00	1578.00	1577.00	1577.00	1577.00	1575.00	1574.00	1573.00	1573.00	1570.00	1569.00	1568.00	1565.00	1564.00	1561.00	1559.00	1558.00	1556.00	1551.00	1549.00	1547.00	1545.00	1543.00	1537.00	1534.00	1531.00	1528.00	1522.00	1520.00	1517.00	1514.00	1512.00	1504.00	1501.00	1499.00	1497.00	1493.00	1491.00	1489.00	1487.00	1485.00	1481.00	1479.00	1475.00	1473.00	1470.00	1468.00	1467.00	1465.00	1464.00	1461.00	1460.00	1458.00	1456.00	1448.00	1445.00	1442.00	1440.00	1437.00	1432.00	1429.00	1427.00	1424.00	1419.00	1413.00	1409.00	1406.00	1402.00	1394.00	1389.00	1383.00	1378.00	1373.00	1371.00	1368.00	1364.00	1363.00	1361.00	1361.00	1361.00	1362.00	1368.00	1371.00	1375.00	1380.00	1384.00	1397.00	1399.00	1401.00	1403.00	1407.00	1409.00	1411.00	1413.00	1415.00	1421.00	1424.00	1426.00	1428.00	1434.00	1436.00	1440.00	1445.00	1450.00	1460.00	1465.00	1475.00	1479.00	1489.00	1494.00	1498.00	1499.00	1503.00	1505.00	1506.00	1508.00	1510.00	1515.00	1517.00	1518.00	1518.00	1519.00	1519.00	1519.00	1520.00	1519.00	1519.00	1519.00	1518.00	1518.00	1516.00	1515.00	1514.00	1513.00	1512.00	1510.00	1508.00	1507.00	1505.00	1503.00	1501.00	1500.00	1499.00	1495.00	1479.00	1473.00	1466.00	1460.00	1436.00	1428.00	1421.00	1412.00	1402.00	1376.00	1366.00	1357.00	1347.00	1341.00	1338.00	1337.00	1332.00	1326.00	1312.00	1301.00	1277.00	1239.00	1192.00	1182.00	1172.00	1150.00	1139.00	1118.00	1107.00	1095.00	1080.00	1050.00	1035.00	1019.00	1005.00	996.00	985.00	982.00	976.00	969.00	947.00	930.00	914.00	900.00	885.00	843.00	798.00	768.00	734.00	685.00	668.00	657.00	649.00	641.00	627.00	622.00	617.00	607.00	591.00	597.00	616.00	648.00	681.00	761.00	816.00	887.00	926.00	874.00	806.00	722.00	641.00	543.00	329.00	300.00	312.00	350.00	470.00	600.00	670.00	710.00	737.00	743.00	724.00	684.00	587.00	398.00	324.00	267.00	200.00	174.00	156.00	153.00	140.00	117.00	56.00	47.00	28.00	14.00
1570.00	1572.00	1573.00	1573.00	1574.00	1576.00	1577.00	1577.00	1577.00	1578.00	1578.00	1578.00	1578.00	1578.00	1578.00	1578.00	1577.00	1577.00	1577.00	1575.00	1574.00	1573.00	1573.00	1570.00	1569.00	1568.00	1565.00	1564.00	1561.00	1559.00	1558.00	1556.00	1551.00	1549.00	1547.00	1545.00	1543.00	1537.00	1534.00	1531.00	1528.00	1522.00	1520.00	1517.00	1514.00	1512.00	1504.00	1501.00	1499.00	1497.00	1493.00	1491.00	1489.00	1487.00	1485.00	1481.00	1479.00	1475.00	1473.00	1470.00	1468.00	1467.00	1465.00	1464.00	1461.00	1460.00	1458.00	1456.00	1448.00	1445.00	1442.00	1440.00	1437.00	1432.00	1429.00	1427.00	1424.00	1419.00	1413.00	1409.00	1406.00	1402.00	1394.00	1389.00	1383.00	1378.00	1373.00	1371.00	1368.00	1364.00	1363.00	1361.00	1361.00	1361.00	1362.00	1368.00	1371.00	1375.00	1380.00	1384.00	1397.00	1399.00	1401.00	1403.00	1407.00	1409.00	1411.00	1413.00	1415.00	1421.00	1424.00	1426.00	1428.00	1434.00	1436.00	1440.00	1445.00	1450.00	1460.00	1465.00	1475.00	1479.00	1489.00	1494.00	1498.00	1499.00	1503.00	1505.00	1506.00	1508.00	1510.00	1515.00	1517.00	1518.00	1518.00	1519.00	1519.00	1519.00	1520.00	1519.00	1519.00	1519.00	1518.00	1518.00	1516.00	1515.00	1514.00	1513.00	1512.00	1510.00	1508.00	1507.00	1505.00	1503.00	1501.00	1500.00	1499.00	1495.00	1479.00	1473.00	1466.00	1460.00	1436.00	1428.00	1421.00	1412.00	1402.00	1376.00	1366.00	1357.00	1347.00	1341.00	1338.00	1337.00	1332.00	1326.00	1312.00	1301.00	1277.00	1239.00	1192.00	1182.00	1172.00	1150.00	1139.00	1118.00	1107.00	1095.00	1080.00	1050.00	1035.00	1019.00	1005.00	996.00	985.00	982.00	976.00	969.00	947.00	930.00	914.00	900.00	885.00	843.00	798.00	768.00	734.00	685.00	668.00	657.00	649.00	641.00	627.00	622.00	617.00	607.00	591.00	597.00	616.00	648.00	681.00	761.00	816.00	887.00	926.00	874.00	806.00	722.00	641.00	543.00	329.00	300.00	312.00	350.00	470.00	600.00	670.00	710.00	737.00	743.00	724.00	684.00	587.00	398.00	324.00	267.00	200.00	174.00	156.00	153.00	140.00	117.00	56.00	47.00	28.00	14.00
1565.00	1567.00	1568.00	1569.00	1570.00	1572.00	1573.00	1573.00	1574.00	1575.00	1575.00	1575.00	1576.00	1576.00	1575.00	1575.00	1574.00	1574.00	1573.00	1572.00	1571.00	1570.00	1569.00	1567.00	1566.00	1565.00	1563.00	1561.00	1559.00	1557.00	1555.00	1553.00	1548.00	1546.00	1544.00	1542.00	1540.00	1533.00	1530.00	1527.00	1524.00	1519.00	1517.00	1514.00	1511.00	1509.00	1501.00	1498.00	1496.00	1495.00	1491.00	1489.00	1487.00	1485.00	1483.00	1479.00	1477.00	1473.00	1471.00	1468.00	1466.00	1465.00	1463.00	1462.00	1459.00	1457.00	1455.00	1452.00	1445.00	1442.00	1440.00	1437.00	1435.00	1430.00	1427.00	1425.00	1422.00	1417.00	1410.00	1406.00	1403.00	1399.00	1389.00	1383.00	1378.00	1374.00	1368.00	1366.00	1363.00	1358.00	1357.00	1354.00	1354.00	1354.00	1355.00	1359.00	1362.00	1366.00	1371.00	1374.00	1388.00	1393.00	1397.00	1399.00	1403.00	1405.00	1407.00	1409.00	1411.00	1418.00	1420.00	1423.00	1426.00	1432.00	1435.00	1438.00	1442.00	1448.00	1458.00	1463.00	1473.00	1478.00	1488.00	1493.00	1497.00	1499.00	1502.00	1504.00	1505.00	1507.00	1508.00	1513.00	1514.00	1516.00	1517.00	1518.00	1519.00	1519.00	1518.00	1518.00	1518.00	1518.00	1517.00	1516.00	1513.00	1513.00	1512.00	1511.00	1510.00	1508.00	1506.00	1505.00	1503.00	1501.00	1500.00	1497.00	1490.00	1482.00	1470.00	1465.00	1459.00	1452.00	1426.00	1418.00	1409.00	1398.00	1383.00	1354.00	1339.00	1328.00	1323.00	1322.00	1325.00	1327.00	1326.00	1324.00	1318.00	1310.00	1300.00	1283.00	1233.00	1214.00	1199.00	1173.00	1158.00	1127.00	1111.00	1096.00	1082.00	1056.00	1043.00	1030.00	1018.00	1014.00	1025.00	1037.00	1043.00	1038.00	994.00	976.00	952.00	921.00	893.00	850.00	807.00	772.00	725.00	656.00	631.00	619.00	610.00	603.00	591.00	586.00	582.00	569.00	547.00	539.00	530.00	521.00	525.00	570.00	629.00	690.00	752.00	863.00	872.00	840.00	773.00	674.00	452.00	348.00	286.00	245.00	275.00	373.00	424.00	448.00	459.00	548.00	599.00	614.00	588.00	416.00	362.00	326.00	276.00	243.00	294.00	327.00	353.00	347.00	273.00	252.00	181.00	93.00
1565.00	1567.00	1568.00	1569.00	1570.00	1572.00	1573.00	1573.00	1574.00	1575.00	1575.00	1575.00	1576.00	1576.00	1575.00	1575.00	1574.00	1574.00	1573.00	1572.00	1571.00	1570.00	1569.00	1567.00	1566.00	1565.00	1563.00	1561.00	1559.00	1557.00	1555.00	1553.00	1548.00	1546.00	1544.00	1542.00	1540.00	1533.00	1530.00	1527.00	1524.00	1519.00	1517.00	1514.00	1511.00	1509.00	1501.00	1498.00	1496.00	1495.00	1491.00	1489.00	1487.00	1485.00	1483.00	1479.00	1477.00	1473.00	1471.00	1468.00	1466.00	1465.00	1463.00	1462.00	1459.00	1457.00	1455.00	1452.00	1445.00	1442.00	1440.00	1437.00	1435.00	1430.00	1427.00	1425.00	1422.00	1417.00	1410.00	1406.00	1403.00	1399.00	1389.00	1383.00	1378.00	1374.00	1368.00	1366.00	1363.00	1358.00	1357.00	1354.00	1354.00	1354.00	1355.00	1359.00	1362.00	1366.00	1371.00	1374.00	1388.00	1393.00	1397.00	1399.00	1403.00	1405.00	1407.00	1409.00	1411.00	1418.00	1420.00	1423.00	1426.00	1432.00	1435.00	1438.00	1442.00	1448.00	1458.00	1463.00	1473.00	1478.00	1488.00	1493.00	1497.00	1499.00	1502.00	1504.00	1505.00	1507.00	1508.00	1513.00	1514.00	1516.00	1517.00	1518.00	1519.00	1519.00	1518.00	1518.00	1518.00	1518.00	1517.00	1516.00	1513.00	1513.00	1512.00	1511.00	1510.00	1508.00	1506.00	1505.00	1503.00	1501.00	1500.00	1497.00	1490.00	1482.00	1470.00	1465.00	1459.00	1452.00	1426.00	1418.00	1409.00	1398.00	1383.00	1354.00	1339.00	1328.00	1323.00	1322.00	1325.00	1327.00	1326.00	1324.00	1318.00	1310.00	1300.00	1283.00	1233.00	1214.00	1199.00	1173.00	1158.00	1127.00	1111.00	1096.00	1082.00	1056.00	1043.00	1030.00	1018.00	1014.00	1025.00	1037.00	1043.00	1038.00	994.00	976.00	952.00	921.00	893.00	850.00	807.00	772.00	725.00	656.00	631.00	619.00	610.00	603.00	591.00	586.00	582.00	569.00	547.00	539.00	530.00	521.00	525.00	570.00	629.00	690.00	752.00	863.00	872.00	840.00	773.00	674.00	452.00	348.00	286.00	245.00	275.00	373.00	424.00	448.00	459.00	548.00	599.00	614.00	588.00	416.00	362.00	326.00	276.00	243.00	294.00	327.00	353.00	347.00	273.00	252.00	181.00	93.00
1561.00	1563.00	1564.00	1565.00	1566.00	1568.00	1569.00	1570.00	1570.00	1571.00	1572.00	1572.00	1572.00	1572.00	1572.00	1571.00	1571.00	1570.00	1570.00	1569.00	1568.00	1567.00	1566.00	1564.00	1563.00	1562.00	1560.00	1559.00	1556.00	1554.00	1552.00	1550.00	1545.00	1543.00	1541.00	1539.00	1537.00	1529.00	1526.00	1524.00	1521.00	1516.00	1514.00	1511.00	1508.00	1506.00	1498.00	1496.00	1494.00	1492.00	1488.00	1486.00	1485.00	1482.00	1481.00	1477.00	1474.00	1471.00	1469.00	1466.00	1464.00	1463.00	1461.00	1459.00	1456.00	1454.00	1451.00	1449.00	1442.00	1440.00	1437.00	1434.00	1432.00	1427.00	1424.00	1422.00	1420.00	1414.00	1406.00	1403.00	1399.00	1395.00	1384.00	1378.00	1374.00	1370.00	1363.00	1360.00	1357.00	1352.00	1351.00	1348.00	1348.00	1348.00	1349.00	1353.00	1354.00	1357.00	1360.00	1364.00	1378.00	1382.00	1387.00	1391.00	1398.00	1400.00	1403.00	1404.00	1407.00	1414.00	1417.00	1419.00	1422.00	1429.00	1432.00	1435.00	1438.00	1443.00	1455.00	1460.00	1470.00	1475.00	1486.00	1492.00	1497.00	1499.00	1501.00	1503.00	1504.00	1505.00	1507.00	1511.00	1512.00	1514.00	1514.00	1516.00	1517.00	1517.00	1517.00	1517.00	1516.00	1515.00	1514.00	1513.00	1511.00	1510.00	1509.00	1508.00	1508.00	1505.00	1504.00	1503.00	1501.00	1499.00	1495.00	1488.00	1480.00	1474.00	1462.00	1457.00	1449.00	1440.00	1411.00	1400.00	1385.00	1367.00	1349.00	1314.00	1303.00	1298.00	1298.00	1302.00	1315.00	1318.00	1319.00	1319.00	1318.00	1315.00	1307.00	1299.00	1269.00	1250.00	1236.00	1213.00	1203.00	1166.00	1146.00	1129.00	1116.00	1096.00	1093.00	1104.00	1120.00	1126.00	1129.00	1173.00	1209.00	1165.00	1067.00	1048.00	1030.00	1003.00	962.00	893.00	841.00	806.00	765.00	662.00	610.00	593.00	586.00	580.00	567.00	559.00	551.00	533.00	514.00	504.00	497.00	495.00	496.00	497.00	512.00	578.00	636.00	736.00	767.00	789.00	797.00	777.00	587.00	477.00	379.00	305.00	212.00	219.00	233.00	252.00	272.00	334.00	377.00	429.00	457.00	397.00	369.00	342.00	301.00	301.00	356.00	397.00	443.00	465.00	416.00	341.00	242.00	183.00
1561.00	1563.00	1564.00	1565.00	1566.00	1568.00	1569.00	1570.00	1570.00	1571.00	1572.00	1572.00	1572.00	1572.00	1572.00	1571.00	1571.00	1570.00	1570.00	1569.00	1568.00	1567.00	1566.00	1564.00	1563.00	1562.00	1560.00	1559.00	1556.00	1554.00	1552.00	1550.00	1545.00	1543.00	1541.00	1539.00	1537.00	1529.00	1526.00	1524.00	1521.00	1516.00	1514.00	1511.00	1508.00	1506.00	1498.00	1496.00	1494.00	1492.00	1488.00	1486.00	1485.00	1482.00	1481.00	1477.00	1474.00	1471.00	1469.00	1466.00	1464.00	1463.00	1461.00	1459.00	1456.00	1454.00	1451.00	1449.00	1442.00	1440.00	1437.00	1434.00	1432.00	1427.00	1424.00	1422.00	1420.00	1414.00	1406.00	1403.00	1399.00	1395.00	1384.00	1378.00	1374.00	1370.00	1363.00	1360.00	1357.00	1352.00	1351.00	1348.00	1348.00	1348.00	1349.00	1353.00	1354.00	1357.00	1360.00	1364.00	1378.00	1382.00	1387.00	1391.00	1398.00	1400.00	1403.00	1404.00	1407.00	1414.00	1417.00	1419.00	1422.00	1429.00	1432.00	1435.00	1438.00	1443.00	1455.00	1460.00	1470.00	1475.00	1486.00	1492.00	1497.00	1499.00	1501.00	1503.00	1504.00	1505.00	1507.00	1511.00	1512.00	1514.00	1514.00	1516.00	1517.00	1517.00	1517.00	1517.00	1516.00	1515.00	1514.00	1513.00	1511.00	1510.00	1509.00	1508.00	1508.00	1505.00	1504.00	1503.00	1501.00	1499.00	1495.00	1488.00	1480.00	1474.00	1462.00	1457.00	1449.00	1440.00	1411.00	1400.00	1385.00	1367.00	1349.00	1314.00	1303.00	1298.00	1298.00	1302.00	1315.00	1318.00	1319.00	1319.00	1318.00	1315.00	1307.00	1299.00	1269.00	1250.00	1236.00	1213.00	1203.00	1166.00	1146.00	1129.00	1116.00	1096.00	1093.00	1104.00	1120.00	1126.00	1129.00	1173.00	1209.00	1165.00	1067.00	1048.00	1030.00	1003.00	962.00	893.00	841.00	806.00	765.00	662.00	610.00	593.00	586.00	580.00	567.00	559.00	551.00	533.00	514.00	504.00	497.00	495.00	496.00	497.00	512.00	578.00	636.00	736.00	767.00	789.00	797.00	777.00	587.00	477.00	379.00	305.00	212.00	219.00	233.00	252.00	272.00	334.00	377.00	429.00	457.00	397.00	369.00	342.00	301.00	301.00	356.00	397.00	443.00	465.00	416.00	341.00	242.00	183.00
1561.00	1563.00	1564.00	1565.00	1566.00	1568.00	1569.00	1570.00	1570.00	1571.00	1572.00	1572.00	1572.00	1572.00	1572.00	1571.00	1571.00	1570.00	1570.00	1569.00	1568.00	1567.00	1566.00	1564.00	1563.00	1562.00	1560.00	1559.00	1556.00	1554.00	1552.00	1550.00	1545.00	1543.00	1541.00	1539.00	1537.00	1529.00	1526.00	1524.00	1521.00	1516.00	1514.00	1511.00	1508.00	1506.00	1498.00	1496.00	1494.00	1492.00	1488.00	1486.00	1485.00	1482.00	1481.00	1477.00	1474.00	1471.00	1469.00	1466.00	1464.00	1463.00	1461.00	1459.00	1456.00	1454.00	1451.00	1449.00	1442.00	1440.00	1437.00	1434.00	1432.00	1427.00	1424.00	1422.00	1420.00	1414.00	1406.00	1403.00	1399.00	1395.00	1384.00	1378.00	1374.00	1370.00	1363.00	1360.00	1357.00	1352.00	1351.00	1348.00	1348.00	1348.00	1349.00	1353.00	1354.00	1357.00	1360.00	1364.00	1378.00	1382.00	1387.00	1391.00	1398.00	1400.00	1403.00	1404.00	1407.00	1414.00	1417.00	1419.00	1422.00	1429.00	1432.00	1435.00	1438.00	1443.00	1455.00	1460.00	1470.00	1475.00	1486.00	1492.00	1497.00	1499.00	1501.00	1503.00	1504.00	1505.00	1507.00	1511.00	1512.00	1514.00	1514.00	1516.00	1517.00	1517.00	1517.00	1517.00	1516.00	1515.00	1514.00	1513.00	1511.00	1510.00	1509.00	1508.00	1508.00	1505.00	1504.00	1503.00	1501.00	1499.00	1495.00	1488.00	1480.00	1474.00	1462.00	1457.00	1449.00	1440.00	1411.00	1400.00	1385.00	1367.00	1349.00	1314.00	1303.00	1298.00	1298.00	1302.00	1315.00	1318.00	1319.00	1319.00	1318.00	1315.00	1307.00	1299.00	1269.00	1250.00	1236.00	1213.00	1203.00	1166.00	1146.00	1129.00	1116.00	1096.00	1093.00	1104.00	1120.00	1126.00	1129.00	1173.00	1209.00	1165.00	1067.00	1048.00	1030.00	1003.00	962.00	893.00	841.00	806.00	765.00	662.00	610.00	593.00	586.00	580.00	567.00	559.00	551.00	533.00	514.00	504.00	497.00	495.00	496.00	497.00	512.00	578.00	636.00	736.00	767.00	789.00	797.00	777.00	587.00	477.00	379.00	305.00	212.00	219.00	233.00	252.00	272.00	334.00	377.00	429.00	457.00	397.00	369.00	342.00	301.00	301.00	356.00	397.00	443.00	465.00	416.00	341.00	242.00	183.00
1556.00	1559.00	1560.00	1561.00	1562.00	1564.00	1565.00	1566.00	1567.00	1567.00	1568.00	1568.00	1569.00	1569.00	1568.00	1568.00	1567.00	1567.00	1566.00	1565.00	1565.00	1564.00	1563.00	1562.00	1561.00	1560.00	1558.00	1557.00	1553.00	1551.00	1548.00	1546.00	1542.00	1540.00	1538.00	1536.00	1534.00	1526.00	1523.00	1520.00	1518.00	1513.00	1511.00	1508.00	1505.00	1503.00	1496.00	1494.00	1492.00	1490.00	1486.00	1484.00	1482.00	1480.00	1478.00	1474.00	1472.00	1468.00	1467.00	1463.00	1462.00	1460.00	1458.00	1457.00	1452.00	1450.00	1447.00	1445.00	1439.00	1436.00	1434.00	1431.00	1429.00	1424.00	1421.00	1419.00	1417.00	1410.00	1403.00	1399.00	1394.00	1389.00	1378.00	1373.00	1369.00	1365.00	1357.00	1354.00	1351.00	1346.00	1345.00	1342.00	1342.00	1342.00	1343.00	1346.00	1347.00	1350.00	1353.00	1355.00	1367.00	1372.00	1375.00	1379.00	1387.00	1391.00	1394.00	1398.00	1400.00	1409.00	1412.00	1415.00	1418.00	1425.00	1428.00	1431.00	1434.00	1438.00	1450.00	1457.00	1467.00	1472.00	1482.00	1488.00	1495.00	1498.00	1501.00	1502.00	1503.00	1504.00	1505.00	1509.00	1510.00	1512.00	1512.00	1513.00	1514.00	1514.00	1514.00	1514.00	1513.00	1512.00	1512.00	1511.00	1509.00	1508.00	1507.00	1506.00	1505.00	1504.00	1503.00	1502.00	1500.00	1496.00	1488.00	1480.00	1474.00	1468.00	1456.00	1451.00	1440.00	1428.00	1390.00	1368.00	1345.00	1323.00	1305.00	1278.00	1275.00	1278.00	1283.00	1291.00	1304.00	1312.00	1317.00	1319.00	1323.00	1317.00	1310.00	1301.00	1279.00	1262.00	1249.00	1225.00	1216.00	1206.00	1198.00	1188.00	1166.00	1098.00	1088.00	1085.00	1088.00	1081.00	1045.00	1092.00	1154.00	1167.00	1169.00	1155.00	1124.00	1079.00	1042.00	977.00	910.00	864.00	809.00	693.00	620.00	589.00	574.00	562.00	546.00	539.00	531.00	516.00	501.00	494.00	489.00	490.00	491.00	494.00	495.00	501.00	523.00	657.00	689.00	720.00	754.00	783.00	749.00	660.00	575.00	491.00	330.00	229.00	208.00	197.00	191.00	199.00	225.00	278.00	335.00	394.00	393.00	375.00	298.00	304.00	373.00	419.00	475.00	522.00	501.00	421.00	366.00	343.00
1551.00	1554.00	1555.00	1556.00	1558.00	1560.00	1561.00	1562.00	1563.00	1564.00	1565.00	1565.00	1565.00	1565.00	1565.00	1564.00	1564.00	1563.00	1563.00	1562.00	1562.00	1561.00	1560.00	1559.00	1559.00	1558.00	1556.00	1553.00	1549.00	1547.00	1545.00	1543.00	1539.00	1537.00	1535.00	1533.00	1531.00	1523.00	1520.00	1518.00	1515.00	1510.00	1508.00	1505.00	1503.00	1500.00	1493.00	1492.00	1489.00	1488.00	1484.00	1482.00	1480.00	1477.00	1475.00	1471.00	1469.00	1466.00	1464.00	1460.00	1459.00	1457.00	1455.00	1453.00	1448.00	1446.00	1443.00	1441.00	1435.00	1433.00	1430.00	1428.00	1426.00	1421.00	1419.00	1416.00	1413.00	1406.00	1399.00	1394.00	1388.00	1382.00	1373.00	1368.00	1363.00	1359.00	1352.00	1348.00	1345.00	1340.00	1339.00	1337.00	1336.00	1337.00	1337.00	1339.00	1341.00	1343.00	1345.00	1348.00	1357.00	1361.00	1364.00	1367.00	1375.00	1379.00	1382.00	1386.00	1390.00	1402.00	1405.00	1409.00	1413.00	1419.00	1422.00	1426.00	1430.00	1434.00	1443.00	1450.00	1462.00	1468.00	1479.00	1485.00	1491.00	1496.00	1499.00	1501.00	1502.00	1503.00	1504.00	1507.00	1508.00	1509.00	1509.00	1511.00	1511.00	1511.00	1511.00	1511.00	1510.00	1510.00	1509.00	1508.00	1507.00	1506.00	1505.00	1504.00	1504.00	1502.00	1501.00	1500.00	1499.00	1491.00	1483.00	1476.00	1469.00	1462.00	1450.00	1444.00	1428.00	1413.00	1346.00	1317.00	1297.00	1282.00	1270.00	1245.00	1247.00	1251.00	1255.00	1262.00	1279.00	1288.00	1299.00	1321.00	1354.00	1335.00	1309.00	1299.00	1297.00	1265.00	1232.00	1168.00	1144.00	1152.00	1153.00	1133.00	1098.00	1047.00	1031.00	1013.00	994.00	975.00	935.00	944.00	971.00	1004.00	1136.00	1197.00	1189.00	1117.00	1082.00	1035.00	955.00	906.00	850.00	703.00	648.00	607.00	588.00	573.00	537.00	523.00	515.00	503.00	491.00	485.00	480.00	479.00	481.00	485.00	487.00	489.00	491.00	552.00	575.00	611.00	667.00	719.00	782.00	789.00	762.00	698.00	531.00	394.00	348.00	296.00	244.00	179.00	173.00	184.00	229.00	364.00	402.00	409.00	300.00	274.00	307.00	365.00	432.00	502.00	558.00	540.00	525.00	495.00
1551.00	1554.00	1555.00	1556.00	1558.00	1560.00	1561.00	1562.00	1563.00	1564.00	1565.00	1565.00	1565.00	1565.00	1565.00	1564.00	1564.00	1563.00	1563.00	1562.00	1562.00	1561.00	1560.00	1559.00	1559.00	1558.00	1556.00	1553.00	1549.00	1547.00	1545.00	1543.00	1539.00	1537.00	1535.00	1533.00	1531.00	1523.00	1520.00	1518.00	1515.00	1510.00	1508.00	1505.00	1503.00	1500.00	1493.00	1492.00	1489.00	1488.00	1484.00	1482.00	1480.00	1477.00	1475.00	1471.00	1469.00	1466.00	1464.00	1460.00	1459.00	1457.00	1455.00	1453.00	1448.00	1446.00	1443.00	1441.00	1435.00	1433.00	1430.00	1428.00	1426.00	1421.00	1419.00	1416.00	1413.00	1406.00	1399.00	1394.00	1388.00	1382.00	1373.00	1368.00	1363.00	1359.00	1352.00	1348.00	1345.00	1340.00	1339.00	1337.00	1336.00	1337.00	1337.00	1339.00	1341.00	1343.00	1345.00	1348.00	1357.00	1361.00	1364.00	1367.00	1375.00	1379.00	1382.00	1386.00	1390.00	1402.00	1405.00	1409.00	1413.00	1419.00	1422.00	1426.00	1430.00	1434.00	1443.00	1450.00	1462.00	1468.00	1479.00	1485.00	1491.00	1496.00	1499.00	1501.00	1502.00	1503.00	1504.00	1507.00	1508.00	1509.00	1509.00	1511.00	1511.00	1511.00	1511.00	1511.00	1510.00	1510.00	1509.00	1508.00	1507.00	1506.00	1505.00	1504.00	1504.00	1502.00	1501.00	1500.00	1499.00	1491.00	1483.00	1476.00	1469.00	1462.00	1450.00	1444.00	1428.00	1413.00	1346.00	1317.00	1297.00	1282.00	1270.00	1245.00	1247.00	1251.00	1255.00	1262.00	1279.00	1288.00	1299.00	1321.00	1354.00	1335.00	1309.00	1299.00	1297.00	1265.00	1232.00	1168.00	1144.00	1152.00	1153.00	1133.00	1098.00	1047.00	1031.00	1013.00	994.00	975.00	935.00	944.00	971.00	1004.00	1136.00	1197.00	1189.00	1117.00	1082.00	1035.00	955.00	906.00	850.00	703.00	648.00	607.00	588.00	573.00	537.00	523.00	515.00	503.00	491.00	485.00	480.00	479.00	481.00	485.00	487.00	489.00	491.00	552.00	575.00	611.00	667.00	719.00	782.00	789.00	762.00	698.00	531.00	394.00	348.00	296.00	244.00	179.00	173.00	184.00	229.00	364.00	402.00	409.00	300.00	274.00	307.00	365.00	432.00	502.00	558.00	540.00	525.00	495.00
1545.00	1549.00	1550.00	1551.00	1553.00	1556.00	1557.00	1558.00	1559.00	1560.00	1561.00	1561.00	1562.00	1562.00	1561.00	1561.00	1560.00	1560.00	1560.00	1559.00	1558.00	1558.00	1558.00	1557.00	1556.00	1555.00	1552.00	1550.00	1546.00	1544.00	1542.00	1540.00	1537.00	1534.00	1532.00	1530.00	1527.00	1520.00	1518.00	1515.00	1513.00	1507.00	1505.00	1502.00	1499.00	1498.00	1491.00	1489.00	1487.00	1485.00	1481.00	1479.00	1477.00	1475.00	1472.00	1468.00	1466.00	1462.00	1460.00	1457.00	1455.00	1453.00	1450.00	1448.00	1444.00	1442.00	1440.00	1438.00	1431.00	1429.00	1427.00	1424.00	1422.00	1417.00	1415.00	1412.00	1408.00	1402.00	1393.00	1387.00	1381.00	1376.00	1366.00	1362.00	1357.00	1353.00	1345.00	1341.00	1338.00	1334.00	1334.00	1332.00	1331.00	1332.00	1332.00	1334.00	1335.00	1336.00	1338.00	1341.00	1348.00	1350.00	1353.00	1356.00	1362.00	1365.00	1368.00	1372.00	1377.00	1392.00	1396.00	1400.00	1405.00	1413.00	1417.00	1420.00	1424.00	1429.00	1437.00	1442.00	1457.00	1462.00	1474.00	1479.00	1484.00	1490.00	1498.00	1499.00	1500.00	1501.00	1502.00	1505.00	1506.00	1506.00	1507.00	1508.00	1508.00	1508.00	1508.00	1508.00	1508.00	1507.00	1506.00	1506.00	1505.00	1504.00	1503.00	1503.00	1502.00	1501.00	1500.00	1499.00	1498.00	1486.00	1479.00	1473.00	1466.00	1459.00	1444.00	1438.00	1419.00	1403.00	1307.00	1287.00	1269.00	1251.00	1234.00	1202.00	1193.00	1186.00	1176.00	1184.00	1218.00	1242.00	1267.00	1298.00	1384.00	1363.00	1312.00	1275.00	1228.00	1176.00	1131.00	1037.00	1013.00	1014.00	1022.00	1018.00	998.00	948.00	935.00	922.00	916.00	909.00	862.00	850.00	863.00	895.00	1015.00	1118.00	1196.00	1216.00	1215.00	1141.00	1019.00	965.00	893.00	780.00	764.00	768.00	753.00	709.00	600.00	556.00	517.00	498.00	487.00	479.00	472.00	464.00	460.00	460.00	460.00	460.00	460.00	457.00	460.00	466.00	487.00	524.00	598.00	663.00	722.00	814.00	792.00	623.00	563.00	497.00	432.00	263.00	212.00	176.00	156.00	216.00	310.00	397.00	382.00	304.00	229.00	265.00	322.00	378.00	466.00	492.00	535.00	558.00
1545.00	1549.00	1550.00	1551.00	1553.00	1556.00	1557.00	1558.00	1559.00	1560.00	1561.00	1561.00	1562.00	1562.00	1561.00	1561.00	1560.00	1560.00	1560.00	1559.00	1558.00	1558.00	1558.00	1557.00	1556.00	1555.00	1552.00	1550.00	1546.00	1544.00	1542.00	1540.00	1537.00	1534.00	1532.00	1530.00	1527.00	1520.00	1518.00	1515.00	1513.00	1507.00	1505.00	1502.00	1499.00	1498.00	1491.00	1489.00	1487.00	1485.00	1481.00	1479.00	1477.00	1475.00	1472.00	1468.00	1466.00	1462.00	1460.00	1457.00	1455.00	1453.00	1450.00	1448.00	1444.00	1442.00	1440.00	1438.00	1431.00	1429.00	1427.00	1424.00	1422.00	1417.00	1415.00	1412.00	1408.00	1402.00	1393.00	1387.00	1381.00	1376.00	1366.00	1362.00	1357.00	1353.00	1345.00	1341.00	1338.00	1334.00	1334.00	1332.00	1331.00	1332.00	1332.00	1334.00	1335.00	1336.00	1338.00	1341.00	1348.00	1350.00	1353.00	1356.00	1362.00	1365.00	1368.00	1372.00	1377.00	1392.00	1396.00	1400.00	1405.00	1413.00	1417.00	1420.00	1424.00	1429.00	1437.00	1442.00	1457.00	1462.00	1474.00	1479.00	1484.00	1490.00	1498.00	1499.00	1500.00	1501.00	1502.00	1505.00	1506.00	1506.00	1507.00	1508.00	1508.00	1508.00	1508.00	1508.00	1508.00	1507.00	1506.00	1506.00	1505.00	1504.00	1503.00	1503.00	1502.00	1501.00	1500.00	1499.00	1498.00	1486.00	1479.00	1473.00	1466.00	1459.00	1444.00	1438.00	1419.00	1403.00	1307.00	1287.00	1269.00	1251.00	1234.00	1202.00	1193.00	1186.00	1176.00	1184.00	1218.00	1242.00	1267.00	1298.00	1384.00	1363.00	1312.00	1275.00	1228.00	1176.00	1131.00	1037.00	1013.00	1014.00	1022.00	1018.00	998.00	948.00	935.00	922.00	916.00	909.00	862.00	850.00	863.00	895.00	1015.00	1118.00	1196.00	1216.00	1215.00	1141.00	1019.00	965.00	893.00	780.00	764.00	768.00	753.00	709.00	600.00	556.00	517.00	498.00	487.00	479.00	472.00	464.00	460.00	460.00	460.00	460.00	460.00	457.00	460.00	466.00	487.00	524.00	598.00	663.00	722.00	814.00	792.00	623.00	563.00	497.00	432.00	263.00	212.00	176.00	156.00	216.00	310.00	397.00	382.00	304.00	229.00	265.00	322.00	378.00	466.00	492.00	535.00	558.00
1540.00	1543.00	1544.00	1546.00	1547.00	1551.00	1552.00	1554.00	1555.00	1556.00	1558.00	1558.00	1559.00	1559.00	1559.00	1559.00	1558.00	1558.00	1558.00	1557.00	1557.00	1557.00	1556.00	1554.00	1553.00	1552.00	1549.00	1547.00	1543.00	1541.00	1539.00	1538.00	1534.00	1531.00	1529.00	1527.00	1524.00	1518.00	1516.00	1512.00	1510.00	1504.00	1501.00	1499.00	1497.00	1495.00	1488.00	1487.00	1484.00	1482.00	1478.00	1476.00	1474.00	1471.00	1469.00	1465.00	1463.00	1459.00	1457.00	1453.00	1450.00	1449.00	1446.00	1444.00	1440.00	1438.00	1436.00	1434.00	1427.00	1425.00	1423.00	1420.00	1418.00	1413.00	1410.00	1407.00	1404.00	1398.00	1385.00	1379.00	1374.00	1370.00	1360.00	1356.00	1351.00	1346.00	1338.00	1335.00	1332.00	1329.00	1328.00	1327.00	1327.00	1327.00	1327.00	1328.00	1328.00	1329.00	1331.00	1333.00	1338.00	1338.00	1341.00	1344.00	1349.00	1353.00	1355.00	1359.00	1362.00	1379.00	1384.00	1390.00	1396.00	1405.00	1410.00	1415.00	1419.00	1423.00	1432.00	1436.00	1448.00	1455.00	1467.00	1472.00	1478.00	1483.00	1493.00	1497.00	1499.00	1499.00	1500.00	1503.00	1503.00	1504.00	1504.00	1505.00	1505.00	1505.00	1505.00	1505.00	1505.00	1504.00	1504.00	1503.00	1502.00	1502.00	1502.00	1501.00	1501.00	1500.00	1499.00	1499.00	1493.00	1482.00	1476.00	1469.00	1462.00	1455.00	1441.00	1432.00	1413.00	1395.00	1295.00	1272.00	1249.00	1226.00	1203.00	1149.00	1122.00	1101.00	1082.00	1067.00	1083.00	1111.00	1139.00	1159.00	1264.00	1289.00	1271.00	1220.00	1133.00	1078.00	994.00	876.00	872.00	931.00	967.00	993.00	993.00	903.00	865.00	843.00	849.00	875.00	852.00	787.00	740.00	736.00	913.00	1027.00	1112.00	1180.00	1189.00	1179.00	1142.00	1114.00	1066.00	1016.00	990.00	965.00	920.00	868.00	725.00	666.00	629.00	533.00	487.00	478.00	469.00	460.00	452.00	435.00	430.00	426.00	422.00	409.00	404.00	400.00	399.00	403.00	453.00	489.00	525.00	593.00	748.00	853.00	803.00	698.00	592.00	408.00	342.00	279.00	203.00	130.00	162.00	250.00	421.00	388.00	215.00	199.00	229.00	275.00	374.00	418.00	452.00	485.00
1535.00	1538.00	1539.00	1540.00	1542.00	1546.00	1548.00	1549.00	1550.00	1552.00	1554.00	1555.00	1556.00	1556.00	1556.00	1556.00	1556.00	1556.00	1555.00	1555.00	1555.00	1555.00	1554.00	1552.00	1550.00	1549.00	1546.00	1544.00	1540.00	1539.00	1537.00	1536.00	1531.00	1529.00	1526.00	1524.00	1522.00	1515.00	1513.00	1510.00	1507.00	1501.00	1498.00	1497.00	1494.00	1492.00	1486.00	1484.00	1481.00	1480.00	1475.00	1472.00	1470.00	1468.00	1465.00	1461.00	1459.00	1455.00	1453.00	1448.00	1446.00	1444.00	1442.00	1440.00	1436.00	1434.00	1432.00	1430.00	1423.00	1421.00	1419.00	1417.00	1414.00	1409.00	1406.00	1403.00	1400.00	1390.00	1377.00	1372.00	1367.00	1362.00	1353.00	1348.00	1343.00	1339.00	1332.00	1329.00	1327.00	1324.00	1323.00	1322.00	1322.00	1322.00	1321.00	1322.00	1322.00	1322.00	1323.00	1324.00	1327.00	1328.00	1330.00	1331.00	1336.00	1338.00	1340.00	1343.00	1348.00	1364.00	1371.00	1378.00	1384.00	1396.00	1402.00	1406.00	1412.00	1417.00	1426.00	1430.00	1440.00	1447.00	1459.00	1464.00	1470.00	1475.00	1485.00	1490.00	1494.00	1497.00	1498.00	1500.00	1501.00	1501.00	1501.00	1502.00	1502.00	1502.00	1502.00	1502.00	1502.00	1501.00	1501.00	1501.00	1500.00	1500.00	1500.00	1500.00	1499.00	1499.00	1498.00	1496.00	1487.00	1478.00	1472.00	1465.00	1459.00	1453.00	1440.00	1428.00	1410.00	1393.00	1306.00	1278.00	1248.00	1216.00	1187.00	1120.00	1085.00	1034.00	999.00	968.00	949.00	939.00	933.00	939.00	987.00	1051.00	1101.00	1106.00	1106.00	1084.00	981.00	750.00	745.00	824.00	878.00	920.00	973.00	908.00	833.00	783.00	778.00	805.00	681.00	640.00	638.00	681.00	879.00	984.00	1062.00	1095.00	1048.00	995.00	1101.00	1144.00	1097.00	985.00	931.00	874.00	844.00	838.00	808.00	763.00	709.00	613.00	495.00	483.00	473.00	462.00	453.00	432.00	423.00	414.00	408.00	398.00	393.00	389.00	390.00	392.00	395.00	403.00	430.00	466.00	547.00	657.00	751.00	797.00	723.00	539.00	462.00	391.00	299.00	157.00	113.00	116.00	282.00	337.00	228.00	170.00	175.00	204.00	291.00	338.00	378.00	404.00
1535.00	1538.00	1539.00	1540.00	1542.00	1546.00	1548.00	1549.00	1550.00	1552.00	1554.00	1555.00	1556.00	1556.00	1556.00	1556.00	1556.00	1556.00	1555.00	1555.00	1555.00	1555.00	1554.00	1552.00	1550.00	1549.00	1546.00	1544.00	1540.00	1539.00	1537.00	1536.00	1531.00	1529.00	1526.00	1524.00	1522.00	1515.00	1513.00	1510.00	1507.00	1501.00	1498.00	1497.00	1494.00	1492.00	1486.00	1484.00	1481.00	1480.00	1475.00	1472.00	1470.00	1468.00	1465.00	1461.00	1459.00	1455.00	1453.00	1448.00	1446.00	1444.00	1442.00	1440.00	1436.00	1434.00	1432.00	1430.00	1423.00	1421.00	1419.00	1417.00	1414.00	1409.00	1406.00	1403.00	1400.00	1390.00	1377.00	1372.00	1367.00	1362.00	1353.00	1348.00	1343.00	1339.00	1332.00	1329.00	1327.00	1324.00	1323.00	1322.00	1322.00	1322.00	1321.00	1322.00	1322.00	1322.00	1323.00	1324.00	1327.00	1328.00	1330.00	1331.00	1336.00	1338.00	1340.00	1343.00	1348.00	1364.00	1371.00	1378.00	1384.00	1396.00	1402.00	1406.00	1412.00	1417.00	1426.00	1430.00	1440.00	1447.00	1459.00	1464.00	1470.00	1475.00	1485.00	1490.00	1494.00	1497.00	1498.00	1500.00	1501.00	1501.00	1501.00	1502.00	1502.00	1502.00	1502.00	1502.00	1502.00	1501.00	1501.00	1501.00	1500.00	1500.00	1500.00	1500.00	1499.00	1499.00	1498.00	1496.00	1487.00	1478.00	1472.00	1465.00	1459.00	1453.00	1440.00	1428.00	1410.00	1393.00	1306.00	1278.00	1248.00	1216.00	1187.00	1120.00	1085.00	1034.00	999.00	968.00	949.00	939.00	933.00	939.00	987.00	1051.00	1101.00	1106.00	1106.00	1084.00	981.00	750.00	745.00	824.00	878.00	920.00	973.00	908.00	833.00	783.00	778.00	805.00	681.00	640.00	638.00	681.00	879.00	984.00	1062.00	1095.00	1048.00	995.00	1101.00	1144.00	1097.00	985.00	931.00	874.00	844.00	838.00	808.00	763.00	709.00	613.00	495.00	483.00	473.00	462.00	453.00	432.00	423.00	414.00	408.00	398.00	393.00	389.00	390.00	392.00	395.00	403.00	430.00	466.00	547.00	657.00	751.00	797.00	723.00	539.00	462.00	391.00	299.00	157.00	113.00	116.00	282.00	337.00	228.00	170.00	175.00	204.00	291.00	338.00	378.00	404.00
1528.00	1532.00	1534.00	1535.00	1537.00	1541.00	1543.00	1545.00	1546.00	1547.00	1550.00	1551.00	1551.00	1552.00	1553.00	1553.00	1553.00	1553.00	1553.00	1553.00	1553.00	1553.00	1552.00	1549.00	1548.00	1546.00	1543.00	1542.00	1538.00	1537.00	1536.00	1534.00	1529.00	1526.00	1524.00	1521.00	1519.00	1512.00	1510.00	1507.00	1504.00	1499.00	1497.00	1495.00	1492.00	1490.00	1483.00	1481.00	1479.00	1477.00	1471.00	1468.00	1466.00	1463.00	1461.00	1457.00	1455.00	1450.00	1448.00	1444.00	1442.00	1439.00	1438.00	1436.00	1432.00	1430.00	1428.00	1426.00	1420.00	1418.00	1415.00	1413.00	1410.00	1404.00	1402.00	1399.00	1394.00	1380.00	1369.00	1364.00	1359.00	1355.00	1345.00	1341.00	1336.00	1332.00	1326.00	1323.00	1321.00	1319.00	1318.00	1316.00	1316.00	1315.00	1314.00	1313.00	1313.00	1313.00	1313.00	1315.00	1315.00	1317.00	1318.00	1319.00	1323.00	1324.00	1326.00	1329.00	1333.00	1349.00	1355.00	1361.00	1367.00	1383.00	1389.00	1396.00	1401.00	1408.00	1418.00	1423.00	1432.00	1437.00	1449.00	1455.00	1461.00	1466.00	1476.00	1480.00	1483.00	1486.00	1489.00	1496.00	1497.00	1499.00	1499.00	1499.00	1499.00	1498.00	1498.00	1499.00	1499.00	1499.00	1499.00	1499.00	1499.00	1498.00	1498.00	1497.00	1496.00	1493.00	1490.00	1487.00	1480.00	1472.00	1467.00	1462.00	1457.00	1451.00	1438.00	1427.00	1411.00	1395.00	1318.00	1301.00	1279.00	1250.00	1223.00	1151.00	1100.00	1050.00	1003.00	931.00	887.00	865.00	848.00	843.00	852.00	869.00	908.00	952.00	1000.00	1002.00	969.00	725.00	661.00	647.00	669.00	680.00	707.00	724.00	699.00	648.00	629.00	683.00	600.00	632.00	720.00	791.00	916.00	990.00	1066.00	1093.00	1014.00	864.00	874.00	920.00	958.00	949.00	890.00	827.00	777.00	752.00	759.00	760.00	733.00	627.00	494.00	482.00	471.00	461.00	450.00	430.00	420.00	410.00	401.00	385.00	379.00	373.00	371.00	369.00	364.00	361.00	359.00	359.00	436.00	531.00	570.00	618.00	666.00	629.00	555.00	482.00	398.00	200.00	139.00	98.00	163.00	221.00	181.00	134.00	128.00	163.00	223.00	244.00	279.00	321.00
1528.00	1532.00	1534.00	1535.00	1537.00	1541.00	1543.00	1545.00	1546.00	1547.00	1550.00	1551.00	1551.00	1552.00	1553.00	1553.00	1553.00	1553.00	1553.00	1553.00	1553.00	1553.00	1552.00	1549.00	1548.00	1546.00	1543.00	1542.00	1538.00	1537.00	1536.00	1534.00	1529.00	1526.00	1524.00	1521.00	1519.00	1512.00	1510.00	1507.00	1504.00	1499.00	1497.00	1495.00	1492.00	1490.00	1483.00	1481.00	1479.00	1477.00	1471.00	1468.00	1466.00	1463.00	1461.00	1457.00	1455.00	1450.00	1448.00	1444.00	1442.00	1439.00	1438.00	1436.00	1432.00	1430.00	1428.00	1426.00	1420.00	1418.00	1415.00	1413.00	1410.00	1404.00	1402.00	1399.00	1394.00	1380.00	1369.00	1364.00	1359.00	1355.00	1345.00	1341.00	1336.00	1332.00	1326.00	1323.00	1321.00	1319.00	1318.00	1316.00	1316.00	1315.00	1314.00	1313.00	1313.00	1313.00	1313.00	1315.00	1315.00	1317.00	1318.00	1319.00	1323.00	1324.00	1326.00	1329.00	1333.00	1349.00	1355.00	1361.00	1367.00	1383.00	1389.00	1396.00	1401.00	1408.00	1418.00	1423.00	1432.00	1437.00	1449.00	1455.00	1461.00	1466.00	1476.00	1480.00	1483.00	1486.00	1489.00	1496.00	1497.00	1499.00	1499.00	1499.00	1499.00	1498.00	1498.00	1499.00	1499.00	1499.00	1499.00	1499.00	1499.00	1498.00	1498.00	1497.00	1496.00	1493.00	1490.00	1487.00	1480.00	1472.00	1467.00	1462.00	1457.00	1451.00	1438.00	1427.00	1411.00	1395.00	1318.00	1301.00	1279.00	1250.00	1223.00	1151.00	1100.00	1050.00	1003.00	931.00	887.00	865.00	848.00	843.00	852.00	869.00	908.00	952.00	1000.00	1002.00	969.00	725.00	661.00	647.00	669.00	680.00	707.00	724.00	699.00	648.00	629.00	683.00	600.00	632.00	720.00	791.00	916.00	990.00	1066.00	1093.00	1014.00	864.00	874.00	920.00	958.00	949.00	890.00	827.00	777.00	752.00	759.00	760.00	733.00	627.00	494.00	482.00	471.00	461.00	450.00	430.00	420.00	410.00	401.00	385.00	379.00	373.00	371.00	369.00	364.00	361.00	359.00	359.00	436.00	531.00	570.00	618.00	666.00	629.00	555.00	482.00	398.00	200.00	139.00	98.00	163.00	221.00	181.00	134.00	128.00	163.00	223.00	244.00	279.00	321.00
1522.00	1526.00	1528.00	1530.00	1531.00	1537.00	1538.00	1540.00	1542.00	1543.00	1545.00	1546.00	1547.00	1548.00	1549.00	1550.00	1550.00	1550.00	1550.00	1551.00	1551.00	1551.00	1550.00	1547.00	1546.00	1544.00	1542.00	1540.00	1538.00	1536.00	1534.00	1531.00	1526.00	1524.00	1521.00	1518.00	1517.00	1510.00	1507.00	1505.00	1502.00	1497.00	1495.00	1492.00	1490.00	1488.00	1480.00	1478.00	1476.00	1473.00	1467.00	1465.00	1462.00	1459.00	1457.00	1453.00	1451.00	1446.00	1444.00	1440.00	1438.00	1436.00	1434.00	1432.00	1428.00	1426.00	1424.00	1422.00	1416.00	1414.00	1411.00	1408.00	1406.00	1401.00	1397.00	1392.00	1385.00	1373.00	1360.00	1356.00	1351.00	1346.00	1337.00	1333.00	1329.00	1325.00	1318.00	1316.00	1314.00	1311.00	1310.00	1307.00	1306.00	1304.00	1303.00	1300.00	1300.00	1300.00	1300.00	1300.00	1303.00	1304.00	1306.00	1307.00	1309.00	1311.00	1314.00	1315.00	1318.00	1333.00	1339.00	1344.00	1350.00	1365.00	1372.00	1380.00	1388.00	1396.00	1408.00	1414.00	1424.00	1429.00	1438.00	1444.00	1450.00	1455.00	1464.00	1468.00	1471.00	1474.00	1476.00	1482.00	1483.00	1486.00	1486.00	1488.00	1487.00	1487.00	1487.00	1487.00	1486.00	1488.00	1490.00	1490.00	1489.00	1488.00	1487.00	1485.00	1484.00	1481.00	1479.00	1477.00	1472.00	1465.00	1462.00	1458.00	1453.00	1447.00	1435.00	1424.00	1411.00	1395.00	1333.00	1317.00	1303.00	1284.00	1258.00	1196.00	1157.00	1119.00	1072.00	934.00	862.00	834.00	807.00	789.00	766.00	760.00	764.00	780.00	821.00	853.00	875.00	846.00	777.00	649.00	608.00	568.00	538.00	523.00	522.00	523.00	537.00	566.00	611.00	719.00	794.00	825.00	938.00	1038.00	1085.00	1055.00	993.00	831.00	788.00	820.00	890.00	1017.00	972.00	877.00	798.00	744.00	693.00	683.00	664.00	579.00	485.00	465.00	449.00	437.00	429.00	413.00	405.00	396.00	389.00	372.00	366.00	359.00	351.00	342.00	326.00	318.00	309.00	300.00	330.00	418.00	458.00	493.00	527.00	580.00	581.00	569.00	491.00	257.00	160.00	95.00	97.00	124.00	115.00	100.00	92.00	92.00	119.00	167.00	224.00	273.00
1522.00	1526.00	1528.00	1530.00	1531.00	1537.00	1538.00	1540.00	1542.00	1543.00	1545.00	1546.00	1547.00	1548.00	1549.00	1550.00	1550.00	1550.00	1550.00	1551.00	1551.00	1551.00	1550.00	1547.00	1546.00	1544.00	1542.00	1540.00	1538.00	1536.00	1534.00	1531.00	1526.00	1524.00	1521.00	1518.00	1517.00	1510.00	1507.00	1505.00	1502.00	1497.00	1495.00	1492.00	1490.00	1488.00	1480.00	1478.00	1476.00	1473.00	1467.00	1465.00	1462.00	1459.00	1457.00	1453.00	1451.00	1446.00	1444.00	1440.00	1438.00	1436.00	1434.00	1432.00	1428.00	1426.00	1424.00	1422.00	1416.00	1414.00	1411.00	1408.00	1406.00	1401.00	1397.00	1392.00	1385.00	1373.00	1360.00	1356.00	1351.00	1346.00	1337.00	1333.00	1329.00	1325.00	1318.00	1316.00	1314.00	1311.00	1310.00	1307.00	1306.00	1304.00	1303.00	1300.00	1300.00	1300.00	1300.00	1300.00	1303.00	1304.00	1306.00	1307.00	1309.00	1311.00	1314.00	1315.00	1318.00	1333.00	1339.00	1344.00	1350.00	1365.00	1372.00	1380.00	1388.00	1396.00	1408.00	1414.00	1424.00	1429.00	1438.00	1444.00	1450.00	1455.00	1464.00	1468.00	1471.00	1474.00	1476.00	1482.00	1483.00	1486.00	1486.00	1488.00	1487.00	1487.00	1487.00	1487.00	1486.00	1488.00	1490.00	1490.00	1489.00	1488.00	1487.00	1485.00	1484.00	1481.00	1479.00	1477.00	1472.00	1465.00	1462.00	1458.00	1453.00	1447.00	1435.00	1424.00	1411.00	1395.00	1333.00	1317.00	1303.00	1284.00	1258.00	1196.00	1157.00	1119.00	1072.00	934.00	862.00	834.00	807.00	789.00	766.00	760.00	764.00	780.00	821.00	853.00	875.00	846.00	777.00	649.00	608.00	568.00	538.00	523.00	522.00	523.00	537.00	566.00	611.00	719.00	794.00	825.00	938.00	1038.00	1085.00	1055.00	993.00	831.00	788.00	820.00	890.00	1017.00	972.00	877.00	798.00	744.00	693.00	683.00	664.00	579.00	485.00	465.00	449.00	437.00	429.00	413.00	405.00	396.00	389.00	372.00	366.00	359.00	351.00	342.00	326.00	318.00	309.00	300.00	330.00	418.00	458.00	493.00	527.00	580.00	581.00	569.00	491.00	257.00	160.00	95.00	97.00	124.00	115.00	100.00	92.00	92.00	119.00	167.00	224.00	273.00
1516.00	1520.00	1522.00	1524.00	1526.00	1532.00	1533.00	1535.00	1537.00	1538.00	1541.00	1542.00	1543.00	1544.00	1546.00	1546.00	1547.00	1547.00	1548.00	1548.00	1549.00	1549.00	1548.00	1546.00	1544.00	1543.00	1541.00	1539.00	1537.00	1535.00	1532.00	1530.00	1525.00	1522.00	1520.00	1518.00	1516.00	1508.00	1506.00	1503.00	1500.00	1495.00	1493.00	1490.00	1487.00	1485.00	1477.00	1475.00	1472.00	1469.00	1464.00	1460.00	1458.00	1456.00	1454.00	1449.00	1447.00	1442.00	1440.00	1436.00	1434.00	1432.00	1430.00	1428.00	1424.00	1423.00	1421.00	1419.00	1412.00	1409.00	1407.00	1404.00	1402.00	1395.00	1388.00	1381.00	1375.00	1363.00	1352.00	1347.00	1342.00	1338.00	1329.00	1325.00	1321.00	1317.00	1311.00	1308.00	1306.00	1302.00	1300.00	1294.00	1291.00	1287.00	1284.00	1280.00	1279.00	1279.00	1279.00	1280.00	1287.00	1290.00	1292.00	1294.00	1296.00	1299.00	1301.00	1303.00	1305.00	1315.00	1320.00	1325.00	1332.00	1345.00	1353.00	1361.00	1368.00	1378.00	1396.00	1403.00	1415.00	1420.00	1430.00	1435.00	1439.00	1443.00	1452.00	1455.00	1458.00	1460.00	1461.00	1467.00	1468.00	1468.00	1469.00	1470.00	1470.00	1468.00	1468.00	1468.00	1469.00	1470.00	1470.00	1470.00	1470.00	1470.00	1471.00	1471.00	1469.00	1467.00	1466.00	1465.00	1463.00	1460.00	1457.00	1453.00	1448.00	1443.00	1429.00	1419.00	1407.00	1394.00	1346.00	1329.00	1315.00	1303.00	1290.00	1259.00	1235.00	1212.00	1188.00	1094.00	911.00	852.00	806.00	777.00	725.00	709.00	697.00	688.00	689.00	703.00	719.00	797.00	853.00	866.00	819.00	734.00	652.00	560.00	525.00	502.00	491.00	485.00	647.00	711.00	734.00	772.00	974.00	1011.00	996.00	926.00	879.00	763.00	712.00	771.00	822.00	955.00	1028.00	990.00	904.00	827.00	705.00	662.00	626.00	545.00	492.00	472.00	453.00	421.00	400.00	390.00	385.00	379.00	374.00	359.00	354.00	349.00	344.00	337.00	323.00	316.00	309.00	302.00	284.00	267.00	264.00	272.00	285.00	292.00	308.00	338.00	354.00	257.00	169.00	103.00	80.00	86.00	91.00	75.00	62.00	60.00	69.00	77.00	93.00	115.00
1511.00	1515.00	1517.00	1519.00	1520.00	1527.00	1528.00	1530.00	1532.00	1534.00	1537.00	1538.00	1539.00	1540.00	1542.00	1543.00	1544.00	1545.00	1545.00	1546.00	1547.00	1547.00	1546.00	1544.00	1543.00	1542.00	1540.00	1539.00	1536.00	1534.00	1531.00	1529.00	1523.00	1521.00	1518.00	1517.00	1514.00	1507.00	1504.00	1501.00	1499.00	1494.00	1491.00	1488.00	1485.00	1482.00	1475.00	1472.00	1469.00	1466.00	1460.00	1458.00	1456.00	1453.00	1450.00	1445.00	1442.00	1438.00	1436.00	1433.00	1431.00	1429.00	1427.00	1425.00	1421.00	1419.00	1417.00	1414.00	1407.00	1405.00	1403.00	1400.00	1396.00	1383.00	1377.00	1371.00	1364.00	1353.00	1342.00	1338.00	1334.00	1329.00	1321.00	1316.00	1312.00	1309.00	1303.00	1299.00	1295.00	1285.00	1280.00	1269.00	1266.00	1263.00	1260.00	1259.00	1259.00	1261.00	1262.00	1263.00	1270.00	1274.00	1276.00	1279.00	1283.00	1285.00	1288.00	1291.00	1294.00	1303.00	1306.00	1310.00	1314.00	1326.00	1335.00	1343.00	1349.00	1357.00	1377.00	1388.00	1404.00	1411.00	1420.00	1425.00	1430.00	1433.00	1440.00	1442.00	1445.00	1447.00	1449.00	1452.00	1452.00	1452.00	1452.00	1451.00	1451.00	1450.00	1449.00	1449.00	1450.00	1450.00	1450.00	1450.00	1451.00	1452.00	1454.00	1454.00	1453.00	1451.00	1451.00	1452.00	1452.00	1450.00	1448.00	1445.00	1442.00	1439.00	1424.00	1415.00	1404.00	1392.00	1352.00	1334.00	1318.00	1308.00	1298.00	1277.00	1266.00	1255.00	1243.00	1225.00	1104.00	977.00	859.00	787.00	707.00	687.00	670.00	655.00	633.00	623.00	611.00	602.00	630.00	751.00	809.00	850.00	847.00	768.00	673.00	579.00	487.00	417.00	511.00	536.00	608.00	746.00	932.00	972.00	989.00	962.00	868.00	677.00	646.00	702.00	757.00	870.00	933.00	957.00	962.00	960.00	835.00	786.00	760.00	707.00	624.00	619.00	594.00	526.00	447.00	381.00	368.00	361.00	356.00	343.00	339.00	334.00	330.00	326.00	315.00	309.00	304.00	296.00	266.00	234.00	217.00	202.00	191.00	147.00	125.00	112.00	118.00	131.00	141.00	112.00	73.00	67.00	59.00	56.00	52.00	50.00	47.00	49.00	50.00	55.00
1511.00	1515.00	1517.00	1519.00	1520.00	1527.00	1528.00	1530.00	1532.00	1534.00	1537.00	1538.00	1539.00	1540.00	1542.00	1543.00	1544.00	1545.00	1545.00	1546.00	1547.00	1547.00	1546.00	1544.00	1543.00	1542.00	1540.00	1539.00	1536.00	1534.00	1531.00	1529.00	1523.00	1521.00	1518.00	1517.00	1514.00	1507.00	1504.00	1501.00	1499.00	1494.00	1491.00	1488.00	1485.00	1482.00	1475.00	1472.00	1469.00	1466.00	1460.00	1458.00	1456.00	1453.00	1450.00	1445.00	1442.00	1438.00	1436.00	1433.00	1431.00	1429.00	1427.00	1425.00	1421.00	1419.00	1417.00	1414.00	1407.00	1405.00	1403.00	1400.00	1396.00	1383.00	1377.00	1371.00	1364.00	1353.00	1342.00	1338.00	1334.00	1329.00	1321.00	1316.00	1312.00	1309.00	1303.00	1299.00	1295.00	1285.00	1280.00	1269.00	1266.00	1263.00	1260.00	1259.00	1259.00	1261.00	1262.00	1263.00	1270.00	1274.00	1276.00	1279.00	1283.00	1285.00	1288.00	1291.00	1294.00	1303.00	1306.00	1310.00	1314.00	1326.00	1335.00	1343.00	1349.00	1357.00	1377.00	1388.00	1404.00	1411.00	1420.00	1425.00	1430.00	1433.00	1440.00	1442.00	1445.00	1447.00	1449.00	1452.00	1452.00	1452.00	1452.00	1451.00	1451.00	1450.00	1449.00	1449.00	1450.00	1450.00	1450.00	1450.00	1451.00	1452.00	1454.00	1454.00	1453.00	1451.00	1451.00	1452.00	1452.00	1450.00	1448.00	1445.00	1442.00	1439.00	1424.00	1415.00	1404.00	1392.00	1352.00	1334.00	1318.00	1308.00	1298.00	1277.00	1266.00	1255.00	1243.00	1225.00	1104.00	977.00	859.00	787.00	707.00	687.00	670.00	655.00	633.00	623.00	611.00	602.00	630.00	751.00	809.00	850.00	847.00	768.00	673.00	579.00	487.00	417.00	511.00	536.00	608.00	746.00	932.00	972.00	989.00	962.00	868.00	677.00	646.00	702.00	757.00	870.00	933.00	957.00	962.00	960.00	835.00	786.00	760.00	707.00	624.00	619.00	594.00	526.00	447.00	381.00	368.00	361.00	356.00	343.00	339.00	334.00	330.00	326.00	315.00	309.00	304.00	296.00	266.00	234.00	217.00	202.00	191.00	147.00	125.00	112.00	118.00	131.00	141.00	112.00	73.00	67.00	59.00	56.00	52.00	50.00	47.00	49.00	50.00	55.00
1506.00	1510.00	1512.00	1514.00	1516.00	1522.00	1524.00	1526.00	1527.00	1529.00	1532.00	1534.00	1536.00	1537.00	1539.00	1540.00	1541.00	1542.00	1543.00	1544.00	1544.00	1545.00	1545.00	1543.00	1542.00	1541.00	1540.00	1538.00	1535.00	1533.00	1530.00	1528.00	1523.00	1520.00	1518.00	1516.00	1513.00	1505.00	1503.00	1500.00	1498.00	1492.00	1488.00	1485.00	1482.00	1479.00	1472.00	1469.00	1465.00	1462.00	1458.00	1456.00	1453.00	1450.00	1448.00	1442.00	1439.00	1435.00	1434.00	1429.00	1427.00	1425.00	1423.00	1421.00	1417.00	1414.00	1412.00	1410.00	1403.00	1400.00	1397.00	1392.00	1386.00	1373.00	1367.00	1361.00	1355.00	1344.00	1334.00	1329.00	1325.00	1321.00	1312.00	1308.00	1303.00	1299.00	1286.00	1278.00	1271.00	1258.00	1254.00	1250.00	1247.00	1245.00	1244.00	1245.00	1245.00	1248.00	1249.00	1250.00	1256.00	1259.00	1262.00	1265.00	1270.00	1274.00	1277.00	1280.00	1283.00	1292.00	1294.00	1297.00	1300.00	1310.00	1315.00	1322.00	1331.00	1340.00	1356.00	1366.00	1389.00	1398.00	1411.00	1415.00	1420.00	1423.00	1429.00	1431.00	1433.00	1435.00	1436.00	1438.00	1438.00	1437.00	1437.00	1434.00	1433.00	1433.00	1432.00	1430.00	1429.00	1428.00	1428.00	1428.00	1430.00	1431.00	1432.00	1433.00	1434.00	1434.00	1435.00	1435.00	1438.00	1440.00	1438.00	1436.00	1432.00	1427.00	1417.00	1411.00	1400.00	1389.00	1353.00	1336.00	1320.00	1308.00	1298.00	1279.00	1270.00	1261.00	1258.00	1268.00	1192.00	1110.00	991.00	892.00	749.00	691.00	663.00	638.00	603.00	598.00	591.00	588.00	590.00	594.00	617.00	674.00	767.00	879.00	798.00	677.00	574.00	459.00	456.00	563.00	664.00	729.00	764.00	813.00	840.00	856.00	835.00	685.00	549.00	600.00	694.00	827.00	858.00	833.00	823.00	859.00	848.00	843.00	858.00	856.00	829.00	815.00	741.00	650.00	557.00	431.00	402.00	378.00	358.00	326.00	322.00	318.00	315.00	311.00	304.00	299.00	290.00	279.00	254.00	228.00	216.00	204.00	193.00	161.00	144.00	128.00	112.00	82.00	76.00	72.00	60.00	59.00	55.00	51.00	48.00	45.00	39.00	37.00	36.00	36.00
1506.00	1510.00	1512.00	1514.00	1516.00	1522.00	1524.00	1526.00	1527.00	1529.00	1532.00	1534.00	1536.00	1537.00	1539.00	1540.00	1541.00	1542.00	1543.00	1544.00	1544.00	1545.00	1545.00	1543.00	1542.00	1541.00	1540.00	1538.00	1535.00	1533.00	1530.00	1528.00	1523.00	1520.00	1518.00	1516.00	1513.00	1505.00	1503.00	1500.00	1498.00	1492.00	1488.00	1485.00	1482.00	1479.00	1472.00	1469.00	1465.00	1462.00	1458.00	1456.00	1453.00	1450.00	1448.00	1442.00	1439.00	1435.00	1434.00	1429.00	1427.00	1425.00	1423.00	1421.00	1417.00	1414.00	1412.00	1410.00	1403.00	1400.00	1397.00	1392.00	1386.00	1373.00	1367.00	1361.00	1355.00	1344.00	1334.00	1329.00	1325.00	1321.00	1312.00	1308.00	1303.00	1299.00	1286.00	1278.00	1271.00	1258.00	1254.00	1250.00	1247.00	1245.00	1244.00	1245.00	1245.00	1248.00	1249.00	1250.00	1256.00	1259.00	1262.00	1265.00	1270.00	1274.00	1277.00	1280.00	1283.00	1292.00	1294.00	1297.00	1300.00	1310.00	1315.00	1322.00	1331.00	1340.00	1356.00	1366.00	1389.00	1398.00	1411.00	1415.00	1420.00	1423.00	1429.00	1431.00	1433.00	1435.00	1436.00	1438.00	1438.00	1437.00	1437.00	1434.00	1433.00	1433.00	1432.00	1430.00	1429.00	1428.00	1428.00	1428.00	1430.00	1431.00	1432.00	1433.00	1434.00	1434.00	1435.00	1435.00	1438.00	1440.00	1438.00	1436.00	1432.00	1427.00	1417.00	1411.00	1400.00	1389.00	1353.00	1336.00	1320.00	1308.00	1298.00	1279.00	1270.00	1261.00	1258.00	1268.00	1192.00	1110.00	991.00	892.00	749.00	691.00	663.00	638.00	603.00	598.00	591.00	588.00	590.00	594.00	617.00	674.00	767.00	879.00	798.00	677.00	574.00	459.00	456.00	563.00	664.00	729.00	764.00	813.00	840.00	856.00	835.00	685.00	549.00	600.00	694.00	827.00	858.00	833.00	823.00	859.00	848.00	843.00	858.00	856.00	829.00	815.00	741.00	650.00	557.00	431.00	402.00	378.00	358.00	326.00	322.00	318.00	315.00	311.00	304.00	299.00	290.00	279.00	254.00	228.00	216.00	204.00	193.00	161.00	144.00	128.00	112.00	82.00	76.00	72.00	60.00	59.00	55.00	51.00	48.00	45.00	39.00	37.00	36.00	36.00
1501.00	1506.00	1507.00	1509.00	1511.00	1518.00	1519.00	1521.00	1523.00	1525.00	1528.00	1530.00	1532.00	1533.00	1537.00	1539.00	1539.00	1540.00	1540.00	1542.00	1542.00	1543.00	1543.00	1542.00	1541.00	1541.00	1539.00	1538.00	1535.00	1533.00	1530.00	1527.00	1522.00	1519.00	1518.00	1515.00	1513.00	1504.00	1502.00	1499.00	1497.00	1490.00	1487.00	1484.00	1480.00	1478.00	1469.00	1466.00	1463.00	1460.00	1456.00	1454.00	1451.00	1448.00	1445.00	1439.00	1437.00	1433.00	1431.00	1426.00	1423.00	1421.00	1419.00	1417.00	1413.00	1410.00	1408.00	1405.00	1397.00	1392.00	1387.00	1381.00	1375.00	1362.00	1356.00	1351.00	1346.00	1336.00	1325.00	1321.00	1317.00	1313.00	1304.00	1298.00	1290.00	1282.00	1266.00	1258.00	1251.00	1239.00	1235.00	1231.00	1229.00	1229.00	1231.00	1234.00	1234.00	1237.00	1238.00	1240.00	1246.00	1249.00	1251.00	1254.00	1259.00	1262.00	1266.00	1269.00	1273.00	1281.00	1284.00	1286.00	1289.00	1295.00	1299.00	1306.00	1314.00	1322.00	1340.00	1350.00	1369.00	1378.00	1398.00	1404.00	1409.00	1412.00	1418.00	1420.00	1421.00	1421.00	1422.00	1421.00	1421.00	1420.00	1418.00	1416.00	1415.00	1414.00	1414.00	1414.00	1412.00	1410.00	1409.00	1409.00	1409.00	1410.00	1412.00	1413.00	1415.00	1418.00	1419.00	1420.00	1424.00	1424.00	1423.00	1420.00	1417.00	1413.00	1405.00	1400.00	1392.00	1379.00	1342.00	1326.00	1312.00	1301.00	1291.00	1273.00	1264.00	1254.00	1243.00	1220.00	1163.00	1117.00	1069.00	1011.00	862.00	784.00	717.00	649.00	587.00	574.00	561.00	554.00	553.00	550.00	548.00	552.00	607.00	794.00	811.00	735.00	634.00	534.00	377.00	443.00	543.00	611.00	596.00	615.00	622.00	613.00	610.00	567.00	479.00	522.00	612.00	670.00	663.00	680.00	722.00	782.00	750.00	688.00	678.00	722.00	798.00	809.00	772.00	728.00	665.00	567.00	538.00	501.00	461.00	341.00	307.00	303.00	302.00	299.00	291.00	283.00	270.00	257.00	233.00	209.00	199.00	190.00	178.00	150.00	136.00	122.00	109.00	77.00	72.00	65.00	58.00	56.00	51.00	47.00	44.00	41.00	36.00	34.00	32.00	31.00
1492.00	1501.00	1502.00	1505.00	1506.00	1513.00	1515.00	1517.00	1518.00	1520.00	1524.00	1526.00	1528.00	1530.00	1534.00	1537.00	1538.00	1539.00	1539.00	1540.00	1541.00	1542.00	1542.00	1543.00	1541.00	1540.00	1539.00	1538.00	1535.00	1533.00	1530.00	1527.00	1522.00	1519.00	1517.00	1514.00	1512.00	1504.00	1501.00	1499.00	1496.00	1489.00	1485.00	1482.00	1479.00	1477.00	1468.00	1465.00	1462.00	1459.00	1455.00	1452.00	1449.00	1446.00	1443.00	1438.00	1436.00	1431.00	1428.00	1422.00	1419.00	1418.00	1415.00	1413.00	1408.00	1405.00	1403.00	1400.00	1387.00	1381.00	1374.00	1367.00	1361.00	1351.00	1345.00	1341.00	1337.00	1329.00	1319.00	1316.00	1312.00	1307.00	1297.00	1288.00	1277.00	1266.00	1247.00	1237.00	1227.00	1215.00	1210.00	1207.00	1210.00	1212.00	1216.00	1223.00	1225.00	1227.00	1229.00	1231.00	1237.00	1239.00	1242.00	1245.00	1250.00	1252.00	1256.00	1259.00	1262.00	1271.00	1274.00	1277.00	1279.00	1285.00	1289.00	1294.00	1298.00	1306.00	1327.00	1336.00	1354.00	1363.00	1379.00	1388.00	1395.00	1400.00	1407.00	1411.00	1411.00	1412.00	1413.00	1411.00	1411.00	1409.00	1408.00	1406.00	1404.00	1403.00	1402.00	1401.00	1397.00	1388.00	1385.00	1387.00	1390.00	1393.00	1395.00	1398.00	1401.00	1405.00	1407.00	1408.00	1409.00	1408.00	1405.00	1402.00	1400.00	1397.00	1387.00	1381.00	1371.00	1360.00	1317.00	1304.00	1290.00	1278.00	1269.00	1252.00	1242.00	1229.00	1220.00	1206.00	1192.00	1167.00	1123.00	1060.00	949.00	904.00	862.00	785.00	600.00	573.00	552.00	516.00	506.00	495.00	491.00	491.00	493.00	556.00	613.00	616.00	614.00	576.00	362.00	353.00	379.00	450.00	475.00	442.00	425.00	417.00	409.00	388.00	379.00	401.00	427.00	447.00	469.00	511.00	526.00	562.00	656.00	633.00	564.00	565.00	653.00	696.00	698.00	760.00	810.00	673.00	628.00	589.00	541.00	394.00	327.00	298.00	289.00	277.00	262.00	255.00	246.00	237.00	218.00	199.00	187.00	165.00	146.00	119.00	108.00	98.00	85.00	70.00	65.00	60.00	54.00	51.00	46.00	42.00	39.00	37.00	33.00	31.00	28.00	26.00
1492.00	1501.00	1502.00	1505.00	1506.00	1513.00	1515.00	1517.00	1518.00	1520.00	1524.00	1526.00	1528.00	1530.00	1534.00	1537.00	1538.00	1539.00	1539.00	1540.00	1541.00	1542.00	1542.00	1543.00	1541.00	1540.00	1539.00	1538.00	1535.00	1533.00	1530.00	1527.00	1522.00	1519.00	1517.00	1514.00	1512.00	1504.00	1501.00	1499.00	1496.00	1489.00	1485.00	1482.00	1479.00	1477.00	1468.00	1465.00	1462.00	1459.00	1455.00	1452.00	1449.00	1446.00	1443.00	1438.00	1436.00	1431.00	1428.00	1422.00	1419.00	1418.00	1415.00	1413.00	1408.00	1405.00	1403.00	1400.00	1387.00	1381.00	1374.00	1367.00	1361.00	1351.00	1345.00	1341.00	1337.00	1329.00	1319.00	1316.00	1312.00	1307.00	1297.00	1288.00	1277.00	1266.00	1247.00	1237.00	1227.00	1215.00	1210.00	1207.00	1210.00	1212.00	1216.00	1223.00	1225.00	1227.00	1229.00	1231.00	1237.00	1239.00	1242.00	1245.00	1250.00	1252.00	1256.00	1259.00	1262.00	1271.00	1274.00	1277.00	1279.00	1285.00	1289.00	1294.00	1298.00	1306.00	1327.00	1336.00	1354.00	1363.00	1379.00	1388.00	1395.00	1400.00	1407.00	1411.00	1411.00	1412.00	1413.00	1411.00	1411.00	1409.00	1408.00	1406.00	1404.00	1403.00	1402.00	1401.00	1397.00	1388.00	1385.00	1387.00	1390.00	1393.00	1395.00	1398.00	1401.00	1405.00	1407.00	1408.00	1409.00	1408.00	1405.00	1402.00	1400.00	1397.00	1387.00	1381.00	1371.00	1360.00	1317.00	1304.00	1290.00	1278.00	1269.00	1252.00	1242.00	1229.00	1220.00	1206.00	1192.00	1167.00	1123.00	1060.00	949.00	904.00	862.00	785.00	600.00	573.00	552.00	516.00	506.00	495.00	491.00	491.00	493.00	556.00	613.00	616.00	614.00	576.00	362.00	353.00	379.00	450.00	475.00	442.00	425.00	417.00	409.00	388.00	379.00	401.00	427.00	447.00	469.00	511.00	526.00	562.00	656.00	633.00	564.00	565.00	653.00	696.00	698.00	760.00	810.00	673.00	628.00	589.00	541.00	394.00	327.00	298.00	289.00	277.00	262.00	255.00	246.00	237.00	218.00	199.00	187.00	165.00	146.00	119.00	108.00	98.00	85.00	70.00	65.00	60.00	54.00	51.00	46.00	42.00	39.00	37.00	33.00	31.00	28.00	26.00
1478.00	1491.00	1497.00	1500.00	1501.00	1508.00	1510.00	1512.00	1514.00	1516.00	1520.00	1522.00	1524.00	1527.00	1531.00	1535.00	1537.00	1538.00	1539.00	1540.00	1541.00	1542.00	1543.00	1543.00	1543.00	1542.00	1539.00	1538.00	1535.00	1533.00	1529.00	1527.00	1521.00	1519.00	1517.00	1514.00	1512.00	1503.00	1501.00	1498.00	1495.00	1488.00	1485.00	1481.00	1478.00	1477.00	1468.00	1465.00	1462.00	1459.00	1454.00	1451.00	1449.00	1446.00	1443.00	1438.00	1435.00	1429.00	1426.00	1419.00	1417.00	1415.00	1412.00	1409.00	1404.00	1400.00	1398.00	1393.00	1377.00	1370.00	1363.00	1357.00	1353.00	1342.00	1338.00	1336.00	1333.00	1325.00	1317.00	1314.00	1309.00	1304.00	1292.00	1279.00	1267.00	1257.00	1235.00	1222.00	1207.00	1190.00	1185.00	1182.00	1185.00	1187.00	1192.00	1206.00	1212.00	1217.00	1220.00	1223.00	1228.00	1231.00	1233.00	1236.00	1241.00	1244.00	1247.00	1249.00	1252.00	1260.00	1264.00	1267.00	1270.00	1277.00	1281.00	1286.00	1290.00	1295.00	1312.00	1322.00	1341.00	1351.00	1366.00	1372.00	1378.00	1385.00	1396.00	1401.00	1402.00	1402.00	1402.00	1402.00	1401.00	1399.00	1398.00	1391.00	1388.00	1384.00	1380.00	1372.00	1360.00	1349.00	1347.00	1347.00	1355.00	1358.00	1363.00	1366.00	1371.00	1383.00	1386.00	1387.00	1387.00	1384.00	1379.00	1377.00	1373.00	1368.00	1357.00	1350.00	1339.00	1328.00	1290.00	1275.00	1259.00	1245.00	1234.00	1210.00	1196.00	1183.00	1172.00	1142.00	1110.00	1111.00	1107.00	1077.00	944.00	873.00	813.00	754.00	595.00	573.00	553.00	511.00	497.00	480.00	476.00	476.00	476.00	474.00	473.00	477.00	485.00	482.00	382.00	372.00	377.00	412.00	521.00	519.00	497.00	458.00	407.00	328.00	296.00	289.00	291.00	299.00	307.00	308.00	326.00	354.00	393.00	406.00	407.00	418.00	516.00	540.00	530.00	565.00	617.00	626.00	617.00	593.00	536.00	387.00	333.00	292.00	269.00	248.00	223.00	217.00	214.00	211.00	204.00	195.00	179.00	123.00	92.00	79.00	77.00	73.00	68.00	62.00	60.00	56.00	49.00	45.00	39.00	39.00	37.00	35.00	30.00	28.00	26.00	23.00
1478.00	1491.00	1497.00	1500.00	1501.00	1508.00	1510.00	1512.00	1514.00	1516.00	1520.00	1522.00	1524.00	1527.00	1531.00	1535.00	1537.00	1538.00	1539.00	1540.00	1541.00	1542.00	1543.00	1543.00	1543.00	1542.00	1539.00	1538.00	1535.00	1533.00	1529.00	1527.00	1521.00	1519.00	1517.00	1514.00	1512.00	1503.00	1501.00	1498.00	1495.00	1488.00	1485.00	1481.00	1478.00	1477.00	1468.00	1465.00	1462.00	1459.00	1454.00	1451.00	1449.00	1446.00	1443.00	1438.00	1435.00	1429.00	1426.00	1419.00	1417.00	1415.00	1412.00	1409.00	1404.00	1400.00	1398.00	1393.00	1377.00	1370.00	1363.00	1357.00	1353.00	1342.00	1338.00	1336.00	1333.00	1325.00	1317.00	1314.00	1309.00	1304.00	1292.00	1279.00	1267.00	1257.00	1235.00	1222.00	1207.00	1190.00	1185.00	1182.00	1185.00	1187.00	1192.00	1206.00	1212.00	1217.00	1220.00	1223.00	1228.00	1231.00	1233.00	1236.00	1241.00	1244.00	1247.00	1249.00	1252.00	1260.00	1264.00	1267.00	1270.00	1277.00	1281.00	1286.00	1290.00	1295.00	1312.00	1322.00	1341.00	1351.00	1366.00	1372.00	1378.00	1385.00	1396.00	1401.00	1402.00	1402.00	1402.00	1402.00	1401.00	1399.00	1398.00	1391.00	1388.00	1384.00	1380.00	1372.00	1360.00	1349.00	1347.00	1347.00	1355.00	1358.00	1363.00	1366.00	1371.00	1383.00	1386.00	1387.00	1387.00	1384.00	1379.00	1377.00	1373.00	1368.00	1357.00	1350.00	1339.00	1328.00	1290.00	1275.00	1259.00	1245.00	1234.00	1210.00	1196.00	1183.00	1172.00	1142.00	1110.00	1111.00	1107.00	1077.00	944.00	873.00	813.00	754.00	595.00	573.00	553.00	511.00	497.00	480.00	476.00	476.00	476.00	474.00	473.00	477.00	485.00	482.00	382.00	372.00	377.00	412.00	521.00	519.00	497.00	458.00	407.00	328.00	296.00	289.00	291.00	299.00	307.00	308.00	326.00	354.00	393.00	406.00	407.00	418.00	516.00	540.00	530.00	565.00	617.00	626.00	617.00	593.00	536.00	387.00	333.00	292.00	269.00	248.00	223.00	217.00	214.00	211.00	204.00	195.00	179.00	123.00	92.00	79.00	77.00	73.00	68.00	62.00	60.00	56.00	49.00	45.00	39.00	39.00	37.00	35.00	30.00	28.00	26.00	23.00
1466.00	1479.00	1485.00	1491.00	1495.00	1504.00	1506.00	1508.00	1510.00	1513.00	1517.00	1519.00	1521.00	1523.00	1527.00	1532.00	1535.00	1537.00	1538.00	1540.00	1541.00	1542.00	1543.00	1544.00	1544.00	1543.00	1541.00	1539.00	1536.00	1534.00	1531.00	1528.00	1523.00	1520.00	1518.00	1515.00	1512.00	1503.00	1500.00	1498.00	1495.00	1488.00	1484.00	1481.00	1478.00	1476.00	1467.00	1465.00	1461.00	1459.00	1454.00	1451.00	1449.00	1446.00	1443.00	1438.00	1435.00	1428.00	1425.00	1418.00	1416.00	1412.00	1408.00	1405.00	1398.00	1394.00	1389.00	1383.00	1369.00	1362.00	1357.00	1353.00	1348.00	1339.00	1336.00	1333.00	1331.00	1324.00	1319.00	1315.00	1312.00	1308.00	1297.00	1286.00	1272.00	1259.00	1229.00	1210.00	1196.00	1175.00	1166.00	1159.00	1160.00	1162.00	1166.00	1177.00	1185.00	1196.00	1205.00	1211.00	1220.00	1222.00	1225.00	1227.00	1232.00	1235.00	1238.00	1241.00	1243.00	1251.00	1255.00	1258.00	1261.00	1269.00	1273.00	1277.00	1281.00	1287.00	1299.00	1309.00	1329.00	1337.00	1354.00	1361.00	1366.00	1371.00	1381.00	1385.00	1389.00	1393.00	1394.00	1392.00	1388.00	1383.00	1380.00	1373.00	1369.00	1365.00	1360.00	1355.00	1343.00	1331.00	1325.00	1318.00	1314.00	1317.00	1322.00	1326.00	1330.00	1340.00	1343.00	1345.00	1349.00	1347.00	1344.00	1341.00	1338.00	1335.00	1320.00	1314.00	1307.00	1299.00	1265.00	1252.00	1240.00	1229.00	1217.00	1181.00	1155.00	1134.00	1115.00	1070.00	999.00	967.00	931.00	899.00	825.00	780.00	731.00	690.00	614.00	589.00	562.00	506.00	493.00	475.00	466.00	458.00	451.00	439.00	432.00	426.00	420.00	412.00	394.00	393.00	395.00	406.00	604.00	679.00	686.00	657.00	602.00	465.00	348.00	308.00	273.00	224.00	213.00	210.00	211.00	213.00	220.00	235.00	248.00	284.00	336.00	354.00	375.00	408.00	438.00	507.00	539.00	547.00	517.00	354.00	315.00	295.00	286.00	265.00	180.00	158.00	157.00	159.00	155.00	147.00	134.00	106.00	81.00	72.00	70.00	66.00	61.00	58.00	55.00	50.00	41.00	39.00	35.00	34.00	32.00	30.00	26.00	24.00	22.00	20.00
1466.00	1479.00	1485.00	1491.00	1495.00	1504.00	1506.00	1508.00	1510.00	1513.00	1517.00	1519.00	1521.00	1523.00	1527.00	1532.00	1535.00	1537.00	1538.00	1540.00	1541.00	1542.00	1543.00	1544.00	1544.00	1543.00	1541.00	1539.00	1536.00	1534.00	1531.00	1528.00	1523.00	1520.00	1518.00	1515.00	1512.00	1503.00	1500.00	1498.00	1495.00	1488.00	1484.00	1481.00	1478.00	1476.00	1467.00	1465.00	1461.00	1459.00	1454.00	1451.00	1449.00	1446.00	1443.00	1438.00	1435.00	1428.00	1425.00	1418.00	1416.00	1412.00	1408.00	1405.00	1398.00	1394.00	1389.00	1383.00	1369.00	1362.00	1357.00	1353.00	1348.00	1339.00	1336.00	1333.00	1331.00	1324.00	1319.00	1315.00	1312.00	1308.00	1297.00	1286.00	1272.00	1259.00	1229.00	1210.00	1196.00	1175.00	1166.00	1159.00	1160.00	1162.00	1166.00	1177.00	1185.00	1196.00	1205.00	1211.00	1220.00	1222.00	1225.00	1227.00	1232.00	1235.00	1238.00	1241.00	1243.00	1251.00	1255.00	1258.00	1261.00	1269.00	1273.00	1277.00	1281.00	1287.00	1299.00	1309.00	1329.00	1337.00	1354.00	1361.00	1366.00	1371.00	1381.00	1385.00	1389.00	1393.00	1394.00	1392.00	1388.00	1383.00	1380.00	1373.00	1369.00	1365.00	1360.00	1355.00	1343.00	1331.00	1325.00	1318.00	1314.00	1317.00	1322.00	1326.00	1330.00	1340.00	1343.00	1345.00	1349.00	1347.00	1344.00	1341.00	1338.00	1335.00	1320.00	1314.00	1307.00	1299.00	1265.00	1252.00	1240.00	1229.00	1217.00	1181.00	1155.00	1134.00	1115.00	1070.00	999.00	967.00	931.00	899.00	825.00	780.00	731.00	690.00	614.00	589.00	562.00	506.00	493.00	475.00	466.00	458.00	451.00	439.00	432.00	426.00	420.00	412.00	394.00	393.00	395.00	406.00	604.00	679.00	686.00	657.00	602.00	465.00	348.00	308.00	273.00	224.00	213.00	210.00	211.00	213.00	220.00	235.00	248.00	284.00	336.00	354.00	375.00	408.00	438.00	507.00	539.00	547.00	517.00	354.00	315.00	295.00	286.00	265.00	180.00	158.00	157.00	159.00	155.00	147.00	134.00	106.00	81.00	72.00	70.00	66.00	61.00	58.00	55.00	50.00	41.00	39.00	35.00	34.00	32.00	30.00	26.00	24.00	22.00	20.00
1455.00	1467.00	1473.00	1479.00	1484.00	1499.00	1501.00	1504.00	1506.00	1509.00	1514.00	1516.00	1518.00	1520.00	1525.00	1530.00	1533.00	1535.00	1537.00	1540.00	1541.00	1542.00	1543.00	1545.00	1545.00	1544.00	1542.00	1540.00	1538.00	1536.00	1533.00	1531.00	1525.00	1522.00	1520.00	1517.00	1515.00	1506.00	1503.00	1500.00	1497.00	1490.00	1486.00	1482.00	1479.00	1476.00	1467.00	1464.00	1461.00	1459.00	1454.00	1451.00	1449.00	1446.00	1444.00	1439.00	1435.00	1429.00	1425.00	1418.00	1414.00	1409.00	1404.00	1400.00	1393.00	1388.00	1383.00	1378.00	1363.00	1359.00	1354.00	1351.00	1347.00	1341.00	1339.00	1336.00	1334.00	1330.00	1325.00	1322.00	1320.00	1318.00	1310.00	1303.00	1293.00	1278.00	1236.00	1210.00	1197.00	1174.00	1157.00	1136.00	1135.00	1137.00	1140.00	1147.00	1153.00	1166.00	1180.00	1193.00	1209.00	1213.00	1215.00	1217.00	1221.00	1223.00	1225.00	1229.00	1233.00	1243.00	1246.00	1250.00	1253.00	1260.00	1265.00	1270.00	1274.00	1278.00	1291.00	1299.00	1317.00	1325.00	1341.00	1348.00	1355.00	1360.00	1369.00	1372.00	1375.00	1377.00	1379.00	1375.00	1373.00	1371.00	1369.00	1363.00	1360.00	1356.00	1352.00	1347.00	1336.00	1322.00	1310.00	1299.00	1293.00	1292.00	1293.00	1296.00	1299.00	1304.00	1308.00	1310.00	1314.00	1312.00	1311.00	1307.00	1304.00	1300.00	1293.00	1288.00	1279.00	1269.00	1242.00	1234.00	1225.00	1216.00	1206.00	1162.00	1140.00	1116.00	1092.00	1031.00	988.00	951.00	913.00	878.00	815.00	785.00	755.00	725.00	665.00	633.00	608.00	536.00	503.00	478.00	468.00	458.00	448.00	427.00	419.00	413.00	407.00	402.00	397.00	397.00	397.00	397.00	459.00	493.00	522.00	549.00	563.00	558.00	490.00	468.00	440.00	360.00	318.00	282.00	253.00	232.00	199.00	181.00	170.00	185.00	227.00	254.00	283.00	309.00	334.00	401.00	439.00	460.00	452.00	332.00	295.00	279.00	265.00	242.00	142.00	107.00	105.00	105.00	96.00	91.00	86.00	73.00	66.00	62.00	61.00	60.00	59.00	57.00	48.00	41.00	36.00	35.00	31.00	30.00	28.00	26.00	22.00	20.00	18.00	18.00
1445.00	1456.00	1460.00	1466.00	1473.00	1490.00	1495.00	1499.00	1502.00	1504.00	1510.00	1512.00	1515.00	1517.00	1522.00	1528.00	1531.00	1534.00	1537.00	1540.00	1541.00	1542.00	1543.00	1546.00	1547.00	1547.00	1544.00	1542.00	1539.00	1538.00	1536.00	1533.00	1528.00	1525.00	1522.00	1520.00	1517.00	1509.00	1506.00	1503.00	1500.00	1493.00	1489.00	1486.00	1481.00	1478.00	1470.00	1467.00	1464.00	1461.00	1456.00	1453.00	1450.00	1448.00	1446.00	1440.00	1438.00	1430.00	1426.00	1419.00	1414.00	1407.00	1401.00	1397.00	1389.00	1384.00	1381.00	1378.00	1365.00	1361.00	1358.00	1356.00	1354.00	1350.00	1348.00	1346.00	1343.00	1339.00	1337.00	1335.00	1333.00	1332.00	1329.00	1324.00	1318.00	1308.00	1265.00	1234.00	1207.00	1176.00	1158.00	1121.00	1111.00	1113.00	1115.00	1117.00	1120.00	1133.00	1148.00	1164.00	1195.00	1201.00	1204.00	1207.00	1212.00	1213.00	1214.00	1217.00	1220.00	1234.00	1238.00	1241.00	1244.00	1252.00	1256.00	1260.00	1265.00	1271.00	1282.00	1289.00	1306.00	1314.00	1328.00	1336.00	1342.00	1348.00	1358.00	1361.00	1363.00	1366.00	1367.00	1364.00	1364.00	1363.00	1361.00	1356.00	1353.00	1350.00	1346.00	1343.00	1333.00	1321.00	1311.00	1299.00	1282.00	1277.00	1276.00	1277.00	1280.00	1282.00	1285.00	1286.00	1286.00	1286.00	1285.00	1283.00	1281.00	1276.00	1263.00	1257.00	1248.00	1239.00	1216.00	1208.00	1204.00	1200.00	1194.00	1163.00	1139.00	1109.00	1085.00	1026.00	953.00	918.00	892.00	868.00	817.00	791.00	761.00	728.00	672.00	644.00	614.00	562.00	536.00	498.00	486.00	475.00	462.00	435.00	421.00	408.00	400.00	398.00	393.00	391.00	387.00	382.00	369.00	363.00	356.00	352.00	345.00	355.00	388.00	404.00	427.00	451.00	433.00	406.00	399.00	378.00	330.00	286.00	246.00	178.00	136.00	132.00	150.00	176.00	204.00	266.00	300.00	327.00	340.00	271.00	215.00	181.00	154.00	135.00	89.00	81.00	77.00	73.00	66.00	60.00	58.00	57.00	56.00	52.00	51.00	48.00	46.00	40.00	37.00	36.00	33.00	32.00	29.00	28.00	26.00	24.00	20.00	19.00	18.00	17.00
1445.00	1456.00	1460.00	1466.00	1473.00	1490.00	1495.00	1499.00	1502.00	1504.00	1510.00	1512.00	1515.00	1517.00	1522.00	1528.00	1531.00	1534.00	1537.00	1540.00	1541.00	1542.00	1543.00	1546.00	1547.00	1547.00	1544.00	1542.00	1539.00	1538.00	1536.00	1533.00	1528.00	1525.00	1522.00	1520.00	1517.00	1509.00	1506.00	1503.00	1500.00	1493.00	1489.00	1486.00	1481.00	1478.00	1470.00	1467.00	1464.00	1461.00	1456.00	1453.00	1450.00	1448.00	1446.00	1440.00	1438.00	1430.00	1426.00	1419.00	1414.00	1407.00	1401.00	1397.00	1389.00	1384.00	1381.00	1378.00	1365.00	1361.00	1358.00	1356.00	1354.00	1350.00	1348.00	1346.00	1343.00	1339.00	1337.00	1335.00	1333.00	1332.00	1329.00	1324.00	1318.00	1308.00	1265.00	1234.00	1207.00	1176.00	1158.00	1121.00	1111.00	1113.00	1115.00	1117.00	1120.00	1133.00	1148.00	1164.00	1195.00	1201.00	1204.00	1207.00	1212.00	1213.00	1214.00	1217.00	1220.00	1234.00	1238.00	1241.00	1244.00	1252.00	1256.00	1260.00	1265.00	1271.00	1282.00	1289.00	1306.00	1314.00	1328.00	1336.00	1342.00	1348.00	1358.00	1361.00	1363.00	1366.00	1367.00	1364.00	1364.00	1363.00	1361.00	1356.00	1353.00	1350.00	1346.00	1343.00	1333.00	1321.00	1311.00	1299.00	1282.00	1277.00	1276.00	1277.00	1280.00	1282.00	1285.00	1286.00	1286.00	1286.00	1285.00	1283.00	1281.00	1276.00	1263.00	1257.00	1248.00	1239.00	1216.00	1208.00	1204.00	1200.00	1194.00	1163.00	1139.00	1109.00	1085.00	1026.00	953.00	918.00	892.00	868.00	817.00	791.00	761.00	728.00	672.00	644.00	614.00	562.00	536.00	498.00	486.00	475.00	462.00	435.00	421.00	408.00	400.00	398.00	393.00	391.00	387.00	382.00	369.00	363.00	356.00	352.00	345.00	355.00	388.00	404.00	427.00	451.00	433.00	406.00	399.00	378.00	330.00	286.00	246.00	178.00	136.00	132.00	150.00	176.00	204.00	266.00	300.00	327.00	340.00	271.00	215.00	181.00	154.00	135.00	89.00	81.00	77.00	73.00	66.00	60.00	58.00	57.00	56.00	52.00	51.00	48.00	46.00	40.00	37.00	36.00	33.00	32.00	29.00	28.00	26.00	24.00	20.00	19.00	18.00	17.00
1436.00	1445.00	1450.00	1455.00	1460.00	1477.00	1483.00	1490.00	1496.00	1500.00	1505.00	1508.00	1511.00	1514.00	1519.00	1525.00	1529.00	1532.00	1535.00	1540.00	1541.00	1542.00	1543.00	1546.00	1547.00	1548.00	1546.00	1544.00	1541.00	1539.00	1538.00	1536.00	1531.00	1528.00	1526.00	1523.00	1520.00	1512.00	1509.00	1506.00	1503.00	1497.00	1493.00	1489.00	1485.00	1481.00	1474.00	1471.00	1468.00	1465.00	1460.00	1457.00	1455.00	1452.00	1451.00	1445.00	1442.00	1436.00	1431.00	1423.00	1418.00	1413.00	1405.00	1400.00	1392.00	1389.00	1386.00	1383.00	1375.00	1373.00	1370.00	1368.00	1366.00	1364.00	1364.00	1364.00	1364.00	1361.00	1361.00	1361.00	1362.00	1364.00	1363.00	1358.00	1352.00	1342.00	1302.00	1268.00	1233.00	1181.00	1158.00	1112.00	1100.00	1096.00	1094.00	1093.00	1096.00	1103.00	1115.00	1132.00	1171.00	1181.00	1190.00	1197.00	1203.00	1205.00	1207.00	1208.00	1211.00	1221.00	1226.00	1230.00	1235.00	1242.00	1246.00	1251.00	1255.00	1260.00	1273.00	1279.00	1295.00	1301.00	1315.00	1321.00	1328.00	1335.00	1345.00	1349.00	1352.00	1355.00	1355.00	1357.00	1356.00	1355.00	1353.00	1349.00	1347.00	1344.00	1341.00	1338.00	1330.00	1320.00	1312.00	1301.00	1280.00	1268.00	1258.00	1250.00	1249.00	1249.00	1252.00	1253.00	1255.00	1256.00	1256.00	1255.00	1253.00	1249.00	1243.00	1235.00	1220.00	1209.00	1186.00	1179.00	1173.00	1169.00	1166.00	1157.00	1146.00	1133.00	1116.00	1078.00	993.00	925.00	887.00	872.00	859.00	856.00	844.00	815.00	735.00	687.00	637.00	584.00	570.00	541.00	527.00	515.00	500.00	454.00	425.00	403.00	398.00	398.00	384.00	375.00	367.00	358.00	340.00	331.00	322.00	312.00	302.00	283.00	271.00	267.00	267.00	284.00	308.00	346.00	400.00	450.00	501.00	478.00	428.00	333.00	226.00	171.00	127.00	106.00	113.00	166.00	186.00	192.00	193.00	138.00	106.00	91.00	81.00	78.00	71.00	67.00	62.00	60.00	62.00	69.00	60.00	51.00	47.00	40.00	39.00	38.00	37.00	35.00	34.00	33.00	31.00	30.00	27.00	26.00	24.00	23.00	20.00	19.00	17.00	17.00
1436.00	1445.00	1450.00	1455.00	1460.00	1477.00	1483.00	1490.00	1496.00	1500.00	1505.00	1508.00	1511.00	1514.00	1519.00	1525.00	1529.00	1532.00	1535.00	1540.00	1541.00	1542.00	1543.00	1546.00	1547.00	1548.00	1546.00	1544.00	1541.00	1539.00	1538.00	1536.00	1531.00	1528.00	1526.00	1523.00	1520.00	1512.00	1509.00	1506.00	1503.00	1497.00	1493.00	1489.00	1485.00	1481.00	1474.00	1471.00	1468.00	1465.00	1460.00	1457.00	1455.00	1452.00	1451.00	1445.00	1442.00	1436.00	1431.00	1423.00	1418.00	1413.00	1405.00	1400.00	1392.00	1389.00	1386.00	1383.00	1375.00	1373.00	1370.00	1368.00	1366.00	1364.00	1364.00	1364.00	1364.00	1361.00	1361.00	1361.00	1362.00	1364.00	1363.00	1358.00	1352.00	1342.00	1302.00	1268.00	1233.00	1181.00	1158.00	1112.00	1100.00	1096.00	1094.00	1093.00	1096.00	1103.00	1115.00	1132.00	1171.00	1181.00	1190.00	1197.00	1203.00	1205.00	1207.00	1208.00	1211.00	1221.00	1226.00	1230.00	1235.00	1242.00	1246.00	1251.00	1255.00	1260.00	1273.00	1279.00	1295.00	1301.00	1315.00	1321.00	1328.00	1335.00	1345.00	1349.00	1352.00	1355.00	1355.00	1357.00	1356.00	1355.00	1353.00	1349.00	1347.00	1344.00	1341.00	1338.00	1330.00	1320.00	1312.00	1301.00	1280.00	1268.00	1258.00	1250.00	1249.00	1249.00	1252.00	1253.00	1255.00	1256.00	1256.00	1255.00	1253.00	1249.00	1243.00	1235.00	1220.00	1209.00	1186.00	1179.00	1173.00	1169.00	1166.00	1157.00	1146.00	1133.00	1116.00	1078.00	993.00	925.00	887.00	872.00	859.00	856.00	844.00	815.00	735.00	687.00	637.00	584.00	570.00	541.00	527.00	515.00	500.00	454.00	425.00	403.00	398.00	398.00	384.00	375.00	367.00	358.00	340.00	331.00	322.00	312.00	302.00	283.00	271.00	267.00	267.00	284.00	308.00	346.00	400.00	450.00	501.00	478.00	428.00	333.00	226.00	171.00	127.00	106.00	113.00	166.00	186.00	192.00	193.00	138.00	106.00	91.00	81.00	78.00	71.00	67.00	62.00	60.00	62.00	69.00	60.00	51.00	47.00	40.00	39.00	38.00	37.00	35.00	34.00	33.00	31.00	30.00	27.00	26.00	24.00	23.00	20.00	19.00	17.00	17.00
1429.00	1436.00	1440.00	1446.00	1451.00	1467.00	1473.00	1478.00	1484.00	1491.00	1501.00	1504.00	1507.00	1510.00	1516.00	1523.00	1527.00	1531.00	1535.00	1539.00	1541.00	1542.00	1543.00	1546.00	1548.00	1549.00	1548.00	1546.00	1543.00	1542.00	1540.00	1539.00	1536.00	1533.00	1531.00	1528.00	1525.00	1516.00	1513.00	1510.00	1507.00	1500.00	1497.00	1493.00	1489.00	1486.00	1477.00	1475.00	1472.00	1470.00	1465.00	1463.00	1460.00	1457.00	1456.00	1452.00	1449.00	1444.00	1441.00	1435.00	1431.00	1426.00	1420.00	1413.00	1401.00	1396.00	1395.00	1392.00	1389.00	1388.00	1386.00	1387.00	1388.00	1388.00	1389.00	1393.00	1397.00	1407.00	1410.00	1410.00	1414.00	1422.00	1424.00	1419.00	1411.00	1396.00	1327.00	1291.00	1256.00	1196.00	1160.00	1099.00	1093.00	1088.00	1082.00	1079.00	1084.00	1089.00	1095.00	1102.00	1146.00	1156.00	1166.00	1175.00	1188.00	1193.00	1198.00	1200.00	1203.00	1211.00	1214.00	1218.00	1222.00	1230.00	1234.00	1239.00	1243.00	1248.00	1258.00	1265.00	1279.00	1286.00	1300.00	1306.00	1313.00	1319.00	1330.00	1335.00	1339.00	1341.00	1343.00	1346.00	1345.00	1344.00	1344.00	1342.00	1340.00	1338.00	1335.00	1331.00	1323.00	1314.00	1306.00	1297.00	1275.00	1265.00	1252.00	1237.00	1228.00	1218.00	1214.00	1211.00	1207.00	1205.00	1204.00	1204.00	1203.00	1202.00	1200.00	1193.00	1185.00	1179.00	1161.00	1154.00	1144.00	1135.00	1130.00	1123.00	1122.00	1121.00	1120.00	1111.00	1071.00	1021.00	976.00	942.00	902.00	890.00	871.00	844.00	734.00	690.00	657.00	631.00	622.00	602.00	595.00	593.00	606.00	633.00	595.00	529.00	455.00	404.00	374.00	365.00	357.00	348.00	331.00	322.00	314.00	305.00	296.00	276.00	261.00	253.00	245.00	227.00	223.00	227.00	240.00	261.00	340.00	383.00	406.00	382.00	328.00	273.00	212.00	155.00	114.00	106.00	118.00	112.00	104.00	88.00	84.00	79.00	77.00	74.00	66.00	63.00	63.00	67.00	76.00	58.00	52.00	45.00	40.00	37.00	35.00	35.00	34.00	32.00	31.00	30.00	28.00	27.00	25.00	24.00	23.00	21.00	19.00	18.00	17.00	17.00
1423.00	1431.00	1435.00	1439.00	1443.00	1458.00	1462.00	1468.00	1474.00	1479.00	1494.00	1499.00	1503.00	1506.00	1514.00	1521.00	1525.00	1529.00	1533.00	1539.00	1540.00	1542.00	1544.00	1547.00	1549.00	1550.00	1550.00	1548.00	1545.00	1544.00	1543.00	1542.00	1540.00	1538.00	1537.00	1534.00	1531.00	1521.00	1519.00	1516.00	1513.00	1506.00	1502.00	1498.00	1495.00	1492.00	1483.00	1481.00	1478.00	1476.00	1472.00	1470.00	1468.00	1466.00	1464.00	1459.00	1457.00	1454.00	1453.00	1451.00	1448.00	1446.00	1444.00	1442.00	1435.00	1433.00	1433.00	1429.00	1423.00	1423.00	1422.00	1422.00	1423.00	1433.00	1436.00	1441.00	1444.00	1445.00	1452.00	1452.00	1452.00	1453.00	1445.00	1426.00	1411.00	1396.00	1325.00	1291.00	1263.00	1208.00	1171.00	1099.00	1090.00	1083.00	1075.00	1067.00	1072.00	1078.00	1084.00	1090.00	1122.00	1131.00	1140.00	1149.00	1161.00	1167.00	1173.00	1178.00	1185.00	1200.00	1203.00	1206.00	1209.00	1216.00	1219.00	1222.00	1226.00	1231.00	1242.00	1247.00	1259.00	1265.00	1280.00	1287.00	1296.00	1303.00	1314.00	1319.00	1324.00	1327.00	1331.00	1336.00	1337.00	1337.00	1337.00	1335.00	1333.00	1331.00	1327.00	1324.00	1315.00	1303.00	1295.00	1285.00	1267.00	1257.00	1242.00	1229.00	1218.00	1201.00	1196.00	1193.00	1187.00	1182.00	1179.00	1176.00	1174.00	1172.00	1168.00	1164.00	1159.00	1153.00	1133.00	1125.00	1115.00	1107.00	1101.00	1095.00	1094.00	1096.00	1097.00	1101.00	1099.00	1079.00	1046.00	1024.00	977.00	924.00	846.00	791.00	712.00	700.00	698.00	692.00	689.00	688.00	698.00	722.00	764.00	767.00	699.00	630.00	541.00	441.00	399.00	380.00	362.00	347.00	321.00	310.00	302.00	295.00	286.00	269.00	255.00	248.00	241.00	227.00	220.00	212.00	205.00	197.00	166.00	161.00	157.00	147.00	127.00	112.00	93.00	76.00	73.00	78.00	82.00	83.00	83.00	79.00	78.00	77.00	77.00	73.00	69.00	73.00	84.00	101.00	84.00	50.00	41.00	38.00	38.00	36.00	34.00	33.00	32.00	30.00	28.00	28.00	25.00	24.00	22.00	21.00	20.00	20.00	18.00	17.00	16.00	17.00
1423.00	1431.00	1435.00	1439.00	1443.00	1458.00	1462.00	1468.00	1474.00	1479.00	1494.00	1499.00	1503.00	1506.00	1514.00	1521.00	1525.00	1529.00	1533.00	1539.00	1540.00	1542.00	1544.00	1547.00	1549.00	1550.00	1550.00	1548.00	1545.00	1544.00	1543.00	1542.00	1540.00	1538.00	1537.00	1534.00	1531.00	1521.00	1519.00	1516.00	1513.00	1506.00	1502.00	1498.00	1495.00	1492.00	1483.00	1481.00	1478.00	1476.00	1472.00	1470.00	1468.00	1466.00	1464.00	1459.00	1457.00	1454.00	1453.00	1451.00	1448.00	1446.00	1444.00	1442.00	1435.00	1433.00	1433.00	1429.00	1423.00	1423.00	1422.00	1422.00	1423.00	1433.00	1436.00	1441.00	1444.00	1445.00	1452.00	1452.00	1452.00	1453.00	1445.00	1426.00	1411.00	1396.00	1325.00	1291.00	1263.00	1208.00	1171.00	1099.00	1090.00	1083.00	1075.00	1067.00	1072.00	1078.00	1084.00	1090.00	1122.00	1131.00	1140.00	1149.00	1161.00	1167.00	1173.00	1178.00	1185.00	1200.00	1203.00	1206.00	1209.00	1216.00	1219.00	1222.00	1226.00	1231.00	1242.00	1247.00	1259.00	1265.00	1280.00	1287.00	1296.00	1303.00	1314.00	1319.00	1324.00	1327.00	1331.00	1336.00	1337.00	1337.00	1337.00	1335.00	1333.00	1331.00	1327.00	1324.00	1315.00	1303.00	1295.00	1285.00	1267.00	1257.00	1242.00	1229.00	1218.00	1201.00	1196.00	1193.00	1187.00	1182.00	1179.00	1176.00	1174.00	1172.00	1168.00	1164.00	1159.00	1153.00	1133.00	1125.00	1115.00	1107.00	1101.00	1095.00	1094.00	1096.00	1097.00	1101.00	1099.00	1079.00	1046.00	1024.00	977.00	924.00	846.00	791.00	712.00	700.00	698.00	692.00	689.00	688.00	698.00	722.00	764.00	767.00	699.00	630.00	541.00	441.00	399.00	380.00	362.00	347.00	321.00	310.00	302.00	295.00	286.00	269.00	255.00	248.00	241.00	227.00	220.00	212.00	205.00	197.00	166.00	161.00	157.00	147.00	127.00	112.00	93.00	76.00	73.00	78.00	82.00	83.00	83.00	79.00	78.00	77.00	77.00	73.00	69.00	73.00	84.00	101.00	84.00	50.00	41.00	38.00	38.00	36.00	34.00	33.00	32.00	30.00	28.00	28.00	25.00	24.00	22.00	21.00	20.00	20.00	18.00	17.00	16.00	17.00
1416.00	1425.00	1429.00	1434.00	1438.00	1451.00	1456.00	1460.00	1465.00	1471.00	1483.00	1492.00	1498.00	1502.00	1511.00	1518.00	1523.00	1527.00	1532.00	1539.00	1540.00	1542.00	1544.00	1548.00	1549.00	1551.00	1551.00	1549.00	1547.00	1547.00	1546.00	1545.00	1544.00	1542.00	1541.00	1540.00	1537.00	1529.00	1526.00	1524.00	1522.00	1515.00	1511.00	1507.00	1503.00	1499.00	1492.00	1489.00	1486.00	1484.00	1480.00	1478.00	1477.00	1476.00	1476.00	1472.00	1471.00	1468.00	1467.00	1470.00	1471.00	1472.00	1472.00	1474.00	1491.00	1498.00	1500.00	1502.00	1490.00	1482.00	1474.00	1470.00	1468.00	1468.00	1471.00	1474.00	1477.00	1469.00	1434.00	1415.00	1397.00	1386.00	1376.00	1382.00	1383.00	1359.00	1299.00	1278.00	1254.00	1205.00	1175.00	1107.00	1092.00	1083.00	1074.00	1057.00	1057.00	1064.00	1070.00	1077.00	1098.00	1106.00	1115.00	1123.00	1133.00	1138.00	1142.00	1145.00	1149.00	1168.00	1177.00	1185.00	1192.00	1200.00	1204.00	1205.00	1208.00	1212.00	1222.00	1227.00	1239.00	1245.00	1257.00	1264.00	1272.00	1279.00	1297.00	1304.00	1309.00	1313.00	1316.00	1325.00	1326.00	1328.00	1328.00	1327.00	1325.00	1324.00	1321.00	1319.00	1308.00	1294.00	1285.00	1276.00	1254.00	1239.00	1225.00	1214.00	1205.00	1194.00	1189.00	1184.00	1177.00	1167.00	1162.00	1159.00	1157.00	1155.00	1148.00	1142.00	1136.00	1130.00	1108.00	1101.00	1096.00	1092.00	1089.00	1083.00	1082.00	1081.00	1079.00	1081.00	1075.00	1062.00	1049.00	1035.00	1008.00	987.00	941.00	900.00	802.00	773.00	765.00	752.00	752.00	770.00	785.00	818.00	879.00	845.00	771.00	697.00	654.00	640.00	587.00	500.00	434.00	418.00	397.00	345.00	307.00	290.00	281.00	264.00	249.00	242.00	236.00	224.00	217.00	211.00	205.00	198.00	163.00	147.00	134.00	115.00	98.00	85.00	64.00	58.00	58.00	60.00	67.00	73.00	75.00	75.00	74.00	73.00	72.00	71.00	71.00	71.00	75.00	75.00	59.00	45.00	40.00	38.00	38.00	34.00	33.00	31.00	30.00	28.00	27.00	25.00	23.00	21.00	19.00	18.00	18.00	17.00	16.00	15.00	15.00	15.00
1416.00	1425.00	1429.00	1434.00	1438.00	1451.00	1456.00	1460.00	1465.00	1471.00	1483.00	1492.00	1498.00	1502.00	1511.00	1518.00	1523.00	1527.00	1532.00	1539.00	1540.00	1542.00	1544.00	1548.00	1549.00	1551.00	1551.00	1549.00	1547.00	1547.00	1546.00	1545.00	1544.00	1542.00	1541.00	1540.00	1537.00	1529.00	1526.00	1524.00	1522.00	1515.00	1511.00	1507.00	1503.00	1499.00	1492.00	1489.00	1486.00	1484.00	1480.00	1478.00	1477.00	1476.00	1476.00	1472.00	1471.00	1468.00	1467.00	1470.00	1471.00	1472.00	1472.00	1474.00	1491.00	1498.00	1500.00	1502.00	1490.00	1482.00	1474.00	1470.00	1468.00	1468.00	1471.00	1474.00	1477.00	1469.00	1434.00	1415.00	1397.00	1386.00	1376.00	1382.00	1383.00	1359.00	1299.00	1278.00	1254.00	1205.00	1175.00	1107.00	1092.00	1083.00	1074.00	1057.00	1057.00	1064.00	1070.00	1077.00	1098.00	1106.00	1115.00	1123.00	1133.00	1138.00	1142.00	1145.00	1149.00	1168.00	1177.00	1185.00	1192.00	1200.00	1204.00	1205.00	1208.00	1212.00	1222.00	1227.00	1239.00	1245.00	1257.00	1264.00	1272.00	1279.00	1297.00	1304.00	1309.00	1313.00	1316.00	1325.00	1326.00	1328.00	1328.00	1327.00	1325.00	1324.00	1321.00	1319.00	1308.00	1294.00	1285.00	1276.00	1254.00	1239.00	1225.00	1214.00	1205.00	1194.00	1189.00	1184.00	1177.00	1167.00	1162.00	1159.00	1157.00	1155.00	1148.00	1142.00	1136.00	1130.00	1108.00	1101.00	1096.00	1092.00	1089.00	1083.00	1082.00	1081.00	1079.00	1081.00	1075.00	1062.00	1049.00	1035.00	1008.00	987.00	941.00	900.00	802.00	773.00	765.00	752.00	752.00	770.00	785.00	818.00	879.00	845.00	771.00	697.00	654.00	640.00	587.00	500.00	434.00	418.00	397.00	345.00	307.00	290.00	281.00	264.00	249.00	242.00	236.00	224.00	217.00	211.00	205.00	198.00	163.00	147.00	134.00	115.00	98.00	85.00	64.00	58.00	58.00	60.00	67.00	73.00	75.00	75.00	74.00	73.00	72.00	71.00	71.00	71.00	75.00	75.00	59.00	45.00	40.00	38.00	38.00	34.00	33.00	31.00	30.00	28.00	27.00	25.00	23.00	21.00	19.00	18.00	18.00	17.00	16.00	15.00	15.00	15.00
1410.00	1418.00	1422.00	1427.00	1432.00	1444.00	1449.00	1454.00	1458.00	1463.00	1476.00	1482.00	1490.00	1497.00	1506.00	1516.00	1520.00	1525.00	1530.00	1539.00	1540.00	1543.00	1544.00	1548.00	1550.00	1552.00	1553.00	1551.00	1550.00	1550.00	1549.00	1549.00	1547.00	1546.00	1545.00	1544.00	1543.00	1537.00	1535.00	1533.00	1531.00	1526.00	1523.00	1521.00	1517.00	1513.00	1503.00	1499.00	1496.00	1494.00	1491.00	1491.00	1490.00	1489.00	1489.00	1488.00	1488.00	1487.00	1489.00	1496.00	1503.00	1513.00	1522.00	1536.00	1565.00	1583.00	1597.00	1606.00	1558.00	1533.00	1515.00	1506.00	1502.00	1496.00	1499.00	1513.00	1541.00	1500.00	1421.00	1387.00	1361.00	1342.00	1333.00	1339.00	1346.00	1336.00	1286.00	1263.00	1240.00	1194.00	1165.00	1105.00	1091.00	1080.00	1070.00	1050.00	1044.00	1048.00	1054.00	1060.00	1077.00	1082.00	1090.00	1096.00	1105.00	1109.00	1111.00	1111.00	1113.00	1124.00	1133.00	1141.00	1150.00	1167.00	1174.00	1180.00	1187.00	1193.00	1201.00	1206.00	1216.00	1223.00	1237.00	1244.00	1250.00	1256.00	1269.00	1278.00	1288.00	1295.00	1301.00	1313.00	1316.00	1318.00	1319.00	1320.00	1319.00	1318.00	1317.00	1314.00	1304.00	1289.00	1279.00	1268.00	1240.00	1225.00	1211.00	1201.00	1197.00	1190.00	1186.00	1181.00	1170.00	1157.00	1153.00	1149.00	1145.00	1141.00	1133.00	1128.00	1120.00	1112.00	1094.00	1090.00	1087.00	1083.00	1079.00	1071.00	1068.00	1064.00	1059.00	1052.00	1041.00	1034.00	1026.00	1018.00	1001.00	982.00	954.00	924.00	858.00	836.00	823.00	809.00	809.00	810.00	810.00	808.00	805.00	795.00	794.00	798.00	824.00	869.00	748.00	654.00	635.00	641.00	564.00	465.00	407.00	397.00	379.00	307.00	264.00	247.00	231.00	213.00	209.00	205.00	200.00	193.00	171.00	160.00	150.00	131.00	113.00	104.00	86.00	61.00	58.00	62.00	67.00	71.00	72.00	75.00	75.00	76.00	77.00	77.00	63.00	59.00	58.00	58.00	56.00	47.00	43.00	40.00	38.00	35.00	33.00	30.00	29.00	27.00	25.00	24.00	22.00	20.00	17.00	16.00	16.00	15.00	15.00	14.00	14.00	14.00
1410.00	1418.00	1422.00	1427.00	1432.00	1444.00	1449.00	1454.00	1458.00	1463.00	1476.00	1482.00	1490.00	1497.00	1506.00	1516.00	1520.00	1525.00	1530.00	1539.00	1540.00	1543.00	1544.00	1548.00	1550.00	1552.00	1553.00	1551.00	1550.00	1550.00	1549.00	1549.00	1547.00	1546.00	1545.00	1544.00	1543.00	1537.00	1535.00	1533.00	1531.00	1526.00	1523.00	1521.00	1517.00	1513.00	1503.00	1499.00	1496.00	1494.00	1491.00	1491.00	1490.00	1489.00	1489.00	1488.00	1488.00	1487.00	1489.00	1496.00	1503.00	1513.00	1522.00	1536.00	1565.00	1583.00	1597.00	1606.00	1558.00	1533.00	1515.00	1506.00	1502.00	1496.00	1499.00	1513.00	1541.00	1500.00	1421.00	1387.00	1361.00	1342.00	1333.00	1339.00	1346.00	1336.00	1286.00	1263.00	1240.00	1194.00	1165.00	1105.00	1091.00	1080.00	1070.00	1050.00	1044.00	1048.00	1054.00	1060.00	1077.00	1082.00	1090.00	1096.00	1105.00	1109.00	1111.00	1111.00	1113.00	1124.00	1133.00	1141.00	1150.00	1167.00	1174.00	1180.00	1187.00	1193.00	1201.00	1206.00	1216.00	1223.00	1237.00	1244.00	1250.00	1256.00	1269.00	1278.00	1288.00	1295.00	1301.00	1313.00	1316.00	1318.00	1319.00	1320.00	1319.00	1318.00	1317.00	1314.00	1304.00	1289.00	1279.00	1268.00	1240.00	1225.00	1211.00	1201.00	1197.00	1190.00	1186.00	1181.00	1170.00	1157.00	1153.00	1149.00	1145.00	1141.00	1133.00	1128.00	1120.00	1112.00	1094.00	1090.00	1087.00	1083.00	1079.00	1071.00	1068.00	1064.00	1059.00	1052.00	1041.00	1034.00	1026.00	1018.00	1001.00	982.00	954.00	924.00	858.00	836.00	823.00	809.00	809.00	810.00	810.00	808.00	805.00	795.00	794.00	798.00	824.00	869.00	748.00	654.00	635.00	641.00	564.00	465.00	407.00	397.00	379.00	307.00	264.00	247.00	231.00	213.00	209.00	205.00	200.00	193.00	171.00	160.00	150.00	131.00	113.00	104.00	86.00	61.00	58.00	62.00	67.00	71.00	72.00	75.00	75.00	76.00	77.00	77.00	63.00	59.00	58.00	58.00	56.00	47.00	43.00	40.00	38.00	35.00	33.00	30.00	29.00	27.00	25.00	24.00	22.00	20.00	17.00	16.00	16.00	15.00	15.00	14.00	14.00	14.00
1403.00	1412.00	1416.00	1420.00	1424.00	1437.00	1442.00	1447.00	1452.00	1457.00	1468.00	1475.00	1481.00	1489.00	1501.00	1513.00	1518.00	1523.00	1529.00	1539.00	1541.00	1543.00	1545.00	1550.00	1552.00	1554.00	1554.00	1553.00	1553.00	1553.00	1552.00	1552.00	1551.00	1550.00	1549.00	1549.00	1548.00	1543.00	1542.00	1541.00	1539.00	1535.00	1534.00	1532.00	1530.00	1528.00	1521.00	1518.00	1516.00	1513.00	1509.00	1508.00	1508.00	1508.00	1508.00	1509.00	1510.00	1516.00	1522.00	1535.00	1545.00	1559.00	1575.00	1590.00	1614.00	1617.00	1618.00	1616.00	1562.00	1540.00	1519.00	1505.00	1498.00	1490.00	1486.00	1484.00	1478.00	1433.00	1374.00	1345.00	1317.00	1297.00	1279.00	1286.00	1297.00	1309.00	1277.00	1250.00	1223.00	1173.00	1143.00	1096.00	1085.00	1075.00	1065.00	1044.00	1035.00	1032.00	1037.00	1042.00	1054.00	1058.00	1063.00	1067.00	1074.00	1077.00	1078.00	1077.00	1077.00	1086.00	1092.00	1097.00	1106.00	1126.00	1137.00	1148.00	1159.00	1170.00	1182.00	1187.00	1195.00	1201.00	1211.00	1217.00	1225.00	1232.00	1245.00	1252.00	1259.00	1267.00	1276.00	1300.00	1304.00	1307.00	1309.00	1312.00	1313.00	1312.00	1310.00	1307.00	1301.00	1289.00	1277.00	1264.00	1238.00	1222.00	1207.00	1198.00	1195.00	1187.00	1183.00	1179.00	1166.00	1154.00	1148.00	1143.00	1138.00	1133.00	1120.00	1115.00	1107.00	1099.00	1087.00	1082.00	1078.00	1074.00	1069.00	1060.00	1055.00	1049.00	1044.00	1034.00	1024.00	1018.00	1013.00	1007.00	988.00	964.00	938.00	911.00	873.00	863.00	855.00	844.00	840.00	830.00	821.00	813.00	805.00	790.00	782.00	773.00	768.00	772.00	864.00	896.00	948.00	935.00	734.00	704.00	699.00	691.00	655.00	509.00	418.00	365.00	312.00	236.00	212.00	203.00	193.00	185.00	168.00	160.00	152.00	134.00	115.00	107.00	99.00	73.00	58.00	62.00	65.00	67.00	68.00	71.00	71.00	72.00	73.00	76.00	68.00	61.00	58.00	56.00	51.00	45.00	42.00	39.00	38.00	35.00	32.00	30.00	28.00	25.00	24.00	23.00	21.00	19.00	17.00	16.00	15.00	14.00	13.00	12.00	12.00	12.00
1395.00	1405.00	1410.00	1414.00	1418.00	1432.00	1436.00	1440.00	1445.00	1451.00	1462.00	1468.00	1475.00	1480.00	1495.00	1508.00	1514.00	1520.00	1526.00	1538.00	1540.00	1543.00	1546.00	1551.00	1554.00	1555.00	1556.00	1556.00	1556.00	1556.00	1556.00	1555.00	1554.00	1554.00	1554.00	1553.00	1553.00	1550.00	1549.00	1549.00	1547.00	1545.00	1544.00	1543.00	1541.00	1541.00	1537.00	1535.00	1535.00	1533.00	1533.00	1533.00	1533.00	1533.00	1533.00	1536.00	1538.00	1545.00	1550.00	1571.00	1583.00	1597.00	1610.00	1616.00	1607.00	1601.00	1594.00	1585.00	1536.00	1518.00	1503.00	1488.00	1467.00	1420.00	1400.00	1385.00	1377.00	1354.00	1323.00	1298.00	1268.00	1246.00	1228.00	1237.00	1256.00	1276.00	1272.00	1245.00	1217.00	1152.00	1118.00	1089.00	1079.00	1069.00	1059.00	1039.00	1029.00	1020.00	1021.00	1025.00	1031.00	1033.00	1035.00	1036.00	1040.00	1041.00	1042.00	1041.00	1042.00	1054.00	1061.00	1067.00	1076.00	1093.00	1103.00	1117.00	1133.00	1148.00	1163.00	1168.00	1177.00	1181.00	1188.00	1191.00	1197.00	1203.00	1214.00	1222.00	1231.00	1240.00	1249.00	1272.00	1281.00	1288.00	1295.00	1303.00	1303.00	1303.00	1302.00	1300.00	1295.00	1282.00	1273.00	1263.00	1240.00	1227.00	1214.00	1203.00	1196.00	1187.00	1182.00	1178.00	1167.00	1157.00	1151.00	1144.00	1137.00	1128.00	1113.00	1108.00	1102.00	1097.00	1082.00	1077.00	1072.00	1066.00	1061.00	1050.00	1045.00	1040.00	1035.00	1026.00	1017.00	1012.00	1007.00	1003.00	985.00	967.00	948.00	929.00	898.00	887.00	876.00	856.00	849.00	834.00	820.00	810.00	802.00	790.00	782.00	774.00	766.00	756.00	741.00	775.00	844.00	872.00	820.00	825.00	818.00	797.00	781.00	750.00	626.00	547.00	480.00	386.00	365.00	325.00	282.00	270.00	261.00	260.00	257.00	218.00	184.00	172.00	121.00	81.00	62.00	58.00	59.00	61.00	62.00	62.00	60.00	59.00	59.00	59.00	56.00	55.00	53.00	52.00	49.00	44.00	41.00	39.00	38.00	34.00	32.00	29.00	27.00	23.00	22.00	21.00	19.00	19.00	17.00	16.00	15.00	14.00	12.00	11.00	11.00	11.00
1395.00	1405.00	1410.00	1414.00	1418.00	1432.00	1436.00	1440.00	1445.00	1451.00	1462.00	1468.00	1475.00	1480.00	1495.00	1508.00	1514.00	1520.00	1526.00	1538.00	1540.00	1543.00	1546.00	1551.00	1554.00	1555.00	1556.00	1556.00	1556.00	1556.00	1556.00	1555.00	1554.00	1554.00	1554.00	1553.00	1553.00	1550.00	1549.00	1549.00	1547.00	1545.00	1544.00	1543.00	1541.00	1541.00	1537.00	1535.00	1535.00	1533.00	1533.00	1533.00	1533.00	1533.00	1533.00	1536.00	1538.00	1545.00	1550.00	1571.00	1583.00	1597.00	1610.00	1616.00	1607.00	1601.00	1594.00	1585.00	1536.00	1518.00	1503.00	1488.00	1467.00	1420.00	1400.00	1385.00	1377.00	1354.00	1323.00	1298.00	1268.00	1246.00	1228.00	1237.00	1256.00	1276.00	1272.00	1245.00	1217.00	1152.00	1118.00	1089.00	1079.00	1069.00	1059.00	1039.00	1029.00	1020.00	1021.00	1025.00	1031.00	1033.00	1035.00	1036.00	1040.00	1041.00	1042.00	1041.00	1042.00	1054.00	1061.00	1067.00	1076.00	1093.00	1103.00	1117.00	1133.00	1148.00	1163.00	1168.00	1177.00	1181.00	1188.00	1191.00	1197.00	1203.00	1214.00	1222.00	1231.00	1240.00	1249.00	1272.00	1281.00	1288.00	1295.00	1303.00	1303.00	1303.00	1302.00	1300.00	1295.00	1282.00	1273.00	1263.00	1240.00	1227.00	1214.00	1203.00	1196.00	1187.00	1182.00	1178.00	1167.00	1157.00	1151.00	1144.00	1137.00	1128.00	1113.00	1108.00	1102.00	1097.00	1082.00	1077.00	1072.00	1066.00	1061.00	1050.00	1045.00	1040.00	1035.00	1026.00	1017.00	1012.00	1007.00	1003.00	985.00	967.00	948.00	929.00	898.00	887.00	876.00	856.00	849.00	834.00	820.00	810.00	802.00	790.00	782.00	774.00	766.00	756.00	741.00	775.00	844.00	872.00	820.00	825.00	818.00	797.00	781.00	750.00	626.00	547.00	480.00	386.00	365.00	325.00	282.00	270.00	261.00	260.00	257.00	218.00	184.00	172.00	121.00	81.00	62.00	58.00	59.00	61.00	62.00	62.00	60.00	59.00	59.00	59.00	56.00	55.00	53.00	52.00	49.00	44.00	41.00	39.00	38.00	34.00	32.00	29.00	27.00	23.00	22.00	21.00	19.00	19.00	17.00	16.00	15.00	14.00	12.00	11.00	11.00	11.00
1395.00	1405.00	1410.00	1414.00	1418.00	1432.00	1436.00	1440.00	1445.00	1451.00	1462.00	1468.00	1475.00	1480.00	1495.00	1508.00	1514.00	1520.00	1526.00	1538.00	1540.00	1543.00	1546.00	1551.00	1554.00	1555.00	1556.00	1556.00	1556.00	1556.00	1556.00	1555.00	1554.00	1554.00	1554.00	1553.00	1553.00	1550.00	1549.00	1549.00	1547.00	1545.00	1544.00	1543.00	1541.00	1541.00	1537.00	1535.00	1535.00	1533.00	1533.00	1533.00	1533.00	1533.00	1533.00	1536.00	1538.00	1545.00	1550.00	1571.00	1583.00	1597.00	1610.00	1616.00	1607.00	1601.00	1594.00	1585.00	1536.00	1518.00	1503.00	1488.00	1467.00	1420.00	1400.00	1385.00	1377.00	1354.00	1323.00	1298.00	1268.00	1246.00	1228.00	1237.00	1256.00	1276.00	1272.00	1245.00	1217.00	1152.00	1118.00	1089.00	1079.00	1069.00	1059.00	1039.00	1029.00	1020.00	1021.00	1025.00	1031.00	1033.00	1035.00	1036.00	1040.00	1041.00	1042.00	1041.00	1042.00	1054.00	1061.00	1067.00	1076.00	1093.00	1103.00	1117.00	1133.00	1148.00	1163.00	1168.00	1177.00	1181.00	1188.00	1191.00	1197.00	1203.00	1214.00	1222.00	1231.00	1240.00	1249.00	1272.00	1281.00	1288.00	1295.00	1303.00	1303.00	1303.00	1302.00	1300.00	1295.00	1282.00	1273.00	1263.00	1240.00	1227.00	1214.00	1203.00	1196.00	1187.00	1182.00	1178.00	1167.00	1157.00	1151.00	1144.00	1137.00	1128.00	1113.00	1108.00	1102.00	1097.00	1082.00	1077.00	1072.00	1066.00	1061.00	1050.00	1045.00	1040.00	1035.00	1026.00	1017.00	1012.00	1007.00	1003.00	985.00	967.00	948.00	929.00	898.00	887.00	876.00	856.00	849.00	834.00	820.00	810.00	802.00	790.00	782.00	774.00	766.00	756.00	741.00	775.00	844.00	872.00	820.00	825.00	818.00	797.00	781.00	750.00	626.00	547.00	480.00	386.00	365.00	325.00	282.00	270.00	261.00	260.00	257.00	218.00	184.00	172.00	121.00	81.00	62.00	58.00	59.00	61.00	62.00	62.00	60.00	59.00	59.00	59.00	56.00	55.00	53.00	52.00	49.00	44.00	41.00	39.00	38.00	34.00	32.00	29.00	27.00	23.00	22.00	21.00	19.00	19.00	17.00	16.00	15.00	14.00	12.00	11.00	11.00	11.00
