615.00	618.00	621.00	626.00	625.00	623.00	625.00	629.00	631.00	629.00	632.00	644.00	649.00	654.00	657.00	663.00	667.00	670.00	676.00	678.00	691.00	700.00	740.00	733.00	730.00	755.00	784.00	783.00	793.00	746.00	739.00	729.00	742.00	781.00	791.00	807.00	834.00	949.00	993.00	995.00	1079.00	1163.00	1030.00	985.00	925.00	875.00	1058.00	1025.00	956.00	973.00	1018.00	1002.00	1025.00	1019.00	1000.00	1021.00	1031.00	1056.00	1025.00	1048.00	1039.00	1051.00	1068.00	1068.00	1119.00	1081.00	1040.00	1111.00	1003.00	933.00	921.00	915.00	927.00	937.00	912.00	947.00	973.00	966.00	962.00	980.00	1005.00	1019.00	1068.00	1071.00	1059.00	1063.00	1076.00	1092.00	1053.00	1066.00	1082.00	1095.00	1019.00	999.00	981.00	963.00	1001.00	1018.00	993.00	967.00	949.00	926.00	897.00	866.00	848.00	834.00	810.00	801.00	792.00	774.00	779.00	796.00	840.00	834.00	857.00	804.00	786.00	821.00	835.00	797.00	785.00	787.00	789.00	800.00	813.00	810.00	792.00	763.00	775.00	785.00	782.00	789.00	821.00	810.00	799.00	793.00	796.00	795.00	797.00	807.00	816.00	798.00	782.00	777.00	796.00	822.00	830.00	824.00	836.00	845.00	877.00	866.00	864.00	870.00	878.00	892.00	903.00	904.00	919.00	929.00	936.00	941.00	945.00	944.00	943.00	955.00	942.00	910.00	895.00	900.00	906.00	918.00	923.00	935.00	934.00	933.00	940.00	943.00	937.00	965.00	993.00	978.00	951.00	929.00	920.00	901.00	897.00	904.00	919.00	925.00	911.00	920.00	932.00	946.00	912.00	916.00	907.00	907.00	903.00	874.00	879.00	871.00	861.00	841.00	843.00	850.00	857.00	869.00	876.00	884.00	889.00	900.00	910.00	914.00	919.00	925.00	934.00	945.00	954.00	964.00	971.00	1023.00	1019.00	969.00	990.00	1010.00	999.00	987.00	979.00	971.00	969.00	958.00	962.00	955.00	956.00	970.00	976.00	981.00	985.00	998.00	1007.00	1019.00	1050.00	1102.00	1183.00	1210.00	1216.00	1235.00	1291.00	1348.00	1393.00	1398.00	1424.00	1374.00	1367.00	1316.00
618.00	625.00	630.00	631.00	630.00	631.00	630.00	632.00	636.00	635.00	637.00	647.00	652.00	657.00	662.00	669.00	671.00	676.00	681.00	686.00	687.00	690.00	704.00	712.00	723.00	760.00	776.00	778.00	806.00	765.00	747.00	734.00	738.00	775.00	814.00	835.00	874.00	928.00	928.00	916.00	1000.00	1110.00	1017.00	961.00	939.00	893.00	952.00	938.00	944.00	969.00	1015.00	980.00	980.00	1006.00	991.00	1006.00	995.00	1004.00	1032.00	1062.00	1020.00	1015.00	1028.00	1022.00	1086.00	1134.00	1107.00	1089.00	1006.00	954.00	940.00	952.00	945.00	954.00	949.00	969.00	993.00	986.00	992.00	1019.00	1047.00	1011.00	1025.00	1053.00	1053.00	1055.00	1063.00	1067.00	1060.00	1052.00	1074.00	1087.00	1070.00	1061.00	1052.00	1057.00	1090.00	1073.00	1015.00	959.00	929.00	937.00	898.00	879.00	882.00	832.00	829.00	811.00	797.00	786.00	789.00	809.00	822.00	844.00	868.00	822.00	794.00	800.00	831.00	800.00	794.00	796.00	805.00	829.00	826.00	814.00	802.00	777.00	777.00	798.00	807.00	814.00	829.00	819.00	803.00	800.00	801.00	805.00	823.00	815.00	825.00	812.00	790.00	784.00	790.00	818.00	812.00	817.00	828.00	834.00	859.00	855.00	854.00	859.00	867.00	875.00	884.00	895.00	899.00	914.00	915.00	924.00	929.00	949.00	971.00	946.00	928.00	916.00	917.00	908.00	908.00	911.00	927.00	932.00	943.00	955.00	954.00	954.00	946.00	966.00	977.00	969.00	947.00	936.00	932.00	914.00	909.00	905.00	908.00	915.00	922.00	923.00	931.00	942.00	921.00	925.00	923.00	914.00	919.00	892.00	893.00	880.00	872.00	846.00	849.00	856.00	862.00	870.00	884.00	898.00	908.00	911.00	919.00	925.00	931.00	936.00	943.00	960.00	974.00	980.00	987.00	994.00	982.00	978.00	986.00	1031.00	1015.00	995.00	990.00	982.00	979.00	967.00	972.00	967.00	963.00	977.00	981.00	986.00	992.00	1003.00	1013.00	1022.00	1054.00	1096.00	1162.00	1206.00	1227.00	1214.00	1270.00	1324.00	1347.00	1377.00	1383.00	1329.00	1325.00	1323.00
631.00	653.00	645.00	648.00	651.00	646.00	645.00	648.00	653.00	657.00	657.00	662.00	663.00	667.00	673.00	682.00	692.00	705.00	718.00	717.00	706.00	709.00	707.00	707.00	717.00	730.00	735.00	738.00	745.00	807.00	807.00	780.00	760.00	755.00	772.00	788.00	798.00	829.00	860.00	864.00	893.00	955.00	944.00	908.00	900.00	904.00	913.00	934.00	941.00	965.00	969.00	966.00	948.00	984.00	986.00	983.00	974.00	1002.00	996.00	1016.00	1007.00	996.00	989.00	985.00	984.00	987.00	987.00	979.00	975.00	989.00	1003.00	1001.00	970.00	944.00	952.00	948.00	981.00	971.00	977.00	1028.00	1020.00	998.00	993.00	999.00	1023.00	1046.00	1041.00	1049.00	1022.00	1030.00	1037.00	1075.00	1037.00	1011.00	1019.00	1038.00	1024.00	1008.00	993.00	1056.00	927.00	916.00	911.00	895.00	874.00	867.00	898.00	913.00	839.00	803.00	807.00	837.00	884.00	890.00	859.00	823.00	810.00	818.00	818.00	832.00	850.00	832.00	837.00	819.00	808.00	805.00	793.00	779.00	783.00	788.00	793.00	802.00	838.00	828.00	817.00	818.00	830.00	831.00	842.00	851.00	900.00	821.00	806.00	823.00	839.00	798.00	796.00	802.00	811.00	815.00	828.00	828.00	838.00	839.00	852.00	860.00	867.00	873.00	879.00	896.00	897.00	908.00	910.00	916.00	924.00	930.00	941.00	933.00	964.00	938.00	947.00	924.00	941.00	946.00	963.00	986.00	983.00	977.00	975.00	981.00	993.00	986.00	984.00	978.00	950.00	934.00	940.00	936.00	922.00	944.00	950.00	932.00	940.00	953.00	969.00	955.00	941.00	930.00	923.00	904.00	877.00	868.00	860.00	865.00	878.00	876.00	873.00	881.00	899.00	907.00	920.00	935.00	943.00	947.00	955.00	966.00	982.00	988.00	995.00	1021.00	1039.00	1025.00	1011.00	1006.00	999.00	998.00	1038.00	1028.00	1019.00	1011.00	986.00	988.00	992.00	988.00	983.00	983.00	989.00	995.00	1002.00	1017.00	1024.00	1034.00	1067.00	1087.00	1133.00	1148.00	1178.00	1213.00	1262.00	1311.00	1336.00	1278.00	1296.00	1275.00	1234.00	1260.00
622.00	676.00	661.00	657.00	662.00	663.00	666.00	667.00	667.00	668.00	666.00	669.00	673.00	676.00	682.00	695.00	701.00	723.00	749.00	747.00	747.00	741.00	723.00	716.00	712.00	717.00	723.00	728.00	734.00	753.00	762.00	777.00	795.00	762.00	761.00	769.00	783.00	846.00	891.00	921.00	908.00	940.00	919.00	891.00	883.00	893.00	903.00	925.00	966.00	972.00	959.00	942.00	956.00	973.00	978.00	964.00	970.00	1019.00	1028.00	1047.00	1011.00	990.00	990.00	980.00	969.00	969.00	971.00	966.00	975.00	1004.00	987.00	973.00	981.00	945.00	932.00	966.00	1029.00	981.00	950.00	974.00	1011.00	991.00	991.00	1001.00	1028.00	1054.00	1050.00	1017.00	1008.00	1018.00	1068.00	1135.00	1101.00	1067.00	985.00	1019.00	966.00	970.00	961.00	968.00	926.00	911.00	905.00	906.00	892.00	882.00	906.00	884.00	836.00	818.00	829.00	857.00	891.00	898.00	852.00	827.00	827.00	834.00	833.00	830.00	856.00	868.00	837.00	819.00	811.00	803.00	806.00	782.00	788.00	796.00	798.00	806.00	841.00	839.00	826.00	822.00	831.00	848.00	852.00	855.00	879.00	856.00	826.00	826.00	808.00	799.00	805.00	807.00	817.00	820.00	833.00	842.00	833.00	839.00	844.00	852.00	862.00	868.00	879.00	881.00	887.00	894.00	899.00	906.00	921.00	921.00	935.00	929.00	976.00	961.00	948.00	932.00	968.00	965.00	979.00	1019.00	987.00	988.00	992.00	993.00	996.00	1005.00	1004.00	990.00	948.00	941.00	932.00	928.00	929.00	951.00	949.00	942.00	946.00	959.00	971.00	956.00	949.00	944.00	940.00	902.00	877.00	867.00	860.00	863.00	877.00	885.00	880.00	888.00	909.00	915.00	925.00	944.00	957.00	961.00	969.00	984.00	996.00	1009.00	1001.00	1016.00	1029.00	1036.00	1026.00	1022.00	1008.00	1008.00	1012.00	1021.00	1012.00	1002.00	993.00	1006.00	1002.00	997.00	995.00	988.00	993.00	1000.00	1006.00	1022.00	1029.00	1038.00	1060.00	1074.00	1146.00	1167.00	1200.00	1239.00	1272.00	1297.00	1304.00	1285.00	1250.00	1260.00	1220.00	1253.00
629.00	674.00	682.00	677.00	682.00	704.00	728.00	700.00	690.00	687.00	681.00	678.00	682.00	686.00	687.00	696.00	702.00	714.00	727.00	753.00	765.00	757.00	754.00	739.00	721.00	720.00	721.00	727.00	732.00	742.00	751.00	760.00	777.00	820.00	798.00	776.00	770.00	838.00	915.00	1014.00	961.00	899.00	877.00	856.00	867.00	872.00	899.00	933.00	926.00	936.00	952.00	930.00	938.00	952.00	960.00	968.00	974.00	995.00	1059.00	1051.00	1010.00	991.00	978.00	978.00	960.00	957.00	956.00	959.00	983.00	1072.00	1030.00	994.00	992.00	958.00	918.00	932.00	942.00	995.00	950.00	969.00	992.00	978.00	980.00	999.00	1028.00	1078.00	1052.00	1001.00	996.00	1070.00	1187.00	1073.00	1049.00	1019.00	974.00	1006.00	954.00	946.00	938.00	928.00	910.00	903.00	899.00	897.00	903.00	873.00	860.00	852.00	859.00	841.00	886.00	883.00	887.00	876.00	839.00	830.00	846.00	868.00	849.00	839.00	848.00	852.00	834.00	829.00	813.00	806.00	805.00	787.00	794.00	799.00	804.00	810.00	841.00	837.00	831.00	837.00	846.00	863.00	879.00	879.00	894.00	866.00	828.00	814.00	803.00	798.00	802.00	811.00	820.00	825.00	845.00	851.00	848.00	849.00	856.00	853.00	857.00	860.00	864.00	874.00	879.00	885.00	888.00	896.00	902.00	905.00	913.00	918.00	952.00	957.00	938.00	935.00	953.00	968.00	984.00	990.00	1025.00	1008.00	1005.00	1011.00	1005.00	989.00	977.00	977.00	958.00	940.00	952.00	943.00	933.00	944.00	955.00	960.00	962.00	960.00	981.00	960.00	946.00	940.00	931.00	900.00	881.00	866.00	865.00	869.00	881.00	896.00	892.00	895.00	918.00	921.00	931.00	952.00	971.00	976.00	984.00	996.00	1010.00	1024.00	1014.00	1017.00	1026.00	1049.00	1033.00	1020.00	1023.00	1019.00	1019.00	1017.00	1012.00	1009.00	1004.00	1005.00	1005.00	1009.00	1005.00	1002.00	1002.00	1005.00	1010.00	1027.00	1035.00	1043.00	1058.00	1068.00	1144.00	1160.00	1183.00	1220.00	1223.00	1225.00	1250.00	1229.00	1224.00	1205.00	1227.00	1263.00
643.00	680.00	716.00	716.00	706.00	704.00	779.00	724.00	735.00	727.00	719.00	696.00	695.00	699.00	698.00	708.00	708.00	712.00	727.00	747.00	768.00	752.00	748.00	749.00	729.00	727.00	726.00	735.00	742.00	745.00	750.00	755.00	764.00	830.00	857.00	815.00	785.00	819.00	914.00	962.00	886.00	877.00	840.00	866.00	866.00	872.00	899.00	904.00	906.00	921.00	926.00	929.00	946.00	947.00	949.00	990.00	968.00	985.00	1013.00	1120.00	1015.00	985.00	975.00	967.00	954.00	949.00	950.00	960.00	970.00	1093.00	1127.00	1052.00	975.00	933.00	911.00	914.00	915.00	939.00	937.00	981.00	989.00	979.00	972.00	978.00	999.00	1072.00	1080.00	1011.00	991.00	1112.00	1190.00	1095.00	997.00	985.00	946.00	953.00	943.00	931.00	928.00	928.00	919.00	909.00	895.00	891.00	891.00	881.00	924.00	907.00	877.00	858.00	901.00	899.00	873.00	869.00	839.00	836.00	855.00	872.00	853.00	856.00	858.00	843.00	838.00	847.00	835.00	817.00	804.00	793.00	800.00	807.00	809.00	813.00	846.00	840.00	846.00	846.00	862.00	888.00	875.00	867.00	866.00	840.00	824.00	815.00	804.00	807.00	806.00	805.00	822.00	829.00	845.00	851.00	861.00	861.00	870.00	871.00	873.00	869.00	871.00	884.00	878.00	882.00	886.00	896.00	902.00	913.00	915.00	914.00	932.00	941.00	937.00	939.00	948.00	964.00	993.00	1016.00	1047.00	1038.00	1016.00	1013.00	1002.00	981.00	970.00	969.00	966.00	949.00	954.00	947.00	941.00	938.00	961.00	973.00	975.00	967.00	999.00	964.00	959.00	952.00	939.00	898.00	879.00	869.00	871.00	875.00	880.00	895.00	901.00	903.00	918.00	929.00	939.00	959.00	984.00	991.00	1002.00	1020.00	1032.00	1038.00	1027.00	1028.00	1032.00	1049.00	1038.00	1031.00	1029.00	1027.00	1028.00	1026.00	1024.00	1016.00	1014.00	1016.00	1012.00	1023.00	1011.00	1012.00	1014.00	1016.00	1016.00	1030.00	1039.00	1049.00	1065.00	1071.00	1120.00	1153.00	1175.00	1161.00	1185.00	1202.00	1201.00	1188.00	1178.00	1215.00	1237.00	1250.00
649.00	678.00	706.00	700.00	690.00	716.00	748.00	774.00	805.00	842.00	806.00	763.00	746.00	746.00	757.00	763.00	758.00	759.00	763.00	757.00	752.00	761.00	754.00	750.00	759.00	754.00	747.00	736.00	738.00	752.00	760.00	771.00	779.00	827.00	856.00	853.00	822.00	790.00	796.00	806.00	818.00	829.00	828.00	842.00	855.00	873.00	873.00	882.00	874.00	900.00	932.00	923.00	991.00	941.00	936.00	955.00	964.00	970.00	998.00	1023.00	1047.00	991.00	971.00	960.00	942.00	939.00	938.00	944.00	947.00	1068.00	1122.00	1043.00	997.00	935.00	908.00	902.00	899.00	916.00	1006.00	1026.00	960.00	949.00	990.00	998.00	1006.00	1166.00	1296.00	1213.00	1099.00	998.00	965.00	1072.00	1032.00	947.00	927.00	919.00	914.00	908.00	910.00	924.00	964.00	977.00	912.00	893.00	883.00	891.00	900.00	936.00	916.00	902.00	900.00	923.00	895.00	874.00	877.00	870.00	873.00	875.00	908.00	899.00	900.00	893.00	895.00	862.00	854.00	836.00	817.00	807.00	808.00	814.00	821.00	827.00	848.00	865.00	887.00	907.00	892.00	906.00	900.00	888.00	883.00	910.00	835.00	823.00	817.00	820.00	819.00	820.00	826.00	818.00	840.00	848.00	864.00	887.00	942.00	926.00	919.00	902.00	887.00	882.00	885.00	888.00	895.00	906.00	913.00	916.00	926.00	930.00	928.00	937.00	943.00	948.00	954.00	956.00	960.00	969.00	994.00	999.00	1007.00	1016.00	1027.00	1011.00	1011.00	1006.00	989.00	982.00	959.00	954.00	950.00	946.00	960.00	970.00	974.00	960.00	952.00	948.00	957.00	936.00	922.00	894.00	878.00	883.00	891.00	890.00	890.00	894.00	907.00	922.00	930.00	953.00	986.00	984.00	1003.00	1015.00	1022.00	1027.00	1039.00	1056.00	1054.00	1056.00	1054.00	1072.00	1074.00	1057.00	1051.00	1053.00	1051.00	1048.00	1040.00	1033.00	1035.00	1048.00	1035.00	1037.00	1026.00	1029.00	1037.00	1040.00	1041.00	1044.00	1044.00	1052.00	1069.00	1077.00	1112.00	1110.00	1117.00	1125.00	1152.00	1180.00	1193.00	1208.00	1194.00	1223.00	1247.00	1284.00
662.00	641.00	661.00	669.00	682.00	689.00	712.00	718.00	743.00	760.00	744.00	784.00	820.00	813.00	820.00	814.00	810.00	809.00	808.00	791.00	791.00	785.00	778.00	776.00	777.00	756.00	747.00	741.00	743.00	754.00	755.00	759.00	769.00	865.00	839.00	829.00	833.00	804.00	801.00	806.00	809.00	815.00	821.00	836.00	852.00	861.00	865.00	867.00	870.00	888.00	908.00	917.00	955.00	922.00	934.00	981.00	978.00	982.00	984.00	1016.00	1011.00	992.00	969.00	956.00	938.00	934.00	931.00	934.00	960.00	1035.00	1068.00	988.00	955.00	924.00	904.00	895.00	893.00	903.00	934.00	986.00	987.00	931.00	960.00	973.00	997.00	1169.00	1205.00	1112.00	1079.00	1004.00	940.00	1005.00	948.00	930.00	936.00	913.00	896.00	901.00	909.00	932.00	950.00	942.00	966.00	961.00	899.00	883.00	923.00	893.00	883.00	875.00	892.00	908.00	881.00	860.00	868.00	863.00	867.00	882.00	895.00	899.00	892.00	887.00	884.00	862.00	854.00	833.00	821.00	812.00	815.00	816.00	824.00	834.00	852.00	873.00	894.00	937.00	922.00	946.00	933.00	893.00	866.00	841.00	829.00	827.00	825.00	826.00	824.00	828.00	833.00	819.00	835.00	844.00	858.00	879.00	973.00	980.00	1001.00	992.00	905.00	882.00	888.00	894.00	901.00	918.00	925.00	924.00	924.00	937.00	933.00	946.00	952.00	952.00	960.00	964.00	962.00	968.00	984.00	990.00	1002.00	1025.00	1020.00	1018.00	1005.00	996.00	983.00	970.00	964.00	961.00	954.00	953.00	954.00	952.00	948.00	953.00	940.00	939.00	939.00	926.00	921.00	892.00	883.00	887.00	894.00	899.00	894.00	901.00	905.00	916.00	942.00	950.00	974.00	985.00	1013.00	1023.00	1035.00	1039.00	1043.00	1065.00	1066.00	1065.00	1058.00	1086.00	1072.00	1069.00	1057.00	1064.00	1063.00	1054.00	1048.00	1047.00	1053.00	1052.00	1050.00	1045.00	1037.00	1039.00	1048.00	1054.00	1053.00	1060.00	1058.00	1059.00	1079.00	1091.00	1130.00	1118.00	1128.00	1141.00	1153.00	1157.00	1184.00	1198.00	1208.00	1224.00	1240.00	1247.00
662.00	641.00	661.00	669.00	682.00	689.00	712.00	718.00	743.00	760.00	744.00	784.00	820.00	813.00	820.00	814.00	810.00	809.00	808.00	791.00	791.00	785.00	778.00	776.00	777.00	756.00	747.00	741.00	743.00	754.00	755.00	759.00	769.00	865.00	839.00	829.00	833.00	804.00	801.00	806.00	809.00	815.00	821.00	836.00	852.00	861.00	865.00	867.00	870.00	888.00	908.00	917.00	955.00	922.00	934.00	981.00	978.00	982.00	984.00	1016.00	1011.00	992.00	969.00	956.00	938.00	934.00	931.00	934.00	960.00	1035.00	1068.00	988.00	955.00	924.00	904.00	895.00	893.00	903.00	934.00	986.00	987.00	931.00	960.00	973.00	997.00	1169.00	1205.00	1112.00	1079.00	1004.00	940.00	1005.00	948.00	930.00	936.00	913.00	896.00	901.00	909.00	932.00	950.00	942.00	966.00	961.00	899.00	883.00	923.00	893.00	883.00	875.00	892.00	908.00	881.00	860.00	868.00	863.00	867.00	882.00	895.00	899.00	892.00	887.00	884.00	862.00	854.00	833.00	821.00	812.00	815.00	816.00	824.00	834.00	852.00	873.00	894.00	937.00	922.00	946.00	933.00	893.00	866.00	841.00	829.00	827.00	825.00	826.00	824.00	828.00	833.00	819.00	835.00	844.00	858.00	879.00	973.00	980.00	1001.00	992.00	905.00	882.00	888.00	894.00	901.00	918.00	925.00	924.00	924.00	937.00	933.00	946.00	952.00	952.00	960.00	964.00	962.00	968.00	984.00	990.00	1002.00	1025.00	1020.00	1018.00	1005.00	996.00	983.00	970.00	964.00	961.00	954.00	953.00	954.00	952.00	948.00	953.00	940.00	939.00	939.00	926.00	921.00	892.00	883.00	887.00	894.00	899.00	894.00	901.00	905.00	916.00	942.00	950.00	974.00	985.00	1013.00	1023.00	1035.00	1039.00	1043.00	1065.00	1066.00	1065.00	1058.00	1086.00	1072.00	1069.00	1057.00	1064.00	1063.00	1054.00	1048.00	1047.00	1053.00	1052.00	1050.00	1045.00	1037.00	1039.00	1048.00	1054.00	1053.00	1060.00	1058.00	1059.00	1079.00	1091.00	1130.00	1118.00	1128.00	1141.00	1153.00	1157.00	1184.00	1198.00	1208.00	1224.00	1240.00	1247.00
651.00	660.00	646.00	660.00	672.00	682.00	699.00	706.00	720.00	710.00	716.00	765.00	764.00	794.00	800.00	815.00	835.00	819.00	777.00	769.00	762.00	766.00	760.00	779.00	786.00	774.00	764.00	749.00	748.00	760.00	766.00	763.00	770.00	801.00	815.00	838.00	856.00	820.00	813.00	811.00	820.00	826.00	834.00	834.00	841.00	847.00	860.00	879.00	875.00	875.00	893.00	900.00	920.00	916.00	936.00	1000.00	986.00	990.00	1008.00	1066.00	1015.00	990.00	975.00	960.00	934.00	929.00	927.00	929.00	943.00	1011.00	964.00	934.00	928.00	924.00	895.00	890.00	888.00	891.00	902.00	933.00	936.00	922.00	939.00	935.00	981.00	1073.00	1082.00	1044.00	998.00	958.00	931.00	931.00	916.00	911.00	921.00	903.00	890.00	901.00	930.00	948.00	928.00	906.00	936.00	950.00	936.00	873.00	917.00	876.00	870.00	861.00	879.00	899.00	876.00	864.00	851.00	868.00	864.00	891.00	883.00	902.00	895.00	894.00	875.00	865.00	868.00	851.00	838.00	824.00	825.00	823.00	830.00	841.00	855.00	894.00	886.00	910.00	922.00	906.00	919.00	898.00	885.00	839.00	831.00	832.00	829.00	831.00	834.00	840.00	841.00	833.00	827.00	830.00	851.00	860.00	908.00	948.00	952.00	942.00	894.00	885.00	891.00	898.00	903.00	921.00	932.00	941.00	937.00	936.00	938.00	950.00	954.00	960.00	971.00	969.00	968.00	971.00	987.00	994.00	1015.00	1029.00	1043.00	1024.00	1016.00	1008.00	989.00	979.00	979.00	966.00	961.00	960.00	947.00	940.00	938.00	941.00	935.00	928.00	924.00	918.00	909.00	893.00	889.00	892.00	896.00	907.00	900.00	908.00	910.00	916.00	948.00	945.00	955.00	983.00	1007.00	1018.00	1038.00	1053.00	1052.00	1067.00	1057.00	1060.00	1064.00	1086.00	1079.00	1070.00	1081.00	1088.00	1066.00	1068.00	1063.00	1057.00	1069.00	1056.00	1061.00	1052.00	1051.00	1055.00	1057.00	1062.00	1068.00	1079.00	1101.00	1137.00	1120.00	1126.00	1147.00	1152.00	1153.00	1159.00	1170.00	1176.00	1174.00	1181.00	1201.00	1233.00	1229.00	1227.00
655.00	653.00	662.00	659.00	658.00	664.00	663.00	669.00	675.00	679.00	684.00	699.00	701.00	704.00	710.00	710.00	711.00	712.00	715.00	719.00	725.00	729.00	738.00	743.00	745.00	752.00	758.00	766.00	776.00	777.00	769.00	780.00	786.00	796.00	802.00	806.00	818.00	824.00	828.00	831.00	836.00	841.00	861.00	861.00	867.00	865.00	863.00	861.00	863.00	870.00	876.00	888.00	891.00	902.00	912.00	945.00	943.00	1004.00	1002.00	1094.00	1000.00	975.00	961.00	952.00	940.00	933.00	922.00	916.00	920.00	917.00	910.00	904.00	899.00	892.00	889.00	892.00	880.00	878.00	875.00	885.00	909.00	911.00	925.00	939.00	922.00	937.00	946.00	940.00	938.00	933.00	914.00	908.00	903.00	895.00	887.00	886.00	916.00	913.00	948.00	919.00	933.00	884.00	874.00	872.00	873.00	913.00	888.00	858.00	854.00	873.00	859.00	854.00	846.00	843.00	841.00	844.00	850.00	856.00	885.00	867.00	865.00	866.00	859.00	848.00	844.00	841.00	835.00	844.00	859.00	865.00	868.00	869.00	866.00	864.00	871.00	882.00	909.00	893.00	874.00	863.00	852.00	847.00	846.00	845.00	840.00	841.00	849.00	859.00	862.00	855.00	850.00	849.00	852.00	864.00	861.00	865.00	866.00	872.00	889.00	912.00	901.00	904.00	915.00	983.00	983.00	985.00	993.00	960.00	950.00	961.00	965.00	968.00	995.00	1018.00	1005.00	997.00	1004.00	1015.00	1016.00	1039.00	1039.00	1015.00	1007.00	1009.00	1012.00	1002.00	1018.00	992.00	979.00	972.00	944.00	942.00	938.00	936.00	921.00	917.00	915.00	908.00	903.00	900.00	902.00	913.00	919.00	925.00	925.00	914.00	916.00	930.00	940.00	951.00	971.00	990.00	1012.00	1020.00	1022.00	1033.00	1041.00	1032.00	1034.00	1044.00	1052.00	1089.00	1100.00	1133.00	1109.00	1091.00	1092.00	1090.00	1086.00	1081.00	1096.00	1077.00	1096.00	1104.00	1107.00	1115.00	1106.00	1102.00	1095.00	1192.00	1204.00	1243.00	1254.00	1199.00	1168.00	1195.00	1222.00	1210.00	1200.00	1197.00	1215.00	1205.00	1212.00	1210.00	1206.00	1203.00
663.00	667.00	665.00	662.00	662.00	666.00	672.00	667.00	672.00	673.00	678.00	688.00	692.00	696.00	700.00	703.00	706.00	709.00	712.00	721.00	723.00	726.00	734.00	738.00	746.00	749.00	751.00	759.00	766.00	771.00	780.00	782.00	782.00	799.00	798.00	802.00	808.00	816.00	821.00	829.00	836.00	844.00	860.00	861.00	860.00	859.00	883.00	879.00	875.00	875.00	875.00	888.00	891.00	905.00	909.00	926.00	932.00	955.00	1031.00	1080.00	1000.00	981.00	955.00	950.00	927.00	930.00	922.00	914.00	910.00	907.00	903.00	897.00	892.00	883.00	877.00	876.00	877.00	879.00	869.00	882.00	882.00	891.00	893.00	891.00	891.00	899.00	926.00	922.00	919.00	912.00	908.00	903.00	895.00	891.00	883.00	885.00	879.00	895.00	919.00	906.00	897.00	901.00	888.00	860.00	859.00	865.00	849.00	848.00	852.00	883.00	871.00	850.00	843.00	842.00	834.00	840.00	851.00	852.00	852.00	855.00	859.00	862.00	860.00	852.00	850.00	841.00	838.00	837.00	844.00	859.00	872.00	893.00	872.00	872.00	882.00	891.00	893.00	897.00	888.00	871.00	855.00	858.00	854.00	852.00	848.00	847.00	851.00	858.00	863.00	853.00	854.00	856.00	858.00	865.00	868.00	868.00	875.00	877.00	879.00	917.00	918.00	925.00	933.00	969.00	976.00	982.00	962.00	949.00	956.00	969.00	974.00	976.00	986.00	996.00	992.00	989.00	1022.00	1033.00	1038.00	1047.00	1043.00	1021.00	1022.00	1024.00	1029.00	1003.00	1004.00	992.00	985.00	976.00	952.00	943.00	939.00	935.00	920.00	915.00	913.00	910.00	908.00	906.00	906.00	914.00	927.00	935.00	938.00	924.00	920.00	929.00	957.00	971.00	976.00	997.00	998.00	1008.00	1023.00	1023.00	1020.00	1027.00	1042.00	1052.00	1057.00	1096.00	1114.00	1107.00	1097.00	1099.00	1106.00	1107.00	1130.00	1130.00	1149.00	1115.00	1110.00	1198.00	1228.00	1179.00	1159.00	1160.00	1137.00	1153.00	1167.00	1184.00	1248.00	1243.00	1194.00	1200.00	1233.00	1245.00	1219.00	1213.00	1223.00	1227.00	1228.00	1201.00	1193.00	1194.00
662.00	661.00	674.00	668.00	666.00	668.00	674.00	676.00	675.00	681.00	682.00	693.00	691.00	691.00	694.00	702.00	708.00	714.00	722.00	728.00	731.00	733.00	735.00	738.00	747.00	753.00	756.00	756.00	759.00	764.00	767.00	771.00	775.00	785.00	788.00	794.00	797.00	812.00	815.00	820.00	828.00	841.00	861.00	856.00	849.00	851.00	873.00	876.00	882.00	892.00	902.00	888.00	895.00	907.00	917.00	924.00	928.00	946.00	973.00	980.00	982.00	960.00	950.00	939.00	921.00	916.00	910.00	907.00	908.00	904.00	897.00	891.00	895.00	883.00	871.00	869.00	868.00	875.00	866.00	872.00	880.00	886.00	885.00	881.00	880.00	885.00	918.00	910.00	903.00	904.00	895.00	895.00	894.00	888.00	879.00	875.00	868.00	875.00	881.00	909.00	879.00	880.00	892.00	855.00	860.00	846.00	841.00	842.00	847.00	867.00	874.00	887.00	850.00	837.00	837.00	844.00	843.00	845.00	856.00	865.00	872.00	873.00	869.00	865.00	863.00	848.00	852.00	844.00	847.00	851.00	865.00	897.00	889.00	877.00	885.00	895.00	891.00	876.00	874.00	879.00	864.00	865.00	862.00	858.00	858.00	854.00	854.00	859.00	867.00	859.00	858.00	864.00	859.00	867.00	876.00	874.00	878.00	883.00	890.00	897.00	915.00	924.00	920.00	929.00	930.00	935.00	940.00	947.00	964.00	985.00	998.00	988.00	990.00	995.00	993.00	991.00	997.00	1008.00	1021.00	1033.00	1051.00	1034.00	1039.00	1037.00	1035.00	1014.00	1007.00	993.00	993.00	984.00	950.00	944.00	937.00	931.00	929.00	921.00	917.00	914.00	912.00	914.00	913.00	915.00	918.00	946.00	940.00	927.00	927.00	929.00	954.00	953.00	962.00	970.00	986.00	991.00	1000.00	1003.00	1012.00	1027.00	1034.00	1041.00	1053.00	1141.00	1117.00	1112.00	1114.00	1116.00	1118.00	1148.00	1218.00	1221.00	1276.00	1235.00	1180.00	1141.00	1204.00	1228.00	1212.00	1165.00	1160.00	1209.00	1215.00	1208.00	1224.00	1252.00	1221.00	1241.00	1279.00	1272.00	1243.00	1239.00	1245.00	1238.00	1224.00	1191.00	1185.00	1186.00
664.00	665.00	674.00	680.00	675.00	675.00	677.00	681.00	679.00	684.00	690.00	702.00	701.00	703.00	704.00	702.00	706.00	720.00	727.00	732.00	739.00	741.00	737.00	738.00	745.00	750.00	753.00	756.00	760.00	769.00	773.00	773.00	776.00	788.00	789.00	792.00	796.00	805.00	813.00	817.00	819.00	827.00	847.00	848.00	843.00	850.00	862.00	873.00	876.00	886.00	892.00	897.00	895.00	914.00	921.00	942.00	937.00	937.00	943.00	947.00	975.00	963.00	952.00	940.00	917.00	911.00	907.00	902.00	901.00	903.00	895.00	889.00	892.00	891.00	867.00	865.00	866.00	864.00	863.00	870.00	875.00	877.00	876.00	874.00	870.00	903.00	906.00	899.00	894.00	893.00	893.00	885.00	887.00	884.00	877.00	869.00	864.00	877.00	885.00	917.00	909.00	866.00	866.00	849.00	845.00	840.00	841.00	840.00	838.00	842.00	847.00	869.00	890.00	861.00	827.00	831.00	837.00	839.00	853.00	861.00	865.00	872.00	872.00	876.00	867.00	861.00	867.00	854.00	853.00	855.00	865.00	882.00	906.00	901.00	891.00	895.00	890.00	880.00	883.00	890.00	870.00	880.00	869.00	872.00	871.00	864.00	863.00	863.00	873.00	864.00	866.00	868.00	870.00	867.00	880.00	894.00	886.00	888.00	894.00	895.00	907.00	911.00	918.00	920.00	926.00	933.00	941.00	952.00	973.00	999.00	1010.00	1005.00	1006.00	1000.00	999.00	1000.00	1005.00	1007.00	1016.00	1022.00	1030.00	1046.00	1058.00	1068.00	1058.00	1029.00	1017.00	1003.00	1006.00	983.00	951.00	943.00	937.00	932.00	933.00	925.00	925.00	920.00	918.00	914.00	918.00	920.00	922.00	936.00	944.00	938.00	940.00	942.00	940.00	944.00	950.00	977.00	988.00	999.00	1003.00	1009.00	1021.00	1034.00	1040.00	1049.00	1056.00	1111.00	1102.00	1113.00	1127.00	1124.00	1141.00	1148.00	1156.00	1182.00	1246.00	1237.00	1206.00	1170.00	1155.00	1201.00	1214.00	1204.00	1181.00	1225.00	1256.00	1265.00	1247.00	1265.00	1274.00	1296.00	1321.00	1300.00	1269.00	1251.00	1236.00	1224.00	1216.00	1187.00	1180.00	1183.00
683.00	680.00	679.00	686.00	689.00	693.00	688.00	684.00	688.00	691.00	687.00	704.00	712.00	717.00	718.00	714.00	712.00	711.00	713.00	718.00	728.00	731.00	737.00	743.00	756.00	753.00	754.00	758.00	761.00	768.00	772.00	777.00	781.00	790.00	794.00	799.00	800.00	805.00	808.00	813.00	816.00	821.00	827.00	837.00	845.00	850.00	863.00	870.00	878.00	903.00	925.00	896.00	899.00	907.00	918.00	918.00	922.00	929.00	935.00	942.00	938.00	943.00	952.00	943.00	921.00	911.00	904.00	897.00	892.00	890.00	885.00	882.00	880.00	874.00	869.00	867.00	861.00	854.00	853.00	862.00	870.00	863.00	862.00	865.00	861.00	899.00	865.00	877.00	921.00	912.00	919.00	922.00	927.00	898.00	872.00	864.00	857.00	858.00	864.00	864.00	856.00	847.00	842.00	836.00	834.00	830.00	834.00	836.00	823.00	819.00	819.00	819.00	819.00	819.00	834.00	832.00	829.00	834.00	842.00	848.00	854.00	854.00	860.00	907.00	961.00	933.00	903.00	893.00	890.00	884.00	882.00	879.00	883.00	893.00	907.00	920.00	943.00	927.00	923.00	924.00	922.00	895.00	890.00	884.00	881.00	890.00	892.00	888.00	889.00	879.00	884.00	887.00	887.00	883.00	903.00	899.00	900.00	907.00	918.00	913.00	912.00	913.00	916.00	919.00	926.00	936.00	950.00	965.00	998.00	1090.00	1081.00	1050.00	1022.00	1017.00	1018.00	1019.00	1018.00	1020.00	1017.00	1022.00	1026.00	1046.00	1052.00	1057.00	1062.00	1049.00	1041.00	1031.00	1034.00	998.00	961.00	948.00	944.00	942.00	934.00	931.00	929.00	927.00	929.00	926.00	931.00	931.00	935.00	947.00	956.00	961.00	974.00	956.00	957.00	961.00	959.00	968.00	984.00	990.00	998.00	1007.00	1019.00	1038.00	1050.00	1064.00	1075.00	1096.00	1104.00	1136.00	1172.00	1179.00	1176.00	1178.00	1192.00	1219.00	1266.00	1290.00	1261.00	1223.00	1195.00	1240.00	1239.00	1266.00	1236.00	1233.00	1260.00	1286.00	1299.00	1326.00	1317.00	1308.00	1290.00	1281.00	1254.00	1243.00	1230.00	1220.00	1211.00	1188.00	1181.00	1171.00
686.00	694.00	688.00	699.00	694.00	696.00	702.00	690.00	691.00	693.00	695.00	704.00	715.00	722.00	725.00	720.00	724.00	718.00	716.00	719.00	725.00	729.00	736.00	742.00	750.00	752.00	756.00	762.00	764.00	769.00	773.00	776.00	779.00	790.00	794.00	799.00	803.00	810.00	812.00	812.00	817.00	823.00	831.00	840.00	842.00	847.00	859.00	861.00	869.00	878.00	886.00	894.00	895.00	901.00	904.00	907.00	917.00	926.00	921.00	924.00	929.00	933.00	935.00	934.00	918.00	911.00	916.00	909.00	891.00	884.00	887.00	879.00	875.00	871.00	863.00	857.00	854.00	852.00	851.00	855.00	857.00	866.00	857.00	857.00	859.00	857.00	859.00	889.00	894.00	883.00	902.00	879.00	890.00	907.00	887.00	883.00	859.00	869.00	853.00	851.00	845.00	850.00	838.00	835.00	830.00	828.00	820.00	819.00	815.00	813.00	812.00	811.00	812.00	813.00	888.00	870.00	831.00	837.00	862.00	847.00	850.00	855.00	859.00	874.00	883.00	889.00	898.00	928.00	933.00	910.00	910.00	901.00	898.00	892.00	894.00	905.00	936.00	950.00	934.00	919.00	911.00	913.00	925.00	905.00	892.00	899.00	903.00	898.00	889.00	887.00	894.00	895.00	896.00	892.00	893.00	894.00	905.00	912.00	918.00	920.00	924.00	923.00	923.00	929.00	923.00	943.00	963.00	990.00	1003.00	1030.00	1045.00	1055.00	1037.00	1045.00	1046.00	1052.00	1048.00	1031.00	1029.00	1033.00	1032.00	1036.00	1042.00	1049.00	1061.00	1034.00	1021.00	1017.00	1018.00	1010.00	959.00	950.00	948.00	945.00	939.00	935.00	933.00	933.00	934.00	933.00	936.00	939.00	939.00	952.00	963.00	970.00	972.00	964.00	971.00	973.00	966.00	970.00	985.00	994.00	1001.00	1010.00	1022.00	1042.00	1052.00	1066.00	1080.00	1116.00	1129.00	1221.00	1230.00	1174.00	1229.00	1214.00	1228.00	1251.00	1322.00	1321.00	1271.00	1262.00	1221.00	1237.00	1259.00	1274.00	1261.00	1263.00	1276.00	1295.00	1335.00	1319.00	1297.00	1300.00	1286.00	1274.00	1254.00	1242.00	1233.00	1219.00	1211.00	1190.00	1185.00	1171.00
682.00	690.00	693.00	695.00	697.00	696.00	698.00	698.00	698.00	700.00	702.00	698.00	709.00	717.00	728.00	722.00	733.00	730.00	722.00	723.00	727.00	732.00	739.00	743.00	753.00	756.00	758.00	761.00	765.00	775.00	775.00	778.00	783.00	795.00	796.00	799.00	803.00	810.00	813.00	815.00	817.00	820.00	828.00	838.00	842.00	842.00	849.00	861.00	873.00	881.00	879.00	913.00	923.00	903.00	894.00	908.00	909.00	914.00	915.00	921.00	926.00	930.00	937.00	932.00	926.00	919.00	917.00	916.00	895.00	880.00	879.00	878.00	875.00	866.00	860.00	856.00	852.00	850.00	845.00	848.00	857.00	879.00	856.00	851.00	853.00	848.00	846.00	848.00	853.00	862.00	858.00	853.00	853.00	855.00	851.00	858.00	844.00	843.00	843.00	842.00	835.00	851.00	839.00	831.00	827.00	821.00	814.00	816.00	811.00	807.00	807.00	806.00	810.00	812.00	844.00	851.00	839.00	855.00	879.00	853.00	854.00	855.00	858.00	867.00	872.00	876.00	882.00	903.00	917.00	951.00	960.00	931.00	915.00	901.00	908.00	924.00	927.00	942.00	933.00	925.00	909.00	913.00	939.00	924.00	899.00	901.00	914.00	915.00	894.00	913.00	916.00	914.00	906.00	908.00	926.00	922.00	914.00	939.00	934.00	937.00	952.00	942.00	938.00	935.00	929.00	947.00	958.00	971.00	982.00	1011.00	1015.00	1027.00	1039.00	1044.00	1046.00	1054.00	1040.00	1030.00	1029.00	1045.00	1038.00	1048.00	1047.00	1043.00	1044.00	1030.00	1021.00	1010.00	1002.00	1011.00	963.00	955.00	953.00	950.00	945.00	940.00	939.00	939.00	937.00	941.00	942.00	946.00	947.00	962.00	963.00	974.00	981.00	984.00	976.00	972.00	974.00	980.00	988.00	994.00	1002.00	1010.00	1017.00	1045.00	1056.00	1069.00	1083.00	1129.00	1161.00	1178.00	1184.00	1190.00	1246.00	1282.00	1309.00	1291.00	1343.00	1360.00	1302.00	1280.00	1243.00	1254.00	1277.00	1296.00	1306.00	1306.00	1326.00	1336.00	1320.00	1309.00	1290.00	1283.00	1269.00	1256.00	1254.00	1243.00	1233.00	1225.00	1216.00	1186.00	1180.00	1179.00
690.00	705.00	732.00	720.00	715.00	720.00	704.00	700.00	699.00	708.00	717.00	704.00	707.00	717.00	724.00	734.00	729.00	739.00	729.00	727.00	732.00	736.00	740.00	745.00	755.00	760.00	762.00	765.00	769.00	781.00	783.00	783.00	783.00	793.00	800.00	804.00	806.00	811.00	816.00	820.00	822.00	825.00	831.00	837.00	843.00	843.00	847.00	853.00	859.00	866.00	868.00	887.00	895.00	902.00	892.00	905.00	915.00	918.00	920.00	928.00	932.00	931.00	936.00	932.00	922.00	911.00	911.00	908.00	901.00	880.00	875.00	873.00	871.00	864.00	858.00	855.00	851.00	846.00	840.00	843.00	846.00	843.00	843.00	848.00	843.00	842.00	841.00	835.00	838.00	844.00	845.00	843.00	842.00	838.00	839.00	839.00	840.00	837.00	837.00	837.00	831.00	842.00	850.00	826.00	819.00	817.00	809.00	811.00	808.00	803.00	802.00	803.00	806.00	810.00	828.00	828.00	843.00	884.00	844.00	844.00	848.00	853.00	857.00	869.00	877.00	882.00	885.00	893.00	898.00	908.00	920.00	920.00	914.00	909.00	916.00	925.00	937.00	934.00	924.00	916.00	916.00	913.00	923.00	911.00	921.00	908.00	918.00	924.00	904.00	938.00	948.00	958.00	929.00	955.00	922.00	912.00	910.00	929.00	968.00	975.00	990.00	991.00	990.00	950.00	941.00	960.00	961.00	966.00	992.00	997.00	1009.00	1021.00	1054.00	1044.00	1051.00	1070.00	1045.00	1036.00	1036.00	1042.00	1041.00	1063.00	1058.00	1042.00	1034.00	1030.00	1019.00	1018.00	1005.00	994.00	966.00	961.00	957.00	954.00	947.00	947.00	945.00	945.00	943.00	948.00	952.00	955.00	956.00	979.00	973.00	978.00	996.00	1024.00	996.00	980.00	988.00	992.00	986.00	996.00	1007.00	1019.00	1026.00	1056.00	1066.00	1073.00	1089.00	1213.00	1146.00	1157.00	1180.00	1202.00	1288.00	1304.00	1352.00	1351.00	1351.00	1318.00	1290.00	1274.00	1249.00	1247.00	1268.00	1303.00	1321.00	1330.00	1339.00	1324.00	1300.00	1293.00	1277.00	1269.00	1261.00	1250.00	1240.00	1228.00	1222.00	1216.00	1213.00	1191.00	1181.00	1170.00
724.00	708.00	704.00	704.00	707.00	709.00	716.00	718.00	736.00	768.00	759.00	721.00	710.00	721.00	726.00	742.00	742.00	739.00	747.00	743.00	761.00	746.00	747.00	755.00	772.00	782.00	781.00	776.00	781.00	785.00	792.00	798.00	804.00	801.00	808.00	811.00	817.00	825.00	823.00	830.00	834.00	838.00	844.00	844.00	849.00	851.00	859.00	861.00	862.00	861.00	865.00	872.00	876.00	887.00	889.00	906.00	913.00	926.00	930.00	935.00	940.00	936.00	935.00	928.00	920.00	922.00	918.00	900.00	889.00	881.00	877.00	868.00	865.00	858.00	851.00	849.00	847.00	844.00	842.00	834.00	832.00	829.00	841.00	858.00	842.00	831.00	833.00	827.00	825.00	827.00	826.00	828.00	828.00	828.00	827.00	825.00	830.00	827.00	829.00	826.00	825.00	818.00	815.00	810.00	808.00	808.00	806.00	805.00	800.00	794.00	796.00	800.00	801.00	805.00	816.00	821.00	832.00	836.00	860.00	859.00	856.00	861.00	867.00	889.00	896.00	949.00	960.00	919.00	908.00	911.00	913.00	915.00	923.00	920.00	926.00	931.00	948.00	939.00	942.00	933.00	926.00	927.00	929.00	934.00	962.00	962.00	966.00	951.00	937.00	934.00	954.00	969.00	968.00	972.00	939.00	929.00	927.00	932.00	935.00	957.00	966.00	965.00	957.00	946.00	945.00	945.00	951.00	960.00	980.00	998.00	1011.00	1020.00	1042.00	1050.00	1055.00	1054.00	1051.00	1052.00	1051.00	1045.00	1043.00	1041.00	1047.00	1051.00	1042.00	1019.00	1017.00	1005.00	1004.00	991.00	973.00	969.00	966.00	965.00	960.00	961.00	959.00	959.00	959.00	964.00	976.00	983.00	987.00	996.00	1002.00	1007.00	1031.00	1019.00	1003.00	999.00	1008.00	1007.00	999.00	1003.00	1035.00	1032.00	1043.00	1098.00	1110.00	1120.00	1116.00	1164.00	1201.00	1235.00	1253.00	1245.00	1354.00	1391.00	1378.00	1422.00	1404.00	1330.00	1295.00	1286.00	1266.00	1284.00	1301.00	1304.00	1312.00	1308.00	1296.00	1285.00	1275.00	1267.00	1252.00	1245.00	1237.00	1230.00	1216.00	1208.00	1203.00	1202.00	1196.00	1178.00	1178.00	1167.00
714.00	714.00	712.00	711.00	707.00	714.00	725.00	722.00	724.00	741.00	740.00	729.00	714.00	720.00	727.00	737.00	741.00	746.00	746.00	745.00	756.00	763.00	758.00	792.00	896.00	900.00	814.00	789.00	833.00	802.00	808.00	809.00	806.00	807.00	809.00	815.00	822.00	833.00	832.00	834.00	838.00	845.00	852.00	850.00	854.00	857.00	864.00	867.00	868.00	871.00	869.00	876.00	880.00	887.00	890.00	905.00	916.00	918.00	935.00	936.00	945.00	934.00	927.00	922.00	934.00	915.00	904.00	894.00	887.00	877.00	872.00	869.00	864.00	857.00	849.00	848.00	843.00	840.00	850.00	838.00	830.00	826.00	838.00	851.00	838.00	827.00	826.00	823.00	819.00	819.00	820.00	823.00	827.00	835.00	834.00	822.00	837.00	821.00	823.00	822.00	822.00	820.00	816.00	810.00	807.00	802.00	801.00	795.00	798.00	790.00	793.00	797.00	802.00	807.00	815.00	820.00	829.00	834.00	845.00	851.00	856.00	862.00	870.00	894.00	903.00	914.00	928.00	918.00	918.00	918.00	920.00	922.00	931.00	932.00	932.00	940.00	951.00	951.00	943.00	941.00	941.00	939.00	936.00	943.00	956.00	963.00	957.00	941.00	928.00	939.00	948.00	966.00	975.00	981.00	967.00	944.00	943.00	942.00	949.00	974.00	981.00	985.00	981.00	965.00	959.00	964.00	962.00	956.00	971.00	982.00	991.00	999.00	1029.00	1033.00	1043.00	1037.00	1054.00	1059.00	1053.00	1044.00	1039.00	1033.00	1033.00	1036.00	1035.00	1015.00	1017.00	1002.00	992.00	989.00	978.00	975.00	973.00	971.00	968.00	969.00	968.00	967.00	969.00	984.00	985.00	1001.00	991.00	1009.00	1024.00	1016.00	1009.00	1026.00	1004.00	1001.00	1009.00	1015.00	1007.00	1016.00	1048.00	1080.00	1096.00	1080.00	1092.00	1124.00	1137.00	1178.00	1221.00	1265.00	1333.00	1307.00	1282.00	1331.00	1398.00	1442.00	1405.00	1328.00	1327.00	1347.00	1312.00	1305.00	1332.00	1333.00	1319.00	1303.00	1297.00	1284.00	1264.00	1256.00	1244.00	1237.00	1235.00	1228.00	1212.00	1210.00	1209.00	1204.00	1197.00	1180.00	1170.00	1165.00
726.00	730.00	718.00	714.00	712.00	714.00	723.00	728.00	726.00	725.00	727.00	720.00	719.00	721.00	727.00	744.00	745.00	745.00	753.00	749.00	758.00	764.00	792.00	846.00	939.00	961.00	888.00	835.00	830.00	858.00	891.00	876.00	819.00	823.00	816.00	819.00	824.00	837.00	842.00	843.00	842.00	849.00	860.00	857.00	860.00	861.00	866.00	871.00	875.00	878.00	875.00	888.00	884.00	895.00	896.00	904.00	911.00	923.00	935.00	924.00	943.00	952.00	937.00	930.00	925.00	929.00	910.00	896.00	888.00	875.00	871.00	866.00	863.00	856.00	849.00	847.00	843.00	838.00	832.00	834.00	831.00	824.00	822.00	825.00	834.00	832.00	822.00	819.00	815.00	816.00	814.00	819.00	827.00	844.00	830.00	819.00	859.00	839.00	825.00	814.00	813.00	826.00	833.00	823.00	807.00	797.00	797.00	796.00	790.00	788.00	794.00	799.00	803.00	805.00	816.00	820.00	831.00	837.00	848.00	854.00	858.00	864.00	871.00	887.00	893.00	910.00	933.00	928.00	936.00	930.00	929.00	929.00	939.00	941.00	944.00	950.00	963.00	970.00	968.00	969.00	990.00	950.00	945.00	950.00	959.00	951.00	937.00	939.00	930.00	940.00	954.00	965.00	979.00	981.00	975.00	964.00	968.00	967.00	954.00	970.00	985.00	997.00	997.00	975.00	971.00	984.00	974.00	973.00	986.00	1013.00	994.00	996.00	1010.00	1021.00	1032.00	1031.00	1050.00	1053.00	1050.00	1039.00	1033.00	1026.00	1024.00	1021.00	1023.00	1021.00	1010.00	1000.00	994.00	991.00	986.00	983.00	981.00	979.00	976.00	977.00	977.00	977.00	978.00	988.00	993.00	1006.00	1000.00	1022.00	1038.00	1037.00	1016.00	1015.00	1013.00	1008.00	1013.00	1017.00	1045.00	1077.00	1060.00	1084.00	1137.00	1136.00	1153.00	1166.00	1169.00	1314.00	1325.00	1302.00	1305.00	1372.00	1353.00	1355.00	1403.00	1455.00	1429.00	1376.00	1382.00	1384.00	1350.00	1360.00	1361.00	1340.00	1328.00	1306.00	1300.00	1288.00	1280.00	1276.00	1244.00	1233.00	1225.00	1223.00	1206.00	1199.00	1195.00	1197.00	1196.00	1189.00	1185.00	1185.00
767.00	734.00	722.00	719.00	719.00	721.00	724.00	727.00	731.00	734.00	732.00	731.00	725.00	736.00	741.00	738.00	741.00	744.00	746.00	749.00	776.00	771.00	788.00	804.00	866.00	962.00	986.00	931.00	909.00	894.00	878.00	910.00	872.00	873.00	858.00	855.00	856.00	866.00	858.00	852.00	847.00	858.00	868.00	867.00	866.00	869.00	872.00	874.00	879.00	883.00	885.00	893.00	893.00	891.00	904.00	904.00	907.00	912.00	918.00	926.00	934.00	944.00	962.00	977.00	907.00	905.00	903.00	895.00	888.00	875.00	871.00	866.00	861.00	856.00	853.00	847.00	842.00	838.00	829.00	827.00	824.00	822.00	816.00	817.00	817.00	830.00	821.00	815.00	811.00	810.00	812.00	820.00	825.00	824.00	819.00	815.00	851.00	829.00	820.00	811.00	810.00	822.00	829.00	837.00	831.00	797.00	789.00	792.00	787.00	791.00	800.00	797.00	799.00	804.00	844.00	830.00	835.00	836.00	873.00	878.00	880.00	877.00	881.00	899.00	913.00	932.00	957.00	935.00	947.00	943.00	940.00	941.00	944.00	947.00	951.00	960.00	979.00	996.00	987.00	1000.00	990.00	962.00	962.00	976.00	981.00	973.00	964.00	962.00	933.00	944.00	981.00	1007.00	1020.00	996.00	970.00	980.00	1001.00	978.00	958.00	980.00	994.00	1005.00	997.00	988.00	1002.00	1008.00	986.00	996.00	972.00	1000.00	997.00	1001.00	1006.00	1015.00	1019.00	1031.00	1044.00	1049.00	1049.00	1035.00	1029.00	1021.00	1018.00	1015.00	1011.00	1005.00	1003.00	1000.00	999.00	1000.00	995.00	989.00	988.00	988.00	983.00	985.00	987.00	989.00	992.00	1003.00	997.00	1013.00	1024.00	1066.00	1039.00	1055.00	1039.00	1049.00	1027.00	1019.00	1023.00	1026.00	1061.00	1085.00	1107.00	1114.00	1132.00	1181.00	1164.00	1165.00	1192.00	1365.00	1384.00	1393.00	1333.00	1366.00	1399.00	1462.00	1482.00	1512.00	1464.00	1431.00	1442.00	1443.00	1408.00	1384.00	1372.00	1359.00	1345.00	1332.00	1313.00	1298.00	1269.00	1268.00	1242.00	1230.00	1219.00	1211.00	1202.00	1194.00	1188.00	1182.00	1177.00	1181.00	1191.00	1185.00
1060.00	890.00	771.00	735.00	730.00	731.00	738.00	738.00	735.00	740.00	742.00	744.00	737.00	740.00	743.00	752.00	766.00	756.00	763.00	761.00	768.00	772.00	839.00	930.00	1076.00	1175.00	1222.00	1144.00	1117.00	1083.00	1014.00	938.00	880.00	915.00	900.00	938.00	942.00	878.00	869.00	899.00	921.00	894.00	904.00	884.00	880.00	884.00	887.00	884.00	888.00	894.00	896.00	902.00	910.00	908.00	907.00	921.00	925.00	921.00	920.00	926.00	943.00	933.00	920.00	924.00	937.00	923.00	915.00	907.00	895.00	880.00	883.00	872.00	860.00	850.00	843.00	839.00	837.00	833.00	826.00	822.00	819.00	818.00	810.00	808.00	808.00	811.00	812.00	809.00	806.00	802.00	803.00	813.00	822.00	828.00	822.00	813.00	810.00	806.00	806.00	805.00	802.00	816.00	845.00	809.00	830.00	808.00	783.00	781.00	779.00	789.00	806.00	830.00	815.00	810.00	817.00	826.00	842.00	856.00	863.00	871.00	888.00	907.00	905.00	907.00	912.00	909.00	919.00	924.00	930.00	939.00	945.00	954.00	965.00	965.00	969.00	964.00	973.00	959.00	965.00	973.00	986.00	985.00	991.00	990.00	978.00	966.00	956.00	949.00	949.00	954.00	968.00	971.00	982.00	989.00	988.00	980.00	980.00	973.00	965.00	964.00	974.00	983.00	989.00	996.00	1000.00	995.00	991.00	984.00	983.00	991.00	996.00	995.00	1000.00	1011.00	1024.00	1033.00	1054.00	1062.00	1057.00	1037.00	1029.00	1023.00	1022.00	1019.00	1019.00	1018.00	1018.00	1015.00	1014.00	1018.00	1010.00	1004.00	1005.00	1006.00	999.00	1005.00	1009.00	1013.00	1026.00	1048.00	1103.00	1075.00	1079.00	1099.00	1088.00	1057.00	1053.00	1057.00	1048.00	1047.00	1039.00	1052.00	1060.00	1069.00	1083.00	1075.00	1086.00	1154.00	1195.00	1254.00	1336.00	1440.00	1435.00	1421.00	1451.00	1465.00	1456.00	1436.00	1433.00	1417.00	1405.00	1424.00	1412.00	1411.00	1386.00	1351.00	1341.00	1323.00	1303.00	1291.00	1286.00	1271.00	1245.00	1234.00	1221.00	1217.00	1218.00	1214.00	1207.00	1198.00	1190.00	1195.00	1193.00	1176.00	1161.00	1153.00
1071.00	913.00	776.00	752.00	741.00	741.00	741.00	743.00	742.00	741.00	746.00	748.00	744.00	739.00	746.00	750.00	756.00	768.00	770.00	770.00	771.00	774.00	787.00	821.00	903.00	1068.00	1171.00	1198.00	1161.00	1119.00	1094.00	1114.00	1063.00	989.00	979.00	1071.00	949.00	909.00	894.00	892.00	899.00	970.00	903.00	886.00	893.00	892.00	893.00	893.00	895.00	899.00	902.00	909.00	911.00	916.00	920.00	928.00	931.00	927.00	926.00	926.00	928.00	923.00	915.00	912.00	903.00	899.00	902.00	907.00	913.00	879.00	872.00	876.00	871.00	850.00	842.00	838.00	836.00	832.00	824.00	821.00	817.00	815.00	810.00	805.00	807.00	816.00	824.00	803.00	799.00	797.00	802.00	808.00	821.00	822.00	821.00	812.00	802.00	800.00	800.00	802.00	794.00	801.00	813.00	802.00	816.00	813.00	783.00	775.00	774.00	801.00	839.00	870.00	842.00	822.00	817.00	822.00	835.00	842.00	854.00	865.00	873.00	881.00	892.00	912.00	900.00	899.00	901.00	926.00	939.00	946.00	949.00	944.00	940.00	937.00	944.00	943.00	951.00	951.00	958.00	963.00	970.00	975.00	980.00	985.00	985.00	972.00	960.00	955.00	951.00	957.00	969.00	976.00	981.00	990.00	994.00	991.00	994.00	984.00	973.00	973.00	978.00	986.00	1001.00	1007.00	1006.00	1003.00	996.00	990.00	988.00	996.00	1002.00	1004.00	1008.00	1009.00	1022.00	1032.00	1049.00	1069.00	1072.00	1040.00	1034.00	1030.00	1029.00	1027.00	1028.00	1029.00	1029.00	1026.00	1023.00	1026.00	1014.00	1010.00	1015.00	1017.00	1011.00	1019.00	1022.00	1022.00	1023.00	1072.00	1047.00	1054.00	1064.00	1090.00	1110.00	1080.00	1067.00	1062.00	1054.00	1061.00	1056.00	1060.00	1076.00	1080.00	1109.00	1126.00	1110.00	1187.00	1208.00	1252.00	1293.00	1323.00	1329.00	1298.00	1334.00	1347.00	1365.00	1401.00	1426.00	1410.00	1388.00	1374.00	1374.00	1385.00	1359.00	1319.00	1305.00	1295.00	1290.00	1274.00	1267.00	1257.00	1243.00	1240.00	1232.00	1235.00	1226.00	1218.00	1198.00	1198.00	1207.00	1197.00	1194.00	1165.00	1161.00	1166.00
944.00	1056.00	862.00	806.00	772.00	752.00	749.00	750.00	748.00	748.00	749.00	760.00	753.00	746.00	749.00	756.00	759.00	759.00	770.00	779.00	766.00	781.00	789.00	799.00	828.00	903.00	1059.00	1083.00	1012.00	1046.00	1049.00	1060.00	1041.00	1020.00	1041.00	1081.00	1015.00	986.00	963.00	980.00	1048.00	1037.00	918.00	915.00	911.00	902.00	902.00	900.00	904.00	902.00	908.00	916.00	919.00	920.00	927.00	937.00	938.00	936.00	937.00	929.00	921.00	916.00	912.00	907.00	895.00	891.00	886.00	882.00	883.00	886.00	873.00	864.00	863.00	850.00	843.00	838.00	834.00	832.00	824.00	821.00	817.00	812.00	807.00	803.00	802.00	805.00	812.00	811.00	802.00	801.00	812.00	808.00	814.00	815.00	810.00	805.00	796.00	800.00	798.00	797.00	790.00	798.00	799.00	795.00	801.00	800.00	778.00	774.00	771.00	790.00	805.00	838.00	844.00	823.00	815.00	821.00	833.00	844.00	855.00	864.00	874.00	895.00	894.00	896.00	899.00	892.00	894.00	926.00	919.00	921.00	925.00	921.00	927.00	926.00	927.00	930.00	936.00	945.00	949.00	953.00	958.00	966.00	970.00	974.00	976.00	968.00	963.00	965.00	957.00	962.00	974.00	980.00	988.00	996.00	1006.00	1010.00	1002.00	984.00	975.00	985.00	992.00	996.00	1006.00	1020.00	1017.00	1011.00	1000.00	996.00	989.00	1010.00	1010.00	1013.00	1016.00	1017.00	1018.00	1019.00	1038.00	1049.00	1051.00	1046.00	1041.00	1037.00	1036.00	1036.00	1039.00	1051.00	1047.00	1041.00	1035.00	1035.00	1026.00	1039.00	1035.00	1030.00	1029.00	1033.00	1034.00	1034.00	1032.00	1061.00	1060.00	1054.00	1062.00	1071.00	1078.00	1084.00	1082.00	1075.00	1075.00	1069.00	1066.00	1069.00	1087.00	1121.00	1169.00	1188.00	1171.00	1167.00	1214.00	1229.00	1219.00	1250.00	1291.00	1354.00	1306.00	1303.00	1378.00	1408.00	1420.00	1391.00	1357.00	1343.00	1334.00	1325.00	1318.00	1300.00	1292.00	1284.00	1277.00	1268.00	1263.00	1257.00	1253.00	1247.00	1235.00	1230.00	1221.00	1209.00	1211.00	1211.00	1212.00	1198.00	1189.00	1168.00	1178.00	1176.00
885.00	1017.00	920.00	850.00	807.00	768.00	782.00	756.00	755.00	754.00	767.00	762.00	772.00	775.00	764.00	769.00	773.00	773.00	769.00	774.00	775.00	777.00	788.00	796.00	813.00	844.00	870.00	874.00	916.00	911.00	901.00	901.00	904.00	953.00	1008.00	1056.00	1059.00	1111.00	1149.00	1137.00	1204.00	1191.00	960.00	933.00	916.00	915.00	913.00	908.00	911.00	912.00	918.00	927.00	921.00	935.00	927.00	943.00	950.00	943.00	942.00	935.00	921.00	914.00	909.00	906.00	896.00	893.00	889.00	884.00	877.00	873.00	868.00	861.00	856.00	849.00	842.00	838.00	834.00	831.00	823.00	819.00	817.00	813.00	805.00	802.00	798.00	803.00	802.00	804.00	800.00	790.00	794.00	799.00	801.00	806.00	806.00	802.00	792.00	795.00	809.00	791.00	786.00	797.00	799.00	790.00	788.00	783.00	776.00	769.00	771.00	790.00	796.00	807.00	828.00	807.00	825.00	835.00	846.00	845.00	874.00	870.00	873.00	875.00	878.00	884.00	891.00	886.00	887.00	907.00	904.00	905.00	906.00	907.00	911.00	911.00	915.00	919.00	927.00	938.00	943.00	949.00	953.00	962.00	966.00	970.00	975.00	977.00	974.00	977.00	967.00	969.00	982.00	988.00	997.00	1002.00	1015.00	1010.00	1002.00	997.00	987.00	1012.00	1009.00	1009.00	1020.00	1033.00	1029.00	1019.00	1008.00	1005.00	1005.00	1003.00	1007.00	1019.00	1025.00	1024.00	1029.00	1027.00	1032.00	1034.00	1038.00	1049.00	1048.00	1046.00	1046.00	1052.00	1079.00	1079.00	1089.00	1062.00	1053.00	1052.00	1045.00	1047.00	1042.00	1044.00	1050.00	1046.00	1047.00	1047.00	1046.00	1063.00	1070.00	1069.00	1070.00	1079.00	1084.00	1088.00	1088.00	1089.00	1090.00	1080.00	1079.00	1077.00	1115.00	1132.00	1157.00	1194.00	1232.00	1160.00	1162.00	1186.00	1206.00	1253.00	1268.00	1295.00	1296.00	1335.00	1385.00	1381.00	1377.00	1386.00	1350.00	1334.00	1322.00	1319.00	1311.00	1288.00	1287.00	1279.00	1269.00	1261.00	1258.00	1252.00	1237.00	1233.00	1224.00	1220.00	1216.00	1223.00	1225.00	1221.00	1217.00	1203.00	1197.00	1186.00	1186.00	1172.00
875.00	938.00	897.00	928.00	919.00	857.00	819.00	791.00	815.00	880.00	798.00	767.00	768.00	772.00	773.00	769.00	767.00	786.00	810.00	826.00	846.00	816.00	799.00	852.00	860.00	893.00	933.00	948.00	969.00	971.00	1003.00	973.00	965.00	979.00	970.00	975.00	999.00	1098.00	1105.00	1148.00	1188.00	1231.00	1064.00	1002.00	979.00	970.00	947.00	946.00	939.00	942.00	942.00	944.00	939.00	946.00	949.00	960.00	962.00	964.00	957.00	941.00	933.00	927.00	919.00	914.00	902.00	896.00	892.00	887.00	883.00	892.00	901.00	897.00	910.00	890.00	872.00	854.00	844.00	836.00	827.00	823.00	819.00	813.00	805.00	802.00	798.00	791.00	790.00	794.00	787.00	784.00	782.00	795.00	801.00	807.00	815.00	814.00	794.00	787.00	782.00	783.00	781.00	780.00	784.00	778.00	782.00	774.00	764.00	761.00	771.00	797.00	807.00	792.00	793.00	809.00	809.00	819.00	826.00	828.00	842.00	862.00	870.00	884.00	879.00	869.00	867.00	868.00	869.00	884.00	891.00	894.00	898.00	906.00	925.00	926.00	936.00	939.00	945.00	938.00	944.00	949.00	954.00	963.00	967.00	972.00	976.00	982.00	986.00	986.00	978.00	988.00	995.00	1000.00	1010.00	1021.00	1036.00	1027.00	1016.00	1001.00	995.00	1012.00	1030.00	1039.00	1057.00	1067.00	1059.00	1059.00	1060.00	1039.00	1035.00	1034.00	1035.00	1034.00	1031.00	1041.00	1042.00	1045.00	1048.00	1051.00	1047.00	1061.00	1065.00	1123.00	1147.00	1105.00	1131.00	1094.00	1082.00	1077.00	1071.00	1081.00	1083.00	1074.00	1067.00	1065.00	1070.00	1070.00	1072.00	1073.00	1074.00	1076.00	1085.00	1085.00	1091.00	1098.00	1106.00	1109.00	1116.00	1117.00	1110.00	1104.00	1108.00	1174.00	1229.00	1229.00	1228.00	1180.00	1220.00	1243.00	1223.00	1222.00	1223.00	1274.00	1277.00	1303.00	1323.00	1384.00	1378.00	1384.00	1372.00	1359.00	1339.00	1341.00	1323.00	1322.00	1324.00	1307.00	1300.00	1291.00	1283.00	1271.00	1262.00	1252.00	1250.00	1243.00	1231.00	1241.00	1237.00	1241.00	1237.00	1232.00	1229.00	1215.00	1212.00	1189.00	1197.00	1196.00
793.00	913.00	882.00	878.00	870.00	835.00	786.00	779.00	783.00	793.00	785.00	776.00	773.00	778.00	780.00	779.00	766.00	778.00	785.00	796.00	843.00	844.00	792.00	794.00	807.00	810.00	831.00	850.00	850.00	900.00	948.00	983.00	1028.00	1123.00	1114.00	1092.00	1091.00	1272.00	1281.00	1237.00	1231.00	1241.00	1165.00	1044.00	1040.00	1001.00	1004.00	1007.00	1008.00	987.00	978.00	953.00	954.00	962.00	968.00	968.00	975.00	973.00	968.00	942.00	937.00	929.00	924.00	921.00	909.00	903.00	899.00	896.00	889.00	878.00	878.00	898.00	931.00	883.00	882.00	855.00	847.00	849.00	838.00	829.00	822.00	813.00	805.00	801.00	797.00	791.00	788.00	801.00	804.00	784.00	776.00	788.00	793.00	800.00	814.00	822.00	817.00	795.00	784.00	777.00	780.00	772.00	777.00	773.00	771.00	771.00	760.00	759.00	770.00	778.00	787.00	785.00	794.00	794.00	804.00	810.00	823.00	835.00	842.00	853.00	857.00	865.00	882.00	862.00	859.00	861.00	872.00	891.00	898.00	904.00	906.00	918.00	929.00	939.00	943.00	951.00	961.00	947.00	942.00	946.00	950.00	963.00	967.00	968.00	970.00	981.00	984.00	985.00	983.00	983.00	1003.00	1014.00	1022.00	1037.00	1054.00	1030.00	1011.00	1005.00	1007.00	1044.00	1062.00	1063.00	1097.00	1108.00	1125.00	1128.00	1109.00	1068.00	1057.00	1054.00	1055.00	1047.00	1048.00	1041.00	1051.00	1053.00	1056.00	1055.00	1056.00	1086.00	1094.00	1146.00	1150.00	1138.00	1129.00	1102.00	1096.00	1095.00	1092.00	1103.00	1091.00	1083.00	1080.00	1077.00	1084.00	1084.00	1087.00	1087.00	1088.00	1089.00	1094.00	1098.00	1102.00	1114.00	1112.00	1120.00	1129.00	1133.00	1130.00	1140.00	1158.00	1164.00	1208.00	1256.00	1227.00	1196.00	1207.00	1259.00	1251.00	1260.00	1254.00	1278.00	1301.00	1324.00	1346.00	1382.00	1406.00	1397.00	1388.00	1374.00	1356.00	1341.00	1330.00	1319.00	1312.00	1299.00	1292.00	1286.00	1280.00	1267.00	1263.00	1261.00	1252.00	1257.00	1241.00	1248.00	1243.00	1248.00	1239.00	1237.00	1231.00	1222.00	1214.00	1202.00	1207.00	1195.00
792.00	802.00	818.00	809.00	804.00	798.00	796.00	793.00	796.00	797.00	802.00	784.00	781.00	782.00	788.00	784.00	772.00	794.00	797.00	800.00	797.00	805.00	806.00	810.00	819.00	813.00	821.00	842.00	831.00	849.00	874.00	887.00	920.00	1093.00	1130.00	1132.00	1161.00	1237.00	1303.00	1299.00	1327.00	1279.00	1290.00	1116.00	1141.00	1054.00	1111.00	1123.00	1223.00	1131.00	1079.00	974.00	987.00	981.00	1019.00	972.00	984.00	976.00	986.00	953.00	942.00	961.00	941.00	931.00	926.00	924.00	910.00	902.00	891.00	879.00	873.00	871.00	874.00	874.00	863.00	855.00	853.00	866.00	859.00	839.00	826.00	819.00	811.00	805.00	799.00	788.00	787.00	807.00	816.00	791.00	775.00	781.00	787.00	799.00	813.00	807.00	826.00	805.00	786.00	776.00	773.00	771.00	769.00	770.00	766.00	758.00	756.00	759.00	774.00	782.00	781.00	781.00	785.00	797.00	812.00	815.00	822.00	842.00	851.00	857.00	866.00	882.00	893.00	853.00	858.00	866.00	872.00	894.00	900.00	907.00	912.00	913.00	933.00	941.00	949.00	955.00	972.00	970.00	956.00	955.00	958.00	962.00	969.00	972.00	976.00	986.00	988.00	991.00	997.00	990.00	1007.00	1016.00	1022.00	1039.00	1033.00	1020.00	1018.00	1030.00	1036.00	1090.00	1115.00	1130.00	1245.00	1260.00	1219.00	1292.00	1232.00	1215.00	1149.00	1107.00	1100.00	1079.00	1072.00	1051.00	1049.00	1057.00	1065.00	1063.00	1072.00	1116.00	1115.00	1113.00	1133.00	1151.00	1141.00	1102.00	1103.00	1098.00	1096.00	1118.00	1097.00	1095.00	1091.00	1093.00	1099.00	1101.00	1101.00	1100.00	1104.00	1105.00	1108.00	1111.00	1113.00	1135.00	1132.00	1128.00	1141.00	1149.00	1169.00	1185.00	1209.00	1192.00	1202.00	1226.00	1260.00	1242.00	1246.00	1298.00	1313.00	1341.00	1301.00	1283.00	1309.00	1331.00	1363.00	1390.00	1400.00	1385.00	1379.00	1367.00	1352.00	1337.00	1331.00	1326.00	1318.00	1305.00	1297.00	1291.00	1285.00	1277.00	1276.00	1272.00	1263.00	1265.00	1258.00	1250.00	1254.00	1254.00	1246.00	1239.00	1231.00	1221.00	1216.00	1213.00	1204.00	1204.00
798.00	817.00	830.00	822.00	829.00	834.00	862.00	818.00	816.00	820.00	825.00	793.00	796.00	793.00	799.00	786.00	814.00	801.00	779.00	784.00	791.00	803.00	823.00	820.00	836.00	835.00	821.00	833.00	844.00	861.00	860.00	869.00	877.00	929.00	968.00	1085.00	1181.00	1104.00	1108.00	1106.00	1192.00	1276.00	1365.00	1206.00	1151.00	1104.00	1130.00	1162.00	1280.00	1248.00	1165.00	1083.00	1095.00	1062.00	1040.00	1019.00	1036.00	995.00	995.00	959.00	960.00	972.00	982.00	950.00	916.00	917.00	924.00	928.00	908.00	885.00	876.00	867.00	864.00	860.00	859.00	854.00	854.00	866.00	860.00	856.00	842.00	827.00	815.00	808.00	804.00	791.00	786.00	784.00	784.00	791.00	775.00	776.00	783.00	796.00	806.00	801.00	801.00	797.00	791.00	792.00	770.00	766.00	765.00	760.00	761.00	755.00	750.00	758.00	766.00	773.00	772.00	777.00	787.00	802.00	807.00	804.00	813.00	841.00	841.00	862.00	883.00	893.00	860.00	851.00	858.00	864.00	871.00	895.00	904.00	913.00	919.00	925.00	934.00	943.00	951.00	956.00	974.00	980.00	968.00	969.00	968.00	971.00	975.00	978.00	984.00	994.00	996.00	995.00	999.00	1000.00	1012.00	1021.00	1029.00	1035.00	1033.00	1029.00	1038.00	1072.00	1105.00	1233.00	1240.00	1262.00	1396.00	1483.00	1392.00	1385.00	1471.00	1503.00	1363.00	1230.00	1168.00	1134.00	1080.00	1065.00	1064.00	1061.00	1070.00	1075.00	1115.00	1127.00	1150.00	1145.00	1144.00	1148.00	1133.00	1112.00	1110.00	1105.00	1106.00	1112.00	1108.00	1110.00	1106.00	1108.00	1114.00	1117.00	1114.00	1116.00	1122.00	1122.00	1120.00	1125.00	1127.00	1145.00	1146.00	1145.00	1157.00	1180.00	1216.00	1212.00	1236.00	1272.00	1243.00	1247.00	1271.00	1321.00	1302.00	1340.00	1382.00	1354.00	1327.00	1300.00	1316.00	1336.00	1350.00	1373.00	1405.00	1389.00	1383.00	1379.00	1376.00	1358.00	1356.00	1350.00	1339.00	1318.00	1314.00	1298.00	1305.00	1295.00	1284.00	1276.00	1270.00	1263.00	1262.00	1254.00	1262.00	1258.00	1246.00	1237.00	1230.00	1225.00	1225.00	1217.00	1212.00	1215.00
797.00	810.00	889.00	882.00	923.00	973.00	999.00	922.00	907.00	862.00	859.00	817.00	818.00	841.00	829.00	797.00	808.00	815.00	799.00	808.00	816.00	813.00	853.00	849.00	851.00	862.00	833.00	841.00	856.00	855.00	878.00	886.00	858.00	899.00	911.00	955.00	1000.00	1029.00	1039.00	1107.00	1180.00	1277.00	1334.00	1304.00	1210.00	1256.00	1208.00	1195.00	1176.00	1153.00	1208.00	1317.00	1273.00	1200.00	1054.00	1015.00	1065.00	1020.00	1006.00	985.00	1011.00	982.00	967.00	942.00	918.00	911.00	906.00	908.00	913.00	885.00	875.00	870.00	866.00	857.00	858.00	852.00	854.00	849.00	871.00	860.00	854.00	852.00	822.00	815.00	808.00	796.00	788.00	777.00	772.00	775.00	773.00	772.00	776.00	777.00	778.00	783.00	801.00	800.00	820.00	824.00	787.00	769.00	761.00	757.00	754.00	750.00	752.00	760.00	760.00	768.00	768.00	773.00	786.00	790.00	791.00	794.00	811.00	821.00	861.00	847.00	843.00	840.00	848.00	863.00	863.00	870.00	878.00	894.00	902.00	912.00	920.00	929.00	944.00	952.00	952.00	955.00	986.00	993.00	987.00	984.00	980.00	998.00	997.00	994.00	996.00	997.00	1005.00	1007.00	1010.00	1014.00	1019.00	1025.00	1042.00	1045.00	1070.00	1080.00	1136.00	1263.00	1353.00	1404.00	1428.00	1440.00	1562.00	1688.00	1616.00	1591.00	1578.00	1690.00	1595.00	1368.00	1279.00	1203.00	1093.00	1081.00	1083.00	1071.00	1074.00	1097.00	1110.00	1146.00	1167.00	1181.00	1183.00	1182.00	1162.00	1128.00	1121.00	1121.00	1120.00	1121.00	1119.00	1120.00	1123.00	1123.00	1130.00	1131.00	1127.00	1133.00	1143.00	1141.00	1135.00	1138.00	1146.00	1176.00	1177.00	1192.00	1195.00	1203.00	1235.00	1246.00	1249.00	1295.00	1312.00	1290.00	1289.00	1348.00	1343.00	1393.00	1404.00	1369.00	1348.00	1341.00	1335.00	1356.00	1399.00	1400.00	1429.00	1415.00	1398.00	1385.00	1397.00	1391.00	1372.00	1365.00	1354.00	1338.00	1346.00	1330.00	1331.00	1309.00	1296.00	1286.00	1271.00	1272.00	1270.00	1263.00	1267.00	1261.00	1250.00	1245.00	1238.00	1231.00	1232.00	1222.00	1221.00	1224.00
797.00	810.00	889.00	882.00	923.00	973.00	999.00	922.00	907.00	862.00	859.00	817.00	818.00	841.00	829.00	797.00	808.00	815.00	799.00	808.00	816.00	813.00	853.00	849.00	851.00	862.00	833.00	841.00	856.00	855.00	878.00	886.00	858.00	899.00	911.00	955.00	1000.00	1029.00	1039.00	1107.00	1180.00	1277.00	1334.00	1304.00	1210.00	1256.00	1208.00	1195.00	1176.00	1153.00	1208.00	1317.00	1273.00	1200.00	1054.00	1015.00	1065.00	1020.00	1006.00	985.00	1011.00	982.00	967.00	942.00	918.00	911.00	906.00	908.00	913.00	885.00	875.00	870.00	866.00	857.00	858.00	852.00	854.00	849.00	871.00	860.00	854.00	852.00	822.00	815.00	808.00	796.00	788.00	777.00	772.00	775.00	773.00	772.00	776.00	777.00	778.00	783.00	801.00	800.00	820.00	824.00	787.00	769.00	761.00	757.00	754.00	750.00	752.00	760.00	760.00	768.00	768.00	773.00	786.00	790.00	791.00	794.00	811.00	821.00	861.00	847.00	843.00	840.00	848.00	863.00	863.00	870.00	878.00	894.00	902.00	912.00	920.00	929.00	944.00	952.00	952.00	955.00	986.00	993.00	987.00	984.00	980.00	998.00	997.00	994.00	996.00	997.00	1005.00	1007.00	1010.00	1014.00	1019.00	1025.00	1042.00	1045.00	1070.00	1080.00	1136.00	1263.00	1353.00	1404.00	1428.00	1440.00	1562.00	1688.00	1616.00	1591.00	1578.00	1690.00	1595.00	1368.00	1279.00	1203.00	1093.00	1081.00	1083.00	1071.00	1074.00	1097.00	1110.00	1146.00	1167.00	1181.00	1183.00	1182.00	1162.00	1128.00	1121.00	1121.00	1120.00	1121.00	1119.00	1120.00	1123.00	1123.00	1130.00	1131.00	1127.00	1133.00	1143.00	1141.00	1135.00	1138.00	1146.00	1176.00	1177.00	1192.00	1195.00	1203.00	1235.00	1246.00	1249.00	1295.00	1312.00	1290.00	1289.00	1348.00	1343.00	1393.00	1404.00	1369.00	1348.00	1341.00	1335.00	1356.00	1399.00	1400.00	1429.00	1415.00	1398.00	1385.00	1397.00	1391.00	1372.00	1365.00	1354.00	1338.00	1346.00	1330.00	1331.00	1309.00	1296.00	1286.00	1271.00	1272.00	1270.00	1263.00	1267.00	1261.00	1250.00	1245.00	1238.00	1231.00	1232.00	1222.00	1221.00	1224.00
804.00	815.00	853.00	927.00	976.00	1092.00	1095.00	1081.00	1040.00	942.00	970.00	908.00	878.00	854.00	830.00	806.00	830.00	871.00	848.00	836.00	817.00	809.00	815.00	841.00	846.00	861.00	842.00	826.00	836.00	844.00	850.00	861.00	877.00	881.00	891.00	893.00	897.00	1009.00	1132.00	1205.00	1296.00	1455.00	1381.00	1304.00	1296.00	1330.00	1285.00	1259.00	1208.00	1190.00	1267.00	1323.00	1290.00	1176.00	1092.00	1103.00	1045.00	1062.00	1091.00	1057.00	1012.00	1005.00	951.00	941.00	927.00	914.00	909.00	907.00	901.00	889.00	877.00	873.00	869.00	858.00	850.00	847.00	842.00	844.00	887.00	876.00	869.00	877.00	845.00	832.00	819.00	802.00	798.00	786.00	777.00	771.00	767.00	766.00	770.00	770.00	771.00	777.00	794.00	805.00	822.00	817.00	816.00	791.00	771.00	761.00	753.00	748.00	753.00	753.00	758.00	760.00	764.00	767.00	772.00	777.00	785.00	792.00	808.00	816.00	842.00	832.00	844.00	851.00	860.00	874.00	876.00	882.00	882.00	897.00	905.00	916.00	927.00	936.00	947.00	958.00	964.00	975.00	977.00	1003.00	1001.00	1007.00	1023.00	1083.00	1082.00	1033.00	1019.00	1015.00	1022.00	1015.00	1027.00	1031.00	1038.00	1038.00	1055.00	1070.00	1135.00	1174.00	1204.00	1299.00	1377.00	1598.00	1677.00	1698.00	1696.00	1725.00	1683.00	1735.00	1710.00	1705.00	1729.00	1518.00	1385.00	1233.00	1110.00	1102.00	1100.00	1100.00	1108.00	1090.00	1115.00	1144.00	1180.00	1204.00	1207.00	1176.00	1158.00	1134.00	1130.00	1130.00	1130.00	1132.00	1131.00	1133.00	1139.00	1143.00	1151.00	1147.00	1141.00	1144.00	1155.00	1167.00	1188.00	1186.00	1180.00	1205.00	1199.00	1202.00	1240.00	1237.00	1256.00	1298.00	1294.00	1319.00	1365.00	1341.00	1352.00	1385.00	1411.00	1427.00	1417.00	1411.00	1423.00	1441.00	1388.00	1429.00	1455.00	1470.00	1435.00	1415.00	1418.00	1410.00	1428.00	1421.00	1397.00	1385.00	1372.00	1362.00	1356.00	1334.00	1324.00	1305.00	1295.00	1287.00	1280.00	1283.00	1271.00	1273.00	1272.00	1266.00	1254.00	1247.00	1246.00	1244.00	1246.00	1234.00	1229.00	1235.00
817.00	814.00	836.00	860.00	893.00	989.00	1178.00	1195.00	1181.00	1112.00	1092.00	989.00	914.00	910.00	902.00	821.00	829.00	837.00	835.00	827.00	824.00	828.00	821.00	822.00	837.00	848.00	846.00	839.00	879.00	865.00	850.00	865.00	893.00	921.00	935.00	929.00	926.00	995.00	1051.00	1072.00	1146.00	1281.00	1489.00	1480.00	1463.00	1425.00	1404.00	1378.00	1323.00	1240.00	1255.00	1249.00	1252.00	1137.00	1127.00	1084.00	1149.00	1321.00	1280.00	1196.00	1071.00	1012.00	975.00	958.00	938.00	929.00	912.00	910.00	939.00	889.00	878.00	872.00	873.00	863.00	854.00	847.00	841.00	839.00	901.00	875.00	866.00	875.00	873.00	861.00	850.00	826.00	823.00	799.00	787.00	782.00	776.00	759.00	761.00	764.00	764.00	766.00	788.00	785.00	809.00	817.00	793.00	785.00	774.00	776.00	774.00	742.00	748.00	750.00	751.00	761.00	766.00	769.00	775.00	784.00	790.00	794.00	811.00	842.00	826.00	831.00	842.00	854.00	868.00	880.00	891.00	894.00	896.00	904.00	909.00	923.00	934.00	945.00	956.00	965.00	975.00	982.00	986.00	1004.00	1043.00	1092.00	1151.00	1154.00	1151.00	1104.00	1065.00	1058.00	1063.00	1047.00	1043.00	1055.00	1093.00	1109.00	1183.00	1199.00	1247.00	1305.00	1326.00	1348.00	1414.00	1485.00	1553.00	1638.00	1737.00	1786.00	1784.00	1796.00	1825.00	1778.00	1706.00	1485.00	1290.00	1196.00	1219.00	1197.00	1228.00	1222.00	1120.00	1098.00	1107.00	1153.00	1171.00	1180.00	1179.00	1164.00	1150.00	1142.00	1144.00	1142.00	1143.00	1145.00	1144.00	1146.00	1157.00	1161.00	1166.00	1163.00	1161.00	1175.00	1193.00	1210.00	1254.00	1280.00	1237.00	1234.00	1236.00	1229.00	1244.00	1269.00	1271.00	1309.00	1349.00	1343.00	1400.00	1423.00	1431.00	1442.00	1482.00	1511.00	1508.00	1491.00	1491.00	1499.00	1492.00	1528.00	1490.00	1466.00	1456.00	1448.00	1461.00	1455.00	1441.00	1411.00	1398.00	1379.00	1360.00	1345.00	1335.00	1324.00	1317.00	1306.00	1305.00	1303.00	1291.00	1285.00	1278.00	1284.00	1277.00	1279.00	1266.00	1265.00	1257.00	1252.00	1252.00	1245.00	1237.00	1245.00
855.00	852.00	832.00	843.00	851.00	861.00	918.00	939.00	980.00	1016.00	1059.00	943.00	940.00	915.00	926.00	892.00	901.00	945.00	987.00	938.00	843.00	853.00	871.00	886.00	905.00	931.00	918.00	884.00	945.00	883.00	880.00	896.00	884.00	926.00	942.00	967.00	1014.00	931.00	961.00	983.00	1008.00	1100.00	1182.00	1310.00	1309.00	1294.00	1396.00	1323.00	1363.00	1413.00	1355.00	1377.00	1361.00	1220.00	1287.00	1225.00	1160.00	1153.00	1306.00	1564.00	1358.00	1213.00	1186.00	1090.00	1024.00	981.00	931.00	946.00	980.00	946.00	883.00	877.00	868.00	860.00	852.00	843.00	836.00	830.00	835.00	830.00	826.00	821.00	817.00	813.00	812.00	822.00	836.00	847.00	837.00	847.00	823.00	804.00	783.00	762.00	751.00	752.00	766.00	764.00	764.00	770.00	779.00	766.00	765.00	774.00	790.00	742.00	740.00	745.00	752.00	766.00	773.00	775.00	783.00	785.00	800.00	806.00	806.00	808.00	825.00	836.00	848.00	859.00	868.00	892.00	905.00	914.00	924.00	925.00	941.00	968.00	966.00	977.00	989.00	1029.00	1039.00	1032.00	1038.00	1023.00	1021.00	1032.00	1071.00	1236.00	1364.00	1368.00	1389.00	1273.00	1285.00	1312.00	1182.00	1260.00	1321.00	1313.00	1337.00	1389.00	1463.00	1439.00	1433.00	1403.00	1471.00	1478.00	1515.00	1548.00	1552.00	1523.00	1471.00	1484.00	1531.00	1563.00	1600.00	1508.00	1385.00	1272.00	1323.00	1335.00	1238.00	1202.00	1160.00	1131.00	1108.00	1140.00	1145.00	1157.00	1175.00	1168.00	1166.00	1165.00	1169.00	1172.00	1171.00	1179.00	1172.00	1172.00	1189.00	1204.00	1226.00	1238.00	1281.00	1300.00	1291.00	1288.00	1287.00	1312.00	1298.00	1300.00	1318.00	1353.00	1358.00	1351.00	1357.00	1413.00	1438.00	1491.00	1488.00	1521.00	1515.00	1580.00	1686.00	1665.00	1653.00	1667.00	1676.00	1636.00	1642.00	1629.00	1622.00	1614.00	1534.00	1505.00	1470.00	1458.00	1422.00	1393.00	1378.00	1375.00	1372.00	1372.00	1389.00	1367.00	1365.00	1379.00	1368.00	1350.00	1312.00	1302.00	1295.00	1298.00	1306.00	1302.00	1291.00	1295.00	1289.00	1281.00	1274.00	1258.00	1264.00	1263.00
931.00	884.00	860.00	857.00	874.00	883.00	884.00	900.00	908.00	930.00	944.00	1040.00	1084.00	987.00	938.00	978.00	922.00	904.00	874.00	859.00	846.00	880.00	896.00	903.00	899.00	905.00	915.00	920.00	950.00	939.00	907.00	915.00	943.00	961.00	976.00	958.00	978.00	927.00	945.00	960.00	971.00	1071.00	1102.00	1126.00	1158.00	1155.00	1231.00	1245.00	1358.00	1426.00	1481.00	1515.00	1470.00	1368.00	1431.00	1343.00	1210.00	1160.00	1216.00	1331.00	1465.00	1316.00	1441.00	1338.00	1035.00	984.00	957.00	952.00	985.00	930.00	894.00	889.00	883.00	867.00	849.00	848.00	848.00	837.00	828.00	826.00	822.00	819.00	811.00	806.00	801.00	866.00	829.00	814.00	815.00	810.00	804.00	805.00	825.00	797.00	770.00	752.00	757.00	754.00	757.00	772.00	794.00	768.00	754.00	761.00	794.00	739.00	743.00	748.00	759.00	767.00	770.00	775.00	783.00	787.00	794.00	792.00	810.00	819.00	840.00	839.00	847.00	860.00	872.00	892.00	896.00	910.00	922.00	975.00	1013.00	1066.00	1092.00	1109.00	1088.00	1109.00	1129.00	1102.00	1021.00	1040.00	1048.00	1041.00	1070.00	1179.00	1196.00	1232.00	1339.00	1284.00	1380.00	1315.00	1184.00	1264.00	1329.00	1363.00	1387.00	1398.00	1475.00	1410.00	1400.00	1413.00	1501.00	1496.00	1458.00	1461.00	1482.00	1476.00	1414.00	1402.00	1461.00	1469.00	1463.00	1391.00	1350.00	1315.00	1264.00	1283.00	1248.00	1207.00	1154.00	1131.00	1131.00	1131.00	1140.00	1165.00	1173.00	1177.00	1178.00	1184.00	1181.00	1184.00	1185.00	1197.00	1186.00	1198.00	1232.00	1239.00	1253.00	1262.00	1288.00	1345.00	1328.00	1328.00	1329.00	1355.00	1354.00	1328.00	1351.00	1353.00	1427.00	1427.00	1386.00	1431.00	1474.00	1625.00	1625.00	1685.00	1664.00	1650.00	1658.00	1618.00	1587.00	1660.00	1688.00	1651.00	1646.00	1605.00	1573.00	1585.00	1499.00	1468.00	1452.00	1445.00	1416.00	1406.00	1399.00	1404.00	1404.00	1410.00	1424.00	1398.00	1376.00	1351.00	1334.00	1328.00	1316.00	1309.00	1314.00	1323.00	1337.00	1327.00	1307.00	1306.00	1298.00	1287.00	1287.00	1278.00	1278.00	1280.00
890.00	896.00	890.00	872.00	892.00	929.00	913.00	910.00	938.00	920.00	951.00	1107.00	1047.00	1022.00	987.00	935.00	937.00	888.00	885.00	921.00	891.00	858.00	876.00	886.00	896.00	905.00	917.00	925.00	972.00	1054.00	1000.00	993.00	1023.00	980.00	1037.00	1008.00	995.00	953.00	973.00	1013.00	988.00	1017.00	1018.00	1037.00	1060.00	1075.00	1116.00	1181.00	1259.00	1358.00	1481.00	1519.00	1503.00	1461.00	1491.00	1312.00	1253.00	1214.00	1271.00	1304.00	1471.00	1489.00	1497.00	1451.00	1195.00	1061.00	1055.00	1011.00	985.00	907.00	895.00	889.00	879.00	866.00	869.00	866.00	852.00	849.00	835.00	828.00	823.00	812.00	813.00	808.00	796.00	820.00	819.00	813.00	808.00	799.00	827.00	788.00	795.00	792.00	798.00	771.00	744.00	750.00	759.00	767.00	788.00	785.00	758.00	749.00	742.00	732.00	746.00	747.00	751.00	760.00	765.00	768.00	773.00	779.00	788.00	798.00	813.00	824.00	847.00	859.00	854.00	862.00	880.00	907.00	907.00	915.00	947.00	972.00	971.00	995.00	1011.00	1027.00	1103.00	1104.00	1071.00	1053.00	1031.00	1054.00	1061.00	1062.00	1082.00	1100.00	1118.00	1136.00	1185.00	1217.00	1301.00	1278.00	1202.00	1202.00	1226.00	1246.00	1263.00	1301.00	1478.00	1447.00	1454.00	1450.00	1528.00	1435.00	1408.00	1405.00	1458.00	1395.00	1367.00	1346.00	1410.00	1408.00	1309.00	1324.00	1308.00	1271.00	1254.00	1231.00	1214.00	1198.00	1161.00	1150.00	1133.00	1148.00	1152.00	1167.00	1179.00	1184.00	1190.00	1199.00	1200.00	1193.00	1196.00	1210.00	1226.00	1258.00	1291.00	1282.00	1318.00	1324.00	1299.00	1343.00	1382.00	1333.00	1392.00	1443.00	1411.00	1399.00	1425.00	1385.00	1442.00	1538.00	1484.00	1543.00	1577.00	1617.00	1681.00	1725.00	1676.00	1653.00	1620.00	1585.00	1552.00	1583.00	1621.00	1618.00	1621.00	1589.00	1542.00	1534.00	1479.00	1479.00	1462.00	1441.00	1441.00	1448.00	1452.00	1451.00	1457.00	1443.00	1417.00	1400.00	1379.00	1341.00	1340.00	1335.00	1334.00	1334.00	1344.00	1337.00	1333.00	1329.00	1332.00	1323.00	1313.00	1309.00	1301.00	1303.00	1294.00	1288.00
915.00	906.00	882.00	892.00	944.00	985.00	945.00	940.00	977.00	996.00	985.00	1074.00	1072.00	1013.00	994.00	926.00	896.00	881.00	967.00	1009.00	898.00	874.00	869.00	890.00	949.00	945.00	940.00	950.00	942.00	986.00	995.00	1008.00	1020.00	1048.00	1084.00	1085.00	1047.00	1003.00	1070.00	1032.00	1015.00	1099.00	1110.00	1124.00	1113.00	1092.00	1099.00	1155.00	1278.00	1353.00	1428.00	1364.00	1415.00	1556.00	1553.00	1339.00	1375.00	1351.00	1337.00	1419.00	1531.00	1555.00	1528.00	1447.00	1184.00	1186.00	1197.00	1153.00	1126.00	943.00	963.00	903.00	887.00	877.00	864.00	856.00	853.00	846.00	837.00	830.00	823.00	814.00	796.00	805.00	800.00	791.00	793.00	781.00	784.00	784.00	787.00	769.00	766.00	765.00	781.00	794.00	735.00	740.00	751.00	755.00	761.00	765.00	753.00	745.00	742.00	728.00	743.00	741.00	752.00	762.00	765.00	772.00	781.00	785.00	796.00	809.00	833.00	854.00	852.00	872.00	872.00	875.00	882.00	904.00	925.00	934.00	940.00	976.00	994.00	1024.00	1032.00	1019.00	1053.00	1080.00	1082.00	1073.00	1089.00	1064.00	1110.00	1119.00	1104.00	1195.00	1196.00	1169.00	1145.00	1226.00	1255.00	1265.00	1274.00	1231.00	1251.00	1255.00	1262.00	1279.00	1421.00	1384.00	1403.00	1436.00	1465.00	1403.00	1333.00	1338.00	1450.00	1307.00	1298.00	1303.00	1309.00	1308.00	1281.00	1279.00	1270.00	1258.00	1241.00	1223.00	1207.00	1188.00	1157.00	1142.00	1137.00	1152.00	1162.00	1175.00	1183.00	1194.00	1198.00	1214.00	1210.00	1204.00	1211.00	1226.00	1324.00	1366.00	1394.00	1362.00	1345.00	1376.00	1316.00	1360.00	1422.00	1422.00	1473.00	1526.00	1533.00	1559.00	1571.00	1532.00	1563.00	1588.00	1574.00	1576.00	1584.00	1628.00	1672.00	1692.00	1643.00	1608.00	1605.00	1522.00	1513.00	1539.00	1538.00	1580.00	1564.00	1561.00	1554.00	1521.00	1510.00	1485.00	1477.00	1482.00	1471.00	1514.00	1522.00	1504.00	1455.00	1416.00	1388.00	1376.00	1368.00	1360.00	1360.00	1366.00	1387.00	1377.00	1365.00	1362.00	1364.00	1369.00	1346.00	1348.00	1341.00	1330.00	1317.00	1305.00	1304.00	1298.00
1113.00	1062.00	936.00	949.00	980.00	989.00	1019.00	1085.00	1158.00	1137.00	1135.00	1003.00	979.00	1002.00	1000.00	899.00	892.00	885.00	918.00	967.00	923.00	937.00	890.00	884.00	915.00	917.00	939.00	947.00	987.00	1002.00	973.00	975.00	982.00	1045.00	1129.00	1201.00	1248.00	1165.00	1127.00	1127.00	1201.00	1203.00	1219.00	1302.00	1203.00	1140.00	1195.00	1214.00	1180.00	1170.00	1205.00	1210.00	1286.00	1421.00	1512.00	1662.00	1616.00	1636.00	1642.00	1596.00	1641.00	1620.00	1521.00	1441.00	1260.00	1192.00	1081.00	1042.00	1035.00	968.00	929.00	927.00	906.00	903.00	904.00	901.00	876.00	862.00	846.00	839.00	829.00	821.00	804.00	808.00	812.00	807.00	790.00	783.00	774.00	758.00	758.00	767.00	762.00	754.00	746.00	747.00	725.00	744.00	754.00	765.00	727.00	729.00	729.00	732.00	732.00	722.00	740.00	743.00	748.00	766.00	771.00	777.00	788.00	798.00	819.00	829.00	849.00	885.00	904.00	907.00	900.00	907.00	907.00	928.00	944.00	970.00	982.00	1030.00	1123.00	1088.00	1101.00	1148.00	1108.00	1083.00	1143.00	1177.00	1203.00	1113.00	1141.00	1197.00	1164.00	1159.00	1223.00	1241.00	1218.00	1195.00	1228.00	1255.00	1328.00	1361.00	1275.00	1259.00	1230.00	1227.00	1245.00	1245.00	1257.00	1333.00	1309.00	1241.00	1272.00	1310.00	1332.00	1274.00	1253.00	1259.00	1251.00	1242.00	1249.00	1262.00	1251.00	1232.00	1201.00	1192.00	1186.00	1177.00	1177.00	1183.00	1178.00	1177.00	1186.00	1208.00	1204.00	1211.00	1224.00	1245.00	1231.00	1264.00	1294.00	1342.00	1342.00	1382.00	1430.00	1466.00	1464.00	1460.00	1485.00	1511.00	1510.00	1500.00	1507.00	1501.00	1507.00	1533.00	1546.00	1574.00	1570.00	1561.00	1529.00	1540.00	1587.00	1616.00	1607.00	1556.00	1522.00	1528.00	1515.00	1513.00	1501.00	1469.00	1478.00	1508.00	1506.00	1520.00	1540.00	1541.00	1555.00	1559.00	1569.00	1558.00	1510.00	1459.00	1454.00	1445.00	1436.00	1412.00	1411.00	1423.00	1441.00	1463.00	1448.00	1436.00	1424.00	1430.00	1412.00	1414.00	1454.00	1424.00	1395.00	1380.00	1390.00	1415.00	1418.00	1337.00	1325.00	1325.00
1018.00	1074.00	1065.00	981.00	972.00	984.00	1050.00	1032.00	1035.00	1013.00	1049.00	947.00	939.00	929.00	909.00	911.00	902.00	893.00	900.00	915.00	976.00	984.00	919.00	938.00	987.00	977.00	933.00	940.00	941.00	967.00	980.00	1026.00	1055.00	1044.00	1097.00	1137.00	1151.00	1189.00	1203.00	1223.00	1305.00	1338.00	1285.00	1196.00	1179.00	1139.00	1131.00	1143.00	1167.00	1179.00	1186.00	1220.00	1233.00	1442.00	1516.00	1501.00	1498.00	1495.00	1434.00	1395.00	1511.00	1629.00	1565.00	1494.00	1358.00	1335.00	1183.00	1162.00	1130.00	989.00	945.00	946.00	939.00	1014.00	931.00	941.00	906.00	867.00	837.00	838.00	830.00	822.00	816.00	820.00	827.00	803.00	805.00	789.00	779.00	767.00	762.00	752.00	756.00	752.00	745.00	738.00	721.00	722.00	734.00	755.00	745.00	720.00	718.00	714.00	715.00	723.00	735.00	740.00	748.00	762.00	771.00	786.00	795.00	805.00	837.00	847.00	856.00	881.00	907.00	920.00	909.00	917.00	927.00	959.00	994.00	1001.00	1079.00	1094.00	1109.00	1139.00	1146.00	1216.00	1091.00	1105.00	1149.00	1206.00	1234.00	1163.00	1173.00	1222.00	1196.00	1166.00	1200.00	1274.00	1257.00	1241.00	1268.00	1297.00	1321.00	1338.00	1254.00	1236.00	1220.00	1209.00	1207.00	1215.00	1221.00	1240.00	1251.00	1213.00	1226.00	1257.00	1293.00	1237.00	1233.00	1239.00	1235.00	1230.00	1236.00	1259.00	1250.00	1228.00	1204.00	1202.00	1200.00	1194.00	1200.00	1208.00	1201.00	1195.00	1203.00	1232.00	1243.00	1267.00	1274.00	1292.00	1261.00	1297.00	1351.00	1379.00	1407.00	1405.00	1443.00	1465.00	1556.00	1562.00	1538.00	1515.00	1497.00	1480.00	1491.00	1489.00	1499.00	1512.00	1537.00	1527.00	1558.00	1531.00	1523.00	1540.00	1555.00	1586.00	1590.00	1536.00	1506.00	1483.00	1489.00	1494.00	1501.00	1459.00	1513.00	1507.00	1491.00	1492.00	1503.00	1496.00	1523.00	1543.00	1564.00	1557.00	1480.00	1436.00	1425.00	1426.00	1421.00	1432.00	1429.00	1439.00	1460.00	1474.00	1486.00	1474.00	1506.00	1465.00	1471.00	1467.00	1446.00	1424.00	1467.00	1450.00	1447.00	1443.00	1402.00	1348.00	1341.00	1327.00
1074.00	1090.00	1110.00	1062.00	1069.00	1015.00	1047.00	1079.00	1055.00	992.00	965.00	927.00	919.00	918.00	920.00	922.00	920.00	907.00	951.00	947.00	981.00	967.00	996.00	1030.00	1051.00	1050.00	997.00	1019.00	976.00	1020.00	1055.00	1096.00	1194.00	1097.00	1069.00	1144.00	1228.00	1241.00	1262.00	1285.00	1336.00	1367.00	1354.00	1270.00	1251.00	1201.00	1222.00	1186.00	1285.00	1286.00	1250.00	1328.00	1254.00	1379.00	1409.00	1430.00	1412.00	1320.00	1259.00	1309.00	1373.00	1544.00	1508.00	1505.00	1480.00	1404.00	1280.00	1255.00	1200.00	1073.00	1009.00	989.00	997.00	963.00	911.00	895.00	906.00	902.00	864.00	886.00	899.00	838.00	825.00	835.00	828.00	820.00	810.00	791.00	789.00	781.00	768.00	752.00	742.00	742.00	736.00	735.00	738.00	729.00	717.00	720.00	780.00	746.00	712.00	707.00	717.00	724.00	735.00	739.00	745.00	759.00	770.00	780.00	790.00	818.00	854.00	852.00	849.00	858.00	881.00	891.00	909.00	929.00	937.00	1026.00	1109.00	1089.00	1086.00	1287.00	1164.00	1161.00	1247.00	1271.00	1091.00	1141.00	1132.00	1138.00	1238.00	1184.00	1161.00	1215.00	1255.00	1181.00	1218.00	1258.00	1310.00	1282.00	1267.00	1325.00	1337.00	1334.00	1264.00	1236.00	1215.00	1201.00	1191.00	1195.00	1199.00	1190.00	1194.00	1195.00	1197.00	1200.00	1212.00	1216.00	1218.00	1216.00	1218.00	1221.00	1233.00	1256.00	1244.00	1227.00	1222.00	1221.00	1216.00	1215.00	1228.00	1238.00	1231.00	1242.00	1246.00	1269.00	1300.00	1305.00	1344.00	1300.00	1321.00	1391.00	1417.00	1472.00	1457.00	1468.00	1480.00	1517.00	1593.00	1570.00	1547.00	1513.00	1490.00	1470.00	1479.00	1472.00	1467.00	1487.00	1478.00	1480.00	1489.00	1491.00	1521.00	1539.00	1559.00	1576.00	1583.00	1541.00	1495.00	1465.00	1454.00	1475.00	1458.00	1458.00	1481.00	1462.00	1464.00	1475.00	1482.00	1505.00	1539.00	1561.00	1576.00	1531.00	1464.00	1458.00	1458.00	1453.00	1462.00	1474.00	1490.00	1535.00	1537.00	1511.00	1535.00	1567.00	1552.00	1487.00	1495.00	1475.00	1465.00	1487.00	1495.00	1445.00	1447.00	1443.00	1432.00	1369.00	1368.00	1392.00
1145.00	1170.00	1290.00	1212.00	1133.00	1104.00	999.00	999.00	1011.00	969.00	959.00	936.00	945.00	974.00	948.00	950.00	929.00	945.00	966.00	978.00	992.00	995.00	1003.00	1070.00	1150.00	1109.00	1042.00	1077.00	1074.00	1106.00	1107.00	1168.00	1233.00	1146.00	1082.00	1143.00	1268.00	1394.00	1386.00	1406.00	1435.00	1469.00	1433.00	1329.00	1342.00	1272.00	1245.00	1245.00	1363.00	1421.00	1357.00	1361.00	1356.00	1310.00	1325.00	1423.00	1406.00	1346.00	1257.00	1223.00	1371.00	1457.00	1397.00	1429.00	1558.00	1484.00	1428.00	1339.00	1235.00	1128.00	1034.00	1022.00	1094.00	964.00	1001.00	1004.00	1024.00	1076.00	935.00	918.00	919.00	850.00	842.00	838.00	831.00	829.00	822.00	802.00	790.00	780.00	775.00	761.00	757.00	758.00	744.00	751.00	761.00	753.00	733.00	721.00	725.00	740.00	708.00	703.00	714.00	721.00	732.00	738.00	746.00	760.00	766.00	774.00	781.00	793.00	823.00	847.00	866.00	885.00	908.00	913.00	933.00	971.00	964.00	1075.00	1099.00	1202.00	1177.00	1251.00	1176.00	1197.00	1260.00	1192.00	1164.00	1155.00	1201.00	1174.00	1207.00	1217.00	1218.00	1239.00	1296.00	1205.00	1207.00	1253.00	1305.00	1307.00	1306.00	1337.00	1365.00	1333.00	1257.00	1227.00	1210.00	1194.00	1182.00	1183.00	1185.00	1179.00	1179.00	1184.00	1179.00	1187.00	1191.00	1201.00	1200.00	1204.00	1210.00	1221.00	1238.00	1249.00	1244.00	1243.00	1242.00	1243.00	1243.00	1251.00	1310.00	1297.00	1302.00	1298.00	1286.00	1313.00	1355.00	1377.00	1398.00	1311.00	1353.00	1387.00	1392.00	1417.00	1514.00	1524.00	1529.00	1576.00	1581.00	1526.00	1551.00	1528.00	1503.00	1458.00	1460.00	1471.00	1469.00	1465.00	1471.00	1500.00	1505.00	1512.00	1522.00	1541.00	1552.00	1529.00	1510.00	1509.00	1487.00	1461.00	1441.00	1435.00	1425.00	1428.00	1438.00	1500.00	1489.00	1507.00	1496.00	1502.00	1538.00	1547.00	1519.00	1512.00	1523.00	1511.00	1507.00	1527.00	1541.00	1535.00	1590.00	1584.00	1575.00	1533.00	1609.00	1644.00	1522.00	1515.00	1569.00	1530.00	1524.00	1510.00	1462.00	1488.00	1542.00	1498.00	1448.00	1470.00	1466.00	1446.00
1004.00	972.00	1192.00	1253.00	1242.00	1182.00	1178.00	1118.00	1095.00	1125.00	1059.00	1036.00	1071.00	1146.00	1176.00	1170.00	1107.00	1004.00	989.00	984.00	1163.00	1181.00	1232.00	1293.00	1290.00	1334.00	1292.00	1332.00	1327.00	1122.00	1055.00	1050.00	1048.00	1027.00	1036.00	1058.00	1101.00	1143.00	1145.00	1192.00	1270.00	1352.00	1554.00	1527.00	1520.00	1488.00	1401.00	1338.00	1467.00	1626.00	1641.00	1615.00	1571.00	1483.00	1457.00	1445.00	1456.00	1352.00	1242.00	1173.00	1106.00	1165.00	1080.00	1131.00	1350.00	1425.00	1504.00	1438.00	1384.00	1247.00	1231.00	1244.00	1285.00	1198.00	1339.00	1280.00	1164.00	1178.00	1080.00	1023.00	931.00	884.00	861.00	868.00	847.00	829.00	823.00	807.00	793.00	784.00	789.00	783.00	772.00	764.00	761.00	761.00	779.00	752.00	751.00	745.00	721.00	722.00	713.00	700.00	712.00	714.00	726.00	732.00	743.00	762.00	776.00	778.00	787.00	792.00	812.00	827.00	859.00	877.00	906.00	917.00	949.00	991.00	1034.00	1100.00	1097.00	1128.00	1218.00	1339.00	1299.00	1344.00	1390.00	1344.00	1220.00	1246.00	1374.00	1283.00	1351.00	1337.00	1299.00	1333.00	1359.00	1241.00	1239.00	1270.00	1282.00	1287.00	1273.00	1291.00	1313.00	1272.00	1227.00	1216.00	1200.00	1180.00	1169.00	1164.00	1160.00	1160.00	1157.00	1160.00	1164.00	1171.00	1177.00	1193.00	1208.00	1220.00	1231.00	1255.00	1272.00	1283.00	1281.00	1286.00	1296.00	1319.00	1348.00	1394.00	1464.00	1481.00	1444.00	1433.00	1444.00	1483.00	1540.00	1565.00	1538.00	1471.00	1449.00	1448.00	1465.00	1472.00	1507.00	1570.00	1588.00	1513.00	1459.00	1437.00	1426.00	1415.00	1423.00	1522.00	1454.00	1420.00	1438.00	1494.00	1531.00	1550.00	1551.00	1588.00	1632.00	1572.00	1526.00	1445.00	1450.00	1442.00	1433.00	1414.00	1396.00	1404.00	1426.00	1436.00	1460.00	1567.00	1654.00	1644.00	1649.00	1616.00	1640.00	1656.00	1619.00	1630.00	1644.00	1682.00	1692.00	1734.00	1720.00	1756.00	1729.00	1699.00	1605.00	1616.00	1658.00	1719.00	1650.00	1603.00	1578.00	1579.00	1622.00	1604.00	1477.00	1473.00	1502.00	1517.00	1513.00	1487.00	1435.00	1427.00
873.00	903.00	1012.00	1071.00	1133.00	1111.00	1099.00	1097.00	1044.00	1043.00	1005.00	978.00	999.00	1050.00	1149.00	1087.00	1040.00	957.00	950.00	961.00	1095.00	1208.00	1346.00	1369.00	1371.00	1397.00	1401.00	1435.00	1364.00	1100.00	1047.00	1019.00	1006.00	1009.00	1035.00	1050.00	1069.00	1095.00	1122.00	1167.00	1267.00	1352.00	1547.00	1670.00	1691.00	1589.00	1553.00	1449.00	1488.00	1681.00	1706.00	1773.00	1640.00	1566.00	1534.00	1567.00	1531.00	1474.00	1369.00	1259.00	1087.00	1028.00	1000.00	1027.00	1136.00	1205.00	1349.00	1418.00	1510.00	1363.00	1268.00	1217.00	1199.00	1215.00	1412.00	1316.00	1182.00	1092.00	1131.00	1147.00	1064.00	954.00	880.00	887.00	884.00	869.00	851.00	907.00	865.00	841.00	803.00	783.00	784.00	774.00	777.00	774.00	780.00	763.00	752.00	739.00	742.00	732.00	722.00	709.00	701.00	709.00	749.00	742.00	749.00	761.00	756.00	770.00	784.00	800.00	816.00	839.00	858.00	869.00	911.00	934.00	1064.00	1108.00	1046.00	1186.00	1157.00	1159.00	1146.00	1423.00	1344.00	1337.00	1437.00	1410.00	1250.00	1358.00	1428.00	1343.00	1368.00	1383.00	1334.00	1410.00	1363.00	1306.00	1276.00	1304.00	1330.00	1238.00	1231.00	1250.00	1281.00	1286.00	1232.00	1203.00	1189.00	1177.00	1162.00	1160.00	1155.00	1151.00	1149.00	1156.00	1165.00	1172.00	1183.00	1208.00	1222.00	1236.00	1248.00	1274.00	1289.00	1306.00	1307.00	1307.00	1357.00	1396.00	1458.00	1492.00	1438.00	1476.00	1514.00	1403.00	1420.00	1432.00	1522.00	1483.00	1536.00	1553.00	1517.00	1543.00	1492.00	1527.00	1543.00	1570.00	1537.00	1492.00	1443.00	1424.00	1410.00	1407.00	1440.00	1476.00	1511.00	1424.00	1439.00	1466.00	1487.00	1561.00	1620.00	1653.00	1628.00	1642.00	1598.00	1470.00	1408.00	1408.00	1424.00	1386.00	1397.00	1468.00	1516.00	1502.00	1535.00	1631.00	1625.00	1616.00	1632.00	1569.00	1566.00	1572.00	1590.00	1613.00	1643.00	1730.00	1760.00	1765.00	1777.00	1759.00	1690.00	1647.00	1653.00	1651.00	1744.00	1740.00	1652.00	1666.00	1657.00	1640.00	1628.00	1577.00	1526.00	1535.00	1576.00	1600.00	1562.00	1474.00	1531.00	1493.00
821.00	861.00	933.00	967.00	989.00	1028.00	1018.00	1024.00	997.00	978.00	974.00	964.00	984.00	1042.00	1163.00	996.00	970.00	942.00	913.00	956.00	1008.00	1090.00	1330.00	1374.00	1344.00	1373.00	1414.00	1340.00	1240.00	1064.00	1035.00	1002.00	988.00	1021.00	1030.00	1048.00	1077.00	1074.00	1108.00	1155.00	1212.00	1293.00	1361.00	1538.00	1682.00	1726.00	1630.00	1614.00	1651.00	1771.00	1755.00	1744.00	1667.00	1615.00	1531.00	1550.00	1714.00	1705.00	1554.00	1373.00	1165.00	1080.00	1008.00	961.00	1001.00	1064.00	1128.00	1275.00	1394.00	1423.00	1358.00	1279.00	1208.00	1212.00	1341.00	1340.00	1169.00	1094.00	1044.00	1010.00	964.00	947.00	887.00	954.00	1000.00	976.00	891.00	869.00	904.00	849.00	803.00	802.00	791.00	790.00	785.00	782.00	777.00	762.00	766.00	815.00	776.00	739.00	723.00	708.00	694.00	703.00	731.00	744.00	740.00	747.00	765.00	779.00	783.00	793.00	819.00	824.00	851.00	870.00	933.00	972.00	1073.00	1179.00	1155.00	1122.00	1241.00	1257.00	1219.00	1366.00	1416.00	1436.00	1486.00	1381.00	1276.00	1391.00	1479.00	1402.00	1389.00	1389.00	1371.00	1456.00	1473.00	1339.00	1322.00	1363.00	1379.00	1262.00	1213.00	1214.00	1276.00	1250.00	1208.00	1193.00	1184.00	1175.00	1156.00	1153.00	1149.00	1146.00	1142.00	1155.00	1161.00	1178.00	1195.00	1227.00	1240.00	1252.00	1266.00	1285.00	1314.00	1333.00	1341.00	1361.00	1451.00	1457.00	1499.00	1419.00	1422.00	1453.00	1469.00	1396.00	1371.00	1410.00	1489.00	1431.00	1368.00	1409.00	1439.00	1461.00	1540.00	1583.00	1495.00	1459.00	1467.00	1461.00	1431.00	1421.00	1414.00	1462.00	1418.00	1399.00	1441.00	1399.00	1403.00	1505.00	1541.00	1556.00	1565.00	1604.00	1653.00	1671.00	1590.00	1543.00	1435.00	1400.00	1370.00	1383.00	1438.00	1437.00	1442.00	1486.00	1487.00	1518.00	1538.00	1582.00	1537.00	1516.00	1543.00	1560.00	1615.00	1662.00	1697.00	1736.00	1776.00	1811.00	1787.00	1824.00	1789.00	1737.00	1749.00	1723.00	1774.00	1775.00	1705.00	1735.00	1623.00	1573.00	1557.00	1535.00	1535.00	1587.00	1611.00	1634.00	1569.00	1533.00	1609.00	1580.00
826.00	826.00	874.00	901.00	932.00	982.00	987.00	996.00	996.00	974.00	952.00	955.00	1009.00	1082.00	1129.00	979.00	922.00	913.00	907.00	957.00	958.00	1005.00	1261.00	1262.00	1300.00	1299.00	1370.00	1375.00	1214.00	1042.00	1022.00	988.00	976.00	1008.00	1018.00	1039.00	1051.00	1075.00	1115.00	1133.00	1158.00	1206.00	1305.00	1537.00	1670.00	1650.00	1471.00	1558.00	1668.00	1630.00	1544.00	1693.00	1705.00	1548.00	1421.00	1415.00	1560.00	1571.00	1534.00	1459.00	1282.00	1257.00	1195.00	1102.00	931.00	1024.00	1055.00	1133.00	1183.00	1351.00	1315.00	1195.00	1147.00	1249.00	1372.00	1243.00	1170.00	1068.00	1020.00	1043.00	1017.00	976.00	962.00	950.00	1025.00	984.00	929.00	851.00	833.00	823.00	831.00	813.00	806.00	821.00	827.00	811.00	796.00	806.00	828.00	914.00	810.00	758.00	746.00	722.00	699.00	702.00	713.00	716.00	726.00	746.00	757.00	770.00	786.00	796.00	827.00	844.00	864.00	881.00	940.00	959.00	1033.00	1141.00	1217.00	1099.00	1152.00	1239.00	1311.00	1362.00	1469.00	1561.00	1493.00	1372.00	1317.00	1373.00	1461.00	1392.00	1457.00	1477.00	1427.00	1510.00	1468.00	1404.00	1385.00	1375.00	1379.00	1289.00	1237.00	1194.00	1247.00	1259.00	1193.00	1180.00	1175.00	1169.00	1155.00	1148.00	1143.00	1141.00	1137.00	1151.00	1164.00	1180.00	1200.00	1244.00	1263.00	1276.00	1286.00	1307.00	1361.00	1380.00	1407.00	1436.00	1487.00	1553.00	1538.00	1452.00	1348.00	1415.00	1330.00	1364.00	1322.00	1381.00	1313.00	1359.00	1342.00	1423.00	1442.00	1431.00	1402.00	1466.00	1408.00	1393.00	1394.00	1401.00	1419.00	1411.00	1393.00	1429.00	1407.00	1359.00	1358.00	1406.00	1396.00	1421.00	1469.00	1525.00	1521.00	1528.00	1668.00	1609.00	1541.00	1499.00	1431.00	1401.00	1363.00	1365.00	1392.00	1377.00	1406.00	1454.00	1432.00	1506.00	1539.00	1563.00	1497.00	1518.00	1556.00	1571.00	1579.00	1600.00	1683.00	1812.00	1782.00	1755.00	1730.00	1812.00	1853.00	1826.00	1831.00	1812.00	1849.00	1815.00	1698.00	1659.00	1680.00	1593.00	1570.00	1577.00	1593.00	1603.00	1669.00	1611.00	1610.00	1630.00	1648.00	1617.00
782.00	794.00	815.00	843.00	869.00	902.00	957.00	925.00	901.00	919.00	920.00	981.00	963.00	936.00	916.00	891.00	880.00	874.00	886.00	877.00	896.00	936.00	1027.00	1024.00	1089.00	1076.00	1068.00	1053.00	1020.00	989.00	957.00	964.00	967.00	1006.00	1021.00	1053.00	1100.00	1082.00	1135.00	1135.00	1142.00	1212.00	1297.00	1306.00	1414.00	1517.00	1255.00	1317.00	1351.00	1280.00	1253.00	1363.00	1478.00	1354.00	1356.00	1211.00	1090.00	1131.00	1122.00	1167.00	1227.00	1308.00	1257.00	1136.00	877.00	981.00	1020.00	992.00	962.00	1088.00	1248.00	1207.00	1040.00	1073.00	1278.00	1277.00	1262.00	1294.00	1178.00	1120.00	1112.00	1066.00	1227.00	1318.00	1249.00	1096.00	1048.00	1073.00	999.00	976.00	1009.00	1146.00	1202.00	1209.00	1044.00	909.00	980.00	1034.00	1050.00	1119.00	1087.00	953.00	919.00	829.00	716.00	866.00	877.00	880.00	794.00	743.00	761.00	774.00	787.00	800.00	804.00	821.00	851.00	873.00	898.00	935.00	1008.00	1053.00	1120.00	1282.00	1196.00	1180.00	1218.00	1485.00	1483.00	1561.00	1520.00	1513.00	1422.00	1455.00	1474.00	1453.00	1426.00	1347.00	1436.00	1478.00	1423.00	1394.00	1340.00	1264.00	1234.00	1279.00	1294.00	1210.00	1205.00	1192.00	1195.00	1182.00	1174.00	1164.00	1147.00	1142.00	1138.00	1133.00	1126.00	1159.00	1186.00	1212.00	1222.00	1312.00	1346.00	1357.00	1374.00	1399.00	1447.00	1499.00	1538.00	1584.00	1458.00	1458.00	1314.00	1317.00	1334.00	1326.00	1235.00	1219.00	1233.00	1275.00	1308.00	1331.00	1386.00	1388.00	1343.00	1288.00	1276.00	1290.00	1338.00	1324.00	1326.00	1352.00	1430.00	1437.00	1404.00	1430.00	1396.00	1306.00	1406.00	1396.00	1401.00	1475.00	1522.00	1529.00	1562.00	1600.00	1571.00	1490.00	1437.00	1439.00	1373.00	1379.00	1364.00	1337.00	1332.00	1426.00	1440.00	1423.00	1435.00	1493.00	1539.00	1514.00	1571.00	1595.00	1655.00	1653.00	1698.00	1687.00	1644.00	1717.00	1673.00	1612.00	1579.00	1606.00	1652.00	1665.00	1711.00	1850.00	1879.00	1898.00	1873.00	1850.00	1890.00	1811.00	1749.00	1738.00	1674.00	1666.00	1613.00	1625.00	1536.00	1475.00	1444.00	1422.00
774.00	801.00	822.00	815.00	837.00	872.00	890.00	899.00	876.00	899.00	911.00	944.00	961.00	943.00	932.00	905.00	880.00	865.00	865.00	870.00	897.00	920.00	995.00	950.00	950.00	971.00	1003.00	958.00	942.00	969.00	1009.00	1014.00	992.00	996.00	1019.00	1019.00	1040.00	1066.00	1093.00	1117.00	1141.00	1164.00	1212.00	1270.00	1361.00	1389.00	1217.00	1179.00	1225.00	1185.00	1156.00	1235.00	1271.00	1164.00	1153.00	1161.00	1104.00	1015.00	1038.00	1023.00	1066.00	1145.00	1110.00	1053.00	861.00	864.00	885.00	899.00	897.00	1014.00	1128.00	1118.00	994.00	965.00	1117.00	1230.00	1277.00	1325.00	1227.00	1203.00	1151.00	1081.00	1185.00	1348.00	1328.00	1271.00	1245.00	1244.00	1221.00	1282.00	1312.00	1193.00	1116.00	1059.00	999.00	1104.00	1077.00	1178.00	1232.00	1296.00	1206.00	1055.00	1013.00	814.00	712.00	921.00	1049.00	968.00	854.00	773.00	754.00	763.00	771.00	785.00	840.00	868.00	908.00	876.00	958.00	997.00	953.00	1025.00	1116.00	1317.00	1331.00	1256.00	1279.00	1408.00	1539.00	1532.00	1467.00	1380.00	1423.00	1348.00	1346.00	1317.00	1327.00	1272.00	1339.00	1412.00	1365.00	1313.00	1338.00	1247.00	1201.00	1193.00	1257.00	1221.00	1166.00	1197.00	1214.00	1201.00	1188.00	1164.00	1154.00	1153.00	1150.00	1144.00	1131.00	1155.00	1177.00	1238.00	1273.00	1292.00	1379.00	1427.00	1427.00	1474.00	1506.00	1563.00	1493.00	1493.00	1343.00	1382.00	1299.00	1240.00	1309.00	1274.00	1213.00	1245.00	1250.00	1306.00	1304.00	1325.00	1355.00	1263.00	1245.00	1238.00	1246.00	1266.00	1296.00	1304.00	1339.00	1379.00	1441.00	1395.00	1389.00	1380.00	1359.00	1293.00	1332.00	1352.00	1362.00	1436.00	1443.00	1472.00	1520.00	1593.00	1445.00	1417.00	1351.00	1388.00	1347.00	1335.00	1317.00	1339.00	1381.00	1394.00	1417.00	1424.00	1450.00	1579.00	1613.00	1595.00	1621.00	1611.00	1619.00	1666.00	1663.00	1656.00	1544.00	1605.00	1572.00	1587.00	1588.00	1598.00	1697.00	1785.00	1778.00	1722.00	1777.00	1847.00	1881.00	1926.00	1904.00	1787.00	1702.00	1679.00	1610.00	1597.00	1579.00	1559.00	1580.00	1468.00	1481.00	1477.00
790.00	791.00	861.00	857.00	829.00	831.00	869.00	855.00	876.00	890.00	895.00	920.00	924.00	897.00	926.00	891.00	880.00	856.00	879.00	894.00	904.00	939.00	925.00	925.00	932.00	924.00	922.00	926.00	955.00	1035.00	1134.00	1092.00	1049.00	999.00	1007.00	1012.00	1029.00	1043.00	1076.00	1069.00	1053.00	1096.00	1150.00	1200.00	1222.00	1279.00	1179.00	1124.00	1174.00	1161.00	1101.00	1161.00	1175.00	1103.00	1073.00	1028.00	1030.00	987.00	942.00	963.00	1007.00	1005.00	995.00	935.00	827.00	842.00	857.00	863.00	873.00	940.00	1018.00	973.00	912.00	919.00	1019.00	1114.00	1210.00	1261.00	1312.00	1321.00	1256.00	1247.00	1139.00	1337.00	1425.00	1357.00	1293.00	1438.00	1415.00	1373.00	1208.00	1074.00	1099.00	1074.00	1134.00	1240.00	1215.00	1334.00	1415.00	1521.00	1289.00	1145.00	1014.00	845.00	755.00	784.00	978.00	1024.00	871.00	888.00	827.00	790.00	781.00	794.00	822.00	844.00	920.00	902.00	1024.00	1072.00	1049.00	1016.00	1031.00	1175.00	1284.00	1352.00	1391.00	1370.00	1434.00	1363.00	1401.00	1326.00	1350.00	1331.00	1284.00	1232.00	1247.00	1231.00	1298.00	1386.00	1358.00	1272.00	1278.00	1310.00	1247.00	1144.00	1212.00	1219.00	1139.00	1151.00	1205.00	1221.00	1189.00	1173.00	1170.00	1169.00	1166.00	1162.00	1155.00	1136.00	1194.00	1214.00	1218.00	1252.00	1320.00	1335.00	1335.00	1402.00	1396.00	1506.00	1468.00	1410.00	1330.00	1263.00	1248.00	1202.00	1264.00	1273.00	1229.00	1182.00	1291.00	1395.00	1327.00	1287.00	1251.00	1228.00	1214.00	1228.00	1239.00	1277.00	1305.00	1331.00	1376.00	1408.00	1438.00	1423.00	1476.00	1389.00	1368.00	1268.00	1380.00	1388.00	1452.00	1433.00	1491.00	1492.00	1524.00	1467.00	1452.00	1381.00	1372.00	1300.00	1313.00	1342.00	1354.00	1390.00	1366.00	1406.00	1430.00	1455.00	1479.00	1578.00	1638.00	1580.00	1535.00	1484.00	1626.00	1630.00	1567.00	1607.00	1505.00	1536.00	1508.00	1547.00	1585.00	1530.00	1641.00	1721.00	1645.00	1663.00	1718.00	1720.00	1759.00	1870.00	1773.00	1784.00	1826.00	1747.00	1703.00	1701.00	1740.00	1661.00	1592.00	1536.00	1554.00	1474.00
851.00	817.00	833.00	883.00	880.00	846.00	881.00	884.00	847.00	854.00	871.00	927.00	908.00	898.00	886.00	868.00	852.00	849.00	866.00	889.00	899.00	911.00	883.00	879.00	918.00	906.00	933.00	965.00	1037.00	1098.00	1134.00	1150.00	1128.00	1055.00	1046.00	1034.00	1013.00	989.00	999.00	1002.00	1012.00	1054.00	1100.00	1127.00	1124.00	1168.00	1132.00	1078.00	1097.00	1071.00	1066.00	1110.00	1105.00	1026.00	1013.00	992.00	953.00	928.00	922.00	912.00	908.00	931.00	929.00	904.00	806.00	832.00	827.00	837.00	842.00	903.00	910.00	879.00	891.00	915.00	992.00	1072.00	1114.00	1209.00	1168.00	1253.00	1217.00	1181.00	1189.00	1217.00	1304.00	1368.00	1391.00	1364.00	1280.00	1218.00	1191.00	1195.00	1227.00	1225.00	1258.00	1361.00	1354.00	1469.00	1508.00	1392.00	1251.00	1117.00	976.00	824.00	713.00	838.00	1011.00	1048.00	986.00	866.00	807.00	811.00	812.00	800.00	891.00	908.00	877.00	921.00	988.00	1053.00	1162.00	1054.00	1110.00	1223.00	1345.00	1477.00	1490.00	1344.00	1317.00	1308.00	1352.00	1272.00	1276.00	1278.00	1308.00	1259.00	1183.00	1278.00	1335.00	1360.00	1294.00	1221.00	1246.00	1291.00	1230.00	1107.00	1165.00	1154.00	1122.00	1133.00	1188.00	1229.00	1205.00	1184.00	1189.00	1191.00	1194.00	1191.00	1230.00	1188.00	1153.00	1151.00	1227.00	1225.00	1215.00	1218.00	1274.00	1369.00	1267.00	1467.00	1414.00	1371.00	1348.00	1256.00	1234.00	1219.00	1222.00	1254.00	1201.00	1127.00	1201.00	1269.00	1220.00	1205.00	1187.00	1219.00	1201.00	1210.00	1246.00	1307.00	1357.00	1350.00	1453.00	1435.00	1484.00	1490.00	1421.00	1421.00	1475.00	1315.00	1290.00	1338.00	1444.00	1376.00	1443.00	1382.00	1413.00	1417.00	1515.00	1497.00	1444.00	1329.00	1324.00	1351.00	1417.00	1470.00	1451.00	1462.00	1528.00	1567.00	1579.00	1632.00	1673.00	1551.00	1498.00	1452.00	1639.00	1647.00	1544.00	1532.00	1521.00	1486.00	1471.00	1455.00	1480.00	1510.00	1617.00	1604.00	1584.00	1619.00	1646.00	1677.00	1798.00	1861.00	1906.00	1919.00	1843.00	1855.00	1732.00	1770.00	1785.00	1665.00	1576.00	1623.00	1613.00	1517.00
