415.00	416.00	416.00	417.00	417.00	416.00	418.00	419.00	419.00	419.00	419.00	421.00	421.00	421.00	423.00	423.00	425.00	425.00	424.00	423.00	423.00	424.00	423.00	424.00	423.00	426.00	425.00	426.00	426.00	426.00	426.00	428.00	428.00	428.00	429.00	429.00	430.00	431.00	431.00	433.00	433.00	434.00	434.00	433.00	433.00	435.00	435.00	434.00	435.00	436.00	436.00	438.00	439.00	440.00	439.00	439.00	438.00	441.00	443.00	443.00	443.00	444.00	445.00	445.00	447.00	447.00	448.00	450.00	450.00	450.00	450.00	451.00	450.00	451.00	450.00	452.00	451.00	452.00	452.00	455.00	453.00	452.00	457.00	455.00	458.00	456.00	458.00	459.00	461.00	462.00	464.00	466.00	470.00	486.00	490.00	490.00	476.00	480.00	479.00	497.00	505.00	511.00	510.00	502.00	498.00	505.00	512.00	515.00	511.00	517.00	514.00	523.00	520.00	496.00	489.00	491.00	506.00	499.00	509.00	519.00	557.00	562.00	545.00	534.00	502.00	499.00	497.00	497.00	509.00	525.00	534.00	529.00	507.00	502.00	503.00	505.00	507.00	508.00	505.00	505.00	508.00	514.00	510.00	514.00	514.00	517.00	522.00	523.00	530.00	533.00	533.00	594.00	599.00	610.00	639.00	629.00	628.00	631.00	627.00	632.00	632.00	592.00	573.00	582.00	567.00	567.00	558.00	553.00	558.00	559.00	573.00	578.00	561.00	558.00	566.00	590.00	583.00	578.00	576.00	572.00	567.00	570.00	573.00	574.00	570.00	564.00	566.00	563.00	563.00	565.00	566.00	569.00	575.00	579.00	581.00	583.00	595.00	598.00	602.00	605.00	629.00	638.00	626.00	627.00	619.00	589.00	588.00	592.00	591.00	601.00	600.00	603.00	605.00	602.00	605.00	614.00	623.00	628.00	628.00	624.00	626.00	631.00	635.00	647.00	654.00	671.00	647.00	645.00	639.00	641.00	647.00	653.00	646.00	641.00	640.00	648.00	687.00	665.00	658.00	657.00	659.00	666.00	670.00	678.00	680.00	675.00	677.00	670.00	670.00	666.00	660.00	662.00	665.00	673.00	680.00	693.00
416.00	416.00	417.00	417.00	417.00	417.00	418.00	418.00	419.00	420.00	420.00	421.00	422.00	422.00	423.00	424.00	424.00	424.00	423.00	422.00	422.00	423.00	425.00	425.00	425.00	425.00	426.00	426.00	427.00	426.00	427.00	427.00	427.00	428.00	428.00	429.00	431.00	432.00	433.00	434.00	433.00	432.00	432.00	433.00	435.00	434.00	434.00	435.00	435.00	436.00	437.00	438.00	439.00	439.00	439.00	437.00	438.00	442.00	442.00	443.00	444.00	445.00	447.00	446.00	447.00	448.00	449.00	450.00	451.00	450.00	447.00	450.00	448.00	449.00	450.00	450.00	451.00	451.00	454.00	454.00	453.00	454.00	456.00	456.00	458.00	458.00	458.00	458.00	462.00	463.00	465.00	466.00	472.00	481.00	490.00	491.00	480.00	486.00	482.00	495.00	497.00	505.00	512.00	520.00	518.00	509.00	509.00	506.00	512.00	508.00	518.00	525.00	535.00	522.00	500.00	490.00	493.00	499.00	522.00	549.00	535.00	504.00	497.00	502.00	494.00	492.00	493.00	497.00	501.00	501.00	506.00	506.00	502.00	504.00	522.00	527.00	511.00	506.00	506.00	509.00	508.00	509.00	512.00	516.00	517.00	521.00	523.00	526.00	535.00	537.00	529.00	564.00	611.00	622.00	620.00	616.00	620.00	625.00	622.00	611.00	604.00	548.00	551.00	551.00	557.00	560.00	548.00	550.00	552.00	560.00	570.00	569.00	557.00	585.00	654.00	685.00	619.00	569.00	572.00	570.00	565.00	568.00	568.00	567.00	566.00	563.00	563.00	563.00	565.00	570.00	572.00	572.00	576.00	582.00	588.00	592.00	593.00	597.00	605.00	610.00	684.00	660.00	629.00	623.00	605.00	593.00	589.00	590.00	591.00	595.00	595.00	598.00	599.00	599.00	606.00	612.00	620.00	623.00	629.00	629.00	629.00	634.00	629.00	640.00	654.00	670.00	653.00	635.00	638.00	646.00	655.00	650.00	641.00	636.00	638.00	646.00	657.00	671.00	669.00	660.00	658.00	665.00	672.00	681.00	680.00	666.00	667.00	667.00	667.00	667.00	659.00	660.00	665.00	668.00	687.00	701.00
415.00	416.00	415.00	417.00	418.00	418.00	417.00	417.00	420.00	419.00	420.00	421.00	422.00	422.00	423.00	423.00	424.00	424.00	422.00	421.00	423.00	423.00	424.00	424.00	424.00	426.00	425.00	425.00	426.00	426.00	427.00	427.00	428.00	428.00	429.00	429.00	432.00	432.00	431.00	431.00	432.00	432.00	432.00	433.00	432.00	433.00	435.00	436.00	437.00	438.00	437.00	437.00	439.00	438.00	437.00	438.00	439.00	442.00	442.00	444.00	443.00	445.00	445.00	445.00	446.00	447.00	448.00	450.00	448.00	448.00	449.00	448.00	448.00	449.00	450.00	450.00	451.00	452.00	453.00	454.00	454.00	456.00	455.00	457.00	458.00	458.00	457.00	459.00	461.00	465.00	467.00	471.00	472.00	477.00	481.00	488.00	490.00	495.00	491.00	494.00	499.00	512.00	525.00	515.00	514.00	507.00	499.00	506.00	512.00	504.00	515.00	520.00	534.00	541.00	512.00	489.00	488.00	501.00	529.00	531.00	505.00	496.00	492.00	493.00	493.00	493.00	492.00	494.00	498.00	507.00	515.00	505.00	502.00	510.00	531.00	545.00	524.00	506.00	505.00	507.00	507.00	507.00	518.00	519.00	520.00	523.00	522.00	525.00	538.00	538.00	525.00	567.00	608.00	608.00	606.00	600.00	591.00	590.00	603.00	574.00	542.00	544.00	621.00	595.00	544.00	548.00	542.00	548.00	545.00	547.00	556.00	553.00	551.00	618.00	690.00	585.00	563.00	559.00	570.00	570.00	565.00	568.00	565.00	563.00	561.00	560.00	565.00	567.00	568.00	572.00	575.00	575.00	580.00	588.00	591.00	596.00	646.00	611.00	614.00	627.00	692.00	699.00	634.00	620.00	618.00	600.00	592.00	601.00	592.00	593.00	594.00	597.00	600.00	600.00	607.00	615.00	616.00	619.00	621.00	622.00	627.00	627.00	628.00	651.00	658.00	667.00	642.00	635.00	640.00	646.00	658.00	649.00	636.00	641.00	644.00	641.00	652.00	653.00	651.00	665.00	677.00	670.00	672.00	676.00	674.00	663.00	660.00	658.00	661.00	662.00	657.00	660.00	659.00	664.00	686.00	699.00
414.00	415.00	416.00	416.00	417.00	417.00	418.00	418.00	419.00	420.00	421.00	421.00	423.00	423.00	423.00	424.00	423.00	422.00	422.00	422.00	423.00	423.00	422.00	423.00	423.00	424.00	426.00	427.00	426.00	428.00	428.00	426.00	429.00	429.00	430.00	429.00	429.00	429.00	430.00	431.00	430.00	431.00	432.00	432.00	432.00	432.00	435.00	436.00	437.00	437.00	437.00	437.00	438.00	438.00	438.00	441.00	440.00	442.00	443.00	443.00	442.00	444.00	446.00	445.00	445.00	445.00	446.00	446.00	446.00	448.00	449.00	449.00	451.00	450.00	450.00	452.00	451.00	453.00	452.00	456.00	454.00	455.00	455.00	456.00	458.00	458.00	459.00	459.00	459.00	462.00	469.00	479.00	484.00	478.00	487.00	489.00	494.00	506.00	514.00	507.00	516.00	513.00	514.00	509.00	510.00	494.00	493.00	495.00	496.00	507.00	513.00	516.00	508.00	508.00	510.00	519.00	518.00	524.00	491.00	489.00	491.00	493.00	493.00	493.00	494.00	497.00	498.00	503.00	511.00	540.00	528.00	543.00	526.00	535.00	540.00	555.00	522.00	510.00	504.00	504.00	504.00	511.00	514.00	513.00	514.00	516.00	515.00	520.00	536.00	557.00	527.00	535.00	583.00	586.00	602.00	592.00	538.00	557.00	587.00	611.00	615.00	651.00	663.00	642.00	602.00	584.00	576.00	568.00	567.00	559.00	560.00	571.00	565.00	549.00	550.00	553.00	555.00	555.00	555.00	558.00	566.00	565.00	558.00	559.00	563.00	569.00	574.00	573.00	577.00	576.00	578.00	583.00	578.00	588.00	591.00	598.00	620.00	650.00	631.00	618.00	640.00	632.00	625.00	620.00	607.00	601.00	599.00	605.00	603.00	592.00	594.00	598.00	602.00	605.00	604.00	607.00	610.00	614.00	620.00	620.00	624.00	629.00	637.00	660.00	646.00	636.00	628.00	635.00	642.00	640.00	642.00	638.00	635.00	664.00	656.00	645.00	647.00	648.00	653.00	658.00	666.00	665.00	661.00	668.00	665.00	671.00	660.00	656.00	652.00	654.00	664.00	677.00	666.00	668.00	677.00	682.00
414.00	415.00	415.00	417.00	416.00	418.00	420.00	419.00	419.00	419.00	420.00	420.00	422.00	422.00	423.00	422.00	422.00	422.00	422.00	422.00	420.00	422.00	422.00	422.00	421.00	423.00	426.00	424.00	426.00	426.00	429.00	428.00	427.00	427.00	428.00	428.00	429.00	430.00	429.00	430.00	430.00	430.00	431.00	432.00	431.00	432.00	435.00	435.00	436.00	436.00	437.00	438.00	440.00	440.00	441.00	442.00	441.00	443.00	443.00	444.00	443.00	446.00	445.00	445.00	445.00	445.00	447.00	446.00	447.00	447.00	448.00	447.00	450.00	449.00	451.00	452.00	451.00	451.00	452.00	453.00	455.00	455.00	456.00	456.00	457.00	457.00	459.00	459.00	459.00	461.00	467.00	479.00	495.00	485.00	484.00	488.00	494.00	505.00	507.00	504.00	509.00	511.00	505.00	497.00	505.00	489.00	490.00	490.00	494.00	504.00	511.00	521.00	521.00	505.00	498.00	536.00	541.00	525.00	497.00	492.00	493.00	493.00	495.00	496.00	496.00	502.00	506.00	518.00	532.00	550.00	567.00	541.00	522.00	555.00	563.00	537.00	521.00	516.00	505.00	504.00	504.00	509.00	510.00	509.00	510.00	511.00	513.00	523.00	542.00	559.00	535.00	536.00	586.00	594.00	586.00	569.00	550.00	585.00	611.00	628.00	656.00	664.00	672.00	702.00	609.00	583.00	573.00	572.00	572.00	563.00	572.00	603.00	573.00	552.00	555.00	555.00	559.00	562.00	561.00	557.00	555.00	558.00	560.00	566.00	566.00	568.00	573.00	578.00	580.00	581.00	586.00	590.00	585.00	583.00	588.00	591.00	606.00	638.00	631.00	624.00	662.00	650.00	632.00	614.00	612.00	613.00	610.00	611.00	605.00	593.00	594.00	595.00	598.00	599.00	603.00	607.00	611.00	618.00	625.00	625.00	627.00	635.00	637.00	676.00	641.00	631.00	627.00	636.00	636.00	633.00	638.00	636.00	634.00	652.00	648.00	650.00	649.00	651.00	654.00	657.00	660.00	657.00	656.00	661.00	664.00	664.00	659.00	656.00	653.00	650.00	659.00	678.00	665.00	670.00	671.00	680.00
414.00	414.00	415.00	415.00	420.00	420.00	420.00	420.00	421.00	420.00	420.00	420.00	420.00	421.00	422.00	423.00	422.00	423.00	421.00	420.00	421.00	420.00	420.00	422.00	421.00	423.00	425.00	425.00	423.00	424.00	427.00	427.00	427.00	426.00	427.00	428.00	428.00	429.00	430.00	430.00	430.00	431.00	431.00	432.00	432.00	433.00	434.00	434.00	435.00	436.00	437.00	438.00	440.00	440.00	441.00	441.00	442.00	443.00	444.00	444.00	445.00	445.00	446.00	445.00	445.00	447.00	446.00	447.00	446.00	448.00	448.00	450.00	449.00	449.00	451.00	451.00	450.00	450.00	454.00	454.00	455.00	457.00	456.00	457.00	457.00	459.00	459.00	459.00	457.00	460.00	465.00	470.00	492.00	492.00	495.00	491.00	499.00	503.00	496.00	498.00	501.00	502.00	496.00	491.00	489.00	486.00	488.00	491.00	496.00	500.00	505.00	526.00	537.00	513.00	503.00	520.00	540.00	536.00	509.00	524.00	507.00	502.00	506.00	507.00	505.00	511.00	513.00	515.00	519.00	552.00	568.00	551.00	533.00	596.00	563.00	525.00	519.00	520.00	505.00	505.00	509.00	518.00	507.00	509.00	510.00	512.00	514.00	522.00	541.00	557.00	541.00	539.00	589.00	583.00	579.00	535.00	540.00	603.00	595.00	615.00	663.00	682.00	683.00	712.00	634.00	583.00	589.00	592.00	603.00	571.00	574.00	586.00	573.00	555.00	554.00	559.00	560.00	565.00	566.00	563.00	559.00	559.00	561.00	565.00	568.00	571.00	575.00	582.00	584.00	589.00	587.00	596.00	591.00	583.00	592.00	597.00	602.00	623.00	627.00	617.00	671.00	649.00	629.00	630.00	621.00	609.00	607.00	604.00	600.00	594.00	594.00	595.00	596.00	596.00	606.00	613.00	619.00	623.00	624.00	628.00	629.00	637.00	638.00	656.00	633.00	628.00	625.00	629.00	632.00	630.00	626.00	631.00	640.00	641.00	643.00	644.00	645.00	647.00	649.00	652.00	657.00	655.00	653.00	659.00	662.00	665.00	657.00	653.00	649.00	648.00	657.00	662.00	661.00	661.00	671.00	676.00
414.00	413.00	414.00	416.00	420.00	420.00	420.00	421.00	420.00	421.00	421.00	421.00	422.00	422.00	423.00	423.00	423.00	422.00	421.00	422.00	419.00	421.00	421.00	422.00	423.00	424.00	423.00	424.00	424.00	425.00	427.00	427.00	427.00	428.00	427.00	429.00	429.00	430.00	429.00	430.00	430.00	431.00	432.00	432.00	433.00	433.00	434.00	434.00	436.00	437.00	437.00	438.00	439.00	441.00	441.00	441.00	441.00	443.00	443.00	444.00	444.00	443.00	444.00	444.00	445.00	444.00	446.00	447.00	448.00	448.00	448.00	449.00	450.00	451.00	451.00	450.00	451.00	453.00	453.00	454.00	455.00	456.00	456.00	458.00	458.00	457.00	458.00	460.00	456.00	459.00	465.00	471.00	493.00	499.00	497.00	493.00	501.00	502.00	493.00	490.00	491.00	492.00	486.00	487.00	483.00	484.00	489.00	497.00	500.00	511.00	507.00	523.00	531.00	521.00	511.00	525.00	537.00	546.00	550.00	525.00	519.00	515.00	513.00	521.00	536.00	526.00	513.00	533.00	541.00	525.00	559.00	544.00	548.00	589.00	547.00	525.00	522.00	521.00	507.00	507.00	511.00	528.00	509.00	509.00	514.00	516.00	517.00	520.00	539.00	553.00	534.00	526.00	589.00	574.00	540.00	522.00	545.00	595.00	610.00	634.00	647.00	671.00	715.00	707.00	628.00	625.00	652.00	617.00	610.00	596.00	578.00	583.00	578.00	560.00	553.00	555.00	560.00	566.00	565.00	563.00	561.00	562.00	560.00	564.00	569.00	574.00	576.00	586.00	589.00	592.00	591.00	598.00	596.00	585.00	588.00	600.00	607.00	608.00	611.00	612.00	622.00	625.00	628.00	629.00	614.00	605.00	603.00	604.00	603.00	597.00	596.00	596.00	597.00	597.00	604.00	607.00	610.00	613.00	626.00	621.00	624.00	634.00	631.00	627.00	631.00	629.00	623.00	630.00	630.00	625.00	625.00	636.00	640.00	635.00	636.00	638.00	643.00	645.00	650.00	654.00	659.00	656.00	650.00	651.00	651.00	665.00	659.00	650.00	647.00	647.00	658.00	658.00	658.00	658.00	671.00	670.00
414.00	413.00	413.00	417.00	419.00	420.00	422.00	422.00	421.00	420.00	419.00	419.00	421.00	421.00	423.00	422.00	422.00	419.00	420.00	420.00	419.00	418.00	418.00	419.00	421.00	425.00	426.00	428.00	428.00	427.00	426.00	426.00	427.00	429.00	427.00	427.00	428.00	429.00	430.00	430.00	431.00	430.00	431.00	432.00	433.00	433.00	434.00	436.00	436.00	438.00	437.00	437.00	439.00	440.00	440.00	440.00	440.00	442.00	443.00	443.00	442.00	443.00	442.00	445.00	444.00	445.00	447.00	447.00	448.00	448.00	449.00	449.00	448.00	450.00	450.00	453.00	451.00	453.00	453.00	455.00	456.00	457.00	457.00	456.00	457.00	456.00	457.00	456.00	456.00	458.00	464.00	472.00	480.00	500.00	499.00	501.00	500.00	487.00	487.00	476.00	478.00	478.00	479.00	479.00	481.00	486.00	493.00	497.00	493.00	503.00	503.00	530.00	540.00	527.00	529.00	545.00	550.00	553.00	550.00	547.00	552.00	533.00	523.00	525.00	538.00	547.00	550.00	536.00	525.00	537.00	572.00	573.00	617.00	567.00	530.00	529.00	521.00	517.00	512.00	512.00	518.00	533.00	514.00	511.00	511.00	513.00	517.00	527.00	537.00	536.00	532.00	515.00	521.00	522.00	537.00	573.00	528.00	562.00	603.00	582.00	634.00	631.00	664.00	673.00	702.00	707.00	694.00	705.00	700.00	623.00	592.00	584.00	579.00	572.00	562.00	556.00	561.00	568.00	570.00	573.00	573.00	568.00	569.00	567.00	568.00	570.00	576.00	587.00	593.00	593.00	596.00	609.00	612.00	599.00	591.00	593.00	610.00	676.00	680.00	644.00	630.00	627.00	629.00	628.00	616.00	609.00	611.00	617.00	616.00	607.00	606.00	603.00	601.00	599.00	600.00	602.00	605.00	606.00	620.00	611.00	617.00	624.00	625.00	621.00	623.00	619.00	618.00	629.00	628.00	621.00	623.00	627.00	628.00	631.00	644.00	649.00	655.00	658.00	656.00	661.00	663.00	656.00	650.00	643.00	647.00	655.00	651.00	647.00	642.00	648.00	652.00	652.00	657.00	657.00	660.00	661.00
414.00	413.00	413.00	417.00	419.00	420.00	422.00	422.00	421.00	420.00	419.00	419.00	421.00	421.00	423.00	422.00	422.00	419.00	420.00	420.00	419.00	418.00	418.00	419.00	421.00	425.00	426.00	428.00	428.00	427.00	426.00	426.00	427.00	429.00	427.00	427.00	428.00	429.00	430.00	430.00	431.00	430.00	431.00	432.00	433.00	433.00	434.00	436.00	436.00	438.00	437.00	437.00	439.00	440.00	440.00	440.00	440.00	442.00	443.00	443.00	442.00	443.00	442.00	445.00	444.00	445.00	447.00	447.00	448.00	448.00	449.00	449.00	448.00	450.00	450.00	453.00	451.00	453.00	453.00	455.00	456.00	457.00	457.00	456.00	457.00	456.00	457.00	456.00	456.00	458.00	464.00	472.00	480.00	500.00	499.00	501.00	500.00	487.00	487.00	476.00	478.00	478.00	479.00	479.00	481.00	486.00	493.00	497.00	493.00	503.00	503.00	530.00	540.00	527.00	529.00	545.00	550.00	553.00	550.00	547.00	552.00	533.00	523.00	525.00	538.00	547.00	550.00	536.00	525.00	537.00	572.00	573.00	617.00	567.00	530.00	529.00	521.00	517.00	512.00	512.00	518.00	533.00	514.00	511.00	511.00	513.00	517.00	527.00	537.00	536.00	532.00	515.00	521.00	522.00	537.00	573.00	528.00	562.00	603.00	582.00	634.00	631.00	664.00	673.00	702.00	707.00	694.00	705.00	700.00	623.00	592.00	584.00	579.00	572.00	562.00	556.00	561.00	568.00	570.00	573.00	573.00	568.00	569.00	567.00	568.00	570.00	576.00	587.00	593.00	593.00	596.00	609.00	612.00	599.00	591.00	593.00	610.00	676.00	680.00	644.00	630.00	627.00	629.00	628.00	616.00	609.00	611.00	617.00	616.00	607.00	606.00	603.00	601.00	599.00	600.00	602.00	605.00	606.00	620.00	611.00	617.00	624.00	625.00	621.00	623.00	619.00	618.00	629.00	628.00	621.00	623.00	627.00	628.00	631.00	644.00	649.00	655.00	658.00	656.00	661.00	663.00	656.00	650.00	643.00	647.00	655.00	651.00	647.00	642.00	648.00	652.00	652.00	657.00	657.00	660.00	661.00
413.00	414.00	415.00	418.00	420.00	420.00	421.00	420.00	420.00	419.00	419.00	420.00	420.00	421.00	422.00	422.00	420.00	423.00	421.00	422.00	422.00	421.00	422.00	422.00	424.00	429.00	428.00	430.00	431.00	429.00	425.00	426.00	428.00	427.00	428.00	428.00	429.00	428.00	429.00	429.00	430.00	430.00	431.00	433.00	433.00	435.00	436.00	434.00	435.00	437.00	437.00	438.00	440.00	441.00	441.00	441.00	441.00	442.00	441.00	443.00	440.00	442.00	443.00	443.00	445.00	446.00	446.00	445.00	447.00	447.00	449.00	450.00	450.00	450.00	451.00	451.00	453.00	452.00	453.00	456.00	456.00	456.00	456.00	456.00	454.00	455.00	457.00	456.00	458.00	459.00	464.00	473.00	478.00	497.00	493.00	496.00	494.00	480.00	478.00	471.00	473.00	474.00	477.00	480.00	490.00	492.00	499.00	506.00	502.00	503.00	510.00	526.00	543.00	537.00	528.00	548.00	572.00	579.00	564.00	565.00	541.00	528.00	528.00	529.00	540.00	554.00	556.00	538.00	528.00	556.00	589.00	583.00	614.00	544.00	533.00	533.00	522.00	519.00	513.00	512.00	515.00	536.00	517.00	512.00	512.00	515.00	519.00	527.00	533.00	535.00	528.00	517.00	520.00	531.00	561.00	599.00	544.00	585.00	642.00	606.00	609.00	611.00	628.00	628.00	644.00	668.00	672.00	676.00	694.00	642.00	610.00	589.00	578.00	570.00	565.00	573.00	558.00	559.00	567.00	569.00	573.00	571.00	573.00	571.00	572.00	571.00	572.00	587.00	585.00	590.00	598.00	607.00	615.00	605.00	596.00	595.00	597.00	611.00	640.00	683.00	655.00	637.00	632.00	625.00	620.00	612.00	615.00	620.00	617.00	611.00	606.00	605.00	608.00	605.00	601.00	602.00	602.00	603.00	607.00	609.00	619.00	621.00	616.00	616.00	621.00	616.00	618.00	630.00	623.00	620.00	620.00	624.00	628.00	633.00	644.00	655.00	652.00	655.00	657.00	655.00	653.00	660.00	650.00	646.00	641.00	648.00	651.00	643.00	641.00	644.00	647.00	647.00	652.00	656.00	657.00	659.00
415.00	417.00	418.00	421.00	421.00	420.00	419.00	420.00	420.00	420.00	419.00	419.00	421.00	421.00	421.00	421.00	422.00	423.00	424.00	423.00	424.00	425.00	425.00	424.00	427.00	432.00	431.00	430.00	430.00	430.00	426.00	427.00	427.00	429.00	427.00	428.00	428.00	430.00	429.00	430.00	430.00	431.00	430.00	432.00	434.00	436.00	435.00	436.00	436.00	435.00	438.00	438.00	440.00	440.00	440.00	441.00	441.00	441.00	441.00	442.00	442.00	443.00	443.00	444.00	444.00	444.00	445.00	447.00	447.00	447.00	449.00	448.00	449.00	452.00	452.00	451.00	452.00	453.00	454.00	453.00	455.00	455.00	455.00	456.00	455.00	455.00	456.00	454.00	459.00	461.00	465.00	470.00	476.00	495.00	490.00	486.00	487.00	475.00	472.00	473.00	473.00	475.00	483.00	483.00	487.00	495.00	499.00	520.00	507.00	506.00	514.00	521.00	542.00	549.00	533.00	538.00	544.00	563.00	558.00	566.00	574.00	545.00	537.00	536.00	537.00	542.00	553.00	556.00	545.00	593.00	564.00	589.00	579.00	542.00	537.00	532.00	525.00	523.00	516.00	516.00	520.00	530.00	518.00	514.00	514.00	517.00	520.00	535.00	542.00	538.00	540.00	514.00	523.00	542.00	576.00	624.00	580.00	629.00	662.00	648.00	636.00	636.00	624.00	623.00	632.00	643.00	649.00	673.00	678.00	681.00	643.00	600.00	580.00	582.00	572.00	597.00	566.00	559.00	566.00	569.00	573.00	576.00	579.00	580.00	576.00	579.00	576.00	580.00	583.00	587.00	593.00	601.00	608.00	607.00	599.00	596.00	604.00	600.00	614.00	629.00	662.00	647.00	636.00	631.00	625.00	615.00	622.00	625.00	616.00	611.00	609.00	610.00	614.00	608.00	600.00	602.00	604.00	604.00	605.00	606.00	610.00	612.00	613.00	615.00	618.00	614.00	616.00	624.00	621.00	618.00	621.00	625.00	633.00	639.00	643.00	657.00	647.00	649.00	655.00	657.00	648.00	660.00	651.00	647.00	641.00	645.00	645.00	643.00	640.00	642.00	648.00	648.00	650.00	653.00	658.00	659.00
417.00	417.00	416.00	420.00	421.00	419.00	419.00	419.00	418.00	418.00	417.00	418.00	418.00	419.00	418.00	417.00	420.00	420.00	423.00	423.00	423.00	423.00	424.00	425.00	425.00	427.00	427.00	427.00	425.00	427.00	428.00	426.00	427.00	426.00	427.00	427.00	430.00	430.00	431.00	430.00	431.00	432.00	432.00	434.00	434.00	435.00	436.00	437.00	436.00	436.00	438.00	438.00	438.00	439.00	438.00	438.00	438.00	440.00	441.00	441.00	441.00	444.00	441.00	443.00	444.00	443.00	448.00	447.00	447.00	447.00	448.00	448.00	449.00	451.00	451.00	452.00	452.00	451.00	453.00	453.00	455.00	453.00	453.00	455.00	455.00	455.00	453.00	455.00	467.00	471.00	473.00	475.00	481.00	480.00	476.00	478.00	474.00	469.00	469.00	480.00	479.00	486.00	490.00	502.00	498.00	493.00	505.00	509.00	511.00	508.00	512.00	533.00	543.00	551.00	560.00	557.00	557.00	552.00	556.00	557.00	570.00	567.00	563.00	555.00	544.00	547.00	554.00	563.00	562.00	574.00	548.00	551.00	542.00	532.00	529.00	537.00	532.00	529.00	526.00	524.00	526.00	538.00	526.00	521.00	519.00	519.00	521.00	533.00	539.00	544.00	528.00	521.00	536.00	588.00	648.00	680.00	651.00	667.00	660.00	647.00	636.00	661.00	658.00	674.00	699.00	696.00	655.00	619.00	622.00	632.00	617.00	596.00	588.00	600.00	584.00	577.00	576.00	564.00	565.00	570.00	573.00	580.00	591.00	591.00	591.00	589.00	583.00	587.00	592.00	598.00	600.00	605.00	603.00	625.00	637.00	610.00	617.00	608.00	605.00	604.00	615.00	635.00	642.00	639.00	631.00	623.00	626.00	627.00	624.00	618.00	625.00	623.00	619.00	617.00	616.00	617.00	610.00	608.00	605.00	605.00	607.00	607.00	608.00	609.00	622.00	612.00	613.00	614.00	616.00	622.00	630.00	633.00	648.00	653.00	641.00	636.00	633.00	635.00	635.00	639.00	653.00	654.00	651.00	654.00	656.00	640.00	637.00	643.00	647.00	647.00	651.00	649.00	654.00	659.00	678.00	674.00
415.00	414.00	413.00	415.00	420.00	420.00	418.00	417.00	416.00	417.00	416.00	416.00	419.00	418.00	417.00	417.00	420.00	421.00	423.00	423.00	422.00	423.00	423.00	423.00	424.00	425.00	426.00	425.00	427.00	425.00	427.00	427.00	427.00	427.00	428.00	429.00	428.00	428.00	431.00	430.00	433.00	432.00	433.00	435.00	436.00	436.00	435.00	436.00	436.00	437.00	439.00	439.00	437.00	438.00	438.00	437.00	438.00	439.00	441.00	440.00	442.00	443.00	442.00	442.00	444.00	444.00	446.00	447.00	449.00	447.00	447.00	449.00	449.00	450.00	450.00	452.00	453.00	452.00	452.00	453.00	454.00	454.00	454.00	455.00	454.00	453.00	454.00	455.00	472.00	476.00	479.00	480.00	488.00	476.00	471.00	471.00	466.00	471.00	474.00	488.00	485.00	483.00	500.00	500.00	521.00	506.00	514.00	518.00	525.00	520.00	529.00	538.00	542.00	547.00	561.00	566.00	550.00	547.00	552.00	555.00	566.00	567.00	568.00	563.00	552.00	554.00	555.00	561.00	567.00	583.00	542.00	545.00	536.00	528.00	526.00	532.00	528.00	529.00	531.00	531.00	531.00	539.00	529.00	523.00	521.00	521.00	522.00	534.00	541.00	544.00	523.00	515.00	539.00	607.00	630.00	656.00	645.00	652.00	621.00	606.00	636.00	661.00	676.00	661.00	739.00	752.00	685.00	631.00	612.00	598.00	597.00	591.00	585.00	582.00	578.00	584.00	587.00	569.00	565.00	571.00	573.00	576.00	585.00	587.00	590.00	592.00	589.00	586.00	597.00	597.00	605.00	612.00	608.00	623.00	655.00	627.00	621.00	616.00	609.00	607.00	609.00	616.00	625.00	628.00	643.00	629.00	632.00	633.00	634.00	622.00	627.00	627.00	621.00	619.00	620.00	619.00	615.00	616.00	611.00	611.00	609.00	610.00	609.00	610.00	623.00	615.00	612.00	615.00	621.00	624.00	628.00	628.00	633.00	636.00	635.00	628.00	630.00	630.00	635.00	645.00	655.00	650.00	645.00	646.00	647.00	635.00	638.00	642.00	646.00	645.00	643.00	644.00	648.00	650.00	670.00	678.00
414.00	413.00	413.00	416.00	419.00	419.00	416.00	416.00	417.00	417.00	418.00	419.00	421.00	421.00	419.00	420.00	421.00	422.00	422.00	422.00	422.00	422.00	423.00	423.00	423.00	424.00	425.00	426.00	425.00	425.00	427.00	427.00	428.00	426.00	429.00	428.00	429.00	429.00	430.00	432.00	432.00	434.00	433.00	435.00	436.00	435.00	436.00	436.00	437.00	437.00	437.00	437.00	437.00	438.00	437.00	437.00	438.00	438.00	440.00	440.00	442.00	442.00	444.00	444.00	443.00	444.00	445.00	448.00	446.00	447.00	448.00	448.00	449.00	449.00	450.00	452.00	453.00	453.00	453.00	453.00	453.00	452.00	453.00	452.00	454.00	454.00	454.00	456.00	474.00	480.00	482.00	484.00	492.00	477.00	470.00	468.00	466.00	479.00	484.00	487.00	490.00	493.00	516.00	511.00	515.00	511.00	514.00	520.00	533.00	527.00	534.00	542.00	547.00	554.00	562.00	561.00	541.00	542.00	549.00	552.00	558.00	561.00	563.00	565.00	562.00	568.00	558.00	556.00	553.00	583.00	539.00	539.00	530.00	524.00	523.00	525.00	524.00	526.00	530.00	531.00	533.00	538.00	530.00	527.00	523.00	521.00	522.00	535.00	539.00	545.00	517.00	529.00	536.00	579.00	577.00	578.00	607.00	609.00	594.00	598.00	641.00	650.00	652.00	643.00	671.00	701.00	672.00	651.00	626.00	607.00	604.00	594.00	585.00	580.00	582.00	587.00	590.00	575.00	565.00	568.00	568.00	570.00	580.00	582.00	588.00	594.00	598.00	588.00	594.00	601.00	604.00	617.00	612.00	651.00	710.00	649.00	613.00	619.00	615.00	611.00	612.00	613.00	620.00	625.00	635.00	638.00	656.00	646.00	635.00	637.00	646.00	629.00	628.00	633.00	617.00	613.00	638.00	622.00	618.00	614.00	612.00	617.00	613.00	610.00	612.00	613.00	613.00	618.00	620.00	623.00	622.00	623.00	623.00	622.00	625.00	623.00	628.00	630.00	636.00	642.00	638.00	637.00	641.00	641.00	647.00	640.00	641.00	639.00	641.00	641.00	643.00	642.00	644.00	647.00	676.00	691.00
413.00	412.00	412.00	418.00	418.00	416.00	416.00	419.00	420.00	419.00	419.00	420.00	421.00	421.00	421.00	421.00	421.00	421.00	420.00	422.00	421.00	422.00	421.00	422.00	423.00	424.00	425.00	425.00	426.00	425.00	428.00	427.00	427.00	427.00	427.00	428.00	429.00	431.00	431.00	432.00	432.00	433.00	433.00	434.00	435.00	436.00	436.00	437.00	436.00	436.00	435.00	435.00	435.00	436.00	436.00	437.00	437.00	439.00	439.00	440.00	441.00	440.00	443.00	443.00	444.00	443.00	446.00	446.00	447.00	447.00	448.00	448.00	448.00	449.00	450.00	452.00	452.00	451.00	451.00	452.00	452.00	453.00	454.00	452.00	451.00	453.00	453.00	455.00	469.00	479.00	481.00	484.00	489.00	478.00	472.00	465.00	466.00	478.00	489.00	484.00	486.00	491.00	508.00	518.00	518.00	526.00	526.00	532.00	539.00	548.00	537.00	546.00	550.00	548.00	556.00	543.00	543.00	548.00	546.00	547.00	553.00	557.00	556.00	559.00	565.00	563.00	560.00	556.00	553.00	562.00	537.00	530.00	527.00	522.00	519.00	519.00	523.00	523.00	529.00	530.00	529.00	535.00	538.00	534.00	522.00	518.00	518.00	524.00	532.00	542.00	523.00	533.00	543.00	559.00	586.00	593.00	603.00	610.00	597.00	631.00	699.00	675.00	642.00	682.00	688.00	648.00	629.00	626.00	619.00	618.00	598.00	592.00	588.00	585.00	588.00	587.00	581.00	578.00	568.00	567.00	570.00	573.00	577.00	581.00	589.00	591.00	599.00	603.00	609.00	595.00	603.00	616.00	619.00	745.00	689.00	627.00	614.00	619.00	620.00	614.00	619.00	616.00	622.00	627.00	634.00	640.00	646.00	674.00	659.00	637.00	646.00	635.00	638.00	672.00	620.00	616.00	620.00	623.00	622.00	618.00	618.00	625.00	625.00	614.00	613.00	614.00	615.00	617.00	616.00	617.00	619.00	619.00	620.00	624.00	634.00	624.00	627.00	630.00	631.00	634.00	633.00	632.00	635.00	637.00	641.00	637.00	639.00	640.00	640.00	642.00	643.00	642.00	643.00	647.00	672.00	714.00
415.00	415.00	416.00	415.00	416.00	418.00	418.00	419.00	420.00	420.00	420.00	418.00	419.00	418.00	418.00	417.00	418.00	418.00	418.00	418.00	419.00	421.00	422.00	420.00	422.00	423.00	424.00	426.00	426.00	425.00	426.00	427.00	427.00	428.00	430.00	431.00	431.00	431.00	431.00	432.00	432.00	432.00	433.00	434.00	433.00	437.00	436.00	435.00	433.00	434.00	435.00	435.00	435.00	435.00	436.00	436.00	438.00	439.00	440.00	440.00	439.00	443.00	442.00	443.00	445.00	444.00	445.00	445.00	446.00	446.00	447.00	448.00	448.00	449.00	450.00	449.00	449.00	449.00	450.00	452.00	452.00	452.00	452.00	452.00	452.00	452.00	452.00	456.00	465.00	471.00	475.00	476.00	468.00	464.00	463.00	464.00	467.00	471.00	472.00	475.00	477.00	480.00	491.00	494.00	495.00	500.00	501.00	523.00	530.00	537.00	532.00	545.00	543.00	536.00	543.00	541.00	548.00	534.00	534.00	536.00	547.00	553.00	558.00	563.00	554.00	557.00	563.00	569.00	571.00	548.00	534.00	530.00	525.00	518.00	516.00	519.00	524.00	526.00	525.00	525.00	524.00	529.00	534.00	529.00	520.00	516.00	511.00	508.00	508.00	516.00	512.00	556.00	556.00	595.00	627.00	654.00	686.00	636.00	615.00	659.00	693.00	653.00	578.00	579.00	616.00	669.00	659.00	653.00	655.00	621.00	604.00	598.00	597.00	593.00	593.00	585.00	584.00	582.00	579.00	572.00	572.00	579.00	585.00	583.00	584.00	587.00	590.00	601.00	610.00	605.00	601.00	606.00	613.00	633.00	631.00	626.00	621.00	627.00	629.00	621.00	628.00	625.00	621.00	623.00	634.00	656.00	651.00	633.00	632.00	635.00	633.00	638.00	644.00	646.00	624.00	624.00	628.00	636.00	621.00	619.00	624.00	628.00	637.00	632.00	618.00	617.00	617.00	622.00	616.00	617.00	618.00	619.00	628.00	629.00	636.00	630.00	627.00	627.00	626.00	627.00	630.00	630.00	632.00	632.00	632.00	640.00	636.00	639.00	640.00	643.00	644.00	646.00	646.00	646.00	688.00	718.00
415.00	414.00	415.00	414.00	417.00	418.00	419.00	419.00	420.00	419.00	419.00	418.00	418.00	417.00	417.00	418.00	417.00	418.00	419.00	419.00	419.00	420.00	421.00	421.00	421.00	422.00	425.00	425.00	424.00	424.00	426.00	426.00	428.00	428.00	430.00	430.00	431.00	430.00	431.00	432.00	433.00	433.00	433.00	434.00	435.00	435.00	433.00	435.00	433.00	433.00	435.00	435.00	436.00	436.00	436.00	436.00	438.00	439.00	439.00	440.00	440.00	442.00	442.00	443.00	444.00	444.00	445.00	445.00	447.00	446.00	448.00	447.00	447.00	448.00	449.00	449.00	448.00	448.00	449.00	450.00	451.00	451.00	452.00	452.00	453.00	452.00	452.00	453.00	466.00	469.00	469.00	469.00	465.00	462.00	463.00	466.00	467.00	470.00	475.00	478.00	482.00	480.00	488.00	493.00	504.00	509.00	514.00	519.00	515.00	519.00	526.00	537.00	547.00	540.00	527.00	535.00	527.00	534.00	545.00	541.00	548.00	555.00	559.00	563.00	547.00	555.00	559.00	559.00	567.00	563.00	529.00	529.00	524.00	517.00	515.00	518.00	522.00	522.00	520.00	522.00	521.00	525.00	528.00	527.00	523.00	521.00	516.00	506.00	505.00	507.00	507.00	586.00	539.00	599.00	642.00	641.00	660.00	613.00	600.00	653.00	666.00	613.00	574.00	575.00	596.00	665.00	617.00	610.00	655.00	634.00	604.00	602.00	598.00	598.00	594.00	587.00	588.00	588.00	577.00	575.00	574.00	581.00	589.00	587.00	586.00	590.00	590.00	601.00	606.00	612.00	605.00	610.00	613.00	623.00	632.00	631.00	625.00	628.00	633.00	628.00	626.00	630.00	625.00	624.00	636.00	667.00	656.00	636.00	635.00	640.00	640.00	645.00	649.00	645.00	627.00	631.00	636.00	635.00	627.00	619.00	622.00	634.00	644.00	629.00	628.00	618.00	620.00	633.00	617.00	616.00	616.00	618.00	628.00	633.00	636.00	631.00	641.00	638.00	636.00	645.00	635.00	634.00	635.00	638.00	637.00	647.00	639.00	642.00	642.00	646.00	648.00	645.00	647.00	647.00	673.00	675.00
417.00	417.00	417.00	418.00	417.00	418.00	417.00	414.00	415.00	415.00	415.00	415.00	416.00	417.00	417.00	418.00	419.00	419.00	419.00	419.00	419.00	419.00	420.00	421.00	422.00	422.00	423.00	424.00	423.00	424.00	425.00	426.00	428.00	428.00	429.00	429.00	431.00	431.00	430.00	432.00	432.00	433.00	434.00	435.00	433.00	433.00	434.00	434.00	432.00	434.00	434.00	435.00	435.00	436.00	437.00	437.00	437.00	440.00	439.00	440.00	440.00	441.00	441.00	442.00	443.00	443.00	444.00	443.00	445.00	445.00	446.00	446.00	446.00	447.00	446.00	446.00	447.00	449.00	450.00	450.00	450.00	451.00	451.00	451.00	452.00	451.00	453.00	453.00	461.00	462.00	462.00	461.00	459.00	462.00	465.00	470.00	477.00	477.00	484.00	497.00	496.00	497.00	496.00	498.00	496.00	514.00	496.00	496.00	501.00	514.00	518.00	530.00	541.00	535.00	528.00	537.00	535.00	537.00	550.00	551.00	546.00	553.00	547.00	545.00	539.00	545.00	543.00	550.00	564.00	552.00	523.00	519.00	519.00	512.00	511.00	513.00	514.00	515.00	517.00	520.00	524.00	526.00	522.00	523.00	520.00	517.00	516.00	516.00	509.00	505.00	505.00	530.00	532.00	621.00	644.00	655.00	651.00	567.00	572.00	630.00	587.00	578.00	566.00	577.00	592.00	624.00	601.00	598.00	590.00	597.00	593.00	595.00	594.00	594.00	599.00	598.00	599.00	594.00	585.00	582.00	577.00	578.00	590.00	594.00	595.00	597.00	595.00	601.00	610.00	606.00	608.00	614.00	620.00	655.00	636.00	629.00	632.00	630.00	633.00	638.00	632.00	636.00	634.00	632.00	641.00	654.00	646.00	640.00	642.00	660.00	653.00	660.00	661.00	662.00	636.00	635.00	632.00	629.00	635.00	632.00	643.00	659.00	639.00	639.00	631.00	633.00	625.00	633.00	621.00	617.00	616.00	617.00	628.00	646.00	646.00	643.00	648.00	666.00	709.00	677.00	647.00	652.00	659.00	655.00	651.00	644.00	640.00	643.00	646.00	647.00	661.00	655.00	650.00	650.00	651.00	667.00
417.00	418.00	418.00	416.00	414.00	417.00	415.00	414.00	415.00	415.00	416.00	417.00	416.00	417.00	417.00	417.00	418.00	420.00	419.00	419.00	419.00	420.00	420.00	420.00	420.00	423.00	423.00	423.00	424.00	425.00	425.00	427.00	427.00	428.00	428.00	429.00	430.00	431.00	431.00	432.00	432.00	433.00	433.00	434.00	433.00	433.00	434.00	433.00	434.00	433.00	435.00	435.00	436.00	436.00	437.00	437.00	438.00	440.00	440.00	440.00	440.00	441.00	442.00	441.00	443.00	443.00	444.00	444.00	444.00	444.00	445.00	446.00	446.00	446.00	447.00	446.00	447.00	448.00	447.00	449.00	451.00	451.00	451.00	450.00	451.00	451.00	453.00	452.00	458.00	459.00	459.00	459.00	458.00	462.00	466.00	470.00	479.00	482.00	488.00	492.00	492.00	494.00	492.00	499.00	499.00	489.00	489.00	497.00	503.00	511.00	525.00	540.00	546.00	530.00	526.00	525.00	528.00	539.00	555.00	546.00	545.00	549.00	540.00	539.00	539.00	543.00	544.00	553.00	558.00	539.00	520.00	515.00	514.00	510.00	509.00	512.00	514.00	516.00	520.00	521.00	524.00	529.00	522.00	519.00	520.00	516.00	513.00	511.00	506.00	507.00	505.00	504.00	524.00	548.00	575.00	580.00	610.00	567.00	534.00	559.00	587.00	566.00	564.00	594.00	581.00	583.00	586.00	587.00	586.00	588.00	590.00	596.00	588.00	592.00	599.00	602.00	597.00	595.00	586.00	587.00	584.00	579.00	589.00	593.00	597.00	602.00	603.00	597.00	601.00	602.00	605.00	616.00	622.00	628.00	624.00	624.00	634.00	635.00	636.00	639.00	639.00	644.00	641.00	640.00	640.00	657.00	648.00	644.00	646.00	654.00	657.00	661.00	664.00	656.00	638.00	635.00	635.00	630.00	671.00	654.00	650.00	653.00	642.00	637.00	633.00	646.00	640.00	638.00	630.00	621.00	623.00	616.00	619.00	634.00	667.00	646.00	641.00	665.00	721.00	706.00	650.00	650.00	661.00	661.00	661.00	644.00	644.00	647.00	653.00	650.00	665.00	658.00	652.00	652.00	653.00	654.00
418.00	418.00	419.00	416.00	415.00	416.00	415.00	414.00	415.00	415.00	415.00	416.00	415.00	416.00	417.00	418.00	417.00	418.00	418.00	418.00	419.00	420.00	421.00	420.00	421.00	422.00	423.00	424.00	424.00	425.00	425.00	426.00	426.00	426.00	428.00	428.00	429.00	429.00	430.00	432.00	432.00	433.00	433.00	431.00	431.00	432.00	433.00	432.00	433.00	432.00	434.00	434.00	435.00	437.00	438.00	438.00	438.00	440.00	440.00	440.00	440.00	442.00	442.00	442.00	442.00	443.00	442.00	444.00	444.00	444.00	445.00	444.00	444.00	444.00	445.00	447.00	446.00	446.00	448.00	448.00	449.00	449.00	449.00	450.00	450.00	450.00	451.00	453.00	453.00	455.00	455.00	455.00	457.00	463.00	468.00	473.00	478.00	477.00	477.00	486.00	492.00	499.00	497.00	487.00	482.00	495.00	499.00	509.00	518.00	547.00	533.00	526.00	535.00	523.00	516.00	522.00	533.00	546.00	544.00	548.00	528.00	532.00	538.00	538.00	544.00	549.00	554.00	566.00	551.00	523.00	515.00	512.00	509.00	511.00	513.00	518.00	522.00	524.00	527.00	528.00	531.00	528.00	520.00	515.00	511.00	512.00	509.00	506.00	504.00	511.00	513.00	503.00	502.00	510.00	529.00	585.00	530.00	554.00	552.00	544.00	573.00	603.00	559.00	569.00	573.00	572.00	574.00	589.00	583.00	589.00	595.00	592.00	586.00	591.00	590.00	593.00	599.00	600.00	597.00	601.00	590.00	590.00	588.00	591.00	594.00	600.00	609.00	608.00	611.00	614.00	612.00	622.00	620.00	624.00	628.00	635.00	641.00	642.00	642.00	650.00	654.00	646.00	640.00	642.00	646.00	662.00	645.00	648.00	656.00	660.00	662.00	681.00	710.00	662.00	651.00	643.00	636.00	634.00	642.00	646.00	653.00	666.00	676.00	648.00	633.00	650.00	641.00	639.00	642.00	632.00	628.00	630.00	624.00	622.00	624.00	623.00	629.00	631.00	636.00	663.00	649.00	661.00	668.00	672.00	662.00	643.00	644.00	650.00	656.00	658.00	666.00	659.00	655.00	654.00	655.00	679.00
417.00	417.00	418.00	415.00	415.00	414.00	414.00	413.00	414.00	415.00	415.00	415.00	416.00	415.00	416.00	419.00	418.00	418.00	418.00	420.00	418.00	421.00	421.00	421.00	421.00	423.00	423.00	423.00	425.00	425.00	426.00	426.00	426.00	426.00	428.00	428.00	429.00	430.00	431.00	431.00	432.00	432.00	430.00	430.00	431.00	431.00	433.00	433.00	434.00	433.00	435.00	433.00	437.00	437.00	438.00	439.00	439.00	439.00	440.00	440.00	440.00	441.00	442.00	442.00	443.00	442.00	443.00	443.00	444.00	444.00	444.00	443.00	443.00	445.00	446.00	446.00	446.00	447.00	448.00	448.00	448.00	448.00	449.00	449.00	450.00	449.00	451.00	452.00	453.00	453.00	454.00	456.00	457.00	463.00	470.00	472.00	474.00	474.00	480.00	496.00	494.00	503.00	486.00	480.00	481.00	505.00	516.00	524.00	542.00	541.00	532.00	531.00	541.00	527.00	511.00	522.00	535.00	541.00	535.00	544.00	525.00	540.00	543.00	540.00	540.00	545.00	557.00	559.00	540.00	520.00	512.00	508.00	508.00	515.00	518.00	520.00	524.00	527.00	529.00	531.00	534.00	526.00	520.00	516.00	511.00	507.00	505.00	502.00	504.00	512.00	525.00	501.00	500.00	510.00	523.00	533.00	522.00	592.00	575.00	544.00	556.00	566.00	557.00	563.00	568.00	576.00	594.00	597.00	589.00	596.00	597.00	594.00	581.00	585.00	587.00	592.00	599.00	608.00	602.00	601.00	595.00	594.00	592.00	596.00	596.00	598.00	602.00	612.00	624.00	633.00	619.00	643.00	627.00	620.00	624.00	627.00	638.00	643.00	641.00	634.00	652.00	652.00	634.00	637.00	641.00	649.00	640.00	642.00	648.00	658.00	659.00	688.00	697.00	669.00	648.00	645.00	644.00	638.00	652.00	655.00	651.00	660.00	665.00	642.00	640.00	657.00	653.00	650.00	648.00	630.00	640.00	637.00	628.00	625.00	630.00	627.00	625.00	627.00	628.00	644.00	640.00	653.00	658.00	670.00	664.00	648.00	648.00	651.00	655.00	660.00	663.00	659.00	657.00	655.00	657.00	666.00
416.00	415.00	415.00	414.00	414.00	414.00	414.00	414.00	415.00	415.00	416.00	417.00	416.00	416.00	417.00	418.00	418.00	419.00	419.00	419.00	420.00	420.00	420.00	420.00	420.00	422.00	422.00	424.00	425.00	424.00	425.00	425.00	426.00	426.00	428.00	427.00	430.00	429.00	430.00	430.00	431.00	432.00	430.00	431.00	431.00	430.00	432.00	432.00	434.00	432.00	434.00	435.00	437.00	436.00	437.00	438.00	438.00	440.00	439.00	439.00	440.00	440.00	441.00	441.00	442.00	443.00	441.00	442.00	442.00	443.00	442.00	441.00	444.00	444.00	444.00	446.00	446.00	447.00	448.00	448.00	448.00	449.00	449.00	448.00	448.00	450.00	452.00	450.00	452.00	453.00	453.00	456.00	455.00	460.00	464.00	467.00	468.00	477.00	483.00	496.00	485.00	493.00	484.00	494.00	502.00	503.00	507.00	519.00	529.00	520.00	511.00	534.00	530.00	513.00	510.00	514.00	526.00	530.00	530.00	521.00	529.00	540.00	538.00	533.00	538.00	542.00	549.00	544.00	536.00	520.00	510.00	507.00	509.00	515.00	517.00	519.00	521.00	524.00	525.00	528.00	528.00	520.00	517.00	515.00	512.00	510.00	502.00	506.00	506.00	517.00	529.00	500.00	500.00	519.00	543.00	536.00	516.00	550.00	578.00	572.00	577.00	583.00	589.00	566.00	571.00	575.00	590.00	586.00	586.00	601.00	595.00	592.00	579.00	584.00	587.00	592.00	594.00	604.00	601.00	596.00	603.00	599.00	591.00	596.00	601.00	604.00	604.00	613.00	624.00	647.00	638.00	647.00	628.00	623.00	628.00	632.00	640.00	638.00	638.00	629.00	631.00	631.00	628.00	632.00	633.00	639.00	636.00	638.00	642.00	648.00	653.00	659.00	665.00	667.00	662.00	651.00	647.00	641.00	647.00	655.00	659.00	660.00	666.00	640.00	646.00	667.00	672.00	653.00	645.00	637.00	645.00	653.00	634.00	630.00	629.00	629.00	627.00	625.00	625.00	631.00	640.00	655.00	683.00	669.00	663.00	650.00	647.00	651.00	657.00	662.00	664.00	656.00	658.00	657.00	657.00	662.00
416.00	413.00	413.00	412.00	415.00	413.00	414.00	414.00	415.00	416.00	416.00	417.00	417.00	417.00	417.00	416.00	418.00	420.00	420.00	420.00	420.00	420.00	420.00	421.00	421.00	422.00	422.00	423.00	424.00	424.00	425.00	425.00	425.00	426.00	427.00	428.00	428.00	429.00	430.00	430.00	430.00	430.00	430.00	430.00	431.00	431.00	431.00	433.00	432.00	434.00	435.00	435.00	436.00	435.00	437.00	438.00	438.00	439.00	439.00	440.00	440.00	440.00	441.00	441.00	442.00	442.00	442.00	441.00	442.00	442.00	443.00	442.00	443.00	445.00	445.00	445.00	446.00	446.00	446.00	446.00	448.00	448.00	450.00	449.00	448.00	449.00	452.00	452.00	451.00	451.00	453.00	454.00	455.00	460.00	463.00	465.00	465.00	476.00	481.00	476.00	474.00	477.00	498.00	500.00	487.00	491.00	520.00	531.00	534.00	509.00	505.00	547.00	526.00	514.00	509.00	515.00	514.00	523.00	514.00	506.00	528.00	535.00	530.00	526.00	533.00	541.00	549.00	548.00	529.00	517.00	507.00	507.00	510.00	512.00	513.00	516.00	518.00	519.00	523.00	526.00	525.00	518.00	513.00	510.00	507.00	506.00	500.00	502.00	503.00	517.00	549.00	500.00	501.00	508.00	517.00	579.00	533.00	544.00	530.00	548.00	572.00	573.00	556.00	559.00	567.00	573.00	578.00	584.00	587.00	598.00	592.00	588.00	578.00	581.00	586.00	589.00	588.00	594.00	597.00	591.00	595.00	596.00	595.00	596.00	599.00	606.00	611.00	614.00	621.00	643.00	658.00	643.00	626.00	628.00	632.00	633.00	646.00	637.00	638.00	636.00	628.00	623.00	626.00	627.00	628.00	631.00	633.00	635.00	636.00	645.00	648.00	653.00	660.00	673.00	657.00	653.00	647.00	646.00	648.00	656.00	657.00	672.00	681.00	643.00	648.00	666.00	675.00	655.00	653.00	648.00	659.00	671.00	642.00	636.00	633.00	632.00	632.00	631.00	627.00	628.00	636.00	665.00	705.00	690.00	669.00	649.00	648.00	650.00	655.00	659.00	663.00	660.00	658.00	658.00	659.00	664.00
415.00	413.00	411.00	414.00	412.00	413.00	413.00	413.00	418.00	416.00	416.00	416.00	416.00	416.00	416.00	418.00	419.00	419.00	419.00	419.00	420.00	420.00	420.00	420.00	422.00	423.00	422.00	424.00	424.00	424.00	424.00	424.00	424.00	425.00	426.00	427.00	429.00	429.00	428.00	427.00	430.00	429.00	430.00	429.00	431.00	432.00	432.00	432.00	433.00	434.00	433.00	435.00	436.00	435.00	437.00	437.00	438.00	439.00	439.00	439.00	439.00	439.00	441.00	441.00	441.00	441.00	441.00	441.00	440.00	440.00	442.00	443.00	445.00	445.00	444.00	447.00	446.00	445.00	446.00	447.00	446.00	446.00	446.00	447.00	448.00	448.00	451.00	451.00	451.00	450.00	451.00	451.00	454.00	458.00	459.00	461.00	461.00	468.00	469.00	471.00	471.00	477.00	496.00	497.00	500.00	495.00	503.00	513.00	521.00	498.00	501.00	523.00	517.00	505.00	494.00	500.00	496.00	500.00	510.00	517.00	522.00	523.00	518.00	520.00	535.00	539.00	540.00	529.00	522.00	506.00	507.00	507.00	509.00	515.00	518.00	521.00	523.00	525.00	528.00	531.00	527.00	524.00	517.00	512.00	509.00	505.00	501.00	500.00	497.00	500.00	506.00	498.00	498.00	508.00	525.00	533.00	513.00	512.00	518.00	551.00	542.00	542.00	575.00	591.00	653.00	676.00	662.00	628.00	606.00	591.00	594.00	587.00	579.00	575.00	576.00	580.00	603.00	594.00	586.00	584.00	586.00	586.00	596.00	599.00	606.00	613.00	615.00	608.00	611.00	607.00	607.00	607.00	615.00	609.00	624.00	650.00	616.00	617.00	620.00	628.00	619.00	623.00	622.00	623.00	633.00	637.00	637.00	643.00	643.00	650.00	654.00	659.00	672.00	685.00	682.00	677.00	666.00	682.00	657.00	667.00	655.00	661.00	670.00	648.00	680.00	688.00	667.00	669.00	666.00	673.00	667.00	668.00	657.00	647.00	638.00	637.00	641.00	639.00	635.00	632.00	631.00	639.00	654.00	675.00	669.00	656.00	649.00	650.00	657.00	661.00	669.00	664.00	663.00	660.00	660.00	661.00
412.00	412.00	411.00	412.00	413.00	412.00	413.00	413.00	416.00	415.00	415.00	417.00	416.00	416.00	416.00	417.00	419.00	418.00	418.00	419.00	419.00	419.00	419.00	421.00	420.00	423.00	422.00	424.00	424.00	425.00	424.00	425.00	425.00	425.00	427.00	426.00	428.00	427.00	427.00	429.00	430.00	429.00	429.00	430.00	431.00	431.00	432.00	432.00	432.00	433.00	435.00	434.00	435.00	436.00	436.00	437.00	438.00	438.00	439.00	439.00	439.00	440.00	440.00	441.00	441.00	441.00	440.00	441.00	441.00	441.00	442.00	444.00	445.00	444.00	445.00	446.00	446.00	445.00	445.00	446.00	446.00	446.00	448.00	448.00	447.00	448.00	448.00	449.00	448.00	448.00	449.00	450.00	454.00	457.00	458.00	459.00	460.00	462.00	463.00	476.00	475.00	481.00	485.00	488.00	495.00	505.00	499.00	504.00	499.00	492.00	501.00	525.00	506.00	501.00	492.00	500.00	507.00	510.00	513.00	521.00	518.00	518.00	514.00	517.00	525.00	532.00	515.00	510.00	506.00	510.00	509.00	509.00	508.00	515.00	519.00	523.00	526.00	528.00	533.00	532.00	529.00	518.00	514.00	514.00	513.00	509.00	503.00	496.00	493.00	495.00	503.00	499.00	500.00	515.00	547.00	533.00	512.00	513.00	539.00	546.00	547.00	560.00	560.00	570.00	661.00	694.00	669.00	627.00	619.00	589.00	585.00	582.00	577.00	571.00	573.00	574.00	584.00	589.00	580.00	579.00	581.00	581.00	593.00	598.00	609.00	609.00	611.00	600.00	618.00	606.00	600.00	601.00	605.00	602.00	605.00	606.00	610.00	613.00	626.00	640.00	622.00	645.00	640.00	623.00	631.00	641.00	647.00	655.00	652.00	651.00	656.00	660.00	665.00	685.00	709.00	696.00	669.00	721.00	663.00	667.00	662.00	665.00	667.00	651.00	700.00	690.00	666.00	675.00	677.00	675.00	681.00	706.00	669.00	649.00	643.00	640.00	642.00	644.00	640.00	638.00	633.00	635.00	643.00	655.00	666.00	659.00	653.00	656.00	662.00	664.00	672.00	669.00	666.00	663.00	663.00	662.00
410.00	410.00	410.00	412.00	413.00	413.00	413.00	412.00	415.00	415.00	415.00	416.00	416.00	416.00	416.00	418.00	418.00	419.00	418.00	418.00	418.00	419.00	420.00	421.00	421.00	422.00	422.00	424.00	423.00	424.00	425.00	426.00	426.00	426.00	426.00	427.00	426.00	427.00	427.00	428.00	429.00	429.00	429.00	430.00	429.00	431.00	431.00	431.00	434.00	434.00	435.00	434.00	435.00	437.00	436.00	437.00	436.00	439.00	439.00	438.00	439.00	440.00	440.00	440.00	440.00	441.00	441.00	441.00	441.00	442.00	442.00	444.00	444.00	444.00	444.00	444.00	445.00	444.00	443.00	445.00	445.00	446.00	447.00	447.00	446.00	447.00	447.00	448.00	447.00	448.00	448.00	450.00	452.00	455.00	457.00	457.00	459.00	463.00	464.00	482.00	473.00	481.00	496.00	500.00	504.00	503.00	491.00	487.00	487.00	501.00	515.00	511.00	498.00	493.00	486.00	499.00	510.00	523.00	517.00	524.00	515.00	513.00	509.00	510.00	514.00	507.00	501.00	503.00	512.00	527.00	512.00	511.00	512.00	514.00	517.00	520.00	523.00	526.00	528.00	535.00	535.00	518.00	509.00	507.00	507.00	506.00	501.00	495.00	494.00	494.00	499.00	498.00	498.00	501.00	519.00	535.00	514.00	530.00	621.00	628.00	555.00	596.00	569.00	571.00	641.00	656.00	620.00	599.00	595.00	593.00	586.00	579.00	573.00	576.00	578.00	583.00	579.00	580.00	581.00	581.00	579.00	581.00	590.00	597.00	603.00	602.00	600.00	595.00	594.00	596.00	598.00	598.00	599.00	602.00	605.00	606.00	628.00	633.00	651.00	653.00	630.00	630.00	634.00	629.00	634.00	646.00	646.00	654.00	663.00	652.00	658.00	666.00	697.00	716.00	730.00	732.00	688.00	684.00	669.00	663.00	663.00	673.00	666.00	657.00	705.00	695.00	673.00	678.00	677.00	687.00	684.00	673.00	659.00	651.00	651.00	648.00	645.00	649.00	645.00	640.00	637.00	634.00	638.00	645.00	660.00	658.00	652.00	658.00	663.00	667.00	675.00	672.00	668.00	665.00	664.00	665.00
410.00	408.00	410.00	410.00	412.00	411.00	412.00	413.00	413.00	415.00	415.00	415.00	416.00	416.00	417.00	417.00	418.00	418.00	418.00	417.00	418.00	419.00	420.00	421.00	422.00	422.00	424.00	424.00	424.00	425.00	424.00	425.00	425.00	426.00	427.00	426.00	426.00	428.00	429.00	429.00	428.00	429.00	429.00	430.00	430.00	430.00	431.00	432.00	434.00	434.00	434.00	434.00	436.00	435.00	436.00	437.00	437.00	437.00	438.00	438.00	438.00	438.00	439.00	439.00	440.00	440.00	440.00	441.00	442.00	442.00	443.00	443.00	445.00	444.00	445.00	444.00	444.00	444.00	444.00	445.00	445.00	446.00	447.00	445.00	446.00	446.00	447.00	447.00	446.00	448.00	448.00	450.00	452.00	455.00	456.00	457.00	459.00	468.00	471.00	477.00	481.00	488.00	500.00	492.00	488.00	488.00	481.00	480.00	483.00	520.00	519.00	504.00	502.00	488.00	488.00	513.00	510.00	524.00	531.00	526.00	515.00	510.00	505.00	509.00	508.00	510.00	508.00	517.00	514.00	530.00	514.00	517.00	515.00	515.00	517.00	521.00	526.00	526.00	523.00	530.00	528.00	519.00	514.00	508.00	501.00	501.00	502.00	495.00	494.00	493.00	494.00	525.00	524.00	501.00	508.00	521.00	519.00	551.00	618.00	602.00	606.00	582.00	582.00	635.00	680.00	653.00	602.00	590.00	588.00	601.00	595.00	582.00	573.00	580.00	584.00	589.00	587.00	585.00	594.00	588.00	587.00	585.00	587.00	591.00	597.00	597.00	595.00	591.00	591.00	594.00	597.00	600.00	602.00	610.00	611.00	612.00	624.00	651.00	662.00	684.00	658.00	642.00	641.00	637.00	638.00	647.00	653.00	652.00	666.00	658.00	662.00	665.00	681.00	746.00	728.00	695.00	685.00	685.00	673.00	670.00	655.00	664.00	672.00	653.00	704.00	709.00	685.00	683.00	689.00	690.00	675.00	671.00	658.00	654.00	658.00	653.00	648.00	655.00	654.00	649.00	642.00	635.00	639.00	646.00	651.00	670.00	668.00	657.00	659.00	664.00	676.00	676.00	672.00	671.00	670.00	667.00
410.00	409.00	411.00	409.00	411.00	412.00	412.00	414.00	413.00	414.00	414.00	414.00	414.00	415.00	415.00	415.00	418.00	418.00	418.00	419.00	418.00	419.00	419.00	420.00	420.00	422.00	422.00	423.00	423.00	423.00	425.00	423.00	423.00	425.00	426.00	428.00	427.00	428.00	429.00	427.00	430.00	428.00	428.00	429.00	429.00	430.00	430.00	431.00	433.00	433.00	433.00	434.00	435.00	435.00	435.00	435.00	436.00	436.00	437.00	437.00	437.00	439.00	439.00	439.00	439.00	440.00	440.00	441.00	441.00	442.00	444.00	442.00	443.00	444.00	443.00	444.00	445.00	443.00	443.00	444.00	443.00	445.00	445.00	444.00	445.00	446.00	446.00	445.00	445.00	446.00	447.00	448.00	449.00	455.00	457.00	460.00	465.00	473.00	472.00	479.00	484.00	492.00	479.00	487.00	478.00	472.00	480.00	502.00	512.00	522.00	504.00	488.00	483.00	485.00	496.00	516.00	526.00	534.00	536.00	528.00	503.00	498.00	503.00	512.00	517.00	529.00	554.00	546.00	542.00	534.00	522.00	523.00	525.00	522.00	521.00	522.00	539.00	526.00	512.00	513.00	519.00	516.00	509.00	508.00	501.00	496.00	491.00	493.00	492.00	492.00	493.00	553.00	530.00	542.00	549.00	526.00	573.00	568.00	569.00	550.00	576.00	563.00	686.00	680.00	666.00	612.00	598.00	591.00	596.00	583.00	575.00	571.00	572.00	578.00	582.00	588.00	607.00	598.00	634.00	627.00	600.00	599.00	586.00	586.00	587.00	588.00	589.00	596.00	598.00	605.00	608.00	610.00	611.00	622.00	624.00	619.00	622.00	677.00	641.00	647.00	651.00	651.00	661.00	647.00	640.00	660.00	674.00	661.00	667.00	662.00	655.00	650.00	654.00	658.00	658.00	661.00	667.00	686.00	691.00	675.00	654.00	649.00	653.00	647.00	666.00	667.00	701.00	680.00	684.00	688.00	694.00	694.00	674.00	682.00	678.00	664.00	661.00	659.00	663.00	663.00	648.00	641.00	638.00	639.00	642.00	665.00	697.00	701.00	722.00	685.00	674.00	673.00	678.00	696.00	696.00	678.00
411.00	410.00	410.00	411.00	411.00	413.00	412.00	413.00	414.00	413.00	414.00	415.00	414.00	414.00	414.00	417.00	417.00	418.00	418.00	417.00	418.00	418.00	420.00	420.00	421.00	421.00	422.00	421.00	422.00	423.00	423.00	424.00	425.00	425.00	426.00	426.00	426.00	429.00	427.00	428.00	429.00	427.00	427.00	429.00	429.00	429.00	432.00	431.00	432.00	432.00	433.00	434.00	434.00	434.00	434.00	435.00	436.00	437.00	437.00	437.00	437.00	437.00	438.00	438.00	440.00	439.00	440.00	441.00	441.00	441.00	442.00	443.00	443.00	443.00	443.00	443.00	444.00	443.00	443.00	444.00	444.00	444.00	443.00	445.00	444.00	445.00	445.00	445.00	444.00	445.00	447.00	448.00	449.00	455.00	458.00	460.00	464.00	468.00	471.00	481.00	484.00	490.00	479.00	485.00	474.00	472.00	487.00	486.00	497.00	517.00	494.00	484.00	481.00	497.00	504.00	514.00	523.00	525.00	531.00	519.00	507.00	495.00	502.00	512.00	525.00	539.00	544.00	542.00	538.00	532.00	525.00	525.00	531.00	523.00	521.00	520.00	540.00	537.00	511.00	508.00	512.00	521.00	505.00	507.00	502.00	496.00	492.00	491.00	492.00	493.00	495.00	515.00	515.00	519.00	520.00	532.00	591.00	602.00	658.00	645.00	546.00	550.00	719.00	698.00	657.00	647.00	613.00	583.00	580.00	573.00	571.00	570.00	575.00	580.00	585.00	592.00	624.00	607.00	614.00	616.00	612.00	612.00	591.00	589.00	592.00	586.00	589.00	600.00	602.00	603.00	608.00	611.00	613.00	629.00	668.00	666.00	621.00	624.00	629.00	636.00	649.00	657.00	668.00	660.00	644.00	646.00	657.00	654.00	656.00	660.00	659.00	649.00	646.00	654.00	654.00	656.00	660.00	668.00	716.00	693.00	660.00	655.00	643.00	640.00	646.00	650.00	659.00	665.00	687.00	694.00	700.00	682.00	694.00	680.00	671.00	666.00	663.00	664.00	664.00	659.00	650.00	645.00	636.00	637.00	645.00	661.00	686.00	680.00	697.00	704.00	692.00	696.00	682.00	737.00	735.00	687.00
413.00	411.00	410.00	410.00	411.00	411.00	411.00	413.00	412.00	413.00	414.00	414.00	415.00	416.00	415.00	417.00	417.00	417.00	417.00	418.00	418.00	420.00	420.00	421.00	422.00	421.00	421.00	422.00	421.00	422.00	423.00	425.00	424.00	425.00	426.00	428.00	425.00	428.00	428.00	428.00	429.00	428.00	428.00	428.00	429.00	430.00	430.00	432.00	433.00	432.00	433.00	432.00	434.00	433.00	434.00	434.00	435.00	436.00	436.00	436.00	437.00	439.00	438.00	437.00	439.00	437.00	440.00	440.00	441.00	442.00	442.00	443.00	442.00	443.00	443.00	443.00	443.00	444.00	442.00	443.00	443.00	444.00	443.00	444.00	445.00	444.00	443.00	444.00	443.00	444.00	447.00	447.00	450.00	456.00	457.00	460.00	463.00	472.00	476.00	486.00	496.00	484.00	476.00	473.00	469.00	473.00	498.00	506.00	508.00	505.00	491.00	481.00	484.00	488.00	503.00	513.00	520.00	523.00	520.00	520.00	502.00	493.00	503.00	514.00	537.00	542.00	536.00	534.00	530.00	529.00	530.00	529.00	529.00	520.00	521.00	515.00	525.00	533.00	518.00	506.00	502.00	505.00	500.00	501.00	500.00	497.00	491.00	491.00	492.00	492.00	495.00	500.00	503.00	526.00	530.00	556.00	573.00	567.00	602.00	613.00	618.00	609.00	623.00	623.00	637.00	605.00	594.00	586.00	574.00	568.00	568.00	569.00	576.00	584.00	587.00	595.00	605.00	624.00	678.00	638.00	636.00	620.00	598.00	592.00	594.00	592.00	589.00	592.00	597.00	602.00	604.00	606.00	610.00	676.00	733.00	740.00	628.00	634.00	632.00	636.00	659.00	656.00	662.00	667.00	648.00	658.00	659.00	652.00	645.00	649.00	651.00	648.00	645.00	650.00	651.00	652.00	659.00	668.00	679.00	657.00	652.00	643.00	639.00	639.00	655.00	679.00	693.00	681.00	673.00	700.00	695.00	696.00	688.00	679.00	671.00	672.00	667.00	671.00	662.00	655.00	651.00	650.00	639.00	638.00	650.00	657.00	663.00	678.00	700.00	741.00	684.00	712.00	713.00	706.00	756.00	695.00
416.00	413.00	412.00	409.00	411.00	412.00	413.00	413.00	413.00	414.00	414.00	414.00	415.00	417.00	416.00	417.00	417.00	418.00	418.00	418.00	419.00	419.00	420.00	420.00	420.00	420.00	421.00	421.00	422.00	421.00	423.00	423.00	424.00	426.00	424.00	425.00	426.00	428.00	428.00	428.00	428.00	427.00	427.00	429.00	429.00	430.00	430.00	431.00	431.00	432.00	432.00	432.00	433.00	434.00	434.00	434.00	435.00	435.00	436.00	436.00	437.00	437.00	437.00	438.00	439.00	439.00	440.00	438.00	441.00	441.00	442.00	442.00	442.00	443.00	442.00	443.00	443.00	442.00	442.00	442.00	443.00	443.00	443.00	443.00	443.00	443.00	443.00	444.00	442.00	443.00	446.00	447.00	450.00	455.00	457.00	459.00	465.00	472.00	477.00	489.00	493.00	481.00	471.00	466.00	470.00	477.00	503.00	513.00	511.00	507.00	485.00	479.00	493.00	500.00	507.00	525.00	523.00	514.00	514.00	521.00	492.00	496.00	507.00	523.00	536.00	529.00	526.00	524.00	526.00	532.00	533.00	526.00	525.00	516.00	511.00	509.00	515.00	519.00	531.00	535.00	502.00	499.00	496.00	497.00	496.00	494.00	489.00	490.00	491.00	493.00	493.00	498.00	500.00	514.00	520.00	569.00	576.00	557.00	583.00	625.00	645.00	612.00	606.00	671.00	606.00	596.00	586.00	579.00	572.00	568.00	569.00	570.00	577.00	587.00	594.00	596.00	608.00	640.00	717.00	661.00	636.00	617.00	600.00	594.00	594.00	597.00	592.00	590.00	593.00	595.00	598.00	604.00	610.00	628.00	719.00	733.00	637.00	636.00	639.00	644.00	648.00	651.00	657.00	698.00	654.00	669.00	684.00	672.00	649.00	639.00	639.00	647.00	641.00	643.00	650.00	654.00	659.00	667.00	652.00	649.00	647.00	642.00	637.00	641.00	672.00	683.00	701.00	690.00	697.00	699.00	718.00	699.00	671.00	663.00	664.00	681.00	672.00	671.00	662.00	657.00	655.00	649.00	641.00	639.00	643.00	655.00	662.00	677.00	740.00	766.00	686.00	686.00	693.00	702.00	723.00	700.00
412.00	414.00	415.00	412.00	411.00	412.00	412.00	412.00	413.00	414.00	414.00	414.00	416.00	416.00	416.00	415.00	417.00	417.00	416.00	416.00	417.00	418.00	419.00	418.00	419.00	420.00	420.00	421.00	423.00	422.00	423.00	424.00	424.00	425.00	424.00	426.00	426.00	426.00	427.00	428.00	428.00	429.00	428.00	429.00	429.00	429.00	428.00	428.00	431.00	431.00	433.00	431.00	433.00	432.00	433.00	434.00	434.00	435.00	436.00	436.00	436.00	437.00	437.00	438.00	438.00	438.00	438.00	439.00	439.00	440.00	442.00	440.00	441.00	441.00	442.00	440.00	441.00	441.00	441.00	441.00	443.00	443.00	441.00	442.00	442.00	441.00	442.00	442.00	442.00	442.00	444.00	447.00	449.00	454.00	463.00	473.00	472.00	474.00	474.00	482.00	473.00	468.00	462.00	468.00	473.00	473.00	485.00	492.00	503.00	513.00	482.00	485.00	492.00	510.00	506.00	517.00	505.00	509.00	496.00	508.00	500.00	505.00	509.00	523.00	521.00	513.00	520.00	525.00	521.00	538.00	529.00	523.00	529.00	515.00	510.00	502.00	502.00	509.00	513.00	517.00	506.00	490.00	489.00	487.00	487.00	487.00	487.00	488.00	489.00	491.00	507.00	540.00	526.00	523.00	520.00	534.00	546.00	549.00	555.00	578.00	634.00	628.00	646.00	643.00	634.00	607.00	587.00	585.00	586.00	565.00	567.00	568.00	575.00	581.00	587.00	598.00	618.00	635.00	638.00	695.00	634.00	617.00	605.00	606.00	604.00	609.00	612.00	598.00	597.00	598.00	610.00	623.00	611.00	623.00	628.00	625.00	700.00	641.00	632.00	639.00	652.00	646.00	642.00	643.00	657.00	655.00	670.00	678.00	667.00	635.00	632.00	636.00	634.00	640.00	643.00	648.00	652.00	655.00	661.00	656.00	657.00	642.00	634.00	630.00	645.00	661.00	716.00	709.00	712.00	719.00	703.00	680.00	655.00	656.00	657.00	653.00	664.00	666.00	664.00	662.00	665.00	652.00	648.00	642.00	641.00	656.00	661.00	681.00	696.00	742.00	704.00	701.00	697.00	698.00	692.00	690.00
411.00	414.00	415.00	412.00	412.00	413.00	412.00	411.00	414.00	414.00	415.00	414.00	415.00	415.00	415.00	416.00	417.00	417.00	416.00	416.00	418.00	417.00	418.00	419.00	419.00	419.00	419.00	420.00	420.00	422.00	423.00	424.00	423.00	424.00	425.00	426.00	425.00	427.00	427.00	426.00	428.00	428.00	427.00	429.00	428.00	428.00	429.00	429.00	431.00	431.00	431.00	432.00	433.00	433.00	433.00	433.00	434.00	435.00	436.00	436.00	436.00	437.00	437.00	437.00	436.00	437.00	437.00	440.00	440.00	439.00	442.00	441.00	441.00	441.00	442.00	440.00	440.00	439.00	441.00	441.00	443.00	442.00	442.00	442.00	442.00	442.00	441.00	442.00	442.00	442.00	444.00	445.00	448.00	455.00	484.00	497.00	497.00	473.00	475.00	476.00	468.00	463.00	461.00	466.00	470.00	480.00	490.00	485.00	493.00	507.00	478.00	480.00	484.00	489.00	496.00	507.00	500.00	501.00	493.00	500.00	501.00	512.00	520.00	521.00	512.00	526.00	526.00	528.00	524.00	518.00	524.00	519.00	525.00	514.00	508.00	503.00	497.00	497.00	507.00	505.00	506.00	490.00	486.00	486.00	486.00	486.00	487.00	487.00	490.00	490.00	498.00	542.00	525.00	528.00	533.00	551.00	560.00	572.00	593.00	603.00	609.00	640.00	616.00	614.00	598.00	587.00	581.00	597.00	592.00	566.00	570.00	568.00	572.00	579.00	585.00	590.00	606.00	611.00	611.00	613.00	615.00	614.00	608.00	611.00	610.00	612.00	611.00	612.00	608.00	599.00	611.00	603.00	607.00	613.00	617.00	618.00	635.00	629.00	630.00	634.00	655.00	651.00	639.00	638.00	647.00	647.00	649.00	651.00	649.00	635.00	630.00	636.00	638.00	640.00	644.00	651.00	652.00	651.00	656.00	645.00	641.00	640.00	632.00	634.00	647.00	691.00	729.00	713.00	678.00	692.00	666.00	674.00	652.00	649.00	649.00	651.00	664.00	656.00	657.00	658.00	660.00	651.00	646.00	643.00	648.00	668.00	700.00	721.00	743.00	742.00	734.00	715.00	708.00	705.00	700.00	696.00
414.00	414.00	415.00	411.00	412.00	412.00	412.00	413.00	414.00	413.00	413.00	414.00	415.00	415.00	415.00	416.00	416.00	416.00	417.00	416.00	417.00	418.00	417.00	418.00	419.00	420.00	419.00	419.00	421.00	422.00	422.00	422.00	423.00	424.00	425.00	425.00	425.00	428.00	427.00	428.00	427.00	427.00	428.00	428.00	428.00	429.00	429.00	429.00	431.00	431.00	430.00	431.00	432.00	432.00	434.00	433.00	433.00	436.00	435.00	436.00	434.00	436.00	437.00	436.00	437.00	437.00	437.00	439.00	438.00	440.00	440.00	440.00	441.00	441.00	441.00	439.00	440.00	440.00	441.00	441.00	442.00	442.00	441.00	441.00	442.00	441.00	442.00	443.00	443.00	440.00	441.00	444.00	446.00	467.00	491.00	483.00	475.00	488.00	472.00	472.00	465.00	459.00	458.00	465.00	473.00	482.00	497.00	495.00	505.00	489.00	473.00	482.00	499.00	485.00	497.00	497.00	498.00	494.00	492.00	487.00	513.00	514.00	518.00	512.00	523.00	533.00	538.00	538.00	523.00	506.00	522.00	517.00	519.00	510.00	506.00	501.00	495.00	493.00	501.00	500.00	497.00	491.00	485.00	485.00	485.00	486.00	486.00	487.00	488.00	487.00	494.00	592.00	535.00	532.00	549.00	564.00	575.00	562.00	623.00	631.00	649.00	629.00	610.00	620.00	608.00	598.00	582.00	576.00	573.00	564.00	566.00	568.00	570.00	579.00	584.00	589.00	591.00	595.00	603.00	607.00	607.00	606.00	613.00	624.00	621.00	614.00	623.00	611.00	604.00	601.00	598.00	599.00	601.00	606.00	610.00	614.00	624.00	628.00	632.00	635.00	646.00	641.00	633.00	633.00	641.00	665.00	654.00	636.00	642.00	629.00	631.00	640.00	643.00	640.00	649.00	650.00	645.00	646.00	647.00	646.00	635.00	631.00	627.00	639.00	671.00	690.00	713.00	688.00	649.00	649.00	666.00	662.00	649.00	644.00	643.00	648.00	650.00	651.00	656.00	659.00	662.00	656.00	647.00	645.00	650.00	668.00	681.00	685.00	707.00	734.00	777.00	762.00	734.00	717.00	705.00	702.00
414.00	415.00	414.00	411.00	411.00	412.00	413.00	413.00	413.00	413.00	414.00	415.00	415.00	416.00	415.00	416.00	415.00	416.00	416.00	416.00	418.00	417.00	416.00	419.00	418.00	419.00	420.00	421.00	421.00	422.00	423.00	423.00	423.00	423.00	425.00	425.00	425.00	427.00	426.00	426.00	427.00	427.00	427.00	427.00	427.00	429.00	428.00	429.00	430.00	430.00	431.00	432.00	433.00	433.00	433.00	433.00	434.00	435.00	435.00	436.00	435.00	436.00	436.00	437.00	436.00	437.00	437.00	438.00	438.00	438.00	439.00	440.00	439.00	440.00	439.00	439.00	439.00	440.00	442.00	440.00	441.00	441.00	443.00	441.00	440.00	440.00	441.00	443.00	442.00	442.00	441.00	443.00	444.00	467.00	482.00	471.00	466.00	495.00	468.00	467.00	460.00	457.00	460.00	464.00	475.00	482.00	499.00	493.00	501.00	474.00	471.00	488.00	491.00	482.00	486.00	489.00	492.00	489.00	485.00	487.00	505.00	504.00	506.00	504.00	524.00	530.00	539.00	532.00	518.00	502.00	518.00	523.00	519.00	505.00	502.00	498.00	493.00	490.00	498.00	496.00	493.00	487.00	484.00	484.00	485.00	485.00	486.00	487.00	488.00	485.00	487.00	563.00	530.00	537.00	556.00	553.00	565.00	557.00	619.00	655.00	633.00	618.00	618.00	623.00	612.00	604.00	581.00	575.00	569.00	563.00	569.00	570.00	570.00	579.00	584.00	590.00	591.00	603.00	607.00	609.00	602.00	600.00	613.00	631.00	640.00	625.00	626.00	615.00	611.00	607.00	601.00	601.00	600.00	604.00	608.00	615.00	619.00	627.00	633.00	642.00	661.00	672.00	632.00	630.00	637.00	656.00	636.00	631.00	629.00	630.00	638.00	643.00	648.00	645.00	658.00	657.00	650.00	641.00	640.00	641.00	633.00	628.00	624.00	634.00	669.00	670.00	678.00	656.00	648.00	651.00	648.00	644.00	648.00	642.00	639.00	642.00	650.00	653.00	665.00	670.00	668.00	657.00	648.00	645.00	649.00	671.00	675.00	683.00	702.00	718.00	757.00	803.00	759.00	728.00	711.00	708.00
412.00	412.00	414.00	411.00	411.00	413.00	412.00	414.00	413.00	413.00	413.00	414.00	413.00	415.00	415.00	416.00	417.00	417.00	415.00	415.00	417.00	416.00	418.00	419.00	419.00	419.00	421.00	422.00	423.00	421.00	422.00	420.00	421.00	424.00	424.00	423.00	425.00	425.00	425.00	426.00	425.00	426.00	426.00	426.00	426.00	427.00	428.00	428.00	429.00	429.00	431.00	432.00	432.00	433.00	432.00	434.00	433.00	434.00	434.00	434.00	434.00	436.00	435.00	434.00	436.00	436.00	436.00	437.00	436.00	438.00	439.00	438.00	438.00	438.00	438.00	438.00	439.00	439.00	440.00	440.00	441.00	441.00	441.00	441.00	439.00	439.00	441.00	441.00	440.00	442.00	441.00	440.00	442.00	452.00	485.00	485.00	462.00	462.00	462.00	459.00	455.00	456.00	458.00	463.00	465.00	470.00	471.00	468.00	477.00	468.00	469.00	476.00	473.00	474.00	477.00	490.00	494.00	490.00	485.00	490.00	510.00	511.00	514.00	518.00	527.00	530.00	525.00	515.00	508.00	505.00	494.00	499.00	510.00	529.00	509.00	518.00	494.00	487.00	493.00	498.00	492.00	482.00	483.00	483.00	484.00	484.00	486.00	485.00	485.00	484.00	485.00	528.00	517.00	542.00	526.00	526.00	541.00	556.00	582.00	596.00	697.00	693.00	703.00	678.00	689.00	620.00	576.00	568.00	563.00	570.00	576.00	599.00	577.00	578.00	580.00	584.00	590.00	599.00	598.00	592.00	592.00	594.00	605.00	619.00	617.00	620.00	621.00	628.00	622.00	614.00	610.00	611.00	607.00	608.00	608.00	610.00	623.00	629.00	626.00	631.00	626.00	626.00	622.00	629.00	633.00	630.00	620.00	618.00	623.00	635.00	641.00	649.00	651.00	646.00	659.00	654.00	645.00	647.00	644.00	631.00	627.00	624.00	622.00	637.00	645.00	647.00	637.00	643.00	637.00	649.00	646.00	631.00	633.00	635.00	636.00	646.00	667.00	664.00	669.00	675.00	670.00	657.00	652.00	651.00	649.00	660.00	666.00	667.00	674.00	680.00	730.00	732.00	784.00	843.00	730.00	718.00
411.00	411.00	412.00	412.00	413.00	412.00	412.00	412.00	412.00	413.00	412.00	414.00	413.00	415.00	415.00	415.00	416.00	415.00	415.00	416.00	417.00	417.00	418.00	418.00	419.00	419.00	421.00	421.00	422.00	421.00	421.00	421.00	422.00	424.00	424.00	425.00	424.00	425.00	425.00	425.00	426.00	425.00	426.00	426.00	426.00	427.00	428.00	429.00	429.00	430.00	431.00	431.00	431.00	431.00	432.00	432.00	434.00	434.00	433.00	433.00	435.00	435.00	435.00	435.00	434.00	433.00	436.00	437.00	438.00	438.00	438.00	438.00	437.00	437.00	437.00	438.00	439.00	439.00	441.00	441.00	441.00	440.00	439.00	441.00	439.00	439.00	440.00	441.00	440.00	440.00	439.00	440.00	440.00	449.00	464.00	465.00	454.00	455.00	459.00	456.00	456.00	455.00	457.00	458.00	459.00	461.00	463.00	464.00	465.00	473.00	474.00	479.00	483.00	492.00	505.00	502.00	504.00	494.00	494.00	497.00	519.00	516.00	513.00	525.00	534.00	535.00	523.00	524.00	544.00	509.00	512.00	500.00	490.00	495.00	505.00	508.00	504.00	484.00	488.00	493.00	489.00	483.00	483.00	483.00	484.00	484.00	484.00	486.00	485.00	486.00	488.00	507.00	530.00	540.00	584.00	571.00	558.00	561.00	577.00	600.00	633.00	685.00	696.00	685.00	672.00	595.00	572.00	567.00	561.00	568.00	580.00	583.00	577.00	580.00	585.00	591.00	596.00	613.00	592.00	588.00	590.00	596.00	603.00	623.00	649.00	623.00	624.00	625.00	620.00	618.00	617.00	615.00	611.00	615.00	610.00	611.00	615.00	620.00	625.00	633.00	623.00	619.00	619.00	629.00	634.00	639.00	619.00	617.00	631.00	632.00	637.00	646.00	653.00	647.00	647.00	640.00	636.00	637.00	658.00	641.00	631.00	626.00	619.00	627.00	629.00	631.00	628.00	642.00	628.00	626.00	628.00	627.00	636.00	639.00	640.00	650.00	664.00	680.00	676.00	690.00	671.00	662.00	658.00	652.00	647.00	661.00	668.00	673.00	676.00	695.00	728.00	765.00	747.00	751.00	756.00	725.00
410.00	411.00	410.00	411.00	412.00	412.00	411.00	412.00	412.00	412.00	413.00	413.00	414.00	414.00	414.00	415.00	414.00	414.00	415.00	416.00	417.00	417.00	418.00	418.00	419.00	419.00	422.00	422.00	421.00	421.00	421.00	422.00	423.00	424.00	424.00	424.00	424.00	424.00	425.00	424.00	425.00	424.00	425.00	426.00	427.00	427.00	428.00	428.00	429.00	430.00	430.00	431.00	431.00	431.00	432.00	432.00	432.00	434.00	433.00	434.00	435.00	436.00	435.00	433.00	435.00	435.00	435.00	437.00	436.00	438.00	436.00	438.00	437.00	437.00	437.00	438.00	438.00	438.00	440.00	440.00	440.00	439.00	440.00	438.00	439.00	440.00	440.00	440.00	440.00	440.00	439.00	441.00	441.00	449.00	456.00	454.00	450.00	453.00	456.00	454.00	455.00	454.00	457.00	458.00	458.00	463.00	473.00	473.00	470.00	475.00	480.00	495.00	505.00	506.00	504.00	516.00	508.00	503.00	507.00	501.00	515.00	519.00	522.00	527.00	542.00	536.00	525.00	531.00	526.00	529.00	538.00	523.00	506.00	485.00	484.00	484.00	487.00	481.00	482.00	486.00	485.00	482.00	481.00	482.00	483.00	483.00	482.00	484.00	485.00	487.00	488.00	499.00	520.00	539.00	577.00	593.00	553.00	570.00	577.00	606.00	677.00	740.00	691.00	705.00	629.00	598.00	579.00	566.00	559.00	563.00	567.00	571.00	576.00	580.00	587.00	595.00	593.00	596.00	584.00	585.00	589.00	595.00	601.00	611.00	627.00	610.00	613.00	619.00	616.00	616.00	620.00	618.00	615.00	617.00	614.00	614.00	618.00	620.00	626.00	628.00	623.00	618.00	616.00	626.00	636.00	623.00	615.00	616.00	625.00	632.00	638.00	652.00	651.00	642.00	645.00	641.00	635.00	631.00	635.00	658.00	640.00	622.00	617.00	620.00	619.00	620.00	625.00	624.00	623.00	624.00	627.00	638.00	645.00	643.00	645.00	683.00	693.00	683.00	683.00	692.00	680.00	666.00	659.00	656.00	651.00	666.00	678.00	677.00	678.00	690.00	731.00	770.00	729.00	725.00	752.00	760.00
411.00	410.00	411.00	411.00	411.00	412.00	411.00	412.00	412.00	412.00	413.00	413.00	414.00	414.00	414.00	414.00	415.00	414.00	416.00	417.00	416.00	417.00	417.00	417.00	419.00	421.00	422.00	421.00	421.00	421.00	421.00	423.00	422.00	423.00	424.00	424.00	424.00	424.00	423.00	424.00	425.00	424.00	425.00	426.00	426.00	427.00	427.00	428.00	430.00	429.00	430.00	430.00	431.00	431.00	431.00	432.00	433.00	433.00	433.00	433.00	433.00	434.00	434.00	434.00	434.00	435.00	436.00	436.00	438.00	436.00	437.00	436.00	437.00	437.00	436.00	437.00	438.00	438.00	440.00	441.00	439.00	439.00	439.00	438.00	439.00	440.00	439.00	438.00	439.00	440.00	440.00	441.00	442.00	451.00	455.00	450.00	449.00	451.00	452.00	453.00	454.00	454.00	458.00	465.00	469.00	468.00	471.00	485.00	495.00	473.00	476.00	507.00	516.00	501.00	493.00	505.00	515.00	514.00	505.00	513.00	518.00	525.00	531.00	532.00	536.00	531.00	533.00	525.00	517.00	528.00	535.00	531.00	532.00	488.00	486.00	481.00	481.00	481.00	480.00	482.00	482.00	480.00	481.00	482.00	482.00	482.00	483.00	484.00	484.00	486.00	488.00	507.00	528.00	578.00	589.00	592.00	552.00	608.00	636.00	668.00	754.00	773.00	670.00	681.00	586.00	593.00	574.00	562.00	557.00	559.00	564.00	567.00	574.00	576.00	580.00	587.00	588.00	587.00	581.00	583.00	588.00	591.00	594.00	599.00	600.00	606.00	611.00	611.00	611.00	614.00	619.00	622.00	619.00	619.00	618.00	620.00	623.00	626.00	625.00	622.00	618.00	615.00	614.00	620.00	629.00	615.00	613.00	620.00	624.00	638.00	639.00	647.00	641.00	637.00	645.00	642.00	636.00	631.00	626.00	638.00	646.00	626.00	617.00	615.00	615.00	616.00	618.00	624.00	628.00	629.00	660.00	655.00	669.00	648.00	652.00	681.00	740.00	732.00	692.00	702.00	690.00	676.00	665.00	662.00	656.00	663.00	667.00	668.00	673.00	676.00	691.00	701.00	701.00	702.00	717.00	775.00
410.00	410.00	411.00	410.00	411.00	411.00	410.00	410.00	411.00	412.00	412.00	413.00	412.00	412.00	413.00	414.00	414.00	415.00	415.00	416.00	417.00	416.00	417.00	417.00	418.00	421.00	421.00	421.00	421.00	421.00	422.00	423.00	421.00	422.00	423.00	423.00	423.00	423.00	423.00	424.00	424.00	424.00	425.00	425.00	425.00	426.00	428.00	429.00	429.00	429.00	429.00	430.00	432.00	432.00	431.00	431.00	433.00	432.00	432.00	432.00	432.00	433.00	433.00	433.00	434.00	433.00	435.00	435.00	436.00	436.00	436.00	435.00	436.00	436.00	436.00	436.00	437.00	436.00	440.00	439.00	439.00	437.00	437.00	438.00	441.00	439.00	439.00	438.00	437.00	438.00	440.00	442.00	445.00	447.00	447.00	447.00	448.00	449.00	450.00	455.00	458.00	458.00	465.00	464.00	470.00	479.00	481.00	481.00	473.00	479.00	477.00	479.00	482.00	487.00	501.00	511.00	511.00	515.00	525.00	523.00	530.00	531.00	531.00	532.00	529.00	538.00	549.00	549.00	543.00	545.00	541.00	542.00	514.00	496.00	495.00	484.00	479.00	476.00	479.00	479.00	479.00	480.00	480.00	482.00	482.00	482.00	482.00	479.00	484.00	490.00	531.00	608.00	599.00	580.00	589.00	623.00	554.00	569.00	605.00	671.00	754.00	723.00	609.00	596.00	575.00	567.00	561.00	559.00	556.00	569.00	572.00	571.00	567.00	567.00	569.00	569.00	573.00	575.00	583.00	589.00	591.00	585.00	594.00	602.00	602.00	606.00	608.00	619.00	681.00	637.00	628.00	630.00	628.00	630.00	654.00	659.00	635.00	635.00	629.00	626.00	618.00	613.00	611.00	616.00	611.00	628.00	612.00	627.00	632.00	636.00	631.00	643.00	635.00	630.00	640.00	640.00	641.00	638.00	620.00	621.00	626.00	623.00	615.00	612.00	620.00	622.00	620.00	706.00	670.00	644.00	683.00	695.00	664.00	659.00	681.00	721.00	706.00	708.00	709.00	736.00	721.00	682.00	672.00	664.00	659.00	654.00	659.00	663.00	666.00	671.00	687.00	710.00	722.00	741.00	761.00	829.00
411.00	411.00	411.00	410.00	410.00	410.00	410.00	411.00	411.00	411.00	410.00	410.00	413.00	413.00	413.00	413.00	414.00	416.00	415.00	415.00	416.00	416.00	417.00	418.00	418.00	421.00	421.00	421.00	422.00	422.00	422.00	424.00	422.00	422.00	422.00	422.00	423.00	423.00	423.00	424.00	424.00	424.00	425.00	425.00	425.00	426.00	426.00	428.00	429.00	430.00	429.00	430.00	429.00	430.00	430.00	430.00	432.00	431.00	432.00	431.00	432.00	433.00	433.00	434.00	434.00	434.00	434.00	435.00	435.00	435.00	435.00	436.00	437.00	436.00	436.00	437.00	436.00	437.00	440.00	439.00	437.00	437.00	438.00	438.00	438.00	439.00	437.00	437.00	436.00	437.00	440.00	443.00	450.00	446.00	446.00	447.00	448.00	447.00	449.00	456.00	461.00	464.00	474.00	467.00	470.00	474.00	487.00	480.00	479.00	491.00	496.00	487.00	495.00	507.00	511.00	505.00	509.00	515.00	517.00	516.00	533.00	537.00	533.00	538.00	530.00	551.00	557.00	544.00	547.00	541.00	552.00	570.00	526.00	492.00	489.00	483.00	485.00	486.00	480.00	479.00	479.00	479.00	481.00	480.00	479.00	478.00	479.00	483.00	488.00	520.00	579.00	608.00	590.00	595.00	601.00	588.00	559.00	560.00	584.00	668.00	734.00	700.00	613.00	585.00	586.00	568.00	562.00	557.00	556.00	572.00	564.00	564.00	563.00	566.00	567.00	569.00	573.00	577.00	584.00	586.00	588.00	585.00	590.00	599.00	638.00	674.00	667.00	655.00	709.00	644.00	636.00	635.00	635.00	633.00	638.00	643.00	643.00	645.00	631.00	621.00	630.00	627.00	621.00	606.00	610.00	614.00	615.00	632.00	624.00	638.00	627.00	630.00	627.00	627.00	637.00	634.00	634.00	627.00	619.00	617.00	622.00	620.00	614.00	611.00	609.00	616.00	622.00	667.00	659.00	640.00	654.00	699.00	680.00	676.00	708.00	787.00	773.00	755.00	703.00	693.00	690.00	673.00	665.00	660.00	654.00	656.00	661.00	666.00	670.00	675.00	697.00	699.00	704.00	732.00	734.00	806.00
410.00	411.00	411.00	412.00	410.00	410.00	410.00	410.00	411.00	411.00	411.00	412.00	412.00	413.00	413.00	415.00	414.00	416.00	416.00	415.00	416.00	417.00	417.00	419.00	418.00	420.00	421.00	422.00	421.00	421.00	421.00	423.00	422.00	422.00	422.00	422.00	422.00	422.00	424.00	423.00	423.00	424.00	425.00	425.00	425.00	427.00	427.00	427.00	428.00	429.00	430.00	429.00	430.00	430.00	430.00	430.00	431.00	430.00	430.00	431.00	431.00	433.00	433.00	432.00	432.00	431.00	433.00	434.00	434.00	435.00	434.00	436.00	434.00	435.00	436.00	435.00	436.00	436.00	438.00	439.00	437.00	437.00	437.00	438.00	437.00	437.00	435.00	435.00	436.00	437.00	440.00	444.00	451.00	445.00	446.00	445.00	446.00	447.00	450.00	456.00	459.00	464.00	473.00	472.00	473.00	478.00	489.00	489.00	494.00	490.00	501.00	498.00	504.00	510.00	510.00	503.00	507.00	510.00	512.00	516.00	534.00	528.00	539.00	541.00	529.00	548.00	561.00	544.00	533.00	547.00	563.00	568.00	554.00	494.00	502.00	496.00	506.00	498.00	483.00	478.00	479.00	480.00	482.00	481.00	479.00	489.00	494.00	504.00	534.00	540.00	557.00	601.00	594.00	618.00	608.00	588.00	565.00	564.00	583.00	658.00	655.00	625.00	616.00	585.00	584.00	565.00	558.00	555.00	558.00	562.00	560.00	561.00	578.00	587.00	575.00	570.00	572.00	579.00	584.00	582.00	581.00	581.00	589.00	608.00	620.00	659.00	679.00	698.00	661.00	654.00	660.00	644.00	642.00	640.00	640.00	645.00	642.00	633.00	625.00	617.00	628.00	676.00	676.00	619.00	611.00	605.00	631.00	618.00	620.00	624.00	622.00	623.00	625.00	626.00	637.00	633.00	629.00	625.00	617.00	614.00	617.00	614.00	609.00	608.00	614.00	621.00	677.00	642.00	637.00	643.00	664.00	656.00	676.00	744.00	791.00	788.00	738.00	709.00	694.00	683.00	672.00	668.00	661.00	659.00	658.00	657.00	662.00	667.00	674.00	674.00	689.00	688.00	693.00	698.00	728.00	767.00
410.00	410.00	412.00	410.00	409.00	410.00	409.00	411.00	410.00	411.00	411.00	412.00	413.00	412.00	414.00	414.00	415.00	415.00	416.00	416.00	416.00	419.00	418.00	418.00	419.00	421.00	421.00	421.00	420.00	421.00	420.00	420.00	421.00	422.00	421.00	422.00	422.00	423.00	423.00	424.00	424.00	425.00	425.00	424.00	425.00	426.00	426.00	426.00	427.00	428.00	429.00	429.00	429.00	429.00	431.00	429.00	430.00	430.00	431.00	430.00	431.00	432.00	432.00	432.00	432.00	432.00	432.00	434.00	433.00	433.00	434.00	435.00	435.00	435.00	434.00	434.00	435.00	437.00	438.00	438.00	436.00	436.00	436.00	437.00	436.00	435.00	434.00	435.00	437.00	437.00	440.00	445.00	451.00	445.00	444.00	445.00	446.00	446.00	450.00	454.00	458.00	463.00	470.00	475.00	481.00	483.00	494.00	498.00	501.00	502.00	504.00	495.00	502.00	504.00	501.00	502.00	516.00	517.00	528.00	523.00	523.00	526.00	534.00	524.00	517.00	516.00	550.00	539.00	536.00	543.00	561.00	560.00	590.00	497.00	528.00	527.00	522.00	505.00	490.00	489.00	478.00	479.00	484.00	489.00	522.00	526.00	514.00	517.00	519.00	547.00	555.00	601.00	598.00	597.00	582.00	573.00	571.00	570.00	595.00	668.00	655.00	622.00	577.00	572.00	580.00	560.00	555.00	554.00	561.00	558.00	560.00	563.00	643.00	658.00	588.00	576.00	574.00	579.00	586.00	579.00	576.00	577.00	585.00	589.00	594.00	605.00	663.00	789.00	724.00	702.00	663.00	670.00	652.00	653.00	664.00	654.00	623.00	612.00	620.00	614.00	607.00	619.00	641.00	617.00	609.00	603.00	606.00	614.00	623.00	616.00	620.00	621.00	628.00	629.00	638.00	635.00	632.00	631.00	619.00	614.00	611.00	612.00	610.00	607.00	614.00	623.00	696.00	708.00	659.00	654.00	647.00	646.00	696.00	828.00	858.00	725.00	700.00	695.00	681.00	676.00	670.00	667.00	665.00	664.00	664.00	658.00	660.00	666.00	670.00	674.00	706.00	697.00	710.00	701.00	755.00	767.00
408.00	407.00	408.00	410.00	409.00	409.00	410.00	411.00	410.00	412.00	413.00	412.00	412.00	413.00	414.00	413.00	414.00	415.00	416.00	417.00	417.00	419.00	418.00	418.00	418.00	420.00	419.00	419.00	419.00	419.00	421.00	420.00	419.00	421.00	420.00	421.00	422.00	422.00	423.00	423.00	424.00	423.00	423.00	423.00	425.00	426.00	426.00	427.00	428.00	427.00	428.00	428.00	428.00	429.00	429.00	429.00	430.00	429.00	430.00	431.00	431.00	428.00	431.00	432.00	432.00	433.00	432.00	432.00	431.00	432.00	432.00	432.00	433.00	433.00	434.00	433.00	435.00	436.00	435.00	436.00	434.00	434.00	435.00	434.00	435.00	434.00	435.00	435.00	435.00	439.00	443.00	446.00	448.00	444.00	445.00	443.00	445.00	447.00	450.00	454.00	456.00	459.00	469.00	468.00	471.00	475.00	478.00	477.00	485.00	500.00	496.00	486.00	491.00	489.00	494.00	511.00	514.00	512.00	515.00	512.00	534.00	535.00	520.00	534.00	537.00	551.00	517.00	527.00	543.00	564.00	592.00	598.00	608.00	516.00	545.00	532.00	503.00	501.00	503.00	483.00	478.00	506.00	519.00	496.00	511.00	532.00	545.00	556.00	566.00	562.00	562.00	600.00	620.00	613.00	591.00	578.00	576.00	577.00	595.00	671.00	625.00	603.00	569.00	570.00	565.00	560.00	554.00	549.00	551.00	561.00	565.00	566.00	586.00	632.00	595.00	589.00	582.00	582.00	583.00	577.00	574.00	570.00	580.00	584.00	588.00	595.00	611.00	739.00	764.00	755.00	770.00	737.00	632.00	659.00	621.00	598.00	598.00	593.00	598.00	598.00	600.00	595.00	595.00	596.00	604.00	606.00	608.00	612.00	624.00	630.00	622.00	627.00	630.00	640.00	632.00	628.00	629.00	634.00	626.00	623.00	620.00	620.00	616.00	605.00	616.00	615.00	624.00	634.00	667.00	665.00	638.00	636.00	679.00	692.00	714.00	690.00	680.00	679.00	679.00	688.00	689.00	680.00	678.00	686.00	675.00	661.00	660.00	665.00	677.00	701.00	762.00	839.00	810.00	810.00	814.00	804.00
408.00	407.00	408.00	409.00	408.00	411.00	410.00	411.00	410.00	411.00	411.00	412.00	411.00	413.00	413.00	413.00	415.00	415.00	414.00	416.00	415.00	418.00	418.00	418.00	419.00	418.00	418.00	417.00	418.00	420.00	420.00	420.00	420.00	420.00	421.00	421.00	423.00	422.00	422.00	423.00	422.00	422.00	424.00	424.00	425.00	426.00	427.00	427.00	428.00	428.00	427.00	428.00	427.00	429.00	429.00	429.00	429.00	429.00	430.00	431.00	431.00	429.00	431.00	432.00	431.00	432.00	431.00	432.00	432.00	432.00	432.00	433.00	433.00	434.00	433.00	433.00	436.00	436.00	435.00	435.00	434.00	435.00	435.00	435.00	434.00	434.00	435.00	436.00	437.00	442.00	448.00	448.00	444.00	443.00	443.00	444.00	445.00	446.00	450.00	455.00	456.00	458.00	461.00	464.00	467.00	468.00	476.00	480.00	490.00	491.00	488.00	482.00	487.00	491.00	495.00	504.00	508.00	516.00	510.00	513.00	524.00	518.00	514.00	541.00	530.00	542.00	504.00	524.00	556.00	591.00	585.00	594.00	594.00	555.00	516.00	508.00	510.00	499.00	486.00	489.00	492.00	532.00	538.00	534.00	521.00	524.00	531.00	558.00	567.00	550.00	589.00	570.00	581.00	571.00	569.00	569.00	584.00	588.00	609.00	680.00	624.00	598.00	575.00	564.00	571.00	561.00	552.00	550.00	555.00	559.00	561.00	561.00	571.00	591.00	595.00	595.00	588.00	579.00	578.00	576.00	572.00	568.00	576.00	580.00	586.00	593.00	591.00	684.00	738.00	764.00	778.00	624.00	600.00	606.00	595.00	590.00	598.00	588.00	589.00	589.00	602.00	602.00	599.00	602.00	622.00	611.00	618.00	611.00	629.00	632.00	626.00	630.00	632.00	631.00	628.00	625.00	628.00	636.00	625.00	620.00	617.00	618.00	619.00	604.00	607.00	610.00	615.00	621.00	643.00	686.00	642.00	631.00	652.00	675.00	707.00	670.00	684.00	685.00	687.00	694.00	690.00	691.00	690.00	694.00	679.00	665.00	662.00	667.00	676.00	688.00	789.00	896.00	864.00	797.00	780.00	752.00
407.00	408.00	408.00	407.00	410.00	410.00	410.00	410.00	411.00	410.00	412.00	411.00	413.00	414.00	414.00	415.00	415.00	415.00	414.00	415.00	416.00	416.00	418.00	417.00	417.00	418.00	418.00	417.00	418.00	419.00	421.00	420.00	419.00	420.00	420.00	421.00	421.00	421.00	421.00	422.00	423.00	423.00	423.00	424.00	424.00	426.00	426.00	425.00	427.00	427.00	427.00	428.00	428.00	429.00	428.00	428.00	428.00	429.00	430.00	431.00	429.00	430.00	430.00	431.00	430.00	431.00	430.00	432.00	431.00	430.00	433.00	432.00	432.00	433.00	432.00	432.00	431.00	434.00	434.00	436.00	434.00	433.00	434.00	434.00	435.00	435.00	435.00	435.00	440.00	445.00	447.00	443.00	443.00	442.00	442.00	443.00	444.00	446.00	451.00	454.00	455.00	457.00	465.00	464.00	464.00	467.00	474.00	478.00	486.00	485.00	486.00	487.00	500.00	494.00	497.00	513.00	521.00	527.00	520.00	521.00	531.00	513.00	512.00	505.00	498.00	495.00	523.00	566.00	548.00	556.00	563.00	557.00	565.00	555.00	564.00	546.00	536.00	516.00	532.00	521.00	495.00	528.00	550.00	554.00	547.00	554.00	539.00	544.00	543.00	551.00	550.00	564.00	582.00	578.00	578.00	575.00	589.00	602.00	626.00	628.00	600.00	617.00	570.00	560.00	564.00	555.00	550.00	550.00	551.00	554.00	557.00	560.00	568.00	639.00	617.00	688.00	627.00	579.00	574.00	579.00	575.00	567.00	572.00	576.00	580.00	593.00	587.00	624.00	697.00	683.00	659.00	590.00	593.00	591.00	590.00	586.00	589.00	585.00	587.00	589.00	595.00	599.00	602.00	612.00	621.00	617.00	619.00	614.00	623.00	661.00	636.00	633.00	628.00	626.00	624.00	620.00	625.00	647.00	625.00	619.00	614.00	613.00	614.00	603.00	603.00	606.00	611.00	623.00	651.00	675.00	633.00	629.00	649.00	658.00	664.00	663.00	688.00	693.00	696.00	706.00	702.00	728.00	699.00	699.00	685.00	669.00	666.00	665.00	669.00	701.00	786.00	840.00	796.00	783.00	743.00	731.00
407.00	407.00	408.00	408.00	410.00	409.00	409.00	410.00	411.00	410.00	410.00	411.00	412.00	414.00	413.00	414.00	414.00	414.00	415.00	415.00	416.00	417.00	416.00	417.00	417.00	418.00	418.00	418.00	419.00	417.00	419.00	418.00	420.00	421.00	420.00	420.00	421.00	422.00	421.00	423.00	422.00	423.00	423.00	424.00	426.00	424.00	426.00	426.00	426.00	426.00	427.00	427.00	427.00	427.00	428.00	428.00	427.00	431.00	430.00	430.00	429.00	429.00	430.00	430.00	431.00	431.00	430.00	430.00	430.00	431.00	431.00	433.00	432.00	432.00	432.00	434.00	434.00	435.00	434.00	434.00	434.00	433.00	434.00	434.00	434.00	434.00	435.00	434.00	441.00	444.00	441.00	442.00	442.00	442.00	442.00	443.00	443.00	447.00	449.00	454.00	455.00	457.00	466.00	471.00	472.00	467.00	480.00	483.00	497.00	480.00	483.00	494.00	502.00	505.00	502.00	519.00	521.00	532.00	526.00	526.00	533.00	515.00	524.00	506.00	488.00	515.00	528.00	548.00	532.00	536.00	545.00	544.00	547.00	549.00	556.00	558.00	560.00	553.00	535.00	526.00	494.00	521.00	545.00	562.00	564.00	570.00	574.00	551.00	558.00	558.00	556.00	580.00	569.00	581.00	579.00	574.00	581.00	589.00	615.00	640.00	602.00	594.00	562.00	554.00	557.00	548.00	548.00	550.00	552.00	553.00	558.00	567.00	571.00	616.00	605.00	655.00	584.00	575.00	570.00	572.00	579.00	568.00	568.00	571.00	576.00	578.00	581.00	593.00	618.00	638.00	601.00	584.00	587.00	586.00	583.00	581.00	589.00	590.00	590.00	593.00	596.00	599.00	601.00	603.00	615.00	621.00	625.00	617.00	620.00	649.00	670.00	688.00	654.00	622.00	619.00	617.00	622.00	649.00	623.00	618.00	615.00	609.00	610.00	604.00	602.00	605.00	609.00	630.00	656.00	643.00	626.00	627.00	638.00	652.00	654.00	697.00	706.00	700.00	703.00	722.00	722.00	739.00	723.00	699.00	689.00	675.00	670.00	666.00	668.00	677.00	764.00	816.00	765.00	750.00	727.00	719.00
408.00	407.00	408.00	408.00	409.00	408.00	408.00	409.00	410.00	410.00	410.00	412.00	411.00	413.00	412.00	414.00	414.00	414.00	414.00	415.00	416.00	416.00	417.00	416.00	416.00	417.00	418.00	418.00	418.00	418.00	419.00	419.00	419.00	419.00	420.00	420.00	422.00	420.00	421.00	422.00	422.00	424.00	423.00	424.00	424.00	425.00	425.00	425.00	425.00	425.00	426.00	427.00	427.00	427.00	427.00	428.00	428.00	428.00	428.00	427.00	428.00	428.00	428.00	429.00	429.00	430.00	429.00	431.00	431.00	431.00	429.00	430.00	431.00	431.00	433.00	432.00	433.00	431.00	434.00	433.00	432.00	433.00	433.00	433.00	434.00	435.00	435.00	436.00	438.00	439.00	441.00	444.00	445.00	441.00	441.00	441.00	444.00	447.00	448.00	452.00	454.00	458.00	467.00	472.00	478.00	486.00	492.00	482.00	494.00	476.00	481.00	483.00	485.00	496.00	508.00	528.00	520.00	520.00	520.00	525.00	531.00	514.00	495.00	491.00	487.00	483.00	484.00	498.00	492.00	504.00	508.00	525.00	531.00	552.00	552.00	554.00	540.00	541.00	506.00	489.00	520.00	532.00	550.00	560.00	564.00	570.00	586.00	594.00	577.00	560.00	561.00	576.00	565.00	573.00	577.00	573.00	580.00	585.00	601.00	600.00	594.00	596.00	562.00	552.00	545.00	553.00	559.00	557.00	561.00	558.00	559.00	561.00	568.00	575.00	585.00	586.00	579.00	571.00	565.00	564.00	563.00	562.00	564.00	565.00	569.00	573.00	581.00	583.00	582.00	587.00	578.00	575.00	575.00	579.00	580.00	585.00	596.00	616.00	615.00	611.00	608.00	613.00	623.00	632.00	629.00	642.00	627.00	626.00	616.00	627.00	637.00	634.00	635.00	623.00	612.00	614.00	620.00	621.00	627.00	615.00	609.00	605.00	602.00	599.00	600.00	604.00	612.00	678.00	625.00	618.00	621.00	626.00	636.00	647.00	655.00	686.00	655.00	664.00	671.00	680.00	691.00	780.00	819.00	734.00	714.00	677.00	670.00	669.00	671.00	672.00	684.00	690.00	694.00	757.00	752.00	743.00
408.00	407.00	408.00	408.00	409.00	408.00	408.00	409.00	410.00	410.00	410.00	412.00	411.00	413.00	412.00	414.00	414.00	414.00	414.00	415.00	416.00	416.00	417.00	416.00	416.00	417.00	418.00	418.00	418.00	418.00	419.00	419.00	419.00	419.00	420.00	420.00	422.00	420.00	421.00	422.00	422.00	424.00	423.00	424.00	424.00	425.00	425.00	425.00	425.00	425.00	426.00	427.00	427.00	427.00	427.00	428.00	428.00	428.00	428.00	427.00	428.00	428.00	428.00	429.00	429.00	430.00	429.00	431.00	431.00	431.00	429.00	430.00	431.00	431.00	433.00	432.00	433.00	431.00	434.00	433.00	432.00	433.00	433.00	433.00	434.00	435.00	435.00	436.00	438.00	439.00	441.00	444.00	445.00	441.00	441.00	441.00	444.00	447.00	448.00	452.00	454.00	458.00	467.00	472.00	478.00	486.00	492.00	482.00	494.00	476.00	481.00	483.00	485.00	496.00	508.00	528.00	520.00	520.00	520.00	525.00	531.00	514.00	495.00	491.00	487.00	483.00	484.00	498.00	492.00	504.00	508.00	525.00	531.00	552.00	552.00	554.00	540.00	541.00	506.00	489.00	520.00	532.00	550.00	560.00	564.00	570.00	586.00	594.00	577.00	560.00	561.00	576.00	565.00	573.00	577.00	573.00	580.00	585.00	601.00	600.00	594.00	596.00	562.00	552.00	545.00	553.00	559.00	557.00	561.00	558.00	559.00	561.00	568.00	575.00	585.00	586.00	579.00	571.00	565.00	564.00	563.00	562.00	564.00	565.00	569.00	573.00	581.00	583.00	582.00	587.00	578.00	575.00	575.00	579.00	580.00	585.00	596.00	616.00	615.00	611.00	608.00	613.00	623.00	632.00	629.00	642.00	627.00	626.00	616.00	627.00	637.00	634.00	635.00	623.00	612.00	614.00	620.00	621.00	627.00	615.00	609.00	605.00	602.00	599.00	600.00	604.00	612.00	678.00	625.00	618.00	621.00	626.00	636.00	647.00	655.00	686.00	655.00	664.00	671.00	680.00	691.00	780.00	819.00	734.00	714.00	677.00	670.00	669.00	671.00	672.00	684.00	690.00	694.00	757.00	752.00	743.00
407.00	407.00	407.00	408.00	408.00	408.00	408.00	408.00	409.00	410.00	411.00	412.00	412.00	413.00	413.00	414.00	414.00	415.00	415.00	415.00	415.00	416.00	416.00	416.00	417.00	415.00	416.00	417.00	417.00	417.00	418.00	419.00	419.00	419.00	418.00	420.00	421.00	421.00	422.00	421.00	422.00	423.00	422.00	424.00	424.00	424.00	424.00	424.00	426.00	425.00	427.00	427.00	426.00	428.00	428.00	428.00	428.00	427.00	427.00	427.00	426.00	428.00	429.00	429.00	429.00	429.00	430.00	430.00	431.00	431.00	430.00	430.00	431.00	431.00	432.00	430.00	430.00	432.00	434.00	432.00	432.00	432.00	431.00	433.00	434.00	434.00	435.00	436.00	439.00	440.00	439.00	441.00	442.00	440.00	440.00	442.00	443.00	445.00	446.00	451.00	454.00	458.00	472.00	478.00	483.00	482.00	469.00	480.00	489.00	472.00	482.00	496.00	492.00	486.00	507.00	506.00	503.00	506.00	514.00	528.00	528.00	500.00	488.00	487.00	478.00	480.00	481.00	483.00	484.00	498.00	509.00	528.00	542.00	540.00	552.00	549.00	531.00	527.00	490.00	511.00	525.00	541.00	561.00	559.00	555.00	580.00	586.00	609.00	601.00	593.00	579.00	569.00	570.00	581.00	583.00	579.00	579.00	588.00	624.00	609.00	573.00	571.00	557.00	549.00	546.00	566.00	566.00	565.00	566.00	564.00	563.00	563.00	569.00	575.00	579.00	582.00	579.00	572.00	571.00	572.00	571.00	564.00	561.00	564.00	568.00	573.00	582.00	578.00	575.00	575.00	572.00	573.00	577.00	586.00	588.00	600.00	598.00	605.00	636.00	659.00	630.00	629.00	639.00	643.00	631.00	628.00	622.00	617.00	612.00	619.00	628.00	626.00	628.00	621.00	608.00	612.00	617.00	614.00	622.00	616.00	609.00	605.00	599.00	597.00	602.00	608.00	611.00	618.00	619.00	615.00	618.00	622.00	632.00	634.00	639.00	650.00	650.00	652.00	657.00	680.00	711.00	779.00	852.00	809.00	776.00	680.00	673.00	671.00	672.00	673.00	682.00	693.00	705.00	742.00	739.00	746.00
406.00	408.00	407.00	407.00	408.00	407.00	408.00	409.00	410.00	411.00	411.00	410.00	412.00	413.00	412.00	414.00	414.00	413.00	413.00	414.00	414.00	416.00	416.00	416.00	417.00	417.00	416.00	417.00	417.00	418.00	418.00	418.00	418.00	419.00	420.00	420.00	421.00	421.00	421.00	421.00	422.00	423.00	423.00	423.00	425.00	424.00	424.00	424.00	426.00	425.00	425.00	425.00	426.00	426.00	427.00	427.00	426.00	426.00	427.00	427.00	427.00	428.00	429.00	428.00	429.00	428.00	429.00	431.00	431.00	431.00	430.00	429.00	431.00	431.00	430.00	432.00	431.00	432.00	430.00	432.00	432.00	431.00	431.00	433.00	434.00	434.00	435.00	436.00	438.00	439.00	439.00	440.00	440.00	441.00	440.00	441.00	442.00	443.00	444.00	451.00	454.00	457.00	474.00	477.00	481.00	474.00	467.00	481.00	473.00	481.00	484.00	504.00	498.00	499.00	496.00	512.00	512.00	509.00	519.00	530.00	524.00	495.00	488.00	480.00	474.00	480.00	476.00	476.00	483.00	501.00	508.00	524.00	534.00	540.00	546.00	544.00	539.00	506.00	520.00	537.00	539.00	546.00	550.00	554.00	559.00	570.00	579.00	590.00	588.00	598.00	593.00	577.00	588.00	581.00	584.00	578.00	571.00	582.00	606.00	593.00	572.00	562.00	548.00	541.00	550.00	564.00	583.00	568.00	571.00	573.00	570.00	570.00	576.00	579.00	582.00	600.00	602.00	577.00	572.00	570.00	570.00	562.00	561.00	565.00	569.00	569.00	576.00	596.00	574.00	570.00	571.00	576.00	582.00	594.00	618.00	627.00	612.00	604.00	616.00	639.00	626.00	627.00	627.00	626.00	628.00	630.00	631.00	623.00	611.00	613.00	620.00	624.00	621.00	619.00	608.00	606.00	608.00	609.00	617.00	620.00	609.00	603.00	599.00	597.00	603.00	605.00	609.00	612.00	618.00	614.00	617.00	622.00	626.00	628.00	630.00	637.00	646.00	653.00	661.00	668.00	699.00	803.00	816.00	751.00	711.00	680.00	676.00	680.00	677.00	674.00	683.00	698.00	708.00	712.00	716.00	725.00
407.00	407.00	407.00	408.00	407.00	407.00	407.00	408.00	410.00	411.00	410.00	410.00	412.00	413.00	413.00	413.00	413.00	412.00	413.00	414.00	414.00	416.00	415.00	415.00	415.00	415.00	416.00	415.00	416.00	417.00	417.00	418.00	417.00	417.00	419.00	420.00	421.00	421.00	421.00	421.00	422.00	422.00	423.00	423.00	422.00	423.00	423.00	424.00	422.00	424.00	424.00	424.00	425.00	425.00	426.00	426.00	426.00	426.00	426.00	426.00	427.00	427.00	427.00	428.00	428.00	429.00	429.00	429.00	430.00	430.00	429.00	429.00	430.00	429.00	431.00	431.00	429.00	429.00	428.00	431.00	430.00	431.00	432.00	432.00	434.00	434.00	434.00	435.00	437.00	436.00	437.00	440.00	439.00	439.00	439.00	438.00	439.00	443.00	444.00	451.00	454.00	457.00	471.00	474.00	467.00	461.00	465.00	468.00	478.00	494.00	499.00	510.00	513.00	519.00	523.00	539.00	535.00	532.00	533.00	538.00	492.00	483.00	478.00	475.00	467.00	469.00	471.00	473.00	474.00	481.00	493.00	506.00	517.00	523.00	513.00	506.00	484.00	491.00	515.00	527.00	531.00	542.00	558.00	563.00	567.00	568.00	573.00	578.00	581.00	584.00	591.00	583.00	581.00	575.00	569.00	565.00	568.00	590.00	575.00	592.00	554.00	549.00	542.00	542.00	551.00	554.00	564.00	567.00	566.00	573.00	580.00	585.00	611.00	599.00	581.00	592.00	588.00	582.00	565.00	561.00	564.00	557.00	565.00	566.00	564.00	563.00	564.00	567.00	566.00	568.00	574.00	585.00	596.00	598.00	640.00	631.00	634.00	735.00	679.00	653.00	635.00	623.00	618.00	614.00	609.00	616.00	613.00	614.00	605.00	608.00	614.00	616.00	621.00	612.00	613.00	608.00	605.00	600.00	598.00	601.00	606.00	596.00	594.00	596.00	599.00	601.00	602.00	607.00	609.00	608.00	610.00	613.00	618.00	623.00	630.00	691.00	742.00	687.00	672.00	682.00	725.00	715.00	766.00	786.00	746.00	686.00	690.00	689.00	686.00	685.00	681.00	685.00	691.00	699.00	741.00	748.00
406.00	407.00	407.00	407.00	407.00	409.00	408.00	409.00	410.00	410.00	408.00	409.00	411.00	413.00	413.00	413.00	413.00	413.00	414.00	414.00	414.00	414.00	414.00	415.00	414.00	415.00	417.00	417.00	417.00	417.00	417.00	417.00	418.00	419.00	418.00	419.00	421.00	422.00	421.00	421.00	422.00	422.00	421.00	423.00	423.00	422.00	423.00	422.00	422.00	423.00	424.00	424.00	425.00	425.00	425.00	425.00	426.00	425.00	426.00	425.00	426.00	427.00	427.00	427.00	429.00	428.00	429.00	430.00	430.00	430.00	429.00	429.00	429.00	430.00	431.00	429.00	429.00	429.00	429.00	430.00	430.00	430.00	432.00	433.00	434.00	434.00	434.00	434.00	435.00	437.00	438.00	438.00	437.00	437.00	438.00	438.00	437.00	442.00	446.00	451.00	452.00	457.00	464.00	466.00	461.00	459.00	476.00	485.00	476.00	497.00	505.00	505.00	503.00	513.00	528.00	545.00	542.00	522.00	532.00	543.00	488.00	498.00	494.00	481.00	466.00	469.00	469.00	467.00	469.00	478.00	490.00	504.00	516.00	505.00	486.00	479.00	488.00	511.00	528.00	541.00	546.00	549.00	566.00	570.00	566.00	569.00	577.00	582.00	585.00	585.00	589.00	585.00	579.00	578.00	570.00	565.00	565.00	580.00	567.00	564.00	551.00	544.00	538.00	541.00	555.00	556.00	561.00	564.00	560.00	573.00	578.00	592.00	594.00	576.00	572.00	580.00	605.00	629.00	572.00	556.00	556.00	558.00	564.00	561.00	560.00	561.00	562.00	565.00	567.00	570.00	581.00	598.00	585.00	603.00	603.00	621.00	638.00	685.00	708.00	697.00	686.00	634.00	615.00	611.00	604.00	613.00	606.00	605.00	601.00	604.00	611.00	616.00	616.00	607.00	614.00	610.00	606.00	601.00	595.00	598.00	602.00	593.00	593.00	597.00	601.00	602.00	602.00	605.00	608.00	608.00	610.00	611.00	618.00	623.00	631.00	766.00	819.00	765.00	683.00	663.00	691.00	733.00	727.00	699.00	704.00	689.00	690.00	695.00	693.00	689.00	684.00	687.00	694.00	705.00	773.00	747.00
