1273.00	1272.00	1276.00	1271.00	1277.00	1288.00	1302.00	1287.00	1313.00	1325.00	1341.00	1338.00	1320.00	1298.00	1302.00	1271.00	1257.00	1253.00	1244.00	1235.00	1246.00	1249.00	1253.00	1256.00	1282.00	1276.00	1241.00	1251.00	1283.00	1243.00	1254.00	1240.00	1234.00	1224.00	1206.00	1200.00	1211.00	1171.00	1135.00	1104.00	1106.00	1098.00	1070.00	1050.00	1067.00	1042.00	1061.00	1066.00	1078.00	1087.00	1115.00	1128.00	1109.00	1093.00	1082.00	1066.00	1058.00	1040.00	1035.00	1004.00	988.00	974.00	993.00	1053.00	1102.00	1129.00	1115.00	1019.00	990.00	982.00	1010.00	1041.00	1120.00	1154.00	1084.00	963.00	892.00	846.00	864.00	930.00	962.00	925.00	809.00	793.00	731.00	705.00	569.00	544.00	527.00	525.00	522.00	516.00	508.00	500.00	493.00	475.00	469.00	471.00	470.00	460.00	472.00	471.00	467.00	504.00	475.00	490.00	484.00	477.00	480.00	464.00	453.00	469.00	478.00	502.00	529.00	547.00	539.00	531.00	548.00	564.00	644.00	724.00	764.00	799.00	810.00	830.00	856.00	848.00	836.00	828.00	817.00	835.00	812.00	810.00	802.00	799.00	819.00	825.00	828.00	834.00	852.00	870.00	892.00	939.00	1027.00	1083.00	999.00	944.00	826.00	804.00	928.00	847.00	708.00	653.00	614.00	596.00	588.00	578.00	558.00	549.00	536.00	525.00	511.00	486.00	482.00	477.00	473.00	473.00	468.00	441.00	438.00	436.00	432.00	431.00	428.00	426.00	424.00	422.00	422.00	424.00	433.00	438.00	441.00	447.00	455.00	479.00	514.00	511.00	521.00	563.00	559.00	560.00	561.00	536.00	561.00	567.00	551.00	554.00	554.00	558.00	562.00	574.00	578.00	590.00	608.00	627.00	612.00	676.00	691.00	697.00	699.00	690.00	688.00	697.00	706.00	710.00	700.00	688.00	707.00	722.00	717.00	735.00	744.00	762.00	763.00	786.00	774.00	785.00	807.00	797.00	789.00	784.00	795.00	807.00	817.00	800.00	779.00	747.00	721.00	676.00	669.00	665.00	662.00	668.00	690.00	677.00	667.00	680.00	695.00	728.00	750.00	754.00	770.00	776.00	762.00	779.00
1256.00	1260.00	1270.00	1280.00	1284.00	1292.00	1307.00	1294.00	1311.00	1321.00	1329.00	1319.00	1305.00	1281.00	1273.00	1253.00	1245.00	1240.00	1235.00	1225.00	1223.00	1227.00	1240.00	1256.00	1262.00	1270.00	1245.00	1232.00	1282.00	1242.00	1246.00	1259.00	1248.00	1218.00	1195.00	1183.00	1196.00	1178.00	1161.00	1138.00	1063.00	1125.00	1101.00	1097.00	1103.00	1069.00	1054.00	1079.00	1107.00	1121.00	1104.00	1096.00	1090.00	1097.00	1081.00	1058.00	1045.00	1033.00	1032.00	1016.00	998.00	998.00	1025.00	1055.00	1105.00	1069.00	1013.00	988.00	1017.00	1054.00	1061.00	1141.00	1137.00	1038.00	1031.00	1032.00	995.00	1007.00	1075.00	1058.00	946.00	852.00	746.00	696.00	679.00	649.00	556.00	533.00	524.00	518.00	518.00	507.00	507.00	502.00	492.00	486.00	478.00	465.00	464.00	463.00	465.00	465.00	464.00	501.00	472.00	488.00	475.00	475.00	475.00	464.00	454.00	468.00	474.00	518.00	520.00	534.00	554.00	560.00	633.00	612.00	714.00	753.00	785.00	827.00	840.00	859.00	856.00	863.00	841.00	822.00	819.00	818.00	809.00	804.00	796.00	805.00	821.00	829.00	838.00	844.00	870.00	902.00	962.00	1066.00	1103.00	1017.00	931.00	849.00	810.00	850.00	924.00	862.00	703.00	644.00	605.00	587.00	580.00	573.00	554.00	546.00	535.00	516.00	503.00	483.00	478.00	473.00	464.00	459.00	456.00	443.00	441.00	435.00	434.00	431.00	429.00	426.00	423.00	421.00	427.00	431.00	435.00	439.00	443.00	451.00	478.00	501.00	540.00	536.00	536.00	563.00	580.00	588.00	570.00	540.00	555.00	557.00	559.00	563.00	563.00	576.00	572.00	579.00	601.00	600.00	607.00	632.00	628.00	661.00	692.00	720.00	708.00	694.00	694.00	709.00	725.00	713.00	718.00	696.00	712.00	728.00	733.00	723.00	738.00	748.00	751.00	768.00	785.00	807.00	812.00	796.00	793.00	792.00	789.00	802.00	801.00	798.00	773.00	737.00	718.00	677.00	671.00	668.00	664.00	668.00	683.00	676.00	672.00	678.00	699.00	715.00	736.00	727.00	746.00	769.00	785.00	787.00
1251.00	1265.00	1268.00	1280.00	1300.00	1298.00	1309.00	1303.00	1306.00	1311.00	1313.00	1293.00	1280.00	1273.00	1264.00	1249.00	1243.00	1233.00	1226.00	1223.00	1210.00	1214.00	1234.00	1245.00	1249.00	1267.00	1250.00	1224.00	1257.00	1239.00	1235.00	1261.00	1249.00	1217.00	1196.00	1179.00	1169.00	1189.00	1161.00	1141.00	1076.00	1134.00	1140.00	1122.00	1105.00	1119.00	1095.00	1120.00	1159.00	1134.00	1116.00	1098.00	1081.00	1081.00	1070.00	1042.00	1038.00	1054.00	1060.00	1040.00	1040.00	1036.00	1065.00	1104.00	1071.00	1016.00	989.00	1003.00	1142.00	1204.00	1205.00	1067.00	1041.00	1081.00	1157.00	1085.00	981.00	938.00	927.00	890.00	805.00	757.00	736.00	733.00	664.00	598.00	534.00	525.00	522.00	515.00	510.00	500.00	494.00	498.00	493.00	488.00	483.00	472.00	460.00	456.00	462.00	461.00	456.00	464.00	470.00	471.00	474.00	476.00	479.00	456.00	457.00	466.00	475.00	519.00	536.00	541.00	559.00	625.00	712.00	690.00	737.00	756.00	778.00	799.00	820.00	845.00	831.00	852.00	834.00	823.00	818.00	812.00	808.00	796.00	801.00	807.00	821.00	833.00	846.00	859.00	919.00	999.00	1079.00	1145.00	1090.00	909.00	877.00	808.00	774.00	940.00	973.00	822.00	704.00	638.00	596.00	583.00	573.00	566.00	552.00	538.00	517.00	506.00	498.00	486.00	477.00	471.00	461.00	451.00	448.00	443.00	440.00	434.00	433.00	431.00	427.00	423.00	419.00	423.00	427.00	430.00	435.00	440.00	446.00	462.00	481.00	516.00	550.00	561.00	561.00	594.00	609.00	602.00	574.00	549.00	558.00	563.00	564.00	575.00	586.00	577.00	596.00	608.00	611.00	610.00	639.00	658.00	651.00	664.00	694.00	718.00	702.00	691.00	712.00	736.00	741.00	725.00	713.00	698.00	715.00	722.00	743.00	728.00	737.00	751.00	773.00	780.00	813.00	821.00	809.00	807.00	804.00	796.00	797.00	800.00	789.00	762.00	748.00	730.00	710.00	684.00	677.00	676.00	666.00	675.00	690.00	693.00	680.00	683.00	685.00	698.00	710.00	712.00	737.00	762.00	770.00	781.00
1282.00	1270.00	1268.00	1290.00	1309.00	1325.00	1322.00	1318.00	1324.00	1316.00	1317.00	1302.00	1283.00	1277.00	1274.00	1248.00	1242.00	1239.00	1237.00	1221.00	1234.00	1227.00	1206.00	1219.00	1241.00	1249.00	1225.00	1205.00	1229.00	1218.00	1247.00	1259.00	1254.00	1221.00	1196.00	1172.00	1160.00	1141.00	1147.00	1171.00	1123.00	1204.00	1216.00	1226.00	1193.00	1145.00	1168.00	1158.00	1164.00	1140.00	1096.00	1082.00	1071.00	1063.00	1063.00	1085.00	1101.00	1097.00	1088.00	1079.00	1065.00	1049.00	1045.00	1020.00	1009.00	1002.00	1032.00	1108.00	1074.00	1073.00	1131.00	1216.00	1165.00	1042.00	956.00	854.00	803.00	796.00	781.00	786.00	731.00	706.00	623.00	603.00	585.00	552.00	527.00	521.00	517.00	508.00	500.00	491.00	478.00	475.00	472.00	468.00	464.00	464.00	460.00	448.00	465.00	465.00	468.00	460.00	465.00	468.00	473.00	471.00	464.00	453.00	465.00	479.00	486.00	577.00	653.00	661.00	649.00	720.00	724.00	731.00	720.00	731.00	738.00	765.00	784.00	804.00	833.00	852.00	830.00	842.00	813.00	795.00	793.00	789.00	800.00	807.00	831.00	848.00	880.00	964.00	1138.00	1118.00	1069.00	1005.00	985.00	834.00	901.00	908.00	967.00	1050.00	945.00	846.00	707.00	644.00	584.00	568.00	562.00	554.00	537.00	527.00	517.00	508.00	500.00	483.00	475.00	468.00	455.00	496.00	525.00	478.00	442.00	432.00	429.00	428.00	427.00	420.00	424.00	430.00	438.00	437.00	437.00	441.00	445.00	459.00	479.00	516.00	546.00	544.00	587.00	604.00	595.00	571.00	570.00	581.00	566.00	568.00	581.00	587.00	595.00	589.00	603.00	610.00	618.00	642.00	645.00	707.00	704.00	723.00	723.00	709.00	702.00	707.00	741.00	764.00	736.00	719.00	713.00	713.00	715.00	722.00	735.00	766.00	785.00	820.00	823.00	811.00	827.00	831.00	821.00	810.00	804.00	814.00	816.00	805.00	776.00	759.00	733.00	719.00	708.00	694.00	687.00	675.00	666.00	675.00	689.00	705.00	709.00	702.00	699.00	729.00	751.00	763.00	761.00	745.00	756.00	784.00
1293.00	1297.00	1284.00	1283.00	1290.00	1297.00	1329.00	1334.00	1339.00	1331.00	1301.00	1282.00	1275.00	1266.00	1255.00	1245.00	1246.00	1245.00	1234.00	1239.00	1263.00	1237.00	1210.00	1200.00	1194.00	1191.00	1185.00	1196.00	1193.00	1223.00	1227.00	1226.00	1229.00	1217.00	1224.00	1251.00	1219.00	1212.00	1214.00	1207.00	1249.00	1222.00	1209.00	1193.00	1188.00	1192.00	1165.00	1153.00	1156.00	1152.00	1098.00	1086.00	1085.00	1104.00	1103.00	1100.00	1090.00	1077.00	1068.00	1062.00	1050.00	1056.00	1049.00	1035.00	1043.00	1052.00	1051.00	1070.00	1150.00	1135.00	1093.00	1045.00	1046.00	1040.00	994.00	1003.00	952.00	963.00	942.00	824.00	734.00	692.00	734.00	624.00	548.00	531.00	523.00	515.00	511.00	507.00	504.00	491.00	474.00	466.00	463.00	459.00	454.00	446.00	447.00	459.00	465.00	468.00	471.00	471.00	462.00	450.00	449.00	454.00	468.00	483.00	489.00	502.00	515.00	713.00	739.00	741.00	736.00	718.00	748.00	856.00	853.00	876.00	834.00	846.00	849.00	882.00	858.00	815.00	791.00	793.00	798.00	795.00	793.00	785.00	799.00	806.00	837.00	912.00	1028.00	1068.00	1060.00	986.00	935.00	897.00	869.00	915.00	939.00	1026.00	988.00	937.00	897.00	856.00	791.00	691.00	576.00	548.00	545.00	540.00	530.00	524.00	516.00	507.00	497.00	485.00	477.00	465.00	487.00	540.00	533.00	484.00	449.00	429.00	429.00	426.00	419.00	420.00	429.00	433.00	437.00	440.00	442.00	442.00	445.00	449.00	459.00	507.00	497.00	515.00	562.00	557.00	550.00	573.00	583.00	579.00	577.00	578.00	589.00	604.00	626.00	660.00	632.00	681.00	685.00	678.00	680.00	674.00	715.00	737.00	720.00	717.00	725.00	712.00	734.00	742.00	736.00	735.00	769.00	761.00	738.00	745.00	781.00	810.00	807.00	810.00	824.00	842.00	837.00	830.00	823.00	813.00	821.00	810.00	791.00	781.00	776.00	764.00	778.00	761.00	731.00	699.00	698.00	685.00	675.00	705.00	695.00	698.00	717.00	724.00	713.00	731.00	756.00	752.00	762.00	769.00	756.00	779.00
1303.00	1308.00	1308.00	1304.00	1293.00	1307.00	1338.00	1332.00	1343.00	1333.00	1295.00	1282.00	1270.00	1263.00	1257.00	1262.00	1261.00	1256.00	1243.00	1255.00	1261.00	1241.00	1216.00	1199.00	1206.00	1198.00	1184.00	1181.00	1204.00	1222.00	1217.00	1210.00	1232.00	1230.00	1261.00	1245.00	1234.00	1234.00	1230.00	1222.00	1243.00	1184.00	1170.00	1165.00	1159.00	1150.00	1143.00	1139.00	1132.00	1124.00	1100.00	1086.00	1098.00	1114.00	1105.00	1091.00	1090.00	1083.00	1082.00	1097.00	1077.00	1076.00	1096.00	1072.00	1138.00	1150.00	1141.00	1128.00	1111.00	1107.00	1107.00	1124.00	1074.00	1064.00	947.00	873.00	915.00	841.00	820.00	753.00	718.00	737.00	633.00	548.00	527.00	520.00	508.00	508.00	505.00	501.00	498.00	484.00	478.00	469.00	465.00	453.00	449.00	447.00	457.00	461.00	467.00	480.00	491.00	481.00	472.00	462.00	462.00	468.00	475.00	487.00	514.00	526.00	565.00	725.00	704.00	699.00	681.00	676.00	823.00	823.00	815.00	776.00	777.00	808.00	819.00	812.00	807.00	779.00	780.00	788.00	785.00	789.00	786.00	783.00	799.00	806.00	863.00	968.00	1023.00	986.00	936.00	907.00	899.00	886.00	921.00	894.00	912.00	935.00	882.00	891.00	843.00	766.00	697.00	642.00	574.00	546.00	537.00	532.00	522.00	513.00	509.00	499.00	488.00	473.00	470.00	463.00	505.00	525.00	516.00	484.00	440.00	426.00	425.00	422.00	419.00	418.00	432.00	432.00	440.00	449.00	447.00	450.00	450.00	462.00	480.00	509.00	525.00	515.00	533.00	539.00	559.00	589.00	585.00	583.00	582.00	584.00	593.00	619.00	624.00	633.00	635.00	667.00	711.00	672.00	685.00	675.00	719.00	738.00	731.00	727.00	724.00	719.00	730.00	738.00	742.00	750.00	789.00	776.00	746.00	759.00	786.00	829.00	830.00	828.00	841.00	833.00	828.00	828.00	823.00	817.00	826.00	809.00	796.00	794.00	779.00	800.00	793.00	763.00	732.00	705.00	693.00	683.00	674.00	714.00	702.00	703.00	714.00	727.00	718.00	720.00	731.00	737.00	760.00	769.00	762.00	771.00
1311.00	1323.00	1329.00	1327.00	1270.00	1289.00	1323.00	1312.00	1342.00	1328.00	1295.00	1281.00	1275.00	1275.00	1272.00	1280.00	1276.00	1271.00	1259.00	1283.00	1250.00	1220.00	1222.00	1241.00	1263.00	1200.00	1173.00	1180.00	1207.00	1202.00	1199.00	1210.00	1241.00	1252.00	1248.00	1252.00	1224.00	1244.00	1222.00	1181.00	1227.00	1189.00	1174.00	1151.00	1146.00	1149.00	1124.00	1135.00	1141.00	1120.00	1094.00	1100.00	1105.00	1117.00	1114.00	1111.00	1109.00	1107.00	1146.00	1199.00	1169.00	1131.00	1173.00	1166.00	1194.00	1175.00	1158.00	1166.00	1202.00	1151.00	1114.00	1087.00	1002.00	877.00	802.00	900.00	916.00	748.00	684.00	648.00	648.00	730.00	545.00	528.00	517.00	509.00	500.00	500.00	500.00	497.00	492.00	479.00	479.00	465.00	462.00	454.00	445.00	454.00	461.00	464.00	473.00	480.00	483.00	497.00	476.00	463.00	471.00	478.00	482.00	496.00	512.00	536.00	617.00	681.00	696.00	649.00	694.00	767.00	769.00	731.00	717.00	698.00	720.00	769.00	780.00	781.00	768.00	769.00	782.00	772.00	782.00	781.00	779.00	785.00	793.00	800.00	861.00	934.00	933.00	909.00	870.00	866.00	881.00	959.00	980.00	868.00	869.00	876.00	847.00	889.00	816.00	687.00	633.00	620.00	560.00	551.00	529.00	525.00	520.00	513.00	501.00	492.00	486.00	471.00	464.00	466.00	508.00	518.00	488.00	456.00	429.00	421.00	422.00	422.00	423.00	418.00	435.00	438.00	443.00	443.00	452.00	460.00	458.00	469.00	497.00	519.00	552.00	533.00	519.00	529.00	568.00	588.00	580.00	579.00	584.00	586.00	592.00	639.00	615.00	624.00	637.00	640.00	659.00	658.00	668.00	684.00	704.00	741.00	742.00	732.00	727.00	736.00	731.00	740.00	753.00	756.00	783.00	754.00	752.00	795.00	822.00	825.00	823.00	807.00	823.00	816.00	823.00	826.00	824.00	819.00	822.00	813.00	808.00	805.00	808.00	813.00	785.00	755.00	737.00	702.00	691.00	678.00	681.00	711.00	711.00	704.00	713.00	722.00	727.00	726.00	745.00	757.00	777.00	770.00	763.00	777.00
1288.00	1323.00	1309.00	1263.00	1249.00	1237.00	1269.00	1303.00	1302.00	1276.00	1295.00	1262.00	1238.00	1221.00	1203.00	1211.00	1211.00	1236.00	1231.00	1258.00	1264.00	1268.00	1262.00	1239.00	1192.00	1179.00	1169.00	1167.00	1179.00	1209.00	1225.00	1231.00	1222.00	1187.00	1225.00	1199.00	1177.00	1139.00	1143.00	1141.00	1121.00	1153.00	1161.00	1189.00	1185.00	1169.00	1161.00	1132.00	1110.00	1108.00	1113.00	1123.00	1132.00	1185.00	1244.00	1305.00	1300.00	1247.00	1233.00	1312.00	1288.00	1305.00	1242.00	1191.00	1197.00	1103.00	1009.00	922.00	837.00	889.00	865.00	785.00	899.00	783.00	715.00	775.00	793.00	737.00	674.00	627.00	579.00	565.00	531.00	521.00	512.00	503.00	490.00	489.00	487.00	486.00	486.00	479.00	465.00	466.00	466.00	449.00	445.00	451.00	456.00	461.00	471.00	476.00	478.00	500.00	500.00	485.00	500.00	518.00	541.00	593.00	557.00	574.00	602.00	703.00	715.00	680.00	642.00	632.00	652.00	655.00	672.00	682.00	712.00	731.00	736.00	742.00	747.00	756.00	762.00	772.00	787.00	780.00	776.00	780.00	793.00	815.00	991.00	996.00	968.00	930.00	881.00	844.00	890.00	884.00	893.00	859.00	842.00	874.00	937.00	764.00	706.00	672.00	618.00	595.00	538.00	524.00	517.00	510.00	503.00	505.00	500.00	484.00	478.00	469.00	472.00	477.00	514.00	538.00	480.00	422.00	421.00	418.00	418.00	417.00	423.00	428.00	436.00	440.00	440.00	447.00	462.00	474.00	491.00	500.00	518.00	533.00	544.00	550.00	561.00	578.00	587.00	576.00	576.00	579.00	582.00	588.00	594.00	600.00	612.00	614.00	621.00	622.00	633.00	650.00	665.00	679.00	700.00	706.00	717.00	745.00	765.00	764.00	758.00	756.00	765.00	766.00	763.00	766.00	782.00	789.00	796.00	779.00	785.00	804.00	817.00	822.00	824.00	816.00	826.00	834.00	841.00	834.00	822.00	820.00	840.00	838.00	818.00	783.00	742.00	691.00	688.00	698.00	702.00	715.00	722.00	722.00	724.00	728.00	751.00	735.00	751.00	763.00	783.00	787.00	795.00	780.00
1294.00	1265.00	1253.00	1243.00	1234.00	1222.00	1270.00	1290.00	1257.00	1238.00	1246.00	1220.00	1212.00	1223.00	1194.00	1190.00	1207.00	1229.00	1214.00	1287.00	1278.00	1252.00	1224.00	1213.00	1183.00	1177.00	1185.00	1166.00	1199.00	1235.00	1235.00	1208.00	1176.00	1152.00	1149.00	1134.00	1136.00	1124.00	1118.00	1121.00	1120.00	1168.00	1169.00	1187.00	1166.00	1149.00	1125.00	1118.00	1119.00	1122.00	1127.00	1145.00	1204.00	1291.00	1325.00	1301.00	1267.00	1303.00	1335.00	1322.00	1270.00	1226.00	1203.00	1178.00	1005.00	947.00	896.00	908.00	939.00	814.00	762.00	739.00	707.00	677.00	660.00	790.00	771.00	708.00	636.00	576.00	560.00	553.00	527.00	517.00	508.00	501.00	489.00	485.00	480.00	479.00	480.00	473.00	464.00	461.00	462.00	454.00	444.00	449.00	455.00	462.00	471.00	480.00	484.00	489.00	508.00	505.00	520.00	566.00	613.00	622.00	620.00	628.00	655.00	655.00	630.00	631.00	621.00	636.00	656.00	666.00	683.00	686.00	711.00	720.00	732.00	745.00	756.00	763.00	770.00	773.00	780.00	777.00	775.00	776.00	798.00	839.00	1081.00	1093.00	1071.00	1033.00	928.00	873.00	837.00	842.00	887.00	830.00	859.00	906.00	938.00	763.00	693.00	638.00	631.00	651.00	563.00	517.00	513.00	503.00	496.00	494.00	496.00	490.00	482.00	472.00	482.00	501.00	531.00	518.00	435.00	419.00	418.00	419.00	419.00	423.00	426.00	429.00	439.00	444.00	447.00	452.00	479.00	506.00	509.00	496.00	520.00	537.00	560.00	573.00	566.00	587.00	592.00	586.00	586.00	585.00	585.00	586.00	591.00	605.00	617.00	622.00	623.00	625.00	629.00	663.00	679.00	683.00	691.00	695.00	715.00	742.00	768.00	755.00	766.00	763.00	751.00	748.00	773.00	774.00	780.00	779.00	782.00	771.00	794.00	830.00	815.00	811.00	809.00	822.00	831.00	836.00	845.00	837.00	845.00	829.00	846.00	852.00	845.00	801.00	749.00	690.00	693.00	704.00	707.00	716.00	724.00	731.00	732.00	736.00	751.00	737.00	748.00	762.00	785.00	799.00	801.00	784.00
1290.00	1260.00	1242.00	1226.00	1224.00	1217.00	1265.00	1286.00	1229.00	1237.00	1224.00	1203.00	1195.00	1216.00	1207.00	1184.00	1207.00	1230.00	1207.00	1284.00	1268.00	1242.00	1234.00	1220.00	1199.00	1197.00	1185.00	1175.00	1225.00	1191.00	1178.00	1172.00	1141.00	1130.00	1121.00	1132.00	1159.00	1147.00	1121.00	1140.00	1135.00	1162.00	1154.00	1150.00	1146.00	1141.00	1134.00	1131.00	1135.00	1137.00	1180.00	1241.00	1311.00	1349.00	1344.00	1333.00	1334.00	1346.00	1327.00	1259.00	1259.00	1130.00	1100.00	1108.00	1003.00	934.00	970.00	1069.00	1029.00	857.00	869.00	870.00	800.00	621.00	653.00	717.00	674.00	590.00	566.00	556.00	549.00	546.00	522.00	514.00	509.00	505.00	496.00	488.00	478.00	476.00	472.00	470.00	462.00	460.00	459.00	453.00	444.00	455.00	462.00	469.00	484.00	476.00	478.00	488.00	504.00	514.00	553.00	597.00	606.00	622.00	669.00	645.00	612.00	601.00	605.00	615.00	635.00	644.00	670.00	688.00	699.00	699.00	717.00	742.00	749.00	768.00	767.00	765.00	770.00	776.00	778.00	781.00	778.00	773.00	813.00	903.00	1106.00	1154.00	1165.00	1146.00	1005.00	930.00	846.00	818.00	833.00	828.00	855.00	972.00	934.00	769.00	688.00	664.00	694.00	783.00	592.00	509.00	507.00	500.00	490.00	487.00	488.00	488.00	483.00	475.00	487.00	504.00	538.00	457.00	420.00	416.00	416.00	420.00	423.00	428.00	428.00	434.00	437.00	442.00	446.00	455.00	488.00	510.00	523.00	503.00	504.00	531.00	569.00	589.00	587.00	599.00	599.00	594.00	592.00	589.00	590.00	587.00	591.00	603.00	623.00	624.00	631.00	633.00	635.00	664.00	676.00	673.00	680.00	694.00	721.00	755.00	733.00	727.00	764.00	748.00	740.00	752.00	775.00	767.00	782.00	770.00	769.00	780.00	797.00	822.00	805.00	796.00	808.00	813.00	830.00	829.00	848.00	855.00	852.00	841.00	865.00	848.00	796.00	770.00	740.00	693.00	707.00	711.00	715.00	722.00	727.00	734.00	743.00	748.00	754.00	748.00	746.00	762.00	773.00	790.00	798.00	788.00
1281.00	1253.00	1238.00	1226.00	1210.00	1215.00	1276.00	1254.00	1213.00	1227.00	1223.00	1206.00	1183.00	1199.00	1187.00	1176.00	1215.00	1240.00	1198.00	1259.00	1253.00	1232.00	1219.00	1207.00	1216.00	1213.00	1213.00	1196.00	1165.00	1169.00	1174.00	1200.00	1174.00	1150.00	1123.00	1141.00	1161.00	1157.00	1124.00	1108.00	1116.00	1150.00	1149.00	1137.00	1143.00	1149.00	1150.00	1154.00	1162.00	1157.00	1277.00	1332.00	1352.00	1357.00	1362.00	1350.00	1355.00	1339.00	1315.00	1269.00	1197.00	1055.00	1074.00	1080.00	1020.00	1030.00	1092.00	1167.00	1197.00	1107.00	1115.00	1043.00	952.00	637.00	645.00	615.00	589.00	554.00	544.00	539.00	539.00	536.00	521.00	515.00	507.00	500.00	499.00	498.00	486.00	481.00	480.00	465.00	459.00	457.00	456.00	449.00	444.00	453.00	459.00	470.00	497.00	502.00	483.00	485.00	503.00	517.00	552.00	580.00	599.00	566.00	592.00	605.00	611.00	608.00	623.00	646.00	690.00	666.00	739.00	771.00	765.00	743.00	729.00	745.00	749.00	766.00	772.00	774.00	776.00	779.00	776.00	773.00	769.00	769.00	840.00	977.00	1154.00	1123.00	1115.00	1079.00	985.00	895.00	857.00	850.00	842.00	807.00	838.00	903.00	856.00	731.00	722.00	754.00	792.00	805.00	603.00	507.00	500.00	495.00	485.00	481.00	479.00	481.00	475.00	481.00	483.00	494.00	517.00	459.00	414.00	417.00	419.00	422.00	426.00	427.00	430.00	433.00	439.00	445.00	449.00	460.00	514.00	525.00	531.00	522.00	509.00	527.00	570.00	599.00	574.00	617.00	607.00	600.00	595.00	592.00	597.00	591.00	597.00	604.00	623.00	633.00	643.00	643.00	642.00	656.00	659.00	664.00	675.00	685.00	697.00	706.00	714.00	735.00	742.00	735.00	741.00	762.00	769.00	762.00	768.00	767.00	753.00	781.00	790.00	804.00	789.00	795.00	800.00	812.00	831.00	819.00	846.00	868.00	859.00	860.00	862.00	827.00	793.00	792.00	733.00	703.00	715.00	719.00	722.00	727.00	731.00	738.00	747.00	757.00	761.00	761.00	756.00	752.00	768.00	794.00	795.00	800.00
1263.00	1256.00	1245.00	1235.00	1220.00	1205.00	1185.00	1182.00	1188.00	1181.00	1215.00	1181.00	1167.00	1182.00	1154.00	1205.00	1216.00	1181.00	1210.00	1271.00	1264.00	1237.00	1222.00	1238.00	1226.00	1192.00	1179.00	1176.00	1170.00	1154.00	1164.00	1194.00	1203.00	1160.00	1104.00	1097.00	1127.00	1090.00	1097.00	1100.00	1109.00	1129.00	1152.00	1163.00	1168.00	1174.00	1270.00	1291.00	1323.00	1307.00	1380.00	1377.00	1381.00	1383.00	1374.00	1331.00	1315.00	1319.00	1324.00	1141.00	1058.00	1024.00	1072.00	1096.00	1196.00	1154.00	1100.00	1072.00	901.00	824.00	813.00	797.00	694.00	585.00	585.00	590.00	584.00	543.00	525.00	521.00	519.00	518.00	514.00	509.00	508.00	506.00	487.00	477.00	473.00	467.00	462.00	458.00	455.00	454.00	453.00	447.00	443.00	447.00	453.00	463.00	487.00	497.00	507.00	516.00	519.00	516.00	529.00	538.00	544.00	558.00	615.00	628.00	618.00	680.00	721.00	710.00	727.00	738.00	739.00	751.00	761.00	772.00	798.00	766.00	770.00	775.00	802.00	799.00	797.00	783.00	776.00	764.00	761.00	793.00	971.00	1015.00	959.00	983.00	918.00	887.00	859.00	832.00	867.00	897.00	805.00	937.00	932.00	915.00	876.00	781.00	788.00	774.00	689.00	664.00	531.00	501.00	494.00	483.00	475.00	470.00	469.00	468.00	469.00	487.00	505.00	505.00	480.00	416.00	417.00	421.00	423.00	428.00	429.00	426.00	428.00	430.00	445.00	450.00	469.00	502.00	563.00	601.00	575.00	578.00	570.00	533.00	555.00	570.00	579.00	597.00	606.00	606.00	605.00	600.00	601.00	601.00	604.00	606.00	617.00	626.00	635.00	644.00	646.00	646.00	654.00	661.00	665.00	685.00	696.00	708.00	704.00	707.00	716.00	731.00	755.00	757.00	764.00	758.00	745.00	740.00	747.00	761.00	763.00	766.00	773.00	798.00	806.00	813.00	799.00	824.00	850.00	875.00	890.00	895.00	853.00	820.00	795.00	764.00	713.00	723.00	728.00	731.00	734.00	739.00	743.00	750.00	761.00	770.00	774.00	776.00	777.00	769.00	795.00	808.00	794.00	812.00
1253.00	1244.00	1236.00	1232.00	1217.00	1228.00	1177.00	1175.00	1194.00	1170.00	1201.00	1175.00	1154.00	1161.00	1141.00	1219.00	1189.00	1174.00	1203.00	1254.00	1251.00	1241.00	1243.00	1251.00	1178.00	1167.00	1179.00	1186.00	1179.00	1139.00	1166.00	1204.00	1154.00	1107.00	1096.00	1080.00	1104.00	1082.00	1113.00	1120.00	1117.00	1182.00	1243.00	1229.00	1206.00	1260.00	1320.00	1340.00	1349.00	1346.00	1396.00	1395.00	1403.00	1358.00	1311.00	1304.00	1321.00	1335.00	1280.00	1083.00	1061.00	1144.00	1251.00	1308.00	1241.00	1156.00	1149.00	1170.00	1030.00	936.00	806.00	676.00	631.00	609.00	608.00	580.00	582.00	554.00	530.00	517.00	513.00	511.00	510.00	507.00	502.00	502.00	498.00	492.00	482.00	470.00	462.00	456.00	451.00	454.00	452.00	445.00	441.00	452.00	462.00	480.00	474.00	481.00	490.00	537.00	529.00	526.00	570.00	562.00	600.00	576.00	610.00	612.00	611.00	700.00	685.00	698.00	703.00	710.00	730.00	742.00	756.00	762.00	780.00	776.00	782.00	787.00	802.00	803.00	796.00	787.00	778.00	772.00	764.00	810.00	877.00	891.00	877.00	870.00	836.00	825.00	792.00	829.00	857.00	818.00	798.00	862.00	812.00	794.00	753.00	723.00	725.00	652.00	627.00	602.00	512.00	486.00	483.00	484.00	472.00	467.00	464.00	463.00	465.00	498.00	513.00	519.00	460.00	418.00	416.00	421.00	422.00	426.00	428.00	429.00	431.00	433.00	447.00	457.00	495.00	506.00	635.00	657.00	594.00	587.00	560.00	537.00	572.00	585.00	585.00	606.00	611.00	611.00	609.00	605.00	603.00	604.00	611.00	612.00	623.00	631.00	637.00	638.00	639.00	647.00	651.00	651.00	653.00	679.00	690.00	699.00	696.00	713.00	726.00	749.00	753.00	748.00	753.00	747.00	735.00	736.00	743.00	750.00	761.00	778.00	791.00	791.00	795.00	797.00	795.00	814.00	851.00	868.00	874.00	888.00	876.00	832.00	780.00	746.00	721.00	728.00	738.00	737.00	741.00	746.00	751.00	759.00	765.00	775.00	784.00	787.00	787.00	781.00	803.00	821.00	801.00	813.00
1248.00	1231.00	1228.00	1227.00	1224.00	1209.00	1172.00	1165.00	1180.00	1163.00	1184.00	1169.00	1142.00	1146.00	1135.00	1196.00	1158.00	1186.00	1186.00	1230.00	1258.00	1248.00	1257.00	1261.00	1156.00	1174.00	1210.00	1211.00	1161.00	1138.00	1182.00	1156.00	1106.00	1086.00	1097.00	1068.00	1078.00	1103.00	1111.00	1111.00	1156.00	1270.00	1250.00	1214.00	1251.00	1297.00	1359.00	1368.00	1381.00	1380.00	1394.00	1355.00	1305.00	1274.00	1280.00	1354.00	1336.00	1278.00	1169.00	1079.00	1136.00	1365.00	1420.00	1356.00	1254.00	1284.00	1263.00	1275.00	968.00	892.00	826.00	710.00	643.00	617.00	591.00	567.00	541.00	544.00	549.00	516.00	508.00	505.00	506.00	504.00	502.00	494.00	498.00	495.00	489.00	482.00	475.00	456.00	445.00	446.00	446.00	444.00	454.00	468.00	484.00	496.00	472.00	479.00	490.00	526.00	536.00	543.00	600.00	607.00	627.00	652.00	654.00	634.00	641.00	670.00	668.00	676.00	690.00	697.00	731.00	753.00	763.00	766.00	790.00	795.00	796.00	807.00	810.00	827.00	824.00	812.00	802.00	790.00	774.00	761.00	789.00	799.00	835.00	810.00	799.00	827.00	844.00	772.00	756.00	805.00	819.00	754.00	722.00	720.00	698.00	688.00	682.00	627.00	568.00	556.00	500.00	481.00	477.00	475.00	469.00	463.00	459.00	461.00	475.00	514.00	543.00	540.00	445.00	418.00	414.00	421.00	422.00	425.00	427.00	429.00	432.00	435.00	448.00	465.00	485.00	516.00	594.00	618.00	606.00	577.00	558.00	547.00	572.00	590.00	605.00	621.00	615.00	615.00	612.00	609.00	606.00	608.00	616.00	627.00	626.00	629.00	627.00	632.00	639.00	658.00	646.00	652.00	657.00	671.00	689.00	687.00	694.00	705.00	734.00	750.00	752.00	742.00	734.00	732.00	728.00	733.00	743.00	758.00	777.00	783.00	790.00	775.00	784.00	790.00	792.00	812.00	868.00	861.00	861.00	862.00	845.00	810.00	797.00	754.00	728.00	733.00	743.00	744.00	745.00	753.00	759.00	765.00	774.00	783.00	790.00	797.00	796.00	787.00	811.00	821.00	810.00	815.00
1249.00	1248.00	1249.00	1249.00	1236.00	1205.00	1170.00	1165.00	1155.00	1182.00	1183.00	1164.00	1135.00	1125.00	1128.00	1189.00	1155.00	1176.00	1198.00	1223.00	1245.00	1221.00	1215.00	1200.00	1159.00	1206.00	1209.00	1186.00	1187.00	1165.00	1111.00	1089.00	1074.00	1076.00	1073.00	1065.00	1063.00	1094.00	1107.00	1141.00	1263.00	1232.00	1223.00	1257.00	1291.00	1314.00	1377.00	1391.00	1404.00	1394.00	1297.00	1264.00	1261.00	1296.00	1353.00	1407.00	1383.00	1339.00	1224.00	1159.00	1296.00	1431.00	1366.00	1317.00	1393.00	1285.00	1089.00	1031.00	968.00	972.00	913.00	700.00	605.00	606.00	584.00	541.00	532.00	524.00	522.00	508.00	503.00	501.00	501.00	499.00	500.00	497.00	486.00	485.00	482.00	474.00	465.00	454.00	438.00	439.00	440.00	452.00	470.00	480.00	486.00	501.00	497.00	481.00	491.00	518.00	560.00	570.00	609.00	640.00	668.00	620.00	641.00	640.00	644.00	660.00	667.00	673.00	683.00	693.00	740.00	740.00	790.00	787.00	858.00	853.00	839.00	852.00	876.00	900.00	914.00	882.00	857.00	844.00	806.00	764.00	762.00	789.00	782.00	771.00	804.00	828.00	826.00	818.00	768.00	755.00	760.00	704.00	669.00	644.00	622.00	605.00	578.00	572.00	549.00	534.00	489.00	484.00	477.00	469.00	465.00	460.00	455.00	460.00	482.00	503.00	499.00	473.00	436.00	426.00	413.00	416.00	422.00	423.00	425.00	431.00	434.00	439.00	449.00	490.00	506.00	518.00	570.00	601.00	612.00	602.00	589.00	566.00	574.00	574.00	611.00	623.00	619.00	618.00	616.00	612.00	608.00	610.00	613.00	619.00	623.00	629.00	633.00	637.00	639.00	661.00	650.00	654.00	662.00	671.00	677.00	687.00	693.00	708.00	741.00	744.00	747.00	745.00	718.00	717.00	741.00	747.00	747.00	768.00	771.00	773.00	773.00	769.00	776.00	778.00	777.00	810.00	869.00	848.00	850.00	844.00	845.00	819.00	788.00	749.00	723.00	738.00	748.00	749.00	750.00	759.00	765.00	771.00	777.00	783.00	794.00	802.00	800.00	793.00	820.00	830.00	817.00	823.00
1250.00	1236.00	1256.00	1264.00	1241.00	1220.00	1174.00	1153.00	1142.00	1154.00	1153.00	1155.00	1138.00	1117.00	1109.00	1164.00	1151.00	1132.00	1138.00	1145.00	1115.00	1106.00	1115.00	1127.00	1208.00	1210.00	1202.00	1223.00	1167.00	1087.00	1065.00	1061.00	1053.00	1044.00	1051.00	1074.00	1067.00	1108.00	1183.00	1283.00	1343.00	1316.00	1336.00	1366.00	1392.00	1386.00	1401.00	1389.00	1354.00	1308.00	1252.00	1233.00	1231.00	1268.00	1298.00	1278.00	1257.00	1247.00	1315.00	1475.00	1455.00	1431.00	1396.00	1337.00	1019.00	908.00	859.00	836.00	867.00	793.00	792.00	690.00	599.00	550.00	546.00	537.00	532.00	514.00	511.00	505.00	499.00	492.00	481.00	486.00	483.00	490.00	487.00	478.00	463.00	453.00	453.00	438.00	444.00	451.00	454.00	469.00	472.00	479.00	484.00	496.00	516.00	514.00	503.00	558.00	644.00	684.00	626.00	627.00	595.00	632.00	661.00	707.00	756.00	840.00	795.00	750.00	818.00	809.00	794.00	838.00	857.00	884.00	896.00	918.00	998.00	994.00	920.00	874.00	853.00	856.00	828.00	806.00	833.00	836.00	758.00	783.00	746.00	781.00	768.00	753.00	738.00	712.00	700.00	671.00	666.00	642.00	589.00	584.00	582.00	655.00	680.00	565.00	573.00	515.00	476.00	470.00	464.00	459.00	454.00	451.00	453.00	462.00	450.00	440.00	439.00	434.00	422.00	422.00	421.00	423.00	418.00	444.00	435.00	438.00	436.00	440.00	461.00	511.00	583.00	606.00	654.00	649.00	602.00	586.00	576.00	579.00	596.00	594.00	619.00	627.00	626.00	629.00	624.00	618.00	615.00	621.00	622.00	636.00	630.00	635.00	650.00	651.00	650.00	655.00	664.00	669.00	669.00	688.00	697.00	709.00	716.00	719.00	733.00	734.00	719.00	713.00	708.00	725.00	736.00	729.00	722.00	743.00	757.00	752.00	744.00	755.00	775.00	781.00	781.00	818.00	859.00	850.00	835.00	826.00	813.00	782.00	781.00	786.00	758.00	740.00	746.00	747.00	752.00	768.00	771.00	775.00	780.00	786.00	802.00	811.00	812.00	809.00	815.00	821.00	825.00	836.00
1245.00	1214.00	1234.00	1253.00	1240.00	1223.00	1164.00	1153.00	1125.00	1133.00	1132.00	1134.00	1134.00	1112.00	1104.00	1139.00	1108.00	1124.00	1111.00	1093.00	1099.00	1123.00	1132.00	1166.00	1186.00	1168.00	1201.00	1196.00	1114.00	1091.00	1060.00	1052.00	1049.00	1030.00	1047.00	1044.00	1080.00	1132.00	1196.00	1266.00	1413.00	1398.00	1475.00	1472.00	1426.00	1393.00	1396.00	1368.00	1313.00	1290.00	1241.00	1241.00	1245.00	1231.00	1233.00	1302.00	1327.00	1434.00	1468.00	1452.00	1422.00	1348.00	1271.00	1125.00	941.00	923.00	909.00	795.00	779.00	787.00	725.00	623.00	595.00	539.00	533.00	536.00	530.00	516.00	511.00	504.00	497.00	493.00	477.00	471.00	470.00	473.00	482.00	482.00	474.00	455.00	451.00	437.00	447.00	455.00	456.00	470.00	479.00	485.00	491.00	495.00	510.00	519.00	525.00	571.00	633.00	642.00	678.00	691.00	642.00	748.00	765.00	801.00	835.00	823.00	788.00	792.00	780.00	811.00	810.00	837.00	910.00	953.00	1027.00	978.00	988.00	917.00	891.00	833.00	830.00	822.00	833.00	917.00	923.00	888.00	739.00	732.00	727.00	746.00	758.00	732.00	702.00	706.00	676.00	642.00	622.00	599.00	625.00	669.00	734.00	763.00	672.00	597.00	531.00	489.00	470.00	464.00	461.00	457.00	451.00	449.00	447.00	455.00	451.00	442.00	450.00	458.00	422.00	416.00	414.00	416.00	420.00	444.00	463.00	445.00	440.00	443.00	471.00	525.00	579.00	600.00	634.00	613.00	590.00	576.00	575.00	556.00	567.00	601.00	622.00	628.00	630.00	633.00	630.00	622.00	619.00	629.00	633.00	635.00	639.00	637.00	649.00	654.00	651.00	654.00	661.00	669.00	675.00	699.00	704.00	710.00	707.00	714.00	729.00	723.00	710.00	713.00	715.00	728.00	717.00	710.00	714.00	732.00	747.00	742.00	736.00	769.00	775.00	780.00	795.00	819.00	875.00	862.00	842.00	822.00	800.00	789.00	793.00	798.00	760.00	732.00	736.00	746.00	756.00	770.00	771.00	776.00	782.00	789.00	803.00	812.00	817.00	818.00	827.00	832.00	842.00	851.00
1249.00	1205.00	1219.00	1226.00	1229.00	1215.00	1174.00	1149.00	1138.00	1120.00	1111.00	1110.00	1109.00	1094.00	1145.00	1112.00	1096.00	1094.00	1094.00	1091.00	1126.00	1161.00	1162.00	1196.00	1182.00	1149.00	1188.00	1161.00	1123.00	1091.00	1078.00	1041.00	1025.00	1014.00	1020.00	1048.00	1094.00	1184.00	1283.00	1337.00	1407.00	1536.00	1564.00	1475.00	1386.00	1365.00	1405.00	1360.00	1310.00	1293.00	1262.00	1267.00	1287.00	1281.00	1344.00	1494.00	1469.00	1472.00	1439.00	1403.00	1371.00	1205.00	1095.00	984.00	955.00	931.00	877.00	751.00	678.00	669.00	618.00	598.00	589.00	532.00	522.00	518.00	527.00	518.00	512.00	514.00	519.00	515.00	480.00	472.00	467.00	462.00	466.00	471.00	467.00	455.00	446.00	437.00	448.00	454.00	458.00	467.00	472.00	480.00	486.00	492.00	505.00	513.00	522.00	619.00	663.00	690.00	759.00	822.00	714.00	727.00	752.00	768.00	779.00	760.00	766.00	779.00	790.00	814.00	872.00	937.00	996.00	981.00	1001.00	924.00	905.00	884.00	891.00	888.00	873.00	899.00	900.00	845.00	812.00	792.00	745.00	748.00	725.00	720.00	748.00	751.00	696.00	663.00	656.00	633.00	642.00	680.00	767.00	829.00	779.00	714.00	708.00	605.00	532.00	499.00	476.00	465.00	462.00	460.00	453.00	448.00	450.00	457.00	470.00	480.00	504.00	547.00	464.00	412.00	415.00	424.00	426.00	427.00	454.00	444.00	443.00	450.00	485.00	545.00	575.00	579.00	570.00	567.00	582.00	574.00	555.00	538.00	557.00	574.00	609.00	626.00	633.00	636.00	634.00	628.00	621.00	634.00	643.00	630.00	641.00	642.00	644.00	652.00	661.00	662.00	663.00	670.00	680.00	700.00	696.00	695.00	700.00	705.00	719.00	717.00	698.00	693.00	744.00	728.00	702.00	702.00	706.00	742.00	737.00	732.00	737.00	786.00	801.00	788.00	803.00	825.00	876.00	856.00	837.00	818.00	805.00	788.00	803.00	788.00	765.00	725.00	743.00	749.00	754.00	766.00	774.00	778.00	783.00	789.00	801.00	813.00	821.00	826.00	837.00	841.00	848.00	852.00
1247.00	1201.00	1189.00	1212.00	1208.00	1193.00	1161.00	1150.00	1151.00	1139.00	1114.00	1104.00	1118.00	1119.00	1088.00	1084.00	1092.00	1073.00	1089.00	1118.00	1170.00	1209.00	1230.00	1230.00	1176.00	1115.00	1129.00	1138.00	1071.00	1095.00	1073.00	1062.00	1019.00	1005.00	1032.00	1059.00	1074.00	1253.00	1392.00	1414.00	1459.00	1617.00	1540.00	1395.00	1346.00	1365.00	1394.00	1317.00	1286.00	1278.00	1318.00	1362.00	1376.00	1401.00	1426.00	1472.00	1467.00	1438.00	1408.00	1359.00	1307.00	1157.00	1091.00	977.00	862.00	828.00	753.00	704.00	640.00	626.00	621.00	566.00	567.00	542.00	530.00	517.00	508.00	509.00	504.00	498.00	501.00	512.00	497.00	480.00	470.00	465.00	454.00	455.00	461.00	450.00	443.00	437.00	449.00	463.00	468.00	469.00	475.00	479.00	482.00	490.00	505.00	514.00	529.00	586.00	633.00	616.00	682.00	752.00	724.00	678.00	697.00	709.00	701.00	849.00	902.00	915.00	873.00	936.00	1028.00	1013.00	1008.00	997.00	915.00	863.00	846.00	824.00	852.00	918.00	887.00	849.00	821.00	773.00	757.00	758.00	745.00	739.00	724.00	718.00	750.00	722.00	686.00	648.00	642.00	680.00	755.00	819.00	775.00	754.00	746.00	705.00	631.00	550.00	527.00	507.00	488.00	468.00	462.00	459.00	452.00	462.00	520.00	574.00	614.00	545.00	585.00	643.00	605.00	420.00	423.00	429.00	433.00	441.00	442.00	435.00	439.00	453.00	508.00	525.00	554.00	554.00	543.00	554.00	563.00	540.00	553.00	531.00	570.00	580.00	603.00	630.00	637.00	639.00	639.00	632.00	624.00	638.00	646.00	637.00	640.00	644.00	652.00	661.00	661.00	674.00	674.00	674.00	679.00	692.00	690.00	685.00	691.00	701.00	711.00	705.00	691.00	710.00	755.00	712.00	693.00	700.00	711.00	732.00	727.00	753.00	763.00	811.00	835.00	818.00	818.00	838.00	872.00	855.00	833.00	816.00	806.00	792.00	798.00	783.00	761.00	729.00	744.00	758.00	762.00	769.00	776.00	783.00	786.00	790.00	800.00	812.00	819.00	825.00	838.00	841.00	846.00	845.00
1247.00	1217.00	1173.00	1200.00	1230.00	1198.00	1194.00	1242.00	1250.00	1164.00	1256.00	1238.00	1135.00	1110.00	1092.00	1069.00	1068.00	1059.00	1058.00	1163.00	1202.00	1160.00	1108.00	1083.00	1108.00	1140.00	1143.00	1074.00	961.00	1054.00	1044.00	1055.00	1022.00	1028.00	1097.00	1131.00	1225.00	1399.00	1452.00	1492.00	1484.00	1523.00	1436.00	1340.00	1351.00	1314.00	1316.00	1339.00	1377.00	1373.00	1434.00	1447.00	1443.00	1444.00	1442.00	1451.00	1440.00	1372.00	1294.00	1109.00	1104.00	935.00	918.00	838.00	670.00	623.00	607.00	618.00	626.00	596.00	587.00	568.00	555.00	520.00	518.00	512.00	503.00	488.00	485.00	481.00	477.00	474.00	465.00	467.00	473.00	473.00	453.00	456.00	449.00	439.00	435.00	447.00	457.00	463.00	486.00	501.00	495.00	497.00	499.00	505.00	544.00	572.00	632.00	616.00	634.00	617.00	628.00	637.00	653.00	671.00	685.00	718.00	821.00	995.00	975.00	967.00	987.00	946.00	898.00	876.00	871.00	859.00	833.00	821.00	809.00	803.00	808.00	794.00	777.00	776.00	794.00	760.00	737.00	729.00	718.00	703.00	694.00	689.00	659.00	664.00	711.00	701.00	773.00	796.00	822.00	982.00	872.00	799.00	708.00	606.00	578.00	551.00	531.00	515.00	491.00	486.00	475.00	461.00	488.00	534.00	562.00	543.00	591.00	692.00	658.00	652.00	599.00	486.00	542.00	506.00	542.00	493.00	454.00	453.00	460.00	456.00	490.00	499.00	538.00	570.00	588.00	542.00	525.00	518.00	516.00	552.00	556.00	574.00	607.00	634.00	652.00	645.00	635.00	631.00	634.00	636.00	641.00	640.00	648.00	633.00	638.00	644.00	647.00	667.00	669.00	661.00	667.00	678.00	675.00	673.00	679.00	688.00	688.00	695.00	682.00	688.00	699.00	698.00	699.00	714.00	715.00	730.00	769.00	764.00	774.00	810.00	805.00	818.00	844.00	880.00	854.00	848.00	830.00	810.00	803.00	814.00	796.00	769.00	749.00	739.00	751.00	757.00	761.00	765.00	770.00	778.00	783.00	788.00	801.00	810.00	815.00	822.00	829.00	828.00	828.00	834.00
1228.00	1195.00	1170.00	1180.00	1252.00	1223.00	1227.00	1280.00	1190.00	1222.00	1266.00	1178.00	1162.00	1129.00	1112.00	1089.00	1096.00	1079.00	1053.00	1097.00	1063.00	1049.00	1062.00	1085.00	1034.00	1031.00	996.00	964.00	991.00	1024.00	1029.00	1052.00	1007.00	1075.00	1177.00	1195.00	1337.00	1459.00	1502.00	1525.00	1476.00	1447.00	1385.00	1331.00	1325.00	1327.00	1389.00	1411.00	1427.00	1415.00	1443.00	1456.00	1444.00	1430.00	1433.00	1423.00	1392.00	1294.00	1192.00	974.00	911.00	869.00	761.00	700.00	620.00	616.00	597.00	590.00	585.00	578.00	569.00	571.00	565.00	521.00	508.00	502.00	498.00	489.00	484.00	482.00	480.00	476.00	465.00	460.00	457.00	452.00	455.00	448.00	448.00	437.00	440.00	462.00	469.00	476.00	475.00	482.00	490.00	501.00	513.00	516.00	586.00	640.00	649.00	624.00	639.00	631.00	650.00	657.00	676.00	820.00	836.00	809.00	874.00	926.00	956.00	944.00	929.00	923.00	862.00	853.00	859.00	852.00	827.00	812.00	818.00	821.00	888.00	818.00	793.00	769.00	774.00	737.00	722.00	717.00	699.00	698.00	680.00	678.00	680.00	680.00	809.00	738.00	767.00	879.00	900.00	999.00	1005.00	937.00	749.00	597.00	572.00	552.00	535.00	513.00	486.00	473.00	466.00	463.00	491.00	508.00	524.00	564.00	622.00	613.00	576.00	654.00	534.00	538.00	548.00	558.00	644.00	545.00	466.00	459.00	487.00	545.00	489.00	499.00	497.00	524.00	538.00	510.00	502.00	506.00	514.00	532.00	551.00	568.00	599.00	620.00	640.00	638.00	629.00	639.00	638.00	647.00	644.00	644.00	633.00	626.00	632.00	641.00	646.00	663.00	668.00	658.00	667.00	665.00	664.00	667.00	671.00	673.00	677.00	699.00	691.00	693.00	690.00	678.00	700.00	707.00	709.00	751.00	750.00	754.00	776.00	785.00	798.00	846.00	868.00	873.00	832.00	823.00	823.00	805.00	801.00	806.00	789.00	761.00	748.00	748.00	753.00	757.00	762.00	770.00	774.00	779.00	782.00	788.00	800.00	807.00	813.00	818.00	821.00	821.00	835.00	852.00
1204.00	1212.00	1182.00	1156.00	1177.00	1189.00	1170.00	1191.00	1251.00	1264.00	1172.00	1144.00	1180.00	1169.00	1124.00	1112.00	1113.00	1071.00	1041.00	1038.00	1039.00	1081.00	1105.00	1087.00	1009.00	982.00	957.00	929.00	983.00	965.00	994.00	999.00	1099.00	1208.00	1258.00	1254.00	1342.00	1516.00	1527.00	1513.00	1461.00	1389.00	1353.00	1340.00	1348.00	1350.00	1413.00	1436.00	1430.00	1438.00	1443.00	1442.00	1429.00	1416.00	1410.00	1353.00	1295.00	1262.00	1250.00	984.00	875.00	771.00	662.00	631.00	603.00	596.00	589.00	579.00	566.00	558.00	554.00	543.00	539.00	517.00	509.00	511.00	506.00	497.00	491.00	485.00	481.00	480.00	472.00	461.00	456.00	453.00	455.00	451.00	442.00	440.00	451.00	471.00	478.00	492.00	482.00	479.00	488.00	502.00	515.00	528.00	647.00	643.00	627.00	667.00	651.00	644.00	666.00	742.00	765.00	939.00	879.00	822.00	872.00	949.00	968.00	1002.00	964.00	905.00	854.00	845.00	842.00	850.00	833.00	834.00	863.00	880.00	863.00	811.00	784.00	765.00	744.00	747.00	736.00	717.00	704.00	699.00	688.00	711.00	744.00	760.00	822.00	779.00	873.00	946.00	981.00	1142.00	1103.00	951.00	766.00	603.00	578.00	556.00	534.00	513.00	489.00	472.00	468.00	469.00	492.00	517.00	557.00	632.00	633.00	541.00	585.00	614.00	481.00	571.00	601.00	607.00	674.00	540.00	474.00	506.00	507.00	539.00	486.00	476.00	482.00	485.00	493.00	500.00	504.00	510.00	522.00	527.00	544.00	556.00	568.00	605.00	633.00	631.00	627.00	631.00	638.00	654.00	648.00	638.00	621.00	627.00	637.00	638.00	642.00	655.00	657.00	653.00	661.00	656.00	660.00	665.00	661.00	660.00	677.00	703.00	672.00	687.00	669.00	695.00	697.00	700.00	724.00	740.00	753.00	777.00	782.00	775.00	801.00	893.00	864.00	852.00	823.00	806.00	799.00	789.00	797.00	786.00	771.00	754.00	747.00	744.00	750.00	757.00	762.00	770.00	774.00	781.00	786.00	788.00	798.00	805.00	810.00	815.00	815.00	839.00	856.00	861.00
1182.00	1179.00	1165.00	1150.00	1139.00	1164.00	1143.00	1169.00	1175.00	1165.00	1145.00	1125.00	1154.00	1133.00	1100.00	1097.00	1074.00	1047.00	1037.00	1111.00	1054.00	1012.00	1033.00	1023.00	985.00	972.00	931.00	916.00	967.00	968.00	1002.00	1083.00	1242.00	1344.00	1387.00	1377.00	1397.00	1524.00	1501.00	1485.00	1453.00	1373.00	1353.00	1362.00	1375.00	1408.00	1427.00	1450.00	1480.00	1459.00	1431.00	1423.00	1411.00	1398.00	1373.00	1285.00	1277.00	1253.00	1177.00	982.00	883.00	669.00	635.00	627.00	602.00	592.00	582.00	574.00	559.00	552.00	548.00	533.00	526.00	518.00	516.00	510.00	506.00	497.00	492.00	491.00	490.00	489.00	473.00	473.00	471.00	464.00	445.00	440.00	435.00	443.00	452.00	472.00	492.00	494.00	496.00	490.00	491.00	506.00	535.00	544.00	591.00	612.00	660.00	702.00	670.00	698.00	792.00	894.00	882.00	917.00	850.00	806.00	831.00	1004.00	960.00	905.00	866.00	847.00	839.00	838.00	841.00	875.00	858.00	885.00	889.00	883.00	838.00	796.00	779.00	757.00	749.00	730.00	715.00	706.00	704.00	704.00	721.00	753.00	819.00	835.00	994.00	879.00	875.00	1010.00	1152.00	1070.00	941.00	851.00	731.00	621.00	590.00	561.00	538.00	519.00	488.00	472.00	473.00	480.00	508.00	539.00	604.00	641.00	601.00	524.00	512.00	509.00	431.00	634.00	624.00	585.00	591.00	508.00	504.00	580.00	552.00	511.00	486.00	482.00	499.00	498.00	514.00	522.00	541.00	533.00	570.00	539.00	549.00	559.00	564.00	593.00	627.00	626.00	620.00	628.00	642.00	653.00	645.00	632.00	616.00	622.00	626.00	629.00	634.00	644.00	650.00	650.00	653.00	658.00	647.00	653.00	654.00	653.00	697.00	744.00	676.00	677.00	688.00	688.00	691.00	699.00	718.00	746.00	795.00	795.00	773.00	773.00	777.00	810.00	811.00	837.00	837.00	819.00	797.00	782.00	782.00	780.00	766.00	755.00	750.00	752.00	749.00	755.00	759.00	771.00	777.00	780.00	781.00	784.00	795.00	802.00	809.00	813.00	834.00	874.00	868.00	863.00
1239.00	1223.00	1250.00	1212.00	1133.00	1116.00	1105.00	1142.00	1135.00	1138.00	1092.00	1087.00	1090.00	1078.00	1067.00	1086.00	1149.00	1207.00	1196.00	1077.00	1037.00	1030.00	1047.00	1087.00	1060.00	1009.00	918.00	924.00	975.00	1237.00	1298.00	1349.00	1516.00	1515.00	1539.00	1549.00	1539.00	1472.00	1422.00	1392.00	1385.00	1438.00	1454.00	1451.00	1445.00	1448.00	1478.00	1509.00	1509.00	1485.00	1397.00	1357.00	1298.00	1257.00	1253.00	1165.00	1141.00	1149.00	1123.00	823.00	754.00	778.00	785.00	770.00	668.00	635.00	602.00	602.00	595.00	587.00	578.00	555.00	546.00	547.00	542.00	532.00	522.00	512.00	514.00	510.00	506.00	503.00	485.00	467.00	460.00	465.00	451.00	442.00	450.00	456.00	465.00	480.00	490.00	495.00	502.00	518.00	530.00	530.00	559.00	608.00	714.00	786.00	774.00	692.00	847.00	834.00	806.00	794.00	836.00	982.00	969.00	982.00	1026.00	969.00	869.00	848.00	843.00	831.00	815.00	853.00	876.00	890.00	864.00	849.00	833.00	834.00	818.00	776.00	752.00	758.00	778.00	773.00	764.00	746.00	781.00	824.00	1049.00	1152.00	1162.00	1091.00	1101.00	1086.00	1045.00	1028.00	1061.00	1208.00	1172.00	1001.00	832.00	628.00	590.00	555.00	540.00	523.00	492.00	482.00	493.00	531.00	546.00	578.00	564.00	603.00	620.00	512.00	580.00	579.00	441.00	469.00	478.00	473.00	488.00	484.00	496.00	499.00	516.00	512.00	609.00	546.00	579.00	627.00	655.00	637.00	577.00	540.00	583.00	592.00	596.00	600.00	605.00	627.00	632.00	620.00	612.00	605.00	623.00	637.00	632.00	643.00	626.00	615.00	608.00	605.00	617.00	637.00	646.00	677.00	675.00	653.00	645.00	634.00	646.00	655.00	654.00	645.00	630.00	637.00	676.00	692.00	708.00	726.00	738.00	752.00	769.00	763.00	748.00	749.00	774.00	792.00	813.00	824.00	802.00	804.00	790.00	771.00	761.00	757.00	754.00	751.00	751.00	757.00	758.00	762.00	764.00	763.00	763.00	766.00	770.00	777.00	787.00	795.00	794.00	805.00	827.00	838.00	854.00	845.00
1266.00	1243.00	1218.00	1144.00	1108.00	1096.00	1116.00	1115.00	1108.00	1087.00	1064.00	1060.00	1068.00	1073.00	1059.00	1102.00	1175.00	1180.00	1127.00	1051.00	1057.00	1058.00	1052.00	1051.00	1018.00	974.00	895.00	883.00	984.00	1105.00	1212.00	1347.00	1437.00	1492.00	1528.00	1528.00	1526.00	1424.00	1408.00	1429.00	1400.00	1456.00	1453.00	1442.00	1440.00	1444.00	1509.00	1508.00	1443.00	1423.00	1336.00	1300.00	1271.00	1268.00	1224.00	1162.00	1161.00	1137.00	1013.00	777.00	788.00	716.00	714.00	750.00	705.00	642.00	638.00	641.00	614.00	601.00	595.00	559.00	558.00	553.00	538.00	531.00	523.00	523.00	512.00	499.00	493.00	498.00	486.00	478.00	473.00	462.00	451.00	445.00	439.00	448.00	463.00	485.00	499.00	502.00	508.00	519.00	528.00	557.00	631.00	672.00	714.00	665.00	667.00	658.00	751.00	722.00	722.00	734.00	813.00	913.00	921.00	1037.00	1038.00	930.00	850.00	816.00	827.00	812.00	833.00	854.00	845.00	854.00	833.00	823.00	836.00	848.00	803.00	775.00	762.00	772.00	782.00	786.00	759.00	778.00	863.00	938.00	1124.00	1177.00	1121.00	1029.00	953.00	967.00	1010.00	1080.00	1145.00	1218.00	1032.00	881.00	781.00	610.00	582.00	557.00	539.00	519.00	495.00	491.00	512.00	546.00	571.00	559.00	567.00	604.00	606.00	551.00	573.00	532.00	433.00	490.00	519.00	484.00	480.00	510.00	525.00	528.00	518.00	525.00	567.00	546.00	572.00	616.00	600.00	610.00	560.00	546.00	562.00	566.00	674.00	665.00	634.00	620.00	631.00	627.00	617.00	605.00	612.00	624.00	632.00	644.00	634.00	616.00	607.00	599.00	606.00	636.00	650.00	660.00	672.00	659.00	653.00	631.00	639.00	646.00	653.00	644.00	629.00	625.00	676.00	675.00	724.00	739.00	744.00	738.00	742.00	736.00	723.00	769.00	810.00	809.00	818.00	812.00	790.00	783.00	769.00	762.00	756.00	756.00	753.00	751.00	751.00	757.00	758.00	760.00	764.00	769.00	766.00	770.00	772.00	771.00	781.00	785.00	799.00	813.00	844.00	844.00	844.00	836.00
1187.00	1198.00	1162.00	1140.00	1115.00	1084.00	1102.00	1082.00	1101.00	1068.00	1044.00	1041.00	1065.00	1057.00	1043.00	1113.00	1115.00	1135.00	1063.00	1078.00	1077.00	1029.00	1010.00	1049.00	918.00	872.00	914.00	990.00	1097.00	1109.00	1155.00	1300.00	1453.00	1516.00	1504.00	1507.00	1492.00	1425.00	1426.00	1458.00	1414.00	1455.00	1449.00	1437.00	1436.00	1440.00	1501.00	1453.00	1377.00	1291.00	1310.00	1288.00	1270.00	1233.00	1189.00	1203.00	1205.00	1124.00	982.00	749.00	734.00	741.00	714.00	688.00	674.00	687.00	701.00	684.00	635.00	609.00	588.00	569.00	568.00	551.00	541.00	530.00	526.00	501.00	490.00	488.00	478.00	478.00	486.00	489.00	482.00	476.00	451.00	446.00	440.00	440.00	450.00	479.00	509.00	513.00	516.00	536.00	583.00	614.00	606.00	627.00	619.00	615.00	647.00	710.00	745.00	822.00	798.00	756.00	853.00	855.00	942.00	1013.00	1012.00	850.00	792.00	803.00	799.00	804.00	868.00	847.00	834.00	819.00	815.00	815.00	830.00	833.00	805.00	774.00	767.00	778.00	790.00	780.00	803.00	860.00	996.00	997.00	987.00	1086.00	1004.00	931.00	977.00	1054.00	1149.00	1208.00	1261.00	1041.00	903.00	846.00	759.00	608.00	579.00	554.00	534.00	516.00	492.00	486.00	499.00	518.00	531.00	574.00	595.00	607.00	533.00	550.00	489.00	476.00	434.00	537.00	537.00	502.00	502.00	540.00	574.00	552.00	508.00	544.00	544.00	570.00	653.00	653.00	576.00	568.00	551.00	547.00	563.00	573.00	631.00	684.00	657.00	656.00	651.00	629.00	621.00	608.00	605.00	613.00	628.00	636.00	628.00	613.00	611.00	598.00	609.00	650.00	649.00	655.00	659.00	666.00	656.00	635.00	626.00	633.00	628.00	630.00	628.00	617.00	661.00	669.00	745.00	758.00	744.00	713.00	716.00	714.00	708.00	764.00	787.00	806.00	822.00	794.00	782.00	779.00	762.00	755.00	753.00	754.00	752.00	749.00	750.00	757.00	760.00	761.00	765.00	773.00	772.00	772.00	774.00	777.00	779.00	786.00	796.00	812.00	837.00	823.00	833.00	833.00
1150.00	1124.00	1122.00	1133.00	1099.00	1073.00	1092.00	1072.00	1076.00	1055.00	1024.00	1044.00	1053.00	1037.00	1035.00	1105.00	1086.00	1095.00	978.00	978.00	991.00	1006.00	991.00	928.00	868.00	958.00	1044.00	1108.00	1220.00	1278.00	1320.00	1356.00	1457.00	1457.00	1460.00	1491.00	1486.00	1461.00	1448.00	1468.00	1429.00	1454.00	1444.00	1435.00	1429.00	1432.00	1437.00	1363.00	1257.00	1249.00	1313.00	1292.00	1222.00	1189.00	1217.00	1237.00	1209.00	1148.00	1057.00	790.00	807.00	782.00	743.00	718.00	728.00	717.00	743.00	711.00	664.00	634.00	602.00	583.00	579.00	548.00	526.00	517.00	503.00	490.00	483.00	479.00	474.00	469.00	475.00	481.00	477.00	469.00	449.00	446.00	441.00	447.00	462.00	473.00	484.00	495.00	508.00	571.00	651.00	658.00	571.00	595.00	614.00	630.00	712.00	846.00	853.00	883.00	808.00	800.00	798.00	859.00	893.00	941.00	924.00	785.00	766.00	780.00	807.00	825.00	848.00	822.00	804.00	803.00	792.00	807.00	819.00	824.00	825.00	784.00	782.00	789.00	806.00	824.00	894.00	1011.00	945.00	884.00	892.00	926.00	892.00	927.00	1093.00	1188.00	1206.00	1279.00	1283.00	1017.00	975.00	888.00	749.00	594.00	568.00	547.00	527.00	510.00	491.00	483.00	496.00	512.00	549.00	617.00	579.00	542.00	527.00	508.00	511.00	568.00	436.00	576.00	559.00	523.00	532.00	533.00	579.00	535.00	505.00	532.00	548.00	580.00	633.00	599.00	563.00	570.00	556.00	568.00	596.00	616.00	636.00	627.00	630.00	644.00	648.00	648.00	634.00	613.00	595.00	605.00	615.00	631.00	629.00	605.00	602.00	595.00	607.00	631.00	638.00	654.00	655.00	659.00	650.00	629.00	618.00	623.00	611.00	626.00	616.00	615.00	672.00	673.00	748.00	761.00	738.00	699.00	694.00	697.00	708.00	752.00	770.00	798.00	808.00	781.00	774.00	765.00	755.00	751.00	750.00	750.00	749.00	748.00	750.00	760.00	763.00	766.00	767.00	775.00	778.00	777.00	778.00	779.00	790.00	783.00	786.00	796.00	816.00	811.00	824.00	819.00
1152.00	1108.00	1083.00	1090.00	1080.00	1066.00	1063.00	1053.00	1060.00	1047.00	1015.00	1005.00	1011.00	1028.00	1092.00	1056.00	1046.00	976.00	918.00	950.00	1007.00	915.00	811.00	802.00	975.00	1143.00	1318.00	1403.00	1439.00	1458.00	1451.00	1499.00	1495.00	1503.00	1501.00	1477.00	1470.00	1468.00	1477.00	1469.00	1472.00	1448.00	1440.00	1432.00	1409.00	1377.00	1208.00	1184.00	1299.00	1392.00	1276.00	1162.00	1226.00	1186.00	1115.00	980.00	969.00	948.00	975.00	870.00	813.00	854.00	868.00	852.00	827.00	794.00	776.00	745.00	655.00	639.00	624.00	593.00	571.00	541.00	528.00	520.00	520.00	511.00	502.00	491.00	477.00	473.00	460.00	453.00	447.00	445.00	443.00	437.00	441.00	462.00	464.00	487.00	499.00	503.00	504.00	548.00	562.00	575.00	645.00	638.00	658.00	749.00	849.00	780.00	904.00	1015.00	980.00	899.00	860.00	928.00	933.00	833.00	775.00	747.00	740.00	770.00	825.00	864.00	785.00	778.00	778.00	774.00	809.00	818.00	824.00	841.00	852.00	846.00	913.00	919.00	862.00	1050.00	991.00	900.00	815.00	802.00	835.00	877.00	893.00	966.00	1185.00	1211.00	1262.00	1210.00	1138.00	970.00	844.00	739.00	656.00	559.00	542.00	525.00	508.00	493.00	480.00	497.00	532.00	567.00	583.00	577.00	547.00	579.00	571.00	529.00	576.00	567.00	440.00	533.00	482.00	485.00	467.00	497.00	499.00	492.00	509.00	509.00	539.00	547.00	540.00	549.00	553.00	578.00	618.00	629.00	647.00	583.00	617.00	614.00	601.00	648.00	663.00	630.00	632.00	639.00	594.00	589.00	598.00	623.00	623.00	598.00	587.00	608.00	613.00	618.00	627.00	623.00	623.00	633.00	637.00	624.00	609.00	602.00	621.00	615.00	626.00	629.00	631.00	638.00	712.00	746.00	752.00	696.00	677.00	689.00	760.00	765.00	758.00	771.00	787.00	787.00	763.00	751.00	747.00	743.00	745.00	743.00	746.00	750.00	756.00	774.00	777.00	778.00	779.00	786.00	789.00	790.00	791.00	792.00	791.00	799.00	804.00	806.00	800.00	813.00	821.00	823.00
1133.00	1114.00	1096.00	1071.00	1070.00	1073.00	1045.00	1052.00	1032.00	1012.00	1005.00	999.00	1028.00	1080.00	1084.00	982.00	1084.00	1032.00	931.00	998.00	983.00	847.00	807.00	930.00	1064.00	1218.00	1233.00	1217.00	1380.00	1478.00	1466.00	1470.00	1471.00	1479.00	1478.00	1480.00	1486.00	1464.00	1460.00	1463.00	1464.00	1442.00	1440.00	1419.00	1387.00	1326.00	1169.00	1295.00	1409.00	1410.00	1162.00	1191.00	1203.00	1025.00	962.00	870.00	835.00	850.00	894.00	892.00	775.00	873.00	902.00	885.00	851.00	808.00	781.00	722.00	664.00	644.00	630.00	600.00	587.00	549.00	548.00	551.00	545.00	524.00	510.00	495.00	489.00	494.00	476.00	466.00	453.00	446.00	433.00	437.00	453.00	464.00	484.00	489.00	496.00	511.00	522.00	553.00	577.00	593.00	694.00	644.00	720.00	807.00	758.00	770.00	986.00	991.00	885.00	866.00	938.00	942.00	880.00	775.00	745.00	731.00	736.00	767.00	770.00	790.00	769.00	782.00	767.00	781.00	818.00	841.00	867.00	895.00	914.00	945.00	1001.00	937.00	920.00	968.00	876.00	829.00	792.00	796.00	916.00	1033.00	997.00	1024.00	1189.00	1247.00	1206.00	1134.00	1136.00	796.00	733.00	650.00	606.00	544.00	528.00	515.00	499.00	487.00	471.00	511.00	527.00	523.00	573.00	545.00	574.00	620.00	606.00	567.00	594.00	532.00	455.00	503.00	462.00	455.00	455.00	504.00	482.00	544.00	529.00	507.00	526.00	525.00	530.00	540.00	588.00	584.00	629.00	616.00	575.00	568.00	596.00	597.00	593.00	638.00	627.00	618.00	625.00	633.00	599.00	585.00	590.00	609.00	611.00	590.00	583.00	601.00	596.00	608.00	610.00	614.00	621.00	620.00	627.00	627.00	609.00	600.00	627.00	638.00	643.00	645.00	638.00	653.00	696.00	688.00	716.00	689.00	670.00	678.00	724.00	742.00	751.00	762.00	782.00	772.00	756.00	745.00	743.00	740.00	739.00	742.00	746.00	751.00	758.00	781.00	783.00	787.00	787.00	794.00	796.00	797.00	799.00	800.00	800.00	801.00	811.00	816.00	796.00	804.00	808.00	806.00
1114.00	1098.00	1081.00	1088.00	1082.00	1073.00	1034.00	1043.00	1041.00	1043.00	1024.00	1031.00	1008.00	1067.00	1036.00	934.00	955.00	939.00	917.00	949.00	896.00	772.00	819.00	920.00	1091.00	1103.00	1125.00	1122.00	1263.00	1470.00	1431.00	1415.00	1463.00	1464.00	1457.00	1471.00	1482.00	1448.00	1446.00	1447.00	1438.00	1434.00	1441.00	1407.00	1345.00	1246.00	1229.00	1372.00	1421.00	1377.00	1132.00	1215.00	1073.00	906.00	858.00	816.00	781.00	804.00	915.00	872.00	748.00	877.00	899.00	878.00	834.00	804.00	759.00	731.00	671.00	666.00	657.00	633.00	606.00	573.00	566.00	554.00	543.00	527.00	512.00	500.00	494.00	482.00	458.00	460.00	448.00	438.00	436.00	446.00	453.00	467.00	489.00	506.00	502.00	525.00	550.00	570.00	582.00	621.00	677.00	750.00	670.00	683.00	713.00	743.00	913.00	878.00	841.00	935.00	871.00	860.00	813.00	742.00	731.00	722.00	725.00	747.00	749.00	760.00	752.00	762.00	767.00	785.00	836.00	876.00	935.00	982.00	1018.00	1072.00	1024.00	965.00	1004.00	870.00	811.00	793.00	776.00	795.00	991.00	1089.00	1105.00	1031.00	1193.00	1231.00	1134.00	1066.00	1024.00	731.00	670.00	603.00	562.00	527.00	512.00	502.00	489.00	481.00	467.00	499.00	504.00	507.00	520.00	535.00	580.00	616.00	618.00	597.00	593.00	460.00	482.00	483.00	448.00	449.00	470.00	547.00	485.00	530.00	559.00	517.00	533.00	529.00	551.00	599.00	581.00	651.00	659.00	583.00	564.00	560.00	583.00	586.00	589.00	614.00	612.00	604.00	618.00	631.00	619.00	590.00	583.00	591.00	588.00	583.00	581.00	591.00	589.00	599.00	602.00	614.00	601.00	606.00	620.00	625.00	602.00	599.00	630.00	646.00	653.00	647.00	621.00	644.00	693.00	664.00	680.00	674.00	660.00	674.00	697.00	725.00	733.00	751.00	774.00	768.00	750.00	742.00	740.00	737.00	738.00	743.00	747.00	752.00	759.00	784.00	790.00	794.00	795.00	802.00	803.00	805.00	807.00	805.00	809.00	804.00	816.00	824.00	804.00	799.00	807.00	813.00
1100.00	1085.00	1079.00	1088.00	1064.00	1051.00	1036.00	1023.00	1048.00	1032.00	1017.00	1010.00	986.00	973.00	911.00	906.00	952.00	974.00	958.00	856.00	811.00	778.00	761.00	898.00	989.00	999.00	1042.00	1051.00	1209.00	1418.00	1389.00	1414.00	1444.00	1465.00	1445.00	1460.00	1467.00	1412.00	1417.00	1439.00	1409.00	1474.00	1382.00	1346.00	1291.00	1165.00	1272.00	1373.00	1382.00	1334.00	1207.00	1190.00	996.00	862.00	802.00	785.00	750.00	795.00	900.00	787.00	717.00	822.00	899.00	902.00	852.00	798.00	761.00	716.00	697.00	682.00	677.00	619.00	595.00	576.00	566.00	556.00	542.00	522.00	504.00	493.00	487.00	478.00	460.00	448.00	436.00	434.00	442.00	451.00	452.00	462.00	481.00	497.00	518.00	521.00	559.00	593.00	658.00	757.00	859.00	821.00	676.00	690.00	784.00	751.00	820.00	809.00	852.00	889.00	806.00	836.00	763.00	726.00	717.00	713.00	720.00	726.00	733.00	732.00	743.00	761.00	774.00	792.00	846.00	878.00	969.00	1072.00	1102.00	1076.00	1060.00	1031.00	953.00	819.00	789.00	778.00	772.00	791.00	899.00	955.00	1058.00	972.00	1182.00	1170.00	1018.00	998.00	967.00	698.00	630.00	575.00	553.00	519.00	505.00	491.00	479.00	474.00	464.00	492.00	498.00	500.00	509.00	530.00	543.00	560.00	553.00	572.00	510.00	450.00	448.00	450.00	441.00	463.00	470.00	486.00	492.00	533.00	514.00	549.00	545.00	544.00	617.00	630.00	633.00	690.00	590.00	553.00	547.00	570.00	581.00	576.00	587.00	592.00	620.00	622.00	631.00	645.00	617.00	593.00	583.00	581.00	579.00	573.00	575.00	584.00	581.00	590.00	594.00	589.00	585.00	604.00	606.00	621.00	599.00	606.00	636.00	641.00	654.00	663.00	622.00	636.00	659.00	647.00	658.00	645.00	648.00	672.00	691.00	711.00	723.00	742.00	766.00	765.00	748.00	738.00	736.00	733.00	738.00	742.00	748.00	751.00	758.00	785.00	791.00	796.00	801.00	808.00	810.00	812.00	811.00	809.00	816.00	805.00	812.00	825.00	814.00	809.00	816.00	819.00
1113.00	1102.00	1072.00	1067.00	1058.00	1037.00	1039.00	1021.00	1002.00	1028.00	1011.00	992.00	936.00	886.00	869.00	889.00	902.00	899.00	936.00	905.00	928.00	915.00	736.00	779.00	908.00	917.00	915.00	986.00	963.00	1114.00	1167.00	1250.00	1388.00	1393.00	1396.00	1400.00	1412.00	1397.00	1409.00	1399.00	1370.00	1344.00	1335.00	1212.00	1088.00	1125.00	1093.00	1178.00	1180.00	1031.00	989.00	920.00	855.00	813.00	783.00	714.00	733.00	800.00	924.00	688.00	704.00	836.00	874.00	889.00	847.00	834.00	796.00	757.00	745.00	743.00	707.00	664.00	636.00	622.00	617.00	591.00	570.00	495.00	486.00	484.00	481.00	476.00	470.00	446.00	435.00	436.00	445.00	468.00	489.00	506.00	499.00	495.00	545.00	551.00	588.00	780.00	918.00	843.00	763.00	817.00	907.00	761.00	705.00	779.00	765.00	766.00	764.00	775.00	808.00	742.00	710.00	700.00	707.00	700.00	726.00	728.00	738.00	745.00	776.00	787.00	808.00	838.00	960.00	1017.00	949.00	959.00	1025.00	1175.00	1088.00	969.00	933.00	802.00	765.00	759.00	778.00	775.00	796.00	815.00	836.00	865.00	1081.00	1004.00	1014.00	864.00	762.00	606.00	543.00	528.00	522.00	497.00	485.00	478.00	467.00	459.00	507.00	483.00	508.00	488.00	528.00	561.00	544.00	522.00	491.00	523.00	447.00	426.00	514.00	458.00	473.00	502.00	476.00	490.00	494.00	539.00	625.00	565.00	549.00	627.00	609.00	597.00	610.00	572.00	551.00	536.00	547.00	568.00	564.00	579.00	596.00	589.00	602.00	597.00	616.00	630.00	691.00	631.00	594.00	568.00	563.00	567.00	572.00	571.00	581.00	578.00	587.00	579.00	600.00	599.00	595.00	591.00	598.00	618.00	638.00	655.00	675.00	671.00	626.00	630.00	652.00	658.00	670.00	674.00	681.00	655.00	666.00	713.00	722.00	736.00	756.00	756.00	743.00	734.00	728.00	727.00	734.00	738.00	744.00	748.00	754.00	779.00	787.00	793.00	798.00	809.00	815.00	817.00	819.00	821.00	819.00	825.00	823.00	823.00	834.00	821.00	820.00	829.00
1113.00	1102.00	1072.00	1067.00	1058.00	1037.00	1039.00	1021.00	1002.00	1028.00	1011.00	992.00	936.00	886.00	869.00	889.00	902.00	899.00	936.00	905.00	928.00	915.00	736.00	779.00	908.00	917.00	915.00	986.00	963.00	1114.00	1167.00	1250.00	1388.00	1393.00	1396.00	1400.00	1412.00	1397.00	1409.00	1399.00	1370.00	1344.00	1335.00	1212.00	1088.00	1125.00	1093.00	1178.00	1180.00	1031.00	989.00	920.00	855.00	813.00	783.00	714.00	733.00	800.00	924.00	688.00	704.00	836.00	874.00	889.00	847.00	834.00	796.00	757.00	745.00	743.00	707.00	664.00	636.00	622.00	617.00	591.00	570.00	495.00	486.00	484.00	481.00	476.00	470.00	446.00	435.00	436.00	445.00	468.00	489.00	506.00	499.00	495.00	545.00	551.00	588.00	780.00	918.00	843.00	763.00	817.00	907.00	761.00	705.00	779.00	765.00	766.00	764.00	775.00	808.00	742.00	710.00	700.00	707.00	700.00	726.00	728.00	738.00	745.00	776.00	787.00	808.00	838.00	960.00	1017.00	949.00	959.00	1025.00	1175.00	1088.00	969.00	933.00	802.00	765.00	759.00	778.00	775.00	796.00	815.00	836.00	865.00	1081.00	1004.00	1014.00	864.00	762.00	606.00	543.00	528.00	522.00	497.00	485.00	478.00	467.00	459.00	507.00	483.00	508.00	488.00	528.00	561.00	544.00	522.00	491.00	523.00	447.00	426.00	514.00	458.00	473.00	502.00	476.00	490.00	494.00	539.00	625.00	565.00	549.00	627.00	609.00	597.00	610.00	572.00	551.00	536.00	547.00	568.00	564.00	579.00	596.00	589.00	602.00	597.00	616.00	630.00	691.00	631.00	594.00	568.00	563.00	567.00	572.00	571.00	581.00	578.00	587.00	579.00	600.00	599.00	595.00	591.00	598.00	618.00	638.00	655.00	675.00	671.00	626.00	630.00	652.00	658.00	670.00	674.00	681.00	655.00	666.00	713.00	722.00	736.00	756.00	756.00	743.00	734.00	728.00	727.00	734.00	738.00	744.00	748.00	754.00	779.00	787.00	793.00	798.00	809.00	815.00	817.00	819.00	821.00	819.00	825.00	823.00	823.00	834.00	821.00	820.00	829.00
1096.00	1078.00	1064.00	1048.00	1045.00	1033.00	1021.00	1051.00	998.00	991.00	982.00	975.00	958.00	963.00	895.00	893.00	877.00	824.00	882.00	885.00	944.00	882.00	685.00	713.00	952.00	911.00	903.00	976.00	905.00	1017.00	1046.00	1104.00	1300.00	1351.00	1385.00	1351.00	1374.00	1386.00	1390.00	1372.00	1373.00	1303.00	1192.00	1107.00	1041.00	1087.00	1004.00	1050.00	1014.00	1014.00	840.00	818.00	790.00	775.00	758.00	688.00	688.00	735.00	792.00	681.00	741.00	845.00	839.00	871.00	857.00	823.00	809.00	777.00	746.00	732.00	708.00	676.00	663.00	601.00	562.00	531.00	523.00	498.00	488.00	481.00	472.00	470.00	464.00	455.00	449.00	447.00	440.00	461.00	503.00	522.00	501.00	511.00	555.00	567.00	633.00	911.00	909.00	876.00	803.00	812.00	882.00	748.00	709.00	738.00	772.00	756.00	768.00	766.00	776.00	721.00	720.00	732.00	700.00	706.00	728.00	733.00	736.00	746.00	780.00	815.00	879.00	931.00	1013.00	1037.00	1008.00	999.00	997.00	1029.00	1043.00	1054.00	975.00	792.00	768.00	750.00	769.00	764.00	769.00	788.00	807.00	841.00	981.00	954.00	949.00	789.00	711.00	576.00	539.00	520.00	507.00	484.00	473.00	466.00	459.00	459.00	532.00	489.00	500.00	483.00	477.00	547.00	529.00	544.00	520.00	485.00	433.00	432.00	488.00	457.00	461.00	463.00	483.00	500.00	573.00	636.00	584.00	534.00	616.00	648.00	608.00	601.00	572.00	561.00	549.00	532.00	540.00	554.00	568.00	582.00	591.00	579.00	581.00	594.00	607.00	622.00	652.00	626.00	601.00	574.00	569.00	572.00	576.00	584.00	596.00	576.00	579.00	579.00	591.00	614.00	621.00	607.00	610.00	628.00	649.00	661.00	676.00	664.00	632.00	630.00	676.00	671.00	691.00	693.00	692.00	679.00	660.00	686.00	712.00	739.00	744.00	747.00	755.00	738.00	726.00	725.00	733.00	738.00	743.00	747.00	754.00	777.00	783.00	789.00	795.00	807.00	808.00	811.00	819.00	827.00	823.00	832.00	834.00	834.00	837.00	833.00	831.00	835.00
1079.00	1079.00	1067.00	1053.00	1039.00	1036.00	1021.00	1037.00	1034.00	1023.00	1026.00	1008.00	942.00	927.00	886.00	839.00	818.00	788.00	814.00	897.00	883.00	819.00	675.00	752.00	847.00	865.00	839.00	845.00	859.00	951.00	1000.00	1013.00	1157.00	1321.00	1359.00	1314.00	1349.00	1372.00	1380.00	1341.00	1351.00	1225.00	1094.00	1045.00	1020.00	1015.00	1052.00	992.00	967.00	945.00	818.00	783.00	768.00	760.00	731.00	680.00	663.00	716.00	700.00	723.00	802.00	869.00	857.00	829.00	850.00	843.00	814.00	817.00	807.00	746.00	726.00	733.00	667.00	573.00	553.00	530.00	514.00	497.00	492.00	483.00	478.00	472.00	448.00	446.00	438.00	438.00	451.00	476.00	505.00	488.00	493.00	519.00	562.00	619.00	734.00	978.00	943.00	871.00	833.00	866.00	844.00	735.00	716.00	726.00	762.00	754.00	832.00	805.00	732.00	746.00	813.00	839.00	724.00	723.00	723.00	721.00	754.00	775.00	807.00	856.00	957.00	1056.00	1026.00	1075.00	1095.00	1066.00	1061.00	941.00	904.00	947.00	924.00	787.00	765.00	742.00	751.00	756.00	783.00	817.00	839.00	881.00	935.00	893.00	892.00	808.00	736.00	562.00	540.00	520.00	504.00	482.00	475.00	464.00	452.00	475.00	480.00	517.00	510.00	499.00	476.00	544.00	518.00	539.00	500.00	451.00	430.00	487.00	472.00	448.00	456.00	479.00	504.00	547.00	570.00	582.00	576.00	533.00	634.00	622.00	580.00	648.00	562.00	553.00	543.00	529.00	545.00	545.00	570.00	577.00	575.00	576.00	579.00	607.00	614.00	623.00	607.00	616.00	599.00	581.00	572.00	578.00	596.00	602.00	606.00	590.00	600.00	597.00	591.00	624.00	628.00	632.00	627.00	637.00	653.00	662.00	674.00	656.00	644.00	642.00	686.00	678.00	692.00	721.00	713.00	693.00	680.00	683.00	704.00	716.00	727.00	736.00	755.00	739.00	724.00	723.00	732.00	737.00	743.00	748.00	754.00	776.00	783.00	790.00	795.00	801.00	802.00	804.00	806.00	813.00	822.00	837.00	849.00	843.00	844.00	849.00	856.00	853.00
1078.00	1065.00	1063.00	1066.00	1058.00	1051.00	976.00	1000.00	1065.00	1070.00	971.00	928.00	909.00	900.00	856.00	838.00	809.00	766.00	774.00	754.00	741.00	710.00	639.00	699.00	822.00	782.00	745.00	734.00	794.00	919.00	937.00	898.00	943.00	1041.00	1018.00	1057.00	1169.00	1156.00	1086.00	1046.00	1260.00	1072.00	1045.00	1044.00	1082.00	1200.00	1105.00	1166.00	1250.00	1071.00	896.00	767.00	729.00	741.00	764.00	793.00	708.00	635.00	620.00	743.00	765.00	815.00	815.00	799.00	824.00	771.00	775.00	785.00	766.00	729.00	714.00	596.00	571.00	547.00	537.00	533.00	531.00	513.00	512.00	497.00	482.00	476.00	461.00	449.00	435.00	431.00	448.00	468.00	481.00	494.00	505.00	577.00	686.00	840.00	973.00	913.00	878.00	879.00	891.00	809.00	751.00	750.00	765.00	762.00	777.00	789.00	752.00	720.00	716.00	721.00	769.00	749.00	691.00	679.00	702.00	734.00	794.00	870.00	922.00	1012.00	1040.00	1061.00	1107.00	1188.00	1197.00	1164.00	1141.00	1015.00	871.00	822.00	797.00	758.00	738.00	742.00	730.00	738.00	789.00	850.00	943.00	1044.00	972.00	853.00	795.00	812.00	680.00	545.00	532.00	516.00	501.00	474.00	464.00	468.00	457.00	452.00	451.00	526.00	522.00	545.00	446.00	418.00	422.00	435.00	437.00	427.00	469.00	508.00	449.00	472.00	475.00	491.00	530.00	502.00	508.00	511.00	516.00	537.00	556.00	556.00	564.00	581.00	594.00	568.00	536.00	523.00	531.00	571.00	612.00	600.00	564.00	574.00	584.00	577.00	582.00	608.00	575.00	576.00	583.00	585.00	571.00	577.00	598.00	614.00	601.00	607.00	617.00	616.00	609.00	621.00	624.00	645.00	659.00	666.00	682.00	690.00	682.00	690.00	689.00	680.00	705.00	719.00	715.00	701.00	683.00	675.00	688.00	711.00	720.00	698.00	707.00	738.00	742.00	731.00	716.00	719.00	729.00	733.00	741.00	748.00	755.00	778.00	781.00	784.00	785.00	787.00	789.00	789.00	798.00	808.00	827.00	836.00	839.00	846.00	846.00	858.00	875.00	866.00
1086.00	1098.00	1108.00	1099.00	1065.00	1041.00	979.00	968.00	1034.00	1025.00	949.00	897.00	886.00	873.00	845.00	824.00	819.00	769.00	784.00	737.00	694.00	687.00	661.00	646.00	732.00	708.00	742.00	727.00	771.00	877.00	840.00	814.00	924.00	1030.00	965.00	1056.00	1062.00	944.00	911.00	1043.00	1181.00	1064.00	1066.00	1092.00	1179.00	1320.00	1141.00	1253.00	1263.00	1121.00	778.00	712.00	686.00	710.00	793.00	735.00	671.00	649.00	624.00	719.00	743.00	782.00	784.00	778.00	795.00	747.00	752.00	770.00	739.00	713.00	697.00	590.00	605.00	599.00	574.00	519.00	510.00	493.00	487.00	492.00	490.00	468.00	449.00	436.00	430.00	436.00	456.00	460.00	476.00	490.00	505.00	562.00	791.00	934.00	1008.00	934.00	946.00	972.00	934.00	855.00	769.00	776.00	780.00	772.00	805.00	802.00	749.00	719.00	709.00	701.00	705.00	702.00	688.00	673.00	711.00	806.00	900.00	989.00	932.00	945.00	1038.00	1137.00	1145.00	1198.00	1192.00	1159.00	1189.00	983.00	860.00	792.00	778.00	750.00	734.00	721.00	716.00	736.00	818.00	904.00	1017.00	987.00	862.00	772.00	786.00	730.00	610.00	526.00	518.00	507.00	494.00	476.00	468.00	465.00	450.00	446.00	466.00	479.00	480.00	514.00	448.00	476.00	445.00	434.00	415.00	471.00	467.00	482.00	467.00	482.00	515.00	489.00	504.00	501.00	501.00	508.00	522.00	540.00	548.00	586.00	621.00	601.00	593.00	553.00	532.00	517.00	526.00	590.00	652.00	605.00	575.00	563.00	565.00	566.00	582.00	599.00	567.00	566.00	569.00	562.00	577.00	575.00	586.00	590.00	590.00	613.00	629.00	631.00	621.00	640.00	640.00	632.00	646.00	660.00	675.00	693.00	696.00	707.00	696.00	706.00	711.00	731.00	720.00	694.00	696.00	695.00	693.00	730.00	729.00	700.00	705.00	726.00	733.00	730.00	716.00	717.00	726.00	732.00	739.00	747.00	756.00	773.00	774.00	779.00	780.00	781.00	783.00	790.00	798.00	805.00	821.00	825.00	831.00	841.00	853.00	865.00	883.00	868.00
1084.00	1060.00	1073.00	1073.00	1034.00	1025.00	955.00	962.00	1041.00	1064.00	955.00	905.00	867.00	835.00	823.00	822.00	790.00	752.00	805.00	728.00	715.00	697.00	671.00	624.00	710.00	745.00	746.00	716.00	735.00	861.00	774.00	767.00	943.00	965.00	885.00	956.00	916.00	833.00	911.00	995.00	1114.00	1127.00	1162.00	1200.00	1329.00	1250.00	1099.00	1132.00	1123.00	1033.00	720.00	670.00	664.00	717.00	806.00	725.00	751.00	713.00	656.00	689.00	706.00	747.00	761.00	759.00	758.00	717.00	724.00	757.00	706.00	682.00	659.00	601.00	602.00	591.00	561.00	517.00	496.00	486.00	483.00	469.00	468.00	483.00	435.00	429.00	433.00	437.00	451.00	460.00	473.00	499.00	509.00	648.00	814.00	850.00	894.00	963.00	993.00	940.00	839.00	869.00	792.00	774.00	766.00	758.00	799.00	751.00	718.00	710.00	714.00	691.00	698.00	689.00	674.00	689.00	744.00	863.00	1003.00	1071.00	1017.00	974.00	1080.00	1170.00	1211.00	1072.00	1056.00	1115.00	1101.00	923.00	847.00	789.00	764.00	732.00	722.00	716.00	707.00	730.00	854.00	984.00	1000.00	923.00	867.00	778.00	695.00	666.00	632.00	523.00	512.00	500.00	488.00	474.00	493.00	492.00	462.00	447.00	480.00	469.00	466.00	441.00	495.00	511.00	520.00	505.00	440.00	450.00	459.00	455.00	483.00	492.00	556.00	526.00	568.00	524.00	527.00	536.00	550.00	544.00	560.00	574.00	630.00	616.00	603.00	542.00	520.00	518.00	533.00	637.00	608.00	561.00	590.00	555.00	549.00	571.00	564.00	577.00	557.00	552.00	555.00	564.00	587.00	578.00	582.00	587.00	590.00	622.00	641.00	629.00	639.00	641.00	664.00	674.00	669.00	671.00	682.00	700.00	705.00	716.00	718.00	710.00	720.00	754.00	760.00	706.00	712.00	720.00	713.00	738.00	720.00	701.00	701.00	706.00	716.00	722.00	710.00	716.00	726.00	732.00	738.00	746.00	756.00	764.00	769.00	775.00	774.00	779.00	788.00	794.00	800.00	804.00	812.00	820.00	827.00	833.00	851.00	862.00	873.00	862.00
1039.00	1076.00	1031.00	1048.00	1010.00	1025.00	941.00	951.00	1050.00	1005.00	925.00	885.00	854.00	804.00	793.00	783.00	756.00	740.00	775.00	736.00	729.00	695.00	711.00	643.00	695.00	721.00	713.00	711.00	738.00	749.00	728.00	753.00	956.00	890.00	801.00	844.00	819.00	838.00	946.00	1049.00	1152.00	1315.00	1347.00	1362.00	1258.00	1003.00	945.00	999.00	924.00	883.00	678.00	642.00	667.00	746.00	813.00	795.00	758.00	722.00	658.00	654.00	705.00	726.00	726.00	730.00	735.00	693.00	703.00	721.00	698.00	677.00	659.00	595.00	578.00	569.00	539.00	512.00	507.00	478.00	467.00	460.00	455.00	468.00	428.00	432.00	432.00	437.00	464.00	477.00	497.00	522.00	535.00	749.00	760.00	812.00	880.00	1025.00	964.00	849.00	784.00	871.00	856.00	799.00	764.00	748.00	834.00	747.00	710.00	704.00	706.00	685.00	682.00	669.00	668.00	705.00	842.00	969.00	1113.00	1065.00	1091.00	1061.00	1127.00	1219.00	1127.00	1043.00	1011.00	973.00	950.00	877.00	819.00	796.00	779.00	755.00	731.00	710.00	702.00	730.00	917.00	1026.00	965.00	893.00	911.00	757.00	666.00	637.00	612.00	529.00	518.00	506.00	492.00	470.00	508.00	491.00	482.00	454.00	485.00	519.00	493.00	429.00	468.00	481.00	492.00	478.00	454.00	444.00	453.00	455.00	471.00	544.00	548.00	612.00	629.00	597.00	593.00	641.00	634.00	577.00	602.00	601.00	635.00	628.00	565.00	520.00	513.00	521.00	539.00	686.00	554.00	533.00	554.00	564.00	546.00	554.00	538.00	548.00	544.00	556.00	584.00	577.00	598.00	588.00	585.00	590.00	596.00	615.00	629.00	643.00	648.00	642.00	661.00	686.00	716.00	701.00	698.00	699.00	708.00	714.00	726.00	723.00	739.00	785.00	766.00	761.00	741.00	740.00	721.00	737.00	725.00	722.00	707.00	712.00	714.00	706.00	710.00	716.00	726.00	734.00	743.00	751.00	758.00	757.00	766.00	766.00	765.00	784.00	792.00	792.00	795.00	795.00	802.00	818.00	822.00	832.00	854.00	866.00	874.00	866.00
1032.00	989.00	968.00	962.00	985.00	946.00	925.00	933.00	965.00	926.00	896.00	860.00	809.00	784.00	762.00	719.00	706.00	747.00	768.00	735.00	732.00	746.00	788.00	719.00	629.00	684.00	699.00	673.00	668.00	694.00	706.00	736.00	769.00	746.00	720.00	722.00	760.00	962.00	1144.00	1292.00	1271.00	1196.00	1091.00	1021.00	908.00	758.00	880.00	846.00	714.00	680.00	615.00	652.00	696.00	801.00	862.00	811.00	750.00	692.00	630.00	620.00	652.00	686.00	676.00	699.00	667.00	655.00	668.00	665.00	677.00	657.00	634.00	586.00	559.00	535.00	518.00	504.00	492.00	475.00	463.00	455.00	447.00	439.00	431.00	434.00	444.00	456.00	473.00	511.00	506.00	540.00	638.00	815.00	873.00	959.00	1059.00	916.00	794.00	743.00	726.00	766.00	838.00	743.00	729.00	789.00	703.00	698.00	699.00	691.00	690.00	673.00	660.00	641.00	643.00	763.00	892.00	1038.00	1083.00	1075.00	1179.00	1206.00	1141.00	1049.00	905.00	878.00	942.00	1050.00	1025.00	842.00	815.00	800.00	789.00	800.00	745.00	716.00	701.00	711.00	826.00	836.00	793.00	859.00	830.00	804.00	854.00	748.00	607.00	557.00	528.00	513.00	505.00	544.00	527.00	507.00	486.00	441.00	528.00	481.00	439.00	406.00	458.00	469.00	424.00	426.00	424.00	443.00	452.00	474.00	478.00	594.00	589.00	592.00	613.00	598.00	608.00	604.00	589.00	596.00	715.00	689.00	608.00	550.00	507.00	518.00	520.00	551.00	593.00	551.00	547.00	538.00	530.00	533.00	536.00	547.00	554.00	558.00	561.00	601.00	589.00	604.00	619.00	625.00	638.00	622.00	608.00	613.00	620.00	626.00	634.00	663.00	667.00	695.00	691.00	684.00	689.00	686.00	698.00	709.00	721.00	727.00	746.00	767.00	776.00	733.00	754.00	758.00	765.00	772.00	763.00	747.00	740.00	734.00	725.00	715.00	708.00	709.00	722.00	728.00	732.00	738.00	741.00	749.00	759.00	768.00	765.00	767.00	773.00	779.00	787.00	796.00	801.00	805.00	808.00	820.00	833.00	839.00	847.00	859.00
1061.00	975.00	957.00	942.00	937.00	936.00	911.00	915.00	926.00	882.00	853.00	833.00	818.00	793.00	768.00	716.00	691.00	735.00	748.00	693.00	701.00	706.00	712.00	736.00	600.00	656.00	660.00	644.00	683.00	659.00	709.00	723.00	735.00	702.00	693.00	694.00	728.00	1042.00	1187.00	1126.00	1038.00	888.00	877.00	831.00	766.00	710.00	800.00	773.00	671.00	631.00	640.00	642.00	690.00	773.00	789.00	739.00	698.00	658.00	616.00	613.00	639.00	653.00	668.00	683.00	669.00	661.00	647.00	638.00	661.00	649.00	625.00	579.00	558.00	543.00	519.00	511.00	507.00	483.00	480.00	460.00	441.00	437.00	432.00	437.00	448.00	464.00	482.00	496.00	524.00	558.00	658.00	948.00	926.00	1049.00	1007.00	843.00	752.00	720.00	725.00	796.00	738.00	719.00	717.00	711.00	689.00	693.00	691.00	682.00	679.00	675.00	652.00	643.00	657.00	791.00	879.00	943.00	994.00	1090.00	1210.00	1173.00	1063.00	944.00	858.00	940.00	1045.00	1083.00	1015.00	838.00	823.00	808.00	827.00	790.00	742.00	718.00	709.00	691.00	793.00	765.00	801.00	853.00	812.00	892.00	859.00	723.00	588.00	583.00	545.00	534.00	532.00	581.00	524.00	556.00	542.00	448.00	501.00	476.00	432.00	404.00	440.00	459.00	428.00	439.00	422.00	439.00	450.00	463.00	485.00	642.00	544.00	564.00	542.00	534.00	603.00	566.00	613.00	645.00	626.00	589.00	521.00	505.00	592.00	593.00	532.00	524.00	529.00	532.00	548.00	558.00	544.00	546.00	554.00	553.00	573.00	578.00	580.00	575.00	593.00	592.00	613.00	640.00	659.00	656.00	639.00	612.00	616.00	629.00	630.00	667.00	671.00	683.00	683.00	687.00	696.00	699.00	696.00	700.00	726.00	747.00	748.00	765.00	759.00	737.00	741.00	749.00	759.00	793.00	798.00	773.00	747.00	749.00	731.00	718.00	711.00	711.00	721.00	722.00	725.00	728.00	732.00	756.00	758.00	761.00	757.00	773.00	782.00	790.00	798.00	806.00	806.00	815.00	815.00	817.00	842.00	852.00	858.00	858.00
1037.00	1009.00	992.00	935.00	914.00	906.00	898.00	900.00	907.00	829.00	814.00	837.00	833.00	778.00	740.00	707.00	678.00	718.00	725.00	674.00	668.00	674.00	673.00	657.00	616.00	602.00	598.00	618.00	627.00	709.00	685.00	683.00	689.00	685.00	668.00	683.00	740.00	961.00	1027.00	984.00	841.00	754.00	730.00	716.00	703.00	688.00	703.00	670.00	626.00	622.00	658.00	627.00	670.00	707.00	723.00	691.00	661.00	631.00	610.00	620.00	633.00	681.00	711.00	718.00	683.00	696.00	651.00	630.00	642.00	632.00	612.00	568.00	549.00	559.00	524.00	505.00	499.00	485.00	465.00	446.00	436.00	433.00	431.00	444.00	452.00	459.00	490.00	515.00	533.00	562.00	673.00	980.00	997.00	1041.00	1008.00	769.00	717.00	712.00	786.00	857.00	762.00	715.00	723.00	678.00	675.00	679.00	668.00	660.00	672.00	659.00	629.00	636.00	663.00	845.00	984.00	1056.00	1072.00	1176.00	1189.00	1062.00	959.00	900.00	827.00	1046.00	1146.00	1025.00	948.00	905.00	865.00	841.00	885.00	781.00	748.00	750.00	753.00	748.00	739.00	727.00	793.00	852.00	774.00	825.00	773.00	670.00	567.00	588.00	582.00	554.00	566.00	537.00	482.00	530.00	527.00	452.00	466.00	443.00	416.00	404.00	416.00	419.00	441.00	431.00	422.00	446.00	454.00	451.00	536.00	577.00	571.00	592.00	479.00	500.00	546.00	601.00	594.00	565.00	533.00	516.00	508.00	536.00	581.00	580.00	552.00	551.00	552.00	555.00	535.00	575.00	560.00	600.00	577.00	569.00	589.00	601.00	646.00	588.00	616.00	590.00	605.00	623.00	652.00	667.00	664.00	635.00	620.00	630.00	643.00	652.00	660.00	666.00	669.00	681.00	709.00	718.00	708.00	708.00	723.00	741.00	761.00	775.00	775.00	745.00	748.00	747.00	756.00	777.00	775.00	756.00	743.00	764.00	737.00	724.00	715.00	710.00	721.00	725.00	731.00	734.00	735.00	746.00	750.00	754.00	758.00	777.00	787.00	800.00	806.00	814.00	813.00	824.00	825.00	824.00	841.00	855.00	867.00	871.00
944.00	984.00	961.00	918.00	893.00	902.00	878.00	845.00	806.00	771.00	775.00	778.00	783.00	776.00	745.00	677.00	659.00	690.00	699.00	699.00	676.00	665.00	633.00	610.00	600.00	570.00	571.00	601.00	586.00	602.00	618.00	619.00	658.00	692.00	678.00	735.00	785.00	827.00	810.00	765.00	714.00	655.00	648.00	641.00	684.00	651.00	643.00	628.00	590.00	572.00	573.00	585.00	593.00	605.00	612.00	603.00	582.00	580.00	589.00	584.00	630.00	678.00	680.00	693.00	674.00	651.00	632.00	632.00	582.00	590.00	596.00	562.00	556.00	544.00	508.00	491.00	483.00	477.00	469.00	463.00	446.00	439.00	456.00	460.00	485.00	490.00	513.00	610.00	669.00	652.00	746.00	857.00	1027.00	965.00	878.00	707.00	765.00	883.00	833.00	738.00	716.00	798.00	721.00	655.00	660.00	646.00	640.00	639.00	667.00	625.00	639.00	688.00	722.00	1092.00	1122.00	1207.00	1193.00	1135.00	934.00	861.00	810.00	784.00	847.00	1136.00	1062.00	956.00	884.00	942.00	1018.00	1046.00	960.00	814.00	816.00	909.00	813.00	810.00	747.00	683.00	678.00	715.00	696.00	653.00	615.00	590.00	569.00	592.00	611.00	583.00	543.00	544.00	469.00	439.00	427.00	417.00	407.00	413.00	417.00	412.00	426.00	435.00	437.00	434.00	424.00	460.00	463.00	445.00	522.00	569.00	561.00	495.00	517.00	476.00	481.00	472.00	487.00	482.00	523.00	519.00	579.00	581.00	589.00	612.00	582.00	554.00	598.00	570.00	573.00	677.00	657.00	744.00	803.00	733.00	760.00	805.00	718.00	634.00	601.00	642.00	622.00	655.00	655.00	645.00	665.00	672.00	666.00	665.00	657.00	676.00	687.00	684.00	679.00	685.00	721.00	726.00	727.00	728.00	738.00	736.00	758.00	773.00	784.00	788.00	782.00	775.00	776.00	787.00	786.00	783.00	780.00	765.00	742.00	732.00	724.00	721.00	723.00	717.00	730.00	741.00	751.00	756.00	753.00	760.00	776.00	776.00	783.00	790.00	795.00	805.00	839.00	838.00	837.00	842.00	848.00	864.00	877.00	879.00
923.00	936.00	946.00	930.00	925.00	912.00	904.00	886.00	736.00	740.00	703.00	708.00	725.00	745.00	741.00	685.00	649.00	665.00	680.00	712.00	706.00	683.00	714.00	714.00	710.00	620.00	566.00	567.00	568.00	687.00	679.00	657.00	725.00	754.00	736.00	753.00	765.00	824.00	806.00	780.00	686.00	614.00	600.00	590.00	589.00	604.00	596.00	591.00	580.00	567.00	563.00	573.00	557.00	573.00	577.00	558.00	558.00	566.00	566.00	558.00	551.00	575.00	583.00	580.00	590.00	590.00	608.00	581.00	556.00	569.00	563.00	543.00	551.00	519.00	488.00	473.00	465.00	459.00	458.00	454.00	448.00	435.00	466.00	465.00	464.00	479.00	568.00	534.00	571.00	715.00	880.00	920.00	953.00	893.00	775.00	663.00	676.00	678.00	639.00	660.00	748.00	702.00	705.00	718.00	660.00	626.00	613.00	625.00	618.00	622.00	671.00	786.00	913.00	1142.00	1100.00	1018.00	927.00	888.00	793.00	772.00	758.00	756.00	873.00	1103.00	993.00	931.00	925.00	1023.00	1075.00	1061.00	1050.00	1005.00	942.00	918.00	930.00	971.00	849.00	804.00	693.00	637.00	632.00	630.00	658.00	607.00	536.00	555.00	556.00	557.00	496.00	576.00	481.00	433.00	412.00	410.00	461.00	518.00	485.00	439.00	435.00	432.00	440.00	461.00	450.00	429.00	433.00	437.00	541.00	529.00	580.00	579.00	508.00	471.00	480.00	492.00	514.00	519.00	514.00	517.00	524.00	530.00	555.00	570.00	585.00	603.00	679.00	663.00	546.00	581.00	571.00	595.00	606.00	602.00	627.00	757.00	788.00	685.00	626.00	639.00	634.00	656.00	695.00	682.00	681.00	693.00	689.00	686.00	684.00	746.00	747.00	709.00	694.00	699.00	712.00	727.00	737.00	745.00	752.00	755.00	782.00	776.00	776.00	809.00	810.00	810.00	810.00	786.00	772.00	769.00	767.00	760.00	739.00	734.00	729.00	733.00	728.00	721.00	732.00	740.00	745.00	762.00	765.00	763.00	768.00	780.00	785.00	796.00	808.00	812.00	835.00	856.00	850.00	853.00	867.00	869.00	870.00	877.00
889.00	930.00	915.00	900.00	889.00	864.00	858.00	811.00	721.00	714.00	740.00	728.00	694.00	693.00	690.00	696.00	655.00	645.00	649.00	694.00	702.00	738.00	821.00	793.00	718.00	648.00	587.00	536.00	660.00	770.00	716.00	703.00	685.00	697.00	659.00	647.00	696.00	750.00	732.00	727.00	646.00	614.00	595.00	582.00	580.00	599.00	573.00	586.00	574.00	565.00	547.00	571.00	550.00	557.00	557.00	557.00	542.00	545.00	566.00	555.00	547.00	553.00	556.00	558.00	558.00	563.00	562.00	559.00	550.00	558.00	558.00	519.00	537.00	535.00	519.00	490.00	470.00	453.00	447.00	444.00	439.00	433.00	466.00	448.00	457.00	513.00	518.00	532.00	582.00	749.00	793.00	885.00	885.00	752.00	682.00	655.00	638.00	610.00	645.00	714.00	663.00	656.00	772.00	827.00	644.00	620.00	606.00	607.00	608.00	660.00	730.00	875.00	1066.00	1035.00	959.00	891.00	825.00	800.00	740.00	750.00	739.00	756.00	908.00	1049.00	946.00	906.00	934.00	1048.00	1071.00	1078.00	1053.00	1057.00	1003.00	992.00	921.00	922.00	857.00	765.00	696.00	641.00	672.00	646.00	592.00	554.00	520.00	534.00	532.00	517.00	478.00	561.00	500.00	442.00	407.00	404.00	482.00	514.00	506.00	448.00	457.00	462.00	456.00	451.00	458.00	444.00	459.00	439.00	556.00	609.00	649.00	547.00	500.00	480.00	488.00	504.00	512.00	516.00	502.00	523.00	542.00	554.00	591.00	609.00	634.00	682.00	748.00	685.00	621.00	658.00	576.00	561.00	573.00	575.00	603.00	672.00	762.00	678.00	641.00	648.00	646.00	660.00	711.00	715.00	700.00	703.00	701.00	701.00	701.00	807.00	756.00	724.00	707.00	711.00	724.00	723.00	730.00	743.00	760.00	758.00	782.00	789.00	791.00	808.00	821.00	822.00	802.00	784.00	783.00	783.00	777.00	775.00	745.00	740.00	736.00	737.00	733.00	724.00	730.00	744.00	749.00	771.00	772.00	772.00	771.00	785.00	794.00	795.00	805.00	820.00	835.00	863.00	859.00	858.00	859.00	862.00	868.00	871.00
896.00	907.00	894.00	865.00	847.00	836.00	808.00	738.00	730.00	725.00	743.00	753.00	743.00	714.00	663.00	703.00	704.00	689.00	641.00	668.00	700.00	741.00	819.00	906.00	844.00	725.00	655.00	551.00	686.00	808.00	759.00	722.00	668.00	647.00	580.00	606.00	628.00	671.00	662.00	648.00	606.00	603.00	591.00	573.00	567.00	586.00	560.00	570.00	568.00	553.00	537.00	557.00	548.00	545.00	546.00	559.00	541.00	536.00	562.00	558.00	546.00	535.00	536.00	545.00	545.00	543.00	543.00	534.00	542.00	551.00	544.00	506.00	514.00	514.00	534.00	530.00	502.00	455.00	446.00	443.00	436.00	430.00	440.00	446.00	468.00	491.00	499.00	556.00	659.00	763.00	745.00	930.00	905.00	761.00	630.00	596.00	596.00	638.00	725.00	770.00	623.00	671.00	809.00	738.00	610.00	622.00	611.00	602.00	594.00	637.00	706.00	860.00	984.00	869.00	826.00	781.00	764.00	749.00	719.00	727.00	732.00	778.00	983.00	1013.00	904.00	889.00	965.00	1054.00	1061.00	1102.00	1042.00	1086.00	1068.00	1031.00	959.00	861.00	793.00	775.00	731.00	618.00	688.00	646.00	576.00	556.00	519.00	534.00	576.00	503.00	458.00	459.00	470.00	436.00	401.00	419.00	511.00	517.00	518.00	453.00	454.00	465.00	476.00	472.00	468.00	459.00	457.00	444.00	508.00	675.00	604.00	523.00	505.00	490.00	502.00	512.00	520.00	534.00	513.00	536.00	561.00	595.00	656.00	623.00	668.00	695.00	754.00	636.00	726.00	663.00	592.00	559.00	560.00	564.00	582.00	608.00	719.00	783.00	710.00	640.00	636.00	648.00	660.00	692.00	683.00	701.00	714.00	722.00	718.00	773.00	779.00	740.00	735.00	748.00	730.00	744.00	741.00	749.00	763.00	772.00	789.00	802.00	796.00	814.00	816.00	821.00	801.00	798.00	795.00	794.00	785.00	774.00	750.00	745.00	741.00	744.00	737.00	728.00	726.00	742.00	746.00	765.00	776.00	781.00	783.00	783.00	795.00	805.00	811.00	820.00	843.00	862.00	856.00	852.00	853.00	865.00	867.00	866.00
873.00	882.00	871.00	827.00	820.00	817.00	778.00	741.00	745.00	755.00	764.00	777.00	765.00	717.00	691.00	652.00	674.00	672.00	628.00	618.00	613.00	667.00	803.00	974.00	1003.00	797.00	665.00	544.00	702.00	786.00	768.00	715.00	654.00	582.00	553.00	575.00	590.00	621.00	623.00	609.00	587.00	590.00	581.00	577.00	555.00	566.00	544.00	542.00	555.00	543.00	537.00	538.00	550.00	537.00	531.00	547.00	532.00	531.00	565.00	557.00	550.00	529.00	526.00	528.00	535.00	532.00	534.00	525.00	533.00	542.00	533.00	492.00	487.00	498.00	504.00	503.00	499.00	466.00	453.00	449.00	440.00	432.00	434.00	455.00	468.00	461.00	482.00	600.00	746.00	696.00	855.00	977.00	871.00	719.00	631.00	612.00	673.00	695.00	725.00	653.00	648.00	658.00	678.00	624.00	596.00	616.00	617.00	601.00	593.00	618.00	672.00	757.00	811.00	763.00	752.00	716.00	707.00	715.00	718.00	719.00	731.00	791.00	1055.00	934.00	871.00	915.00	997.00	1036.00	1088.00	1105.00	1048.00	1095.00	993.00	931.00	925.00	833.00	729.00	759.00	663.00	607.00	633.00	614.00	554.00	513.00	490.00	475.00	520.00	476.00	441.00	439.00	447.00	441.00	403.00	424.00	511.00	518.00	511.00	447.00	465.00	480.00	482.00	489.00	483.00	478.00	462.00	448.00	515.00	590.00	526.00	517.00	504.00	502.00	513.00	525.00	533.00	542.00	519.00	555.00	617.00	651.00	745.00	672.00	655.00	731.00	747.00	616.00	667.00	628.00	637.00	576.00	570.00	566.00	573.00	583.00	619.00	732.00	690.00	609.00	623.00	631.00	648.00	665.00	672.00	696.00	716.00	737.00	741.00	723.00	766.00	760.00	778.00	782.00	736.00	747.00	755.00	766.00	776.00	787.00	788.00	802.00	810.00	817.00	833.00	827.00	809.00	804.00	810.00	804.00	795.00	777.00	755.00	749.00	745.00	752.00	739.00	736.00	726.00	733.00	743.00	768.00	772.00	775.00	779.00	784.00	789.00	798.00	805.00	813.00	843.00	867.00	855.00	847.00	847.00	862.00	867.00	856.00
824.00	826.00	800.00	786.00	769.00	773.00	763.00	777.00	797.00	847.00	869.00	907.00	887.00	881.00	905.00	763.00	755.00	775.00	796.00	927.00	790.00	691.00	605.00	584.00	600.00	574.00	529.00	511.00	586.00	675.00	659.00	641.00	627.00	557.00	533.00	541.00	559.00	579.00	587.00	581.00	557.00	557.00	561.00	562.00	564.00	543.00	538.00	521.00	519.00	526.00	518.00	528.00	529.00	528.00	519.00	519.00	518.00	548.00	569.00	543.00	547.00	535.00	526.00	514.00	509.00	507.00	508.00	512.00	516.00	521.00	507.00	476.00	471.00	478.00	471.00	483.00	480.00	455.00	447.00	441.00	435.00	431.00	422.00	426.00	431.00	433.00	462.00	484.00	554.00	719.00	844.00	856.00	714.00	673.00	655.00	670.00	705.00	636.00	606.00	617.00	606.00	562.00	581.00	588.00	617.00	605.00	593.00	581.00	606.00	612.00	636.00	665.00	664.00	690.00	686.00	663.00	669.00	688.00	710.00	749.00	763.00	860.00	1035.00	861.00	932.00	984.00	1000.00	1075.00	1108.00	1095.00	954.00	917.00	899.00	866.00	849.00	810.00	697.00	673.00	674.00	688.00	536.00	557.00	526.00	503.00	472.00	445.00	446.00	435.00	430.00	424.00	417.00	412.00	405.00	408.00	550.00	518.00	517.00	459.00	474.00	485.00	493.00	508.00	516.00	501.00	485.00	462.00	501.00	494.00	513.00	536.00	536.00	538.00	567.00	606.00	656.00	646.00	744.00	626.00	540.00	565.00	716.00	707.00	709.00	692.00	693.00	675.00	686.00	632.00	660.00	647.00	621.00	640.00	685.00	631.00	614.00	597.00	659.00	639.00	620.00	616.00	628.00	656.00	683.00	698.00	702.00	719.00	738.00	729.00	744.00	755.00	762.00	751.00	780.00	799.00	810.00	821.00	827.00	841.00	844.00	844.00	834.00	822.00	825.00	834.00	828.00	818.00	805.00	804.00	793.00	776.00	760.00	755.00	757.00	762.00	747.00	743.00	738.00	733.00	732.00	761.00	769.00	776.00	788.00	800.00	805.00	814.00	817.00	824.00	842.00	862.00	861.00	854.00	837.00	833.00	839.00	837.00
812.00	805.00	789.00	797.00	795.00	791.00	782.00	799.00	859.00	916.00	983.00	1049.00	1118.00	1031.00	983.00	919.00	937.00	963.00	1014.00	842.00	816.00	757.00	653.00	598.00	530.00	530.00	524.00	510.00	527.00	615.00	591.00	613.00	598.00	563.00	521.00	524.00	542.00	573.00	572.00	565.00	556.00	537.00	551.00	554.00	561.00	544.00	540.00	518.00	509.00	518.00	511.00	515.00	517.00	525.00	514.00	513.00	523.00	556.00	558.00	529.00	538.00	533.00	527.00	520.00	502.00	499.00	495.00	505.00	501.00	507.00	499.00	470.00	465.00	466.00	465.00	470.00	478.00	461.00	454.00	444.00	437.00	434.00	420.00	422.00	423.00	427.00	449.00	459.00	490.00	556.00	683.00	772.00	650.00	706.00	722.00	599.00	644.00	594.00	583.00	624.00	559.00	570.00	578.00	565.00	595.00	594.00	577.00	597.00	609.00	609.00	633.00	643.00	636.00	673.00	668.00	681.00	715.00	737.00	738.00	835.00	837.00	820.00	897.00	858.00	914.00	969.00	1017.00	1081.00	1101.00	987.00	886.00	796.00	786.00	810.00	837.00	728.00	694.00	677.00	678.00	697.00	515.00	531.00	533.00	515.00	494.00	453.00	447.00	445.00	435.00	417.00	413.00	408.00	411.00	423.00	498.00	501.00	518.00	456.00	466.00	476.00	491.00	506.00	518.00	506.00	490.00	468.00	480.00	496.00	508.00	532.00	552.00	585.00	679.00	717.00	721.00	711.00	775.00	635.00	540.00	554.00	593.00	612.00	630.00	629.00	656.00	725.00	696.00	665.00	659.00	606.00	614.00	634.00	638.00	666.00	693.00	638.00	604.00	625.00	622.00	629.00	634.00	638.00	659.00	694.00	705.00	726.00	728.00	749.00	755.00	759.00	765.00	773.00	807.00	822.00	828.00	832.00	838.00	850.00	859.00	862.00	858.00	842.00	836.00	845.00	847.00	825.00	811.00	800.00	796.00	784.00	762.00	762.00	765.00	769.00	751.00	761.00	750.00	744.00	733.00	764.00	772.00	780.00	789.00	802.00	809.00	817.00	824.00	831.00	846.00	852.00	857.00	855.00	836.00	829.00	824.00	825.00
825.00	801.00	795.00	819.00	831.00	819.00	817.00	841.00	937.00	1068.00	1192.00	1246.00	1131.00	1078.00	1078.00	1016.00	996.00	948.00	899.00	730.00	688.00	652.00	618.00	587.00	523.00	518.00	513.00	516.00	514.00	536.00	532.00	541.00	570.00	569.00	522.00	518.00	542.00	564.00	557.00	547.00	549.00	522.00	533.00	556.00	556.00	536.00	524.00	520.00	501.00	509.00	508.00	508.00	509.00	507.00	512.00	508.00	541.00	554.00	524.00	523.00	522.00	532.00	522.00	514.00	502.00	495.00	491.00	490.00	492.00	498.00	487.00	469.00	462.00	459.00	462.00	459.00	470.00	452.00	448.00	445.00	445.00	447.00	431.00	425.00	423.00	419.00	425.00	426.00	454.00	478.00	523.00	635.00	705.00	758.00	687.00	619.00	615.00	556.00	580.00	582.00	542.00	570.00	554.00	540.00	593.00	579.00	580.00	579.00	581.00	616.00	628.00	617.00	621.00	655.00	670.00	718.00	820.00	810.00	735.00	739.00	759.00	758.00	789.00	952.00	951.00	970.00	1045.00	1084.00	1009.00	958.00	840.00	759.00	770.00	821.00	717.00	692.00	671.00	655.00	639.00	618.00	512.00	504.00	517.00	508.00	514.00	445.00	439.00	430.00	425.00	423.00	419.00	415.00	426.00	439.00	468.00	487.00	504.00	446.00	455.00	472.00	486.00	497.00	510.00	506.00	493.00	471.00	491.00	502.00	520.00	552.00	588.00	610.00	684.00	643.00	624.00	682.00	726.00	653.00	573.00	596.00	583.00	602.00	605.00	615.00	640.00	727.00	695.00	752.00	680.00	618.00	614.00	627.00	641.00	671.00	711.00	716.00	648.00	621.00	631.00	631.00	625.00	635.00	658.00	693.00	701.00	712.00	721.00	755.00	767.00	772.00	780.00	796.00	817.00	830.00	837.00	840.00	849.00	859.00	864.00	867.00	866.00	853.00	844.00	846.00	857.00	846.00	818.00	813.00	809.00	784.00	768.00	775.00	779.00	775.00	756.00	765.00	761.00	751.00	741.00	759.00	768.00	775.00	782.00	800.00	810.00	821.00	826.00	832.00	842.00	849.00	851.00	851.00	841.00	834.00	828.00	819.00
831.00	831.00	820.00	818.00	842.00	845.00	909.00	922.00	1110.00	1267.00	1195.00	1064.00	946.00	893.00	866.00	825.00	829.00	789.00	748.00	731.00	740.00	694.00	652.00	615.00	535.00	526.00	527.00	528.00	521.00	526.00	513.00	527.00	579.00	548.00	521.00	508.00	523.00	549.00	548.00	531.00	533.00	515.00	533.00	549.00	548.00	534.00	514.00	515.00	501.00	500.00	503.00	503.00	505.00	500.00	506.00	520.00	546.00	527.00	498.00	526.00	508.00	526.00	516.00	506.00	500.00	492.00	487.00	485.00	483.00	492.00	479.00	465.00	459.00	453.00	459.00	454.00	458.00	445.00	444.00	441.00	446.00	447.00	455.00	450.00	444.00	428.00	424.00	428.00	427.00	464.00	487.00	533.00	755.00	682.00	593.00	622.00	535.00	548.00	543.00	518.00	531.00	556.00	546.00	531.00	566.00	572.00	568.00	578.00	595.00	613.00	608.00	610.00	627.00	669.00	727.00	811.00	886.00	842.00	728.00	731.00	736.00	750.00	831.00	975.00	1001.00	989.00	1041.00	989.00	906.00	827.00	786.00	815.00	773.00	719.00	679.00	699.00	683.00	670.00	659.00	586.00	530.00	507.00	491.00	491.00	481.00	451.00	439.00	431.00	426.00	414.00	411.00	406.00	419.00	413.00	492.00	488.00	482.00	435.00	456.00	473.00	489.00	503.00	514.00	508.00	495.00	475.00	492.00	519.00	537.00	590.00	671.00	624.00	601.00	578.00	595.00	615.00	648.00	614.00	578.00	600.00	603.00	620.00	615.00	612.00	638.00	690.00	660.00	674.00	658.00	661.00	650.00	668.00	679.00	685.00	704.00	708.00	677.00	619.00	646.00	638.00	643.00	634.00	654.00	680.00	687.00	701.00	725.00	738.00	747.00	766.00	784.00	796.00	813.00	817.00	832.00	838.00	835.00	843.00	844.00	847.00	857.00	865.00	852.00	854.00	855.00	828.00	818.00	824.00	824.00	783.00	777.00	783.00	781.00	769.00	772.00	776.00	768.00	765.00	750.00	754.00	763.00	771.00	779.00	798.00	807.00	818.00	826.00	832.00	837.00	844.00	845.00	841.00	838.00	835.00	828.00	819.00
