722.00	702.00	701.00	703.00	702.00	703.00	699.00	700.00	701.00	704.00	707.00	708.00	711.00	716.00	719.00	719.00	728.00	738.00	749.00	780.00	808.00	801.00	764.00	737.00	728.00	727.00	747.00	733.00	721.00	719.00	717.00	719.00	717.00	717.00	718.00	723.00	735.00	741.00	739.00	734.00	732.00	727.00	714.00	709.00	707.00	705.00	701.00	700.00	698.00	698.00	697.00	696.00	695.00	694.00	693.00	691.00	691.00	691.00	691.00	691.00	688.00	686.00	685.00	684.00	681.00	681.00	682.00	683.00	684.00	686.00	686.00	687.00	688.00	690.00	692.00	697.00	701.00	707.00	711.00	716.00	725.00	731.00	750.00	758.00	763.00	793.00	777.00	754.00	777.00	757.00	727.00	720.00	694.00	686.00	684.00	667.00	658.00	657.00	661.00	660.00	673.00	676.00	680.00	688.00	703.00	716.00	741.00	752.00	777.00	823.00	805.00	796.00	784.00	775.00	769.00	745.00	738.00	747.00	763.00	772.00	779.00	786.00	811.00	825.00	855.00	881.00	857.00	789.00	783.00	800.00	805.00	805.00	804.00	819.00	844.00	846.00	856.00	881.00	890.00	866.00	840.00	838.00	855.00	856.00	832.00	812.00	814.00	856.00	836.00	798.00	766.00	757.00	749.00	740.00	730.00	725.00	723.00	718.00	714.00	718.00	731.00	742.00	731.00	726.00	725.00	732.00	731.00	727.00	734.00	746.00	750.00	753.00	761.00	761.00	764.00	765.00	765.00	775.00	782.00	783.00	765.00	767.00	756.00	749.00	749.00	743.00	739.00	734.00	730.00	727.00	709.00	704.00	700.00	696.00	690.00	687.00	684.00	680.00	677.00	672.00	668.00	667.00	665.00	661.00	660.00	658.00	657.00	656.00	655.00	661.00	671.00	653.00	653.00	653.00	654.00	654.00	652.00	652.00	652.00	652.00	656.00	673.00	681.00	675.00	668.00	660.00	654.00	651.00	650.00	651.00	668.00	676.00	692.00	704.00	713.00	723.00	740.00	744.00	739.00	736.00	734.00	706.00	693.00	662.00	658.00	655.00	652.00	651.00	645.00	648.00	652.00	658.00	653.00	639.00	636.00	636.00
718.00	710.00	714.00	720.00	711.00	710.00	702.00	702.00	705.00	706.00	711.00	714.00	722.00	726.00	728.00	731.00	744.00	763.00	786.00	817.00	858.00	880.00	819.00	755.00	786.00	780.00	748.00	736.00	725.00	726.00	729.00	722.00	722.00	724.00	729.00	728.00	730.00	738.00	736.00	735.00	730.00	721.00	714.00	711.00	708.00	707.00	702.00	700.00	699.00	699.00	699.00	698.00	697.00	696.00	697.00	693.00	692.00	692.00	691.00	691.00	693.00	688.00	686.00	684.00	681.00	682.00	683.00	684.00	685.00	687.00	688.00	689.00	689.00	692.00	692.00	697.00	699.00	707.00	711.00	716.00	722.00	727.00	745.00	748.00	753.00	788.00	787.00	781.00	784.00	764.00	739.00	731.00	706.00	693.00	690.00	672.00	664.00	661.00	660.00	660.00	666.00	675.00	688.00	693.00	707.00	722.00	744.00	764.00	825.00	852.00	833.00	823.00	792.00	776.00	768.00	750.00	742.00	750.00	760.00	769.00	782.00	795.00	805.00	803.00	830.00	854.00	806.00	776.00	781.00	789.00	785.00	806.00	820.00	835.00	858.00	873.00	865.00	866.00	892.00	889.00	951.00	927.00	868.00	888.00	920.00	854.00	840.00	854.00	870.00	851.00	809.00	772.00	755.00	749.00	737.00	733.00	728.00	723.00	720.00	717.00	722.00	736.00	749.00	737.00	736.00	738.00	743.00	731.00	737.00	753.00	760.00	765.00	773.00	772.00	776.00	775.00	785.00	796.00	799.00	783.00	778.00	771.00	761.00	769.00	765.00	757.00	751.00	760.00	746.00	751.00	716.00	709.00	703.00	702.00	695.00	691.00	688.00	684.00	681.00	675.00	671.00	670.00	669.00	665.00	663.00	661.00	660.00	659.00	657.00	658.00	660.00	655.00	655.00	656.00	655.00	655.00	655.00	653.00	653.00	658.00	664.00	690.00	693.00	690.00	681.00	666.00	659.00	653.00	651.00	652.00	668.00	674.00	694.00	706.00	719.00	729.00	736.00	733.00	742.00	741.00	733.00	714.00	698.00	665.00	664.00	661.00	656.00	653.00	648.00	649.00	649.00	648.00	648.00	648.00	646.00	640.00
719.00	733.00	737.00	727.00	725.00	723.00	705.00	705.00	707.00	710.00	713.00	717.00	727.00	731.00	734.00	746.00	760.00	768.00	772.00	802.00	812.00	823.00	769.00	753.00	755.00	749.00	741.00	741.00	742.00	746.00	734.00	728.00	735.00	740.00	747.00	753.00	747.00	737.00	729.00	729.00	722.00	721.00	715.00	712.00	710.00	708.00	703.00	701.00	700.00	701.00	701.00	700.00	699.00	698.00	700.00	695.00	694.00	694.00	694.00	691.00	696.00	693.00	687.00	684.00	682.00	683.00	684.00	685.00	686.00	688.00	689.00	689.00	691.00	693.00	694.00	696.00	700.00	705.00	709.00	714.00	720.00	722.00	735.00	737.00	748.00	775.00	789.00	801.00	795.00	763.00	768.00	722.00	726.00	750.00	729.00	674.00	669.00	667.00	665.00	664.00	663.00	671.00	679.00	685.00	720.00	728.00	767.00	782.00	834.00	811.00	809.00	805.00	795.00	762.00	753.00	748.00	742.00	746.00	753.00	761.00	771.00	783.00	799.00	783.00	797.00	793.00	773.00	791.00	776.00	778.00	786.00	803.00	817.00	841.00	844.00	842.00	859.00	854.00	881.00	886.00	944.00	989.00	925.00	923.00	941.00	860.00	848.00	843.00	856.00	871.00	824.00	785.00	769.00	763.00	745.00	739.00	733.00	728.00	725.00	724.00	723.00	730.00	737.00	755.00	770.00	753.00	750.00	734.00	742.00	761.00	777.00	801.00	793.00	793.00	792.00	793.00	813.00	816.00	801.00	811.00	809.00	785.00	772.00	789.00	790.00	783.00	778.00	782.00	784.00	774.00	735.00	717.00	713.00	711.00	703.00	697.00	692.00	688.00	685.00	679.00	674.00	673.00	672.00	669.00	667.00	664.00	663.00	662.00	659.00	658.00	656.00	656.00	658.00	657.00	657.00	657.00	656.00	655.00	658.00	663.00	670.00	709.00	714.00	715.00	701.00	671.00	665.00	658.00	654.00	654.00	661.00	671.00	690.00	693.00	713.00	720.00	721.00	719.00	731.00	749.00	729.00	710.00	697.00	670.00	666.00	664.00	658.00	656.00	652.00	653.00	652.00	654.00	656.00	652.00	648.00	645.00
733.00	752.00	742.00	740.00	746.00	732.00	709.00	706.00	710.00	715.00	716.00	725.00	736.00	738.00	737.00	745.00	751.00	761.00	786.00	790.00	777.00	771.00	755.00	750.00	745.00	753.00	757.00	757.00	755.00	743.00	739.00	740.00	746.00	761.00	760.00	750.00	745.00	736.00	729.00	727.00	725.00	722.00	718.00	712.00	710.00	708.00	704.00	702.00	702.00	703.00	703.00	701.00	700.00	699.00	698.00	697.00	696.00	699.00	696.00	694.00	703.00	700.00	692.00	687.00	684.00	685.00	686.00	687.00	687.00	690.00	690.00	692.00	692.00	694.00	695.00	697.00	700.00	705.00	707.00	710.00	715.00	719.00	731.00	739.00	747.00	764.00	770.00	787.00	802.00	784.00	771.00	759.00	762.00	766.00	765.00	681.00	676.00	672.00	671.00	669.00	663.00	671.00	677.00	690.00	721.00	739.00	767.00	787.00	781.00	773.00	786.00	802.00	822.00	777.00	755.00	745.00	740.00	739.00	747.00	751.00	767.00	785.00	798.00	772.00	783.00	763.00	760.00	862.00	804.00	788.00	785.00	811.00	838.00	836.00	833.00	820.00	831.00	845.00	856.00	864.00	924.00	988.00	980.00	986.00	940.00	863.00	840.00	832.00	842.00	891.00	883.00	840.00	803.00	775.00	762.00	749.00	741.00	735.00	730.00	729.00	725.00	724.00	729.00	757.00	765.00	767.00	759.00	738.00	749.00	786.00	808.00	821.00	844.00	853.00	835.00	833.00	849.00	845.00	840.00	838.00	827.00	783.00	776.00	787.00	806.00	830.00	837.00	821.00	811.00	786.00	773.00	746.00	724.00	719.00	706.00	701.00	697.00	692.00	689.00	683.00	679.00	676.00	674.00	670.00	668.00	668.00	664.00	663.00	661.00	659.00	658.00	658.00	660.00	659.00	659.00	658.00	657.00	657.00	662.00	667.00	672.00	698.00	705.00	708.00	697.00	671.00	666.00	660.00	657.00	656.00	658.00	662.00	675.00	689.00	698.00	709.00	699.00	706.00	718.00	738.00	731.00	719.00	707.00	679.00	675.00	668.00	664.00	663.00	657.00	656.00	656.00	655.00	656.00	653.00	651.00	659.00
751.00	745.00	735.00	726.00	725.00	719.00	709.00	708.00	714.00	724.00	718.00	723.00	745.00	755.00	750.00	759.00	760.00	767.00	772.00	804.00	810.00	780.00	770.00	771.00	759.00	752.00	757.00	769.00	760.00	753.00	749.00	749.00	752.00	753.00	748.00	742.00	738.00	733.00	731.00	728.00	726.00	723.00	717.00	712.00	710.00	709.00	705.00	705.00	705.00	705.00	705.00	703.00	702.00	701.00	699.00	699.00	706.00	707.00	704.00	707.00	705.00	706.00	699.00	694.00	686.00	688.00	688.00	689.00	690.00	691.00	692.00	693.00	693.00	696.00	697.00	698.00	700.00	705.00	708.00	711.00	714.00	719.00	731.00	737.00	739.00	747.00	765.00	777.00	792.00	787.00	777.00	741.00	751.00	735.00	731.00	695.00	683.00	678.00	675.00	674.00	671.00	674.00	683.00	691.00	725.00	736.00	738.00	747.00	747.00	799.00	827.00	836.00	802.00	787.00	758.00	742.00	737.00	733.00	740.00	752.00	772.00	786.00	787.00	765.00	756.00	753.00	772.00	877.00	843.00	824.00	793.00	811.00	821.00	810.00	812.00	826.00	843.00	856.00	855.00	860.00	893.00	945.00	951.00	987.00	944.00	855.00	844.00	828.00	826.00	889.00	895.00	874.00	874.00	865.00	805.00	778.00	760.00	748.00	734.00	733.00	729.00	730.00	730.00	739.00	747.00	757.00	750.00	742.00	750.00	768.00	776.00	784.00	810.00	818.00	814.00	815.00	830.00	835.00	829.00	832.00	814.00	788.00	791.00	808.00	847.00	890.00	860.00	828.00	849.00	824.00	746.00	736.00	729.00	722.00	710.00	705.00	700.00	696.00	693.00	686.00	681.00	679.00	677.00	673.00	672.00	670.00	666.00	664.00	661.00	660.00	659.00	661.00	662.00	661.00	660.00	659.00	660.00	661.00	663.00	667.00	672.00	688.00	688.00	682.00	678.00	664.00	659.00	659.00	659.00	659.00	658.00	660.00	666.00	681.00	684.00	700.00	690.00	693.00	708.00	722.00	723.00	714.00	705.00	686.00	689.00	682.00	669.00	665.00	661.00	661.00	661.00	660.00	660.00	662.00	663.00	662.00
751.00	745.00	735.00	726.00	725.00	719.00	709.00	708.00	714.00	724.00	718.00	723.00	745.00	755.00	750.00	759.00	760.00	767.00	772.00	804.00	810.00	780.00	770.00	771.00	759.00	752.00	757.00	769.00	760.00	753.00	749.00	749.00	752.00	753.00	748.00	742.00	738.00	733.00	731.00	728.00	726.00	723.00	717.00	712.00	710.00	709.00	705.00	705.00	705.00	705.00	705.00	703.00	702.00	701.00	699.00	699.00	706.00	707.00	704.00	707.00	705.00	706.00	699.00	694.00	686.00	688.00	688.00	689.00	690.00	691.00	692.00	693.00	693.00	696.00	697.00	698.00	700.00	705.00	708.00	711.00	714.00	719.00	731.00	737.00	739.00	747.00	765.00	777.00	792.00	787.00	777.00	741.00	751.00	735.00	731.00	695.00	683.00	678.00	675.00	674.00	671.00	674.00	683.00	691.00	725.00	736.00	738.00	747.00	747.00	799.00	827.00	836.00	802.00	787.00	758.00	742.00	737.00	733.00	740.00	752.00	772.00	786.00	787.00	765.00	756.00	753.00	772.00	877.00	843.00	824.00	793.00	811.00	821.00	810.00	812.00	826.00	843.00	856.00	855.00	860.00	893.00	945.00	951.00	987.00	944.00	855.00	844.00	828.00	826.00	889.00	895.00	874.00	874.00	865.00	805.00	778.00	760.00	748.00	734.00	733.00	729.00	730.00	730.00	739.00	747.00	757.00	750.00	742.00	750.00	768.00	776.00	784.00	810.00	818.00	814.00	815.00	830.00	835.00	829.00	832.00	814.00	788.00	791.00	808.00	847.00	890.00	860.00	828.00	849.00	824.00	746.00	736.00	729.00	722.00	710.00	705.00	700.00	696.00	693.00	686.00	681.00	679.00	677.00	673.00	672.00	670.00	666.00	664.00	661.00	660.00	659.00	661.00	662.00	661.00	660.00	659.00	660.00	661.00	663.00	667.00	672.00	688.00	688.00	682.00	678.00	664.00	659.00	659.00	659.00	659.00	658.00	660.00	666.00	681.00	684.00	700.00	690.00	693.00	708.00	722.00	723.00	714.00	705.00	686.00	689.00	682.00	669.00	665.00	661.00	661.00	661.00	660.00	660.00	662.00	663.00	662.00
754.00	748.00	736.00	726.00	720.00	716.00	711.00	711.00	713.00	720.00	723.00	723.00	733.00	741.00	747.00	759.00	767.00	785.00	788.00	799.00	814.00	815.00	820.00	824.00	785.00	764.00	776.00	790.00	778.00	779.00	782.00	786.00	775.00	752.00	747.00	744.00	743.00	754.00	747.00	750.00	740.00	726.00	719.00	711.00	709.00	708.00	706.00	707.00	707.00	708.00	706.00	704.00	703.00	702.00	699.00	702.00	706.00	707.00	709.00	715.00	715.00	711.00	706.00	702.00	691.00	691.00	691.00	691.00	692.00	693.00	694.00	695.00	696.00	699.00	700.00	701.00	701.00	705.00	709.00	713.00	715.00	719.00	727.00	732.00	735.00	745.00	769.00	790.00	797.00	777.00	758.00	738.00	731.00	721.00	714.00	692.00	684.00	679.00	677.00	678.00	679.00	679.00	682.00	688.00	704.00	712.00	726.00	742.00	769.00	790.00	812.00	808.00	804.00	761.00	750.00	735.00	731.00	727.00	736.00	748.00	760.00	768.00	769.00	751.00	747.00	758.00	784.00	836.00	846.00	820.00	804.00	799.00	810.00	814.00	818.00	843.00	869.00	882.00	876.00	875.00	888.00	899.00	932.00	962.00	965.00	848.00	829.00	820.00	814.00	860.00	867.00	856.00	845.00	886.00	866.00	807.00	771.00	756.00	739.00	735.00	733.00	734.00	730.00	734.00	745.00	753.00	746.00	746.00	748.00	760.00	767.00	771.00	781.00	785.00	789.00	793.00	802.00	803.00	805.00	812.00	818.00	808.00	806.00	814.00	830.00	839.00	862.00	833.00	850.00	852.00	745.00	735.00	727.00	720.00	710.00	706.00	702.00	697.00	694.00	689.00	683.00	681.00	679.00	674.00	678.00	678.00	673.00	667.00	661.00	659.00	660.00	662.00	662.00	662.00	662.00	661.00	661.00	663.00	665.00	669.00	672.00	686.00	683.00	677.00	677.00	664.00	662.00	662.00	662.00	662.00	662.00	662.00	663.00	667.00	675.00	685.00	681.00	687.00	693.00	716.00	726.00	725.00	721.00	704.00	691.00	681.00	683.00	672.00	667.00	667.00	667.00	669.00	669.00	674.00	669.00	668.00
732.00	774.00	771.00	750.00	732.00	721.00	720.00	722.00	727.00	735.00	733.00	734.00	733.00	735.00	736.00	746.00	750.00	752.00	753.00	757.00	762.00	768.00	783.00	793.00	817.00	807.00	795.00	797.00	845.00	833.00	821.00	791.00	772.00	770.00	789.00	786.00	779.00	823.00	838.00	814.00	797.00	791.00	727.00	716.00	715.00	714.00	711.00	711.00	713.00	723.00	718.00	710.00	710.00	706.00	711.00	705.00	706.00	709.00	715.00	728.00	730.00	731.00	718.00	713.00	707.00	707.00	704.00	701.00	699.00	699.00	700.00	699.00	699.00	702.00	704.00	705.00	706.00	707.00	707.00	710.00	711.00	715.00	724.00	728.00	735.00	758.00	765.00	774.00	792.00	807.00	805.00	749.00	734.00	727.00	733.00	724.00	721.00	702.00	683.00	680.00	669.00	668.00	672.00	677.00	687.00	693.00	717.00	726.00	738.00	745.00	763.00	780.00	760.00	742.00	728.00	727.00	723.00	720.00	734.00	734.00	734.00	732.00	748.00	776.00	771.00	767.00	764.00	808.00	823.00	812.00	813.00	824.00	823.00	824.00	831.00	842.00	891.00	882.00	866.00	859.00	856.00	861.00	871.00	898.00	919.00	889.00	855.00	840.00	807.00	794.00	792.00	795.00	802.00	820.00	788.00	787.00	790.00	775.00	745.00	743.00	740.00	737.00	745.00	765.00	753.00	761.00	775.00	762.00	759.00	773.00	765.00	773.00	788.00	792.00	784.00	797.00	801.00	815.00	805.00	808.00	834.00	824.00	803.00	792.00	784.00	798.00	789.00	793.00	793.00	777.00	739.00	733.00	727.00	722.00	712.00	708.00	706.00	703.00	700.00	694.00	687.00	685.00	683.00	680.00	684.00	694.00	695.00	689.00	678.00	672.00	667.00	668.00	665.00	665.00	664.00	666.00	668.00	671.00	671.00	673.00	676.00	697.00	698.00	711.00	714.00	682.00	678.00	672.00	669.00	667.00	670.00	672.00	671.00	669.00	669.00	670.00	674.00	680.00	694.00	714.00	718.00	727.00	739.00	706.00	696.00	698.00	687.00	682.00	677.00	680.00	684.00	691.00	701.00	684.00	690.00	692.00
732.00	774.00	771.00	750.00	732.00	721.00	720.00	722.00	727.00	735.00	733.00	734.00	733.00	735.00	736.00	746.00	750.00	752.00	753.00	757.00	762.00	768.00	783.00	793.00	817.00	807.00	795.00	797.00	845.00	833.00	821.00	791.00	772.00	770.00	789.00	786.00	779.00	823.00	838.00	814.00	797.00	791.00	727.00	716.00	715.00	714.00	711.00	711.00	713.00	723.00	718.00	710.00	710.00	706.00	711.00	705.00	706.00	709.00	715.00	728.00	730.00	731.00	718.00	713.00	707.00	707.00	704.00	701.00	699.00	699.00	700.00	699.00	699.00	702.00	704.00	705.00	706.00	707.00	707.00	710.00	711.00	715.00	724.00	728.00	735.00	758.00	765.00	774.00	792.00	807.00	805.00	749.00	734.00	727.00	733.00	724.00	721.00	702.00	683.00	680.00	669.00	668.00	672.00	677.00	687.00	693.00	717.00	726.00	738.00	745.00	763.00	780.00	760.00	742.00	728.00	727.00	723.00	720.00	734.00	734.00	734.00	732.00	748.00	776.00	771.00	767.00	764.00	808.00	823.00	812.00	813.00	824.00	823.00	824.00	831.00	842.00	891.00	882.00	866.00	859.00	856.00	861.00	871.00	898.00	919.00	889.00	855.00	840.00	807.00	794.00	792.00	795.00	802.00	820.00	788.00	787.00	790.00	775.00	745.00	743.00	740.00	737.00	745.00	765.00	753.00	761.00	775.00	762.00	759.00	773.00	765.00	773.00	788.00	792.00	784.00	797.00	801.00	815.00	805.00	808.00	834.00	824.00	803.00	792.00	784.00	798.00	789.00	793.00	793.00	777.00	739.00	733.00	727.00	722.00	712.00	708.00	706.00	703.00	700.00	694.00	687.00	685.00	683.00	680.00	684.00	694.00	695.00	689.00	678.00	672.00	667.00	668.00	665.00	665.00	664.00	666.00	668.00	671.00	671.00	673.00	676.00	697.00	698.00	711.00	714.00	682.00	678.00	672.00	669.00	667.00	670.00	672.00	671.00	669.00	669.00	670.00	674.00	680.00	694.00	714.00	718.00	727.00	739.00	706.00	696.00	698.00	687.00	682.00	677.00	680.00	684.00	691.00	701.00	684.00	690.00	692.00
742.00	762.00	749.00	733.00	728.00	722.00	723.00	726.00	729.00	734.00	737.00	741.00	741.00	743.00	751.00	777.00	794.00	797.00	773.00	766.00	766.00	767.00	774.00	791.00	820.00	836.00	833.00	811.00	818.00	797.00	796.00	778.00	764.00	811.00	840.00	859.00	843.00	810.00	809.00	807.00	801.00	797.00	742.00	721.00	719.00	717.00	714.00	714.00	714.00	723.00	732.00	734.00	736.00	730.00	719.00	719.00	719.00	715.00	714.00	720.00	734.00	741.00	743.00	738.00	718.00	717.00	710.00	705.00	702.00	702.00	703.00	702.00	701.00	705.00	706.00	708.00	708.00	709.00	710.00	710.00	710.00	714.00	723.00	730.00	738.00	745.00	768.00	778.00	782.00	793.00	793.00	777.00	768.00	765.00	759.00	725.00	713.00	703.00	701.00	703.00	675.00	671.00	670.00	670.00	682.00	683.00	701.00	707.00	733.00	752.00	763.00	742.00	745.00	741.00	727.00	718.00	715.00	714.00	725.00	728.00	726.00	729.00	756.00	787.00	802.00	805.00	789.00	797.00	802.00	798.00	818.00	807.00	809.00	819.00	833.00	835.00	867.00	868.00	872.00	885.00	847.00	845.00	851.00	860.00	873.00	878.00	840.00	826.00	820.00	809.00	795.00	782.00	783.00	782.00	767.00	764.00	759.00	757.00	751.00	747.00	745.00	743.00	741.00	744.00	755.00	777.00	783.00	777.00	769.00	795.00	780.00	773.00	796.00	801.00	793.00	797.00	812.00	833.00	831.00	828.00	836.00	843.00	824.00	798.00	780.00	776.00	772.00	772.00	781.00	767.00	741.00	734.00	728.00	723.00	714.00	711.00	707.00	704.00	702.00	695.00	688.00	686.00	683.00	680.00	685.00	694.00	708.00	720.00	705.00	689.00	678.00	675.00	666.00	667.00	668.00	671.00	673.00	676.00	677.00	679.00	681.00	710.00	703.00	717.00	724.00	691.00	681.00	676.00	672.00	671.00	675.00	676.00	673.00	672.00	670.00	669.00	672.00	677.00	684.00	695.00	704.00	715.00	721.00	703.00	699.00	694.00	691.00	690.00	688.00	687.00	692.00	707.00	738.00	694.00	702.00	699.00
736.00	741.00	741.00	741.00	733.00	725.00	725.00	730.00	735.00	737.00	750.00	754.00	751.00	755.00	773.00	817.00	834.00	821.00	784.00	791.00	802.00	783.00	774.00	780.00	811.00	818.00	817.00	809.00	792.00	782.00	777.00	771.00	769.00	821.00	844.00	852.00	829.00	786.00	790.00	779.00	771.00	780.00	747.00	725.00	722.00	720.00	716.00	716.00	716.00	718.00	720.00	727.00	735.00	746.00	725.00	732.00	733.00	721.00	717.00	722.00	729.00	733.00	748.00	749.00	718.00	717.00	712.00	709.00	709.00	705.00	707.00	708.00	711.00	714.00	723.00	714.00	711.00	711.00	711.00	713.00	715.00	718.00	724.00	731.00	734.00	738.00	766.00	767.00	783.00	792.00	786.00	781.00	765.00	749.00	735.00	713.00	699.00	697.00	692.00	687.00	677.00	675.00	674.00	671.00	673.00	679.00	688.00	695.00	704.00	731.00	741.00	732.00	755.00	729.00	716.00	711.00	710.00	715.00	720.00	722.00	723.00	731.00	754.00	768.00	790.00	811.00	807.00	786.00	794.00	796.00	798.00	808.00	817.00	815.00	818.00	831.00	867.00	887.00	879.00	878.00	853.00	841.00	834.00	834.00	842.00	847.00	859.00	870.00	838.00	799.00	789.00	784.00	780.00	776.00	779.00	779.00	772.00	773.00	770.00	754.00	751.00	747.00	744.00	745.00	750.00	755.00	761.00	778.00	785.00	795.00	808.00	790.00	791.00	811.00	823.00	818.00	817.00	818.00	820.00	825.00	800.00	842.00	857.00	818.00	791.00	765.00	760.00	758.00	760.00	756.00	737.00	731.00	727.00	724.00	716.00	713.00	710.00	707.00	703.00	696.00	689.00	686.00	683.00	683.00	685.00	691.00	700.00	708.00	716.00	710.00	688.00	674.00	668.00	670.00	671.00	675.00	678.00	681.00	682.00	684.00	687.00	722.00	717.00	728.00	724.00	695.00	691.00	682.00	676.00	674.00	677.00	678.00	676.00	675.00	672.00	671.00	674.00	676.00	679.00	686.00	691.00	698.00	701.00	697.00	703.00	703.00	705.00	706.00	703.00	700.00	696.00	704.00	720.00	691.00	703.00	710.00
724.00	736.00	744.00	747.00	738.00	729.00	732.00	732.00	740.00	744.00	754.00	758.00	762.00	767.00	777.00	810.00	819.00	812.00	783.00	796.00	788.00	782.00	812.00	787.00	796.00	822.00	839.00	843.00	809.00	812.00	796.00	786.00	774.00	812.00	818.00	802.00	790.00	769.00	766.00	764.00	755.00	751.00	736.00	731.00	725.00	723.00	719.00	718.00	718.00	717.00	719.00	726.00	735.00	732.00	739.00	730.00	725.00	728.00	732.00	728.00	743.00	737.00	747.00	747.00	735.00	720.00	732.00	729.00	719.00	708.00	709.00	716.00	719.00	729.00	737.00	722.00	715.00	714.00	714.00	714.00	716.00	718.00	721.00	724.00	727.00	730.00	747.00	757.00	770.00	784.00	783.00	770.00	776.00	769.00	752.00	704.00	726.00	729.00	709.00	702.00	681.00	678.00	675.00	673.00	673.00	675.00	684.00	688.00	694.00	705.00	710.00	729.00	741.00	729.00	713.00	706.00	705.00	713.00	720.00	720.00	728.00	736.00	751.00	763.00	782.00	799.00	816.00	808.00	818.00	806.00	805.00	806.00	805.00	807.00	819.00	829.00	868.00	894.00	896.00	860.00	854.00	836.00	829.00	827.00	826.00	854.00	879.00	898.00	844.00	807.00	795.00	795.00	795.00	790.00	807.00	841.00	814.00	790.00	773.00	761.00	757.00	750.00	753.00	748.00	758.00	767.00	771.00	773.00	770.00	793.00	806.00	813.00	814.00	814.00	830.00	823.00	800.00	791.00	804.00	793.00	784.00	814.00	835.00	808.00	787.00	793.00	776.00	762.00	752.00	746.00	736.00	732.00	728.00	724.00	716.00	713.00	709.00	706.00	703.00	696.00	689.00	687.00	685.00	684.00	683.00	686.00	690.00	692.00	698.00	697.00	691.00	673.00	669.00	671.00	674.00	676.00	679.00	684.00	687.00	690.00	692.00	715.00	723.00	732.00	717.00	693.00	691.00	683.00	680.00	678.00	678.00	680.00	679.00	677.00	675.00	673.00	675.00	679.00	680.00	684.00	686.00	689.00	691.00	701.00	705.00	718.00	725.00	727.00	712.00	705.00	705.00	701.00	696.00	684.00	684.00	684.00
735.00	742.00	742.00	739.00	737.00	734.00	741.00	739.00	740.00	747.00	761.00	768.00	775.00	783.00	813.00	826.00	805.00	794.00	790.00	795.00	791.00	790.00	833.00	814.00	791.00	809.00	831.00	846.00	834.00	816.00	801.00	781.00	801.00	841.00	832.00	812.00	807.00	781.00	761.00	755.00	750.00	743.00	747.00	749.00	740.00	724.00	722.00	721.00	720.00	720.00	721.00	722.00	723.00	728.00	744.00	744.00	743.00	743.00	747.00	753.00	753.00	750.00	753.00	757.00	734.00	726.00	737.00	727.00	723.00	716.00	713.00	727.00	736.00	744.00	735.00	728.00	724.00	717.00	716.00	717.00	720.00	725.00	723.00	724.00	722.00	730.00	749.00	766.00	774.00	778.00	776.00	757.00	745.00	751.00	743.00	726.00	741.00	739.00	733.00	713.00	686.00	684.00	680.00	677.00	674.00	674.00	679.00	683.00	687.00	695.00	701.00	707.00	711.00	712.00	703.00	702.00	706.00	712.00	717.00	721.00	729.00	733.00	755.00	764.00	777.00	778.00	781.00	803.00	808.00	806.00	794.00	792.00	795.00	809.00	822.00	829.00	861.00	872.00	868.00	864.00	837.00	833.00	821.00	824.00	821.00	855.00	853.00	857.00	846.00	812.00	805.00	811.00	828.00	826.00	815.00	835.00	860.00	847.00	775.00	766.00	760.00	759.00	763.00	752.00	752.00	756.00	758.00	762.00	770.00	801.00	820.00	829.00	820.00	826.00	808.00	801.00	796.00	787.00	779.00	777.00	775.00	796.00	810.00	815.00	804.00	832.00	841.00	791.00	761.00	748.00	734.00	731.00	727.00	723.00	717.00	713.00	710.00	706.00	703.00	695.00	690.00	688.00	687.00	683.00	681.00	682.00	683.00	685.00	693.00	692.00	683.00	671.00	671.00	673.00	677.00	680.00	682.00	687.00	690.00	694.00	697.00	719.00	727.00	723.00	713.00	690.00	686.00	684.00	684.00	680.00	681.00	683.00	683.00	680.00	677.00	675.00	677.00	682.00	683.00	684.00	687.00	690.00	695.00	703.00	706.00	710.00	719.00	738.00	734.00	718.00	708.00	697.00	687.00	681.00	680.00	677.00
735.00	742.00	742.00	739.00	737.00	734.00	741.00	739.00	740.00	747.00	761.00	768.00	775.00	783.00	813.00	826.00	805.00	794.00	790.00	795.00	791.00	790.00	833.00	814.00	791.00	809.00	831.00	846.00	834.00	816.00	801.00	781.00	801.00	841.00	832.00	812.00	807.00	781.00	761.00	755.00	750.00	743.00	747.00	749.00	740.00	724.00	722.00	721.00	720.00	720.00	721.00	722.00	723.00	728.00	744.00	744.00	743.00	743.00	747.00	753.00	753.00	750.00	753.00	757.00	734.00	726.00	737.00	727.00	723.00	716.00	713.00	727.00	736.00	744.00	735.00	728.00	724.00	717.00	716.00	717.00	720.00	725.00	723.00	724.00	722.00	730.00	749.00	766.00	774.00	778.00	776.00	757.00	745.00	751.00	743.00	726.00	741.00	739.00	733.00	713.00	686.00	684.00	680.00	677.00	674.00	674.00	679.00	683.00	687.00	695.00	701.00	707.00	711.00	712.00	703.00	702.00	706.00	712.00	717.00	721.00	729.00	733.00	755.00	764.00	777.00	778.00	781.00	803.00	808.00	806.00	794.00	792.00	795.00	809.00	822.00	829.00	861.00	872.00	868.00	864.00	837.00	833.00	821.00	824.00	821.00	855.00	853.00	857.00	846.00	812.00	805.00	811.00	828.00	826.00	815.00	835.00	860.00	847.00	775.00	766.00	760.00	759.00	763.00	752.00	752.00	756.00	758.00	762.00	770.00	801.00	820.00	829.00	820.00	826.00	808.00	801.00	796.00	787.00	779.00	777.00	775.00	796.00	810.00	815.00	804.00	832.00	841.00	791.00	761.00	748.00	734.00	731.00	727.00	723.00	717.00	713.00	710.00	706.00	703.00	695.00	690.00	688.00	687.00	683.00	681.00	682.00	683.00	685.00	693.00	692.00	683.00	671.00	671.00	673.00	677.00	680.00	682.00	687.00	690.00	694.00	697.00	719.00	727.00	723.00	713.00	690.00	686.00	684.00	684.00	680.00	681.00	683.00	683.00	680.00	677.00	675.00	677.00	682.00	683.00	684.00	687.00	690.00	695.00	703.00	706.00	710.00	719.00	738.00	734.00	718.00	708.00	697.00	687.00	681.00	680.00	677.00
734.00	735.00	736.00	740.00	746.00	746.00	757.00	752.00	755.00	766.00	780.00	781.00	795.00	806.00	828.00	813.00	810.00	832.00	832.00	811.00	818.00	802.00	835.00	819.00	797.00	808.00	828.00	834.00	812.00	797.00	786.00	787.00	813.00	821.00	807.00	809.00	824.00	807.00	786.00	778.00	768.00	757.00	776.00	763.00	741.00	728.00	724.00	723.00	722.00	723.00	723.00	724.00	724.00	726.00	738.00	748.00	747.00	748.00	758.00	769.00	766.00	772.00	762.00	773.00	736.00	736.00	742.00	731.00	738.00	722.00	717.00	724.00	739.00	745.00	744.00	743.00	730.00	719.00	720.00	726.00	732.00	734.00	732.00	731.00	724.00	725.00	743.00	743.00	756.00	758.00	761.00	769.00	749.00	735.00	731.00	736.00	728.00	725.00	720.00	702.00	688.00	686.00	681.00	680.00	677.00	678.00	676.00	679.00	682.00	690.00	696.00	697.00	698.00	696.00	700.00	708.00	714.00	716.00	713.00	718.00	726.00	732.00	772.00	758.00	761.00	765.00	765.00	782.00	786.00	791.00	783.00	786.00	793.00	800.00	810.00	826.00	856.00	846.00	842.00	839.00	821.00	818.00	813.00	819.00	819.00	817.00	829.00	831.00	853.00	846.00	819.00	831.00	852.00	872.00	845.00	885.00	877.00	877.00	788.00	774.00	768.00	771.00	766.00	757.00	754.00	753.00	754.00	764.00	769.00	791.00	798.00	815.00	811.00	820.00	814.00	795.00	778.00	777.00	771.00	765.00	769.00	773.00	783.00	788.00	780.00	799.00	818.00	791.00	765.00	750.00	730.00	728.00	724.00	721.00	715.00	712.00	709.00	704.00	701.00	696.00	691.00	690.00	688.00	683.00	680.00	678.00	678.00	680.00	681.00	678.00	675.00	674.00	674.00	675.00	679.00	682.00	688.00	691.00	693.00	695.00	699.00	722.00	726.00	716.00	704.00	695.00	691.00	690.00	690.00	690.00	686.00	685.00	684.00	681.00	678.00	677.00	680.00	685.00	690.00	697.00	703.00	702.00	706.00	723.00	712.00	715.00	724.00	734.00	728.00	718.00	705.00	700.00	688.00	697.00	705.00	691.00
735.00	740.00	741.00	743.00	748.00	756.00	764.00	771.00	783.00	803.00	817.00	836.00	872.00	895.00	934.00	890.00	880.00	884.00	857.00	837.00	845.00	867.00	873.00	856.00	817.00	825.00	838.00	825.00	805.00	798.00	815.00	820.00	807.00	777.00	772.00	776.00	778.00	767.00	760.00	757.00	748.00	740.00	737.00	734.00	739.00	747.00	728.00	728.00	727.00	728.00	729.00	729.00	729.00	730.00	730.00	739.00	744.00	758.00	771.00	779.00	777.00	779.00	785.00	780.00	764.00	752.00	740.00	732.00	728.00	725.00	725.00	734.00	744.00	728.00	731.00	725.00	724.00	728.00	739.00	752.00	770.00	760.00	741.00	732.00	730.00	732.00	734.00	735.00	739.00	750.00	752.00	771.00	761.00	751.00	747.00	741.00	725.00	716.00	714.00	703.00	691.00	688.00	685.00	684.00	689.00	687.00	678.00	678.00	680.00	684.00	686.00	690.00	693.00	693.00	690.00	692.00	696.00	709.00	712.00	714.00	717.00	721.00	730.00	730.00	731.00	733.00	739.00	766.00	780.00	787.00	774.00	777.00	777.00	787.00	798.00	815.00	875.00	836.00	820.00	812.00	805.00	801.00	798.00	800.00	805.00	798.00	810.00	833.00	870.00	910.00	883.00	896.00	961.00	1021.00	959.00	894.00	863.00	845.00	804.00	794.00	787.00	781.00	775.00	766.00	765.00	763.00	762.00	765.00	770.00	780.00	783.00	786.00	792.00	800.00	801.00	796.00	779.00	777.00	773.00	758.00	752.00	761.00	775.00	774.00	766.00	751.00	755.00	749.00	744.00	740.00	722.00	718.00	717.00	715.00	711.00	708.00	706.00	703.00	701.00	696.00	701.00	691.00	684.00	681.00	680.00	679.00	679.00	677.00	676.00	678.00	677.00	681.00	684.00	688.00	689.00	697.00	707.00	709.00	706.00	709.00	711.00	718.00	732.00	725.00	733.00	724.00	711.00	703.00	702.00	699.00	694.00	692.00	686.00	683.00	698.00	706.00	700.00	701.00	703.00	706.00	708.00	716.00	721.00	757.00	741.00	726.00	736.00	738.00	715.00	705.00	702.00	707.00	710.00	713.00	707.00	704.00
735.00	740.00	741.00	743.00	748.00	756.00	764.00	771.00	783.00	803.00	817.00	836.00	872.00	895.00	934.00	890.00	880.00	884.00	857.00	837.00	845.00	867.00	873.00	856.00	817.00	825.00	838.00	825.00	805.00	798.00	815.00	820.00	807.00	777.00	772.00	776.00	778.00	767.00	760.00	757.00	748.00	740.00	737.00	734.00	739.00	747.00	728.00	728.00	727.00	728.00	729.00	729.00	729.00	730.00	730.00	739.00	744.00	758.00	771.00	779.00	777.00	779.00	785.00	780.00	764.00	752.00	740.00	732.00	728.00	725.00	725.00	734.00	744.00	728.00	731.00	725.00	724.00	728.00	739.00	752.00	770.00	760.00	741.00	732.00	730.00	732.00	734.00	735.00	739.00	750.00	752.00	771.00	761.00	751.00	747.00	741.00	725.00	716.00	714.00	703.00	691.00	688.00	685.00	684.00	689.00	687.00	678.00	678.00	680.00	684.00	686.00	690.00	693.00	693.00	690.00	692.00	696.00	709.00	712.00	714.00	717.00	721.00	730.00	730.00	731.00	733.00	739.00	766.00	780.00	787.00	774.00	777.00	777.00	787.00	798.00	815.00	875.00	836.00	820.00	812.00	805.00	801.00	798.00	800.00	805.00	798.00	810.00	833.00	870.00	910.00	883.00	896.00	961.00	1021.00	959.00	894.00	863.00	845.00	804.00	794.00	787.00	781.00	775.00	766.00	765.00	763.00	762.00	765.00	770.00	780.00	783.00	786.00	792.00	800.00	801.00	796.00	779.00	777.00	773.00	758.00	752.00	761.00	775.00	774.00	766.00	751.00	755.00	749.00	744.00	740.00	722.00	718.00	717.00	715.00	711.00	708.00	706.00	703.00	701.00	696.00	701.00	691.00	684.00	681.00	680.00	679.00	679.00	677.00	676.00	678.00	677.00	681.00	684.00	688.00	689.00	697.00	707.00	709.00	706.00	709.00	711.00	718.00	732.00	725.00	733.00	724.00	711.00	703.00	702.00	699.00	694.00	692.00	686.00	683.00	698.00	706.00	700.00	701.00	703.00	706.00	708.00	716.00	721.00	757.00	741.00	726.00	736.00	738.00	715.00	705.00	702.00	707.00	710.00	713.00	707.00	704.00
735.00	740.00	741.00	743.00	748.00	756.00	764.00	771.00	783.00	803.00	817.00	836.00	872.00	895.00	934.00	890.00	880.00	884.00	857.00	837.00	845.00	867.00	873.00	856.00	817.00	825.00	838.00	825.00	805.00	798.00	815.00	820.00	807.00	777.00	772.00	776.00	778.00	767.00	760.00	757.00	748.00	740.00	737.00	734.00	739.00	747.00	728.00	728.00	727.00	728.00	729.00	729.00	729.00	730.00	730.00	739.00	744.00	758.00	771.00	779.00	777.00	779.00	785.00	780.00	764.00	752.00	740.00	732.00	728.00	725.00	725.00	734.00	744.00	728.00	731.00	725.00	724.00	728.00	739.00	752.00	770.00	760.00	741.00	732.00	730.00	732.00	734.00	735.00	739.00	750.00	752.00	771.00	761.00	751.00	747.00	741.00	725.00	716.00	714.00	703.00	691.00	688.00	685.00	684.00	689.00	687.00	678.00	678.00	680.00	684.00	686.00	690.00	693.00	693.00	690.00	692.00	696.00	709.00	712.00	714.00	717.00	721.00	730.00	730.00	731.00	733.00	739.00	766.00	780.00	787.00	774.00	777.00	777.00	787.00	798.00	815.00	875.00	836.00	820.00	812.00	805.00	801.00	798.00	800.00	805.00	798.00	810.00	833.00	870.00	910.00	883.00	896.00	961.00	1021.00	959.00	894.00	863.00	845.00	804.00	794.00	787.00	781.00	775.00	766.00	765.00	763.00	762.00	765.00	770.00	780.00	783.00	786.00	792.00	800.00	801.00	796.00	779.00	777.00	773.00	758.00	752.00	761.00	775.00	774.00	766.00	751.00	755.00	749.00	744.00	740.00	722.00	718.00	717.00	715.00	711.00	708.00	706.00	703.00	701.00	696.00	701.00	691.00	684.00	681.00	680.00	679.00	679.00	677.00	676.00	678.00	677.00	681.00	684.00	688.00	689.00	697.00	707.00	709.00	706.00	709.00	711.00	718.00	732.00	725.00	733.00	724.00	711.00	703.00	702.00	699.00	694.00	692.00	686.00	683.00	698.00	706.00	700.00	701.00	703.00	706.00	708.00	716.00	721.00	757.00	741.00	726.00	736.00	738.00	715.00	705.00	702.00	707.00	710.00	713.00	707.00	704.00
738.00	743.00	748.00	748.00	750.00	755.00	760.00	769.00	777.00	780.00	796.00	819.00	858.00	871.00	880.00	856.00	858.00	882.00	888.00	888.00	877.00	905.00	861.00	854.00	832.00	858.00	865.00	849.00	809.00	810.00	834.00	847.00	836.00	777.00	767.00	766.00	767.00	757.00	751.00	748.00	748.00	742.00	740.00	750.00	772.00	793.00	735.00	733.00	732.00	731.00	731.00	732.00	732.00	732.00	733.00	744.00	749.00	753.00	760.00	765.00	761.00	762.00	766.00	772.00	758.00	758.00	760.00	755.00	749.00	729.00	735.00	742.00	748.00	735.00	739.00	728.00	727.00	730.00	740.00	764.00	766.00	749.00	739.00	743.00	753.00	743.00	739.00	738.00	737.00	740.00	746.00	764.00	773.00	773.00	753.00	737.00	730.00	725.00	712.00	710.00	692.00	690.00	687.00	687.00	690.00	690.00	680.00	680.00	680.00	683.00	683.00	685.00	689.00	686.00	688.00	692.00	698.00	707.00	711.00	717.00	721.00	725.00	724.00	724.00	723.00	730.00	733.00	753.00	767.00	774.00	766.00	766.00	773.00	780.00	791.00	800.00	837.00	846.00	830.00	833.00	809.00	802.00	797.00	792.00	792.00	796.00	818.00	825.00	839.00	871.00	858.00	880.00	953.00	1011.00	937.00	929.00	869.00	864.00	805.00	799.00	794.00	784.00	778.00	771.00	769.00	767.00	777.00	787.00	782.00	780.00	791.00	796.00	793.00	796.00	802.00	807.00	795.00	774.00	762.00	756.00	743.00	743.00	747.00	750.00	751.00	739.00	738.00	734.00	732.00	730.00	716.00	713.00	712.00	712.00	707.00	704.00	702.00	700.00	698.00	695.00	697.00	691.00	686.00	683.00	682.00	681.00	680.00	679.00	680.00	680.00	686.00	691.00	690.00	692.00	697.00	702.00	708.00	710.00	714.00	718.00	726.00	729.00	725.00	731.00	747.00	725.00	717.00	712.00	709.00	706.00	698.00	694.00	687.00	685.00	695.00	705.00	705.00	706.00	708.00	710.00	712.00	717.00	723.00	756.00	742.00	735.00	749.00	741.00	714.00	707.00	720.00	740.00	724.00	723.00	715.00	709.00
742.00	744.00	749.00	749.00	753.00	754.00	767.00	772.00	780.00	792.00	798.00	806.00	833.00	849.00	839.00	829.00	839.00	860.00	874.00	876.00	875.00	884.00	934.00	900.00	847.00	847.00	866.00	843.00	815.00	820.00	828.00	849.00	850.00	794.00	778.00	771.00	765.00	753.00	749.00	747.00	747.00	748.00	745.00	768.00	792.00	798.00	744.00	739.00	735.00	732.00	734.00	735.00	735.00	734.00	735.00	738.00	742.00	744.00	746.00	749.00	765.00	770.00	770.00	775.00	765.00	754.00	746.00	744.00	741.00	738.00	761.00	777.00	758.00	745.00	743.00	731.00	730.00	734.00	738.00	746.00	755.00	750.00	760.00	769.00	772.00	757.00	743.00	743.00	742.00	741.00	744.00	762.00	767.00	763.00	746.00	722.00	719.00	710.00	706.00	707.00	692.00	691.00	690.00	686.00	689.00	692.00	682.00	681.00	682.00	683.00	684.00	684.00	685.00	692.00	693.00	695.00	697.00	703.00	707.00	714.00	728.00	725.00	714.00	718.00	728.00	729.00	728.00	750.00	757.00	761.00	753.00	763.00	770.00	782.00	806.00	816.00	844.00	864.00	850.00	859.00	854.00	824.00	796.00	788.00	785.00	791.00	802.00	808.00	822.00	834.00	848.00	871.00	917.00	934.00	921.00	938.00	910.00	859.00	814.00	813.00	799.00	789.00	784.00	777.00	773.00	771.00	776.00	801.00	811.00	807.00	807.00	805.00	797.00	792.00	795.00	798.00	786.00	776.00	779.00	774.00	761.00	737.00	735.00	735.00	735.00	732.00	730.00	728.00	724.00	721.00	714.00	711.00	709.00	707.00	703.00	701.00	701.00	698.00	696.00	694.00	695.00	689.00	687.00	685.00	683.00	682.00	680.00	680.00	681.00	682.00	684.00	697.00	693.00	695.00	699.00	703.00	711.00	716.00	721.00	728.00	739.00	749.00	733.00	733.00	743.00	737.00	724.00	719.00	715.00	710.00	702.00	696.00	689.00	686.00	690.00	699.00	705.00	708.00	713.00	718.00	721.00	724.00	735.00	759.00	747.00	749.00	756.00	736.00	713.00	724.00	740.00	748.00	731.00	724.00	712.00	709.00
752.00	750.00	750.00	753.00	755.00	757.00	760.00	764.00	771.00	779.00	782.00	795.00	827.00	816.00	814.00	848.00	851.00	862.00	850.00	844.00	852.00	869.00	910.00	912.00	889.00	899.00	879.00	844.00	846.00	842.00	852.00	851.00	849.00	792.00	786.00	777.00	766.00	755.00	752.00	752.00	752.00	754.00	754.00	800.00	784.00	767.00	748.00	743.00	738.00	735.00	736.00	737.00	738.00	738.00	748.00	744.00	746.00	750.00	748.00	752.00	766.00	774.00	778.00	787.00	760.00	749.00	747.00	749.00	744.00	743.00	749.00	755.00	747.00	739.00	738.00	733.00	733.00	739.00	741.00	744.00	746.00	749.00	762.00	780.00	790.00	762.00	751.00	750.00	745.00	744.00	744.00	754.00	756.00	738.00	733.00	718.00	715.00	706.00	701.00	699.00	699.00	700.00	691.00	687.00	684.00	687.00	683.00	683.00	687.00	699.00	688.00	685.00	686.00	691.00	693.00	696.00	696.00	699.00	698.00	702.00	708.00	709.00	714.00	719.00	722.00	722.00	725.00	746.00	756.00	759.00	746.00	776.00	795.00	793.00	806.00	828.00	853.00	846.00	841.00	830.00	839.00	814.00	792.00	785.00	781.00	792.00	796.00	802.00	812.00	823.00	846.00	851.00	878.00	878.00	882.00	884.00	875.00	848.00	829.00	808.00	796.00	790.00	785.00	782.00	775.00	773.00	785.00	798.00	807.00	825.00	819.00	809.00	795.00	788.00	794.00	798.00	785.00	785.00	796.00	782.00	753.00	769.00	748.00	732.00	730.00	727.00	724.00	721.00	720.00	717.00	721.00	720.00	712.00	707.00	703.00	702.00	700.00	698.00	697.00	694.00	691.00	690.00	689.00	685.00	684.00	682.00	681.00	682.00	683.00	683.00	684.00	689.00	693.00	696.00	701.00	706.00	712.00	722.00	731.00	739.00	741.00	744.00	744.00	750.00	769.00	760.00	739.00	726.00	718.00	712.00	702.00	696.00	689.00	686.00	695.00	705.00	716.00	718.00	731.00	726.00	736.00	734.00	736.00	780.00	762.00	750.00	743.00	734.00	718.00	736.00	749.00	740.00	731.00	723.00	710.00	703.00
769.00	755.00	756.00	753.00	754.00	761.00	765.00	765.00	764.00	771.00	779.00	791.00	801.00	799.00	804.00	844.00	850.00	836.00	835.00	836.00	853.00	864.00	868.00	867.00	900.00	917.00	904.00	875.00	912.00	903.00	884.00	858.00	843.00	807.00	794.00	789.00	781.00	763.00	763.00	757.00	758.00	760.00	763.00	779.00	774.00	789.00	756.00	747.00	741.00	738.00	738.00	740.00	740.00	740.00	743.00	757.00	765.00	762.00	763.00	757.00	772.00	770.00	779.00	779.00	759.00	766.00	774.00	773.00	761.00	752.00	748.00	743.00	744.00	742.00	740.00	736.00	736.00	741.00	744.00	748.00	753.00	756.00	764.00	771.00	783.00	773.00	764.00	761.00	752.00	749.00	746.00	753.00	752.00	739.00	730.00	713.00	706.00	706.00	707.00	713.00	704.00	703.00	692.00	688.00	686.00	686.00	685.00	685.00	688.00	704.00	693.00	689.00	689.00	688.00	689.00	690.00	697.00	696.00	698.00	699.00	701.00	702.00	714.00	713.00	718.00	721.00	724.00	733.00	738.00	743.00	748.00	770.00	788.00	790.00	795.00	811.00	850.00	833.00	840.00	820.00	804.00	795.00	785.00	781.00	778.00	789.00	792.00	796.00	809.00	827.00	831.00	834.00	838.00	843.00	847.00	842.00	837.00	828.00	812.00	805.00	795.00	791.00	787.00	790.00	779.00	781.00	782.00	787.00	794.00	810.00	807.00	810.00	794.00	787.00	793.00	798.00	796.00	789.00	787.00	778.00	759.00	766.00	748.00	738.00	739.00	742.00	734.00	723.00	720.00	718.00	717.00	721.00	720.00	709.00	703.00	705.00	703.00	701.00	700.00	696.00	691.00	691.00	688.00	686.00	682.00	682.00	684.00	684.00	685.00	685.00	685.00	689.00	698.00	701.00	706.00	712.00	718.00	730.00	745.00	762.00	758.00	761.00	763.00	756.00	767.00	765.00	738.00	732.00	726.00	713.00	701.00	697.00	688.00	693.00	707.00	718.00	734.00	733.00	743.00	744.00	740.00	758.00	749.00	772.00	750.00	746.00	740.00	728.00	729.00	739.00	746.00	735.00	720.00	718.00	709.00	705.00
769.00	755.00	756.00	753.00	754.00	761.00	765.00	765.00	764.00	771.00	779.00	791.00	801.00	799.00	804.00	844.00	850.00	836.00	835.00	836.00	853.00	864.00	868.00	867.00	900.00	917.00	904.00	875.00	912.00	903.00	884.00	858.00	843.00	807.00	794.00	789.00	781.00	763.00	763.00	757.00	758.00	760.00	763.00	779.00	774.00	789.00	756.00	747.00	741.00	738.00	738.00	740.00	740.00	740.00	743.00	757.00	765.00	762.00	763.00	757.00	772.00	770.00	779.00	779.00	759.00	766.00	774.00	773.00	761.00	752.00	748.00	743.00	744.00	742.00	740.00	736.00	736.00	741.00	744.00	748.00	753.00	756.00	764.00	771.00	783.00	773.00	764.00	761.00	752.00	749.00	746.00	753.00	752.00	739.00	730.00	713.00	706.00	706.00	707.00	713.00	704.00	703.00	692.00	688.00	686.00	686.00	685.00	685.00	688.00	704.00	693.00	689.00	689.00	688.00	689.00	690.00	697.00	696.00	698.00	699.00	701.00	702.00	714.00	713.00	718.00	721.00	724.00	733.00	738.00	743.00	748.00	770.00	788.00	790.00	795.00	811.00	850.00	833.00	840.00	820.00	804.00	795.00	785.00	781.00	778.00	789.00	792.00	796.00	809.00	827.00	831.00	834.00	838.00	843.00	847.00	842.00	837.00	828.00	812.00	805.00	795.00	791.00	787.00	790.00	779.00	781.00	782.00	787.00	794.00	810.00	807.00	810.00	794.00	787.00	793.00	798.00	796.00	789.00	787.00	778.00	759.00	766.00	748.00	738.00	739.00	742.00	734.00	723.00	720.00	718.00	717.00	721.00	720.00	709.00	703.00	705.00	703.00	701.00	700.00	696.00	691.00	691.00	688.00	686.00	682.00	682.00	684.00	684.00	685.00	685.00	685.00	689.00	698.00	701.00	706.00	712.00	718.00	730.00	745.00	762.00	758.00	761.00	763.00	756.00	767.00	765.00	738.00	732.00	726.00	713.00	701.00	697.00	688.00	693.00	707.00	718.00	734.00	733.00	743.00	744.00	740.00	758.00	749.00	772.00	750.00	746.00	740.00	728.00	729.00	739.00	746.00	735.00	720.00	718.00	709.00	705.00
847.00	772.00	767.00	763.00	759.00	764.00	796.00	801.00	787.00	778.00	782.00	784.00	801.00	819.00	823.00	830.00	813.00	814.00	817.00	819.00	826.00	829.00	832.00	835.00	847.00	843.00	839.00	854.00	874.00	858.00	846.00	843.00	847.00	804.00	794.00	784.00	779.00	776.00	769.00	771.00	770.00	769.00	783.00	803.00	820.00	849.00	786.00	759.00	752.00	750.00	747.00	745.00	745.00	746.00	749.00	765.00	763.00	766.00	769.00	777.00	787.00	808.00	815.00	795.00	787.00	804.00	801.00	793.00	780.00	787.00	776.00	759.00	754.00	746.00	743.00	745.00	751.00	757.00	762.00	765.00	761.00	765.00	762.00	763.00	769.00	785.00	804.00	794.00	777.00	762.00	766.00	741.00	734.00	729.00	724.00	731.00	729.00	740.00	726.00	731.00	729.00	733.00	711.00	696.00	690.00	689.00	687.00	688.00	689.00	704.00	712.00	720.00	718.00	707.00	701.00	697.00	695.00	693.00	695.00	698.00	702.00	706.00	707.00	710.00	711.00	712.00	713.00	740.00	733.00	737.00	743.00	758.00	761.00	771.00	785.00	801.00	831.00	802.00	790.00	775.00	769.00	773.00	771.00	768.00	774.00	786.00	791.00	799.00	805.00	809.00	811.00	813.00	818.00	823.00	856.00	851.00	824.00	809.00	799.00	801.00	802.00	795.00	789.00	779.00	776.00	775.00	783.00	783.00	788.00	789.00	788.00	779.00	778.00	789.00	795.00	797.00	796.00	789.00	790.00	791.00	778.00	760.00	757.00	777.00	767.00	736.00	736.00	733.00	725.00	723.00	722.00	719.00	722.00	726.00	723.00	718.00	714.00	712.00	710.00	711.00	709.00	704.00	698.00	690.00	687.00	684.00	685.00	687.00	689.00	688.00	689.00	696.00	702.00	706.00	710.00	716.00	723.00	747.00	779.00	800.00	787.00	751.00	744.00	739.00	739.00	735.00	732.00	737.00	726.00	715.00	705.00	702.00	693.00	699.00	710.00	712.00	715.00	719.00	724.00	739.00	745.00	760.00	769.00	778.00	762.00	754.00	758.00	744.00	763.00	768.00	755.00	743.00	747.00	744.00	720.00	709.00
847.00	772.00	767.00	763.00	759.00	764.00	796.00	801.00	787.00	778.00	782.00	784.00	801.00	819.00	823.00	830.00	813.00	814.00	817.00	819.00	826.00	829.00	832.00	835.00	847.00	843.00	839.00	854.00	874.00	858.00	846.00	843.00	847.00	804.00	794.00	784.00	779.00	776.00	769.00	771.00	770.00	769.00	783.00	803.00	820.00	849.00	786.00	759.00	752.00	750.00	747.00	745.00	745.00	746.00	749.00	765.00	763.00	766.00	769.00	777.00	787.00	808.00	815.00	795.00	787.00	804.00	801.00	793.00	780.00	787.00	776.00	759.00	754.00	746.00	743.00	745.00	751.00	757.00	762.00	765.00	761.00	765.00	762.00	763.00	769.00	785.00	804.00	794.00	777.00	762.00	766.00	741.00	734.00	729.00	724.00	731.00	729.00	740.00	726.00	731.00	729.00	733.00	711.00	696.00	690.00	689.00	687.00	688.00	689.00	704.00	712.00	720.00	718.00	707.00	701.00	697.00	695.00	693.00	695.00	698.00	702.00	706.00	707.00	710.00	711.00	712.00	713.00	740.00	733.00	737.00	743.00	758.00	761.00	771.00	785.00	801.00	831.00	802.00	790.00	775.00	769.00	773.00	771.00	768.00	774.00	786.00	791.00	799.00	805.00	809.00	811.00	813.00	818.00	823.00	856.00	851.00	824.00	809.00	799.00	801.00	802.00	795.00	789.00	779.00	776.00	775.00	783.00	783.00	788.00	789.00	788.00	779.00	778.00	789.00	795.00	797.00	796.00	789.00	790.00	791.00	778.00	760.00	757.00	777.00	767.00	736.00	736.00	733.00	725.00	723.00	722.00	719.00	722.00	726.00	723.00	718.00	714.00	712.00	710.00	711.00	709.00	704.00	698.00	690.00	687.00	684.00	685.00	687.00	689.00	688.00	689.00	696.00	702.00	706.00	710.00	716.00	723.00	747.00	779.00	800.00	787.00	751.00	744.00	739.00	739.00	735.00	732.00	737.00	726.00	715.00	705.00	702.00	693.00	699.00	710.00	712.00	715.00	719.00	724.00	739.00	745.00	760.00	769.00	778.00	762.00	754.00	758.00	744.00	763.00	768.00	755.00	743.00	747.00	744.00	720.00	709.00
878.00	780.00	771.00	766.00	765.00	767.00	774.00	788.00	799.00	790.00	782.00	783.00	793.00	798.00	802.00	808.00	804.00	810.00	809.00	814.00	817.00	818.00	822.00	823.00	826.00	826.00	839.00	856.00	869.00	853.00	834.00	829.00	825.00	798.00	789.00	788.00	797.00	789.00	786.00	797.00	784.00	778.00	788.00	804.00	816.00	839.00	810.00	769.00	761.00	757.00	753.00	748.00	748.00	748.00	753.00	761.00	763.00	768.00	775.00	786.00	791.00	798.00	805.00	793.00	800.00	794.00	784.00	777.00	775.00	771.00	763.00	755.00	758.00	749.00	746.00	752.00	762.00	767.00	778.00	788.00	779.00	779.00	771.00	767.00	770.00	788.00	802.00	789.00	776.00	759.00	757.00	739.00	732.00	728.00	730.00	744.00	751.00	758.00	753.00	748.00	725.00	721.00	714.00	702.00	692.00	689.00	688.00	689.00	692.00	711.00	724.00	745.00	774.00	717.00	707.00	701.00	699.00	697.00	696.00	697.00	698.00	699.00	705.00	706.00	708.00	710.00	714.00	727.00	731.00	737.00	740.00	753.00	761.00	769.00	777.00	800.00	798.00	778.00	766.00	758.00	766.00	766.00	766.00	769.00	774.00	793.00	792.00	795.00	798.00	802.00	804.00	807.00	808.00	812.00	822.00	818.00	812.00	801.00	798.00	791.00	793.00	787.00	784.00	775.00	774.00	772.00	777.00	782.00	781.00	779.00	782.00	781.00	774.00	780.00	782.00	791.00	785.00	786.00	792.00	790.00	773.00	764.00	763.00	777.00	767.00	749.00	748.00	733.00	726.00	734.00	727.00	729.00	722.00	723.00	726.00	732.00	736.00	728.00	718.00	727.00	737.00	714.00	704.00	692.00	690.00	692.00	692.00	694.00	692.00	691.00	692.00	701.00	706.00	709.00	714.00	720.00	727.00	760.00	782.00	796.00	781.00	746.00	741.00	735.00	731.00	728.00	724.00	721.00	717.00	713.00	706.00	698.00	699.00	706.00	714.00	720.00	725.00	726.00	727.00	735.00	740.00	752.00	769.00	784.00	778.00	773.00	772.00	757.00	747.00	745.00	740.00	732.00	737.00	728.00	718.00	708.00
825.00	781.00	786.00	779.00	777.00	781.00	781.00	778.00	781.00	783.00	781.00	783.00	789.00	792.00	796.00	798.00	799.00	797.00	802.00	807.00	813.00	818.00	810.00	813.00	816.00	826.00	842.00	856.00	857.00	838.00	826.00	817.00	816.00	813.00	806.00	809.00	826.00	801.00	811.00	827.00	824.00	793.00	793.00	824.00	858.00	895.00	819.00	782.00	770.00	763.00	758.00	751.00	750.00	751.00	755.00	759.00	762.00	766.00	771.00	779.00	813.00	819.00	811.00	800.00	801.00	791.00	783.00	772.00	767.00	761.00	760.00	760.00	759.00	754.00	752.00	754.00	764.00	789.00	786.00	796.00	807.00	794.00	775.00	780.00	782.00	784.00	796.00	786.00	778.00	772.00	757.00	744.00	740.00	734.00	750.00	748.00	757.00	756.00	751.00	738.00	725.00	727.00	715.00	705.00	693.00	691.00	690.00	691.00	695.00	715.00	729.00	747.00	774.00	724.00	711.00	710.00	703.00	711.00	700.00	699.00	697.00	699.00	703.00	709.00	712.00	712.00	714.00	725.00	731.00	749.00	743.00	749.00	754.00	759.00	768.00	792.00	764.00	755.00	755.00	766.00	771.00	776.00	779.00	780.00	775.00	784.00	788.00	789.00	792.00	796.00	798.00	799.00	800.00	799.00	799.00	797.00	799.00	795.00	793.00	800.00	794.00	787.00	780.00	773.00	770.00	768.00	769.00	774.00	775.00	773.00	774.00	773.00	771.00	772.00	775.00	776.00	784.00	800.00	805.00	806.00	795.00	784.00	767.00	760.00	752.00	763.00	742.00	735.00	735.00	746.00	735.00	748.00	739.00	742.00	736.00	750.00	759.00	748.00	731.00	738.00	720.00	709.00	702.00	701.00	705.00	706.00	705.00	702.00	698.00	693.00	696.00	702.00	710.00	714.00	718.00	724.00	733.00	751.00	769.00	771.00	762.00	738.00	735.00	730.00	727.00	724.00	722.00	719.00	716.00	712.00	700.00	696.00	704.00	711.00	721.00	729.00	736.00	738.00	735.00	737.00	752.00	769.00	783.00	777.00	780.00	779.00	770.00	757.00	740.00	740.00	733.00	731.00	720.00	718.00	710.00	705.00
803.00	787.00	790.00	802.00	802.00	801.00	818.00	815.00	788.00	784.00	781.00	788.00	797.00	794.00	792.00	795.00	794.00	792.00	795.00	803.00	800.00	801.00	803.00	811.00	810.00	815.00	818.00	827.00	825.00	822.00	815.00	810.00	810.00	809.00	812.00	826.00	837.00	831.00	836.00	853.00	825.00	793.00	802.00	846.00	875.00	867.00	806.00	784.00	774.00	768.00	763.00	754.00	756.00	760.00	767.00	779.00	768.00	771.00	774.00	786.00	824.00	831.00	828.00	824.00	803.00	792.00	779.00	773.00	781.00	767.00	766.00	765.00	763.00	756.00	754.00	759.00	772.00	808.00	827.00	835.00	843.00	812.00	783.00	795.00	797.00	796.00	815.00	821.00	806.00	793.00	768.00	757.00	749.00	744.00	755.00	753.00	745.00	746.00	746.00	739.00	741.00	739.00	732.00	715.00	693.00	692.00	691.00	694.00	699.00	711.00	722.00	735.00	742.00	726.00	723.00	724.00	713.00	719.00	703.00	702.00	701.00	700.00	703.00	707.00	712.00	723.00	721.00	725.00	744.00	755.00	743.00	741.00	744.00	748.00	753.00	763.00	750.00	762.00	784.00	811.00	783.00	786.00	786.00	788.00	787.00	782.00	783.00	785.00	789.00	792.00	793.00	793.00	793.00	791.00	787.00	788.00	796.00	788.00	793.00	792.00	790.00	788.00	787.00	780.00	769.00	767.00	768.00	772.00	770.00	768.00	766.00	765.00	768.00	771.00	772.00	776.00	788.00	796.00	807.00	814.00	808.00	793.00	779.00	766.00	755.00	741.00	737.00	741.00	748.00	743.00	746.00	755.00	760.00	751.00	745.00	761.00	771.00	766.00	755.00	751.00	718.00	709.00	708.00	714.00	719.00	720.00	718.00	708.00	701.00	697.00	695.00	703.00	711.00	716.00	721.00	726.00	733.00	751.00	750.00	765.00	778.00	736.00	731.00	727.00	722.00	718.00	718.00	715.00	712.00	706.00	698.00	701.00	714.00	727.00	731.00	734.00	749.00	759.00	747.00	746.00	758.00	775.00	781.00	777.00	765.00	768.00	767.00	760.00	759.00	756.00	757.00	747.00	725.00	718.00	717.00	718.00
806.00	788.00	785.00	793.00	815.00	830.00	851.00	842.00	806.00	791.00	783.00	781.00	786.00	790.00	791.00	788.00	789.00	790.00	794.00	792.00	791.00	794.00	796.00	801.00	799.00	801.00	807.00	817.00	805.00	804.00	806.00	802.00	804.00	809.00	818.00	828.00	845.00	859.00	850.00	834.00	804.00	793.00	804.00	831.00	854.00	842.00	801.00	792.00	775.00	769.00	763.00	756.00	767.00	783.00	785.00	789.00	791.00	800.00	787.00	785.00	799.00	803.00	810.00	835.00	790.00	784.00	776.00	787.00	794.00	771.00	768.00	770.00	768.00	756.00	765.00	781.00	803.00	845.00	866.00	856.00	840.00	814.00	797.00	825.00	806.00	818.00	835.00	818.00	800.00	779.00	765.00	760.00	752.00	747.00	746.00	748.00	735.00	732.00	735.00	732.00	719.00	731.00	730.00	717.00	694.00	693.00	693.00	695.00	700.00	715.00	731.00	740.00	748.00	727.00	739.00	740.00	723.00	727.00	711.00	708.00	706.00	701.00	704.00	710.00	718.00	727.00	734.00	731.00	743.00	745.00	739.00	738.00	738.00	740.00	742.00	746.00	770.00	815.00	850.00	872.00	797.00	802.00	800.00	799.00	803.00	791.00	792.00	789.00	787.00	786.00	787.00	786.00	786.00	785.00	783.00	781.00	780.00	779.00	787.00	781.00	779.00	782.00	783.00	773.00	765.00	764.00	764.00	764.00	764.00	765.00	764.00	765.00	768.00	775.00	778.00	781.00	782.00	789.00	795.00	803.00	811.00	806.00	795.00	774.00	761.00	743.00	743.00	747.00	748.00	743.00	743.00	750.00	766.00	775.00	755.00	770.00	779.00	766.00	749.00	754.00	729.00	724.00	720.00	712.00	707.00	710.00	709.00	703.00	702.00	698.00	697.00	711.00	713.00	717.00	725.00	732.00	739.00	774.00	760.00	776.00	762.00	731.00	724.00	720.00	717.00	714.00	712.00	710.00	706.00	706.00	701.00	707.00	720.00	735.00	746.00	756.00	760.00	767.00	763.00	757.00	768.00	790.00	797.00	775.00	762.00	756.00	754.00	753.00	757.00	775.00	783.00	759.00	728.00	742.00	726.00	714.00
824.00	801.00	793.00	795.00	803.00	820.00	854.00	834.00	810.00	796.00	784.00	781.00	781.00	785.00	796.00	785.00	785.00	789.00	791.00	786.00	791.00	799.00	796.00	792.00	794.00	798.00	802.00	801.00	794.00	795.00	798.00	800.00	804.00	809.00	811.00	821.00	829.00	837.00	819.00	805.00	805.00	807.00	807.00	829.00	843.00	850.00	818.00	800.00	776.00	770.00	765.00	758.00	771.00	786.00	814.00	798.00	802.00	815.00	819.00	798.00	833.00	820.00	817.00	834.00	798.00	794.00	795.00	808.00	802.00	776.00	779.00	796.00	787.00	764.00	772.00	777.00	794.00	824.00	839.00	837.00	814.00	808.00	800.00	819.00	807.00	827.00	827.00	811.00	797.00	783.00	771.00	753.00	754.00	752.00	738.00	733.00	727.00	721.00	719.00	715.00	710.00	723.00	722.00	710.00	695.00	694.00	694.00	694.00	697.00	712.00	722.00	729.00	737.00	762.00	768.00	757.00	738.00	728.00	713.00	708.00	705.00	704.00	706.00	713.00	716.00	724.00	725.00	729.00	739.00	749.00	756.00	740.00	739.00	740.00	745.00	755.00	785.00	827.00	844.00	893.00	828.00	834.00	831.00	819.00	832.00	800.00	797.00	793.00	790.00	787.00	785.00	783.00	781.00	780.00	779.00	777.00	775.00	775.00	785.00	775.00	775.00	784.00	785.00	764.00	762.00	762.00	763.00	760.00	760.00	763.00	769.00	776.00	773.00	783.00	785.00	785.00	773.00	776.00	780.00	785.00	803.00	805.00	793.00	777.00	759.00	753.00	759.00	781.00	767.00	752.00	752.00	763.00	781.00	783.00	774.00	774.00	765.00	753.00	748.00	740.00	743.00	732.00	720.00	710.00	707.00	707.00	706.00	703.00	699.00	699.00	700.00	724.00	714.00	721.00	727.00	734.00	744.00	779.00	777.00	768.00	755.00	726.00	719.00	715.00	713.00	710.00	709.00	709.00	709.00	710.00	704.00	706.00	719.00	724.00	733.00	739.00	746.00	748.00	755.00	766.00	782.00	795.00	796.00	767.00	762.00	753.00	749.00	747.00	748.00	772.00	776.00	749.00	742.00	740.00	723.00	713.00
824.00	801.00	793.00	795.00	803.00	820.00	854.00	834.00	810.00	796.00	784.00	781.00	781.00	785.00	796.00	785.00	785.00	789.00	791.00	786.00	791.00	799.00	796.00	792.00	794.00	798.00	802.00	801.00	794.00	795.00	798.00	800.00	804.00	809.00	811.00	821.00	829.00	837.00	819.00	805.00	805.00	807.00	807.00	829.00	843.00	850.00	818.00	800.00	776.00	770.00	765.00	758.00	771.00	786.00	814.00	798.00	802.00	815.00	819.00	798.00	833.00	820.00	817.00	834.00	798.00	794.00	795.00	808.00	802.00	776.00	779.00	796.00	787.00	764.00	772.00	777.00	794.00	824.00	839.00	837.00	814.00	808.00	800.00	819.00	807.00	827.00	827.00	811.00	797.00	783.00	771.00	753.00	754.00	752.00	738.00	733.00	727.00	721.00	719.00	715.00	710.00	723.00	722.00	710.00	695.00	694.00	694.00	694.00	697.00	712.00	722.00	729.00	737.00	762.00	768.00	757.00	738.00	728.00	713.00	708.00	705.00	704.00	706.00	713.00	716.00	724.00	725.00	729.00	739.00	749.00	756.00	740.00	739.00	740.00	745.00	755.00	785.00	827.00	844.00	893.00	828.00	834.00	831.00	819.00	832.00	800.00	797.00	793.00	790.00	787.00	785.00	783.00	781.00	780.00	779.00	777.00	775.00	775.00	785.00	775.00	775.00	784.00	785.00	764.00	762.00	762.00	763.00	760.00	760.00	763.00	769.00	776.00	773.00	783.00	785.00	785.00	773.00	776.00	780.00	785.00	803.00	805.00	793.00	777.00	759.00	753.00	759.00	781.00	767.00	752.00	752.00	763.00	781.00	783.00	774.00	774.00	765.00	753.00	748.00	740.00	743.00	732.00	720.00	710.00	707.00	707.00	706.00	703.00	699.00	699.00	700.00	724.00	714.00	721.00	727.00	734.00	744.00	779.00	777.00	768.00	755.00	726.00	719.00	715.00	713.00	710.00	709.00	709.00	709.00	710.00	704.00	706.00	719.00	724.00	733.00	739.00	746.00	748.00	755.00	766.00	782.00	795.00	796.00	767.00	762.00	753.00	749.00	747.00	748.00	772.00	776.00	749.00	742.00	740.00	723.00	713.00
816.00	793.00	791.00	788.00	791.00	798.00	823.00	827.00	848.00	816.00	790.00	777.00	778.00	791.00	791.00	778.00	780.00	779.00	780.00	808.00	817.00	807.00	807.00	795.00	786.00	786.00	797.00	812.00	807.00	803.00	810.00	826.00	842.00	862.00	860.00	848.00	840.00	877.00	893.00	892.00	874.00	868.00	865.00	828.00	810.00	819.00	823.00	810.00	785.00	772.00	768.00	763.00	766.00	770.00	776.00	790.00	791.00	793.00	817.00	820.00	825.00	835.00	846.00	828.00	817.00	829.00	827.00	839.00	831.00	786.00	811.00	813.00	785.00	770.00	782.00	777.00	781.00	806.00	825.00	843.00	829.00	821.00	834.00	810.00	790.00	783.00	780.00	790.00	808.00	799.00	768.00	741.00	739.00	749.00	754.00	733.00	724.00	721.00	729.00	736.00	707.00	702.00	701.00	700.00	698.00	699.00	699.00	697.00	697.00	709.00	712.00	723.00	739.00	747.00	746.00	757.00	770.00	743.00	738.00	727.00	715.00	709.00	706.00	710.00	712.00	713.00	715.00	734.00	741.00	750.00	763.00	768.00	760.00	751.00	748.00	753.00	769.00	777.00	789.00	799.00	840.00	838.00	870.00	844.00	830.00	817.00	809.00	805.00	804.00	798.00	795.00	790.00	788.00	784.00	782.00	779.00	777.00	775.00	768.00	767.00	769.00	769.00	768.00	764.00	760.00	758.00	757.00	761.00	764.00	769.00	778.00	778.00	777.00	778.00	769.00	763.00	764.00	770.00	779.00	785.00	789.00	789.00	800.00	796.00	788.00	792.00	781.00	785.00	798.00	793.00	775.00	786.00	795.00	790.00	761.00	765.00	758.00	749.00	733.00	723.00	719.00	718.00	725.00	720.00	712.00	706.00	705.00	704.00	704.00	704.00	707.00	723.00	719.00	723.00	729.00	736.00	745.00	751.00	748.00	745.00	734.00	717.00	716.00	716.00	717.00	714.00	714.00	715.00	715.00	715.00	707.00	708.00	732.00	749.00	755.00	755.00	746.00	748.00	752.00	767.00	777.00	781.00	777.00	762.00	767.00	784.00	801.00	796.00	749.00	738.00	736.00	735.00	735.00	725.00	715.00	710.00
816.00	793.00	791.00	788.00	791.00	798.00	823.00	827.00	848.00	816.00	790.00	777.00	778.00	791.00	791.00	778.00	780.00	779.00	780.00	808.00	817.00	807.00	807.00	795.00	786.00	786.00	797.00	812.00	807.00	803.00	810.00	826.00	842.00	862.00	860.00	848.00	840.00	877.00	893.00	892.00	874.00	868.00	865.00	828.00	810.00	819.00	823.00	810.00	785.00	772.00	768.00	763.00	766.00	770.00	776.00	790.00	791.00	793.00	817.00	820.00	825.00	835.00	846.00	828.00	817.00	829.00	827.00	839.00	831.00	786.00	811.00	813.00	785.00	770.00	782.00	777.00	781.00	806.00	825.00	843.00	829.00	821.00	834.00	810.00	790.00	783.00	780.00	790.00	808.00	799.00	768.00	741.00	739.00	749.00	754.00	733.00	724.00	721.00	729.00	736.00	707.00	702.00	701.00	700.00	698.00	699.00	699.00	697.00	697.00	709.00	712.00	723.00	739.00	747.00	746.00	757.00	770.00	743.00	738.00	727.00	715.00	709.00	706.00	710.00	712.00	713.00	715.00	734.00	741.00	750.00	763.00	768.00	760.00	751.00	748.00	753.00	769.00	777.00	789.00	799.00	840.00	838.00	870.00	844.00	830.00	817.00	809.00	805.00	804.00	798.00	795.00	790.00	788.00	784.00	782.00	779.00	777.00	775.00	768.00	767.00	769.00	769.00	768.00	764.00	760.00	758.00	757.00	761.00	764.00	769.00	778.00	778.00	777.00	778.00	769.00	763.00	764.00	770.00	779.00	785.00	789.00	789.00	800.00	796.00	788.00	792.00	781.00	785.00	798.00	793.00	775.00	786.00	795.00	790.00	761.00	765.00	758.00	749.00	733.00	723.00	719.00	718.00	725.00	720.00	712.00	706.00	705.00	704.00	704.00	704.00	707.00	723.00	719.00	723.00	729.00	736.00	745.00	751.00	748.00	745.00	734.00	717.00	716.00	716.00	717.00	714.00	714.00	715.00	715.00	715.00	707.00	708.00	732.00	749.00	755.00	755.00	746.00	748.00	752.00	767.00	777.00	781.00	777.00	762.00	767.00	784.00	801.00	796.00	749.00	738.00	736.00	735.00	735.00	725.00	715.00	710.00
808.00	789.00	786.00	783.00	785.00	792.00	805.00	823.00	835.00	816.00	786.00	780.00	775.00	786.00	780.00	774.00	776.00	775.00	781.00	806.00	809.00	797.00	800.00	799.00	783.00	785.00	789.00	794.00	795.00	801.00	809.00	820.00	832.00	837.00	836.00	833.00	832.00	853.00	856.00	849.00	845.00	843.00	912.00	829.00	810.00	801.00	800.00	799.00	785.00	775.00	771.00	767.00	770.00	774.00	783.00	786.00	788.00	792.00	799.00	803.00	810.00	815.00	821.00	834.00	821.00	824.00	818.00	810.00	802.00	810.00	824.00	795.00	790.00	784.00	795.00	784.00	782.00	803.00	812.00	814.00	812.00	809.00	818.00	797.00	785.00	784.00	770.00	768.00	786.00	791.00	775.00	737.00	733.00	736.00	745.00	725.00	727.00	720.00	712.00	713.00	704.00	702.00	702.00	701.00	701.00	701.00	701.00	699.00	699.00	707.00	710.00	718.00	727.00	735.00	734.00	748.00	763.00	783.00	741.00	725.00	718.00	712.00	718.00	709.00	710.00	713.00	720.00	728.00	736.00	746.00	756.00	759.00	760.00	755.00	749.00	747.00	754.00	767.00	775.00	784.00	799.00	825.00	853.00	860.00	862.00	823.00	816.00	812.00	818.00	826.00	812.00	802.00	792.00	790.00	786.00	784.00	782.00	778.00	769.00	769.00	767.00	765.00	764.00	762.00	760.00	759.00	759.00	765.00	763.00	769.00	771.00	772.00	772.00	774.00	768.00	762.00	761.00	765.00	773.00	775.00	776.00	783.00	787.00	792.00	792.00	799.00	795.00	792.00	799.00	808.00	796.00	800.00	786.00	776.00	754.00	757.00	751.00	738.00	728.00	735.00	729.00	737.00	739.00	718.00	712.00	710.00	708.00	706.00	704.00	706.00	707.00	721.00	716.00	719.00	724.00	729.00	732.00	737.00	737.00	731.00	725.00	719.00	718.00	720.00	720.00	717.00	716.00	718.00	717.00	718.00	708.00	710.00	726.00	732.00	747.00	751.00	758.00	766.00	768.00	766.00	771.00	789.00	796.00	775.00	788.00	817.00	803.00	770.00	750.00	743.00	740.00	742.00	722.00	716.00	713.00	714.00
806.00	786.00	782.00	779.00	779.00	783.00	799.00	806.00	815.00	811.00	780.00	775.00	773.00	775.00	774.00	771.00	772.00	773.00	774.00	784.00	782.00	782.00	786.00	785.00	784.00	786.00	787.00	788.00	791.00	792.00	799.00	808.00	813.00	822.00	820.00	820.00	820.00	833.00	839.00	833.00	828.00	831.00	847.00	831.00	823.00	806.00	788.00	783.00	779.00	774.00	770.00	773.00	781.00	787.00	798.00	797.00	800.00	804.00	802.00	802.00	808.00	810.00	818.00	824.00	815.00	809.00	804.00	801.00	799.00	817.00	800.00	797.00	789.00	795.00	807.00	793.00	793.00	796.00	789.00	791.00	791.00	779.00	791.00	774.00	773.00	779.00	753.00	753.00	772.00	765.00	770.00	740.00	727.00	728.00	739.00	722.00	719.00	713.00	713.00	708.00	705.00	704.00	706.00	706.00	703.00	703.00	703.00	702.00	700.00	703.00	707.00	711.00	716.00	725.00	734.00	745.00	761.00	811.00	761.00	734.00	723.00	716.00	723.00	720.00	715.00	713.00	733.00	722.00	727.00	732.00	739.00	741.00	743.00	743.00	755.00	769.00	779.00	759.00	768.00	778.00	789.00	797.00	815.00	825.00	849.00	846.00	827.00	838.00	822.00	858.00	833.00	814.00	802.00	798.00	794.00	793.00	790.00	783.00	774.00	771.00	769.00	767.00	767.00	762.00	759.00	759.00	759.00	767.00	763.00	767.00	764.00	764.00	765.00	762.00	759.00	758.00	760.00	761.00	764.00	765.00	768.00	779.00	776.00	777.00	787.00	802.00	796.00	795.00	798.00	803.00	795.00	783.00	784.00	774.00	751.00	744.00	743.00	735.00	729.00	749.00	760.00	748.00	736.00	718.00	714.00	716.00	709.00	708.00	709.00	709.00	711.00	716.00	713.00	716.00	718.00	722.00	725.00	736.00	740.00	731.00	723.00	723.00	723.00	723.00	721.00	719.00	718.00	720.00	721.00	720.00	711.00	712.00	729.00	734.00	737.00	742.00	750.00	759.00	761.00	781.00	789.00	795.00	793.00	789.00	806.00	802.00	788.00	778.00	743.00	738.00	734.00	732.00	721.00	715.00	720.00	731.00
811.00	782.00	776.00	773.00	773.00	775.00	782.00	791.00	797.00	804.00	789.00	773.00	770.00	771.00	771.00	769.00	769.00	769.00	773.00	777.00	776.00	777.00	780.00	782.00	786.00	787.00	789.00	790.00	793.00	795.00	796.00	798.00	800.00	811.00	809.00	810.00	815.00	822.00	826.00	820.00	817.00	816.00	813.00	805.00	802.00	797.00	783.00	780.00	777.00	776.00	778.00	780.00	787.00	792.00	817.00	818.00	824.00	821.00	816.00	817.00	817.00	818.00	822.00	818.00	816.00	818.00	810.00	805.00	807.00	826.00	807.00	821.00	809.00	822.00	814.00	796.00	786.00	774.00	777.00	785.00	787.00	775.00	772.00	762.00	758.00	751.00	752.00	745.00	744.00	741.00	743.00	735.00	723.00	722.00	720.00	715.00	713.00	711.00	711.00	708.00	706.00	706.00	711.00	712.00	706.00	705.00	704.00	704.00	702.00	703.00	708.00	712.00	719.00	740.00	739.00	749.00	762.00	815.00	755.00	735.00	725.00	718.00	731.00	746.00	730.00	719.00	715.00	717.00	721.00	725.00	727.00	731.00	735.00	748.00	764.00	769.00	801.00	776.00	764.00	765.00	785.00	788.00	792.00	801.00	816.00	824.00	835.00	858.00	840.00	887.00	851.00	818.00	807.00	808.00	812.00	809.00	805.00	789.00	782.00	775.00	772.00	770.00	768.00	763.00	761.00	758.00	757.00	769.00	767.00	758.00	759.00	758.00	758.00	758.00	758.00	758.00	758.00	758.00	764.00	762.00	762.00	766.00	769.00	773.00	781.00	803.00	800.00	794.00	797.00	792.00	782.00	767.00	764.00	758.00	744.00	737.00	736.00	732.00	731.00	750.00	747.00	745.00	735.00	719.00	720.00	729.00	721.00	715.00	715.00	714.00	713.00	713.00	714.00	719.00	718.00	720.00	724.00	745.00	746.00	732.00	727.00	727.00	728.00	727.00	725.00	719.00	719.00	721.00	722.00	722.00	715.00	715.00	732.00	734.00	732.00	746.00	758.00	763.00	765.00	776.00	777.00	777.00	782.00	813.00	790.00	784.00	767.00	762.00	741.00	734.00	729.00	725.00	722.00	719.00	724.00	731.00
800.00	778.00	773.00	769.00	768.00	770.00	773.00	774.00	778.00	787.00	776.00	770.00	767.00	766.00	766.00	768.00	769.00	772.00	772.00	791.00	782.00	780.00	782.00	784.00	786.00	788.00	791.00	793.00	796.00	798.00	798.00	800.00	800.00	804.00	806.00	811.00	815.00	821.00	821.00	817.00	813.00	809.00	801.00	794.00	791.00	788.00	792.00	783.00	780.00	780.00	787.00	791.00	797.00	806.00	850.00	837.00	866.00	843.00	843.00	850.00	830.00	835.00	834.00	834.00	828.00	826.00	826.00	850.00	848.00	825.00	829.00	849.00	836.00	834.00	801.00	783.00	778.00	769.00	765.00	766.00	767.00	767.00	754.00	750.00	747.00	740.00	737.00	735.00	735.00	734.00	731.00	722.00	722.00	720.00	718.00	715.00	713.00	712.00	710.00	709.00	711.00	710.00	710.00	708.00	709.00	711.00	706.00	705.00	705.00	703.00	705.00	712.00	718.00	733.00	736.00	742.00	758.00	793.00	744.00	734.00	725.00	721.00	735.00	749.00	747.00	734.00	723.00	715.00	719.00	721.00	723.00	729.00	737.00	755.00	759.00	777.00	833.00	794.00	775.00	772.00	772.00	778.00	784.00	790.00	797.00	800.00	812.00	833.00	876.00	874.00	839.00	822.00	818.00	842.00	839.00	860.00	827.00	796.00	787.00	778.00	775.00	773.00	771.00	767.00	763.00	759.00	758.00	759.00	761.00	758.00	758.00	758.00	758.00	758.00	758.00	760.00	757.00	758.00	758.00	759.00	758.00	762.00	765.00	770.00	778.00	795.00	796.00	789.00	788.00	789.00	782.00	777.00	768.00	762.00	745.00	749.00	756.00	744.00	735.00	753.00	741.00	735.00	735.00	725.00	730.00	740.00	740.00	730.00	721.00	716.00	715.00	715.00	719.00	726.00	720.00	721.00	725.00	732.00	738.00	737.00	735.00	730.00	731.00	729.00	727.00	724.00	722.00	723.00	724.00	724.00	722.00	716.00	721.00	724.00	748.00	748.00	755.00	756.00	761.00	769.00	773.00	780.00	794.00	785.00	775.00	761.00	756.00	750.00	741.00	734.00	728.00	726.00	727.00	725.00	722.00	726.00
791.00	771.00	768.00	765.00	765.00	766.00	779.00	795.00	803.00	808.00	793.00	776.00	765.00	763.00	764.00	769.00	771.00	773.00	774.00	789.00	784.00	781.00	784.00	786.00	789.00	791.00	793.00	795.00	800.00	801.00	802.00	803.00	803.00	810.00	814.00	821.00	831.00	834.00	829.00	826.00	821.00	816.00	807.00	799.00	796.00	794.00	798.00	793.00	785.00	788.00	792.00	803.00	813.00	840.00	909.00	888.00	892.00	901.00	926.00	928.00	854.00	853.00	842.00	840.00	834.00	859.00	878.00	916.00	911.00	830.00	839.00	852.00	846.00	810.00	804.00	796.00	785.00	768.00	764.00	762.00	758.00	756.00	750.00	747.00	745.00	747.00	743.00	733.00	731.00	729.00	727.00	724.00	723.00	721.00	720.00	715.00	714.00	712.00	711.00	715.00	711.00	710.00	712.00	714.00	711.00	711.00	709.00	707.00	707.00	705.00	705.00	708.00	715.00	734.00	744.00	754.00	762.00	754.00	740.00	735.00	726.00	723.00	732.00	742.00	748.00	750.00	756.00	723.00	721.00	719.00	720.00	729.00	736.00	744.00	760.00	781.00	803.00	809.00	798.00	804.00	823.00	801.00	780.00	782.00	784.00	807.00	810.00	814.00	828.00	843.00	848.00	832.00	835.00	859.00	844.00	823.00	818.00	797.00	785.00	782.00	778.00	776.00	773.00	768.00	765.00	761.00	759.00	760.00	760.00	760.00	762.00	764.00	764.00	763.00	770.00	777.00	769.00	760.00	758.00	758.00	761.00	761.00	760.00	764.00	770.00	779.00	783.00	781.00	784.00	788.00	784.00	783.00	779.00	765.00	761.00	764.00	762.00	746.00	739.00	749.00	750.00	748.00	740.00	731.00	743.00	745.00	734.00	728.00	722.00	718.00	716.00	720.00	727.00	728.00	723.00	725.00	734.00	738.00	737.00	744.00	755.00	733.00	733.00	733.00	735.00	733.00	729.00	727.00	729.00	729.00	727.00	722.00	720.00	728.00	745.00	751.00	757.00	763.00	771.00	784.00	796.00	797.00	790.00	769.00	767.00	760.00	750.00	745.00	736.00	733.00	733.00	735.00	736.00	730.00	727.00	728.00
791.00	771.00	768.00	765.00	765.00	766.00	779.00	795.00	803.00	808.00	793.00	776.00	765.00	763.00	764.00	769.00	771.00	773.00	774.00	789.00	784.00	781.00	784.00	786.00	789.00	791.00	793.00	795.00	800.00	801.00	802.00	803.00	803.00	810.00	814.00	821.00	831.00	834.00	829.00	826.00	821.00	816.00	807.00	799.00	796.00	794.00	798.00	793.00	785.00	788.00	792.00	803.00	813.00	840.00	909.00	888.00	892.00	901.00	926.00	928.00	854.00	853.00	842.00	840.00	834.00	859.00	878.00	916.00	911.00	830.00	839.00	852.00	846.00	810.00	804.00	796.00	785.00	768.00	764.00	762.00	758.00	756.00	750.00	747.00	745.00	747.00	743.00	733.00	731.00	729.00	727.00	724.00	723.00	721.00	720.00	715.00	714.00	712.00	711.00	715.00	711.00	710.00	712.00	714.00	711.00	711.00	709.00	707.00	707.00	705.00	705.00	708.00	715.00	734.00	744.00	754.00	762.00	754.00	740.00	735.00	726.00	723.00	732.00	742.00	748.00	750.00	756.00	723.00	721.00	719.00	720.00	729.00	736.00	744.00	760.00	781.00	803.00	809.00	798.00	804.00	823.00	801.00	780.00	782.00	784.00	807.00	810.00	814.00	828.00	843.00	848.00	832.00	835.00	859.00	844.00	823.00	818.00	797.00	785.00	782.00	778.00	776.00	773.00	768.00	765.00	761.00	759.00	760.00	760.00	760.00	762.00	764.00	764.00	763.00	770.00	777.00	769.00	760.00	758.00	758.00	761.00	761.00	760.00	764.00	770.00	779.00	783.00	781.00	784.00	788.00	784.00	783.00	779.00	765.00	761.00	764.00	762.00	746.00	739.00	749.00	750.00	748.00	740.00	731.00	743.00	745.00	734.00	728.00	722.00	718.00	716.00	720.00	727.00	728.00	723.00	725.00	734.00	738.00	737.00	744.00	755.00	733.00	733.00	733.00	735.00	733.00	729.00	727.00	729.00	729.00	727.00	722.00	720.00	728.00	745.00	751.00	757.00	763.00	771.00	784.00	796.00	797.00	790.00	769.00	767.00	760.00	750.00	745.00	736.00	733.00	733.00	735.00	736.00	730.00	727.00	728.00
765.00	761.00	758.00	757.00	760.00	765.00	785.00	782.00	785.00	786.00	769.00	764.00	764.00	766.00	769.00	774.00	777.00	779.00	782.00	785.00	786.00	788.00	791.00	793.00	797.00	798.00	799.00	802.00	806.00	808.00	809.00	811.00	811.00	827.00	833.00	842.00	861.00	884.00	883.00	882.00	878.00	868.00	831.00	812.00	806.00	799.00	790.00	788.00	793.00	798.00	803.00	814.00	824.00	834.00	850.00	871.00	901.00	919.00	979.00	978.00	882.00	867.00	864.00	867.00	853.00	871.00	898.00	930.00	927.00	869.00	863.00	868.00	847.00	808.00	819.00	795.00	801.00	798.00	803.00	793.00	782.00	781.00	752.00	748.00	746.00	743.00	739.00	735.00	736.00	746.00	744.00	734.00	737.00	728.00	727.00	718.00	720.00	719.00	727.00	725.00	733.00	733.00	724.00	716.00	715.00	715.00	711.00	710.00	710.00	710.00	708.00	708.00	713.00	727.00	742.00	748.00	749.00	763.00	743.00	742.00	733.00	729.00	736.00	741.00	757.00	770.00	783.00	738.00	728.00	724.00	721.00	721.00	724.00	730.00	744.00	753.00	764.00	786.00	797.00	788.00	810.00	826.00	828.00	808.00	797.00	794.00	798.00	809.00	815.00	810.00	815.00	817.00	818.00	814.00	806.00	801.00	798.00	797.00	843.00	816.00	788.00	781.00	776.00	769.00	766.00	764.00	762.00	762.00	768.00	781.00	776.00	777.00	786.00	782.00	785.00	786.00	772.00	769.00	767.00	770.00	768.00	764.00	764.00	764.00	766.00	778.00	779.00	773.00	774.00	775.00	780.00	780.00	781.00	774.00	756.00	762.00	770.00	765.00	757.00	770.00	779.00	755.00	746.00	755.00	750.00	743.00	749.00	752.00	730.00	726.00	723.00	728.00	726.00	727.00	730.00	731.00	732.00	738.00	741.00	742.00	743.00	747.00	758.00	786.00	763.00	763.00	748.00	745.00	736.00	733.00	731.00	721.00	728.00	738.00	754.00	762.00	772.00	785.00	802.00	796.00	788.00	783.00	785.00	756.00	751.00	748.00	746.00	742.00	744.00	762.00	793.00	827.00	774.00	749.00	749.00	754.00
765.00	761.00	758.00	757.00	760.00	765.00	785.00	782.00	785.00	786.00	769.00	764.00	764.00	766.00	769.00	774.00	777.00	779.00	782.00	785.00	786.00	788.00	791.00	793.00	797.00	798.00	799.00	802.00	806.00	808.00	809.00	811.00	811.00	827.00	833.00	842.00	861.00	884.00	883.00	882.00	878.00	868.00	831.00	812.00	806.00	799.00	790.00	788.00	793.00	798.00	803.00	814.00	824.00	834.00	850.00	871.00	901.00	919.00	979.00	978.00	882.00	867.00	864.00	867.00	853.00	871.00	898.00	930.00	927.00	869.00	863.00	868.00	847.00	808.00	819.00	795.00	801.00	798.00	803.00	793.00	782.00	781.00	752.00	748.00	746.00	743.00	739.00	735.00	736.00	746.00	744.00	734.00	737.00	728.00	727.00	718.00	720.00	719.00	727.00	725.00	733.00	733.00	724.00	716.00	715.00	715.00	711.00	710.00	710.00	710.00	708.00	708.00	713.00	727.00	742.00	748.00	749.00	763.00	743.00	742.00	733.00	729.00	736.00	741.00	757.00	770.00	783.00	738.00	728.00	724.00	721.00	721.00	724.00	730.00	744.00	753.00	764.00	786.00	797.00	788.00	810.00	826.00	828.00	808.00	797.00	794.00	798.00	809.00	815.00	810.00	815.00	817.00	818.00	814.00	806.00	801.00	798.00	797.00	843.00	816.00	788.00	781.00	776.00	769.00	766.00	764.00	762.00	762.00	768.00	781.00	776.00	777.00	786.00	782.00	785.00	786.00	772.00	769.00	767.00	770.00	768.00	764.00	764.00	764.00	766.00	778.00	779.00	773.00	774.00	775.00	780.00	780.00	781.00	774.00	756.00	762.00	770.00	765.00	757.00	770.00	779.00	755.00	746.00	755.00	750.00	743.00	749.00	752.00	730.00	726.00	723.00	728.00	726.00	727.00	730.00	731.00	732.00	738.00	741.00	742.00	743.00	747.00	758.00	786.00	763.00	763.00	748.00	745.00	736.00	733.00	731.00	721.00	728.00	738.00	754.00	762.00	772.00	785.00	802.00	796.00	788.00	783.00	785.00	756.00	751.00	748.00	746.00	742.00	744.00	762.00	793.00	827.00	774.00	749.00	749.00	754.00
765.00	756.00	755.00	754.00	756.00	760.00	771.00	767.00	766.00	764.00	760.00	762.00	768.00	771.00	773.00	778.00	780.00	783.00	786.00	789.00	792.00	793.00	797.00	799.00	802.00	804.00	804.00	806.00	810.00	812.00	814.00	820.00	818.00	829.00	835.00	845.00	864.00	903.00	939.00	954.00	975.00	958.00	855.00	819.00	804.00	799.00	792.00	790.00	793.00	798.00	804.00	821.00	827.00	837.00	886.00	874.00	903.00	933.00	958.00	953.00	883.00	881.00	898.00	919.00	881.00	895.00	903.00	932.00	924.00	878.00	875.00	860.00	834.00	830.00	841.00	831.00	819.00	815.00	818.00	811.00	799.00	773.00	774.00	759.00	752.00	746.00	739.00	739.00	748.00	744.00	743.00	740.00	739.00	734.00	739.00	720.00	721.00	723.00	729.00	734.00	731.00	723.00	724.00	719.00	727.00	717.00	712.00	708.00	710.00	711.00	711.00	710.00	710.00	723.00	727.00	732.00	744.00	754.00	755.00	748.00	740.00	733.00	753.00	755.00	751.00	760.00	774.00	745.00	736.00	733.00	731.00	723.00	722.00	727.00	734.00	739.00	752.00	764.00	769.00	771.00	800.00	809.00	795.00	799.00	822.00	831.00	806.00	811.00	820.00	808.00	811.00	816.00	827.00	828.00	813.00	810.00	807.00	806.00	834.00	823.00	798.00	790.00	780.00	773.00	770.00	767.00	764.00	764.00	766.00	782.00	777.00	775.00	775.00	778.00	780.00	782.00	787.00	783.00	778.00	784.00	772.00	767.00	767.00	765.00	766.00	769.00	771.00	770.00	770.00	772.00	780.00	780.00	779.00	775.00	777.00	777.00	772.00	779.00	773.00	763.00	774.00	760.00	755.00	765.00	760.00	756.00	773.00	760.00	742.00	735.00	728.00	726.00	730.00	732.00	732.00	735.00	739.00	749.00	746.00	748.00	747.00	749.00	755.00	762.00	758.00	768.00	754.00	748.00	740.00	737.00	732.00	722.00	728.00	738.00	760.00	779.00	802.00	797.00	786.00	786.00	783.00	785.00	779.00	769.00	757.00	748.00	746.00	745.00	751.00	765.00	791.00	820.00	805.00	757.00	752.00	743.00
757.00	750.00	751.00	752.00	751.00	753.00	758.00	758.00	757.00	757.00	765.00	771.00	773.00	775.00	778.00	782.00	785.00	789.00	792.00	796.00	797.00	799.00	805.00	808.00	812.00	811.00	811.00	811.00	815.00	818.00	820.00	822.00	822.00	828.00	835.00	840.00	849.00	882.00	895.00	899.00	907.00	901.00	873.00	827.00	807.00	800.00	793.00	794.00	794.00	797.00	803.00	826.00	837.00	855.00	903.00	896.00	909.00	931.00	939.00	918.00	925.00	957.00	959.00	923.00	922.00	916.00	929.00	928.00	904.00	850.00	845.00	838.00	832.00	861.00	861.00	843.00	839.00	846.00	847.00	828.00	784.00	766.00	787.00	773.00	767.00	763.00	747.00	748.00	763.00	760.00	756.00	734.00	732.00	729.00	729.00	722.00	727.00	733.00	731.00	728.00	727.00	740.00	734.00	721.00	738.00	730.00	714.00	709.00	706.00	713.00	713.00	712.00	711.00	717.00	720.00	726.00	735.00	750.00	749.00	746.00	740.00	736.00	748.00	758.00	769.00	764.00	768.00	760.00	750.00	740.00	736.00	728.00	723.00	725.00	728.00	734.00	744.00	753.00	754.00	758.00	776.00	781.00	788.00	805.00	804.00	845.00	844.00	822.00	812.00	812.00	816.00	822.00	833.00	860.00	836.00	823.00	818.00	817.00	829.00	825.00	815.00	801.00	784.00	777.00	773.00	769.00	766.00	764.00	765.00	771.00	773.00	781.00	777.00	777.00	782.00	786.00	795.00	796.00	796.00	793.00	781.00	774.00	771.00	768.00	767.00	767.00	768.00	769.00	774.00	781.00	792.00	784.00	786.00	789.00	801.00	798.00	788.00	778.00	769.00	776.00	785.00	767.00	762.00	776.00	761.00	768.00	771.00	759.00	744.00	737.00	732.00	736.00	737.00	740.00	736.00	737.00	740.00	756.00	758.00	757.00	756.00	759.00	752.00	751.00	752.00	753.00	748.00	742.00	740.00	740.00	729.00	723.00	736.00	749.00	770.00	780.00	778.00	773.00	777.00	801.00	787.00	777.00	771.00	762.00	754.00	749.00	752.00	753.00	762.00	758.00	771.00	782.00	792.00	753.00	747.00	760.00
744.00	748.00	748.00	750.00	751.00	752.00	754.00	754.00	757.00	767.00	774.00	778.00	778.00	781.00	784.00	790.00	791.00	794.00	798.00	808.00	804.00	806.00	814.00	817.00	823.00	821.00	822.00	823.00	823.00	823.00	824.00	827.00	828.00	828.00	831.00	839.00	851.00	874.00	872.00	880.00	876.00	871.00	857.00	829.00	829.00	821.00	812.00	805.00	798.00	799.00	805.00	820.00	839.00	861.00	897.00	899.00	901.00	908.00	892.00	902.00	1000.00	1024.00	970.00	960.00	931.00	929.00	910.00	888.00	866.00	857.00	863.00	869.00	860.00	869.00	857.00	837.00	827.00	810.00	810.00	798.00	776.00	774.00	791.00	782.00	793.00	805.00	777.00	755.00	766.00	765.00	759.00	737.00	734.00	732.00	729.00	735.00	735.00	733.00	727.00	726.00	735.00	740.00	728.00	725.00	750.00	740.00	720.00	712.00	706.00	708.00	714.00	715.00	713.00	717.00	721.00	722.00	728.00	740.00	749.00	748.00	747.00	743.00	763.00	764.00	773.00	788.00	782.00	757.00	751.00	747.00	739.00	732.00	725.00	725.00	726.00	729.00	740.00	744.00	746.00	748.00	760.00	766.00	776.00	789.00	796.00	812.00	825.00	852.00	827.00	818.00	820.00	823.00	831.00	845.00	867.00	851.00	849.00	837.00	807.00	802.00	797.00	792.00	787.00	778.00	775.00	771.00	769.00	766.00	766.00	771.00	778.00	783.00	785.00	782.00	784.00	788.00	798.00	807.00	814.00	816.00	789.00	779.00	778.00	775.00	770.00	769.00	772.00	776.00	775.00	783.00	796.00	789.00	788.00	791.00	802.00	808.00	802.00	785.00	781.00	777.00	782.00	768.00	781.00	786.00	771.00	778.00	770.00	763.00	749.00	740.00	733.00	735.00	740.00	748.00	754.00	746.00	743.00	750.00	758.00	770.00	766.00	765.00	757.00	758.00	756.00	747.00	745.00	744.00	743.00	739.00	728.00	725.00	741.00	765.00	759.00	758.00	761.00	767.00	783.00	798.00	796.00	789.00	779.00	756.00	753.00	754.00	759.00	760.00	790.00	764.00	765.00	778.00	784.00	755.00	766.00	784.00
744.00	747.00	747.00	748.00	749.00	751.00	754.00	755.00	759.00	772.00	774.00	773.00	780.00	785.00	789.00	796.00	799.00	802.00	805.00	812.00	814.00	815.00	825.00	827.00	837.00	834.00	838.00	842.00	839.00	837.00	835.00	833.00	835.00	847.00	845.00	842.00	845.00	853.00	859.00	864.00	862.00	857.00	839.00	826.00	823.00	819.00	808.00	804.00	801.00	802.00	804.00	817.00	831.00	850.00	876.00	875.00	873.00	875.00	899.00	930.00	1026.00	1016.00	983.00	991.00	904.00	898.00	882.00	876.00	882.00	904.00	899.00	881.00	873.00	855.00	839.00	820.00	832.00	819.00	790.00	791.00	813.00	804.00	807.00	813.00	822.00	838.00	778.00	773.00	758.00	749.00	744.00	738.00	737.00	734.00	739.00	739.00	748.00	736.00	729.00	729.00	729.00	730.00	727.00	729.00	744.00	743.00	727.00	720.00	709.00	708.00	713.00	717.00	717.00	716.00	722.00	725.00	729.00	739.00	742.00	749.00	745.00	740.00	753.00	760.00	773.00	793.00	801.00	769.00	774.00	754.00	744.00	738.00	729.00	727.00	726.00	727.00	732.00	742.00	739.00	742.00	754.00	761.00	766.00	773.00	783.00	802.00	821.00	846.00	849.00	833.00	830.00	830.00	830.00	836.00	886.00	910.00	911.00	878.00	814.00	806.00	800.00	794.00	789.00	780.00	777.00	773.00	771.00	767.00	767.00	772.00	780.00	784.00	790.00	791.00	792.00	793.00	807.00	809.00	818.00	821.00	800.00	787.00	785.00	780.00	776.00	771.00	773.00	773.00	774.00	785.00	790.00	792.00	792.00	789.00	792.00	800.00	803.00	797.00	794.00	781.00	780.00	791.00	802.00	806.00	790.00	783.00	795.00	789.00	766.00	746.00	739.00	737.00	746.00	760.00	760.00	749.00	747.00	757.00	755.00	771.00	779.00	766.00	763.00	774.00	765.00	750.00	748.00	747.00	742.00	736.00	728.00	732.00	736.00	747.00	748.00	752.00	758.00	765.00	776.00	790.00	798.00	789.00	782.00	758.00	762.00	771.00	791.00	776.00	788.00	769.00	774.00	787.00	777.00	764.00	767.00	760.00
745.00	747.00	747.00	749.00	750.00	751.00	756.00	757.00	760.00	764.00	769.00	777.00	787.00	798.00	797.00	800.00	805.00	810.00	814.00	819.00	823.00	827.00	834.00	840.00	853.00	865.00	883.00	895.00	889.00	871.00	857.00	844.00	842.00	883.00	889.00	867.00	853.00	848.00	845.00	848.00	857.00	864.00	840.00	837.00	819.00	812.00	810.00	810.00	809.00	807.00	807.00	817.00	824.00	832.00	863.00	855.00	861.00	885.00	910.00	915.00	948.00	948.00	941.00	944.00	895.00	911.00	925.00	934.00	935.00	907.00	885.00	868.00	855.00	841.00	850.00	852.00	869.00	812.00	791.00	825.00	857.00	818.00	836.00	873.00	875.00	830.00	778.00	763.00	755.00	752.00	746.00	753.00	758.00	752.00	751.00	735.00	741.00	738.00	732.00	731.00	731.00	730.00	730.00	736.00	736.00	727.00	718.00	712.00	710.00	710.00	713.00	714.00	719.00	716.00	718.00	724.00	728.00	730.00	733.00	737.00	739.00	740.00	751.00	766.00	770.00	787.00	808.00	793.00	769.00	754.00	767.00	751.00	741.00	732.00	729.00	728.00	729.00	733.00	736.00	739.00	749.00	754.00	759.00	769.00	775.00	801.00	816.00	836.00	860.00	862.00	849.00	840.00	841.00	839.00	858.00	876.00	901.00	899.00	821.00	811.00	803.00	796.00	791.00	781.00	777.00	776.00	774.00	770.00	768.00	773.00	789.00	792.00	790.00	794.00	791.00	796.00	818.00	819.00	820.00	822.00	814.00	799.00	792.00	789.00	783.00	773.00	773.00	774.00	776.00	780.00	780.00	784.00	788.00	790.00	796.00	796.00	794.00	793.00	796.00	791.00	795.00	806.00	808.00	801.00	798.00	785.00	782.00	778.00	758.00	746.00	740.00	740.00	754.00	762.00	762.00	752.00	753.00	773.00	760.00	768.00	787.00	774.00	775.00	771.00	765.00	755.00	752.00	749.00	741.00	732.00	736.00	747.00	737.00	740.00	753.00	760.00	769.00	778.00	786.00	804.00	794.00	783.00	770.00	770.00	775.00	786.00	796.00	782.00	783.00	780.00	779.00	792.00	788.00	757.00	753.00	745.00
745.00	747.00	747.00	749.00	750.00	751.00	756.00	757.00	760.00	764.00	769.00	777.00	787.00	798.00	797.00	800.00	805.00	810.00	814.00	819.00	823.00	827.00	834.00	840.00	853.00	865.00	883.00	895.00	889.00	871.00	857.00	844.00	842.00	883.00	889.00	867.00	853.00	848.00	845.00	848.00	857.00	864.00	840.00	837.00	819.00	812.00	810.00	810.00	809.00	807.00	807.00	817.00	824.00	832.00	863.00	855.00	861.00	885.00	910.00	915.00	948.00	948.00	941.00	944.00	895.00	911.00	925.00	934.00	935.00	907.00	885.00	868.00	855.00	841.00	850.00	852.00	869.00	812.00	791.00	825.00	857.00	818.00	836.00	873.00	875.00	830.00	778.00	763.00	755.00	752.00	746.00	753.00	758.00	752.00	751.00	735.00	741.00	738.00	732.00	731.00	731.00	730.00	730.00	736.00	736.00	727.00	718.00	712.00	710.00	710.00	713.00	714.00	719.00	716.00	718.00	724.00	728.00	730.00	733.00	737.00	739.00	740.00	751.00	766.00	770.00	787.00	808.00	793.00	769.00	754.00	767.00	751.00	741.00	732.00	729.00	728.00	729.00	733.00	736.00	739.00	749.00	754.00	759.00	769.00	775.00	801.00	816.00	836.00	860.00	862.00	849.00	840.00	841.00	839.00	858.00	876.00	901.00	899.00	821.00	811.00	803.00	796.00	791.00	781.00	777.00	776.00	774.00	770.00	768.00	773.00	789.00	792.00	790.00	794.00	791.00	796.00	818.00	819.00	820.00	822.00	814.00	799.00	792.00	789.00	783.00	773.00	773.00	774.00	776.00	780.00	780.00	784.00	788.00	790.00	796.00	796.00	794.00	793.00	796.00	791.00	795.00	806.00	808.00	801.00	798.00	785.00	782.00	778.00	758.00	746.00	740.00	740.00	754.00	762.00	762.00	752.00	753.00	773.00	760.00	768.00	787.00	774.00	775.00	771.00	765.00	755.00	752.00	749.00	741.00	732.00	736.00	747.00	737.00	740.00	753.00	760.00	769.00	778.00	786.00	804.00	794.00	783.00	770.00	770.00	775.00	786.00	796.00	782.00	783.00	780.00	779.00	792.00	788.00	757.00	753.00	745.00
747.00	747.00	748.00	750.00	757.00	766.00	763.00	767.00	767.00	766.00	774.00	777.00	789.00	799.00	812.00	816.00	832.00	858.00	843.00	843.00	853.00	866.00	901.00	937.00	920.00	969.00	1031.00	1005.00	968.00	992.00	975.00	900.00	873.00	857.00	852.00	849.00	844.00	839.00	837.00	837.00	842.00	853.00	842.00	867.00	862.00	860.00	859.00	838.00	824.00	814.00	811.00	818.00	822.00	827.00	836.00	847.00	856.00	861.00	870.00	879.00	895.00	905.00	917.00	901.00	879.00	891.00	895.00	887.00	904.00	875.00	864.00	885.00	899.00	892.00	881.00	857.00	831.00	831.00	871.00	909.00	881.00	838.00	949.00	943.00	876.00	811.00	796.00	839.00	834.00	817.00	781.00	768.00	759.00	753.00	750.00	737.00	735.00	735.00	736.00	736.00	735.00	735.00	737.00	736.00	742.00	741.00	737.00	735.00	725.00	715.00	714.00	717.00	725.00	723.00	721.00	720.00	720.00	728.00	744.00	760.00	769.00	769.00	754.00	758.00	769.00	780.00	799.00	803.00	798.00	776.00	781.00	755.00	750.00	750.00	741.00	737.00	735.00	732.00	733.00	734.00	744.00	750.00	755.00	761.00	769.00	781.00	787.00	796.00	830.00	866.00	915.00	915.00	886.00	863.00	846.00	842.00	838.00	841.00	839.00	828.00	821.00	807.00	794.00	787.00	785.00	782.00	780.00	775.00	773.00	772.00	772.00	775.00	780.00	785.00	787.00	790.00	816.00	812.00	810.00	810.00	819.00	806.00	798.00	792.00	787.00	780.00	779.00	778.00	778.00	777.00	780.00	780.00	782.00	783.00	784.00	786.00	788.00	790.00	795.00	797.00	795.00	792.00	784.00	777.00	775.00	773.00	769.00	765.00	754.00	755.00	747.00	748.00	767.00	767.00	767.00	773.00	776.00	776.00	775.00	788.00	790.00	778.00	774.00	768.00	766.00	766.00	767.00	752.00	744.00	738.00	741.00	755.00	752.00	750.00	755.00	761.00	766.00	768.00	772.00	778.00	774.00	774.00	772.00	801.00	808.00	822.00	819.00	792.00	820.00	809.00	794.00	781.00	782.00	765.00	756.00	765.00
747.00	747.00	748.00	750.00	757.00	766.00	763.00	767.00	767.00	766.00	774.00	777.00	789.00	799.00	812.00	816.00	832.00	858.00	843.00	843.00	853.00	866.00	901.00	937.00	920.00	969.00	1031.00	1005.00	968.00	992.00	975.00	900.00	873.00	857.00	852.00	849.00	844.00	839.00	837.00	837.00	842.00	853.00	842.00	867.00	862.00	860.00	859.00	838.00	824.00	814.00	811.00	818.00	822.00	827.00	836.00	847.00	856.00	861.00	870.00	879.00	895.00	905.00	917.00	901.00	879.00	891.00	895.00	887.00	904.00	875.00	864.00	885.00	899.00	892.00	881.00	857.00	831.00	831.00	871.00	909.00	881.00	838.00	949.00	943.00	876.00	811.00	796.00	839.00	834.00	817.00	781.00	768.00	759.00	753.00	750.00	737.00	735.00	735.00	736.00	736.00	735.00	735.00	737.00	736.00	742.00	741.00	737.00	735.00	725.00	715.00	714.00	717.00	725.00	723.00	721.00	720.00	720.00	728.00	744.00	760.00	769.00	769.00	754.00	758.00	769.00	780.00	799.00	803.00	798.00	776.00	781.00	755.00	750.00	750.00	741.00	737.00	735.00	732.00	733.00	734.00	744.00	750.00	755.00	761.00	769.00	781.00	787.00	796.00	830.00	866.00	915.00	915.00	886.00	863.00	846.00	842.00	838.00	841.00	839.00	828.00	821.00	807.00	794.00	787.00	785.00	782.00	780.00	775.00	773.00	772.00	772.00	775.00	780.00	785.00	787.00	790.00	816.00	812.00	810.00	810.00	819.00	806.00	798.00	792.00	787.00	780.00	779.00	778.00	778.00	777.00	780.00	780.00	782.00	783.00	784.00	786.00	788.00	790.00	795.00	797.00	795.00	792.00	784.00	777.00	775.00	773.00	769.00	765.00	754.00	755.00	747.00	748.00	767.00	767.00	767.00	773.00	776.00	776.00	775.00	788.00	790.00	778.00	774.00	768.00	766.00	766.00	767.00	752.00	744.00	738.00	741.00	755.00	752.00	750.00	755.00	761.00	766.00	768.00	772.00	778.00	774.00	774.00	772.00	801.00	808.00	822.00	819.00	792.00	820.00	809.00	794.00	781.00	782.00	765.00	756.00	765.00
747.00	747.00	748.00	750.00	757.00	766.00	763.00	767.00	767.00	766.00	774.00	777.00	789.00	799.00	812.00	816.00	832.00	858.00	843.00	843.00	853.00	866.00	901.00	937.00	920.00	969.00	1031.00	1005.00	968.00	992.00	975.00	900.00	873.00	857.00	852.00	849.00	844.00	839.00	837.00	837.00	842.00	853.00	842.00	867.00	862.00	860.00	859.00	838.00	824.00	814.00	811.00	818.00	822.00	827.00	836.00	847.00	856.00	861.00	870.00	879.00	895.00	905.00	917.00	901.00	879.00	891.00	895.00	887.00	904.00	875.00	864.00	885.00	899.00	892.00	881.00	857.00	831.00	831.00	871.00	909.00	881.00	838.00	949.00	943.00	876.00	811.00	796.00	839.00	834.00	817.00	781.00	768.00	759.00	753.00	750.00	737.00	735.00	735.00	736.00	736.00	735.00	735.00	737.00	736.00	742.00	741.00	737.00	735.00	725.00	715.00	714.00	717.00	725.00	723.00	721.00	720.00	720.00	728.00	744.00	760.00	769.00	769.00	754.00	758.00	769.00	780.00	799.00	803.00	798.00	776.00	781.00	755.00	750.00	750.00	741.00	737.00	735.00	732.00	733.00	734.00	744.00	750.00	755.00	761.00	769.00	781.00	787.00	796.00	830.00	866.00	915.00	915.00	886.00	863.00	846.00	842.00	838.00	841.00	839.00	828.00	821.00	807.00	794.00	787.00	785.00	782.00	780.00	775.00	773.00	772.00	772.00	775.00	780.00	785.00	787.00	790.00	816.00	812.00	810.00	810.00	819.00	806.00	798.00	792.00	787.00	780.00	779.00	778.00	778.00	777.00	780.00	780.00	782.00	783.00	784.00	786.00	788.00	790.00	795.00	797.00	795.00	792.00	784.00	777.00	775.00	773.00	769.00	765.00	754.00	755.00	747.00	748.00	767.00	767.00	767.00	773.00	776.00	776.00	775.00	788.00	790.00	778.00	774.00	768.00	766.00	766.00	767.00	752.00	744.00	738.00	741.00	755.00	752.00	750.00	755.00	761.00	766.00	768.00	772.00	778.00	774.00	774.00	772.00	801.00	808.00	822.00	819.00	792.00	820.00	809.00	794.00	781.00	782.00	765.00	756.00	765.00
747.00	749.00	750.00	756.00	766.00	777.00	777.00	774.00	772.00	773.00	783.00	787.00	798.00	811.00	830.00	843.00	832.00	842.00	845.00	854.00	865.00	888.00	1008.00	1077.00	989.00	1022.00	1005.00	951.00	972.00	978.00	935.00	898.00	878.00	865.00	863.00	860.00	854.00	847.00	840.00	837.00	834.00	832.00	832.00	851.00	872.00	865.00	867.00	855.00	833.00	818.00	813.00	821.00	823.00	827.00	844.00	847.00	854.00	862.00	871.00	879.00	916.00	906.00	894.00	890.00	869.00	872.00	881.00	899.00	920.00	884.00	883.00	895.00	888.00	867.00	852.00	828.00	814.00	848.00	873.00	918.00	908.00	877.00	944.00	898.00	853.00	793.00	839.00	846.00	825.00	804.00	770.00	777.00	778.00	765.00	748.00	739.00	737.00	738.00	739.00	739.00	739.00	738.00	738.00	739.00	744.00	751.00	740.00	731.00	724.00	719.00	719.00	727.00	729.00	727.00	726.00	722.00	721.00	734.00	744.00	758.00	769.00	778.00	764.00	763.00	763.00	778.00	787.00	807.00	811.00	808.00	799.00	780.00	771.00	769.00	763.00	748.00	740.00	735.00	733.00	735.00	746.00	750.00	755.00	760.00	765.00	773.00	781.00	791.00	811.00	851.00	886.00	940.00	903.00	874.00	850.00	839.00	833.00	828.00	849.00	821.00	812.00	801.00	797.00	790.00	788.00	785.00	782.00	777.00	774.00	773.00	773.00	778.00	786.00	794.00	796.00	796.00	800.00	801.00	799.00	800.00	811.00	815.00	806.00	796.00	794.00	783.00	782.00	784.00	786.00	787.00	782.00	783.00	783.00	784.00	790.00	787.00	786.00	787.00	788.00	789.00	791.00	788.00	787.00	784.00	784.00	786.00	787.00	783.00	767.00	756.00	749.00	750.00	769.00	769.00	772.00	777.00	790.00	793.00	781.00	787.00	806.00	782.00	778.00	771.00	768.00	766.00	773.00	760.00	745.00	736.00	742.00	750.00	767.00	765.00	784.00	782.00	784.00	795.00	801.00	800.00	790.00	778.00	774.00	788.00	798.00	804.00	812.00	801.00	820.00	810.00	814.00	797.00	765.00	756.00	749.00	756.00
750.00	752.00	753.00	758.00	766.00	773.00	789.00	794.00	790.00	786.00	797.00	809.00	820.00	836.00	856.00	904.00	887.00	878.00	875.00	875.00	889.00	908.00	987.00	1061.00	1012.00	977.00	955.00	937.00	915.00	908.00	897.00	891.00	887.00	898.00	879.00	866.00	856.00	842.00	836.00	834.00	833.00	830.00	824.00	821.00	821.00	826.00	851.00	837.00	832.00	836.00	834.00	829.00	832.00	836.00	843.00	853.00	872.00	882.00	884.00	892.00	875.00	871.00	879.00	890.00	873.00	898.00	907.00	892.00	902.00	913.00	930.00	941.00	935.00	872.00	838.00	856.00	888.00	971.00	974.00	929.00	888.00	869.00	840.00	818.00	818.00	877.00	901.00	910.00	872.00	823.00	795.00	792.00	772.00	777.00	762.00	749.00	749.00	745.00	745.00	744.00	744.00	744.00	742.00	737.00	730.00	728.00	741.00	742.00	739.00	734.00	735.00	734.00	732.00	729.00	729.00	727.00	724.00	725.00	734.00	740.00	756.00	770.00	767.00	766.00	775.00	782.00	789.00	813.00	820.00	815.00	808.00	798.00	773.00	763.00	764.00	764.00	746.00	741.00	739.00	737.00	738.00	743.00	748.00	755.00	762.00	771.00	777.00	783.00	798.00	828.00	862.00	924.00	949.00	910.00	864.00	848.00	835.00	828.00	813.00	811.00	807.00	803.00	800.00	793.00	791.00	788.00	786.00	781.00	779.00	776.00	776.00	779.00	788.00	789.00	788.00	792.00	786.00	787.00	793.00	799.00	797.00	813.00	803.00	797.00	793.00	802.00	809.00	809.00	798.00	799.00	798.00	799.00	794.00	792.00	792.00	790.00	792.00	799.00	801.00	801.00	798.00	804.00	805.00	804.00	795.00	788.00	788.00	783.00	767.00	762.00	760.00	756.00	787.00	786.00	782.00	793.00	784.00	792.00	800.00	819.00	825.00	800.00	781.00	767.00	763.00	754.00	744.00	741.00	743.00	748.00	752.00	751.00	765.00	773.00	784.00	797.00	814.00	826.00	823.00	805.00	791.00	784.00	790.00	811.00	825.00	829.00	818.00	815.00	835.00	855.00	860.00	822.00	771.00	758.00	753.00	748.00
