662.00	658.00	650.00	651.00	649.00	647.00	647.00	646.00	647.00	649.00	644.00	648.00	647.00	645.00	643.00	645.00	645.00	646.00	644.00	646.00	654.00	656.00	666.00	688.00	682.00	677.00	674.00	672.00	673.00	686.00	662.00	659.00	656.00	652.00	656.00	683.00	688.00	685.00	666.00	675.00	698.00	701.00	704.00	638.00	637.00	663.00	677.00	693.00	652.00	675.00	681.00	697.00	716.00	681.00	634.00	624.00	638.00	666.00	696.00	650.00	621.00	626.00	656.00	663.00	663.00	661.00	660.00	660.00	679.00	684.00	668.00	670.00	678.00	671.00	656.00	666.00	666.00	663.00	659.00	649.00	657.00	660.00	651.00	678.00	677.00	649.00	633.00	613.00	618.00	620.00	619.00	619.00	617.00	615.00	613.00	614.00	614.00	615.00	619.00	622.00	629.00	781.00	917.00	856.00	821.00	787.00	796.00	874.00	803.00	776.00	784.00	760.00	796.00	862.00	835.00	828.00	803.00	796.00	783.00	748.00	731.00	728.00	711.00	706.00	700.00	697.00	694.00	692.00	692.00	687.00	680.00	675.00	664.00	661.00	659.00	660.00	665.00	659.00	658.00	662.00	660.00	657.00	654.00	651.00	647.00	645.00	647.00	646.00	641.00	639.00	636.00	632.00	629.00	626.00	625.00	624.00	624.00	623.00	620.00	623.00	624.00	635.00	639.00	642.00	636.00	632.00	626.00	628.00	634.00	641.00	649.00	666.00	664.00	658.00	651.00	645.00	637.00	631.00	629.00	628.00	629.00	637.00	636.00	634.00	636.00	620.00	624.00	626.00	631.00	637.00	640.00	643.00	640.00	644.00	661.00	633.00	627.00	625.00	626.00	627.00	631.00	633.00	635.00	640.00	652.00	660.00	679.00	689.00	671.00	659.00	654.00	649.00	644.00	662.00	667.00	669.00	649.00	637.00	631.00	626.00	622.00	621.00	616.00	617.00	616.00	617.00	619.00	619.00	621.00	621.00	623.00	623.00	624.00	625.00	632.00	635.00	636.00	636.00	641.00	641.00	644.00	644.00	646.00	647.00	646.00	650.00	651.00	653.00	658.00	663.00	667.00	672.00	672.00	680.00	681.00	683.00
659.00	654.00	651.00	650.00	648.00	649.00	647.00	645.00	646.00	649.00	647.00	647.00	648.00	646.00	645.00	644.00	643.00	642.00	644.00	644.00	648.00	656.00	665.00	672.00	675.00	686.00	682.00	674.00	672.00	693.00	667.00	656.00	653.00	651.00	668.00	680.00	683.00	684.00	677.00	677.00	676.00	671.00	664.00	655.00	655.00	660.00	681.00	664.00	657.00	670.00	701.00	712.00	701.00	656.00	626.00	625.00	630.00	657.00	669.00	638.00	630.00	629.00	650.00	639.00	661.00	656.00	660.00	679.00	678.00	678.00	680.00	666.00	659.00	656.00	644.00	651.00	659.00	661.00	685.00	676.00	661.00	658.00	663.00	661.00	655.00	641.00	630.00	618.00	620.00	617.00	616.00	614.00	613.00	612.00	612.00	611.00	614.00	615.00	617.00	621.00	628.00	715.00	861.00	858.00	899.00	798.00	780.00	783.00	767.00	760.00	782.00	778.00	802.00	883.00	848.00	801.00	792.00	792.00	775.00	760.00	745.00	729.00	724.00	710.00	702.00	698.00	697.00	694.00	689.00	688.00	684.00	681.00	666.00	664.00	661.00	658.00	665.00	660.00	659.00	664.00	661.00	658.00	656.00	655.00	650.00	644.00	650.00	646.00	642.00	639.00	635.00	633.00	632.00	629.00	627.00	626.00	626.00	625.00	625.00	624.00	624.00	630.00	640.00	635.00	626.00	636.00	631.00	627.00	634.00	637.00	643.00	664.00	669.00	657.00	657.00	653.00	644.00	633.00	630.00	630.00	639.00	639.00	636.00	634.00	635.00	636.00	642.00	627.00	629.00	632.00	636.00	643.00	643.00	641.00	658.00	637.00	630.00	625.00	625.00	627.00	632.00	634.00	636.00	637.00	649.00	655.00	658.00	661.00	668.00	668.00	674.00	673.00	671.00	676.00	664.00	655.00	651.00	638.00	631.00	626.00	623.00	619.00	617.00	614.00	617.00	615.00	617.00	619.00	619.00	620.00	621.00	626.00	626.00	628.00	628.00	635.00	636.00	638.00	640.00	642.00	644.00	645.00	648.00	648.00	649.00	650.00	651.00	652.00	657.00	661.00	667.00	671.00	675.00	680.00	680.00	683.00
662.00	654.00	652.00	649.00	648.00	646.00	646.00	644.00	644.00	642.00	643.00	644.00	645.00	644.00	646.00	652.00	643.00	639.00	639.00	639.00	640.00	644.00	655.00	664.00	664.00	679.00	687.00	676.00	675.00	681.00	683.00	669.00	664.00	658.00	666.00	650.00	674.00	681.00	691.00	656.00	640.00	654.00	669.00	697.00	677.00	683.00	674.00	656.00	658.00	687.00	673.00	684.00	677.00	665.00	655.00	677.00	674.00	665.00	643.00	635.00	662.00	670.00	670.00	670.00	678.00	683.00	685.00	684.00	666.00	672.00	670.00	662.00	657.00	636.00	632.00	645.00	654.00	657.00	669.00	623.00	644.00	658.00	662.00	648.00	635.00	625.00	624.00	618.00	617.00	616.00	616.00	617.00	616.00	611.00	611.00	605.00	616.00	615.00	616.00	619.00	624.00	693.00	849.00	830.00	824.00	811.00	839.00	798.00	768.00	797.00	803.00	786.00	803.00	881.00	836.00	799.00	778.00	799.00	782.00	769.00	741.00	732.00	721.00	704.00	701.00	697.00	695.00	694.00	693.00	695.00	689.00	681.00	670.00	667.00	667.00	664.00	661.00	664.00	661.00	662.00	661.00	661.00	653.00	657.00	657.00	650.00	651.00	648.00	645.00	642.00	638.00	635.00	634.00	632.00	630.00	630.00	633.00	637.00	635.00	629.00	628.00	635.00	637.00	624.00	630.00	637.00	634.00	635.00	629.00	630.00	633.00	642.00	667.00	666.00	660.00	660.00	658.00	649.00	645.00	638.00	635.00	633.00	638.00	637.00	645.00	639.00	659.00	634.00	626.00	631.00	632.00	642.00	644.00	642.00	644.00	643.00	636.00	631.00	628.00	629.00	632.00	634.00	634.00	635.00	645.00	653.00	655.00	656.00	655.00	654.00	657.00	660.00	660.00	653.00	649.00	647.00	649.00	644.00	635.00	629.00	625.00	621.00	615.00	616.00	616.00	616.00	618.00	620.00	621.00	622.00	624.00	626.00	629.00	630.00	631.00	632.00	635.00	639.00	639.00	641.00	644.00	646.00	648.00	649.00	651.00	656.00	664.00	661.00	659.00	669.00	672.00	672.00	676.00	672.00	675.00	678.00
663.00	655.00	656.00	651.00	648.00	647.00	646.00	643.00	642.00	643.00	644.00	645.00	643.00	642.00	642.00	643.00	639.00	635.00	637.00	637.00	637.00	642.00	651.00	658.00	659.00	674.00	674.00	666.00	663.00	670.00	666.00	660.00	656.00	664.00	679.00	657.00	675.00	681.00	750.00	720.00	665.00	640.00	669.00	697.00	704.00	664.00	657.00	636.00	669.00	665.00	667.00	687.00	670.00	662.00	672.00	682.00	660.00	644.00	625.00	632.00	666.00	676.00	653.00	651.00	664.00	676.00	683.00	670.00	655.00	669.00	672.00	671.00	669.00	662.00	658.00	655.00	652.00	668.00	635.00	633.00	629.00	628.00	623.00	624.00	624.00	624.00	616.00	622.00	620.00	620.00	615.00	616.00	613.00	612.00	612.00	610.00	614.00	615.00	617.00	620.00	625.00	689.00	841.00	855.00	805.00	800.00	782.00	773.00	776.00	854.00	785.00	801.00	841.00	888.00	845.00	798.00	834.00	808.00	800.00	768.00	750.00	743.00	723.00	707.00	701.00	698.00	696.00	697.00	695.00	694.00	691.00	685.00	677.00	673.00	670.00	667.00	663.00	662.00	666.00	664.00	663.00	665.00	660.00	659.00	658.00	652.00	648.00	650.00	647.00	645.00	641.00	635.00	634.00	634.00	631.00	632.00	638.00	642.00	640.00	633.00	629.00	634.00	640.00	626.00	629.00	642.00	629.00	627.00	631.00	630.00	630.00	635.00	646.00	671.00	666.00	662.00	659.00	657.00	655.00	650.00	642.00	637.00	631.00	629.00	629.00	642.00	649.00	649.00	676.00	691.00	660.00	640.00	645.00	644.00	644.00	647.00	638.00	635.00	630.00	628.00	629.00	631.00	632.00	636.00	645.00	653.00	654.00	655.00	656.00	655.00	655.00	655.00	655.00	651.00	651.00	649.00	649.00	646.00	641.00	631.00	628.00	623.00	619.00	618.00	620.00	617.00	621.00	618.00	621.00	622.00	623.00	626.00	627.00	629.00	630.00	633.00	633.00	638.00	640.00	643.00	645.00	645.00	645.00	651.00	654.00	659.00	658.00	660.00	665.00	664.00	665.00	668.00	665.00	671.00	675.00	676.00
659.00	656.00	657.00	651.00	649.00	649.00	646.00	643.00	642.00	641.00	640.00	644.00	643.00	642.00	641.00	640.00	638.00	638.00	638.00	638.00	637.00	637.00	645.00	653.00	659.00	665.00	658.00	653.00	651.00	658.00	657.00	654.00	653.00	663.00	673.00	643.00	656.00	681.00	739.00	768.00	700.00	646.00	667.00	675.00	656.00	631.00	626.00	625.00	654.00	661.00	677.00	684.00	650.00	661.00	674.00	676.00	625.00	622.00	625.00	660.00	677.00	650.00	621.00	623.00	652.00	673.00	676.00	643.00	658.00	641.00	667.00	669.00	667.00	663.00	660.00	657.00	667.00	670.00	653.00	656.00	670.00	666.00	642.00	617.00	618.00	615.00	613.00	618.00	618.00	621.00	616.00	617.00	615.00	616.00	613.00	614.00	614.00	614.00	616.00	618.00	624.00	688.00	794.00	830.00	845.00	860.00	817.00	779.00	798.00	854.00	779.00	846.00	889.00	880.00	825.00	811.00	824.00	806.00	795.00	754.00	761.00	754.00	722.00	707.00	702.00	700.00	700.00	699.00	698.00	700.00	697.00	690.00	680.00	675.00	673.00	668.00	667.00	664.00	665.00	665.00	665.00	665.00	662.00	660.00	657.00	653.00	648.00	654.00	653.00	651.00	643.00	640.00	638.00	633.00	631.00	633.00	637.00	641.00	643.00	633.00	631.00	630.00	637.00	628.00	624.00	627.00	624.00	624.00	633.00	631.00	632.00	633.00	638.00	669.00	671.00	668.00	663.00	660.00	658.00	656.00	650.00	643.00	634.00	631.00	627.00	632.00	635.00	644.00	677.00	686.00	656.00	663.00	659.00	659.00	675.00	650.00	643.00	639.00	633.00	630.00	631.00	631.00	634.00	633.00	647.00	653.00	655.00	655.00	654.00	656.00	655.00	657.00	657.00	653.00	654.00	650.00	652.00	649.00	642.00	635.00	629.00	625.00	620.00	616.00	619.00	616.00	618.00	619.00	621.00	620.00	622.00	625.00	626.00	626.00	630.00	632.00	633.00	636.00	645.00	644.00	647.00	649.00	651.00	658.00	654.00	653.00	655.00	655.00	658.00	661.00	661.00	664.00	669.00	676.00	678.00	676.00
657.00	657.00	656.00	650.00	648.00	648.00	644.00	641.00	640.00	641.00	641.00	642.00	642.00	640.00	644.00	640.00	640.00	638.00	639.00	639.00	636.00	636.00	642.00	655.00	663.00	645.00	644.00	646.00	649.00	649.00	650.00	651.00	649.00	659.00	661.00	636.00	640.00	673.00	702.00	784.00	713.00	661.00	651.00	657.00	627.00	626.00	628.00	627.00	656.00	663.00	698.00	691.00	627.00	641.00	667.00	653.00	640.00	652.00	646.00	674.00	677.00	625.00	629.00	631.00	646.00	678.00	653.00	637.00	656.00	656.00	675.00	670.00	661.00	630.00	652.00	656.00	669.00	664.00	657.00	659.00	700.00	705.00	671.00	629.00	627.00	619.00	615.00	614.00	614.00	617.00	617.00	619.00	616.00	615.00	614.00	614.00	615.00	615.00	615.00	619.00	623.00	783.00	856.00	889.00	931.00	805.00	784.00	800.00	841.00	878.00	785.00	882.00	864.00	840.00	855.00	837.00	823.00	798.00	783.00	764.00	768.00	752.00	729.00	712.00	704.00	702.00	701.00	702.00	708.00	704.00	701.00	695.00	678.00	675.00	673.00	669.00	670.00	669.00	667.00	667.00	666.00	665.00	663.00	659.00	654.00	654.00	649.00	657.00	659.00	656.00	644.00	643.00	639.00	636.00	634.00	632.00	636.00	643.00	646.00	636.00	632.00	628.00	627.00	625.00	632.00	630.00	624.00	624.00	627.00	634.00	633.00	633.00	635.00	661.00	673.00	673.00	669.00	661.00	660.00	659.00	652.00	649.00	640.00	637.00	635.00	680.00	632.00	632.00	637.00	643.00	645.00	658.00	643.00	647.00	679.00	655.00	646.00	642.00	638.00	632.00	629.00	630.00	632.00	634.00	642.00	652.00	654.00	654.00	653.00	655.00	656.00	657.00	657.00	656.00	653.00	651.00	651.00	649.00	648.00	638.00	631.00	627.00	620.00	618.00	616.00	617.00	619.00	618.00	619.00	622.00	623.00	627.00	627.00	631.00	634.00	632.00	632.00	636.00	646.00	650.00	656.00	650.00	653.00	651.00	657.00	659.00	661.00	659.00	660.00	660.00	662.00	664.00	667.00	669.00	671.00	674.00
660.00	657.00	650.00	651.00	648.00	644.00	642.00	640.00	640.00	640.00	640.00	638.00	639.00	640.00	641.00	644.00	638.00	636.00	637.00	637.00	636.00	638.00	637.00	638.00	641.00	636.00	637.00	637.00	641.00	642.00	651.00	661.00	643.00	636.00	642.00	637.00	632.00	662.00	705.00	731.00	708.00	676.00	668.00	675.00	678.00	648.00	651.00	669.00	654.00	664.00	667.00	666.00	619.00	630.00	662.00	671.00	632.00	626.00	632.00	664.00	661.00	629.00	661.00	668.00	674.00	670.00	643.00	666.00	667.00	688.00	656.00	651.00	663.00	664.00	685.00	670.00	658.00	654.00	684.00	664.00	653.00	654.00	641.00	639.00	635.00	626.00	616.00	615.00	614.00	615.00	615.00	616.00	614.00	615.00	614.00	614.00	614.00	614.00	614.00	621.00	629.00	780.00	966.00	943.00	939.00	814.00	824.00	904.00	897.00	840.00	813.00	933.00	868.00	834.00	871.00	824.00	815.00	788.00	774.00	773.00	763.00	751.00	731.00	711.00	711.00	706.00	703.00	704.00	700.00	704.00	702.00	697.00	679.00	676.00	675.00	671.00	671.00	672.00	672.00	670.00	668.00	668.00	658.00	658.00	654.00	654.00	652.00	653.00	660.00	660.00	648.00	644.00	643.00	639.00	638.00	637.00	641.00	645.00	641.00	641.00	635.00	630.00	628.00	629.00	635.00	636.00	632.00	629.00	638.00	636.00	636.00	633.00	633.00	649.00	676.00	674.00	673.00	668.00	663.00	662.00	659.00	656.00	646.00	639.00	637.00	658.00	637.00	647.00	654.00	651.00	642.00	644.00	645.00	645.00	647.00	650.00	660.00	651.00	644.00	638.00	631.00	631.00	631.00	634.00	641.00	654.00	655.00	656.00	656.00	658.00	656.00	664.00	666.00	656.00	655.00	653.00	662.00	665.00	664.00	652.00	635.00	629.00	624.00	618.00	617.00	617.00	621.00	625.00	629.00	627.00	629.00	633.00	633.00	633.00	637.00	652.00	649.00	642.00	645.00	649.00	650.00	649.00	651.00	655.00	658.00	660.00	665.00	669.00	671.00	671.00	672.00	672.00	675.00	675.00	676.00	678.00
663.00	658.00	648.00	648.00	646.00	640.00	640.00	637.00	639.00	639.00	639.00	640.00	638.00	639.00	640.00	640.00	637.00	638.00	637.00	637.00	637.00	637.00	635.00	637.00	636.00	637.00	637.00	637.00	639.00	660.00	667.00	670.00	660.00	646.00	639.00	640.00	634.00	648.00	704.00	718.00	693.00	667.00	685.00	680.00	682.00	659.00	652.00	674.00	662.00	671.00	684.00	667.00	620.00	631.00	659.00	657.00	639.00	622.00	623.00	641.00	634.00	630.00	663.00	674.00	683.00	674.00	667.00	667.00	673.00	689.00	667.00	661.00	665.00	667.00	672.00	663.00	662.00	671.00	675.00	651.00	651.00	656.00	660.00	632.00	635.00	624.00	617.00	614.00	613.00	614.00	614.00	614.00	613.00	616.00	613.00	614.00	614.00	615.00	617.00	621.00	627.00	763.00	960.00	950.00	872.00	800.00	855.00	951.00	898.00	836.00	805.00	864.00	884.00	892.00	866.00	817.00	804.00	789.00	784.00	789.00	777.00	760.00	751.00	715.00	715.00	711.00	707.00	705.00	705.00	715.00	707.00	700.00	683.00	679.00	675.00	673.00	674.00	673.00	673.00	672.00	671.00	666.00	660.00	658.00	657.00	655.00	653.00	651.00	659.00	660.00	651.00	648.00	646.00	639.00	639.00	637.00	639.00	644.00	639.00	639.00	633.00	628.00	628.00	628.00	635.00	637.00	638.00	635.00	639.00	638.00	635.00	633.00	634.00	642.00	674.00	676.00	676.00	673.00	670.00	665.00	662.00	662.00	651.00	646.00	641.00	667.00	637.00	668.00	683.00	664.00	643.00	644.00	642.00	644.00	647.00	648.00	660.00	656.00	648.00	642.00	632.00	631.00	632.00	635.00	641.00	653.00	657.00	660.00	668.00	669.00	680.00	691.00	687.00	673.00	663.00	666.00	672.00	670.00	681.00	664.00	638.00	630.00	620.00	617.00	618.00	618.00	623.00	625.00	627.00	629.00	630.00	634.00	639.00	643.00	642.00	649.00	650.00	641.00	642.00	647.00	646.00	647.00	648.00	652.00	653.00	657.00	661.00	664.00	665.00	668.00	672.00	671.00	673.00	674.00	677.00	679.00
666.00	661.00	648.00	646.00	640.00	638.00	639.00	639.00	639.00	640.00	639.00	640.00	638.00	641.00	639.00	640.00	638.00	637.00	637.00	637.00	637.00	637.00	638.00	637.00	639.00	645.00	645.00	643.00	645.00	678.00	688.00	684.00	680.00	665.00	669.00	667.00	665.00	662.00	689.00	695.00	653.00	684.00	688.00	687.00	671.00	651.00	653.00	673.00	672.00	675.00	676.00	673.00	646.00	626.00	654.00	652.00	627.00	619.00	623.00	622.00	628.00	629.00	663.00	672.00	672.00	676.00	669.00	673.00	677.00	679.00	670.00	671.00	670.00	696.00	666.00	666.00	677.00	681.00	658.00	638.00	656.00	660.00	712.00	669.00	643.00	627.00	618.00	614.00	614.00	615.00	616.00	616.00	615.00	617.00	615.00	614.00	615.00	615.00	614.00	617.00	625.00	712.00	914.00	880.00	842.00	855.00	935.00	908.00	869.00	866.00	862.00	934.00	943.00	961.00	863.00	827.00	827.00	819.00	798.00	785.00	787.00	777.00	743.00	724.00	717.00	714.00	708.00	706.00	705.00	710.00	711.00	710.00	684.00	679.00	675.00	676.00	673.00	674.00	673.00	672.00	669.00	665.00	660.00	661.00	657.00	655.00	652.00	654.00	659.00	662.00	657.00	651.00	647.00	642.00	640.00	646.00	643.00	641.00	641.00	647.00	645.00	636.00	632.00	629.00	640.00	638.00	639.00	640.00	639.00	637.00	636.00	634.00	635.00	640.00	674.00	676.00	678.00	676.00	674.00	670.00	666.00	664.00	655.00	650.00	649.00	645.00	646.00	650.00	666.00	682.00	671.00	672.00	657.00	661.00	661.00	647.00	661.00	658.00	651.00	646.00	636.00	633.00	634.00	635.00	641.00	653.00	657.00	656.00	656.00	655.00	659.00	661.00	663.00	669.00	665.00	683.00	677.00	665.00	675.00	659.00	640.00	635.00	621.00	620.00	621.00	618.00	622.00	625.00	628.00	626.00	628.00	630.00	634.00	639.00	644.00	646.00	651.00	643.00	642.00	646.00	646.00	646.00	650.00	647.00	653.00	657.00	660.00	665.00	666.00	669.00	669.00	672.00	672.00	674.00	676.00	677.00
666.00	662.00	648.00	646.00	640.00	638.00	638.00	639.00	640.00	639.00	637.00	639.00	638.00	638.00	639.00	638.00	637.00	637.00	638.00	636.00	638.00	637.00	637.00	637.00	644.00	649.00	650.00	645.00	641.00	683.00	702.00	705.00	679.00	671.00	688.00	684.00	684.00	685.00	684.00	672.00	649.00	673.00	681.00	667.00	633.00	634.00	636.00	654.00	641.00	661.00	663.00	672.00	669.00	655.00	648.00	631.00	622.00	618.00	620.00	619.00	625.00	657.00	670.00	674.00	664.00	661.00	666.00	675.00	677.00	671.00	668.00	664.00	666.00	668.00	667.00	668.00	676.00	663.00	652.00	648.00	661.00	665.00	683.00	694.00	664.00	637.00	621.00	616.00	616.00	617.00	618.00	615.00	616.00	615.00	614.00	615.00	616.00	614.00	615.00	616.00	624.00	670.00	784.00	834.00	818.00	939.00	941.00	916.00	902.00	885.00	911.00	908.00	911.00	922.00	868.00	838.00	830.00	819.00	796.00	789.00	771.00	767.00	747.00	728.00	722.00	714.00	709.00	705.00	703.00	711.00	714.00	716.00	686.00	680.00	679.00	676.00	676.00	674.00	670.00	669.00	668.00	664.00	662.00	660.00	658.00	657.00	651.00	655.00	657.00	662.00	661.00	656.00	651.00	643.00	643.00	645.00	647.00	645.00	643.00	646.00	653.00	648.00	647.00	649.00	644.00	641.00	643.00	642.00	639.00	638.00	637.00	637.00	637.00	638.00	671.00	674.00	677.00	676.00	678.00	674.00	668.00	664.00	657.00	654.00	654.00	655.00	647.00	636.00	643.00	650.00	671.00	654.00	656.00	678.00	678.00	645.00	660.00	662.00	654.00	649.00	642.00	637.00	634.00	636.00	640.00	651.00	658.00	658.00	656.00	658.00	656.00	657.00	656.00	658.00	663.00	673.00	668.00	662.00	665.00	652.00	650.00	636.00	624.00	621.00	617.00	619.00	621.00	623.00	626.00	624.00	625.00	630.00	632.00	632.00	636.00	647.00	649.00	643.00	642.00	646.00	650.00	649.00	651.00	654.00	660.00	663.00	660.00	662.00	662.00	668.00	670.00	668.00	672.00	674.00	674.00	673.00
669.00	663.00	653.00	645.00	641.00	639.00	638.00	637.00	638.00	638.00	641.00	639.00	638.00	638.00	637.00	638.00	638.00	637.00	637.00	637.00	637.00	639.00	638.00	638.00	648.00	680.00	682.00	650.00	656.00	687.00	688.00	687.00	653.00	665.00	684.00	675.00	661.00	679.00	675.00	673.00	675.00	679.00	678.00	666.00	633.00	624.00	627.00	660.00	680.00	671.00	652.00	639.00	644.00	663.00	664.00	667.00	666.00	653.00	622.00	622.00	654.00	662.00	663.00	669.00	661.00	661.00	667.00	670.00	675.00	680.00	701.00	687.00	691.00	691.00	686.00	675.00	654.00	680.00	676.00	677.00	672.00	679.00	677.00	670.00	723.00	683.00	652.00	619.00	618.00	616.00	616.00	615.00	616.00	615.00	614.00	616.00	615.00	614.00	615.00	615.00	617.00	655.00	784.00	866.00	835.00	933.00	892.00	935.00	915.00	886.00	897.00	909.00	885.00	882.00	846.00	825.00	829.00	809.00	792.00	772.00	756.00	740.00	740.00	730.00	725.00	716.00	708.00	706.00	700.00	697.00	697.00	697.00	687.00	686.00	684.00	678.00	675.00	671.00	670.00	667.00	665.00	666.00	662.00	661.00	659.00	658.00	657.00	654.00	660.00	664.00	666.00	663.00	658.00	651.00	649.00	654.00	650.00	647.00	652.00	651.00	657.00	652.00	653.00	652.00	645.00	644.00	645.00	644.00	641.00	640.00	640.00	640.00	638.00	635.00	656.00	673.00	680.00	676.00	672.00	675.00	673.00	668.00	663.00	658.00	654.00	648.00	630.00	637.00	637.00	652.00	656.00	663.00	676.00	661.00	652.00	714.00	720.00	708.00	678.00	657.00	645.00	641.00	639.00	639.00	648.00	651.00	654.00	659.00	658.00	656.00	656.00	656.00	659.00	655.00	654.00	656.00	653.00	653.00	654.00	653.00	653.00	646.00	629.00	623.00	621.00	619.00	622.00	624.00	622.00	626.00	627.00	627.00	631.00	630.00	637.00	636.00	634.00	643.00	644.00	645.00	650.00	649.00	649.00	652.00	653.00	653.00	654.00	656.00	663.00	668.00	670.00	668.00	670.00	670.00	671.00	674.00
669.00	667.00	657.00	650.00	643.00	642.00	639.00	639.00	639.00	639.00	639.00	638.00	639.00	637.00	638.00	638.00	638.00	638.00	638.00	638.00	637.00	638.00	640.00	639.00	670.00	680.00	688.00	659.00	656.00	684.00	718.00	726.00	660.00	640.00	675.00	675.00	682.00	682.00	669.00	674.00	674.00	681.00	664.00	659.00	663.00	634.00	625.00	643.00	671.00	668.00	668.00	650.00	644.00	668.00	664.00	650.00	652.00	644.00	622.00	621.00	650.00	658.00	652.00	652.00	644.00	657.00	652.00	666.00	677.00	685.00	702.00	686.00	689.00	692.00	697.00	697.00	666.00	685.00	684.00	687.00	678.00	677.00	679.00	692.00	748.00	718.00	678.00	626.00	619.00	618.00	618.00	616.00	616.00	616.00	617.00	616.00	615.00	615.00	615.00	616.00	617.00	649.00	754.00	907.00	852.00	913.00	842.00	861.00	891.00	933.00	883.00	852.00	904.00	865.00	838.00	826.00	825.00	803.00	789.00	780.00	754.00	747.00	743.00	724.00	715.00	712.00	706.00	704.00	698.00	700.00	705.00	708.00	692.00	687.00	683.00	681.00	677.00	671.00	668.00	672.00	666.00	664.00	663.00	662.00	661.00	659.00	657.00	655.00	660.00	664.00	666.00	665.00	659.00	657.00	652.00	655.00	651.00	649.00	653.00	652.00	653.00	652.00	652.00	651.00	647.00	647.00	646.00	645.00	642.00	640.00	642.00	640.00	639.00	636.00	650.00	669.00	677.00	678.00	673.00	670.00	670.00	670.00	664.00	662.00	659.00	658.00	666.00	664.00	654.00	662.00	663.00	675.00	681.00	645.00	644.00	685.00	704.00	698.00	679.00	671.00	678.00	659.00	650.00	648.00	644.00	649.00	653.00	656.00	655.00	665.00	679.00	698.00	696.00	663.00	655.00	656.00	653.00	654.00	654.00	655.00	653.00	649.00	634.00	627.00	623.00	621.00	620.00	624.00	626.00	628.00	629.00	632.00	632.00	631.00	633.00	636.00	640.00	643.00	645.00	643.00	648.00	649.00	652.00	652.00	655.00	657.00	659.00	658.00	659.00	663.00	664.00	667.00	667.00	670.00	673.00	674.00
669.00	667.00	660.00	655.00	651.00	649.00	641.00	638.00	639.00	638.00	638.00	640.00	637.00	637.00	638.00	638.00	639.00	638.00	638.00	638.00	638.00	638.00	638.00	640.00	680.00	688.00	697.00	658.00	651.00	682.00	705.00	711.00	654.00	637.00	674.00	681.00	685.00	691.00	673.00	675.00	687.00	674.00	641.00	666.00	665.00	674.00	651.00	624.00	655.00	655.00	653.00	638.00	648.00	663.00	660.00	634.00	622.00	621.00	630.00	624.00	641.00	650.00	634.00	622.00	619.00	632.00	659.00	668.00	678.00	684.00	692.00	685.00	689.00	688.00	690.00	680.00	688.00	686.00	695.00	678.00	678.00	678.00	686.00	729.00	719.00	707.00	681.00	630.00	620.00	616.00	617.00	615.00	615.00	616.00	619.00	617.00	614.00	613.00	615.00	615.00	617.00	643.00	718.00	888.00	914.00	896.00	884.00	831.00	894.00	919.00	888.00	836.00	899.00	902.00	827.00	824.00	822.00	786.00	771.00	776.00	776.00	757.00	738.00	714.00	712.00	715.00	713.00	705.00	701.00	703.00	704.00	704.00	697.00	690.00	689.00	685.00	681.00	677.00	677.00	672.00	666.00	664.00	664.00	662.00	660.00	658.00	658.00	657.00	659.00	665.00	664.00	667.00	662.00	662.00	656.00	656.00	653.00	651.00	651.00	650.00	648.00	648.00	646.00	652.00	648.00	646.00	646.00	644.00	642.00	643.00	643.00	639.00	641.00	635.00	646.00	651.00	654.00	675.00	674.00	670.00	667.00	669.00	665.00	665.00	660.00	654.00	693.00	674.00	650.00	651.00	680.00	683.00	668.00	645.00	642.00	659.00	672.00	671.00	677.00	699.00	702.00	703.00	681.00	691.00	663.00	650.00	652.00	654.00	657.00	660.00	676.00	689.00	697.00	659.00	655.00	657.00	653.00	654.00	653.00	653.00	653.00	653.00	639.00	631.00	625.00	622.00	620.00	622.00	624.00	628.00	632.00	635.00	638.00	638.00	639.00	639.00	638.00	645.00	644.00	642.00	647.00	649.00	652.00	652.00	654.00	658.00	660.00	660.00	659.00	662.00	663.00	666.00	667.00	670.00	670.00	671.00
669.00	665.00	661.00	658.00	655.00	653.00	642.00	639.00	639.00	638.00	639.00	638.00	637.00	639.00	639.00	639.00	638.00	638.00	638.00	639.00	639.00	637.00	639.00	653.00	683.00	689.00	712.00	652.00	659.00	680.00	684.00	679.00	638.00	633.00	671.00	674.00	698.00	679.00	670.00	673.00	677.00	672.00	662.00	671.00	672.00	676.00	678.00	636.00	630.00	627.00	631.00	634.00	634.00	658.00	660.00	659.00	626.00	624.00	652.00	656.00	650.00	645.00	631.00	623.00	625.00	638.00	656.00	672.00	681.00	684.00	683.00	684.00	677.00	668.00	674.00	675.00	678.00	681.00	666.00	678.00	677.00	676.00	688.00	706.00	711.00	709.00	693.00	636.00	624.00	617.00	617.00	615.00	615.00	616.00	616.00	617.00	617.00	616.00	617.00	616.00	616.00	634.00	678.00	888.00	883.00	840.00	825.00	823.00	852.00	869.00	861.00	839.00	851.00	851.00	817.00	805.00	789.00	800.00	793.00	779.00	765.00	751.00	741.00	718.00	724.00	720.00	712.00	706.00	704.00	703.00	705.00	710.00	700.00	694.00	689.00	685.00	683.00	680.00	676.00	671.00	669.00	666.00	665.00	663.00	661.00	658.00	659.00	658.00	658.00	667.00	664.00	667.00	665.00	662.00	659.00	656.00	654.00	653.00	654.00	653.00	647.00	646.00	650.00	650.00	645.00	645.00	646.00	644.00	643.00	643.00	642.00	639.00	642.00	639.00	639.00	644.00	647.00	660.00	676.00	671.00	667.00	669.00	665.00	662.00	660.00	651.00	705.00	686.00	654.00	640.00	675.00	714.00	674.00	648.00	656.00	648.00	651.00	660.00	674.00	704.00	683.00	670.00	677.00	698.00	685.00	654.00	652.00	655.00	655.00	657.00	659.00	661.00	663.00	658.00	656.00	656.00	654.00	651.00	654.00	654.00	652.00	652.00	644.00	629.00	627.00	623.00	619.00	621.00	621.00	629.00	631.00	635.00	636.00	639.00	639.00	637.00	638.00	643.00	641.00	647.00	645.00	648.00	650.00	651.00	654.00	655.00	656.00	658.00	658.00	662.00	667.00	668.00	673.00	674.00	675.00	675.00
672.00	667.00	665.00	661.00	658.00	651.00	646.00	639.00	637.00	640.00	639.00	639.00	639.00	639.00	640.00	639.00	638.00	638.00	640.00	640.00	638.00	638.00	640.00	650.00	677.00	683.00	713.00	652.00	669.00	681.00	688.00	678.00	664.00	646.00	674.00	659.00	666.00	656.00	652.00	662.00	667.00	662.00	654.00	674.00	675.00	674.00	670.00	664.00	639.00	630.00	640.00	642.00	627.00	645.00	658.00	660.00	642.00	628.00	655.00	654.00	652.00	652.00	654.00	653.00	652.00	648.00	662.00	674.00	678.00	683.00	683.00	682.00	681.00	659.00	647.00	668.00	669.00	695.00	654.00	672.00	670.00	662.00	675.00	713.00	716.00	707.00	683.00	638.00	627.00	621.00	620.00	618.00	617.00	617.00	616.00	618.00	618.00	615.00	615.00	618.00	615.00	632.00	654.00	776.00	821.00	797.00	792.00	814.00	821.00	877.00	865.00	820.00	807.00	806.00	794.00	837.00	825.00	805.00	797.00	763.00	768.00	754.00	722.00	746.00	752.00	727.00	711.00	708.00	708.00	706.00	704.00	709.00	711.00	697.00	690.00	686.00	684.00	676.00	673.00	672.00	669.00	668.00	664.00	663.00	661.00	660.00	662.00	658.00	659.00	666.00	667.00	669.00	667.00	662.00	660.00	655.00	657.00	657.00	656.00	654.00	650.00	650.00	652.00	652.00	648.00	644.00	645.00	646.00	644.00	644.00	644.00	642.00	643.00	640.00	637.00	639.00	646.00	650.00	664.00	674.00	669.00	667.00	665.00	661.00	661.00	656.00	681.00	679.00	669.00	657.00	639.00	666.00	686.00	699.00	698.00	647.00	646.00	647.00	659.00	679.00	667.00	660.00	662.00	674.00	674.00	648.00	649.00	651.00	655.00	658.00	658.00	658.00	657.00	658.00	657.00	657.00	652.00	654.00	654.00	653.00	653.00	652.00	646.00	633.00	628.00	625.00	623.00	620.00	623.00	629.00	630.00	633.00	633.00	635.00	638.00	642.00	640.00	638.00	639.00	640.00	647.00	649.00	648.00	651.00	654.00	654.00	656.00	660.00	660.00	660.00	665.00	666.00	668.00	671.00	673.00	672.00
673.00	664.00	660.00	655.00	655.00	645.00	641.00	638.00	640.00	639.00	638.00	639.00	639.00	639.00	640.00	638.00	639.00	639.00	639.00	639.00	640.00	656.00	665.00	656.00	672.00	679.00	687.00	648.00	662.00	666.00	679.00	680.00	680.00	674.00	678.00	671.00	641.00	628.00	634.00	667.00	669.00	677.00	677.00	670.00	671.00	664.00	663.00	665.00	662.00	654.00	661.00	662.00	634.00	643.00	659.00	658.00	630.00	624.00	650.00	624.00	629.00	628.00	636.00	632.00	633.00	650.00	668.00	669.00	676.00	682.00	683.00	682.00	680.00	677.00	672.00	674.00	664.00	658.00	666.00	670.00	670.00	671.00	669.00	709.00	688.00	673.00	656.00	631.00	625.00	623.00	621.00	620.00	621.00	617.00	617.00	616.00	617.00	616.00	616.00	616.00	616.00	629.00	661.00	838.00	882.00	815.00	797.00	789.00	817.00	810.00	801.00	863.00	843.00	812.00	868.00	880.00	837.00	811.00	798.00	777.00	779.00	747.00	730.00	754.00	736.00	719.00	716.00	709.00	714.00	704.00	705.00	709.00	700.00	695.00	691.00	687.00	682.00	677.00	672.00	671.00	671.00	667.00	664.00	663.00	662.00	662.00	662.00	661.00	661.00	667.00	670.00	670.00	669.00	663.00	662.00	657.00	660.00	660.00	658.00	657.00	656.00	655.00	654.00	653.00	651.00	647.00	645.00	647.00	645.00	642.00	644.00	643.00	644.00	642.00	639.00	637.00	644.00	648.00	653.00	671.00	671.00	669.00	668.00	665.00	665.00	659.00	658.00	667.00	667.00	649.00	637.00	641.00	655.00	677.00	661.00	648.00	646.00	644.00	647.00	658.00	661.00	662.00	672.00	684.00	680.00	643.00	645.00	647.00	653.00	664.00	665.00	661.00	659.00	657.00	659.00	659.00	656.00	663.00	659.00	659.00	664.00	664.00	654.00	637.00	631.00	625.00	624.00	621.00	623.00	624.00	629.00	631.00	633.00	636.00	641.00	640.00	640.00	637.00	637.00	635.00	650.00	650.00	650.00	649.00	652.00	655.00	656.00	661.00	660.00	665.00	662.00	664.00	666.00	669.00	670.00	671.00
672.00	663.00	650.00	645.00	643.00	642.00	639.00	640.00	639.00	640.00	640.00	638.00	638.00	638.00	638.00	639.00	639.00	639.00	640.00	640.00	652.00	678.00	681.00	684.00	695.00	645.00	680.00	649.00	646.00	647.00	676.00	681.00	682.00	678.00	674.00	697.00	669.00	659.00	626.00	667.00	673.00	678.00	678.00	671.00	670.00	657.00	633.00	662.00	661.00	661.00	662.00	661.00	634.00	644.00	657.00	656.00	623.00	621.00	620.00	622.00	622.00	630.00	631.00	629.00	629.00	635.00	647.00	663.00	673.00	677.00	679.00	679.00	678.00	691.00	672.00	682.00	660.00	658.00	673.00	670.00	672.00	669.00	666.00	666.00	661.00	655.00	637.00	628.00	621.00	620.00	619.00	617.00	619.00	618.00	617.00	616.00	618.00	619.00	617.00	617.00	618.00	628.00	671.00	822.00	819.00	803.00	785.00	781.00	782.00	791.00	791.00	891.00	840.00	894.00	898.00	888.00	864.00	814.00	788.00	768.00	769.00	736.00	754.00	741.00	748.00	727.00	723.00	712.00	709.00	706.00	708.00	708.00	701.00	698.00	697.00	689.00	685.00	679.00	676.00	674.00	673.00	669.00	663.00	663.00	661.00	662.00	665.00	662.00	663.00	665.00	672.00	672.00	669.00	664.00	663.00	662.00	661.00	660.00	660.00	658.00	656.00	655.00	655.00	655.00	652.00	649.00	648.00	648.00	646.00	643.00	643.00	644.00	644.00	642.00	639.00	641.00	640.00	648.00	650.00	666.00	675.00	672.00	671.00	667.00	664.00	657.00	653.00	668.00	674.00	656.00	648.00	644.00	643.00	646.00	647.00	649.00	650.00	644.00	648.00	667.00	682.00	695.00	721.00	702.00	685.00	641.00	648.00	655.00	663.00	700.00	695.00	681.00	668.00	670.00	685.00	680.00	679.00	696.00	691.00	689.00	686.00	677.00	657.00	639.00	637.00	632.00	622.00	623.00	624.00	623.00	628.00	633.00	635.00	637.00	638.00	639.00	638.00	634.00	637.00	635.00	651.00	650.00	650.00	650.00	653.00	651.00	652.00	658.00	660.00	665.00	666.00	664.00	666.00	669.00	670.00	672.00
675.00	663.00	645.00	642.00	641.00	641.00	640.00	641.00	639.00	640.00	638.00	638.00	639.00	639.00	639.00	639.00	639.00	640.00	641.00	641.00	648.00	683.00	685.00	686.00	693.00	669.00	682.00	687.00	658.00	645.00	672.00	680.00	679.00	675.00	673.00	671.00	671.00	668.00	634.00	661.00	678.00	677.00	672.00	674.00	675.00	670.00	650.00	654.00	648.00	658.00	659.00	657.00	626.00	635.00	652.00	646.00	621.00	619.00	621.00	621.00	621.00	649.00	633.00	631.00	629.00	635.00	635.00	639.00	657.00	675.00	676.00	676.00	677.00	680.00	671.00	664.00	645.00	655.00	667.00	649.00	647.00	646.00	643.00	655.00	675.00	666.00	643.00	623.00	621.00	621.00	617.00	618.00	617.00	618.00	617.00	616.00	618.00	617.00	618.00	618.00	618.00	628.00	661.00	800.00	834.00	828.00	790.00	776.00	774.00	787.00	800.00	812.00	844.00	883.00	920.00	880.00	868.00	820.00	768.00	765.00	751.00	770.00	754.00	734.00	742.00	722.00	719.00	716.00	714.00	711.00	712.00	708.00	704.00	702.00	695.00	691.00	689.00	682.00	678.00	677.00	676.00	672.00	664.00	663.00	663.00	665.00	665.00	663.00	666.00	666.00	674.00	671.00	669.00	666.00	664.00	664.00	661.00	662.00	660.00	658.00	659.00	656.00	655.00	654.00	650.00	649.00	649.00	648.00	648.00	646.00	646.00	645.00	645.00	648.00	639.00	637.00	639.00	644.00	650.00	659.00	677.00	675.00	672.00	669.00	664.00	656.00	657.00	653.00	659.00	652.00	648.00	645.00	647.00	648.00	648.00	648.00	647.00	645.00	650.00	675.00	700.00	683.00	666.00	665.00	663.00	647.00	662.00	663.00	674.00	704.00	696.00	689.00	677.00	696.00	682.00	673.00	678.00	679.00	699.00	694.00	674.00	674.00	652.00	643.00	636.00	632.00	625.00	625.00	623.00	625.00	628.00	630.00	637.00	636.00	637.00	631.00	634.00	634.00	635.00	645.00	649.00	649.00	647.00	650.00	647.00	651.00	655.00	654.00	660.00	667.00	671.00	669.00	668.00	670.00	673.00	674.00
671.00	655.00	645.00	643.00	641.00	641.00	641.00	641.00	642.00	642.00	642.00	642.00	640.00	639.00	639.00	639.00	641.00	640.00	639.00	639.00	661.00	672.00	669.00	640.00	642.00	683.00	691.00	684.00	665.00	649.00	661.00	672.00	670.00	648.00	663.00	674.00	661.00	658.00	661.00	642.00	661.00	667.00	671.00	643.00	666.00	667.00	679.00	650.00	662.00	664.00	662.00	660.00	643.00	634.00	654.00	659.00	630.00	622.00	620.00	621.00	620.00	625.00	625.00	623.00	625.00	630.00	633.00	638.00	650.00	669.00	672.00	671.00	670.00	669.00	649.00	650.00	663.00	655.00	631.00	630.00	629.00	635.00	656.00	647.00	665.00	660.00	645.00	624.00	622.00	623.00	620.00	618.00	619.00	618.00	620.00	618.00	617.00	618.00	619.00	618.00	620.00	637.00	670.00	820.00	844.00	856.00	868.00	886.00	799.00	779.00	759.00	752.00	766.00	787.00	747.00	784.00	891.00	793.00	762.00	783.00	790.00	781.00	767.00	751.00	729.00	722.00	723.00	729.00	714.00	716.00	713.00	712.00	706.00	703.00	701.00	704.00	701.00	692.00	689.00	688.00	683.00	678.00	668.00	665.00	667.00	667.00	668.00	669.00	668.00	674.00	676.00	672.00	673.00	669.00	668.00	665.00	665.00	664.00	662.00	659.00	660.00	658.00	658.00	656.00	652.00	652.00	652.00	651.00	648.00	647.00	647.00	645.00	645.00	640.00	639.00	639.00	636.00	640.00	647.00	652.00	676.00	679.00	676.00	674.00	669.00	661.00	655.00	653.00	674.00	689.00	707.00	660.00	647.00	646.00	645.00	651.00	650.00	646.00	647.00	658.00	664.00	659.00	659.00	653.00	643.00	636.00	638.00	641.00	654.00	670.00	667.00	671.00	687.00	664.00	658.00	658.00	655.00	656.00	654.00	654.00	654.00	652.00	653.00	646.00	645.00	646.00	631.00	627.00	625.00	625.00	624.00	627.00	631.00	629.00	629.00	634.00	639.00	633.00	639.00	640.00	646.00	646.00	646.00	648.00	648.00	651.00	650.00	656.00	659.00	661.00	663.00	664.00	668.00	673.00	674.00	675.00
669.00	660.00	646.00	644.00	644.00	642.00	643.00	642.00	642.00	642.00	641.00	641.00	640.00	640.00	639.00	639.00	640.00	640.00	641.00	641.00	674.00	674.00	672.00	637.00	645.00	682.00	698.00	688.00	663.00	662.00	671.00	673.00	665.00	665.00	657.00	663.00	670.00	650.00	642.00	636.00	649.00	659.00	661.00	658.00	659.00	662.00	666.00	654.00	654.00	662.00	660.00	659.00	656.00	648.00	654.00	657.00	640.00	625.00	622.00	619.00	622.00	621.00	624.00	624.00	625.00	639.00	641.00	642.00	641.00	652.00	670.00	669.00	667.00	666.00	663.00	657.00	648.00	643.00	649.00	629.00	631.00	631.00	635.00	649.00	647.00	640.00	633.00	623.00	621.00	623.00	619.00	619.00	620.00	618.00	619.00	618.00	619.00	618.00	619.00	620.00	622.00	638.00	661.00	772.00	835.00	814.00	801.00	836.00	803.00	768.00	758.00	759.00	760.00	772.00	761.00	831.00	884.00	843.00	788.00	769.00	777.00	784.00	774.00	734.00	736.00	726.00	742.00	726.00	718.00	715.00	714.00	713.00	708.00	706.00	704.00	704.00	706.00	700.00	695.00	692.00	687.00	678.00	671.00	667.00	668.00	668.00	670.00	669.00	669.00	672.00	676.00	675.00	676.00	671.00	669.00	665.00	667.00	664.00	663.00	661.00	661.00	658.00	653.00	655.00	654.00	653.00	652.00	651.00	648.00	647.00	646.00	646.00	643.00	640.00	641.00	640.00	636.00	641.00	642.00	649.00	667.00	683.00	678.00	672.00	670.00	664.00	659.00	656.00	652.00	670.00	735.00	685.00	651.00	644.00	644.00	650.00	650.00	649.00	656.00	664.00	662.00	657.00	657.00	653.00	641.00	633.00	635.00	638.00	646.00	661.00	658.00	658.00	660.00	659.00	659.00	658.00	656.00	656.00	656.00	655.00	655.00	655.00	654.00	652.00	648.00	645.00	638.00	628.00	627.00	624.00	625.00	627.00	629.00	631.00	631.00	636.00	641.00	642.00	640.00	642.00	640.00	646.00	647.00	649.00	655.00	653.00	654.00	656.00	657.00	659.00	663.00	664.00	666.00	673.00	674.00	675.00
655.00	652.00	646.00	644.00	644.00	645.00	643.00	642.00	642.00	642.00	641.00	641.00	641.00	639.00	640.00	640.00	640.00	640.00	641.00	642.00	662.00	673.00	669.00	665.00	676.00	672.00	686.00	682.00	681.00	654.00	660.00	665.00	665.00	671.00	653.00	657.00	669.00	670.00	634.00	633.00	648.00	657.00	662.00	656.00	655.00	657.00	663.00	653.00	652.00	655.00	656.00	663.00	656.00	654.00	654.00	654.00	640.00	626.00	618.00	618.00	620.00	620.00	623.00	623.00	624.00	645.00	644.00	642.00	642.00	643.00	674.00	673.00	671.00	667.00	664.00	663.00	667.00	662.00	666.00	642.00	631.00	631.00	632.00	631.00	631.00	629.00	630.00	623.00	622.00	620.00	620.00	618.00	619.00	620.00	619.00	619.00	619.00	618.00	619.00	622.00	625.00	634.00	647.00	683.00	844.00	854.00	811.00	781.00	789.00	823.00	821.00	778.00	820.00	852.00	769.00	852.00	819.00	810.00	799.00	770.00	758.00	768.00	745.00	765.00	745.00	745.00	742.00	725.00	723.00	717.00	715.00	715.00	709.00	708.00	707.00	705.00	706.00	705.00	702.00	697.00	689.00	681.00	670.00	666.00	668.00	669.00	670.00	673.00	674.00	674.00	678.00	676.00	676.00	671.00	671.00	669.00	667.00	662.00	663.00	661.00	659.00	655.00	658.00	658.00	654.00	654.00	651.00	651.00	649.00	648.00	646.00	645.00	644.00	643.00	641.00	640.00	637.00	640.00	641.00	648.00	663.00	684.00	678.00	675.00	674.00	665.00	661.00	656.00	652.00	656.00	698.00	697.00	663.00	650.00	648.00	649.00	649.00	660.00	701.00	703.00	665.00	657.00	657.00	652.00	641.00	633.00	633.00	635.00	640.00	655.00	660.00	659.00	659.00	658.00	658.00	657.00	656.00	655.00	655.00	655.00	656.00	654.00	655.00	653.00	647.00	646.00	642.00	631.00	631.00	626.00	627.00	628.00	630.00	631.00	633.00	638.00	638.00	639.00	644.00	643.00	638.00	639.00	641.00	647.00	651.00	650.00	652.00	652.00	657.00	661.00	660.00	663.00	666.00	668.00	671.00	670.00
647.00	646.00	645.00	644.00	643.00	644.00	643.00	642.00	643.00	640.00	642.00	642.00	643.00	641.00	642.00	640.00	640.00	640.00	642.00	644.00	652.00	659.00	674.00	672.00	684.00	674.00	665.00	677.00	653.00	641.00	652.00	658.00	661.00	660.00	649.00	655.00	664.00	658.00	636.00	641.00	649.00	657.00	664.00	639.00	657.00	655.00	659.00	654.00	652.00	652.00	651.00	661.00	649.00	649.00	648.00	637.00	623.00	629.00	618.00	619.00	621.00	621.00	622.00	627.00	631.00	645.00	642.00	640.00	663.00	669.00	670.00	669.00	668.00	667.00	667.00	668.00	670.00	667.00	673.00	665.00	650.00	634.00	631.00	631.00	631.00	644.00	632.00	623.00	623.00	620.00	622.00	622.00	621.00	619.00	619.00	618.00	618.00	618.00	618.00	622.00	626.00	634.00	642.00	664.00	776.00	807.00	794.00	809.00	849.00	897.00	781.00	781.00	837.00	801.00	786.00	823.00	824.00	828.00	811.00	772.00	766.00	756.00	744.00	767.00	782.00	757.00	739.00	731.00	722.00	719.00	719.00	716.00	712.00	708.00	709.00	708.00	708.00	707.00	707.00	700.00	692.00	680.00	672.00	670.00	670.00	671.00	671.00	675.00	677.00	679.00	678.00	678.00	677.00	672.00	671.00	667.00	667.00	665.00	664.00	664.00	662.00	660.00	660.00	658.00	655.00	652.00	652.00	653.00	649.00	647.00	645.00	643.00	642.00	641.00	640.00	640.00	638.00	640.00	638.00	644.00	657.00	682.00	678.00	679.00	679.00	673.00	664.00	659.00	655.00	663.00	672.00	679.00	693.00	692.00	676.00	660.00	673.00	674.00	688.00	704.00	688.00	674.00	666.00	661.00	643.00	633.00	632.00	636.00	637.00	650.00	654.00	659.00	659.00	659.00	660.00	658.00	657.00	655.00	656.00	656.00	654.00	656.00	653.00	650.00	645.00	646.00	643.00	634.00	627.00	629.00	629.00	631.00	629.00	631.00	632.00	636.00	637.00	641.00	639.00	639.00	639.00	636.00	640.00	647.00	651.00	653.00	651.00	654.00	659.00	660.00	663.00	664.00	664.00	666.00	668.00	668.00
644.00	645.00	646.00	644.00	646.00	646.00	646.00	645.00	645.00	644.00	644.00	642.00	643.00	642.00	642.00	643.00	642.00	642.00	641.00	641.00	666.00	663.00	677.00	681.00	696.00	674.00	668.00	683.00	683.00	640.00	634.00	645.00	661.00	658.00	666.00	643.00	661.00	649.00	654.00	655.00	652.00	650.00	652.00	651.00	650.00	648.00	644.00	627.00	643.00	645.00	650.00	640.00	640.00	634.00	621.00	623.00	622.00	620.00	618.00	618.00	622.00	634.00	636.00	637.00	639.00	649.00	642.00	638.00	654.00	662.00	662.00	661.00	654.00	657.00	669.00	671.00	670.00	670.00	670.00	669.00	669.00	668.00	667.00	642.00	631.00	647.00	652.00	642.00	628.00	625.00	634.00	640.00	623.00	621.00	619.00	619.00	619.00	622.00	624.00	628.00	634.00	640.00	644.00	656.00	702.00	847.00	876.00	847.00	850.00	810.00	783.00	844.00	857.00	813.00	838.00	847.00	828.00	804.00	787.00	772.00	789.00	783.00	765.00	759.00	749.00	760.00	791.00	766.00	734.00	725.00	722.00	719.00	712.00	713.00	709.00	711.00	711.00	712.00	714.00	712.00	707.00	687.00	680.00	678.00	673.00	673.00	672.00	677.00	682.00	682.00	681.00	679.00	679.00	671.00	671.00	670.00	670.00	669.00	667.00	664.00	663.00	662.00	661.00	659.00	655.00	655.00	654.00	652.00	656.00	653.00	648.00	644.00	643.00	643.00	641.00	640.00	639.00	636.00	638.00	641.00	650.00	680.00	680.00	676.00	675.00	686.00	696.00	691.00	721.00	746.00	751.00	673.00	670.00	673.00	664.00	718.00	732.00	706.00	682.00	675.00	687.00	685.00	686.00	707.00	699.00	640.00	632.00	634.00	636.00	643.00	650.00	656.00	658.00	658.00	658.00	658.00	656.00	655.00	656.00	656.00	655.00	655.00	655.00	654.00	662.00	668.00	645.00	633.00	627.00	627.00	627.00	630.00	635.00	640.00	637.00	636.00	639.00	641.00	641.00	642.00	642.00	643.00	648.00	650.00	649.00	652.00	652.00	654.00	657.00	659.00	660.00	662.00	662.00	664.00	666.00	668.00
646.00	646.00	647.00	644.00	645.00	646.00	646.00	649.00	646.00	644.00	642.00	643.00	644.00	642.00	643.00	643.00	641.00	641.00	642.00	642.00	665.00	674.00	683.00	693.00	718.00	678.00	684.00	683.00	682.00	675.00	649.00	648.00	654.00	656.00	679.00	648.00	651.00	649.00	641.00	644.00	651.00	650.00	646.00	645.00	648.00	649.00	656.00	647.00	649.00	643.00	630.00	625.00	645.00	645.00	639.00	637.00	621.00	619.00	620.00	620.00	622.00	642.00	643.00	647.00	635.00	650.00	650.00	643.00	649.00	651.00	653.00	654.00	653.00	656.00	660.00	661.00	663.00	666.00	669.00	670.00	669.00	670.00	670.00	669.00	649.00	659.00	642.00	650.00	647.00	646.00	648.00	653.00	625.00	621.00	621.00	620.00	624.00	627.00	629.00	630.00	635.00	645.00	647.00	657.00	702.00	867.00	847.00	823.00	792.00	809.00	828.00	871.00	825.00	801.00	814.00	835.00	823.00	823.00	803.00	773.00	822.00	774.00	781.00	746.00	755.00	760.00	789.00	780.00	747.00	730.00	736.00	731.00	716.00	713.00	711.00	711.00	711.00	711.00	712.00	715.00	707.00	697.00	683.00	676.00	675.00	675.00	677.00	682.00	683.00	682.00	680.00	678.00	674.00	673.00	672.00	672.00	670.00	666.00	665.00	663.00	662.00	661.00	660.00	660.00	656.00	655.00	654.00	652.00	660.00	655.00	650.00	647.00	644.00	645.00	644.00	642.00	640.00	640.00	638.00	643.00	652.00	677.00	682.00	676.00	675.00	679.00	694.00	702.00	725.00	745.00	751.00	692.00	671.00	668.00	652.00	680.00	704.00	692.00	679.00	668.00	673.00	679.00	667.00	681.00	701.00	679.00	656.00	638.00	634.00	639.00	648.00	653.00	657.00	658.00	658.00	657.00	658.00	661.00	657.00	655.00	656.00	656.00	655.00	652.00	667.00	690.00	655.00	638.00	631.00	630.00	632.00	633.00	631.00	636.00	635.00	642.00	644.00	645.00	643.00	646.00	642.00	646.00	648.00	648.00	652.00	652.00	655.00	654.00	657.00	659.00	660.00	660.00	662.00	663.00	664.00	667.00
646.00	646.00	645.00	645.00	645.00	645.00	645.00	647.00	645.00	644.00	643.00	646.00	644.00	645.00	643.00	643.00	643.00	642.00	640.00	641.00	656.00	660.00	691.00	708.00	725.00	683.00	690.00	676.00	691.00	669.00	651.00	655.00	656.00	647.00	647.00	648.00	649.00	651.00	633.00	648.00	650.00	649.00	648.00	646.00	647.00	648.00	652.00	645.00	649.00	645.00	630.00	632.00	649.00	651.00	647.00	655.00	643.00	622.00	635.00	642.00	637.00	641.00	647.00	646.00	645.00	653.00	652.00	651.00	651.00	640.00	648.00	651.00	648.00	650.00	653.00	653.00	653.00	655.00	658.00	660.00	660.00	662.00	666.00	667.00	660.00	648.00	640.00	646.00	655.00	655.00	654.00	651.00	622.00	622.00	621.00	620.00	623.00	623.00	626.00	628.00	632.00	644.00	649.00	657.00	700.00	798.00	832.00	809.00	805.00	857.00	858.00	826.00	788.00	782.00	840.00	857.00	828.00	817.00	820.00	783.00	794.00	791.00	837.00	761.00	771.00	766.00	788.00	770.00	758.00	766.00	751.00	732.00	720.00	716.00	713.00	712.00	711.00	711.00	712.00	710.00	711.00	707.00	688.00	683.00	679.00	677.00	678.00	684.00	684.00	683.00	678.00	676.00	675.00	675.00	673.00	669.00	669.00	668.00	665.00	667.00	664.00	664.00	661.00	659.00	656.00	656.00	654.00	652.00	651.00	656.00	654.00	650.00	647.00	646.00	645.00	644.00	640.00	640.00	638.00	641.00	653.00	679.00	681.00	677.00	676.00	674.00	680.00	700.00	728.00	730.00	706.00	679.00	680.00	676.00	646.00	673.00	691.00	677.00	669.00	665.00	697.00	708.00	681.00	665.00	710.00	724.00	689.00	650.00	635.00	641.00	644.00	648.00	653.00	657.00	657.00	660.00	663.00	691.00	682.00	673.00	671.00	665.00	655.00	650.00	650.00	665.00	654.00	649.00	634.00	630.00	629.00	631.00	633.00	632.00	638.00	637.00	641.00	647.00	648.00	650.00	645.00	646.00	649.00	649.00	651.00	651.00	652.00	654.00	655.00	658.00	659.00	660.00	660.00	663.00	663.00	665.00
648.00	646.00	646.00	646.00	645.00	645.00	648.00	644.00	644.00	646.00	644.00	644.00	645.00	645.00	643.00	643.00	643.00	641.00	640.00	641.00	647.00	653.00	681.00	699.00	720.00	693.00	698.00	676.00	681.00	660.00	654.00	655.00	657.00	657.00	658.00	645.00	646.00	646.00	633.00	644.00	645.00	647.00	647.00	656.00	648.00	646.00	645.00	644.00	643.00	644.00	637.00	634.00	646.00	647.00	657.00	649.00	644.00	637.00	642.00	646.00	648.00	650.00	650.00	646.00	644.00	648.00	648.00	648.00	648.00	646.00	640.00	648.00	648.00	655.00	658.00	658.00	659.00	657.00	655.00	654.00	655.00	653.00	659.00	672.00	660.00	648.00	648.00	651.00	651.00	652.00	652.00	631.00	620.00	621.00	620.00	620.00	620.00	622.00	625.00	627.00	632.00	647.00	655.00	660.00	668.00	760.00	833.00	839.00	895.00	913.00	889.00	835.00	793.00	790.00	845.00	866.00	816.00	791.00	785.00	813.00	813.00	833.00	790.00	799.00	782.00	782.00	769.00	776.00	784.00	780.00	753.00	753.00	727.00	720.00	717.00	714.00	712.00	712.00	713.00	714.00	714.00	717.00	700.00	691.00	684.00	680.00	679.00	685.00	685.00	684.00	679.00	676.00	678.00	676.00	673.00	672.00	670.00	668.00	665.00	668.00	671.00	670.00	665.00	659.00	655.00	655.00	653.00	652.00	648.00	650.00	655.00	655.00	651.00	646.00	645.00	644.00	643.00	643.00	639.00	643.00	656.00	678.00	682.00	678.00	677.00	676.00	676.00	687.00	726.00	741.00	717.00	673.00	675.00	660.00	640.00	703.00	675.00	656.00	652.00	678.00	746.00	725.00	685.00	667.00	675.00	727.00	685.00	654.00	643.00	649.00	644.00	648.00	653.00	658.00	665.00	672.00	664.00	680.00	688.00	688.00	690.00	698.00	663.00	651.00	652.00	657.00	654.00	645.00	638.00	635.00	635.00	629.00	635.00	636.00	639.00	639.00	640.00	641.00	643.00	648.00	650.00	648.00	649.00	649.00	651.00	650.00	651.00	652.00	656.00	658.00	658.00	659.00	659.00	662.00	663.00	663.00
647.00	646.00	644.00	647.00	647.00	645.00	646.00	646.00	646.00	645.00	644.00	644.00	647.00	644.00	643.00	644.00	645.00	644.00	643.00	650.00	651.00	653.00	651.00	671.00	689.00	670.00	650.00	677.00	655.00	663.00	654.00	661.00	664.00	665.00	660.00	657.00	641.00	631.00	634.00	636.00	643.00	653.00	652.00	649.00	650.00	648.00	645.00	640.00	653.00	656.00	640.00	637.00	640.00	646.00	644.00	644.00	642.00	644.00	644.00	631.00	631.00	646.00	646.00	648.00	644.00	644.00	644.00	643.00	642.00	640.00	646.00	647.00	646.00	639.00	626.00	626.00	636.00	640.00	656.00	662.00	658.00	658.00	662.00	657.00	664.00	661.00	654.00	645.00	644.00	643.00	624.00	621.00	620.00	621.00	621.00	620.00	621.00	625.00	629.00	633.00	637.00	668.00	671.00	683.00	703.00	885.00	963.00	919.00	890.00	837.00	839.00	794.00	786.00	819.00	849.00	867.00	819.00	800.00	790.00	779.00	782.00	777.00	847.00	854.00	821.00	814.00	788.00	802.00	762.00	760.00	773.00	781.00	748.00	726.00	721.00	719.00	717.00	712.00	712.00	717.00	717.00	722.00	718.00	710.00	704.00	695.00	683.00	684.00	684.00	683.00	679.00	678.00	677.00	675.00	676.00	675.00	670.00	668.00	668.00	672.00	669.00	668.00	666.00	664.00	656.00	653.00	652.00	650.00	648.00	648.00	647.00	653.00	652.00	648.00	647.00	646.00	645.00	643.00	642.00	649.00	669.00	691.00	684.00	682.00	674.00	676.00	676.00	675.00	691.00	707.00	776.00	774.00	736.00	663.00	637.00	640.00	647.00	650.00	649.00	653.00	670.00	674.00	667.00	668.00	693.00	671.00	654.00	650.00	660.00	690.00	686.00	680.00	686.00	668.00	686.00	689.00	679.00	691.00	685.00	680.00	674.00	666.00	656.00	660.00	669.00	661.00	652.00	648.00	641.00	635.00	631.00	631.00	636.00	635.00	637.00	638.00	638.00	638.00	638.00	639.00	644.00	644.00	643.00	645.00	645.00	647.00	648.00	652.00	655.00	658.00	659.00	660.00	659.00	661.00	663.00	666.00
647.00	646.00	644.00	647.00	647.00	645.00	646.00	646.00	646.00	645.00	644.00	644.00	647.00	644.00	643.00	644.00	645.00	644.00	643.00	650.00	651.00	653.00	651.00	671.00	689.00	670.00	650.00	677.00	655.00	663.00	654.00	661.00	664.00	665.00	660.00	657.00	641.00	631.00	634.00	636.00	643.00	653.00	652.00	649.00	650.00	648.00	645.00	640.00	653.00	656.00	640.00	637.00	640.00	646.00	644.00	644.00	642.00	644.00	644.00	631.00	631.00	646.00	646.00	648.00	644.00	644.00	644.00	643.00	642.00	640.00	646.00	647.00	646.00	639.00	626.00	626.00	636.00	640.00	656.00	662.00	658.00	658.00	662.00	657.00	664.00	661.00	654.00	645.00	644.00	643.00	624.00	621.00	620.00	621.00	621.00	620.00	621.00	625.00	629.00	633.00	637.00	668.00	671.00	683.00	703.00	885.00	963.00	919.00	890.00	837.00	839.00	794.00	786.00	819.00	849.00	867.00	819.00	800.00	790.00	779.00	782.00	777.00	847.00	854.00	821.00	814.00	788.00	802.00	762.00	760.00	773.00	781.00	748.00	726.00	721.00	719.00	717.00	712.00	712.00	717.00	717.00	722.00	718.00	710.00	704.00	695.00	683.00	684.00	684.00	683.00	679.00	678.00	677.00	675.00	676.00	675.00	670.00	668.00	668.00	672.00	669.00	668.00	666.00	664.00	656.00	653.00	652.00	650.00	648.00	648.00	647.00	653.00	652.00	648.00	647.00	646.00	645.00	643.00	642.00	649.00	669.00	691.00	684.00	682.00	674.00	676.00	676.00	675.00	691.00	707.00	776.00	774.00	736.00	663.00	637.00	640.00	647.00	650.00	649.00	653.00	670.00	674.00	667.00	668.00	693.00	671.00	654.00	650.00	660.00	690.00	686.00	680.00	686.00	668.00	686.00	689.00	679.00	691.00	685.00	680.00	674.00	666.00	656.00	660.00	669.00	661.00	652.00	648.00	641.00	635.00	631.00	631.00	636.00	635.00	637.00	638.00	638.00	638.00	638.00	639.00	644.00	644.00	643.00	645.00	645.00	647.00	648.00	652.00	655.00	658.00	659.00	660.00	659.00	661.00	663.00	666.00
648.00	645.00	646.00	646.00	649.00	649.00	647.00	646.00	645.00	646.00	644.00	645.00	646.00	646.00	644.00	645.00	645.00	643.00	649.00	669.00	666.00	645.00	657.00	670.00	683.00	665.00	660.00	674.00	648.00	670.00	668.00	666.00	666.00	669.00	650.00	660.00	664.00	651.00	637.00	632.00	634.00	653.00	660.00	662.00	656.00	654.00	655.00	653.00	670.00	663.00	647.00	646.00	636.00	643.00	644.00	645.00	644.00	645.00	645.00	646.00	644.00	647.00	646.00	645.00	645.00	641.00	642.00	639.00	633.00	632.00	640.00	641.00	636.00	627.00	624.00	625.00	630.00	634.00	644.00	656.00	656.00	651.00	651.00	658.00	652.00	651.00	649.00	649.00	647.00	643.00	623.00	622.00	620.00	621.00	620.00	620.00	624.00	627.00	633.00	641.00	655.00	715.00	712.00	718.00	755.00	955.00	974.00	971.00	954.00	914.00	794.00	830.00	823.00	838.00	859.00	847.00	824.00	822.00	797.00	811.00	826.00	822.00	827.00	876.00	885.00	821.00	825.00	796.00	780.00	784.00	780.00	763.00	759.00	747.00	735.00	731.00	727.00	714.00	713.00	716.00	719.00	726.00	725.00	723.00	710.00	702.00	688.00	686.00	684.00	683.00	682.00	681.00	679.00	673.00	672.00	675.00	669.00	667.00	667.00	671.00	669.00	667.00	665.00	666.00	659.00	655.00	652.00	651.00	649.00	649.00	647.00	651.00	650.00	649.00	647.00	646.00	645.00	641.00	641.00	650.00	661.00	685.00	687.00	684.00	678.00	675.00	676.00	673.00	683.00	682.00	722.00	760.00	719.00	666.00	640.00	639.00	645.00	650.00	649.00	649.00	647.00	648.00	666.00	700.00	738.00	678.00	656.00	650.00	649.00	658.00	655.00	657.00	664.00	662.00	676.00	669.00	659.00	684.00	700.00	706.00	685.00	669.00	653.00	653.00	654.00	657.00	652.00	645.00	635.00	634.00	629.00	628.00	631.00	631.00	633.00	635.00	635.00	637.00	637.00	639.00	646.00	645.00	646.00	644.00	643.00	647.00	647.00	651.00	654.00	655.00	657.00	660.00	661.00	663.00	666.00	668.00
647.00	648.00	644.00	647.00	648.00	648.00	648.00	646.00	646.00	645.00	646.00	644.00	643.00	646.00	647.00	645.00	645.00	646.00	658.00	671.00	676.00	650.00	655.00	672.00	694.00	674.00	668.00	673.00	645.00	677.00	681.00	677.00	672.00	669.00	657.00	664.00	667.00	666.00	633.00	636.00	634.00	648.00	662.00	666.00	655.00	655.00	665.00	658.00	660.00	664.00	655.00	648.00	650.00	651.00	650.00	650.00	650.00	642.00	644.00	646.00	645.00	655.00	653.00	649.00	644.00	643.00	642.00	642.00	640.00	628.00	632.00	635.00	632.00	631.00	624.00	625.00	625.00	628.00	639.00	642.00	651.00	658.00	648.00	650.00	650.00	651.00	648.00	647.00	646.00	631.00	625.00	623.00	621.00	620.00	620.00	621.00	625.00	628.00	634.00	647.00	677.00	824.00	810.00	813.00	881.00	872.00	888.00	941.00	883.00	855.00	803.00	826.00	845.00	861.00	855.00	883.00	874.00	805.00	787.00	818.00	825.00	810.00	797.00	803.00	799.00	773.00	785.00	785.00	769.00	781.00	759.00	760.00	755.00	744.00	746.00	742.00	741.00	720.00	715.00	718.00	719.00	730.00	726.00	726.00	718.00	711.00	694.00	687.00	687.00	686.00	683.00	683.00	679.00	673.00	672.00	668.00	667.00	665.00	666.00	668.00	670.00	668.00	667.00	665.00	663.00	658.00	655.00	652.00	649.00	650.00	648.00	648.00	649.00	650.00	648.00	647.00	646.00	642.00	644.00	653.00	664.00	671.00	688.00	685.00	681.00	675.00	673.00	675.00	683.00	671.00	667.00	686.00	710.00	721.00	660.00	641.00	643.00	649.00	650.00	650.00	652.00	650.00	651.00	668.00	730.00	680.00	655.00	650.00	649.00	649.00	649.00	649.00	651.00	657.00	658.00	659.00	657.00	664.00	675.00	689.00	684.00	669.00	654.00	652.00	652.00	651.00	648.00	642.00	633.00	633.00	632.00	629.00	631.00	634.00	634.00	635.00	635.00	634.00	633.00	631.00	639.00	640.00	643.00	644.00	642.00	644.00	645.00	649.00	654.00	657.00	655.00	660.00	662.00	664.00	666.00	666.00
649.00	652.00	649.00	648.00	647.00	647.00	647.00	645.00	647.00	646.00	647.00	646.00	647.00	645.00	645.00	645.00	646.00	665.00	665.00	667.00	662.00	656.00	647.00	655.00	661.00	660.00	676.00	663.00	648.00	669.00	650.00	653.00	666.00	662.00	651.00	662.00	669.00	673.00	638.00	636.00	636.00	636.00	635.00	668.00	673.00	667.00	661.00	658.00	658.00	659.00	659.00	660.00	660.00	659.00	658.00	651.00	659.00	660.00	660.00	653.00	643.00	648.00	633.00	632.00	629.00	635.00	625.00	624.00	626.00	625.00	635.00	644.00	645.00	646.00	631.00	627.00	627.00	628.00	639.00	637.00	635.00	635.00	636.00	650.00	650.00	650.00	648.00	645.00	640.00	632.00	623.00	623.00	621.00	623.00	622.00	621.00	632.00	637.00	640.00	659.00	698.00	907.00	901.00	888.00	885.00	902.00	841.00	829.00	837.00	914.00	862.00	832.00	887.00	884.00	875.00	833.00	816.00	811.00	797.00	836.00	822.00	831.00	802.00	816.00	843.00	816.00	793.00	775.00	809.00	808.00	786.00	762.00	740.00	747.00	743.00	733.00	734.00	729.00	723.00	719.00	722.00	713.00	711.00	713.00	705.00	704.00	707.00	702.00	697.00	694.00	685.00	680.00	679.00	671.00	669.00	668.00	669.00	668.00	665.00	666.00	667.00	669.00	676.00	672.00	663.00	663.00	659.00	655.00	651.00	650.00	650.00	652.00	652.00	651.00	648.00	647.00	647.00	642.00	644.00	647.00	662.00	671.00	690.00	688.00	686.00	681.00	734.00	729.00	712.00	693.00	671.00	670.00	660.00	660.00	709.00	677.00	666.00	656.00	661.00	663.00	665.00	691.00	704.00	704.00	675.00	653.00	652.00	655.00	654.00	655.00	651.00	648.00	648.00	657.00	656.00	662.00	687.00	708.00	699.00	686.00	674.00	668.00	665.00	663.00	662.00	670.00	650.00	641.00	632.00	627.00	625.00	630.00	637.00	644.00	642.00	643.00	646.00	639.00	640.00	639.00	637.00	636.00	641.00	640.00	649.00	654.00	651.00	650.00	654.00	659.00	663.00	663.00	666.00	666.00	668.00	668.00
653.00	649.00	650.00	650.00	646.00	647.00	652.00	647.00	647.00	645.00	645.00	645.00	645.00	645.00	645.00	645.00	646.00	654.00	663.00	667.00	647.00	648.00	646.00	647.00	645.00	649.00	662.00	651.00	646.00	662.00	653.00	659.00	655.00	645.00	637.00	644.00	663.00	672.00	651.00	635.00	636.00	634.00	638.00	668.00	668.00	668.00	663.00	645.00	657.00	657.00	658.00	658.00	648.00	658.00	659.00	662.00	659.00	665.00	661.00	640.00	642.00	636.00	629.00	628.00	627.00	625.00	625.00	625.00	626.00	625.00	635.00	643.00	649.00	651.00	639.00	633.00	635.00	636.00	638.00	638.00	635.00	636.00	637.00	646.00	652.00	649.00	646.00	643.00	634.00	639.00	628.00	622.00	622.00	623.00	623.00	622.00	643.00	643.00	644.00	651.00	671.00	793.00	938.00	934.00	878.00	860.00	841.00	859.00	869.00	873.00	891.00	859.00	905.00	909.00	856.00	829.00	856.00	847.00	804.00	860.00	848.00	820.00	798.00	858.00	860.00	791.00	774.00	766.00	779.00	781.00	772.00	771.00	745.00	747.00	733.00	727.00	727.00	726.00	719.00	717.00	720.00	712.00	708.00	703.00	709.00	718.00	714.00	708.00	702.00	697.00	687.00	683.00	678.00	673.00	671.00	669.00	672.00	669.00	667.00	665.00	665.00	666.00	677.00	674.00	665.00	669.00	667.00	659.00	652.00	651.00	653.00	652.00	653.00	652.00	651.00	649.00	647.00	643.00	642.00	643.00	651.00	663.00	692.00	689.00	688.00	681.00	687.00	687.00	709.00	708.00	700.00	723.00	674.00	651.00	668.00	694.00	650.00	677.00	714.00	713.00	675.00	666.00	670.00	683.00	656.00	655.00	663.00	672.00	660.00	656.00	653.00	650.00	648.00	655.00	657.00	657.00	674.00	703.00	699.00	678.00	674.00	668.00	661.00	667.00	673.00	674.00	650.00	643.00	631.00	626.00	625.00	629.00	628.00	635.00	637.00	639.00	642.00	641.00	643.00	642.00	639.00	640.00	641.00	641.00	643.00	656.00	653.00	650.00	654.00	658.00	660.00	663.00	667.00	668.00	670.00	670.00
651.00	651.00	650.00	649.00	647.00	647.00	648.00	651.00	646.00	645.00	645.00	644.00	645.00	644.00	644.00	645.00	646.00	648.00	647.00	649.00	646.00	647.00	647.00	646.00	646.00	647.00	647.00	647.00	645.00	652.00	663.00	670.00	657.00	642.00	639.00	640.00	664.00	667.00	669.00	657.00	637.00	637.00	638.00	654.00	663.00	665.00	664.00	661.00	655.00	660.00	660.00	659.00	640.00	640.00	642.00	654.00	642.00	646.00	641.00	649.00	652.00	631.00	639.00	629.00	626.00	625.00	625.00	625.00	625.00	625.00	638.00	645.00	648.00	652.00	636.00	634.00	641.00	641.00	642.00	639.00	635.00	634.00	637.00	661.00	659.00	653.00	647.00	643.00	638.00	634.00	628.00	624.00	622.00	623.00	624.00	629.00	640.00	642.00	646.00	653.00	663.00	814.00	880.00	885.00	872.00	861.00	872.00	900.00	889.00	876.00	857.00	885.00	929.00	938.00	857.00	842.00	845.00	838.00	815.00	852.00	849.00	823.00	818.00	814.00	853.00	838.00	777.00	780.00	775.00	787.00	766.00	766.00	759.00	747.00	745.00	729.00	724.00	721.00	720.00	721.00	722.00	710.00	706.00	705.00	708.00	716.00	725.00	715.00	708.00	702.00	688.00	686.00	681.00	674.00	672.00	669.00	671.00	675.00	668.00	668.00	667.00	666.00	672.00	676.00	670.00	669.00	664.00	656.00	653.00	653.00	652.00	654.00	654.00	652.00	650.00	641.00	641.00	648.00	646.00	642.00	649.00	664.00	695.00	692.00	689.00	682.00	681.00	679.00	706.00	705.00	721.00	719.00	684.00	655.00	655.00	679.00	649.00	652.00	697.00	716.00	690.00	671.00	668.00	670.00	657.00	700.00	704.00	699.00	681.00	676.00	667.00	662.00	662.00	668.00	667.00	668.00	656.00	683.00	686.00	677.00	665.00	660.00	653.00	656.00	667.00	667.00	643.00	637.00	628.00	624.00	624.00	627.00	628.00	628.00	632.00	634.00	638.00	640.00	642.00	644.00	640.00	640.00	640.00	637.00	643.00	651.00	651.00	649.00	654.00	658.00	660.00	662.00	664.00	671.00	669.00	670.00
656.00	649.00	649.00	647.00	648.00	647.00	646.00	645.00	644.00	644.00	645.00	644.00	644.00	644.00	644.00	645.00	647.00	647.00	646.00	648.00	648.00	647.00	648.00	648.00	646.00	646.00	648.00	645.00	644.00	643.00	655.00	676.00	650.00	643.00	640.00	636.00	652.00	663.00	666.00	656.00	638.00	638.00	639.00	647.00	655.00	661.00	663.00	662.00	658.00	658.00	657.00	661.00	661.00	662.00	661.00	659.00	641.00	639.00	641.00	649.00	646.00	633.00	633.00	626.00	626.00	625.00	626.00	626.00	626.00	626.00	637.00	644.00	650.00	649.00	634.00	632.00	639.00	640.00	642.00	642.00	637.00	636.00	637.00	652.00	665.00	652.00	647.00	644.00	639.00	635.00	621.00	623.00	623.00	622.00	626.00	629.00	637.00	641.00	644.00	651.00	664.00	900.00	880.00	874.00	859.00	907.00	916.00	917.00	880.00	856.00	880.00	945.00	937.00	944.00	868.00	851.00	844.00	824.00	823.00	821.00	838.00	858.00	849.00	798.00	816.00	805.00	771.00	769.00	813.00	766.00	742.00	738.00	765.00	763.00	727.00	723.00	721.00	724.00	722.00	717.00	713.00	710.00	707.00	706.00	709.00	713.00	737.00	729.00	714.00	707.00	692.00	693.00	686.00	677.00	675.00	673.00	674.00	675.00	670.00	669.00	668.00	668.00	671.00	677.00	671.00	672.00	667.00	660.00	656.00	653.00	653.00	654.00	654.00	653.00	647.00	643.00	675.00	659.00	650.00	643.00	650.00	665.00	698.00	695.00	691.00	686.00	683.00	681.00	676.00	692.00	740.00	727.00	683.00	670.00	654.00	661.00	650.00	646.00	656.00	677.00	704.00	703.00	714.00	698.00	656.00	672.00	687.00	691.00	679.00	695.00	701.00	696.00	688.00	711.00	697.00	689.00	657.00	657.00	662.00	659.00	657.00	657.00	654.00	653.00	658.00	659.00	638.00	635.00	625.00	622.00	626.00	630.00	632.00	630.00	632.00	635.00	637.00	638.00	639.00	641.00	636.00	639.00	640.00	641.00	643.00	646.00	647.00	651.00	655.00	658.00	660.00	663.00	665.00	668.00	670.00	672.00
659.00	660.00	651.00	649.00	648.00	646.00	646.00	645.00	645.00	647.00	644.00	645.00	644.00	644.00	645.00	645.00	647.00	649.00	647.00	647.00	646.00	646.00	648.00	649.00	648.00	649.00	650.00	646.00	646.00	644.00	645.00	643.00	644.00	643.00	653.00	659.00	668.00	657.00	658.00	642.00	638.00	638.00	637.00	638.00	642.00	650.00	663.00	660.00	657.00	657.00	656.00	656.00	655.00	644.00	632.00	632.00	634.00	637.00	645.00	640.00	649.00	629.00	626.00	627.00	626.00	625.00	626.00	626.00	626.00	627.00	651.00	654.00	654.00	648.00	633.00	629.00	629.00	630.00	643.00	635.00	638.00	640.00	646.00	639.00	646.00	646.00	648.00	643.00	637.00	625.00	628.00	624.00	624.00	624.00	628.00	630.00	636.00	640.00	651.00	653.00	664.00	890.00	900.00	964.00	1019.00	935.00	908.00	885.00	905.00	924.00	863.00	892.00	929.00	939.00	872.00	854.00	847.00	831.00	830.00	831.00	849.00	934.00	884.00	815.00	825.00	829.00	830.00	817.00	781.00	761.00	754.00	762.00	731.00	733.00	725.00	723.00	718.00	716.00	718.00	719.00	720.00	712.00	708.00	708.00	713.00	715.00	746.00	746.00	728.00	717.00	705.00	697.00	693.00	685.00	680.00	684.00	682.00	677.00	677.00	673.00	672.00	672.00	677.00	671.00	673.00	672.00	670.00	664.00	660.00	657.00	654.00	655.00	655.00	654.00	647.00	638.00	638.00	701.00	712.00	685.00	654.00	649.00	665.00	685.00	696.00	691.00	683.00	684.00	678.00	673.00	707.00	745.00	732.00	702.00	679.00	677.00	656.00	653.00	652.00	653.00	652.00	656.00	671.00	684.00	693.00	659.00	656.00	662.00	664.00	663.00	661.00	660.00	664.00	660.00	658.00	661.00	658.00	666.00	669.00	671.00	674.00	683.00	655.00	671.00	674.00	657.00	640.00	631.00	627.00	630.00	634.00	636.00	633.00	634.00	636.00	642.00	644.00	645.00	645.00	639.00	638.00	639.00	641.00	642.00	646.00	648.00	648.00	649.00	653.00	656.00	660.00	667.00	667.00	667.00	670.00	674.00
664.00	664.00	655.00	654.00	658.00	657.00	648.00	646.00	645.00	645.00	646.00	653.00	647.00	646.00	645.00	645.00	649.00	648.00	648.00	645.00	647.00	648.00	648.00	648.00	648.00	650.00	648.00	647.00	644.00	643.00	644.00	643.00	647.00	643.00	646.00	658.00	672.00	665.00	643.00	639.00	637.00	637.00	646.00	648.00	643.00	645.00	663.00	663.00	658.00	662.00	661.00	659.00	647.00	634.00	632.00	632.00	634.00	640.00	650.00	636.00	640.00	631.00	626.00	626.00	626.00	626.00	627.00	626.00	625.00	628.00	656.00	655.00	654.00	650.00	634.00	628.00	628.00	629.00	642.00	638.00	642.00	641.00	642.00	638.00	635.00	633.00	641.00	633.00	625.00	625.00	623.00	624.00	625.00	625.00	628.00	630.00	637.00	641.00	646.00	653.00	662.00	865.00	1001.00	1016.00	990.00	906.00	893.00	891.00	914.00	946.00	862.00	911.00	861.00	906.00	861.00	856.00	834.00	840.00	843.00	808.00	800.00	829.00	800.00	786.00	788.00	796.00	797.00	809.00	804.00	758.00	826.00	792.00	734.00	731.00	724.00	722.00	721.00	720.00	719.00	723.00	720.00	713.00	710.00	713.00	715.00	719.00	731.00	745.00	742.00	728.00	711.00	705.00	696.00	688.00	684.00	683.00	685.00	683.00	684.00	675.00	675.00	678.00	679.00	672.00	674.00	674.00	673.00	669.00	661.00	658.00	656.00	654.00	656.00	655.00	651.00	646.00	638.00	684.00	728.00	742.00	693.00	652.00	662.00	670.00	690.00	686.00	685.00	683.00	681.00	675.00	687.00	699.00	703.00	700.00	706.00	711.00	675.00	661.00	664.00	656.00	648.00	648.00	650.00	654.00	679.00	660.00	660.00	664.00	667.00	666.00	676.00	679.00	679.00	657.00	653.00	655.00	655.00	658.00	670.00	695.00	711.00	713.00	676.00	665.00	656.00	654.00	643.00	631.00	629.00	633.00	637.00	634.00	629.00	638.00	639.00	643.00	639.00	643.00	642.00	637.00	639.00	642.00	642.00	642.00	646.00	648.00	649.00	650.00	653.00	658.00	658.00	660.00	663.00	670.00	675.00	678.00
672.00	667.00	655.00	654.00	656.00	655.00	651.00	647.00	647.00	651.00	656.00	659.00	651.00	649.00	648.00	647.00	652.00	653.00	652.00	648.00	648.00	647.00	648.00	648.00	647.00	648.00	648.00	646.00	644.00	643.00	645.00	642.00	646.00	643.00	644.00	644.00	642.00	641.00	640.00	639.00	638.00	653.00	645.00	665.00	660.00	663.00	664.00	658.00	658.00	649.00	647.00	657.00	655.00	635.00	640.00	631.00	633.00	644.00	644.00	634.00	641.00	628.00	624.00	624.00	626.00	627.00	626.00	626.00	626.00	628.00	657.00	658.00	650.00	648.00	634.00	629.00	628.00	629.00	643.00	642.00	640.00	639.00	639.00	637.00	636.00	632.00	628.00	625.00	626.00	627.00	624.00	625.00	624.00	626.00	628.00	629.00	637.00	642.00	647.00	653.00	663.00	859.00	984.00	967.00	934.00	926.00	937.00	916.00	884.00	888.00	900.00	911.00	860.00	851.00	827.00	833.00	854.00	871.00	838.00	815.00	851.00	902.00	839.00	786.00	769.00	770.00	766.00	773.00	779.00	787.00	798.00	798.00	734.00	729.00	725.00	725.00	723.00	721.00	719.00	722.00	723.00	716.00	713.00	712.00	717.00	721.00	727.00	733.00	734.00	743.00	717.00	708.00	704.00	690.00	687.00	685.00	687.00	685.00	684.00	679.00	679.00	681.00	680.00	672.00	673.00	673.00	672.00	668.00	662.00	659.00	657.00	656.00	657.00	657.00	650.00	646.00	644.00	677.00	716.00	741.00	707.00	664.00	662.00	668.00	680.00	683.00	689.00	683.00	680.00	683.00	697.00	678.00	698.00	734.00	739.00	680.00	690.00	716.00	721.00	689.00	658.00	669.00	675.00	682.00	676.00	655.00	658.00	664.00	663.00	662.00	659.00	672.00	687.00	654.00	655.00	655.00	653.00	654.00	654.00	667.00	691.00	701.00	674.00	662.00	651.00	650.00	645.00	637.00	637.00	638.00	636.00	635.00	633.00	637.00	639.00	634.00	635.00	638.00	637.00	636.00	640.00	641.00	643.00	644.00	646.00	649.00	650.00	650.00	655.00	657.00	658.00	660.00	662.00	668.00	671.00	673.00
678.00	675.00	656.00	653.00	654.00	657.00	655.00	648.00	648.00	656.00	662.00	662.00	661.00	655.00	652.00	650.00	656.00	655.00	649.00	648.00	647.00	650.00	647.00	650.00	649.00	648.00	647.00	647.00	645.00	645.00	644.00	644.00	645.00	642.00	641.00	641.00	642.00	642.00	638.00	640.00	646.00	648.00	642.00	658.00	651.00	657.00	653.00	657.00	657.00	661.00	642.00	646.00	652.00	644.00	639.00	630.00	632.00	644.00	643.00	632.00	633.00	627.00	626.00	627.00	626.00	626.00	627.00	626.00	626.00	628.00	655.00	659.00	649.00	644.00	633.00	631.00	630.00	628.00	643.00	645.00	641.00	638.00	638.00	639.00	637.00	633.00	629.00	625.00	626.00	626.00	625.00	622.00	624.00	625.00	630.00	631.00	638.00	642.00	648.00	655.00	663.00	815.00	949.00	946.00	925.00	932.00	909.00	900.00	928.00	941.00	919.00	865.00	866.00	905.00	827.00	816.00	820.00	855.00	934.00	822.00	827.00	869.00	894.00	824.00	784.00	770.00	779.00	772.00	789.00	779.00	783.00	756.00	735.00	728.00	726.00	727.00	727.00	720.00	722.00	721.00	720.00	718.00	716.00	713.00	717.00	719.00	725.00	729.00	738.00	740.00	723.00	715.00	710.00	700.00	693.00	685.00	688.00	685.00	684.00	681.00	683.00	686.00	683.00	676.00	670.00	673.00	672.00	671.00	662.00	659.00	658.00	657.00	657.00	657.00	652.00	645.00	654.00	693.00	686.00	682.00	677.00	664.00	667.00	670.00	675.00	682.00	690.00	686.00	698.00	736.00	743.00	692.00	688.00	733.00	746.00	688.00	677.00	706.00	721.00	684.00	696.00	732.00	726.00	699.00	691.00	668.00	661.00	662.00	662.00	661.00	656.00	656.00	663.00	652.00	680.00	687.00	666.00	653.00	652.00	653.00	662.00	672.00	660.00	653.00	650.00	648.00	640.00	633.00	633.00	633.00	629.00	633.00	631.00	633.00	636.00	637.00	637.00	638.00	635.00	638.00	639.00	639.00	642.00	644.00	645.00	647.00	648.00	650.00	654.00	658.00	658.00	661.00	663.00	665.00	669.00	671.00
688.00	694.00	671.00	659.00	668.00	657.00	650.00	655.00	655.00	657.00	655.00	662.00	664.00	670.00	660.00	656.00	650.00	648.00	648.00	649.00	649.00	649.00	649.00	650.00	650.00	647.00	648.00	646.00	647.00	646.00	645.00	645.00	643.00	643.00	643.00	642.00	641.00	638.00	638.00	638.00	637.00	637.00	640.00	659.00	661.00	656.00	655.00	656.00	652.00	655.00	653.00	638.00	629.00	631.00	632.00	631.00	635.00	646.00	640.00	631.00	628.00	626.00	626.00	626.00	627.00	627.00	627.00	626.00	626.00	627.00	655.00	655.00	646.00	642.00	636.00	633.00	630.00	632.00	643.00	645.00	644.00	641.00	640.00	641.00	635.00	632.00	628.00	625.00	626.00	626.00	624.00	626.00	625.00	627.00	629.00	633.00	640.00	643.00	649.00	654.00	662.00	744.00	917.00	947.00	964.00	986.00	949.00	937.00	972.00	942.00	937.00	908.00	911.00	890.00	837.00	825.00	824.00	805.00	808.00	838.00	838.00	851.00	888.00	796.00	792.00	803.00	827.00	809.00	743.00	763.00	779.00	750.00	750.00	738.00	735.00	728.00	728.00	724.00	723.00	726.00	725.00	727.00	722.00	723.00	726.00	739.00	740.00	733.00	733.00	735.00	748.00	732.00	722.00	710.00	705.00	694.00	684.00	685.00	684.00	686.00	687.00	685.00	683.00	677.00	675.00	679.00	676.00	672.00	666.00	661.00	659.00	659.00	659.00	659.00	657.00	662.00	664.00	692.00	671.00	673.00	664.00	655.00	689.00	700.00	701.00	704.00	679.00	686.00	687.00	684.00	684.00	672.00	667.00	663.00	668.00	719.00	682.00	690.00	713.00	693.00	653.00	688.00	696.00	684.00	715.00	698.00	679.00	673.00	666.00	660.00	659.00	657.00	643.00	629.00	643.00	661.00	675.00	679.00	668.00	657.00	657.00	655.00	652.00	650.00	649.00	648.00	635.00	630.00	628.00	627.00	629.00	632.00	632.00	631.00	634.00	634.00	635.00	639.00	642.00	644.00	643.00	645.00	646.00	646.00	646.00	650.00	650.00	649.00	656.00	661.00	662.00	662.00	663.00	665.00	668.00	673.00
682.00	684.00	673.00	677.00	665.00	659.00	653.00	671.00	695.00	682.00	666.00	654.00	661.00	667.00	662.00	657.00	649.00	650.00	650.00	648.00	650.00	648.00	651.00	649.00	649.00	647.00	648.00	647.00	646.00	646.00	645.00	644.00	645.00	643.00	642.00	642.00	641.00	640.00	639.00	638.00	636.00	636.00	637.00	643.00	661.00	649.00	648.00	658.00	660.00	662.00	654.00	634.00	629.00	631.00	633.00	633.00	640.00	653.00	645.00	629.00	627.00	626.00	625.00	626.00	627.00	626.00	626.00	626.00	626.00	627.00	658.00	656.00	652.00	651.00	639.00	636.00	635.00	634.00	645.00	646.00	644.00	642.00	642.00	643.00	642.00	629.00	626.00	626.00	625.00	624.00	625.00	626.00	624.00	627.00	630.00	632.00	639.00	644.00	649.00	655.00	663.00	729.00	868.00	986.00	945.00	884.00	910.00	881.00	972.00	973.00	886.00	863.00	890.00	906.00	837.00	814.00	801.00	795.00	794.00	842.00	821.00	879.00	973.00	865.00	825.00	837.00	837.00	788.00	756.00	792.00	760.00	748.00	743.00	744.00	745.00	737.00	728.00	725.00	725.00	725.00	725.00	736.00	726.00	729.00	730.00	736.00	740.00	742.00	740.00	739.00	743.00	732.00	727.00	715.00	710.00	700.00	690.00	690.00	687.00	688.00	688.00	683.00	678.00	681.00	681.00	682.00	679.00	673.00	664.00	662.00	660.00	658.00	661.00	661.00	651.00	664.00	678.00	709.00	670.00	655.00	655.00	651.00	656.00	680.00	712.00	749.00	678.00	675.00	683.00	687.00	685.00	678.00	672.00	668.00	677.00	673.00	681.00	723.00	729.00	691.00	656.00	665.00	666.00	658.00	680.00	685.00	700.00	719.00	693.00	666.00	658.00	644.00	633.00	636.00	637.00	650.00	682.00	672.00	656.00	650.00	651.00	653.00	653.00	653.00	653.00	651.00	633.00	630.00	629.00	629.00	631.00	634.00	631.00	631.00	632.00	633.00	636.00	638.00	641.00	644.00	645.00	646.00	648.00	648.00	648.00	650.00	651.00	653.00	657.00	662.00	663.00	664.00	664.00	667.00	668.00	671.00
685.00	682.00	689.00	683.00	670.00	659.00	654.00	733.00	845.00	771.00	687.00	658.00	673.00	673.00	667.00	660.00	650.00	648.00	651.00	648.00	649.00	649.00	648.00	647.00	647.00	646.00	647.00	646.00	645.00	649.00	646.00	646.00	644.00	643.00	641.00	643.00	644.00	639.00	639.00	638.00	640.00	636.00	638.00	637.00	647.00	640.00	636.00	658.00	661.00	647.00	651.00	657.00	632.00	635.00	644.00	648.00	649.00	657.00	645.00	629.00	627.00	627.00	625.00	626.00	627.00	627.00	627.00	626.00	626.00	626.00	651.00	656.00	658.00	652.00	647.00	641.00	644.00	642.00	642.00	647.00	645.00	643.00	641.00	644.00	639.00	632.00	629.00	625.00	626.00	623.00	626.00	625.00	625.00	628.00	630.00	632.00	643.00	649.00	654.00	660.00	664.00	746.00	810.00	1028.00	1037.00	902.00	875.00	869.00	977.00	920.00	948.00	852.00	853.00	869.00	809.00	801.00	793.00	788.00	799.00	793.00	815.00	858.00	903.00	881.00	839.00	845.00	826.00	768.00	762.00	803.00	777.00	745.00	751.00	769.00	746.00	733.00	728.00	728.00	723.00	724.00	725.00	736.00	730.00	732.00	735.00	739.00	742.00	738.00	730.00	730.00	745.00	733.00	726.00	717.00	712.00	701.00	696.00	692.00	689.00	687.00	686.00	682.00	679.00	687.00	683.00	681.00	673.00	668.00	664.00	663.00	661.00	661.00	662.00	662.00	653.00	652.00	664.00	724.00	698.00	659.00	648.00	650.00	657.00	675.00	692.00	739.00	696.00	682.00	692.00	694.00	691.00	682.00	677.00	670.00	684.00	651.00	656.00	682.00	692.00	678.00	705.00	715.00	689.00	674.00	673.00	657.00	690.00	735.00	715.00	674.00	664.00	645.00	629.00	650.00	660.00	660.00	674.00	683.00	660.00	651.00	650.00	652.00	653.00	672.00	677.00	658.00	636.00	629.00	628.00	629.00	630.00	629.00	629.00	630.00	630.00	635.00	638.00	639.00	640.00	642.00	646.00	648.00	649.00	650.00	651.00	652.00	652.00	654.00	658.00	662.00	665.00	665.00	667.00	670.00	668.00	671.00
683.00	677.00	688.00	674.00	668.00	665.00	657.00	768.00	901.00	808.00	709.00	658.00	662.00	688.00	674.00	662.00	650.00	650.00	649.00	649.00	648.00	651.00	650.00	647.00	648.00	646.00	644.00	647.00	646.00	645.00	643.00	644.00	644.00	643.00	642.00	642.00	642.00	641.00	640.00	639.00	640.00	640.00	645.00	649.00	658.00	650.00	653.00	661.00	657.00	659.00	653.00	634.00	634.00	641.00	654.00	661.00	658.00	654.00	646.00	628.00	628.00	627.00	626.00	626.00	626.00	627.00	626.00	626.00	626.00	626.00	654.00	660.00	660.00	657.00	653.00	653.00	654.00	653.00	645.00	647.00	646.00	645.00	644.00	643.00	639.00	634.00	629.00	626.00	625.00	626.00	626.00	626.00	628.00	629.00	631.00	634.00	645.00	651.00	658.00	666.00	676.00	738.00	814.00	1018.00	996.00	994.00	928.00	867.00	898.00	974.00	874.00	844.00	832.00	816.00	814.00	804.00	814.00	823.00	830.00	775.00	827.00	851.00	782.00	823.00	800.00	771.00	768.00	761.00	760.00	787.00	763.00	748.00	744.00	741.00	753.00	740.00	731.00	727.00	725.00	726.00	727.00	731.00	733.00	736.00	738.00	737.00	745.00	736.00	730.00	730.00	748.00	735.00	726.00	717.00	711.00	701.00	697.00	691.00	690.00	690.00	689.00	684.00	680.00	684.00	682.00	674.00	670.00	667.00	665.00	664.00	662.00	662.00	664.00	659.00	662.00	658.00	659.00	709.00	694.00	684.00	656.00	643.00	657.00	672.00	689.00	708.00	707.00	729.00	734.00	703.00	690.00	684.00	676.00	675.00	668.00	650.00	646.00	653.00	656.00	660.00	732.00	732.00	701.00	685.00	676.00	655.00	665.00	703.00	712.00	701.00	691.00	659.00	637.00	635.00	654.00	686.00	698.00	719.00	699.00	675.00	653.00	650.00	652.00	652.00	662.00	660.00	633.00	629.00	629.00	628.00	627.00	626.00	626.00	627.00	630.00	637.00	636.00	639.00	641.00	641.00	643.00	647.00	648.00	651.00	653.00	653.00	653.00	653.00	659.00	664.00	665.00	667.00	668.00	671.00	671.00	670.00
687.00	683.00	696.00	686.00	685.00	677.00	661.00	686.00	695.00	690.00	676.00	664.00	670.00	688.00	677.00	667.00	653.00	652.00	652.00	651.00	651.00	649.00	649.00	647.00	647.00	645.00	647.00	647.00	644.00	644.00	644.00	643.00	643.00	643.00	644.00	643.00	641.00	642.00	640.00	639.00	641.00	643.00	658.00	653.00	658.00	667.00	661.00	634.00	648.00	638.00	632.00	632.00	634.00	642.00	650.00	659.00	646.00	634.00	629.00	628.00	629.00	632.00	630.00	626.00	626.00	625.00	625.00	626.00	626.00	625.00	638.00	653.00	662.00	660.00	654.00	657.00	659.00	656.00	656.00	645.00	645.00	644.00	643.00	639.00	638.00	635.00	628.00	626.00	629.00	628.00	626.00	628.00	630.00	632.00	633.00	636.00	643.00	648.00	653.00	660.00	673.00	792.00	934.00	985.00	904.00	934.00	921.00	919.00	845.00	870.00	996.00	892.00	893.00	920.00	924.00	897.00	849.00	861.00	797.00	819.00	793.00	775.00	817.00	812.00	820.00	787.00	793.00	784.00	801.00	785.00	775.00	747.00	749.00	759.00	772.00	761.00	748.00	735.00	731.00	731.00	732.00	740.00	742.00	742.00	733.00	735.00	741.00	733.00	730.00	728.00	730.00	727.00	717.00	707.00	705.00	700.00	697.00	697.00	695.00	691.00	688.00	683.00	681.00	680.00	677.00	671.00	671.00	672.00	666.00	665.00	665.00	665.00	666.00	663.00	664.00	664.00	656.00	659.00	658.00	655.00	683.00	680.00	654.00	656.00	662.00	706.00	708.00	724.00	696.00	668.00	730.00	759.00	762.00	771.00	743.00	660.00	648.00	650.00	654.00	653.00	655.00	659.00	670.00	712.00	717.00	686.00	691.00	700.00	680.00	718.00	717.00	687.00	656.00	640.00	638.00	653.00	690.00	706.00	704.00	698.00	681.00	670.00	697.00	675.00	667.00	656.00	633.00	635.00	634.00	632.00	630.00	629.00	628.00	628.00	633.00	635.00	638.00	639.00	641.00	641.00	645.00	646.00	646.00	648.00	653.00	655.00	656.00	657.00	661.00	665.00	667.00	669.00	670.00	673.00	674.00	676.00
687.00	683.00	696.00	686.00	685.00	677.00	661.00	686.00	695.00	690.00	676.00	664.00	670.00	688.00	677.00	667.00	653.00	652.00	652.00	651.00	651.00	649.00	649.00	647.00	647.00	645.00	647.00	647.00	644.00	644.00	644.00	643.00	643.00	643.00	644.00	643.00	641.00	642.00	640.00	639.00	641.00	643.00	658.00	653.00	658.00	667.00	661.00	634.00	648.00	638.00	632.00	632.00	634.00	642.00	650.00	659.00	646.00	634.00	629.00	628.00	629.00	632.00	630.00	626.00	626.00	625.00	625.00	626.00	626.00	625.00	638.00	653.00	662.00	660.00	654.00	657.00	659.00	656.00	656.00	645.00	645.00	644.00	643.00	639.00	638.00	635.00	628.00	626.00	629.00	628.00	626.00	628.00	630.00	632.00	633.00	636.00	643.00	648.00	653.00	660.00	673.00	792.00	934.00	985.00	904.00	934.00	921.00	919.00	845.00	870.00	996.00	892.00	893.00	920.00	924.00	897.00	849.00	861.00	797.00	819.00	793.00	775.00	817.00	812.00	820.00	787.00	793.00	784.00	801.00	785.00	775.00	747.00	749.00	759.00	772.00	761.00	748.00	735.00	731.00	731.00	732.00	740.00	742.00	742.00	733.00	735.00	741.00	733.00	730.00	728.00	730.00	727.00	717.00	707.00	705.00	700.00	697.00	697.00	695.00	691.00	688.00	683.00	681.00	680.00	677.00	671.00	671.00	672.00	666.00	665.00	665.00	665.00	666.00	663.00	664.00	664.00	656.00	659.00	658.00	655.00	683.00	680.00	654.00	656.00	662.00	706.00	708.00	724.00	696.00	668.00	730.00	759.00	762.00	771.00	743.00	660.00	648.00	650.00	654.00	653.00	655.00	659.00	670.00	712.00	717.00	686.00	691.00	700.00	680.00	718.00	717.00	687.00	656.00	640.00	638.00	653.00	690.00	706.00	704.00	698.00	681.00	670.00	697.00	675.00	667.00	656.00	633.00	635.00	634.00	632.00	630.00	629.00	628.00	628.00	633.00	635.00	638.00	639.00	641.00	641.00	645.00	646.00	646.00	648.00	653.00	655.00	656.00	657.00	661.00	665.00	667.00	669.00	670.00	673.00	674.00	676.00
688.00	690.00	693.00	700.00	694.00	690.00	677.00	667.00	673.00	670.00	668.00	673.00	679.00	690.00	687.00	675.00	653.00	651.00	651.00	651.00	651.00	649.00	648.00	648.00	647.00	645.00	646.00	645.00	647.00	643.00	643.00	642.00	643.00	642.00	642.00	641.00	642.00	641.00	642.00	640.00	637.00	649.00	661.00	663.00	659.00	656.00	660.00	633.00	633.00	633.00	632.00	633.00	632.00	635.00	656.00	665.00	635.00	630.00	629.00	628.00	631.00	630.00	627.00	627.00	626.00	625.00	625.00	626.00	627.00	627.00	635.00	651.00	648.00	643.00	643.00	646.00	651.00	657.00	658.00	654.00	647.00	642.00	644.00	640.00	637.00	631.00	628.00	628.00	628.00	628.00	627.00	630.00	632.00	634.00	635.00	637.00	643.00	647.00	652.00	658.00	665.00	880.00	946.00	913.00	882.00	932.00	1015.00	930.00	841.00	920.00	955.00	958.00	906.00	924.00	827.00	816.00	797.00	810.00	788.00	780.00	791.00	777.00	850.00	812.00	793.00	823.00	807.00	801.00	792.00	787.00	760.00	741.00	768.00	765.00	762.00	765.00	756.00	739.00	733.00	734.00	737.00	740.00	744.00	739.00	734.00	743.00	741.00	732.00	724.00	725.00	718.00	718.00	714.00	710.00	710.00	701.00	699.00	699.00	694.00	692.00	690.00	688.00	683.00	681.00	678.00	677.00	673.00	672.00	668.00	667.00	665.00	667.00	667.00	666.00	664.00	665.00	656.00	658.00	656.00	654.00	679.00	686.00	666.00	660.00	660.00	673.00	707.00	696.00	667.00	660.00	718.00	715.00	693.00	696.00	740.00	680.00	655.00	651.00	655.00	654.00	654.00	654.00	657.00	674.00	701.00	698.00	698.00	693.00	676.00	712.00	700.00	680.00	653.00	636.00	641.00	648.00	668.00	681.00	680.00	681.00	678.00	673.00	666.00	661.00	657.00	651.00	630.00	628.00	631.00	631.00	632.00	633.00	633.00	632.00	635.00	633.00	637.00	640.00	641.00	644.00	650.00	651.00	647.00	648.00	650.00	651.00	655.00	658.00	663.00	665.00	667.00	668.00	669.00	673.00	674.00	676.00
690.00	689.00	699.00	703.00	704.00	695.00	685.00	679.00	676.00	671.00	674.00	695.00	694.00	686.00	688.00	690.00	652.00	653.00	652.00	651.00	650.00	649.00	649.00	648.00	647.00	646.00	645.00	649.00	647.00	642.00	643.00	642.00	643.00	642.00	642.00	641.00	641.00	641.00	641.00	641.00	642.00	641.00	643.00	644.00	650.00	643.00	634.00	634.00	634.00	633.00	632.00	637.00	630.00	633.00	650.00	659.00	630.00	627.00	627.00	630.00	633.00	629.00	631.00	626.00	627.00	627.00	627.00	626.00	627.00	626.00	632.00	637.00	633.00	632.00	636.00	640.00	644.00	653.00	658.00	660.00	656.00	644.00	644.00	642.00	641.00	635.00	629.00	627.00	628.00	627.00	629.00	629.00	633.00	635.00	637.00	640.00	642.00	646.00	650.00	657.00	669.00	779.00	976.00	931.00	876.00	859.00	896.00	866.00	827.00	890.00	971.00	941.00	855.00	840.00	812.00	788.00	784.00	782.00	780.00	780.00	775.00	784.00	826.00	840.00	799.00	859.00	826.00	774.00	824.00	749.00	775.00	749.00	778.00	773.00	755.00	767.00	771.00	743.00	738.00	737.00	743.00	743.00	736.00	732.00	732.00	735.00	736.00	729.00	724.00	722.00	719.00	717.00	716.00	715.00	711.00	703.00	700.00	699.00	697.00	690.00	686.00	683.00	682.00	681.00	679.00	678.00	674.00	672.00	669.00	669.00	666.00	666.00	669.00	667.00	666.00	666.00	662.00	652.00	658.00	659.00	691.00	708.00	683.00	664.00	663.00	664.00	676.00	666.00	652.00	665.00	691.00	688.00	682.00	677.00	701.00	724.00	679.00	656.00	655.00	655.00	654.00	654.00	654.00	655.00	666.00	696.00	714.00	706.00	681.00	681.00	679.00	660.00	636.00	634.00	640.00	646.00	653.00	660.00	664.00	665.00	663.00	659.00	654.00	651.00	650.00	647.00	629.00	630.00	629.00	631.00	632.00	634.00	634.00	634.00	634.00	638.00	638.00	640.00	642.00	644.00	658.00	660.00	652.00	650.00	650.00	652.00	654.00	658.00	661.00	665.00	666.00	667.00	669.00	672.00	676.00	677.00
693.00	697.00	707.00	707.00	707.00	704.00	698.00	700.00	705.00	713.00	714.00	693.00	700.00	702.00	692.00	693.00	673.00	669.00	666.00	659.00	652.00	650.00	649.00	649.00	650.00	648.00	648.00	646.00	645.00	644.00	644.00	643.00	645.00	643.00	642.00	641.00	642.00	641.00	638.00	638.00	638.00	641.00	639.00	637.00	636.00	637.00	636.00	636.00	642.00	639.00	646.00	640.00	630.00	629.00	638.00	661.00	628.00	628.00	627.00	629.00	632.00	631.00	631.00	627.00	627.00	626.00	628.00	626.00	627.00	627.00	626.00	626.00	627.00	627.00	634.00	638.00	637.00	639.00	653.00	657.00	648.00	646.00	643.00	641.00	635.00	637.00	630.00	631.00	629.00	629.00	632.00	631.00	634.00	637.00	639.00	641.00	646.00	649.00	651.00	657.00	660.00	700.00	736.00	811.00	788.00	923.00	889.00	879.00	851.00	813.00	814.00	806.00	805.00	809.00	829.00	843.00	817.00	831.00	832.00	790.00	785.00	833.00	795.00	780.00	791.00	783.00	776.00	782.00	855.00	799.00	767.00	771.00	771.00	764.00	761.00	767.00	763.00	752.00	741.00	738.00	743.00	739.00	745.00	736.00	731.00	728.00	733.00	728.00	725.00	722.00	722.00	719.00	720.00	712.00	707.00	702.00	697.00	695.00	697.00	687.00	685.00	690.00	684.00	680.00	683.00	681.00	675.00	674.00	669.00	669.00	668.00	669.00	671.00	668.00	669.00	668.00	668.00	663.00	660.00	663.00	670.00	690.00	706.00	692.00	673.00	663.00	668.00	689.00	734.00	727.00	695.00	658.00	660.00	663.00	684.00	779.00	760.00	729.00	693.00	657.00	655.00	655.00	654.00	654.00	671.00	729.00	736.00	723.00	702.00	670.00	659.00	641.00	629.00	626.00	630.00	643.00	666.00	675.00	678.00	678.00	672.00	670.00	658.00	654.00	651.00	648.00	635.00	636.00	635.00	634.00	634.00	636.00	636.00	637.00	637.00	639.00	643.00	642.00	644.00	652.00	658.00	664.00	664.00	657.00	655.00	657.00	657.00	658.00	660.00	664.00	665.00	666.00	668.00	671.00	674.00	676.00
705.00	704.00	700.00	705.00	708.00	709.00	701.00	692.00	699.00	714.00	727.00	718.00	714.00	699.00	693.00	688.00	681.00	682.00	671.00	660.00	657.00	651.00	652.00	652.00	654.00	655.00	651.00	646.00	644.00	646.00	645.00	646.00	645.00	644.00	641.00	641.00	640.00	640.00	640.00	639.00	639.00	638.00	638.00	635.00	635.00	634.00	636.00	648.00	655.00	649.00	653.00	634.00	630.00	628.00	635.00	655.00	630.00	629.00	629.00	629.00	629.00	630.00	629.00	627.00	627.00	626.00	626.00	628.00	627.00	627.00	627.00	627.00	627.00	627.00	635.00	639.00	635.00	635.00	641.00	648.00	649.00	646.00	642.00	638.00	635.00	635.00	635.00	628.00	629.00	630.00	630.00	631.00	634.00	636.00	640.00	641.00	647.00	649.00	653.00	655.00	661.00	716.00	718.00	719.00	718.00	788.00	781.00	755.00	776.00	786.00	820.00	863.00	819.00	862.00	877.00	869.00	882.00	862.00	819.00	792.00	807.00	828.00	797.00	776.00	807.00	763.00	754.00	791.00	806.00	835.00	797.00	772.00	781.00	769.00	772.00	783.00	771.00	752.00	744.00	739.00	750.00	740.00	758.00	741.00	733.00	729.00	727.00	725.00	727.00	726.00	722.00	717.00	720.00	713.00	707.00	704.00	703.00	698.00	693.00	690.00	687.00	692.00	685.00	681.00	685.00	683.00	677.00	673.00	672.00	671.00	669.00	668.00	670.00	670.00	671.00	673.00	671.00	663.00	661.00	665.00	671.00	699.00	743.00	718.00	675.00	664.00	666.00	684.00	715.00	730.00	712.00	665.00	663.00	661.00	678.00	751.00	773.00	773.00	727.00	672.00	656.00	655.00	654.00	655.00	659.00	691.00	721.00	734.00	734.00	698.00	674.00	645.00	634.00	631.00	640.00	646.00	653.00	679.00	698.00	699.00	693.00	697.00	669.00	662.00	659.00	653.00	645.00	643.00	637.00	637.00	640.00	636.00	638.00	637.00	639.00	640.00	642.00	644.00	646.00	649.00	658.00	662.00	665.00	662.00	654.00	656.00	657.00	659.00	661.00	664.00	665.00	667.00	669.00	673.00	674.00	676.00
717.00	716.00	707.00	712.00	710.00	709.00	702.00	698.00	705.00	713.00	723.00	728.00	711.00	707.00	711.00	701.00	692.00	691.00	678.00	666.00	658.00	654.00	653.00	654.00	658.00	660.00	659.00	649.00	647.00	647.00	645.00	645.00	646.00	644.00	641.00	641.00	641.00	640.00	638.00	637.00	637.00	637.00	636.00	635.00	635.00	637.00	638.00	663.00	658.00	655.00	644.00	632.00	630.00	630.00	633.00	646.00	635.00	631.00	630.00	629.00	630.00	629.00	628.00	628.00	627.00	627.00	627.00	627.00	626.00	627.00	627.00	627.00	627.00	627.00	627.00	631.00	631.00	633.00	642.00	648.00	647.00	643.00	642.00	636.00	635.00	636.00	635.00	630.00	631.00	630.00	631.00	632.00	635.00	637.00	640.00	642.00	649.00	651.00	654.00	657.00	660.00	709.00	704.00	694.00	685.00	700.00	711.00	748.00	800.00	835.00	900.00	974.00	883.00	879.00	844.00	850.00	844.00	851.00	859.00	790.00	798.00	820.00	790.00	765.00	770.00	760.00	791.00	868.00	813.00	789.00	783.00	778.00	791.00	788.00	791.00	788.00	780.00	759.00	747.00	741.00	742.00	738.00	740.00	737.00	736.00	730.00	727.00	721.00	721.00	721.00	720.00	716.00	715.00	713.00	709.00	710.00	704.00	697.00	694.00	690.00	688.00	691.00	688.00	683.00	686.00	683.00	679.00	675.00	674.00	671.00	671.00	673.00	672.00	670.00	672.00	671.00	670.00	663.00	667.00	674.00	675.00	685.00	735.00	729.00	684.00	666.00	664.00	665.00	667.00	672.00	674.00	680.00	680.00	676.00	675.00	717.00	750.00	794.00	783.00	728.00	658.00	655.00	655.00	655.00	655.00	662.00	675.00	697.00	732.00	749.00	710.00	667.00	646.00	645.00	648.00	649.00	655.00	664.00	672.00	690.00	691.00	706.00	687.00	678.00	673.00	660.00	639.00	640.00	638.00	638.00	638.00	636.00	637.00	640.00	642.00	643.00	646.00	648.00	649.00	649.00	657.00	660.00	662.00	664.00	660.00	656.00	657.00	658.00	660.00	664.00	665.00	667.00	669.00	671.00	673.00	675.00
728.00	728.00	723.00	721.00	716.00	716.00	713.00	702.00	712.00	719.00	718.00	725.00	718.00	710.00	692.00	664.00	709.00	703.00	688.00	669.00	658.00	655.00	654.00	658.00	662.00	667.00	666.00	658.00	652.00	649.00	646.00	644.00	644.00	646.00	643.00	641.00	640.00	639.00	638.00	638.00	636.00	636.00	636.00	636.00	637.00	634.00	636.00	655.00	670.00	650.00	634.00	631.00	630.00	632.00	630.00	635.00	639.00	634.00	631.00	630.00	629.00	627.00	626.00	625.00	625.00	626.00	626.00	628.00	627.00	628.00	627.00	627.00	627.00	628.00	626.00	628.00	629.00	634.00	654.00	648.00	646.00	645.00	641.00	636.00	635.00	636.00	634.00	631.00	630.00	631.00	630.00	631.00	634.00	636.00	639.00	641.00	650.00	653.00	657.00	659.00	662.00	672.00	676.00	683.00	716.00	701.00	724.00	865.00	867.00	851.00	887.00	927.00	897.00	899.00	870.00	834.00	840.00	825.00	886.00	802.00	827.00	827.00	794.00	771.00	773.00	797.00	799.00	774.00	799.00	797.00	776.00	772.00	781.00	792.00	797.00	789.00	771.00	756.00	746.00	743.00	746.00	744.00	732.00	731.00	734.00	738.00	725.00	721.00	720.00	718.00	717.00	718.00	721.00	718.00	712.00	710.00	707.00	698.00	694.00	693.00	690.00	691.00	688.00	687.00	686.00	683.00	679.00	676.00	678.00	679.00	678.00	673.00	673.00	673.00	671.00	670.00	671.00	665.00	667.00	676.00	677.00	676.00	705.00	716.00	702.00	675.00	663.00	662.00	663.00	665.00	677.00	712.00	704.00	696.00	688.00	695.00	714.00	757.00	771.00	748.00	685.00	665.00	657.00	656.00	670.00	667.00	665.00	667.00	687.00	756.00	720.00	679.00	659.00	648.00	648.00	650.00	657.00	660.00	660.00	663.00	687.00	708.00	717.00	704.00	676.00	658.00	636.00	634.00	635.00	635.00	635.00	638.00	637.00	642.00	643.00	647.00	647.00	650.00	651.00	653.00	655.00	655.00	656.00	658.00	659.00	656.00	656.00	659.00	659.00	666.00	665.00	667.00	668.00	671.00	672.00	674.00
735.00	729.00	728.00	724.00	724.00	721.00	716.00	722.00	718.00	714.00	713.00	714.00	691.00	690.00	666.00	707.00	702.00	699.00	690.00	675.00	660.00	657.00	657.00	656.00	658.00	663.00	659.00	653.00	656.00	646.00	646.00	646.00	644.00	643.00	642.00	641.00	641.00	639.00	637.00	638.00	636.00	635.00	636.00	636.00	638.00	637.00	640.00	648.00	655.00	636.00	631.00	631.00	631.00	630.00	630.00	629.00	626.00	628.00	629.00	630.00	630.00	628.00	629.00	627.00	628.00	627.00	627.00	628.00	628.00	627.00	627.00	627.00	627.00	626.00	627.00	630.00	640.00	644.00	650.00	645.00	643.00	642.00	639.00	637.00	639.00	641.00	636.00	632.00	630.00	631.00	631.00	630.00	631.00	631.00	634.00	640.00	647.00	650.00	654.00	658.00	664.00	744.00	821.00	852.00	792.00	705.00	741.00	923.00	958.00	864.00	985.00	996.00	964.00	908.00	875.00	875.00	837.00	817.00	807.00	815.00	836.00	824.00	815.00	776.00	776.00	835.00	831.00	814.00	834.00	871.00	822.00	777.00	800.00	816.00	817.00	809.00	789.00	765.00	754.00	746.00	741.00	747.00	729.00	728.00	728.00	726.00	726.00	724.00	724.00	724.00	727.00	726.00	726.00	725.00	720.00	711.00	713.00	707.00	699.00	696.00	695.00	696.00	694.00	691.00	689.00	685.00	685.00	686.00	686.00	685.00	680.00	675.00	674.00	674.00	674.00	672.00	672.00	668.00	668.00	675.00	672.00	670.00	671.00	701.00	718.00	691.00	665.00	669.00	671.00	667.00	668.00	689.00	689.00	687.00	687.00	700.00	711.00	704.00	697.00	684.00	724.00	758.00	748.00	684.00	697.00	665.00	660.00	660.00	660.00	667.00	685.00	700.00	723.00	694.00	665.00	658.00	662.00	659.00	660.00	659.00	659.00	659.00	659.00	659.00	654.00	648.00	635.00	633.00	634.00	634.00	636.00	639.00	639.00	639.00	639.00	641.00	643.00	646.00	648.00	650.00	649.00	649.00	650.00	652.00	655.00	658.00	658.00	657.00	659.00	665.00	667.00	667.00	668.00	670.00	673.00	674.00
738.00	739.00	734.00	734.00	727.00	725.00	720.00	722.00	722.00	719.00	717.00	704.00	697.00	715.00	667.00	712.00	693.00	685.00	685.00	680.00	663.00	661.00	658.00	656.00	657.00	662.00	655.00	652.00	649.00	646.00	645.00	643.00	644.00	642.00	641.00	639.00	641.00	639.00	637.00	637.00	637.00	638.00	637.00	637.00	637.00	639.00	642.00	645.00	639.00	633.00	632.00	631.00	630.00	630.00	629.00	629.00	627.00	626.00	627.00	628.00	626.00	626.00	627.00	627.00	626.00	626.00	627.00	628.00	627.00	628.00	627.00	627.00	627.00	626.00	628.00	640.00	656.00	653.00	648.00	645.00	645.00	645.00	640.00	637.00	638.00	644.00	639.00	629.00	629.00	629.00	630.00	630.00	630.00	632.00	633.00	636.00	644.00	646.00	650.00	657.00	666.00	846.00	961.00	874.00	868.00	782.00	720.00	776.00	908.00	892.00	966.00	1012.00	948.00	914.00	893.00	869.00	869.00	848.00	834.00	836.00	831.00	825.00	810.00	779.00	774.00	837.00	891.00	829.00	871.00	804.00	798.00	776.00	797.00	816.00	834.00	805.00	784.00	765.00	754.00	746.00	740.00	736.00	730.00	729.00	728.00	727.00	727.00	726.00	725.00	726.00	734.00	733.00	734.00	730.00	727.00	718.00	717.00	712.00	707.00	698.00	698.00	697.00	696.00	697.00	685.00	685.00	687.00	689.00	686.00	687.00	681.00	682.00	678.00	673.00	675.00	673.00	673.00	670.00	667.00	672.00	671.00	669.00	670.00	688.00	677.00	670.00	673.00	678.00	685.00	680.00	671.00	684.00	684.00	684.00	685.00	717.00	712.00	706.00	691.00	675.00	684.00	719.00	721.00	698.00	687.00	656.00	653.00	655.00	656.00	667.00	702.00	699.00	724.00	731.00	716.00	689.00	691.00	671.00	664.00	661.00	661.00	659.00	655.00	654.00	652.00	647.00	633.00	632.00	634.00	634.00	636.00	639.00	639.00	639.00	641.00	642.00	642.00	645.00	646.00	647.00	648.00	649.00	651.00	653.00	659.00	660.00	665.00	665.00	660.00	667.00	666.00	667.00	668.00	670.00	670.00	675.00
