634.00	631.00	630.00	630.00	630.00	630.00	627.00	622.00	622.00	620.00	624.00	641.00	639.00	623.00	614.00	607.00	600.00	584.00	533.00	483.00	483.00	496.00	518.00	522.00	529.00	542.00	544.00	544.00	542.00	546.00	548.00	551.00	551.00	553.00	555.00	555.00	555.00	554.00	550.00	548.00	546.00	545.00	548.00	548.00	548.00	546.00	542.00	535.00	531.00	528.00	523.00	520.00	515.00	514.00	513.00	511.00	508.00	508.00	507.00	506.00	504.00	502.00	501.00	498.00	496.00	491.00	489.00	487.00	487.00	488.00	491.00	491.00	492.00	492.00	491.00	491.00	490.00	489.00	489.00	488.00	487.00	487.00	487.00	485.00	485.00	486.00	487.00	488.00	492.00	493.00	495.00	496.00	503.00	507.00	508.00	509.00	510.00	515.00	515.00	513.00	512.00	513.00	514.00	514.00	515.00	518.00	519.00	519.00	519.00	520.00	518.00	518.00	519.00	517.00	516.00	517.00	519.00	519.00	520.00	517.00	515.00	512.00	509.00	508.00	503.00	500.00	508.00	508.00	501.00	496.00	495.00	492.00	490.00	487.00	489.00	487.00	479.00	475.00	473.00	470.00	468.00	474.00	475.00	475.00	473.00	469.00	461.00	458.00	451.00	445.00	436.00	430.00	427.00	425.00	418.00	407.00	403.00	405.00	406.00	408.00	421.00	456.00	465.00	469.00	461.00	461.00	458.00	463.00	462.00	461.00	456.00	452.00	451.00	460.00	464.00	468.00	468.00	467.00	474.00	468.00	460.00	447.00	447.00	459.00	473.00	481.00	464.00	471.00	465.00	459.00	467.00	461.00	458.00	453.00	447.00	427.00	420.00	412.00	414.00	416.00	414.00	412.00	412.00	412.00	420.00	419.00	416.00	413.00	410.00	396.00	394.00	393.00	393.00	392.00	392.00	392.00	391.00	390.00	390.00	389.00	388.00	388.00	387.00	386.00	385.00	384.00	382.00	369.00	374.00	376.00	376.00	375.00	375.00	376.00	376.00	376.00	378.00	379.00	382.00	393.00	395.00	392.00	392.00	391.00	391.00	389.00	388.00	387.00	385.00	381.00	380.00	378.00	375.00	373.00	369.00	367.00
634.00	631.00	630.00	630.00	630.00	630.00	627.00	622.00	622.00	620.00	624.00	641.00	639.00	623.00	614.00	607.00	600.00	584.00	533.00	483.00	483.00	496.00	518.00	522.00	529.00	542.00	544.00	544.00	542.00	546.00	548.00	551.00	551.00	553.00	555.00	555.00	555.00	554.00	550.00	548.00	546.00	545.00	548.00	548.00	548.00	546.00	542.00	535.00	531.00	528.00	523.00	520.00	515.00	514.00	513.00	511.00	508.00	508.00	507.00	506.00	504.00	502.00	501.00	498.00	496.00	491.00	489.00	487.00	487.00	488.00	491.00	491.00	492.00	492.00	491.00	491.00	490.00	489.00	489.00	488.00	487.00	487.00	487.00	485.00	485.00	486.00	487.00	488.00	492.00	493.00	495.00	496.00	503.00	507.00	508.00	509.00	510.00	515.00	515.00	513.00	512.00	513.00	514.00	514.00	515.00	518.00	519.00	519.00	519.00	520.00	518.00	518.00	519.00	517.00	516.00	517.00	519.00	519.00	520.00	517.00	515.00	512.00	509.00	508.00	503.00	500.00	508.00	508.00	501.00	496.00	495.00	492.00	490.00	487.00	489.00	487.00	479.00	475.00	473.00	470.00	468.00	474.00	475.00	475.00	473.00	469.00	461.00	458.00	451.00	445.00	436.00	430.00	427.00	425.00	418.00	407.00	403.00	405.00	406.00	408.00	421.00	456.00	465.00	469.00	461.00	461.00	458.00	463.00	462.00	461.00	456.00	452.00	451.00	460.00	464.00	468.00	468.00	467.00	474.00	468.00	460.00	447.00	447.00	459.00	473.00	481.00	464.00	471.00	465.00	459.00	467.00	461.00	458.00	453.00	447.00	427.00	420.00	412.00	414.00	416.00	414.00	412.00	412.00	412.00	420.00	419.00	416.00	413.00	410.00	396.00	394.00	393.00	393.00	392.00	392.00	392.00	391.00	390.00	390.00	389.00	388.00	388.00	387.00	386.00	385.00	384.00	382.00	369.00	374.00	376.00	376.00	375.00	375.00	376.00	376.00	376.00	378.00	379.00	382.00	393.00	395.00	392.00	392.00	391.00	391.00	389.00	388.00	387.00	385.00	381.00	380.00	378.00	375.00	373.00	369.00	367.00
644.00	640.00	639.00	638.00	640.00	642.00	642.00	641.00	639.00	634.00	637.00	683.00	694.00	679.00	660.00	657.00	613.00	569.00	512.00	487.00	488.00	499.00	521.00	526.00	531.00	548.00	551.00	552.00	548.00	552.00	555.00	559.00	559.00	561.00	563.00	564.00	563.00	563.00	560.00	557.00	555.00	554.00	554.00	554.00	553.00	551.00	549.00	540.00	537.00	535.00	533.00	530.00	525.00	524.00	522.00	520.00	518.00	518.00	516.00	516.00	515.00	512.00	511.00	506.00	505.00	501.00	499.00	498.00	497.00	497.00	498.00	498.00	499.00	498.00	498.00	497.00	497.00	496.00	496.00	495.00	495.00	495.00	494.00	494.00	494.00	495.00	497.00	498.00	502.00	504.00	507.00	509.00	515.00	521.00	514.00	515.00	519.00	522.00	522.00	520.00	520.00	522.00	523.00	523.00	524.00	526.00	528.00	528.00	528.00	528.00	528.00	528.00	527.00	527.00	527.00	529.00	531.00	533.00	532.00	528.00	524.00	520.00	519.00	518.00	510.00	510.00	513.00	512.00	508.00	505.00	505.00	504.00	502.00	502.00	497.00	494.00	480.00	478.00	480.00	481.00	481.00	482.00	482.00	479.00	474.00	466.00	458.00	455.00	449.00	443.00	435.00	432.00	428.00	422.00	413.00	403.00	407.00	411.00	411.00	420.00	456.00	475.00	474.00	473.00	474.00	461.00	459.00	463.00	467.00	466.00	461.00	459.00	458.00	460.00	462.00	475.00	479.00	473.00	478.00	465.00	457.00	460.00	459.00	459.00	477.00	489.00	481.00	489.00	481.00	471.00	473.00	461.00	458.00	454.00	448.00	429.00	422.00	420.00	425.00	422.00	418.00	416.00	416.00	420.00	422.00	420.00	417.00	413.00	411.00	401.00	398.00	397.00	397.00	396.00	396.00	395.00	395.00	394.00	394.00	393.00	392.00	391.00	390.00	389.00	387.00	386.00	383.00	373.00	371.00	378.00	379.00	379.00	379.00	379.00	379.00	379.00	380.00	381.00	388.00	399.00	396.00	395.00	395.00	397.00	400.00	393.00	390.00	388.00	387.00	384.00	383.00	380.00	378.00	377.00	373.00	371.00
644.00	640.00	639.00	638.00	640.00	642.00	642.00	641.00	639.00	634.00	637.00	683.00	694.00	679.00	660.00	657.00	613.00	569.00	512.00	487.00	488.00	499.00	521.00	526.00	531.00	548.00	551.00	552.00	548.00	552.00	555.00	559.00	559.00	561.00	563.00	564.00	563.00	563.00	560.00	557.00	555.00	554.00	554.00	554.00	553.00	551.00	549.00	540.00	537.00	535.00	533.00	530.00	525.00	524.00	522.00	520.00	518.00	518.00	516.00	516.00	515.00	512.00	511.00	506.00	505.00	501.00	499.00	498.00	497.00	497.00	498.00	498.00	499.00	498.00	498.00	497.00	497.00	496.00	496.00	495.00	495.00	495.00	494.00	494.00	494.00	495.00	497.00	498.00	502.00	504.00	507.00	509.00	515.00	521.00	514.00	515.00	519.00	522.00	522.00	520.00	520.00	522.00	523.00	523.00	524.00	526.00	528.00	528.00	528.00	528.00	528.00	528.00	527.00	527.00	527.00	529.00	531.00	533.00	532.00	528.00	524.00	520.00	519.00	518.00	510.00	510.00	513.00	512.00	508.00	505.00	505.00	504.00	502.00	502.00	497.00	494.00	480.00	478.00	480.00	481.00	481.00	482.00	482.00	479.00	474.00	466.00	458.00	455.00	449.00	443.00	435.00	432.00	428.00	422.00	413.00	403.00	407.00	411.00	411.00	420.00	456.00	475.00	474.00	473.00	474.00	461.00	459.00	463.00	467.00	466.00	461.00	459.00	458.00	460.00	462.00	475.00	479.00	473.00	478.00	465.00	457.00	460.00	459.00	459.00	477.00	489.00	481.00	489.00	481.00	471.00	473.00	461.00	458.00	454.00	448.00	429.00	422.00	420.00	425.00	422.00	418.00	416.00	416.00	420.00	422.00	420.00	417.00	413.00	411.00	401.00	398.00	397.00	397.00	396.00	396.00	395.00	395.00	394.00	394.00	393.00	392.00	391.00	390.00	389.00	387.00	386.00	383.00	373.00	371.00	378.00	379.00	379.00	379.00	379.00	379.00	379.00	380.00	381.00	388.00	399.00	396.00	395.00	395.00	397.00	400.00	393.00	390.00	388.00	387.00	384.00	383.00	380.00	378.00	377.00	373.00	371.00
655.00	652.00	650.00	650.00	651.00	652.00	653.00	652.00	651.00	649.00	647.00	691.00	747.00	747.00	719.00	700.00	625.00	549.00	515.00	500.00	496.00	502.00	520.00	527.00	531.00	548.00	554.00	557.00	557.00	559.00	561.00	566.00	565.00	567.00	569.00	570.00	569.00	569.00	567.00	565.00	563.00	561.00	559.00	557.00	556.00	554.00	550.00	544.00	543.00	542.00	541.00	540.00	535.00	535.00	532.00	531.00	529.00	528.00	527.00	526.00	525.00	522.00	520.00	516.00	513.00	510.00	509.00	508.00	508.00	508.00	506.00	505.00	505.00	504.00	504.00	504.00	503.00	503.00	503.00	502.00	502.00	501.00	501.00	503.00	504.00	505.00	506.00	508.00	513.00	515.00	518.00	520.00	520.00	522.00	523.00	524.00	526.00	529.00	530.00	530.00	531.00	532.00	533.00	534.00	534.00	535.00	536.00	537.00	537.00	538.00	538.00	538.00	538.00	539.00	539.00	540.00	540.00	540.00	539.00	536.00	533.00	530.00	527.00	524.00	523.00	524.00	522.00	522.00	518.00	515.00	514.00	513.00	516.00	514.00	510.00	505.00	492.00	490.00	494.00	492.00	496.00	499.00	490.00	485.00	478.00	475.00	464.00	457.00	449.00	442.00	432.00	428.00	423.00	418.00	413.00	412.00	412.00	416.00	419.00	440.00	469.00	487.00	489.00	487.00	476.00	467.00	468.00	467.00	473.00	471.00	468.00	471.00	479.00	470.00	467.00	479.00	488.00	482.00	478.00	463.00	469.00	478.00	478.00	474.00	476.00	488.00	490.00	488.00	477.00	474.00	464.00	455.00	454.00	452.00	447.00	428.00	431.00	430.00	429.00	428.00	426.00	423.00	423.00	423.00	423.00	421.00	419.00	417.00	415.00	407.00	404.00	403.00	402.00	400.00	400.00	399.00	398.00	398.00	397.00	397.00	396.00	395.00	394.00	393.00	392.00	390.00	387.00	369.00	376.00	381.00	382.00	382.00	382.00	383.00	383.00	383.00	385.00	387.00	391.00	399.00	404.00	406.00	406.00	402.00	399.00	394.00	392.00	390.00	389.00	386.00	385.00	383.00	382.00	382.00	378.00	375.00
655.00	652.00	650.00	650.00	651.00	652.00	653.00	652.00	651.00	649.00	647.00	691.00	747.00	747.00	719.00	700.00	625.00	549.00	515.00	500.00	496.00	502.00	520.00	527.00	531.00	548.00	554.00	557.00	557.00	559.00	561.00	566.00	565.00	567.00	569.00	570.00	569.00	569.00	567.00	565.00	563.00	561.00	559.00	557.00	556.00	554.00	550.00	544.00	543.00	542.00	541.00	540.00	535.00	535.00	532.00	531.00	529.00	528.00	527.00	526.00	525.00	522.00	520.00	516.00	513.00	510.00	509.00	508.00	508.00	508.00	506.00	505.00	505.00	504.00	504.00	504.00	503.00	503.00	503.00	502.00	502.00	501.00	501.00	503.00	504.00	505.00	506.00	508.00	513.00	515.00	518.00	520.00	520.00	522.00	523.00	524.00	526.00	529.00	530.00	530.00	531.00	532.00	533.00	534.00	534.00	535.00	536.00	537.00	537.00	538.00	538.00	538.00	538.00	539.00	539.00	540.00	540.00	540.00	539.00	536.00	533.00	530.00	527.00	524.00	523.00	524.00	522.00	522.00	518.00	515.00	514.00	513.00	516.00	514.00	510.00	505.00	492.00	490.00	494.00	492.00	496.00	499.00	490.00	485.00	478.00	475.00	464.00	457.00	449.00	442.00	432.00	428.00	423.00	418.00	413.00	412.00	412.00	416.00	419.00	440.00	469.00	487.00	489.00	487.00	476.00	467.00	468.00	467.00	473.00	471.00	468.00	471.00	479.00	470.00	467.00	479.00	488.00	482.00	478.00	463.00	469.00	478.00	478.00	474.00	476.00	488.00	490.00	488.00	477.00	474.00	464.00	455.00	454.00	452.00	447.00	428.00	431.00	430.00	429.00	428.00	426.00	423.00	423.00	423.00	423.00	421.00	419.00	417.00	415.00	407.00	404.00	403.00	402.00	400.00	400.00	399.00	398.00	398.00	397.00	397.00	396.00	395.00	394.00	393.00	392.00	390.00	387.00	369.00	376.00	381.00	382.00	382.00	382.00	383.00	383.00	383.00	385.00	387.00	391.00	399.00	404.00	406.00	406.00	402.00	399.00	394.00	392.00	390.00	389.00	386.00	385.00	383.00	382.00	382.00	378.00	375.00
668.00	666.00	663.00	664.00	664.00	663.00	665.00	666.00	665.00	666.00	667.00	695.00	714.00	690.00	653.00	619.00	567.00	545.00	529.00	517.00	501.00	504.00	524.00	532.00	535.00	546.00	552.00	560.00	564.00	569.00	568.00	568.00	572.00	573.00	574.00	575.00	577.00	578.00	574.00	572.00	570.00	568.00	564.00	562.00	560.00	558.00	556.00	553.00	552.00	551.00	550.00	549.00	545.00	545.00	543.00	542.00	542.00	541.00	539.00	538.00	536.00	531.00	529.00	525.00	521.00	518.00	517.00	517.00	517.00	516.00	514.00	513.00	512.00	511.00	511.00	510.00	510.00	509.00	509.00	508.00	508.00	508.00	509.00	510.00	511.00	513.00	516.00	518.00	522.00	524.00	525.00	527.00	529.00	532.00	534.00	534.00	536.00	539.00	540.00	541.00	541.00	543.00	545.00	545.00	546.00	545.00	545.00	546.00	547.00	549.00	551.00	550.00	550.00	552.00	553.00	549.00	549.00	550.00	548.00	543.00	540.00	538.00	536.00	534.00	533.00	534.00	531.00	530.00	525.00	526.00	531.00	528.00	526.00	524.00	521.00	515.00	510.00	511.00	516.00	514.00	512.00	504.00	504.00	497.00	495.00	496.00	470.00	461.00	452.00	443.00	432.00	427.00	422.00	419.00	416.00	417.00	417.00	421.00	424.00	493.00	473.00	468.00	490.00	496.00	484.00	475.00	482.00	483.00	477.00	482.00	479.00	493.00	506.00	487.00	476.00	491.00	497.00	491.00	486.00	469.00	476.00	492.00	494.00	488.00	482.00	486.00	486.00	487.00	490.00	465.00	458.00	470.00	463.00	454.00	444.00	442.00	439.00	437.00	438.00	444.00	429.00	427.00	427.00	428.00	429.00	427.00	423.00	419.00	417.00	411.00	409.00	408.00	406.00	404.00	403.00	402.00	402.00	401.00	400.00	400.00	399.00	399.00	398.00	398.00	398.00	397.00	396.00	376.00	371.00	381.00	385.00	386.00	386.00	386.00	386.00	387.00	390.00	391.00	393.00	397.00	414.00	414.00	411.00	404.00	400.00	396.00	394.00	392.00	390.00	387.00	386.00	385.00	384.00	384.00	380.00	374.00
668.00	666.00	663.00	664.00	664.00	663.00	665.00	666.00	665.00	666.00	667.00	695.00	714.00	690.00	653.00	619.00	567.00	545.00	529.00	517.00	501.00	504.00	524.00	532.00	535.00	546.00	552.00	560.00	564.00	569.00	568.00	568.00	572.00	573.00	574.00	575.00	577.00	578.00	574.00	572.00	570.00	568.00	564.00	562.00	560.00	558.00	556.00	553.00	552.00	551.00	550.00	549.00	545.00	545.00	543.00	542.00	542.00	541.00	539.00	538.00	536.00	531.00	529.00	525.00	521.00	518.00	517.00	517.00	517.00	516.00	514.00	513.00	512.00	511.00	511.00	510.00	510.00	509.00	509.00	508.00	508.00	508.00	509.00	510.00	511.00	513.00	516.00	518.00	522.00	524.00	525.00	527.00	529.00	532.00	534.00	534.00	536.00	539.00	540.00	541.00	541.00	543.00	545.00	545.00	546.00	545.00	545.00	546.00	547.00	549.00	551.00	550.00	550.00	552.00	553.00	549.00	549.00	550.00	548.00	543.00	540.00	538.00	536.00	534.00	533.00	534.00	531.00	530.00	525.00	526.00	531.00	528.00	526.00	524.00	521.00	515.00	510.00	511.00	516.00	514.00	512.00	504.00	504.00	497.00	495.00	496.00	470.00	461.00	452.00	443.00	432.00	427.00	422.00	419.00	416.00	417.00	417.00	421.00	424.00	493.00	473.00	468.00	490.00	496.00	484.00	475.00	482.00	483.00	477.00	482.00	479.00	493.00	506.00	487.00	476.00	491.00	497.00	491.00	486.00	469.00	476.00	492.00	494.00	488.00	482.00	486.00	486.00	487.00	490.00	465.00	458.00	470.00	463.00	454.00	444.00	442.00	439.00	437.00	438.00	444.00	429.00	427.00	427.00	428.00	429.00	427.00	423.00	419.00	417.00	411.00	409.00	408.00	406.00	404.00	403.00	402.00	402.00	401.00	400.00	400.00	399.00	399.00	398.00	398.00	398.00	397.00	396.00	376.00	371.00	381.00	385.00	386.00	386.00	386.00	386.00	387.00	390.00	391.00	393.00	397.00	414.00	414.00	411.00	404.00	400.00	396.00	394.00	392.00	390.00	387.00	386.00	385.00	384.00	384.00	380.00	374.00
683.00	681.00	678.00	678.00	677.00	675.00	677.00	679.00	681.00	679.00	673.00	690.00	703.00	709.00	682.00	638.00	594.00	578.00	555.00	523.00	504.00	509.00	519.00	533.00	543.00	551.00	561.00	569.00	576.00	584.00	586.00	583.00	582.00	580.00	585.00	588.00	589.00	589.00	583.00	581.00	578.00	576.00	572.00	568.00	567.00	565.00	565.00	564.00	564.00	562.00	561.00	559.00	556.00	554.00	548.00	546.00	554.00	553.00	551.00	550.00	548.00	542.00	540.00	536.00	533.00	529.00	528.00	526.00	525.00	524.00	522.00	521.00	519.00	518.00	519.00	518.00	517.00	516.00	516.00	515.00	515.00	515.00	516.00	518.00	519.00	521.00	524.00	527.00	531.00	532.00	534.00	536.00	540.00	541.00	545.00	545.00	547.00	549.00	550.00	552.00	553.00	553.00	555.00	557.00	557.00	557.00	557.00	559.00	560.00	561.00	563.00	563.00	564.00	565.00	565.00	564.00	563.00	561.00	558.00	550.00	547.00	544.00	543.00	541.00	539.00	538.00	538.00	540.00	536.00	539.00	544.00	544.00	541.00	539.00	534.00	526.00	523.00	525.00	524.00	524.00	520.00	516.00	513.00	512.00	511.00	505.00	474.00	462.00	456.00	449.00	437.00	428.00	424.00	423.00	417.00	420.00	419.00	426.00	460.00	484.00	508.00	500.00	479.00	491.00	504.00	499.00	499.00	504.00	498.00	497.00	514.00	545.00	540.00	518.00	486.00	501.00	514.00	516.00	491.00	478.00	492.00	516.00	517.00	503.00	500.00	519.00	510.00	499.00	489.00	476.00	484.00	465.00	458.00	453.00	449.00	445.00	445.00	449.00	450.00	445.00	436.00	434.00	433.00	434.00	431.00	427.00	422.00	421.00	420.00	416.00	413.00	411.00	409.00	407.00	406.00	405.00	404.00	404.00	403.00	403.00	403.00	403.00	402.00	401.00	401.00	401.00	400.00	397.00	383.00	382.00	388.00	388.00	388.00	389.00	389.00	390.00	393.00	395.00	399.00	404.00	418.00	419.00	413.00	411.00	411.00	403.00	398.00	395.00	393.00	389.00	388.00	388.00	387.00	386.00	383.00	381.00
683.00	681.00	678.00	678.00	677.00	675.00	677.00	679.00	681.00	679.00	673.00	690.00	703.00	709.00	682.00	638.00	594.00	578.00	555.00	523.00	504.00	509.00	519.00	533.00	543.00	551.00	561.00	569.00	576.00	584.00	586.00	583.00	582.00	580.00	585.00	588.00	589.00	589.00	583.00	581.00	578.00	576.00	572.00	568.00	567.00	565.00	565.00	564.00	564.00	562.00	561.00	559.00	556.00	554.00	548.00	546.00	554.00	553.00	551.00	550.00	548.00	542.00	540.00	536.00	533.00	529.00	528.00	526.00	525.00	524.00	522.00	521.00	519.00	518.00	519.00	518.00	517.00	516.00	516.00	515.00	515.00	515.00	516.00	518.00	519.00	521.00	524.00	527.00	531.00	532.00	534.00	536.00	540.00	541.00	545.00	545.00	547.00	549.00	550.00	552.00	553.00	553.00	555.00	557.00	557.00	557.00	557.00	559.00	560.00	561.00	563.00	563.00	564.00	565.00	565.00	564.00	563.00	561.00	558.00	550.00	547.00	544.00	543.00	541.00	539.00	538.00	538.00	540.00	536.00	539.00	544.00	544.00	541.00	539.00	534.00	526.00	523.00	525.00	524.00	524.00	520.00	516.00	513.00	512.00	511.00	505.00	474.00	462.00	456.00	449.00	437.00	428.00	424.00	423.00	417.00	420.00	419.00	426.00	460.00	484.00	508.00	500.00	479.00	491.00	504.00	499.00	499.00	504.00	498.00	497.00	514.00	545.00	540.00	518.00	486.00	501.00	514.00	516.00	491.00	478.00	492.00	516.00	517.00	503.00	500.00	519.00	510.00	499.00	489.00	476.00	484.00	465.00	458.00	453.00	449.00	445.00	445.00	449.00	450.00	445.00	436.00	434.00	433.00	434.00	431.00	427.00	422.00	421.00	420.00	416.00	413.00	411.00	409.00	407.00	406.00	405.00	404.00	404.00	403.00	403.00	403.00	403.00	402.00	401.00	401.00	401.00	400.00	397.00	383.00	382.00	388.00	388.00	388.00	389.00	389.00	390.00	393.00	395.00	399.00	404.00	418.00	419.00	413.00	411.00	411.00	403.00	398.00	395.00	393.00	389.00	388.00	388.00	387.00	386.00	383.00	381.00
703.00	701.00	696.00	695.00	692.00	691.00	690.00	693.00	701.00	694.00	680.00	698.00	709.00	726.00	737.00	693.00	604.00	590.00	567.00	517.00	506.00	513.00	542.00	564.00	560.00	548.00	551.00	569.00	585.00	605.00	616.00	622.00	613.00	606.00	616.00	613.00	609.00	605.00	597.00	594.00	591.00	588.00	581.00	577.00	576.00	575.00	576.00	576.00	575.00	574.00	573.00	573.00	570.00	568.00	565.00	563.00	562.00	562.00	560.00	559.00	557.00	551.00	549.00	548.00	545.00	539.00	537.00	535.00	533.00	532.00	529.00	528.00	527.00	526.00	525.00	525.00	524.00	524.00	523.00	523.00	523.00	523.00	523.00	528.00	529.00	531.00	534.00	536.00	541.00	543.00	545.00	545.00	549.00	552.00	555.00	557.00	559.00	562.00	564.00	566.00	567.00	568.00	569.00	569.00	569.00	573.00	572.00	573.00	574.00	574.00	577.00	578.00	579.00	577.00	579.00	581.00	579.00	578.00	576.00	564.00	555.00	550.00	548.00	551.00	548.00	548.00	552.00	553.00	553.00	554.00	558.00	556.00	552.00	542.00	544.00	546.00	539.00	542.00	539.00	539.00	537.00	531.00	528.00	532.00	527.00	518.00	484.00	470.00	462.00	458.00	438.00	429.00	424.00	417.00	420.00	423.00	423.00	458.00	483.00	499.00	500.00	519.00	523.00	501.00	509.00	514.00	516.00	512.00	524.00	526.00	521.00	540.00	549.00	529.00	499.00	499.00	516.00	545.00	511.00	500.00	522.00	530.00	532.00	526.00	517.00	509.00	501.00	501.00	500.00	480.00	465.00	469.00	473.00	461.00	457.00	470.00	469.00	459.00	454.00	444.00	440.00	439.00	437.00	435.00	431.00	429.00	431.00	430.00	427.00	420.00	416.00	412.00	410.00	408.00	407.00	406.00	406.00	406.00	406.00	406.00	407.00	407.00	407.00	406.00	406.00	404.00	403.00	401.00	393.00	383.00	390.00	389.00	390.00	391.00	392.00	393.00	395.00	402.00	417.00	424.00	423.00	422.00	420.00	417.00	415.00	412.00	408.00	399.00	395.00	394.00	393.00	392.00	391.00	390.00	388.00	386.00
703.00	701.00	696.00	695.00	692.00	691.00	690.00	693.00	701.00	694.00	680.00	698.00	709.00	726.00	737.00	693.00	604.00	590.00	567.00	517.00	506.00	513.00	542.00	564.00	560.00	548.00	551.00	569.00	585.00	605.00	616.00	622.00	613.00	606.00	616.00	613.00	609.00	605.00	597.00	594.00	591.00	588.00	581.00	577.00	576.00	575.00	576.00	576.00	575.00	574.00	573.00	573.00	570.00	568.00	565.00	563.00	562.00	562.00	560.00	559.00	557.00	551.00	549.00	548.00	545.00	539.00	537.00	535.00	533.00	532.00	529.00	528.00	527.00	526.00	525.00	525.00	524.00	524.00	523.00	523.00	523.00	523.00	523.00	528.00	529.00	531.00	534.00	536.00	541.00	543.00	545.00	545.00	549.00	552.00	555.00	557.00	559.00	562.00	564.00	566.00	567.00	568.00	569.00	569.00	569.00	573.00	572.00	573.00	574.00	574.00	577.00	578.00	579.00	577.00	579.00	581.00	579.00	578.00	576.00	564.00	555.00	550.00	548.00	551.00	548.00	548.00	552.00	553.00	553.00	554.00	558.00	556.00	552.00	542.00	544.00	546.00	539.00	542.00	539.00	539.00	537.00	531.00	528.00	532.00	527.00	518.00	484.00	470.00	462.00	458.00	438.00	429.00	424.00	417.00	420.00	423.00	423.00	458.00	483.00	499.00	500.00	519.00	523.00	501.00	509.00	514.00	516.00	512.00	524.00	526.00	521.00	540.00	549.00	529.00	499.00	499.00	516.00	545.00	511.00	500.00	522.00	530.00	532.00	526.00	517.00	509.00	501.00	501.00	500.00	480.00	465.00	469.00	473.00	461.00	457.00	470.00	469.00	459.00	454.00	444.00	440.00	439.00	437.00	435.00	431.00	429.00	431.00	430.00	427.00	420.00	416.00	412.00	410.00	408.00	407.00	406.00	406.00	406.00	406.00	406.00	407.00	407.00	407.00	406.00	406.00	404.00	403.00	401.00	393.00	383.00	390.00	389.00	390.00	391.00	392.00	393.00	395.00	402.00	417.00	424.00	423.00	422.00	420.00	417.00	415.00	412.00	408.00	399.00	395.00	394.00	393.00	392.00	391.00	390.00	388.00	386.00
726.00	729.00	721.00	718.00	713.00	709.00	705.00	702.00	706.00	698.00	696.00	723.00	739.00	754.00	759.00	710.00	613.00	590.00	539.00	513.00	512.00	523.00	550.00	597.00	607.00	610.00	581.00	572.00	576.00	613.00	627.00	652.00	646.00	667.00	680.00	675.00	666.00	652.00	620.00	613.00	606.00	603.00	598.00	594.00	593.00	592.00	593.00	594.00	593.00	592.00	590.00	589.00	585.00	585.00	584.00	582.00	576.00	573.00	571.00	569.00	567.00	563.00	561.00	557.00	554.00	549.00	546.00	543.00	541.00	539.00	537.00	536.00	534.00	533.00	531.00	530.00	530.00	530.00	530.00	530.00	530.00	531.00	532.00	537.00	538.00	540.00	543.00	546.00	554.00	555.00	557.00	559.00	562.00	564.00	569.00	572.00	573.00	577.00	579.00	580.00	582.00	582.00	583.00	583.00	581.00	584.00	585.00	587.00	589.00	590.00	592.00	592.00	593.00	592.00	593.00	595.00	596.00	597.00	597.00	583.00	572.00	567.00	565.00	564.00	558.00	562.00	569.00	570.00	567.00	568.00	572.00	570.00	555.00	552.00	563.00	564.00	558.00	564.00	565.00	562.00	557.00	549.00	550.00	542.00	534.00	523.00	493.00	479.00	469.00	462.00	437.00	432.00	427.00	426.00	428.00	429.00	436.00	496.00	499.00	518.00	512.00	511.00	529.00	522.00	510.00	514.00	530.00	556.00	543.00	548.00	550.00	552.00	547.00	545.00	542.00	509.00	516.00	551.00	530.00	523.00	542.00	553.00	539.00	530.00	534.00	529.00	505.00	493.00	484.00	463.00	463.00	468.00	467.00	468.00	480.00	509.00	498.00	477.00	465.00	461.00	449.00	441.00	440.00	439.00	443.00	443.00	439.00	434.00	430.00	419.00	414.00	410.00	409.00	408.00	408.00	408.00	408.00	408.00	409.00	410.00	411.00	412.00	411.00	411.00	411.00	410.00	409.00	406.00	403.00	395.00	388.00	388.00	391.00	392.00	393.00	395.00	400.00	404.00	414.00	423.00	425.00	423.00	422.00	419.00	417.00	406.00	402.00	401.00	399.00	398.00	397.00	397.00	396.00	395.00	392.00	390.00
757.00	752.00	749.00	745.00	740.00	732.00	722.00	717.00	715.00	710.00	713.00	743.00	757.00	767.00	743.00	681.00	612.00	591.00	537.00	515.00	518.00	530.00	557.00	598.00	621.00	659.00	655.00	633.00	595.00	593.00	622.00	663.00	696.00	738.00	732.00	710.00	688.00	675.00	676.00	664.00	659.00	650.00	624.00	616.00	617.00	618.00	619.00	620.00	619.00	617.00	614.00	611.00	603.00	601.00	599.00	596.00	590.00	588.00	585.00	582.00	578.00	573.00	571.00	567.00	565.00	558.00	554.00	550.00	549.00	547.00	544.00	543.00	541.00	539.00	537.00	536.00	536.00	535.00	535.00	536.00	537.00	538.00	539.00	545.00	548.00	551.00	556.00	561.00	573.00	575.00	576.00	574.00	575.00	577.00	583.00	585.00	587.00	590.00	591.00	593.00	594.00	598.00	599.00	599.00	598.00	599.00	602.00	604.00	607.00	610.00	610.00	610.00	609.00	606.00	607.00	610.00	612.00	615.00	616.00	610.00	601.00	596.00	594.00	588.00	583.00	585.00	600.00	596.00	583.00	587.00	588.00	584.00	576.00	576.00	574.00	581.00	578.00	580.00	575.00	571.00	569.00	562.00	556.00	547.00	537.00	527.00	492.00	481.00	470.00	461.00	439.00	436.00	429.00	431.00	432.00	438.00	455.00	499.00	511.00	521.00	530.00	516.00	523.00	530.00	524.00	523.00	520.00	542.00	551.00	569.00	568.00	562.00	556.00	566.00	562.00	536.00	520.00	555.00	537.00	543.00	548.00	551.00	538.00	528.00	512.00	506.00	497.00	514.00	522.00	491.00	482.00	487.00	495.00	513.00	510.00	505.00	489.00	487.00	485.00	474.00	463.00	458.00	459.00	460.00	459.00	453.00	447.00	442.00	431.00	412.00	410.00	408.00	409.00	409.00	409.00	410.00	410.00	411.00	411.00	412.00	415.00	415.00	415.00	415.00	415.00	414.00	413.00	411.00	409.00	407.00	401.00	383.00	383.00	387.00	393.00	395.00	399.00	401.00	406.00	419.00	426.00	425.00	421.00	418.00	416.00	410.00	407.00	405.00	405.00	404.00	403.00	401.00	401.00	400.00	396.00	393.00
757.00	752.00	749.00	745.00	740.00	732.00	722.00	717.00	715.00	710.00	713.00	743.00	757.00	767.00	743.00	681.00	612.00	591.00	537.00	515.00	518.00	530.00	557.00	598.00	621.00	659.00	655.00	633.00	595.00	593.00	622.00	663.00	696.00	738.00	732.00	710.00	688.00	675.00	676.00	664.00	659.00	650.00	624.00	616.00	617.00	618.00	619.00	620.00	619.00	617.00	614.00	611.00	603.00	601.00	599.00	596.00	590.00	588.00	585.00	582.00	578.00	573.00	571.00	567.00	565.00	558.00	554.00	550.00	549.00	547.00	544.00	543.00	541.00	539.00	537.00	536.00	536.00	535.00	535.00	536.00	537.00	538.00	539.00	545.00	548.00	551.00	556.00	561.00	573.00	575.00	576.00	574.00	575.00	577.00	583.00	585.00	587.00	590.00	591.00	593.00	594.00	598.00	599.00	599.00	598.00	599.00	602.00	604.00	607.00	610.00	610.00	610.00	609.00	606.00	607.00	610.00	612.00	615.00	616.00	610.00	601.00	596.00	594.00	588.00	583.00	585.00	600.00	596.00	583.00	587.00	588.00	584.00	576.00	576.00	574.00	581.00	578.00	580.00	575.00	571.00	569.00	562.00	556.00	547.00	537.00	527.00	492.00	481.00	470.00	461.00	439.00	436.00	429.00	431.00	432.00	438.00	455.00	499.00	511.00	521.00	530.00	516.00	523.00	530.00	524.00	523.00	520.00	542.00	551.00	569.00	568.00	562.00	556.00	566.00	562.00	536.00	520.00	555.00	537.00	543.00	548.00	551.00	538.00	528.00	512.00	506.00	497.00	514.00	522.00	491.00	482.00	487.00	495.00	513.00	510.00	505.00	489.00	487.00	485.00	474.00	463.00	458.00	459.00	460.00	459.00	453.00	447.00	442.00	431.00	412.00	410.00	408.00	409.00	409.00	409.00	410.00	410.00	411.00	411.00	412.00	415.00	415.00	415.00	415.00	415.00	414.00	413.00	411.00	409.00	407.00	401.00	383.00	383.00	387.00	393.00	395.00	399.00	401.00	406.00	419.00	426.00	425.00	421.00	418.00	416.00	410.00	407.00	405.00	405.00	404.00	403.00	401.00	401.00	400.00	396.00	393.00
793.00	783.00	782.00	777.00	766.00	752.00	742.00	733.00	730.00	728.00	733.00	758.00	768.00	755.00	707.00	659.00	606.00	563.00	521.00	520.00	528.00	536.00	555.00	604.00	637.00	663.00	664.00	642.00	628.00	599.00	612.00	673.00	724.00	781.00	743.00	711.00	710.00	722.00	710.00	708.00	720.00	724.00	718.00	669.00	659.00	656.00	656.00	650.00	648.00	645.00	640.00	634.00	624.00	621.00	617.00	613.00	606.00	603.00	601.00	598.00	594.00	588.00	584.00	579.00	576.00	570.00	567.00	565.00	562.00	559.00	555.00	552.00	548.00	545.00	542.00	541.00	541.00	541.00	541.00	542.00	542.00	543.00	545.00	556.00	560.00	566.00	573.00	580.00	590.00	593.00	596.00	596.00	595.00	595.00	599.00	601.00	603.00	603.00	604.00	605.00	607.00	613.00	614.00	613.00	613.00	615.00	621.00	628.00	635.00	642.00	650.00	643.00	631.00	623.00	621.00	628.00	637.00	643.00	651.00	663.00	655.00	646.00	642.00	642.00	653.00	643.00	624.00	619.00	609.00	605.00	601.00	596.00	594.00	593.00	592.00	595.00	597.00	591.00	587.00	586.00	583.00	568.00	553.00	536.00	522.00	506.00	479.00	473.00	463.00	455.00	441.00	439.00	434.00	434.00	436.00	449.00	492.00	483.00	500.00	531.00	535.00	536.00	528.00	544.00	554.00	566.00	541.00	544.00	550.00	560.00	575.00	574.00	561.00	568.00	549.00	535.00	549.00	565.00	567.00	566.00	565.00	568.00	542.00	518.00	521.00	534.00	518.00	526.00	544.00	525.00	509.00	503.00	523.00	534.00	526.00	513.00	510.00	510.00	505.00	500.00	502.00	496.00	493.00	486.00	465.00	454.00	443.00	430.00	415.00	410.00	409.00	410.00	411.00	412.00	412.00	413.00	414.00	414.00	414.00	415.00	418.00	418.00	419.00	419.00	418.00	418.00	417.00	416.00	414.00	413.00	412.00	397.00	394.00	388.00	385.00	387.00	399.00	402.00	413.00	425.00	423.00	421.00	418.00	417.00	419.00	417.00	414.00	415.00	413.00	409.00	408.00	408.00	407.00	406.00	402.00	400.00
842.00	830.00	817.00	810.00	802.00	783.00	767.00	754.00	745.00	746.00	753.00	771.00	767.00	731.00	685.00	653.00	573.00	535.00	526.00	527.00	540.00	545.00	565.00	601.00	631.00	651.00	642.00	640.00	653.00	617.00	603.00	668.00	707.00	761.00	732.00	734.00	741.00	745.00	748.00	762.00	783.00	813.00	837.00	795.00	762.00	728.00	715.00	687.00	681.00	674.00	667.00	658.00	642.00	643.00	641.00	636.00	628.00	625.00	622.00	619.00	615.00	603.00	599.00	594.00	590.00	583.00	581.00	579.00	577.00	576.00	569.00	566.00	562.00	552.00	546.00	547.00	547.00	547.00	547.00	547.00	547.00	549.00	552.00	566.00	571.00	578.00	587.00	595.00	609.00	616.00	620.00	620.00	617.00	615.00	618.00	619.00	620.00	619.00	621.00	623.00	624.00	626.00	627.00	629.00	633.00	646.00	674.00	657.00	664.00	692.00	744.00	740.00	697.00	657.00	665.00	637.00	675.00	695.00	703.00	740.00	763.00	755.00	747.00	731.00	716.00	723.00	668.00	655.00	632.00	621.00	613.00	608.00	607.00	606.00	604.00	605.00	605.00	596.00	587.00	571.00	554.00	528.00	530.00	535.00	538.00	537.00	507.00	484.00	463.00	453.00	444.00	441.00	440.00	434.00	435.00	465.00	515.00	525.00	521.00	517.00	528.00	537.00	553.00	551.00	566.00	580.00	563.00	562.00	579.00	562.00	570.00	583.00	578.00	563.00	539.00	555.00	576.00	563.00	578.00	586.00	580.00	558.00	527.00	530.00	544.00	533.00	553.00	553.00	550.00	530.00	533.00	517.00	537.00	549.00	545.00	544.00	538.00	529.00	526.00	532.00	524.00	512.00	502.00	490.00	465.00	450.00	435.00	424.00	418.00	414.00	413.00	413.00	415.00	416.00	416.00	417.00	418.00	419.00	420.00	421.00	421.00	422.00	422.00	422.00	422.00	422.00	422.00	420.00	419.00	418.00	417.00	405.00	401.00	399.00	398.00	397.00	398.00	397.00	400.00	409.00	421.00	425.00	424.00	422.00	421.00	424.00	427.00	432.00	429.00	416.00	412.00	415.00	415.00	414.00	409.00	407.00
842.00	830.00	817.00	810.00	802.00	783.00	767.00	754.00	745.00	746.00	753.00	771.00	767.00	731.00	685.00	653.00	573.00	535.00	526.00	527.00	540.00	545.00	565.00	601.00	631.00	651.00	642.00	640.00	653.00	617.00	603.00	668.00	707.00	761.00	732.00	734.00	741.00	745.00	748.00	762.00	783.00	813.00	837.00	795.00	762.00	728.00	715.00	687.00	681.00	674.00	667.00	658.00	642.00	643.00	641.00	636.00	628.00	625.00	622.00	619.00	615.00	603.00	599.00	594.00	590.00	583.00	581.00	579.00	577.00	576.00	569.00	566.00	562.00	552.00	546.00	547.00	547.00	547.00	547.00	547.00	547.00	549.00	552.00	566.00	571.00	578.00	587.00	595.00	609.00	616.00	620.00	620.00	617.00	615.00	618.00	619.00	620.00	619.00	621.00	623.00	624.00	626.00	627.00	629.00	633.00	646.00	674.00	657.00	664.00	692.00	744.00	740.00	697.00	657.00	665.00	637.00	675.00	695.00	703.00	740.00	763.00	755.00	747.00	731.00	716.00	723.00	668.00	655.00	632.00	621.00	613.00	608.00	607.00	606.00	604.00	605.00	605.00	596.00	587.00	571.00	554.00	528.00	530.00	535.00	538.00	537.00	507.00	484.00	463.00	453.00	444.00	441.00	440.00	434.00	435.00	465.00	515.00	525.00	521.00	517.00	528.00	537.00	553.00	551.00	566.00	580.00	563.00	562.00	579.00	562.00	570.00	583.00	578.00	563.00	539.00	555.00	576.00	563.00	578.00	586.00	580.00	558.00	527.00	530.00	544.00	533.00	553.00	553.00	550.00	530.00	533.00	517.00	537.00	549.00	545.00	544.00	538.00	529.00	526.00	532.00	524.00	512.00	502.00	490.00	465.00	450.00	435.00	424.00	418.00	414.00	413.00	413.00	415.00	416.00	416.00	417.00	418.00	419.00	420.00	421.00	421.00	422.00	422.00	422.00	422.00	422.00	422.00	420.00	419.00	418.00	417.00	405.00	401.00	399.00	398.00	397.00	398.00	397.00	400.00	409.00	421.00	425.00	424.00	422.00	421.00	424.00	427.00	432.00	429.00	416.00	412.00	415.00	415.00	414.00	409.00	407.00
921.00	916.00	881.00	869.00	859.00	828.00	807.00	786.00	770.00	770.00	790.00	785.00	748.00	708.00	667.00	636.00	544.00	536.00	533.00	535.00	550.00	556.00	568.00	592.00	619.00	637.00	642.00	653.00	681.00	663.00	622.00	656.00	678.00	710.00	751.00	761.00	766.00	767.00	788.00	811.00	841.00	877.00	885.00	812.00	814.00	842.00	832.00	747.00	738.00	743.00	723.00	697.00	669.00	665.00	662.00	659.00	657.00	654.00	650.00	646.00	639.00	624.00	621.00	613.00	610.00	604.00	604.00	601.00	597.00	594.00	586.00	583.00	578.00	563.00	555.00	554.00	555.00	555.00	555.00	556.00	559.00	562.00	567.00	583.00	589.00	598.00	608.00	617.00	642.00	648.00	648.00	646.00	641.00	645.00	646.00	647.00	645.00	642.00	647.00	646.00	643.00	642.00	643.00	641.00	651.00	717.00	733.00	694.00	666.00	659.00	696.00	707.00	695.00	681.00	711.00	644.00	657.00	711.00	744.00	809.00	805.00	833.00	837.00	779.00	799.00	815.00	730.00	710.00	664.00	646.00	634.00	631.00	632.00	631.00	627.00	622.00	601.00	557.00	550.00	566.00	572.00	586.00	589.00	588.00	582.00	570.00	525.00	481.00	460.00	454.00	447.00	445.00	445.00	444.00	446.00	481.00	531.00	553.00	553.00	535.00	544.00	548.00	559.00	559.00	573.00	585.00	577.00	583.00	588.00	582.00	571.00	583.00	598.00	576.00	557.00	565.00	588.00	585.00	601.00	592.00	567.00	543.00	545.00	563.00	553.00	541.00	567.00	556.00	543.00	543.00	538.00	555.00	567.00	568.00	563.00	545.00	549.00	548.00	550.00	534.00	517.00	510.00	505.00	502.00	485.00	466.00	445.00	428.00	424.00	419.00	418.00	419.00	420.00	421.00	422.00	423.00	424.00	424.00	425.00	426.00	426.00	425.00	426.00	426.00	426.00	426.00	426.00	425.00	425.00	424.00	422.00	416.00	410.00	404.00	401.00	402.00	403.00	402.00	398.00	403.00	402.00	422.00	428.00	429.00	431.00	434.00	438.00	438.00	435.00	426.00	425.00	424.00	424.00	422.00	417.00	415.00
921.00	916.00	881.00	869.00	859.00	828.00	807.00	786.00	770.00	770.00	790.00	785.00	748.00	708.00	667.00	636.00	544.00	536.00	533.00	535.00	550.00	556.00	568.00	592.00	619.00	637.00	642.00	653.00	681.00	663.00	622.00	656.00	678.00	710.00	751.00	761.00	766.00	767.00	788.00	811.00	841.00	877.00	885.00	812.00	814.00	842.00	832.00	747.00	738.00	743.00	723.00	697.00	669.00	665.00	662.00	659.00	657.00	654.00	650.00	646.00	639.00	624.00	621.00	613.00	610.00	604.00	604.00	601.00	597.00	594.00	586.00	583.00	578.00	563.00	555.00	554.00	555.00	555.00	555.00	556.00	559.00	562.00	567.00	583.00	589.00	598.00	608.00	617.00	642.00	648.00	648.00	646.00	641.00	645.00	646.00	647.00	645.00	642.00	647.00	646.00	643.00	642.00	643.00	641.00	651.00	717.00	733.00	694.00	666.00	659.00	696.00	707.00	695.00	681.00	711.00	644.00	657.00	711.00	744.00	809.00	805.00	833.00	837.00	779.00	799.00	815.00	730.00	710.00	664.00	646.00	634.00	631.00	632.00	631.00	627.00	622.00	601.00	557.00	550.00	566.00	572.00	586.00	589.00	588.00	582.00	570.00	525.00	481.00	460.00	454.00	447.00	445.00	445.00	444.00	446.00	481.00	531.00	553.00	553.00	535.00	544.00	548.00	559.00	559.00	573.00	585.00	577.00	583.00	588.00	582.00	571.00	583.00	598.00	576.00	557.00	565.00	588.00	585.00	601.00	592.00	567.00	543.00	545.00	563.00	553.00	541.00	567.00	556.00	543.00	543.00	538.00	555.00	567.00	568.00	563.00	545.00	549.00	548.00	550.00	534.00	517.00	510.00	505.00	502.00	485.00	466.00	445.00	428.00	424.00	419.00	418.00	419.00	420.00	421.00	422.00	423.00	424.00	424.00	425.00	426.00	426.00	425.00	426.00	426.00	426.00	426.00	426.00	425.00	425.00	424.00	422.00	416.00	410.00	404.00	401.00	402.00	403.00	402.00	398.00	403.00	402.00	422.00	428.00	429.00	431.00	434.00	438.00	438.00	435.00	426.00	425.00	424.00	424.00	422.00	417.00	415.00
874.00	883.00	859.00	850.00	868.00	879.00	861.00	809.00	778.00	785.00	800.00	720.00	684.00	649.00	615.00	599.00	550.00	537.00	540.00	545.00	559.00	567.00	579.00	599.00	635.00	637.00	657.00	676.00	701.00	689.00	646.00	641.00	664.00	691.00	753.00	760.00	765.00	772.00	811.00	844.00	884.00	922.00	936.00	891.00	945.00	920.00	864.00	791.00	779.00	770.00	757.00	735.00	703.00	704.00	711.00	723.00	713.00	701.00	691.00	677.00	659.00	652.00	653.00	650.00	645.00	634.00	629.00	624.00	619.00	613.00	601.00	596.00	589.00	570.00	564.00	564.00	564.00	564.00	565.00	569.00	572.00	577.00	587.00	626.00	636.00	653.00	682.00	700.00	695.00	694.00	695.00	688.00	749.00	784.00	779.00	744.00	706.00	698.00	695.00	689.00	687.00	677.00	677.00	675.00	670.00	688.00	725.00	712.00	687.00	705.00	739.00	739.00	712.00	719.00	721.00	684.00	652.00	672.00	709.00	788.00	814.00	814.00	800.00	787.00	840.00	848.00	803.00	759.00	721.00	692.00	674.00	663.00	638.00	618.00	599.00	582.00	575.00	605.00	619.00	618.00	607.00	601.00	592.00	584.00	577.00	567.00	490.00	474.00	463.00	456.00	451.00	449.00	446.00	445.00	450.00	489.00	514.00	566.00	578.00	566.00	578.00	583.00	588.00	579.00	596.00	591.00	598.00	593.00	598.00	594.00	585.00	588.00	598.00	600.00	578.00	566.00	581.00	633.00	617.00	599.00	579.00	558.00	573.00	584.00	561.00	558.00	569.00	558.00	552.00	552.00	565.00	579.00	564.00	550.00	546.00	549.00	546.00	542.00	538.00	525.00	510.00	504.00	500.00	497.00	483.00	465.00	445.00	430.00	426.00	423.00	422.00	423.00	424.00	427.00	428.00	429.00	429.00	429.00	430.00	430.00	430.00	430.00	430.00	430.00	430.00	430.00	430.00	429.00	429.00	428.00	427.00	425.00	421.00	416.00	408.00	406.00	409.00	409.00	407.00	400.00	406.00	418.00	430.00	435.00	439.00	445.00	445.00	446.00	446.00	437.00	435.00	435.00	435.00	433.00	427.00	425.00
809.00	813.00	807.00	789.00	818.00	863.00	883.00	798.00	745.00	712.00	708.00	647.00	633.00	618.00	606.00	589.00	544.00	539.00	546.00	552.00	567.00	574.00	582.00	611.00	641.00	657.00	674.00	696.00	723.00	674.00	665.00	650.00	673.00	693.00	746.00	768.00	783.00	797.00	852.00	892.00	938.00	975.00	984.00	980.00	989.00	933.00	888.00	832.00	815.00	827.00	809.00	777.00	740.00	755.00	790.00	820.00	799.00	806.00	783.00	743.00	715.00	723.00	713.00	709.00	698.00	667.00	659.00	651.00	642.00	631.00	617.00	608.00	594.00	574.00	569.00	569.00	571.00	572.00	573.00	581.00	590.00	605.00	624.00	711.00	759.00	815.00	853.00	882.00	868.00	856.00	819.00	766.00	893.00	947.00	985.00	924.00	810.00	880.00	850.00	818.00	783.00	741.00	744.00	734.00	717.00	686.00	739.00	732.00	724.00	729.00	738.00	728.00	735.00	745.00	717.00	699.00	667.00	689.00	707.00	738.00	752.00	749.00	726.00	729.00	764.00	778.00	785.00	787.00	756.00	713.00	663.00	631.00	596.00	612.00	628.00	644.00	661.00	653.00	641.00	645.00	670.00	619.00	599.00	589.00	579.00	563.00	474.00	467.00	462.00	457.00	454.00	452.00	446.00	451.00	452.00	486.00	525.00	560.00	580.00	584.00	592.00	610.00	612.00	595.00	608.00	607.00	605.00	606.00	610.00	603.00	606.00	613.00	622.00	616.00	591.00	576.00	580.00	621.00	652.00	633.00	606.00	579.00	604.00	593.00	582.00	586.00	583.00	570.00	566.00	601.00	601.00	563.00	556.00	556.00	553.00	540.00	536.00	529.00	521.00	504.00	486.00	479.00	474.00	465.00	457.00	449.00	441.00	436.00	433.00	427.00	427.00	428.00	429.00	432.00	432.00	433.00	434.00	434.00	434.00	434.00	435.00	435.00	434.00	434.00	433.00	433.00	433.00	432.00	431.00	431.00	431.00	428.00	427.00	423.00	420.00	418.00	416.00	415.00	414.00	407.00	403.00	411.00	422.00	436.00	444.00	452.00	453.00	455.00	457.00	448.00	443.00	440.00	441.00	443.00	440.00	437.00
809.00	813.00	807.00	789.00	818.00	863.00	883.00	798.00	745.00	712.00	708.00	647.00	633.00	618.00	606.00	589.00	544.00	539.00	546.00	552.00	567.00	574.00	582.00	611.00	641.00	657.00	674.00	696.00	723.00	674.00	665.00	650.00	673.00	693.00	746.00	768.00	783.00	797.00	852.00	892.00	938.00	975.00	984.00	980.00	989.00	933.00	888.00	832.00	815.00	827.00	809.00	777.00	740.00	755.00	790.00	820.00	799.00	806.00	783.00	743.00	715.00	723.00	713.00	709.00	698.00	667.00	659.00	651.00	642.00	631.00	617.00	608.00	594.00	574.00	569.00	569.00	571.00	572.00	573.00	581.00	590.00	605.00	624.00	711.00	759.00	815.00	853.00	882.00	868.00	856.00	819.00	766.00	893.00	947.00	985.00	924.00	810.00	880.00	850.00	818.00	783.00	741.00	744.00	734.00	717.00	686.00	739.00	732.00	724.00	729.00	738.00	728.00	735.00	745.00	717.00	699.00	667.00	689.00	707.00	738.00	752.00	749.00	726.00	729.00	764.00	778.00	785.00	787.00	756.00	713.00	663.00	631.00	596.00	612.00	628.00	644.00	661.00	653.00	641.00	645.00	670.00	619.00	599.00	589.00	579.00	563.00	474.00	467.00	462.00	457.00	454.00	452.00	446.00	451.00	452.00	486.00	525.00	560.00	580.00	584.00	592.00	610.00	612.00	595.00	608.00	607.00	605.00	606.00	610.00	603.00	606.00	613.00	622.00	616.00	591.00	576.00	580.00	621.00	652.00	633.00	606.00	579.00	604.00	593.00	582.00	586.00	583.00	570.00	566.00	601.00	601.00	563.00	556.00	556.00	553.00	540.00	536.00	529.00	521.00	504.00	486.00	479.00	474.00	465.00	457.00	449.00	441.00	436.00	433.00	427.00	427.00	428.00	429.00	432.00	432.00	433.00	434.00	434.00	434.00	434.00	435.00	435.00	434.00	434.00	433.00	433.00	433.00	432.00	431.00	431.00	431.00	428.00	427.00	423.00	420.00	418.00	416.00	415.00	414.00	407.00	403.00	411.00	422.00	436.00	444.00	452.00	453.00	455.00	457.00	448.00	443.00	440.00	441.00	443.00	440.00	437.00
809.00	813.00	807.00	789.00	818.00	863.00	883.00	798.00	745.00	712.00	708.00	647.00	633.00	618.00	606.00	589.00	544.00	539.00	546.00	552.00	567.00	574.00	582.00	611.00	641.00	657.00	674.00	696.00	723.00	674.00	665.00	650.00	673.00	693.00	746.00	768.00	783.00	797.00	852.00	892.00	938.00	975.00	984.00	980.00	989.00	933.00	888.00	832.00	815.00	827.00	809.00	777.00	740.00	755.00	790.00	820.00	799.00	806.00	783.00	743.00	715.00	723.00	713.00	709.00	698.00	667.00	659.00	651.00	642.00	631.00	617.00	608.00	594.00	574.00	569.00	569.00	571.00	572.00	573.00	581.00	590.00	605.00	624.00	711.00	759.00	815.00	853.00	882.00	868.00	856.00	819.00	766.00	893.00	947.00	985.00	924.00	810.00	880.00	850.00	818.00	783.00	741.00	744.00	734.00	717.00	686.00	739.00	732.00	724.00	729.00	738.00	728.00	735.00	745.00	717.00	699.00	667.00	689.00	707.00	738.00	752.00	749.00	726.00	729.00	764.00	778.00	785.00	787.00	756.00	713.00	663.00	631.00	596.00	612.00	628.00	644.00	661.00	653.00	641.00	645.00	670.00	619.00	599.00	589.00	579.00	563.00	474.00	467.00	462.00	457.00	454.00	452.00	446.00	451.00	452.00	486.00	525.00	560.00	580.00	584.00	592.00	610.00	612.00	595.00	608.00	607.00	605.00	606.00	610.00	603.00	606.00	613.00	622.00	616.00	591.00	576.00	580.00	621.00	652.00	633.00	606.00	579.00	604.00	593.00	582.00	586.00	583.00	570.00	566.00	601.00	601.00	563.00	556.00	556.00	553.00	540.00	536.00	529.00	521.00	504.00	486.00	479.00	474.00	465.00	457.00	449.00	441.00	436.00	433.00	427.00	427.00	428.00	429.00	432.00	432.00	433.00	434.00	434.00	434.00	434.00	435.00	435.00	434.00	434.00	433.00	433.00	433.00	432.00	431.00	431.00	431.00	428.00	427.00	423.00	420.00	418.00	416.00	415.00	414.00	407.00	403.00	411.00	422.00	436.00	444.00	452.00	453.00	455.00	457.00	448.00	443.00	440.00	441.00	443.00	440.00	437.00
756.00	765.00	744.00	739.00	758.00	775.00	792.00	741.00	707.00	677.00	663.00	627.00	616.00	606.00	586.00	555.00	538.00	540.00	547.00	558.00	577.00	581.00	593.00	625.00	640.00	676.00	692.00	709.00	702.00	695.00	722.00	669.00	667.00	694.00	753.00	767.00	776.00	779.00	828.00	858.00	891.00	931.00	1010.00	1031.00	982.00	962.00	935.00	873.00	862.00	837.00	801.00	774.00	771.00	788.00	834.00	874.00	889.00	890.00	843.00	796.00	795.00	815.00	811.00	842.00	795.00	727.00	710.00	682.00	662.00	656.00	641.00	627.00	612.00	584.00	575.00	574.00	574.00	577.00	583.00	611.00	627.00	647.00	689.00	845.00	889.00	914.00	933.00	949.00	891.00	842.00	821.00	848.00	973.00	990.00	1028.00	977.00	907.00	892.00	902.00	874.00	847.00	830.00	814.00	782.00	771.00	704.00	809.00	827.00	805.00	785.00	776.00	778.00	784.00	763.00	740.00	710.00	680.00	695.00	718.00	730.00	727.00	722.00	705.00	685.00	696.00	704.00	699.00	673.00	632.00	614.00	612.00	621.00	670.00	664.00	685.00	710.00	704.00	675.00	696.00	718.00	721.00	628.00	588.00	565.00	555.00	523.00	475.00	470.00	465.00	459.00	458.00	453.00	450.00	457.00	458.00	493.00	527.00	600.00	591.00	612.00	612.00	639.00	632.00	609.00	624.00	634.00	634.00	625.00	632.00	618.00	628.00	638.00	648.00	625.00	601.00	594.00	602.00	613.00	661.00	642.00	607.00	609.00	614.00	626.00	631.00	610.00	588.00	577.00	587.00	612.00	603.00	581.00	569.00	560.00	548.00	529.00	526.00	519.00	512.00	500.00	513.00	507.00	494.00	489.00	476.00	469.00	456.00	444.00	441.00	437.00	436.00	436.00	436.00	437.00	438.00	438.00	439.00	439.00	439.00	439.00	439.00	439.00	438.00	438.00	438.00	437.00	436.00	435.00	434.00	434.00	433.00	430.00	429.00	428.00	427.00	425.00	422.00	420.00	417.00	411.00	415.00	418.00	425.00	446.00	451.00	454.00	456.00	459.00	462.00	463.00	457.00	449.00	447.00	449.00	451.00	451.00
712.00	709.00	687.00	683.00	685.00	681.00	680.00	667.00	655.00	651.00	661.00	617.00	588.00	554.00	540.00	538.00	544.00	555.00	565.00	575.00	595.00	590.00	599.00	628.00	654.00	685.00	697.00	699.00	704.00	759.00	807.00	707.00	670.00	699.00	754.00	782.00	808.00	825.00	841.00	846.00	869.00	898.00	971.00	1061.00	1022.00	986.00	950.00	866.00	831.00	804.00	806.00	792.00	800.00	805.00	830.00	850.00	843.00	832.00	813.00	795.00	826.00	900.00	897.00	856.00	807.00	760.00	720.00	699.00	720.00	724.00	694.00	672.00	643.00	607.00	584.00	577.00	585.00	601.00	621.00	668.00	715.00	760.00	804.00	856.00	884.00	915.00	949.00	991.00	947.00	913.00	909.00	980.00	1052.00	1050.00	983.00	942.00	902.00	873.00	904.00	921.00	926.00	865.00	850.00	841.00	814.00	732.00	812.00	863.00	842.00	865.00	842.00	815.00	784.00	794.00	801.00	728.00	708.00	714.00	739.00	729.00	716.00	702.00	692.00	677.00	653.00	644.00	654.00	634.00	614.00	645.00	672.00	690.00	759.00	774.00	726.00	774.00	752.00	754.00	762.00	776.00	738.00	646.00	614.00	610.00	571.00	515.00	480.00	474.00	469.00	465.00	462.00	458.00	459.00	463.00	465.00	499.00	530.00	640.00	613.00	640.00	645.00	649.00	654.00	657.00	640.00	645.00	645.00	640.00	641.00	634.00	659.00	680.00	664.00	627.00	619.00	613.00	617.00	650.00	665.00	659.00	646.00	640.00	631.00	630.00	615.00	604.00	587.00	598.00	608.00	602.00	603.00	576.00	558.00	546.00	538.00	564.00	568.00	558.00	542.00	538.00	532.00	523.00	515.00	506.00	487.00	479.00	463.00	452.00	449.00	445.00	444.00	444.00	443.00	444.00	444.00	444.00	444.00	444.00	444.00	444.00	444.00	444.00	443.00	442.00	442.00	441.00	441.00	439.00	438.00	437.00	436.00	433.00	432.00	431.00	430.00	429.00	427.00	425.00	421.00	413.00	421.00	421.00	424.00	442.00	453.00	456.00	457.00	460.00	464.00	469.00	469.00	463.00	456.00	460.00	462.00	461.00
712.00	709.00	687.00	683.00	685.00	681.00	680.00	667.00	655.00	651.00	661.00	617.00	588.00	554.00	540.00	538.00	544.00	555.00	565.00	575.00	595.00	590.00	599.00	628.00	654.00	685.00	697.00	699.00	704.00	759.00	807.00	707.00	670.00	699.00	754.00	782.00	808.00	825.00	841.00	846.00	869.00	898.00	971.00	1061.00	1022.00	986.00	950.00	866.00	831.00	804.00	806.00	792.00	800.00	805.00	830.00	850.00	843.00	832.00	813.00	795.00	826.00	900.00	897.00	856.00	807.00	760.00	720.00	699.00	720.00	724.00	694.00	672.00	643.00	607.00	584.00	577.00	585.00	601.00	621.00	668.00	715.00	760.00	804.00	856.00	884.00	915.00	949.00	991.00	947.00	913.00	909.00	980.00	1052.00	1050.00	983.00	942.00	902.00	873.00	904.00	921.00	926.00	865.00	850.00	841.00	814.00	732.00	812.00	863.00	842.00	865.00	842.00	815.00	784.00	794.00	801.00	728.00	708.00	714.00	739.00	729.00	716.00	702.00	692.00	677.00	653.00	644.00	654.00	634.00	614.00	645.00	672.00	690.00	759.00	774.00	726.00	774.00	752.00	754.00	762.00	776.00	738.00	646.00	614.00	610.00	571.00	515.00	480.00	474.00	469.00	465.00	462.00	458.00	459.00	463.00	465.00	499.00	530.00	640.00	613.00	640.00	645.00	649.00	654.00	657.00	640.00	645.00	645.00	640.00	641.00	634.00	659.00	680.00	664.00	627.00	619.00	613.00	617.00	650.00	665.00	659.00	646.00	640.00	631.00	630.00	615.00	604.00	587.00	598.00	608.00	602.00	603.00	576.00	558.00	546.00	538.00	564.00	568.00	558.00	542.00	538.00	532.00	523.00	515.00	506.00	487.00	479.00	463.00	452.00	449.00	445.00	444.00	444.00	443.00	444.00	444.00	444.00	444.00	444.00	444.00	444.00	444.00	444.00	443.00	442.00	442.00	441.00	441.00	439.00	438.00	437.00	436.00	433.00	432.00	431.00	430.00	429.00	427.00	425.00	421.00	413.00	421.00	421.00	424.00	442.00	453.00	456.00	457.00	460.00	464.00	469.00	469.00	463.00	456.00	460.00	462.00	461.00
700.00	707.00	729.00	722.00	721.00	707.00	696.00	648.00	630.00	620.00	617.00	572.00	551.00	542.00	541.00	543.00	582.00	602.00	609.00	616.00	607.00	603.00	607.00	615.00	668.00	701.00	712.00	732.00	759.00	842.00	867.00	724.00	683.00	719.00	809.00	824.00	815.00	812.00	830.00	861.00	898.00	925.00	998.00	1024.00	983.00	942.00	908.00	871.00	867.00	858.00	831.00	793.00	842.00	851.00	849.00	837.00	829.00	846.00	860.00	833.00	828.00	890.00	855.00	772.00	742.00	751.00	761.00	798.00	824.00	798.00	759.00	704.00	659.00	683.00	621.00	611.00	640.00	681.00	703.00	757.00	794.00	818.00	830.00	851.00	887.00	920.00	937.00	957.00	984.00	996.00	1018.00	1047.00	1073.00	1044.00	968.00	934.00	906.00	882.00	921.00	973.00	982.00	905.00	865.00	852.00	869.00	777.00	839.00	895.00	910.00	919.00	844.00	814.00	854.00	863.00	833.00	717.00	751.00	740.00	734.00	727.00	705.00	687.00	677.00	674.00	680.00	673.00	642.00	636.00	645.00	648.00	676.00	705.00	779.00	815.00	835.00	871.00	795.00	859.00	830.00	785.00	737.00	652.00	619.00	586.00	570.00	537.00	484.00	478.00	473.00	469.00	466.00	460.00	461.00	466.00	469.00	505.00	534.00	658.00	651.00	676.00	680.00	678.00	692.00	702.00	681.00	675.00	670.00	660.00	667.00	679.00	698.00	681.00	656.00	657.00	643.00	646.00	639.00	654.00	670.00	664.00	656.00	648.00	626.00	618.00	608.00	599.00	610.00	605.00	606.00	603.00	591.00	565.00	581.00	596.00	586.00	593.00	583.00	576.00	565.00	549.00	520.00	512.00	501.00	490.00	487.00	484.00	475.00	464.00	455.00	452.00	451.00	450.00	450.00	449.00	449.00	449.00	449.00	449.00	449.00	449.00	448.00	448.00	447.00	446.00	446.00	445.00	445.00	443.00	441.00	440.00	439.00	436.00	434.00	433.00	432.00	431.00	423.00	418.00	417.00	424.00	426.00	425.00	426.00	441.00	456.00	460.00	462.00	465.00	471.00	476.00	478.00	475.00	472.00	473.00	473.00	472.00
720.00	752.00	815.00	804.00	788.00	782.00	765.00	726.00	695.00	659.00	621.00	547.00	548.00	551.00	555.00	561.00	611.00	624.00	635.00	656.00	627.00	625.00	656.00	649.00	652.00	740.00	773.00	797.00	829.00	902.00	873.00	738.00	695.00	718.00	844.00	906.00	927.00	924.00	901.00	890.00	880.00	892.00	963.00	1029.00	1015.00	977.00	956.00	923.00	891.00	867.00	842.00	812.00	878.00	862.00	844.00	838.00	865.00	863.00	849.00	849.00	875.00	856.00	809.00	768.00	790.00	831.00	817.00	836.00	804.00	779.00	714.00	680.00	714.00	697.00	668.00	666.00	623.00	647.00	693.00	724.00	721.00	722.00	725.00	822.00	871.00	914.00	953.00	992.00	1035.00	1023.00	1015.00	1036.00	1039.00	1037.00	984.00	958.00	940.00	901.00	921.00	952.00	997.00	945.00	927.00	940.00	921.00	837.00	802.00	850.00	907.00	912.00	858.00	872.00	872.00	845.00	819.00	749.00	750.00	762.00	756.00	729.00	714.00	695.00	684.00	689.00	665.00	654.00	681.00	662.00	682.00	684.00	695.00	721.00	766.00	795.00	832.00	858.00	849.00	840.00	792.00	743.00	720.00	659.00	627.00	627.00	615.00	559.00	487.00	483.00	477.00	471.00	469.00	464.00	466.00	468.00	469.00	510.00	538.00	656.00	699.00	698.00	713.00	720.00	743.00	736.00	733.00	731.00	727.00	718.00	721.00	725.00	728.00	716.00	707.00	694.00	682.00	687.00	669.00	667.00	685.00	673.00	664.00	645.00	619.00	617.00	630.00	632.00	627.00	643.00	659.00	620.00	598.00	627.00	638.00	627.00	626.00	591.00	574.00	565.00	559.00	541.00	522.00	517.00	509.00	505.00	500.00	496.00	490.00	478.00	470.00	459.00	457.00	456.00	455.00	453.00	453.00	453.00	453.00	453.00	454.00	454.00	454.00	454.00	452.00	452.00	451.00	449.00	448.00	446.00	445.00	444.00	443.00	439.00	437.00	436.00	434.00	432.00	418.00	425.00	427.00	429.00	430.00	432.00	436.00	447.00	454.00	461.00	464.00	467.00	471.00	475.00	477.00	482.00	482.00	481.00	479.00	477.00
720.00	752.00	815.00	804.00	788.00	782.00	765.00	726.00	695.00	659.00	621.00	547.00	548.00	551.00	555.00	561.00	611.00	624.00	635.00	656.00	627.00	625.00	656.00	649.00	652.00	740.00	773.00	797.00	829.00	902.00	873.00	738.00	695.00	718.00	844.00	906.00	927.00	924.00	901.00	890.00	880.00	892.00	963.00	1029.00	1015.00	977.00	956.00	923.00	891.00	867.00	842.00	812.00	878.00	862.00	844.00	838.00	865.00	863.00	849.00	849.00	875.00	856.00	809.00	768.00	790.00	831.00	817.00	836.00	804.00	779.00	714.00	680.00	714.00	697.00	668.00	666.00	623.00	647.00	693.00	724.00	721.00	722.00	725.00	822.00	871.00	914.00	953.00	992.00	1035.00	1023.00	1015.00	1036.00	1039.00	1037.00	984.00	958.00	940.00	901.00	921.00	952.00	997.00	945.00	927.00	940.00	921.00	837.00	802.00	850.00	907.00	912.00	858.00	872.00	872.00	845.00	819.00	749.00	750.00	762.00	756.00	729.00	714.00	695.00	684.00	689.00	665.00	654.00	681.00	662.00	682.00	684.00	695.00	721.00	766.00	795.00	832.00	858.00	849.00	840.00	792.00	743.00	720.00	659.00	627.00	627.00	615.00	559.00	487.00	483.00	477.00	471.00	469.00	464.00	466.00	468.00	469.00	510.00	538.00	656.00	699.00	698.00	713.00	720.00	743.00	736.00	733.00	731.00	727.00	718.00	721.00	725.00	728.00	716.00	707.00	694.00	682.00	687.00	669.00	667.00	685.00	673.00	664.00	645.00	619.00	617.00	630.00	632.00	627.00	643.00	659.00	620.00	598.00	627.00	638.00	627.00	626.00	591.00	574.00	565.00	559.00	541.00	522.00	517.00	509.00	505.00	500.00	496.00	490.00	478.00	470.00	459.00	457.00	456.00	455.00	453.00	453.00	453.00	453.00	453.00	454.00	454.00	454.00	454.00	452.00	452.00	451.00	449.00	448.00	446.00	445.00	444.00	443.00	439.00	437.00	436.00	434.00	432.00	418.00	425.00	427.00	429.00	430.00	432.00	436.00	447.00	454.00	461.00	464.00	467.00	471.00	475.00	477.00	482.00	482.00	481.00	479.00	477.00
725.00	742.00	771.00	759.00	746.00	730.00	708.00	666.00	627.00	584.00	556.00	555.00	558.00	564.00	576.00	597.00	637.00	650.00	671.00	689.00	645.00	669.00	721.00	714.00	667.00	680.00	700.00	726.00	765.00	826.00	838.00	785.00	734.00	710.00	801.00	837.00	848.00	863.00	918.00	948.00	965.00	972.00	968.00	1038.00	1047.00	1016.00	992.00	968.00	947.00	917.00	889.00	857.00	870.00	860.00	861.00	869.00	886.00	897.00	904.00	920.00	915.00	849.00	810.00	851.00	874.00	866.00	828.00	789.00	780.00	788.00	718.00	731.00	768.00	686.00	700.00	751.00	757.00	664.00	630.00	726.00	761.00	791.00	813.00	802.00	813.00	866.00	925.00	983.00	988.00	956.00	950.00	993.00	973.00	984.00	1026.00	1012.00	1001.00	947.00	937.00	942.00	969.00	1001.00	961.00	920.00	887.00	801.00	800.00	835.00	869.00	885.00	909.00	880.00	853.00	835.00	812.00	754.00	773.00	773.00	757.00	712.00	701.00	727.00	720.00	710.00	708.00	718.00	682.00	660.00	705.00	727.00	738.00	748.00	750.00	731.00	740.00	747.00	760.00	711.00	698.00	685.00	665.00	617.00	600.00	579.00	562.00	540.00	498.00	489.00	482.00	476.00	473.00	466.00	473.00	473.00	476.00	521.00	537.00	636.00	690.00	753.00	739.00	767.00	783.00	798.00	814.00	815.00	799.00	762.00	794.00	819.00	818.00	808.00	792.00	767.00	751.00	740.00	717.00	708.00	673.00	655.00	637.00	631.00	669.00	667.00	667.00	653.00	675.00	651.00	635.00	643.00	653.00	651.00	638.00	622.00	607.00	583.00	576.00	572.00	568.00	552.00	542.00	536.00	530.00	522.00	508.00	499.00	488.00	480.00	473.00	466.00	464.00	462.00	460.00	457.00	457.00	457.00	458.00	459.00	459.00	460.00	460.00	459.00	458.00	457.00	456.00	454.00	453.00	450.00	448.00	447.00	446.00	442.00	440.00	438.00	436.00	433.00	432.00	432.00	432.00	432.00	432.00	434.00	439.00	449.00	453.00	458.00	464.00	466.00	469.00	473.00	474.00	479.00	482.00	483.00	479.00	478.00
725.00	742.00	771.00	759.00	746.00	730.00	708.00	666.00	627.00	584.00	556.00	555.00	558.00	564.00	576.00	597.00	637.00	650.00	671.00	689.00	645.00	669.00	721.00	714.00	667.00	680.00	700.00	726.00	765.00	826.00	838.00	785.00	734.00	710.00	801.00	837.00	848.00	863.00	918.00	948.00	965.00	972.00	968.00	1038.00	1047.00	1016.00	992.00	968.00	947.00	917.00	889.00	857.00	870.00	860.00	861.00	869.00	886.00	897.00	904.00	920.00	915.00	849.00	810.00	851.00	874.00	866.00	828.00	789.00	780.00	788.00	718.00	731.00	768.00	686.00	700.00	751.00	757.00	664.00	630.00	726.00	761.00	791.00	813.00	802.00	813.00	866.00	925.00	983.00	988.00	956.00	950.00	993.00	973.00	984.00	1026.00	1012.00	1001.00	947.00	937.00	942.00	969.00	1001.00	961.00	920.00	887.00	801.00	800.00	835.00	869.00	885.00	909.00	880.00	853.00	835.00	812.00	754.00	773.00	773.00	757.00	712.00	701.00	727.00	720.00	710.00	708.00	718.00	682.00	660.00	705.00	727.00	738.00	748.00	750.00	731.00	740.00	747.00	760.00	711.00	698.00	685.00	665.00	617.00	600.00	579.00	562.00	540.00	498.00	489.00	482.00	476.00	473.00	466.00	473.00	473.00	476.00	521.00	537.00	636.00	690.00	753.00	739.00	767.00	783.00	798.00	814.00	815.00	799.00	762.00	794.00	819.00	818.00	808.00	792.00	767.00	751.00	740.00	717.00	708.00	673.00	655.00	637.00	631.00	669.00	667.00	667.00	653.00	675.00	651.00	635.00	643.00	653.00	651.00	638.00	622.00	607.00	583.00	576.00	572.00	568.00	552.00	542.00	536.00	530.00	522.00	508.00	499.00	488.00	480.00	473.00	466.00	464.00	462.00	460.00	457.00	457.00	457.00	458.00	459.00	459.00	460.00	460.00	459.00	458.00	457.00	456.00	454.00	453.00	450.00	448.00	447.00	446.00	442.00	440.00	438.00	436.00	433.00	432.00	432.00	432.00	432.00	432.00	434.00	439.00	449.00	453.00	458.00	464.00	466.00	469.00	473.00	474.00	479.00	482.00	483.00	479.00	478.00
707.00	699.00	696.00	695.00	683.00	665.00	652.00	614.00	579.00	569.00	565.00	572.00	572.00	573.00	592.00	618.00	680.00	694.00	702.00	718.00	668.00	698.00	740.00	760.00	730.00	685.00	684.00	692.00	701.00	735.00	756.00	806.00	794.00	766.00	729.00	741.00	758.00	774.00	836.00	856.00	875.00	886.00	914.00	973.00	977.00	984.00	993.00	990.00	965.00	939.00	916.00	901.00	902.00	901.00	915.00	909.00	938.00	957.00	975.00	969.00	942.00	854.00	862.00	948.00	924.00	860.00	862.00	868.00	845.00	793.00	780.00	804.00	773.00	709.00	744.00	760.00	749.00	720.00	712.00	645.00	721.00	806.00	842.00	874.00	842.00	836.00	852.00	856.00	870.00	872.00	883.00	902.00	904.00	913.00	980.00	982.00	1009.00	1016.00	994.00	964.00	954.00	965.00	933.00	908.00	874.00	796.00	850.00	822.00	828.00	845.00	881.00	864.00	847.00	827.00	810.00	794.00	780.00	759.00	744.00	734.00	733.00	783.00	787.00	770.00	727.00	712.00	707.00	720.00	735.00	727.00	712.00	726.00	723.00	695.00	679.00	683.00	724.00	718.00	699.00	674.00	652.00	624.00	614.00	612.00	595.00	573.00	502.00	495.00	488.00	483.00	478.00	475.00	476.00	480.00	491.00	537.00	549.00	633.00	682.00	788.00	808.00	805.00	802.00	790.00	773.00	756.00	766.00	763.00	771.00	793.00	812.00	825.00	848.00	825.00	819.00	807.00	784.00	708.00	651.00	658.00	683.00	691.00	715.00	707.00	698.00	701.00	676.00	670.00	695.00	680.00	667.00	650.00	646.00	643.00	646.00	627.00	607.00	592.00	581.00	557.00	540.00	535.00	527.00	518.00	504.00	498.00	492.00	487.00	482.00	473.00	471.00	469.00	467.00	465.00	464.00	464.00	464.00	464.00	465.00	465.00	465.00	464.00	463.00	461.00	460.00	458.00	457.00	453.00	451.00	450.00	448.00	442.00	435.00	434.00	433.00	433.00	439.00	438.00	437.00	437.00	434.00	433.00	435.00	441.00	446.00	456.00	458.00	463.00	464.00	470.00	475.00	478.00	479.00	479.00	479.00	478.00
695.00	665.00	646.00	640.00	630.00	617.00	601.00	580.00	574.00	578.00	583.00	592.00	592.00	600.00	620.00	645.00	671.00	692.00	711.00	700.00	696.00	725.00	761.00	782.00	787.00	732.00	722.00	719.00	721.00	729.00	732.00	776.00	778.00	786.00	803.00	804.00	785.00	764.00	769.00	780.00	793.00	800.00	851.00	902.00	902.00	915.00	916.00	914.00	914.00	908.00	911.00	931.00	975.00	952.00	972.00	953.00	970.00	1012.00	991.00	955.00	929.00	912.00	936.00	976.00	946.00	914.00	889.00	843.00	813.00	824.00	868.00	835.00	793.00	761.00	798.00	773.00	774.00	797.00	761.00	654.00	727.00	796.00	829.00	922.00	933.00	900.00	893.00	914.00	860.00	855.00	852.00	857.00	862.00	877.00	918.00	921.00	951.00	966.00	980.00	953.00	924.00	890.00	868.00	845.00	838.00	844.00	849.00	850.00	856.00	859.00	854.00	852.00	854.00	838.00	815.00	823.00	801.00	782.00	768.00	756.00	761.00	780.00	766.00	750.00	754.00	743.00	758.00	769.00	734.00	714.00	690.00	684.00	695.00	693.00	677.00	651.00	666.00	689.00	686.00	672.00	641.00	646.00	631.00	625.00	618.00	594.00	508.00	501.00	493.00	487.00	482.00	481.00	476.00	477.00	502.00	541.00	554.00	617.00	674.00	728.00	752.00	726.00	686.00	700.00	690.00	709.00	740.00	755.00	766.00	777.00	793.00	813.00	801.00	753.00	747.00	755.00	733.00	678.00	683.00	725.00	745.00	778.00	777.00	769.00	752.00	745.00	727.00	744.00	735.00	704.00	689.00	678.00	668.00	657.00	644.00	613.00	595.00	582.00	571.00	555.00	539.00	533.00	527.00	520.00	505.00	502.00	498.00	493.00	489.00	481.00	477.00	474.00	473.00	471.00	470.00	470.00	470.00	470.00	471.00	471.00	471.00	470.00	468.00	466.00	464.00	461.00	459.00	455.00	453.00	451.00	450.00	434.00	439.00	442.00	443.00	443.00	443.00	443.00	442.00	442.00	439.00	436.00	435.00	435.00	438.00	458.00	459.00	461.00	463.00	467.00	472.00	476.00	475.00	475.00	477.00	479.00
695.00	665.00	646.00	640.00	630.00	617.00	601.00	580.00	574.00	578.00	583.00	592.00	592.00	600.00	620.00	645.00	671.00	692.00	711.00	700.00	696.00	725.00	761.00	782.00	787.00	732.00	722.00	719.00	721.00	729.00	732.00	776.00	778.00	786.00	803.00	804.00	785.00	764.00	769.00	780.00	793.00	800.00	851.00	902.00	902.00	915.00	916.00	914.00	914.00	908.00	911.00	931.00	975.00	952.00	972.00	953.00	970.00	1012.00	991.00	955.00	929.00	912.00	936.00	976.00	946.00	914.00	889.00	843.00	813.00	824.00	868.00	835.00	793.00	761.00	798.00	773.00	774.00	797.00	761.00	654.00	727.00	796.00	829.00	922.00	933.00	900.00	893.00	914.00	860.00	855.00	852.00	857.00	862.00	877.00	918.00	921.00	951.00	966.00	980.00	953.00	924.00	890.00	868.00	845.00	838.00	844.00	849.00	850.00	856.00	859.00	854.00	852.00	854.00	838.00	815.00	823.00	801.00	782.00	768.00	756.00	761.00	780.00	766.00	750.00	754.00	743.00	758.00	769.00	734.00	714.00	690.00	684.00	695.00	693.00	677.00	651.00	666.00	689.00	686.00	672.00	641.00	646.00	631.00	625.00	618.00	594.00	508.00	501.00	493.00	487.00	482.00	481.00	476.00	477.00	502.00	541.00	554.00	617.00	674.00	728.00	752.00	726.00	686.00	700.00	690.00	709.00	740.00	755.00	766.00	777.00	793.00	813.00	801.00	753.00	747.00	755.00	733.00	678.00	683.00	725.00	745.00	778.00	777.00	769.00	752.00	745.00	727.00	744.00	735.00	704.00	689.00	678.00	668.00	657.00	644.00	613.00	595.00	582.00	571.00	555.00	539.00	533.00	527.00	520.00	505.00	502.00	498.00	493.00	489.00	481.00	477.00	474.00	473.00	471.00	470.00	470.00	470.00	470.00	471.00	471.00	471.00	470.00	468.00	466.00	464.00	461.00	459.00	455.00	453.00	451.00	450.00	434.00	439.00	442.00	443.00	443.00	443.00	443.00	442.00	442.00	439.00	436.00	435.00	435.00	438.00	458.00	459.00	461.00	463.00	467.00	472.00	476.00	475.00	475.00	477.00	479.00
653.00	637.00	603.00	594.00	584.00	577.00	575.00	578.00	580.00	588.00	598.00	614.00	619.00	633.00	663.00	678.00	709.00	722.00	712.00	701.00	716.00	727.00	751.00	779.00	793.00	798.00	787.00	771.00	755.00	753.00	757.00	764.00	772.00	786.00	843.00	860.00	847.00	806.00	795.00	795.00	800.00	802.00	811.00	847.00	852.00	864.00	864.00	865.00	872.00	878.00	890.00	913.00	1002.00	985.00	990.00	981.00	994.00	1011.00	981.00	943.00	915.00	930.00	943.00	931.00	919.00	882.00	867.00	866.00	871.00	866.00	860.00	825.00	796.00	802.00	837.00	823.00	812.00	794.00	774.00	673.00	772.00	826.00	854.00	926.00	951.00	916.00	905.00	934.00	922.00	899.00	897.00	897.00	879.00	897.00	947.00	938.00	932.00	950.00	956.00	932.00	907.00	868.00	855.00	868.00	878.00	901.00	875.00	887.00	880.00	882.00	906.00	913.00	887.00	853.00	838.00	862.00	827.00	805.00	795.00	786.00	769.00	765.00	771.00	771.00	772.00	776.00	760.00	749.00	728.00	718.00	703.00	691.00	659.00	650.00	654.00	637.00	627.00	633.00	629.00	626.00	630.00	593.00	589.00	588.00	571.00	554.00	518.00	505.00	497.00	492.00	485.00	484.00	477.00	479.00	514.00	541.00	545.00	586.00	617.00	682.00	691.00	653.00	631.00	662.00	692.00	698.00	705.00	729.00	772.00	785.00	807.00	821.00	804.00	759.00	729.00	706.00	696.00	681.00	692.00	704.00	729.00	753.00	789.00	808.00	787.00	783.00	744.00	725.00	714.00	702.00	696.00	663.00	652.00	642.00	626.00	598.00	588.00	580.00	570.00	549.00	535.00	532.00	527.00	523.00	514.00	508.00	504.00	500.00	496.00	487.00	485.00	483.00	481.00	477.00	475.00	475.00	476.00	476.00	478.00	477.00	477.00	477.00	474.00	471.00	468.00	464.00	461.00	456.00	455.00	453.00	451.00	446.00	449.00	449.00	449.00	448.00	447.00	447.00	447.00	446.00	443.00	440.00	438.00	435.00	435.00	442.00	452.00	455.00	456.00	467.00	474.00	474.00	475.00	475.00	476.00	475.00
620.00	595.00	576.00	575.00	575.00	577.00	576.00	585.00	592.00	602.00	612.00	634.00	640.00	656.00	672.00	689.00	723.00	732.00	723.00	720.00	738.00	743.00	751.00	759.00	765.00	791.00	821.00	826.00	795.00	777.00	783.00	791.00	794.00	801.00	868.00	870.00	850.00	823.00	824.00	826.00	830.00	834.00	834.00	829.00	832.00	839.00	843.00	850.00	852.00	859.00	877.00	904.00	948.00	947.00	945.00	939.00	925.00	919.00	906.00	889.00	878.00	865.00	874.00	856.00	853.00	834.00	823.00	815.00	812.00	806.00	791.00	786.00	768.00	767.00	783.00	773.00	773.00	746.00	678.00	765.00	847.00	925.00	968.00	978.00	960.00	937.00	939.00	955.00	913.00	906.00	925.00	931.00	913.00	911.00	946.00	968.00	978.00	963.00	941.00	918.00	906.00	915.00	898.00	902.00	921.00	947.00	916.00	919.00	912.00	916.00	958.00	939.00	912.00	907.00	910.00	864.00	842.00	821.00	811.00	794.00	788.00	784.00	784.00	784.00	768.00	765.00	738.00	721.00	692.00	684.00	673.00	660.00	645.00	635.00	648.00	645.00	616.00	597.00	587.00	583.00	584.00	581.00	592.00	605.00	601.00	583.00	519.00	507.00	498.00	493.00	489.00	489.00	491.00	492.00	528.00	565.00	570.00	568.00	568.00	587.00	598.00	607.00	628.00	653.00	674.00	682.00	708.00	724.00	756.00	773.00	779.00	775.00	796.00	778.00	750.00	738.00	724.00	689.00	748.00	737.00	715.00	738.00	787.00	810.00	846.00	885.00	809.00	764.00	731.00	688.00	677.00	665.00	655.00	642.00	627.00	615.00	606.00	593.00	580.00	558.00	544.00	538.00	536.00	529.00	517.00	511.00	508.00	504.00	502.00	495.00	492.00	490.00	488.00	484.00	483.00	482.00	481.00	481.00	482.00	483.00	486.00	485.00	477.00	473.00	469.00	466.00	463.00	457.00	454.00	447.00	448.00	453.00	453.00	454.00	454.00	455.00	455.00	454.00	453.00	451.00	447.00	444.00	442.00	440.00	439.00	436.00	436.00	438.00	441.00	458.00	470.00	471.00	471.00	472.00	475.00	477.00
620.00	595.00	576.00	575.00	575.00	577.00	576.00	585.00	592.00	602.00	612.00	634.00	640.00	656.00	672.00	689.00	723.00	732.00	723.00	720.00	738.00	743.00	751.00	759.00	765.00	791.00	821.00	826.00	795.00	777.00	783.00	791.00	794.00	801.00	868.00	870.00	850.00	823.00	824.00	826.00	830.00	834.00	834.00	829.00	832.00	839.00	843.00	850.00	852.00	859.00	877.00	904.00	948.00	947.00	945.00	939.00	925.00	919.00	906.00	889.00	878.00	865.00	874.00	856.00	853.00	834.00	823.00	815.00	812.00	806.00	791.00	786.00	768.00	767.00	783.00	773.00	773.00	746.00	678.00	765.00	847.00	925.00	968.00	978.00	960.00	937.00	939.00	955.00	913.00	906.00	925.00	931.00	913.00	911.00	946.00	968.00	978.00	963.00	941.00	918.00	906.00	915.00	898.00	902.00	921.00	947.00	916.00	919.00	912.00	916.00	958.00	939.00	912.00	907.00	910.00	864.00	842.00	821.00	811.00	794.00	788.00	784.00	784.00	784.00	768.00	765.00	738.00	721.00	692.00	684.00	673.00	660.00	645.00	635.00	648.00	645.00	616.00	597.00	587.00	583.00	584.00	581.00	592.00	605.00	601.00	583.00	519.00	507.00	498.00	493.00	489.00	489.00	491.00	492.00	528.00	565.00	570.00	568.00	568.00	587.00	598.00	607.00	628.00	653.00	674.00	682.00	708.00	724.00	756.00	773.00	779.00	775.00	796.00	778.00	750.00	738.00	724.00	689.00	748.00	737.00	715.00	738.00	787.00	810.00	846.00	885.00	809.00	764.00	731.00	688.00	677.00	665.00	655.00	642.00	627.00	615.00	606.00	593.00	580.00	558.00	544.00	538.00	536.00	529.00	517.00	511.00	508.00	504.00	502.00	495.00	492.00	490.00	488.00	484.00	483.00	482.00	481.00	481.00	482.00	483.00	486.00	485.00	477.00	473.00	469.00	466.00	463.00	457.00	454.00	447.00	448.00	453.00	453.00	454.00	454.00	455.00	455.00	454.00	453.00	451.00	447.00	444.00	442.00	440.00	439.00	436.00	436.00	438.00	441.00	458.00	470.00	471.00	471.00	472.00	475.00	477.00
620.00	595.00	576.00	575.00	575.00	577.00	576.00	585.00	592.00	602.00	612.00	634.00	640.00	656.00	672.00	689.00	723.00	732.00	723.00	720.00	738.00	743.00	751.00	759.00	765.00	791.00	821.00	826.00	795.00	777.00	783.00	791.00	794.00	801.00	868.00	870.00	850.00	823.00	824.00	826.00	830.00	834.00	834.00	829.00	832.00	839.00	843.00	850.00	852.00	859.00	877.00	904.00	948.00	947.00	945.00	939.00	925.00	919.00	906.00	889.00	878.00	865.00	874.00	856.00	853.00	834.00	823.00	815.00	812.00	806.00	791.00	786.00	768.00	767.00	783.00	773.00	773.00	746.00	678.00	765.00	847.00	925.00	968.00	978.00	960.00	937.00	939.00	955.00	913.00	906.00	925.00	931.00	913.00	911.00	946.00	968.00	978.00	963.00	941.00	918.00	906.00	915.00	898.00	902.00	921.00	947.00	916.00	919.00	912.00	916.00	958.00	939.00	912.00	907.00	910.00	864.00	842.00	821.00	811.00	794.00	788.00	784.00	784.00	784.00	768.00	765.00	738.00	721.00	692.00	684.00	673.00	660.00	645.00	635.00	648.00	645.00	616.00	597.00	587.00	583.00	584.00	581.00	592.00	605.00	601.00	583.00	519.00	507.00	498.00	493.00	489.00	489.00	491.00	492.00	528.00	565.00	570.00	568.00	568.00	587.00	598.00	607.00	628.00	653.00	674.00	682.00	708.00	724.00	756.00	773.00	779.00	775.00	796.00	778.00	750.00	738.00	724.00	689.00	748.00	737.00	715.00	738.00	787.00	810.00	846.00	885.00	809.00	764.00	731.00	688.00	677.00	665.00	655.00	642.00	627.00	615.00	606.00	593.00	580.00	558.00	544.00	538.00	536.00	529.00	517.00	511.00	508.00	504.00	502.00	495.00	492.00	490.00	488.00	484.00	483.00	482.00	481.00	481.00	482.00	483.00	486.00	485.00	477.00	473.00	469.00	466.00	463.00	457.00	454.00	447.00	448.00	453.00	453.00	454.00	454.00	455.00	455.00	454.00	453.00	451.00	447.00	444.00	442.00	440.00	439.00	436.00	436.00	438.00	441.00	458.00	470.00	471.00	471.00	472.00	475.00	477.00
584.00	581.00	578.00	577.00	579.00	582.00	586.00	595.00	602.00	613.00	622.00	651.00	662.00	671.00	677.00	693.00	721.00	728.00	732.00	738.00	760.00	767.00	772.00	778.00	785.00	803.00	822.00	823.00	810.00	804.00	810.00	817.00	819.00	823.00	883.00	859.00	848.00	847.00	856.00	859.00	862.00	867.00	867.00	859.00	852.00	854.00	860.00	871.00	872.00	862.00	871.00	883.00	941.00	941.00	931.00	921.00	909.00	896.00	924.00	937.00	928.00	890.00	903.00	859.00	858.00	847.00	851.00	849.00	843.00	864.00	891.00	861.00	817.00	862.00	917.00	910.00	833.00	733.00	667.00	831.00	899.00	967.00	1008.00	1032.00	1024.00	1009.00	995.00	978.00	896.00	862.00	857.00	876.00	913.00	936.00	951.00	964.00	981.00	954.00	945.00	955.00	954.00	959.00	951.00	964.00	985.00	979.00	964.00	963.00	953.00	952.00	988.00	958.00	942.00	932.00	927.00	857.00	838.00	825.00	817.00	805.00	796.00	793.00	798.00	789.00	763.00	746.00	721.00	713.00	689.00	697.00	711.00	711.00	683.00	703.00	701.00	689.00	670.00	650.00	633.00	613.00	607.00	575.00	556.00	545.00	537.00	534.00	517.00	505.00	498.00	495.00	491.00	491.00	490.00	496.00	512.00	561.00	572.00	621.00	627.00	610.00	617.00	609.00	606.00	609.00	620.00	639.00	672.00	697.00	752.00	742.00	720.00	741.00	765.00	788.00	775.00	755.00	730.00	705.00	757.00	764.00	759.00	775.00	818.00	852.00	880.00	917.00	828.00	806.00	815.00	744.00	728.00	699.00	685.00	665.00	646.00	620.00	610.00	600.00	587.00	569.00	554.00	545.00	536.00	529.00	519.00	516.00	512.00	510.00	508.00	501.00	498.00	496.00	495.00	490.00	488.00	486.00	486.00	486.00	490.00	494.00	496.00	493.00	481.00	475.00	470.00	467.00	464.00	456.00	447.00	455.00	458.00	458.00	457.00	458.00	459.00	459.00	460.00	459.00	458.00	457.00	452.00	447.00	445.00	442.00	441.00	440.00	439.00	438.00	438.00	438.00	441.00	462.00	464.00	468.00	469.00	467.00
590.00	590.00	591.00	594.00	600.00	607.00	606.00	606.00	610.00	620.00	630.00	662.00	678.00	695.00	700.00	701.00	722.00	733.00	744.00	755.00	779.00	789.00	796.00	802.00	809.00	817.00	820.00	822.00	823.00	832.00	838.00	845.00	848.00	851.00	882.00	874.00	874.00	878.00	886.00	888.00	892.00	896.00	902.00	910.00	899.00	897.00	905.00	901.00	888.00	879.00	885.00	888.00	919.00	945.00	954.00	952.00	918.00	913.00	900.00	922.00	938.00	939.00	943.00	913.00	901.00	888.00	887.00	884.00	886.00	905.00	901.00	864.00	837.00	890.00	951.00	915.00	855.00	772.00	690.00	799.00	871.00	893.00	893.00	906.00	904.00	893.00	896.00	883.00	826.00	829.00	855.00	873.00	913.00	932.00	958.00	978.00	994.00	985.00	984.00	992.00	1002.00	1030.00	1042.00	1043.00	1056.00	1026.00	1018.00	1013.00	1016.00	1000.00	963.00	941.00	918.00	894.00	896.00	882.00	854.00	840.00	831.00	798.00	784.00	776.00	766.00	761.00	745.00	742.00	727.00	718.00	729.00	730.00	727.00	729.00	745.00	741.00	728.00	716.00	693.00	666.00	644.00	630.00	614.00	604.00	596.00	584.00	567.00	546.00	520.00	501.00	498.00	496.00	490.00	491.00	495.00	498.00	525.00	561.00	570.00	617.00	651.00	654.00	660.00	667.00	657.00	654.00	645.00	634.00	644.00	672.00	705.00	697.00	704.00	726.00	732.00	777.00	786.00	743.00	724.00	731.00	762.00	787.00	804.00	819.00	858.00	873.00	901.00	929.00	881.00	868.00	849.00	812.00	791.00	746.00	725.00	699.00	679.00	648.00	633.00	619.00	607.00	586.00	563.00	553.00	547.00	540.00	529.00	524.00	520.00	516.00	512.00	505.00	502.00	500.00	499.00	495.00	493.00	492.00	492.00	492.00	496.00	498.00	496.00	495.00	481.00	475.00	471.00	469.00	467.00	458.00	462.00	462.00	462.00	463.00	463.00	463.00	463.00	463.00	463.00	462.00	461.00	460.00	456.00	451.00	448.00	446.00	445.00	444.00	443.00	442.00	441.00	440.00	439.00	443.00	451.00	461.00	470.00	476.00
590.00	590.00	591.00	594.00	600.00	607.00	606.00	606.00	610.00	620.00	630.00	662.00	678.00	695.00	700.00	701.00	722.00	733.00	744.00	755.00	779.00	789.00	796.00	802.00	809.00	817.00	820.00	822.00	823.00	832.00	838.00	845.00	848.00	851.00	882.00	874.00	874.00	878.00	886.00	888.00	892.00	896.00	902.00	910.00	899.00	897.00	905.00	901.00	888.00	879.00	885.00	888.00	919.00	945.00	954.00	952.00	918.00	913.00	900.00	922.00	938.00	939.00	943.00	913.00	901.00	888.00	887.00	884.00	886.00	905.00	901.00	864.00	837.00	890.00	951.00	915.00	855.00	772.00	690.00	799.00	871.00	893.00	893.00	906.00	904.00	893.00	896.00	883.00	826.00	829.00	855.00	873.00	913.00	932.00	958.00	978.00	994.00	985.00	984.00	992.00	1002.00	1030.00	1042.00	1043.00	1056.00	1026.00	1018.00	1013.00	1016.00	1000.00	963.00	941.00	918.00	894.00	896.00	882.00	854.00	840.00	831.00	798.00	784.00	776.00	766.00	761.00	745.00	742.00	727.00	718.00	729.00	730.00	727.00	729.00	745.00	741.00	728.00	716.00	693.00	666.00	644.00	630.00	614.00	604.00	596.00	584.00	567.00	546.00	520.00	501.00	498.00	496.00	490.00	491.00	495.00	498.00	525.00	561.00	570.00	617.00	651.00	654.00	660.00	667.00	657.00	654.00	645.00	634.00	644.00	672.00	705.00	697.00	704.00	726.00	732.00	777.00	786.00	743.00	724.00	731.00	762.00	787.00	804.00	819.00	858.00	873.00	901.00	929.00	881.00	868.00	849.00	812.00	791.00	746.00	725.00	699.00	679.00	648.00	633.00	619.00	607.00	586.00	563.00	553.00	547.00	540.00	529.00	524.00	520.00	516.00	512.00	505.00	502.00	500.00	499.00	495.00	493.00	492.00	492.00	492.00	496.00	498.00	496.00	495.00	481.00	475.00	471.00	469.00	467.00	458.00	462.00	462.00	462.00	463.00	463.00	463.00	463.00	463.00	463.00	462.00	461.00	460.00	456.00	451.00	448.00	446.00	445.00	444.00	443.00	442.00	441.00	440.00	439.00	443.00	451.00	461.00	470.00	476.00
602.00	604.00	610.00	616.00	621.00	624.00	623.00	623.00	628.00	635.00	641.00	681.00	714.00	754.00	741.00	733.00	734.00	745.00	755.00	767.00	797.00	809.00	817.00	824.00	833.00	842.00	841.00	840.00	843.00	859.00	865.00	879.00	886.00	896.00	941.00	919.00	906.00	911.00	920.00	926.00	929.00	928.00	933.00	984.00	1005.00	993.00	988.00	946.00	915.00	908.00	908.00	903.00	899.00	913.00	914.00	918.00	879.00	872.00	855.00	876.00	884.00	864.00	858.00	865.00	868.00	863.00	852.00	832.00	846.00	863.00	881.00	894.00	901.00	929.00	846.00	801.00	758.00	708.00	693.00	723.00	740.00	750.00	750.00	786.00	789.00	788.00	797.00	799.00	820.00	832.00	840.00	854.00	883.00	902.00	939.00	964.00	989.00	1049.00	1036.00	1036.00	1048.00	1079.00	1104.00	1132.00	1141.00	1101.00	1097.00	1086.00	1068.00	1035.00	989.00	968.00	945.00	951.00	957.00	888.00	865.00	848.00	832.00	812.00	801.00	782.00	772.00	766.00	765.00	770.00	767.00	760.00	761.00	776.00	788.00	783.00	765.00	759.00	754.00	744.00	680.00	642.00	638.00	628.00	620.00	604.00	601.00	591.00	599.00	582.00	505.00	499.00	498.00	497.00	494.00	496.00	498.00	509.00	551.00	585.00	616.00	598.00	614.00	646.00	664.00	691.00	706.00	716.00	689.00	668.00	657.00	675.00	715.00	721.00	729.00	735.00	746.00	769.00	784.00	748.00	746.00	792.00	749.00	763.00	786.00	810.00	885.00	936.00	959.00	938.00	902.00	890.00	879.00	856.00	845.00	810.00	788.00	763.00	738.00	692.00	674.00	653.00	636.00	608.00	582.00	572.00	563.00	549.00	536.00	531.00	527.00	523.00	519.00	508.00	506.00	504.00	503.00	501.00	499.00	498.00	498.00	497.00	498.00	496.00	486.00	484.00	480.00	477.00	474.00	471.00	469.00	464.00	466.00	466.00	467.00	467.00	468.00	468.00	468.00	469.00	468.00	467.00	465.00	463.00	460.00	456.00	454.00	452.00	451.00	449.00	448.00	446.00	445.00	443.00	443.00	442.00	444.00	446.00	466.00	466.00
602.00	604.00	610.00	616.00	621.00	624.00	623.00	623.00	628.00	635.00	641.00	681.00	714.00	754.00	741.00	733.00	734.00	745.00	755.00	767.00	797.00	809.00	817.00	824.00	833.00	842.00	841.00	840.00	843.00	859.00	865.00	879.00	886.00	896.00	941.00	919.00	906.00	911.00	920.00	926.00	929.00	928.00	933.00	984.00	1005.00	993.00	988.00	946.00	915.00	908.00	908.00	903.00	899.00	913.00	914.00	918.00	879.00	872.00	855.00	876.00	884.00	864.00	858.00	865.00	868.00	863.00	852.00	832.00	846.00	863.00	881.00	894.00	901.00	929.00	846.00	801.00	758.00	708.00	693.00	723.00	740.00	750.00	750.00	786.00	789.00	788.00	797.00	799.00	820.00	832.00	840.00	854.00	883.00	902.00	939.00	964.00	989.00	1049.00	1036.00	1036.00	1048.00	1079.00	1104.00	1132.00	1141.00	1101.00	1097.00	1086.00	1068.00	1035.00	989.00	968.00	945.00	951.00	957.00	888.00	865.00	848.00	832.00	812.00	801.00	782.00	772.00	766.00	765.00	770.00	767.00	760.00	761.00	776.00	788.00	783.00	765.00	759.00	754.00	744.00	680.00	642.00	638.00	628.00	620.00	604.00	601.00	591.00	599.00	582.00	505.00	499.00	498.00	497.00	494.00	496.00	498.00	509.00	551.00	585.00	616.00	598.00	614.00	646.00	664.00	691.00	706.00	716.00	689.00	668.00	657.00	675.00	715.00	721.00	729.00	735.00	746.00	769.00	784.00	748.00	746.00	792.00	749.00	763.00	786.00	810.00	885.00	936.00	959.00	938.00	902.00	890.00	879.00	856.00	845.00	810.00	788.00	763.00	738.00	692.00	674.00	653.00	636.00	608.00	582.00	572.00	563.00	549.00	536.00	531.00	527.00	523.00	519.00	508.00	506.00	504.00	503.00	501.00	499.00	498.00	498.00	497.00	498.00	496.00	486.00	484.00	480.00	477.00	474.00	471.00	469.00	464.00	466.00	466.00	467.00	467.00	468.00	468.00	468.00	469.00	468.00	467.00	465.00	463.00	460.00	456.00	454.00	452.00	451.00	449.00	448.00	446.00	445.00	443.00	443.00	442.00	444.00	446.00	466.00	466.00
616.00	620.00	633.00	637.00	641.00	642.00	646.00	646.00	650.00	653.00	669.00	748.00	783.00	774.00	766.00	768.00	767.00	786.00	783.00	786.00	833.00	841.00	844.00	853.00	860.00	872.00	872.00	869.00	868.00	900.00	905.00	912.00	919.00	938.00	992.00	970.00	946.00	943.00	955.00	962.00	976.00	981.00	968.00	1007.00	1046.00	1040.00	1017.00	957.00	950.00	950.00	949.00	924.00	876.00	871.00	864.00	859.00	842.00	833.00	825.00	819.00	814.00	798.00	788.00	783.00	775.00	785.00	783.00	784.00	803.00	815.00	863.00	857.00	841.00	818.00	720.00	722.00	744.00	752.00	759.00	706.00	722.00	732.00	760.00	802.00	801.00	825.00	845.00	859.00	874.00	880.00	882.00	886.00	925.00	941.00	973.00	987.00	1005.00	1056.00	1092.00	1097.00	1109.00	1148.00	1166.00	1182.00	1201.00	1203.00	1199.00	1159.00	1123.00	1091.00	1042.00	1026.00	1002.00	1006.00	979.00	903.00	887.00	875.00	865.00	838.00	826.00	819.00	816.00	811.00	820.00	814.00	813.00	834.00	808.00	819.00	817.00	808.00	788.00	769.00	752.00	740.00	705.00	672.00	665.00	652.00	639.00	614.00	598.00	584.00	562.00	551.00	506.00	500.00	500.00	493.00	498.00	499.00	501.00	538.00	563.00	612.00	633.00	644.00	629.00	694.00	695.00	688.00	687.00	702.00	729.00	698.00	695.00	703.00	709.00	724.00	731.00	743.00	758.00	803.00	798.00	770.00	785.00	779.00	796.00	773.00	791.00	811.00	874.00	919.00	976.00	977.00	914.00	891.00	875.00	834.00	818.00	798.00	789.00	779.00	766.00	719.00	700.00	680.00	664.00	638.00	599.00	587.00	582.00	575.00	548.00	541.00	534.00	530.00	526.00	512.00	509.00	508.00	508.00	506.00	505.00	504.00	503.00	501.00	499.00	495.00	487.00	487.00	482.00	477.00	471.00	464.00	462.00	469.00	469.00	470.00	472.00	473.00	472.00	473.00	473.00	474.00	474.00	473.00	471.00	469.00	465.00	459.00	457.00	457.00	457.00	454.00	453.00	451.00	450.00	448.00	447.00	445.00	445.00	444.00	447.00	461.00
616.00	620.00	633.00	637.00	641.00	642.00	646.00	646.00	650.00	653.00	669.00	748.00	783.00	774.00	766.00	768.00	767.00	786.00	783.00	786.00	833.00	841.00	844.00	853.00	860.00	872.00	872.00	869.00	868.00	900.00	905.00	912.00	919.00	938.00	992.00	970.00	946.00	943.00	955.00	962.00	976.00	981.00	968.00	1007.00	1046.00	1040.00	1017.00	957.00	950.00	950.00	949.00	924.00	876.00	871.00	864.00	859.00	842.00	833.00	825.00	819.00	814.00	798.00	788.00	783.00	775.00	785.00	783.00	784.00	803.00	815.00	863.00	857.00	841.00	818.00	720.00	722.00	744.00	752.00	759.00	706.00	722.00	732.00	760.00	802.00	801.00	825.00	845.00	859.00	874.00	880.00	882.00	886.00	925.00	941.00	973.00	987.00	1005.00	1056.00	1092.00	1097.00	1109.00	1148.00	1166.00	1182.00	1201.00	1203.00	1199.00	1159.00	1123.00	1091.00	1042.00	1026.00	1002.00	1006.00	979.00	903.00	887.00	875.00	865.00	838.00	826.00	819.00	816.00	811.00	820.00	814.00	813.00	834.00	808.00	819.00	817.00	808.00	788.00	769.00	752.00	740.00	705.00	672.00	665.00	652.00	639.00	614.00	598.00	584.00	562.00	551.00	506.00	500.00	500.00	493.00	498.00	499.00	501.00	538.00	563.00	612.00	633.00	644.00	629.00	694.00	695.00	688.00	687.00	702.00	729.00	698.00	695.00	703.00	709.00	724.00	731.00	743.00	758.00	803.00	798.00	770.00	785.00	779.00	796.00	773.00	791.00	811.00	874.00	919.00	976.00	977.00	914.00	891.00	875.00	834.00	818.00	798.00	789.00	779.00	766.00	719.00	700.00	680.00	664.00	638.00	599.00	587.00	582.00	575.00	548.00	541.00	534.00	530.00	526.00	512.00	509.00	508.00	508.00	506.00	505.00	504.00	503.00	501.00	499.00	495.00	487.00	487.00	482.00	477.00	471.00	464.00	462.00	469.00	469.00	470.00	472.00	473.00	472.00	473.00	473.00	474.00	474.00	473.00	471.00	469.00	465.00	459.00	457.00	457.00	457.00	454.00	453.00	451.00	450.00	448.00	447.00	445.00	445.00	444.00	447.00	461.00
634.00	642.00	657.00	663.00	669.00	673.00	675.00	676.00	680.00	681.00	709.00	789.00	793.00	796.00	804.00	812.00	832.00	843.00	869.00	856.00	913.00	949.00	938.00	929.00	911.00	903.00	906.00	903.00	901.00	921.00	961.00	957.00	957.00	968.00	1028.00	1004.00	986.00	983.00	991.00	999.00	1004.00	1011.00	1003.00	1006.00	1050.00	1047.00	1033.00	1021.00	1001.00	970.00	950.00	927.00	885.00	880.00	877.00	872.00	861.00	854.00	846.00	838.00	832.00	813.00	819.00	823.00	813.00	785.00	766.00	743.00	736.00	748.00	754.00	743.00	732.00	705.00	691.00	732.00	770.00	796.00	782.00	736.00	757.00	777.00	788.00	836.00	854.00	849.00	852.00	863.00	909.00	941.00	944.00	939.00	958.00	975.00	1019.00	1039.00	1063.00	1106.00	1129.00	1157.00	1184.00	1249.00	1274.00	1304.00	1323.00	1323.00	1304.00	1270.00	1236.00	1197.00	1134.00	1104.00	1081.00	1064.00	1044.00	982.00	963.00	939.00	916.00	894.00	885.00	884.00	876.00	880.00	870.00	874.00	885.00	881.00	849.00	866.00	880.00	852.00	807.00	795.00	778.00	754.00	730.00	718.00	701.00	696.00	684.00	653.00	626.00	609.00	590.00	573.00	503.00	498.00	500.00	501.00	500.00	501.00	525.00	574.00	606.00	624.00	644.00	688.00	678.00	673.00	693.00	714.00	730.00	726.00	739.00	719.00	750.00	754.00	754.00	751.00	753.00	740.00	755.00	800.00	810.00	801.00	811.00	803.00	809.00	816.00	815.00	811.00	873.00	910.00	962.00	1016.00	964.00	932.00	902.00	861.00	835.00	803.00	789.00	777.00	769.00	748.00	729.00	712.00	696.00	661.00	631.00	611.00	600.00	591.00	570.00	558.00	548.00	542.00	537.00	521.00	519.00	517.00	516.00	512.00	511.00	510.00	508.00	506.00	502.00	500.00	495.00	491.00	480.00	471.00	463.00	469.00	472.00	475.00	477.00	479.00	480.00	479.00	479.00	479.00	479.00	478.00	477.00	477.00	475.00	474.00	470.00	465.00	464.00	463.00	461.00	459.00	458.00	457.00	455.00	453.00	452.00	450.00	448.00	448.00	445.00	444.00
634.00	642.00	657.00	663.00	669.00	673.00	675.00	676.00	680.00	681.00	709.00	789.00	793.00	796.00	804.00	812.00	832.00	843.00	869.00	856.00	913.00	949.00	938.00	929.00	911.00	903.00	906.00	903.00	901.00	921.00	961.00	957.00	957.00	968.00	1028.00	1004.00	986.00	983.00	991.00	999.00	1004.00	1011.00	1003.00	1006.00	1050.00	1047.00	1033.00	1021.00	1001.00	970.00	950.00	927.00	885.00	880.00	877.00	872.00	861.00	854.00	846.00	838.00	832.00	813.00	819.00	823.00	813.00	785.00	766.00	743.00	736.00	748.00	754.00	743.00	732.00	705.00	691.00	732.00	770.00	796.00	782.00	736.00	757.00	777.00	788.00	836.00	854.00	849.00	852.00	863.00	909.00	941.00	944.00	939.00	958.00	975.00	1019.00	1039.00	1063.00	1106.00	1129.00	1157.00	1184.00	1249.00	1274.00	1304.00	1323.00	1323.00	1304.00	1270.00	1236.00	1197.00	1134.00	1104.00	1081.00	1064.00	1044.00	982.00	963.00	939.00	916.00	894.00	885.00	884.00	876.00	880.00	870.00	874.00	885.00	881.00	849.00	866.00	880.00	852.00	807.00	795.00	778.00	754.00	730.00	718.00	701.00	696.00	684.00	653.00	626.00	609.00	590.00	573.00	503.00	498.00	500.00	501.00	500.00	501.00	525.00	574.00	606.00	624.00	644.00	688.00	678.00	673.00	693.00	714.00	730.00	726.00	739.00	719.00	750.00	754.00	754.00	751.00	753.00	740.00	755.00	800.00	810.00	801.00	811.00	803.00	809.00	816.00	815.00	811.00	873.00	910.00	962.00	1016.00	964.00	932.00	902.00	861.00	835.00	803.00	789.00	777.00	769.00	748.00	729.00	712.00	696.00	661.00	631.00	611.00	600.00	591.00	570.00	558.00	548.00	542.00	537.00	521.00	519.00	517.00	516.00	512.00	511.00	510.00	508.00	506.00	502.00	500.00	495.00	491.00	480.00	471.00	463.00	469.00	472.00	475.00	477.00	479.00	480.00	479.00	479.00	479.00	479.00	478.00	477.00	477.00	475.00	474.00	470.00	465.00	464.00	463.00	461.00	459.00	458.00	457.00	455.00	453.00	452.00	450.00	448.00	448.00	445.00	444.00
653.00	663.00	681.00	689.00	698.00	704.00	708.00	711.00	712.00	724.00	756.00	809.00	824.00	843.00	846.00	849.00	918.00	923.00	950.00	967.00	1017.00	1036.00	1056.00	1060.00	1046.00	942.00	940.00	941.00	947.00	980.00	1009.00	1079.00	1046.00	1003.00	1093.00	1071.00	1041.00	1063.00	1090.00	1097.00	1084.00	1062.00	1051.00	1031.00	1034.00	1046.00	1079.00	1045.00	1001.00	969.00	944.00	930.00	914.00	912.00	908.00	902.00	890.00	884.00	885.00	890.00	884.00	837.00	851.00	857.00	856.00	823.00	796.00	791.00	788.00	769.00	743.00	721.00	701.00	688.00	716.00	737.00	754.00	780.00	791.00	766.00	786.00	812.00	837.00	861.00	874.00	891.00	905.00	911.00	937.00	939.00	969.00	996.00	1012.00	1035.00	1084.00	1104.00	1127.00	1192.00	1222.00	1255.00	1291.00	1320.00	1323.00	1320.00	1316.00	1304.00	1287.00	1280.00	1282.00	1278.00	1242.00	1216.00	1190.00	1159.00	1139.00	1069.00	1039.00	1012.00	1000.00	970.00	959.00	956.00	941.00	955.00	926.00	930.00	939.00	938.00	919.00	933.00	901.00	877.00	847.00	813.00	791.00	776.00	812.00	767.00	766.00	752.00	742.00	693.00	660.00	645.00	629.00	592.00	510.00	507.00	506.00	506.00	506.00	529.00	577.00	608.00	634.00	688.00	666.00	683.00	722.00	712.00	712.00	725.00	730.00	743.00	778.00	757.00	765.00	787.00	799.00	783.00	780.00	773.00	810.00	834.00	841.00	845.00	850.00	849.00	850.00	864.00	868.00	871.00	883.00	902.00	935.00	979.00	958.00	935.00	911.00	868.00	843.00	808.00	789.00	769.00	753.00	724.00	717.00	708.00	698.00	671.00	645.00	630.00	613.00	602.00	587.00	575.00	566.00	557.00	554.00	542.00	538.00	534.00	531.00	525.00	521.00	517.00	512.00	509.00	505.00	503.00	486.00	481.00	475.00	477.00	478.00	478.00	478.00	485.00	489.00	491.00	487.00	484.00	485.00	485.00	485.00	485.00	482.00	481.00	479.00	478.00	475.00	470.00	469.00	468.00	467.00	464.00	463.00	462.00	460.00	458.00	457.00	454.00	453.00	452.00	450.00	449.00
