60.00	66.00	62.00	68.00	62.00	53.00	54.00	60.00	62.00	52.00	42.00	44.00	46.00	45.00	40.00	35.00	39.00	32.00	59.00	60.00	58.00	57.00	59.00	53.00	86.00	102.00	153.00	178.00	126.00	70.00	63.00	84.00	96.00	94.00	85.00	99.00	116.00	126.00	116.00	96.00	100.00	60.00	82.00	58.00	55.00	42.00	32.00	34.00	36.00	59.00	34.00	36.00	33.00	35.00	36.00	30.00	32.00	35.00	27.00	28.00	30.00	31.00	28.00	25.00	23.00	21.00	25.00	50.00	44.00	48.00	52.00	47.00	46.00	43.00	41.00	31.00	41.00	33.00	47.00	53.00	51.00	37.00	38.00	35.00	36.00	32.00	25.00	30.00	37.00	42.00	55.00	53.00	32.00	35.00	66.00	48.00	44.00	37.00	34.00	136.00	268.00	360.00	376.00	39.00	36.00	36.00	38.00	44.00	56.00	60.00	58.00	54.00	59.00	58.00	50.00	52.00	43.00	43.00	41.00	36.00	44.00	51.00	49.00	42.00	43.00	48.00	46.00	47.00	48.00	52.00	51.00	50.00	53.00	59.00	59.00	59.00	71.00	79.00	77.00	62.00	56.00	73.00	62.00	58.00	53.00	50.00	57.00	56.00	68.00	55.00	43.00	49.00	42.00	102.00	58.00	60.00	131.00	82.00	72.00	56.00	77.00	109.00	55.00	53.00	54.00	62.00	387.00	259.00	125.00	174.00	91.00	49.00	62.00	90.00	84.00	49.00	40.00	53.00	53.00	48.00	47.00	51.00	60.00	77.00	110.00	115.00	50.00	49.00	48.00	50.00	48.00	60.00	59.00	41.00	42.00	51.00	61.00	51.00	60.00	55.00	50.00	46.00	42.00	44.00	45.00	53.00	47.00	40.00	44.00	53.00	63.00	55.00	52.00	47.00	51.00	58.00	47.00	47.00	53.00	86.00	111.00	134.00	97.00	178.00	200.00	92.00	74.00	68.00	54.00	52.00	52.00	54.00	45.00	46.00	52.00	59.00	69.00	60.00	64.00	65.00	58.00	54.00	67.00	70.00	58.00	50.00	51.00	49.00	43.00	40.00	34.00	35.00	29.00	27.00	26.00	21.00
73.00	69.00	64.00	60.00	57.00	59.00	59.00	68.00	66.00	53.00	42.00	44.00	51.00	51.00	38.00	36.00	32.00	30.00	61.00	65.00	63.00	67.00	66.00	82.00	122.00	135.00	143.00	145.00	91.00	71.00	58.00	62.00	100.00	92.00	89.00	112.00	152.00	141.00	132.00	109.00	98.00	64.00	85.00	59.00	56.00	40.00	33.00	32.00	34.00	36.00	53.00	45.00	39.00	32.00	35.00	27.00	32.00	32.00	25.00	24.00	29.00	27.00	29.00	30.00	28.00	29.00	25.00	42.00	42.00	45.00	50.00	52.00	47.00	39.00	39.00	32.00	39.00	36.00	45.00	50.00	48.00	37.00	36.00	34.00	33.00	28.00	31.00	37.00	36.00	37.00	60.00	51.00	42.00	34.00	64.00	39.00	32.00	36.00	36.00	46.00	84.00	127.00	135.00	36.00	43.00	43.00	45.00	52.00	55.00	53.00	50.00	53.00	53.00	57.00	55.00	49.00	54.00	43.00	43.00	41.00	45.00	51.00	55.00	44.00	48.00	46.00	49.00	52.00	52.00	53.00	56.00	59.00	56.00	58.00	63.00	66.00	67.00	82.00	91.00	59.00	52.00	60.00	55.00	51.00	54.00	52.00	50.00	52.00	56.00	51.00	40.00	34.00	49.00	136.00	77.00	120.00	185.00	93.00	71.00	117.00	189.00	134.00	69.00	48.00	45.00	49.00	228.00	226.00	89.00	152.00	67.00	60.00	64.00	73.00	54.00	41.00	39.00	41.00	43.00	46.00	60.00	68.00	76.00	137.00	171.00	130.00	57.00	60.00	54.00	49.00	45.00	53.00	56.00	47.00	44.00	43.00	57.00	51.00	58.00	61.00	43.00	42.00	43.00	47.00	51.00	58.00	45.00	53.00	45.00	53.00	59.00	42.00	45.00	45.00	50.00	54.00	46.00	49.00	62.00	65.00	102.00	199.00	119.00	146.00	115.00	74.00	69.00	68.00	57.00	51.00	45.00	45.00	51.00	48.00	57.00	70.00	73.00	73.00	57.00	62.00	54.00	54.00	49.00	62.00	55.00	48.00	45.00	40.00	40.00	39.00	35.00	27.00	27.00	28.00	25.00	24.00
84.00	68.00	61.00	63.00	62.00	61.00	64.00	67.00	79.00	56.00	50.00	53.00	59.00	58.00	39.00	32.00	33.00	30.00	67.00	92.00	97.00	98.00	88.00	72.00	86.00	108.00	119.00	135.00	109.00	90.00	76.00	55.00	99.00	89.00	104.00	135.00	169.00	188.00	141.00	113.00	121.00	65.00	58.00	53.00	54.00	43.00	54.00	46.00	46.00	42.00	46.00	46.00	38.00	27.00	32.00	34.00	31.00	30.00	24.00	21.00	23.00	27.00	34.00	31.00	34.00	33.00	28.00	37.00	41.00	39.00	44.00	42.00	44.00	38.00	38.00	32.00	26.00	33.00	42.00	44.00	47.00	36.00	40.00	37.00	32.00	27.00	35.00	34.00	32.00	36.00	46.00	39.00	40.00	35.00	45.00	37.00	39.00	36.00	39.00	42.00	41.00	49.00	45.00	35.00	37.00	46.00	52.00	53.00	52.00	46.00	48.00	56.00	50.00	62.00	52.00	47.00	49.00	42.00	43.00	48.00	55.00	64.00	54.00	52.00	45.00	49.00	47.00	50.00	54.00	53.00	59.00	57.00	65.00	65.00	71.00	70.00	98.00	67.00	64.00	52.00	52.00	54.00	52.00	58.00	56.00	54.00	55.00	52.00	55.00	39.00	36.00	40.00	93.00	45.00	62.00	132.00	146.00	91.00	97.00	222.00	259.00	264.00	67.00	102.00	96.00	45.00	74.00	68.00	42.00	104.00	121.00	49.00	57.00	51.00	47.00	43.00	41.00	37.00	47.00	59.00	88.00	81.00	77.00	180.00	99.00	81.00	50.00	69.00	82.00	51.00	48.00	49.00	50.00	43.00	40.00	40.00	39.00	56.00	61.00	47.00	43.00	41.00	52.00	49.00	46.00	52.00	47.00	74.00	55.00	49.00	48.00	39.00	43.00	42.00	45.00	47.00	51.00	53.00	62.00	68.00	93.00	171.00	93.00	99.00	88.00	75.00	66.00	67.00	57.00	49.00	50.00	53.00	52.00	58.00	69.00	75.00	71.00	72.00	64.00	62.00	58.00	45.00	52.00	59.00	59.00	51.00	49.00	43.00	37.00	37.00	36.00	32.00	28.00	23.00	26.00	29.00
70.00	69.00	61.00	64.00	58.00	68.00	68.00	71.00	62.00	56.00	56.00	59.00	61.00	59.00	48.00	37.00	40.00	37.00	78.00	87.00	97.00	113.00	88.00	68.00	68.00	66.00	75.00	147.00	183.00	135.00	94.00	69.00	113.00	100.00	124.00	147.00	190.00	283.00	191.00	137.00	126.00	74.00	56.00	52.00	46.00	63.00	72.00	65.00	69.00	57.00	54.00	56.00	39.00	37.00	30.00	32.00	30.00	28.00	22.00	23.00	26.00	31.00	29.00	22.00	23.00	24.00	31.00	45.00	43.00	39.00	46.00	42.00	38.00	34.00	28.00	32.00	32.00	34.00	41.00	44.00	32.00	26.00	26.00	27.00	28.00	30.00	30.00	31.00	30.00	30.00	31.00	27.00	33.00	31.00	31.00	33.00	28.00	29.00	32.00	39.00	44.00	43.00	35.00	40.00	47.00	49.00	54.00	56.00	49.00	47.00	50.00	54.00	56.00	54.00	50.00	51.00	44.00	48.00	52.00	56.00	59.00	58.00	53.00	56.00	56.00	56.00	51.00	50.00	53.00	57.00	68.00	66.00	66.00	72.00	69.00	107.00	75.00	67.00	64.00	60.00	58.00	63.00	68.00	65.00	79.00	73.00	78.00	88.00	57.00	41.00	64.00	68.00	41.00	88.00	82.00	132.00	157.00	106.00	179.00	169.00	104.00	64.00	83.00	51.00	46.00	40.00	41.00	46.00	41.00	64.00	154.00	53.00	49.00	55.00	42.00	41.00	43.00	50.00	49.00	71.00	96.00	135.00	165.00	118.00	150.00	116.00	77.00	66.00	61.00	62.00	48.00	44.00	45.00	86.00	42.00	49.00	45.00	45.00	43.00	43.00	40.00	45.00	43.00	44.00	44.00	44.00	43.00	37.00	37.00	38.00	39.00	48.00	55.00	62.00	61.00	67.00	89.00	79.00	62.00	64.00	100.00	122.00	99.00	77.00	72.00	66.00	60.00	54.00	51.00	54.00	56.00	59.00	61.00	69.00	63.00	68.00	66.00	62.00	57.00	67.00	65.00	42.00	54.00	50.00	48.00	49.00	51.00	39.00	40.00	25.00	26.00	24.00	24.00	26.00	25.00	23.00
71.00	62.00	59.00	57.00	61.00	77.00	73.00	68.00	60.00	58.00	61.00	62.00	74.00	69.00	63.00	53.00	58.00	40.00	84.00	83.00	79.00	83.00	87.00	71.00	73.00	65.00	67.00	131.00	200.00	127.00	94.00	68.00	117.00	103.00	103.00	128.00	226.00	351.00	269.00	196.00	136.00	77.00	57.00	53.00	57.00	69.00	84.00	78.00	70.00	62.00	54.00	57.00	49.00	31.00	32.00	36.00	35.00	33.00	25.00	23.00	25.00	32.00	30.00	24.00	24.00	29.00	31.00	44.00	46.00	37.00	42.00	40.00	31.00	31.00	30.00	30.00	32.00	35.00	34.00	42.00	38.00	27.00	25.00	30.00	32.00	30.00	32.00	31.00	26.00	23.00	33.00	40.00	37.00	33.00	37.00	34.00	28.00	30.00	33.00	40.00	41.00	31.00	36.00	37.00	39.00	40.00	52.00	54.00	39.00	39.00	48.00	48.00	48.00	51.00	49.00	44.00	43.00	45.00	48.00	47.00	49.00	54.00	54.00	55.00	61.00	58.00	59.00	73.00	50.00	61.00	71.00	64.00	72.00	78.00	61.00	81.00	68.00	74.00	94.00	69.00	67.00	67.00	75.00	77.00	80.00	79.00	77.00	81.00	66.00	44.00	45.00	35.00	45.00	79.00	91.00	112.00	200.00	226.00	298.00	248.00	188.00	93.00	57.00	100.00	58.00	40.00	41.00	45.00	42.00	46.00	79.00	48.00	46.00	47.00	49.00	42.00	52.00	88.00	59.00	64.00	116.00	134.00	117.00	160.00	122.00	95.00	75.00	71.00	69.00	62.00	65.00	51.00	47.00	43.00	39.00	43.00	43.00	40.00	47.00	44.00	42.00	43.00	45.00	47.00	45.00	43.00	41.00	37.00	38.00	41.00	43.00	54.00	57.00	62.00	66.00	64.00	76.00	81.00	74.00	74.00	102.00	89.00	74.00	71.00	68.00	64.00	56.00	55.00	47.00	57.00	62.00	68.00	61.00	64.00	57.00	52.00	55.00	56.00	56.00	60.00	59.00	50.00	45.00	54.00	46.00	46.00	48.00	47.00	38.00	30.00	30.00	22.00	25.00	24.00	24.00	25.00
64.00	60.00	63.00	61.00	75.00	71.00	68.00	64.00	59.00	68.00	66.00	65.00	70.00	75.00	73.00	73.00	58.00	48.00	75.00	70.00	81.00	81.00	86.00	85.00	117.00	92.00	70.00	117.00	186.00	111.00	98.00	77.00	95.00	113.00	100.00	116.00	241.00	401.00	351.00	252.00	176.00	83.00	65.00	54.00	65.00	75.00	84.00	76.00	78.00	74.00	71.00	51.00	49.00	34.00	36.00	37.00	38.00	38.00	28.00	33.00	35.00	36.00	33.00	28.00	32.00	42.00	37.00	44.00	39.00	34.00	42.00	30.00	27.00	25.00	27.00	24.00	28.00	32.00	30.00	33.00	37.00	29.00	28.00	29.00	32.00	35.00	36.00	36.00	32.00	37.00	42.00	56.00	34.00	34.00	43.00	36.00	32.00	30.00	31.00	36.00	33.00	30.00	32.00	40.00	35.00	39.00	54.00	49.00	38.00	27.00	37.00	37.00	44.00	47.00	41.00	45.00	52.00	57.00	55.00	49.00	51.00	52.00	52.00	54.00	57.00	67.00	77.00	85.00	67.00	68.00	62.00	58.00	53.00	59.00	65.00	62.00	65.00	72.00	109.00	74.00	77.00	65.00	88.00	75.00	81.00	79.00	84.00	63.00	61.00	54.00	38.00	37.00	62.00	51.00	44.00	122.00	189.00	170.00	175.00	161.00	162.00	98.00	60.00	44.00	50.00	44.00	34.00	39.00	39.00	48.00	47.00	46.00	58.00	67.00	42.00	56.00	63.00	74.00	65.00	56.00	139.00	138.00	176.00	194.00	86.00	103.00	72.00	77.00	62.00	76.00	59.00	64.00	50.00	56.00	48.00	44.00	48.00	38.00	42.00	41.00	39.00	40.00	41.00	39.00	43.00	46.00	41.00	39.00	39.00	42.00	44.00	46.00	44.00	65.00	72.00	55.00	66.00	73.00	70.00	89.00	77.00	87.00	79.00	78.00	62.00	61.00	58.00	48.00	53.00	62.00	69.00	69.00	63.00	53.00	52.00	52.00	44.00	51.00	58.00	58.00	56.00	47.00	48.00	51.00	43.00	40.00	43.00	38.00	30.00	27.00	30.00	24.00	26.00	25.00	21.00	21.00
74.00	67.00	68.00	73.00	71.00	69.00	73.00	74.00	82.00	75.00	87.00	75.00	72.00	77.00	67.00	68.00	54.00	43.00	76.00	77.00	86.00	78.00	87.00	128.00	168.00	178.00	105.00	83.00	82.00	149.00	114.00	100.00	88.00	128.00	107.00	111.00	410.00	589.00	586.00	409.00	229.00	97.00	69.00	58.00	62.00	59.00	58.00	54.00	54.00	49.00	52.00	59.00	57.00	52.00	35.00	31.00	32.00	35.00	41.00	27.00	22.00	23.00	25.00	25.00	32.00	35.00	39.00	40.00	35.00	36.00	41.00	41.00	40.00	36.00	30.00	30.00	27.00	25.00	29.00	27.00	28.00	29.00	40.00	43.00	41.00	57.00	67.00	72.00	69.00	83.00	65.00	66.00	78.00	61.00	48.00	49.00	41.00	32.00	35.00	40.00	33.00	35.00	32.00	31.00	30.00	35.00	42.00	42.00	34.00	35.00	34.00	35.00	35.00	37.00	49.00	50.00	55.00	59.00	61.00	62.00	69.00	49.00	50.00	51.00	55.00	61.00	57.00	60.00	55.00	54.00	61.00	64.00	68.00	64.00	72.00	66.00	70.00	65.00	68.00	73.00	80.00	74.00	79.00	75.00	198.00	243.00	92.00	62.00	61.00	67.00	51.00	83.00	124.00	69.00	65.00	87.00	56.00	102.00	99.00	49.00	32.00	35.00	70.00	117.00	55.00	42.00	32.00	39.00	38.00	44.00	45.00	53.00	91.00	88.00	69.00	67.00	67.00	65.00	70.00	82.00	112.00	186.00	166.00	154.00	127.00	89.00	87.00	128.00	76.00	66.00	66.00	63.00	54.00	83.00	75.00	89.00	92.00	45.00	60.00	55.00	41.00	41.00	44.00	37.00	43.00	43.00	41.00	43.00	52.00	45.00	41.00	40.00	44.00	49.00	50.00	58.00	63.00	64.00	76.00	78.00	81.00	88.00	90.00	92.00	79.00	62.00	63.00	61.00	66.00	63.00	62.00	63.00	59.00	67.00	66.00	77.00	69.00	55.00	49.00	55.00	51.00	47.00	37.00	39.00	40.00	39.00	28.00	28.00	37.00	27.00	26.00	32.00	21.00	24.00	36.00	37.00
67.00	66.00	73.00	72.00	83.00	108.00	135.00	136.00	100.00	77.00	83.00	73.00	60.00	57.00	47.00	51.00	54.00	51.00	83.00	66.00	69.00	82.00	103.00	107.00	116.00	150.00	130.00	132.00	180.00	99.00	87.00	92.00	109.00	101.00	122.00	109.00	305.00	431.00	508.00	319.00	170.00	94.00	70.00	64.00	69.00	69.00	67.00	88.00	91.00	89.00	48.00	51.00	43.00	38.00	28.00	28.00	26.00	32.00	30.00	22.00	22.00	29.00	32.00	27.00	25.00	17.00	23.00	37.00	38.00	44.00	43.00	41.00	34.00	38.00	28.00	31.00	27.00	26.00	26.00	28.00	36.00	44.00	45.00	58.00	61.00	91.00	85.00	67.00	67.00	112.00	105.00	67.00	106.00	71.00	76.00	113.00	54.00	38.00	35.00	32.00	32.00	33.00	34.00	31.00	41.00	37.00	35.00	36.00	29.00	28.00	31.00	34.00	30.00	42.00	42.00	47.00	51.00	52.00	55.00	51.00	53.00	47.00	49.00	56.00	51.00	53.00	61.00	56.00	61.00	57.00	66.00	64.00	67.00	68.00	74.00	67.00	72.00	68.00	65.00	83.00	78.00	80.00	85.00	91.00	116.00	260.00	189.00	74.00	60.00	51.00	39.00	55.00	56.00	78.00	140.00	54.00	47.00	42.00	31.00	36.00	37.00	37.00	62.00	52.00	50.00	92.00	94.00	67.00	54.00	40.00	46.00	80.00	83.00	45.00	59.00	59.00	67.00	68.00	76.00	69.00	66.00	98.00	99.00	64.00	87.00	76.00	71.00	66.00	77.00	56.00	59.00	59.00	75.00	50.00	45.00	51.00	47.00	46.00	44.00	42.00	43.00	36.00	48.00	45.00	49.00	39.00	47.00	39.00	40.00	39.00	40.00	51.00	51.00	47.00	55.00	68.00	61.00	69.00	65.00	66.00	74.00	75.00	77.00	77.00	66.00	66.00	69.00	72.00	76.00	61.00	52.00	67.00	69.00	53.00	57.00	56.00	59.00	58.00	37.00	37.00	46.00	45.00	27.00	28.00	25.00	25.00	28.00	27.00	27.00	26.00	30.00	25.00	23.00	22.00	24.00	29.00
67.00	74.00	85.00	80.00	93.00	133.00	154.00	102.00	80.00	65.00	69.00	64.00	52.00	41.00	55.00	51.00	57.00	49.00	88.00	66.00	65.00	82.00	99.00	118.00	120.00	163.00	134.00	131.00	244.00	98.00	94.00	84.00	110.00	121.00	127.00	98.00	204.00	316.00	403.00	326.00	114.00	76.00	74.00	68.00	77.00	73.00	74.00	107.00	79.00	89.00	53.00	56.00	50.00	40.00	35.00	28.00	28.00	32.00	34.00	28.00	25.00	32.00	33.00	28.00	26.00	20.00	22.00	37.00	44.00	42.00	48.00	41.00	35.00	43.00	39.00	27.00	26.00	32.00	33.00	34.00	65.00	48.00	64.00	57.00	70.00	65.00	79.00	73.00	82.00	114.00	102.00	67.00	99.00	75.00	81.00	133.00	57.00	40.00	33.00	37.00	37.00	35.00	37.00	40.00	41.00	36.00	39.00	33.00	32.00	35.00	36.00	30.00	32.00	41.00	47.00	47.00	48.00	49.00	50.00	51.00	50.00	53.00	51.00	49.00	48.00	52.00	56.00	55.00	55.00	64.00	67.00	63.00	62.00	64.00	70.00	75.00	71.00	69.00	66.00	110.00	75.00	74.00	77.00	89.00	94.00	188.00	247.00	111.00	48.00	42.00	40.00	45.00	37.00	40.00	53.00	40.00	54.00	36.00	27.00	30.00	32.00	36.00	36.00	36.00	48.00	142.00	228.00	177.00	124.00	94.00	72.00	108.00	60.00	44.00	62.00	64.00	60.00	67.00	61.00	104.00	67.00	82.00	67.00	63.00	76.00	69.00	64.00	58.00	59.00	50.00	56.00	62.00	63.00	45.00	46.00	49.00	45.00	46.00	48.00	46.00	43.00	45.00	48.00	48.00	46.00	45.00	42.00	40.00	38.00	36.00	49.00	52.00	48.00	53.00	64.00	60.00	67.00	70.00	59.00	64.00	72.00	72.00	68.00	73.00	68.00	69.00	73.00	75.00	75.00	58.00	50.00	53.00	64.00	59.00	50.00	48.00	45.00	44.00	41.00	36.00	39.00	42.00	31.00	26.00	26.00	29.00	28.00	27.00	28.00	23.00	25.00	22.00	22.00	25.00	25.00	29.00
76.00	84.00	112.00	123.00	113.00	119.00	117.00	90.00	65.00	61.00	59.00	55.00	48.00	56.00	60.00	61.00	61.00	56.00	84.00	66.00	62.00	76.00	92.00	107.00	135.00	182.00	126.00	116.00	205.00	94.00	113.00	97.00	163.00	118.00	124.00	93.00	258.00	178.00	220.00	307.00	103.00	89.00	73.00	79.00	84.00	70.00	76.00	100.00	82.00	80.00	59.00	51.00	47.00	49.00	35.00	27.00	27.00	37.00	34.00	31.00	26.00	31.00	32.00	29.00	25.00	27.00	27.00	34.00	31.00	36.00	46.00	40.00	33.00	37.00	34.00	26.00	24.00	29.00	33.00	34.00	37.00	53.00	66.00	65.00	52.00	65.00	71.00	72.00	81.00	92.00	77.00	85.00	110.00	80.00	73.00	81.00	44.00	36.00	42.00	37.00	35.00	31.00	36.00	42.00	40.00	38.00	35.00	33.00	29.00	39.00	40.00	32.00	40.00	45.00	51.00	48.00	45.00	46.00	47.00	48.00	52.00	54.00	50.00	48.00	50.00	48.00	61.00	65.00	54.00	64.00	73.00	65.00	65.00	73.00	72.00	106.00	117.00	143.00	103.00	81.00	73.00	73.00	77.00	89.00	73.00	122.00	239.00	223.00	68.00	60.00	58.00	64.00	55.00	40.00	41.00	37.00	34.00	32.00	27.00	31.00	37.00	35.00	42.00	47.00	94.00	185.00	200.00	281.00	248.00	217.00	143.00	47.00	44.00	58.00	54.00	56.00	64.00	119.00	91.00	64.00	60.00	73.00	56.00	70.00	66.00	60.00	50.00	53.00	49.00	49.00	49.00	55.00	61.00	54.00	62.00	74.00	56.00	43.00	43.00	42.00	49.00	51.00	45.00	45.00	43.00	44.00	42.00	39.00	39.00	40.00	42.00	39.00	42.00	44.00	53.00	58.00	62.00	59.00	60.00	64.00	64.00	63.00	62.00	68.00	61.00	66.00	74.00	72.00	72.00	51.00	51.00	47.00	61.00	63.00	59.00	53.00	49.00	46.00	36.00	40.00	35.00	31.00	45.00	28.00	29.00	31.00	28.00	29.00	27.00	35.00	27.00	22.00	24.00	27.00	30.00	44.00
87.00	111.00	138.00	136.00	100.00	103.00	87.00	68.00	66.00	62.00	56.00	54.00	58.00	60.00	55.00	62.00	62.00	59.00	67.00	61.00	68.00	75.00	94.00	106.00	109.00	151.00	100.00	138.00	226.00	104.00	120.00	98.00	159.00	156.00	109.00	91.00	215.00	171.00	135.00	241.00	134.00	90.00	81.00	85.00	78.00	74.00	82.00	77.00	72.00	67.00	53.00	50.00	45.00	45.00	30.00	25.00	32.00	46.00	31.00	37.00	23.00	29.00	32.00	30.00	27.00	28.00	29.00	26.00	23.00	24.00	31.00	34.00	39.00	39.00	33.00	22.00	28.00	34.00	38.00	41.00	48.00	54.00	53.00	69.00	66.00	68.00	60.00	63.00	83.00	74.00	124.00	110.00	109.00	95.00	65.00	47.00	41.00	44.00	50.00	49.00	45.00	40.00	42.00	42.00	42.00	33.00	26.00	32.00	28.00	36.00	39.00	33.00	37.00	50.00	51.00	47.00	47.00	45.00	50.00	50.00	50.00	50.00	44.00	53.00	57.00	52.00	60.00	60.00	56.00	59.00	71.00	64.00	70.00	73.00	74.00	84.00	181.00	276.00	211.00	68.00	67.00	70.00	75.00	80.00	73.00	80.00	160.00	213.00	76.00	68.00	65.00	60.00	52.00	40.00	37.00	34.00	38.00	32.00	43.00	43.00	45.00	46.00	49.00	64.00	92.00	174.00	150.00	155.00	114.00	79.00	57.00	67.00	51.00	50.00	59.00	59.00	92.00	151.00	81.00	62.00	52.00	51.00	56.00	70.00	56.00	52.00	57.00	53.00	47.00	49.00	48.00	55.00	60.00	70.00	78.00	70.00	67.00	40.00	38.00	38.00	46.00	53.00	45.00	40.00	42.00	42.00	41.00	40.00	42.00	42.00	36.00	39.00	39.00	44.00	49.00	65.00	61.00	49.00	46.00	54.00	58.00	54.00	56.00	62.00	57.00	61.00	66.00	73.00	64.00	54.00	46.00	54.00	63.00	62.00	60.00	58.00	54.00	47.00	47.00	47.00	43.00	40.00	33.00	27.00	28.00	28.00	29.00	26.00	24.00	28.00	23.00	27.00	28.00	30.00	50.00	50.00
115.00	107.00	88.00	80.00	74.00	66.00	63.00	63.00	62.00	57.00	52.00	65.00	60.00	58.00	66.00	71.00	68.00	59.00	66.00	64.00	79.00	83.00	84.00	84.00	79.00	84.00	83.00	167.00	201.00	110.00	164.00	134.00	168.00	221.00	135.00	81.00	190.00	176.00	100.00	209.00	105.00	82.00	77.00	87.00	87.00	87.00	79.00	65.00	61.00	63.00	48.00	49.00	54.00	49.00	40.00	39.00	36.00	27.00	22.00	24.00	20.00	26.00	28.00	25.00	22.00	26.00	25.00	26.00	27.00	24.00	29.00	28.00	33.00	39.00	42.00	28.00	25.00	31.00	44.00	47.00	48.00	48.00	50.00	49.00	59.00	62.00	57.00	54.00	61.00	51.00	62.00	106.00	118.00	111.00	64.00	51.00	58.00	48.00	51.00	45.00	41.00	41.00	42.00	39.00	35.00	30.00	32.00	30.00	32.00	41.00	44.00	43.00	52.00	49.00	53.00	51.00	48.00	50.00	53.00	45.00	45.00	47.00	49.00	60.00	55.00	56.00	71.00	117.00	117.00	77.00	122.00	137.00	154.00	165.00	190.00	267.00	374.00	375.00	229.00	69.00	68.00	65.00	69.00	81.00	119.00	79.00	77.00	70.00	64.00	58.00	59.00	50.00	31.00	46.00	72.00	38.00	39.00	45.00	46.00	49.00	58.00	55.00	56.00	68.00	56.00	47.00	48.00	48.00	46.00	44.00	50.00	42.00	47.00	49.00	56.00	132.00	140.00	67.00	52.00	57.00	50.00	47.00	53.00	63.00	54.00	57.00	61.00	58.00	47.00	52.00	70.00	78.00	66.00	54.00	73.00	59.00	64.00	41.00	39.00	36.00	45.00	42.00	41.00	46.00	41.00	38.00	41.00	38.00	37.00	38.00	39.00	41.00	44.00	46.00	47.00	47.00	50.00	48.00	51.00	49.00	51.00	47.00	55.00	56.00	62.00	66.00	67.00	60.00	49.00	52.00	46.00	41.00	53.00	59.00	55.00	49.00	56.00	55.00	40.00	38.00	40.00	36.00	31.00	32.00	28.00	24.00	23.00	24.00	24.00	25.00	28.00	59.00	70.00	38.00	40.00	42.00
84.00	84.00	87.00	90.00	97.00	91.00	78.00	71.00	67.00	52.00	54.00	68.00	64.00	61.00	80.00	79.00	84.00	76.00	82.00	60.00	69.00	71.00	70.00	80.00	73.00	71.00	82.00	135.00	153.00	151.00	251.00	330.00	320.00	254.00	136.00	89.00	106.00	125.00	89.00	168.00	102.00	92.00	83.00	92.00	83.00	80.00	78.00	62.00	65.00	56.00	57.00	61.00	58.00	52.00	47.00	43.00	38.00	37.00	35.00	31.00	29.00	28.00	24.00	23.00	26.00	24.00	24.00	24.00	25.00	23.00	25.00	29.00	31.00	41.00	43.00	37.00	25.00	32.00	40.00	39.00	45.00	44.00	44.00	43.00	50.00	60.00	58.00	55.00	54.00	50.00	59.00	62.00	95.00	98.00	76.00	79.00	112.00	51.00	51.00	49.00	48.00	45.00	35.00	36.00	35.00	38.00	28.00	30.00	34.00	47.00	48.00	47.00	54.00	56.00	54.00	51.00	51.00	54.00	50.00	49.00	52.00	50.00	49.00	66.00	53.00	63.00	74.00	89.00	106.00	81.00	129.00	101.00	214.00	201.00	128.00	323.00	384.00	263.00	141.00	69.00	69.00	66.00	66.00	80.00	70.00	77.00	65.00	70.00	72.00	64.00	60.00	47.00	47.00	52.00	59.00	41.00	42.00	50.00	47.00	51.00	56.00	58.00	54.00	49.00	43.00	49.00	45.00	47.00	45.00	41.00	37.00	42.00	58.00	49.00	88.00	134.00	83.00	63.00	52.00	67.00	43.00	50.00	55.00	68.00	63.00	55.00	61.00	48.00	43.00	55.00	68.00	77.00	83.00	54.00	58.00	62.00	56.00	42.00	43.00	36.00	41.00	45.00	43.00	46.00	48.00	41.00	40.00	38.00	39.00	39.00	41.00	47.00	46.00	59.00	58.00	56.00	58.00	59.00	47.00	50.00	51.00	48.00	52.00	55.00	57.00	59.00	64.00	58.00	53.00	47.00	48.00	41.00	52.00	48.00	48.00	51.00	46.00	42.00	41.00	38.00	39.00	38.00	33.00	27.00	28.00	27.00	27.00	27.00	27.00	31.00	32.00	46.00	44.00	44.00	41.00	36.00
92.00	105.00	122.00	100.00	91.00	70.00	67.00	60.00	61.00	50.00	59.00	67.00	67.00	63.00	88.00	100.00	123.00	169.00	92.00	60.00	67.00	68.00	68.00	72.00	70.00	76.00	70.00	93.00	110.00	124.00	201.00	300.00	397.00	268.00	145.00	96.00	81.00	84.00	82.00	149.00	98.00	92.00	75.00	85.00	88.00	85.00	75.00	68.00	59.00	53.00	67.00	58.00	49.00	56.00	52.00	50.00	42.00	31.00	38.00	33.00	27.00	26.00	27.00	23.00	25.00	27.00	23.00	25.00	23.00	23.00	26.00	32.00	36.00	33.00	46.00	43.00	27.00	28.00	39.00	38.00	38.00	58.00	48.00	50.00	47.00	57.00	54.00	51.00	47.00	51.00	54.00	62.00	98.00	83.00	74.00	77.00	148.00	89.00	47.00	45.00	43.00	32.00	26.00	41.00	42.00	37.00	32.00	39.00	44.00	57.00	56.00	49.00	56.00	54.00	52.00	49.00	46.00	61.00	56.00	63.00	52.00	55.00	56.00	61.00	55.00	66.00	73.00	74.00	112.00	103.00	92.00	77.00	164.00	161.00	106.00	339.00	244.00	144.00	86.00	73.00	72.00	69.00	62.00	74.00	71.00	66.00	62.00	77.00	61.00	48.00	45.00	62.00	55.00	49.00	65.00	40.00	49.00	37.00	37.00	46.00	46.00	46.00	57.00	55.00	48.00	48.00	42.00	47.00	42.00	41.00	37.00	38.00	54.00	94.00	136.00	91.00	57.00	52.00	51.00	54.00	42.00	48.00	48.00	74.00	58.00	54.00	63.00	49.00	45.00	74.00	94.00	95.00	83.00	66.00	52.00	63.00	54.00	46.00	38.00	37.00	37.00	43.00	42.00	44.00	43.00	43.00	41.00	40.00	49.00	56.00	57.00	68.00	75.00	74.00	71.00	60.00	63.00	63.00	53.00	49.00	53.00	52.00	53.00	62.00	61.00	59.00	61.00	63.00	55.00	41.00	45.00	39.00	52.00	40.00	44.00	44.00	38.00	41.00	29.00	28.00	30.00	37.00	25.00	27.00	25.00	24.00	30.00	28.00	29.00	32.00	39.00	33.00	32.00	42.00	43.00	42.00
122.00	124.00	96.00	73.00	70.00	69.00	66.00	61.00	53.00	59.00	57.00	66.00	71.00	74.00	104.00	131.00	201.00	282.00	72.00	64.00	78.00	73.00	78.00	67.00	73.00	89.00	69.00	75.00	84.00	98.00	122.00	196.00	363.00	275.00	135.00	107.00	102.00	112.00	90.00	99.00	90.00	89.00	73.00	83.00	84.00	87.00	78.00	74.00	64.00	53.00	67.00	59.00	54.00	58.00	53.00	48.00	42.00	45.00	28.00	34.00	27.00	30.00	32.00	24.00	27.00	25.00	18.00	22.00	21.00	22.00	22.00	22.00	28.00	29.00	26.00	24.00	26.00	34.00	36.00	31.00	27.00	52.00	46.00	48.00	55.00	60.00	52.00	49.00	50.00	51.00	56.00	62.00	125.00	83.00	71.00	71.00	104.00	141.00	64.00	44.00	34.00	33.00	32.00	41.00	44.00	43.00	44.00	46.00	53.00	58.00	54.00	53.00	55.00	49.00	54.00	49.00	48.00	61.00	60.00	63.00	55.00	59.00	61.00	73.00	70.00	64.00	70.00	72.00	106.00	122.00	71.00	78.00	117.00	129.00	93.00	177.00	129.00	90.00	79.00	80.00	73.00	70.00	62.00	74.00	85.00	71.00	62.00	72.00	52.00	56.00	50.00	47.00	51.00	39.00	44.00	34.00	78.00	40.00	40.00	41.00	41.00	39.00	38.00	46.00	47.00	49.00	43.00	46.00	34.00	35.00	44.00	42.00	68.00	142.00	89.00	72.00	59.00	48.00	46.00	42.00	42.00	47.00	48.00	58.00	65.00	51.00	57.00	47.00	45.00	90.00	109.00	100.00	80.00	53.00	47.00	48.00	49.00	43.00	41.00	36.00	38.00	42.00	45.00	45.00	44.00	45.00	43.00	56.00	66.00	64.00	69.00	70.00	76.00	75.00	75.00	58.00	61.00	61.00	57.00	51.00	50.00	53.00	64.00	72.00	70.00	71.00	64.00	59.00	56.00	40.00	38.00	37.00	44.00	37.00	44.00	46.00	40.00	38.00	31.00	27.00	28.00	30.00	27.00	30.00	25.00	29.00	32.00	30.00	24.00	29.00	32.00	40.00	34.00	31.00	34.00	31.00
73.00	71.00	64.00	67.00	69.00	66.00	77.00	63.00	68.00	68.00	62.00	67.00	79.00	121.00	150.00	269.00	234.00	111.00	63.00	65.00	70.00	66.00	68.00	69.00	71.00	80.00	88.00	94.00	104.00	99.00	108.00	140.00	327.00	269.00	148.00	116.00	196.00	193.00	107.00	71.00	70.00	77.00	69.00	84.00	88.00	74.00	67.00	69.00	71.00	70.00	63.00	69.00	62.00	65.00	55.00	52.00	48.00	46.00	45.00	40.00	34.00	30.00	28.00	28.00	28.00	22.00	22.00	23.00	22.00	19.00	19.00	21.00	43.00	32.00	34.00	37.00	31.00	28.00	23.00	28.00	31.00	51.00	52.00	48.00	59.00	48.00	52.00	55.00	59.00	67.00	55.00	60.00	75.00	69.00	58.00	53.00	52.00	55.00	51.00	119.00	83.00	44.00	40.00	43.00	46.00	49.00	50.00	55.00	50.00	51.00	55.00	45.00	49.00	41.00	43.00	43.00	44.00	61.00	61.00	70.00	64.00	77.00	91.00	102.00	99.00	69.00	59.00	69.00	80.00	97.00	69.00	65.00	60.00	66.00	90.00	128.00	102.00	77.00	81.00	81.00	86.00	73.00	70.00	61.00	81.00	72.00	70.00	65.00	62.00	60.00	62.00	62.00	50.00	54.00	47.00	28.00	41.00	41.00	41.00	32.00	34.00	37.00	33.00	36.00	44.00	48.00	37.00	34.00	39.00	44.00	43.00	122.00	78.00	55.00	55.00	49.00	53.00	53.00	50.00	48.00	62.00	59.00	51.00	50.00	53.00	50.00	51.00	54.00	63.00	82.00	96.00	115.00	87.00	52.00	52.00	47.00	43.00	36.00	35.00	41.00	42.00	43.00	57.00	62.00	68.00	53.00	65.00	49.00	58.00	63.00	65.00	76.00	69.00	64.00	69.00	51.00	50.00	54.00	52.00	57.00	60.00	54.00	62.00	62.00	69.00	77.00	75.00	62.00	55.00	43.00	43.00	41.00	37.00	47.00	44.00	48.00	45.00	49.00	39.00	36.00	39.00	32.00	37.00	37.00	30.00	31.00	35.00	30.00	34.00	31.00	41.00	32.00	29.00	29.00	28.00	25.00
69.00	62.00	65.00	61.00	62.00	73.00	63.00	62.00	67.00	78.00	149.00	189.00	150.00	191.00	262.00	361.00	199.00	104.00	71.00	68.00	69.00	76.00	74.00	70.00	76.00	88.00	91.00	98.00	123.00	121.00	242.00	277.00	344.00	205.00	139.00	102.00	268.00	225.00	169.00	138.00	68.00	66.00	69.00	76.00	68.00	74.00	75.00	73.00	67.00	75.00	69.00	55.00	53.00	51.00	47.00	42.00	42.00	43.00	41.00	40.00	22.00	24.00	29.00	27.00	25.00	27.00	27.00	28.00	41.00	66.00	69.00	43.00	70.00	41.00	35.00	27.00	25.00	23.00	19.00	22.00	27.00	55.00	61.00	51.00	51.00	51.00	41.00	53.00	72.00	63.00	63.00	68.00	65.00	64.00	50.00	48.00	48.00	42.00	46.00	139.00	123.00	49.00	37.00	49.00	51.00	59.00	51.00	36.00	40.00	45.00	54.00	40.00	42.00	49.00	51.00	53.00	58.00	43.00	51.00	59.00	80.00	99.00	113.00	123.00	131.00	99.00	55.00	55.00	81.00	53.00	62.00	61.00	58.00	59.00	69.00	108.00	87.00	75.00	77.00	73.00	74.00	76.00	69.00	66.00	71.00	79.00	67.00	71.00	66.00	65.00	52.00	51.00	57.00	46.00	54.00	34.00	34.00	35.00	32.00	34.00	35.00	40.00	47.00	43.00	45.00	48.00	37.00	51.00	51.00	47.00	86.00	39.00	47.00	42.00	46.00	49.00	58.00	52.00	56.00	50.00	55.00	50.00	45.00	43.00	49.00	46.00	55.00	63.00	73.00	134.00	122.00	134.00	94.00	47.00	51.00	55.00	43.00	44.00	43.00	37.00	74.00	61.00	60.00	49.00	55.00	59.00	62.00	57.00	70.00	65.00	74.00	75.00	72.00	64.00	58.00	72.00	64.00	55.00	55.00	58.00	59.00	58.00	67.00	70.00	77.00	82.00	71.00	61.00	57.00	46.00	58.00	50.00	44.00	58.00	75.00	65.00	57.00	60.00	41.00	42.00	41.00	39.00	37.00	40.00	40.00	40.00	42.00	38.00	37.00	43.00	40.00	38.00	37.00	36.00	35.00	35.00
59.00	66.00	69.00	62.00	71.00	73.00	67.00	69.00	77.00	154.00	205.00	183.00	211.00	311.00	405.00	444.00	233.00	97.00	67.00	68.00	67.00	71.00	74.00	72.00	80.00	95.00	97.00	114.00	101.00	124.00	302.00	412.00	279.00	153.00	103.00	99.00	152.00	206.00	133.00	95.00	74.00	64.00	58.00	66.00	65.00	71.00	69.00	64.00	69.00	62.00	58.00	52.00	49.00	45.00	43.00	40.00	38.00	35.00	41.00	36.00	20.00	21.00	25.00	30.00	45.00	29.00	26.00	25.00	44.00	47.00	39.00	68.00	41.00	28.00	29.00	26.00	21.00	25.00	26.00	24.00	34.00	64.00	77.00	58.00	58.00	58.00	50.00	42.00	59.00	69.00	62.00	72.00	66.00	65.00	51.00	56.00	47.00	51.00	43.00	128.00	118.00	75.00	46.00	49.00	52.00	58.00	46.00	34.00	63.00	57.00	67.00	48.00	44.00	60.00	71.00	49.00	49.00	51.00	64.00	78.00	88.00	111.00	116.00	126.00	141.00	84.00	48.00	50.00	53.00	45.00	60.00	63.00	64.00	58.00	69.00	95.00	104.00	77.00	70.00	71.00	74.00	79.00	69.00	64.00	66.00	67.00	77.00	58.00	63.00	65.00	53.00	49.00	47.00	57.00	66.00	35.00	30.00	37.00	30.00	33.00	37.00	39.00	43.00	45.00	44.00	46.00	34.00	46.00	50.00	47.00	49.00	39.00	44.00	53.00	55.00	55.00	50.00	52.00	48.00	39.00	55.00	50.00	44.00	38.00	42.00	46.00	62.00	56.00	78.00	88.00	81.00	76.00	77.00	58.00	51.00	49.00	54.00	43.00	44.00	68.00	74.00	59.00	54.00	52.00	55.00	64.00	70.00	72.00	64.00	68.00	69.00	61.00	66.00	69.00	61.00	74.00	69.00	61.00	60.00	61.00	66.00	59.00	59.00	62.00	72.00	77.00	72.00	86.00	69.00	62.00	54.00	54.00	43.00	50.00	54.00	70.00	77.00	67.00	52.00	52.00	48.00	41.00	44.00	45.00	42.00	42.00	40.00	40.00	37.00	42.00	44.00	39.00	42.00	32.00	32.00	31.00
76.00	73.00	69.00	74.00	70.00	73.00	90.00	79.00	109.00	126.00	141.00	215.00	323.00	399.00	314.00	264.00	249.00	148.00	67.00	74.00	76.00	77.00	81.00	84.00	82.00	99.00	109.00	153.00	122.00	119.00	230.00	288.00	161.00	130.00	125.00	93.00	93.00	164.00	100.00	81.00	72.00	74.00	63.00	58.00	60.00	62.00	59.00	62.00	60.00	60.00	65.00	57.00	50.00	52.00	50.00	42.00	42.00	37.00	29.00	27.00	22.00	26.00	21.00	23.00	27.00	27.00	30.00	28.00	26.00	39.00	40.00	57.00	54.00	55.00	33.00	29.00	25.00	26.00	25.00	21.00	26.00	56.00	61.00	49.00	52.00	52.00	54.00	54.00	55.00	68.00	58.00	80.00	61.00	60.00	54.00	43.00	42.00	41.00	37.00	76.00	101.00	63.00	51.00	45.00	51.00	48.00	51.00	43.00	59.00	60.00	57.00	57.00	50.00	54.00	62.00	61.00	47.00	62.00	79.00	81.00	88.00	119.00	132.00	81.00	87.00	80.00	44.00	51.00	45.00	42.00	58.00	73.00	65.00	63.00	75.00	83.00	90.00	81.00	76.00	68.00	70.00	77.00	71.00	61.00	74.00	63.00	57.00	55.00	50.00	64.00	61.00	52.00	43.00	46.00	51.00	51.00	31.00	35.00	31.00	34.00	32.00	32.00	43.00	45.00	44.00	48.00	36.00	52.00	69.00	34.00	41.00	37.00	50.00	95.00	109.00	43.00	49.00	50.00	40.00	44.00	48.00	46.00	45.00	38.00	41.00	61.00	49.00	52.00	67.00	86.00	94.00	75.00	61.00	54.00	46.00	42.00	46.00	36.00	54.00	54.00	47.00	46.00	50.00	58.00	54.00	60.00	65.00	70.00	60.00	76.00	74.00	60.00	65.00	72.00	67.00	74.00	72.00	66.00	66.00	71.00	73.00	68.00	62.00	64.00	68.00	76.00	76.00	105.00	97.00	57.00	54.00	51.00	46.00	43.00	52.00	59.00	66.00	67.00	60.00	51.00	39.00	38.00	47.00	47.00	50.00	38.00	35.00	36.00	36.00	46.00	47.00	38.00	38.00	30.00	32.00	29.00
74.00	74.00	76.00	73.00	73.00	103.00	119.00	190.00	105.00	121.00	183.00	266.00	222.00	154.00	124.00	139.00	221.00	325.00	108.00	91.00	95.00	178.00	175.00	110.00	94.00	99.00	108.00	118.00	118.00	106.00	126.00	118.00	100.00	93.00	83.00	82.00	79.00	83.00	82.00	82.00	78.00	98.00	68.00	64.00	65.00	81.00	71.00	70.00	73.00	67.00	47.00	50.00	44.00	47.00	49.00	49.00	45.00	40.00	22.00	22.00	19.00	22.00	26.00	26.00	32.00	38.00	31.00	36.00	48.00	48.00	46.00	58.00	61.00	46.00	39.00	32.00	29.00	22.00	19.00	27.00	22.00	46.00	58.00	42.00	62.00	67.00	69.00	73.00	89.00	70.00	58.00	58.00	57.00	46.00	43.00	35.00	33.00	33.00	39.00	38.00	40.00	64.00	189.00	68.00	53.00	51.00	54.00	58.00	53.00	73.00	74.00	57.00	56.00	51.00	57.00	65.00	61.00	58.00	56.00	67.00	77.00	64.00	55.00	120.00	56.00	47.00	39.00	42.00	53.00	54.00	58.00	62.00	58.00	70.00	82.00	78.00	79.00	69.00	66.00	63.00	63.00	61.00	60.00	68.00	65.00	67.00	68.00	64.00	48.00	52.00	61.00	48.00	41.00	40.00	35.00	31.00	32.00	29.00	27.00	28.00	29.00	29.00	41.00	53.00	50.00	49.00	25.00	31.00	37.00	41.00	41.00	40.00	38.00	43.00	39.00	42.00	45.00	44.00	39.00	42.00	34.00	36.00	43.00	41.00	40.00	42.00	56.00	68.00	54.00	72.00	94.00	74.00	64.00	50.00	48.00	45.00	38.00	56.00	64.00	56.00	74.00	51.00	56.00	60.00	67.00	61.00	66.00	63.00	65.00	63.00	66.00	74.00	72.00	76.00	76.00	74.00	64.00	65.00	86.00	84.00	68.00	67.00	75.00	73.00	76.00	76.00	64.00	70.00	57.00	47.00	44.00	48.00	45.00	35.00	42.00	47.00	51.00	60.00	56.00	55.00	44.00	38.00	36.00	38.00	35.00	33.00	38.00	34.00	41.00	39.00	37.00	36.00	39.00	37.00	38.00	43.00
74.00	74.00	76.00	73.00	73.00	103.00	119.00	190.00	105.00	121.00	183.00	266.00	222.00	154.00	124.00	139.00	221.00	325.00	108.00	91.00	95.00	178.00	175.00	110.00	94.00	99.00	108.00	118.00	118.00	106.00	126.00	118.00	100.00	93.00	83.00	82.00	79.00	83.00	82.00	82.00	78.00	98.00	68.00	64.00	65.00	81.00	71.00	70.00	73.00	67.00	47.00	50.00	44.00	47.00	49.00	49.00	45.00	40.00	22.00	22.00	19.00	22.00	26.00	26.00	32.00	38.00	31.00	36.00	48.00	48.00	46.00	58.00	61.00	46.00	39.00	32.00	29.00	22.00	19.00	27.00	22.00	46.00	58.00	42.00	62.00	67.00	69.00	73.00	89.00	70.00	58.00	58.00	57.00	46.00	43.00	35.00	33.00	33.00	39.00	38.00	40.00	64.00	189.00	68.00	53.00	51.00	54.00	58.00	53.00	73.00	74.00	57.00	56.00	51.00	57.00	65.00	61.00	58.00	56.00	67.00	77.00	64.00	55.00	120.00	56.00	47.00	39.00	42.00	53.00	54.00	58.00	62.00	58.00	70.00	82.00	78.00	79.00	69.00	66.00	63.00	63.00	61.00	60.00	68.00	65.00	67.00	68.00	64.00	48.00	52.00	61.00	48.00	41.00	40.00	35.00	31.00	32.00	29.00	27.00	28.00	29.00	29.00	41.00	53.00	50.00	49.00	25.00	31.00	37.00	41.00	41.00	40.00	38.00	43.00	39.00	42.00	45.00	44.00	39.00	42.00	34.00	36.00	43.00	41.00	40.00	42.00	56.00	68.00	54.00	72.00	94.00	74.00	64.00	50.00	48.00	45.00	38.00	56.00	64.00	56.00	74.00	51.00	56.00	60.00	67.00	61.00	66.00	63.00	65.00	63.00	66.00	74.00	72.00	76.00	76.00	74.00	64.00	65.00	86.00	84.00	68.00	67.00	75.00	73.00	76.00	76.00	64.00	70.00	57.00	47.00	44.00	48.00	45.00	35.00	42.00	47.00	51.00	60.00	56.00	55.00	44.00	38.00	36.00	38.00	35.00	33.00	38.00	34.00	41.00	39.00	37.00	36.00	39.00	37.00	38.00	43.00
78.00	70.00	71.00	77.00	83.00	147.00	150.00	168.00	111.00	147.00	236.00	300.00	240.00	172.00	127.00	162.00	204.00	238.00	111.00	86.00	129.00	173.00	176.00	107.00	96.00	105.00	119.00	121.00	109.00	104.00	106.00	109.00	111.00	107.00	108.00	95.00	95.00	83.00	75.00	81.00	84.00	104.00	69.00	73.00	73.00	87.00	80.00	86.00	74.00	66.00	64.00	53.00	50.00	47.00	44.00	46.00	47.00	45.00	22.00	20.00	21.00	27.00	23.00	26.00	31.00	30.00	27.00	44.00	52.00	54.00	53.00	59.00	51.00	51.00	42.00	42.00	28.00	19.00	20.00	18.00	19.00	26.00	42.00	46.00	46.00	64.00	61.00	75.00	77.00	75.00	49.00	53.00	48.00	52.00	39.00	33.00	32.00	42.00	45.00	39.00	53.00	54.00	85.00	140.00	92.00	98.00	88.00	52.00	55.00	61.00	60.00	57.00	45.00	54.00	76.00	85.00	77.00	82.00	61.00	85.00	82.00	64.00	50.00	43.00	44.00	43.00	41.00	57.00	57.00	46.00	56.00	81.00	82.00	72.00	109.00	80.00	77.00	73.00	62.00	73.00	59.00	60.00	73.00	68.00	58.00	63.00	61.00	61.00	49.00	46.00	57.00	54.00	45.00	40.00	36.00	27.00	31.00	27.00	28.00	31.00	33.00	35.00	48.00	47.00	47.00	55.00	40.00	44.00	62.00	63.00	55.00	48.00	37.00	39.00	33.00	44.00	41.00	42.00	35.00	35.00	30.00	34.00	36.00	42.00	56.00	54.00	65.00	68.00	64.00	82.00	82.00	68.00	53.00	59.00	47.00	41.00	40.00	58.00	63.00	53.00	53.00	55.00	75.00	77.00	86.00	62.00	48.00	57.00	53.00	53.00	65.00	70.00	66.00	75.00	69.00	71.00	66.00	63.00	72.00	79.00	71.00	76.00	85.00	80.00	75.00	64.00	58.00	55.00	52.00	51.00	44.00	52.00	50.00	51.00	45.00	48.00	58.00	55.00	51.00	44.00	45.00	40.00	33.00	34.00	34.00	29.00	33.00	46.00	54.00	42.00	44.00	40.00	41.00	40.00	42.00	45.00
73.00	73.00	75.00	84.00	97.00	196.00	166.00	129.00	111.00	170.00	267.00	229.00	146.00	160.00	113.00	118.00	141.00	152.00	101.00	100.00	106.00	147.00	146.00	107.00	100.00	122.00	124.00	121.00	99.00	103.00	106.00	113.00	190.00	127.00	103.00	108.00	109.00	100.00	86.00	70.00	94.00	80.00	74.00	84.00	83.00	105.00	82.00	75.00	67.00	75.00	66.00	61.00	61.00	54.00	39.00	38.00	50.00	41.00	24.00	16.00	23.00	27.00	24.00	30.00	29.00	27.00	24.00	43.00	53.00	53.00	67.00	47.00	46.00	44.00	44.00	39.00	28.00	27.00	27.00	26.00	20.00	31.00	35.00	44.00	47.00	57.00	42.00	48.00	50.00	47.00	43.00	40.00	43.00	60.00	35.00	31.00	34.00	39.00	44.00	39.00	51.00	66.00	80.00	333.00	225.00	282.00	313.00	117.00	49.00	76.00	69.00	57.00	46.00	50.00	71.00	86.00	84.00	80.00	69.00	80.00	81.00	70.00	47.00	41.00	43.00	45.00	38.00	47.00	52.00	54.00	53.00	62.00	71.00	104.00	81.00	74.00	63.00	63.00	64.00	57.00	61.00	64.00	70.00	66.00	56.00	68.00	62.00	55.00	56.00	54.00	45.00	46.00	42.00	39.00	38.00	28.00	30.00	31.00	28.00	32.00	34.00	40.00	47.00	42.00	38.00	40.00	42.00	47.00	46.00	51.00	46.00	57.00	55.00	35.00	32.00	47.00	46.00	34.00	32.00	34.00	32.00	32.00	37.00	43.00	77.00	62.00	68.00	75.00	70.00	60.00	53.00	66.00	55.00	47.00	47.00	38.00	42.00	55.00	51.00	49.00	53.00	49.00	64.00	91.00	63.00	59.00	52.00	55.00	59.00	67.00	67.00	70.00	67.00	73.00	69.00	70.00	65.00	58.00	69.00	80.00	77.00	88.00	82.00	73.00	62.00	62.00	59.00	58.00	53.00	43.00	51.00	50.00	43.00	49.00	46.00	48.00	55.00	50.00	42.00	41.00	45.00	35.00	39.00	33.00	30.00	27.00	31.00	48.00	47.00	45.00	51.00	48.00	48.00	44.00	40.00	27.00
135.00	118.00	121.00	92.00	94.00	116.00	122.00	128.00	95.00	102.00	98.00	102.00	91.00	90.00	95.00	93.00	96.00	106.00	90.00	101.00	122.00	150.00	132.00	103.00	105.00	121.00	106.00	123.00	100.00	136.00	152.00	183.00	241.00	133.00	100.00	104.00	90.00	88.00	81.00	73.00	86.00	90.00	89.00	117.00	126.00	83.00	94.00	82.00	65.00	71.00	49.00	61.00	57.00	43.00	47.00	35.00	46.00	40.00	32.00	23.00	23.00	29.00	26.00	22.00	26.00	27.00	28.00	48.00	34.00	44.00	38.00	41.00	46.00	52.00	44.00	55.00	43.00	44.00	34.00	27.00	24.00	21.00	30.00	43.00	48.00	51.00	50.00	35.00	37.00	42.00	43.00	38.00	32.00	31.00	32.00	32.00	29.00	32.00	39.00	43.00	111.00	258.00	283.00	346.00	232.00	308.00	349.00	220.00	58.00	62.00	79.00	65.00	67.00	62.00	56.00	63.00	65.00	66.00	88.00	78.00	132.00	50.00	48.00	60.00	72.00	68.00	42.00	48.00	66.00	48.00	47.00	48.00	58.00	55.00	55.00	59.00	57.00	54.00	56.00	68.00	69.00	77.00	81.00	72.00	68.00	55.00	61.00	68.00	57.00	52.00	45.00	53.00	49.00	45.00	38.00	27.00	25.00	36.00	39.00	40.00	44.00	40.00	35.00	30.00	52.00	56.00	47.00	57.00	47.00	41.00	46.00	60.00	47.00	44.00	35.00	64.00	42.00	38.00	31.00	31.00	30.00	31.00	35.00	37.00	42.00	54.00	64.00	73.00	64.00	59.00	46.00	41.00	42.00	43.00	38.00	47.00	47.00	48.00	46.00	41.00	49.00	55.00	54.00	44.00	41.00	43.00	43.00	47.00	57.00	58.00	56.00	62.00	64.00	67.00	65.00	71.00	68.00	73.00	80.00	84.00	79.00	89.00	90.00	80.00	80.00	67.00	66.00	62.00	58.00	51.00	49.00	44.00	44.00	46.00	46.00	43.00	39.00	39.00	32.00	26.00	28.00	28.00	33.00	33.00	30.00	27.00	35.00	29.00	35.00	39.00	40.00	40.00	44.00	34.00	29.00	25.00
176.00	191.00	134.00	114.00	112.00	87.00	99.00	102.00	91.00	88.00	87.00	85.00	84.00	107.00	90.00	101.00	163.00	209.00	80.00	88.00	105.00	124.00	115.00	106.00	94.00	101.00	109.00	108.00	100.00	112.00	134.00	229.00	254.00	157.00	111.00	110.00	102.00	93.00	94.00	79.00	74.00	95.00	77.00	81.00	67.00	82.00	83.00	73.00	67.00	62.00	44.00	49.00	52.00	40.00	34.00	33.00	34.00	33.00	25.00	25.00	23.00	24.00	25.00	27.00	27.00	27.00	23.00	32.00	31.00	34.00	44.00	48.00	40.00	46.00	50.00	65.00	41.00	43.00	34.00	33.00	22.00	25.00	29.00	44.00	46.00	54.00	52.00	37.00	32.00	37.00	34.00	48.00	29.00	33.00	31.00	30.00	34.00	38.00	41.00	50.00	93.00	226.00	213.00	257.00	119.00	139.00	152.00	94.00	56.00	62.00	63.00	63.00	134.00	61.00	63.00	63.00	57.00	62.00	72.00	74.00	82.00	92.00	91.00	61.00	63.00	56.00	38.00	37.00	43.00	44.00	52.00	50.00	54.00	53.00	54.00	52.00	49.00	50.00	57.00	61.00	62.00	69.00	75.00	77.00	64.00	60.00	70.00	68.00	63.00	63.00	56.00	56.00	52.00	46.00	39.00	27.00	25.00	40.00	39.00	39.00	41.00	36.00	31.00	34.00	46.00	49.00	52.00	63.00	50.00	50.00	49.00	49.00	43.00	41.00	29.00	49.00	42.00	35.00	34.00	35.00	33.00	31.00	32.00	38.00	44.00	47.00	51.00	50.00	48.00	48.00	47.00	41.00	42.00	44.00	38.00	49.00	50.00	43.00	45.00	41.00	44.00	47.00	36.00	38.00	39.00	42.00	42.00	53.00	57.00	59.00	61.00	68.00	72.00	76.00	70.00	75.00	71.00	69.00	77.00	84.00	82.00	84.00	89.00	93.00	76.00	68.00	74.00	68.00	70.00	50.00	42.00	40.00	37.00	46.00	47.00	48.00	43.00	36.00	32.00	31.00	26.00	29.00	30.00	31.00	28.00	29.00	34.00	30.00	26.00	26.00	28.00	33.00	39.00	33.00	25.00	26.00
156.00	138.00	113.00	140.00	182.00	91.00	74.00	91.00	76.00	81.00	75.00	86.00	154.00	138.00	111.00	168.00	218.00	161.00	78.00	93.00	104.00	114.00	104.00	91.00	96.00	108.00	109.00	107.00	94.00	99.00	111.00	172.00	284.00	152.00	106.00	102.00	95.00	85.00	88.00	81.00	73.00	91.00	79.00	76.00	69.00	72.00	72.00	69.00	67.00	54.00	43.00	43.00	34.00	31.00	38.00	31.00	31.00	27.00	19.00	23.00	24.00	26.00	24.00	29.00	27.00	28.00	24.00	32.00	32.00	39.00	45.00	40.00	35.00	35.00	38.00	45.00	46.00	37.00	31.00	26.00	28.00	29.00	49.00	51.00	51.00	61.00	57.00	54.00	28.00	32.00	39.00	35.00	27.00	30.00	32.00	33.00	35.00	45.00	51.00	97.00	52.00	93.00	81.00	93.00	68.00	58.00	57.00	59.00	59.00	56.00	60.00	63.00	100.00	89.00	81.00	67.00	64.00	60.00	63.00	79.00	141.00	147.00	111.00	112.00	102.00	57.00	44.00	37.00	41.00	50.00	50.00	51.00	51.00	55.00	53.00	48.00	54.00	60.00	62.00	69.00	76.00	83.00	83.00	83.00	71.00	63.00	69.00	64.00	69.00	67.00	67.00	66.00	63.00	48.00	39.00	30.00	29.00	37.00	37.00	43.00	40.00	35.00	28.00	33.00	43.00	48.00	49.00	49.00	52.00	54.00	52.00	49.00	42.00	39.00	33.00	44.00	38.00	32.00	31.00	37.00	33.00	32.00	39.00	37.00	49.00	52.00	58.00	52.00	46.00	43.00	42.00	43.00	40.00	36.00	38.00	51.00	46.00	35.00	45.00	42.00	38.00	40.00	37.00	36.00	40.00	39.00	50.00	63.00	65.00	63.00	68.00	70.00	70.00	76.00	73.00	76.00	71.00	69.00	73.00	83.00	87.00	91.00	95.00	83.00	77.00	72.00	77.00	75.00	72.00	46.00	44.00	40.00	40.00	43.00	41.00	43.00	42.00	36.00	31.00	28.00	32.00	31.00	35.00	32.00	31.00	34.00	49.00	29.00	26.00	30.00	28.00	37.00	34.00	36.00	30.00	27.00
126.00	110.00	107.00	127.00	196.00	116.00	82.00	76.00	72.00	74.00	76.00	98.00	205.00	115.00	185.00	252.00	145.00	96.00	73.00	87.00	85.00	96.00	109.00	87.00	89.00	99.00	97.00	98.00	94.00	108.00	110.00	135.00	266.00	150.00	107.00	113.00	96.00	91.00	90.00	86.00	67.00	86.00	78.00	81.00	80.00	67.00	68.00	59.00	53.00	49.00	36.00	41.00	39.00	37.00	35.00	43.00	45.00	41.00	25.00	26.00	25.00	24.00	22.00	25.00	24.00	29.00	27.00	29.00	34.00	49.00	54.00	45.00	34.00	28.00	26.00	27.00	32.00	28.00	27.00	40.00	49.00	36.00	57.00	55.00	49.00	56.00	55.00	38.00	31.00	27.00	42.00	31.00	27.00	27.00	31.00	34.00	33.00	34.00	39.00	64.00	59.00	78.00	76.00	42.00	44.00	46.00	46.00	49.00	56.00	55.00	56.00	62.00	68.00	65.00	62.00	67.00	65.00	74.00	78.00	113.00	186.00	89.00	81.00	73.00	66.00	56.00	44.00	44.00	46.00	55.00	53.00	49.00	52.00	55.00	49.00	59.00	76.00	67.00	74.00	80.00	81.00	83.00	78.00	74.00	68.00	76.00	71.00	60.00	67.00	73.00	65.00	63.00	64.00	37.00	31.00	30.00	30.00	35.00	38.00	46.00	44.00	37.00	27.00	34.00	52.00	44.00	49.00	52.00	55.00	60.00	52.00	44.00	45.00	43.00	42.00	32.00	35.00	31.00	32.00	30.00	33.00	32.00	39.00	38.00	51.00	49.00	53.00	58.00	44.00	38.00	37.00	46.00	48.00	40.00	50.00	46.00	42.00	33.00	38.00	37.00	40.00	39.00	37.00	34.00	38.00	38.00	48.00	59.00	60.00	64.00	72.00	67.00	82.00	80.00	71.00	80.00	77.00	73.00	77.00	84.00	86.00	84.00	81.00	70.00	71.00	66.00	66.00	65.00	62.00	48.00	41.00	35.00	36.00	40.00	39.00	43.00	42.00	43.00	35.00	41.00	42.00	43.00	37.00	32.00	36.00	43.00	35.00	35.00	41.00	40.00	56.00	29.00	35.00	29.00	29.00	29.00
141.00	103.00	107.00	168.00	256.00	158.00	109.00	74.00	83.00	100.00	88.00	85.00	70.00	67.00	75.00	68.00	50.00	47.00	52.00	51.00	64.00	77.00	90.00	102.00	99.00	99.00	117.00	103.00	100.00	132.00	198.00	210.00	190.00	122.00	96.00	166.00	121.00	92.00	85.00	92.00	66.00	83.00	65.00	49.00	44.00	53.00	62.00	67.00	59.00	44.00	50.00	52.00	48.00	44.00	47.00	56.00	53.00	45.00	34.00	35.00	28.00	28.00	30.00	25.00	27.00	26.00	25.00	27.00	27.00	23.00	39.00	54.00	48.00	50.00	33.00	26.00	49.00	45.00	58.00	65.00	58.00	25.00	40.00	34.00	25.00	27.00	26.00	30.00	44.00	45.00	32.00	36.00	46.00	56.00	36.00	35.00	38.00	34.00	36.00	42.00	45.00	49.00	51.00	49.00	42.00	47.00	47.00	50.00	59.00	65.00	65.00	67.00	67.00	77.00	82.00	134.00	88.00	131.00	128.00	107.00	160.00	204.00	204.00	84.00	74.00	72.00	67.00	52.00	43.00	52.00	51.00	51.00	55.00	64.00	57.00	64.00	73.00	68.00	66.00	75.00	75.00	74.00	63.00	68.00	65.00	64.00	70.00	58.00	56.00	49.00	54.00	55.00	51.00	43.00	34.00	30.00	28.00	26.00	25.00	25.00	23.00	21.00	37.00	50.00	59.00	84.00	59.00	72.00	59.00	52.00	48.00	40.00	45.00	48.00	47.00	51.00	42.00	35.00	31.00	30.00	44.00	46.00	52.00	66.00	45.00	40.00	44.00	45.00	52.00	40.00	37.00	41.00	38.00	44.00	38.00	35.00	38.00	42.00	39.00	40.00	42.00	44.00	52.00	50.00	49.00	58.00	61.00	61.00	66.00	72.00	68.00	81.00	88.00	86.00	82.00	80.00	80.00	69.00	73.00	70.00	71.00	77.00	80.00	69.00	59.00	54.00	59.00	55.00	47.00	45.00	47.00	41.00	37.00	45.00	38.00	40.00	44.00	41.00	47.00	54.00	54.00	48.00	50.00	61.00	53.00	30.00	27.00	44.00	68.00	41.00	40.00	27.00	23.00	28.00	35.00	29.00
95.00	112.00	95.00	150.00	147.00	94.00	80.00	68.00	149.00	75.00	80.00	70.00	68.00	62.00	64.00	50.00	44.00	43.00	49.00	51.00	64.00	75.00	83.00	94.00	109.00	110.00	110.00	112.00	102.00	187.00	193.00	242.00	115.00	94.00	91.00	167.00	140.00	99.00	105.00	83.00	59.00	71.00	59.00	50.00	37.00	33.00	38.00	44.00	37.00	35.00	43.00	36.00	41.00	43.00	45.00	52.00	49.00	45.00	40.00	37.00	26.00	24.00	22.00	24.00	27.00	24.00	19.00	35.00	38.00	33.00	31.00	43.00	61.00	46.00	28.00	25.00	45.00	46.00	53.00	53.00	54.00	26.00	30.00	21.00	26.00	26.00	27.00	32.00	51.00	47.00	38.00	35.00	48.00	50.00	47.00	44.00	42.00	43.00	49.00	44.00	45.00	47.00	49.00	55.00	57.00	53.00	60.00	66.00	68.00	71.00	71.00	68.00	73.00	88.00	90.00	122.00	100.00	104.00	193.00	197.00	177.00	259.00	239.00	87.00	83.00	71.00	74.00	57.00	50.00	47.00	50.00	56.00	68.00	64.00	62.00	61.00	70.00	74.00	81.00	77.00	68.00	66.00	62.00	59.00	75.00	64.00	63.00	59.00	60.00	57.00	47.00	47.00	44.00	36.00	33.00	29.00	31.00	26.00	22.00	19.00	20.00	20.00	35.00	60.00	135.00	207.00	79.00	58.00	54.00	42.00	43.00	40.00	42.00	44.00	52.00	56.00	62.00	50.00	48.00	50.00	44.00	46.00	51.00	52.00	42.00	44.00	50.00	51.00	49.00	46.00	44.00	51.00	45.00	50.00	56.00	39.00	38.00	47.00	37.00	40.00	41.00	42.00	50.00	47.00	57.00	62.00	67.00	60.00	65.00	62.00	69.00	86.00	87.00	73.00	69.00	80.00	79.00	68.00	62.00	63.00	74.00	78.00	70.00	69.00	56.00	51.00	50.00	53.00	45.00	41.00	47.00	44.00	42.00	43.00	36.00	39.00	36.00	37.00	44.00	60.00	58.00	54.00	58.00	62.00	40.00	23.00	26.00	45.00	47.00	30.00	29.00	25.00	33.00	32.00	33.00	22.00
118.00	92.00	87.00	110.00	79.00	59.00	67.00	72.00	109.00	61.00	67.00	62.00	62.00	61.00	62.00	45.00	42.00	44.00	49.00	47.00	55.00	57.00	74.00	95.00	110.00	117.00	105.00	109.00	105.00	184.00	191.00	227.00	183.00	91.00	88.00	135.00	148.00	95.00	89.00	75.00	63.00	79.00	80.00	45.00	40.00	40.00	39.00	38.00	32.00	35.00	31.00	37.00	39.00	38.00	42.00	43.00	42.00	40.00	43.00	39.00	19.00	16.00	15.00	16.00	18.00	22.00	21.00	32.00	34.00	35.00	33.00	38.00	32.00	29.00	27.00	24.00	45.00	54.00	40.00	44.00	48.00	27.00	32.00	23.00	33.00	23.00	25.00	31.00	56.00	53.00	44.00	77.00	46.00	44.00	53.00	49.00	39.00	45.00	39.00	47.00	38.00	52.00	52.00	56.00	57.00	58.00	69.00	66.00	71.00	76.00	80.00	79.00	70.00	81.00	84.00	129.00	124.00	85.00	105.00	183.00	233.00	179.00	215.00	76.00	76.00	73.00	91.00	56.00	50.00	52.00	75.00	71.00	95.00	64.00	66.00	75.00	78.00	81.00	77.00	80.00	75.00	74.00	60.00	60.00	77.00	69.00	67.00	61.00	59.00	58.00	65.00	56.00	46.00	42.00	34.00	28.00	29.00	26.00	21.00	21.00	25.00	26.00	31.00	67.00	209.00	343.00	92.00	55.00	44.00	40.00	40.00	44.00	45.00	52.00	47.00	71.00	80.00	54.00	57.00	54.00	44.00	48.00	44.00	45.00	38.00	42.00	45.00	49.00	46.00	52.00	54.00	57.00	55.00	43.00	48.00	37.00	37.00	43.00	39.00	39.00	40.00	42.00	42.00	43.00	45.00	58.00	68.00	56.00	60.00	62.00	61.00	69.00	70.00	71.00	74.00	79.00	81.00	75.00	64.00	65.00	71.00	66.00	61.00	58.00	51.00	49.00	47.00	43.00	45.00	40.00	39.00	39.00	39.00	35.00	33.00	41.00	33.00	34.00	32.00	54.00	63.00	65.00	67.00	45.00	29.00	28.00	24.00	49.00	45.00	34.00	26.00	38.00	39.00	33.00	31.00	24.00
83.00	82.00	93.00	74.00	67.00	65.00	79.00	83.00	61.00	57.00	58.00	57.00	69.00	61.00	46.00	39.00	41.00	43.00	48.00	45.00	61.00	63.00	80.00	99.00	98.00	109.00	95.00	105.00	112.00	172.00	179.00	194.00	189.00	88.00	78.00	103.00	111.00	75.00	72.00	70.00	54.00	60.00	51.00	40.00	41.00	50.00	40.00	41.00	33.00	37.00	24.00	30.00	37.00	31.00	30.00	29.00	33.00	36.00	34.00	29.00	16.00	20.00	23.00	22.00	27.00	27.00	27.00	27.00	36.00	31.00	29.00	30.00	30.00	21.00	32.00	25.00	46.00	54.00	48.00	39.00	47.00	29.00	30.00	30.00	31.00	30.00	37.00	35.00	46.00	56.00	43.00	89.00	69.00	69.00	51.00	57.00	53.00	44.00	37.00	46.00	41.00	38.00	46.00	53.00	57.00	64.00	65.00	78.00	76.00	78.00	86.00	92.00	80.00	91.00	91.00	103.00	181.00	102.00	98.00	105.00	132.00	182.00	148.00	82.00	80.00	76.00	83.00	76.00	49.00	52.00	59.00	113.00	79.00	63.00	81.00	94.00	79.00	83.00	84.00	67.00	66.00	62.00	61.00	53.00	68.00	63.00	61.00	67.00	56.00	51.00	50.00	54.00	46.00	28.00	34.00	28.00	29.00	24.00	20.00	21.00	25.00	30.00	25.00	41.00	104.00	235.00	89.00	45.00	37.00	39.00	42.00	44.00	47.00	53.00	48.00	59.00	72.00	74.00	76.00	89.00	62.00	58.00	64.00	54.00	42.00	43.00	41.00	43.00	52.00	53.00	55.00	51.00	56.00	44.00	51.00	40.00	38.00	44.00	44.00	37.00	39.00	40.00	42.00	52.00	64.00	66.00	66.00	53.00	57.00	58.00	55.00	62.00	66.00	71.00	73.00	75.00	80.00	67.00	63.00	69.00	78.00	74.00	68.00	63.00	58.00	56.00	54.00	47.00	40.00	38.00	39.00	46.00	37.00	33.00	34.00	36.00	34.00	39.00	35.00	39.00	60.00	62.00	45.00	32.00	33.00	40.00	24.00	43.00	46.00	32.00	27.00	41.00	34.00	34.00	33.00	30.00
96.00	73.00	79.00	71.00	78.00	53.00	61.00	66.00	57.00	57.00	78.00	68.00	68.00	64.00	38.00	40.00	39.00	41.00	44.00	48.00	53.00	52.00	67.00	76.00	92.00	88.00	99.00	130.00	124.00	97.00	99.00	95.00	97.00	80.00	80.00	91.00	75.00	69.00	69.00	66.00	71.00	63.00	77.00	75.00	51.00	48.00	46.00	47.00	41.00	34.00	31.00	29.00	30.00	28.00	30.00	26.00	23.00	24.00	20.00	18.00	21.00	18.00	26.00	22.00	20.00	24.00	24.00	31.00	36.00	40.00	39.00	25.00	30.00	27.00	23.00	26.00	23.00	26.00	24.00	23.00	21.00	33.00	34.00	37.00	42.00	41.00	50.00	49.00	49.00	52.00	53.00	58.00	61.00	63.00	43.00	43.00	46.00	46.00	43.00	40.00	43.00	47.00	62.00	64.00	64.00	62.00	71.00	92.00	96.00	98.00	203.00	282.00	116.00	88.00	148.00	236.00	216.00	164.00	135.00	203.00	193.00	101.00	64.00	76.00	77.00	67.00	85.00	80.00	59.00	46.00	60.00	63.00	61.00	67.00	66.00	56.00	63.00	78.00	97.00	93.00	96.00	71.00	59.00	50.00	60.00	68.00	62.00	53.00	63.00	53.00	45.00	40.00	43.00	33.00	60.00	24.00	36.00	26.00	21.00	21.00	24.00	29.00	30.00	37.00	37.00	42.00	36.00	32.00	34.00	47.00	47.00	53.00	51.00	52.00	59.00	70.00	74.00	66.00	70.00	74.00	79.00	101.00	97.00	83.00	66.00	65.00	75.00	64.00	54.00	61.00	52.00	45.00	40.00	30.00	40.00	39.00	35.00	41.00	42.00	39.00	42.00	41.00	41.00	49.00	62.00	64.00	67.00	57.00	60.00	56.00	63.00	64.00	71.00	72.00	77.00	65.00	55.00	64.00	63.00	70.00	76.00	68.00	72.00	69.00	64.00	56.00	47.00	52.00	44.00	50.00	50.00	51.00	39.00	37.00	40.00	37.00	41.00	34.00	37.00	35.00	42.00	56.00	30.00	31.00	41.00	46.00	44.00	51.00	43.00	35.00	35.00	42.00	36.00	41.00	43.00	38.00
65.00	66.00	67.00	64.00	69.00	54.00	61.00	60.00	57.00	68.00	67.00	58.00	61.00	65.00	52.00	42.00	41.00	39.00	43.00	48.00	57.00	52.00	80.00	74.00	78.00	84.00	97.00	131.00	108.00	87.00	86.00	91.00	90.00	82.00	73.00	79.00	75.00	75.00	68.00	68.00	70.00	72.00	69.00	74.00	56.00	45.00	49.00	41.00	38.00	40.00	34.00	35.00	30.00	25.00	23.00	21.00	23.00	21.00	22.00	23.00	23.00	24.00	26.00	26.00	24.00	27.00	25.00	28.00	32.00	40.00	28.00	26.00	26.00	26.00	26.00	24.00	26.00	24.00	31.00	30.00	26.00	38.00	43.00	42.00	47.00	62.00	48.00	55.00	55.00	54.00	94.00	72.00	63.00	55.00	44.00	42.00	40.00	44.00	44.00	44.00	54.00	58.00	62.00	67.00	60.00	60.00	69.00	83.00	210.00	153.00	213.00	264.00	125.00	89.00	100.00	173.00	229.00	163.00	113.00	230.00	226.00	122.00	70.00	71.00	75.00	69.00	91.00	76.00	54.00	45.00	51.00	54.00	65.00	65.00	51.00	48.00	55.00	68.00	76.00	83.00	81.00	68.00	64.00	58.00	50.00	56.00	64.00	59.00	56.00	50.00	43.00	37.00	36.00	32.00	36.00	25.00	33.00	30.00	28.00	25.00	24.00	29.00	27.00	27.00	32.00	37.00	35.00	31.00	44.00	79.00	66.00	60.00	66.00	76.00	87.00	58.00	52.00	56.00	60.00	68.00	77.00	89.00	80.00	77.00	87.00	79.00	81.00	70.00	63.00	55.00	45.00	40.00	36.00	31.00	31.00	38.00	40.00	36.00	42.00	39.00	40.00	41.00	40.00	46.00	57.00	67.00	60.00	56.00	54.00	56.00	62.00	69.00	63.00	57.00	57.00	56.00	54.00	59.00	61.00	57.00	59.00	60.00	61.00	68.00	60.00	51.00	53.00	56.00	46.00	52.00	47.00	45.00	44.00	39.00	40.00	45.00	44.00	41.00	39.00	32.00	36.00	40.00	33.00	38.00	52.00	35.00	35.00	56.00	55.00	43.00	43.00	48.00	43.00	42.00	41.00	40.00
56.00	55.00	67.00	61.00	61.00	58.00	51.00	61.00	55.00	60.00	48.00	44.00	42.00	48.00	55.00	43.00	40.00	41.00	45.00	51.00	49.00	56.00	77.00	74.00	81.00	93.00	99.00	143.00	113.00	90.00	75.00	79.00	77.00	86.00	75.00	74.00	68.00	66.00	65.00	76.00	79.00	78.00	80.00	76.00	70.00	49.00	45.00	40.00	34.00	42.00	29.00	33.00	32.00	26.00	23.00	27.00	22.00	20.00	25.00	24.00	20.00	24.00	27.00	29.00	25.00	26.00	28.00	29.00	35.00	40.00	31.00	22.00	28.00	30.00	25.00	27.00	38.00	33.00	44.00	37.00	24.00	26.00	44.00	48.00	51.00	61.00	54.00	54.00	64.00	67.00	71.00	63.00	64.00	63.00	54.00	54.00	51.00	55.00	53.00	53.00	52.00	58.00	70.00	73.00	74.00	67.00	87.00	84.00	240.00	268.00	272.00	259.00	128.00	104.00	145.00	173.00	165.00	143.00	103.00	160.00	167.00	78.00	71.00	65.00	68.00	58.00	87.00	71.00	56.00	54.00	44.00	48.00	56.00	52.00	56.00	55.00	64.00	70.00	61.00	63.00	61.00	60.00	60.00	61.00	47.00	47.00	56.00	52.00	45.00	41.00	40.00	33.00	27.00	32.00	28.00	21.00	23.00	32.00	28.00	28.00	22.00	25.00	24.00	23.00	40.00	39.00	41.00	47.00	58.00	63.00	57.00	59.00	63.00	68.00	70.00	57.00	59.00	64.00	77.00	101.00	97.00	75.00	101.00	85.00	73.00	79.00	73.00	67.00	65.00	47.00	42.00	40.00	40.00	40.00	43.00	38.00	41.00	46.00	44.00	42.00	41.00	45.00	39.00	53.00	60.00	64.00	60.00	55.00	53.00	57.00	60.00	67.00	52.00	50.00	49.00	51.00	50.00	59.00	53.00	55.00	60.00	65.00	68.00	74.00	58.00	57.00	60.00	55.00	48.00	51.00	50.00	43.00	43.00	39.00	39.00	40.00	35.00	35.00	40.00	37.00	41.00	41.00	44.00	43.00	50.00	39.00	41.00	63.00	62.00	49.00	45.00	52.00	51.00	45.00	52.00	46.00
49.00	51.00	57.00	58.00	54.00	51.00	56.00	64.00	57.00	50.00	36.00	35.00	39.00	54.00	64.00	54.00	41.00	42.00	52.00	53.00	52.00	54.00	71.00	82.00	94.00	98.00	107.00	140.00	113.00	98.00	88.00	92.00	68.00	66.00	67.00	73.00	71.00	74.00	79.00	86.00	90.00	88.00	92.00	84.00	75.00	49.00	43.00	38.00	34.00	40.00	31.00	30.00	27.00	31.00	27.00	28.00	24.00	26.00	22.00	23.00	17.00	26.00	22.00	20.00	16.00	23.00	26.00	26.00	30.00	34.00	26.00	20.00	26.00	34.00	35.00	42.00	41.00	45.00	56.00	36.00	21.00	32.00	66.00	63.00	52.00	48.00	46.00	50.00	60.00	74.00	70.00	68.00	56.00	61.00	59.00	60.00	60.00	52.00	56.00	54.00	59.00	71.00	63.00	76.00	73.00	75.00	84.00	116.00	223.00	218.00	224.00	236.00	156.00	92.00	162.00	237.00	247.00	149.00	120.00	105.00	135.00	67.00	67.00	59.00	61.00	52.00	70.00	65.00	59.00	53.00	51.00	56.00	50.00	57.00	62.00	58.00	56.00	69.00	55.00	58.00	71.00	62.00	51.00	53.00	55.00	47.00	40.00	34.00	44.00	37.00	35.00	37.00	31.00	35.00	25.00	29.00	26.00	28.00	25.00	32.00	24.00	28.00	29.00	34.00	41.00	42.00	72.00	87.00	73.00	61.00	50.00	58.00	64.00	64.00	66.00	71.00	79.00	86.00	148.00	111.00	80.00	57.00	70.00	72.00	76.00	75.00	74.00	66.00	51.00	52.00	51.00	43.00	37.00	36.00	42.00	39.00	35.00	46.00	46.00	38.00	40.00	42.00	50.00	55.00	59.00	62.00	60.00	54.00	59.00	58.00	60.00	58.00	44.00	46.00	45.00	47.00	49.00	59.00	48.00	57.00	62.00	63.00	67.00	74.00	66.00	60.00	56.00	55.00	57.00	57.00	48.00	46.00	51.00	41.00	42.00	37.00	38.00	40.00	42.00	37.00	44.00	40.00	59.00	61.00	48.00	41.00	46.00	61.00	61.00	59.00	50.00	58.00	62.00	56.00	57.00	49.00
57.00	46.00	50.00	58.00	45.00	54.00	57.00	62.00	51.00	44.00	54.00	59.00	58.00	62.00	72.00	70.00	49.00	55.00	61.00	64.00	61.00	62.00	73.00	101.00	101.00	113.00	137.00	153.00	135.00	100.00	119.00	105.00	88.00	87.00	82.00	97.00	79.00	83.00	84.00	91.00	88.00	94.00	86.00	75.00	57.00	46.00	57.00	52.00	40.00	31.00	36.00	23.00	26.00	26.00	26.00	27.00	21.00	24.00	20.00	17.00	16.00	18.00	23.00	18.00	19.00	20.00	25.00	21.00	22.00	24.00	26.00	28.00	27.00	30.00	32.00	26.00	54.00	50.00	59.00	40.00	38.00	41.00	37.00	36.00	38.00	53.00	51.00	51.00	50.00	51.00	84.00	72.00	66.00	66.00	65.00	63.00	77.00	62.00	63.00	65.00	74.00	91.00	86.00	98.00	92.00	92.00	88.00	106.00	275.00	219.00	227.00	195.00	154.00	76.00	95.00	173.00	226.00	146.00	144.00	100.00	83.00	80.00	68.00	85.00	72.00	72.00	66.00	48.00	64.00	48.00	45.00	57.00	63.00	60.00	77.00	67.00	74.00	67.00	62.00	64.00	64.00	59.00	50.00	45.00	52.00	45.00	46.00	29.00	30.00	34.00	48.00	45.00	35.00	35.00	27.00	34.00	32.00	22.00	21.00	21.00	23.00	26.00	38.00	34.00	33.00	47.00	63.00	62.00	47.00	64.00	64.00	56.00	64.00	85.00	99.00	83.00	70.00	56.00	48.00	44.00	41.00	41.00	43.00	50.00	52.00	50.00	54.00	64.00	63.00	50.00	46.00	51.00	43.00	38.00	34.00	35.00	37.00	39.00	45.00	44.00	50.00	52.00	55.00	52.00	51.00	53.00	43.00	48.00	52.00	50.00	43.00	38.00	39.00	43.00	41.00	42.00	42.00	45.00	48.00	59.00	62.00	66.00	70.00	66.00	73.00	70.00	70.00	78.00	91.00	57.00	54.00	59.00	54.00	51.00	44.00	42.00	41.00	38.00	48.00	51.00	45.00	41.00	56.00	56.00	54.00	53.00	57.00	61.00	55.00	61.00	62.00	57.00	64.00	57.00	57.00	58.00
56.00	46.00	47.00	49.00	43.00	58.00	51.00	53.00	44.00	42.00	52.00	57.00	58.00	62.00	68.00	67.00	68.00	63.00	74.00	69.00	71.00	67.00	105.00	110.00	104.00	108.00	112.00	129.00	136.00	129.00	133.00	118.00	97.00	96.00	86.00	98.00	84.00	83.00	91.00	98.00	81.00	86.00	85.00	82.00	70.00	72.00	89.00	45.00	38.00	39.00	31.00	23.00	24.00	24.00	23.00	34.00	22.00	22.00	21.00	18.00	15.00	21.00	19.00	22.00	24.00	24.00	22.00	18.00	17.00	22.00	25.00	27.00	22.00	25.00	24.00	22.00	47.00	45.00	60.00	68.00	58.00	39.00	30.00	34.00	40.00	54.00	52.00	48.00	53.00	59.00	63.00	73.00	65.00	64.00	71.00	66.00	77.00	74.00	74.00	80.00	74.00	133.00	134.00	94.00	105.00	109.00	110.00	88.00	254.00	238.00	271.00	243.00	126.00	70.00	83.00	105.00	173.00	146.00	155.00	132.00	78.00	72.00	71.00	100.00	89.00	77.00	69.00	53.00	71.00	59.00	46.00	55.00	68.00	59.00	78.00	70.00	73.00	73.00	68.00	70.00	62.00	53.00	52.00	53.00	60.00	46.00	41.00	35.00	29.00	32.00	59.00	41.00	36.00	35.00	33.00	37.00	39.00	24.00	23.00	20.00	21.00	24.00	39.00	41.00	30.00	33.00	59.00	57.00	53.00	55.00	53.00	56.00	69.00	69.00	67.00	83.00	56.00	42.00	38.00	41.00	43.00	46.00	47.00	46.00	43.00	48.00	52.00	57.00	48.00	49.00	44.00	42.00	38.00	40.00	32.00	38.00	40.00	47.00	49.00	54.00	57.00	56.00	55.00	52.00	47.00	42.00	42.00	42.00	44.00	45.00	43.00	40.00	42.00	40.00	40.00	42.00	47.00	49.00	52.00	52.00	67.00	71.00	70.00	62.00	65.00	68.00	73.00	78.00	83.00	65.00	63.00	60.00	55.00	48.00	45.00	43.00	38.00	39.00	42.00	38.00	40.00	41.00	47.00	51.00	51.00	53.00	57.00	66.00	56.00	56.00	58.00	57.00	65.00	56.00	51.00	49.00
45.00	38.00	39.00	43.00	52.00	61.00	48.00	43.00	42.00	62.00	54.00	46.00	55.00	60.00	69.00	64.00	66.00	64.00	81.00	79.00	77.00	82.00	115.00	100.00	100.00	104.00	101.00	115.00	126.00	135.00	122.00	106.00	113.00	98.00	95.00	107.00	85.00	83.00	90.00	94.00	86.00	78.00	79.00	82.00	75.00	56.00	49.00	45.00	47.00	44.00	40.00	30.00	28.00	29.00	19.00	25.00	15.00	20.00	22.00	20.00	15.00	19.00	24.00	21.00	22.00	24.00	27.00	17.00	19.00	24.00	23.00	25.00	26.00	26.00	26.00	20.00	41.00	36.00	48.00	57.00	58.00	41.00	32.00	35.00	57.00	57.00	46.00	50.00	55.00	73.00	84.00	79.00	64.00	61.00	71.00	62.00	74.00	146.00	96.00	80.00	72.00	106.00	129.00	89.00	112.00	125.00	129.00	130.00	246.00	247.00	286.00	255.00	166.00	65.00	67.00	79.00	127.00	87.00	104.00	121.00	82.00	65.00	96.00	78.00	69.00	68.00	82.00	57.00	90.00	60.00	51.00	49.00	51.00	56.00	61.00	80.00	75.00	86.00	83.00	61.00	63.00	59.00	49.00	62.00	59.00	47.00	43.00	40.00	29.00	28.00	31.00	34.00	37.00	38.00	31.00	33.00	28.00	26.00	25.00	36.00	33.00	28.00	42.00	38.00	34.00	32.00	59.00	56.00	57.00	61.00	70.00	72.00	75.00	59.00	53.00	56.00	40.00	43.00	41.00	46.00	41.00	48.00	40.00	39.00	41.00	45.00	68.00	56.00	61.00	51.00	46.00	40.00	36.00	34.00	35.00	36.00	45.00	47.00	47.00	50.00	55.00	56.00	50.00	46.00	44.00	44.00	48.00	51.00	45.00	48.00	44.00	36.00	41.00	39.00	40.00	42.00	44.00	56.00	59.00	58.00	61.00	75.00	76.00	61.00	72.00	76.00	79.00	79.00	83.00	69.00	65.00	62.00	56.00	52.00	49.00	42.00	43.00	40.00	51.00	36.00	40.00	43.00	43.00	49.00	49.00	52.00	52.00	64.00	54.00	59.00	55.00	55.00	61.00	50.00	49.00	47.00
37.00	38.00	45.00	51.00	48.00	54.00	43.00	38.00	41.00	43.00	47.00	46.00	49.00	59.00	64.00	57.00	59.00	55.00	79.00	91.00	98.00	115.00	101.00	123.00	129.00	94.00	100.00	108.00	122.00	116.00	92.00	82.00	121.00	96.00	89.00	84.00	89.00	94.00	81.00	84.00	83.00	68.00	78.00	74.00	66.00	51.00	49.00	48.00	43.00	50.00	32.00	27.00	31.00	28.00	35.00	38.00	21.00	18.00	22.00	19.00	14.00	13.00	16.00	15.00	15.00	18.00	18.00	18.00	20.00	21.00	19.00	22.00	24.00	22.00	24.00	27.00	23.00	24.00	29.00	32.00	25.00	46.00	31.00	22.00	23.00	26.00	28.00	39.00	51.00	65.00	71.00	122.00	86.00	68.00	81.00	65.00	66.00	183.00	193.00	93.00	80.00	84.00	111.00	101.00	158.00	131.00	195.00	200.00	281.00	260.00	244.00	175.00	159.00	66.00	69.00	65.00	59.00	56.00	72.00	77.00	77.00	62.00	72.00	65.00	72.00	66.00	76.00	72.00	73.00	78.00	44.00	39.00	42.00	45.00	49.00	62.00	71.00	69.00	87.00	93.00	70.00	53.00	55.00	65.00	46.00	37.00	44.00	50.00	38.00	32.00	30.00	31.00	22.00	26.00	32.00	27.00	25.00	33.00	44.00	43.00	51.00	44.00	52.00	71.00	71.00	70.00	54.00	56.00	66.00	71.00	68.00	63.00	56.00	64.00	47.00	36.00	35.00	34.00	33.00	37.00	37.00	41.00	45.00	42.00	46.00	45.00	45.00	38.00	42.00	51.00	43.00	44.00	44.00	32.00	36.00	40.00	44.00	44.00	47.00	50.00	49.00	37.00	44.00	46.00	47.00	51.00	49.00	49.00	39.00	47.00	47.00	44.00	39.00	39.00	39.00	54.00	52.00	58.00	58.00	63.00	69.00	81.00	75.00	68.00	66.00	66.00	71.00	79.00	72.00	87.00	85.00	85.00	67.00	51.00	48.00	46.00	46.00	44.00	44.00	34.00	34.00	36.00	41.00	47.00	42.00	37.00	47.00	66.00	64.00	57.00	56.00	45.00	41.00	38.00	36.00	34.00
43.00	33.00	45.00	50.00	43.00	32.00	37.00	36.00	36.00	44.00	39.00	44.00	48.00	57.00	61.00	52.00	52.00	51.00	86.00	89.00	81.00	77.00	86.00	109.00	104.00	90.00	103.00	95.00	94.00	134.00	87.00	101.00	85.00	76.00	68.00	83.00	87.00	90.00	86.00	82.00	70.00	69.00	68.00	67.00	75.00	62.00	90.00	84.00	36.00	43.00	60.00	35.00	33.00	30.00	29.00	25.00	26.00	24.00	23.00	22.00	18.00	17.00	13.00	18.00	18.00	15.00	19.00	17.00	21.00	20.00	21.00	24.00	40.00	30.00	23.00	22.00	25.00	38.00	40.00	38.00	23.00	71.00	54.00	33.00	24.00	27.00	48.00	44.00	84.00	156.00	83.00	105.00	73.00	60.00	76.00	79.00	70.00	74.00	91.00	96.00	91.00	90.00	98.00	116.00	180.00	152.00	189.00	147.00	228.00	249.00	236.00	233.00	133.00	80.00	63.00	72.00	59.00	57.00	72.00	79.00	77.00	59.00	77.00	65.00	108.00	114.00	55.00	62.00	50.00	47.00	48.00	42.00	35.00	29.00	41.00	49.00	50.00	47.00	56.00	69.00	75.00	72.00	67.00	63.00	47.00	31.00	49.00	30.00	33.00	33.00	27.00	22.00	23.00	21.00	24.00	29.00	39.00	38.00	33.00	39.00	27.00	30.00	33.00	37.00	35.00	39.00	47.00	46.00	54.00	84.00	85.00	43.00	30.00	30.00	33.00	36.00	33.00	38.00	37.00	46.00	40.00	49.00	55.00	47.00	43.00	47.00	49.00	47.00	50.00	39.00	41.00	40.00	42.00	40.00	33.00	34.00	38.00	44.00	46.00	46.00	42.00	42.00	45.00	47.00	49.00	50.00	50.00	48.00	38.00	40.00	45.00	51.00	43.00	42.00	51.00	47.00	55.00	60.00	65.00	70.00	72.00	77.00	78.00	72.00	66.00	72.00	73.00	75.00	65.00	81.00	79.00	74.00	59.00	49.00	47.00	40.00	37.00	38.00	33.00	34.00	39.00	41.00	41.00	45.00	45.00	43.00	48.00	57.00	56.00	49.00	46.00	46.00	43.00	47.00	42.00	41.00
36.00	32.00	42.00	48.00	43.00	34.00	37.00	34.00	31.00	44.00	42.00	43.00	48.00	74.00	59.00	48.00	58.00	60.00	89.00	90.00	69.00	73.00	77.00	84.00	102.00	94.00	131.00	90.00	95.00	100.00	80.00	101.00	79.00	70.00	74.00	75.00	88.00	86.00	86.00	93.00	77.00	66.00	71.00	70.00	77.00	59.00	65.00	51.00	33.00	27.00	41.00	33.00	34.00	31.00	27.00	32.00	29.00	30.00	26.00	21.00	21.00	16.00	18.00	18.00	17.00	15.00	15.00	16.00	22.00	21.00	24.00	28.00	35.00	38.00	30.00	31.00	24.00	32.00	38.00	29.00	23.00	44.00	50.00	36.00	26.00	41.00	56.00	48.00	76.00	105.00	76.00	91.00	72.00	64.00	72.00	81.00	85.00	84.00	88.00	90.00	104.00	114.00	140.00	195.00	206.00	227.00	192.00	141.00	210.00	215.00	170.00	209.00	159.00	88.00	70.00	81.00	72.00	60.00	55.00	76.00	62.00	56.00	67.00	72.00	62.00	92.00	52.00	53.00	48.00	44.00	44.00	41.00	36.00	33.00	37.00	40.00	46.00	54.00	52.00	55.00	67.00	61.00	56.00	50.00	29.00	29.00	31.00	26.00	32.00	29.00	22.00	17.00	19.00	19.00	20.00	24.00	30.00	24.00	21.00	24.00	27.00	26.00	51.00	48.00	36.00	33.00	39.00	52.00	67.00	62.00	48.00	29.00	31.00	32.00	32.00	39.00	40.00	38.00	41.00	46.00	48.00	54.00	50.00	46.00	47.00	49.00	43.00	50.00	39.00	42.00	40.00	41.00	43.00	35.00	32.00	32.00	37.00	47.00	46.00	40.00	38.00	39.00	47.00	48.00	50.00	50.00	52.00	55.00	41.00	38.00	42.00	55.00	48.00	46.00	46.00	55.00	48.00	57.00	59.00	65.00	76.00	80.00	79.00	78.00	66.00	71.00	74.00	68.00	62.00	75.00	75.00	71.00	58.00	49.00	46.00	45.00	42.00	43.00	38.00	35.00	41.00	46.00	43.00	51.00	44.00	49.00	51.00	59.00	57.00	47.00	45.00	51.00	51.00	54.00	44.00	46.00
47.00	31.00	44.00	39.00	41.00	34.00	34.00	34.00	35.00	44.00	51.00	50.00	54.00	61.00	53.00	43.00	51.00	60.00	72.00	80.00	72.00	71.00	68.00	65.00	74.00	87.00	96.00	88.00	88.00	78.00	73.00	83.00	68.00	66.00	81.00	85.00	88.00	85.00	80.00	82.00	86.00	63.00	77.00	73.00	66.00	63.00	60.00	66.00	43.00	26.00	38.00	37.00	37.00	38.00	34.00	35.00	34.00	38.00	22.00	23.00	28.00	35.00	26.00	16.00	18.00	15.00	14.00	14.00	19.00	19.00	22.00	21.00	20.00	36.00	32.00	41.00	28.00	45.00	45.00	35.00	31.00	26.00	28.00	32.00	26.00	41.00	53.00	52.00	70.00	82.00	75.00	81.00	72.00	67.00	85.00	82.00	84.00	77.00	89.00	88.00	110.00	133.00	101.00	311.00	291.00	252.00	192.00	139.00	136.00	183.00	175.00	176.00	164.00	100.00	83.00	69.00	66.00	83.00	62.00	53.00	49.00	55.00	63.00	93.00	62.00	67.00	51.00	48.00	46.00	44.00	39.00	43.00	36.00	30.00	44.00	41.00	46.00	51.00	48.00	52.00	60.00	55.00	55.00	42.00	30.00	30.00	30.00	28.00	30.00	20.00	22.00	21.00	22.00	23.00	23.00	21.00	23.00	20.00	20.00	29.00	24.00	26.00	30.00	28.00	27.00	29.00	46.00	54.00	46.00	46.00	39.00	32.00	32.00	32.00	35.00	38.00	51.00	50.00	55.00	45.00	52.00	51.00	43.00	41.00	46.00	41.00	41.00	41.00	39.00	39.00	41.00	44.00	46.00	29.00	33.00	33.00	38.00	41.00	41.00	39.00	42.00	41.00	47.00	52.00	54.00	53.00	55.00	48.00	42.00	39.00	43.00	59.00	55.00	58.00	52.00	56.00	54.00	52.00	64.00	69.00	75.00	82.00	76.00	75.00	72.00	71.00	67.00	69.00	60.00	62.00	64.00	67.00	66.00	61.00	60.00	50.00	48.00	46.00	41.00	35.00	44.00	49.00	50.00	52.00	51.00	55.00	55.00	59.00	57.00	45.00	48.00	50.00	46.00	55.00	52.00	42.00
54.00	34.00	42.00	39.00	38.00	37.00	34.00	37.00	36.00	38.00	39.00	44.00	53.00	68.00	45.00	54.00	54.00	53.00	63.00	68.00	67.00	86.00	65.00	64.00	70.00	76.00	77.00	86.00	88.00	73.00	66.00	68.00	59.00	80.00	105.00	82.00	80.00	82.00	78.00	75.00	82.00	70.00	67.00	72.00	64.00	62.00	49.00	56.00	63.00	35.00	36.00	38.00	41.00	35.00	31.00	33.00	35.00	26.00	25.00	28.00	28.00	31.00	34.00	17.00	13.00	13.00	16.00	16.00	18.00	18.00	18.00	27.00	25.00	25.00	33.00	34.00	24.00	38.00	28.00	45.00	37.00	23.00	25.00	29.00	28.00	40.00	49.00	54.00	80.00	93.00	76.00	75.00	75.00	68.00	88.00	82.00	88.00	76.00	70.00	92.00	81.00	93.00	93.00	246.00	357.00	325.00	244.00	179.00	129.00	114.00	121.00	164.00	141.00	125.00	102.00	89.00	58.00	70.00	68.00	72.00	58.00	54.00	49.00	65.00	57.00	53.00	50.00	40.00	41.00	41.00	51.00	43.00	42.00	30.00	37.00	37.00	39.00	44.00	45.00	44.00	45.00	43.00	50.00	62.00	26.00	25.00	30.00	25.00	20.00	21.00	23.00	22.00	20.00	25.00	20.00	21.00	23.00	27.00	39.00	26.00	27.00	28.00	26.00	25.00	24.00	29.00	42.00	41.00	35.00	39.00	33.00	30.00	32.00	32.00	33.00	38.00	48.00	61.00	59.00	54.00	49.00	43.00	41.00	41.00	44.00	40.00	35.00	38.00	42.00	38.00	37.00	40.00	41.00	27.00	31.00	34.00	36.00	36.00	38.00	43.00	43.00	46.00	49.00	52.00	56.00	55.00	49.00	48.00	50.00	39.00	42.00	60.00	57.00	64.00	54.00	48.00	54.00	59.00	68.00	66.00	71.00	81.00	74.00	69.00	59.00	62.00	64.00	65.00	64.00	68.00	73.00	77.00	75.00	70.00	61.00	63.00	47.00	41.00	35.00	36.00	46.00	51.00	48.00	49.00	57.00	60.00	54.00	62.00	67.00	54.00	47.00	55.00	52.00	59.00	54.00	48.00
46.00	32.00	37.00	33.00	31.00	43.00	49.00	40.00	38.00	48.00	47.00	46.00	45.00	44.00	43.00	49.00	54.00	63.00	83.00	81.00	75.00	66.00	61.00	65.00	68.00	78.00	83.00	74.00	88.00	86.00	79.00	74.00	62.00	66.00	74.00	85.00	72.00	77.00	74.00	71.00	79.00	71.00	64.00	56.00	53.00	62.00	67.00	60.00	58.00	42.00	38.00	37.00	32.00	38.00	29.00	24.00	21.00	22.00	20.00	21.00	28.00	29.00	20.00	19.00	23.00	22.00	22.00	16.00	20.00	21.00	21.00	27.00	28.00	24.00	18.00	17.00	22.00	24.00	34.00	43.00	26.00	24.00	22.00	25.00	29.00	35.00	40.00	50.00	64.00	75.00	70.00	66.00	81.00	78.00	100.00	135.00	121.00	75.00	71.00	75.00	69.00	66.00	67.00	190.00	306.00	376.00	260.00	172.00	167.00	148.00	84.00	72.00	63.00	69.00	71.00	60.00	70.00	54.00	84.00	77.00	76.00	66.00	48.00	54.00	58.00	56.00	47.00	43.00	44.00	42.00	35.00	34.00	25.00	23.00	31.00	33.00	33.00	29.00	36.00	37.00	38.00	46.00	59.00	88.00	31.00	24.00	20.00	26.00	30.00	22.00	21.00	19.00	16.00	20.00	31.00	25.00	28.00	23.00	27.00	21.00	21.00	24.00	30.00	30.00	28.00	32.00	37.00	37.00	39.00	31.00	32.00	33.00	33.00	31.00	32.00	44.00	53.00	52.00	51.00	50.00	40.00	41.00	39.00	37.00	35.00	33.00	38.00	42.00	38.00	36.00	36.00	30.00	31.00	38.00	47.00	50.00	43.00	42.00	43.00	44.00	44.00	37.00	40.00	38.00	42.00	40.00	46.00	51.00	51.00	53.00	57.00	68.00	62.00	62.00	68.00	60.00	60.00	59.00	66.00	61.00	71.00	75.00	66.00	66.00	55.00	56.00	62.00	64.00	63.00	79.00	86.00	89.00	92.00	77.00	79.00	72.00	68.00	65.00	36.00	37.00	42.00	50.00	47.00	48.00	56.00	59.00	58.00	59.00	60.00	56.00	53.00	53.00	49.00	44.00	47.00	45.00
39.00	35.00	31.00	28.00	38.00	53.00	48.00	45.00	40.00	44.00	46.00	53.00	48.00	52.00	50.00	67.00	89.00	102.00	65.00	66.00	62.00	59.00	63.00	56.00	59.00	80.00	74.00	81.00	95.00	81.00	68.00	68.00	58.00	71.00	78.00	80.00	70.00	79.00	74.00	64.00	68.00	73.00	70.00	69.00	46.00	61.00	61.00	47.00	48.00	48.00	45.00	47.00	40.00	38.00	31.00	32.00	31.00	30.00	27.00	27.00	30.00	27.00	23.00	23.00	19.00	21.00	17.00	19.00	21.00	26.00	25.00	19.00	25.00	20.00	22.00	20.00	36.00	34.00	63.00	38.00	27.00	25.00	24.00	27.00	28.00	37.00	40.00	50.00	59.00	65.00	80.00	68.00	76.00	74.00	117.00	101.00	77.00	74.00	74.00	86.00	110.00	80.00	64.00	161.00	198.00	269.00	244.00	191.00	182.00	207.00	184.00	136.00	92.00	63.00	55.00	48.00	54.00	51.00	75.00	77.00	67.00	67.00	50.00	47.00	56.00	51.00	49.00	49.00	37.00	39.00	30.00	25.00	22.00	25.00	36.00	27.00	33.00	35.00	27.00	37.00	39.00	40.00	50.00	83.00	28.00	23.00	23.00	26.00	24.00	21.00	20.00	18.00	21.00	33.00	38.00	30.00	22.00	22.00	25.00	22.00	25.00	25.00	24.00	26.00	27.00	33.00	39.00	35.00	37.00	29.00	29.00	36.00	35.00	33.00	33.00	44.00	45.00	46.00	54.00	57.00	45.00	42.00	41.00	39.00	36.00	33.00	36.00	46.00	42.00	37.00	29.00	30.00	33.00	41.00	44.00	48.00	52.00	38.00	45.00	48.00	46.00	43.00	36.00	40.00	42.00	43.00	45.00	46.00	41.00	47.00	53.00	76.00	77.00	69.00	66.00	65.00	67.00	64.00	59.00	59.00	66.00	76.00	66.00	54.00	56.00	56.00	59.00	60.00	62.00	71.00	81.00	90.00	92.00	86.00	65.00	61.00	62.00	57.00	47.00	47.00	52.00	47.00	56.00	52.00	60.00	61.00	62.00	63.00	63.00	58.00	49.00	49.00	42.00	40.00	42.00	43.00
34.00	31.00	28.00	37.00	47.00	49.00	42.00	42.00	45.00	44.00	44.00	52.00	52.00	55.00	58.00	105.00	105.00	84.00	61.00	62.00	60.00	60.00	61.00	59.00	50.00	63.00	73.00	80.00	93.00	74.00	65.00	70.00	66.00	83.00	81.00	71.00	64.00	75.00	68.00	62.00	64.00	77.00	75.00	63.00	54.00	54.00	62.00	52.00	44.00	46.00	45.00	44.00	45.00	39.00	36.00	40.00	37.00	35.00	31.00	29.00	31.00	32.00	32.00	26.00	19.00	21.00	22.00	21.00	26.00	27.00	23.00	27.00	25.00	23.00	22.00	24.00	52.00	34.00	59.00	34.00	27.00	29.00	28.00	27.00	26.00	35.00	37.00	47.00	64.00	73.00	82.00	69.00	74.00	72.00	98.00	100.00	92.00	64.00	66.00	86.00	126.00	89.00	65.00	112.00	142.00	219.00	268.00	211.00	152.00	153.00	219.00	226.00	183.00	135.00	119.00	64.00	62.00	44.00	54.00	65.00	59.00	59.00	52.00	45.00	50.00	44.00	45.00	40.00	32.00	35.00	34.00	27.00	24.00	27.00	31.00	26.00	36.00	38.00	38.00	37.00	35.00	36.00	53.00	53.00	35.00	30.00	23.00	23.00	24.00	20.00	18.00	23.00	30.00	40.00	51.00	34.00	31.00	24.00	23.00	22.00	22.00	24.00	25.00	24.00	23.00	31.00	39.00	44.00	42.00	32.00	29.00	33.00	34.00	34.00	36.00	46.00	48.00	44.00	45.00	51.00	46.00	46.00	45.00	40.00	42.00	42.00	35.00	40.00	47.00	29.00	30.00	30.00	35.00	43.00	41.00	45.00	43.00	38.00	48.00	44.00	53.00	44.00	39.00	47.00	44.00	33.00	35.00	39.00	42.00	41.00	46.00	63.00	70.00	75.00	67.00	70.00	71.00	69.00	57.00	54.00	62.00	61.00	54.00	47.00	56.00	58.00	58.00	59.00	58.00	71.00	75.00	84.00	80.00	86.00	63.00	54.00	56.00	57.00	49.00	51.00	50.00	50.00	62.00	60.00	63.00	64.00	63.00	61.00	60.00	52.00	45.00	52.00	47.00	46.00	48.00	44.00
37.00	30.00	31.00	38.00	43.00	40.00	41.00	34.00	44.00	43.00	49.00	49.00	50.00	52.00	79.00	110.00	106.00	111.00	54.00	52.00	59.00	65.00	67.00	65.00	54.00	63.00	80.00	94.00	84.00	100.00	62.00	61.00	68.00	54.00	67.00	69.00	65.00	74.00	65.00	62.00	66.00	74.00	82.00	72.00	72.00	49.00	57.00	48.00	45.00	48.00	43.00	42.00	45.00	40.00	40.00	47.00	43.00	34.00	33.00	26.00	33.00	33.00	32.00	30.00	26.00	24.00	22.00	18.00	16.00	22.00	21.00	27.00	25.00	24.00	33.00	31.00	37.00	37.00	44.00	34.00	30.00	43.00	42.00	38.00	35.00	35.00	49.00	47.00	52.00	66.00	69.00	72.00	60.00	69.00	90.00	113.00	87.00	74.00	82.00	56.00	88.00	91.00	66.00	66.00	129.00	227.00	280.00	231.00	121.00	127.00	209.00	227.00	237.00	185.00	160.00	89.00	63.00	76.00	47.00	70.00	62.00	44.00	46.00	37.00	44.00	37.00	38.00	26.00	30.00	32.00	33.00	27.00	24.00	27.00	27.00	29.00	36.00	30.00	36.00	35.00	36.00	37.00	54.00	50.00	35.00	24.00	26.00	25.00	23.00	21.00	16.00	19.00	36.00	25.00	39.00	38.00	29.00	19.00	19.00	20.00	20.00	21.00	27.00	28.00	24.00	31.00	43.00	43.00	40.00	34.00	33.00	31.00	35.00	37.00	36.00	47.00	47.00	45.00	47.00	47.00	47.00	44.00	44.00	38.00	31.00	38.00	34.00	32.00	32.00	32.00	29.00	32.00	36.00	39.00	41.00	40.00	43.00	42.00	50.00	54.00	53.00	47.00	45.00	50.00	32.00	30.00	33.00	36.00	49.00	53.00	51.00	61.00	68.00	67.00	65.00	71.00	73.00	63.00	52.00	58.00	56.00	51.00	42.00	47.00	57.00	61.00	65.00	59.00	60.00	64.00	66.00	71.00	67.00	63.00	62.00	55.00	54.00	53.00	56.00	53.00	51.00	51.00	64.00	63.00	65.00	65.00	61.00	58.00	54.00	48.00	52.00	65.00	55.00	48.00	53.00	51.00
34.00	35.00	36.00	34.00	35.00	31.00	38.00	45.00	52.00	54.00	58.00	53.00	61.00	64.00	101.00	73.00	59.00	53.00	56.00	60.00	60.00	79.00	84.00	84.00	80.00	54.00	69.00	78.00	80.00	80.00	70.00	45.00	44.00	42.00	53.00	55.00	51.00	60.00	62.00	46.00	60.00	60.00	62.00	57.00	55.00	44.00	44.00	35.00	43.00	42.00	41.00	38.00	36.00	34.00	33.00	34.00	38.00	34.00	29.00	27.00	25.00	25.00	27.00	33.00	36.00	33.00	32.00	23.00	20.00	28.00	27.00	25.00	27.00	20.00	17.00	25.00	24.00	25.00	36.00	61.00	47.00	90.00	43.00	46.00	78.00	65.00	83.00	89.00	49.00	36.00	75.00	84.00	59.00	68.00	73.00	102.00	125.00	104.00	114.00	76.00	69.00	69.00	90.00	86.00	102.00	158.00	172.00	254.00	134.00	79.00	107.00	115.00	137.00	220.00	140.00	78.00	64.00	48.00	45.00	31.00	29.00	35.00	28.00	30.00	39.00	28.00	26.00	24.00	22.00	26.00	32.00	27.00	21.00	22.00	25.00	28.00	26.00	31.00	33.00	36.00	39.00	37.00	38.00	37.00	27.00	23.00	30.00	24.00	28.00	27.00	27.00	29.00	27.00	22.00	21.00	21.00	23.00	18.00	18.00	18.00	19.00	22.00	22.00	31.00	31.00	36.00	48.00	49.00	46.00	47.00	36.00	36.00	37.00	39.00	43.00	46.00	48.00	48.00	52.00	52.00	51.00	43.00	40.00	40.00	38.00	34.00	42.00	33.00	33.00	33.00	34.00	31.00	38.00	41.00	43.00	41.00	46.00	61.00	63.00	60.00	54.00	52.00	50.00	52.00	48.00	38.00	38.00	49.00	51.00	57.00	56.00	57.00	72.00	70.00	53.00	60.00	62.00	58.00	45.00	48.00	64.00	46.00	44.00	42.00	50.00	57.00	52.00	54.00	55.00	59.00	61.00	61.00	61.00	54.00	52.00	53.00	51.00	52.00	62.00	57.00	61.00	56.00	67.00	67.00	61.00	59.00	57.00	55.00	51.00	60.00	66.00	75.00	60.00	56.00	51.00	53.00
37.00	35.00	34.00	39.00	32.00	41.00	33.00	39.00	54.00	61.00	68.00	85.00	86.00	65.00	51.00	36.00	39.00	36.00	70.00	67.00	59.00	70.00	73.00	57.00	50.00	65.00	75.00	56.00	52.00	56.00	44.00	41.00	42.00	50.00	56.00	48.00	46.00	39.00	39.00	43.00	45.00	58.00	60.00	55.00	43.00	46.00	43.00	37.00	28.00	29.00	40.00	40.00	40.00	40.00	34.00	35.00	32.00	34.00	29.00	28.00	25.00	25.00	28.00	29.00	29.00	29.00	31.00	23.00	29.00	28.00	26.00	28.00	28.00	32.00	20.00	17.00	24.00	28.00	42.00	82.00	55.00	56.00	33.00	44.00	33.00	30.00	41.00	30.00	33.00	31.00	51.00	57.00	51.00	62.00	72.00	98.00	125.00	138.00	125.00	81.00	89.00	70.00	47.00	102.00	135.00	99.00	111.00	100.00	93.00	67.00	66.00	68.00	258.00	70.00	49.00	51.00	71.00	189.00	82.00	45.00	41.00	24.00	29.00	22.00	23.00	28.00	24.00	25.00	33.00	26.00	30.00	30.00	27.00	24.00	23.00	26.00	32.00	30.00	33.00	39.00	37.00	33.00	32.00	33.00	24.00	28.00	28.00	25.00	21.00	18.00	23.00	28.00	24.00	22.00	20.00	18.00	21.00	19.00	18.00	21.00	22.00	20.00	25.00	31.00	30.00	44.00	45.00	42.00	42.00	39.00	41.00	43.00	43.00	40.00	41.00	43.00	42.00	46.00	51.00	44.00	40.00	41.00	39.00	42.00	35.00	28.00	42.00	28.00	30.00	31.00	29.00	34.00	36.00	35.00	43.00	52.00	50.00	62.00	66.00	64.00	61.00	52.00	60.00	58.00	58.00	56.00	57.00	69.00	66.00	60.00	65.00	70.00	68.00	64.00	50.00	49.00	46.00	50.00	43.00	41.00	40.00	44.00	47.00	38.00	50.00	48.00	48.00	54.00	51.00	55.00	56.00	56.00	55.00	54.00	55.00	63.00	55.00	54.00	55.00	63.00	62.00	60.00	56.00	57.00	62.00	64.00	57.00	61.00	57.00	72.00	80.00	58.00	49.00	45.00	45.00	45.00
37.00	38.00	34.00	39.00	34.00	49.00	46.00	42.00	60.00	53.00	58.00	88.00	95.00	55.00	34.00	35.00	34.00	34.00	60.00	60.00	57.00	47.00	59.00	58.00	46.00	60.00	72.00	65.00	64.00	58.00	48.00	49.00	38.00	41.00	44.00	53.00	46.00	39.00	37.00	43.00	52.00	51.00	65.00	56.00	41.00	45.00	35.00	34.00	31.00	34.00	40.00	39.00	40.00	40.00	38.00	39.00	40.00	37.00	30.00	27.00	26.00	27.00	25.00	28.00	30.00	29.00	27.00	26.00	26.00	25.00	28.00	28.00	40.00	29.00	23.00	19.00	21.00	32.00	53.00	63.00	60.00	43.00	28.00	39.00	25.00	26.00	26.00	28.00	31.00	35.00	39.00	45.00	45.00	55.00	64.00	101.00	109.00	124.00	144.00	78.00	86.00	89.00	68.00	60.00	96.00	95.00	128.00	73.00	81.00	60.00	54.00	86.00	186.00	83.00	68.00	70.00	47.00	121.00	67.00	48.00	38.00	23.00	26.00	22.00	24.00	24.00	27.00	26.00	27.00	19.00	30.00	28.00	22.00	22.00	21.00	23.00	25.00	28.00	28.00	38.00	34.00	35.00	30.00	26.00	21.00	30.00	30.00	42.00	23.00	23.00	25.00	24.00	27.00	21.00	17.00	17.00	18.00	17.00	19.00	21.00	24.00	23.00	27.00	28.00	28.00	30.00	41.00	45.00	53.00	55.00	53.00	44.00	47.00	44.00	43.00	49.00	42.00	46.00	53.00	53.00	45.00	42.00	38.00	36.00	41.00	28.00	42.00	30.00	28.00	32.00	33.00	35.00	36.00	35.00	39.00	55.00	59.00	62.00	67.00	73.00	65.00	54.00	60.00	59.00	56.00	59.00	58.00	70.00	67.00	65.00	70.00	70.00	69.00	64.00	49.00	48.00	46.00	44.00	48.00	41.00	37.00	42.00	47.00	38.00	51.00	51.00	48.00	54.00	52.00	50.00	52.00	51.00	54.00	56.00	54.00	55.00	56.00	53.00	60.00	59.00	67.00	57.00	61.00	58.00	62.00	68.00	66.00	57.00	61.00	75.00	79.00	66.00	56.00	53.00	47.00	46.00
37.00	34.00	37.00	39.00	36.00	53.00	50.00	49.00	52.00	55.00	58.00	79.00	76.00	53.00	33.00	32.00	31.00	31.00	51.00	57.00	61.00	47.00	49.00	54.00	66.00	65.00	77.00	68.00	69.00	67.00	55.00	46.00	40.00	37.00	42.00	40.00	41.00	42.00	56.00	66.00	57.00	54.00	47.00	42.00	38.00	39.00	36.00	33.00	31.00	32.00	38.00	38.00	39.00	38.00	40.00	33.00	30.00	36.00	33.00	29.00	29.00	27.00	23.00	28.00	28.00	24.00	23.00	24.00	27.00	27.00	25.00	27.00	37.00	21.00	24.00	23.00	21.00	32.00	65.00	57.00	77.00	40.00	36.00	26.00	21.00	21.00	22.00	26.00	23.00	28.00	34.00	33.00	34.00	39.00	65.00	114.00	125.00	108.00	133.00	80.00	78.00	99.00	86.00	49.00	68.00	82.00	129.00	97.00	99.00	56.00	55.00	90.00	109.00	84.00	70.00	74.00	84.00	51.00	47.00	42.00	26.00	30.00	28.00	22.00	21.00	23.00	23.00	22.00	18.00	17.00	23.00	28.00	27.00	22.00	19.00	27.00	24.00	22.00	27.00	36.00	34.00	33.00	29.00	29.00	27.00	28.00	29.00	30.00	22.00	23.00	27.00	31.00	28.00	17.00	16.00	16.00	19.00	18.00	19.00	23.00	28.00	27.00	29.00	34.00	36.00	48.00	42.00	50.00	57.00	50.00	46.00	47.00	51.00	46.00	46.00	50.00	49.00	46.00	49.00	52.00	46.00	41.00	40.00	35.00	44.00	35.00	33.00	33.00	30.00	32.00	35.00	35.00	35.00	35.00	45.00	55.00	62.00	56.00	60.00	70.00	61.00	45.00	55.00	51.00	56.00	57.00	58.00	67.00	65.00	60.00	71.00	70.00	65.00	62.00	50.00	45.00	47.00	46.00	45.00	45.00	37.00	42.00	46.00	41.00	47.00	51.00	48.00	47.00	46.00	49.00	53.00	52.00	49.00	54.00	54.00	50.00	46.00	54.00	63.00	65.00	63.00	56.00	69.00	63.00	60.00	70.00	65.00	55.00	61.00	72.00	70.00	63.00	58.00	57.00	50.00	48.00
49.00	49.00	48.00	42.00	42.00	63.00	62.00	58.00	56.00	53.00	86.00	67.00	84.00	52.00	30.00	29.00	33.00	30.00	40.00	42.00	44.00	48.00	44.00	49.00	53.00	66.00	74.00	63.00	51.00	72.00	73.00	50.00	42.00	41.00	37.00	38.00	38.00	44.00	46.00	52.00	52.00	41.00	43.00	47.00	39.00	34.00	32.00	35.00	34.00	36.00	37.00	34.00	32.00	32.00	31.00	29.00	28.00	26.00	24.00	20.00	25.00	26.00	28.00	18.00	19.00	18.00	16.00	22.00	29.00	34.00	28.00	26.00	23.00	21.00	30.00	38.00	22.00	24.00	34.00	28.00	37.00	32.00	30.00	23.00	18.00	23.00	24.00	22.00	20.00	21.00	32.00	37.00	42.00	39.00	48.00	54.00	61.00	71.00	85.00	61.00	56.00	79.00	73.00	65.00	40.00	54.00	90.00	106.00	60.00	62.00	60.00	75.00	59.00	52.00	57.00	62.00	58.00	38.00	36.00	26.00	24.00	25.00	21.00	21.00	19.00	20.00	29.00	28.00	15.00	18.00	16.00	16.00	17.00	14.00	21.00	17.00	18.00	21.00	25.00	34.00	31.00	25.00	26.00	20.00	34.00	21.00	21.00	22.00	16.00	18.00	15.00	15.00	15.00	15.00	16.00	19.00	21.00	24.00	26.00	28.00	28.00	32.00	33.00	33.00	35.00	45.00	34.00	37.00	45.00	45.00	43.00	51.00	52.00	52.00	52.00	55.00	52.00	49.00	49.00	52.00	38.00	39.00	40.00	41.00	40.00	35.00	34.00	34.00	34.00	38.00	30.00	32.00	44.00	41.00	36.00	40.00	37.00	40.00	41.00	44.00	42.00	41.00	42.00	51.00	44.00	46.00	54.00	52.00	64.00	61.00	62.00	71.00	72.00	67.00	57.00	41.00	40.00	43.00	42.00	40.00	41.00	40.00	37.00	38.00	49.00	47.00	49.00	53.00	54.00	53.00	54.00	58.00	53.00	56.00	55.00	57.00	56.00	58.00	69.00	72.00	61.00	63.00	75.00	74.00	73.00	68.00	67.00	67.00	64.00	67.00	68.00	58.00	59.00	62.00	56.00	52.00
49.00	49.00	48.00	42.00	42.00	63.00	62.00	58.00	56.00	53.00	86.00	67.00	84.00	52.00	30.00	29.00	33.00	30.00	40.00	42.00	44.00	48.00	44.00	49.00	53.00	66.00	74.00	63.00	51.00	72.00	73.00	50.00	42.00	41.00	37.00	38.00	38.00	44.00	46.00	52.00	52.00	41.00	43.00	47.00	39.00	34.00	32.00	35.00	34.00	36.00	37.00	34.00	32.00	32.00	31.00	29.00	28.00	26.00	24.00	20.00	25.00	26.00	28.00	18.00	19.00	18.00	16.00	22.00	29.00	34.00	28.00	26.00	23.00	21.00	30.00	38.00	22.00	24.00	34.00	28.00	37.00	32.00	30.00	23.00	18.00	23.00	24.00	22.00	20.00	21.00	32.00	37.00	42.00	39.00	48.00	54.00	61.00	71.00	85.00	61.00	56.00	79.00	73.00	65.00	40.00	54.00	90.00	106.00	60.00	62.00	60.00	75.00	59.00	52.00	57.00	62.00	58.00	38.00	36.00	26.00	24.00	25.00	21.00	21.00	19.00	20.00	29.00	28.00	15.00	18.00	16.00	16.00	17.00	14.00	21.00	17.00	18.00	21.00	25.00	34.00	31.00	25.00	26.00	20.00	34.00	21.00	21.00	22.00	16.00	18.00	15.00	15.00	15.00	15.00	16.00	19.00	21.00	24.00	26.00	28.00	28.00	32.00	33.00	33.00	35.00	45.00	34.00	37.00	45.00	45.00	43.00	51.00	52.00	52.00	52.00	55.00	52.00	49.00	49.00	52.00	38.00	39.00	40.00	41.00	40.00	35.00	34.00	34.00	34.00	38.00	30.00	32.00	44.00	41.00	36.00	40.00	37.00	40.00	41.00	44.00	42.00	41.00	42.00	51.00	44.00	46.00	54.00	52.00	64.00	61.00	62.00	71.00	72.00	67.00	57.00	41.00	40.00	43.00	42.00	40.00	41.00	40.00	37.00	38.00	49.00	47.00	49.00	53.00	54.00	53.00	54.00	58.00	53.00	56.00	55.00	57.00	56.00	58.00	69.00	72.00	61.00	63.00	75.00	74.00	73.00	68.00	67.00	67.00	64.00	67.00	68.00	58.00	59.00	62.00	56.00	52.00
53.00	53.00	60.00	53.00	52.00	64.00	67.00	69.00	56.00	88.00	106.00	115.00	60.00	40.00	29.00	28.00	31.00	31.00	42.00	42.00	49.00	58.00	43.00	58.00	57.00	56.00	61.00	56.00	47.00	59.00	63.00	57.00	39.00	37.00	36.00	37.00	48.00	48.00	43.00	45.00	63.00	49.00	43.00	46.00	46.00	38.00	41.00	35.00	38.00	42.00	36.00	34.00	31.00	30.00	27.00	24.00	25.00	23.00	27.00	28.00	35.00	28.00	29.00	22.00	16.00	15.00	20.00	23.00	23.00	21.00	25.00	25.00	29.00	25.00	27.00	38.00	16.00	18.00	21.00	21.00	26.00	25.00	22.00	19.00	19.00	20.00	23.00	19.00	23.00	22.00	35.00	41.00	38.00	36.00	57.00	60.00	74.00	67.00	54.00	45.00	55.00	67.00	56.00	71.00	45.00	34.00	52.00	83.00	64.00	65.00	59.00	73.00	75.00	55.00	48.00	45.00	50.00	43.00	34.00	26.00	25.00	21.00	21.00	22.00	25.00	23.00	27.00	19.00	16.00	21.00	19.00	16.00	17.00	17.00	13.00	12.00	14.00	19.00	19.00	27.00	25.00	26.00	24.00	15.00	27.00	17.00	24.00	22.00	16.00	16.00	15.00	15.00	15.00	17.00	17.00	23.00	24.00	26.00	26.00	32.00	42.00	36.00	31.00	34.00	37.00	48.00	42.00	41.00	36.00	36.00	40.00	48.00	47.00	48.00	45.00	54.00	49.00	43.00	45.00	45.00	37.00	42.00	45.00	45.00	35.00	36.00	34.00	37.00	39.00	31.00	28.00	30.00	46.00	54.00	39.00	32.00	36.00	38.00	40.00	45.00	41.00	39.00	41.00	42.00	37.00	36.00	39.00	57.00	56.00	51.00	57.00	65.00	67.00	62.00	51.00	39.00	40.00	43.00	45.00	41.00	40.00	39.00	37.00	48.00	57.00	54.00	52.00	49.00	56.00	50.00	54.00	61.00	57.00	62.00	61.00	59.00	57.00	63.00	69.00	62.00	58.00	60.00	69.00	65.00	65.00	63.00	69.00	66.00	58.00	62.00	60.00	53.00	54.00	59.00	55.00	52.00
48.00	50.00	49.00	50.00	57.00	63.00	61.00	69.00	70.00	123.00	99.00	117.00	62.00	37.00	30.00	25.00	30.00	31.00	42.00	43.00	52.00	59.00	59.00	50.00	53.00	56.00	64.00	65.00	46.00	49.00	65.00	53.00	42.00	44.00	38.00	32.00	36.00	40.00	44.00	55.00	76.00	54.00	50.00	78.00	61.00	49.00	39.00	35.00	44.00	43.00	38.00	38.00	35.00	30.00	28.00	19.00	20.00	19.00	23.00	27.00	29.00	27.00	28.00	29.00	21.00	19.00	23.00	24.00	26.00	27.00	29.00	30.00	27.00	19.00	22.00	21.00	17.00	15.00	18.00	21.00	20.00	28.00	24.00	17.00	18.00	20.00	17.00	18.00	28.00	24.00	28.00	34.00	32.00	33.00	56.00	52.00	63.00	67.00	66.00	53.00	45.00	68.00	92.00	63.00	61.00	45.00	50.00	51.00	66.00	50.00	57.00	68.00	77.00	55.00	55.00	44.00	34.00	30.00	31.00	27.00	32.00	21.00	21.00	23.00	23.00	20.00	26.00	24.00	22.00	23.00	16.00	17.00	18.00	20.00	12.00	13.00	18.00	15.00	13.00	23.00	25.00	28.00	18.00	18.00	15.00	16.00	20.00	16.00	16.00	15.00	17.00	20.00	19.00	15.00	19.00	20.00	20.00	26.00	36.00	32.00	34.00	31.00	28.00	33.00	35.00	46.00	48.00	52.00	49.00	47.00	41.00	44.00	42.00	43.00	43.00	48.00	52.00	46.00	40.00	44.00	46.00	49.00	50.00	53.00	32.00	36.00	38.00	36.00	39.00	29.00	28.00	31.00	38.00	47.00	33.00	36.00	34.00	41.00	40.00	38.00	38.00	39.00	36.00	34.00	35.00	36.00	36.00	53.00	53.00	48.00	62.00	65.00	66.00	63.00	46.00	38.00	42.00	40.00	43.00	46.00	48.00	42.00	36.00	48.00	59.00	57.00	53.00	50.00	60.00	51.00	59.00	61.00	62.00	61.00	62.00	64.00	66.00	66.00	60.00	57.00	55.00	57.00	65.00	56.00	61.00	70.00	66.00	57.00	56.00	54.00	50.00	60.00	63.00	58.00	51.00	50.00
69.00	104.00	104.00	85.00	87.00	82.00	86.00	97.00	103.00	122.00	67.00	42.00	36.00	31.00	35.00	28.00	27.00	27.00	38.00	56.00	38.00	36.00	35.00	33.00	33.00	32.00	37.00	40.00	52.00	69.00	66.00	61.00	52.00	41.00	44.00	36.00	56.00	60.00	67.00	70.00	63.00	67.00	63.00	87.00	66.00	68.00	69.00	51.00	41.00	42.00	38.00	36.00	32.00	30.00	27.00	25.00	22.00	22.00	23.00	24.00	24.00	19.00	17.00	21.00	21.00	22.00	22.00	22.00	25.00	26.00	28.00	29.00	28.00	28.00	23.00	20.00	19.00	18.00	19.00	15.00	15.00	25.00	22.00	21.00	14.00	16.00	16.00	19.00	21.00	19.00	24.00	31.00	25.00	33.00	40.00	43.00	52.00	60.00	75.00	68.00	54.00	52.00	64.00	43.00	42.00	35.00	38.00	49.00	44.00	48.00	62.00	68.00	48.00	47.00	38.00	27.00	24.00	22.00	26.00	22.00	19.00	18.00	22.00	31.00	39.00	32.00	30.00	45.00	39.00	34.00	15.00	24.00	29.00	22.00	14.00	17.00	15.00	15.00	13.00	26.00	20.00	16.00	14.00	19.00	17.00	15.00	14.00	18.00	25.00	33.00	55.00	21.00	21.00	19.00	23.00	28.00	29.00	27.00	27.00	29.00	27.00	33.00	37.00	38.00	47.00	70.00	61.00	57.00	59.00	52.00	53.00	55.00	54.00	47.00	53.00	49.00	50.00	46.00	45.00	47.00	40.00	45.00	43.00	45.00	36.00	43.00	39.00	35.00	37.00	33.00	35.00	30.00	33.00	50.00	44.00	33.00	31.00	34.00	33.00	38.00	38.00	40.00	42.00	41.00	34.00	32.00	46.00	39.00	51.00	53.00	60.00	62.00	56.00	60.00	41.00	36.00	43.00	38.00	39.00	38.00	41.00	41.00	34.00	39.00	49.00	54.00	58.00	58.00	63.00	64.00	72.00	65.00	64.00	70.00	68.00	63.00	62.00	60.00	57.00	54.00	56.00	55.00	62.00	69.00	69.00	60.00	55.00	55.00	58.00	57.00	47.00	47.00	51.00	56.00	48.00	44.00
57.00	75.00	85.00	60.00	89.00	75.00	68.00	78.00	101.00	59.00	46.00	38.00	32.00	29.00	27.00	33.00	26.00	28.00	35.00	38.00	39.00	39.00	36.00	35.00	39.00	35.00	35.00	40.00	51.00	65.00	62.00	69.00	49.00	36.00	37.00	32.00	70.00	72.00	66.00	64.00	61.00	65.00	70.00	80.00	67.00	69.00	66.00	49.00	44.00	45.00	31.00	32.00	30.00	28.00	29.00	25.00	20.00	23.00	23.00	23.00	36.00	25.00	25.00	23.00	17.00	16.00	24.00	28.00	25.00	25.00	28.00	29.00	22.00	21.00	16.00	13.00	19.00	22.00	15.00	12.00	13.00	27.00	25.00	22.00	15.00	15.00	18.00	20.00	17.00	17.00	19.00	31.00	32.00	31.00	39.00	36.00	38.00	39.00	58.00	68.00	54.00	49.00	44.00	38.00	42.00	30.00	28.00	37.00	35.00	48.00	53.00	58.00	43.00	38.00	36.00	26.00	23.00	27.00	22.00	18.00	20.00	23.00	21.00	40.00	47.00	41.00	30.00	60.00	38.00	20.00	17.00	31.00	30.00	24.00	16.00	16.00	15.00	23.00	16.00	18.00	18.00	18.00	17.00	20.00	24.00	31.00	16.00	15.00	32.00	44.00	33.00	23.00	27.00	24.00	27.00	33.00	29.00	30.00	31.00	35.00	30.00	29.00	33.00	40.00	43.00	58.00	63.00	53.00	50.00	49.00	47.00	52.00	56.00	52.00	55.00	50.00	47.00	41.00	42.00	39.00	46.00	55.00	53.00	36.00	36.00	46.00	40.00	31.00	35.00	34.00	36.00	32.00	33.00	32.00	38.00	35.00	35.00	36.00	34.00	34.00	40.00	44.00	35.00	43.00	39.00	34.00	39.00	39.00	51.00	59.00	65.00	65.00	57.00	55.00	38.00	34.00	41.00	38.00	39.00	36.00	39.00	34.00	39.00	43.00	51.00	54.00	57.00	52.00	56.00	70.00	74.00	63.00	65.00	72.00	69.00	63.00	60.00	58.00	57.00	56.00	57.00	53.00	56.00	64.00	63.00	64.00	58.00	62.00	63.00	57.00	48.00	53.00	53.00	51.00	46.00	45.00
44.00	53.00	62.00	56.00	75.00	76.00	65.00	79.00	83.00	62.00	51.00	38.00	42.00	33.00	26.00	31.00	27.00	25.00	35.00	36.00	50.00	50.00	42.00	34.00	29.00	32.00	38.00	36.00	49.00	59.00	60.00	67.00	43.00	39.00	46.00	38.00	43.00	50.00	58.00	57.00	60.00	73.00	79.00	77.00	75.00	72.00	58.00	41.00	42.00	39.00	29.00	27.00	32.00	28.00	24.00	25.00	23.00	23.00	23.00	23.00	33.00	29.00	28.00	23.00	21.00	19.00	28.00	27.00	27.00	26.00	26.00	25.00	21.00	17.00	14.00	14.00	23.00	19.00	19.00	17.00	12.00	22.00	23.00	17.00	14.00	15.00	16.00	16.00	16.00	16.00	21.00	32.00	36.00	34.00	37.00	35.00	35.00	31.00	35.00	57.00	48.00	50.00	45.00	33.00	36.00	36.00	36.00	33.00	70.00	65.00	53.00	64.00	76.00	43.00	32.00	29.00	21.00	27.00	25.00	21.00	17.00	20.00	21.00	22.00	32.00	40.00	30.00	42.00	41.00	17.00	18.00	26.00	30.00	24.00	20.00	18.00	20.00	30.00	17.00	14.00	16.00	21.00	19.00	22.00	23.00	24.00	17.00	20.00	56.00	46.00	27.00	29.00	25.00	28.00	29.00	27.00	29.00	44.00	40.00	39.00	35.00	41.00	31.00	35.00	42.00	48.00	54.00	54.00	57.00	58.00	51.00	54.00	55.00	48.00	50.00	54.00	47.00	39.00	38.00	34.00	42.00	52.00	46.00	34.00	39.00	45.00	46.00	39.00	33.00	33.00	33.00	36.00	37.00	29.00	29.00	37.00	38.00	38.00	37.00	37.00	38.00	44.00	35.00	38.00	35.00	36.00	33.00	37.00	53.00	60.00	61.00	62.00	58.00	52.00	40.00	34.00	41.00	38.00	34.00	41.00	32.00	39.00	44.00	50.00	52.00	54.00	53.00	52.00	51.00	60.00	67.00	71.00	74.00	61.00	66.00	62.00	62.00	61.00	52.00	54.00	58.00	53.00	54.00	55.00	61.00	67.00	65.00	59.00	62.00	52.00	44.00	52.00	51.00	48.00	46.00	44.00
34.00	33.00	48.00	51.00	63.00	71.00	62.00	64.00	81.00	43.00	51.00	40.00	47.00	38.00	23.00	30.00	26.00	23.00	27.00	41.00	35.00	50.00	39.00	38.00	29.00	31.00	35.00	31.00	43.00	46.00	51.00	58.00	55.00	48.00	50.00	31.00	42.00	46.00	50.00	53.00	57.00	69.00	74.00	72.00	83.00	66.00	50.00	43.00	35.00	34.00	31.00	34.00	34.00	30.00	29.00	28.00	25.00	24.00	25.00	29.00	31.00	34.00	24.00	21.00	25.00	22.00	28.00	27.00	26.00	28.00	27.00	25.00	21.00	15.00	12.00	15.00	19.00	18.00	18.00	15.00	20.00	14.00	19.00	13.00	14.00	16.00	16.00	18.00	16.00	13.00	17.00	28.00	38.00	36.00	32.00	32.00	34.00	24.00	25.00	36.00	42.00	52.00	51.00	35.00	29.00	29.00	27.00	28.00	83.00	65.00	47.00	51.00	53.00	29.00	28.00	25.00	23.00	19.00	21.00	20.00	19.00	20.00	20.00	19.00	34.00	37.00	36.00	24.00	23.00	20.00	21.00	22.00	23.00	25.00	22.00	22.00	15.00	13.00	19.00	14.00	17.00	20.00	20.00	27.00	24.00	27.00	17.00	30.00	73.00	58.00	44.00	35.00	35.00	35.00	29.00	27.00	24.00	34.00	40.00	41.00	40.00	37.00	33.00	33.00	37.00	45.00	49.00	52.00	57.00	59.00	58.00	61.00	58.00	49.00	49.00	50.00	49.00	40.00	41.00	44.00	36.00	42.00	36.00	38.00	40.00	38.00	41.00	39.00	42.00	31.00	29.00	30.00	32.00	33.00	27.00	34.00	38.00	37.00	36.00	37.00	38.00	39.00	39.00	38.00	38.00	38.00	32.00	35.00	52.00	58.00	58.00	50.00	51.00	49.00	35.00	34.00	41.00	36.00	33.00	36.00	38.00	46.00	46.00	52.00	52.00	49.00	51.00	54.00	54.00	57.00	60.00	63.00	64.00	67.00	65.00	66.00	63.00	61.00	52.00	57.00	59.00	48.00	50.00	54.00	62.00	64.00	55.00	51.00	57.00	49.00	45.00	51.00	48.00	44.00	44.00	46.00
20.00	17.00	18.00	23.00	39.00	39.00	48.00	62.00	114.00	185.00	113.00	40.00	33.00	36.00	28.00	28.00	27.00	24.00	28.00	33.00	38.00	37.00	35.00	38.00	36.00	27.00	30.00	31.00	40.00	36.00	46.00	51.00	32.00	33.00	36.00	39.00	46.00	49.00	53.00	47.00	46.00	50.00	50.00	52.00	65.00	46.00	33.00	41.00	52.00	39.00	20.00	25.00	31.00	34.00	43.00	32.00	34.00	28.00	24.00	24.00	29.00	42.00	30.00	29.00	27.00	19.00	23.00	19.00	19.00	28.00	35.00	18.00	21.00	17.00	18.00	12.00	15.00	14.00	20.00	16.00	17.00	15.00	16.00	18.00	18.00	19.00	16.00	15.00	13.00	12.00	13.00	21.00	23.00	25.00	32.00	39.00	30.00	28.00	23.00	19.00	31.00	32.00	54.00	71.00	35.00	26.00	23.00	30.00	25.00	26.00	24.00	28.00	25.00	20.00	20.00	22.00	24.00	21.00	21.00	23.00	25.00	23.00	17.00	23.00	31.00	34.00	42.00	35.00	32.00	26.00	18.00	17.00	16.00	17.00	17.00	18.00	22.00	21.00	20.00	16.00	15.00	16.00	16.00	18.00	26.00	27.00	24.00	34.00	40.00	30.00	38.00	39.00	38.00	31.00	33.00	33.00	27.00	28.00	27.00	27.00	28.00	30.00	36.00	38.00	44.00	53.00	57.00	59.00	59.00	52.00	63.00	58.00	56.00	58.00	53.00	43.00	45.00	47.00	48.00	45.00	42.00	40.00	41.00	42.00	44.00	51.00	48.00	42.00	39.00	31.00	33.00	38.00	38.00	39.00	33.00	35.00	33.00	28.00	28.00	31.00	41.00	38.00	41.00	40.00	37.00	35.00	40.00	48.00	53.00	47.00	44.00	39.00	42.00	36.00	39.00	38.00	37.00	35.00	29.00	41.00	52.00	54.00	52.00	52.00	44.00	45.00	46.00	47.00	46.00	47.00	53.00	58.00	60.00	59.00	65.00	58.00	56.00	58.00	49.00	47.00	55.00	45.00	48.00	52.00	55.00	47.00	56.00	56.00	54.00	44.00	34.00	44.00	46.00	38.00	36.00	41.00
