497.00	531.00	559.00	563.00	562.00	582.00	599.00	602.00	615.00	633.00	657.00	692.00	723.00	751.00	840.00	865.00	909.00	932.00	946.00	930.00	912.00	881.00	855.00	844.00	824.00	803.00	788.00	792.00	792.00	791.00	785.00	778.00	749.00	717.00	692.00	662.00	646.00	628.00	629.00	644.00	656.00	714.00	726.00	713.00	711.00	698.00	697.00	671.00	663.00	661.00	652.00	651.00	677.00	685.00	717.00	769.00	792.00	858.00	889.00	843.00	811.00	765.00	702.00	596.00	568.00	540.00	508.00	446.00	407.00	399.00	385.00	381.00	375.00	374.00	374.00	374.00	374.00	374.00	374.00	368.00	370.00	371.00	372.00	370.00	371.00	385.00	407.00	417.00	421.00	424.00	459.00	465.00	471.00	478.00	509.00	528.00	540.00	552.00	571.00	620.00	723.00	708.00	632.00	587.00	581.00	578.00	575.00	571.00	569.00	567.00	564.00	565.00	561.00	557.00	558.00	558.00	557.00	557.00	556.00	556.00	557.00	569.00	574.00	578.00	584.00	600.00	761.00	842.00	883.00	881.00	833.00	750.00	705.00	680.00	669.00	625.00	615.00	606.00	596.00	586.00	577.00	574.00	566.00	565.00	563.00	564.00	567.00	570.00	595.00	599.00	627.00	654.00	658.00	659.00	659.00	663.00	668.00	676.00	684.00	694.00	700.00	714.00	724.00	742.00	756.00	773.00	770.00	772.00	777.00	780.00	784.00	802.00	815.00	857.00	863.00	871.00	875.00	884.00	896.00	903.00	905.00	906.00	906.00	907.00	909.00	909.00	909.00	909.00	910.00	914.00	914.00	915.00	915.00	915.00	914.00	914.00	913.00	913.00	911.00	908.00	906.00	904.00	900.00	897.00	894.00	888.00	883.00	872.00	865.00	850.00	835.00	811.00	805.00	799.00	794.00	782.00	767.00	748.00	737.00	728.00	713.00	707.00	701.00	695.00	675.00	642.00	645.00	640.00	626.00	598.00	592.00	586.00	582.00	571.00	565.00	560.00	549.00	544.00	534.00	523.00	507.00	504.00	501.00	499.00	496.00	493.00	492.00	487.00	484.00	474.00	471.00	467.00	465.00	463.00	470.00	471.00
497.00	531.00	559.00	563.00	562.00	582.00	599.00	602.00	615.00	633.00	657.00	692.00	723.00	751.00	840.00	865.00	909.00	932.00	946.00	930.00	912.00	881.00	855.00	844.00	824.00	803.00	788.00	792.00	792.00	791.00	785.00	778.00	749.00	717.00	692.00	662.00	646.00	628.00	629.00	644.00	656.00	714.00	726.00	713.00	711.00	698.00	697.00	671.00	663.00	661.00	652.00	651.00	677.00	685.00	717.00	769.00	792.00	858.00	889.00	843.00	811.00	765.00	702.00	596.00	568.00	540.00	508.00	446.00	407.00	399.00	385.00	381.00	375.00	374.00	374.00	374.00	374.00	374.00	374.00	368.00	370.00	371.00	372.00	370.00	371.00	385.00	407.00	417.00	421.00	424.00	459.00	465.00	471.00	478.00	509.00	528.00	540.00	552.00	571.00	620.00	723.00	708.00	632.00	587.00	581.00	578.00	575.00	571.00	569.00	567.00	564.00	565.00	561.00	557.00	558.00	558.00	557.00	557.00	556.00	556.00	557.00	569.00	574.00	578.00	584.00	600.00	761.00	842.00	883.00	881.00	833.00	750.00	705.00	680.00	669.00	625.00	615.00	606.00	596.00	586.00	577.00	574.00	566.00	565.00	563.00	564.00	567.00	570.00	595.00	599.00	627.00	654.00	658.00	659.00	659.00	663.00	668.00	676.00	684.00	694.00	700.00	714.00	724.00	742.00	756.00	773.00	770.00	772.00	777.00	780.00	784.00	802.00	815.00	857.00	863.00	871.00	875.00	884.00	896.00	903.00	905.00	906.00	906.00	907.00	909.00	909.00	909.00	909.00	910.00	914.00	914.00	915.00	915.00	915.00	914.00	914.00	913.00	913.00	911.00	908.00	906.00	904.00	900.00	897.00	894.00	888.00	883.00	872.00	865.00	850.00	835.00	811.00	805.00	799.00	794.00	782.00	767.00	748.00	737.00	728.00	713.00	707.00	701.00	695.00	675.00	642.00	645.00	640.00	626.00	598.00	592.00	586.00	582.00	571.00	565.00	560.00	549.00	544.00	534.00	523.00	507.00	504.00	501.00	499.00	496.00	493.00	492.00	487.00	484.00	474.00	471.00	467.00	465.00	463.00	470.00	471.00
497.00	531.00	559.00	563.00	562.00	582.00	599.00	602.00	615.00	633.00	657.00	692.00	723.00	751.00	840.00	865.00	909.00	932.00	946.00	930.00	912.00	881.00	855.00	844.00	824.00	803.00	788.00	792.00	792.00	791.00	785.00	778.00	749.00	717.00	692.00	662.00	646.00	628.00	629.00	644.00	656.00	714.00	726.00	713.00	711.00	698.00	697.00	671.00	663.00	661.00	652.00	651.00	677.00	685.00	717.00	769.00	792.00	858.00	889.00	843.00	811.00	765.00	702.00	596.00	568.00	540.00	508.00	446.00	407.00	399.00	385.00	381.00	375.00	374.00	374.00	374.00	374.00	374.00	374.00	368.00	370.00	371.00	372.00	370.00	371.00	385.00	407.00	417.00	421.00	424.00	459.00	465.00	471.00	478.00	509.00	528.00	540.00	552.00	571.00	620.00	723.00	708.00	632.00	587.00	581.00	578.00	575.00	571.00	569.00	567.00	564.00	565.00	561.00	557.00	558.00	558.00	557.00	557.00	556.00	556.00	557.00	569.00	574.00	578.00	584.00	600.00	761.00	842.00	883.00	881.00	833.00	750.00	705.00	680.00	669.00	625.00	615.00	606.00	596.00	586.00	577.00	574.00	566.00	565.00	563.00	564.00	567.00	570.00	595.00	599.00	627.00	654.00	658.00	659.00	659.00	663.00	668.00	676.00	684.00	694.00	700.00	714.00	724.00	742.00	756.00	773.00	770.00	772.00	777.00	780.00	784.00	802.00	815.00	857.00	863.00	871.00	875.00	884.00	896.00	903.00	905.00	906.00	906.00	907.00	909.00	909.00	909.00	909.00	910.00	914.00	914.00	915.00	915.00	915.00	914.00	914.00	913.00	913.00	911.00	908.00	906.00	904.00	900.00	897.00	894.00	888.00	883.00	872.00	865.00	850.00	835.00	811.00	805.00	799.00	794.00	782.00	767.00	748.00	737.00	728.00	713.00	707.00	701.00	695.00	675.00	642.00	645.00	640.00	626.00	598.00	592.00	586.00	582.00	571.00	565.00	560.00	549.00	544.00	534.00	523.00	507.00	504.00	501.00	499.00	496.00	493.00	492.00	487.00	484.00	474.00	471.00	467.00	465.00	463.00	470.00	471.00
589.00	618.00	670.00	703.00	739.00	797.00	820.00	832.00	848.00	866.00	891.00	933.00	965.00	986.00	1017.00	1026.00	1069.00	1071.00	1007.00	967.00	934.00	912.00	903.00	914.00	930.00	951.00	976.00	969.00	951.00	932.00	894.00	864.00	847.00	847.00	855.00	843.00	768.00	659.00	620.00	590.00	571.00	551.00	541.00	534.00	530.00	526.00	531.00	554.00	562.00	566.00	597.00	625.00	685.00	732.00	771.00	774.00	745.00	711.00	644.00	593.00	564.00	547.00	530.00	487.00	476.00	468.00	450.00	413.00	376.00	362.00	348.00	336.00	316.00	309.00	301.00	290.00	284.00	304.00	307.00	315.00	321.00	348.00	356.00	370.00	381.00	401.00	417.00	442.00	465.00	479.00	519.00	532.00	548.00	572.00	627.00	661.00	687.00	711.00	734.00	825.00	771.00	660.00	606.00	586.00	581.00	580.00	578.00	575.00	574.00	571.00	569.00	570.00	566.00	563.00	564.00	565.00	564.00	564.00	564.00	563.00	563.00	572.00	575.00	578.00	581.00	596.00	679.00	696.00	683.00	662.00	607.00	594.00	586.00	589.00	589.00	587.00	585.00	584.00	573.00	563.00	562.00	563.00	568.00	573.00	579.00	585.00	591.00	598.00	635.00	648.00	667.00	681.00	685.00	691.00	691.00	692.00	694.00	699.00	702.00	703.00	705.00	711.00	718.00	732.00	746.00	771.00	760.00	761.00	763.00	766.00	768.00	791.00	801.00	844.00	850.00	858.00	862.00	872.00	893.00	902.00	905.00	905.00	906.00	906.00	908.00	908.00	908.00	909.00	909.00	912.00	913.00	914.00	914.00	915.00	915.00	914.00	914.00	914.00	912.00	911.00	909.00	909.00	906.00	904.00	902.00	899.00	898.00	893.00	890.00	884.00	879.00	866.00	858.00	854.00	848.00	830.00	826.00	822.00	819.00	815.00	799.00	795.00	790.00	782.00	768.00	725.00	709.00	699.00	690.00	657.00	630.00	622.00	617.00	609.00	605.00	602.00	599.00	599.00	594.00	580.00	534.00	520.00	501.00	497.00	495.00	493.00	491.00	487.00	484.00	474.00	471.00	468.00	466.00	464.00	472.00	473.00
589.00	618.00	670.00	703.00	739.00	797.00	820.00	832.00	848.00	866.00	891.00	933.00	965.00	986.00	1017.00	1026.00	1069.00	1071.00	1007.00	967.00	934.00	912.00	903.00	914.00	930.00	951.00	976.00	969.00	951.00	932.00	894.00	864.00	847.00	847.00	855.00	843.00	768.00	659.00	620.00	590.00	571.00	551.00	541.00	534.00	530.00	526.00	531.00	554.00	562.00	566.00	597.00	625.00	685.00	732.00	771.00	774.00	745.00	711.00	644.00	593.00	564.00	547.00	530.00	487.00	476.00	468.00	450.00	413.00	376.00	362.00	348.00	336.00	316.00	309.00	301.00	290.00	284.00	304.00	307.00	315.00	321.00	348.00	356.00	370.00	381.00	401.00	417.00	442.00	465.00	479.00	519.00	532.00	548.00	572.00	627.00	661.00	687.00	711.00	734.00	825.00	771.00	660.00	606.00	586.00	581.00	580.00	578.00	575.00	574.00	571.00	569.00	570.00	566.00	563.00	564.00	565.00	564.00	564.00	564.00	563.00	563.00	572.00	575.00	578.00	581.00	596.00	679.00	696.00	683.00	662.00	607.00	594.00	586.00	589.00	589.00	587.00	585.00	584.00	573.00	563.00	562.00	563.00	568.00	573.00	579.00	585.00	591.00	598.00	635.00	648.00	667.00	681.00	685.00	691.00	691.00	692.00	694.00	699.00	702.00	703.00	705.00	711.00	718.00	732.00	746.00	771.00	760.00	761.00	763.00	766.00	768.00	791.00	801.00	844.00	850.00	858.00	862.00	872.00	893.00	902.00	905.00	905.00	906.00	906.00	908.00	908.00	908.00	909.00	909.00	912.00	913.00	914.00	914.00	915.00	915.00	914.00	914.00	914.00	912.00	911.00	909.00	909.00	906.00	904.00	902.00	899.00	898.00	893.00	890.00	884.00	879.00	866.00	858.00	854.00	848.00	830.00	826.00	822.00	819.00	815.00	799.00	795.00	790.00	782.00	768.00	725.00	709.00	699.00	690.00	657.00	630.00	622.00	617.00	609.00	605.00	602.00	599.00	599.00	594.00	580.00	534.00	520.00	501.00	497.00	495.00	493.00	491.00	487.00	484.00	474.00	471.00	468.00	466.00	464.00	472.00	473.00
589.00	618.00	670.00	703.00	739.00	797.00	820.00	832.00	848.00	866.00	891.00	933.00	965.00	986.00	1017.00	1026.00	1069.00	1071.00	1007.00	967.00	934.00	912.00	903.00	914.00	930.00	951.00	976.00	969.00	951.00	932.00	894.00	864.00	847.00	847.00	855.00	843.00	768.00	659.00	620.00	590.00	571.00	551.00	541.00	534.00	530.00	526.00	531.00	554.00	562.00	566.00	597.00	625.00	685.00	732.00	771.00	774.00	745.00	711.00	644.00	593.00	564.00	547.00	530.00	487.00	476.00	468.00	450.00	413.00	376.00	362.00	348.00	336.00	316.00	309.00	301.00	290.00	284.00	304.00	307.00	315.00	321.00	348.00	356.00	370.00	381.00	401.00	417.00	442.00	465.00	479.00	519.00	532.00	548.00	572.00	627.00	661.00	687.00	711.00	734.00	825.00	771.00	660.00	606.00	586.00	581.00	580.00	578.00	575.00	574.00	571.00	569.00	570.00	566.00	563.00	564.00	565.00	564.00	564.00	564.00	563.00	563.00	572.00	575.00	578.00	581.00	596.00	679.00	696.00	683.00	662.00	607.00	594.00	586.00	589.00	589.00	587.00	585.00	584.00	573.00	563.00	562.00	563.00	568.00	573.00	579.00	585.00	591.00	598.00	635.00	648.00	667.00	681.00	685.00	691.00	691.00	692.00	694.00	699.00	702.00	703.00	705.00	711.00	718.00	732.00	746.00	771.00	760.00	761.00	763.00	766.00	768.00	791.00	801.00	844.00	850.00	858.00	862.00	872.00	893.00	902.00	905.00	905.00	906.00	906.00	908.00	908.00	908.00	909.00	909.00	912.00	913.00	914.00	914.00	915.00	915.00	914.00	914.00	914.00	912.00	911.00	909.00	909.00	906.00	904.00	902.00	899.00	898.00	893.00	890.00	884.00	879.00	866.00	858.00	854.00	848.00	830.00	826.00	822.00	819.00	815.00	799.00	795.00	790.00	782.00	768.00	725.00	709.00	699.00	690.00	657.00	630.00	622.00	617.00	609.00	605.00	602.00	599.00	599.00	594.00	580.00	534.00	520.00	501.00	497.00	495.00	493.00	491.00	487.00	484.00	474.00	471.00	468.00	466.00	464.00	472.00	473.00
589.00	618.00	670.00	703.00	739.00	797.00	820.00	832.00	848.00	866.00	891.00	933.00	965.00	986.00	1017.00	1026.00	1069.00	1071.00	1007.00	967.00	934.00	912.00	903.00	914.00	930.00	951.00	976.00	969.00	951.00	932.00	894.00	864.00	847.00	847.00	855.00	843.00	768.00	659.00	620.00	590.00	571.00	551.00	541.00	534.00	530.00	526.00	531.00	554.00	562.00	566.00	597.00	625.00	685.00	732.00	771.00	774.00	745.00	711.00	644.00	593.00	564.00	547.00	530.00	487.00	476.00	468.00	450.00	413.00	376.00	362.00	348.00	336.00	316.00	309.00	301.00	290.00	284.00	304.00	307.00	315.00	321.00	348.00	356.00	370.00	381.00	401.00	417.00	442.00	465.00	479.00	519.00	532.00	548.00	572.00	627.00	661.00	687.00	711.00	734.00	825.00	771.00	660.00	606.00	586.00	581.00	580.00	578.00	575.00	574.00	571.00	569.00	570.00	566.00	563.00	564.00	565.00	564.00	564.00	564.00	563.00	563.00	572.00	575.00	578.00	581.00	596.00	679.00	696.00	683.00	662.00	607.00	594.00	586.00	589.00	589.00	587.00	585.00	584.00	573.00	563.00	562.00	563.00	568.00	573.00	579.00	585.00	591.00	598.00	635.00	648.00	667.00	681.00	685.00	691.00	691.00	692.00	694.00	699.00	702.00	703.00	705.00	711.00	718.00	732.00	746.00	771.00	760.00	761.00	763.00	766.00	768.00	791.00	801.00	844.00	850.00	858.00	862.00	872.00	893.00	902.00	905.00	905.00	906.00	906.00	908.00	908.00	908.00	909.00	909.00	912.00	913.00	914.00	914.00	915.00	915.00	914.00	914.00	914.00	912.00	911.00	909.00	909.00	906.00	904.00	902.00	899.00	898.00	893.00	890.00	884.00	879.00	866.00	858.00	854.00	848.00	830.00	826.00	822.00	819.00	815.00	799.00	795.00	790.00	782.00	768.00	725.00	709.00	699.00	690.00	657.00	630.00	622.00	617.00	609.00	605.00	602.00	599.00	599.00	594.00	580.00	534.00	520.00	501.00	497.00	495.00	493.00	491.00	487.00	484.00	474.00	471.00	468.00	466.00	464.00	472.00	473.00
579.00	618.00	668.00	710.00	775.00	892.00	926.00	974.00	998.00	984.00	979.00	969.00	956.00	942.00	922.00	907.00	901.00	913.00	864.00	814.00	756.00	715.00	685.00	690.00	711.00	763.00	817.00	841.00	788.00	716.00	665.00	628.00	614.00	612.00	620.00	615.00	566.00	513.00	499.00	488.00	477.00	469.00	472.00	492.00	499.00	530.00	549.00	603.00	646.00	684.00	773.00	784.00	798.00	762.00	621.00	585.00	569.00	565.00	553.00	529.00	522.00	514.00	505.00	462.00	453.00	444.00	427.00	381.00	317.00	296.00	285.00	276.00	271.00	265.00	263.00	260.00	263.00	280.00	291.00	326.00	350.00	398.00	417.00	444.00	474.00	535.00	560.00	591.00	620.00	656.00	746.00	749.00	756.00	745.00	746.00	725.00	713.00	710.00	699.00	682.00	660.00	622.00	590.00	576.00	572.00	572.00	571.00	569.00	570.00	568.00	568.00	570.00	568.00	565.00	566.00	568.00	567.00	567.00	566.00	566.00	565.00	568.00	571.00	572.00	573.00	584.00	590.00	585.00	583.00	588.00	596.00	596.00	582.00	592.00	596.00	596.00	596.00	596.00	588.00	585.00	587.00	588.00	595.00	612.00	656.00	672.00	688.00	696.00	703.00	698.00	693.00	688.00	687.00	687.00	694.00	695.00	695.00	685.00	683.00	682.00	682.00	681.00	697.00	707.00	725.00	761.00	753.00	761.00	769.00	773.00	779.00	800.00	811.00	842.00	847.00	852.00	854.00	862.00	886.00	899.00	903.00	905.00	905.00	906.00	907.00	907.00	907.00	908.00	908.00	911.00	912.00	912.00	913.00	914.00	915.00	915.00	915.00	915.00	914.00	913.00	912.00	912.00	911.00	908.00	906.00	904.00	907.00	906.00	905.00	906.00	905.00	905.00	903.00	902.00	902.00	901.00	900.00	901.00	904.00	903.00	898.00	892.00	868.00	831.00	807.00	788.00	743.00	719.00	708.00	687.00	644.00	630.00	624.00	613.00	608.00	603.00	592.00	582.00	542.00	522.00	502.00	496.00	493.00	492.00	491.00	489.00	487.00	484.00	481.00	470.00	468.00	465.00	464.00	462.00	470.00	472.00
579.00	618.00	668.00	710.00	775.00	892.00	926.00	974.00	998.00	984.00	979.00	969.00	956.00	942.00	922.00	907.00	901.00	913.00	864.00	814.00	756.00	715.00	685.00	690.00	711.00	763.00	817.00	841.00	788.00	716.00	665.00	628.00	614.00	612.00	620.00	615.00	566.00	513.00	499.00	488.00	477.00	469.00	472.00	492.00	499.00	530.00	549.00	603.00	646.00	684.00	773.00	784.00	798.00	762.00	621.00	585.00	569.00	565.00	553.00	529.00	522.00	514.00	505.00	462.00	453.00	444.00	427.00	381.00	317.00	296.00	285.00	276.00	271.00	265.00	263.00	260.00	263.00	280.00	291.00	326.00	350.00	398.00	417.00	444.00	474.00	535.00	560.00	591.00	620.00	656.00	746.00	749.00	756.00	745.00	746.00	725.00	713.00	710.00	699.00	682.00	660.00	622.00	590.00	576.00	572.00	572.00	571.00	569.00	570.00	568.00	568.00	570.00	568.00	565.00	566.00	568.00	567.00	567.00	566.00	566.00	565.00	568.00	571.00	572.00	573.00	584.00	590.00	585.00	583.00	588.00	596.00	596.00	582.00	592.00	596.00	596.00	596.00	596.00	588.00	585.00	587.00	588.00	595.00	612.00	656.00	672.00	688.00	696.00	703.00	698.00	693.00	688.00	687.00	687.00	694.00	695.00	695.00	685.00	683.00	682.00	682.00	681.00	697.00	707.00	725.00	761.00	753.00	761.00	769.00	773.00	779.00	800.00	811.00	842.00	847.00	852.00	854.00	862.00	886.00	899.00	903.00	905.00	905.00	906.00	907.00	907.00	907.00	908.00	908.00	911.00	912.00	912.00	913.00	914.00	915.00	915.00	915.00	915.00	914.00	913.00	912.00	912.00	911.00	908.00	906.00	904.00	907.00	906.00	905.00	906.00	905.00	905.00	903.00	902.00	902.00	901.00	900.00	901.00	904.00	903.00	898.00	892.00	868.00	831.00	807.00	788.00	743.00	719.00	708.00	687.00	644.00	630.00	624.00	613.00	608.00	603.00	592.00	582.00	542.00	522.00	502.00	496.00	493.00	492.00	491.00	489.00	487.00	484.00	481.00	470.00	468.00	465.00	464.00	462.00	470.00	472.00
579.00	618.00	668.00	710.00	775.00	892.00	926.00	974.00	998.00	984.00	979.00	969.00	956.00	942.00	922.00	907.00	901.00	913.00	864.00	814.00	756.00	715.00	685.00	690.00	711.00	763.00	817.00	841.00	788.00	716.00	665.00	628.00	614.00	612.00	620.00	615.00	566.00	513.00	499.00	488.00	477.00	469.00	472.00	492.00	499.00	530.00	549.00	603.00	646.00	684.00	773.00	784.00	798.00	762.00	621.00	585.00	569.00	565.00	553.00	529.00	522.00	514.00	505.00	462.00	453.00	444.00	427.00	381.00	317.00	296.00	285.00	276.00	271.00	265.00	263.00	260.00	263.00	280.00	291.00	326.00	350.00	398.00	417.00	444.00	474.00	535.00	560.00	591.00	620.00	656.00	746.00	749.00	756.00	745.00	746.00	725.00	713.00	710.00	699.00	682.00	660.00	622.00	590.00	576.00	572.00	572.00	571.00	569.00	570.00	568.00	568.00	570.00	568.00	565.00	566.00	568.00	567.00	567.00	566.00	566.00	565.00	568.00	571.00	572.00	573.00	584.00	590.00	585.00	583.00	588.00	596.00	596.00	582.00	592.00	596.00	596.00	596.00	596.00	588.00	585.00	587.00	588.00	595.00	612.00	656.00	672.00	688.00	696.00	703.00	698.00	693.00	688.00	687.00	687.00	694.00	695.00	695.00	685.00	683.00	682.00	682.00	681.00	697.00	707.00	725.00	761.00	753.00	761.00	769.00	773.00	779.00	800.00	811.00	842.00	847.00	852.00	854.00	862.00	886.00	899.00	903.00	905.00	905.00	906.00	907.00	907.00	907.00	908.00	908.00	911.00	912.00	912.00	913.00	914.00	915.00	915.00	915.00	915.00	914.00	913.00	912.00	912.00	911.00	908.00	906.00	904.00	907.00	906.00	905.00	906.00	905.00	905.00	903.00	902.00	902.00	901.00	900.00	901.00	904.00	903.00	898.00	892.00	868.00	831.00	807.00	788.00	743.00	719.00	708.00	687.00	644.00	630.00	624.00	613.00	608.00	603.00	592.00	582.00	542.00	522.00	502.00	496.00	493.00	492.00	491.00	489.00	487.00	484.00	481.00	470.00	468.00	465.00	464.00	462.00	470.00	472.00
579.00	618.00	668.00	710.00	775.00	892.00	926.00	974.00	998.00	984.00	979.00	969.00	956.00	942.00	922.00	907.00	901.00	913.00	864.00	814.00	756.00	715.00	685.00	690.00	711.00	763.00	817.00	841.00	788.00	716.00	665.00	628.00	614.00	612.00	620.00	615.00	566.00	513.00	499.00	488.00	477.00	469.00	472.00	492.00	499.00	530.00	549.00	603.00	646.00	684.00	773.00	784.00	798.00	762.00	621.00	585.00	569.00	565.00	553.00	529.00	522.00	514.00	505.00	462.00	453.00	444.00	427.00	381.00	317.00	296.00	285.00	276.00	271.00	265.00	263.00	260.00	263.00	280.00	291.00	326.00	350.00	398.00	417.00	444.00	474.00	535.00	560.00	591.00	620.00	656.00	746.00	749.00	756.00	745.00	746.00	725.00	713.00	710.00	699.00	682.00	660.00	622.00	590.00	576.00	572.00	572.00	571.00	569.00	570.00	568.00	568.00	570.00	568.00	565.00	566.00	568.00	567.00	567.00	566.00	566.00	565.00	568.00	571.00	572.00	573.00	584.00	590.00	585.00	583.00	588.00	596.00	596.00	582.00	592.00	596.00	596.00	596.00	596.00	588.00	585.00	587.00	588.00	595.00	612.00	656.00	672.00	688.00	696.00	703.00	698.00	693.00	688.00	687.00	687.00	694.00	695.00	695.00	685.00	683.00	682.00	682.00	681.00	697.00	707.00	725.00	761.00	753.00	761.00	769.00	773.00	779.00	800.00	811.00	842.00	847.00	852.00	854.00	862.00	886.00	899.00	903.00	905.00	905.00	906.00	907.00	907.00	907.00	908.00	908.00	911.00	912.00	912.00	913.00	914.00	915.00	915.00	915.00	915.00	914.00	913.00	912.00	912.00	911.00	908.00	906.00	904.00	907.00	906.00	905.00	906.00	905.00	905.00	903.00	902.00	902.00	901.00	900.00	901.00	904.00	903.00	898.00	892.00	868.00	831.00	807.00	788.00	743.00	719.00	708.00	687.00	644.00	630.00	624.00	613.00	608.00	603.00	592.00	582.00	542.00	522.00	502.00	496.00	493.00	492.00	491.00	489.00	487.00	484.00	481.00	470.00	468.00	465.00	464.00	462.00	470.00	472.00
652.00	704.00	714.00	730.00	769.00	822.00	828.00	827.00	799.00	744.00	727.00	721.00	721.00	723.00	735.00	764.00	808.00	802.00	723.00	659.00	591.00	539.00	518.00	512.00	517.00	533.00	585.00	716.00	688.00	645.00	595.00	548.00	486.00	471.00	462.00	455.00	443.00	432.00	439.00	452.00	458.00	475.00	484.00	501.00	532.00	633.00	689.00	790.00	823.00	874.00	899.00	854.00	809.00	757.00	635.00	615.00	600.00	596.00	603.00	622.00	607.00	564.00	515.00	442.00	423.00	410.00	393.00	348.00	284.00	257.00	245.00	235.00	220.00	235.00	243.00	248.00	259.00	270.00	286.00	353.00	400.00	494.00	546.00	590.00	636.00	721.00	752.00	754.00	737.00	698.00	606.00	582.00	548.00	531.00	513.00	517.00	520.00	535.00	565.00	604.00	647.00	624.00	586.00	571.00	568.00	568.00	566.00	564.00	564.00	563.00	563.00	564.00	563.00	560.00	562.00	564.00	563.00	563.00	562.00	562.00	561.00	563.00	564.00	566.00	566.00	573.00	579.00	570.00	568.00	580.00	596.00	596.00	583.00	592.00	596.00	596.00	596.00	596.00	594.00	609.00	630.00	650.00	689.00	697.00	671.00	661.00	652.00	645.00	625.00	617.00	610.00	603.00	603.00	626.00	655.00	662.00	663.00	650.00	649.00	652.00	654.00	656.00	668.00	679.00	716.00	763.00	771.00	791.00	803.00	811.00	819.00	831.00	834.00	839.00	841.00	840.00	841.00	847.00	872.00	886.00	895.00	899.00	900.00	902.00	905.00	906.00	906.00	906.00	907.00	909.00	909.00	910.00	911.00	912.00	913.00	914.00	914.00	915.00	915.00	915.00	915.00	915.00	914.00	912.00	910.00	909.00	914.00	912.00	911.00	915.00	911.00	914.00	908.00	906.00	906.00	904.00	904.00	904.00	914.00	912.00	901.00	900.00	894.00	873.00	803.00	776.00	734.00	701.00	687.00	629.00	605.00	598.00	593.00	582.00	576.00	571.00	558.00	533.00	497.00	494.00	493.00	492.00	490.00	489.00	488.00	486.00	485.00	482.00	479.00	468.00	466.00	463.00	461.00	460.00	468.00	470.00
652.00	704.00	714.00	730.00	769.00	822.00	828.00	827.00	799.00	744.00	727.00	721.00	721.00	723.00	735.00	764.00	808.00	802.00	723.00	659.00	591.00	539.00	518.00	512.00	517.00	533.00	585.00	716.00	688.00	645.00	595.00	548.00	486.00	471.00	462.00	455.00	443.00	432.00	439.00	452.00	458.00	475.00	484.00	501.00	532.00	633.00	689.00	790.00	823.00	874.00	899.00	854.00	809.00	757.00	635.00	615.00	600.00	596.00	603.00	622.00	607.00	564.00	515.00	442.00	423.00	410.00	393.00	348.00	284.00	257.00	245.00	235.00	220.00	235.00	243.00	248.00	259.00	270.00	286.00	353.00	400.00	494.00	546.00	590.00	636.00	721.00	752.00	754.00	737.00	698.00	606.00	582.00	548.00	531.00	513.00	517.00	520.00	535.00	565.00	604.00	647.00	624.00	586.00	571.00	568.00	568.00	566.00	564.00	564.00	563.00	563.00	564.00	563.00	560.00	562.00	564.00	563.00	563.00	562.00	562.00	561.00	563.00	564.00	566.00	566.00	573.00	579.00	570.00	568.00	580.00	596.00	596.00	583.00	592.00	596.00	596.00	596.00	596.00	594.00	609.00	630.00	650.00	689.00	697.00	671.00	661.00	652.00	645.00	625.00	617.00	610.00	603.00	603.00	626.00	655.00	662.00	663.00	650.00	649.00	652.00	654.00	656.00	668.00	679.00	716.00	763.00	771.00	791.00	803.00	811.00	819.00	831.00	834.00	839.00	841.00	840.00	841.00	847.00	872.00	886.00	895.00	899.00	900.00	902.00	905.00	906.00	906.00	906.00	907.00	909.00	909.00	910.00	911.00	912.00	913.00	914.00	914.00	915.00	915.00	915.00	915.00	915.00	914.00	912.00	910.00	909.00	914.00	912.00	911.00	915.00	911.00	914.00	908.00	906.00	906.00	904.00	904.00	904.00	914.00	912.00	901.00	900.00	894.00	873.00	803.00	776.00	734.00	701.00	687.00	629.00	605.00	598.00	593.00	582.00	576.00	571.00	558.00	533.00	497.00	494.00	493.00	492.00	490.00	489.00	488.00	486.00	485.00	482.00	479.00	468.00	466.00	463.00	461.00	460.00	468.00	470.00
652.00	704.00	714.00	730.00	769.00	822.00	828.00	827.00	799.00	744.00	727.00	721.00	721.00	723.00	735.00	764.00	808.00	802.00	723.00	659.00	591.00	539.00	518.00	512.00	517.00	533.00	585.00	716.00	688.00	645.00	595.00	548.00	486.00	471.00	462.00	455.00	443.00	432.00	439.00	452.00	458.00	475.00	484.00	501.00	532.00	633.00	689.00	790.00	823.00	874.00	899.00	854.00	809.00	757.00	635.00	615.00	600.00	596.00	603.00	622.00	607.00	564.00	515.00	442.00	423.00	410.00	393.00	348.00	284.00	257.00	245.00	235.00	220.00	235.00	243.00	248.00	259.00	270.00	286.00	353.00	400.00	494.00	546.00	590.00	636.00	721.00	752.00	754.00	737.00	698.00	606.00	582.00	548.00	531.00	513.00	517.00	520.00	535.00	565.00	604.00	647.00	624.00	586.00	571.00	568.00	568.00	566.00	564.00	564.00	563.00	563.00	564.00	563.00	560.00	562.00	564.00	563.00	563.00	562.00	562.00	561.00	563.00	564.00	566.00	566.00	573.00	579.00	570.00	568.00	580.00	596.00	596.00	583.00	592.00	596.00	596.00	596.00	596.00	594.00	609.00	630.00	650.00	689.00	697.00	671.00	661.00	652.00	645.00	625.00	617.00	610.00	603.00	603.00	626.00	655.00	662.00	663.00	650.00	649.00	652.00	654.00	656.00	668.00	679.00	716.00	763.00	771.00	791.00	803.00	811.00	819.00	831.00	834.00	839.00	841.00	840.00	841.00	847.00	872.00	886.00	895.00	899.00	900.00	902.00	905.00	906.00	906.00	906.00	907.00	909.00	909.00	910.00	911.00	912.00	913.00	914.00	914.00	915.00	915.00	915.00	915.00	915.00	914.00	912.00	910.00	909.00	914.00	912.00	911.00	915.00	911.00	914.00	908.00	906.00	906.00	904.00	904.00	904.00	914.00	912.00	901.00	900.00	894.00	873.00	803.00	776.00	734.00	701.00	687.00	629.00	605.00	598.00	593.00	582.00	576.00	571.00	558.00	533.00	497.00	494.00	493.00	492.00	490.00	489.00	488.00	486.00	485.00	482.00	479.00	468.00	466.00	463.00	461.00	460.00	468.00	470.00
652.00	704.00	714.00	730.00	769.00	822.00	828.00	827.00	799.00	744.00	727.00	721.00	721.00	723.00	735.00	764.00	808.00	802.00	723.00	659.00	591.00	539.00	518.00	512.00	517.00	533.00	585.00	716.00	688.00	645.00	595.00	548.00	486.00	471.00	462.00	455.00	443.00	432.00	439.00	452.00	458.00	475.00	484.00	501.00	532.00	633.00	689.00	790.00	823.00	874.00	899.00	854.00	809.00	757.00	635.00	615.00	600.00	596.00	603.00	622.00	607.00	564.00	515.00	442.00	423.00	410.00	393.00	348.00	284.00	257.00	245.00	235.00	220.00	235.00	243.00	248.00	259.00	270.00	286.00	353.00	400.00	494.00	546.00	590.00	636.00	721.00	752.00	754.00	737.00	698.00	606.00	582.00	548.00	531.00	513.00	517.00	520.00	535.00	565.00	604.00	647.00	624.00	586.00	571.00	568.00	568.00	566.00	564.00	564.00	563.00	563.00	564.00	563.00	560.00	562.00	564.00	563.00	563.00	562.00	562.00	561.00	563.00	564.00	566.00	566.00	573.00	579.00	570.00	568.00	580.00	596.00	596.00	583.00	592.00	596.00	596.00	596.00	596.00	594.00	609.00	630.00	650.00	689.00	697.00	671.00	661.00	652.00	645.00	625.00	617.00	610.00	603.00	603.00	626.00	655.00	662.00	663.00	650.00	649.00	652.00	654.00	656.00	668.00	679.00	716.00	763.00	771.00	791.00	803.00	811.00	819.00	831.00	834.00	839.00	841.00	840.00	841.00	847.00	872.00	886.00	895.00	899.00	900.00	902.00	905.00	906.00	906.00	906.00	907.00	909.00	909.00	910.00	911.00	912.00	913.00	914.00	914.00	915.00	915.00	915.00	915.00	915.00	914.00	912.00	910.00	909.00	914.00	912.00	911.00	915.00	911.00	914.00	908.00	906.00	906.00	904.00	904.00	904.00	914.00	912.00	901.00	900.00	894.00	873.00	803.00	776.00	734.00	701.00	687.00	629.00	605.00	598.00	593.00	582.00	576.00	571.00	558.00	533.00	497.00	494.00	493.00	492.00	490.00	489.00	488.00	486.00	485.00	482.00	479.00	468.00	466.00	463.00	461.00	460.00	468.00	470.00
533.00	548.00	553.00	556.00	573.00	593.00	586.00	598.00	589.00	570.00	575.00	593.00	616.00	643.00	699.00	714.00	721.00	697.00	598.00	540.00	487.00	450.00	431.00	412.00	411.00	417.00	428.00	452.00	435.00	421.00	417.00	414.00	408.00	411.00	409.00	407.00	414.00	425.00	435.00	446.00	457.00	496.00	524.00	562.00	612.00	706.00	729.00	774.00	800.00	839.00	908.00	925.00	960.00	919.00	851.00	827.00	795.00	770.00	700.00	614.00	548.00	506.00	468.00	384.00	358.00	334.00	306.00	279.00	253.00	238.00	220.00	213.00	207.00	210.00	212.00	217.00	235.00	249.00	266.00	330.00	396.00	518.00	566.00	612.00	663.00	646.00	602.00	553.00	519.00	484.00	441.00	447.00	463.00	475.00	511.00	538.00	583.00	634.00	681.00	741.00	663.00	613.00	579.00	566.00	564.00	564.00	562.00	560.00	559.00	558.00	558.00	559.00	558.00	557.00	558.00	560.00	559.00	559.00	558.00	558.00	557.00	557.00	558.00	559.00	559.00	563.00	568.00	560.00	557.00	575.00	596.00	596.00	591.00	595.00	599.00	622.00	648.00	687.00	737.00	775.00	746.00	716.00	629.00	608.00	586.00	578.00	576.00	573.00	565.00	564.00	562.00	561.00	564.00	601.00	651.00	671.00	684.00	702.00	712.00	728.00	742.00	755.00	782.00	788.00	791.00	792.00	781.00	791.00	800.00	803.00	802.00	802.00	800.00	797.00	797.00	799.00	805.00	814.00	842.00	857.00	867.00	871.00	875.00	880.00	899.00	903.00	905.00	905.00	906.00	907.00	908.00	908.00	909.00	910.00	912.00	913.00	913.00	913.00	914.00	914.00	914.00	914.00	914.00	911.00	904.00	900.00	907.00	906.00	904.00	911.00	906.00	911.00	903.00	900.00	900.00	900.00	900.00	900.00	908.00	906.00	900.00	895.00	884.00	863.00	808.00	767.00	747.00	714.00	693.00	598.00	588.00	580.00	573.00	561.00	556.00	553.00	546.00	517.00	494.00	493.00	491.00	490.00	487.00	486.00	485.00	483.00	482.00	479.00	477.00	466.00	464.00	462.00	461.00	460.00	470.00	473.00
533.00	548.00	553.00	556.00	573.00	593.00	586.00	598.00	589.00	570.00	575.00	593.00	616.00	643.00	699.00	714.00	721.00	697.00	598.00	540.00	487.00	450.00	431.00	412.00	411.00	417.00	428.00	452.00	435.00	421.00	417.00	414.00	408.00	411.00	409.00	407.00	414.00	425.00	435.00	446.00	457.00	496.00	524.00	562.00	612.00	706.00	729.00	774.00	800.00	839.00	908.00	925.00	960.00	919.00	851.00	827.00	795.00	770.00	700.00	614.00	548.00	506.00	468.00	384.00	358.00	334.00	306.00	279.00	253.00	238.00	220.00	213.00	207.00	210.00	212.00	217.00	235.00	249.00	266.00	330.00	396.00	518.00	566.00	612.00	663.00	646.00	602.00	553.00	519.00	484.00	441.00	447.00	463.00	475.00	511.00	538.00	583.00	634.00	681.00	741.00	663.00	613.00	579.00	566.00	564.00	564.00	562.00	560.00	559.00	558.00	558.00	559.00	558.00	557.00	558.00	560.00	559.00	559.00	558.00	558.00	557.00	557.00	558.00	559.00	559.00	563.00	568.00	560.00	557.00	575.00	596.00	596.00	591.00	595.00	599.00	622.00	648.00	687.00	737.00	775.00	746.00	716.00	629.00	608.00	586.00	578.00	576.00	573.00	565.00	564.00	562.00	561.00	564.00	601.00	651.00	671.00	684.00	702.00	712.00	728.00	742.00	755.00	782.00	788.00	791.00	792.00	781.00	791.00	800.00	803.00	802.00	802.00	800.00	797.00	797.00	799.00	805.00	814.00	842.00	857.00	867.00	871.00	875.00	880.00	899.00	903.00	905.00	905.00	906.00	907.00	908.00	908.00	909.00	910.00	912.00	913.00	913.00	913.00	914.00	914.00	914.00	914.00	914.00	911.00	904.00	900.00	907.00	906.00	904.00	911.00	906.00	911.00	903.00	900.00	900.00	900.00	900.00	900.00	908.00	906.00	900.00	895.00	884.00	863.00	808.00	767.00	747.00	714.00	693.00	598.00	588.00	580.00	573.00	561.00	556.00	553.00	546.00	517.00	494.00	493.00	491.00	490.00	487.00	486.00	485.00	483.00	482.00	479.00	477.00	466.00	464.00	462.00	461.00	460.00	470.00	473.00
533.00	548.00	553.00	556.00	573.00	593.00	586.00	598.00	589.00	570.00	575.00	593.00	616.00	643.00	699.00	714.00	721.00	697.00	598.00	540.00	487.00	450.00	431.00	412.00	411.00	417.00	428.00	452.00	435.00	421.00	417.00	414.00	408.00	411.00	409.00	407.00	414.00	425.00	435.00	446.00	457.00	496.00	524.00	562.00	612.00	706.00	729.00	774.00	800.00	839.00	908.00	925.00	960.00	919.00	851.00	827.00	795.00	770.00	700.00	614.00	548.00	506.00	468.00	384.00	358.00	334.00	306.00	279.00	253.00	238.00	220.00	213.00	207.00	210.00	212.00	217.00	235.00	249.00	266.00	330.00	396.00	518.00	566.00	612.00	663.00	646.00	602.00	553.00	519.00	484.00	441.00	447.00	463.00	475.00	511.00	538.00	583.00	634.00	681.00	741.00	663.00	613.00	579.00	566.00	564.00	564.00	562.00	560.00	559.00	558.00	558.00	559.00	558.00	557.00	558.00	560.00	559.00	559.00	558.00	558.00	557.00	557.00	558.00	559.00	559.00	563.00	568.00	560.00	557.00	575.00	596.00	596.00	591.00	595.00	599.00	622.00	648.00	687.00	737.00	775.00	746.00	716.00	629.00	608.00	586.00	578.00	576.00	573.00	565.00	564.00	562.00	561.00	564.00	601.00	651.00	671.00	684.00	702.00	712.00	728.00	742.00	755.00	782.00	788.00	791.00	792.00	781.00	791.00	800.00	803.00	802.00	802.00	800.00	797.00	797.00	799.00	805.00	814.00	842.00	857.00	867.00	871.00	875.00	880.00	899.00	903.00	905.00	905.00	906.00	907.00	908.00	908.00	909.00	910.00	912.00	913.00	913.00	913.00	914.00	914.00	914.00	914.00	914.00	911.00	904.00	900.00	907.00	906.00	904.00	911.00	906.00	911.00	903.00	900.00	900.00	900.00	900.00	900.00	908.00	906.00	900.00	895.00	884.00	863.00	808.00	767.00	747.00	714.00	693.00	598.00	588.00	580.00	573.00	561.00	556.00	553.00	546.00	517.00	494.00	493.00	491.00	490.00	487.00	486.00	485.00	483.00	482.00	479.00	477.00	466.00	464.00	462.00	461.00	460.00	470.00	473.00
533.00	548.00	553.00	556.00	573.00	593.00	586.00	598.00	589.00	570.00	575.00	593.00	616.00	643.00	699.00	714.00	721.00	697.00	598.00	540.00	487.00	450.00	431.00	412.00	411.00	417.00	428.00	452.00	435.00	421.00	417.00	414.00	408.00	411.00	409.00	407.00	414.00	425.00	435.00	446.00	457.00	496.00	524.00	562.00	612.00	706.00	729.00	774.00	800.00	839.00	908.00	925.00	960.00	919.00	851.00	827.00	795.00	770.00	700.00	614.00	548.00	506.00	468.00	384.00	358.00	334.00	306.00	279.00	253.00	238.00	220.00	213.00	207.00	210.00	212.00	217.00	235.00	249.00	266.00	330.00	396.00	518.00	566.00	612.00	663.00	646.00	602.00	553.00	519.00	484.00	441.00	447.00	463.00	475.00	511.00	538.00	583.00	634.00	681.00	741.00	663.00	613.00	579.00	566.00	564.00	564.00	562.00	560.00	559.00	558.00	558.00	559.00	558.00	557.00	558.00	560.00	559.00	559.00	558.00	558.00	557.00	557.00	558.00	559.00	559.00	563.00	568.00	560.00	557.00	575.00	596.00	596.00	591.00	595.00	599.00	622.00	648.00	687.00	737.00	775.00	746.00	716.00	629.00	608.00	586.00	578.00	576.00	573.00	565.00	564.00	562.00	561.00	564.00	601.00	651.00	671.00	684.00	702.00	712.00	728.00	742.00	755.00	782.00	788.00	791.00	792.00	781.00	791.00	800.00	803.00	802.00	802.00	800.00	797.00	797.00	799.00	805.00	814.00	842.00	857.00	867.00	871.00	875.00	880.00	899.00	903.00	905.00	905.00	906.00	907.00	908.00	908.00	909.00	910.00	912.00	913.00	913.00	913.00	914.00	914.00	914.00	914.00	914.00	911.00	904.00	900.00	907.00	906.00	904.00	911.00	906.00	911.00	903.00	900.00	900.00	900.00	900.00	900.00	908.00	906.00	900.00	895.00	884.00	863.00	808.00	767.00	747.00	714.00	693.00	598.00	588.00	580.00	573.00	561.00	556.00	553.00	546.00	517.00	494.00	493.00	491.00	490.00	487.00	486.00	485.00	483.00	482.00	479.00	477.00	466.00	464.00	462.00	461.00	460.00	470.00	473.00
413.00	417.00	424.00	434.00	451.00	468.00	473.00	489.00	506.00	537.00	567.00	574.00	599.00	638.00	670.00	653.00	595.00	542.00	455.00	418.00	392.00	373.00	362.00	350.00	345.00	342.00	340.00	353.00	356.00	358.00	361.00	364.00	383.00	390.00	396.00	400.00	422.00	446.00	458.00	476.00	504.00	578.00	611.00	637.00	677.00	740.00	753.00	797.00	809.00	836.00	778.00	770.00	770.00	777.00	722.00	677.00	655.00	628.00	544.00	463.00	421.00	385.00	353.00	284.00	267.00	258.00	243.00	226.00	191.00	184.00	179.00	175.00	170.00	164.00	175.00	192.00	191.00	205.00	230.00	301.00	334.00	399.00	415.00	440.00	450.00	429.00	419.00	412.00	399.00	377.00	459.00	484.00	513.00	544.00	628.00	685.00	749.00	817.00	853.00	780.00	603.00	557.00	529.00	515.00	510.00	507.00	502.00	493.00	485.00	489.00	494.00	498.00	502.00	504.00	506.00	508.00	508.00	511.00	511.00	512.00	512.00	513.00	511.00	516.00	521.00	525.00	535.00	535.00	538.00	563.00	600.00	703.00	747.00	771.00	794.00	824.00	843.00	846.00	802.00	702.00	644.00	598.00	580.00	570.00	566.00	559.00	558.00	560.00	561.00	562.00	569.00	577.00	589.00	710.00	763.00	796.00	808.00	820.00	824.00	824.00	809.00	777.00	764.00	768.00	773.00	772.00	756.00	757.00	758.00	761.00	763.00	766.00	765.00	763.00	765.00	771.00	782.00	798.00	824.00	837.00	847.00	850.00	854.00	861.00	886.00	900.00	905.00	905.00	906.00	907.00	907.00	908.00	908.00	910.00	911.00	913.00	914.00	914.00	914.00	914.00	915.00	915.00	915.00	913.00	910.00	909.00	915.00	913.00	912.00	918.00	913.00	917.00	908.00	905.00	904.00	902.00	901.00	899.00	893.00	884.00	838.00	805.00	790.00	778.00	750.00	688.00	666.00	667.00	662.00	603.00	594.00	589.00	583.00	572.00	568.00	563.00	550.00	511.00	494.00	492.00	491.00	489.00	487.00	486.00	485.00	484.00	483.00	482.00	480.00	469.00	467.00	466.00	465.00	465.00	475.00	479.00
413.00	417.00	424.00	434.00	451.00	468.00	473.00	489.00	506.00	537.00	567.00	574.00	599.00	638.00	670.00	653.00	595.00	542.00	455.00	418.00	392.00	373.00	362.00	350.00	345.00	342.00	340.00	353.00	356.00	358.00	361.00	364.00	383.00	390.00	396.00	400.00	422.00	446.00	458.00	476.00	504.00	578.00	611.00	637.00	677.00	740.00	753.00	797.00	809.00	836.00	778.00	770.00	770.00	777.00	722.00	677.00	655.00	628.00	544.00	463.00	421.00	385.00	353.00	284.00	267.00	258.00	243.00	226.00	191.00	184.00	179.00	175.00	170.00	164.00	175.00	192.00	191.00	205.00	230.00	301.00	334.00	399.00	415.00	440.00	450.00	429.00	419.00	412.00	399.00	377.00	459.00	484.00	513.00	544.00	628.00	685.00	749.00	817.00	853.00	780.00	603.00	557.00	529.00	515.00	510.00	507.00	502.00	493.00	485.00	489.00	494.00	498.00	502.00	504.00	506.00	508.00	508.00	511.00	511.00	512.00	512.00	513.00	511.00	516.00	521.00	525.00	535.00	535.00	538.00	563.00	600.00	703.00	747.00	771.00	794.00	824.00	843.00	846.00	802.00	702.00	644.00	598.00	580.00	570.00	566.00	559.00	558.00	560.00	561.00	562.00	569.00	577.00	589.00	710.00	763.00	796.00	808.00	820.00	824.00	824.00	809.00	777.00	764.00	768.00	773.00	772.00	756.00	757.00	758.00	761.00	763.00	766.00	765.00	763.00	765.00	771.00	782.00	798.00	824.00	837.00	847.00	850.00	854.00	861.00	886.00	900.00	905.00	905.00	906.00	907.00	907.00	908.00	908.00	910.00	911.00	913.00	914.00	914.00	914.00	914.00	915.00	915.00	915.00	913.00	910.00	909.00	915.00	913.00	912.00	918.00	913.00	917.00	908.00	905.00	904.00	902.00	901.00	899.00	893.00	884.00	838.00	805.00	790.00	778.00	750.00	688.00	666.00	667.00	662.00	603.00	594.00	589.00	583.00	572.00	568.00	563.00	550.00	511.00	494.00	492.00	491.00	489.00	487.00	486.00	485.00	484.00	483.00	482.00	480.00	469.00	467.00	466.00	465.00	465.00	475.00	479.00
413.00	417.00	424.00	434.00	451.00	468.00	473.00	489.00	506.00	537.00	567.00	574.00	599.00	638.00	670.00	653.00	595.00	542.00	455.00	418.00	392.00	373.00	362.00	350.00	345.00	342.00	340.00	353.00	356.00	358.00	361.00	364.00	383.00	390.00	396.00	400.00	422.00	446.00	458.00	476.00	504.00	578.00	611.00	637.00	677.00	740.00	753.00	797.00	809.00	836.00	778.00	770.00	770.00	777.00	722.00	677.00	655.00	628.00	544.00	463.00	421.00	385.00	353.00	284.00	267.00	258.00	243.00	226.00	191.00	184.00	179.00	175.00	170.00	164.00	175.00	192.00	191.00	205.00	230.00	301.00	334.00	399.00	415.00	440.00	450.00	429.00	419.00	412.00	399.00	377.00	459.00	484.00	513.00	544.00	628.00	685.00	749.00	817.00	853.00	780.00	603.00	557.00	529.00	515.00	510.00	507.00	502.00	493.00	485.00	489.00	494.00	498.00	502.00	504.00	506.00	508.00	508.00	511.00	511.00	512.00	512.00	513.00	511.00	516.00	521.00	525.00	535.00	535.00	538.00	563.00	600.00	703.00	747.00	771.00	794.00	824.00	843.00	846.00	802.00	702.00	644.00	598.00	580.00	570.00	566.00	559.00	558.00	560.00	561.00	562.00	569.00	577.00	589.00	710.00	763.00	796.00	808.00	820.00	824.00	824.00	809.00	777.00	764.00	768.00	773.00	772.00	756.00	757.00	758.00	761.00	763.00	766.00	765.00	763.00	765.00	771.00	782.00	798.00	824.00	837.00	847.00	850.00	854.00	861.00	886.00	900.00	905.00	905.00	906.00	907.00	907.00	908.00	908.00	910.00	911.00	913.00	914.00	914.00	914.00	914.00	915.00	915.00	915.00	913.00	910.00	909.00	915.00	913.00	912.00	918.00	913.00	917.00	908.00	905.00	904.00	902.00	901.00	899.00	893.00	884.00	838.00	805.00	790.00	778.00	750.00	688.00	666.00	667.00	662.00	603.00	594.00	589.00	583.00	572.00	568.00	563.00	550.00	511.00	494.00	492.00	491.00	489.00	487.00	486.00	485.00	484.00	483.00	482.00	480.00	469.00	467.00	466.00	465.00	465.00	475.00	479.00
413.00	417.00	424.00	434.00	451.00	468.00	473.00	489.00	506.00	537.00	567.00	574.00	599.00	638.00	670.00	653.00	595.00	542.00	455.00	418.00	392.00	373.00	362.00	350.00	345.00	342.00	340.00	353.00	356.00	358.00	361.00	364.00	383.00	390.00	396.00	400.00	422.00	446.00	458.00	476.00	504.00	578.00	611.00	637.00	677.00	740.00	753.00	797.00	809.00	836.00	778.00	770.00	770.00	777.00	722.00	677.00	655.00	628.00	544.00	463.00	421.00	385.00	353.00	284.00	267.00	258.00	243.00	226.00	191.00	184.00	179.00	175.00	170.00	164.00	175.00	192.00	191.00	205.00	230.00	301.00	334.00	399.00	415.00	440.00	450.00	429.00	419.00	412.00	399.00	377.00	459.00	484.00	513.00	544.00	628.00	685.00	749.00	817.00	853.00	780.00	603.00	557.00	529.00	515.00	510.00	507.00	502.00	493.00	485.00	489.00	494.00	498.00	502.00	504.00	506.00	508.00	508.00	511.00	511.00	512.00	512.00	513.00	511.00	516.00	521.00	525.00	535.00	535.00	538.00	563.00	600.00	703.00	747.00	771.00	794.00	824.00	843.00	846.00	802.00	702.00	644.00	598.00	580.00	570.00	566.00	559.00	558.00	560.00	561.00	562.00	569.00	577.00	589.00	710.00	763.00	796.00	808.00	820.00	824.00	824.00	809.00	777.00	764.00	768.00	773.00	772.00	756.00	757.00	758.00	761.00	763.00	766.00	765.00	763.00	765.00	771.00	782.00	798.00	824.00	837.00	847.00	850.00	854.00	861.00	886.00	900.00	905.00	905.00	906.00	907.00	907.00	908.00	908.00	910.00	911.00	913.00	914.00	914.00	914.00	914.00	915.00	915.00	915.00	913.00	910.00	909.00	915.00	913.00	912.00	918.00	913.00	917.00	908.00	905.00	904.00	902.00	901.00	899.00	893.00	884.00	838.00	805.00	790.00	778.00	750.00	688.00	666.00	667.00	662.00	603.00	594.00	589.00	583.00	572.00	568.00	563.00	550.00	511.00	494.00	492.00	491.00	489.00	487.00	486.00	485.00	484.00	483.00	482.00	480.00	469.00	467.00	466.00	465.00	465.00	475.00	479.00
517.00	517.00	525.00	536.00	548.00	602.00	616.00	625.00	640.00	658.00	658.00	657.00	647.00	630.00	574.00	517.00	418.00	370.00	282.00	290.00	297.00	294.00	300.00	309.00	311.00	312.00	314.00	345.00	350.00	363.00	373.00	378.00	389.00	398.00	411.00	430.00	508.00	574.00	609.00	662.00	683.00	676.00	665.00	646.00	636.00	610.00	597.00	595.00	570.00	559.00	515.00	502.00	503.00	500.00	475.00	452.00	420.00	392.00	345.00	309.00	288.00	256.00	232.00	200.00	190.00	181.00	178.00	172.00	161.00	152.00	148.00	144.00	144.00	157.00	174.00	186.00	189.00	196.00	209.00	251.00	264.00	296.00	304.00	319.00	331.00	359.00	375.00	392.00	402.00	414.00	489.00	512.00	540.00	564.00	650.00	708.00	750.00	791.00	802.00	716.00	550.00	506.00	489.00	479.00	477.00	476.00	474.00	464.00	468.00	468.00	469.00	470.00	473.00	475.00	476.00	477.00	477.00	477.00	476.00	476.00	476.00	472.00	462.00	473.00	482.00	487.00	498.00	505.00	514.00	542.00	604.00	660.00	636.00	623.00	610.00	586.00	571.00	568.00	557.00	547.00	547.00	554.00	551.00	546.00	549.00	546.00	546.00	552.00	554.00	561.00	574.00	590.00	618.00	840.00	860.00	852.00	835.00	788.00	742.00	701.00	673.00	672.00	686.00	694.00	701.00	706.00	712.00	716.00	721.00	728.00	734.00	751.00	754.00	769.00	793.00	807.00	814.00	823.00	834.00	837.00	840.00	841.00	843.00	848.00	873.00	894.00	899.00	900.00	902.00	905.00	905.00	906.00	907.00	908.00	910.00	913.00	913.00	914.00	914.00	914.00	915.00	915.00	915.00	912.00	907.00	904.00	910.00	908.00	907.00	913.00	908.00	911.00	904.00	902.00	901.00	899.00	893.00	885.00	879.00	869.00	828.00	808.00	799.00	791.00	773.00	732.00	720.00	711.00	697.00	671.00	651.00	615.00	602.00	588.00	580.00	572.00	549.00	503.00	494.00	493.00	492.00	491.00	489.00	488.00	487.00	486.00	485.00	483.00	480.00	469.00	467.00	466.00	465.00	467.00	475.00	478.00
517.00	517.00	525.00	536.00	548.00	602.00	616.00	625.00	640.00	658.00	658.00	657.00	647.00	630.00	574.00	517.00	418.00	370.00	282.00	290.00	297.00	294.00	300.00	309.00	311.00	312.00	314.00	345.00	350.00	363.00	373.00	378.00	389.00	398.00	411.00	430.00	508.00	574.00	609.00	662.00	683.00	676.00	665.00	646.00	636.00	610.00	597.00	595.00	570.00	559.00	515.00	502.00	503.00	500.00	475.00	452.00	420.00	392.00	345.00	309.00	288.00	256.00	232.00	200.00	190.00	181.00	178.00	172.00	161.00	152.00	148.00	144.00	144.00	157.00	174.00	186.00	189.00	196.00	209.00	251.00	264.00	296.00	304.00	319.00	331.00	359.00	375.00	392.00	402.00	414.00	489.00	512.00	540.00	564.00	650.00	708.00	750.00	791.00	802.00	716.00	550.00	506.00	489.00	479.00	477.00	476.00	474.00	464.00	468.00	468.00	469.00	470.00	473.00	475.00	476.00	477.00	477.00	477.00	476.00	476.00	476.00	472.00	462.00	473.00	482.00	487.00	498.00	505.00	514.00	542.00	604.00	660.00	636.00	623.00	610.00	586.00	571.00	568.00	557.00	547.00	547.00	554.00	551.00	546.00	549.00	546.00	546.00	552.00	554.00	561.00	574.00	590.00	618.00	840.00	860.00	852.00	835.00	788.00	742.00	701.00	673.00	672.00	686.00	694.00	701.00	706.00	712.00	716.00	721.00	728.00	734.00	751.00	754.00	769.00	793.00	807.00	814.00	823.00	834.00	837.00	840.00	841.00	843.00	848.00	873.00	894.00	899.00	900.00	902.00	905.00	905.00	906.00	907.00	908.00	910.00	913.00	913.00	914.00	914.00	914.00	915.00	915.00	915.00	912.00	907.00	904.00	910.00	908.00	907.00	913.00	908.00	911.00	904.00	902.00	901.00	899.00	893.00	885.00	879.00	869.00	828.00	808.00	799.00	791.00	773.00	732.00	720.00	711.00	697.00	671.00	651.00	615.00	602.00	588.00	580.00	572.00	549.00	503.00	494.00	493.00	492.00	491.00	489.00	488.00	487.00	486.00	485.00	483.00	480.00	469.00	467.00	466.00	465.00	467.00	475.00	478.00
517.00	517.00	525.00	536.00	548.00	602.00	616.00	625.00	640.00	658.00	658.00	657.00	647.00	630.00	574.00	517.00	418.00	370.00	282.00	290.00	297.00	294.00	300.00	309.00	311.00	312.00	314.00	345.00	350.00	363.00	373.00	378.00	389.00	398.00	411.00	430.00	508.00	574.00	609.00	662.00	683.00	676.00	665.00	646.00	636.00	610.00	597.00	595.00	570.00	559.00	515.00	502.00	503.00	500.00	475.00	452.00	420.00	392.00	345.00	309.00	288.00	256.00	232.00	200.00	190.00	181.00	178.00	172.00	161.00	152.00	148.00	144.00	144.00	157.00	174.00	186.00	189.00	196.00	209.00	251.00	264.00	296.00	304.00	319.00	331.00	359.00	375.00	392.00	402.00	414.00	489.00	512.00	540.00	564.00	650.00	708.00	750.00	791.00	802.00	716.00	550.00	506.00	489.00	479.00	477.00	476.00	474.00	464.00	468.00	468.00	469.00	470.00	473.00	475.00	476.00	477.00	477.00	477.00	476.00	476.00	476.00	472.00	462.00	473.00	482.00	487.00	498.00	505.00	514.00	542.00	604.00	660.00	636.00	623.00	610.00	586.00	571.00	568.00	557.00	547.00	547.00	554.00	551.00	546.00	549.00	546.00	546.00	552.00	554.00	561.00	574.00	590.00	618.00	840.00	860.00	852.00	835.00	788.00	742.00	701.00	673.00	672.00	686.00	694.00	701.00	706.00	712.00	716.00	721.00	728.00	734.00	751.00	754.00	769.00	793.00	807.00	814.00	823.00	834.00	837.00	840.00	841.00	843.00	848.00	873.00	894.00	899.00	900.00	902.00	905.00	905.00	906.00	907.00	908.00	910.00	913.00	913.00	914.00	914.00	914.00	915.00	915.00	915.00	912.00	907.00	904.00	910.00	908.00	907.00	913.00	908.00	911.00	904.00	902.00	901.00	899.00	893.00	885.00	879.00	869.00	828.00	808.00	799.00	791.00	773.00	732.00	720.00	711.00	697.00	671.00	651.00	615.00	602.00	588.00	580.00	572.00	549.00	503.00	494.00	493.00	492.00	491.00	489.00	488.00	487.00	486.00	485.00	483.00	480.00	469.00	467.00	466.00	465.00	467.00	475.00	478.00
517.00	517.00	525.00	536.00	548.00	602.00	616.00	625.00	640.00	658.00	658.00	657.00	647.00	630.00	574.00	517.00	418.00	370.00	282.00	290.00	297.00	294.00	300.00	309.00	311.00	312.00	314.00	345.00	350.00	363.00	373.00	378.00	389.00	398.00	411.00	430.00	508.00	574.00	609.00	662.00	683.00	676.00	665.00	646.00	636.00	610.00	597.00	595.00	570.00	559.00	515.00	502.00	503.00	500.00	475.00	452.00	420.00	392.00	345.00	309.00	288.00	256.00	232.00	200.00	190.00	181.00	178.00	172.00	161.00	152.00	148.00	144.00	144.00	157.00	174.00	186.00	189.00	196.00	209.00	251.00	264.00	296.00	304.00	319.00	331.00	359.00	375.00	392.00	402.00	414.00	489.00	512.00	540.00	564.00	650.00	708.00	750.00	791.00	802.00	716.00	550.00	506.00	489.00	479.00	477.00	476.00	474.00	464.00	468.00	468.00	469.00	470.00	473.00	475.00	476.00	477.00	477.00	477.00	476.00	476.00	476.00	472.00	462.00	473.00	482.00	487.00	498.00	505.00	514.00	542.00	604.00	660.00	636.00	623.00	610.00	586.00	571.00	568.00	557.00	547.00	547.00	554.00	551.00	546.00	549.00	546.00	546.00	552.00	554.00	561.00	574.00	590.00	618.00	840.00	860.00	852.00	835.00	788.00	742.00	701.00	673.00	672.00	686.00	694.00	701.00	706.00	712.00	716.00	721.00	728.00	734.00	751.00	754.00	769.00	793.00	807.00	814.00	823.00	834.00	837.00	840.00	841.00	843.00	848.00	873.00	894.00	899.00	900.00	902.00	905.00	905.00	906.00	907.00	908.00	910.00	913.00	913.00	914.00	914.00	914.00	915.00	915.00	915.00	912.00	907.00	904.00	910.00	908.00	907.00	913.00	908.00	911.00	904.00	902.00	901.00	899.00	893.00	885.00	879.00	869.00	828.00	808.00	799.00	791.00	773.00	732.00	720.00	711.00	697.00	671.00	651.00	615.00	602.00	588.00	580.00	572.00	549.00	503.00	494.00	493.00	492.00	491.00	489.00	488.00	487.00	486.00	485.00	483.00	480.00	469.00	467.00	466.00	465.00	467.00	475.00	478.00
767.00	795.00	809.00	814.00	824.00	892.00	904.00	891.00	869.00	814.00	792.00	768.00	717.00	681.00	564.00	501.00	378.00	323.00	261.00	260.00	262.00	258.00	261.00	277.00	283.00	287.00	292.00	357.00	402.00	447.00	507.00	554.00	575.00	571.00	574.00	591.00	642.00	604.00	552.00	511.00	474.00	422.00	408.00	388.00	382.00	367.00	363.00	353.00	350.00	348.00	332.00	316.00	291.00	275.00	254.00	242.00	233.00	227.00	214.00	196.00	184.00	170.00	156.00	131.00	129.00	126.00	120.00	116.00	117.00	115.00	116.00	119.00	140.00	156.00	175.00	185.00	212.00	255.00	292.00	379.00	408.00	424.00	437.00	450.00	456.00	467.00	477.00	481.00	485.00	484.00	487.00	489.00	490.00	493.00	515.00	542.00	578.00	611.00	636.00	616.00	490.00	479.00	476.00	473.00	472.00	472.00	470.00	466.00	466.00	464.00	465.00	466.00	468.00	470.00	470.00	470.00	470.00	467.00	466.00	467.00	470.00	466.00	458.00	466.00	471.00	472.00	472.00	474.00	481.00	480.00	482.00	479.00	477.00	472.00	471.00	467.00	461.00	461.00	461.00	482.00	489.00	494.00	496.00	498.00	497.00	493.00	491.00	491.00	508.00	524.00	547.00	570.00	589.00	610.00	613.00	613.00	609.00	600.00	601.00	600.00	603.00	612.00	642.00	650.00	669.00	677.00	682.00	682.00	686.00	692.00	700.00	721.00	727.00	752.00	789.00	797.00	795.00	796.00	797.00	797.00	794.00	796.00	804.00	815.00	847.00	878.00	884.00	888.00	893.00	899.00	902.00	904.00	905.00	906.00	910.00	913.00	913.00	914.00	914.00	915.00	915.00	915.00	914.00	910.00	904.00	900.00	905.00	903.00	903.00	906.00	903.00	904.00	901.00	900.00	897.00	880.00	870.00	862.00	858.00	850.00	827.00	817.00	813.00	810.00	797.00	762.00	742.00	727.00	690.00	647.00	623.00	595.00	589.00	577.00	572.00	566.00	550.00	508.00	497.00	495.00	494.00	492.00	490.00	489.00	488.00	487.00	486.00	483.00	480.00	469.00	467.00	465.00	466.00	469.00	475.00	477.00
767.00	795.00	809.00	814.00	824.00	892.00	904.00	891.00	869.00	814.00	792.00	768.00	717.00	681.00	564.00	501.00	378.00	323.00	261.00	260.00	262.00	258.00	261.00	277.00	283.00	287.00	292.00	357.00	402.00	447.00	507.00	554.00	575.00	571.00	574.00	591.00	642.00	604.00	552.00	511.00	474.00	422.00	408.00	388.00	382.00	367.00	363.00	353.00	350.00	348.00	332.00	316.00	291.00	275.00	254.00	242.00	233.00	227.00	214.00	196.00	184.00	170.00	156.00	131.00	129.00	126.00	120.00	116.00	117.00	115.00	116.00	119.00	140.00	156.00	175.00	185.00	212.00	255.00	292.00	379.00	408.00	424.00	437.00	450.00	456.00	467.00	477.00	481.00	485.00	484.00	487.00	489.00	490.00	493.00	515.00	542.00	578.00	611.00	636.00	616.00	490.00	479.00	476.00	473.00	472.00	472.00	470.00	466.00	466.00	464.00	465.00	466.00	468.00	470.00	470.00	470.00	470.00	467.00	466.00	467.00	470.00	466.00	458.00	466.00	471.00	472.00	472.00	474.00	481.00	480.00	482.00	479.00	477.00	472.00	471.00	467.00	461.00	461.00	461.00	482.00	489.00	494.00	496.00	498.00	497.00	493.00	491.00	491.00	508.00	524.00	547.00	570.00	589.00	610.00	613.00	613.00	609.00	600.00	601.00	600.00	603.00	612.00	642.00	650.00	669.00	677.00	682.00	682.00	686.00	692.00	700.00	721.00	727.00	752.00	789.00	797.00	795.00	796.00	797.00	797.00	794.00	796.00	804.00	815.00	847.00	878.00	884.00	888.00	893.00	899.00	902.00	904.00	905.00	906.00	910.00	913.00	913.00	914.00	914.00	915.00	915.00	915.00	914.00	910.00	904.00	900.00	905.00	903.00	903.00	906.00	903.00	904.00	901.00	900.00	897.00	880.00	870.00	862.00	858.00	850.00	827.00	817.00	813.00	810.00	797.00	762.00	742.00	727.00	690.00	647.00	623.00	595.00	589.00	577.00	572.00	566.00	550.00	508.00	497.00	495.00	494.00	492.00	490.00	489.00	488.00	487.00	486.00	483.00	480.00	469.00	467.00	465.00	466.00	469.00	475.00	477.00
767.00	795.00	809.00	814.00	824.00	892.00	904.00	891.00	869.00	814.00	792.00	768.00	717.00	681.00	564.00	501.00	378.00	323.00	261.00	260.00	262.00	258.00	261.00	277.00	283.00	287.00	292.00	357.00	402.00	447.00	507.00	554.00	575.00	571.00	574.00	591.00	642.00	604.00	552.00	511.00	474.00	422.00	408.00	388.00	382.00	367.00	363.00	353.00	350.00	348.00	332.00	316.00	291.00	275.00	254.00	242.00	233.00	227.00	214.00	196.00	184.00	170.00	156.00	131.00	129.00	126.00	120.00	116.00	117.00	115.00	116.00	119.00	140.00	156.00	175.00	185.00	212.00	255.00	292.00	379.00	408.00	424.00	437.00	450.00	456.00	467.00	477.00	481.00	485.00	484.00	487.00	489.00	490.00	493.00	515.00	542.00	578.00	611.00	636.00	616.00	490.00	479.00	476.00	473.00	472.00	472.00	470.00	466.00	466.00	464.00	465.00	466.00	468.00	470.00	470.00	470.00	470.00	467.00	466.00	467.00	470.00	466.00	458.00	466.00	471.00	472.00	472.00	474.00	481.00	480.00	482.00	479.00	477.00	472.00	471.00	467.00	461.00	461.00	461.00	482.00	489.00	494.00	496.00	498.00	497.00	493.00	491.00	491.00	508.00	524.00	547.00	570.00	589.00	610.00	613.00	613.00	609.00	600.00	601.00	600.00	603.00	612.00	642.00	650.00	669.00	677.00	682.00	682.00	686.00	692.00	700.00	721.00	727.00	752.00	789.00	797.00	795.00	796.00	797.00	797.00	794.00	796.00	804.00	815.00	847.00	878.00	884.00	888.00	893.00	899.00	902.00	904.00	905.00	906.00	910.00	913.00	913.00	914.00	914.00	915.00	915.00	915.00	914.00	910.00	904.00	900.00	905.00	903.00	903.00	906.00	903.00	904.00	901.00	900.00	897.00	880.00	870.00	862.00	858.00	850.00	827.00	817.00	813.00	810.00	797.00	762.00	742.00	727.00	690.00	647.00	623.00	595.00	589.00	577.00	572.00	566.00	550.00	508.00	497.00	495.00	494.00	492.00	490.00	489.00	488.00	487.00	486.00	483.00	480.00	469.00	467.00	465.00	466.00	469.00	475.00	477.00
785.00	812.00	830.00	875.00	903.00	921.00	941.00	921.00	896.00	802.00	742.00	679.00	631.00	591.00	491.00	444.00	354.00	307.00	243.00	225.00	214.00	213.00	228.00	236.00	241.00	245.00	253.00	337.00	392.00	459.00	525.00	582.00	593.00	567.00	546.00	523.00	464.00	403.00	366.00	324.00	286.00	246.00	233.00	228.00	221.00	232.00	232.00	200.00	189.00	177.00	169.00	153.00	142.00	136.00	138.00	137.00	139.00	139.00	132.00	111.00	100.00	91.00	84.00	76.00	70.00	67.00	65.00	77.00	104.00	126.00	142.00	150.00	169.00	184.00	206.00	233.00	339.00	395.00	461.00	584.00	641.00	694.00	700.00	707.00	712.00	723.00	731.00	735.00	740.00	752.00	754.00	762.00	769.00	754.00	714.00	702.00	679.00	647.00	615.00	513.00	417.00	430.00	435.00	436.00	437.00	437.00	437.00	437.00	433.00	443.00	452.00	454.00	457.00	459.00	460.00	460.00	460.00	457.00	456.00	458.00	461.00	458.00	452.00	458.00	462.00	463.00	462.00	464.00	478.00	471.00	476.00	468.00	468.00	458.00	458.00	465.00	459.00	459.00	459.00	465.00	464.00	463.00	463.00	463.00	465.00	467.00	471.00	482.00	501.00	514.00	531.00	549.00	558.00	564.00	570.00	573.00	566.00	560.00	562.00	565.00	568.00	572.00	587.00	608.00	644.00	655.00	659.00	657.00	661.00	666.00	672.00	687.00	694.00	722.00	760.00	762.00	757.00	761.00	764.00	767.00	773.00	776.00	786.00	797.00	828.00	864.00	871.00	876.00	880.00	889.00	894.00	898.00	900.00	905.00	908.00	913.00	913.00	914.00	915.00	915.00	915.00	914.00	911.00	908.00	903.00	900.00	902.00	900.00	899.00	898.00	895.00	888.00	882.00	873.00	866.00	844.00	835.00	828.00	822.00	812.00	796.00	780.00	753.00	733.00	698.00	663.00	643.00	635.00	617.00	593.00	589.00	584.00	580.00	573.00	569.00	566.00	555.00	527.00	508.00	502.00	498.00	494.00	490.00	489.00	487.00	485.00	484.00	482.00	479.00	467.00	466.00	467.00	469.00	470.00	475.00	476.00
785.00	812.00	830.00	875.00	903.00	921.00	941.00	921.00	896.00	802.00	742.00	679.00	631.00	591.00	491.00	444.00	354.00	307.00	243.00	225.00	214.00	213.00	228.00	236.00	241.00	245.00	253.00	337.00	392.00	459.00	525.00	582.00	593.00	567.00	546.00	523.00	464.00	403.00	366.00	324.00	286.00	246.00	233.00	228.00	221.00	232.00	232.00	200.00	189.00	177.00	169.00	153.00	142.00	136.00	138.00	137.00	139.00	139.00	132.00	111.00	100.00	91.00	84.00	76.00	70.00	67.00	65.00	77.00	104.00	126.00	142.00	150.00	169.00	184.00	206.00	233.00	339.00	395.00	461.00	584.00	641.00	694.00	700.00	707.00	712.00	723.00	731.00	735.00	740.00	752.00	754.00	762.00	769.00	754.00	714.00	702.00	679.00	647.00	615.00	513.00	417.00	430.00	435.00	436.00	437.00	437.00	437.00	437.00	433.00	443.00	452.00	454.00	457.00	459.00	460.00	460.00	460.00	457.00	456.00	458.00	461.00	458.00	452.00	458.00	462.00	463.00	462.00	464.00	478.00	471.00	476.00	468.00	468.00	458.00	458.00	465.00	459.00	459.00	459.00	465.00	464.00	463.00	463.00	463.00	465.00	467.00	471.00	482.00	501.00	514.00	531.00	549.00	558.00	564.00	570.00	573.00	566.00	560.00	562.00	565.00	568.00	572.00	587.00	608.00	644.00	655.00	659.00	657.00	661.00	666.00	672.00	687.00	694.00	722.00	760.00	762.00	757.00	761.00	764.00	767.00	773.00	776.00	786.00	797.00	828.00	864.00	871.00	876.00	880.00	889.00	894.00	898.00	900.00	905.00	908.00	913.00	913.00	914.00	915.00	915.00	915.00	914.00	911.00	908.00	903.00	900.00	902.00	900.00	899.00	898.00	895.00	888.00	882.00	873.00	866.00	844.00	835.00	828.00	822.00	812.00	796.00	780.00	753.00	733.00	698.00	663.00	643.00	635.00	617.00	593.00	589.00	584.00	580.00	573.00	569.00	566.00	555.00	527.00	508.00	502.00	498.00	494.00	490.00	489.00	487.00	485.00	484.00	482.00	479.00	467.00	466.00	467.00	469.00	470.00	475.00	476.00
785.00	812.00	830.00	875.00	903.00	921.00	941.00	921.00	896.00	802.00	742.00	679.00	631.00	591.00	491.00	444.00	354.00	307.00	243.00	225.00	214.00	213.00	228.00	236.00	241.00	245.00	253.00	337.00	392.00	459.00	525.00	582.00	593.00	567.00	546.00	523.00	464.00	403.00	366.00	324.00	286.00	246.00	233.00	228.00	221.00	232.00	232.00	200.00	189.00	177.00	169.00	153.00	142.00	136.00	138.00	137.00	139.00	139.00	132.00	111.00	100.00	91.00	84.00	76.00	70.00	67.00	65.00	77.00	104.00	126.00	142.00	150.00	169.00	184.00	206.00	233.00	339.00	395.00	461.00	584.00	641.00	694.00	700.00	707.00	712.00	723.00	731.00	735.00	740.00	752.00	754.00	762.00	769.00	754.00	714.00	702.00	679.00	647.00	615.00	513.00	417.00	430.00	435.00	436.00	437.00	437.00	437.00	437.00	433.00	443.00	452.00	454.00	457.00	459.00	460.00	460.00	460.00	457.00	456.00	458.00	461.00	458.00	452.00	458.00	462.00	463.00	462.00	464.00	478.00	471.00	476.00	468.00	468.00	458.00	458.00	465.00	459.00	459.00	459.00	465.00	464.00	463.00	463.00	463.00	465.00	467.00	471.00	482.00	501.00	514.00	531.00	549.00	558.00	564.00	570.00	573.00	566.00	560.00	562.00	565.00	568.00	572.00	587.00	608.00	644.00	655.00	659.00	657.00	661.00	666.00	672.00	687.00	694.00	722.00	760.00	762.00	757.00	761.00	764.00	767.00	773.00	776.00	786.00	797.00	828.00	864.00	871.00	876.00	880.00	889.00	894.00	898.00	900.00	905.00	908.00	913.00	913.00	914.00	915.00	915.00	915.00	914.00	911.00	908.00	903.00	900.00	902.00	900.00	899.00	898.00	895.00	888.00	882.00	873.00	866.00	844.00	835.00	828.00	822.00	812.00	796.00	780.00	753.00	733.00	698.00	663.00	643.00	635.00	617.00	593.00	589.00	584.00	580.00	573.00	569.00	566.00	555.00	527.00	508.00	502.00	498.00	494.00	490.00	489.00	487.00	485.00	484.00	482.00	479.00	467.00	466.00	467.00	469.00	470.00	475.00	476.00
785.00	812.00	830.00	875.00	903.00	921.00	941.00	921.00	896.00	802.00	742.00	679.00	631.00	591.00	491.00	444.00	354.00	307.00	243.00	225.00	214.00	213.00	228.00	236.00	241.00	245.00	253.00	337.00	392.00	459.00	525.00	582.00	593.00	567.00	546.00	523.00	464.00	403.00	366.00	324.00	286.00	246.00	233.00	228.00	221.00	232.00	232.00	200.00	189.00	177.00	169.00	153.00	142.00	136.00	138.00	137.00	139.00	139.00	132.00	111.00	100.00	91.00	84.00	76.00	70.00	67.00	65.00	77.00	104.00	126.00	142.00	150.00	169.00	184.00	206.00	233.00	339.00	395.00	461.00	584.00	641.00	694.00	700.00	707.00	712.00	723.00	731.00	735.00	740.00	752.00	754.00	762.00	769.00	754.00	714.00	702.00	679.00	647.00	615.00	513.00	417.00	430.00	435.00	436.00	437.00	437.00	437.00	437.00	433.00	443.00	452.00	454.00	457.00	459.00	460.00	460.00	460.00	457.00	456.00	458.00	461.00	458.00	452.00	458.00	462.00	463.00	462.00	464.00	478.00	471.00	476.00	468.00	468.00	458.00	458.00	465.00	459.00	459.00	459.00	465.00	464.00	463.00	463.00	463.00	465.00	467.00	471.00	482.00	501.00	514.00	531.00	549.00	558.00	564.00	570.00	573.00	566.00	560.00	562.00	565.00	568.00	572.00	587.00	608.00	644.00	655.00	659.00	657.00	661.00	666.00	672.00	687.00	694.00	722.00	760.00	762.00	757.00	761.00	764.00	767.00	773.00	776.00	786.00	797.00	828.00	864.00	871.00	876.00	880.00	889.00	894.00	898.00	900.00	905.00	908.00	913.00	913.00	914.00	915.00	915.00	915.00	914.00	911.00	908.00	903.00	900.00	902.00	900.00	899.00	898.00	895.00	888.00	882.00	873.00	866.00	844.00	835.00	828.00	822.00	812.00	796.00	780.00	753.00	733.00	698.00	663.00	643.00	635.00	617.00	593.00	589.00	584.00	580.00	573.00	569.00	566.00	555.00	527.00	508.00	502.00	498.00	494.00	490.00	489.00	487.00	485.00	484.00	482.00	479.00	467.00	466.00	467.00	469.00	470.00	475.00	476.00
706.00	726.00	744.00	744.00	732.00	679.00	685.00	700.00	708.00	735.00	725.00	707.00	686.00	639.00	530.00	481.00	370.00	310.00	203.00	193.00	198.00	204.00	209.00	211.00	213.00	213.00	210.00	230.00	275.00	320.00	347.00	347.00	306.00	286.00	265.00	250.00	216.00	182.00	171.00	152.00	140.00	119.00	111.00	105.00	100.00	94.00	88.00	88.00	88.00	93.00	86.00	86.00	87.00	83.00	85.00	98.00	100.00	100.00	99.00	79.00	71.00	67.00	65.00	68.00	76.00	80.00	89.00	116.00	154.00	182.00	201.00	224.00	286.00	317.00	338.00	362.00	423.00	470.00	506.00	603.00	665.00	776.00	792.00	799.00	810.00	823.00	829.00	843.00	858.00	862.00	885.00	879.00	870.00	849.00	748.00	695.00	631.00	560.00	497.00	426.00	412.00	415.00	418.00	418.00	418.00	415.00	412.00	411.00	412.00	425.00	434.00	438.00	443.00	444.00	444.00	445.00	446.00	443.00	442.00	443.00	448.00	446.00	442.00	447.00	450.00	451.00	450.00	454.00	474.00	466.00	473.00	466.00	467.00	458.00	458.00	466.00	461.00	462.00	464.00	464.00	465.00	467.00	470.00	473.00	477.00	485.00	491.00	501.00	514.00	523.00	534.00	551.00	559.00	563.00	571.00	574.00	568.00	561.00	563.00	569.00	572.00	574.00	597.00	615.00	645.00	654.00	655.00	654.00	655.00	658.00	664.00	677.00	683.00	720.00	759.00	760.00	755.00	764.00	769.00	773.00	777.00	780.00	783.00	791.00	821.00	861.00	868.00	872.00	876.00	884.00	887.00	891.00	895.00	901.00	907.00	912.00	913.00	914.00	915.00	914.00	912.00	910.00	906.00	904.00	902.00	898.00	895.00	888.00	879.00	875.00	866.00	857.00	847.00	838.00	834.00	816.00	809.00	803.00	795.00	781.00	742.00	711.00	692.00	678.00	661.00	628.00	619.00	617.00	616.00	600.00	596.00	593.00	589.00	582.00	579.00	575.00	565.00	548.00	518.00	508.00	499.00	494.00	491.00	489.00	488.00	486.00	485.00	482.00	479.00	467.00	465.00	471.00	472.00	473.00	476.00	477.00
706.00	726.00	744.00	744.00	732.00	679.00	685.00	700.00	708.00	735.00	725.00	707.00	686.00	639.00	530.00	481.00	370.00	310.00	203.00	193.00	198.00	204.00	209.00	211.00	213.00	213.00	210.00	230.00	275.00	320.00	347.00	347.00	306.00	286.00	265.00	250.00	216.00	182.00	171.00	152.00	140.00	119.00	111.00	105.00	100.00	94.00	88.00	88.00	88.00	93.00	86.00	86.00	87.00	83.00	85.00	98.00	100.00	100.00	99.00	79.00	71.00	67.00	65.00	68.00	76.00	80.00	89.00	116.00	154.00	182.00	201.00	224.00	286.00	317.00	338.00	362.00	423.00	470.00	506.00	603.00	665.00	776.00	792.00	799.00	810.00	823.00	829.00	843.00	858.00	862.00	885.00	879.00	870.00	849.00	748.00	695.00	631.00	560.00	497.00	426.00	412.00	415.00	418.00	418.00	418.00	415.00	412.00	411.00	412.00	425.00	434.00	438.00	443.00	444.00	444.00	445.00	446.00	443.00	442.00	443.00	448.00	446.00	442.00	447.00	450.00	451.00	450.00	454.00	474.00	466.00	473.00	466.00	467.00	458.00	458.00	466.00	461.00	462.00	464.00	464.00	465.00	467.00	470.00	473.00	477.00	485.00	491.00	501.00	514.00	523.00	534.00	551.00	559.00	563.00	571.00	574.00	568.00	561.00	563.00	569.00	572.00	574.00	597.00	615.00	645.00	654.00	655.00	654.00	655.00	658.00	664.00	677.00	683.00	720.00	759.00	760.00	755.00	764.00	769.00	773.00	777.00	780.00	783.00	791.00	821.00	861.00	868.00	872.00	876.00	884.00	887.00	891.00	895.00	901.00	907.00	912.00	913.00	914.00	915.00	914.00	912.00	910.00	906.00	904.00	902.00	898.00	895.00	888.00	879.00	875.00	866.00	857.00	847.00	838.00	834.00	816.00	809.00	803.00	795.00	781.00	742.00	711.00	692.00	678.00	661.00	628.00	619.00	617.00	616.00	600.00	596.00	593.00	589.00	582.00	579.00	575.00	565.00	548.00	518.00	508.00	499.00	494.00	491.00	489.00	488.00	486.00	485.00	482.00	479.00	467.00	465.00	471.00	472.00	473.00	476.00	477.00
706.00	726.00	744.00	744.00	732.00	679.00	685.00	700.00	708.00	735.00	725.00	707.00	686.00	639.00	530.00	481.00	370.00	310.00	203.00	193.00	198.00	204.00	209.00	211.00	213.00	213.00	210.00	230.00	275.00	320.00	347.00	347.00	306.00	286.00	265.00	250.00	216.00	182.00	171.00	152.00	140.00	119.00	111.00	105.00	100.00	94.00	88.00	88.00	88.00	93.00	86.00	86.00	87.00	83.00	85.00	98.00	100.00	100.00	99.00	79.00	71.00	67.00	65.00	68.00	76.00	80.00	89.00	116.00	154.00	182.00	201.00	224.00	286.00	317.00	338.00	362.00	423.00	470.00	506.00	603.00	665.00	776.00	792.00	799.00	810.00	823.00	829.00	843.00	858.00	862.00	885.00	879.00	870.00	849.00	748.00	695.00	631.00	560.00	497.00	426.00	412.00	415.00	418.00	418.00	418.00	415.00	412.00	411.00	412.00	425.00	434.00	438.00	443.00	444.00	444.00	445.00	446.00	443.00	442.00	443.00	448.00	446.00	442.00	447.00	450.00	451.00	450.00	454.00	474.00	466.00	473.00	466.00	467.00	458.00	458.00	466.00	461.00	462.00	464.00	464.00	465.00	467.00	470.00	473.00	477.00	485.00	491.00	501.00	514.00	523.00	534.00	551.00	559.00	563.00	571.00	574.00	568.00	561.00	563.00	569.00	572.00	574.00	597.00	615.00	645.00	654.00	655.00	654.00	655.00	658.00	664.00	677.00	683.00	720.00	759.00	760.00	755.00	764.00	769.00	773.00	777.00	780.00	783.00	791.00	821.00	861.00	868.00	872.00	876.00	884.00	887.00	891.00	895.00	901.00	907.00	912.00	913.00	914.00	915.00	914.00	912.00	910.00	906.00	904.00	902.00	898.00	895.00	888.00	879.00	875.00	866.00	857.00	847.00	838.00	834.00	816.00	809.00	803.00	795.00	781.00	742.00	711.00	692.00	678.00	661.00	628.00	619.00	617.00	616.00	600.00	596.00	593.00	589.00	582.00	579.00	575.00	565.00	548.00	518.00	508.00	499.00	494.00	491.00	489.00	488.00	486.00	485.00	482.00	479.00	467.00	465.00	471.00	472.00	473.00	476.00	477.00
706.00	726.00	744.00	744.00	732.00	679.00	685.00	700.00	708.00	735.00	725.00	707.00	686.00	639.00	530.00	481.00	370.00	310.00	203.00	193.00	198.00	204.00	209.00	211.00	213.00	213.00	210.00	230.00	275.00	320.00	347.00	347.00	306.00	286.00	265.00	250.00	216.00	182.00	171.00	152.00	140.00	119.00	111.00	105.00	100.00	94.00	88.00	88.00	88.00	93.00	86.00	86.00	87.00	83.00	85.00	98.00	100.00	100.00	99.00	79.00	71.00	67.00	65.00	68.00	76.00	80.00	89.00	116.00	154.00	182.00	201.00	224.00	286.00	317.00	338.00	362.00	423.00	470.00	506.00	603.00	665.00	776.00	792.00	799.00	810.00	823.00	829.00	843.00	858.00	862.00	885.00	879.00	870.00	849.00	748.00	695.00	631.00	560.00	497.00	426.00	412.00	415.00	418.00	418.00	418.00	415.00	412.00	411.00	412.00	425.00	434.00	438.00	443.00	444.00	444.00	445.00	446.00	443.00	442.00	443.00	448.00	446.00	442.00	447.00	450.00	451.00	450.00	454.00	474.00	466.00	473.00	466.00	467.00	458.00	458.00	466.00	461.00	462.00	464.00	464.00	465.00	467.00	470.00	473.00	477.00	485.00	491.00	501.00	514.00	523.00	534.00	551.00	559.00	563.00	571.00	574.00	568.00	561.00	563.00	569.00	572.00	574.00	597.00	615.00	645.00	654.00	655.00	654.00	655.00	658.00	664.00	677.00	683.00	720.00	759.00	760.00	755.00	764.00	769.00	773.00	777.00	780.00	783.00	791.00	821.00	861.00	868.00	872.00	876.00	884.00	887.00	891.00	895.00	901.00	907.00	912.00	913.00	914.00	915.00	914.00	912.00	910.00	906.00	904.00	902.00	898.00	895.00	888.00	879.00	875.00	866.00	857.00	847.00	838.00	834.00	816.00	809.00	803.00	795.00	781.00	742.00	711.00	692.00	678.00	661.00	628.00	619.00	617.00	616.00	600.00	596.00	593.00	589.00	582.00	579.00	575.00	565.00	548.00	518.00	508.00	499.00	494.00	491.00	489.00	488.00	486.00	485.00	482.00	479.00	467.00	465.00	471.00	472.00	473.00	476.00	477.00
706.00	726.00	744.00	744.00	732.00	679.00	685.00	700.00	708.00	735.00	725.00	707.00	686.00	639.00	530.00	481.00	370.00	310.00	203.00	193.00	198.00	204.00	209.00	211.00	213.00	213.00	210.00	230.00	275.00	320.00	347.00	347.00	306.00	286.00	265.00	250.00	216.00	182.00	171.00	152.00	140.00	119.00	111.00	105.00	100.00	94.00	88.00	88.00	88.00	93.00	86.00	86.00	87.00	83.00	85.00	98.00	100.00	100.00	99.00	79.00	71.00	67.00	65.00	68.00	76.00	80.00	89.00	116.00	154.00	182.00	201.00	224.00	286.00	317.00	338.00	362.00	423.00	470.00	506.00	603.00	665.00	776.00	792.00	799.00	810.00	823.00	829.00	843.00	858.00	862.00	885.00	879.00	870.00	849.00	748.00	695.00	631.00	560.00	497.00	426.00	412.00	415.00	418.00	418.00	418.00	415.00	412.00	411.00	412.00	425.00	434.00	438.00	443.00	444.00	444.00	445.00	446.00	443.00	442.00	443.00	448.00	446.00	442.00	447.00	450.00	451.00	450.00	454.00	474.00	466.00	473.00	466.00	467.00	458.00	458.00	466.00	461.00	462.00	464.00	464.00	465.00	467.00	470.00	473.00	477.00	485.00	491.00	501.00	514.00	523.00	534.00	551.00	559.00	563.00	571.00	574.00	568.00	561.00	563.00	569.00	572.00	574.00	597.00	615.00	645.00	654.00	655.00	654.00	655.00	658.00	664.00	677.00	683.00	720.00	759.00	760.00	755.00	764.00	769.00	773.00	777.00	780.00	783.00	791.00	821.00	861.00	868.00	872.00	876.00	884.00	887.00	891.00	895.00	901.00	907.00	912.00	913.00	914.00	915.00	914.00	912.00	910.00	906.00	904.00	902.00	898.00	895.00	888.00	879.00	875.00	866.00	857.00	847.00	838.00	834.00	816.00	809.00	803.00	795.00	781.00	742.00	711.00	692.00	678.00	661.00	628.00	619.00	617.00	616.00	600.00	596.00	593.00	589.00	582.00	579.00	575.00	565.00	548.00	518.00	508.00	499.00	494.00	491.00	489.00	488.00	486.00	485.00	482.00	479.00	467.00	465.00	471.00	472.00	473.00	476.00	477.00
713.00	683.00	635.00	585.00	540.00	476.00	464.00	460.00	459.00	494.00	515.00	535.00	563.00	579.00	527.00	470.00	353.00	293.00	195.00	175.00	159.00	158.00	157.00	133.00	125.00	127.00	128.00	125.00	125.00	124.00	122.00	118.00	96.00	93.00	92.00	89.00	76.00	69.00	64.00	59.00	54.00	49.00	47.00	45.00	43.00	46.00	45.00	53.00	59.00	61.00	62.00	62.00	63.00	64.00	65.00	69.00	71.00	71.00	75.00	79.00	88.00	99.00	107.00	131.00	144.00	160.00	184.00	233.00	300.00	333.00	374.00	417.00	516.00	517.00	503.00	491.00	490.00	500.00	515.00	566.00	606.00	705.00	710.00	709.00	706.00	681.00	672.00	658.00	645.00	632.00	574.00	567.00	561.00	541.00	496.00	461.00	433.00	409.00	390.00	365.00	398.00	403.00	404.00	406.00	408.00	409.00	410.00	412.00	412.00	421.00	427.00	428.00	432.00	433.00	434.00	436.00	438.00	437.00	437.00	439.00	443.00	444.00	442.00	446.00	448.00	450.00	450.00	456.00	483.00	476.00	485.00	482.00	484.00	480.00	480.00	484.00	482.00	485.00	487.00	486.00	488.00	493.00	500.00	503.00	509.00	514.00	519.00	525.00	539.00	544.00	551.00	568.00	576.00	583.00	590.00	593.00	595.00	632.00	661.00	667.00	673.00	685.00	657.00	667.00	676.00	676.00	670.00	669.00	668.00	670.00	683.00	709.00	715.00	735.00	761.00	758.00	752.00	759.00	764.00	765.00	770.00	773.00	776.00	780.00	812.00	855.00	861.00	865.00	869.00	877.00	882.00	886.00	890.00	899.00	907.00	912.00	914.00	915.00	914.00	912.00	909.00	906.00	900.00	896.00	891.00	883.00	878.00	867.00	850.00	841.00	828.00	814.00	805.00	799.00	794.00	782.00	772.00	755.00	748.00	733.00	716.00	705.00	693.00	682.00	676.00	669.00	659.00	662.00	666.00	659.00	645.00	641.00	644.00	658.00	656.00	639.00	612.00	587.00	541.00	521.00	507.00	501.00	496.00	494.00	493.00	493.00	491.00	488.00	485.00	473.00	475.00	480.00	480.00	481.00	482.00	483.00
713.00	683.00	635.00	585.00	540.00	476.00	464.00	460.00	459.00	494.00	515.00	535.00	563.00	579.00	527.00	470.00	353.00	293.00	195.00	175.00	159.00	158.00	157.00	133.00	125.00	127.00	128.00	125.00	125.00	124.00	122.00	118.00	96.00	93.00	92.00	89.00	76.00	69.00	64.00	59.00	54.00	49.00	47.00	45.00	43.00	46.00	45.00	53.00	59.00	61.00	62.00	62.00	63.00	64.00	65.00	69.00	71.00	71.00	75.00	79.00	88.00	99.00	107.00	131.00	144.00	160.00	184.00	233.00	300.00	333.00	374.00	417.00	516.00	517.00	503.00	491.00	490.00	500.00	515.00	566.00	606.00	705.00	710.00	709.00	706.00	681.00	672.00	658.00	645.00	632.00	574.00	567.00	561.00	541.00	496.00	461.00	433.00	409.00	390.00	365.00	398.00	403.00	404.00	406.00	408.00	409.00	410.00	412.00	412.00	421.00	427.00	428.00	432.00	433.00	434.00	436.00	438.00	437.00	437.00	439.00	443.00	444.00	442.00	446.00	448.00	450.00	450.00	456.00	483.00	476.00	485.00	482.00	484.00	480.00	480.00	484.00	482.00	485.00	487.00	486.00	488.00	493.00	500.00	503.00	509.00	514.00	519.00	525.00	539.00	544.00	551.00	568.00	576.00	583.00	590.00	593.00	595.00	632.00	661.00	667.00	673.00	685.00	657.00	667.00	676.00	676.00	670.00	669.00	668.00	670.00	683.00	709.00	715.00	735.00	761.00	758.00	752.00	759.00	764.00	765.00	770.00	773.00	776.00	780.00	812.00	855.00	861.00	865.00	869.00	877.00	882.00	886.00	890.00	899.00	907.00	912.00	914.00	915.00	914.00	912.00	909.00	906.00	900.00	896.00	891.00	883.00	878.00	867.00	850.00	841.00	828.00	814.00	805.00	799.00	794.00	782.00	772.00	755.00	748.00	733.00	716.00	705.00	693.00	682.00	676.00	669.00	659.00	662.00	666.00	659.00	645.00	641.00	644.00	658.00	656.00	639.00	612.00	587.00	541.00	521.00	507.00	501.00	496.00	494.00	493.00	493.00	491.00	488.00	485.00	473.00	475.00	480.00	480.00	481.00	482.00	483.00
713.00	683.00	635.00	585.00	540.00	476.00	464.00	460.00	459.00	494.00	515.00	535.00	563.00	579.00	527.00	470.00	353.00	293.00	195.00	175.00	159.00	158.00	157.00	133.00	125.00	127.00	128.00	125.00	125.00	124.00	122.00	118.00	96.00	93.00	92.00	89.00	76.00	69.00	64.00	59.00	54.00	49.00	47.00	45.00	43.00	46.00	45.00	53.00	59.00	61.00	62.00	62.00	63.00	64.00	65.00	69.00	71.00	71.00	75.00	79.00	88.00	99.00	107.00	131.00	144.00	160.00	184.00	233.00	300.00	333.00	374.00	417.00	516.00	517.00	503.00	491.00	490.00	500.00	515.00	566.00	606.00	705.00	710.00	709.00	706.00	681.00	672.00	658.00	645.00	632.00	574.00	567.00	561.00	541.00	496.00	461.00	433.00	409.00	390.00	365.00	398.00	403.00	404.00	406.00	408.00	409.00	410.00	412.00	412.00	421.00	427.00	428.00	432.00	433.00	434.00	436.00	438.00	437.00	437.00	439.00	443.00	444.00	442.00	446.00	448.00	450.00	450.00	456.00	483.00	476.00	485.00	482.00	484.00	480.00	480.00	484.00	482.00	485.00	487.00	486.00	488.00	493.00	500.00	503.00	509.00	514.00	519.00	525.00	539.00	544.00	551.00	568.00	576.00	583.00	590.00	593.00	595.00	632.00	661.00	667.00	673.00	685.00	657.00	667.00	676.00	676.00	670.00	669.00	668.00	670.00	683.00	709.00	715.00	735.00	761.00	758.00	752.00	759.00	764.00	765.00	770.00	773.00	776.00	780.00	812.00	855.00	861.00	865.00	869.00	877.00	882.00	886.00	890.00	899.00	907.00	912.00	914.00	915.00	914.00	912.00	909.00	906.00	900.00	896.00	891.00	883.00	878.00	867.00	850.00	841.00	828.00	814.00	805.00	799.00	794.00	782.00	772.00	755.00	748.00	733.00	716.00	705.00	693.00	682.00	676.00	669.00	659.00	662.00	666.00	659.00	645.00	641.00	644.00	658.00	656.00	639.00	612.00	587.00	541.00	521.00	507.00	501.00	496.00	494.00	493.00	493.00	491.00	488.00	485.00	473.00	475.00	480.00	480.00	481.00	482.00	483.00
770.00	715.00	654.00	604.00	557.00	444.00	407.00	387.00	359.00	312.00	305.00	295.00	297.00	309.00	304.00	284.00	217.00	194.00	161.00	151.00	142.00	135.00	125.00	102.00	94.00	85.00	89.00	71.00	65.00	56.00	51.00	47.00	42.00	40.00	39.00	38.00	36.00	34.00	33.00	33.00	33.00	37.00	41.00	44.00	47.00	58.00	61.00	67.00	70.00	76.00	83.00	84.00	87.00	96.00	108.00	115.00	125.00	137.00	173.00	198.00	208.00	212.00	219.00	239.00	258.00	280.00	309.00	393.00	511.00	558.00	597.00	630.00	727.00	767.00	779.00	772.00	731.00	727.00	723.00	738.00	761.00	767.00	757.00	717.00	663.00	593.00	568.00	552.00	533.00	518.00	485.00	478.00	461.00	446.00	432.00	413.00	405.00	396.00	383.00	360.00	380.00	383.00	384.00	390.00	394.00	398.00	401.00	405.00	406.00	410.00	415.00	415.00	419.00	421.00	423.00	425.00	428.00	429.00	429.00	431.00	434.00	437.00	438.00	440.00	443.00	445.00	448.00	456.00	490.00	489.00	504.00	580.00	600.00	632.00	641.00	663.00	650.00	629.00	624.00	631.00	636.00	640.00	650.00	638.00	605.00	587.00	574.00	568.00	562.00	561.00	562.00	581.00	591.00	605.00	611.00	620.00	629.00	685.00	732.00	775.00	785.00	788.00	740.00	730.00	720.00	706.00	691.00	686.00	677.00	677.00	692.00	735.00	741.00	753.00	768.00	768.00	763.00	765.00	767.00	768.00	774.00	776.00	780.00	783.00	811.00	854.00	861.00	865.00	869.00	878.00	882.00	886.00	890.00	899.00	907.00	913.00	915.00	915.00	912.00	910.00	906.00	903.00	886.00	879.00	875.00	867.00	862.00	846.00	820.00	804.00	795.00	782.00	777.00	772.00	767.00	756.00	738.00	720.00	721.00	720.00	729.00	740.00	740.00	739.00	747.00	757.00	766.00	775.00	787.00	807.00	824.00	844.00	866.00	881.00	843.00	782.00	667.00	606.00	565.00	550.00	540.00	535.00	528.00	525.00	522.00	518.00	514.00	508.00	506.00	505.00	503.00	500.00	499.00	498.00	498.00	497.00
770.00	715.00	654.00	604.00	557.00	444.00	407.00	387.00	359.00	312.00	305.00	295.00	297.00	309.00	304.00	284.00	217.00	194.00	161.00	151.00	142.00	135.00	125.00	102.00	94.00	85.00	89.00	71.00	65.00	56.00	51.00	47.00	42.00	40.00	39.00	38.00	36.00	34.00	33.00	33.00	33.00	37.00	41.00	44.00	47.00	58.00	61.00	67.00	70.00	76.00	83.00	84.00	87.00	96.00	108.00	115.00	125.00	137.00	173.00	198.00	208.00	212.00	219.00	239.00	258.00	280.00	309.00	393.00	511.00	558.00	597.00	630.00	727.00	767.00	779.00	772.00	731.00	727.00	723.00	738.00	761.00	767.00	757.00	717.00	663.00	593.00	568.00	552.00	533.00	518.00	485.00	478.00	461.00	446.00	432.00	413.00	405.00	396.00	383.00	360.00	380.00	383.00	384.00	390.00	394.00	398.00	401.00	405.00	406.00	410.00	415.00	415.00	419.00	421.00	423.00	425.00	428.00	429.00	429.00	431.00	434.00	437.00	438.00	440.00	443.00	445.00	448.00	456.00	490.00	489.00	504.00	580.00	600.00	632.00	641.00	663.00	650.00	629.00	624.00	631.00	636.00	640.00	650.00	638.00	605.00	587.00	574.00	568.00	562.00	561.00	562.00	581.00	591.00	605.00	611.00	620.00	629.00	685.00	732.00	775.00	785.00	788.00	740.00	730.00	720.00	706.00	691.00	686.00	677.00	677.00	692.00	735.00	741.00	753.00	768.00	768.00	763.00	765.00	767.00	768.00	774.00	776.00	780.00	783.00	811.00	854.00	861.00	865.00	869.00	878.00	882.00	886.00	890.00	899.00	907.00	913.00	915.00	915.00	912.00	910.00	906.00	903.00	886.00	879.00	875.00	867.00	862.00	846.00	820.00	804.00	795.00	782.00	777.00	772.00	767.00	756.00	738.00	720.00	721.00	720.00	729.00	740.00	740.00	739.00	747.00	757.00	766.00	775.00	787.00	807.00	824.00	844.00	866.00	881.00	843.00	782.00	667.00	606.00	565.00	550.00	540.00	535.00	528.00	525.00	522.00	518.00	514.00	508.00	506.00	505.00	503.00	500.00	499.00	498.00	498.00	497.00
770.00	715.00	654.00	604.00	557.00	444.00	407.00	387.00	359.00	312.00	305.00	295.00	297.00	309.00	304.00	284.00	217.00	194.00	161.00	151.00	142.00	135.00	125.00	102.00	94.00	85.00	89.00	71.00	65.00	56.00	51.00	47.00	42.00	40.00	39.00	38.00	36.00	34.00	33.00	33.00	33.00	37.00	41.00	44.00	47.00	58.00	61.00	67.00	70.00	76.00	83.00	84.00	87.00	96.00	108.00	115.00	125.00	137.00	173.00	198.00	208.00	212.00	219.00	239.00	258.00	280.00	309.00	393.00	511.00	558.00	597.00	630.00	727.00	767.00	779.00	772.00	731.00	727.00	723.00	738.00	761.00	767.00	757.00	717.00	663.00	593.00	568.00	552.00	533.00	518.00	485.00	478.00	461.00	446.00	432.00	413.00	405.00	396.00	383.00	360.00	380.00	383.00	384.00	390.00	394.00	398.00	401.00	405.00	406.00	410.00	415.00	415.00	419.00	421.00	423.00	425.00	428.00	429.00	429.00	431.00	434.00	437.00	438.00	440.00	443.00	445.00	448.00	456.00	490.00	489.00	504.00	580.00	600.00	632.00	641.00	663.00	650.00	629.00	624.00	631.00	636.00	640.00	650.00	638.00	605.00	587.00	574.00	568.00	562.00	561.00	562.00	581.00	591.00	605.00	611.00	620.00	629.00	685.00	732.00	775.00	785.00	788.00	740.00	730.00	720.00	706.00	691.00	686.00	677.00	677.00	692.00	735.00	741.00	753.00	768.00	768.00	763.00	765.00	767.00	768.00	774.00	776.00	780.00	783.00	811.00	854.00	861.00	865.00	869.00	878.00	882.00	886.00	890.00	899.00	907.00	913.00	915.00	915.00	912.00	910.00	906.00	903.00	886.00	879.00	875.00	867.00	862.00	846.00	820.00	804.00	795.00	782.00	777.00	772.00	767.00	756.00	738.00	720.00	721.00	720.00	729.00	740.00	740.00	739.00	747.00	757.00	766.00	775.00	787.00	807.00	824.00	844.00	866.00	881.00	843.00	782.00	667.00	606.00	565.00	550.00	540.00	535.00	528.00	525.00	522.00	518.00	514.00	508.00	506.00	505.00	503.00	500.00	499.00	498.00	498.00	497.00
770.00	715.00	654.00	604.00	557.00	444.00	407.00	387.00	359.00	312.00	305.00	295.00	297.00	309.00	304.00	284.00	217.00	194.00	161.00	151.00	142.00	135.00	125.00	102.00	94.00	85.00	89.00	71.00	65.00	56.00	51.00	47.00	42.00	40.00	39.00	38.00	36.00	34.00	33.00	33.00	33.00	37.00	41.00	44.00	47.00	58.00	61.00	67.00	70.00	76.00	83.00	84.00	87.00	96.00	108.00	115.00	125.00	137.00	173.00	198.00	208.00	212.00	219.00	239.00	258.00	280.00	309.00	393.00	511.00	558.00	597.00	630.00	727.00	767.00	779.00	772.00	731.00	727.00	723.00	738.00	761.00	767.00	757.00	717.00	663.00	593.00	568.00	552.00	533.00	518.00	485.00	478.00	461.00	446.00	432.00	413.00	405.00	396.00	383.00	360.00	380.00	383.00	384.00	390.00	394.00	398.00	401.00	405.00	406.00	410.00	415.00	415.00	419.00	421.00	423.00	425.00	428.00	429.00	429.00	431.00	434.00	437.00	438.00	440.00	443.00	445.00	448.00	456.00	490.00	489.00	504.00	580.00	600.00	632.00	641.00	663.00	650.00	629.00	624.00	631.00	636.00	640.00	650.00	638.00	605.00	587.00	574.00	568.00	562.00	561.00	562.00	581.00	591.00	605.00	611.00	620.00	629.00	685.00	732.00	775.00	785.00	788.00	740.00	730.00	720.00	706.00	691.00	686.00	677.00	677.00	692.00	735.00	741.00	753.00	768.00	768.00	763.00	765.00	767.00	768.00	774.00	776.00	780.00	783.00	811.00	854.00	861.00	865.00	869.00	878.00	882.00	886.00	890.00	899.00	907.00	913.00	915.00	915.00	912.00	910.00	906.00	903.00	886.00	879.00	875.00	867.00	862.00	846.00	820.00	804.00	795.00	782.00	777.00	772.00	767.00	756.00	738.00	720.00	721.00	720.00	729.00	740.00	740.00	739.00	747.00	757.00	766.00	775.00	787.00	807.00	824.00	844.00	866.00	881.00	843.00	782.00	667.00	606.00	565.00	550.00	540.00	535.00	528.00	525.00	522.00	518.00	514.00	508.00	506.00	505.00	503.00	500.00	499.00	498.00	498.00	497.00
748.00	705.00	664.00	639.00	617.00	573.00	549.00	500.00	454.00	344.00	295.00	248.00	202.00	175.00	154.00	147.00	127.00	124.00	111.00	99.00	91.00	84.00	79.00	71.00	68.00	65.00	65.00	53.00	49.00	41.00	36.00	33.00	31.00	32.00	33.00	36.00	48.00	51.00	52.00	52.00	54.00	59.00	62.00	68.00	69.00	82.00	87.00	96.00	104.00	118.00	139.00	148.00	158.00	170.00	192.00	213.00	231.00	247.00	291.00	322.00	339.00	348.00	347.00	346.00	350.00	364.00	374.00	428.00	497.00	555.00	619.00	683.00	805.00	864.00	902.00	939.00	1022.00	1040.00	1038.00	994.00	968.00	866.00	805.00	768.00	728.00	695.00	691.00	690.00	689.00	694.00	666.00	626.00	565.00	503.00	406.00	400.00	399.00	394.00	386.00	373.00	386.00	386.00	385.00	387.00	389.00	393.00	399.00	401.00	401.00	402.00	403.00	403.00	404.00	404.00	406.00	407.00	408.00	409.00	409.00	409.00	409.00	406.00	406.00	405.00	404.00	402.00	410.00	430.00	487.00	517.00	625.00	752.00	808.00	865.00	899.00	922.00	929.00	930.00	931.00	912.00	913.00	904.00	880.00	844.00	737.00	694.00	665.00	642.00	633.00	632.00	635.00	635.00	637.00	650.00	651.00	661.00	661.00	681.00	700.00	709.00	720.00	754.00	754.00	757.00	762.00	766.00	796.00	802.00	807.00	806.00	805.00	808.00	806.00	800.00	799.00	793.00	789.00	786.00	779.00	787.00	799.00	804.00	810.00	817.00	833.00	868.00	873.00	876.00	880.00	886.00	889.00	893.00	896.00	902.00	910.00	914.00	915.00	914.00	911.00	909.00	905.00	903.00	876.00	870.00	866.00	859.00	853.00	835.00	810.00	794.00	780.00	766.00	765.00	764.00	763.00	771.00	763.00	755.00	769.00	767.00	783.00	790.00	798.00	810.00	840.00	884.00	913.00	936.00	944.00	951.00	938.00	899.00	883.00	804.00	759.00	721.00	613.00	594.00	560.00	545.00	535.00	528.00	522.00	521.00	519.00	514.00	511.00	514.00	518.00	519.00	521.00	524.00	527.00	529.00	534.00	536.00
748.00	705.00	664.00	639.00	617.00	573.00	549.00	500.00	454.00	344.00	295.00	248.00	202.00	175.00	154.00	147.00	127.00	124.00	111.00	99.00	91.00	84.00	79.00	71.00	68.00	65.00	65.00	53.00	49.00	41.00	36.00	33.00	31.00	32.00	33.00	36.00	48.00	51.00	52.00	52.00	54.00	59.00	62.00	68.00	69.00	82.00	87.00	96.00	104.00	118.00	139.00	148.00	158.00	170.00	192.00	213.00	231.00	247.00	291.00	322.00	339.00	348.00	347.00	346.00	350.00	364.00	374.00	428.00	497.00	555.00	619.00	683.00	805.00	864.00	902.00	939.00	1022.00	1040.00	1038.00	994.00	968.00	866.00	805.00	768.00	728.00	695.00	691.00	690.00	689.00	694.00	666.00	626.00	565.00	503.00	406.00	400.00	399.00	394.00	386.00	373.00	386.00	386.00	385.00	387.00	389.00	393.00	399.00	401.00	401.00	402.00	403.00	403.00	404.00	404.00	406.00	407.00	408.00	409.00	409.00	409.00	409.00	406.00	406.00	405.00	404.00	402.00	410.00	430.00	487.00	517.00	625.00	752.00	808.00	865.00	899.00	922.00	929.00	930.00	931.00	912.00	913.00	904.00	880.00	844.00	737.00	694.00	665.00	642.00	633.00	632.00	635.00	635.00	637.00	650.00	651.00	661.00	661.00	681.00	700.00	709.00	720.00	754.00	754.00	757.00	762.00	766.00	796.00	802.00	807.00	806.00	805.00	808.00	806.00	800.00	799.00	793.00	789.00	786.00	779.00	787.00	799.00	804.00	810.00	817.00	833.00	868.00	873.00	876.00	880.00	886.00	889.00	893.00	896.00	902.00	910.00	914.00	915.00	914.00	911.00	909.00	905.00	903.00	876.00	870.00	866.00	859.00	853.00	835.00	810.00	794.00	780.00	766.00	765.00	764.00	763.00	771.00	763.00	755.00	769.00	767.00	783.00	790.00	798.00	810.00	840.00	884.00	913.00	936.00	944.00	951.00	938.00	899.00	883.00	804.00	759.00	721.00	613.00	594.00	560.00	545.00	535.00	528.00	522.00	521.00	519.00	514.00	511.00	514.00	518.00	519.00	521.00	524.00	527.00	529.00	534.00	536.00
748.00	705.00	664.00	639.00	617.00	573.00	549.00	500.00	454.00	344.00	295.00	248.00	202.00	175.00	154.00	147.00	127.00	124.00	111.00	99.00	91.00	84.00	79.00	71.00	68.00	65.00	65.00	53.00	49.00	41.00	36.00	33.00	31.00	32.00	33.00	36.00	48.00	51.00	52.00	52.00	54.00	59.00	62.00	68.00	69.00	82.00	87.00	96.00	104.00	118.00	139.00	148.00	158.00	170.00	192.00	213.00	231.00	247.00	291.00	322.00	339.00	348.00	347.00	346.00	350.00	364.00	374.00	428.00	497.00	555.00	619.00	683.00	805.00	864.00	902.00	939.00	1022.00	1040.00	1038.00	994.00	968.00	866.00	805.00	768.00	728.00	695.00	691.00	690.00	689.00	694.00	666.00	626.00	565.00	503.00	406.00	400.00	399.00	394.00	386.00	373.00	386.00	386.00	385.00	387.00	389.00	393.00	399.00	401.00	401.00	402.00	403.00	403.00	404.00	404.00	406.00	407.00	408.00	409.00	409.00	409.00	409.00	406.00	406.00	405.00	404.00	402.00	410.00	430.00	487.00	517.00	625.00	752.00	808.00	865.00	899.00	922.00	929.00	930.00	931.00	912.00	913.00	904.00	880.00	844.00	737.00	694.00	665.00	642.00	633.00	632.00	635.00	635.00	637.00	650.00	651.00	661.00	661.00	681.00	700.00	709.00	720.00	754.00	754.00	757.00	762.00	766.00	796.00	802.00	807.00	806.00	805.00	808.00	806.00	800.00	799.00	793.00	789.00	786.00	779.00	787.00	799.00	804.00	810.00	817.00	833.00	868.00	873.00	876.00	880.00	886.00	889.00	893.00	896.00	902.00	910.00	914.00	915.00	914.00	911.00	909.00	905.00	903.00	876.00	870.00	866.00	859.00	853.00	835.00	810.00	794.00	780.00	766.00	765.00	764.00	763.00	771.00	763.00	755.00	769.00	767.00	783.00	790.00	798.00	810.00	840.00	884.00	913.00	936.00	944.00	951.00	938.00	899.00	883.00	804.00	759.00	721.00	613.00	594.00	560.00	545.00	535.00	528.00	522.00	521.00	519.00	514.00	511.00	514.00	518.00	519.00	521.00	524.00	527.00	529.00	534.00	536.00
748.00	705.00	664.00	639.00	617.00	573.00	549.00	500.00	454.00	344.00	295.00	248.00	202.00	175.00	154.00	147.00	127.00	124.00	111.00	99.00	91.00	84.00	79.00	71.00	68.00	65.00	65.00	53.00	49.00	41.00	36.00	33.00	31.00	32.00	33.00	36.00	48.00	51.00	52.00	52.00	54.00	59.00	62.00	68.00	69.00	82.00	87.00	96.00	104.00	118.00	139.00	148.00	158.00	170.00	192.00	213.00	231.00	247.00	291.00	322.00	339.00	348.00	347.00	346.00	350.00	364.00	374.00	428.00	497.00	555.00	619.00	683.00	805.00	864.00	902.00	939.00	1022.00	1040.00	1038.00	994.00	968.00	866.00	805.00	768.00	728.00	695.00	691.00	690.00	689.00	694.00	666.00	626.00	565.00	503.00	406.00	400.00	399.00	394.00	386.00	373.00	386.00	386.00	385.00	387.00	389.00	393.00	399.00	401.00	401.00	402.00	403.00	403.00	404.00	404.00	406.00	407.00	408.00	409.00	409.00	409.00	409.00	406.00	406.00	405.00	404.00	402.00	410.00	430.00	487.00	517.00	625.00	752.00	808.00	865.00	899.00	922.00	929.00	930.00	931.00	912.00	913.00	904.00	880.00	844.00	737.00	694.00	665.00	642.00	633.00	632.00	635.00	635.00	637.00	650.00	651.00	661.00	661.00	681.00	700.00	709.00	720.00	754.00	754.00	757.00	762.00	766.00	796.00	802.00	807.00	806.00	805.00	808.00	806.00	800.00	799.00	793.00	789.00	786.00	779.00	787.00	799.00	804.00	810.00	817.00	833.00	868.00	873.00	876.00	880.00	886.00	889.00	893.00	896.00	902.00	910.00	914.00	915.00	914.00	911.00	909.00	905.00	903.00	876.00	870.00	866.00	859.00	853.00	835.00	810.00	794.00	780.00	766.00	765.00	764.00	763.00	771.00	763.00	755.00	769.00	767.00	783.00	790.00	798.00	810.00	840.00	884.00	913.00	936.00	944.00	951.00	938.00	899.00	883.00	804.00	759.00	721.00	613.00	594.00	560.00	545.00	535.00	528.00	522.00	521.00	519.00	514.00	511.00	514.00	518.00	519.00	521.00	524.00	527.00	529.00	534.00	536.00
631.00	603.00	575.00	537.00	484.00	387.00	373.00	348.00	309.00	229.00	198.00	162.00	133.00	117.00	92.00	81.00	68.00	63.00	53.00	45.00	42.00	39.00	38.00	37.00	36.00	36.00	36.00	35.00	35.00	37.00	38.00	39.00	43.00	49.00	51.00	56.00	67.00	74.00	80.00	81.00	84.00	93.00	97.00	107.00	116.00	143.00	158.00	200.00	219.00	233.00	271.00	293.00	306.00	328.00	388.00	409.00	450.00	499.00	536.00	586.00	595.00	603.00	616.00	577.00	554.00	546.00	548.00	575.00	628.00	666.00	710.00	750.00	860.00	905.00	947.00	985.00	1091.00	1068.00	1004.00	908.00	855.00	747.00	721.00	710.00	713.00	720.00	741.00	765.00	779.00	764.00	608.00	545.00	480.00	431.00	387.00	386.00	386.00	382.00	377.00	375.00	383.00	382.00	381.00	380.00	380.00	379.00	384.00	386.00	385.00	384.00	383.00	382.00	381.00	383.00	384.00	383.00	382.00	383.00	384.00	381.00	374.00	369.00	366.00	364.00	362.00	366.00	406.00	470.00	554.00	620.00	741.00	861.00	931.00	938.00	927.00	900.00	891.00	878.00	872.00	927.00	969.00	1002.00	976.00	929.00	832.00	798.00	761.00	735.00	706.00	693.00	691.00	686.00	683.00	670.00	663.00	662.00	661.00	667.00	689.00	696.00	707.00	748.00	754.00	756.00	762.00	760.00	769.00	775.00	783.00	794.00	801.00	822.00	821.00	817.00	818.00	820.00	822.00	823.00	832.00	839.00	846.00	850.00	854.00	859.00	863.00	885.00	889.00	891.00	893.00	897.00	899.00	902.00	904.00	910.00	914.00	914.00	914.00	911.00	908.00	906.00	904.00	901.00	875.00	871.00	866.00	863.00	861.00	849.00	832.00	823.00	820.00	822.00	824.00	823.00	820.00	825.00	828.00	831.00	837.00	846.00	872.00	889.00	916.00	940.00	988.00	999.00	982.00	955.00	915.00	827.00	802.00	784.00	761.00	705.00	683.00	656.00	596.00	589.00	558.00	545.00	536.00	528.00	524.00	523.00	522.00	515.00	511.00	524.00	531.00	535.00	539.00	548.00	554.00	561.00	571.00	580.00
631.00	603.00	575.00	537.00	484.00	387.00	373.00	348.00	309.00	229.00	198.00	162.00	133.00	117.00	92.00	81.00	68.00	63.00	53.00	45.00	42.00	39.00	38.00	37.00	36.00	36.00	36.00	35.00	35.00	37.00	38.00	39.00	43.00	49.00	51.00	56.00	67.00	74.00	80.00	81.00	84.00	93.00	97.00	107.00	116.00	143.00	158.00	200.00	219.00	233.00	271.00	293.00	306.00	328.00	388.00	409.00	450.00	499.00	536.00	586.00	595.00	603.00	616.00	577.00	554.00	546.00	548.00	575.00	628.00	666.00	710.00	750.00	860.00	905.00	947.00	985.00	1091.00	1068.00	1004.00	908.00	855.00	747.00	721.00	710.00	713.00	720.00	741.00	765.00	779.00	764.00	608.00	545.00	480.00	431.00	387.00	386.00	386.00	382.00	377.00	375.00	383.00	382.00	381.00	380.00	380.00	379.00	384.00	386.00	385.00	384.00	383.00	382.00	381.00	383.00	384.00	383.00	382.00	383.00	384.00	381.00	374.00	369.00	366.00	364.00	362.00	366.00	406.00	470.00	554.00	620.00	741.00	861.00	931.00	938.00	927.00	900.00	891.00	878.00	872.00	927.00	969.00	1002.00	976.00	929.00	832.00	798.00	761.00	735.00	706.00	693.00	691.00	686.00	683.00	670.00	663.00	662.00	661.00	667.00	689.00	696.00	707.00	748.00	754.00	756.00	762.00	760.00	769.00	775.00	783.00	794.00	801.00	822.00	821.00	817.00	818.00	820.00	822.00	823.00	832.00	839.00	846.00	850.00	854.00	859.00	863.00	885.00	889.00	891.00	893.00	897.00	899.00	902.00	904.00	910.00	914.00	914.00	914.00	911.00	908.00	906.00	904.00	901.00	875.00	871.00	866.00	863.00	861.00	849.00	832.00	823.00	820.00	822.00	824.00	823.00	820.00	825.00	828.00	831.00	837.00	846.00	872.00	889.00	916.00	940.00	988.00	999.00	982.00	955.00	915.00	827.00	802.00	784.00	761.00	705.00	683.00	656.00	596.00	589.00	558.00	545.00	536.00	528.00	524.00	523.00	522.00	515.00	511.00	524.00	531.00	535.00	539.00	548.00	554.00	561.00	571.00	580.00
631.00	603.00	575.00	537.00	484.00	387.00	373.00	348.00	309.00	229.00	198.00	162.00	133.00	117.00	92.00	81.00	68.00	63.00	53.00	45.00	42.00	39.00	38.00	37.00	36.00	36.00	36.00	35.00	35.00	37.00	38.00	39.00	43.00	49.00	51.00	56.00	67.00	74.00	80.00	81.00	84.00	93.00	97.00	107.00	116.00	143.00	158.00	200.00	219.00	233.00	271.00	293.00	306.00	328.00	388.00	409.00	450.00	499.00	536.00	586.00	595.00	603.00	616.00	577.00	554.00	546.00	548.00	575.00	628.00	666.00	710.00	750.00	860.00	905.00	947.00	985.00	1091.00	1068.00	1004.00	908.00	855.00	747.00	721.00	710.00	713.00	720.00	741.00	765.00	779.00	764.00	608.00	545.00	480.00	431.00	387.00	386.00	386.00	382.00	377.00	375.00	383.00	382.00	381.00	380.00	380.00	379.00	384.00	386.00	385.00	384.00	383.00	382.00	381.00	383.00	384.00	383.00	382.00	383.00	384.00	381.00	374.00	369.00	366.00	364.00	362.00	366.00	406.00	470.00	554.00	620.00	741.00	861.00	931.00	938.00	927.00	900.00	891.00	878.00	872.00	927.00	969.00	1002.00	976.00	929.00	832.00	798.00	761.00	735.00	706.00	693.00	691.00	686.00	683.00	670.00	663.00	662.00	661.00	667.00	689.00	696.00	707.00	748.00	754.00	756.00	762.00	760.00	769.00	775.00	783.00	794.00	801.00	822.00	821.00	817.00	818.00	820.00	822.00	823.00	832.00	839.00	846.00	850.00	854.00	859.00	863.00	885.00	889.00	891.00	893.00	897.00	899.00	902.00	904.00	910.00	914.00	914.00	914.00	911.00	908.00	906.00	904.00	901.00	875.00	871.00	866.00	863.00	861.00	849.00	832.00	823.00	820.00	822.00	824.00	823.00	820.00	825.00	828.00	831.00	837.00	846.00	872.00	889.00	916.00	940.00	988.00	999.00	982.00	955.00	915.00	827.00	802.00	784.00	761.00	705.00	683.00	656.00	596.00	589.00	558.00	545.00	536.00	528.00	524.00	523.00	522.00	515.00	511.00	524.00	531.00	535.00	539.00	548.00	554.00	561.00	571.00	580.00
