1051.00	1082.00	1090.00	1096.00	1111.00	1122.00	1136.00	1142.00	1149.00	1163.00	1189.00	1201.00	1233.00	1256.00	1245.00	1272.00	1298.00	1327.00	1337.00	1333.00	1329.00	1343.00	1347.00	1333.00	1371.00	1328.00	1100.00	1014.00	1055.00	1106.00	984.00	989.00	965.00	879.00	835.00	816.00	809.00	801.00	794.00	786.00	770.00	762.00	752.00	741.00	747.00	745.00	753.00	768.00	783.00	767.00	780.00	770.00	750.00	758.00	781.00	800.00	822.00	869.00	931.00	915.00	884.00	905.00	899.00	878.00	828.00	817.00	805.00	791.00	783.00	776.00	775.00	784.00	821.00	854.00	845.00	775.00	766.00	756.00	745.00	737.00	725.00	731.00	758.00	762.00	734.00	735.00	724.00	715.00	693.00	675.00	669.00	656.00	650.00	636.00	615.00	614.00	599.00	591.00	577.00	572.00	571.00	576.00	576.00	570.00	570.00	571.00	568.00	549.00	548.00	611.00	705.00	675.00	525.00	508.00	506.00	503.00	499.00	496.00	492.00	489.00	487.00	482.00	480.00	477.00	476.00	471.00	467.00	464.00	461.00	460.00	459.00	456.00	452.00	450.00	451.00	452.00	446.00	451.00	450.00	452.00	450.00	450.00	451.00	446.00	444.00	450.00	450.00	437.00	417.00	437.00	441.00	449.00	454.00	458.00	462.00	465.00	472.00	476.00	479.00	484.00	487.00	495.00	498.00	506.00	516.00	534.00	542.00	550.00	555.00	561.00	576.00	592.00	617.00	638.00	651.00	672.00	687.00	693.00	698.00	694.00	694.00	690.00	678.00	651.00	640.00	640.00	641.00	640.00	646.00	644.00	649.00	659.00	668.00	674.00	679.00	683.00	687.00	621.00	610.00	589.00	536.00	699.00	593.00	526.00	503.00	492.00	495.00	504.00	512.00	522.00	552.00	582.00	601.00	625.00	660.00	884.00	956.00	1078.00	1150.00	1125.00	1007.00	899.00	719.00	683.00	706.00	769.00	807.00	894.00	896.00	960.00	1014.00	1052.00	1156.00	1248.00	1175.00	1053.00	1185.00	1237.00	1200.00	1082.00	1125.00	1229.00	1282.00	1247.00	1110.00	1066.00	1322.00	1366.00	1381.00	1384.00	1353.00	1202.00	1229.00	1420.00	1471.00	1586.00
1051.00	1082.00	1090.00	1096.00	1111.00	1122.00	1136.00	1142.00	1149.00	1163.00	1189.00	1201.00	1233.00	1256.00	1245.00	1272.00	1298.00	1327.00	1337.00	1333.00	1329.00	1343.00	1347.00	1333.00	1371.00	1328.00	1100.00	1014.00	1055.00	1106.00	984.00	989.00	965.00	879.00	835.00	816.00	809.00	801.00	794.00	786.00	770.00	762.00	752.00	741.00	747.00	745.00	753.00	768.00	783.00	767.00	780.00	770.00	750.00	758.00	781.00	800.00	822.00	869.00	931.00	915.00	884.00	905.00	899.00	878.00	828.00	817.00	805.00	791.00	783.00	776.00	775.00	784.00	821.00	854.00	845.00	775.00	766.00	756.00	745.00	737.00	725.00	731.00	758.00	762.00	734.00	735.00	724.00	715.00	693.00	675.00	669.00	656.00	650.00	636.00	615.00	614.00	599.00	591.00	577.00	572.00	571.00	576.00	576.00	570.00	570.00	571.00	568.00	549.00	548.00	611.00	705.00	675.00	525.00	508.00	506.00	503.00	499.00	496.00	492.00	489.00	487.00	482.00	480.00	477.00	476.00	471.00	467.00	464.00	461.00	460.00	459.00	456.00	452.00	450.00	451.00	452.00	446.00	451.00	450.00	452.00	450.00	450.00	451.00	446.00	444.00	450.00	450.00	437.00	417.00	437.00	441.00	449.00	454.00	458.00	462.00	465.00	472.00	476.00	479.00	484.00	487.00	495.00	498.00	506.00	516.00	534.00	542.00	550.00	555.00	561.00	576.00	592.00	617.00	638.00	651.00	672.00	687.00	693.00	698.00	694.00	694.00	690.00	678.00	651.00	640.00	640.00	641.00	640.00	646.00	644.00	649.00	659.00	668.00	674.00	679.00	683.00	687.00	621.00	610.00	589.00	536.00	699.00	593.00	526.00	503.00	492.00	495.00	504.00	512.00	522.00	552.00	582.00	601.00	625.00	660.00	884.00	956.00	1078.00	1150.00	1125.00	1007.00	899.00	719.00	683.00	706.00	769.00	807.00	894.00	896.00	960.00	1014.00	1052.00	1156.00	1248.00	1175.00	1053.00	1185.00	1237.00	1200.00	1082.00	1125.00	1229.00	1282.00	1247.00	1110.00	1066.00	1322.00	1366.00	1381.00	1384.00	1353.00	1202.00	1229.00	1420.00	1471.00	1586.00
1064.00	1100.00	1116.00	1120.00	1127.00	1130.00	1149.00	1165.00	1154.00	1197.00	1242.00	1251.00	1300.00	1293.00	1279.00	1294.00	1305.00	1323.00	1335.00	1348.00	1348.00	1346.00	1371.00	1354.00	1371.00	1316.00	1121.00	1022.00	978.00	1056.00	1006.00	1001.00	964.00	858.00	839.00	822.00	812.00	803.00	796.00	785.00	768.00	760.00	755.00	746.00	745.00	740.00	746.00	758.00	776.00	762.00	778.00	767.00	761.00	749.00	763.00	759.00	769.00	819.00	845.00	843.00	847.00	893.00	873.00	856.00	819.00	806.00	794.00	781.00	779.00	768.00	764.00	779.00	808.00	832.00	828.00	779.00	757.00	755.00	749.00	741.00	720.00	716.00	726.00	741.00	736.00	725.00	708.00	695.00	686.00	665.00	663.00	653.00	640.00	631.00	608.00	602.00	596.00	585.00	575.00	569.00	568.00	570.00	573.00	561.00	564.00	565.00	566.00	548.00	541.00	596.00	673.00	651.00	532.00	511.00	509.00	507.00	497.00	496.00	493.00	489.00	488.00	483.00	481.00	479.00	476.00	472.00	468.00	467.00	464.00	462.00	458.00	456.00	452.00	449.00	445.00	448.00	446.00	447.00	448.00	448.00	449.00	447.00	449.00	440.00	443.00	448.00	446.00	428.00	420.00	442.00	447.00	449.00	455.00	459.00	464.00	467.00	473.00	477.00	480.00	486.00	490.00	499.00	503.00	506.00	514.00	531.00	535.00	541.00	545.00	550.00	578.00	593.00	621.00	643.00	654.00	671.00	676.00	692.00	699.00	688.00	687.00	686.00	674.00	647.00	642.00	642.00	642.00	644.00	651.00	650.00	656.00	665.00	673.00	680.00	687.00	693.00	695.00	660.00	685.00	649.00	561.00	612.00	534.00	505.00	495.00	491.00	496.00	505.00	516.00	527.00	558.00	595.00	613.00	631.00	685.00	957.00	972.00	1022.00	1151.00	1268.00	1173.00	1019.00	756.00	689.00	653.00	703.00	718.00	767.00	781.00	819.00	887.00	945.00	980.00	1079.00	1085.00	950.00	1107.00	1230.00	1084.00	970.00	1103.00	1186.00	1062.00	1095.00	1003.00	1053.00	1233.00	1312.00	1375.00	1357.00	1317.00	1222.00	1314.00	1437.00	1474.00	1563.00
1079.00	1094.00	1123.00	1137.00	1136.00	1148.00	1165.00	1185.00	1170.00	1178.00	1233.00	1261.00	1297.00	1295.00	1294.00	1291.00	1298.00	1314.00	1324.00	1334.00	1343.00	1358.00	1396.00	1389.00	1351.00	1262.00	1174.00	1075.00	969.00	964.00	974.00	919.00	955.00	862.00	845.00	824.00	813.00	803.00	793.00	785.00	765.00	757.00	749.00	741.00	737.00	735.00	748.00	761.00	759.00	752.00	769.00	766.00	752.00	736.00	747.00	739.00	745.00	767.00	787.00	802.00	834.00	865.00	856.00	829.00	802.00	798.00	787.00	769.00	769.00	765.00	756.00	767.00	783.00	805.00	803.00	788.00	750.00	749.00	743.00	737.00	716.00	711.00	711.00	724.00	729.00	718.00	718.00	694.00	679.00	654.00	650.00	647.00	638.00	624.00	608.00	600.00	588.00	582.00	575.00	569.00	564.00	562.00	568.00	556.00	556.00	559.00	560.00	550.00	545.00	550.00	602.00	599.00	542.00	515.00	511.00	510.00	500.00	498.00	494.00	490.00	489.00	485.00	483.00	481.00	479.00	473.00	471.00	467.00	465.00	462.00	460.00	457.00	455.00	454.00	451.00	447.00	446.00	447.00	451.00	448.00	448.00	443.00	445.00	439.00	434.00	441.00	447.00	424.00	449.00	445.00	450.00	453.00	456.00	460.00	464.00	467.00	475.00	477.00	480.00	486.00	490.00	499.00	505.00	511.00	513.00	524.00	530.00	537.00	546.00	555.00	602.00	601.00	622.00	635.00	644.00	651.00	674.00	698.00	700.00	683.00	677.00	678.00	670.00	645.00	643.00	644.00	645.00	647.00	654.00	655.00	662.00	671.00	682.00	686.00	694.00	700.00	700.00	696.00	715.00	665.00	634.00	526.00	498.00	493.00	492.00	489.00	497.00	508.00	520.00	534.00	563.00	603.00	625.00	647.00	690.00	900.00	927.00	1017.00	1135.00	1350.00	1241.00	1094.00	796.00	709.00	694.00	675.00	692.00	704.00	695.00	712.00	803.00	803.00	812.00	868.00	944.00	895.00	976.00	1161.00	938.00	990.00	1096.00	1073.00	964.00	996.00	1038.00	1113.00	1295.00	1424.00	1423.00	1355.00	1256.00	1293.00	1379.00	1457.00	1504.00	1525.00
1050.00	1085.00	1098.00	1124.00	1129.00	1133.00	1139.00	1148.00	1179.00	1193.00	1211.00	1229.00	1287.00	1241.00	1229.00	1242.00	1243.00	1284.00	1283.00	1281.00	1300.00	1315.00	1217.00	1208.00	1193.00	1252.00	1132.00	1041.00	1005.00	963.00	932.00	910.00	892.00	858.00	847.00	822.00	813.00	803.00	794.00	786.00	765.00	756.00	747.00	738.00	725.00	724.00	742.00	746.00	731.00	742.00	758.00	776.00	772.00	726.00	728.00	708.00	728.00	739.00	762.00	787.00	808.00	787.00	802.00	784.00	758.00	747.00	743.00	742.00	741.00	739.00	730.00	733.00	754.00	778.00	797.00	809.00	739.00	724.00	723.00	721.00	713.00	708.00	698.00	690.00	703.00	688.00	685.00	682.00	670.00	657.00	642.00	634.00	633.00	654.00	701.00	678.00	598.00	580.00	567.00	563.00	561.00	558.00	554.00	547.00	549.00	548.00	545.00	540.00	541.00	531.00	585.00	524.00	515.00	514.00	508.00	509.00	502.00	500.00	496.00	492.00	489.00	486.00	483.00	482.00	481.00	476.00	473.00	469.00	467.00	465.00	460.00	457.00	455.00	453.00	453.00	453.00	455.00	453.00	452.00	452.00	450.00	451.00	451.00	446.00	446.00	437.00	438.00	423.00	444.00	443.00	447.00	451.00	458.00	461.00	464.00	466.00	471.00	475.00	478.00	486.00	491.00	501.00	509.00	518.00	527.00	545.00	552.00	561.00	576.00	587.00	611.00	603.00	604.00	619.00	667.00	686.00	690.00	697.00	699.00	687.00	684.00	675.00	658.00	649.00	649.00	650.00	657.00	660.00	667.00	672.00	678.00	687.00	704.00	712.00	720.00	726.00	723.00	723.00	742.00	754.00	697.00	525.00	494.00	484.00	483.00	485.00	494.00	506.00	520.00	532.00	569.00	627.00	652.00	694.00	827.00	871.00	966.00	1145.00	1305.00	1308.00	1152.00	1050.00	876.00	849.00	925.00	929.00	1002.00	862.00	990.00	994.00	937.00	1050.00	1206.00	1198.00	1202.00	1052.00	924.00	860.00	943.00	840.00	867.00	927.00	1150.00	1242.00	1271.00	1212.00	1214.00	1165.00	1108.00	1233.00	1341.00	1378.00	1394.00	1472.00	1441.00	1521.00
1060.00	1088.00	1158.00	1168.00	1143.00	1150.00	1146.00	1157.00	1178.00	1187.00	1202.00	1223.00	1262.00	1221.00	1211.00	1218.00	1229.00	1256.00	1298.00	1299.00	1300.00	1328.00	1267.00	1229.00	1136.00	1161.00	1049.00	1020.00	970.00	952.00	935.00	927.00	900.00	867.00	840.00	821.00	811.00	800.00	791.00	785.00	769.00	760.00	746.00	738.00	723.00	717.00	731.00	737.00	722.00	748.00	756.00	764.00	772.00	756.00	732.00	705.00	717.00	734.00	760.00	778.00	773.00	771.00	785.00	769.00	748.00	737.00	729.00	735.00	733.00	730.00	724.00	734.00	749.00	766.00	784.00	797.00	737.00	721.00	713.00	714.00	708.00	702.00	697.00	687.00	695.00	687.00	678.00	673.00	670.00	654.00	643.00	636.00	635.00	662.00	678.00	649.00	588.00	581.00	572.00	568.00	565.00	559.00	551.00	547.00	556.00	631.00	630.00	538.00	537.00	538.00	597.00	540.00	514.00	510.00	508.00	505.00	495.00	494.00	495.00	492.00	491.00	485.00	483.00	481.00	481.00	476.00	473.00	468.00	466.00	465.00	460.00	459.00	457.00	455.00	457.00	457.00	456.00	454.00	453.00	452.00	451.00	451.00	452.00	450.00	449.00	440.00	439.00	424.00	445.00	442.00	442.00	447.00	454.00	457.00	460.00	464.00	471.00	476.00	480.00	487.00	490.00	501.00	508.00	517.00	526.00	542.00	551.00	560.00	572.00	579.00	597.00	594.00	609.00	621.00	670.00	690.00	696.00	695.00	696.00	682.00	681.00	672.00	658.00	650.00	653.00	654.00	656.00	663.00	671.00	677.00	686.00	690.00	709.00	719.00	729.00	735.00	735.00	733.00	750.00	750.00	657.00	527.00	505.00	488.00	478.00	482.00	493.00	501.00	510.00	525.00	574.00	655.00	733.00	767.00	892.00	1023.00	1124.00	1159.00	1254.00	1403.00	1206.00	1178.00	1075.00	922.00	998.00	969.00	996.00	859.00	1014.00	1054.00	1100.00	1266.00	1343.00	1426.00	1319.00	1090.00	1136.00	954.00	874.00	906.00	836.00	868.00	1055.00	1133.00	1163.00	1154.00	1095.00	1051.00	1171.00	1306.00	1344.00	1367.00	1402.00	1442.00	1437.00	1516.00
1085.00	1074.00	1108.00	1128.00	1140.00	1150.00	1134.00	1155.00	1189.00	1193.00	1215.00	1206.00	1207.00	1205.00	1221.00	1237.00	1239.00	1274.00	1287.00	1320.00	1307.00	1346.00	1321.00	1272.00	1184.00	1078.00	1004.00	998.00	1032.00	969.00	965.00	945.00	933.00	858.00	834.00	814.00	806.00	793.00	780.00	774.00	762.00	762.00	753.00	738.00	716.00	714.00	719.00	726.00	717.00	740.00	742.00	751.00	758.00	742.00	717.00	706.00	720.00	734.00	747.00	757.00	755.00	760.00	772.00	762.00	734.00	728.00	718.00	727.00	725.00	722.00	717.00	727.00	741.00	761.00	766.00	757.00	729.00	714.00	709.00	707.00	704.00	699.00	690.00	683.00	689.00	682.00	675.00	671.00	665.00	651.00	644.00	638.00	632.00	655.00	631.00	613.00	589.00	587.00	574.00	569.00	564.00	559.00	552.00	548.00	561.00	643.00	634.00	538.00	540.00	560.00	583.00	572.00	516.00	513.00	511.00	508.00	498.00	495.00	494.00	492.00	489.00	486.00	484.00	483.00	479.00	473.00	471.00	468.00	466.00	464.00	462.00	461.00	458.00	457.00	457.00	457.00	455.00	453.00	452.00	452.00	451.00	451.00	452.00	451.00	448.00	444.00	445.00	427.00	441.00	440.00	444.00	445.00	454.00	461.00	464.00	467.00	475.00	478.00	481.00	490.00	494.00	502.00	509.00	517.00	526.00	542.00	548.00	555.00	561.00	567.00	583.00	607.00	618.00	634.00	660.00	680.00	687.00	691.00	694.00	676.00	675.00	669.00	656.00	653.00	654.00	658.00	660.00	660.00	677.00	680.00	695.00	700.00	711.00	725.00	737.00	744.00	745.00	745.00	760.00	765.00	691.00	533.00	499.00	486.00	477.00	479.00	490.00	500.00	513.00	524.00	604.00	676.00	812.00	919.00	979.00	1263.00	1304.00	1409.00	1329.00	1367.00	1272.00	1305.00	1181.00	1032.00	1086.00	1067.00	994.00	891.00	996.00	1088.00	1167.00	1378.00	1476.00	1381.00	1355.00	1239.00	1249.00	1100.00	908.00	926.00	902.00	891.00	933.00	957.00	1004.00	1022.00	1013.00	1075.00	1183.00	1314.00	1348.00	1387.00	1385.00	1424.00	1438.00	1524.00
1080.00	1064.00	1075.00	1091.00	1113.00	1119.00	1131.00	1149.00	1183.00	1173.00	1206.00	1187.00	1178.00	1202.00	1237.00	1259.00	1253.00	1299.00	1298.00	1326.00	1319.00	1332.00	1365.00	1315.00	1252.00	1159.00	1044.00	1030.00	1012.00	978.00	988.00	953.00	911.00	855.00	835.00	807.00	801.00	792.00	782.00	772.00	752.00	748.00	743.00	744.00	711.00	712.00	711.00	715.00	717.00	728.00	737.00	744.00	740.00	723.00	708.00	702.00	714.00	716.00	733.00	740.00	739.00	744.00	755.00	752.00	726.00	715.00	712.00	719.00	717.00	714.00	711.00	728.00	744.00	755.00	762.00	732.00	715.00	705.00	704.00	701.00	697.00	695.00	690.00	678.00	686.00	674.00	670.00	665.00	661.00	652.00	645.00	637.00	629.00	627.00	611.00	602.00	593.00	586.00	577.00	569.00	563.00	557.00	553.00	550.00	560.00	624.00	607.00	560.00	545.00	548.00	559.00	557.00	517.00	511.00	511.00	507.00	499.00	496.00	494.00	492.00	490.00	489.00	486.00	483.00	479.00	473.00	470.00	466.00	465.00	464.00	462.00	461.00	462.00	460.00	457.00	456.00	454.00	453.00	451.00	450.00	451.00	451.00	452.00	452.00	448.00	439.00	443.00	428.00	437.00	436.00	443.00	448.00	458.00	462.00	466.00	469.00	476.00	479.00	483.00	491.00	497.00	507.00	510.00	518.00	527.00	539.00	544.00	551.00	553.00	559.00	589.00	603.00	621.00	634.00	652.00	666.00	675.00	686.00	695.00	680.00	671.00	661.00	655.00	654.00	657.00	663.00	664.00	662.00	682.00	688.00	700.00	708.00	716.00	728.00	745.00	753.00	753.00	767.00	775.00	767.00	697.00	523.00	496.00	481.00	475.00	478.00	495.00	510.00	524.00	538.00	592.00	765.00	884.00	1026.00	1106.00	1414.00	1575.00	1620.00	1547.00	1407.00	1401.00	1375.00	1303.00	1148.00	1239.00	1114.00	1012.00	949.00	999.00	1104.00	1219.00	1399.00	1400.00	1294.00	1316.00	1289.00	1321.00	1203.00	969.00	916.00	966.00	1025.00	950.00	934.00	966.00	983.00	1083.00	1169.00	1254.00	1310.00	1347.00	1405.00	1410.00	1411.00	1459.00	1580.00
1151.00	1084.00	1083.00	1081.00	1114.00	1143.00	1143.00	1154.00	1137.00	1137.00	1149.00	1166.00	1203.00	1212.00	1244.00	1266.00	1274.00	1308.00	1347.00	1386.00	1388.00	1378.00	1374.00	1303.00	1254.00	1193.00	1226.00	1238.00	1220.00	1127.00	1098.00	913.00	937.00	844.00	828.00	805.00	795.00	787.00	775.00	764.00	753.00	748.00	737.00	728.00	709.00	702.00	697.00	696.00	705.00	732.00	744.00	742.00	726.00	725.00	724.00	699.00	691.00	698.00	711.00	708.00	721.00	719.00	743.00	723.00	703.00	702.00	699.00	702.00	700.00	700.00	698.00	723.00	735.00	760.00	776.00	741.00	700.00	691.00	691.00	689.00	686.00	685.00	682.00	680.00	670.00	656.00	661.00	658.00	653.00	639.00	636.00	632.00	626.00	619.00	608.00	600.00	587.00	583.00	569.00	565.00	562.00	559.00	557.00	553.00	565.00	580.00	571.00	602.00	567.00	566.00	562.00	552.00	531.00	522.00	514.00	512.00	503.00	500.00	497.00	494.00	492.00	487.00	485.00	481.00	479.00	472.00	470.00	467.00	467.00	465.00	461.00	460.00	458.00	457.00	456.00	455.00	454.00	452.00	450.00	450.00	452.00	452.00	451.00	443.00	441.00	435.00	427.00	428.00	434.00	443.00	445.00	448.00	457.00	461.00	465.00	467.00	476.00	480.00	484.00	493.00	498.00	509.00	515.00	519.00	525.00	537.00	546.00	557.00	571.00	584.00	611.00	608.00	619.00	637.00	685.00	699.00	694.00	697.00	697.00	676.00	665.00	662.00	659.00	659.00	666.00	672.00	674.00	676.00	695.00	704.00	711.00	715.00	741.00	746.00	756.00	770.00	776.00	800.00	807.00	808.00	777.00	503.00	484.00	474.00	472.00	480.00	506.00	524.00	543.00	562.00	607.00	709.00	764.00	820.00	896.00	1176.00	1553.00	1663.00	1442.00	1417.00	1372.00	1479.00	1411.00	1403.00	1319.00	1219.00	1176.00	1166.00	1041.00	1070.00	1150.00	1195.00	1222.00	1212.00	1207.00	1200.00	1210.00	1212.00	1129.00	1112.00	984.00	1118.00	1145.00	1132.00	1184.00	1195.00	1266.00	1297.00	1329.00	1335.00	1350.00	1394.00	1432.00	1419.00	1469.00	1631.00
1152.00	1095.00	1090.00	1097.00	1099.00	1113.00	1116.00	1130.00	1128.00	1144.00	1165.00	1200.00	1223.00	1241.00	1246.00	1251.00	1255.00	1310.00	1346.00	1375.00	1416.00	1409.00	1407.00	1359.00	1314.00	1247.00	1312.00	1336.00	1293.00	1171.00	1161.00	905.00	893.00	846.00	831.00	807.00	797.00	786.00	779.00	773.00	750.00	741.00	738.00	732.00	709.00	704.00	697.00	694.00	705.00	719.00	734.00	731.00	716.00	733.00	732.00	712.00	696.00	686.00	700.00	698.00	703.00	709.00	731.00	707.00	696.00	695.00	694.00	693.00	693.00	692.00	695.00	725.00	741.00	764.00	781.00	734.00	694.00	686.00	684.00	683.00	680.00	683.00	682.00	675.00	672.00	646.00	648.00	649.00	654.00	635.00	629.00	627.00	622.00	617.00	601.00	596.00	582.00	578.00	566.00	565.00	564.00	559.00	560.00	560.00	558.00	561.00	565.00	607.00	588.00	584.00	596.00	579.00	548.00	531.00	518.00	510.00	501.00	498.00	495.00	492.00	490.00	485.00	483.00	481.00	477.00	473.00	470.00	466.00	465.00	463.00	461.00	460.00	459.00	457.00	455.00	455.00	454.00	453.00	450.00	451.00	451.00	452.00	450.00	439.00	434.00	434.00	421.00	443.00	440.00	445.00	445.00	449.00	455.00	460.00	463.00	467.00	475.00	480.00	484.00	494.00	498.00	509.00	516.00	529.00	535.00	545.00	546.00	559.00	583.00	591.00	616.00	622.00	641.00	648.00	684.00	706.00	704.00	700.00	697.00	673.00	665.00	665.00	662.00	664.00	670.00	678.00	680.00	682.00	698.00	707.00	721.00	721.00	746.00	755.00	766.00	778.00	789.00	815.00	821.00	821.00	779.00	503.00	482.00	474.00	471.00	476.00	506.00	523.00	543.00	564.00	612.00	691.00	762.00	892.00	956.00	1279.00	1510.00	1527.00	1341.00	1284.00	1285.00	1386.00	1559.00	1478.00	1287.00	1231.00	1198.00	1190.00	1167.00	1120.00	1140.00	1182.00	1220.00	1223.00	1216.00	1209.00	1196.00	1179.00	1151.00	1162.00	1053.00	1077.00	1218.00	1255.00	1268.00	1274.00	1274.00	1302.00	1316.00	1326.00	1338.00	1371.00	1393.00	1409.00	1478.00	1632.00
1178.00	1113.00	1102.00	1108.00	1113.00	1106.00	1109.00	1119.00	1133.00	1143.00	1168.00	1190.00	1210.00	1266.00	1228.00	1250.00	1277.00	1297.00	1318.00	1352.00	1402.00	1432.00	1436.00	1407.00	1354.00	1326.00	1376.00	1361.00	1323.00	1204.00	1161.00	904.00	873.00	844.00	833.00	813.00	801.00	790.00	782.00	769.00	746.00	738.00	732.00	727.00	714.00	707.00	699.00	691.00	693.00	719.00	721.00	721.00	710.00	740.00	740.00	746.00	712.00	698.00	685.00	688.00	700.00	720.00	719.00	699.00	689.00	688.00	687.00	686.00	685.00	693.00	704.00	722.00	735.00	760.00	787.00	721.00	687.00	680.00	680.00	676.00	673.00	679.00	683.00	674.00	664.00	642.00	638.00	638.00	647.00	634.00	629.00	621.00	614.00	612.00	599.00	592.00	586.00	580.00	568.00	567.00	564.00	563.00	562.00	560.00	559.00	560.00	567.00	599.00	617.00	618.00	638.00	620.00	572.00	572.00	529.00	509.00	500.00	497.00	494.00	492.00	489.00	485.00	482.00	479.00	477.00	470.00	469.00	465.00	464.00	463.00	459.00	458.00	456.00	456.00	454.00	453.00	453.00	452.00	450.00	450.00	450.00	451.00	451.00	443.00	441.00	440.00	420.00	446.00	447.00	444.00	448.00	450.00	455.00	460.00	464.00	468.00	475.00	480.00	484.00	493.00	497.00	510.00	519.00	535.00	542.00	565.00	564.00	560.00	571.00	580.00	619.00	628.00	645.00	674.00	697.00	708.00	704.00	699.00	693.00	671.00	667.00	666.00	664.00	668.00	674.00	683.00	688.00	688.00	703.00	711.00	732.00	736.00	745.00	753.00	764.00	778.00	795.00	809.00	782.00	771.00	729.00	501.00	482.00	471.00	472.00	478.00	503.00	519.00	538.00	557.00	600.00	700.00	831.00	965.00	989.00	1127.00	1331.00	1345.00	1184.00	1127.00	1225.00	1401.00	1545.00	1467.00	1264.00	1242.00	1226.00	1213.00	1173.00	1178.00	1170.00	1199.00	1262.00	1271.00	1250.00	1242.00	1221.00	1220.00	1197.00	1175.00	1166.00	1088.00	1220.00	1249.00	1235.00	1253.00	1293.00	1310.00	1330.00	1347.00	1356.00	1367.00	1394.00	1419.00	1488.00	1579.00
1176.00	1131.00	1122.00	1122.00	1131.00	1127.00	1135.00	1156.00	1163.00	1140.00	1153.00	1171.00	1205.00	1224.00	1217.00	1241.00	1287.00	1327.00	1335.00	1350.00	1385.00	1393.00	1418.00	1418.00	1396.00	1380.00	1430.00	1375.00	1315.00	1237.00	1150.00	936.00	888.00	855.00	869.00	811.00	793.00	781.00	772.00	760.00	749.00	748.00	745.00	735.00	716.00	708.00	702.00	695.00	686.00	715.00	720.00	707.00	705.00	745.00	767.00	755.00	717.00	707.00	678.00	689.00	702.00	720.00	707.00	689.00	682.00	682.00	680.00	679.00	685.00	700.00	722.00	748.00	760.00	780.00	764.00	713.00	683.00	674.00	674.00	671.00	670.00	670.00	681.00	676.00	665.00	647.00	639.00	631.00	631.00	628.00	622.00	619.00	613.00	605.00	596.00	595.00	581.00	576.00	571.00	569.00	565.00	567.00	566.00	562.00	561.00	564.00	573.00	652.00	672.00	699.00	698.00	715.00	636.00	588.00	547.00	508.00	498.00	496.00	493.00	490.00	487.00	482.00	480.00	478.00	476.00	471.00	469.00	465.00	463.00	461.00	458.00	456.00	457.00	455.00	455.00	453.00	452.00	452.00	450.00	448.00	448.00	450.00	452.00	448.00	444.00	440.00	431.00	447.00	448.00	444.00	446.00	450.00	455.00	459.00	463.00	467.00	474.00	479.00	483.00	492.00	498.00	511.00	520.00	531.00	540.00	568.00	571.00	571.00	580.00	598.00	613.00	630.00	657.00	677.00	708.00	706.00	702.00	694.00	690.00	672.00	670.00	668.00	669.00	671.00	676.00	684.00	691.00	696.00	708.00	714.00	740.00	749.00	761.00	761.00	774.00	789.00	799.00	762.00	735.00	719.00	630.00	495.00	484.00	473.00	470.00	478.00	503.00	516.00	532.00	550.00	587.00	711.00	821.00	879.00	869.00	1003.00	1169.00	1064.00	1103.00	947.00	1109.00	1245.00	1570.00	1418.00	1338.00	1377.00	1271.00	1240.00	1194.00	1209.00	1200.00	1233.00	1285.00	1358.00	1298.00	1271.00	1241.00	1242.00	1206.00	1208.00	1178.00	1171.00	1203.00	1210.00	1236.00	1282.00	1321.00	1328.00	1359.00	1376.00	1387.00	1363.00	1374.00	1426.00	1483.00	1576.00
1139.00	1186.00	1196.00	1195.00	1183.00	1186.00	1193.00	1166.00	1182.00	1170.00	1161.00	1174.00	1197.00	1225.00	1237.00	1278.00	1281.00	1313.00	1302.00	1311.00	1312.00	1311.00	1425.00	1450.00	1470.00	1489.00	1455.00	1391.00	1344.00	1332.00	1336.00	1009.00	936.00	900.00	918.00	830.00	806.00	791.00	780.00	786.00	776.00	766.00	756.00	745.00	729.00	720.00	710.00	697.00	685.00	690.00	702.00	693.00	709.00	724.00	732.00	716.00	707.00	706.00	668.00	677.00	692.00	694.00	687.00	676.00	670.00	671.00	672.00	680.00	690.00	703.00	722.00	764.00	748.00	743.00	734.00	697.00	672.00	666.00	662.00	662.00	659.00	661.00	672.00	676.00	667.00	637.00	635.00	634.00	627.00	614.00	614.00	615.00	609.00	598.00	592.00	588.00	582.00	579.00	579.00	572.00	574.00	577.00	576.00	566.00	567.00	571.00	584.00	768.00	874.00	872.00	889.00	794.00	618.00	575.00	551.00	506.00	494.00	492.00	490.00	487.00	485.00	480.00	479.00	477.00	475.00	471.00	468.00	464.00	460.00	459.00	456.00	456.00	456.00	455.00	454.00	453.00	452.00	451.00	449.00	449.00	448.00	449.00	447.00	450.00	445.00	436.00	429.00	448.00	449.00	449.00	450.00	451.00	454.00	457.00	460.00	463.00	472.00	476.00	480.00	494.00	500.00	514.00	523.00	533.00	543.00	562.00	576.00	596.00	614.00	618.00	633.00	655.00	663.00	673.00	703.00	706.00	707.00	708.00	705.00	676.00	674.00	674.00	678.00	677.00	683.00	690.00	699.00	710.00	727.00	737.00	743.00	756.00	781.00	795.00	807.00	820.00	824.00	771.00	776.00	806.00	693.00	468.00	466.00	467.00	470.00	478.00	503.00	517.00	531.00	547.00	584.00	657.00	708.00	799.00	902.00	940.00	801.00	904.00	972.00	810.00	958.00	1070.00	1388.00	1502.00	1515.00	1435.00	1361.00	1315.00	1245.00	1251.00	1256.00	1306.00	1397.00	1466.00	1399.00	1363.00	1377.00	1342.00	1319.00	1249.00	1217.00	1230.00	1201.00	1196.00	1208.00	1242.00	1284.00	1327.00	1371.00	1400.00	1476.00	1433.00	1398.00	1444.00	1451.00	1465.00
1112.00	1170.00	1181.00	1181.00	1191.00	1161.00	1154.00	1144.00	1152.00	1159.00	1151.00	1169.00	1219.00	1231.00	1259.00	1305.00	1308.00	1279.00	1284.00	1278.00	1291.00	1325.00	1424.00	1466.00	1460.00	1465.00	1417.00	1354.00	1365.00	1314.00	1163.00	1081.00	990.00	976.00	980.00	825.00	812.00	799.00	794.00	795.00	774.00	761.00	747.00	740.00	718.00	711.00	704.00	698.00	692.00	680.00	684.00	701.00	707.00	727.00	732.00	718.00	705.00	696.00	679.00	667.00	681.00	689.00	679.00	669.00	664.00	665.00	667.00	678.00	688.00	701.00	715.00	739.00	734.00	721.00	719.00	686.00	665.00	660.00	658.00	658.00	654.00	657.00	668.00	673.00	664.00	641.00	635.00	629.00	627.00	612.00	608.00	606.00	602.00	597.00	590.00	588.00	587.00	589.00	581.00	577.00	582.00	581.00	579.00	570.00	570.00	575.00	587.00	803.00	909.00	883.00	842.00	770.00	587.00	547.00	517.00	509.00	493.00	490.00	488.00	485.00	483.00	480.00	476.00	476.00	475.00	469.00	468.00	463.00	460.00	458.00	455.00	454.00	455.00	454.00	454.00	453.00	451.00	450.00	449.00	449.00	449.00	448.00	448.00	450.00	446.00	439.00	443.00	443.00	449.00	448.00	450.00	452.00	453.00	457.00	461.00	466.00	473.00	477.00	481.00	495.00	500.00	523.00	535.00	546.00	556.00	568.00	583.00	604.00	610.00	604.00	635.00	640.00	650.00	673.00	695.00	707.00	711.00	714.00	708.00	677.00	676.00	676.00	682.00	681.00	686.00	695.00	703.00	714.00	731.00	744.00	757.00	760.00	785.00	799.00	812.00	833.00	839.00	814.00	811.00	802.00	667.00	464.00	463.00	463.00	469.00	474.00	499.00	512.00	527.00	544.00	586.00	649.00	719.00	832.00	931.00	826.00	732.00	845.00	850.00	785.00	947.00	944.00	1325.00	1435.00	1438.00	1365.00	1269.00	1215.00	1180.00	1238.00	1270.00	1323.00	1385.00	1421.00	1481.00	1399.00	1420.00	1434.00	1374.00	1279.00	1251.00	1247.00	1223.00	1223.00	1235.00	1278.00	1298.00	1324.00	1346.00	1405.00	1509.00	1469.00	1417.00	1428.00	1423.00	1486.00
1082.00	1105.00	1104.00	1165.00	1142.00	1133.00	1109.00	1098.00	1135.00	1118.00	1142.00	1188.00	1187.00	1246.00	1268.00	1273.00	1266.00	1268.00	1304.00	1287.00	1306.00	1362.00	1436.00	1425.00	1400.00	1435.00	1425.00	1240.00	1181.00	1193.00	1046.00	947.00	928.00	916.00	886.00	839.00	828.00	824.00	814.00	804.00	779.00	777.00	763.00	751.00	724.00	718.00	712.00	704.00	699.00	676.00	674.00	688.00	692.00	719.00	734.00	732.00	710.00	695.00	680.00	668.00	661.00	676.00	661.00	656.00	658.00	656.00	658.00	672.00	681.00	687.00	695.00	740.00	711.00	695.00	689.00	669.00	654.00	651.00	651.00	648.00	647.00	650.00	661.00	669.00	666.00	640.00	635.00	624.00	616.00	616.00	618.00	611.00	612.00	619.00	620.00	623.00	614.00	706.00	600.00	588.00	587.00	594.00	590.00	577.00	581.00	583.00	600.00	893.00	831.00	823.00	749.00	618.00	522.00	517.00	549.00	491.00	488.00	486.00	484.00	482.00	480.00	477.00	474.00	474.00	471.00	467.00	466.00	460.00	458.00	457.00	454.00	452.00	453.00	453.00	452.00	451.00	450.00	450.00	447.00	447.00	448.00	449.00	447.00	449.00	447.00	446.00	447.00	431.00	441.00	446.00	449.00	449.00	456.00	460.00	463.00	467.00	477.00	482.00	487.00	500.00	508.00	525.00	537.00	548.00	554.00	561.00	570.00	572.00	582.00	601.00	624.00	635.00	660.00	668.00	684.00	687.00	705.00	719.00	714.00	683.00	681.00	687.00	692.00	694.00	698.00	709.00	717.00	723.00	748.00	756.00	766.00	776.00	813.00	824.00	838.00	860.00	869.00	883.00	829.00	670.00	582.00	466.00	463.00	460.00	461.00	464.00	489.00	500.00	517.00	529.00	544.00	601.00	684.00	806.00	766.00	648.00	675.00	720.00	681.00	702.00	769.00	807.00	1062.00	1250.00	1159.00	1137.00	1105.00	1064.00	1069.00	1112.00	1175.00	1203.00	1232.00	1281.00	1334.00	1321.00	1366.00	1445.00	1473.00	1362.00	1339.00	1315.00	1306.00	1277.00	1268.00	1304.00	1342.00	1323.00	1349.00	1371.00	1402.00	1438.00	1437.00	1417.00	1416.00	1482.00
1070.00	1069.00	1099.00	1160.00	1126.00	1110.00	1105.00	1090.00	1107.00	1112.00	1143.00	1152.00	1173.00	1237.00	1241.00	1224.00	1223.00	1287.00	1343.00	1326.00	1323.00	1362.00	1401.00	1375.00	1380.00	1400.00	1440.00	1241.00	1099.00	1191.00	1059.00	970.00	958.00	887.00	874.00	846.00	833.00	822.00	813.00	803.00	783.00	772.00	764.00	755.00	732.00	722.00	718.00	704.00	690.00	673.00	671.00	678.00	685.00	718.00	722.00	731.00	707.00	698.00	682.00	672.00	657.00	657.00	657.00	653.00	654.00	652.00	654.00	669.00	673.00	681.00	699.00	723.00	716.00	703.00	679.00	663.00	651.00	647.00	649.00	644.00	641.00	651.00	660.00	667.00	666.00	634.00	632.00	619.00	620.00	629.00	634.00	619.00	625.00	639.00	647.00	657.00	624.00	684.00	625.00	597.00	594.00	598.00	594.00	583.00	585.00	591.00	609.00	895.00	802.00	799.00	763.00	696.00	511.00	516.00	520.00	487.00	485.00	484.00	482.00	480.00	478.00	475.00	474.00	472.00	471.00	467.00	465.00	461.00	458.00	456.00	454.00	452.00	451.00	452.00	451.00	451.00	450.00	449.00	447.00	447.00	448.00	447.00	448.00	448.00	448.00	448.00	438.00	435.00	446.00	445.00	444.00	449.00	454.00	460.00	465.00	469.00	480.00	485.00	490.00	502.00	509.00	524.00	533.00	539.00	543.00	555.00	565.00	579.00	582.00	589.00	644.00	652.00	654.00	657.00	675.00	696.00	712.00	721.00	716.00	686.00	685.00	692.00	698.00	702.00	707.00	713.00	724.00	731.00	746.00	758.00	778.00	782.00	814.00	828.00	847.00	869.00	867.00	868.00	747.00	621.00	555.00	474.00	464.00	460.00	458.00	459.00	484.00	489.00	507.00	517.00	541.00	609.00	720.00	780.00	718.00	617.00	662.00	600.00	599.00	659.00	687.00	742.00	1015.00	1004.00	1198.00	1107.00	1041.00	1035.00	1067.00	1084.00	1130.00	1164.00	1136.00	1229.00	1290.00	1271.00	1301.00	1393.00	1430.00	1441.00	1386.00	1348.00	1332.00	1300.00	1281.00	1318.00	1338.00	1323.00	1335.00	1352.00	1367.00	1448.00	1432.00	1407.00	1410.00	1447.00
1048.00	1083.00	1117.00	1126.00	1152.00	1096.00	1073.00	1103.00	1143.00	1145.00	1139.00	1151.00	1181.00	1186.00	1186.00	1190.00	1209.00	1266.00	1284.00	1302.00	1287.00	1285.00	1350.00	1380.00	1434.00	1466.00	1468.00	1326.00	1188.00	1043.00	1069.00	1069.00	1017.00	897.00	886.00	885.00	868.00	837.00	812.00	798.00	782.00	774.00	765.00	756.00	730.00	722.00	714.00	710.00	699.00	679.00	668.00	671.00	680.00	699.00	696.00	702.00	710.00	709.00	687.00	685.00	667.00	648.00	649.00	649.00	647.00	647.00	645.00	657.00	664.00	678.00	691.00	694.00	679.00	669.00	663.00	654.00	643.00	637.00	639.00	636.00	637.00	646.00	655.00	660.00	663.00	633.00	628.00	629.00	630.00	638.00	660.00	640.00	648.00	659.00	737.00	736.00	787.00	781.00	732.00	657.00	654.00	626.00	656.00	611.00	604.00	601.00	643.00	797.00	724.00	726.00	663.00	595.00	488.00	486.00	483.00	481.00	480.00	478.00	477.00	476.00	475.00	472.00	470.00	469.00	468.00	463.00	461.00	458.00	456.00	454.00	451.00	451.00	451.00	451.00	449.00	449.00	448.00	448.00	448.00	447.00	448.00	448.00	449.00	452.00	451.00	451.00	430.00	434.00	439.00	449.00	452.00	454.00	459.00	463.00	466.00	470.00	480.00	484.00	490.00	503.00	509.00	524.00	531.00	540.00	551.00	578.00	597.00	597.00	622.00	623.00	631.00	657.00	671.00	684.00	704.00	715.00	728.00	728.00	721.00	691.00	691.00	699.00	706.00	717.00	721.00	729.00	740.00	754.00	762.00	766.00	791.00	800.00	822.00	835.00	845.00	849.00	866.00	891.00	733.00	608.00	542.00	490.00	477.00	466.00	460.00	457.00	473.00	481.00	494.00	502.00	529.00	585.00	620.00	640.00	565.00	561.00	550.00	552.00	553.00	577.00	669.00	820.00	717.00	803.00	1150.00	1153.00	998.00	971.00	1109.00	1028.00	1050.00	1083.00	1001.00	1125.00	1168.00	1198.00	1182.00	1251.00	1302.00	1338.00	1317.00	1353.00	1324.00	1310.00	1307.00	1302.00	1363.00	1361.00	1345.00	1340.00	1359.00	1413.00	1428.00	1429.00	1424.00	1410.00
1058.00	1065.00	1100.00	1098.00	1137.00	1077.00	1075.00	1101.00	1154.00	1180.00	1188.00	1173.00	1167.00	1163.00	1196.00	1217.00	1214.00	1229.00	1241.00	1263.00	1296.00	1294.00	1362.00	1394.00	1425.00	1430.00	1435.00	1386.00	1171.00	1152.00	1184.00	1052.00	958.00	930.00	913.00	1000.00	936.00	845.00	816.00	802.00	776.00	769.00	763.00	754.00	729.00	720.00	712.00	704.00	697.00	684.00	676.00	663.00	672.00	687.00	686.00	690.00	704.00	713.00	680.00	670.00	661.00	646.00	644.00	646.00	643.00	642.00	643.00	651.00	661.00	672.00	685.00	686.00	677.00	671.00	659.00	650.00	641.00	635.00	634.00	630.00	633.00	643.00	652.00	655.00	655.00	636.00	633.00	633.00	636.00	637.00	646.00	649.00	669.00	701.00	847.00	816.00	806.00	815.00	767.00	701.00	660.00	623.00	713.00	644.00	631.00	609.00	645.00	712.00	699.00	684.00	602.00	519.00	488.00	482.00	480.00	479.00	477.00	476.00	475.00	474.00	474.00	470.00	469.00	468.00	466.00	463.00	459.00	457.00	454.00	452.00	451.00	451.00	451.00	450.00	448.00	448.00	446.00	447.00	447.00	448.00	447.00	448.00	450.00	449.00	444.00	447.00	434.00	431.00	439.00	448.00	451.00	453.00	458.00	461.00	466.00	471.00	481.00	486.00	493.00	507.00	514.00	530.00	536.00	542.00	550.00	583.00	600.00	611.00	627.00	644.00	642.00	641.00	658.00	672.00	713.00	728.00	732.00	731.00	727.00	691.00	693.00	699.00	705.00	719.00	729.00	736.00	744.00	758.00	776.00	783.00	813.00	815.00	833.00	859.00	875.00	861.00	871.00	874.00	746.00	644.00	565.00	488.00	477.00	467.00	459.00	457.00	482.00	489.00	496.00	507.00	526.00	532.00	544.00	533.00	530.00	538.00	531.00	531.00	545.00	589.00	662.00	683.00	689.00	853.00	1169.00	1183.00	1013.00	966.00	981.00	945.00	1017.00	966.00	993.00	1091.00	1112.00	1131.00	1171.00	1188.00	1229.00	1241.00	1179.00	1236.00	1307.00	1289.00	1308.00	1318.00	1408.00	1393.00	1371.00	1372.00	1351.00	1390.00	1404.00	1413.00	1396.00	1400.00
1044.00	1058.00	1076.00	1065.00	1082.00	1060.00	1068.00	1089.00	1113.00	1156.00	1186.00	1173.00	1142.00	1170.00	1203.00	1234.00	1242.00	1257.00	1274.00	1280.00	1333.00	1333.00	1374.00	1378.00	1408.00	1401.00	1407.00	1363.00	1303.00	1355.00	1277.00	1046.00	998.00	963.00	914.00	1144.00	981.00	853.00	832.00	806.00	770.00	764.00	758.00	752.00	727.00	720.00	713.00	706.00	699.00	688.00	679.00	668.00	662.00	671.00	678.00	691.00	700.00	713.00	700.00	682.00	666.00	650.00	640.00	640.00	646.00	641.00	639.00	649.00	658.00	663.00	669.00	690.00	690.00	683.00	660.00	643.00	637.00	633.00	630.00	629.00	632.00	641.00	646.00	645.00	650.00	644.00	635.00	636.00	641.00	643.00	650.00	657.00	684.00	747.00	814.00	822.00	801.00	824.00	792.00	714.00	645.00	634.00	662.00	637.00	644.00	622.00	666.00	665.00	659.00	579.00	519.00	498.00	486.00	481.00	479.00	477.00	475.00	473.00	472.00	472.00	470.00	468.00	467.00	466.00	465.00	460.00	460.00	455.00	454.00	452.00	450.00	450.00	450.00	448.00	447.00	447.00	447.00	446.00	447.00	446.00	448.00	449.00	450.00	448.00	443.00	439.00	434.00	443.00	447.00	448.00	449.00	451.00	456.00	460.00	467.00	472.00	481.00	487.00	494.00	509.00	517.00	534.00	542.00	549.00	554.00	573.00	585.00	597.00	624.00	640.00	663.00	655.00	658.00	674.00	713.00	728.00	732.00	729.00	723.00	693.00	694.00	700.00	711.00	726.00	729.00	741.00	752.00	764.00	791.00	798.00	831.00	834.00	855.00	902.00	927.00	886.00	905.00	879.00	773.00	689.00	558.00	493.00	480.00	471.00	462.00	459.00	475.00	476.00	495.00	500.00	491.00	501.00	520.00	507.00	512.00	516.00	514.00	517.00	523.00	525.00	558.00	589.00	682.00	853.00	1129.00	1163.00	1003.00	887.00	854.00	934.00	980.00	872.00	991.00	1053.00	1070.00	1079.00	1097.00	1095.00	1156.00	1068.00	1076.00	1131.00	1262.00	1257.00	1269.00	1324.00	1461.00	1448.00	1412.00	1386.00	1365.00	1377.00	1389.00	1382.00	1380.00	1388.00
1031.00	1038.00	1045.00	1066.00	1085.00	1095.00	1081.00	1073.00	1088.00	1113.00	1138.00	1159.00	1136.00	1173.00	1196.00	1253.00	1242.00	1276.00	1276.00	1301.00	1320.00	1340.00	1372.00	1360.00	1380.00	1395.00	1347.00	1363.00	1323.00	1413.00	1346.00	1160.00	1074.00	1018.00	938.00	1110.00	960.00	867.00	861.00	817.00	770.00	756.00	752.00	746.00	725.00	716.00	706.00	702.00	695.00	682.00	676.00	671.00	667.00	663.00	681.00	677.00	699.00	713.00	754.00	703.00	676.00	660.00	639.00	637.00	643.00	641.00	636.00	642.00	650.00	660.00	673.00	707.00	689.00	673.00	656.00	639.00	634.00	629.00	626.00	624.00	627.00	633.00	638.00	645.00	650.00	652.00	639.00	641.00	645.00	647.00	655.00	662.00	682.00	703.00	777.00	795.00	819.00	842.00	730.00	645.00	656.00	706.00	696.00	669.00	645.00	670.00	738.00	640.00	622.00	558.00	515.00	498.00	484.00	480.00	478.00	475.00	472.00	471.00	470.00	469.00	469.00	466.00	465.00	463.00	462.00	460.00	459.00	455.00	451.00	450.00	449.00	449.00	448.00	447.00	446.00	446.00	446.00	447.00	446.00	447.00	448.00	449.00	449.00	446.00	447.00	444.00	437.00	441.00	447.00	448.00	449.00	450.00	452.00	458.00	466.00	471.00	479.00	485.00	494.00	511.00	519.00	539.00	548.00	557.00	574.00	578.00	597.00	606.00	619.00	633.00	668.00	675.00	663.00	683.00	723.00	732.00	731.00	724.00	717.00	695.00	700.00	705.00	714.00	736.00	740.00	743.00	753.00	765.00	794.00	811.00	846.00	856.00	893.00	946.00	976.00	902.00	958.00	900.00	847.00	687.00	566.00	503.00	489.00	477.00	465.00	458.00	462.00	467.00	466.00	467.00	473.00	483.00	492.00	491.00	496.00	497.00	500.00	506.00	508.00	525.00	548.00	566.00	681.00	791.00	1060.00	1095.00	943.00	810.00	799.00	883.00	901.00	810.00	909.00	1025.00	1002.00	1006.00	1057.00	1016.00	1034.00	1006.00	1018.00	1094.00	1218.00	1176.00	1251.00	1328.00	1491.00	1442.00	1403.00	1375.00	1386.00	1371.00	1374.00	1372.00	1374.00	1382.00
1033.00	1076.00	1090.00	1093.00	1147.00	1142.00	1126.00	1120.00	1115.00	1119.00	1115.00	1134.00	1138.00	1166.00	1176.00	1190.00	1228.00	1233.00	1224.00	1250.00	1287.00	1302.00	1332.00	1330.00	1369.00	1398.00	1357.00	1337.00	1184.00	1115.00	1125.00	1119.00	1272.00	1080.00	1003.00	955.00	1052.00	986.00	831.00	811.00	780.00	757.00	743.00	738.00	730.00	751.00	738.00	714.00	703.00	693.00	685.00	679.00	673.00	647.00	647.00	655.00	670.00	686.00	707.00	708.00	688.00	671.00	643.00	635.00	637.00	633.00	627.00	648.00	660.00	680.00	704.00	688.00	668.00	655.00	643.00	633.00	625.00	619.00	619.00	617.00	624.00	631.00	635.00	638.00	646.00	656.00	649.00	648.00	651.00	659.00	663.00	671.00	682.00	700.00	781.00	800.00	851.00	836.00	659.00	716.00	785.00	816.00	807.00	683.00	665.00	674.00	731.00	629.00	559.00	531.00	533.00	487.00	476.00	473.00	471.00	471.00	468.00	466.00	465.00	464.00	464.00	462.00	462.00	459.00	457.00	455.00	454.00	450.00	448.00	449.00	448.00	448.00	447.00	447.00	447.00	447.00	447.00	445.00	447.00	448.00	448.00	448.00	448.00	449.00	445.00	442.00	437.00	430.00	439.00	446.00	447.00	446.00	451.00	456.00	462.00	468.00	482.00	490.00	499.00	519.00	527.00	542.00	554.00	568.00	593.00	604.00	610.00	626.00	655.00	666.00	695.00	700.00	685.00	696.00	724.00	737.00	737.00	728.00	715.00	706.00	714.00	715.00	722.00	748.00	758.00	760.00	772.00	790.00	808.00	827.00	847.00	875.00	916.00	995.00	962.00	938.00	1025.00	931.00	785.00	663.00	587.00	528.00	488.00	471.00	459.00	451.00	451.00	452.00	452.00	452.00	455.00	461.00	464.00	467.00	468.00	476.00	480.00	482.00	484.00	502.00	513.00	532.00	656.00	645.00	866.00	760.00	674.00	754.00	636.00	794.00	799.00	692.00	787.00	1001.00	1099.00	1062.00	1002.00	924.00	909.00	922.00	968.00	1022.00	1064.00	1224.00	1389.00	1433.00	1442.00	1422.00	1395.00	1385.00	1386.00	1364.00	1360.00	1361.00	1365.00	1381.00
1058.00	1094.00	1097.00	1098.00	1155.00	1158.00	1145.00	1146.00	1148.00	1167.00	1215.00	1241.00	1139.00	1155.00	1163.00	1180.00	1200.00	1204.00	1216.00	1236.00	1267.00	1271.00	1309.00	1322.00	1356.00	1372.00	1392.00	1389.00	1273.00	1149.00	1064.00	1104.00	1135.00	1054.00	965.00	904.00	951.00	970.00	819.00	791.00	768.00	754.00	749.00	750.00	735.00	730.00	724.00	714.00	707.00	693.00	688.00	682.00	674.00	648.00	644.00	652.00	656.00	667.00	681.00	683.00	679.00	676.00	658.00	647.00	630.00	628.00	625.00	642.00	661.00	685.00	695.00	678.00	663.00	651.00	642.00	627.00	621.00	616.00	614.00	614.00	620.00	626.00	634.00	642.00	649.00	664.00	654.00	652.00	656.00	664.00	670.00	673.00	696.00	712.00	788.00	820.00	838.00	759.00	680.00	737.00	774.00	791.00	809.00	662.00	644.00	657.00	711.00	646.00	577.00	572.00	525.00	481.00	473.00	471.00	468.00	468.00	465.00	466.00	464.00	462.00	462.00	459.00	458.00	457.00	456.00	453.00	452.00	449.00	447.00	448.00	447.00	447.00	448.00	448.00	447.00	447.00	446.00	446.00	448.00	447.00	447.00	448.00	448.00	449.00	447.00	443.00	441.00	442.00	422.00	445.00	444.00	448.00	452.00	459.00	465.00	471.00	485.00	493.00	501.00	520.00	529.00	547.00	557.00	572.00	586.00	606.00	622.00	634.00	637.00	648.00	694.00	706.00	694.00	706.00	733.00	741.00	739.00	727.00	714.00	712.00	721.00	725.00	730.00	753.00	769.00	773.00	776.00	801.00	821.00	842.00	851.00	871.00	907.00	929.00	924.00	983.00	1037.00	901.00	792.00	693.00	619.00	537.00	481.00	463.00	457.00	448.00	450.00	450.00	450.00	449.00	450.00	452.00	455.00	459.00	461.00	467.00	469.00	472.00	476.00	491.00	502.00	521.00	558.00	624.00	718.00	638.00	618.00	682.00	616.00	718.00	726.00	667.00	750.00	994.00	1090.00	1041.00	990.00	972.00	919.00	902.00	885.00	988.00	1063.00	1306.00	1330.00	1359.00	1400.00	1387.00	1373.00	1364.00	1391.00	1361.00	1359.00	1378.00	1365.00	1377.00
1069.00	1113.00	1122.00	1116.00	1137.00	1147.00	1156.00	1160.00	1180.00	1172.00	1248.00	1257.00	1149.00	1169.00	1184.00	1177.00	1187.00	1240.00	1248.00	1241.00	1235.00	1264.00	1309.00	1329.00	1364.00	1372.00	1377.00	1345.00	1194.00	1093.00	1071.00	1073.00	1035.00	981.00	967.00	881.00	887.00	911.00	848.00	798.00	778.00	764.00	759.00	753.00	738.00	730.00	723.00	716.00	708.00	692.00	684.00	676.00	669.00	646.00	646.00	651.00	641.00	647.00	662.00	661.00	673.00	673.00	661.00	654.00	626.00	620.00	617.00	633.00	654.00	672.00	673.00	665.00	662.00	657.00	646.00	634.00	616.00	614.00	612.00	612.00	621.00	628.00	634.00	642.00	652.00	667.00	661.00	659.00	667.00	670.00	672.00	679.00	725.00	781.00	760.00	779.00	826.00	759.00	694.00	749.00	772.00	778.00	754.00	663.00	645.00	659.00	734.00	656.00	634.00	597.00	523.00	489.00	468.00	467.00	466.00	466.00	465.00	462.00	462.00	460.00	459.00	458.00	455.00	454.00	454.00	451.00	450.00	447.00	447.00	447.00	447.00	447.00	447.00	448.00	446.00	446.00	447.00	447.00	448.00	448.00	448.00	447.00	447.00	449.00	447.00	449.00	446.00	450.00	421.00	447.00	441.00	448.00	452.00	461.00	468.00	474.00	486.00	494.00	502.00	519.00	528.00	544.00	550.00	564.00	577.00	602.00	606.00	619.00	643.00	661.00	699.00	710.00	704.00	716.00	739.00	747.00	742.00	732.00	716.00	718.00	724.00	734.00	741.00	754.00	778.00	790.00	786.00	805.00	842.00	862.00	875.00	885.00	903.00	923.00	940.00	1023.00	1017.00	942.00	783.00	673.00	620.00	521.00	476.00	459.00	452.00	448.00	450.00	450.00	449.00	448.00	447.00	448.00	449.00	453.00	456.00	459.00	461.00	465.00	470.00	481.00	488.00	496.00	532.00	639.00	587.00	585.00	592.00	619.00	600.00	652.00	651.00	662.00	742.00	902.00	999.00	1000.00	1054.00	948.00	918.00	978.00	904.00	909.00	1048.00	1103.00	1161.00	1334.00	1403.00	1401.00	1375.00	1360.00	1365.00	1352.00	1355.00	1381.00	1365.00	1371.00
1081.00	1124.00	1143.00	1128.00	1132.00	1139.00	1146.00	1157.00	1184.00	1196.00	1215.00	1262.00	1175.00	1177.00	1200.00	1190.00	1207.00	1288.00	1300.00	1269.00	1241.00	1257.00	1333.00	1353.00	1371.00	1382.00	1379.00	1333.00	1195.00	1199.00	1178.00	1002.00	1043.00	994.00	920.00	890.00	878.00	870.00	842.00	824.00	790.00	772.00	767.00	758.00	734.00	728.00	721.00	712.00	703.00	686.00	681.00	674.00	668.00	651.00	642.00	639.00	637.00	635.00	653.00	653.00	666.00	663.00	659.00	658.00	637.00	629.00	620.00	625.00	639.00	648.00	657.00	654.00	653.00	657.00	655.00	640.00	614.00	610.00	608.00	610.00	620.00	628.00	638.00	647.00	657.00	671.00	663.00	678.00	689.00	682.00	680.00	685.00	699.00	781.00	853.00	836.00	796.00	739.00	717.00	753.00	774.00	752.00	719.00	665.00	653.00	671.00	754.00	659.00	624.00	548.00	507.00	491.00	465.00	464.00	463.00	463.00	462.00	461.00	460.00	458.00	457.00	455.00	454.00	452.00	451.00	450.00	448.00	447.00	446.00	446.00	446.00	446.00	447.00	446.00	446.00	446.00	446.00	447.00	448.00	448.00	448.00	448.00	448.00	449.00	449.00	449.00	451.00	451.00	419.00	440.00	439.00	448.00	451.00	459.00	468.00	475.00	488.00	495.00	502.00	515.00	522.00	537.00	551.00	572.00	581.00	589.00	601.00	626.00	634.00	645.00	711.00	715.00	712.00	723.00	745.00	752.00	745.00	735.00	716.00	725.00	732.00	739.00	749.00	764.00	776.00	800.00	809.00	801.00	849.00	875.00	905.00	910.00	921.00	945.00	955.00	969.00	947.00	957.00	829.00	747.00	671.00	496.00	476.00	462.00	450.00	445.00	448.00	448.00	449.00	448.00	446.00	446.00	447.00	448.00	450.00	454.00	457.00	462.00	465.00	474.00	479.00	490.00	523.00	552.00	554.00	563.00	563.00	573.00	604.00	616.00	626.00	658.00	716.00	869.00	946.00	904.00	981.00	947.00	873.00	953.00	889.00	885.00	943.00	1080.00	1269.00	1354.00	1399.00	1416.00	1394.00	1365.00	1353.00	1348.00	1352.00	1359.00	1364.00	1371.00
1098.00	1131.00	1152.00	1170.00	1179.00	1199.00	1197.00	1205.00	1194.00	1193.00	1237.00	1274.00	1224.00	1215.00	1212.00	1226.00	1220.00	1256.00	1322.00	1297.00	1272.00	1268.00	1310.00	1322.00	1332.00	1338.00	1370.00	1393.00	1397.00	1350.00	1135.00	1042.00	1006.00	1007.00	1077.00	924.00	868.00	877.00	840.00	824.00	796.00	784.00	780.00	783.00	756.00	755.00	731.00	720.00	713.00	691.00	682.00	675.00	683.00	653.00	651.00	642.00	636.00	631.00	631.00	643.00	649.00	642.00	649.00	652.00	630.00	618.00	613.00	621.00	626.00	632.00	642.00	641.00	637.00	649.00	664.00	627.00	610.00	604.00	606.00	610.00	622.00	631.00	641.00	656.00	675.00	680.00	687.00	776.00	787.00	725.00	722.00	756.00	739.00	728.00	848.00	856.00	804.00	738.00	779.00	805.00	750.00	732.00	759.00	687.00	701.00	754.00	737.00	573.00	522.00	477.00	468.00	465.00	461.00	460.00	460.00	459.00	457.00	457.00	456.00	455.00	454.00	451.00	450.00	448.00	447.00	446.00	445.00	446.00	445.00	445.00	445.00	445.00	445.00	446.00	447.00	447.00	446.00	447.00	447.00	448.00	449.00	448.00	448.00	448.00	447.00	447.00	445.00	448.00	418.00	430.00	429.00	434.00	453.00	463.00	468.00	470.00	488.00	494.00	500.00	517.00	526.00	545.00	549.00	566.00	579.00	598.00	612.00	628.00	644.00	659.00	719.00	734.00	732.00	739.00	751.00	753.00	734.00	726.00	729.00	741.00	747.00	760.00	771.00	789.00	800.00	812.00	832.00	842.00	852.00	858.00	855.00	858.00	943.00	964.00	958.00	841.00	873.00	887.00	798.00	678.00	582.00	468.00	447.00	441.00	440.00	440.00	441.00	446.00	446.00	446.00	445.00	444.00	444.00	445.00	447.00	450.00	453.00	455.00	460.00	470.00	477.00	486.00	503.00	512.00	532.00	542.00	550.00	561.00	581.00	586.00	602.00	618.00	658.00	761.00	807.00	849.00	821.00	803.00	782.00	778.00	809.00	847.00	1200.00	1294.00	1301.00	1328.00	1410.00	1399.00	1391.00	1372.00	1344.00	1360.00	1364.00	1365.00	1369.00	1369.00
1089.00	1114.00	1126.00	1137.00	1171.00	1187.00	1197.00	1208.00	1238.00	1235.00	1253.00	1271.00	1243.00	1223.00	1252.00	1271.00	1264.00	1269.00	1303.00	1338.00	1338.00	1321.00	1311.00	1318.00	1326.00	1353.00	1355.00	1388.00	1426.00	1417.00	1366.00	1244.00	1122.00	1074.00	1071.00	927.00	872.00	844.00	834.00	821.00	802.00	789.00	780.00	777.00	739.00	729.00	724.00	716.00	709.00	705.00	696.00	689.00	683.00	659.00	652.00	645.00	636.00	630.00	625.00	622.00	625.00	624.00	648.00	648.00	647.00	635.00	608.00	616.00	618.00	619.00	622.00	625.00	636.00	642.00	641.00	620.00	602.00	600.00	604.00	613.00	626.00	635.00	643.00	654.00	667.00	698.00	699.00	711.00	753.00	796.00	762.00	754.00	725.00	779.00	881.00	892.00	837.00	747.00	827.00	810.00	787.00	812.00	785.00	756.00	769.00	731.00	670.00	553.00	520.00	471.00	464.00	461.00	457.00	458.00	457.00	456.00	452.00	452.00	452.00	451.00	449.00	447.00	446.00	445.00	444.00	445.00	446.00	445.00	445.00	444.00	443.00	444.00	445.00	444.00	445.00	446.00	447.00	447.00	448.00	448.00	449.00	448.00	448.00	451.00	450.00	451.00	444.00	441.00	425.00	444.00	447.00	440.00	454.00	461.00	468.00	476.00	491.00	499.00	508.00	525.00	534.00	553.00	567.00	590.00	596.00	613.00	629.00	643.00	661.00	679.00	746.00	745.00	744.00	744.00	735.00	738.00	737.00	742.00	747.00	759.00	770.00	778.00	789.00	808.00	814.00	836.00	857.00	871.00	895.00	884.00	904.00	889.00	974.00	971.00	876.00	804.00	753.00	707.00	675.00	666.00	665.00	447.00	437.00	437.00	440.00	438.00	446.00	446.00	444.00	444.00	443.00	443.00	443.00	444.00	446.00	448.00	450.00	454.00	456.00	467.00	473.00	481.00	496.00	500.00	518.00	525.00	531.00	541.00	557.00	566.00	576.00	580.00	607.00	654.00	665.00	727.00	760.00	742.00	761.00	784.00	832.00	916.00	1086.00	1100.00	1134.00	1274.00	1366.00	1367.00	1370.00	1344.00	1350.00	1401.00	1412.00	1409.00	1392.00	1376.00
1082.00	1121.00	1153.00	1164.00	1163.00	1171.00	1180.00	1196.00	1246.00	1234.00	1237.00	1254.00	1258.00	1254.00	1255.00	1263.00	1271.00	1277.00	1305.00	1352.00	1368.00	1337.00	1333.00	1360.00	1334.00	1371.00	1371.00	1396.00	1417.00	1443.00	1425.00	1370.00	1277.00	998.00	1009.00	922.00	870.00	853.00	847.00	828.00	799.00	788.00	776.00	766.00	745.00	738.00	732.00	726.00	720.00	700.00	690.00	683.00	676.00	654.00	647.00	642.00	635.00	629.00	620.00	621.00	617.00	617.00	644.00	644.00	645.00	644.00	615.00	609.00	611.00	612.00	614.00	627.00	636.00	633.00	633.00	616.00	603.00	597.00	606.00	614.00	629.00	636.00	644.00	658.00	674.00	708.00	711.00	739.00	767.00	812.00	801.00	797.00	802.00	742.00	871.00	923.00	840.00	767.00	803.00	835.00	821.00	850.00	796.00	757.00	746.00	691.00	641.00	494.00	486.00	467.00	462.00	459.00	456.00	455.00	454.00	454.00	451.00	450.00	450.00	449.00	448.00	445.00	444.00	444.00	444.00	445.00	445.00	445.00	445.00	444.00	444.00	445.00	445.00	444.00	444.00	445.00	446.00	448.00	449.00	448.00	448.00	448.00	450.00	452.00	450.00	447.00	444.00	437.00	429.00	443.00	445.00	446.00	453.00	464.00	472.00	480.00	495.00	503.00	510.00	526.00	534.00	555.00	568.00	588.00	594.00	634.00	644.00	664.00	665.00	685.00	752.00	749.00	747.00	742.00	743.00	746.00	744.00	746.00	753.00	762.00	774.00	785.00	795.00	836.00	841.00	837.00	853.00	873.00	917.00	895.00	925.00	916.00	1000.00	960.00	824.00	815.00	756.00	665.00	623.00	579.00	587.00	440.00	435.00	435.00	441.00	444.00	446.00	445.00	442.00	442.00	443.00	443.00	443.00	445.00	446.00	449.00	449.00	452.00	454.00	464.00	471.00	478.00	490.00	495.00	510.00	513.00	521.00	528.00	545.00	551.00	558.00	570.00	589.00	624.00	662.00	716.00	723.00	748.00	786.00	815.00	820.00	842.00	939.00	975.00	1026.00	1170.00	1348.00	1352.00	1344.00	1355.00	1386.00	1377.00	1379.00	1373.00	1365.00	1357.00
1075.00	1126.00	1163.00	1182.00	1187.00	1188.00	1191.00	1204.00	1239.00	1214.00	1217.00	1237.00	1242.00	1250.00	1273.00	1286.00	1283.00	1291.00	1304.00	1343.00	1369.00	1362.00	1336.00	1352.00	1346.00	1373.00	1383.00	1390.00	1410.00	1421.00	1449.00	1409.00	1226.00	985.00	951.00	919.00	922.00	868.00	854.00	835.00	802.00	788.00	778.00	770.00	736.00	730.00	730.00	726.00	719.00	704.00	696.00	688.00	681.00	659.00	649.00	641.00	635.00	630.00	622.00	619.00	617.00	614.00	637.00	638.00	637.00	642.00	624.00	600.00	605.00	604.00	608.00	623.00	629.00	624.00	622.00	608.00	599.00	599.00	607.00	613.00	631.00	640.00	649.00	661.00	671.00	714.00	752.00	803.00	837.00	878.00	843.00	857.00	863.00	756.00	820.00	875.00	887.00	794.00	777.00	797.00	815.00	860.00	788.00	768.00	731.00	665.00	593.00	487.00	473.00	466.00	461.00	457.00	455.00	453.00	452.00	453.00	451.00	449.00	448.00	447.00	446.00	445.00	443.00	444.00	444.00	445.00	445.00	444.00	444.00	444.00	444.00	444.00	444.00	443.00	443.00	445.00	446.00	447.00	448.00	448.00	448.00	448.00	449.00	449.00	449.00	441.00	434.00	426.00	433.00	435.00	445.00	452.00	456.00	462.00	469.00	477.00	495.00	501.00	508.00	531.00	541.00	555.00	567.00	579.00	599.00	626.00	641.00	658.00	672.00	688.00	756.00	752.00	749.00	744.00	750.00	753.00	751.00	756.00	758.00	771.00	781.00	791.00	804.00	851.00	865.00	853.00	875.00	893.00	937.00	929.00	961.00	957.00	1006.00	913.00	821.00	775.00	756.00	782.00	738.00	606.00	519.00	444.00	433.00	436.00	441.00	446.00	446.00	445.00	443.00	443.00	443.00	443.00	443.00	445.00	446.00	449.00	451.00	451.00	453.00	461.00	467.00	473.00	483.00	490.00	499.00	503.00	510.00	516.00	533.00	537.00	546.00	558.00	585.00	632.00	701.00	727.00	709.00	757.00	840.00	873.00	930.00	973.00	1083.00	1143.00	1148.00	1199.00	1355.00	1364.00	1345.00	1347.00	1372.00	1370.00	1361.00	1348.00	1345.00	1346.00
1085.00	1129.00	1163.00	1226.00	1218.00	1212.00	1215.00	1223.00	1211.00	1187.00	1187.00	1193.00	1230.00	1277.00	1305.00	1335.00	1325.00	1305.00	1309.00	1322.00	1335.00	1353.00	1399.00	1390.00	1384.00	1381.00	1481.00	1490.00	1482.00	1469.00	1476.00	1445.00	1275.00	1072.00	985.00	933.00	912.00	888.00	853.00	831.00	799.00	786.00	774.00	762.00	731.00	720.00	709.00	708.00	709.00	694.00	691.00	687.00	678.00	661.00	652.00	641.00	634.00	626.00	622.00	622.00	619.00	611.00	617.00	629.00	618.00	633.00	634.00	607.00	598.00	600.00	598.00	610.00	615.00	610.00	603.00	597.00	593.00	600.00	607.00	614.00	630.00	640.00	651.00	661.00	677.00	725.00	813.00	857.00	909.00	921.00	880.00	909.00	883.00	916.00	817.00	892.00	826.00	786.00	780.00	801.00	840.00	831.00	804.00	750.00	635.00	555.00	530.00	475.00	468.00	464.00	460.00	456.00	452.00	452.00	452.00	450.00	447.00	446.00	445.00	445.00	444.00	444.00	443.00	444.00	443.00	444.00	444.00	443.00	443.00	443.00	443.00	442.00	442.00	443.00	445.00	445.00	445.00	446.00	447.00	448.00	448.00	448.00	448.00	449.00	448.00	446.00	444.00	413.00	430.00	441.00	446.00	451.00	464.00	471.00	479.00	487.00	501.00	507.00	516.00	535.00	551.00	583.00	586.00	586.00	601.00	628.00	653.00	678.00	698.00	712.00	758.00	756.00	752.00	755.00	764.00	767.00	766.00	777.00	776.00	792.00	800.00	820.00	842.00	851.00	866.00	897.00	918.00	944.00	991.00	998.00	1023.00	1013.00	979.00	896.00	799.00	733.00	733.00	666.00	572.00	527.00	473.00	440.00	435.00	435.00	444.00	446.00	444.00	442.00	443.00	443.00	443.00	444.00	445.00	447.00	449.00	451.00	452.00	454.00	456.00	457.00	461.00	465.00	472.00	476.00	484.00	489.00	495.00	503.00	517.00	527.00	538.00	546.00	585.00	650.00	750.00	717.00	697.00	734.00	809.00	937.00	1058.00	1128.00	1174.00	1294.00	1355.00	1371.00	1360.00	1322.00	1327.00	1325.00	1336.00	1345.00	1358.00	1347.00	1365.00	1388.00
1079.00	1123.00	1149.00	1196.00	1218.00	1211.00	1218.00	1230.00	1205.00	1178.00	1180.00	1203.00	1265.00	1277.00	1313.00	1318.00	1334.00	1321.00	1323.00	1337.00	1357.00	1364.00	1410.00	1403.00	1422.00	1395.00	1489.00	1543.00	1512.00	1499.00	1543.00	1464.00	1260.00	1027.00	999.00	977.00	923.00	953.00	874.00	829.00	796.00	784.00	772.00	763.00	731.00	717.00	710.00	704.00	697.00	692.00	682.00	682.00	678.00	652.00	651.00	643.00	636.00	630.00	615.00	619.00	618.00	613.00	616.00	619.00	612.00	631.00	634.00	607.00	597.00	596.00	594.00	608.00	611.00	607.00	602.00	592.00	594.00	601.00	607.00	614.00	631.00	639.00	649.00	664.00	684.00	759.00	837.00	892.00	934.00	985.00	934.00	928.00	953.00	942.00	844.00	904.00	805.00	806.00	794.00	815.00	849.00	834.00	827.00	678.00	545.00	521.00	510.00	475.00	469.00	463.00	459.00	456.00	450.00	451.00	449.00	448.00	446.00	445.00	443.00	444.00	443.00	443.00	443.00	443.00	443.00	445.00	444.00	444.00	443.00	442.00	442.00	442.00	443.00	443.00	445.00	444.00	444.00	445.00	446.00	448.00	447.00	448.00	449.00	450.00	449.00	449.00	445.00	420.00	433.00	441.00	450.00	452.00	466.00	474.00	483.00	490.00	506.00	515.00	523.00	544.00	559.00	592.00	597.00	603.00	609.00	655.00	675.00	686.00	704.00	717.00	755.00	758.00	757.00	762.00	772.00	777.00	776.00	783.00	785.00	806.00	819.00	825.00	839.00	874.00	869.00	878.00	903.00	938.00	984.00	992.00	1033.00	975.00	838.00	823.00	759.00	693.00	715.00	613.00	546.00	482.00	462.00	435.00	434.00	438.00	444.00	445.00	443.00	442.00	443.00	443.00	442.00	445.00	446.00	448.00	449.00	451.00	453.00	454.00	456.00	458.00	459.00	462.00	468.00	472.00	479.00	485.00	492.00	499.00	514.00	523.00	532.00	545.00	580.00	630.00	706.00	720.00	683.00	742.00	867.00	1008.00	1077.00	1135.00	1242.00	1286.00	1357.00	1380.00	1300.00	1302.00	1331.00	1338.00	1363.00	1371.00	1410.00	1352.00	1372.00	1433.00
1087.00	1113.00	1135.00	1175.00	1203.00	1192.00	1202.00	1229.00	1194.00	1171.00	1170.00	1202.00	1262.00	1275.00	1293.00	1304.00	1325.00	1330.00	1334.00	1344.00	1377.00	1398.00	1440.00	1445.00	1452.00	1418.00	1503.00	1574.00	1570.00	1551.00	1587.00	1373.00	1192.00	1153.00	1112.00	965.00	1015.00	921.00	922.00	841.00	792.00	778.00	768.00	757.00	729.00	721.00	713.00	704.00	696.00	686.00	679.00	672.00	670.00	648.00	638.00	637.00	635.00	628.00	611.00	612.00	612.00	609.00	606.00	604.00	605.00	630.00	636.00	611.00	599.00	594.00	593.00	599.00	607.00	605.00	601.00	591.00	595.00	600.00	607.00	614.00	628.00	636.00	648.00	660.00	675.00	805.00	883.00	915.00	948.00	1018.00	960.00	946.00	924.00	892.00	874.00	916.00	819.00	839.00	792.00	820.00	848.00	811.00	836.00	564.00	530.00	536.00	525.00	473.00	467.00	462.00	457.00	454.00	450.00	450.00	449.00	447.00	444.00	445.00	444.00	443.00	444.00	443.00	444.00	443.00	444.00	444.00	444.00	443.00	443.00	443.00	442.00	442.00	443.00	443.00	444.00	443.00	444.00	444.00	445.00	447.00	448.00	448.00	449.00	448.00	442.00	444.00	429.00	440.00	443.00	441.00	450.00	455.00	468.00	476.00	484.00	492.00	509.00	518.00	527.00	548.00	564.00	585.00	607.00	623.00	626.00	661.00	675.00	684.00	694.00	707.00	763.00	773.00	761.00	769.00	779.00	784.00	785.00	792.00	797.00	813.00	832.00	852.00	858.00	891.00	907.00	915.00	911.00	901.00	950.00	962.00	1029.00	991.00	781.00	754.00	742.00	698.00	686.00	587.00	540.00	459.00	446.00	431.00	435.00	442.00	443.00	444.00	443.00	441.00	442.00	442.00	442.00	446.00	448.00	449.00	452.00	454.00	454.00	457.00	459.00	460.00	460.00	461.00	466.00	469.00	477.00	482.00	489.00	496.00	510.00	520.00	532.00	549.00	584.00	624.00	659.00	737.00	690.00	767.00	860.00	1028.00	1118.00	1186.00	1261.00	1314.00	1322.00	1334.00	1233.00	1332.00	1352.00	1360.00	1381.00	1393.00	1418.00	1362.00	1374.00	1443.00
1102.00	1138.00	1149.00	1185.00	1168.00	1160.00	1178.00	1202.00	1171.00	1167.00	1162.00	1192.00	1254.00	1296.00	1321.00	1311.00	1304.00	1319.00	1317.00	1326.00	1355.00	1378.00	1411.00	1432.00	1454.00	1468.00	1499.00	1557.00	1607.00	1609.00	1632.00	1355.00	1271.00	1328.00	1179.00	1020.00	1065.00	1011.00	935.00	866.00	794.00	784.00	771.00	761.00	729.00	719.00	709.00	701.00	693.00	680.00	676.00	670.00	666.00	646.00	637.00	629.00	626.00	623.00	615.00	610.00	607.00	609.00	603.00	600.00	601.00	622.00	628.00	610.00	604.00	598.00	592.00	587.00	596.00	604.00	600.00	587.00	592.00	599.00	605.00	612.00	624.00	634.00	646.00	658.00	671.00	785.00	871.00	940.00	970.00	1021.00	947.00	921.00	894.00	872.00	908.00	929.00	837.00	858.00	795.00	827.00	833.00	800.00	858.00	553.00	552.00	582.00	568.00	470.00	464.00	459.00	456.00	453.00	453.00	451.00	448.00	446.00	444.00	444.00	444.00	444.00	443.00	443.00	444.00	444.00	443.00	443.00	443.00	443.00	442.00	443.00	442.00	442.00	442.00	443.00	444.00	444.00	445.00	444.00	445.00	446.00	448.00	448.00	449.00	445.00	437.00	435.00	422.00	447.00	450.00	449.00	448.00	455.00	467.00	475.00	483.00	492.00	508.00	517.00	526.00	544.00	554.00	576.00	596.00	619.00	646.00	671.00	689.00	705.00	717.00	731.00	828.00	804.00	766.00	772.00	786.00	791.00	797.00	800.00	806.00	834.00	832.00	858.00	883.00	910.00	930.00	951.00	947.00	926.00	945.00	979.00	1001.00	922.00	844.00	875.00	728.00	708.00	663.00	580.00	488.00	449.00	435.00	430.00	437.00	443.00	443.00	444.00	441.00	439.00	439.00	440.00	442.00	447.00	448.00	450.00	452.00	457.00	459.00	461.00	462.00	462.00	462.00	463.00	465.00	467.00	473.00	480.00	485.00	490.00	509.00	521.00	534.00	547.00	583.00	638.00	717.00	833.00	710.00	763.00	908.00	1048.00	1098.00	1046.00	1082.00	1229.00	1160.00	1207.00	1206.00	1350.00	1357.00	1386.00	1401.00	1417.00	1418.00	1366.00	1383.00	1426.00
1126.00	1157.00	1148.00	1127.00	1156.00	1174.00	1181.00	1204.00	1152.00	1142.00	1174.00	1210.00	1298.00	1281.00	1266.00	1308.00	1311.00	1315.00	1339.00	1362.00	1386.00	1375.00	1454.00	1466.00	1482.00	1515.00	1560.00	1574.00	1615.00	1614.00	1661.00	1566.00	1500.00	1404.00	1382.00	1301.00	1188.00	1033.00	932.00	886.00	820.00	796.00	775.00	757.00	721.00	712.00	707.00	700.00	694.00	680.00	674.00	670.00	663.00	647.00	641.00	635.00	628.00	621.00	616.00	610.00	603.00	600.00	600.00	597.00	603.00	605.00	616.00	606.00	600.00	599.00	589.00	589.00	591.00	597.00	596.00	583.00	588.00	595.00	598.00	605.00	620.00	628.00	638.00	651.00	676.00	822.00	923.00	964.00	992.00	1042.00	953.00	971.00	972.00	897.00	954.00	899.00	869.00	862.00	803.00	821.00	810.00	763.00	681.00	570.00	580.00	553.00	513.00	457.00	456.00	454.00	452.00	451.00	449.00	449.00	446.00	446.00	443.00	443.00	443.00	443.00	443.00	443.00	443.00	442.00	442.00	443.00	444.00	442.00	442.00	442.00	442.00	441.00	442.00	444.00	443.00	444.00	445.00	444.00	445.00	447.00	448.00	447.00	449.00	444.00	442.00	431.00	422.00	431.00	440.00	447.00	452.00	457.00	467.00	475.00	484.00	493.00	511.00	520.00	532.00	570.00	580.00	607.00	597.00	620.00	627.00	677.00	712.00	720.00	726.00	751.00	889.00	844.00	777.00	779.00	799.00	808.00	815.00	822.00	824.00	857.00	882.00	897.00	890.00	905.00	923.00	919.00	917.00	930.00	964.00	1020.00	1090.00	1032.00	944.00	857.00	723.00	645.00	571.00	473.00	450.00	440.00	428.00	426.00	430.00	438.00	441.00	441.00	440.00	439.00	444.00	445.00	448.00	450.00	450.00	452.00	454.00	456.00	457.00	460.00	463.00	464.00	467.00	470.00	471.00	472.00	473.00	475.00	483.00	490.00	510.00	524.00	543.00	561.00	610.00	778.00	925.00	924.00	764.00	776.00	855.00	946.00	950.00	830.00	847.00	877.00	938.00	1074.00	1144.00	1344.00	1362.00	1382.00	1379.00	1381.00	1372.00	1381.00	1394.00	1448.00
1110.00	1138.00	1126.00	1111.00	1181.00	1209.00	1222.00	1214.00	1148.00	1135.00	1184.00	1217.00	1292.00	1248.00	1268.00	1310.00	1320.00	1333.00	1343.00	1356.00	1374.00	1378.00	1451.00	1480.00	1508.00	1499.00	1532.00	1523.00	1541.00	1607.00	1651.00	1541.00	1477.00	1372.00	1356.00	1312.00	1223.00	1051.00	960.00	939.00	829.00	794.00	774.00	759.00	716.00	704.00	701.00	697.00	692.00	677.00	669.00	667.00	660.00	644.00	637.00	632.00	628.00	625.00	619.00	611.00	601.00	597.00	594.00	594.00	601.00	599.00	603.00	604.00	597.00	595.00	587.00	585.00	587.00	594.00	595.00	582.00	583.00	591.00	594.00	600.00	615.00	626.00	635.00	656.00	689.00	834.00	920.00	980.00	1020.00	1053.00	960.00	979.00	1008.00	953.00	965.00	859.00	896.00	852.00	815.00	824.00	798.00	747.00	621.00	581.00	546.00	487.00	467.00	457.00	455.00	453.00	452.00	450.00	450.00	447.00	444.00	443.00	443.00	444.00	444.00	442.00	441.00	442.00	442.00	443.00	443.00	444.00	444.00	442.00	441.00	442.00	442.00	441.00	443.00	444.00	444.00	444.00	445.00	445.00	446.00	448.00	448.00	448.00	449.00	449.00	445.00	434.00	416.00	426.00	446.00	447.00	450.00	455.00	468.00	476.00	484.00	493.00	512.00	522.00	531.00	563.00	584.00	618.00	606.00	627.00	650.00	683.00	714.00	744.00	747.00	758.00	906.00	813.00	782.00	779.00	800.00	811.00	822.00	830.00	834.00	876.00	891.00	901.00	920.00	924.00	959.00	948.00	935.00	949.00	991.00	1007.00	1132.00	1095.00	908.00	838.00	700.00	595.00	534.00	465.00	451.00	440.00	430.00	426.00	430.00	438.00	440.00	440.00	439.00	440.00	444.00	441.00	445.00	448.00	451.00	453.00	454.00	458.00	460.00	461.00	462.00	468.00	470.00	469.00	474.00	474.00	474.00	475.00	481.00	491.00	513.00	528.00	546.00	564.00	649.00	831.00	938.00	842.00	714.00	823.00	778.00	777.00	813.00	769.00	797.00	846.00	906.00	904.00	1112.00	1290.00	1348.00	1355.00	1355.00	1359.00	1359.00	1381.00	1396.00	1439.00
1102.00	1124.00	1107.00	1099.00	1172.00	1187.00	1206.00	1193.00	1137.00	1137.00	1203.00	1239.00	1280.00	1266.00	1239.00	1265.00	1293.00	1352.00	1353.00	1329.00	1342.00	1392.00	1435.00	1459.00	1468.00	1454.00	1461.00	1477.00	1552.00	1596.00	1624.00	1529.00	1487.00	1379.00	1311.00	1257.00	1243.00	1093.00	1004.00	990.00	845.00	809.00	783.00	764.00	722.00	705.00	695.00	689.00	686.00	673.00	666.00	659.00	655.00	644.00	640.00	632.00	627.00	623.00	617.00	609.00	604.00	596.00	591.00	591.00	597.00	595.00	597.00	605.00	596.00	589.00	583.00	580.00	583.00	590.00	592.00	585.00	582.00	587.00	592.00	598.00	612.00	620.00	631.00	660.00	698.00	820.00	882.00	994.00	1063.00	1079.00	977.00	984.00	1041.00	1042.00	944.00	850.00	910.00	852.00	826.00	836.00	757.00	665.00	577.00	556.00	501.00	472.00	465.00	458.00	455.00	453.00	451.00	449.00	448.00	447.00	445.00	444.00	443.00	443.00	443.00	443.00	442.00	442.00	443.00	442.00	442.00	443.00	443.00	442.00	442.00	440.00	441.00	443.00	443.00	443.00	444.00	444.00	444.00	444.00	447.00	448.00	448.00	448.00	449.00	445.00	443.00	441.00	433.00	419.00	447.00	452.00	454.00	457.00	471.00	480.00	489.00	496.00	512.00	524.00	542.00	560.00	586.00	626.00	625.00	628.00	651.00	693.00	722.00	740.00	747.00	764.00	897.00	808.00	789.00	783.00	801.00	811.00	825.00	837.00	843.00	892.00	914.00	912.00	932.00	946.00	990.00	991.00	983.00	961.00	1052.00	1069.00	1129.00	1037.00	893.00	747.00	659.00	563.00	486.00	457.00	447.00	436.00	428.00	426.00	428.00	423.00	435.00	440.00	439.00	440.00	439.00	441.00	447.00	449.00	450.00	453.00	455.00	459.00	462.00	464.00	465.00	469.00	472.00	472.00	477.00	477.00	479.00	477.00	482.00	491.00	517.00	530.00	547.00	570.00	686.00	856.00	850.00	738.00	667.00	783.00	723.00	709.00	715.00	706.00	841.00	940.00	1047.00	1068.00	1208.00	1309.00	1327.00	1327.00	1332.00	1345.00	1357.00	1386.00	1405.00	1432.00
1103.00	1107.00	1089.00	1092.00	1150.00	1152.00	1172.00	1169.00	1126.00	1150.00	1213.00	1238.00	1293.00	1273.00	1230.00	1286.00	1308.00	1298.00	1314.00	1314.00	1345.00	1394.00	1397.00	1425.00	1429.00	1451.00	1435.00	1480.00	1528.00	1545.00	1614.00	1503.00	1433.00	1349.00	1351.00	1222.00	1220.00	1147.00	1142.00	993.00	889.00	820.00	782.00	762.00	719.00	707.00	694.00	684.00	678.00	666.00	664.00	660.00	654.00	640.00	635.00	628.00	624.00	618.00	611.00	606.00	603.00	599.00	591.00	588.00	591.00	593.00	592.00	607.00	594.00	586.00	584.00	582.00	584.00	581.00	589.00	582.00	580.00	583.00	588.00	593.00	608.00	614.00	629.00	654.00	693.00	780.00	845.00	934.00	1072.00	1084.00	992.00	990.00	1067.00	1056.00	908.00	869.00	920.00	845.00	843.00	822.00	665.00	605.00	561.00	560.00	502.00	472.00	467.00	458.00	455.00	452.00	450.00	449.00	448.00	448.00	445.00	443.00	443.00	442.00	442.00	443.00	443.00	442.00	441.00	443.00	442.00	443.00	441.00	441.00	441.00	441.00	441.00	443.00	443.00	443.00	443.00	444.00	444.00	445.00	446.00	447.00	448.00	448.00	449.00	448.00	447.00	434.00	416.00	430.00	446.00	451.00	453.00	459.00	476.00	485.00	494.00	504.00	518.00	531.00	550.00	570.00	580.00	627.00	645.00	653.00	666.00	677.00	702.00	716.00	732.00	751.00	838.00	806.00	792.00	791.00	813.00	819.00	833.00	855.00	862.00	896.00	922.00	936.00	944.00	988.00	990.00	1028.00	1030.00	1009.00	1101.00	1108.00	1031.00	945.00	810.00	675.00	581.00	520.00	467.00	447.00	441.00	435.00	426.00	425.00	422.00	421.00	434.00	438.00	438.00	438.00	438.00	441.00	445.00	449.00	450.00	453.00	454.00	458.00	461.00	464.00	467.00	468.00	470.00	472.00	478.00	479.00	481.00	481.00	485.00	494.00	519.00	536.00	553.00	576.00	686.00	757.00	769.00	702.00	628.00	676.00	671.00	667.00	672.00	706.00	826.00	950.00	1167.00	1255.00	1274.00	1317.00	1337.00	1340.00	1356.00	1358.00	1380.00	1409.00	1426.00	1448.00
1050.00	1045.00	1057.00	1077.00	1090.00	1090.00	1097.00	1102.00	1100.00	1106.00	1121.00	1136.00	1241.00	1241.00	1191.00	1242.00	1219.00	1225.00	1264.00	1282.00	1289.00	1295.00	1341.00	1342.00	1387.00	1418.00	1431.00	1459.00	1474.00	1510.00	1553.00	1522.00	1407.00	1275.00	1244.00	1184.00	1158.00	1177.00	1165.00	1032.00	1030.00	914.00	837.00	774.00	710.00	699.00	695.00	694.00	690.00	682.00	678.00	673.00	666.00	651.00	645.00	639.00	633.00	630.00	621.00	614.00	608.00	603.00	594.00	586.00	580.00	580.00	578.00	585.00	585.00	582.00	573.00	573.00	575.00	580.00	582.00	576.00	572.00	576.00	584.00	591.00	612.00	621.00	632.00	651.00	703.00	783.00	820.00	928.00	1083.00	1151.00	1025.00	1062.00	1097.00	1107.00	931.00	942.00	804.00	728.00	659.00	619.00	624.00	601.00	527.00	488.00	483.00	477.00	473.00	461.00	458.00	453.00	451.00	448.00	444.00	444.00	443.00	442.00	442.00	442.00	443.00	442.00	441.00	442.00	442.00	441.00	441.00	442.00	441.00	442.00	440.00	441.00	441.00	441.00	442.00	442.00	443.00	443.00	444.00	444.00	446.00	447.00	447.00	448.00	448.00	448.00	447.00	447.00	434.00	444.00	447.00	449.00	451.00	459.00	481.00	490.00	502.00	513.00	540.00	549.00	559.00	584.00	603.00	647.00	663.00	688.00	696.00	725.00	749.00	769.00	790.00	817.00	816.00	813.00	817.00	825.00	868.00	922.00	929.00	957.00	944.00	932.00	945.00	945.00	968.00	967.00	963.00	952.00	947.00	919.00	962.00	824.00	845.00	886.00	670.00	513.00	470.00	457.00	443.00	422.00	421.00	421.00	423.00	432.00	428.00	435.00	436.00	436.00	436.00	436.00	437.00	441.00	444.00	447.00	450.00	452.00	453.00	457.00	458.00	459.00	462.00	465.00	469.00	471.00	477.00	480.00	488.00	491.00	489.00	497.00	525.00	547.00	559.00	561.00	554.00	557.00	552.00	567.00	583.00	636.00	692.00	714.00	772.00	858.00	1017.00	1158.00	1211.00	1156.00	1307.00	1326.00	1321.00	1341.00	1386.00	1387.00	1408.00	1445.00	1466.00	1578.00
1107.00	1065.00	1052.00	1060.00	1076.00	1075.00	1079.00	1085.00	1103.00	1108.00	1111.00	1129.00	1220.00	1199.00	1177.00	1205.00	1193.00	1237.00	1246.00	1258.00	1278.00	1309.00	1323.00	1315.00	1393.00	1436.00	1480.00	1498.00	1509.00	1518.00	1540.00	1489.00	1471.00	1307.00	1260.00	1223.00	1198.00	1118.00	1013.00	948.00	973.00	946.00	859.00	806.00	712.00	704.00	700.00	698.00	694.00	687.00	681.00	674.00	668.00	654.00	649.00	643.00	636.00	632.00	621.00	613.00	610.00	607.00	599.00	592.00	578.00	578.00	576.00	577.00	581.00	580.00	573.00	577.00	579.00	579.00	580.00	576.00	569.00	576.00	582.00	587.00	608.00	615.00	628.00	636.00	688.00	774.00	829.00	975.00	1056.00	1144.00	1043.00	1081.00	1114.00	1131.00	976.00	981.00	730.00	745.00	584.00	604.00	541.00	539.00	508.00	491.00	484.00	478.00	473.00	460.00	456.00	453.00	450.00	448.00	444.00	444.00	444.00	442.00	442.00	443.00	443.00	441.00	441.00	443.00	440.00	440.00	440.00	441.00	441.00	442.00	440.00	441.00	442.00	442.00	443.00	443.00	443.00	444.00	444.00	444.00	447.00	446.00	447.00	447.00	448.00	450.00	446.00	449.00	431.00	444.00	447.00	449.00	450.00	462.00	485.00	496.00	508.00	519.00	540.00	555.00	566.00	588.00	604.00	655.00	663.00	674.00	698.00	726.00	747.00	769.00	790.00	826.00	824.00	824.00	833.00	842.00	945.00	982.00	967.00	985.00	956.00	963.00	998.00	977.00	981.00	967.00	958.00	957.00	952.00	892.00	814.00	714.00	759.00	864.00	591.00	485.00	454.00	444.00	436.00	428.00	419.00	421.00	422.00	437.00	437.00	437.00	436.00	435.00	436.00	437.00	437.00	440.00	444.00	447.00	448.00	450.00	452.00	455.00	458.00	460.00	462.00	466.00	468.00	472.00	477.00	480.00	486.00	489.00	492.00	493.00	510.00	524.00	525.00	531.00	525.00	538.00	554.00	575.00	592.00	627.00	675.00	735.00	841.00	927.00	1075.00	1186.00	1184.00	1145.00	1251.00	1329.00	1351.00	1371.00	1402.00	1401.00	1424.00	1522.00	1495.00	1610.00
1129.00	1086.00	1072.00	1057.00	1070.00	1084.00	1104.00	1102.00	1129.00	1150.00	1124.00	1124.00	1190.00	1159.00	1168.00	1179.00	1198.00	1261.00	1269.00	1270.00	1298.00	1319.00	1303.00	1315.00	1356.00	1426.00	1477.00	1488.00	1488.00	1486.00	1527.00	1424.00	1405.00	1270.00	1202.00	1305.00	1210.00	1115.00	1075.00	926.00	917.00	916.00	856.00	794.00	716.00	710.00	707.00	702.00	698.00	690.00	683.00	677.00	672.00	655.00	650.00	646.00	638.00	632.00	619.00	616.00	614.00	609.00	600.00	595.00	583.00	576.00	572.00	570.00	572.00	578.00	574.00	568.00	574.00	572.00	576.00	573.00	567.00	571.00	576.00	581.00	600.00	607.00	617.00	627.00	665.00	756.00	812.00	920.00	991.00	1142.00	1087.00	1105.00	1134.00	1135.00	998.00	926.00	785.00	799.00	688.00	669.00	566.00	520.00	523.00	490.00	484.00	477.00	471.00	458.00	455.00	452.00	449.00	447.00	444.00	444.00	442.00	442.00	444.00	444.00	442.00	443.00	442.00	442.00	441.00	441.00	439.00	441.00	441.00	440.00	440.00	441.00	443.00	444.00	443.00	443.00	443.00	444.00	444.00	445.00	445.00	446.00	447.00	448.00	448.00	451.00	447.00	443.00	429.00	442.00	446.00	448.00	450.00	456.00	481.00	492.00	502.00	514.00	543.00	560.00	578.00	616.00	612.00	640.00	655.00	672.00	685.00	739.00	760.00	777.00	801.00	838.00	833.00	839.00	849.00	864.00	1015.00	1047.00	1035.00	992.00	1028.00	1011.00	1056.00	1022.00	993.00	989.00	968.00	957.00	949.00	936.00	853.00	790.00	722.00	830.00	536.00	465.00	441.00	435.00	432.00	429.00	417.00	420.00	428.00	437.00	436.00	437.00	437.00	435.00	435.00	435.00	437.00	439.00	443.00	446.00	448.00	450.00	452.00	456.00	459.00	462.00	464.00	467.00	470.00	472.00	480.00	483.00	485.00	489.00	492.00	494.00	496.00	503.00	503.00	508.00	528.00	548.00	552.00	574.00	607.00	640.00	725.00	796.00	893.00	949.00	1105.00	1183.00	1153.00	1144.00	1213.00	1264.00	1314.00	1382.00	1411.00	1413.00	1439.00	1571.00	1549.00	1594.00
1136.00	1113.00	1086.00	1073.00	1076.00	1095.00	1122.00	1116.00	1136.00	1169.00	1137.00	1128.00	1153.00	1169.00	1193.00	1209.00	1220.00	1284.00	1314.00	1298.00	1299.00	1332.00	1287.00	1333.00	1345.00	1410.00	1470.00	1471.00	1465.00	1458.00	1492.00	1429.00	1357.00	1263.00	1118.00	1220.00	1142.00	984.00	1033.00	997.00	844.00	872.00	851.00	819.00	720.00	717.00	714.00	707.00	703.00	692.00	687.00	679.00	672.00	654.00	648.00	644.00	636.00	630.00	623.00	620.00	614.00	610.00	600.00	595.00	585.00	581.00	573.00	570.00	571.00	568.00	574.00	568.00	569.00	571.00	572.00	572.00	564.00	566.00	572.00	578.00	593.00	603.00	615.00	627.00	642.00	750.00	789.00	879.00	973.00	1152.00	1104.00	1129.00	1140.00	1145.00	958.00	839.00	807.00	705.00	708.00	607.00	532.00	591.00	555.00	487.00	482.00	477.00	484.00	456.00	453.00	450.00	448.00	447.00	445.00	443.00	443.00	443.00	442.00	442.00	442.00	442.00	441.00	442.00	441.00	440.00	441.00	440.00	442.00	440.00	441.00	441.00	444.00	443.00	443.00	442.00	443.00	443.00	444.00	445.00	445.00	446.00	447.00	447.00	448.00	451.00	443.00	434.00	416.00	438.00	441.00	447.00	449.00	456.00	476.00	486.00	498.00	510.00	547.00	564.00	574.00	623.00	639.00	647.00	685.00	704.00	703.00	728.00	747.00	777.00	817.00	848.00	842.00	853.00	868.00	895.00	1047.00	1096.00	1049.00	991.00	1114.00	1094.00	1108.00	1096.00	1031.00	1021.00	1002.00	960.00	939.00	977.00	946.00	895.00	668.00	737.00	489.00	448.00	436.00	432.00	432.00	421.00	417.00	420.00	432.00	434.00	434.00	436.00	435.00	435.00	434.00	434.00	436.00	438.00	443.00	446.00	448.00	450.00	452.00	458.00	461.00	462.00	464.00	468.00	471.00	473.00	477.00	481.00	486.00	490.00	493.00	493.00	496.00	501.00	508.00	519.00	545.00	592.00	565.00	581.00	684.00	658.00	761.00	853.00	955.00	999.00	1138.00	1152.00	1127.00	1140.00	1235.00	1233.00	1267.00	1320.00	1367.00	1375.00	1421.00	1500.00	1525.00	1562.00
1151.00	1121.00	1122.00	1111.00	1077.00	1102.00	1131.00	1145.00	1158.00	1171.00	1150.00	1142.00	1179.00	1210.00	1210.00	1237.00	1203.00	1210.00	1226.00	1229.00	1239.00	1246.00	1290.00	1293.00	1304.00	1328.00	1386.00	1390.00	1433.00	1482.00	1500.00	1426.00	1301.00	1063.00	998.00	968.00	948.00	909.00	849.00	873.00	802.00	802.00	782.00	787.00	733.00	727.00	720.00	714.00	707.00	691.00	684.00	678.00	673.00	658.00	653.00	648.00	642.00	636.00	626.00	621.00	615.00	609.00	599.00	595.00	586.00	583.00	578.00	576.00	569.00	565.00	567.00	565.00	568.00	569.00	567.00	566.00	569.00	562.00	569.00	579.00	588.00	598.00	607.00	621.00	631.00	732.00	774.00	807.00	856.00	1130.00	1130.00	1164.00	1160.00	1109.00	878.00	824.00	736.00	753.00	640.00	607.00	670.00	679.00	674.00	485.00	477.00	472.00	469.00	451.00	449.00	447.00	445.00	445.00	444.00	444.00	444.00	443.00	443.00	442.00	442.00	441.00	442.00	442.00	440.00	440.00	440.00	442.00	441.00	440.00	441.00	441.00	443.00	442.00	442.00	442.00	443.00	443.00	445.00	444.00	445.00	446.00	446.00	447.00	443.00	436.00	424.00	426.00	425.00	435.00	448.00	451.00	460.00	471.00	489.00	494.00	501.00	518.00	566.00	591.00	592.00	634.00	624.00	666.00	680.00	680.00	695.00	736.00	765.00	807.00	849.00	897.00	864.00	886.00	958.00	1015.00	1002.00	997.00	1032.00	1122.00	1199.00	1312.00	1282.00	1235.00	1155.00	1251.00	1091.00	1007.00	917.00	923.00	903.00	798.00	603.00	501.00	452.00	439.00	435.00	431.00	430.00	415.00	414.00	421.00	430.00	432.00	433.00	435.00	435.00	432.00	435.00	436.00	435.00	437.00	441.00	446.00	447.00	449.00	450.00	455.00	456.00	459.00	461.00	464.00	467.00	470.00	476.00	479.00	485.00	489.00	495.00	504.00	543.00	578.00	570.00	567.00	593.00	637.00	676.00	632.00	624.00	681.00	749.00	857.00	928.00	962.00	1075.00	1124.00	1113.00	1131.00	1167.00	1205.00	1257.00	1292.00	1329.00	1380.00	1455.00	1608.00	1615.00	1560.00
1151.00	1121.00	1122.00	1111.00	1077.00	1102.00	1131.00	1145.00	1158.00	1171.00	1150.00	1142.00	1179.00	1210.00	1210.00	1237.00	1203.00	1210.00	1226.00	1229.00	1239.00	1246.00	1290.00	1293.00	1304.00	1328.00	1386.00	1390.00	1433.00	1482.00	1500.00	1426.00	1301.00	1063.00	998.00	968.00	948.00	909.00	849.00	873.00	802.00	802.00	782.00	787.00	733.00	727.00	720.00	714.00	707.00	691.00	684.00	678.00	673.00	658.00	653.00	648.00	642.00	636.00	626.00	621.00	615.00	609.00	599.00	595.00	586.00	583.00	578.00	576.00	569.00	565.00	567.00	565.00	568.00	569.00	567.00	566.00	569.00	562.00	569.00	579.00	588.00	598.00	607.00	621.00	631.00	732.00	774.00	807.00	856.00	1130.00	1130.00	1164.00	1160.00	1109.00	878.00	824.00	736.00	753.00	640.00	607.00	670.00	679.00	674.00	485.00	477.00	472.00	469.00	451.00	449.00	447.00	445.00	445.00	444.00	444.00	444.00	443.00	443.00	442.00	442.00	441.00	442.00	442.00	440.00	440.00	440.00	442.00	441.00	440.00	441.00	441.00	443.00	442.00	442.00	442.00	443.00	443.00	445.00	444.00	445.00	446.00	446.00	447.00	443.00	436.00	424.00	426.00	425.00	435.00	448.00	451.00	460.00	471.00	489.00	494.00	501.00	518.00	566.00	591.00	592.00	634.00	624.00	666.00	680.00	680.00	695.00	736.00	765.00	807.00	849.00	897.00	864.00	886.00	958.00	1015.00	1002.00	997.00	1032.00	1122.00	1199.00	1312.00	1282.00	1235.00	1155.00	1251.00	1091.00	1007.00	917.00	923.00	903.00	798.00	603.00	501.00	452.00	439.00	435.00	431.00	430.00	415.00	414.00	421.00	430.00	432.00	433.00	435.00	435.00	432.00	435.00	436.00	435.00	437.00	441.00	446.00	447.00	449.00	450.00	455.00	456.00	459.00	461.00	464.00	467.00	470.00	476.00	479.00	485.00	489.00	495.00	504.00	543.00	578.00	570.00	567.00	593.00	637.00	676.00	632.00	624.00	681.00	749.00	857.00	928.00	962.00	1075.00	1124.00	1113.00	1131.00	1167.00	1205.00	1257.00	1292.00	1329.00	1380.00	1455.00	1608.00	1615.00	1560.00
1149.00	1131.00	1131.00	1119.00	1086.00	1121.00	1153.00	1171.00	1181.00	1177.00	1154.00	1151.00	1204.00	1222.00	1232.00	1256.00	1252.00	1228.00	1256.00	1247.00	1249.00	1250.00	1303.00	1317.00	1327.00	1335.00	1406.00	1416.00	1442.00	1501.00	1503.00	1416.00	1376.00	1116.00	998.00	905.00	876.00	869.00	873.00	836.00	799.00	782.00	772.00	764.00	736.00	729.00	720.00	713.00	706.00	694.00	687.00	681.00	675.00	657.00	653.00	647.00	641.00	634.00	624.00	620.00	616.00	609.00	598.00	591.00	585.00	581.00	575.00	575.00	569.00	564.00	566.00	564.00	567.00	568.00	567.00	565.00	559.00	559.00	565.00	572.00	582.00	591.00	598.00	608.00	621.00	717.00	712.00	795.00	861.00	1129.00	1146.00	1167.00	1122.00	1081.00	900.00	865.00	745.00	770.00	620.00	663.00	687.00	701.00	656.00	554.00	476.00	469.00	466.00	450.00	448.00	446.00	444.00	445.00	444.00	444.00	444.00	444.00	443.00	443.00	442.00	442.00	443.00	441.00	440.00	440.00	440.00	441.00	440.00	440.00	441.00	442.00	442.00	442.00	442.00	442.00	443.00	443.00	444.00	443.00	445.00	446.00	446.00	440.00	435.00	427.00	413.00	437.00	438.00	446.00	451.00	460.00	472.00	479.00	499.00	513.00	515.00	525.00	563.00	594.00	613.00	643.00	656.00	654.00	668.00	693.00	721.00	746.00	755.00	805.00	907.00	960.00	881.00	926.00	1051.00	1095.00	995.00	1071.00	1120.00	1181.00	1238.00	1407.00	1386.00	1327.00	1255.00	1202.00	1033.00	951.00	896.00	864.00	765.00	744.00	531.00	474.00	449.00	440.00	434.00	431.00	430.00	422.00	414.00	414.00	422.00	428.00	431.00	434.00	433.00	431.00	435.00	436.00	436.00	435.00	441.00	444.00	446.00	448.00	448.00	452.00	456.00	458.00	460.00	463.00	466.00	468.00	474.00	477.00	485.00	491.00	503.00	514.00	555.00	630.00	664.00	633.00	679.00	688.00	762.00	721.00	654.00	734.00	729.00	818.00	910.00	968.00	1108.00	1102.00	1119.00	1163.00	1199.00	1237.00	1241.00	1259.00	1327.00	1430.00	1485.00	1597.00	1568.00	1509.00
1154.00	1121.00	1110.00	1100.00	1100.00	1120.00	1149.00	1197.00	1199.00	1177.00	1166.00	1163.00	1240.00	1226.00	1231.00	1262.00	1313.00	1279.00	1330.00	1319.00	1280.00	1287.00	1313.00	1310.00	1328.00	1350.00	1462.00	1493.00	1478.00	1512.00	1465.00	1354.00	1338.00	1075.00	1110.00	942.00	967.00	970.00	962.00	845.00	804.00	792.00	780.00	768.00	734.00	727.00	718.00	711.00	706.00	694.00	689.00	683.00	676.00	656.00	649.00	644.00	637.00	632.00	621.00	616.00	613.00	609.00	598.00	593.00	581.00	578.00	575.00	572.00	571.00	566.00	567.00	561.00	560.00	563.00	565.00	563.00	561.00	557.00	558.00	565.00	584.00	618.00	609.00	616.00	628.00	674.00	721.00	784.00	862.00	1106.00	1143.00	1156.00	1117.00	1060.00	945.00	837.00	781.00	779.00	625.00	684.00	699.00	692.00	628.00	512.00	474.00	467.00	463.00	450.00	449.00	446.00	445.00	444.00	444.00	444.00	445.00	444.00	444.00	443.00	443.00	443.00	442.00	442.00	441.00	440.00	441.00	440.00	440.00	440.00	441.00	442.00	443.00	443.00	443.00	443.00	444.00	444.00	443.00	445.00	446.00	444.00	439.00	436.00	427.00	418.00	423.00	440.00	447.00	447.00	453.00	458.00	470.00	483.00	509.00	522.00	532.00	535.00	585.00	602.00	623.00	656.00	675.00	694.00	696.00	691.00	701.00	760.00	793.00	838.00	935.00	951.00	903.00	1004.00	1111.00	1050.00	1017.00	1120.00	1184.00	1249.00	1287.00	1533.00	1486.00	1353.00	1321.00	1079.00	955.00	906.00	853.00	895.00	633.00	679.00	494.00	451.00	441.00	436.00	428.00	427.00	427.00	423.00	415.00	414.00	413.00	422.00	427.00	432.00	434.00	430.00	435.00	436.00	435.00	434.00	439.00	442.00	444.00	446.00	448.00	453.00	455.00	457.00	458.00	463.00	465.00	468.00	474.00	477.00	491.00	497.00	504.00	519.00	546.00	592.00	672.00	711.00	754.00	769.00	812.00	773.00	752.00	811.00	853.00	916.00	976.00	1006.00	1092.00	1084.00	1110.00	1157.00	1186.00	1215.00	1213.00	1282.00	1354.00	1415.00	1429.00	1549.00	1509.00	1411.00
1145.00	1222.00	1150.00	1120.00	1115.00	1138.00	1161.00	1184.00	1217.00	1213.00	1190.00	1216.00	1231.00	1193.00	1203.00	1250.00	1292.00	1332.00	1381.00	1417.00	1384.00	1358.00	1368.00	1383.00	1349.00	1354.00	1452.00	1520.00	1527.00	1532.00	1526.00	1408.00	1387.00	1310.00	1230.00	1193.00	1053.00	928.00	908.00	936.00	868.00	817.00	803.00	781.00	728.00	714.00	711.00	705.00	700.00	689.00	685.00	679.00	673.00	654.00	647.00	641.00	634.00	628.00	616.00	611.00	606.00	602.00	594.00	591.00	583.00	580.00	576.00	570.00	568.00	566.00	564.00	557.00	556.00	553.00	555.00	559.00	558.00	557.00	552.00	556.00	564.00	590.00	623.00	619.00	677.00	676.00	742.00	812.00	868.00	1103.00	1128.00	1135.00	1086.00	1011.00	974.00	790.00	814.00	732.00	710.00	743.00	737.00	715.00	674.00	494.00	468.00	462.00	458.00	449.00	449.00	446.00	447.00	446.00	442.00	444.00	446.00	445.00	443.00	443.00	443.00	443.00	443.00	441.00	441.00	441.00	440.00	440.00	442.00	442.00	441.00	442.00	443.00	443.00	443.00	443.00	443.00	443.00	443.00	445.00	446.00	446.00	440.00	430.00	423.00	423.00	436.00	445.00	445.00	446.00	460.00	471.00	484.00	492.00	502.00	517.00	530.00	544.00	557.00	565.00	573.00	602.00	625.00	658.00	671.00	698.00	709.00	777.00	821.00	910.00	995.00	975.00	1025.00	1154.00	1125.00	1027.00	1062.00	1137.00	1281.00	1329.00	1347.00	1522.00	1375.00	1227.00	1128.00	883.00	816.00	759.00	671.00	651.00	601.00	526.00	442.00	425.00	420.00	419.00	417.00	415.00	416.00	415.00	415.00	414.00	412.00	417.00	421.00	429.00	432.00	431.00	431.00	433.00	433.00	433.00	436.00	439.00	442.00	444.00	445.00	450.00	453.00	453.00	455.00	460.00	461.00	465.00	477.00	485.00	504.00	511.00	516.00	527.00	559.00	576.00	590.00	609.00	835.00	855.00	877.00	877.00	908.00	931.00	930.00	972.00	996.00	1031.00	1060.00	1081.00	1105.00	1113.00	1142.00	1148.00	1184.00	1220.00	1248.00	1284.00	1299.00	1338.00	1316.00	1309.00
1161.00	1241.00	1146.00	1123.00	1128.00	1140.00	1182.00	1184.00	1205.00	1215.00	1202.00	1222.00	1230.00	1176.00	1192.00	1219.00	1234.00	1303.00	1332.00	1367.00	1417.00	1418.00	1384.00	1416.00	1402.00	1383.00	1454.00	1510.00	1503.00	1516.00	1531.00	1425.00	1415.00	1323.00	1356.00	1165.00	1039.00	1037.00	1043.00	973.00	869.00	866.00	838.00	797.00	729.00	713.00	705.00	699.00	695.00	685.00	680.00	676.00	670.00	654.00	648.00	642.00	635.00	627.00	615.00	614.00	611.00	606.00	597.00	591.00	585.00	581.00	578.00	571.00	567.00	564.00	562.00	561.00	554.00	554.00	551.00	555.00	556.00	556.00	552.00	550.00	556.00	563.00	577.00	623.00	649.00	722.00	786.00	805.00	863.00	1101.00	1122.00	1129.00	1087.00	1050.00	969.00	788.00	789.00	688.00	712.00	739.00	738.00	728.00	708.00	537.00	480.00	459.00	457.00	450.00	448.00	447.00	447.00	445.00	443.00	442.00	444.00	444.00	443.00	443.00	444.00	443.00	442.00	441.00	441.00	441.00	441.00	439.00	442.00	440.00	441.00	442.00	443.00	444.00	443.00	443.00	442.00	442.00	443.00	444.00	445.00	447.00	441.00	434.00	432.00	422.00	437.00	444.00	442.00	440.00	458.00	470.00	482.00	490.00	514.00	528.00	541.00	561.00	596.00	598.00	598.00	612.00	608.00	630.00	652.00	670.00	698.00	773.00	829.00	908.00	1001.00	1014.00	1090.00	1192.00	1075.00	1038.00	1077.00	1122.00	1223.00	1244.00	1309.00	1439.00	1308.00	1161.00	1012.00	856.00	713.00	666.00	598.00	602.00	532.00	467.00	431.00	418.00	412.00	414.00	414.00	412.00	410.00	411.00	411.00	410.00	410.00	417.00	420.00	427.00	429.00	428.00	425.00	428.00	430.00	432.00	434.00	438.00	440.00	442.00	444.00	448.00	449.00	451.00	453.00	458.00	461.00	465.00	481.00	491.00	510.00	520.00	525.00	531.00	564.00	582.00	598.00	614.00	775.00	881.00	906.00	912.00	936.00	991.00	962.00	964.00	995.00	1019.00	1044.00	1062.00	1076.00	1099.00	1183.00	1176.00	1221.00	1259.00	1251.00	1268.00	1287.00	1306.00	1285.00	1283.00
1171.00	1164.00	1141.00	1134.00	1150.00	1152.00	1153.00	1161.00	1187.00	1204.00	1218.00	1238.00	1215.00	1163.00	1176.00	1190.00	1238.00	1301.00	1362.00	1399.00	1429.00	1431.00	1426.00	1427.00	1440.00	1445.00	1451.00	1455.00	1467.00	1502.00	1521.00	1416.00	1336.00	1437.00	1380.00	1263.00	1175.00	1185.00	1103.00	955.00	910.00	974.00	926.00	827.00	730.00	715.00	702.00	696.00	690.00	680.00	677.00	672.00	667.00	653.00	648.00	642.00	636.00	630.00	620.00	615.00	611.00	606.00	597.00	594.00	587.00	583.00	579.00	571.00	566.00	563.00	560.00	565.00	557.00	555.00	552.00	553.00	555.00	553.00	552.00	548.00	554.00	565.00	586.00	652.00	611.00	689.00	770.00	813.00	879.00	1079.00	1099.00	1107.00	1084.00	1072.00	929.00	793.00	755.00	718.00	695.00	731.00	744.00	734.00	724.00	542.00	530.00	459.00	456.00	450.00	449.00	447.00	446.00	445.00	443.00	444.00	443.00	442.00	442.00	442.00	443.00	442.00	442.00	442.00	442.00	442.00	440.00	440.00	441.00	440.00	441.00	442.00	443.00	444.00	444.00	443.00	442.00	442.00	444.00	445.00	446.00	446.00	446.00	443.00	439.00	412.00	426.00	434.00	438.00	442.00	459.00	469.00	475.00	490.00	517.00	528.00	550.00	572.00	617.00	629.00	644.00	631.00	646.00	634.00	640.00	662.00	697.00	761.00	829.00	895.00	984.00	969.00	1098.00	1155.00	1050.00	1070.00	1140.00	1204.00	1233.00	1293.00	1449.00	1370.00	1247.00	1104.00	951.00	746.00	636.00	576.00	537.00	505.00	468.00	434.00	418.00	411.00	409.00	410.00	409.00	408.00	408.00	410.00	408.00	409.00	410.00	416.00	417.00	421.00	421.00	423.00	426.00	428.00	430.00	432.00	433.00	437.00	439.00	441.00	442.00	447.00	448.00	449.00	451.00	457.00	465.00	471.00	488.00	495.00	516.00	526.00	534.00	540.00	566.00	582.00	602.00	628.00	679.00	795.00	919.00	954.00	969.00	1004.00	992.00	974.00	985.00	1009.00	1055.00	1074.00	1105.00	1148.00	1212.00	1198.00	1223.00	1238.00	1231.00	1254.00	1269.00	1262.00	1257.00	1257.00
1189.00	1155.00	1151.00	1148.00	1155.00	1166.00	1166.00	1181.00	1188.00	1201.00	1223.00	1249.00	1193.00	1166.00	1188.00	1212.00	1238.00	1341.00	1329.00	1377.00	1402.00	1390.00	1444.00	1445.00	1448.00	1438.00	1412.00	1438.00	1482.00	1533.00	1536.00	1297.00	1249.00	1524.00	1449.00	1346.00	1259.00	1226.00	1143.00	1034.00	961.00	1007.00	860.00	807.00	743.00	726.00	710.00	699.00	690.00	677.00	672.00	667.00	662.00	648.00	645.00	638.00	634.00	630.00	619.00	613.00	607.00	603.00	597.00	592.00	585.00	581.00	579.00	570.00	567.00	563.00	561.00	556.00	559.00	560.00	557.00	552.00	555.00	554.00	552.00	548.00	555.00	566.00	578.00	593.00	593.00	710.00	741.00	786.00	835.00	986.00	1067.00	1081.00	1084.00	1056.00	876.00	807.00	751.00	740.00	696.00	738.00	736.00	724.00	716.00	518.00	508.00	462.00	460.00	453.00	450.00	449.00	447.00	445.00	444.00	443.00	443.00	443.00	442.00	440.00	443.00	442.00	442.00	441.00	441.00	443.00	441.00	441.00	441.00	440.00	441.00	441.00	443.00	442.00	442.00	444.00	443.00	443.00	444.00	444.00	446.00	446.00	447.00	446.00	443.00	423.00	411.00	428.00	430.00	448.00	462.00	466.00	480.00	492.00	516.00	530.00	547.00	562.00	600.00	641.00	659.00	646.00	656.00	666.00	676.00	683.00	681.00	785.00	842.00	915.00	973.00	967.00	1178.00	1199.00	1071.00	1113.00	1131.00	1222.00	1292.00	1420.00	1502.00	1259.00	1153.00	1020.00	840.00	703.00	625.00	551.00	498.00	468.00	437.00	420.00	409.00	408.00	407.00	407.00	406.00	406.00	409.00	408.00	408.00	412.00	412.00	415.00	415.00	418.00	421.00	423.00	427.00	428.00	429.00	431.00	432.00	436.00	437.00	439.00	441.00	444.00	447.00	448.00	451.00	458.00	464.00	472.00	493.00	503.00	522.00	531.00	541.00	550.00	577.00	600.00	617.00	715.00	813.00	868.00	926.00	955.00	974.00	995.00	1007.00	1016.00	1026.00	1017.00	1082.00	1098.00	1114.00	1153.00	1194.00	1186.00	1210.00	1206.00	1212.00	1227.00	1242.00	1235.00	1234.00	1235.00
1052.00	1109.00	1091.00	1093.00	1164.00	1141.00	1078.00	1082.00	1167.00	1191.00	1225.00	1232.00	1141.00	1191.00	1194.00	1195.00	1230.00	1248.00	1257.00	1296.00	1326.00	1357.00	1356.00	1341.00	1356.00	1401.00	1396.00	1417.00	1432.00	1469.00	1510.00	1295.00	1130.00	1136.00	1181.00	1523.00	1584.00	1391.00	1210.00	1126.00	1109.00	976.00	862.00	830.00	757.00	741.00	726.00	714.00	703.00	680.00	670.00	662.00	656.00	642.00	637.00	633.00	628.00	626.00	619.00	617.00	613.00	608.00	600.00	596.00	589.00	586.00	583.00	576.00	573.00	568.00	565.00	560.00	556.00	555.00	551.00	548.00	545.00	546.00	546.00	546.00	543.00	550.00	559.00	565.00	569.00	613.00	632.00	661.00	704.00	817.00	811.00	804.00	900.00	965.00	832.00	805.00	739.00	711.00	724.00	728.00	741.00	709.00	603.00	551.00	481.00	474.00	471.00	460.00	457.00	454.00	450.00	448.00	468.00	447.00	444.00	443.00	443.00	442.00	442.00	441.00	442.00	442.00	441.00	441.00	440.00	440.00	440.00	439.00	440.00	441.00	441.00	442.00	442.00	442.00	444.00	444.00	444.00	444.00	445.00	447.00	446.00	445.00	441.00	433.00	419.00	413.00	434.00	463.00	481.00	483.00	483.00	494.00	529.00	551.00	564.00	587.00	622.00	651.00	682.00	689.00	672.00	705.00	738.00	774.00	803.00	902.00	980.00	1028.00	1076.00	1168.00	1316.00	1233.00	1220.00	1260.00	1302.00	1322.00	1213.00	1151.00	1137.00	996.00	913.00	684.00	519.00	453.00	439.00	421.00	413.00	408.00	404.00	403.00	402.00	402.00	403.00	402.00	404.00	405.00	406.00	409.00	410.00	410.00	410.00	413.00	415.00	417.00	419.00	420.00	423.00	424.00	426.00	426.00	429.00	431.00	432.00	433.00	436.00	442.00	446.00	450.00	454.00	466.00	474.00	483.00	501.00	511.00	530.00	541.00	553.00	565.00	581.00	584.00	600.00	662.00	626.00	727.00	747.00	831.00	886.00	961.00	1007.00	1038.00	1057.00	1076.00	1058.00	1061.00	1071.00	1096.00	1128.00	1142.00	1159.00	1174.00	1178.00	1225.00	1253.00	1257.00	1229.00	1198.00
