1751.00	1723.00	1720.00	1698.00	1648.00	1610.00	1423.00	1381.00	1365.00	1349.00	1347.00	1352.00	1534.00	1478.00	1364.00	1238.00	1241.00	1283.00	1428.00	1417.00	1217.00	1283.00	1406.00	1387.00	1190.00	1085.00	1056.00	1131.00	1165.00	1063.00	1017.00	990.00	969.00	928.00	922.00	917.00	911.00	922.00	938.00	970.00	1008.00	1051.00	1148.00	1216.00	1255.00	1310.00	1376.00	1367.00	1339.00	1277.00	1201.00	1085.00	1039.00	997.00	881.00	788.00	759.00	752.00	788.00	822.00	792.00	733.00	658.00	595.00	460.00	390.00	293.00	229.00	251.00	191.00	156.00	147.00	140.00	138.00	139.00	191.00	159.00	166.00	306.00	368.00	404.00	436.00	511.00	530.00	576.00	622.00	638.00	615.00	600.00	606.00	596.00	527.00	557.00	593.00	602.00	627.00	689.00	655.00	614.00	565.00	423.00	364.00	364.00	386.00	370.00	338.00	275.00	234.00	199.00	161.00	160.00	184.00	228.00	245.00	250.00	243.00	253.00	295.00	338.00	332.00	337.00	342.00	348.00	374.00	363.00	369.00	367.00	355.00	359.00	374.00	379.00	386.00	380.00	374.00	372.00	377.00	393.00	397.00	398.00	403.00	388.00	330.00	366.00	371.00	372.00	368.00	358.00	349.00	355.00	325.00	345.00	355.00	372.00	363.00	366.00	356.00	387.00	374.00	405.00	427.00	428.00	436.00	447.00	469.00	485.00	499.00	494.00	487.00	494.00	493.00	501.00	509.00	514.00	517.00	518.00	514.00	513.00	518.00	523.00	527.00	533.00	532.00	531.00	530.00	534.00	539.00	550.00	547.00	556.00	564.00	613.00	617.00	633.00	648.00	666.00	671.00	679.00	687.00	695.00	618.00	683.00	790.00	847.00	1006.00	1105.00	1207.00	1323.00	1403.00	1373.00	1432.00	1534.00	1647.00	1753.00	1771.00	1789.00	1737.00	1783.00	1815.00	1740.00	1644.00	1601.00	1645.00	1685.00	1727.00	1806.00	1858.00	1691.00	1597.00	1518.00	1498.00	1603.00	1717.00	1591.00	1517.00	1455.00	1400.00	1355.00	1291.00	1258.00	1236.00	1290.00	1372.00	1437.00	1483.00	1349.00	1289.00	1212.00	1123.00	946.00	898.00	863.00	837.00	824.00	810.00	800.00	797.00
1655.00	1760.00	1762.00	1645.00	1547.00	1508.00	1423.00	1408.00	1409.00	1405.00	1396.00	1537.00	1650.00	1526.00	1366.00	1306.00	1305.00	1377.00	1529.00	1538.00	1323.00	1415.00	1562.00	1386.00	1121.00	1117.00	1196.00	1303.00	1368.00	1264.00	1138.00	1068.00	1109.00	1061.00	1015.00	986.00	961.00	931.00	886.00	877.00	880.00	896.00	938.00	997.00	1032.00	1058.00	1123.00	1148.00	1205.00	1258.00	1288.00	1276.00	1219.00	1167.00	1049.00	927.00	862.00	794.00	711.00	666.00	619.00	620.00	594.00	553.00	435.00	393.00	302.00	213.00	207.00	200.00	215.00	168.00	138.00	138.00	137.00	157.00	156.00	212.00	396.00	440.00	459.00	484.00	594.00	618.00	655.00	699.00	727.00	720.00	707.00	714.00	688.00	597.00	635.00	677.00	708.00	712.00	708.00	720.00	672.00	615.00	499.00	435.00	406.00	418.00	399.00	357.00	336.00	319.00	305.00	204.00	167.00	160.00	162.00	178.00	179.00	165.00	165.00	184.00	219.00	242.00	266.00	290.00	299.00	336.00	320.00	313.00	347.00	399.00	367.00	362.00	369.00	368.00	372.00	377.00	374.00	370.00	372.00	379.00	392.00	384.00	382.00	298.00	319.00	312.00	307.00	304.00	310.00	303.00	304.00	361.00	394.00	387.00	378.00	390.00	386.00	405.00	427.00	430.00	429.00	434.00	432.00	431.00	432.00	444.00	450.00	463.00	463.00	461.00	455.00	466.00	476.00	485.00	495.00	499.00	499.00	499.00	501.00	517.00	518.00	518.00	521.00	522.00	517.00	517.00	517.00	520.00	525.00	527.00	526.00	535.00	559.00	566.00	578.00	598.00	609.00	617.00	623.00	630.00	590.00	642.00	701.00	804.00	898.00	1087.00	1183.00	1313.00	1446.00	1564.00	1632.00	1619.00	1621.00	1635.00	1850.00	1921.00	1938.00	1908.00	1934.00	1781.00	1837.00	1864.00	1868.00	1932.00	1934.00	1923.00	1840.00	1780.00	1530.00	1455.00	1442.00	1529.00	1637.00	1698.00	1616.00	1599.00	1600.00	1509.00	1461.00	1417.00	1376.00	1205.00	1201.00	1269.00	1325.00	1448.00	1264.00	1166.00	1090.00	1026.00	910.00	871.00	839.00	821.00	816.00	802.00	796.00	793.00
1562.00	1620.00	1689.00	1690.00	1657.00	1613.00	1552.00	1505.00	1483.00	1529.00	1562.00	1736.00	1568.00	1454.00	1379.00	1341.00	1357.00	1481.00	1596.00	1692.00	1599.00	1588.00	1562.00	1312.00	1161.00	1292.00	1414.00	1511.00	1552.00	1310.00	1145.00	1111.00	1235.00	1321.00	1249.00	1157.00	1097.00	1055.00	964.00	927.00	899.00	873.00	841.00	852.00	870.00	887.00	921.00	939.00	971.00	1018.00	1078.00	1220.00	1268.00	1300.00	1254.00	1071.00	981.00	906.00	835.00	763.00	643.00	583.00	546.00	508.00	378.00	285.00	251.00	360.00	356.00	330.00	266.00	180.00	138.00	137.00	137.00	150.00	168.00	226.00	417.00	469.00	513.00	545.00	647.00	672.00	699.00	732.00	760.00	761.00	753.00	760.00	746.00	681.00	759.00	796.00	789.00	777.00	728.00	730.00	718.00	686.00	575.00	527.00	495.00	491.00	463.00	423.00	397.00	381.00	358.00	306.00	245.00	180.00	164.00	162.00	165.00	164.00	165.00	170.00	170.00	172.00	177.00	192.00	232.00	299.00	300.00	279.00	289.00	412.00	403.00	386.00	403.00	401.00	376.00	378.00	388.00	394.00	378.00	364.00	372.00	393.00	404.00	284.00	297.00	303.00	306.00	336.00	346.00	350.00	362.00	380.00	394.00	397.00	399.00	408.00	432.00	440.00	438.00	427.00	427.00	432.00	435.00	436.00	438.00	430.00	432.00	436.00	440.00	442.00	447.00	457.00	461.00	464.00	473.00	476.00	477.00	478.00	480.00	490.00	498.00	505.00	503.00	509.00	508.00	514.00	517.00	517.00	512.00	513.00	513.00	517.00	521.00	526.00	535.00	542.00	561.00	574.00	564.00	562.00	595.00	638.00	654.00	713.00	770.00	934.00	1047.00	1162.00	1250.00	1311.00	1443.00	1529.00	1634.00	1720.00	1692.00	1656.00	1645.00	1620.00	1670.00	1676.00	1744.00	1779.00	1869.00	1873.00	1765.00	1678.00	1648.00	1561.00	1412.00	1388.00	1437.00	1568.00	1831.00	1919.00	1820.00	1747.00	1734.00	1726.00	1593.00	1511.00	1425.00	1255.00	1166.00	1126.00	1162.00	1330.00	1209.00	1107.00	1018.00	963.00	879.00	848.00	828.00	820.00	816.00	804.00	803.00	806.00
1562.00	1620.00	1689.00	1690.00	1657.00	1613.00	1552.00	1505.00	1483.00	1529.00	1562.00	1736.00	1568.00	1454.00	1379.00	1341.00	1357.00	1481.00	1596.00	1692.00	1599.00	1588.00	1562.00	1312.00	1161.00	1292.00	1414.00	1511.00	1552.00	1310.00	1145.00	1111.00	1235.00	1321.00	1249.00	1157.00	1097.00	1055.00	964.00	927.00	899.00	873.00	841.00	852.00	870.00	887.00	921.00	939.00	971.00	1018.00	1078.00	1220.00	1268.00	1300.00	1254.00	1071.00	981.00	906.00	835.00	763.00	643.00	583.00	546.00	508.00	378.00	285.00	251.00	360.00	356.00	330.00	266.00	180.00	138.00	137.00	137.00	150.00	168.00	226.00	417.00	469.00	513.00	545.00	647.00	672.00	699.00	732.00	760.00	761.00	753.00	760.00	746.00	681.00	759.00	796.00	789.00	777.00	728.00	730.00	718.00	686.00	575.00	527.00	495.00	491.00	463.00	423.00	397.00	381.00	358.00	306.00	245.00	180.00	164.00	162.00	165.00	164.00	165.00	170.00	170.00	172.00	177.00	192.00	232.00	299.00	300.00	279.00	289.00	412.00	403.00	386.00	403.00	401.00	376.00	378.00	388.00	394.00	378.00	364.00	372.00	393.00	404.00	284.00	297.00	303.00	306.00	336.00	346.00	350.00	362.00	380.00	394.00	397.00	399.00	408.00	432.00	440.00	438.00	427.00	427.00	432.00	435.00	436.00	438.00	430.00	432.00	436.00	440.00	442.00	447.00	457.00	461.00	464.00	473.00	476.00	477.00	478.00	480.00	490.00	498.00	505.00	503.00	509.00	508.00	514.00	517.00	517.00	512.00	513.00	513.00	517.00	521.00	526.00	535.00	542.00	561.00	574.00	564.00	562.00	595.00	638.00	654.00	713.00	770.00	934.00	1047.00	1162.00	1250.00	1311.00	1443.00	1529.00	1634.00	1720.00	1692.00	1656.00	1645.00	1620.00	1670.00	1676.00	1744.00	1779.00	1869.00	1873.00	1765.00	1678.00	1648.00	1561.00	1412.00	1388.00	1437.00	1568.00	1831.00	1919.00	1820.00	1747.00	1734.00	1726.00	1593.00	1511.00	1425.00	1255.00	1166.00	1126.00	1162.00	1330.00	1209.00	1107.00	1018.00	963.00	879.00	848.00	828.00	820.00	816.00	804.00	803.00	806.00
1347.00	1395.00	1457.00	1512.00	1558.00	1613.00	1796.00	1800.00	1738.00	1693.00	1657.00	1737.00	1657.00	1580.00	1468.00	1402.00	1421.00	1517.00	1641.00	1750.00	1612.00	1539.00	1475.00	1259.00	1266.00	1384.00	1498.00	1589.00	1630.00	1361.00	1202.00	1173.00	1303.00	1479.00	1412.00	1272.00	1158.00	1116.00	1124.00	1073.00	1022.00	975.00	902.00	848.00	821.00	802.00	790.00	806.00	822.00	856.00	904.00	1003.00	1050.00	1104.00	1202.00	1154.00	1062.00	953.00	863.00	782.00	657.00	616.00	567.00	508.00	337.00	307.00	424.00	427.00	413.00	398.00	340.00	199.00	137.00	137.00	139.00	151.00	177.00	222.00	435.00	483.00	532.00	571.00	680.00	709.00	723.00	741.00	775.00	780.00	787.00	790.00	781.00	770.00	832.00	867.00	882.00	860.00	786.00	797.00	776.00	716.00	627.00	603.00	589.00	565.00	537.00	479.00	462.00	431.00	422.00	402.00	366.00	335.00	318.00	301.00	271.00	235.00	203.00	169.00	169.00	171.00	171.00	171.00	175.00	213.00	203.00	238.00	327.00	361.00	368.00	364.00	353.00	358.00	352.00	357.00	379.00	402.00	403.00	387.00	345.00	345.00	305.00	309.00	335.00	333.00	350.00	372.00	366.00	358.00	365.00	393.00	393.00	397.00	401.00	413.00	441.00	449.00	449.00	440.00	432.00	430.00	431.00	433.00	433.00	428.00	427.00	427.00	431.00	432.00	435.00	450.00	458.00	480.00	486.00	490.00	492.00	487.00	476.00	477.00	479.00	486.00	488.00	490.00	493.00	497.00	501.00	501.00	501.00	503.00	505.00	509.00	507.00	500.00	505.00	511.00	523.00	524.00	535.00	553.00	565.00	597.00	617.00	671.00	703.00	812.00	892.00	963.00	1015.00	1083.00	1337.00	1468.00	1509.00	1505.00	1502.00	1412.00	1408.00	1409.00	1476.00	1547.00	1601.00	1668.00	1799.00	1597.00	1564.00	1480.00	1397.00	1344.00	1349.00	1418.00	1458.00	1514.00	1699.00	1886.00	1850.00	1768.00	1701.00	1686.00	1673.00	1632.00	1529.00	1349.00	1262.00	1174.00	1094.00	1173.00	1096.00	1073.00	1037.00	980.00	879.00	843.00	822.00	818.00	816.00	823.00	836.00	848.00
1347.00	1395.00	1457.00	1512.00	1558.00	1613.00	1796.00	1800.00	1738.00	1693.00	1657.00	1737.00	1657.00	1580.00	1468.00	1402.00	1421.00	1517.00	1641.00	1750.00	1612.00	1539.00	1475.00	1259.00	1266.00	1384.00	1498.00	1589.00	1630.00	1361.00	1202.00	1173.00	1303.00	1479.00	1412.00	1272.00	1158.00	1116.00	1124.00	1073.00	1022.00	975.00	902.00	848.00	821.00	802.00	790.00	806.00	822.00	856.00	904.00	1003.00	1050.00	1104.00	1202.00	1154.00	1062.00	953.00	863.00	782.00	657.00	616.00	567.00	508.00	337.00	307.00	424.00	427.00	413.00	398.00	340.00	199.00	137.00	137.00	139.00	151.00	177.00	222.00	435.00	483.00	532.00	571.00	680.00	709.00	723.00	741.00	775.00	780.00	787.00	790.00	781.00	770.00	832.00	867.00	882.00	860.00	786.00	797.00	776.00	716.00	627.00	603.00	589.00	565.00	537.00	479.00	462.00	431.00	422.00	402.00	366.00	335.00	318.00	301.00	271.00	235.00	203.00	169.00	169.00	171.00	171.00	171.00	175.00	213.00	203.00	238.00	327.00	361.00	368.00	364.00	353.00	358.00	352.00	357.00	379.00	402.00	403.00	387.00	345.00	345.00	305.00	309.00	335.00	333.00	350.00	372.00	366.00	358.00	365.00	393.00	393.00	397.00	401.00	413.00	441.00	449.00	449.00	440.00	432.00	430.00	431.00	433.00	433.00	428.00	427.00	427.00	431.00	432.00	435.00	450.00	458.00	480.00	486.00	490.00	492.00	487.00	476.00	477.00	479.00	486.00	488.00	490.00	493.00	497.00	501.00	501.00	501.00	503.00	505.00	509.00	507.00	500.00	505.00	511.00	523.00	524.00	535.00	553.00	565.00	597.00	617.00	671.00	703.00	812.00	892.00	963.00	1015.00	1083.00	1337.00	1468.00	1509.00	1505.00	1502.00	1412.00	1408.00	1409.00	1476.00	1547.00	1601.00	1668.00	1799.00	1597.00	1564.00	1480.00	1397.00	1344.00	1349.00	1418.00	1458.00	1514.00	1699.00	1886.00	1850.00	1768.00	1701.00	1686.00	1673.00	1632.00	1529.00	1349.00	1262.00	1174.00	1094.00	1173.00	1096.00	1073.00	1037.00	980.00	879.00	843.00	822.00	818.00	816.00	823.00	836.00	848.00
1202.00	1211.00	1301.00	1375.00	1447.00	1491.00	1591.00	1649.00	1632.00	1526.00	1392.00	1500.00	1631.00	1580.00	1634.00	1658.00	1637.00	1618.00	1587.00	1591.00	1570.00	1575.00	1599.00	1596.00	1642.00	1588.00	1508.00	1470.00	1531.00	1673.00	1647.00	1611.00	1658.00	1593.00	1449.00	1361.00	1407.00	1528.00	1579.00	1478.00	1391.00	1333.00	1201.00	1104.00	1046.00	1004.00	907.00	856.00	803.00	746.00	719.00	761.00	794.00	821.00	847.00	854.00	839.00	818.00	788.00	738.00	629.00	589.00	567.00	528.00	475.00	472.00	463.00	447.00	427.00	335.00	202.00	139.00	154.00	173.00	186.00	244.00	313.00	378.00	490.00	531.00	582.00	632.00	719.00	745.00	762.00	777.00	792.00	820.00	831.00	864.00	906.00	997.00	1062.00	1112.00	1150.00	1155.00	986.00	1011.00	1001.00	1012.00	980.00	920.00	853.00	810.00	774.00	738.00	634.00	651.00	615.00	529.00	513.00	505.00	502.00	507.00	415.00	415.00	418.00	317.00	184.00	168.00	168.00	169.00	170.00	170.00	172.00	212.00	269.00	261.00	258.00	268.00	314.00	342.00	349.00	359.00	347.00	336.00	332.00	304.00	281.00	331.00	355.00	339.00	273.00	335.00	341.00	363.00	364.00	382.00	396.00	391.00	387.00	390.00	394.00	404.00	408.00	415.00	426.00	432.00	444.00	432.00	429.00	428.00	425.00	402.00	401.00	403.00	404.00	401.00	402.00	402.00	406.00	416.00	436.00	442.00	448.00	460.00	477.00	493.00	492.00	499.00	507.00	493.00	490.00	488.00	488.00	488.00	488.00	487.00	487.00	489.00	484.00	485.00	491.00	494.00	496.00	493.00	492.00	494.00	496.00	520.00	542.00	600.00	627.00	700.00	727.00	743.00	800.00	892.00	1038.00	1112.00	1217.00	1184.00	1096.00	1172.00	1280.00	1405.00	1539.00	1826.00	1816.00	1739.00	1645.00	1301.00	1200.00	1157.00	1251.00	1384.00	1613.00	1701.00	1828.00	1818.00	1812.00	1942.00	1870.00	1841.00	1734.00	1450.00	1334.00	1281.00	1356.00	1447.00	1344.00	1212.00	1109.00	998.00	968.00	944.00	918.00	895.00	857.00	845.00	836.00	831.00	837.00	866.00	883.00	888.00
1202.00	1211.00	1301.00	1375.00	1447.00	1491.00	1591.00	1649.00	1632.00	1526.00	1392.00	1500.00	1631.00	1580.00	1634.00	1658.00	1637.00	1618.00	1587.00	1591.00	1570.00	1575.00	1599.00	1596.00	1642.00	1588.00	1508.00	1470.00	1531.00	1673.00	1647.00	1611.00	1658.00	1593.00	1449.00	1361.00	1407.00	1528.00	1579.00	1478.00	1391.00	1333.00	1201.00	1104.00	1046.00	1004.00	907.00	856.00	803.00	746.00	719.00	761.00	794.00	821.00	847.00	854.00	839.00	818.00	788.00	738.00	629.00	589.00	567.00	528.00	475.00	472.00	463.00	447.00	427.00	335.00	202.00	139.00	154.00	173.00	186.00	244.00	313.00	378.00	490.00	531.00	582.00	632.00	719.00	745.00	762.00	777.00	792.00	820.00	831.00	864.00	906.00	997.00	1062.00	1112.00	1150.00	1155.00	986.00	1011.00	1001.00	1012.00	980.00	920.00	853.00	810.00	774.00	738.00	634.00	651.00	615.00	529.00	513.00	505.00	502.00	507.00	415.00	415.00	418.00	317.00	184.00	168.00	168.00	169.00	170.00	170.00	172.00	212.00	269.00	261.00	258.00	268.00	314.00	342.00	349.00	359.00	347.00	336.00	332.00	304.00	281.00	331.00	355.00	339.00	273.00	335.00	341.00	363.00	364.00	382.00	396.00	391.00	387.00	390.00	394.00	404.00	408.00	415.00	426.00	432.00	444.00	432.00	429.00	428.00	425.00	402.00	401.00	403.00	404.00	401.00	402.00	402.00	406.00	416.00	436.00	442.00	448.00	460.00	477.00	493.00	492.00	499.00	507.00	493.00	490.00	488.00	488.00	488.00	488.00	487.00	487.00	489.00	484.00	485.00	491.00	494.00	496.00	493.00	492.00	494.00	496.00	520.00	542.00	600.00	627.00	700.00	727.00	743.00	800.00	892.00	1038.00	1112.00	1217.00	1184.00	1096.00	1172.00	1280.00	1405.00	1539.00	1826.00	1816.00	1739.00	1645.00	1301.00	1200.00	1157.00	1251.00	1384.00	1613.00	1701.00	1828.00	1818.00	1812.00	1942.00	1870.00	1841.00	1734.00	1450.00	1334.00	1281.00	1356.00	1447.00	1344.00	1212.00	1109.00	998.00	968.00	944.00	918.00	895.00	857.00	845.00	836.00	831.00	837.00	866.00	883.00	888.00
1227.00	1182.00	1194.00	1208.00	1225.00	1250.00	1292.00	1321.00	1349.00	1331.00	1270.00	1399.00	1466.00	1383.00	1415.00	1450.00	1419.00	1432.00	1384.00	1385.00	1459.00	1427.00	1474.00	1584.00	1586.00	1515.00	1401.00	1310.00	1368.00	1521.00	1553.00	1563.00	1606.00	1566.00	1534.00	1539.00	1585.00	1612.00	1610.00	1595.00	1604.00	1560.00	1452.00	1319.00	1266.00	1183.00	1021.00	954.00	902.00	854.00	811.00	702.00	684.00	686.00	724.00	759.00	756.00	744.00	714.00	687.00	592.00	568.00	542.00	507.00	481.00	468.00	453.00	434.00	408.00	332.00	236.00	141.00	148.00	188.00	227.00	285.00	305.00	379.00	484.00	520.00	558.00	599.00	673.00	689.00	726.00	751.00	794.00	821.00	841.00	867.00	915.00	1066.00	1149.00	1226.00	1256.00	1291.00	1150.00	1208.00	1152.00	1116.00	1045.00	994.00	937.00	887.00	836.00	751.00	694.00	700.00	671.00	540.00	514.00	534.00	531.00	518.00	441.00	480.00	534.00	472.00	303.00	205.00	175.00	169.00	168.00	168.00	173.00	181.00	227.00	286.00	297.00	317.00	345.00	358.00	381.00	422.00	429.00	426.00	423.00	417.00	330.00	270.00	293.00	354.00	318.00	274.00	318.00	357.00	366.00	366.00	377.00	396.00	390.00	391.00	388.00	389.00	417.00	427.00	440.00	446.00	448.00	432.00	432.00	433.00	433.00	405.00	398.00	394.00	394.00	394.00	396.00	401.00	398.00	410.00	423.00	426.00	431.00	433.00	433.00	455.00	458.00	469.00	473.00	474.00	477.00	484.00	486.00	488.00	488.00	488.00	488.00	487.00	482.00	481.00	485.00	487.00	487.00	483.00	481.00	481.00	481.00	495.00	500.00	547.00	563.00	634.00	665.00	706.00	741.00	782.00	860.00	933.00	973.00	918.00	1210.00	1339.00	1449.00	1556.00	1618.00	1600.00	1558.00	1522.00	1463.00	1161.00	1103.00	1209.00	1345.00	1486.00	1775.00	1884.00	1925.00	1819.00	1707.00	1724.00	1724.00	1744.00	1684.00	1539.00	1421.00	1317.00	1231.00	1208.00	1185.00	1090.00	1016.00	993.00	934.00	916.00	898.00	883.00	860.00	851.00	842.00	843.00	849.00	867.00	886.00	891.00
1227.00	1182.00	1194.00	1208.00	1225.00	1250.00	1292.00	1321.00	1349.00	1331.00	1270.00	1399.00	1466.00	1383.00	1415.00	1450.00	1419.00	1432.00	1384.00	1385.00	1459.00	1427.00	1474.00	1584.00	1586.00	1515.00	1401.00	1310.00	1368.00	1521.00	1553.00	1563.00	1606.00	1566.00	1534.00	1539.00	1585.00	1612.00	1610.00	1595.00	1604.00	1560.00	1452.00	1319.00	1266.00	1183.00	1021.00	954.00	902.00	854.00	811.00	702.00	684.00	686.00	724.00	759.00	756.00	744.00	714.00	687.00	592.00	568.00	542.00	507.00	481.00	468.00	453.00	434.00	408.00	332.00	236.00	141.00	148.00	188.00	227.00	285.00	305.00	379.00	484.00	520.00	558.00	599.00	673.00	689.00	726.00	751.00	794.00	821.00	841.00	867.00	915.00	1066.00	1149.00	1226.00	1256.00	1291.00	1150.00	1208.00	1152.00	1116.00	1045.00	994.00	937.00	887.00	836.00	751.00	694.00	700.00	671.00	540.00	514.00	534.00	531.00	518.00	441.00	480.00	534.00	472.00	303.00	205.00	175.00	169.00	168.00	168.00	173.00	181.00	227.00	286.00	297.00	317.00	345.00	358.00	381.00	422.00	429.00	426.00	423.00	417.00	330.00	270.00	293.00	354.00	318.00	274.00	318.00	357.00	366.00	366.00	377.00	396.00	390.00	391.00	388.00	389.00	417.00	427.00	440.00	446.00	448.00	432.00	432.00	433.00	433.00	405.00	398.00	394.00	394.00	394.00	396.00	401.00	398.00	410.00	423.00	426.00	431.00	433.00	433.00	455.00	458.00	469.00	473.00	474.00	477.00	484.00	486.00	488.00	488.00	488.00	488.00	487.00	482.00	481.00	485.00	487.00	487.00	483.00	481.00	481.00	481.00	495.00	500.00	547.00	563.00	634.00	665.00	706.00	741.00	782.00	860.00	933.00	973.00	918.00	1210.00	1339.00	1449.00	1556.00	1618.00	1600.00	1558.00	1522.00	1463.00	1161.00	1103.00	1209.00	1345.00	1486.00	1775.00	1884.00	1925.00	1819.00	1707.00	1724.00	1724.00	1744.00	1684.00	1539.00	1421.00	1317.00	1231.00	1208.00	1185.00	1090.00	1016.00	993.00	934.00	916.00	898.00	883.00	860.00	851.00	842.00	843.00	849.00	867.00	886.00	891.00
1229.00	1201.00	1149.00	1134.00	1126.00	1124.00	1135.00	1140.00	1143.00	1149.00	1151.00	1181.00	1203.00	1202.00	1213.00	1240.00	1221.00	1227.00	1224.00	1263.00	1313.00	1257.00	1280.00	1363.00	1380.00	1349.00	1285.00	1189.00	1191.00	1277.00	1261.00	1274.00	1314.00	1340.00	1307.00	1351.00	1375.00	1363.00	1327.00	1351.00	1382.00	1390.00	1405.00	1440.00	1439.00	1396.00	1198.00	1093.00	1010.00	940.00	891.00	817.00	779.00	750.00	669.00	640.00	627.00	607.00	594.00	589.00	568.00	548.00	522.00	497.00	427.00	402.00	396.00	395.00	382.00	333.00	259.00	148.00	137.00	219.00	253.00	320.00	354.00	375.00	402.00	425.00	448.00	493.00	541.00	613.00	684.00	723.00	789.00	832.00	861.00	901.00	966.00	1117.00	1216.00	1279.00	1315.00	1374.00	1391.00	1371.00	1325.00	1277.00	1157.00	1092.00	1025.00	968.00	900.00	815.00	764.00	734.00	690.00	572.00	539.00	542.00	564.00	574.00	463.00	457.00	459.00	449.00	344.00	251.00	204.00	181.00	170.00	174.00	175.00	176.00	226.00	319.00	322.00	304.00	303.00	307.00	336.00	392.00	461.00	507.00	492.00	466.00	397.00	371.00	304.00	277.00	273.00	275.00	290.00	374.00	376.00	376.00	375.00	382.00	393.00	393.00	391.00	389.00	389.00	390.00	391.00	392.00	396.00	404.00	409.00	413.00	412.00	414.00	413.00	411.00	410.00	404.00	400.00	423.00	414.00	417.00	423.00	426.00	427.00	427.00	429.00	442.00	452.00	451.00	455.00	475.00	475.00	478.00	483.00	486.00	494.00	490.00	487.00	485.00	476.00	475.00	476.00	476.00	477.00	473.00	470.00	468.00	471.00	478.00	482.00	497.00	507.00	548.00	576.00	608.00	638.00	670.00	727.00	746.00	776.00	842.00	1142.00	1234.00	1309.00	1340.00	1363.00	1302.00	1279.00	1274.00	1354.00	1067.00	1069.00	1216.00	1371.00	1523.00	1650.00	1616.00	1657.00	1666.00	1458.00	1445.00	1460.00	1496.00	1486.00	1365.00	1299.00	1230.00	1163.00	1059.00	1039.00	992.00	966.00	942.00	915.00	901.00	884.00	878.00	856.00	851.00	844.00	849.00	862.00	910.00	906.00	897.00
1239.00	1273.00	1198.00	1164.00	1151.00	1143.00	1117.00	1101.00	1081.00	1071.00	1077.00	1080.00	1082.00	1088.00	1091.00	1091.00	1095.00	1095.00	1102.00	1111.00	1123.00	1123.00	1111.00	1143.00	1141.00	1129.00	1105.00	1067.00	1029.00	1030.00	1027.00	1040.00	1064.00	1102.00	1095.00	1114.00	1114.00	1106.00	1095.00	1119.00	1127.00	1133.00	1156.00	1195.00	1222.00	1245.00	1274.00	1246.00	1191.00	1096.00	1007.00	898.00	856.00	824.00	774.00	708.00	686.00	668.00	657.00	636.00	561.00	539.00	513.00	487.00	457.00	438.00	411.00	369.00	322.00	266.00	218.00	143.00	137.00	231.00	253.00	301.00	375.00	443.00	515.00	541.00	559.00	608.00	640.00	595.00	612.00	658.00	730.00	835.00	876.00	910.00	964.00	1130.00	1189.00	1238.00	1295.00	1337.00	1424.00	1430.00	1443.00	1414.00	1287.00	1198.00	1110.00	1023.00	970.00	901.00	842.00	795.00	735.00	624.00	591.00	572.00	550.00	526.00	480.00	465.00	451.00	426.00	303.00	237.00	192.00	224.00	199.00	175.00	175.00	175.00	180.00	301.00	312.00	312.00	303.00	303.00	346.00	382.00	389.00	430.00	457.00	436.00	498.00	455.00	401.00	352.00	342.00	333.00	336.00	383.00	391.00	399.00	415.00	390.00	396.00	398.00	409.00	407.00	396.00	404.00	407.00	418.00	424.00	452.00	447.00	450.00	452.00	466.00	469.00	459.00	440.00	431.00	416.00	422.00	416.00	420.00	411.00	411.00	417.00	425.00	427.00	431.00	436.00	443.00	463.00	488.00	491.00	509.00	520.00	522.00	514.00	504.00	495.00	493.00	477.00	474.00	474.00	470.00	464.00	464.00	462.00	457.00	459.00	466.00	471.00	480.00	484.00	515.00	540.00	562.00	584.00	609.00	659.00	673.00	686.00	716.00	888.00	970.00	1025.00	1060.00	1086.00	1084.00	1150.00	1234.00	1273.00	976.00	1068.00	1219.00	1330.00	1371.00	1377.00	1341.00	1353.00	1360.00	1341.00	1243.00	1247.00	1213.00	1207.00	1145.00	1114.00	1089.00	1060.00	995.00	975.00	953.00	941.00	923.00	915.00	910.00	899.00	883.00	849.00	844.00	845.00	852.00	848.00	865.00	870.00	877.00
1239.00	1273.00	1198.00	1164.00	1151.00	1143.00	1117.00	1101.00	1081.00	1071.00	1077.00	1080.00	1082.00	1088.00	1091.00	1091.00	1095.00	1095.00	1102.00	1111.00	1123.00	1123.00	1111.00	1143.00	1141.00	1129.00	1105.00	1067.00	1029.00	1030.00	1027.00	1040.00	1064.00	1102.00	1095.00	1114.00	1114.00	1106.00	1095.00	1119.00	1127.00	1133.00	1156.00	1195.00	1222.00	1245.00	1274.00	1246.00	1191.00	1096.00	1007.00	898.00	856.00	824.00	774.00	708.00	686.00	668.00	657.00	636.00	561.00	539.00	513.00	487.00	457.00	438.00	411.00	369.00	322.00	266.00	218.00	143.00	137.00	231.00	253.00	301.00	375.00	443.00	515.00	541.00	559.00	608.00	640.00	595.00	612.00	658.00	730.00	835.00	876.00	910.00	964.00	1130.00	1189.00	1238.00	1295.00	1337.00	1424.00	1430.00	1443.00	1414.00	1287.00	1198.00	1110.00	1023.00	970.00	901.00	842.00	795.00	735.00	624.00	591.00	572.00	550.00	526.00	480.00	465.00	451.00	426.00	303.00	237.00	192.00	224.00	199.00	175.00	175.00	175.00	180.00	301.00	312.00	312.00	303.00	303.00	346.00	382.00	389.00	430.00	457.00	436.00	498.00	455.00	401.00	352.00	342.00	333.00	336.00	383.00	391.00	399.00	415.00	390.00	396.00	398.00	409.00	407.00	396.00	404.00	407.00	418.00	424.00	452.00	447.00	450.00	452.00	466.00	469.00	459.00	440.00	431.00	416.00	422.00	416.00	420.00	411.00	411.00	417.00	425.00	427.00	431.00	436.00	443.00	463.00	488.00	491.00	509.00	520.00	522.00	514.00	504.00	495.00	493.00	477.00	474.00	474.00	470.00	464.00	464.00	462.00	457.00	459.00	466.00	471.00	480.00	484.00	515.00	540.00	562.00	584.00	609.00	659.00	673.00	686.00	716.00	888.00	970.00	1025.00	1060.00	1086.00	1084.00	1150.00	1234.00	1273.00	976.00	1068.00	1219.00	1330.00	1371.00	1377.00	1341.00	1353.00	1360.00	1341.00	1243.00	1247.00	1213.00	1207.00	1145.00	1114.00	1089.00	1060.00	995.00	975.00	953.00	941.00	923.00	915.00	910.00	899.00	883.00	849.00	844.00	845.00	852.00	848.00	865.00	870.00	877.00
1394.00	1524.00	1335.00	1246.00	1197.00	1202.00	1192.00	1187.00	1150.00	1105.00	1088.00	1069.00	1055.00	1057.00	1059.00	1041.00	1041.00	1031.00	1026.00	1024.00	1023.00	1023.00	1020.00	1007.00	980.00	965.00	960.00	952.00	944.00	922.00	914.00	904.00	896.00	916.00	910.00	908.00	901.00	897.00	879.00	894.00	902.00	911.00	939.00	989.00	1009.00	1029.00	1062.00	1080.00	1112.00	1128.00	1110.00	1003.00	952.00	903.00	857.00	801.00	775.00	760.00	741.00	711.00	629.00	600.00	572.00	549.00	489.00	469.00	439.00	404.00	371.00	293.00	214.00	150.00	139.00	245.00	247.00	335.00	419.00	501.00	593.00	629.00	662.00	687.00	731.00	743.00	763.00	795.00	812.00	785.00	837.00	898.00	950.00	1057.00	1083.00	1123.00	1174.00	1227.00	1392.00	1435.00	1462.00	1435.00	1274.00	1210.00	1151.00	1092.00	1035.00	947.00	852.00	799.00	748.00	686.00	678.00	675.00	663.00	614.00	529.00	509.00	486.00	437.00	371.00	308.00	236.00	244.00	289.00	215.00	183.00	175.00	176.00	310.00	329.00	346.00	339.00	320.00	364.00	378.00	394.00	404.00	456.00	490.00	479.00	454.00	412.00	379.00	379.00	377.00	379.00	400.00	404.00	415.00	423.00	408.00	397.00	403.00	416.00	428.00	438.00	446.00	448.00	454.00	467.00	534.00	539.00	533.00	528.00	541.00	545.00	540.00	512.00	478.00	435.00	426.00	422.00	425.00	413.00	408.00	408.00	409.00	414.00	427.00	430.00	441.00	461.00	513.00	535.00	551.00	566.00	571.00	576.00	582.00	596.00	595.00	556.00	527.00	501.00	483.00	461.00	462.00	459.00	453.00	452.00	459.00	463.00	470.00	476.00	501.00	520.00	539.00	549.00	560.00	608.00	623.00	632.00	647.00	724.00	755.00	790.00	825.00	863.00	937.00	956.00	977.00	985.00	922.00	1004.00	1060.00	1071.00	1076.00	1083.00	1088.00	1073.00	1058.00	1051.00	1041.00	995.00	974.00	964.00	964.00	969.00	979.00	971.00	933.00	922.00	915.00	905.00	892.00	895.00	888.00	881.00	879.00	854.00	847.00	832.00	834.00	853.00	876.00	886.00	901.00
1564.00	1609.00	1371.00	1264.00	1270.00	1389.00	1336.00	1345.00	1342.00	1304.00	1252.00	1140.00	1142.00	1131.00	1116.00	1065.00	1048.00	1043.00	1037.00	1040.00	1023.00	1010.00	1000.00	978.00	982.00	985.00	979.00	966.00	954.00	943.00	924.00	903.00	882.00	855.00	850.00	849.00	841.00	824.00	797.00	793.00	780.00	770.00	763.00	785.00	807.00	832.00	856.00	878.00	899.00	906.00	928.00	945.00	948.00	947.00	949.00	901.00	900.00	878.00	838.00	793.00	676.00	628.00	597.00	566.00	493.00	469.00	436.00	407.00	385.00	327.00	265.00	179.00	137.00	212.00	275.00	368.00	459.00	536.00	639.00	676.00	711.00	736.00	794.00	849.00	909.00	933.00	931.00	864.00	831.00	865.00	910.00	981.00	1027.00	1083.00	1143.00	1204.00	1409.00	1465.00	1500.00	1505.00	1382.00	1299.00	1204.00	1150.00	1107.00	1060.00	953.00	901.00	840.00	785.00	754.00	730.00	709.00	680.00	614.00	577.00	551.00	493.00	430.00	394.00	324.00	256.00	304.00	340.00	261.00	182.00	175.00	269.00	319.00	346.00	349.00	334.00	339.00	354.00	395.00	394.00	409.00	427.00	447.00	432.00	402.00	404.00	409.00	403.00	407.00	433.00	433.00	433.00	450.00	441.00	393.00	398.00	406.00	429.00	480.00	487.00	483.00	485.00	512.00	581.00	582.00	597.00	621.00	664.00	643.00	618.00	584.00	521.00	448.00	432.00	428.00	427.00	427.00	433.00	440.00	448.00	452.00	431.00	436.00	472.00	498.00	567.00	598.00	619.00	634.00	658.00	698.00	681.00	676.00	698.00	655.00	643.00	613.00	577.00	486.00	482.00	487.00	480.00	469.00	446.00	456.00	465.00	479.00	489.00	499.00	511.00	522.00	539.00	569.00	584.00	596.00	616.00	672.00	693.00	717.00	742.00	755.00	780.00	789.00	796.00	806.00	846.00	855.00	866.00	871.00	878.00	885.00	884.00	880.00	875.00	895.00	898.00	885.00	878.00	876.00	892.00	893.00	898.00	888.00	887.00	880.00	868.00	865.00	854.00	841.00	847.00	852.00	854.00	848.00	830.00	823.00	835.00	855.00	910.00	932.00	955.00
1564.00	1609.00	1371.00	1264.00	1270.00	1389.00	1336.00	1345.00	1342.00	1304.00	1252.00	1140.00	1142.00	1131.00	1116.00	1065.00	1048.00	1043.00	1037.00	1040.00	1023.00	1010.00	1000.00	978.00	982.00	985.00	979.00	966.00	954.00	943.00	924.00	903.00	882.00	855.00	850.00	849.00	841.00	824.00	797.00	793.00	780.00	770.00	763.00	785.00	807.00	832.00	856.00	878.00	899.00	906.00	928.00	945.00	948.00	947.00	949.00	901.00	900.00	878.00	838.00	793.00	676.00	628.00	597.00	566.00	493.00	469.00	436.00	407.00	385.00	327.00	265.00	179.00	137.00	212.00	275.00	368.00	459.00	536.00	639.00	676.00	711.00	736.00	794.00	849.00	909.00	933.00	931.00	864.00	831.00	865.00	910.00	981.00	1027.00	1083.00	1143.00	1204.00	1409.00	1465.00	1500.00	1505.00	1382.00	1299.00	1204.00	1150.00	1107.00	1060.00	953.00	901.00	840.00	785.00	754.00	730.00	709.00	680.00	614.00	577.00	551.00	493.00	430.00	394.00	324.00	256.00	304.00	340.00	261.00	182.00	175.00	269.00	319.00	346.00	349.00	334.00	339.00	354.00	395.00	394.00	409.00	427.00	447.00	432.00	402.00	404.00	409.00	403.00	407.00	433.00	433.00	433.00	450.00	441.00	393.00	398.00	406.00	429.00	480.00	487.00	483.00	485.00	512.00	581.00	582.00	597.00	621.00	664.00	643.00	618.00	584.00	521.00	448.00	432.00	428.00	427.00	427.00	433.00	440.00	448.00	452.00	431.00	436.00	472.00	498.00	567.00	598.00	619.00	634.00	658.00	698.00	681.00	676.00	698.00	655.00	643.00	613.00	577.00	486.00	482.00	487.00	480.00	469.00	446.00	456.00	465.00	479.00	489.00	499.00	511.00	522.00	539.00	569.00	584.00	596.00	616.00	672.00	693.00	717.00	742.00	755.00	780.00	789.00	796.00	806.00	846.00	855.00	866.00	871.00	878.00	885.00	884.00	880.00	875.00	895.00	898.00	885.00	878.00	876.00	892.00	893.00	898.00	888.00	887.00	880.00	868.00	865.00	854.00	841.00	847.00	852.00	854.00	848.00	830.00	823.00	835.00	855.00	910.00	932.00	955.00
1664.00	1759.00	1526.00	1392.00	1434.00	1571.00	1588.00	1576.00	1519.00	1418.00	1339.00	1219.00	1405.00	1433.00	1397.00	1209.00	1141.00	1169.00	1231.00	1208.00	1099.00	1130.00	1127.00	1128.00	1174.00	1169.00	1108.00	1054.00	1040.00	1119.00	1080.00	1064.00	1045.00	1045.00	1019.00	995.00	957.00	943.00	954.00	953.00	939.00	926.00	869.00	795.00	764.00	734.00	719.00	711.00	709.00	717.00	744.00	787.00	816.00	837.00	887.00	946.00	933.00	893.00	844.00	792.00	684.00	637.00	600.00	568.00	492.00	464.00	438.00	418.00	395.00	332.00	293.00	224.00	138.00	205.00	265.00	400.00	466.00	538.00	662.00	704.00	738.00	761.00	877.00	948.00	1046.00	1068.00	1036.00	950.00	903.00	869.00	867.00	929.00	964.00	1006.00	1048.00	1090.00	1297.00	1330.00	1345.00	1353.00	1372.00	1400.00	1377.00	1319.00	1313.00	1198.00	1054.00	1003.00	962.00	865.00	822.00	788.00	760.00	737.00	676.00	650.00	640.00	564.00	472.00	440.00	392.00	304.00	341.00	370.00	334.00	259.00	186.00	207.00	285.00	337.00	341.00	364.00	347.00	324.00	335.00	352.00	381.00	393.00	413.00	401.00	397.00	411.00	427.00	450.00	454.00	452.00	451.00	452.00	453.00	403.00	405.00	406.00	402.00	400.00	450.00	475.00	477.00	461.00	475.00	580.00	612.00	617.00	618.00	600.00	564.00	532.00	502.00	473.00	450.00	438.00	434.00	439.00	466.00	528.00	578.00	584.00	594.00	554.00	511.00	479.00	559.00	637.00	652.00	703.00	765.00	756.00	772.00	782.00	790.00	785.00	705.00	667.00	632.00	607.00	532.00	508.00	497.00	485.00	487.00	461.00	436.00	453.00	466.00	489.00	494.00	495.00	476.00	496.00	536.00	551.00	559.00	575.00	649.00	659.00	673.00	684.00	693.00	721.00	735.00	745.00	758.00	778.00	786.00	791.00	796.00	799.00	807.00	806.00	807.00	809.00	837.00	839.00	845.00	848.00	846.00	848.00	843.00	841.00	845.00	844.00	839.00	838.00	836.00	825.00	820.00	818.00	819.00	819.00	820.00	823.00	840.00	862.00	882.00	962.00	993.00	1024.00
1664.00	1759.00	1526.00	1392.00	1434.00	1571.00	1588.00	1576.00	1519.00	1418.00	1339.00	1219.00	1405.00	1433.00	1397.00	1209.00	1141.00	1169.00	1231.00	1208.00	1099.00	1130.00	1127.00	1128.00	1174.00	1169.00	1108.00	1054.00	1040.00	1119.00	1080.00	1064.00	1045.00	1045.00	1019.00	995.00	957.00	943.00	954.00	953.00	939.00	926.00	869.00	795.00	764.00	734.00	719.00	711.00	709.00	717.00	744.00	787.00	816.00	837.00	887.00	946.00	933.00	893.00	844.00	792.00	684.00	637.00	600.00	568.00	492.00	464.00	438.00	418.00	395.00	332.00	293.00	224.00	138.00	205.00	265.00	400.00	466.00	538.00	662.00	704.00	738.00	761.00	877.00	948.00	1046.00	1068.00	1036.00	950.00	903.00	869.00	867.00	929.00	964.00	1006.00	1048.00	1090.00	1297.00	1330.00	1345.00	1353.00	1372.00	1400.00	1377.00	1319.00	1313.00	1198.00	1054.00	1003.00	962.00	865.00	822.00	788.00	760.00	737.00	676.00	650.00	640.00	564.00	472.00	440.00	392.00	304.00	341.00	370.00	334.00	259.00	186.00	207.00	285.00	337.00	341.00	364.00	347.00	324.00	335.00	352.00	381.00	393.00	413.00	401.00	397.00	411.00	427.00	450.00	454.00	452.00	451.00	452.00	453.00	403.00	405.00	406.00	402.00	400.00	450.00	475.00	477.00	461.00	475.00	580.00	612.00	617.00	618.00	600.00	564.00	532.00	502.00	473.00	450.00	438.00	434.00	439.00	466.00	528.00	578.00	584.00	594.00	554.00	511.00	479.00	559.00	637.00	652.00	703.00	765.00	756.00	772.00	782.00	790.00	785.00	705.00	667.00	632.00	607.00	532.00	508.00	497.00	485.00	487.00	461.00	436.00	453.00	466.00	489.00	494.00	495.00	476.00	496.00	536.00	551.00	559.00	575.00	649.00	659.00	673.00	684.00	693.00	721.00	735.00	745.00	758.00	778.00	786.00	791.00	796.00	799.00	807.00	806.00	807.00	809.00	837.00	839.00	845.00	848.00	846.00	848.00	843.00	841.00	845.00	844.00	839.00	838.00	836.00	825.00	820.00	818.00	819.00	819.00	820.00	823.00	840.00	862.00	882.00	962.00	993.00	1024.00
1531.00	1538.00	1557.00	1533.00	1574.00	1617.00	1635.00	1551.00	1498.00	1485.00	1448.00	1365.00	1562.00	1669.00	1595.00	1312.00	1287.00	1388.00	1494.00	1365.00	1181.00	1274.00	1349.00	1415.00	1437.00	1358.00	1209.00	1101.00	1082.00	1214.00	1189.00	1250.00	1327.00	1322.00	1238.00	1141.00	1033.00	1018.00	1171.00	1157.00	1126.00	1091.00	1036.00	975.00	915.00	891.00	888.00	860.00	827.00	791.00	735.00	671.00	655.00	685.00	757.00	835.00	853.00	832.00	799.00	762.00	674.00	638.00	593.00	560.00	491.00	470.00	442.00	417.00	392.00	334.00	289.00	240.00	151.00	259.00	356.00	437.00	480.00	568.00	689.00	728.00	764.00	796.00	916.00	974.00	1086.00	1139.00	1130.00	1005.00	955.00	918.00	883.00	907.00	924.00	943.00	973.00	1012.00	1166.00	1185.00	1209.00	1198.00	1342.00	1405.00	1407.00	1406.00	1410.00	1287.00	1199.00	1119.00	1057.00	1005.00	951.00	902.00	853.00	819.00	741.00	709.00	684.00	615.00	521.00	457.00	387.00	364.00	382.00	387.00	375.00	336.00	258.00	184.00	213.00	287.00	293.00	337.00	373.00	367.00	353.00	347.00	368.00	371.00	367.00	358.00	359.00	401.00	414.00	421.00	438.00	443.00	451.00	452.00	442.00	405.00	423.00	414.00	417.00	422.00	426.00	427.00	430.00	440.00	452.00	469.00	482.00	491.00	503.00	511.00	498.00	487.00	475.00	462.00	451.00	445.00	447.00	462.00	485.00	530.00	613.00	648.00	680.00	649.00	610.00	564.00	528.00	591.00	635.00	664.00	708.00	717.00	741.00	743.00	743.00	733.00	667.00	647.00	619.00	601.00	564.00	554.00	542.00	509.00	476.00	476.00	471.00	424.00	443.00	468.00	468.00	449.00	448.00	491.00	548.00	566.00	577.00	565.00	596.00	599.00	615.00	639.00	661.00	691.00	707.00	719.00	721.00	760.00	766.00	770.00	773.00	775.00	777.00	779.00	783.00	790.00	815.00	817.00	812.00	811.00	810.00	813.00	816.00	822.00	822.00	820.00	818.00	820.00	819.00	813.00	816.00	820.00	828.00	832.00	838.00	846.00	864.00	888.00	925.00	1032.00	1067.00	1108.00
1243.00	1234.00	1268.00	1277.00	1302.00	1329.00	1400.00	1439.00	1478.00	1501.00	1515.00	1430.00	1573.00	1657.00	1645.00	1451.00	1479.00	1596.00	1574.00	1410.00	1298.00	1431.00	1584.00	1696.00	1522.00	1370.00	1208.00	1122.00	1133.00	1256.00	1277.00	1406.00	1541.00	1457.00	1347.00	1222.00	1087.00	1064.00	1303.00	1391.00	1363.00	1315.00	1231.00	1105.00	997.00	1020.00	1096.00	1053.00	1007.00	972.00	936.00	857.00	794.00	713.00	603.00	685.00	716.00	724.00	742.00	716.00	664.00	630.00	588.00	558.00	492.00	474.00	450.00	432.00	406.00	343.00	288.00	230.00	164.00	288.00	365.00	448.00	514.00	606.00	717.00	759.00	804.00	848.00	936.00	1054.00	1140.00	1176.00	1201.00	1060.00	1008.00	973.00	941.00	899.00	913.00	928.00	948.00	970.00	1057.00	1087.00	1112.00	1193.00	1342.00	1393.00	1425.00	1425.00	1427.00	1376.00	1257.00	1199.00	1147.00	1060.00	1029.00	1006.00	962.00	901.00	850.00	767.00	698.00	624.00	544.00	482.00	461.00	460.00	436.00	407.00	396.00	360.00	299.00	189.00	183.00	185.00	187.00	213.00	299.00	322.00	334.00	378.00	385.00	378.00	373.00	370.00	353.00	359.00	408.00	422.00	416.00	417.00	417.00	416.00	407.00	396.00	399.00	402.00	409.00	418.00	432.00	438.00	448.00	457.00	462.00	487.00	489.00	496.00	492.00	491.00	504.00	519.00	526.00	523.00	485.00	450.00	439.00	441.00	448.00	455.00	484.00	522.00	569.00	627.00	601.00	551.00	548.00	519.00	514.00	523.00	543.00	554.00	608.00	638.00	658.00	659.00	604.00	624.00	631.00	606.00	581.00	547.00	514.00	484.00	461.00	443.00	438.00	408.00	423.00	417.00	422.00	442.00	471.00	493.00	531.00	550.00	577.00	595.00	639.00	646.00	633.00	633.00	647.00	657.00	655.00	678.00	717.00	752.00	761.00	762.00	765.00	766.00	756.00	762.00	771.00	775.00	815.00	807.00	794.00	796.00	803.00	806.00	814.00	827.00	825.00	816.00	815.00	812.00	811.00	812.00	819.00	827.00	844.00	851.00	866.00	880.00	903.00	944.00	999.00	1129.00	1181.00	1230.00
1243.00	1234.00	1268.00	1277.00	1302.00	1329.00	1400.00	1439.00	1478.00	1501.00	1515.00	1430.00	1573.00	1657.00	1645.00	1451.00	1479.00	1596.00	1574.00	1410.00	1298.00	1431.00	1584.00	1696.00	1522.00	1370.00	1208.00	1122.00	1133.00	1256.00	1277.00	1406.00	1541.00	1457.00	1347.00	1222.00	1087.00	1064.00	1303.00	1391.00	1363.00	1315.00	1231.00	1105.00	997.00	1020.00	1096.00	1053.00	1007.00	972.00	936.00	857.00	794.00	713.00	603.00	685.00	716.00	724.00	742.00	716.00	664.00	630.00	588.00	558.00	492.00	474.00	450.00	432.00	406.00	343.00	288.00	230.00	164.00	288.00	365.00	448.00	514.00	606.00	717.00	759.00	804.00	848.00	936.00	1054.00	1140.00	1176.00	1201.00	1060.00	1008.00	973.00	941.00	899.00	913.00	928.00	948.00	970.00	1057.00	1087.00	1112.00	1193.00	1342.00	1393.00	1425.00	1425.00	1427.00	1376.00	1257.00	1199.00	1147.00	1060.00	1029.00	1006.00	962.00	901.00	850.00	767.00	698.00	624.00	544.00	482.00	461.00	460.00	436.00	407.00	396.00	360.00	299.00	189.00	183.00	185.00	187.00	213.00	299.00	322.00	334.00	378.00	385.00	378.00	373.00	370.00	353.00	359.00	408.00	422.00	416.00	417.00	417.00	416.00	407.00	396.00	399.00	402.00	409.00	418.00	432.00	438.00	448.00	457.00	462.00	487.00	489.00	496.00	492.00	491.00	504.00	519.00	526.00	523.00	485.00	450.00	439.00	441.00	448.00	455.00	484.00	522.00	569.00	627.00	601.00	551.00	548.00	519.00	514.00	523.00	543.00	554.00	608.00	638.00	658.00	659.00	604.00	624.00	631.00	606.00	581.00	547.00	514.00	484.00	461.00	443.00	438.00	408.00	423.00	417.00	422.00	442.00	471.00	493.00	531.00	550.00	577.00	595.00	639.00	646.00	633.00	633.00	647.00	657.00	655.00	678.00	717.00	752.00	761.00	762.00	765.00	766.00	756.00	762.00	771.00	775.00	815.00	807.00	794.00	796.00	803.00	806.00	814.00	827.00	825.00	816.00	815.00	812.00	811.00	812.00	819.00	827.00	844.00	851.00	866.00	880.00	903.00	944.00	999.00	1129.00	1181.00	1230.00
1005.00	997.00	1017.00	1032.00	1052.00	1065.00	1105.00	1132.00	1163.00	1182.00	1201.00	1238.00	1344.00	1408.00	1481.00	1548.00	1632.00	1712.00	1587.00	1424.00	1465.00	1633.00	1763.00	1704.00	1453.00	1332.00	1252.00	1179.00	1224.00	1337.00	1364.00	1539.00	1719.00	1506.00	1355.00	1199.00	1142.00	1178.00	1296.00	1462.00	1596.00	1617.00	1489.00	1241.00	1090.00	1118.00	1335.00	1301.00	1240.00	1192.00	1125.00	973.00	920.00	874.00	755.00	593.00	553.00	532.00	573.00	625.00	611.00	573.00	543.00	537.00	407.00	434.00	441.00	428.00	413.00	332.00	255.00	157.00	162.00	289.00	344.00	448.00	512.00	578.00	672.00	751.00	806.00	846.00	974.00	1050.00	1091.00	1143.00	1206.00	1130.00	1081.00	1040.00	998.00	929.00	910.00	913.00	925.00	940.00	995.00	1055.00	1103.00	1153.00	1241.00	1309.00	1353.00	1374.00	1373.00	1300.00	1232.00	1179.00	1132.00	1063.00	1017.00	978.00	952.00	901.00	855.00	791.00	717.00	615.00	515.00	491.00	532.00	531.00	518.00	412.00	369.00	359.00	340.00	231.00	201.00	189.00	184.00	184.00	184.00	192.00	205.00	267.00	330.00	374.00	383.00	378.00	362.00	348.00	372.00	391.00	418.00	410.00	407.00	407.00	405.00	396.00	396.00	396.00	397.00	409.00	426.00	438.00	453.00	458.00	465.00	505.00	508.00	525.00	542.00	547.00	555.00	567.00	591.00	614.00	550.00	476.00	445.00	429.00	436.00	438.00	443.00	449.00	460.00	546.00	562.00	529.00	480.00	478.00	472.00	465.00	457.00	448.00	458.00	475.00	485.00	484.00	529.00	543.00	537.00	526.00	487.00	487.00	461.00	442.00	439.00	428.00	423.00	404.00	397.00	410.00	431.00	440.00	453.00	473.00	530.00	557.00	580.00	605.00	659.00	668.00	680.00	684.00	690.00	705.00	697.00	683.00	681.00	710.00	713.00	717.00	723.00	734.00	746.00	760.00	770.00	773.00	779.00	791.00	818.00	819.00	821.00	833.00	834.00	840.00	839.00	832.00	831.00	828.00	828.00	840.00	855.00	873.00	888.00	910.00	913.00	932.00	949.00	986.00	1062.00	1278.00	1360.00	1418.00
834.00	829.00	816.00	819.00	825.00	835.00	877.00	896.00	926.00	948.00	962.00	1024.00	1113.00	1168.00	1207.00	1334.00	1411.00	1494.00	1558.00	1545.00	1700.00	1778.00	1753.00	1522.00	1379.00	1338.00	1292.00	1276.00	1319.00	1457.00	1498.00	1673.00	1840.00	1516.00	1363.00	1249.00	1219.00	1312.00	1585.00	1628.00	1680.00	1659.00	1486.00	1298.00	1208.00	1264.00	1422.00	1423.00	1370.00	1314.00	1244.00	1109.00	1051.00	988.00	871.00	757.00	722.00	684.00	620.00	559.00	534.00	522.00	511.00	484.00	405.00	309.00	375.00	404.00	373.00	249.00	159.00	187.00	291.00	362.00	414.00	509.00	584.00	635.00	736.00	739.00	754.00	807.00	928.00	981.00	1013.00	1072.00	1116.00	1144.00	1121.00	1082.00	1035.00	952.00	926.00	910.00	907.00	912.00	944.00	964.00	981.00	1005.00	1066.00	1104.00	1123.00	1119.00	1112.00	1099.00	1021.00	1001.00	970.00	954.00	946.00	918.00	890.00	847.00	826.00	777.00	716.00	546.00	580.00	576.00	609.00	595.00	537.00	486.00	474.00	443.00	405.00	293.00	298.00	292.00	266.00	241.00	193.00	185.00	184.00	183.00	191.00	219.00	282.00	300.00	328.00	330.00	338.00	361.00	391.00	399.00	396.00	397.00	398.00	397.00	399.00	407.00	420.00	425.00	434.00	453.00	463.00	470.00	477.00	481.00	486.00	499.00	528.00	542.00	559.00	569.00	570.00	569.00	570.00	544.00	477.00	439.00	426.00	427.00	428.00	431.00	435.00	441.00	447.00	454.00	442.00	433.00	429.00	427.00	424.00	426.00	422.00	422.00	416.00	414.00	418.00	420.00	417.00	414.00	410.00	405.00	401.00	406.00	419.00	431.00	429.00	408.00	395.00	411.00	424.00	426.00	430.00	444.00	503.00	548.00	586.00	618.00	712.00	724.00	729.00	731.00	733.00	747.00	753.00	760.00	747.00	770.00	773.00	770.00	770.00	778.00	781.00	779.00	789.00	802.00	831.00	838.00	858.00	862.00	859.00	853.00	858.00	862.00	868.00	863.00	862.00	874.00	893.00	918.00	946.00	971.00	991.00	1006.00	1058.00	1069.00	1068.00	1048.00	1040.00	1175.00	1236.00	1291.00
834.00	829.00	816.00	819.00	825.00	835.00	877.00	896.00	926.00	948.00	962.00	1024.00	1113.00	1168.00	1207.00	1334.00	1411.00	1494.00	1558.00	1545.00	1700.00	1778.00	1753.00	1522.00	1379.00	1338.00	1292.00	1276.00	1319.00	1457.00	1498.00	1673.00	1840.00	1516.00	1363.00	1249.00	1219.00	1312.00	1585.00	1628.00	1680.00	1659.00	1486.00	1298.00	1208.00	1264.00	1422.00	1423.00	1370.00	1314.00	1244.00	1109.00	1051.00	988.00	871.00	757.00	722.00	684.00	620.00	559.00	534.00	522.00	511.00	484.00	405.00	309.00	375.00	404.00	373.00	249.00	159.00	187.00	291.00	362.00	414.00	509.00	584.00	635.00	736.00	739.00	754.00	807.00	928.00	981.00	1013.00	1072.00	1116.00	1144.00	1121.00	1082.00	1035.00	952.00	926.00	910.00	907.00	912.00	944.00	964.00	981.00	1005.00	1066.00	1104.00	1123.00	1119.00	1112.00	1099.00	1021.00	1001.00	970.00	954.00	946.00	918.00	890.00	847.00	826.00	777.00	716.00	546.00	580.00	576.00	609.00	595.00	537.00	486.00	474.00	443.00	405.00	293.00	298.00	292.00	266.00	241.00	193.00	185.00	184.00	183.00	191.00	219.00	282.00	300.00	328.00	330.00	338.00	361.00	391.00	399.00	396.00	397.00	398.00	397.00	399.00	407.00	420.00	425.00	434.00	453.00	463.00	470.00	477.00	481.00	486.00	499.00	528.00	542.00	559.00	569.00	570.00	569.00	570.00	544.00	477.00	439.00	426.00	427.00	428.00	431.00	435.00	441.00	447.00	454.00	442.00	433.00	429.00	427.00	424.00	426.00	422.00	422.00	416.00	414.00	418.00	420.00	417.00	414.00	410.00	405.00	401.00	406.00	419.00	431.00	429.00	408.00	395.00	411.00	424.00	426.00	430.00	444.00	503.00	548.00	586.00	618.00	712.00	724.00	729.00	731.00	733.00	747.00	753.00	760.00	747.00	770.00	773.00	770.00	770.00	778.00	781.00	779.00	789.00	802.00	831.00	838.00	858.00	862.00	859.00	853.00	858.00	862.00	868.00	863.00	862.00	874.00	893.00	918.00	946.00	971.00	991.00	1006.00	1058.00	1069.00	1068.00	1048.00	1040.00	1175.00	1236.00	1291.00
888.00	856.00	793.00	778.00	759.00	747.00	729.00	722.00	729.00	743.00	768.00	855.00	934.00	971.00	1016.00	1135.00	1207.00	1296.00	1403.00	1509.00	1649.00	1591.00	1615.00	1693.00	1626.00	1478.00	1409.00	1421.00	1529.00	1885.00	1900.00	1924.00	1882.00	1474.00	1405.00	1322.00	1307.00	1405.00	1672.00	1662.00	1610.00	1537.00	1433.00	1334.00	1349.00	1372.00	1338.00	1274.00	1252.00	1231.00	1189.00	1092.00	1042.00	995.00	910.00	842.00	812.00	764.00	725.00	706.00	714.00	702.00	685.00	663.00	466.00	362.00	274.00	392.00	358.00	175.00	157.00	287.00	309.00	392.00	455.00	578.00	667.00	724.00	845.00	895.00	925.00	910.00	915.00	908.00	971.00	986.00	1054.00	1098.00	1111.00	1089.00	1058.00	978.00	950.00	930.00	913.00	896.00	896.00	911.00	921.00	934.00	963.00	968.00	965.00	955.00	947.00	928.00	890.00	882.00	880.00	837.00	826.00	789.00	757.00	738.00	687.00	623.00	628.00	654.00	681.00	658.00	688.00	690.00	618.00	622.00	579.00	521.00	473.00	372.00	370.00	361.00	338.00	293.00	277.00	252.00	221.00	197.00	183.00	183.00	185.00	184.00	194.00	233.00	274.00	296.00	296.00	359.00	369.00	376.00	382.00	396.00	401.00	409.00	422.00	428.00	448.00	459.00	476.00	486.00	487.00	484.00	491.00	506.00	525.00	550.00	551.00	568.00	580.00	587.00	564.00	564.00	495.00	443.00	420.00	418.00	416.00	417.00	420.00	424.00	420.00	419.00	418.00	414.00	413.00	412.00	411.00	410.00	406.00	400.00	395.00	397.00	396.00	394.00	391.00	392.00	392.00	392.00	392.00	393.00	397.00	414.00	422.00	422.00	409.00	393.00	415.00	426.00	421.00	424.00	465.00	500.00	534.00	576.00	705.00	754.00	779.00	793.00	803.00	801.00	803.00	809.00	812.00	818.00	816.00	814.00	816.00	821.00	825.00	827.00	834.00	840.00	871.00	885.00	899.00	907.00	893.00	899.00	908.00	912.00	910.00	920.00	933.00	955.00	982.00	1046.00	1113.00	1155.00	1188.00	1221.00	1207.00	1309.00	1295.00	1246.00	1199.00	1154.00	1229.00	1232.00
888.00	856.00	793.00	778.00	759.00	747.00	729.00	722.00	729.00	743.00	768.00	855.00	934.00	971.00	1016.00	1135.00	1207.00	1296.00	1403.00	1509.00	1649.00	1591.00	1615.00	1693.00	1626.00	1478.00	1409.00	1421.00	1529.00	1885.00	1900.00	1924.00	1882.00	1474.00	1405.00	1322.00	1307.00	1405.00	1672.00	1662.00	1610.00	1537.00	1433.00	1334.00	1349.00	1372.00	1338.00	1274.00	1252.00	1231.00	1189.00	1092.00	1042.00	995.00	910.00	842.00	812.00	764.00	725.00	706.00	714.00	702.00	685.00	663.00	466.00	362.00	274.00	392.00	358.00	175.00	157.00	287.00	309.00	392.00	455.00	578.00	667.00	724.00	845.00	895.00	925.00	910.00	915.00	908.00	971.00	986.00	1054.00	1098.00	1111.00	1089.00	1058.00	978.00	950.00	930.00	913.00	896.00	896.00	911.00	921.00	934.00	963.00	968.00	965.00	955.00	947.00	928.00	890.00	882.00	880.00	837.00	826.00	789.00	757.00	738.00	687.00	623.00	628.00	654.00	681.00	658.00	688.00	690.00	618.00	622.00	579.00	521.00	473.00	372.00	370.00	361.00	338.00	293.00	277.00	252.00	221.00	197.00	183.00	183.00	185.00	184.00	194.00	233.00	274.00	296.00	296.00	359.00	369.00	376.00	382.00	396.00	401.00	409.00	422.00	428.00	448.00	459.00	476.00	486.00	487.00	484.00	491.00	506.00	525.00	550.00	551.00	568.00	580.00	587.00	564.00	564.00	495.00	443.00	420.00	418.00	416.00	417.00	420.00	424.00	420.00	419.00	418.00	414.00	413.00	412.00	411.00	410.00	406.00	400.00	395.00	397.00	396.00	394.00	391.00	392.00	392.00	392.00	392.00	393.00	397.00	414.00	422.00	422.00	409.00	393.00	415.00	426.00	421.00	424.00	465.00	500.00	534.00	576.00	705.00	754.00	779.00	793.00	803.00	801.00	803.00	809.00	812.00	818.00	816.00	814.00	816.00	821.00	825.00	827.00	834.00	840.00	871.00	885.00	899.00	907.00	893.00	899.00	908.00	912.00	910.00	920.00	933.00	955.00	982.00	1046.00	1113.00	1155.00	1188.00	1221.00	1207.00	1309.00	1295.00	1246.00	1199.00	1154.00	1229.00	1232.00
971.00	982.00	998.00	969.00	900.00	903.00	862.00	831.00	794.00	747.00	708.00	707.00	773.00	816.00	875.00	973.00	1040.00	1114.00	1213.00	1327.00	1420.00	1341.00	1390.00	1564.00	1737.00	1616.00	1524.00	1576.00	1691.00	1868.00	1915.00	1909.00	1815.00	1590.00	1516.00	1438.00	1394.00	1406.00	1450.00	1357.00	1292.00	1247.00	1181.00	1093.00	1071.00	1084.00	1033.00	1011.00	978.00	949.00	950.00	954.00	960.00	964.00	943.00	896.00	826.00	787.00	763.00	738.00	713.00	690.00	663.00	615.00	393.00	298.00	204.00	217.00	210.00	141.00	207.00	298.00	331.00	441.00	498.00	635.00	713.00	786.00	921.00	976.00	1052.00	1042.00	1086.00	1063.00	1078.00	1096.00	1108.00	1157.00	1142.00	1117.00	1089.00	1019.00	987.00	959.00	937.00	917.00	878.00	881.00	884.00	883.00	888.00	886.00	884.00	876.00	865.00	841.00	787.00	763.00	751.00	710.00	694.00	710.00	703.00	692.00	721.00	744.00	745.00	747.00	776.00	777.00	793.00	808.00	783.00	749.00	706.00	659.00	572.00	429.00	400.00	378.00	351.00	355.00	351.00	347.00	336.00	309.00	224.00	193.00	183.00	184.00	183.00	183.00	185.00	191.00	232.00	327.00	346.00	347.00	355.00	378.00	390.00	395.00	401.00	411.00	448.00	474.00	493.00	504.00	496.00	514.00	526.00	538.00	553.00	585.00	579.00	597.00	612.00	613.00	546.00	506.00	461.00	438.00	421.00	414.00	406.00	403.00	405.00	407.00	404.00	402.00	402.00	401.00	401.00	401.00	401.00	398.00	390.00	385.00	384.00	390.00	396.00	387.00	388.00	393.00	395.00	396.00	395.00	396.00	396.00	396.00	398.00	421.00	414.00	398.00	384.00	407.00	414.00	418.00	444.00	469.00	500.00	528.00	618.00	654.00	706.00	756.00	810.00	864.00	868.00	868.00	863.00	861.00	866.00	875.00	880.00	889.00	894.00	895.00	897.00	898.00	922.00	928.00	958.00	979.00	986.00	1010.00	1005.00	1008.00	1010.00	1011.00	1059.00	1107.00	1147.00	1191.00	1335.00	1389.00	1421.00	1418.00	1366.00	1486.00	1484.00	1426.00	1346.00	1157.00	1283.00	1328.00
1090.00	1087.00	1175.00	1056.00	1029.00	1087.00	1015.00	975.00	930.00	888.00	840.00	707.00	660.00	662.00	681.00	803.00	877.00	948.00	1011.00	1093.00	1208.00	1146.00	1203.00	1415.00	1560.00	1520.00	1492.00	1466.00	1519.00	1561.00	1637.00	1689.00	1636.00	1428.00	1398.00	1343.00	1276.00	1269.00	1174.00	1090.00	1011.00	957.00	858.00	809.00	785.00	775.00	749.00	710.00	699.00	681.00	665.00	704.00	719.00	736.00	754.00	753.00	728.00	707.00	695.00	677.00	622.00	592.00	525.00	456.00	230.00	147.00	134.00	132.00	131.00	175.00	289.00	350.00	404.00	492.00	533.00	742.00	820.00	883.00	1048.00	1123.00	1171.00	1164.00	1282.00	1314.00	1263.00	1201.00	1197.00	1251.00	1233.00	1200.00	1171.00	1091.00	1043.00	995.00	966.00	943.00	888.00	879.00	874.00	862.00	849.00	845.00	840.00	843.00	839.00	813.00	818.00	797.00	782.00	769.00	796.00	799.00	781.00	793.00	806.00	813.00	814.00	815.00	904.00	889.00	873.00	865.00	855.00	835.00	747.00	671.00	590.00	472.00	449.00	433.00	422.00	412.00	371.00	343.00	318.00	296.00	279.00	217.00	183.00	183.00	183.00	183.00	186.00	186.00	186.00	223.00	260.00	277.00	324.00	358.00	369.00	374.00	380.00	389.00	413.00	427.00	448.00	464.00	466.00	511.00	523.00	521.00	515.00	502.00	493.00	476.00	464.00	460.00	452.00	440.00	456.00	474.00	448.00	429.00	420.00	403.00	397.00	395.00	393.00	387.00	383.00	385.00	387.00	387.00	389.00	388.00	379.00	379.00	379.00	380.00	383.00	383.00	391.00	394.00	396.00	397.00	396.00	398.00	397.00	398.00	400.00	414.00	410.00	395.00	380.00	402.00	407.00	418.00	436.00	451.00	477.00	513.00	595.00	619.00	642.00	674.00	707.00	806.00	860.00	910.00	937.00	945.00	941.00	940.00	949.00	955.00	963.00	970.00	966.00	968.00	1012.00	1024.00	1005.00	1065.00	1113.00	1160.00	1148.00	1115.00	1168.00	1090.00	1077.00	1161.00	1264.00	1398.00	1538.00	1642.00	1640.00	1555.00	1553.00	1477.00	1369.00	1331.00	1300.00	1202.00	1267.00	1360.00
1090.00	1087.00	1175.00	1056.00	1029.00	1087.00	1015.00	975.00	930.00	888.00	840.00	707.00	660.00	662.00	681.00	803.00	877.00	948.00	1011.00	1093.00	1208.00	1146.00	1203.00	1415.00	1560.00	1520.00	1492.00	1466.00	1519.00	1561.00	1637.00	1689.00	1636.00	1428.00	1398.00	1343.00	1276.00	1269.00	1174.00	1090.00	1011.00	957.00	858.00	809.00	785.00	775.00	749.00	710.00	699.00	681.00	665.00	704.00	719.00	736.00	754.00	753.00	728.00	707.00	695.00	677.00	622.00	592.00	525.00	456.00	230.00	147.00	134.00	132.00	131.00	175.00	289.00	350.00	404.00	492.00	533.00	742.00	820.00	883.00	1048.00	1123.00	1171.00	1164.00	1282.00	1314.00	1263.00	1201.00	1197.00	1251.00	1233.00	1200.00	1171.00	1091.00	1043.00	995.00	966.00	943.00	888.00	879.00	874.00	862.00	849.00	845.00	840.00	843.00	839.00	813.00	818.00	797.00	782.00	769.00	796.00	799.00	781.00	793.00	806.00	813.00	814.00	815.00	904.00	889.00	873.00	865.00	855.00	835.00	747.00	671.00	590.00	472.00	449.00	433.00	422.00	412.00	371.00	343.00	318.00	296.00	279.00	217.00	183.00	183.00	183.00	183.00	186.00	186.00	186.00	223.00	260.00	277.00	324.00	358.00	369.00	374.00	380.00	389.00	413.00	427.00	448.00	464.00	466.00	511.00	523.00	521.00	515.00	502.00	493.00	476.00	464.00	460.00	452.00	440.00	456.00	474.00	448.00	429.00	420.00	403.00	397.00	395.00	393.00	387.00	383.00	385.00	387.00	387.00	389.00	388.00	379.00	379.00	379.00	380.00	383.00	383.00	391.00	394.00	396.00	397.00	396.00	398.00	397.00	398.00	400.00	414.00	410.00	395.00	380.00	402.00	407.00	418.00	436.00	451.00	477.00	513.00	595.00	619.00	642.00	674.00	707.00	806.00	860.00	910.00	937.00	945.00	941.00	940.00	949.00	955.00	963.00	970.00	966.00	968.00	1012.00	1024.00	1005.00	1065.00	1113.00	1160.00	1148.00	1115.00	1168.00	1090.00	1077.00	1161.00	1264.00	1398.00	1538.00	1642.00	1640.00	1555.00	1553.00	1477.00	1369.00	1331.00	1300.00	1202.00	1267.00	1360.00
1183.00	1196.00	1202.00	1160.00	1263.00	1294.00	1257.00	1160.00	1089.00	1034.00	965.00	851.00	753.00	719.00	673.00	631.00	705.00	776.00	839.00	892.00	982.00	982.00	1068.00	1197.00	1279.00	1263.00	1251.00	1240.00	1267.00	1310.00	1360.00	1374.00	1335.00	1172.00	1116.00	1090.00	1034.00	975.00	899.00	854.00	778.00	738.00	644.00	562.00	543.00	530.00	512.00	506.00	496.00	498.00	501.00	515.00	533.00	552.00	567.00	571.00	580.00	581.00	576.00	565.00	513.00	448.00	366.00	287.00	158.00	145.00	133.00	131.00	139.00	272.00	367.00	430.00	462.00	527.00	578.00	779.00	852.00	936.00	1157.00	1268.00	1343.00	1385.00	1460.00	1480.00	1383.00	1255.00	1338.00	1421.00	1397.00	1349.00	1298.00	1190.00	1137.00	1081.00	1023.00	976.00	909.00	896.00	888.00	875.00	866.00	870.00	874.00	877.00	876.00	857.00	824.00	822.00	841.00	855.00	858.00	860.00	858.00	864.00	876.00	885.00	893.00	943.00	947.00	963.00	966.00	943.00	926.00	907.00	837.00	758.00	678.00	566.00	529.00	493.00	460.00	441.00	381.00	367.00	359.00	355.00	333.00	296.00	200.00	185.00	183.00	183.00	183.00	185.00	188.00	188.00	191.00	203.00	276.00	340.00	356.00	360.00	362.00	364.00	381.00	391.00	398.00	408.00	416.00	420.00	413.00	411.00	415.00	407.00	400.00	394.00	395.00	397.00	398.00	424.00	444.00	467.00	461.00	450.00	437.00	420.00	400.00	391.00	388.00	384.00	381.00	379.00	378.00	379.00	379.00	379.00	381.00	378.00	378.00	379.00	386.00	390.00	393.00	396.00	398.00	398.00	396.00	397.00	398.00	400.00	400.00	402.00	406.00	400.00	384.00	375.00	395.00	407.00	424.00	433.00	450.00	471.00	588.00	619.00	641.00	652.00	661.00	706.00	751.00	817.00	903.00	1041.00	1052.00	1054.00	1050.00	1056.00	1085.00	1094.00	1090.00	1068.00	1159.00	1164.00	1067.00	1068.00	1118.00	1253.00	1316.00	1296.00	1298.00	1277.00	1184.00	1147.00	1211.00	1368.00	1573.00	1653.00	1647.00	1592.00	1463.00	1432.00	1459.00	1495.00	1440.00	1326.00	1373.00	1415.00
1304.00	1320.00	1272.00	1284.00	1412.00	1491.00	1462.00	1405.00	1368.00	1271.00	1175.00	959.00	837.00	804.00	767.00	643.00	571.00	601.00	676.00	726.00	778.00	804.00	862.00	918.00	994.00	1019.00	1048.00	1061.00	1040.00	1084.00	1106.00	1083.00	1056.00	909.00	846.00	825.00	809.00	774.00	697.00	659.00	615.00	590.00	509.00	434.00	421.00	410.00	387.00	390.00	398.00	403.00	408.00	426.00	424.00	422.00	407.00	387.00	387.00	376.00	352.00	310.00	217.00	174.00	156.00	141.00	134.00	150.00	176.00	202.00	214.00	293.00	398.00	468.00	493.00	557.00	609.00	755.00	811.00	891.00	1142.00	1242.00	1309.00	1385.00	1471.00	1502.00	1488.00	1387.00	1435.00	1658.00	1636.00	1563.00	1493.00	1368.00	1282.00	1186.00	1090.00	1027.00	931.00	920.00	910.00	898.00	908.00	915.00	917.00	916.00	914.00	900.00	892.00	881.00	903.00	915.00	922.00	927.00	929.00	936.00	961.00	979.00	995.00	1073.00	1007.00	1056.00	1077.00	1080.00	1020.00	934.00	886.00	840.00	778.00	663.00	610.00	538.00	480.00	464.00	430.00	414.00	400.00	386.00	360.00	337.00	324.00	281.00	244.00	188.00	183.00	183.00	188.00	189.00	187.00	185.00	197.00	309.00	343.00	345.00	343.00	335.00	356.00	364.00	364.00	365.00	374.00	393.00	390.00	386.00	389.00	392.00	388.00	386.00	393.00	400.00	415.00	440.00	445.00	444.00	436.00	424.00	413.00	398.00	402.00	393.00	385.00	384.00	385.00	381.00	380.00	383.00	389.00	392.00	394.00	393.00	394.00	391.00	390.00	396.00	397.00	397.00	396.00	396.00	396.00	395.00	395.00	398.00	399.00	402.00	403.00	391.00	353.00	334.00	375.00	402.00	407.00	411.00	424.00	431.00	491.00	549.00	596.00	635.00	659.00	668.00	675.00	711.00	768.00	957.00	1007.00	1097.00	1187.00	1237.00	1308.00	1322.00	1217.00	1195.00	1369.00	1333.00	1148.00	1174.00	1145.00	1253.00	1360.00	1482.00	1496.00	1438.00	1324.00	1224.00	1280.00	1401.00	1550.00	1652.00	1723.00	1685.00	1598.00	1598.00	1688.00	1705.00	1628.00	1372.00	1498.00	1623.00
1428.00	1440.00	1476.00	1467.00	1547.00	1580.00	1466.00	1395.00	1320.00	1248.00	1163.00	985.00	839.00	778.00	727.00	655.00	621.00	556.00	530.00	557.00	633.00	675.00	695.00	735.00	796.00	828.00	853.00	874.00	878.00	869.00	848.00	837.00	818.00	748.00	702.00	620.00	584.00	571.00	528.00	512.00	489.00	470.00	426.00	369.00	352.00	351.00	353.00	350.00	346.00	353.00	344.00	323.00	319.00	308.00	290.00	277.00	252.00	210.00	164.00	133.00	123.00	134.00	136.00	144.00	202.00	247.00	329.00	382.00	410.00	254.00	418.00	493.00	515.00	579.00	638.00	764.00	822.00	878.00	968.00	1030.00	1116.00	1217.00	1415.00	1506.00	1599.00	1613.00	1609.00	1603.00	1530.00	1486.00	1428.00	1258.00	1193.00	1116.00	1058.00	1016.00	938.00	925.00	920.00	928.00	943.00	948.00	953.00	952.00	948.00	957.00	963.00	952.00	966.00	997.00	1012.00	1031.00	1041.00	1058.00	1109.00	1124.00	1153.00	1137.00	1082.00	1181.00	1205.00	1174.00	1155.00	1061.00	1013.00	960.00	870.00	695.00	657.00	616.00	604.00	550.00	482.00	455.00	437.00	419.00	391.00	376.00	353.00	333.00	301.00	257.00	210.00	186.00	183.00	184.00	186.00	188.00	186.00	189.00	252.00	273.00	250.00	289.00	325.00	322.00	347.00	359.00	361.00	372.00	368.00	373.00	378.00	392.00	387.00	381.00	385.00	390.00	405.00	404.00	408.00	411.00	409.00	401.00	397.00	403.00	418.00	406.00	398.00	389.00	383.00	381.00	381.00	381.00	381.00	380.00	382.00	386.00	393.00	402.00	399.00	393.00	386.00	394.00	394.00	395.00	395.00	394.00	395.00	396.00	396.00	398.00	397.00	398.00	362.00	325.00	358.00	385.00	396.00	401.00	407.00	412.00	429.00	438.00	457.00	489.00	532.00	569.00	577.00	600.00	634.00	814.00	889.00	996.00	1147.00	1317.00	1469.00	1437.00	1378.00	1372.00	1494.00	1361.00	1297.00	1375.00	1346.00	1233.00	1291.00	1394.00	1511.00	1579.00	1443.00	1345.00	1331.00	1458.00	1686.00	1722.00	1615.00	1584.00	1583.00	1611.00	1598.00	1541.00	1523.00	1526.00	1596.00	1597.00
1428.00	1440.00	1476.00	1467.00	1547.00	1580.00	1466.00	1395.00	1320.00	1248.00	1163.00	985.00	839.00	778.00	727.00	655.00	621.00	556.00	530.00	557.00	633.00	675.00	695.00	735.00	796.00	828.00	853.00	874.00	878.00	869.00	848.00	837.00	818.00	748.00	702.00	620.00	584.00	571.00	528.00	512.00	489.00	470.00	426.00	369.00	352.00	351.00	353.00	350.00	346.00	353.00	344.00	323.00	319.00	308.00	290.00	277.00	252.00	210.00	164.00	133.00	123.00	134.00	136.00	144.00	202.00	247.00	329.00	382.00	410.00	254.00	418.00	493.00	515.00	579.00	638.00	764.00	822.00	878.00	968.00	1030.00	1116.00	1217.00	1415.00	1506.00	1599.00	1613.00	1609.00	1603.00	1530.00	1486.00	1428.00	1258.00	1193.00	1116.00	1058.00	1016.00	938.00	925.00	920.00	928.00	943.00	948.00	953.00	952.00	948.00	957.00	963.00	952.00	966.00	997.00	1012.00	1031.00	1041.00	1058.00	1109.00	1124.00	1153.00	1137.00	1082.00	1181.00	1205.00	1174.00	1155.00	1061.00	1013.00	960.00	870.00	695.00	657.00	616.00	604.00	550.00	482.00	455.00	437.00	419.00	391.00	376.00	353.00	333.00	301.00	257.00	210.00	186.00	183.00	184.00	186.00	188.00	186.00	189.00	252.00	273.00	250.00	289.00	325.00	322.00	347.00	359.00	361.00	372.00	368.00	373.00	378.00	392.00	387.00	381.00	385.00	390.00	405.00	404.00	408.00	411.00	409.00	401.00	397.00	403.00	418.00	406.00	398.00	389.00	383.00	381.00	381.00	381.00	381.00	380.00	382.00	386.00	393.00	402.00	399.00	393.00	386.00	394.00	394.00	395.00	395.00	394.00	395.00	396.00	396.00	398.00	397.00	398.00	362.00	325.00	358.00	385.00	396.00	401.00	407.00	412.00	429.00	438.00	457.00	489.00	532.00	569.00	577.00	600.00	634.00	814.00	889.00	996.00	1147.00	1317.00	1469.00	1437.00	1378.00	1372.00	1494.00	1361.00	1297.00	1375.00	1346.00	1233.00	1291.00	1394.00	1511.00	1579.00	1443.00	1345.00	1331.00	1458.00	1686.00	1722.00	1615.00	1584.00	1583.00	1611.00	1598.00	1541.00	1523.00	1526.00	1596.00	1597.00
1683.00	1657.00	1568.00	1498.00	1433.00	1360.00	1221.00	1154.00	1089.00	1020.00	945.00	775.00	615.00	565.00	547.00	541.00	533.00	534.00	517.00	496.00	480.00	502.00	575.00	615.00	656.00	674.00	702.00	738.00	755.00	728.00	708.00	689.00	679.00	612.00	540.00	459.00	434.00	417.00	385.00	363.00	349.00	340.00	333.00	337.00	337.00	326.00	299.00	291.00	282.00	277.00	277.00	274.00	270.00	264.00	230.00	150.00	126.00	122.00	125.00	139.00	149.00	170.00	208.00	247.00	341.00	382.00	429.00	455.00	484.00	363.00	325.00	440.00	500.00	591.00	618.00	710.00	738.00	761.00	925.00	1025.00	1110.00	1176.00	1350.00	1437.00	1475.00	1433.00	1532.00	1514.00	1403.00	1289.00	1204.00	1094.00	1062.00	1031.00	1007.00	982.00	941.00	941.00	950.00	963.00	985.00	994.00	1000.00	1004.00	1006.00	1026.00	1044.00	1039.00	1020.00	1097.00	1116.00	1156.00	1143.00	1180.00	1238.00	1228.00	1371.00	1231.00	1083.00	1224.00	1361.00	1341.00	1287.00	1115.00	1092.00	1035.00	968.00	715.00	753.00	751.00	740.00	702.00	558.00	518.00	493.00	473.00	437.00	417.00	369.00	343.00	348.00	330.00	301.00	270.00	239.00	184.00	183.00	183.00	183.00	183.00	183.00	183.00	184.00	189.00	193.00	194.00	205.00	217.00	245.00	326.00	326.00	361.00	375.00	373.00	371.00	371.00	372.00	374.00	390.00	390.00	391.00	394.00	386.00	394.00	397.00	397.00	398.00	404.00	398.00	393.00	390.00	381.00	379.00	377.00	378.00	379.00	380.00	380.00	380.00	379.00	382.00	385.00	382.00	387.00	396.00	396.00	396.00	395.00	393.00	394.00	393.00	394.00	394.00	397.00	383.00	323.00	334.00	395.00	395.00	395.00	396.00	399.00	413.00	418.00	425.00	435.00	451.00	483.00	502.00	530.00	554.00	814.00	897.00	946.00	982.00	1030.00	1174.00	1213.00	1281.00	1367.00	1401.00	1431.00	1517.00	1564.00	1479.00	1434.00	1461.00	1449.00	1478.00	1615.00	1625.00	1581.00	1571.00	1658.00	1673.00	1611.00	1480.00	1362.00	1310.00	1381.00	1323.00	1298.00	1259.00	1472.00	1452.00	1487.00
1599.00	1579.00	1341.00	1276.00	1212.00	1153.00	1034.00	957.00	882.00	806.00	729.00	593.00	606.00	657.00	693.00	733.00	721.00	714.00	696.00	662.00	562.00	499.00	457.00	463.00	529.00	570.00	634.00	667.00	669.00	624.00	615.00	608.00	598.00	482.00	421.00	375.00	364.00	358.00	342.00	337.00	326.00	328.00	335.00	335.00	330.00	325.00	275.00	268.00	261.00	257.00	253.00	241.00	224.00	199.00	126.00	122.00	131.00	148.00	170.00	169.00	190.00	248.00	305.00	357.00	476.00	484.00	491.00	509.00	542.00	563.00	525.00	457.00	396.00	440.00	530.00	601.00	639.00	708.00	843.00	922.00	988.00	1046.00	1213.00	1273.00	1252.00	1256.00	1359.00	1296.00	1226.00	1152.00	1080.00	1010.00	994.00	981.00	970.00	964.00	969.00	982.00	1000.00	1017.00	1046.00	1057.00	1064.00	1076.00	1083.00	1119.00	1141.00	1136.00	1132.00	1103.00	1216.00	1331.00	1291.00	1260.00	1390.00	1380.00	1494.00	1364.00	1138.00	1199.00	1367.00	1501.00	1459.00	1283.00	1282.00	1155.00	1029.00	757.00	833.00	886.00	890.00	848.00	689.00	613.00	565.00	541.00	498.00	483.00	423.00	392.00	382.00	359.00	337.00	308.00	276.00	263.00	207.00	187.00	183.00	183.00	186.00	188.00	187.00	190.00	191.00	191.00	191.00	191.00	193.00	202.00	258.00	360.00	390.00	386.00	384.00	376.00	362.00	362.00	372.00	382.00	382.00	382.00	383.00	385.00	390.00	389.00	386.00	377.00	359.00	348.00	365.00	374.00	373.00	371.00	371.00	371.00	373.00	375.00	377.00	379.00	380.00	381.00	382.00	383.00	392.00	394.00	393.00	393.00	392.00	395.00	395.00	390.00	390.00	391.00	388.00	353.00	305.00	375.00	393.00	395.00	394.00	392.00	402.00	409.00	421.00	431.00	440.00	456.00	466.00	479.00	492.00	606.00	661.00	711.00	761.00	798.00	877.00	932.00	1001.00	1077.00	1360.00	1461.00	1359.00	1345.00	1350.00	1626.00	1696.00	1692.00	1645.00	1584.00	1580.00	1545.00	1521.00	1617.00	1419.00	1430.00	1442.00	1372.00	1121.00	1143.00	1159.00	1066.00	1112.00	1286.00	1164.00	1164.00
1599.00	1579.00	1341.00	1276.00	1212.00	1153.00	1034.00	957.00	882.00	806.00	729.00	593.00	606.00	657.00	693.00	733.00	721.00	714.00	696.00	662.00	562.00	499.00	457.00	463.00	529.00	570.00	634.00	667.00	669.00	624.00	615.00	608.00	598.00	482.00	421.00	375.00	364.00	358.00	342.00	337.00	326.00	328.00	335.00	335.00	330.00	325.00	275.00	268.00	261.00	257.00	253.00	241.00	224.00	199.00	126.00	122.00	131.00	148.00	170.00	169.00	190.00	248.00	305.00	357.00	476.00	484.00	491.00	509.00	542.00	563.00	525.00	457.00	396.00	440.00	530.00	601.00	639.00	708.00	843.00	922.00	988.00	1046.00	1213.00	1273.00	1252.00	1256.00	1359.00	1296.00	1226.00	1152.00	1080.00	1010.00	994.00	981.00	970.00	964.00	969.00	982.00	1000.00	1017.00	1046.00	1057.00	1064.00	1076.00	1083.00	1119.00	1141.00	1136.00	1132.00	1103.00	1216.00	1331.00	1291.00	1260.00	1390.00	1380.00	1494.00	1364.00	1138.00	1199.00	1367.00	1501.00	1459.00	1283.00	1282.00	1155.00	1029.00	757.00	833.00	886.00	890.00	848.00	689.00	613.00	565.00	541.00	498.00	483.00	423.00	392.00	382.00	359.00	337.00	308.00	276.00	263.00	207.00	187.00	183.00	183.00	186.00	188.00	187.00	190.00	191.00	191.00	191.00	191.00	193.00	202.00	258.00	360.00	390.00	386.00	384.00	376.00	362.00	362.00	372.00	382.00	382.00	382.00	383.00	385.00	390.00	389.00	386.00	377.00	359.00	348.00	365.00	374.00	373.00	371.00	371.00	371.00	373.00	375.00	377.00	379.00	380.00	381.00	382.00	383.00	392.00	394.00	393.00	393.00	392.00	395.00	395.00	390.00	390.00	391.00	388.00	353.00	305.00	375.00	393.00	395.00	394.00	392.00	402.00	409.00	421.00	431.00	440.00	456.00	466.00	479.00	492.00	606.00	661.00	711.00	761.00	798.00	877.00	932.00	1001.00	1077.00	1360.00	1461.00	1359.00	1345.00	1350.00	1626.00	1696.00	1692.00	1645.00	1584.00	1580.00	1545.00	1521.00	1617.00	1419.00	1430.00	1442.00	1372.00	1121.00	1143.00	1159.00	1066.00	1112.00	1286.00	1164.00	1164.00
1599.00	1579.00	1341.00	1276.00	1212.00	1153.00	1034.00	957.00	882.00	806.00	729.00	593.00	606.00	657.00	693.00	733.00	721.00	714.00	696.00	662.00	562.00	499.00	457.00	463.00	529.00	570.00	634.00	667.00	669.00	624.00	615.00	608.00	598.00	482.00	421.00	375.00	364.00	358.00	342.00	337.00	326.00	328.00	335.00	335.00	330.00	325.00	275.00	268.00	261.00	257.00	253.00	241.00	224.00	199.00	126.00	122.00	131.00	148.00	170.00	169.00	190.00	248.00	305.00	357.00	476.00	484.00	491.00	509.00	542.00	563.00	525.00	457.00	396.00	440.00	530.00	601.00	639.00	708.00	843.00	922.00	988.00	1046.00	1213.00	1273.00	1252.00	1256.00	1359.00	1296.00	1226.00	1152.00	1080.00	1010.00	994.00	981.00	970.00	964.00	969.00	982.00	1000.00	1017.00	1046.00	1057.00	1064.00	1076.00	1083.00	1119.00	1141.00	1136.00	1132.00	1103.00	1216.00	1331.00	1291.00	1260.00	1390.00	1380.00	1494.00	1364.00	1138.00	1199.00	1367.00	1501.00	1459.00	1283.00	1282.00	1155.00	1029.00	757.00	833.00	886.00	890.00	848.00	689.00	613.00	565.00	541.00	498.00	483.00	423.00	392.00	382.00	359.00	337.00	308.00	276.00	263.00	207.00	187.00	183.00	183.00	186.00	188.00	187.00	190.00	191.00	191.00	191.00	191.00	193.00	202.00	258.00	360.00	390.00	386.00	384.00	376.00	362.00	362.00	372.00	382.00	382.00	382.00	383.00	385.00	390.00	389.00	386.00	377.00	359.00	348.00	365.00	374.00	373.00	371.00	371.00	371.00	373.00	375.00	377.00	379.00	380.00	381.00	382.00	383.00	392.00	394.00	393.00	393.00	392.00	395.00	395.00	390.00	390.00	391.00	388.00	353.00	305.00	375.00	393.00	395.00	394.00	392.00	402.00	409.00	421.00	431.00	440.00	456.00	466.00	479.00	492.00	606.00	661.00	711.00	761.00	798.00	877.00	932.00	1001.00	1077.00	1360.00	1461.00	1359.00	1345.00	1350.00	1626.00	1696.00	1692.00	1645.00	1584.00	1580.00	1545.00	1521.00	1617.00	1419.00	1430.00	1442.00	1372.00	1121.00	1143.00	1159.00	1066.00	1112.00	1286.00	1164.00	1164.00
1345.00	1319.00	1155.00	1097.00	1039.00	968.00	823.00	751.00	692.00	648.00	623.00	697.00	798.00	828.00	856.00	863.00	852.00	841.00	820.00	789.00	724.00	684.00	631.00	557.00	437.00	387.00	472.00	574.00	593.00	515.00	495.00	482.00	459.00	361.00	344.00	346.00	364.00	374.00	325.00	310.00	311.00	332.00	348.00	331.00	295.00	286.00	273.00	267.00	254.00	248.00	235.00	174.00	147.00	125.00	122.00	146.00	176.00	200.00	242.00	273.00	316.00	324.00	323.00	332.00	421.00	464.00	515.00	551.00	583.00	632.00	664.00	677.00	657.00	493.00	397.00	424.00	471.00	547.00	713.00	758.00	785.00	844.00	1016.00	1041.00	996.00	1092.00	1200.00	1119.00	1065.00	1024.00	997.00	967.00	964.00	968.00	976.00	986.00	1044.00	1064.00	1067.00	1078.00	1134.00	1145.00	1168.00	1189.00	1216.00	1341.00	1191.00	1228.00	1282.00	1139.00	1205.00	1365.00	1502.00	1516.00	1715.00	1766.00	1715.00	1448.00	1202.00	1250.00	1408.00	1593.00	1647.00	1461.00	1369.00	1262.00	1137.00	784.00	846.00	916.00	982.00	988.00	830.00	749.00	675.00	622.00	605.00	583.00	490.00	451.00	428.00	388.00	361.00	331.00	324.00	344.00	329.00	294.00	236.00	200.00	202.00	201.00	197.00	194.00	191.00	191.00	191.00	191.00	191.00	192.00	192.00	212.00	240.00	320.00	335.00	363.00	381.00	393.00	390.00	391.00	393.00	393.00	390.00	389.00	390.00	387.00	384.00	371.00	327.00	332.00	349.00	365.00	372.00	371.00	368.00	366.00	368.00	374.00	374.00	374.00	376.00	376.00	377.00	377.00	382.00	385.00	386.00	387.00	387.00	390.00	391.00	387.00	384.00	358.00	330.00	308.00	300.00	345.00	386.00	389.00	391.00	390.00	395.00	398.00	408.00	422.00	430.00	440.00	448.00	456.00	469.00	551.00	588.00	618.00	655.00	698.00	763.00	797.00	853.00	962.00	1221.00	1234.00	1047.00	1068.00	1224.00	1522.00	1570.00	1535.00	1558.00	1483.00	1346.00	1243.00	1265.00	1457.00	1366.00	1220.00	1164.00	1187.00	1122.00	1018.00	931.00	930.00	1034.00	1249.00	1132.00	1002.00
1130.00	1105.00	978.00	898.00	831.00	771.00	674.00	654.00	685.00	749.00	812.00	918.00	943.00	967.00	997.00	1008.00	1002.00	986.00	972.00	934.00	828.00	784.00	743.00	655.00	591.00	512.00	401.00	388.00	436.00	441.00	423.00	402.00	381.00	336.00	363.00	402.00	425.00	385.00	296.00	301.00	302.00	301.00	292.00	272.00	269.00	271.00	258.00	251.00	238.00	212.00	167.00	116.00	116.00	115.00	146.00	206.00	246.00	342.00	368.00	379.00	398.00	420.00	451.00	506.00	558.00	584.00	617.00	637.00	665.00	729.00	750.00	766.00	775.00	716.00	654.00	616.00	546.00	500.00	471.00	559.00	642.00	669.00	760.00	797.00	846.00	944.00	1009.00	988.00	964.00	959.00	948.00	953.00	980.00	1007.00	1032.00	1060.00	1141.00	1164.00	1172.00	1154.00	1177.00	1233.00	1320.00	1400.00	1417.00	1539.00	1327.00	1330.00	1383.00	1222.00	1226.00	1296.00	1396.00	1479.00	1756.00	1794.00	1671.00	1426.00	1288.00	1371.00	1568.00	1631.00	1523.00	1309.00	1214.00	1108.00	1020.00	817.00	855.00	939.00	1005.00	1041.00	942.00	867.00	793.00	763.00	730.00	674.00	559.00	526.00	500.00	443.00	422.00	398.00	376.00	359.00	353.00	340.00	283.00	281.00	268.00	272.00	269.00	221.00	193.00	200.00	205.00	202.00	197.00	192.00	196.00	204.00	209.00	330.00	378.00	396.00	405.00	413.00	415.00	414.00	411.00	407.00	401.00	399.00	398.00	394.00	376.00	351.00	343.00	329.00	288.00	273.00	305.00	368.00	383.00	380.00	377.00	378.00	372.00	370.00	372.00	372.00	372.00	372.00	375.00	376.00	373.00	368.00	372.00	376.00	380.00	378.00	359.00	282.00	304.00	348.00	363.00	361.00	381.00	384.00	386.00	387.00	390.00	391.00	393.00	397.00	410.00	428.00	433.00	438.00	446.00	502.00	522.00	533.00	546.00	575.00	640.00	690.00	757.00	781.00	952.00	1026.00	881.00	951.00	1038.00	1335.00	1305.00	1207.00	1256.00	1378.00	1247.00	1106.00	1083.00	1200.00	1349.00	1297.00	1191.00	1047.00	931.00	964.00	874.00	807.00	928.00	1043.00	992.00	905.00
1130.00	1105.00	978.00	898.00	831.00	771.00	674.00	654.00	685.00	749.00	812.00	918.00	943.00	967.00	997.00	1008.00	1002.00	986.00	972.00	934.00	828.00	784.00	743.00	655.00	591.00	512.00	401.00	388.00	436.00	441.00	423.00	402.00	381.00	336.00	363.00	402.00	425.00	385.00	296.00	301.00	302.00	301.00	292.00	272.00	269.00	271.00	258.00	251.00	238.00	212.00	167.00	116.00	116.00	115.00	146.00	206.00	246.00	342.00	368.00	379.00	398.00	420.00	451.00	506.00	558.00	584.00	617.00	637.00	665.00	729.00	750.00	766.00	775.00	716.00	654.00	616.00	546.00	500.00	471.00	559.00	642.00	669.00	760.00	797.00	846.00	944.00	1009.00	988.00	964.00	959.00	948.00	953.00	980.00	1007.00	1032.00	1060.00	1141.00	1164.00	1172.00	1154.00	1177.00	1233.00	1320.00	1400.00	1417.00	1539.00	1327.00	1330.00	1383.00	1222.00	1226.00	1296.00	1396.00	1479.00	1756.00	1794.00	1671.00	1426.00	1288.00	1371.00	1568.00	1631.00	1523.00	1309.00	1214.00	1108.00	1020.00	817.00	855.00	939.00	1005.00	1041.00	942.00	867.00	793.00	763.00	730.00	674.00	559.00	526.00	500.00	443.00	422.00	398.00	376.00	359.00	353.00	340.00	283.00	281.00	268.00	272.00	269.00	221.00	193.00	200.00	205.00	202.00	197.00	192.00	196.00	204.00	209.00	330.00	378.00	396.00	405.00	413.00	415.00	414.00	411.00	407.00	401.00	399.00	398.00	394.00	376.00	351.00	343.00	329.00	288.00	273.00	305.00	368.00	383.00	380.00	377.00	378.00	372.00	370.00	372.00	372.00	372.00	372.00	375.00	376.00	373.00	368.00	372.00	376.00	380.00	378.00	359.00	282.00	304.00	348.00	363.00	361.00	381.00	384.00	386.00	387.00	390.00	391.00	393.00	397.00	410.00	428.00	433.00	438.00	446.00	502.00	522.00	533.00	546.00	575.00	640.00	690.00	757.00	781.00	952.00	1026.00	881.00	951.00	1038.00	1335.00	1305.00	1207.00	1256.00	1378.00	1247.00	1106.00	1083.00	1200.00	1349.00	1297.00	1191.00	1047.00	931.00	964.00	874.00	807.00	928.00	1043.00	992.00	905.00
981.00	906.00	778.00	728.00	696.00	689.00	772.00	845.00	914.00	941.00	957.00	1050.00	1138.00	1189.00	1236.00	1180.00	1077.00	977.00	909.00	836.00	734.00	708.00	684.00	631.00	593.00	566.00	532.00	474.00	379.00	354.00	372.00	355.00	339.00	368.00	380.00	384.00	373.00	349.00	278.00	288.00	293.00	294.00	286.00	287.00	286.00	260.00	222.00	219.00	194.00	138.00	115.00	115.00	128.00	162.00	258.00	293.00	244.00	337.00	383.00	409.00	457.00	487.00	519.00	548.00	647.00	674.00	689.00	701.00	720.00	777.00	819.00	867.00	897.00	861.00	827.00	752.00	710.00	657.00	576.00	530.00	504.00	512.00	527.00	600.00	663.00	728.00	823.00	835.00	864.00	891.00	889.00	936.00	970.00	1001.00	1056.00	1110.00	1219.00	1277.00	1344.00	1383.00	1338.00	1249.00	1256.00	1330.00	1410.00	1580.00	1611.00	1621.00	1529.00	1345.00	1322.00	1329.00	1385.00	1408.00	1638.00	1725.00	1594.00	1404.00	1421.00	1547.00	1652.00	1603.00	1486.00	1213.00	1085.00	1011.00	956.00	941.00	884.00	959.00	1057.00	1124.00	1004.00	952.00	919.00	891.00	839.00	779.00	675.00	668.00	629.00	547.00	500.00	464.00	431.00	382.00	366.00	355.00	319.00	326.00	325.00	316.00	277.00	219.00	207.00	221.00	229.00	224.00	213.00	195.00	202.00	206.00	211.00	355.00	377.00	391.00	404.00	402.00	376.00	375.00	380.00	381.00	361.00	337.00	302.00	259.00	217.00	202.00	201.00	198.00	200.00	208.00	209.00	231.00	232.00	236.00	257.00	276.00	297.00	332.00	368.00	369.00	368.00	360.00	321.00	297.00	263.00	252.00	256.00	271.00	296.00	289.00	278.00	335.00	377.00	384.00	384.00	385.00	379.00	382.00	384.00	385.00	386.00	387.00	389.00	391.00	396.00	410.00	416.00	425.00	429.00	456.00	464.00	471.00	485.00	498.00	536.00	550.00	603.00	661.00	683.00	740.00	734.00	768.00	807.00	1077.00	1026.00	951.00	1118.00	1211.00	1187.00	1138.00	1008.00	924.00	1182.00	1176.00	1134.00	1076.00	872.00	783.00	742.00	693.00	747.00	745.00	707.00	643.00
981.00	906.00	778.00	728.00	696.00	689.00	772.00	845.00	914.00	941.00	957.00	1050.00	1138.00	1189.00	1236.00	1180.00	1077.00	977.00	909.00	836.00	734.00	708.00	684.00	631.00	593.00	566.00	532.00	474.00	379.00	354.00	372.00	355.00	339.00	368.00	380.00	384.00	373.00	349.00	278.00	288.00	293.00	294.00	286.00	287.00	286.00	260.00	222.00	219.00	194.00	138.00	115.00	115.00	128.00	162.00	258.00	293.00	244.00	337.00	383.00	409.00	457.00	487.00	519.00	548.00	647.00	674.00	689.00	701.00	720.00	777.00	819.00	867.00	897.00	861.00	827.00	752.00	710.00	657.00	576.00	530.00	504.00	512.00	527.00	600.00	663.00	728.00	823.00	835.00	864.00	891.00	889.00	936.00	970.00	1001.00	1056.00	1110.00	1219.00	1277.00	1344.00	1383.00	1338.00	1249.00	1256.00	1330.00	1410.00	1580.00	1611.00	1621.00	1529.00	1345.00	1322.00	1329.00	1385.00	1408.00	1638.00	1725.00	1594.00	1404.00	1421.00	1547.00	1652.00	1603.00	1486.00	1213.00	1085.00	1011.00	956.00	941.00	884.00	959.00	1057.00	1124.00	1004.00	952.00	919.00	891.00	839.00	779.00	675.00	668.00	629.00	547.00	500.00	464.00	431.00	382.00	366.00	355.00	319.00	326.00	325.00	316.00	277.00	219.00	207.00	221.00	229.00	224.00	213.00	195.00	202.00	206.00	211.00	355.00	377.00	391.00	404.00	402.00	376.00	375.00	380.00	381.00	361.00	337.00	302.00	259.00	217.00	202.00	201.00	198.00	200.00	208.00	209.00	231.00	232.00	236.00	257.00	276.00	297.00	332.00	368.00	369.00	368.00	360.00	321.00	297.00	263.00	252.00	256.00	271.00	296.00	289.00	278.00	335.00	377.00	384.00	384.00	385.00	379.00	382.00	384.00	385.00	386.00	387.00	389.00	391.00	396.00	410.00	416.00	425.00	429.00	456.00	464.00	471.00	485.00	498.00	536.00	550.00	603.00	661.00	683.00	740.00	734.00	768.00	807.00	1077.00	1026.00	951.00	1118.00	1211.00	1187.00	1138.00	1008.00	924.00	1182.00	1176.00	1134.00	1076.00	872.00	783.00	742.00	693.00	747.00	745.00	707.00	643.00
797.00	759.00	722.00	748.00	795.00	847.00	983.00	1047.00	1085.00	1049.00	1060.00	1251.00	1389.00	1381.00	1266.00	1007.00	907.00	833.00	774.00	730.00	679.00	649.00	626.00	599.00	532.00	489.00	458.00	426.00	386.00	287.00	301.00	300.00	301.00	316.00	308.00	308.00	296.00	283.00	274.00	289.00	292.00	295.00	290.00	253.00	234.00	211.00	152.00	127.00	116.00	115.00	115.00	150.00	223.00	268.00	302.00	293.00	294.00	315.00	340.00	400.00	505.00	548.00	584.00	610.00	686.00	703.00	710.00	715.00	724.00	771.00	823.00	885.00	915.00	904.00	875.00	799.00	778.00	750.00	695.00	656.00	628.00	613.00	554.00	519.00	521.00	542.00	612.00	725.00	750.00	789.00	850.00	979.00	993.00	1042.00	1068.00	1055.00	1168.00	1196.00	1286.00	1394.00	1523.00	1454.00	1401.00	1334.00	1327.00	1506.00	1780.00	1840.00	1803.00	1630.00	1554.00	1483.00	1512.00	1477.00	1602.00	1785.00	1721.00	1594.00	1575.00	1632.00	1530.00	1399.00	1288.00	1107.00	1062.00	1063.00	1101.00	1070.00	949.00	958.00	1077.00	1216.00	1208.00	1135.00	1071.00	1005.00	914.00	884.00	813.00	780.00	743.00	654.00	602.00	553.00	523.00	430.00	406.00	381.00	371.00	349.00	344.00	319.00	285.00	239.00	263.00	275.00	271.00	257.00	234.00	201.00	208.00	215.00	234.00	306.00	301.00	270.00	261.00	255.00	249.00	244.00	240.00	235.00	217.00	206.00	199.00	198.00	199.00	198.00	199.00	199.00	199.00	198.00	198.00	199.00	199.00	199.00	199.00	199.00	199.00	204.00	311.00	352.00	328.00	269.00	229.00	256.00	304.00	329.00	335.00	311.00	298.00	306.00	319.00	378.00	384.00	387.00	389.00	388.00	382.00	379.00	380.00	382.00	384.00	384.00	385.00	387.00	390.00	395.00	398.00	410.00	418.00	436.00	440.00	444.00	449.00	452.00	472.00	468.00	473.00	488.00	518.00	550.00	595.00	618.00	614.00	822.00	797.00	787.00	918.00	890.00	903.00	961.00	965.00	758.00	982.00	954.00	898.00	837.00	724.00	679.00	634.00	605.00	597.00	549.00	506.00	467.00
772.00	781.00	925.00	972.00	998.00	982.00	1114.00	1227.00	1319.00	1289.00	1210.00	1343.00	1399.00	1259.00	1123.00	848.00	759.00	707.00	678.00	652.00	608.00	584.00	555.00	499.00	427.00	398.00	373.00	345.00	312.00	284.00	257.00	257.00	281.00	275.00	266.00	273.00	282.00	290.00	303.00	304.00	300.00	287.00	256.00	218.00	192.00	157.00	115.00	115.00	115.00	115.00	115.00	214.00	259.00	285.00	323.00	382.00	413.00	433.00	410.00	344.00	364.00	385.00	415.00	428.00	635.00	677.00	698.00	698.00	707.00	749.00	812.00	875.00	904.00	893.00	873.00	797.00	794.00	797.00	804.00	803.00	806.00	775.00	690.00	641.00	603.00	570.00	532.00	607.00	696.00	813.00	932.00	1080.00	1117.00	1158.00	1203.00	1233.00	1271.00	1220.00	1195.00	1290.00	1491.00	1507.00	1556.00	1548.00	1519.00	1675.00	1789.00	1834.00	1892.00	1887.00	1796.00	1696.00	1677.00	1664.00	1697.00	1701.00	1684.00	1615.00	1525.00	1426.00	1320.00	1239.00	1153.00	1151.00	1183.00	1222.00	1321.00	1203.00	1045.00	1004.00	1126.00	1282.00	1394.00	1301.00	1164.00	1082.00	1024.00	969.00	883.00	844.00	803.00	741.00	694.00	641.00	593.00	498.00	462.00	441.00	427.00	380.00	365.00	355.00	300.00	253.00	332.00	364.00	365.00	356.00	322.00	195.00	209.00	217.00	219.00	201.00	191.00	191.00	192.00	191.00	191.00	199.00	202.00	198.00	198.00	198.00	199.00	199.00	202.00	211.00	218.00	229.00	210.00	211.00	210.00	202.00	199.00	198.00	198.00	198.00	198.00	202.00	206.00	215.00	215.00	207.00	288.00	323.00	340.00	346.00	351.00	361.00	366.00	371.00	374.00	382.00	387.00	390.00	392.00	392.00	386.00	382.00	380.00	380.00	380.00	380.00	381.00	383.00	385.00	389.00	392.00	396.00	400.00	421.00	426.00	431.00	435.00	438.00	440.00	441.00	444.00	449.00	479.00	495.00	514.00	518.00	491.00	554.00	580.00	588.00	582.00	575.00	595.00	627.00	636.00	647.00	684.00	671.00	632.00	595.00	590.00	611.00	558.00	539.00	533.00	478.00	459.00	453.00
772.00	781.00	925.00	972.00	998.00	982.00	1114.00	1227.00	1319.00	1289.00	1210.00	1343.00	1399.00	1259.00	1123.00	848.00	759.00	707.00	678.00	652.00	608.00	584.00	555.00	499.00	427.00	398.00	373.00	345.00	312.00	284.00	257.00	257.00	281.00	275.00	266.00	273.00	282.00	290.00	303.00	304.00	300.00	287.00	256.00	218.00	192.00	157.00	115.00	115.00	115.00	115.00	115.00	214.00	259.00	285.00	323.00	382.00	413.00	433.00	410.00	344.00	364.00	385.00	415.00	428.00	635.00	677.00	698.00	698.00	707.00	749.00	812.00	875.00	904.00	893.00	873.00	797.00	794.00	797.00	804.00	803.00	806.00	775.00	690.00	641.00	603.00	570.00	532.00	607.00	696.00	813.00	932.00	1080.00	1117.00	1158.00	1203.00	1233.00	1271.00	1220.00	1195.00	1290.00	1491.00	1507.00	1556.00	1548.00	1519.00	1675.00	1789.00	1834.00	1892.00	1887.00	1796.00	1696.00	1677.00	1664.00	1697.00	1701.00	1684.00	1615.00	1525.00	1426.00	1320.00	1239.00	1153.00	1151.00	1183.00	1222.00	1321.00	1203.00	1045.00	1004.00	1126.00	1282.00	1394.00	1301.00	1164.00	1082.00	1024.00	969.00	883.00	844.00	803.00	741.00	694.00	641.00	593.00	498.00	462.00	441.00	427.00	380.00	365.00	355.00	300.00	253.00	332.00	364.00	365.00	356.00	322.00	195.00	209.00	217.00	219.00	201.00	191.00	191.00	192.00	191.00	191.00	199.00	202.00	198.00	198.00	198.00	199.00	199.00	202.00	211.00	218.00	229.00	210.00	211.00	210.00	202.00	199.00	198.00	198.00	198.00	198.00	202.00	206.00	215.00	215.00	207.00	288.00	323.00	340.00	346.00	351.00	361.00	366.00	371.00	374.00	382.00	387.00	390.00	392.00	392.00	386.00	382.00	380.00	380.00	380.00	380.00	381.00	383.00	385.00	389.00	392.00	396.00	400.00	421.00	426.00	431.00	435.00	438.00	440.00	441.00	444.00	449.00	479.00	495.00	514.00	518.00	491.00	554.00	580.00	588.00	582.00	575.00	595.00	627.00	636.00	647.00	684.00	671.00	632.00	595.00	590.00	611.00	558.00	539.00	533.00	478.00	459.00	453.00
1027.00	1030.00	1162.00	1249.00	1211.00	1062.00	1186.00	1337.00	1461.00	1538.00	1498.00	1337.00	1189.00	1065.00	972.00	771.00	700.00	655.00	622.00	579.00	503.00	483.00	451.00	388.00	358.00	347.00	325.00	285.00	260.00	240.00	229.00	250.00	247.00	279.00	298.00	308.00	304.00	296.00	290.00	286.00	276.00	250.00	211.00	165.00	132.00	116.00	115.00	115.00	115.00	116.00	159.00	303.00	332.00	358.00	410.00	457.00	489.00	522.00	542.00	551.00	501.00	459.00	469.00	487.00	486.00	535.00	598.00	652.00	683.00	771.00	831.00	894.00	944.00	964.00	930.00	826.00	817.00	829.00	878.00	913.00	933.00	926.00	859.00	803.00	760.00	728.00	605.00	536.00	567.00	631.00	725.00	973.00	1078.00	1173.00	1281.00	1393.00	1450.00	1370.00	1283.00	1240.00	1307.00	1363.00	1392.00	1428.00	1491.00	1582.00	1660.00	1695.00	1708.00	1685.00	1659.00	1624.00	1568.00	1519.00	1490.00	1467.00	1435.00	1387.00	1271.00	1221.00	1186.00	1178.00	1174.00	1301.00	1359.00	1403.00	1528.00	1242.00	1106.00	1078.00	1209.00	1363.00	1392.00	1256.00	1182.00	1241.00	1187.00	1098.00	990.00	923.00	882.00	782.00	733.00	682.00	640.00	556.00	522.00	510.00	494.00	436.00	399.00	397.00	334.00	269.00	378.00	388.00	400.00	401.00	374.00	205.00	192.00	191.00	192.00	193.00	195.00	199.00	207.00	213.00	222.00	237.00	236.00	236.00	235.00	245.00	267.00	283.00	280.00	331.00	345.00	349.00	342.00	335.00	331.00	301.00	270.00	247.00	212.00	202.00	203.00	206.00	206.00	206.00	206.00	206.00	220.00	255.00	290.00	327.00	329.00	343.00	356.00	365.00	368.00	374.00	381.00	389.00	395.00	396.00	389.00	384.00	382.00	382.00	378.00	376.00	376.00	378.00	382.00	385.00	386.00	389.00	394.00	406.00	410.00	414.00	419.00	424.00	434.00	435.00	436.00	438.00	447.00	451.00	454.00	450.00	444.00	461.00	478.00	483.00	471.00	477.00	480.00	491.00	510.00	522.00	499.00	490.00	485.00	479.00	473.00	480.00	488.00	488.00	485.00	470.00	473.00	459.00
1223.00	1318.00	1411.00	1519.00	1324.00	1148.00	1259.00	1424.00	1557.00	1571.00	1457.00	1219.00	997.00	906.00	837.00	709.00	662.00	622.00	582.00	536.00	412.00	395.00	370.00	345.00	333.00	313.00	281.00	231.00	222.00	208.00	251.00	273.00	288.00	301.00	297.00	282.00	267.00	259.00	251.00	231.00	194.00	173.00	157.00	117.00	115.00	115.00	116.00	116.00	147.00	221.00	282.00	347.00	365.00	387.00	444.00	512.00	547.00	590.00	634.00	689.00	739.00	687.00	578.00	507.00	553.00	604.00	574.00	547.00	568.00	700.00	752.00	795.00	850.00	924.00	908.00	843.00	846.00	876.00	946.00	1010.00	1037.00	1041.00	990.00	956.00	933.00	934.00	783.00	587.00	549.00	557.00	588.00	743.00	875.00	1039.00	1196.00	1300.00	1545.00	1484.00	1418.00	1404.00	1323.00	1319.00	1358.00	1369.00	1385.00	1431.00	1454.00	1471.00	1487.00	1530.00	1606.00	1632.00	1583.00	1588.00	1510.00	1424.00	1355.00	1307.00	1287.00	1320.00	1330.00	1320.00	1350.00	1578.00	1653.00	1683.00	1628.00	1187.00	1118.00	1141.00	1256.00	1383.00	1332.00	1288.00	1329.00	1442.00	1303.00	1261.00	1100.00	1033.00	970.00	889.00	851.00	785.00	713.00	622.00	598.00	578.00	545.00	492.00	441.00	414.00	376.00	307.00	367.00	407.00	413.00	414.00	409.00	275.00	285.00	276.00	292.00	291.00	262.00	260.00	278.00	288.00	294.00	271.00	306.00	336.00	354.00	368.00	391.00	403.00	372.00	347.00	377.00	386.00	386.00	389.00	388.00	389.00	387.00	370.00	336.00	295.00	281.00	257.00	206.00	207.00	207.00	207.00	207.00	207.00	206.00	210.00	230.00	331.00	344.00	361.00	360.00	360.00	363.00	371.00	377.00	388.00	389.00	389.00	387.00	385.00	390.00	385.00	381.00	380.00	380.00	381.00	382.00	382.00	385.00	395.00	396.00	396.00	396.00	399.00	418.00	423.00	427.00	428.00	431.00	431.00	428.00	427.00	426.00	432.00	435.00	438.00	437.00	439.00	443.00	449.00	460.00	462.00	445.00	439.00	437.00	436.00	437.00	443.00	448.00	449.00	444.00	427.00	424.00	420.00
1223.00	1318.00	1411.00	1519.00	1324.00	1148.00	1259.00	1424.00	1557.00	1571.00	1457.00	1219.00	997.00	906.00	837.00	709.00	662.00	622.00	582.00	536.00	412.00	395.00	370.00	345.00	333.00	313.00	281.00	231.00	222.00	208.00	251.00	273.00	288.00	301.00	297.00	282.00	267.00	259.00	251.00	231.00	194.00	173.00	157.00	117.00	115.00	115.00	116.00	116.00	147.00	221.00	282.00	347.00	365.00	387.00	444.00	512.00	547.00	590.00	634.00	689.00	739.00	687.00	578.00	507.00	553.00	604.00	574.00	547.00	568.00	700.00	752.00	795.00	850.00	924.00	908.00	843.00	846.00	876.00	946.00	1010.00	1037.00	1041.00	990.00	956.00	933.00	934.00	783.00	587.00	549.00	557.00	588.00	743.00	875.00	1039.00	1196.00	1300.00	1545.00	1484.00	1418.00	1404.00	1323.00	1319.00	1358.00	1369.00	1385.00	1431.00	1454.00	1471.00	1487.00	1530.00	1606.00	1632.00	1583.00	1588.00	1510.00	1424.00	1355.00	1307.00	1287.00	1320.00	1330.00	1320.00	1350.00	1578.00	1653.00	1683.00	1628.00	1187.00	1118.00	1141.00	1256.00	1383.00	1332.00	1288.00	1329.00	1442.00	1303.00	1261.00	1100.00	1033.00	970.00	889.00	851.00	785.00	713.00	622.00	598.00	578.00	545.00	492.00	441.00	414.00	376.00	307.00	367.00	407.00	413.00	414.00	409.00	275.00	285.00	276.00	292.00	291.00	262.00	260.00	278.00	288.00	294.00	271.00	306.00	336.00	354.00	368.00	391.00	403.00	372.00	347.00	377.00	386.00	386.00	389.00	388.00	389.00	387.00	370.00	336.00	295.00	281.00	257.00	206.00	207.00	207.00	207.00	207.00	207.00	206.00	210.00	230.00	331.00	344.00	361.00	360.00	360.00	363.00	371.00	377.00	388.00	389.00	389.00	387.00	385.00	390.00	385.00	381.00	380.00	380.00	381.00	382.00	382.00	385.00	395.00	396.00	396.00	396.00	399.00	418.00	423.00	427.00	428.00	431.00	431.00	428.00	427.00	426.00	432.00	435.00	438.00	437.00	439.00	443.00	449.00	460.00	462.00	445.00	439.00	437.00	436.00	437.00	443.00	448.00	449.00	444.00	427.00	424.00	420.00
1341.00	1489.00	1675.00	1539.00	1324.00	1211.00	1414.00	1564.00	1512.00	1401.00	1281.00	1054.00	881.00	813.00	749.00	632.00	570.00	523.00	474.00	420.00	353.00	332.00	340.00	330.00	287.00	248.00	189.00	172.00	190.00	224.00	216.00	221.00	216.00	203.00	202.00	201.00	188.00	174.00	137.00	130.00	128.00	123.00	115.00	115.00	119.00	138.00	207.00	244.00	295.00	332.00	361.00	411.00	445.00	499.00	617.00	734.00	781.00	832.00	875.00	908.00	900.00	813.00	674.00	555.00	573.00	713.00	787.00	799.00	758.00	662.00	666.00	665.00	677.00	705.00	766.00	851.00	891.00	923.00	1053.00	1150.00	1247.00	1319.00	1231.00	1167.00	1089.00	989.00	903.00	740.00	625.00	572.00	564.00	613.00	690.00	799.00	906.00	1009.00	1292.00	1393.00	1490.00	1555.00	1478.00	1435.00	1429.00	1418.00	1382.00	1442.00	1545.00	1597.00	1640.00	1772.00	1849.00	1832.00	1799.00	1808.00	1521.00	1456.00	1417.00	1465.00	1602.00	1555.00	1559.00	1600.00	1558.00	1488.00	1472.00	1445.00	1405.00	1181.00	1172.00	1251.00	1377.00	1495.00	1513.00	1511.00	1559.00	1548.00	1401.00	1312.00	1168.00	1113.00	1054.00	969.00	928.00	878.00	845.00	746.00	737.00	694.00	629.00	542.00	483.00	451.00	403.00	329.00	349.00	426.00	431.00	429.00	425.00	404.00	423.00	424.00	422.00	387.00	366.00	353.00	382.00	363.00	387.00	348.00	329.00	339.00	395.00	421.00	453.00	461.00	447.00	420.00	417.00	419.00	436.00	457.00	454.00	445.00	438.00	429.00	399.00	387.00	384.00	366.00	251.00	223.00	213.00	206.00	206.00	207.00	207.00	206.00	207.00	216.00	256.00	338.00	345.00	351.00	361.00	366.00	368.00	371.00	383.00	384.00	390.00	390.00	395.00	395.00	392.00	388.00	384.00	381.00	381.00	382.00	384.00	389.00	389.00	389.00	389.00	390.00	396.00	401.00	406.00	411.00	412.00	410.00	407.00	409.00	409.00	411.00	413.00	414.00	414.00	415.00	417.00	420.00	423.00	420.00	419.00	418.00	417.00	415.00	412.00	411.00	414.00	416.00	412.00	417.00	424.00	421.00
1341.00	1489.00	1675.00	1539.00	1324.00	1211.00	1414.00	1564.00	1512.00	1401.00	1281.00	1054.00	881.00	813.00	749.00	632.00	570.00	523.00	474.00	420.00	353.00	332.00	340.00	330.00	287.00	248.00	189.00	172.00	190.00	224.00	216.00	221.00	216.00	203.00	202.00	201.00	188.00	174.00	137.00	130.00	128.00	123.00	115.00	115.00	119.00	138.00	207.00	244.00	295.00	332.00	361.00	411.00	445.00	499.00	617.00	734.00	781.00	832.00	875.00	908.00	900.00	813.00	674.00	555.00	573.00	713.00	787.00	799.00	758.00	662.00	666.00	665.00	677.00	705.00	766.00	851.00	891.00	923.00	1053.00	1150.00	1247.00	1319.00	1231.00	1167.00	1089.00	989.00	903.00	740.00	625.00	572.00	564.00	613.00	690.00	799.00	906.00	1009.00	1292.00	1393.00	1490.00	1555.00	1478.00	1435.00	1429.00	1418.00	1382.00	1442.00	1545.00	1597.00	1640.00	1772.00	1849.00	1832.00	1799.00	1808.00	1521.00	1456.00	1417.00	1465.00	1602.00	1555.00	1559.00	1600.00	1558.00	1488.00	1472.00	1445.00	1405.00	1181.00	1172.00	1251.00	1377.00	1495.00	1513.00	1511.00	1559.00	1548.00	1401.00	1312.00	1168.00	1113.00	1054.00	969.00	928.00	878.00	845.00	746.00	737.00	694.00	629.00	542.00	483.00	451.00	403.00	329.00	349.00	426.00	431.00	429.00	425.00	404.00	423.00	424.00	422.00	387.00	366.00	353.00	382.00	363.00	387.00	348.00	329.00	339.00	395.00	421.00	453.00	461.00	447.00	420.00	417.00	419.00	436.00	457.00	454.00	445.00	438.00	429.00	399.00	387.00	384.00	366.00	251.00	223.00	213.00	206.00	206.00	207.00	207.00	206.00	207.00	216.00	256.00	338.00	345.00	351.00	361.00	366.00	368.00	371.00	383.00	384.00	390.00	390.00	395.00	395.00	392.00	388.00	384.00	381.00	381.00	382.00	384.00	389.00	389.00	389.00	389.00	390.00	396.00	401.00	406.00	411.00	412.00	410.00	407.00	409.00	409.00	411.00	413.00	414.00	414.00	415.00	417.00	420.00	423.00	420.00	419.00	418.00	417.00	415.00	412.00	411.00	414.00	416.00	412.00	417.00	424.00	421.00
