222.00	221.00	204.00	204.00	199.00	204.00	235.00	242.00	239.00	229.00	221.00	236.00	220.00	214.00	215.00	217.00	214.00	213.00	215.00	238.00	244.00	245.00	246.00	243.00	238.00	244.00	251.00	243.00	245.00	244.00	269.00	263.00	259.00	246.00	268.00	286.00	307.00	242.00	195.00	191.00	190.00	189.00	189.00	192.00	192.00	191.00	200.00	203.00	203.00	220.00	194.00	191.00	193.00	190.00	189.00	189.00	189.00	189.00	192.00	195.00	202.00	212.00	206.00	195.00	197.00	209.00	208.00	197.00	196.00	199.00	217.00	229.00	232.00	233.00	219.00	235.00	269.00	263.00	251.00	236.00	234.00	233.00	225.00	221.00	217.00	209.00	202.00	200.00	226.00	241.00	253.00	263.00	274.00	277.00	284.00	285.00	287.00	304.00	333.00	349.00	359.00	361.00	334.00	300.00	293.00	377.00	389.00	375.00	390.00	408.00	440.00	434.00	431.00	464.00	451.00	437.00	426.00	423.00	443.00	448.00	449.00	456.00	454.00	436.00	430.00	425.00	439.00	467.00	467.00	465.00	467.00	468.00	476.00	477.00	470.00	469.00	466.00	463.00	462.00	461.00	457.00	434.00	430.00	434.00	444.00	448.00	373.00	347.00	312.00	295.00	280.00	279.00	277.00	277.00	277.00	283.00	292.00	298.00	298.00	300.00	302.00	292.00	316.00	339.00	337.00	321.00	312.00	309.00	311.00	313.00	312.00	306.00	299.00	310.00	325.00	326.00	332.00	366.00	365.00	361.00	359.00	357.00	352.00	347.00	342.00	341.00	337.00	333.00	327.00	321.00	316.00	299.00	296.00	295.00	298.00	304.00	309.00	330.00	339.00	355.00	382.00	408.00	412.00	413.00	413.00	412.00	407.00	405.00	416.00	406.00	403.00	402.00	399.00	415.00	426.00	435.00	436.00	451.00	404.00	394.00	408.00	419.00	404.00	384.00	373.00	364.00	364.00	390.00	398.00	401.00	397.00	380.00	377.00	378.00	393.00	360.00	348.00	347.00	355.00	325.00	309.00	316.00	315.00	309.00	299.00	295.00	295.00	300.00	301.00	319.00	312.00	315.00	323.00	353.00	364.00	376.00
225.00	219.00	210.00	209.00	205.00	200.00	229.00	244.00	240.00	225.00	222.00	223.00	220.00	215.00	214.00	215.00	212.00	214.00	216.00	238.00	241.00	239.00	248.00	245.00	244.00	244.00	246.00	243.00	247.00	236.00	260.00	261.00	257.00	251.00	266.00	295.00	281.00	236.00	192.00	192.00	189.00	189.00	189.00	189.00	189.00	192.00	199.00	203.00	204.00	212.00	194.00	189.00	189.00	189.00	189.00	189.00	189.00	189.00	189.00	194.00	198.00	201.00	201.00	195.00	196.00	202.00	205.00	196.00	197.00	200.00	221.00	226.00	231.00	232.00	219.00	220.00	239.00	249.00	243.00	226.00	229.00	229.00	222.00	217.00	210.00	203.00	204.00	201.00	233.00	243.00	255.00	262.00	270.00	279.00	287.00	291.00	296.00	303.00	306.00	331.00	360.00	383.00	379.00	365.00	330.00	286.00	295.00	341.00	376.00	371.00	385.00	434.00	443.00	424.00	467.00	473.00	461.00	446.00	431.00	437.00	432.00	442.00	451.00	461.00	458.00	460.00	461.00	473.00	484.00	476.00	463.00	460.00	457.00	456.00	452.00	450.00	448.00	446.00	451.00	454.00	453.00	455.00	456.00	458.00	462.00	437.00	423.00	415.00	371.00	330.00	290.00	285.00	282.00	277.00	277.00	278.00	283.00	297.00	297.00	308.00	310.00	303.00	307.00	318.00	343.00	340.00	326.00	320.00	310.00	304.00	299.00	300.00	298.00	300.00	311.00	311.00	330.00	372.00	379.00	377.00	373.00	371.00	367.00	361.00	349.00	341.00	345.00	338.00	335.00	333.00	332.00	327.00	323.00	313.00	304.00	296.00	295.00	294.00	297.00	301.00	315.00	345.00	367.00	384.00	401.00	400.00	402.00	408.00	410.00	403.00	408.00	410.00	400.00	415.00	407.00	415.00	420.00	424.00	408.00	401.00	400.00	409.00	403.00	394.00	386.00	385.00	389.00	418.00	435.00	408.00	378.00	403.00	388.00	389.00	380.00	353.00	358.00	359.00	366.00	331.00	310.00	315.00	312.00	309.00	303.00	296.00	298.00	299.00	301.00	313.00	311.00	313.00	321.00	351.00	363.00	370.00
224.00	217.00	213.00	212.00	208.00	204.00	227.00	252.00	236.00	219.00	217.00	216.00	221.00	216.00	209.00	209.00	212.00	214.00	219.00	239.00	239.00	235.00	246.00	252.00	252.00	247.00	247.00	245.00	244.00	242.00	242.00	256.00	253.00	258.00	261.00	279.00	270.00	243.00	199.00	191.00	189.00	189.00	189.00	189.00	191.00	199.00	200.00	199.00	195.00	199.00	189.00	189.00	189.00	189.00	189.00	189.00	189.00	189.00	190.00	198.00	197.00	201.00	199.00	196.00	194.00	194.00	194.00	194.00	195.00	202.00	220.00	218.00	223.00	223.00	218.00	223.00	222.00	224.00	226.00	219.00	217.00	222.00	217.00	216.00	207.00	203.00	201.00	204.00	235.00	242.00	251.00	257.00	270.00	276.00	281.00	288.00	301.00	316.00	313.00	305.00	325.00	396.00	385.00	368.00	346.00	310.00	300.00	287.00	337.00	394.00	365.00	412.00	443.00	437.00	450.00	470.00	465.00	476.00	486.00	454.00	457.00	459.00	459.00	461.00	466.00	465.00	468.00	469.00	469.00	469.00	465.00	469.00	470.00	470.00	461.00	459.00	455.00	449.00	450.00	451.00	450.00	446.00	451.00	453.00	453.00	439.00	421.00	413.00	397.00	363.00	310.00	304.00	294.00	284.00	279.00	277.00	277.00	280.00	283.00	322.00	312.00	310.00	312.00	324.00	350.00	353.00	339.00	331.00	314.00	303.00	298.00	299.00	301.00	314.00	324.00	312.00	311.00	351.00	375.00	383.00	390.00	383.00	372.00	366.00	354.00	345.00	339.00	349.00	342.00	338.00	336.00	334.00	330.00	326.00	321.00	311.00	302.00	303.00	305.00	307.00	312.00	310.00	313.00	331.00	342.00	339.00	341.00	354.00	362.00	380.00	398.00	407.00	390.00	395.00	397.00	405.00	418.00	417.00	399.00	421.00	431.00	417.00	408.00	414.00	412.00	415.00	421.00	451.00	412.00	393.00	401.00	417.00	397.00	395.00	380.00	355.00	376.00	369.00	368.00	320.00	312.00	308.00	309.00	317.00	304.00	299.00	296.00	301.00	300.00	310.00	307.00	310.00	319.00	346.00	361.00	369.00
224.00	214.00	217.00	220.00	211.00	211.00	230.00	254.00	225.00	214.00	213.00	214.00	216.00	214.00	209.00	209.00	213.00	214.00	219.00	241.00	232.00	230.00	250.00	260.00	258.00	250.00	250.00	250.00	247.00	243.00	240.00	248.00	254.00	258.00	258.00	273.00	269.00	237.00	198.00	190.00	189.00	189.00	189.00	189.00	194.00	199.00	199.00	195.00	191.00	192.00	193.00	189.00	189.00	189.00	189.00	189.00	189.00	189.00	189.00	193.00	194.00	194.00	189.00	193.00	197.00	195.00	197.00	200.00	207.00	200.00	215.00	214.00	226.00	222.00	218.00	224.00	224.00	218.00	219.00	221.00	217.00	213.00	219.00	214.00	207.00	205.00	200.00	210.00	233.00	243.00	254.00	260.00	264.00	267.00	276.00	285.00	305.00	327.00	324.00	316.00	312.00	374.00	387.00	369.00	362.00	336.00	322.00	307.00	293.00	307.00	386.00	370.00	406.00	437.00	443.00	443.00	445.00	463.00	471.00	473.00	479.00	480.00	484.00	484.00	486.00	471.00	461.00	458.00	465.00	469.00	470.00	479.00	482.00	479.00	467.00	462.00	456.00	450.00	457.00	461.00	462.00	443.00	436.00	434.00	437.00	434.00	441.00	425.00	419.00	397.00	356.00	350.00	326.00	309.00	297.00	277.00	277.00	277.00	277.00	288.00	295.00	295.00	304.00	325.00	355.00	356.00	346.00	337.00	316.00	303.00	301.00	310.00	311.00	307.00	316.00	311.00	308.00	319.00	350.00	372.00	388.00	388.00	370.00	363.00	352.00	343.00	330.00	325.00	332.00	342.00	340.00	339.00	337.00	337.00	335.00	321.00	317.00	307.00	308.00	310.00	314.00	318.00	325.00	334.00	341.00	343.00	348.00	352.00	355.00	359.00	357.00	357.00	360.00	366.00	367.00	373.00	381.00	391.00	397.00	418.00	443.00	445.00	444.00	442.00	441.00	450.00	451.00	419.00	405.00	407.00	414.00	409.00	402.00	403.00	373.00	369.00	386.00	373.00	381.00	333.00	314.00	309.00	315.00	325.00	311.00	305.00	297.00	300.00	300.00	311.00	305.00	307.00	315.00	343.00	350.00	358.00
224.00	214.00	217.00	220.00	211.00	211.00	230.00	254.00	225.00	214.00	213.00	214.00	216.00	214.00	209.00	209.00	213.00	214.00	219.00	241.00	232.00	230.00	250.00	260.00	258.00	250.00	250.00	250.00	247.00	243.00	240.00	248.00	254.00	258.00	258.00	273.00	269.00	237.00	198.00	190.00	189.00	189.00	189.00	189.00	194.00	199.00	199.00	195.00	191.00	192.00	193.00	189.00	189.00	189.00	189.00	189.00	189.00	189.00	189.00	193.00	194.00	194.00	189.00	193.00	197.00	195.00	197.00	200.00	207.00	200.00	215.00	214.00	226.00	222.00	218.00	224.00	224.00	218.00	219.00	221.00	217.00	213.00	219.00	214.00	207.00	205.00	200.00	210.00	233.00	243.00	254.00	260.00	264.00	267.00	276.00	285.00	305.00	327.00	324.00	316.00	312.00	374.00	387.00	369.00	362.00	336.00	322.00	307.00	293.00	307.00	386.00	370.00	406.00	437.00	443.00	443.00	445.00	463.00	471.00	473.00	479.00	480.00	484.00	484.00	486.00	471.00	461.00	458.00	465.00	469.00	470.00	479.00	482.00	479.00	467.00	462.00	456.00	450.00	457.00	461.00	462.00	443.00	436.00	434.00	437.00	434.00	441.00	425.00	419.00	397.00	356.00	350.00	326.00	309.00	297.00	277.00	277.00	277.00	277.00	288.00	295.00	295.00	304.00	325.00	355.00	356.00	346.00	337.00	316.00	303.00	301.00	310.00	311.00	307.00	316.00	311.00	308.00	319.00	350.00	372.00	388.00	388.00	370.00	363.00	352.00	343.00	330.00	325.00	332.00	342.00	340.00	339.00	337.00	337.00	335.00	321.00	317.00	307.00	308.00	310.00	314.00	318.00	325.00	334.00	341.00	343.00	348.00	352.00	355.00	359.00	357.00	357.00	360.00	366.00	367.00	373.00	381.00	391.00	397.00	418.00	443.00	445.00	444.00	442.00	441.00	450.00	451.00	419.00	405.00	407.00	414.00	409.00	402.00	403.00	373.00	369.00	386.00	373.00	381.00	333.00	314.00	309.00	315.00	325.00	311.00	305.00	297.00	300.00	300.00	311.00	305.00	307.00	315.00	343.00	350.00	358.00
227.00	219.00	223.00	226.00	217.00	212.00	231.00	260.00	218.00	213.00	210.00	211.00	210.00	211.00	209.00	209.00	217.00	215.00	220.00	241.00	226.00	222.00	244.00	267.00	264.00	253.00	254.00	255.00	252.00	239.00	237.00	244.00	256.00	258.00	259.00	274.00	269.00	232.00	197.00	189.00	189.00	189.00	189.00	190.00	198.00	200.00	199.00	192.00	190.00	195.00	192.00	189.00	189.00	189.00	189.00	189.00	189.00	189.00	189.00	192.00	193.00	190.00	189.00	189.00	192.00	203.00	209.00	204.00	198.00	197.00	214.00	220.00	227.00	221.00	221.00	225.00	220.00	214.00	212.00	218.00	217.00	213.00	222.00	210.00	202.00	200.00	204.00	214.00	230.00	237.00	250.00	256.00	257.00	263.00	271.00	285.00	308.00	329.00	331.00	330.00	323.00	322.00	399.00	399.00	366.00	346.00	336.00	327.00	326.00	311.00	319.00	365.00	368.00	414.00	448.00	446.00	453.00	464.00	470.00	477.00	483.00	481.00	479.00	495.00	507.00	502.00	485.00	475.00	464.00	459.00	455.00	451.00	457.00	459.00	446.00	445.00	442.00	434.00	437.00	439.00	443.00	452.00	457.00	458.00	457.00	464.00	452.00	446.00	446.00	452.00	439.00	418.00	371.00	365.00	344.00	280.00	277.00	277.00	277.00	277.00	277.00	283.00	289.00	307.00	344.00	347.00	338.00	323.00	298.00	301.00	308.00	305.00	302.00	302.00	309.00	312.00	315.00	316.00	328.00	358.00	370.00	389.00	384.00	377.00	360.00	346.00	353.00	337.00	326.00	321.00	319.00	324.00	323.00	330.00	342.00	329.00	322.00	311.00	307.00	305.00	310.00	311.00	317.00	327.00	336.00	337.00	350.00	361.00	374.00	375.00	373.00	371.00	368.00	365.00	363.00	361.00	360.00	361.00	375.00	393.00	401.00	409.00	438.00	434.00	429.00	419.00	417.00	403.00	421.00	419.00	424.00	424.00	412.00	397.00	378.00	389.00	387.00	374.00	388.00	332.00	322.00	311.00	320.00	324.00	312.00	309.00	302.00	299.00	308.00	305.00	303.00	307.00	316.00	337.00	344.00	357.00
230.00	223.00	228.00	227.00	221.00	209.00	222.00	242.00	215.00	215.00	209.00	209.00	209.00	210.00	209.00	210.00	213.00	218.00	215.00	231.00	224.00	223.00	226.00	266.00	268.00	255.00	258.00	256.00	254.00	239.00	240.00	253.00	255.00	256.00	259.00	282.00	264.00	227.00	190.00	189.00	189.00	189.00	189.00	192.00	205.00	203.00	196.00	189.00	191.00	195.00	189.00	189.00	189.00	189.00	189.00	189.00	189.00	189.00	189.00	189.00	189.00	189.00	190.00	192.00	193.00	193.00	200.00	199.00	197.00	203.00	207.00	216.00	219.00	219.00	217.00	215.00	215.00	209.00	211.00	213.00	217.00	213.00	222.00	206.00	201.00	200.00	203.00	212.00	239.00	246.00	253.00	253.00	258.00	266.00	283.00	301.00	318.00	339.00	340.00	343.00	343.00	330.00	327.00	370.00	414.00	343.00	336.00	336.00	341.00	339.00	312.00	298.00	331.00	376.00	420.00	438.00	466.00	470.00	476.00	476.00	487.00	483.00	479.00	484.00	490.00	494.00	497.00	495.00	492.00	490.00	490.00	489.00	483.00	483.00	463.00	453.00	445.00	443.00	456.00	467.00	473.00	476.00	479.00	478.00	479.00	478.00	449.00	439.00	428.00	453.00	426.00	379.00	383.00	428.00	439.00	296.00	278.00	278.00	278.00	277.00	277.00	277.00	277.00	287.00	320.00	340.00	334.00	314.00	290.00	301.00	319.00	319.00	305.00	299.00	300.00	311.00	316.00	322.00	324.00	327.00	344.00	374.00	385.00	383.00	368.00	343.00	326.00	319.00	318.00	316.00	316.00	316.00	316.00	316.00	322.00	326.00	324.00	310.00	309.00	306.00	305.00	306.00	305.00	306.00	324.00	336.00	351.00	365.00	372.00	380.00	387.00	390.00	389.00	387.00	384.00	377.00	373.00	367.00	357.00	375.00	382.00	372.00	392.00	400.00	403.00	392.00	398.00	416.00	442.00	441.00	435.00	404.00	387.00	393.00	400.00	408.00	385.00	364.00	379.00	339.00	330.00	323.00	328.00	330.00	318.00	308.00	300.00	298.00	308.00	307.00	308.00	309.00	319.00	331.00	342.00	354.00
230.00	223.00	228.00	227.00	221.00	209.00	222.00	242.00	215.00	215.00	209.00	209.00	209.00	210.00	209.00	210.00	213.00	218.00	215.00	231.00	224.00	223.00	226.00	266.00	268.00	255.00	258.00	256.00	254.00	239.00	240.00	253.00	255.00	256.00	259.00	282.00	264.00	227.00	190.00	189.00	189.00	189.00	189.00	192.00	205.00	203.00	196.00	189.00	191.00	195.00	189.00	189.00	189.00	189.00	189.00	189.00	189.00	189.00	189.00	189.00	189.00	189.00	190.00	192.00	193.00	193.00	200.00	199.00	197.00	203.00	207.00	216.00	219.00	219.00	217.00	215.00	215.00	209.00	211.00	213.00	217.00	213.00	222.00	206.00	201.00	200.00	203.00	212.00	239.00	246.00	253.00	253.00	258.00	266.00	283.00	301.00	318.00	339.00	340.00	343.00	343.00	330.00	327.00	370.00	414.00	343.00	336.00	336.00	341.00	339.00	312.00	298.00	331.00	376.00	420.00	438.00	466.00	470.00	476.00	476.00	487.00	483.00	479.00	484.00	490.00	494.00	497.00	495.00	492.00	490.00	490.00	489.00	483.00	483.00	463.00	453.00	445.00	443.00	456.00	467.00	473.00	476.00	479.00	478.00	479.00	478.00	449.00	439.00	428.00	453.00	426.00	379.00	383.00	428.00	439.00	296.00	278.00	278.00	278.00	277.00	277.00	277.00	277.00	287.00	320.00	340.00	334.00	314.00	290.00	301.00	319.00	319.00	305.00	299.00	300.00	311.00	316.00	322.00	324.00	327.00	344.00	374.00	385.00	383.00	368.00	343.00	326.00	319.00	318.00	316.00	316.00	316.00	316.00	316.00	322.00	326.00	324.00	310.00	309.00	306.00	305.00	306.00	305.00	306.00	324.00	336.00	351.00	365.00	372.00	380.00	387.00	390.00	389.00	387.00	384.00	377.00	373.00	367.00	357.00	375.00	382.00	372.00	392.00	400.00	403.00	392.00	398.00	416.00	442.00	441.00	435.00	404.00	387.00	393.00	400.00	408.00	385.00	364.00	379.00	339.00	330.00	323.00	328.00	330.00	318.00	308.00	300.00	298.00	308.00	307.00	308.00	309.00	319.00	331.00	342.00	354.00
227.00	220.00	227.00	223.00	221.00	213.00	209.00	218.00	215.00	214.00	210.00	209.00	210.00	210.00	210.00	209.00	211.00	214.00	218.00	225.00	222.00	228.00	229.00	235.00	263.00	261.00	252.00	255.00	255.00	240.00	247.00	255.00	255.00	256.00	264.00	284.00	266.00	224.00	190.00	189.00	189.00	189.00	189.00	193.00	203.00	201.00	196.00	189.00	190.00	195.00	190.00	189.00	189.00	189.00	189.00	189.00	189.00	189.00	189.00	189.00	189.00	189.00	191.00	192.00	194.00	194.00	199.00	204.00	200.00	205.00	205.00	211.00	215.00	218.00	215.00	212.00	208.00	207.00	211.00	210.00	216.00	214.00	219.00	201.00	200.00	200.00	202.00	215.00	244.00	248.00	252.00	258.00	259.00	268.00	283.00	308.00	327.00	340.00	341.00	347.00	354.00	347.00	330.00	324.00	345.00	360.00	340.00	338.00	349.00	347.00	334.00	324.00	307.00	371.00	394.00	407.00	426.00	442.00	449.00	466.00	484.00	488.00	490.00	485.00	484.00	488.00	487.00	485.00	491.00	493.00	495.00	500.00	502.00	498.00	478.00	458.00	454.00	457.00	467.00	472.00	484.00	496.00	499.00	514.00	522.00	522.00	508.00	485.00	462.00	430.00	417.00	402.00	393.00	475.00	493.00	327.00	303.00	307.00	294.00	284.00	277.00	277.00	277.00	277.00	289.00	329.00	329.00	308.00	286.00	289.00	304.00	319.00	326.00	309.00	313.00	331.00	324.00	309.00	311.00	310.00	319.00	334.00	372.00	375.00	366.00	354.00	319.00	317.00	319.00	327.00	320.00	316.00	319.00	322.00	330.00	335.00	327.00	308.00	311.00	309.00	306.00	304.00	304.00	305.00	321.00	334.00	352.00	367.00	376.00	381.00	384.00	388.00	399.00	403.00	407.00	401.00	391.00	384.00	352.00	348.00	344.00	346.00	371.00	373.00	378.00	392.00	411.00	425.00	446.00	456.00	417.00	398.00	399.00	400.00	397.00	398.00	376.00	346.00	363.00	346.00	339.00	333.00	345.00	337.00	322.00	314.00	303.00	298.00	304.00	308.00	309.00	307.00	315.00	327.00	338.00	352.00
227.00	220.00	227.00	223.00	221.00	213.00	209.00	218.00	215.00	214.00	210.00	209.00	210.00	210.00	210.00	209.00	211.00	214.00	218.00	225.00	222.00	228.00	229.00	235.00	263.00	261.00	252.00	255.00	255.00	240.00	247.00	255.00	255.00	256.00	264.00	284.00	266.00	224.00	190.00	189.00	189.00	189.00	189.00	193.00	203.00	201.00	196.00	189.00	190.00	195.00	190.00	189.00	189.00	189.00	189.00	189.00	189.00	189.00	189.00	189.00	189.00	189.00	191.00	192.00	194.00	194.00	199.00	204.00	200.00	205.00	205.00	211.00	215.00	218.00	215.00	212.00	208.00	207.00	211.00	210.00	216.00	214.00	219.00	201.00	200.00	200.00	202.00	215.00	244.00	248.00	252.00	258.00	259.00	268.00	283.00	308.00	327.00	340.00	341.00	347.00	354.00	347.00	330.00	324.00	345.00	360.00	340.00	338.00	349.00	347.00	334.00	324.00	307.00	371.00	394.00	407.00	426.00	442.00	449.00	466.00	484.00	488.00	490.00	485.00	484.00	488.00	487.00	485.00	491.00	493.00	495.00	500.00	502.00	498.00	478.00	458.00	454.00	457.00	467.00	472.00	484.00	496.00	499.00	514.00	522.00	522.00	508.00	485.00	462.00	430.00	417.00	402.00	393.00	475.00	493.00	327.00	303.00	307.00	294.00	284.00	277.00	277.00	277.00	277.00	289.00	329.00	329.00	308.00	286.00	289.00	304.00	319.00	326.00	309.00	313.00	331.00	324.00	309.00	311.00	310.00	319.00	334.00	372.00	375.00	366.00	354.00	319.00	317.00	319.00	327.00	320.00	316.00	319.00	322.00	330.00	335.00	327.00	308.00	311.00	309.00	306.00	304.00	304.00	305.00	321.00	334.00	352.00	367.00	376.00	381.00	384.00	388.00	399.00	403.00	407.00	401.00	391.00	384.00	352.00	348.00	344.00	346.00	371.00	373.00	378.00	392.00	411.00	425.00	446.00	456.00	417.00	398.00	399.00	400.00	397.00	398.00	376.00	346.00	363.00	346.00	339.00	333.00	345.00	337.00	322.00	314.00	303.00	298.00	304.00	308.00	309.00	307.00	315.00	327.00	338.00	352.00
230.00	226.00	224.00	222.00	218.00	214.00	212.00	211.00	209.00	209.00	210.00	209.00	212.00	213.00	211.00	212.00	213.00	212.00	215.00	215.00	223.00	229.00	236.00	239.00	239.00	257.00	261.00	259.00	252.00	249.00	257.00	257.00	255.00	271.00	298.00	302.00	254.00	220.00	193.00	189.00	189.00	189.00	189.00	195.00	194.00	196.00	190.00	189.00	189.00	195.00	194.00	189.00	189.00	189.00	189.00	189.00	189.00	189.00	189.00	189.00	189.00	189.00	189.00	189.00	190.00	205.00	204.00	198.00	199.00	199.00	207.00	212.00	211.00	213.00	211.00	208.00	207.00	210.00	212.00	216.00	222.00	219.00	214.00	202.00	200.00	200.00	206.00	221.00	251.00	254.00	259.00	267.00	259.00	274.00	302.00	326.00	337.00	348.00	346.00	354.00	364.00	367.00	361.00	360.00	359.00	377.00	350.00	351.00	346.00	341.00	344.00	339.00	333.00	348.00	356.00	369.00	388.00	402.00	432.00	434.00	437.00	449.00	462.00	491.00	496.00	498.00	502.00	504.00	507.00	505.00	501.00	495.00	504.00	500.00	489.00	489.00	487.00	489.00	490.00	488.00	483.00	490.00	495.00	495.00	507.00	509.00	480.00	480.00	473.00	445.00	483.00	459.00	441.00	436.00	421.00	376.00	371.00	390.00	361.00	351.00	325.00	297.00	287.00	292.00	285.00	282.00	282.00	287.00	295.00	297.00	301.00	305.00	328.00	354.00	358.00	367.00	351.00	356.00	342.00	330.00	325.00	318.00	338.00	343.00	353.00	353.00	340.00	328.00	319.00	319.00	316.00	346.00	371.00	380.00	377.00	366.00	354.00	330.00	322.00	318.00	316.00	315.00	308.00	305.00	308.00	312.00	329.00	364.00	387.00	384.00	389.00	394.00	399.00	415.00	414.00	410.00	404.00	397.00	387.00	379.00	370.00	353.00	335.00	333.00	334.00	337.00	347.00	390.00	409.00	420.00	423.00	413.00	415.00	388.00	350.00	347.00	341.00	346.00	359.00	359.00	335.00	337.00	345.00	350.00	335.00	322.00	317.00	312.00	312.00	313.00	307.00	304.00	304.00	330.00	338.00	348.00
230.00	226.00	224.00	222.00	218.00	214.00	212.00	211.00	209.00	209.00	210.00	209.00	212.00	213.00	211.00	212.00	213.00	212.00	215.00	215.00	223.00	229.00	236.00	239.00	239.00	257.00	261.00	259.00	252.00	249.00	257.00	257.00	255.00	271.00	298.00	302.00	254.00	220.00	193.00	189.00	189.00	189.00	189.00	195.00	194.00	196.00	190.00	189.00	189.00	195.00	194.00	189.00	189.00	189.00	189.00	189.00	189.00	189.00	189.00	189.00	189.00	189.00	189.00	189.00	190.00	205.00	204.00	198.00	199.00	199.00	207.00	212.00	211.00	213.00	211.00	208.00	207.00	210.00	212.00	216.00	222.00	219.00	214.00	202.00	200.00	200.00	206.00	221.00	251.00	254.00	259.00	267.00	259.00	274.00	302.00	326.00	337.00	348.00	346.00	354.00	364.00	367.00	361.00	360.00	359.00	377.00	350.00	351.00	346.00	341.00	344.00	339.00	333.00	348.00	356.00	369.00	388.00	402.00	432.00	434.00	437.00	449.00	462.00	491.00	496.00	498.00	502.00	504.00	507.00	505.00	501.00	495.00	504.00	500.00	489.00	489.00	487.00	489.00	490.00	488.00	483.00	490.00	495.00	495.00	507.00	509.00	480.00	480.00	473.00	445.00	483.00	459.00	441.00	436.00	421.00	376.00	371.00	390.00	361.00	351.00	325.00	297.00	287.00	292.00	285.00	282.00	282.00	287.00	295.00	297.00	301.00	305.00	328.00	354.00	358.00	367.00	351.00	356.00	342.00	330.00	325.00	318.00	338.00	343.00	353.00	353.00	340.00	328.00	319.00	319.00	316.00	346.00	371.00	380.00	377.00	366.00	354.00	330.00	322.00	318.00	316.00	315.00	308.00	305.00	308.00	312.00	329.00	364.00	387.00	384.00	389.00	394.00	399.00	415.00	414.00	410.00	404.00	397.00	387.00	379.00	370.00	353.00	335.00	333.00	334.00	337.00	347.00	390.00	409.00	420.00	423.00	413.00	415.00	388.00	350.00	347.00	341.00	346.00	359.00	359.00	335.00	337.00	345.00	350.00	335.00	322.00	317.00	312.00	312.00	313.00	307.00	304.00	304.00	330.00	338.00	348.00
234.00	231.00	225.00	223.00	218.00	215.00	214.00	212.00	209.00	209.00	209.00	210.00	212.00	213.00	213.00	213.00	216.00	215.00	215.00	217.00	222.00	230.00	235.00	241.00	240.00	258.00	264.00	264.00	256.00	254.00	257.00	259.00	261.00	268.00	320.00	303.00	247.00	221.00	198.00	192.00	189.00	189.00	189.00	191.00	199.00	198.00	189.00	189.00	189.00	194.00	189.00	189.00	189.00	189.00	189.00	189.00	189.00	189.00	189.00	189.00	189.00	189.00	189.00	189.00	190.00	197.00	203.00	201.00	199.00	199.00	205.00	197.00	193.00	198.00	202.00	208.00	209.00	214.00	216.00	219.00	223.00	220.00	213.00	200.00	200.00	200.00	204.00	219.00	252.00	254.00	260.00	262.00	263.00	292.00	313.00	329.00	337.00	347.00	347.00	361.00	367.00	363.00	364.00	372.00	370.00	354.00	347.00	353.00	348.00	342.00	341.00	339.00	338.00	342.00	360.00	362.00	355.00	357.00	381.00	415.00	433.00	457.00	467.00	488.00	490.00	494.00	500.00	511.00	515.00	513.00	515.00	510.00	511.00	507.00	502.00	497.00	493.00	499.00	499.00	495.00	495.00	490.00	489.00	484.00	484.00	500.00	511.00	501.00	476.00	451.00	489.00	495.00	484.00	468.00	437.00	392.00	375.00	381.00	377.00	430.00	380.00	352.00	320.00	310.00	302.00	309.00	300.00	297.00	310.00	311.00	326.00	330.00	326.00	345.00	359.00	367.00	368.00	361.00	371.00	367.00	355.00	343.00	347.00	347.00	349.00	349.00	335.00	333.00	328.00	319.00	320.00	362.00	384.00	400.00	403.00	389.00	352.00	331.00	325.00	316.00	315.00	315.00	314.00	309.00	307.00	306.00	315.00	342.00	386.00	394.00	401.00	401.00	406.00	421.00	419.00	416.00	411.00	402.00	395.00	389.00	380.00	373.00	346.00	337.00	339.00	337.00	334.00	337.00	357.00	367.00	358.00	364.00	349.00	337.00	335.00	334.00	333.00	339.00	350.00	342.00	335.00	347.00	358.00	359.00	340.00	329.00	326.00	327.00	321.00	312.00	307.00	303.00	305.00	334.00	343.00	353.00
234.00	231.00	225.00	223.00	218.00	215.00	214.00	212.00	209.00	209.00	209.00	210.00	212.00	213.00	213.00	213.00	216.00	215.00	215.00	217.00	222.00	230.00	235.00	241.00	240.00	258.00	264.00	264.00	256.00	254.00	257.00	259.00	261.00	268.00	320.00	303.00	247.00	221.00	198.00	192.00	189.00	189.00	189.00	191.00	199.00	198.00	189.00	189.00	189.00	194.00	189.00	189.00	189.00	189.00	189.00	189.00	189.00	189.00	189.00	189.00	189.00	189.00	189.00	189.00	190.00	197.00	203.00	201.00	199.00	199.00	205.00	197.00	193.00	198.00	202.00	208.00	209.00	214.00	216.00	219.00	223.00	220.00	213.00	200.00	200.00	200.00	204.00	219.00	252.00	254.00	260.00	262.00	263.00	292.00	313.00	329.00	337.00	347.00	347.00	361.00	367.00	363.00	364.00	372.00	370.00	354.00	347.00	353.00	348.00	342.00	341.00	339.00	338.00	342.00	360.00	362.00	355.00	357.00	381.00	415.00	433.00	457.00	467.00	488.00	490.00	494.00	500.00	511.00	515.00	513.00	515.00	510.00	511.00	507.00	502.00	497.00	493.00	499.00	499.00	495.00	495.00	490.00	489.00	484.00	484.00	500.00	511.00	501.00	476.00	451.00	489.00	495.00	484.00	468.00	437.00	392.00	375.00	381.00	377.00	430.00	380.00	352.00	320.00	310.00	302.00	309.00	300.00	297.00	310.00	311.00	326.00	330.00	326.00	345.00	359.00	367.00	368.00	361.00	371.00	367.00	355.00	343.00	347.00	347.00	349.00	349.00	335.00	333.00	328.00	319.00	320.00	362.00	384.00	400.00	403.00	389.00	352.00	331.00	325.00	316.00	315.00	315.00	314.00	309.00	307.00	306.00	315.00	342.00	386.00	394.00	401.00	401.00	406.00	421.00	419.00	416.00	411.00	402.00	395.00	389.00	380.00	373.00	346.00	337.00	339.00	337.00	334.00	337.00	357.00	367.00	358.00	364.00	349.00	337.00	335.00	334.00	333.00	339.00	350.00	342.00	335.00	347.00	358.00	359.00	340.00	329.00	326.00	327.00	321.00	312.00	307.00	303.00	305.00	334.00	343.00	353.00
240.00	235.00	229.00	226.00	222.00	219.00	220.00	219.00	214.00	216.00	216.00	216.00	216.00	215.00	215.00	214.00	212.00	212.00	212.00	216.00	222.00	226.00	228.00	232.00	237.00	261.00	258.00	254.00	258.00	261.00	262.00	266.00	267.00	268.00	336.00	295.00	242.00	224.00	202.00	191.00	189.00	189.00	189.00	189.00	192.00	189.00	189.00	189.00	189.00	189.00	189.00	189.00	189.00	189.00	189.00	189.00	189.00	189.00	189.00	189.00	189.00	189.00	189.00	190.00	195.00	200.00	198.00	196.00	195.00	195.00	198.00	193.00	193.00	193.00	194.00	193.00	194.00	199.00	208.00	217.00	223.00	217.00	212.00	201.00	200.00	200.00	203.00	218.00	256.00	262.00	268.00	265.00	272.00	292.00	315.00	334.00	334.00	343.00	353.00	359.00	363.00	361.00	376.00	374.00	362.00	351.00	349.00	342.00	339.00	335.00	328.00	329.00	335.00	330.00	365.00	376.00	371.00	363.00	359.00	419.00	420.00	431.00	438.00	437.00	443.00	457.00	478.00	499.00	513.00	509.00	499.00	500.00	504.00	506.00	506.00	503.00	505.00	512.00	505.00	506.00	507.00	495.00	486.00	481.00	484.00	498.00	486.00	486.00	500.00	519.00	461.00	516.00	535.00	532.00	504.00	422.00	401.00	381.00	461.00	473.00	461.00	460.00	436.00	387.00	318.00	293.00	301.00	310.00	350.00	349.00	364.00	378.00	368.00	350.00	341.00	339.00	354.00	381.00	389.00	385.00	373.00	355.00	313.00	305.00	313.00	343.00	355.00	348.00	338.00	335.00	343.00	331.00	325.00	318.00	320.00	348.00	340.00	327.00	327.00	322.00	315.00	307.00	304.00	304.00	305.00	304.00	304.00	308.00	325.00	338.00	366.00	373.00	370.00	377.00	386.00	403.00	413.00	408.00	392.00	392.00	400.00	402.00	384.00	378.00	372.00	375.00	369.00	357.00	351.00	343.00	338.00	338.00	342.00	347.00	348.00	346.00	347.00	349.00	352.00	367.00	379.00	377.00	378.00	372.00	346.00	331.00	330.00	323.00	321.00	326.00	320.00	315.00	309.00	335.00	349.00	367.00
240.00	235.00	229.00	226.00	222.00	219.00	220.00	219.00	214.00	216.00	216.00	216.00	216.00	215.00	215.00	214.00	212.00	212.00	212.00	216.00	222.00	226.00	228.00	232.00	237.00	261.00	258.00	254.00	258.00	261.00	262.00	266.00	267.00	268.00	336.00	295.00	242.00	224.00	202.00	191.00	189.00	189.00	189.00	189.00	192.00	189.00	189.00	189.00	189.00	189.00	189.00	189.00	189.00	189.00	189.00	189.00	189.00	189.00	189.00	189.00	189.00	189.00	189.00	190.00	195.00	200.00	198.00	196.00	195.00	195.00	198.00	193.00	193.00	193.00	194.00	193.00	194.00	199.00	208.00	217.00	223.00	217.00	212.00	201.00	200.00	200.00	203.00	218.00	256.00	262.00	268.00	265.00	272.00	292.00	315.00	334.00	334.00	343.00	353.00	359.00	363.00	361.00	376.00	374.00	362.00	351.00	349.00	342.00	339.00	335.00	328.00	329.00	335.00	330.00	365.00	376.00	371.00	363.00	359.00	419.00	420.00	431.00	438.00	437.00	443.00	457.00	478.00	499.00	513.00	509.00	499.00	500.00	504.00	506.00	506.00	503.00	505.00	512.00	505.00	506.00	507.00	495.00	486.00	481.00	484.00	498.00	486.00	486.00	500.00	519.00	461.00	516.00	535.00	532.00	504.00	422.00	401.00	381.00	461.00	473.00	461.00	460.00	436.00	387.00	318.00	293.00	301.00	310.00	350.00	349.00	364.00	378.00	368.00	350.00	341.00	339.00	354.00	381.00	389.00	385.00	373.00	355.00	313.00	305.00	313.00	343.00	355.00	348.00	338.00	335.00	343.00	331.00	325.00	318.00	320.00	348.00	340.00	327.00	327.00	322.00	315.00	307.00	304.00	304.00	305.00	304.00	304.00	308.00	325.00	338.00	366.00	373.00	370.00	377.00	386.00	403.00	413.00	408.00	392.00	392.00	400.00	402.00	384.00	378.00	372.00	375.00	369.00	357.00	351.00	343.00	338.00	338.00	342.00	347.00	348.00	346.00	347.00	349.00	352.00	367.00	379.00	377.00	378.00	372.00	346.00	331.00	330.00	323.00	321.00	326.00	320.00	315.00	309.00	335.00	349.00	367.00
244.00	240.00	232.00	229.00	226.00	223.00	223.00	223.00	219.00	222.00	222.00	217.00	216.00	215.00	216.00	215.00	212.00	212.00	212.00	218.00	222.00	227.00	229.00	234.00	239.00	263.00	255.00	255.00	259.00	265.00	266.00	269.00	269.00	271.00	340.00	285.00	246.00	226.00	206.00	193.00	189.00	189.00	189.00	189.00	189.00	189.00	191.00	189.00	189.00	189.00	189.00	189.00	189.00	189.00	189.00	189.00	189.00	189.00	189.00	189.00	189.00	189.00	189.00	189.00	190.00	205.00	199.00	196.00	195.00	197.00	198.00	193.00	193.00	193.00	193.00	193.00	196.00	204.00	210.00	214.00	220.00	218.00	210.00	200.00	200.00	200.00	205.00	227.00	260.00	268.00	272.00	268.00	271.00	290.00	308.00	330.00	337.00	340.00	349.00	358.00	363.00	361.00	378.00	379.00	364.00	351.00	350.00	342.00	335.00	330.00	324.00	327.00	338.00	329.00	366.00	365.00	365.00	360.00	357.00	366.00	377.00	398.00	423.00	447.00	454.00	462.00	461.00	462.00	472.00	479.00	485.00	494.00	516.00	520.00	522.00	523.00	523.00	519.00	511.00	508.00	504.00	506.00	489.00	481.00	484.00	503.00	490.00	488.00	484.00	498.00	466.00	494.00	534.00	537.00	519.00	441.00	400.00	382.00	453.00	467.00	448.00	443.00	440.00	441.00	362.00	296.00	292.00	293.00	362.00	362.00	352.00	362.00	366.00	352.00	346.00	337.00	316.00	336.00	338.00	332.00	323.00	319.00	303.00	305.00	316.00	324.00	327.00	331.00	329.00	324.00	323.00	338.00	334.00	327.00	328.00	343.00	344.00	321.00	317.00	310.00	317.00	320.00	310.00	304.00	304.00	304.00	304.00	304.00	320.00	320.00	337.00	361.00	361.00	356.00	358.00	370.00	384.00	391.00	397.00	396.00	401.00	405.00	406.00	400.00	392.00	380.00	374.00	367.00	369.00	373.00	368.00	355.00	355.00	354.00	354.00	355.00	361.00	365.00	372.00	383.00	391.00	389.00	388.00	379.00	355.00	338.00	339.00	328.00	325.00	334.00	332.00	322.00	319.00	344.00	359.00	368.00
244.00	240.00	232.00	229.00	226.00	223.00	223.00	223.00	219.00	222.00	222.00	217.00	216.00	215.00	216.00	215.00	212.00	212.00	212.00	218.00	222.00	227.00	229.00	234.00	239.00	263.00	255.00	255.00	259.00	265.00	266.00	269.00	269.00	271.00	340.00	285.00	246.00	226.00	206.00	193.00	189.00	189.00	189.00	189.00	189.00	189.00	191.00	189.00	189.00	189.00	189.00	189.00	189.00	189.00	189.00	189.00	189.00	189.00	189.00	189.00	189.00	189.00	189.00	189.00	190.00	205.00	199.00	196.00	195.00	197.00	198.00	193.00	193.00	193.00	193.00	193.00	196.00	204.00	210.00	214.00	220.00	218.00	210.00	200.00	200.00	200.00	205.00	227.00	260.00	268.00	272.00	268.00	271.00	290.00	308.00	330.00	337.00	340.00	349.00	358.00	363.00	361.00	378.00	379.00	364.00	351.00	350.00	342.00	335.00	330.00	324.00	327.00	338.00	329.00	366.00	365.00	365.00	360.00	357.00	366.00	377.00	398.00	423.00	447.00	454.00	462.00	461.00	462.00	472.00	479.00	485.00	494.00	516.00	520.00	522.00	523.00	523.00	519.00	511.00	508.00	504.00	506.00	489.00	481.00	484.00	503.00	490.00	488.00	484.00	498.00	466.00	494.00	534.00	537.00	519.00	441.00	400.00	382.00	453.00	467.00	448.00	443.00	440.00	441.00	362.00	296.00	292.00	293.00	362.00	362.00	352.00	362.00	366.00	352.00	346.00	337.00	316.00	336.00	338.00	332.00	323.00	319.00	303.00	305.00	316.00	324.00	327.00	331.00	329.00	324.00	323.00	338.00	334.00	327.00	328.00	343.00	344.00	321.00	317.00	310.00	317.00	320.00	310.00	304.00	304.00	304.00	304.00	304.00	320.00	320.00	337.00	361.00	361.00	356.00	358.00	370.00	384.00	391.00	397.00	396.00	401.00	405.00	406.00	400.00	392.00	380.00	374.00	367.00	369.00	373.00	368.00	355.00	355.00	354.00	354.00	355.00	361.00	365.00	372.00	383.00	391.00	389.00	388.00	379.00	355.00	338.00	339.00	328.00	325.00	334.00	332.00	322.00	319.00	344.00	359.00	368.00
263.00	253.00	243.00	237.00	234.00	235.00	237.00	231.00	228.00	227.00	226.00	226.00	221.00	216.00	212.00	212.00	212.00	212.00	212.00	215.00	221.00	222.00	230.00	234.00	246.00	258.00	258.00	262.00	268.00	271.00	270.00	269.00	271.00	271.00	320.00	280.00	254.00	232.00	205.00	196.00	189.00	189.00	189.00	189.00	189.00	189.00	195.00	189.00	189.00	189.00	189.00	189.00	189.00	189.00	189.00	189.00	189.00	189.00	189.00	189.00	189.00	189.00	192.00	194.00	196.00	200.00	197.00	194.00	194.00	194.00	198.00	193.00	193.00	193.00	193.00	193.00	193.00	198.00	210.00	209.00	211.00	214.00	203.00	201.00	200.00	200.00	205.00	237.00	265.00	277.00	276.00	273.00	284.00	297.00	302.00	307.00	320.00	337.00	347.00	354.00	353.00	366.00	363.00	377.00	385.00	352.00	349.00	349.00	344.00	336.00	325.00	325.00	321.00	349.00	405.00	398.00	376.00	356.00	353.00	350.00	356.00	366.00	373.00	398.00	428.00	461.00	489.00	499.00	490.00	484.00	492.00	504.00	499.00	500.00	504.00	495.00	482.00	514.00	515.00	512.00	516.00	515.00	490.00	485.00	504.00	483.00	510.00	508.00	496.00	489.00	519.00	509.00	474.00	526.00	542.00	474.00	411.00	384.00	404.00	486.00	454.00	438.00	436.00	438.00	431.00	379.00	401.00	405.00	301.00	293.00	305.00	320.00	325.00	317.00	319.00	317.00	313.00	300.00	302.00	309.00	307.00	300.00	299.00	307.00	315.00	318.00	331.00	342.00	353.00	352.00	344.00	326.00	329.00	338.00	334.00	353.00	364.00	348.00	335.00	315.00	314.00	323.00	330.00	321.00	308.00	304.00	304.00	304.00	304.00	305.00	307.00	305.00	304.00	322.00	323.00	337.00	360.00	373.00	384.00	391.00	394.00	400.00	416.00	418.00	419.00	417.00	415.00	417.00	410.00	406.00	403.00	392.00	387.00	388.00	389.00	389.00	397.00	401.00	404.00	412.00	415.00	408.00	403.00	385.00	362.00	357.00	350.00	344.00	322.00	335.00	341.00	347.00	339.00	350.00	360.00	366.00
263.00	253.00	243.00	237.00	234.00	235.00	237.00	231.00	228.00	227.00	226.00	226.00	221.00	216.00	212.00	212.00	212.00	212.00	212.00	215.00	221.00	222.00	230.00	234.00	246.00	258.00	258.00	262.00	268.00	271.00	270.00	269.00	271.00	271.00	320.00	280.00	254.00	232.00	205.00	196.00	189.00	189.00	189.00	189.00	189.00	189.00	195.00	189.00	189.00	189.00	189.00	189.00	189.00	189.00	189.00	189.00	189.00	189.00	189.00	189.00	189.00	189.00	192.00	194.00	196.00	200.00	197.00	194.00	194.00	194.00	198.00	193.00	193.00	193.00	193.00	193.00	193.00	198.00	210.00	209.00	211.00	214.00	203.00	201.00	200.00	200.00	205.00	237.00	265.00	277.00	276.00	273.00	284.00	297.00	302.00	307.00	320.00	337.00	347.00	354.00	353.00	366.00	363.00	377.00	385.00	352.00	349.00	349.00	344.00	336.00	325.00	325.00	321.00	349.00	405.00	398.00	376.00	356.00	353.00	350.00	356.00	366.00	373.00	398.00	428.00	461.00	489.00	499.00	490.00	484.00	492.00	504.00	499.00	500.00	504.00	495.00	482.00	514.00	515.00	512.00	516.00	515.00	490.00	485.00	504.00	483.00	510.00	508.00	496.00	489.00	519.00	509.00	474.00	526.00	542.00	474.00	411.00	384.00	404.00	486.00	454.00	438.00	436.00	438.00	431.00	379.00	401.00	405.00	301.00	293.00	305.00	320.00	325.00	317.00	319.00	317.00	313.00	300.00	302.00	309.00	307.00	300.00	299.00	307.00	315.00	318.00	331.00	342.00	353.00	352.00	344.00	326.00	329.00	338.00	334.00	353.00	364.00	348.00	335.00	315.00	314.00	323.00	330.00	321.00	308.00	304.00	304.00	304.00	304.00	305.00	307.00	305.00	304.00	322.00	323.00	337.00	360.00	373.00	384.00	391.00	394.00	400.00	416.00	418.00	419.00	417.00	415.00	417.00	410.00	406.00	403.00	392.00	387.00	388.00	389.00	389.00	397.00	401.00	404.00	412.00	415.00	408.00	403.00	385.00	362.00	357.00	350.00	344.00	322.00	335.00	341.00	347.00	339.00	350.00	360.00	366.00
274.00	264.00	248.00	244.00	243.00	240.00	240.00	238.00	234.00	231.00	229.00	227.00	226.00	220.00	212.00	212.00	212.00	212.00	212.00	217.00	219.00	218.00	228.00	234.00	243.00	261.00	264.00	269.00	272.00	274.00	269.00	269.00	267.00	259.00	327.00	297.00	265.00	238.00	204.00	196.00	189.00	189.00	189.00	189.00	189.00	189.00	192.00	189.00	189.00	189.00	189.00	189.00	189.00	189.00	189.00	189.00	189.00	189.00	189.00	189.00	189.00	189.00	191.00	195.00	196.00	198.00	193.00	193.00	193.00	193.00	194.00	193.00	193.00	193.00	193.00	193.00	193.00	197.00	208.00	208.00	207.00	206.00	201.00	201.00	200.00	200.00	207.00	241.00	268.00	278.00	277.00	273.00	279.00	295.00	303.00	305.00	314.00	341.00	345.00	353.00	353.00	351.00	359.00	363.00	374.00	353.00	350.00	345.00	339.00	334.00	332.00	330.00	319.00	347.00	358.00	355.00	341.00	336.00	332.00	338.00	344.00	352.00	367.00	371.00	379.00	418.00	449.00	468.00	484.00	487.00	510.00	523.00	522.00	520.00	515.00	507.00	495.00	480.00	490.00	525.00	536.00	513.00	520.00	494.00	485.00	488.00	503.00	508.00	504.00	503.00	494.00	513.00	499.00	479.00	536.00	494.00	436.00	401.00	395.00	508.00	473.00	448.00	441.00	449.00	440.00	385.00	425.00	447.00	389.00	343.00	320.00	310.00	298.00	298.00	303.00	314.00	299.00	300.00	302.00	308.00	315.00	308.00	306.00	322.00	325.00	332.00	362.00	372.00	375.00	366.00	359.00	340.00	338.00	341.00	328.00	347.00	358.00	332.00	331.00	325.00	306.00	305.00	313.00	318.00	304.00	304.00	305.00	304.00	304.00	304.00	304.00	304.00	304.00	315.00	310.00	322.00	356.00	374.00	389.00	404.00	402.00	401.00	412.00	412.00	413.00	415.00	422.00	437.00	431.00	425.00	421.00	411.00	404.00	404.00	405.00	404.00	415.00	419.00	419.00	421.00	419.00	410.00	398.00	376.00	348.00	335.00	333.00	331.00	332.00	347.00	349.00	348.00	344.00	351.00	361.00	362.00
274.00	264.00	248.00	244.00	243.00	240.00	240.00	238.00	234.00	231.00	229.00	227.00	226.00	220.00	212.00	212.00	212.00	212.00	212.00	217.00	219.00	218.00	228.00	234.00	243.00	261.00	264.00	269.00	272.00	274.00	269.00	269.00	267.00	259.00	327.00	297.00	265.00	238.00	204.00	196.00	189.00	189.00	189.00	189.00	189.00	189.00	192.00	189.00	189.00	189.00	189.00	189.00	189.00	189.00	189.00	189.00	189.00	189.00	189.00	189.00	189.00	189.00	191.00	195.00	196.00	198.00	193.00	193.00	193.00	193.00	194.00	193.00	193.00	193.00	193.00	193.00	193.00	197.00	208.00	208.00	207.00	206.00	201.00	201.00	200.00	200.00	207.00	241.00	268.00	278.00	277.00	273.00	279.00	295.00	303.00	305.00	314.00	341.00	345.00	353.00	353.00	351.00	359.00	363.00	374.00	353.00	350.00	345.00	339.00	334.00	332.00	330.00	319.00	347.00	358.00	355.00	341.00	336.00	332.00	338.00	344.00	352.00	367.00	371.00	379.00	418.00	449.00	468.00	484.00	487.00	510.00	523.00	522.00	520.00	515.00	507.00	495.00	480.00	490.00	525.00	536.00	513.00	520.00	494.00	485.00	488.00	503.00	508.00	504.00	503.00	494.00	513.00	499.00	479.00	536.00	494.00	436.00	401.00	395.00	508.00	473.00	448.00	441.00	449.00	440.00	385.00	425.00	447.00	389.00	343.00	320.00	310.00	298.00	298.00	303.00	314.00	299.00	300.00	302.00	308.00	315.00	308.00	306.00	322.00	325.00	332.00	362.00	372.00	375.00	366.00	359.00	340.00	338.00	341.00	328.00	347.00	358.00	332.00	331.00	325.00	306.00	305.00	313.00	318.00	304.00	304.00	305.00	304.00	304.00	304.00	304.00	304.00	304.00	315.00	310.00	322.00	356.00	374.00	389.00	404.00	402.00	401.00	412.00	412.00	413.00	415.00	422.00	437.00	431.00	425.00	421.00	411.00	404.00	404.00	405.00	404.00	415.00	419.00	419.00	421.00	419.00	410.00	398.00	376.00	348.00	335.00	333.00	331.00	332.00	347.00	349.00	348.00	344.00	351.00	361.00	362.00
286.00	276.00	256.00	252.00	250.00	248.00	248.00	243.00	236.00	233.00	232.00	230.00	228.00	218.00	212.00	212.00	212.00	212.00	212.00	214.00	221.00	221.00	224.00	239.00	245.00	268.00	271.00	275.00	280.00	273.00	268.00	264.00	259.00	254.00	330.00	320.00	274.00	248.00	211.00	199.00	189.00	189.00	189.00	189.00	189.00	189.00	190.00	189.00	189.00	189.00	189.00	189.00	189.00	189.00	189.00	189.00	189.00	189.00	189.00	189.00	189.00	189.00	193.00	198.00	194.00	200.00	195.00	193.00	193.00	193.00	193.00	193.00	193.00	193.00	193.00	193.00	193.00	193.00	200.00	203.00	202.00	200.00	200.00	202.00	201.00	201.00	212.00	246.00	266.00	279.00	279.00	275.00	271.00	292.00	306.00	309.00	309.00	340.00	348.00	352.00	354.00	353.00	346.00	343.00	344.00	348.00	346.00	346.00	338.00	330.00	332.00	337.00	335.00	319.00	334.00	333.00	328.00	328.00	327.00	333.00	342.00	348.00	366.00	381.00	383.00	388.00	396.00	399.00	430.00	452.00	476.00	499.00	522.00	531.00	534.00	522.00	506.00	499.00	490.00	477.00	528.00	507.00	501.00	515.00	498.00	501.00	485.00	501.00	509.00	510.00	492.00	507.00	521.00	499.00	486.00	516.00	477.00	426.00	395.00	518.00	479.00	456.00	445.00	458.00	455.00	387.00	415.00	490.00	480.00	468.00	431.00	382.00	335.00	324.00	312.00	300.00	299.00	299.00	303.00	311.00	307.00	301.00	310.00	326.00	332.00	356.00	381.00	387.00	391.00	389.00	388.00	356.00	352.00	352.00	340.00	327.00	352.00	340.00	323.00	325.00	304.00	308.00	312.00	328.00	305.00	304.00	304.00	304.00	304.00	304.00	304.00	304.00	304.00	309.00	304.00	311.00	328.00	345.00	382.00	390.00	401.00	408.00	415.00	412.00	413.00	418.00	425.00	452.00	452.00	446.00	439.00	425.00	419.00	413.00	409.00	407.00	411.00	420.00	423.00	409.00	408.00	397.00	374.00	361.00	331.00	334.00	337.00	340.00	344.00	360.00	362.00	363.00	348.00	352.00	363.00	367.00
299.00	287.00	268.00	262.00	259.00	257.00	254.00	250.00	239.00	236.00	233.00	227.00	226.00	216.00	212.00	212.00	214.00	213.00	212.00	216.00	224.00	227.00	230.00	233.00	244.00	276.00	279.00	283.00	287.00	271.00	264.00	258.00	256.00	254.00	285.00	317.00	295.00	255.00	216.00	195.00	189.00	189.00	189.00	189.00	189.00	189.00	189.00	189.00	189.00	189.00	189.00	189.00	189.00	189.00	189.00	189.00	189.00	189.00	189.00	189.00	189.00	189.00	189.00	193.00	192.00	203.00	196.00	193.00	193.00	193.00	193.00	193.00	193.00	193.00	193.00	193.00	193.00	193.00	195.00	197.00	196.00	194.00	194.00	199.00	203.00	203.00	218.00	248.00	268.00	279.00	283.00	276.00	265.00	275.00	302.00	308.00	311.00	323.00	337.00	347.00	351.00	351.00	345.00	343.00	342.00	341.00	338.00	335.00	336.00	333.00	330.00	332.00	332.00	324.00	340.00	331.00	317.00	322.00	329.00	334.00	340.00	349.00	367.00	378.00	388.00	399.00	411.00	408.00	410.00	411.00	406.00	410.00	456.00	475.00	486.00	495.00	508.00	511.00	502.00	488.00	479.00	528.00	513.00	509.00	521.00	489.00	486.00	484.00	502.00	506.00	514.00	487.00	516.00	521.00	507.00	532.00	503.00	438.00	404.00	516.00	498.00	471.00	448.00	444.00	483.00	427.00	464.00	496.00	494.00	494.00	481.00	434.00	409.00	380.00	348.00	323.00	299.00	299.00	299.00	300.00	299.00	301.00	304.00	318.00	343.00	373.00	392.00	403.00	412.00	414.00	410.00	381.00	366.00	358.00	365.00	342.00	317.00	363.00	349.00	331.00	307.00	305.00	314.00	326.00	305.00	304.00	304.00	304.00	304.00	304.00	304.00	304.00	304.00	304.00	304.00	305.00	313.00	327.00	360.00	390.00	400.00	407.00	415.00	416.00	416.00	424.00	435.00	454.00	466.00	461.00	455.00	441.00	432.00	424.00	418.00	412.00	403.00	413.00	414.00	390.00	382.00	370.00	363.00	357.00	335.00	332.00	346.00	362.00	347.00	361.00	365.00	369.00	352.00	354.00	363.00	368.00
314.00	303.00	282.00	278.00	273.00	268.00	264.00	254.00	242.00	238.00	233.00	222.00	216.00	212.00	212.00	214.00	218.00	216.00	217.00	221.00	226.00	231.00	232.00	237.00	248.00	284.00	286.00	290.00	288.00	268.00	259.00	257.00	258.00	258.00	257.00	282.00	288.00	262.00	215.00	199.00	189.00	189.00	189.00	189.00	189.00	189.00	189.00	189.00	189.00	189.00	189.00	189.00	189.00	189.00	189.00	189.00	189.00	189.00	189.00	189.00	189.00	189.00	189.00	192.00	193.00	201.00	199.00	193.00	193.00	193.00	193.00	193.00	193.00	193.00	193.00	193.00	193.00	193.00	193.00	193.00	193.00	193.00	193.00	200.00	202.00	206.00	220.00	249.00	266.00	276.00	286.00	282.00	265.00	266.00	287.00	304.00	312.00	317.00	329.00	345.00	348.00	347.00	342.00	341.00	339.00	338.00	333.00	330.00	330.00	330.00	331.00	332.00	332.00	323.00	336.00	328.00	313.00	321.00	327.00	338.00	337.00	345.00	347.00	366.00	380.00	401.00	409.00	406.00	418.00	425.00	418.00	410.00	431.00	430.00	429.00	431.00	453.00	511.00	516.00	506.00	489.00	490.00	531.00	510.00	524.00	489.00	510.00	485.00	484.00	511.00	521.00	508.00	494.00	525.00	524.00	518.00	501.00	466.00	431.00	458.00	513.00	489.00	455.00	446.00	487.00	471.00	464.00	473.00	507.00	466.00	430.00	439.00	465.00	481.00	409.00	374.00	316.00	306.00	303.00	310.00	313.00	320.00	302.00	316.00	336.00	345.00	363.00	385.00	401.00	402.00	392.00	366.00	351.00	359.00	368.00	376.00	351.00	312.00	320.00	321.00	305.00	306.00	316.00	319.00	304.00	304.00	304.00	304.00	304.00	304.00	304.00	304.00	304.00	304.00	304.00	304.00	305.00	323.00	335.00	379.00	407.00	417.00	400.00	405.00	411.00	421.00	436.00	447.00	472.00	469.00	465.00	451.00	442.00	435.00	430.00	425.00	409.00	403.00	403.00	388.00	379.00	375.00	365.00	358.00	342.00	337.00	359.00	375.00	358.00	369.00	384.00	380.00	356.00	355.00	359.00	370.00
314.00	303.00	282.00	278.00	273.00	268.00	264.00	254.00	242.00	238.00	233.00	222.00	216.00	212.00	212.00	214.00	218.00	216.00	217.00	221.00	226.00	231.00	232.00	237.00	248.00	284.00	286.00	290.00	288.00	268.00	259.00	257.00	258.00	258.00	257.00	282.00	288.00	262.00	215.00	199.00	189.00	189.00	189.00	189.00	189.00	189.00	189.00	189.00	189.00	189.00	189.00	189.00	189.00	189.00	189.00	189.00	189.00	189.00	189.00	189.00	189.00	189.00	189.00	192.00	193.00	201.00	199.00	193.00	193.00	193.00	193.00	193.00	193.00	193.00	193.00	193.00	193.00	193.00	193.00	193.00	193.00	193.00	193.00	200.00	202.00	206.00	220.00	249.00	266.00	276.00	286.00	282.00	265.00	266.00	287.00	304.00	312.00	317.00	329.00	345.00	348.00	347.00	342.00	341.00	339.00	338.00	333.00	330.00	330.00	330.00	331.00	332.00	332.00	323.00	336.00	328.00	313.00	321.00	327.00	338.00	337.00	345.00	347.00	366.00	380.00	401.00	409.00	406.00	418.00	425.00	418.00	410.00	431.00	430.00	429.00	431.00	453.00	511.00	516.00	506.00	489.00	490.00	531.00	510.00	524.00	489.00	510.00	485.00	484.00	511.00	521.00	508.00	494.00	525.00	524.00	518.00	501.00	466.00	431.00	458.00	513.00	489.00	455.00	446.00	487.00	471.00	464.00	473.00	507.00	466.00	430.00	439.00	465.00	481.00	409.00	374.00	316.00	306.00	303.00	310.00	313.00	320.00	302.00	316.00	336.00	345.00	363.00	385.00	401.00	402.00	392.00	366.00	351.00	359.00	368.00	376.00	351.00	312.00	320.00	321.00	305.00	306.00	316.00	319.00	304.00	304.00	304.00	304.00	304.00	304.00	304.00	304.00	304.00	304.00	304.00	304.00	305.00	323.00	335.00	379.00	407.00	417.00	400.00	405.00	411.00	421.00	436.00	447.00	472.00	469.00	465.00	451.00	442.00	435.00	430.00	425.00	409.00	403.00	403.00	388.00	379.00	375.00	365.00	358.00	342.00	337.00	359.00	375.00	358.00	369.00	384.00	380.00	356.00	355.00	359.00	370.00
332.00	317.00	301.00	294.00	287.00	281.00	274.00	256.00	246.00	241.00	234.00	221.00	216.00	212.00	212.00	220.00	218.00	218.00	219.00	225.00	229.00	233.00	236.00	242.00	250.00	279.00	291.00	293.00	289.00	265.00	258.00	258.00	258.00	258.00	253.00	264.00	294.00	268.00	223.00	201.00	189.00	189.00	190.00	189.00	189.00	192.00	189.00	189.00	189.00	189.00	189.00	189.00	189.00	189.00	189.00	189.00	189.00	189.00	189.00	189.00	189.00	189.00	189.00	191.00	191.00	199.00	194.00	193.00	193.00	193.00	193.00	193.00	193.00	193.00	193.00	193.00	193.00	193.00	194.00	193.00	193.00	193.00	193.00	199.00	202.00	206.00	225.00	246.00	265.00	274.00	281.00	284.00	266.00	268.00	271.00	292.00	308.00	317.00	330.00	346.00	348.00	346.00	340.00	338.00	339.00	334.00	331.00	330.00	328.00	327.00	328.00	332.00	333.00	322.00	338.00	334.00	317.00	313.00	319.00	335.00	336.00	340.00	342.00	363.00	371.00	389.00	397.00	398.00	416.00	427.00	414.00	411.00	439.00	438.00	437.00	438.00	447.00	507.00	533.00	510.00	488.00	468.00	527.00	534.00	504.00	509.00	503.00	498.00	481.00	510.00	516.00	525.00	519.00	501.00	522.00	492.00	491.00	486.00	465.00	412.00	463.00	497.00	457.00	447.00	485.00	505.00	482.00	473.00	466.00	427.00	440.00	460.00	488.00	463.00	440.00	401.00	368.00	334.00	331.00	334.00	340.00	346.00	310.00	311.00	312.00	316.00	329.00	327.00	328.00	326.00	321.00	319.00	333.00	346.00	356.00	386.00	387.00	357.00	338.00	305.00	304.00	304.00	304.00	304.00	305.00	305.00	304.00	304.00	304.00	304.00	304.00	304.00	304.00	304.00	304.00	304.00	306.00	320.00	333.00	326.00	369.00	402.00	394.00	393.00	403.00	417.00	437.00	451.00	458.00	460.00	458.00	453.00	449.00	445.00	442.00	438.00	419.00	414.00	407.00	393.00	381.00	374.00	363.00	352.00	338.00	348.00	374.00	380.00	373.00	387.00	388.00	382.00	365.00	352.00	361.00	377.00
346.00	332.00	322.00	311.00	302.00	293.00	284.00	260.00	251.00	244.00	236.00	220.00	214.00	212.00	212.00	216.00	220.00	221.00	222.00	227.00	230.00	234.00	241.00	248.00	257.00	285.00	293.00	290.00	285.00	261.00	257.00	256.00	256.00	260.00	256.00	249.00	268.00	244.00	223.00	208.00	192.00	193.00	189.00	189.00	189.00	189.00	189.00	189.00	189.00	189.00	189.00	189.00	189.00	189.00	189.00	189.00	189.00	189.00	189.00	190.00	189.00	193.00	192.00	189.00	194.00	202.00	194.00	193.00	193.00	193.00	193.00	193.00	193.00	193.00	193.00	193.00	193.00	193.00	193.00	193.00	193.00	193.00	193.00	198.00	201.00	207.00	226.00	240.00	266.00	272.00	275.00	281.00	262.00	269.00	271.00	279.00	295.00	317.00	334.00	352.00	351.00	343.00	341.00	340.00	338.00	330.00	326.00	325.00	328.00	329.00	325.00	322.00	326.00	324.00	330.00	324.00	315.00	313.00	315.00	326.00	334.00	338.00	338.00	359.00	369.00	375.00	381.00	386.00	405.00	420.00	403.00	403.00	437.00	443.00	471.00	482.00	494.00	525.00	536.00	529.00	478.00	465.00	507.00	549.00	520.00	528.00	484.00	514.00	488.00	486.00	520.00	534.00	525.00	516.00	493.00	482.00	482.00	509.00	494.00	419.00	417.00	472.00	466.00	448.00	489.00	501.00	484.00	473.00	428.00	431.00	462.00	486.00	483.00	449.00	403.00	404.00	430.00	390.00	373.00	372.00	377.00	376.00	322.00	311.00	319.00	307.00	312.00	309.00	317.00	324.00	321.00	317.00	327.00	338.00	365.00	404.00	405.00	364.00	342.00	314.00	304.00	304.00	304.00	304.00	323.00	314.00	304.00	304.00	304.00	304.00	304.00	304.00	304.00	304.00	304.00	304.00	304.00	305.00	349.00	341.00	318.00	325.00	375.00	376.00	393.00	405.00	424.00	452.00	469.00	470.00	469.00	464.00	460.00	453.00	449.00	443.00	425.00	420.00	413.00	395.00	384.00	368.00	365.00	355.00	341.00	366.00	387.00	392.00	384.00	373.00	386.00	382.00	366.00	362.00	368.00	371.00
361.00	351.00	343.00	329.00	317.00	306.00	289.00	264.00	253.00	247.00	237.00	220.00	215.00	212.00	212.00	214.00	222.00	225.00	225.00	230.00	233.00	237.00	241.00	248.00	264.00	295.00	294.00	282.00	272.00	257.00	255.00	254.00	253.00	260.00	259.00	261.00	252.00	237.00	218.00	202.00	198.00	191.00	189.00	189.00	189.00	189.00	189.00	189.00	189.00	189.00	189.00	189.00	189.00	189.00	189.00	189.00	189.00	189.00	189.00	189.00	189.00	190.00	192.00	191.00	194.00	203.00	197.00	193.00	193.00	193.00	193.00	193.00	193.00	193.00	193.00	193.00	193.00	193.00	193.00	193.00	193.00	193.00	193.00	198.00	203.00	210.00	228.00	238.00	260.00	267.00	268.00	275.00	262.00	270.00	273.00	274.00	286.00	318.00	340.00	354.00	353.00	348.00	343.00	342.00	339.00	329.00	326.00	323.00	319.00	312.00	304.00	313.00	318.00	324.00	314.00	314.00	312.00	310.00	311.00	322.00	328.00	332.00	332.00	361.00	367.00	370.00	371.00	374.00	389.00	388.00	386.00	397.00	442.00	454.00	489.00	506.00	518.00	542.00	543.00	534.00	481.00	470.00	496.00	536.00	530.00	520.00	486.00	507.00	518.00	483.00	515.00	522.00	518.00	515.00	506.00	499.00	477.00	506.00	509.00	437.00	409.00	433.00	482.00	469.00	472.00	478.00	496.00	482.00	429.00	460.00	494.00	484.00	462.00	415.00	422.00	438.00	448.00	434.00	427.00	432.00	429.00	420.00	386.00	348.00	368.00	361.00	331.00	316.00	315.00	324.00	331.00	318.00	317.00	317.00	338.00	410.00	405.00	379.00	356.00	340.00	315.00	304.00	304.00	304.00	348.00	334.00	311.00	304.00	304.00	304.00	304.00	304.00	304.00	304.00	304.00	304.00	304.00	304.00	305.00	312.00	314.00	310.00	338.00	360.00	384.00	389.00	403.00	432.00	469.00	469.00	472.00	478.00	474.00	466.00	458.00	450.00	435.00	430.00	424.00	401.00	389.00	368.00	370.00	358.00	342.00	369.00	390.00	397.00	395.00	372.00	385.00	387.00	376.00	362.00	362.00	373.00
361.00	351.00	343.00	329.00	317.00	306.00	289.00	264.00	253.00	247.00	237.00	220.00	215.00	212.00	212.00	214.00	222.00	225.00	225.00	230.00	233.00	237.00	241.00	248.00	264.00	295.00	294.00	282.00	272.00	257.00	255.00	254.00	253.00	260.00	259.00	261.00	252.00	237.00	218.00	202.00	198.00	191.00	189.00	189.00	189.00	189.00	189.00	189.00	189.00	189.00	189.00	189.00	189.00	189.00	189.00	189.00	189.00	189.00	189.00	189.00	189.00	190.00	192.00	191.00	194.00	203.00	197.00	193.00	193.00	193.00	193.00	193.00	193.00	193.00	193.00	193.00	193.00	193.00	193.00	193.00	193.00	193.00	193.00	198.00	203.00	210.00	228.00	238.00	260.00	267.00	268.00	275.00	262.00	270.00	273.00	274.00	286.00	318.00	340.00	354.00	353.00	348.00	343.00	342.00	339.00	329.00	326.00	323.00	319.00	312.00	304.00	313.00	318.00	324.00	314.00	314.00	312.00	310.00	311.00	322.00	328.00	332.00	332.00	361.00	367.00	370.00	371.00	374.00	389.00	388.00	386.00	397.00	442.00	454.00	489.00	506.00	518.00	542.00	543.00	534.00	481.00	470.00	496.00	536.00	530.00	520.00	486.00	507.00	518.00	483.00	515.00	522.00	518.00	515.00	506.00	499.00	477.00	506.00	509.00	437.00	409.00	433.00	482.00	469.00	472.00	478.00	496.00	482.00	429.00	460.00	494.00	484.00	462.00	415.00	422.00	438.00	448.00	434.00	427.00	432.00	429.00	420.00	386.00	348.00	368.00	361.00	331.00	316.00	315.00	324.00	331.00	318.00	317.00	317.00	338.00	410.00	405.00	379.00	356.00	340.00	315.00	304.00	304.00	304.00	348.00	334.00	311.00	304.00	304.00	304.00	304.00	304.00	304.00	304.00	304.00	304.00	304.00	304.00	305.00	312.00	314.00	310.00	338.00	360.00	384.00	389.00	403.00	432.00	469.00	469.00	472.00	478.00	474.00	466.00	458.00	450.00	435.00	430.00	424.00	401.00	389.00	368.00	370.00	358.00	342.00	369.00	390.00	397.00	395.00	372.00	385.00	387.00	376.00	362.00	362.00	373.00
381.00	380.00	359.00	347.00	332.00	312.00	289.00	264.00	255.00	248.00	237.00	222.00	217.00	214.00	214.00	218.00	225.00	227.00	229.00	230.00	237.00	239.00	240.00	245.00	269.00	297.00	290.00	273.00	264.00	254.00	253.00	249.00	250.00	253.00	260.00	256.00	251.00	240.00	216.00	213.00	207.00	191.00	189.00	189.00	189.00	189.00	189.00	189.00	189.00	189.00	189.00	189.00	189.00	189.00	189.00	189.00	189.00	189.00	190.00	189.00	189.00	189.00	192.00	191.00	195.00	199.00	200.00	193.00	194.00	195.00	193.00	193.00	193.00	193.00	193.00	193.00	193.00	193.00	194.00	194.00	194.00	194.00	195.00	201.00	204.00	212.00	227.00	236.00	251.00	260.00	263.00	266.00	266.00	271.00	274.00	277.00	281.00	317.00	340.00	350.00	352.00	351.00	344.00	342.00	340.00	332.00	329.00	324.00	316.00	307.00	297.00	301.00	309.00	309.00	314.00	315.00	309.00	306.00	307.00	321.00	325.00	326.00	326.00	361.00	362.00	363.00	364.00	367.00	370.00	371.00	374.00	390.00	446.00	473.00	531.00	539.00	541.00	541.00	525.00	501.00	474.00	498.00	521.00	530.00	529.00	499.00	487.00	492.00	526.00	499.00	505.00	519.00	514.00	501.00	503.00	504.00	478.00	497.00	507.00	453.00	418.00	416.00	491.00	494.00	499.00	458.00	481.00	486.00	444.00	489.00	497.00	462.00	476.00	416.00	438.00	447.00	460.00	449.00	465.00	482.00	494.00	487.00	403.00	392.00	424.00	407.00	365.00	333.00	329.00	330.00	322.00	332.00	321.00	317.00	323.00	364.00	369.00	361.00	360.00	356.00	325.00	307.00	304.00	304.00	314.00	313.00	308.00	304.00	304.00	304.00	304.00	304.00	304.00	304.00	304.00	304.00	304.00	304.00	304.00	304.00	304.00	304.00	326.00	338.00	360.00	367.00	382.00	397.00	435.00	448.00	462.00	481.00	487.00	483.00	476.00	469.00	449.00	442.00	433.00	406.00	388.00	374.00	378.00	368.00	342.00	354.00	382.00	401.00	401.00	374.00	394.00	395.00	376.00	363.00	364.00	378.00
409.00	417.00	377.00	362.00	338.00	312.00	288.00	266.00	258.00	248.00	236.00	222.00	219.00	216.00	217.00	220.00	225.00	230.00	233.00	231.00	240.00	242.00	240.00	243.00	270.00	294.00	278.00	264.00	260.00	251.00	249.00	244.00	246.00	252.00	258.00	257.00	248.00	237.00	219.00	220.00	211.00	195.00	189.00	189.00	189.00	189.00	189.00	189.00	189.00	189.00	189.00	189.00	189.00	189.00	189.00	189.00	189.00	192.00	196.00	193.00	189.00	190.00	197.00	192.00	199.00	197.00	204.00	195.00	195.00	197.00	193.00	193.00	193.00	193.00	193.00	193.00	193.00	193.00	194.00	197.00	195.00	194.00	198.00	201.00	203.00	212.00	221.00	231.00	244.00	254.00	260.00	263.00	266.00	272.00	273.00	278.00	279.00	315.00	337.00	347.00	342.00	346.00	351.00	349.00	342.00	335.00	331.00	322.00	312.00	307.00	296.00	300.00	307.00	306.00	311.00	310.00	307.00	307.00	308.00	320.00	323.00	321.00	319.00	359.00	356.00	356.00	357.00	357.00	359.00	358.00	360.00	383.00	484.00	513.00	545.00	537.00	533.00	511.00	478.00	460.00	470.00	529.00	534.00	543.00	529.00	520.00	490.00	488.00	513.00	506.00	503.00	515.00	516.00	504.00	498.00	503.00	478.00	488.00	500.00	468.00	434.00	412.00	432.00	461.00	505.00	457.00	476.00	495.00	461.00	500.00	469.00	465.00	449.00	434.00	449.00	454.00	470.00	448.00	469.00	481.00	495.00	503.00	455.00	432.00	456.00	457.00	422.00	381.00	357.00	345.00	336.00	341.00	344.00	337.00	340.00	369.00	366.00	382.00	378.00	354.00	327.00	310.00	304.00	305.00	304.00	304.00	304.00	304.00	304.00	304.00	304.00	304.00	304.00	304.00	304.00	304.00	304.00	304.00	304.00	304.00	304.00	304.00	309.00	318.00	338.00	347.00	347.00	366.00	404.00	427.00	444.00	465.00	471.00	480.00	483.00	475.00	461.00	455.00	445.00	413.00	379.00	376.00	377.00	371.00	344.00	355.00	386.00	404.00	404.00	368.00	393.00	404.00	379.00	362.00	364.00	383.00
437.00	447.00	396.00	368.00	333.00	305.00	288.00	274.00	263.00	249.00	237.00	226.00	221.00	220.00	221.00	223.00	227.00	233.00	234.00	234.00	238.00	242.00	242.00	244.00	271.00	274.00	266.00	259.00	254.00	248.00	245.00	236.00	232.00	246.00	259.00	256.00	241.00	228.00	225.00	230.00	216.00	197.00	191.00	190.00	189.00	189.00	189.00	189.00	189.00	189.00	189.00	189.00	189.00	189.00	189.00	189.00	189.00	193.00	196.00	190.00	189.00	189.00	194.00	196.00	197.00	199.00	199.00	202.00	198.00	198.00	198.00	193.00	193.00	193.00	193.00	193.00	193.00	193.00	193.00	193.00	194.00	198.00	198.00	201.00	207.00	214.00	221.00	229.00	241.00	250.00	258.00	258.00	267.00	273.00	277.00	279.00	282.00	315.00	335.00	344.00	344.00	340.00	347.00	350.00	342.00	333.00	329.00	324.00	316.00	308.00	293.00	299.00	298.00	298.00	305.00	304.00	304.00	306.00	307.00	319.00	318.00	316.00	320.00	355.00	351.00	350.00	350.00	349.00	351.00	346.00	353.00	416.00	510.00	511.00	514.00	488.00	480.00	459.00	472.00	492.00	507.00	533.00	534.00	536.00	542.00	527.00	495.00	524.00	519.00	493.00	503.00	515.00	517.00	508.00	503.00	493.00	499.00	510.00	503.00	480.00	474.00	458.00	439.00	449.00	504.00	457.00	481.00	507.00	484.00	499.00	466.00	477.00	458.00	450.00	458.00	469.00	470.00	458.00	466.00	484.00	480.00	490.00	492.00	461.00	459.00	466.00	490.00	467.00	435.00	399.00	375.00	363.00	362.00	359.00	370.00	373.00	363.00	352.00	346.00	346.00	335.00	318.00	305.00	320.00	304.00	304.00	304.00	304.00	304.00	304.00	304.00	304.00	304.00	304.00	304.00	304.00	304.00	304.00	304.00	304.00	304.00	304.00	304.00	304.00	311.00	324.00	327.00	342.00	396.00	418.00	437.00	464.00	468.00	475.00	481.00	477.00	468.00	461.00	446.00	417.00	381.00	378.00	379.00	375.00	348.00	351.00	377.00	407.00	415.00	362.00	372.00	378.00	376.00	365.00	371.00	386.00
437.00	447.00	396.00	368.00	333.00	305.00	288.00	274.00	263.00	249.00	237.00	226.00	221.00	220.00	221.00	223.00	227.00	233.00	234.00	234.00	238.00	242.00	242.00	244.00	271.00	274.00	266.00	259.00	254.00	248.00	245.00	236.00	232.00	246.00	259.00	256.00	241.00	228.00	225.00	230.00	216.00	197.00	191.00	190.00	189.00	189.00	189.00	189.00	189.00	189.00	189.00	189.00	189.00	189.00	189.00	189.00	189.00	193.00	196.00	190.00	189.00	189.00	194.00	196.00	197.00	199.00	199.00	202.00	198.00	198.00	198.00	193.00	193.00	193.00	193.00	193.00	193.00	193.00	193.00	193.00	194.00	198.00	198.00	201.00	207.00	214.00	221.00	229.00	241.00	250.00	258.00	258.00	267.00	273.00	277.00	279.00	282.00	315.00	335.00	344.00	344.00	340.00	347.00	350.00	342.00	333.00	329.00	324.00	316.00	308.00	293.00	299.00	298.00	298.00	305.00	304.00	304.00	306.00	307.00	319.00	318.00	316.00	320.00	355.00	351.00	350.00	350.00	349.00	351.00	346.00	353.00	416.00	510.00	511.00	514.00	488.00	480.00	459.00	472.00	492.00	507.00	533.00	534.00	536.00	542.00	527.00	495.00	524.00	519.00	493.00	503.00	515.00	517.00	508.00	503.00	493.00	499.00	510.00	503.00	480.00	474.00	458.00	439.00	449.00	504.00	457.00	481.00	507.00	484.00	499.00	466.00	477.00	458.00	450.00	458.00	469.00	470.00	458.00	466.00	484.00	480.00	490.00	492.00	461.00	459.00	466.00	490.00	467.00	435.00	399.00	375.00	363.00	362.00	359.00	370.00	373.00	363.00	352.00	346.00	346.00	335.00	318.00	305.00	320.00	304.00	304.00	304.00	304.00	304.00	304.00	304.00	304.00	304.00	304.00	304.00	304.00	304.00	304.00	304.00	304.00	304.00	304.00	304.00	304.00	311.00	324.00	327.00	342.00	396.00	418.00	437.00	464.00	468.00	475.00	481.00	477.00	468.00	461.00	446.00	417.00	381.00	378.00	379.00	375.00	348.00	351.00	377.00	407.00	415.00	362.00	372.00	378.00	376.00	365.00	371.00	386.00
437.00	464.00	407.00	365.00	323.00	304.00	294.00	282.00	265.00	252.00	241.00	229.00	225.00	224.00	227.00	228.00	228.00	233.00	235.00	237.00	238.00	241.00	244.00	247.00	250.00	256.00	253.00	253.00	252.00	244.00	238.00	231.00	225.00	238.00	257.00	250.00	235.00	224.00	220.00	230.00	216.00	194.00	190.00	200.00	196.00	190.00	189.00	189.00	189.00	189.00	189.00	191.00	189.00	189.00	189.00	189.00	191.00	189.00	190.00	190.00	190.00	189.00	189.00	190.00	194.00	204.00	202.00	209.00	206.00	205.00	201.00	193.00	193.00	193.00	193.00	193.00	193.00	193.00	193.00	193.00	194.00	198.00	201.00	201.00	209.00	215.00	224.00	228.00	240.00	248.00	255.00	254.00	264.00	274.00	279.00	283.00	287.00	317.00	334.00	341.00	341.00	341.00	343.00	347.00	342.00	336.00	332.00	320.00	316.00	312.00	288.00	280.00	282.00	299.00	303.00	302.00	303.00	303.00	301.00	316.00	317.00	312.00	311.00	350.00	346.00	346.00	345.00	345.00	346.00	343.00	371.00	481.00	485.00	461.00	435.00	437.00	446.00	519.00	534.00	523.00	524.00	546.00	545.00	543.00	532.00	500.00	523.00	519.00	499.00	503.00	509.00	518.00	519.00	512.00	531.00	497.00	534.00	515.00	493.00	502.00	484.00	454.00	446.00	463.00	485.00	457.00	463.00	513.00	504.00	481.00	476.00	497.00	473.00	461.00	478.00	494.00	482.00	485.00	472.00	474.00	459.00	461.00	467.00	470.00	454.00	470.00	516.00	513.00	491.00	469.00	441.00	405.00	387.00	364.00	367.00	385.00	388.00	361.00	347.00	344.00	342.00	322.00	311.00	311.00	304.00	304.00	304.00	304.00	304.00	304.00	304.00	304.00	304.00	304.00	304.00	304.00	304.00	304.00	304.00	304.00	304.00	304.00	304.00	304.00	304.00	314.00	319.00	322.00	336.00	358.00	379.00	441.00	456.00	466.00	470.00	470.00	466.00	457.00	447.00	420.00	390.00	382.00	381.00	381.00	356.00	344.00	349.00	366.00	398.00	367.00	367.00	364.00	376.00	364.00	366.00	386.00
428.00	440.00	403.00	358.00	323.00	308.00	303.00	292.00	265.00	253.00	245.00	231.00	231.00	231.00	233.00	232.00	227.00	230.00	233.00	234.00	237.00	240.00	244.00	250.00	252.00	250.00	251.00	251.00	247.00	236.00	231.00	224.00	223.00	233.00	253.00	235.00	229.00	224.00	210.00	224.00	205.00	197.00	200.00	210.00	201.00	193.00	189.00	189.00	189.00	189.00	195.00	198.00	191.00	189.00	189.00	189.00	197.00	195.00	198.00	198.00	194.00	189.00	189.00	194.00	201.00	207.00	206.00	210.00	213.00	217.00	205.00	193.00	193.00	193.00	193.00	193.00	193.00	193.00	193.00	196.00	197.00	205.00	207.00	205.00	211.00	214.00	222.00	224.00	237.00	245.00	250.00	251.00	265.00	278.00	280.00	286.00	292.00	318.00	332.00	342.00	341.00	341.00	345.00	347.00	342.00	336.00	332.00	325.00	316.00	310.00	288.00	277.00	279.00	288.00	299.00	301.00	303.00	302.00	299.00	312.00	317.00	316.00	311.00	337.00	339.00	339.00	342.00	341.00	339.00	342.00	372.00	460.00	448.00	424.00	416.00	432.00	452.00	525.00	519.00	532.00	536.00	525.00	516.00	506.00	492.00	514.00	516.00	518.00	519.00	519.00	515.00	516.00	522.00	546.00	562.00	519.00	524.00	504.00	488.00	493.00	468.00	446.00	453.00	505.00	474.00	457.00	475.00	517.00	524.00	513.00	497.00	506.00	465.00	470.00	490.00	504.00	496.00	502.00	488.00	482.00	466.00	459.00	452.00	458.00	450.00	442.00	491.00	520.00	522.00	499.00	486.00	476.00	462.00	419.00	426.00	372.00	378.00	393.00	379.00	364.00	351.00	332.00	328.00	312.00	304.00	304.00	304.00	304.00	304.00	304.00	304.00	304.00	304.00	304.00	304.00	304.00	304.00	304.00	304.00	304.00	304.00	304.00	304.00	304.00	304.00	305.00	307.00	313.00	312.00	317.00	315.00	364.00	409.00	435.00	449.00	461.00	460.00	456.00	454.00	432.00	407.00	392.00	385.00	388.00	369.00	358.00	352.00	349.00	351.00	379.00	359.00	358.00	377.00	352.00	365.00	384.00
408.00	415.00	398.00	354.00	330.00	317.00	315.00	300.00	270.00	258.00	248.00	235.00	237.00	237.00	238.00	237.00	230.00	232.00	234.00	230.00	236.00	238.00	246.00	251.00	252.00	248.00	248.00	247.00	242.00	230.00	226.00	224.00	225.00	226.00	247.00	220.00	217.00	218.00	200.00	211.00	209.00	195.00	201.00	221.00	212.00	202.00	193.00	189.00	189.00	189.00	205.00	204.00	196.00	189.00	189.00	189.00	196.00	197.00	204.00	207.00	200.00	189.00	189.00	198.00	206.00	210.00	210.00	208.00	217.00	219.00	208.00	193.00	193.00	193.00	193.00	193.00	193.00	193.00	193.00	195.00	198.00	200.00	209.00	211.00	209.00	210.00	222.00	221.00	234.00	243.00	244.00	247.00	269.00	276.00	279.00	284.00	291.00	314.00	328.00	342.00	344.00	341.00	347.00	347.00	343.00	336.00	336.00	330.00	322.00	317.00	294.00	273.00	274.00	288.00	297.00	295.00	298.00	297.00	289.00	299.00	304.00	299.00	298.00	331.00	325.00	330.00	338.00	331.00	320.00	341.00	340.00	358.00	436.00	427.00	418.00	436.00	469.00	529.00	533.00	522.00	497.00	486.00	501.00	503.00	499.00	501.00	539.00	532.00	532.00	532.00	541.00	536.00	555.00	554.00	542.00	521.00	513.00	500.00	494.00	463.00	443.00	447.00	482.00	509.00	462.00	491.00	519.00	524.00	534.00	530.00	507.00	474.00	455.00	475.00	485.00	497.00	511.00	495.00	492.00	485.00	478.00	469.00	446.00	447.00	441.00	440.00	464.00	502.00	517.00	523.00	512.00	500.00	472.00	453.00	439.00	417.00	413.00	426.00	393.00	390.00	353.00	347.00	348.00	329.00	304.00	304.00	304.00	304.00	304.00	304.00	304.00	304.00	304.00	304.00	304.00	304.00	304.00	304.00	307.00	307.00	304.00	304.00	304.00	304.00	304.00	304.00	304.00	307.00	307.00	311.00	307.00	323.00	354.00	369.00	397.00	423.00	440.00	440.00	441.00	435.00	420.00	404.00	395.00	393.00	382.00	365.00	356.00	354.00	356.00	361.00	360.00	351.00	349.00	355.00	366.00	382.00
408.00	415.00	398.00	354.00	330.00	317.00	315.00	300.00	270.00	258.00	248.00	235.00	237.00	237.00	238.00	237.00	230.00	232.00	234.00	230.00	236.00	238.00	246.00	251.00	252.00	248.00	248.00	247.00	242.00	230.00	226.00	224.00	225.00	226.00	247.00	220.00	217.00	218.00	200.00	211.00	209.00	195.00	201.00	221.00	212.00	202.00	193.00	189.00	189.00	189.00	205.00	204.00	196.00	189.00	189.00	189.00	196.00	197.00	204.00	207.00	200.00	189.00	189.00	198.00	206.00	210.00	210.00	208.00	217.00	219.00	208.00	193.00	193.00	193.00	193.00	193.00	193.00	193.00	193.00	195.00	198.00	200.00	209.00	211.00	209.00	210.00	222.00	221.00	234.00	243.00	244.00	247.00	269.00	276.00	279.00	284.00	291.00	314.00	328.00	342.00	344.00	341.00	347.00	347.00	343.00	336.00	336.00	330.00	322.00	317.00	294.00	273.00	274.00	288.00	297.00	295.00	298.00	297.00	289.00	299.00	304.00	299.00	298.00	331.00	325.00	330.00	338.00	331.00	320.00	341.00	340.00	358.00	436.00	427.00	418.00	436.00	469.00	529.00	533.00	522.00	497.00	486.00	501.00	503.00	499.00	501.00	539.00	532.00	532.00	532.00	541.00	536.00	555.00	554.00	542.00	521.00	513.00	500.00	494.00	463.00	443.00	447.00	482.00	509.00	462.00	491.00	519.00	524.00	534.00	530.00	507.00	474.00	455.00	475.00	485.00	497.00	511.00	495.00	492.00	485.00	478.00	469.00	446.00	447.00	441.00	440.00	464.00	502.00	517.00	523.00	512.00	500.00	472.00	453.00	439.00	417.00	413.00	426.00	393.00	390.00	353.00	347.00	348.00	329.00	304.00	304.00	304.00	304.00	304.00	304.00	304.00	304.00	304.00	304.00	304.00	304.00	304.00	304.00	307.00	307.00	304.00	304.00	304.00	304.00	304.00	304.00	304.00	307.00	307.00	311.00	307.00	323.00	354.00	369.00	397.00	423.00	440.00	440.00	441.00	435.00	420.00	404.00	395.00	393.00	382.00	365.00	356.00	354.00	356.00	361.00	360.00	351.00	349.00	355.00	366.00	382.00
368.00	391.00	388.00	359.00	343.00	336.00	331.00	309.00	276.00	262.00	251.00	242.00	243.00	244.00	247.00	244.00	232.00	230.00	233.00	229.00	235.00	244.00	249.00	250.00	249.00	247.00	246.00	241.00	234.00	224.00	221.00	220.00	220.00	220.00	232.00	214.00	210.00	211.00	211.00	201.00	199.00	197.00	207.00	215.00	214.00	208.00	195.00	189.00	189.00	193.00	207.00	205.00	201.00	194.00	189.00	189.00	195.00	197.00	198.00	207.00	200.00	189.00	189.00	202.00	212.00	215.00	221.00	214.00	225.00	229.00	208.00	193.00	193.00	193.00	193.00	193.00	193.00	193.00	193.00	193.00	197.00	202.00	211.00	210.00	208.00	213.00	224.00	222.00	232.00	240.00	241.00	241.00	272.00	279.00	279.00	283.00	288.00	314.00	321.00	331.00	338.00	336.00	346.00	350.00	348.00	333.00	333.00	328.00	323.00	317.00	283.00	273.00	273.00	292.00	300.00	293.00	292.00	287.00	279.00	286.00	288.00	289.00	290.00	316.00	315.00	320.00	335.00	335.00	316.00	329.00	339.00	362.00	386.00	402.00	422.00	446.00	484.00	516.00	503.00	488.00	484.00	487.00	497.00	503.00	497.00	538.00	573.00	572.00	563.00	555.00	546.00	564.00	541.00	524.00	500.00	521.00	510.00	506.00	486.00	442.00	440.00	465.00	518.00	492.00	457.00	530.00	530.00	531.00	535.00	509.00	464.00	455.00	479.00	476.00	477.00	485.00	508.00	482.00	471.00	466.00	464.00	463.00	446.00	440.00	440.00	440.00	472.00	477.00	491.00	503.00	512.00	507.00	483.00	465.00	449.00	432.00	433.00	447.00	391.00	412.00	348.00	350.00	360.00	345.00	304.00	304.00	304.00	304.00	304.00	304.00	304.00	304.00	304.00	304.00	304.00	304.00	304.00	304.00	310.00	318.00	309.00	304.00	304.00	304.00	304.00	304.00	304.00	305.00	304.00	306.00	305.00	309.00	325.00	340.00	358.00	397.00	430.00	431.00	435.00	435.00	426.00	415.00	411.00	409.00	392.00	384.00	361.00	354.00	356.00	347.00	356.00	361.00	348.00	350.00	370.00	385.00
368.00	391.00	388.00	359.00	343.00	336.00	331.00	309.00	276.00	262.00	251.00	242.00	243.00	244.00	247.00	244.00	232.00	230.00	233.00	229.00	235.00	244.00	249.00	250.00	249.00	247.00	246.00	241.00	234.00	224.00	221.00	220.00	220.00	220.00	232.00	214.00	210.00	211.00	211.00	201.00	199.00	197.00	207.00	215.00	214.00	208.00	195.00	189.00	189.00	193.00	207.00	205.00	201.00	194.00	189.00	189.00	195.00	197.00	198.00	207.00	200.00	189.00	189.00	202.00	212.00	215.00	221.00	214.00	225.00	229.00	208.00	193.00	193.00	193.00	193.00	193.00	193.00	193.00	193.00	193.00	197.00	202.00	211.00	210.00	208.00	213.00	224.00	222.00	232.00	240.00	241.00	241.00	272.00	279.00	279.00	283.00	288.00	314.00	321.00	331.00	338.00	336.00	346.00	350.00	348.00	333.00	333.00	328.00	323.00	317.00	283.00	273.00	273.00	292.00	300.00	293.00	292.00	287.00	279.00	286.00	288.00	289.00	290.00	316.00	315.00	320.00	335.00	335.00	316.00	329.00	339.00	362.00	386.00	402.00	422.00	446.00	484.00	516.00	503.00	488.00	484.00	487.00	497.00	503.00	497.00	538.00	573.00	572.00	563.00	555.00	546.00	564.00	541.00	524.00	500.00	521.00	510.00	506.00	486.00	442.00	440.00	465.00	518.00	492.00	457.00	530.00	530.00	531.00	535.00	509.00	464.00	455.00	479.00	476.00	477.00	485.00	508.00	482.00	471.00	466.00	464.00	463.00	446.00	440.00	440.00	440.00	472.00	477.00	491.00	503.00	512.00	507.00	483.00	465.00	449.00	432.00	433.00	447.00	391.00	412.00	348.00	350.00	360.00	345.00	304.00	304.00	304.00	304.00	304.00	304.00	304.00	304.00	304.00	304.00	304.00	304.00	304.00	304.00	310.00	318.00	309.00	304.00	304.00	304.00	304.00	304.00	304.00	305.00	304.00	306.00	305.00	309.00	325.00	340.00	358.00	397.00	430.00	431.00	435.00	435.00	426.00	415.00	411.00	409.00	392.00	384.00	361.00	354.00	356.00	347.00	356.00	361.00	348.00	350.00	370.00	385.00
349.00	384.00	392.00	372.00	361.00	354.00	352.00	319.00	282.00	267.00	254.00	251.00	250.00	253.00	253.00	248.00	232.00	229.00	230.00	232.00	239.00	249.00	252.00	250.00	247.00	244.00	240.00	234.00	229.00	220.00	219.00	222.00	223.00	221.00	211.00	212.00	211.00	212.00	215.00	215.00	198.00	200.00	237.00	220.00	218.00	212.00	204.00	198.00	204.00	215.00	212.00	206.00	204.00	204.00	196.00	190.00	189.00	191.00	203.00	206.00	196.00	189.00	193.00	198.00	215.00	222.00	231.00	231.00	225.00	232.00	215.00	193.00	193.00	193.00	193.00	193.00	193.00	193.00	195.00	193.00	198.00	202.00	208.00	208.00	209.00	211.00	223.00	222.00	229.00	239.00	238.00	234.00	278.00	283.00	279.00	284.00	294.00	318.00	327.00	332.00	328.00	328.00	328.00	332.00	336.00	340.00	332.00	329.00	326.00	323.00	295.00	274.00	273.00	297.00	298.00	288.00	283.00	280.00	273.00	273.00	277.00	284.00	287.00	288.00	287.00	299.00	332.00	334.00	318.00	322.00	332.00	338.00	360.00	373.00	414.00	474.00	491.00	518.00	499.00	485.00	484.00	486.00	490.00	487.00	493.00	569.00	586.00	564.00	552.00	536.00	583.00	562.00	519.00	504.00	513.00	509.00	506.00	507.00	486.00	444.00	441.00	499.00	511.00	489.00	457.00	521.00	527.00	526.00	527.00	516.00	498.00	470.00	517.00	506.00	509.00	539.00	509.00	469.00	462.00	455.00	456.00	458.00	443.00	440.00	440.00	440.00	490.00	483.00	487.00	491.00	500.00	492.00	474.00	453.00	453.00	439.00	423.00	433.00	407.00	394.00	351.00	353.00	359.00	370.00	308.00	304.00	304.00	304.00	304.00	304.00	304.00	304.00	304.00	304.00	304.00	304.00	304.00	304.00	315.00	323.00	313.00	305.00	304.00	304.00	304.00	304.00	304.00	304.00	304.00	304.00	304.00	304.00	313.00	328.00	339.00	376.00	421.00	431.00	435.00	444.00	437.00	429.00	420.00	396.00	402.00	404.00	384.00	361.00	359.00	348.00	346.00	349.00	356.00	346.00	350.00	362.00
332.00	369.00	398.00	390.00	381.00	375.00	376.00	329.00	287.00	270.00	255.00	257.00	260.00	261.00	257.00	249.00	234.00	230.00	229.00	230.00	246.00	253.00	254.00	252.00	248.00	238.00	232.00	227.00	225.00	209.00	209.00	211.00	213.00	212.00	210.00	212.00	212.00	213.00	217.00	217.00	204.00	209.00	246.00	220.00	220.00	222.00	217.00	216.00	227.00	232.00	222.00	211.00	211.00	208.00	204.00	196.00	189.00	191.00	209.00	210.00	197.00	189.00	190.00	190.00	213.00	227.00	226.00	227.00	222.00	234.00	229.00	196.00	193.00	193.00	193.00	193.00	193.00	195.00	196.00	193.00	193.00	195.00	196.00	202.00	206.00	212.00	222.00	222.00	231.00	233.00	234.00	233.00	279.00	285.00	279.00	283.00	297.00	321.00	330.00	336.00	337.00	329.00	325.00	327.00	327.00	343.00	337.00	335.00	332.00	329.00	304.00	284.00	273.00	283.00	292.00	287.00	281.00	279.00	273.00	273.00	276.00	280.00	284.00	280.00	281.00	286.00	315.00	352.00	317.00	318.00	328.00	331.00	353.00	368.00	415.00	498.00	488.00	521.00	504.00	485.00	485.00	486.00	498.00	491.00	515.00	584.00	565.00	545.00	532.00	526.00	565.00	546.00	515.00	523.00	536.00	506.00	504.00	494.00	478.00	444.00	452.00	523.00	515.00	495.00	458.00	481.00	523.00	526.00	524.00	531.00	488.00	458.00	497.00	551.00	562.00	576.00	493.00	460.00	461.00	465.00	471.00	467.00	457.00	448.00	440.00	440.00	521.00	504.00	488.00	497.00	494.00	477.00	458.00	460.00	459.00	428.00	424.00	461.00	426.00	366.00	360.00	367.00	356.00	345.00	348.00	317.00	304.00	304.00	304.00	304.00	304.00	304.00	304.00	304.00	304.00	304.00	306.00	305.00	323.00	331.00	323.00	312.00	304.00	304.00	304.00	304.00	304.00	304.00	304.00	304.00	304.00	304.00	308.00	320.00	327.00	351.00	400.00	423.00	421.00	409.00	393.00	389.00	378.00	366.00	364.00	380.00	389.00	366.00	356.00	352.00	349.00	346.00	347.00	346.00	346.00	364.00
321.00	349.00	396.00	397.00	393.00	403.00	398.00	341.00	293.00	276.00	259.00	264.00	269.00	267.00	259.00	249.00	235.00	231.00	230.00	231.00	251.00	253.00	255.00	250.00	247.00	232.00	226.00	226.00	219.00	212.00	209.00	209.00	210.00	210.00	211.00	211.00	211.00	212.00	223.00	222.00	216.00	207.00	209.00	226.00	224.00	224.00	219.00	231.00	240.00	249.00	231.00	219.00	199.00	193.00	195.00	201.00	207.00	194.00	206.00	211.00	200.00	189.00	190.00	201.00	231.00	230.00	226.00	221.00	222.00	235.00	231.00	199.00	193.00	193.00	193.00	193.00	193.00	200.00	198.00	193.00	193.00	193.00	193.00	201.00	205.00	208.00	219.00	226.00	233.00	234.00	235.00	237.00	280.00	286.00	278.00	285.00	298.00	326.00	334.00	336.00	340.00	331.00	323.00	323.00	323.00	340.00	350.00	345.00	337.00	330.00	309.00	301.00	278.00	273.00	280.00	287.00	281.00	276.00	273.00	273.00	273.00	274.00	278.00	279.00	279.00	282.00	290.00	307.00	315.00	318.00	318.00	320.00	347.00	364.00	411.00	479.00	485.00	519.00	506.00	490.00	484.00	487.00	495.00	503.00	517.00	585.00	573.00	545.00	528.00	543.00	545.00	536.00	518.00	538.00	541.00	524.00	516.00	502.00	485.00	442.00	450.00	515.00	529.00	520.00	471.00	468.00	503.00	527.00	517.00	475.00	457.00	463.00	465.00	546.00	539.00	520.00	472.00	464.00	473.00	483.00	486.00	490.00	485.00	468.00	448.00	441.00	548.00	539.00	511.00	497.00	485.00	466.00	460.00	460.00	467.00	432.00	452.00	444.00	402.00	393.00	382.00	384.00	369.00	353.00	369.00	346.00	312.00	310.00	304.00	304.00	304.00	304.00	304.00	304.00	304.00	304.00	304.00	304.00	331.00	335.00	347.00	343.00	304.00	304.00	304.00	304.00	304.00	311.00	304.00	304.00	304.00	304.00	304.00	314.00	319.00	328.00	366.00	393.00	398.00	368.00	364.00	368.00	366.00	365.00	376.00	399.00	413.00	379.00	356.00	351.00	347.00	346.00	346.00	346.00	346.00	347.00
321.00	349.00	396.00	397.00	393.00	403.00	398.00	341.00	293.00	276.00	259.00	264.00	269.00	267.00	259.00	249.00	235.00	231.00	230.00	231.00	251.00	253.00	255.00	250.00	247.00	232.00	226.00	226.00	219.00	212.00	209.00	209.00	210.00	210.00	211.00	211.00	211.00	212.00	223.00	222.00	216.00	207.00	209.00	226.00	224.00	224.00	219.00	231.00	240.00	249.00	231.00	219.00	199.00	193.00	195.00	201.00	207.00	194.00	206.00	211.00	200.00	189.00	190.00	201.00	231.00	230.00	226.00	221.00	222.00	235.00	231.00	199.00	193.00	193.00	193.00	193.00	193.00	200.00	198.00	193.00	193.00	193.00	193.00	201.00	205.00	208.00	219.00	226.00	233.00	234.00	235.00	237.00	280.00	286.00	278.00	285.00	298.00	326.00	334.00	336.00	340.00	331.00	323.00	323.00	323.00	340.00	350.00	345.00	337.00	330.00	309.00	301.00	278.00	273.00	280.00	287.00	281.00	276.00	273.00	273.00	273.00	274.00	278.00	279.00	279.00	282.00	290.00	307.00	315.00	318.00	318.00	320.00	347.00	364.00	411.00	479.00	485.00	519.00	506.00	490.00	484.00	487.00	495.00	503.00	517.00	585.00	573.00	545.00	528.00	543.00	545.00	536.00	518.00	538.00	541.00	524.00	516.00	502.00	485.00	442.00	450.00	515.00	529.00	520.00	471.00	468.00	503.00	527.00	517.00	475.00	457.00	463.00	465.00	546.00	539.00	520.00	472.00	464.00	473.00	483.00	486.00	490.00	485.00	468.00	448.00	441.00	548.00	539.00	511.00	497.00	485.00	466.00	460.00	460.00	467.00	432.00	452.00	444.00	402.00	393.00	382.00	384.00	369.00	353.00	369.00	346.00	312.00	310.00	304.00	304.00	304.00	304.00	304.00	304.00	304.00	304.00	304.00	304.00	331.00	335.00	347.00	343.00	304.00	304.00	304.00	304.00	304.00	311.00	304.00	304.00	304.00	304.00	304.00	314.00	319.00	328.00	366.00	393.00	398.00	368.00	364.00	368.00	366.00	365.00	376.00	399.00	413.00	379.00	356.00	351.00	347.00	346.00	346.00	346.00	346.00	347.00
308.00	331.00	365.00	368.00	388.00	419.00	415.00	358.00	294.00	276.00	261.00	271.00	276.00	270.00	259.00	249.00	237.00	232.00	233.00	234.00	252.00	254.00	252.00	248.00	244.00	226.00	223.00	221.00	218.00	210.00	211.00	209.00	211.00	212.00	211.00	209.00	210.00	214.00	225.00	227.00	233.00	224.00	220.00	229.00	227.00	219.00	219.00	248.00	252.00	254.00	228.00	217.00	211.00	201.00	192.00	196.00	220.00	209.00	211.00	211.00	200.00	190.00	204.00	227.00	240.00	235.00	231.00	221.00	230.00	245.00	239.00	199.00	193.00	193.00	193.00	193.00	197.00	204.00	200.00	193.00	193.00	193.00	193.00	200.00	201.00	202.00	210.00	227.00	235.00	236.00	237.00	239.00	279.00	285.00	276.00	284.00	298.00	331.00	338.00	340.00	339.00	334.00	324.00	323.00	323.00	326.00	339.00	346.00	338.00	328.00	314.00	305.00	296.00	273.00	273.00	275.00	276.00	274.00	273.00	273.00	273.00	274.00	276.00	277.00	278.00	281.00	282.00	289.00	312.00	310.00	309.00	312.00	343.00	363.00	406.00	450.00	473.00	529.00	522.00	510.00	488.00	484.00	489.00	506.00	519.00	566.00	574.00	542.00	532.00	586.00	532.00	527.00	515.00	533.00	544.00	545.00	533.00	518.00	508.00	474.00	451.00	484.00	532.00	544.00	515.00	479.00	476.00	473.00	465.00	467.00	479.00	493.00	496.00	479.00	482.00	479.00	479.00	493.00	503.00	510.00	515.00	519.00	518.00	500.00	477.00	465.00	478.00	519.00	537.00	541.00	530.00	518.00	513.00	491.00	429.00	469.00	459.00	411.00	423.00	425.00	408.00	411.00	384.00	358.00	383.00	359.00	324.00	312.00	308.00	304.00	304.00	304.00	304.00	304.00	304.00	304.00	304.00	304.00	330.00	317.00	307.00	306.00	304.00	304.00	304.00	304.00	304.00	313.00	304.00	304.00	304.00	304.00	304.00	312.00	313.00	306.00	332.00	355.00	361.00	367.00	365.00	368.00	362.00	362.00	381.00	423.00	438.00	395.00	370.00	354.00	349.00	346.00	346.00	346.00	346.00	346.00
289.00	309.00	331.00	341.00	363.00	388.00	416.00	375.00	300.00	278.00	261.00	275.00	275.00	264.00	255.00	252.00	239.00	234.00	236.00	238.00	252.00	252.00	249.00	245.00	236.00	222.00	217.00	217.00	215.00	211.00	210.00	210.00	213.00	212.00	209.00	209.00	210.00	216.00	231.00	234.00	238.00	237.00	241.00	217.00	222.00	225.00	221.00	244.00	257.00	261.00	242.00	226.00	209.00	211.00	192.00	191.00	217.00	236.00	229.00	213.00	201.00	190.00	220.00	251.00	249.00	243.00	236.00	226.00	218.00	244.00	245.00	202.00	193.00	193.00	193.00	193.00	198.00	201.00	201.00	193.00	193.00	193.00	193.00	201.00	198.00	200.00	209.00	222.00	237.00	240.00	238.00	243.00	272.00	280.00	276.00	282.00	299.00	337.00	342.00	343.00	342.00	340.00	332.00	325.00	324.00	323.00	328.00	333.00	333.00	333.00	320.00	309.00	299.00	276.00	273.00	273.00	273.00	273.00	273.00	273.00	273.00	273.00	275.00	276.00	278.00	279.00	276.00	285.00	308.00	302.00	302.00	307.00	336.00	358.00	404.00	427.00	480.00	524.00	541.00	532.00	508.00	484.00	484.00	491.00	505.00	536.00	582.00	558.00	534.00	564.00	536.00	539.00	516.00	525.00	544.00	554.00	549.00	545.00	541.00	521.00	500.00	466.00	480.00	499.00	526.00	540.00	547.00	543.00	529.00	531.00	536.00	536.00	538.00	489.00	491.00	496.00	514.00	523.00	532.00	543.00	550.00	552.00	552.00	543.00	531.00	529.00	487.00	467.00	470.00	492.00	485.00	467.00	449.00	427.00	429.00	465.00	436.00	406.00	429.00	464.00	443.00	450.00	447.00	396.00	378.00	364.00	349.00	325.00	324.00	320.00	316.00	304.00	304.00	304.00	304.00	304.00	304.00	304.00	305.00	304.00	304.00	308.00	304.00	304.00	304.00	304.00	304.00	307.00	304.00	304.00	304.00	304.00	304.00	310.00	320.00	311.00	318.00	329.00	340.00	368.00	361.00	371.00	366.00	363.00	403.00	427.00	414.00	405.00	380.00	359.00	355.00	350.00	348.00	346.00	346.00	346.00
266.00	284.00	306.00	319.00	345.00	373.00	394.00	389.00	307.00	278.00	258.00	264.00	260.00	258.00	256.00	256.00	241.00	237.00	237.00	239.00	250.00	248.00	245.00	237.00	227.00	217.00	214.00	215.00	209.00	213.00	212.00	213.00	217.00	213.00	211.00	209.00	211.00	226.00	241.00	242.00	248.00	250.00	249.00	242.00	236.00	227.00	245.00	219.00	228.00	250.00	257.00	241.00	209.00	218.00	207.00	191.00	206.00	229.00	244.00	227.00	207.00	189.00	215.00	270.00	256.00	253.00	248.00	239.00	227.00	217.00	254.00	213.00	197.00	193.00	193.00	193.00	195.00	199.00	203.00	193.00	193.00	193.00	193.00	201.00	201.00	203.00	208.00	225.00	230.00	235.00	234.00	240.00	268.00	273.00	279.00	283.00	299.00	341.00	350.00	354.00	358.00	349.00	333.00	330.00	329.00	323.00	326.00	337.00	337.00	339.00	324.00	313.00	305.00	283.00	273.00	273.00	273.00	273.00	273.00	273.00	273.00	273.00	273.00	273.00	273.00	275.00	281.00	290.00	299.00	302.00	298.00	298.00	330.00	355.00	404.00	436.00	504.00	512.00	527.00	535.00	523.00	484.00	484.00	484.00	485.00	534.00	573.00	575.00	551.00	529.00	565.00	569.00	553.00	519.00	521.00	556.00	560.00	560.00	565.00	561.00	557.00	536.00	522.00	508.00	483.00	488.00	514.00	542.00	545.00	540.00	529.00	529.00	513.00	481.00	518.00	541.00	553.00	549.00	561.00	569.00	574.00	578.00	586.00	581.00	569.00	570.00	538.00	519.00	505.00	489.00	478.00	474.00	487.00	487.00	486.00	485.00	470.00	392.00	412.00	445.00	486.00	451.00	460.00	437.00	445.00	394.00	357.00	345.00	354.00	342.00	354.00	326.00	306.00	304.00	304.00	304.00	304.00	304.00	304.00	304.00	304.00	304.00	314.00	309.00	307.00	305.00	304.00	304.00	305.00	305.00	304.00	304.00	304.00	307.00	329.00	321.00	314.00	326.00	333.00	362.00	360.00	363.00	370.00	367.00	424.00	433.00	418.00	422.00	401.00	364.00	358.00	352.00	352.00	346.00	346.00	347.00
266.00	284.00	306.00	319.00	345.00	373.00	394.00	389.00	307.00	278.00	258.00	264.00	260.00	258.00	256.00	256.00	241.00	237.00	237.00	239.00	250.00	248.00	245.00	237.00	227.00	217.00	214.00	215.00	209.00	213.00	212.00	213.00	217.00	213.00	211.00	209.00	211.00	226.00	241.00	242.00	248.00	250.00	249.00	242.00	236.00	227.00	245.00	219.00	228.00	250.00	257.00	241.00	209.00	218.00	207.00	191.00	206.00	229.00	244.00	227.00	207.00	189.00	215.00	270.00	256.00	253.00	248.00	239.00	227.00	217.00	254.00	213.00	197.00	193.00	193.00	193.00	195.00	199.00	203.00	193.00	193.00	193.00	193.00	201.00	201.00	203.00	208.00	225.00	230.00	235.00	234.00	240.00	268.00	273.00	279.00	283.00	299.00	341.00	350.00	354.00	358.00	349.00	333.00	330.00	329.00	323.00	326.00	337.00	337.00	339.00	324.00	313.00	305.00	283.00	273.00	273.00	273.00	273.00	273.00	273.00	273.00	273.00	273.00	273.00	273.00	275.00	281.00	290.00	299.00	302.00	298.00	298.00	330.00	355.00	404.00	436.00	504.00	512.00	527.00	535.00	523.00	484.00	484.00	484.00	485.00	534.00	573.00	575.00	551.00	529.00	565.00	569.00	553.00	519.00	521.00	556.00	560.00	560.00	565.00	561.00	557.00	536.00	522.00	508.00	483.00	488.00	514.00	542.00	545.00	540.00	529.00	529.00	513.00	481.00	518.00	541.00	553.00	549.00	561.00	569.00	574.00	578.00	586.00	581.00	569.00	570.00	538.00	519.00	505.00	489.00	478.00	474.00	487.00	487.00	486.00	485.00	470.00	392.00	412.00	445.00	486.00	451.00	460.00	437.00	445.00	394.00	357.00	345.00	354.00	342.00	354.00	326.00	306.00	304.00	304.00	304.00	304.00	304.00	304.00	304.00	304.00	304.00	314.00	309.00	307.00	305.00	304.00	304.00	305.00	305.00	304.00	304.00	304.00	307.00	329.00	321.00	314.00	326.00	333.00	362.00	360.00	363.00	370.00	367.00	424.00	433.00	418.00	422.00	401.00	364.00	358.00	352.00	352.00	346.00	346.00	347.00
242.00	257.00	286.00	294.00	309.00	331.00	348.00	397.00	310.00	274.00	254.00	259.00	258.00	258.00	257.00	256.00	243.00	238.00	234.00	245.00	246.00	241.00	236.00	227.00	220.00	214.00	213.00	209.00	209.00	213.00	217.00	219.00	218.00	216.00	211.00	213.00	218.00	224.00	251.00	254.00	258.00	258.00	256.00	252.00	245.00	236.00	250.00	238.00	226.00	220.00	224.00	230.00	211.00	207.00	205.00	193.00	206.00	226.00	241.00	238.00	218.00	189.00	190.00	204.00	236.00	276.00	264.00	255.00	250.00	227.00	233.00	224.00	203.00	194.00	193.00	193.00	195.00	201.00	204.00	194.00	193.00	193.00	193.00	198.00	202.00	202.00	205.00	218.00	229.00	230.00	232.00	241.00	267.00	276.00	283.00	284.00	303.00	349.00	358.00	360.00	368.00	348.00	327.00	327.00	329.00	323.00	326.00	334.00	338.00	337.00	328.00	317.00	304.00	291.00	279.00	273.00	273.00	273.00	273.00	273.00	273.00	273.00	273.00	273.00	273.00	274.00	280.00	286.00	295.00	298.00	291.00	297.00	320.00	353.00	413.00	413.00	452.00	501.00	505.00	513.00	520.00	490.00	484.00	488.00	490.00	496.00	531.00	563.00	563.00	537.00	521.00	547.00	559.00	550.00	527.00	536.00	543.00	556.00	565.00	578.00	577.00	576.00	578.00	577.00	550.00	542.00	535.00	520.00	500.00	493.00	482.00	485.00	487.00	505.00	485.00	491.00	515.00	516.00	521.00	527.00	535.00	546.00	581.00	583.00	568.00	567.00	570.00	565.00	552.00	554.00	550.00	528.00	542.00	538.00	529.00	531.00	504.00	391.00	407.00	439.00	511.00	457.00	475.00	462.00	471.00	455.00	404.00	377.00	396.00	400.00	386.00	373.00	332.00	304.00	304.00	304.00	304.00	304.00	304.00	304.00	305.00	310.00	319.00	315.00	308.00	306.00	304.00	307.00	304.00	304.00	304.00	304.00	304.00	306.00	306.00	305.00	309.00	319.00	326.00	358.00	362.00	363.00	367.00	371.00	380.00	398.00	432.00	439.00	423.00	370.00	368.00	353.00	348.00	351.00	346.00	346.00
198.00	229.00	266.00	274.00	277.00	278.00	290.00	333.00	308.00	256.00	244.00	262.00	265.00	264.00	260.00	256.00	243.00	237.00	232.00	239.00	235.00	230.00	227.00	221.00	219.00	209.00	209.00	209.00	209.00	217.00	220.00	220.00	220.00	219.00	213.00	216.00	219.00	224.00	257.00	267.00	265.00	271.00	266.00	259.00	255.00	241.00	235.00	269.00	274.00	230.00	220.00	221.00	214.00	205.00	203.00	194.00	199.00	227.00	235.00	247.00	229.00	191.00	189.00	189.00	201.00	275.00	283.00	276.00	274.00	259.00	220.00	222.00	210.00	197.00	193.00	193.00	194.00	197.00	200.00	197.00	193.00	193.00	193.00	193.00	196.00	199.00	209.00	232.00	234.00	235.00	236.00	247.00	269.00	278.00	284.00	285.00	313.00	350.00	353.00	342.00	339.00	331.00	324.00	323.00	325.00	326.00	328.00	332.00	337.00	336.00	332.00	322.00	307.00	296.00	281.00	276.00	273.00	273.00	273.00	273.00	273.00	273.00	273.00	273.00	273.00	275.00	280.00	287.00	293.00	295.00	294.00	293.00	311.00	340.00	416.00	438.00	429.00	434.00	478.00	508.00	509.00	498.00	488.00	486.00	495.00	488.00	510.00	528.00	540.00	528.00	510.00	524.00	530.00	544.00	547.00	526.00	533.00	541.00	551.00	575.00	579.00	581.00	586.00	589.00	575.00	597.00	609.00	605.00	574.00	555.00	538.00	540.00	546.00	531.00	511.00	484.00	511.00	525.00	521.00	530.00	531.00	528.00	524.00	524.00	517.00	509.00	546.00	563.00	562.00	563.00	565.00	549.00	558.00	563.00	558.00	530.00	445.00	397.00	412.00	439.00	523.00	477.00	462.00	484.00	465.00	481.00	436.00	396.00	411.00	432.00	438.00	406.00	369.00	309.00	304.00	304.00	304.00	304.00	304.00	304.00	308.00	318.00	319.00	326.00	316.00	312.00	310.00	304.00	304.00	304.00	304.00	304.00	306.00	305.00	304.00	304.00	304.00	319.00	326.00	359.00	360.00	361.00	368.00	372.00	379.00	394.00	418.00	431.00	432.00	377.00	375.00	366.00	357.00	347.00	347.00	346.00
177.00	192.00	228.00	241.00	247.00	241.00	244.00	264.00	263.00	239.00	249.00	270.00	273.00	270.00	263.00	257.00	241.00	234.00	228.00	228.00	222.00	219.00	219.00	217.00	213.00	210.00	209.00	209.00	209.00	220.00	225.00	221.00	223.00	223.00	218.00	223.00	221.00	221.00	256.00	267.00	276.00	280.00	271.00	272.00	267.00	256.00	249.00	233.00	234.00	231.00	234.00	226.00	225.00	226.00	209.00	196.00	204.00	229.00	232.00	251.00	248.00	199.00	189.00	189.00	197.00	287.00	285.00	286.00	294.00	279.00	238.00	217.00	212.00	201.00	193.00	193.00	193.00	195.00	199.00	194.00	193.00	193.00	193.00	196.00	201.00	203.00	206.00	222.00	238.00	241.00	243.00	253.00	269.00	282.00	290.00	287.00	307.00	345.00	347.00	346.00	344.00	332.00	325.00	323.00	324.00	328.00	331.00	334.00	340.00	336.00	334.00	327.00	312.00	298.00	284.00	280.00	274.00	273.00	273.00	273.00	273.00	273.00	273.00	273.00	273.00	274.00	283.00	289.00	294.00	291.00	289.00	291.00	303.00	317.00	389.00	455.00	449.00	418.00	431.00	500.00	512.00	515.00	518.00	500.00	485.00	504.00	488.00	499.00	508.00	508.00	513.00	545.00	566.00	565.00	546.00	547.00	543.00	543.00	550.00	561.00	558.00	555.00	555.00	562.00	568.00	603.00	629.00	625.00	594.00	592.00	594.00	586.00	575.00	556.00	530.00	496.00	525.00	553.00	542.00	559.00	571.00	562.00	558.00	553.00	550.00	545.00	505.00	499.00	498.00	504.00	511.00	504.00	496.00	487.00	476.00	443.00	428.00	424.00	427.00	452.00	500.00	471.00	451.00	502.00	470.00	490.00	477.00	422.00	418.00	421.00	444.00	431.00	411.00	324.00	306.00	304.00	304.00	304.00	304.00	304.00	305.00	317.00	325.00	322.00	311.00	307.00	306.00	304.00	304.00	304.00	305.00	304.00	306.00	304.00	304.00	304.00	304.00	317.00	325.00	336.00	355.00	358.00	375.00	378.00	389.00	388.00	411.00	429.00	435.00	377.00	375.00	368.00	360.00	348.00	347.00	355.00
177.00	192.00	228.00	241.00	247.00	241.00	244.00	264.00	263.00	239.00	249.00	270.00	273.00	270.00	263.00	257.00	241.00	234.00	228.00	228.00	222.00	219.00	219.00	217.00	213.00	210.00	209.00	209.00	209.00	220.00	225.00	221.00	223.00	223.00	218.00	223.00	221.00	221.00	256.00	267.00	276.00	280.00	271.00	272.00	267.00	256.00	249.00	233.00	234.00	231.00	234.00	226.00	225.00	226.00	209.00	196.00	204.00	229.00	232.00	251.00	248.00	199.00	189.00	189.00	197.00	287.00	285.00	286.00	294.00	279.00	238.00	217.00	212.00	201.00	193.00	193.00	193.00	195.00	199.00	194.00	193.00	193.00	193.00	196.00	201.00	203.00	206.00	222.00	238.00	241.00	243.00	253.00	269.00	282.00	290.00	287.00	307.00	345.00	347.00	346.00	344.00	332.00	325.00	323.00	324.00	328.00	331.00	334.00	340.00	336.00	334.00	327.00	312.00	298.00	284.00	280.00	274.00	273.00	273.00	273.00	273.00	273.00	273.00	273.00	273.00	274.00	283.00	289.00	294.00	291.00	289.00	291.00	303.00	317.00	389.00	455.00	449.00	418.00	431.00	500.00	512.00	515.00	518.00	500.00	485.00	504.00	488.00	499.00	508.00	508.00	513.00	545.00	566.00	565.00	546.00	547.00	543.00	543.00	550.00	561.00	558.00	555.00	555.00	562.00	568.00	603.00	629.00	625.00	594.00	592.00	594.00	586.00	575.00	556.00	530.00	496.00	525.00	553.00	542.00	559.00	571.00	562.00	558.00	553.00	550.00	545.00	505.00	499.00	498.00	504.00	511.00	504.00	496.00	487.00	476.00	443.00	428.00	424.00	427.00	452.00	500.00	471.00	451.00	502.00	470.00	490.00	477.00	422.00	418.00	421.00	444.00	431.00	411.00	324.00	306.00	304.00	304.00	304.00	304.00	304.00	305.00	317.00	325.00	322.00	311.00	307.00	306.00	304.00	304.00	304.00	305.00	304.00	306.00	304.00	304.00	304.00	304.00	317.00	325.00	336.00	355.00	358.00	375.00	378.00	389.00	388.00	411.00	429.00	435.00	377.00	375.00	368.00	360.00	348.00	347.00	355.00
170.00	176.00	187.00	187.00	194.00	214.00	242.00	237.00	226.00	241.00	262.00	279.00	278.00	272.00	266.00	259.00	238.00	229.00	219.00	218.00	213.00	215.00	214.00	213.00	209.00	212.00	211.00	213.00	210.00	224.00	225.00	225.00	227.00	225.00	222.00	224.00	229.00	224.00	256.00	270.00	281.00	280.00	278.00	283.00	272.00	263.00	261.00	268.00	263.00	261.00	250.00	238.00	247.00	246.00	229.00	216.00	212.00	225.00	233.00	249.00	253.00	216.00	197.00	189.00	190.00	304.00	295.00	275.00	278.00	294.00	249.00	224.00	215.00	208.00	196.00	193.00	194.00	201.00	202.00	195.00	193.00	193.00	193.00	198.00	203.00	203.00	209.00	241.00	238.00	236.00	240.00	250.00	274.00	282.00	290.00	294.00	300.00	339.00	341.00	339.00	340.00	332.00	323.00	321.00	322.00	330.00	334.00	334.00	335.00	335.00	330.00	330.00	320.00	304.00	290.00	286.00	280.00	273.00	273.00	273.00	273.00	273.00	273.00	273.00	273.00	275.00	288.00	289.00	291.00	289.00	288.00	290.00	288.00	299.00	364.00	446.00	467.00	431.00	418.00	439.00	496.00	501.00	516.00	516.00	503.00	494.00	513.00	501.00	507.00	506.00	513.00	531.00	564.00	594.00	570.00	552.00	559.00	568.00	569.00	558.00	553.00	552.00	552.00	559.00	572.00	586.00	604.00	605.00	589.00	585.00	578.00	559.00	550.00	521.00	515.00	522.00	536.00	551.00	551.00	565.00	580.00	584.00	585.00	591.00	599.00	596.00	556.00	540.00	531.00	517.00	511.00	486.00	481.00	471.00	474.00	479.00	481.00	480.00	466.00	466.00	503.00	489.00	449.00	492.00	488.00	477.00	508.00	466.00	415.00	435.00	445.00	444.00	430.00	386.00	363.00	315.00	305.00	304.00	306.00	308.00	309.00	315.00	323.00	324.00	316.00	307.00	310.00	304.00	305.00	304.00	304.00	304.00	304.00	304.00	304.00	304.00	304.00	312.00	322.00	330.00	353.00	364.00	374.00	395.00	400.00	389.00	378.00	390.00	413.00	374.00	374.00	377.00	366.00	353.00	347.00	353.00
