15.00	16.00	16.00	18.00	18.00	17.00	19.00	19.00	19.00	18.00	18.00	19.00	19.00	20.00	21.00	23.00	24.00	25.00	26.00	26.00	28.00	30.00	31.00	31.00	31.00	33.00	34.00	35.00	36.00	37.00	40.00	41.00	42.00	43.00	46.00	49.00	50.00	52.00	53.00	54.00	56.00	57.00	58.00	61.00	62.00	65.00	67.00	68.00	74.00	75.00	78.00	78.00	81.00	84.00	87.00	91.00	97.00	105.00	107.00	110.00	113.00	116.00	114.00	122.00	120.00	136.00	301.00	356.00	355.00	301.00	217.00	184.00	185.00	190.00	197.00	213.00	242.00	358.00	444.00	578.00	452.00	340.00	378.00	372.00	482.00	515.00	413.00	368.00	578.00	709.00	836.00	728.00	568.00	428.00	307.00	286.00	436.00	578.00	524.00	495.00	655.00	850.00	1013.00	1089.00	1133.00	1101.00	1106.00	1197.00	1346.00	1165.00	1060.00	970.00	921.00	933.00	977.00	823.00	734.00	626.00	689.00	712.00	640.00	713.00	795.00	909.00	1191.00	1257.00	1228.00	1154.00	1077.00	1044.00	953.00	983.00	1035.00	1124.00	1196.00	1272.00	1303.00	1357.00	1299.00	1241.00	1378.00	1444.00	1761.00	1891.00	2018.00	2091.00	1996.00	1938.00	1868.00	1865.00	1752.00	1832.00	1716.00	1711.00	1705.00	1656.00	1628.00	1692.00	1701.00	1713.00	1840.00	1729.00	1701.00	1660.00	1618.00	1596.00	1563.00	1545.00	1522.00	1501.00	1487.00	1461.00	1448.00	1427.00	1418.00	1408.00	1396.00	1385.00	1383.00	1362.00	1353.00	1346.00	1350.00	1359.00	1364.00	1364.00	1384.00	1450.00	1448.00	1433.00	1437.00	1466.00	1531.00	1544.00	1548.00	1574.00	1619.00	1576.00	1516.00	1530.00	1592.00	1628.00	1675.00	1688.00	1709.00	1764.00	1816.00	1904.00	1927.00	1932.00	1945.00	1819.00	1713.00	1659.00	1582.00	1549.00	1519.00	1502.00	1466.00	1486.00	1461.00	1462.00	1450.00	1433.00	1427.00	1417.00	1424.00	1543.00	1579.00	1577.00	1573.00	1582.00	1591.00	1591.00	1621.00	1600.00	1506.00	1446.00	1399.00	1361.00	1338.00	1341.00	1359.00	1385.00	1391.00	1320.00	1271.00	1270.00	1280.00	1287.00	1277.00	1267.00	1266.00	1271.00	1284.00	1278.00
16.00	17.00	17.00	18.00	18.00	16.00	17.00	18.00	18.00	18.00	18.00	18.00	19.00	20.00	21.00	22.00	25.00	26.00	26.00	26.00	27.00	29.00	28.00	30.00	32.00	34.00	35.00	36.00	37.00	38.00	40.00	41.00	43.00	44.00	46.00	50.00	52.00	53.00	53.00	56.00	57.00	58.00	60.00	62.00	65.00	67.00	68.00	69.00	75.00	76.00	79.00	80.00	83.00	86.00	89.00	93.00	100.00	106.00	110.00	114.00	116.00	122.00	118.00	125.00	125.00	138.00	260.00	289.00	341.00	327.00	209.00	181.00	184.00	190.00	194.00	221.00	265.00	424.00	527.00	616.00	470.00	372.00	414.00	454.00	525.00	482.00	394.00	424.00	606.00	737.00	826.00	663.00	545.00	389.00	298.00	324.00	453.00	729.00	754.00	688.00	746.00	946.00	1011.00	1098.00	1176.00	1242.00	1162.00	1219.00	1341.00	1194.00	1260.00	1175.00	1115.00	1079.00	1047.00	778.00	645.00	676.00	778.00	891.00	689.00	645.00	744.00	833.00	1058.00	1165.00	1145.00	1073.00	1046.00	927.00	932.00	1004.00	1064.00	1160.00	1255.00	1319.00	1351.00	1502.00	1370.00	1320.00	1499.00	1589.00	1983.00	2124.00	2240.00	2218.00	2036.00	1948.00	1912.00	1924.00	1823.00	1918.00	1787.00	1737.00	1749.00	1645.00	1679.00	1750.00	1810.00	1797.00	1884.00	1791.00	1749.00	1713.00	1621.00	1613.00	1599.00	1576.00	1547.00	1507.00	1492.00	1463.00	1451.00	1436.00	1431.00	1415.00	1401.00	1399.00	1409.00	1369.00	1364.00	1371.00	1361.00	1358.00	1355.00	1359.00	1370.00	1479.00	1483.00	1429.00	1416.00	1443.00	1497.00	1510.00	1524.00	1545.00	1601.00	1584.00	1557.00	1556.00	1634.00	1693.00	1727.00	1737.00	1726.00	1852.00	1907.00	1899.00	1930.00	1931.00	1796.00	1718.00	1640.00	1588.00	1539.00	1525.00	1498.00	1479.00	1449.00	1449.00	1440.00	1428.00	1422.00	1423.00	1408.00	1404.00	1439.00	1535.00	1626.00	1633.00	1622.00	1665.00	1703.00	1668.00	1532.00	1525.00	1551.00	1558.00	1530.00	1467.00	1448.00	1450.00	1452.00	1451.00	1439.00	1364.00	1333.00	1289.00	1251.00	1274.00	1263.00	1256.00	1252.00	1255.00	1265.00	1261.00
17.00	17.00	18.00	19.00	18.00	17.00	17.00	18.00	18.00	18.00	19.00	18.00	20.00	21.00	22.00	23.00	25.00	26.00	26.00	26.00	26.00	27.00	28.00	29.00	30.00	34.00	36.00	37.00	37.00	39.00	40.00	42.00	43.00	44.00	47.00	49.00	52.00	54.00	55.00	57.00	58.00	60.00	61.00	64.00	66.00	69.00	70.00	71.00	75.00	78.00	81.00	82.00	86.00	89.00	91.00	94.00	101.00	107.00	112.00	115.00	119.00	126.00	125.00	129.00	132.00	143.00	224.00	240.00	302.00	266.00	188.00	180.00	183.00	187.00	194.00	255.00	321.00	494.00	631.00	626.00	494.00	411.00	404.00	463.00	524.00	472.00	413.00	458.00	667.00	781.00	727.00	617.00	518.00	379.00	330.00	385.00	471.00	732.00	985.00	993.00	940.00	949.00	1001.00	1085.00	1178.00	1261.00	1300.00	1308.00	1397.00	1324.00	1350.00	1191.00	1043.00	1012.00	929.00	673.00	679.00	756.00	870.00	1024.00	842.00	732.00	660.00	714.00	933.00	1066.00	1005.00	969.00	902.00	884.00	928.00	928.00	978.00	1122.00	1215.00	1295.00	1409.00	1535.00	1441.00	1426.00	1537.00	1799.00	2058.00	2181.00	2345.00	2274.00	2031.00	1967.00	1946.00	1903.00	1894.00	1972.00	1853.00	1775.00	1765.00	1682.00	1728.00	1773.00	1861.00	1871.00	1960.00	1833.00	1775.00	1733.00	1615.00	1583.00	1572.00	1557.00	1548.00	1515.00	1496.00	1472.00	1469.00	1457.00	1451.00	1434.00	1422.00	1431.00	1399.00	1410.00	1428.00	1428.00	1354.00	1353.00	1355.00	1364.00	1370.00	1391.00	1407.00	1407.00	1406.00	1423.00	1490.00	1503.00	1515.00	1543.00	1657.00	1680.00	1631.00	1599.00	1664.00	1738.00	1779.00	1805.00	1791.00	1819.00	1866.00	1895.00	1895.00	1735.00	1684.00	1612.00	1572.00	1552.00	1496.00	1500.00	1484.00	1468.00	1437.00	1426.00	1427.00	1419.00	1403.00	1406.00	1390.00	1396.00	1458.00	1624.00	1649.00	1624.00	1604.00	1612.00	1610.00	1503.00	1473.00	1500.00	1538.00	1540.00	1534.00	1524.00	1443.00	1434.00	1417.00	1400.00	1399.00	1353.00	1328.00	1293.00	1274.00	1249.00	1255.00	1246.00	1239.00	1240.00	1247.00	1244.00
18.00	18.00	19.00	19.00	18.00	18.00	18.00	18.00	18.00	19.00	19.00	19.00	20.00	20.00	22.00	23.00	25.00	25.00	25.00	27.00	26.00	27.00	27.00	28.00	30.00	35.00	36.00	37.00	38.00	39.00	41.00	42.00	43.00	45.00	46.00	49.00	51.00	53.00	56.00	60.00	61.00	62.00	63.00	65.00	68.00	71.00	73.00	75.00	77.00	79.00	82.00	84.00	88.00	91.00	93.00	95.00	103.00	108.00	112.00	117.00	121.00	128.00	129.00	134.00	136.00	137.00	191.00	211.00	214.00	199.00	177.00	181.00	185.00	188.00	195.00	282.00	350.00	588.00	734.00	629.00	510.00	434.00	446.00	516.00	462.00	440.00	442.00	511.00	782.00	851.00	719.00	653.00	626.00	332.00	364.00	434.00	503.00	716.00	951.00	1020.00	1054.00	1079.00	1071.00	1078.00	1113.00	1198.00	1348.00	1408.00	1417.00	1332.00	1317.00	1143.00	980.00	884.00	844.00	720.00	776.00	879.00	945.00	1106.00	1012.00	845.00	792.00	750.00	826.00	923.00	899.00	816.00	825.00	890.00	948.00	1022.00	1049.00	1044.00	1143.00	1248.00	1301.00	1412.00	1503.00	1525.00	1721.00	1957.00	2235.00	2377.00	2397.00	2238.00	2032.00	2023.00	1991.00	1973.00	1961.00	2036.00	1917.00	1819.00	1776.00	1754.00	1868.00	1923.00	1960.00	1959.00	2013.00	1825.00	1757.00	1718.00	1637.00	1608.00	1579.00	1559.00	1538.00	1511.00	1500.00	1505.00	1496.00	1484.00	1485.00	1469.00	1465.00	1464.00	1495.00	1493.00	1458.00	1433.00	1355.00	1354.00	1358.00	1365.00	1372.00	1392.00	1400.00	1415.00	1413.00	1427.00	1497.00	1510.00	1529.00	1574.00	1736.00	1772.00	1749.00	1690.00	1700.00	1737.00	1732.00	1802.00	1834.00	1848.00	1827.00	1756.00	1700.00	1617.00	1595.00	1574.00	1531.00	1503.00	1468.00	1463.00	1448.00	1449.00	1423.00	1409.00	1419.00	1410.00	1395.00	1386.00	1376.00	1397.00	1493.00	1558.00	1570.00	1550.00	1502.00	1523.00	1456.00	1444.00	1446.00	1456.00	1468.00	1471.00	1464.00	1455.00	1418.00	1383.00	1374.00	1363.00	1361.00	1326.00	1316.00	1294.00	1273.00	1231.00	1244.00	1242.00	1234.00	1228.00	1229.00	1228.00
19.00	20.00	19.00	19.00	19.00	19.00	19.00	19.00	19.00	19.00	21.00	21.00	19.00	20.00	22.00	22.00	23.00	23.00	24.00	25.00	27.00	28.00	29.00	30.00	31.00	33.00	34.00	36.00	37.00	37.00	41.00	42.00	43.00	44.00	47.00	50.00	51.00	54.00	56.00	60.00	62.00	64.00	65.00	68.00	70.00	74.00	76.00	78.00	79.00	82.00	84.00	86.00	90.00	92.00	95.00	97.00	103.00	110.00	114.00	119.00	124.00	130.00	134.00	138.00	140.00	144.00	166.00	165.00	168.00	173.00	180.00	184.00	189.00	193.00	198.00	276.00	343.00	610.00	695.00	562.00	502.00	487.00	456.00	481.00	539.00	495.00	499.00	552.00	947.00	900.00	804.00	727.00	619.00	340.00	393.00	480.00	556.00	808.00	883.00	972.00	1008.00	1159.00	1163.00	1197.00	1176.00	1189.00	1352.00	1466.00	1322.00	1188.00	1076.00	1049.00	994.00	881.00	736.00	788.00	862.00	1012.00	1099.00	1260.00	1107.00	978.00	899.00	881.00	765.00	759.00	785.00	838.00	905.00	991.00	1064.00	1112.00	1193.00	1132.00	1073.00	1132.00	1191.00	1388.00	1495.00	1630.00	2022.00	2173.00	2326.00	2408.00	2297.00	2205.00	2100.00	2098.00	2017.00	2035.00	2006.00	2079.00	1948.00	1851.00	1814.00	1809.00	1949.00	2044.00	2077.00	2056.00	1947.00	1790.00	1730.00	1699.00	1616.00	1602.00	1593.00	1578.00	1560.00	1537.00	1537.00	1541.00	1531.00	1542.00	1554.00	1564.00	1561.00	1549.00	1514.00	1459.00	1404.00	1397.00	1356.00	1358.00	1362.00	1369.00	1377.00	1399.00	1413.00	1474.00	1498.00	1477.00	1462.00	1519.00	1538.00	1583.00	1758.00	1856.00	1852.00	1785.00	1720.00	1725.00	1733.00	1769.00	1789.00	1827.00	1734.00	1674.00	1636.00	1534.00	1510.00	1500.00	1515.00	1483.00	1450.00	1436.00	1428.00	1420.00	1418.00	1403.00	1394.00	1398.00	1386.00	1360.00	1368.00	1393.00	1423.00	1421.00	1425.00	1402.00	1383.00	1380.00	1378.00	1387.00	1406.00	1414.00	1426.00	1424.00	1420.00	1419.00	1382.00	1359.00	1334.00	1323.00	1313.00	1301.00	1293.00	1283.00	1266.00	1240.00	1224.00	1238.00	1231.00	1225.00	1215.00	1214.00
21.00	21.00	21.00	20.00	20.00	20.00	20.00	20.00	20.00	20.00	21.00	21.00	20.00	20.00	20.00	20.00	21.00	23.00	23.00	24.00	25.00	27.00	28.00	28.00	29.00	31.00	31.00	34.00	37.00	38.00	40.00	41.00	44.00	44.00	48.00	51.00	53.00	55.00	57.00	62.00	65.00	67.00	70.00	72.00	74.00	79.00	81.00	84.00	87.00	90.00	91.00	92.00	96.00	98.00	100.00	101.00	106.00	114.00	119.00	124.00	128.00	134.00	138.00	141.00	146.00	152.00	162.00	167.00	172.00	178.00	188.00	193.00	197.00	203.00	207.00	247.00	304.00	462.00	424.00	371.00	373.00	383.00	433.00	503.00	682.00	725.00	739.00	823.00	1184.00	963.00	850.00	703.00	578.00	415.00	382.00	445.00	539.00	665.00	795.00	889.00	1009.00	1179.00	1267.00	1335.00	1406.00	1385.00	1457.00	1440.00	1443.00	1392.00	1069.00	948.00	811.00	741.00	818.00	962.00	1107.00	1164.00	1271.00	1405.00	1300.00	1210.00	1143.00	1081.00	950.00	864.00	768.00	820.00	877.00	1077.00	1183.00	1256.00	1348.00	1438.00	1410.00	1326.00	1238.00	1492.00	1706.00	1869.00	2026.00	2154.00	2311.00	2315.00	2366.00	2241.00	2162.00	2148.00	2089.00	2035.00	2036.00	2183.00	2046.00	1969.00	1911.00	2063.00	2086.00	2140.00	2110.00	2028.00	1823.00	1733.00	1752.00	1776.00	1705.00	1732.00	1719.00	1661.00	1610.00	1667.00	1600.00	1543.00	1549.00	1554.00	1584.00	1527.00	1515.00	1493.00	1400.00	1381.00	1377.00	1387.00	1522.00	1513.00	1439.00	1439.00	1419.00	1456.00	1463.00	1493.00	1535.00	1618.00	1476.00	1523.00	1553.00	1622.00	1797.00	1869.00	1868.00	1803.00	1741.00	1754.00	1791.00	1811.00	1776.00	1695.00	1600.00	1540.00	1502.00	1466.00	1452.00	1439.00	1428.00	1427.00	1396.00	1397.00	1392.00	1383.00	1377.00	1371.00	1405.00	1414.00	1382.00	1333.00	1333.00	1330.00	1331.00	1315.00	1311.00	1311.00	1314.00	1314.00	1327.00	1335.00	1351.00	1356.00	1363.00	1364.00	1365.00	1357.00	1336.00	1323.00	1295.00	1314.00	1310.00	1265.00	1262.00	1259.00	1243.00	1241.00	1253.00	1236.00	1215.00	1195.00	1214.00	1189.00
22.00	22.00	22.00	21.00	21.00	21.00	21.00	21.00	21.00	22.00	21.00	23.00	20.00	20.00	19.00	20.00	21.00	23.00	24.00	24.00	24.00	26.00	27.00	27.00	27.00	31.00	31.00	33.00	35.00	35.00	40.00	41.00	44.00	45.00	47.00	51.00	53.00	56.00	58.00	63.00	65.00	68.00	72.00	77.00	79.00	83.00	85.00	88.00	90.00	93.00	95.00	96.00	99.00	101.00	103.00	104.00	109.00	119.00	124.00	127.00	131.00	139.00	142.00	144.00	147.00	151.00	163.00	167.00	173.00	179.00	190.00	196.00	203.00	207.00	211.00	222.00	250.00	342.00	372.00	329.00	359.00	413.00	461.00	578.00	775.00	875.00	895.00	987.00	1199.00	1028.00	890.00	781.00	707.00	492.00	394.00	435.00	596.00	680.00	796.00	870.00	930.00	1106.00	1194.00	1298.00	1374.00	1426.00	1436.00	1287.00	1357.00	1254.00	940.00	830.00	779.00	822.00	927.00	1109.00	1253.00	1306.00	1374.00	1314.00	1230.00	1164.00	1074.00	1001.00	870.00	812.00	854.00	928.00	942.00	1039.00	1143.00	1271.00	1399.00	1585.00	1555.00	1478.00	1345.00	1385.00	1583.00	1718.00	1920.00	2001.00	2144.00	2277.00	2296.00	2188.00	2163.00	2141.00	2061.00	2020.00	2021.00	2170.00	2141.00	2043.00	1984.00	2133.00	2158.00	2104.00	1989.00	1927.00	1805.00	1759.00	1800.00	1810.00	1756.00	1712.00	1650.00	1603.00	1585.00	1625.00	1568.00	1471.00	1456.00	1459.00	1470.00	1452.00	1441.00	1411.00	1384.00	1397.00	1407.00	1417.00	1453.00	1498.00	1546.00	1481.00	1418.00	1479.00	1515.00	1524.00	1558.00	1674.00	1512.00	1563.00	1623.00	1684.00	1833.00	1843.00	1785.00	1732.00	1712.00	1727.00	1773.00	1762.00	1667.00	1638.00	1571.00	1516.00	1497.00	1442.00	1429.00	1416.00	1412.00	1402.00	1390.00	1377.00	1376.00	1367.00	1364.00	1358.00	1358.00	1346.00	1332.00	1324.00	1323.00	1320.00	1316.00	1305.00	1300.00	1297.00	1298.00	1300.00	1312.00	1319.00	1330.00	1333.00	1339.00	1339.00	1341.00	1337.00	1319.00	1308.00	1296.00	1310.00	1330.00	1332.00	1343.00	1342.00	1310.00	1334.00	1350.00	1298.00	1242.00	1246.00	1190.00	1187.00
23.00	24.00	23.00	21.00	21.00	23.00	23.00	22.00	23.00	22.00	22.00	22.00	22.00	21.00	21.00	20.00	21.00	22.00	23.00	23.00	25.00	26.00	26.00	26.00	27.00	31.00	32.00	34.00	35.00	36.00	38.00	41.00	42.00	45.00	48.00	51.00	54.00	56.00	59.00	64.00	66.00	70.00	73.00	79.00	82.00	88.00	91.00	92.00	96.00	97.00	100.00	101.00	103.00	103.00	105.00	107.00	111.00	120.00	122.00	144.00	139.00	143.00	147.00	148.00	149.00	151.00	164.00	168.00	173.00	178.00	190.00	206.00	266.00	274.00	227.00	224.00	243.00	286.00	289.00	343.00	394.00	489.00	547.00	651.00	877.00	964.00	1041.00	1154.00	1250.00	1058.00	947.00	860.00	757.00	616.00	527.00	422.00	551.00	717.00	885.00	938.00	1011.00	1115.00	1209.00	1308.00	1377.00	1305.00	1309.00	1192.00	1246.00	1093.00	831.00	817.00	857.00	969.00	1017.00	1221.00	1337.00	1415.00	1431.00	1263.00	1177.00	1103.00	1031.00	957.00	866.00	907.00	997.00	1002.00	1098.00	985.00	1132.00	1361.00	1581.00	1778.00	1705.00	1506.00	1407.00	1521.00	1654.00	1726.00	1937.00	2002.00	2219.00	2301.00	2171.00	2091.00	2095.00	2050.00	2023.00	1997.00	2030.00	2146.00	2156.00	2098.00	2082.00	2212.00	2171.00	2063.00	1933.00	1867.00	1826.00	1824.00	1825.00	1830.00	1719.00	1625.00	1593.00	1564.00	1552.00	1498.00	1469.00	1427.00	1427.00	1428.00	1431.00	1419.00	1415.00	1405.00	1409.00	1455.00	1474.00	1457.00	1522.00	1474.00	1482.00	1515.00	1484.00	1459.00	1525.00	1550.00	1583.00	1659.00	1533.00	1554.00	1600.00	1665.00	1790.00	1762.00	1704.00	1685.00	1714.00	1743.00	1804.00	1692.00	1630.00	1558.00	1533.00	1506.00	1462.00	1414.00	1412.00	1406.00	1394.00	1390.00	1433.00	1401.00	1369.00	1352.00	1346.00	1342.00	1344.00	1327.00	1313.00	1313.00	1313.00	1310.00	1307.00	1300.00	1298.00	1296.00	1294.00	1293.00	1299.00	1304.00	1312.00	1316.00	1319.00	1320.00	1321.00	1320.00	1311.00	1301.00	1304.00	1323.00	1329.00	1362.00	1362.00	1353.00	1337.00	1367.00	1430.00	1354.00	1309.00	1337.00	1227.00	1178.00
23.00	24.00	23.00	21.00	21.00	23.00	23.00	22.00	23.00	22.00	22.00	22.00	22.00	21.00	21.00	20.00	21.00	22.00	23.00	23.00	25.00	26.00	26.00	26.00	27.00	31.00	32.00	34.00	35.00	36.00	38.00	41.00	42.00	45.00	48.00	51.00	54.00	56.00	59.00	64.00	66.00	70.00	73.00	79.00	82.00	88.00	91.00	92.00	96.00	97.00	100.00	101.00	103.00	103.00	105.00	107.00	111.00	120.00	122.00	144.00	139.00	143.00	147.00	148.00	149.00	151.00	164.00	168.00	173.00	178.00	190.00	206.00	266.00	274.00	227.00	224.00	243.00	286.00	289.00	343.00	394.00	489.00	547.00	651.00	877.00	964.00	1041.00	1154.00	1250.00	1058.00	947.00	860.00	757.00	616.00	527.00	422.00	551.00	717.00	885.00	938.00	1011.00	1115.00	1209.00	1308.00	1377.00	1305.00	1309.00	1192.00	1246.00	1093.00	831.00	817.00	857.00	969.00	1017.00	1221.00	1337.00	1415.00	1431.00	1263.00	1177.00	1103.00	1031.00	957.00	866.00	907.00	997.00	1002.00	1098.00	985.00	1132.00	1361.00	1581.00	1778.00	1705.00	1506.00	1407.00	1521.00	1654.00	1726.00	1937.00	2002.00	2219.00	2301.00	2171.00	2091.00	2095.00	2050.00	2023.00	1997.00	2030.00	2146.00	2156.00	2098.00	2082.00	2212.00	2171.00	2063.00	1933.00	1867.00	1826.00	1824.00	1825.00	1830.00	1719.00	1625.00	1593.00	1564.00	1552.00	1498.00	1469.00	1427.00	1427.00	1428.00	1431.00	1419.00	1415.00	1405.00	1409.00	1455.00	1474.00	1457.00	1522.00	1474.00	1482.00	1515.00	1484.00	1459.00	1525.00	1550.00	1583.00	1659.00	1533.00	1554.00	1600.00	1665.00	1790.00	1762.00	1704.00	1685.00	1714.00	1743.00	1804.00	1692.00	1630.00	1558.00	1533.00	1506.00	1462.00	1414.00	1412.00	1406.00	1394.00	1390.00	1433.00	1401.00	1369.00	1352.00	1346.00	1342.00	1344.00	1327.00	1313.00	1313.00	1313.00	1310.00	1307.00	1300.00	1298.00	1296.00	1294.00	1293.00	1299.00	1304.00	1312.00	1316.00	1319.00	1320.00	1321.00	1320.00	1311.00	1301.00	1304.00	1323.00	1329.00	1362.00	1362.00	1353.00	1337.00	1367.00	1430.00	1354.00	1309.00	1337.00	1227.00	1178.00
25.00	26.00	25.00	25.00	26.00	25.00	26.00	25.00	24.00	24.00	24.00	24.00	23.00	23.00	22.00	22.00	23.00	23.00	24.00	23.00	24.00	25.00	27.00	27.00	27.00	32.00	33.00	35.00	36.00	36.00	39.00	40.00	41.00	43.00	47.00	53.00	56.00	59.00	61.00	67.00	69.00	72.00	77.00	83.00	87.00	94.00	98.00	102.00	104.00	106.00	108.00	111.00	116.00	117.00	116.00	116.00	118.00	134.00	173.00	198.00	231.00	167.00	161.00	162.00	163.00	164.00	171.00	177.00	185.00	192.00	217.00	303.00	428.00	442.00	354.00	298.00	274.00	297.00	424.00	596.00	631.00	689.00	779.00	874.00	1044.00	1191.00	1245.00	1203.00	1327.00	1157.00	1074.00	958.00	875.00	789.00	678.00	575.00	469.00	629.00	778.00	870.00	957.00	1121.00	1194.00	1281.00	1340.00	1234.00	1016.00	992.00	942.00	862.00	1000.00	1072.00	1052.00	1159.00	1252.00	1377.00	1440.00	1453.00	1362.00	1098.00	1021.00	975.00	971.00	998.00	1093.00	1172.00	1183.00	1290.00	1369.00	1212.00	1153.00	1368.00	1655.00	2076.00	1957.00	1691.00	1682.00	1965.00	2072.00	2089.00	2203.00	2164.00	2201.00	2131.00	2019.00	1990.00	2054.00	2089.00	2098.00	2098.00	2012.00	1964.00	2001.00	2042.00	2113.00	2140.00	2052.00	1965.00	1885.00	1810.00	1756.00	1883.00	1912.00	1871.00	1647.00	1582.00	1503.00	1461.00	1436.00	1413.00	1408.00	1404.00	1404.00	1406.00	1406.00	1404.00	1405.00	1408.00	1416.00	1458.00	1477.00	1467.00	1495.00	1483.00	1465.00	1449.00	1452.00	1433.00	1466.00	1493.00	1509.00	1519.00	1531.00	1533.00	1573.00	1615.00	1664.00	1644.00	1646.00	1679.00	1730.00	1785.00	1746.00	1593.00	1538.00	1490.00	1468.00	1442.00	1408.00	1394.00	1379.00	1368.00	1368.00	1360.00	1476.00	1418.00	1358.00	1323.00	1309.00	1299.00	1292.00	1290.00	1292.00	1296.00	1297.00	1297.00	1296.00	1293.00	1293.00	1292.00	1292.00	1291.00	1292.00	1292.00	1294.00	1294.00	1296.00	1297.00	1298.00	1297.00	1297.00	1299.00	1298.00	1298.00	1303.00	1316.00	1320.00	1336.00	1353.00	1410.00	1365.00	1338.00	1311.00	1279.00	1240.00	1215.00
26.00	27.00	27.00	26.00	27.00	27.00	27.00	26.00	25.00	25.00	25.00	24.00	23.00	23.00	23.00	23.00	23.00	24.00	25.00	25.00	24.00	26.00	26.00	27.00	28.00	32.00	33.00	35.00	36.00	37.00	39.00	40.00	42.00	44.00	47.00	53.00	55.00	59.00	62.00	68.00	71.00	74.00	78.00	85.00	89.00	97.00	102.00	105.00	110.00	111.00	113.00	115.00	122.00	123.00	123.00	122.00	123.00	167.00	219.00	295.00	321.00	190.00	170.00	171.00	172.00	174.00	178.00	188.00	213.00	213.00	241.00	329.00	477.00	511.00	413.00	425.00	354.00	260.00	312.00	524.00	576.00	657.00	716.00	787.00	945.00	957.00	957.00	952.00	1200.00	1182.00	1151.00	1070.00	1035.00	888.00	757.00	659.00	562.00	594.00	760.00	838.00	928.00	1084.00	1160.00	1238.00	1329.00	1204.00	1121.00	1191.00	1024.00	885.00	1066.00	1162.00	1216.00	1296.00	1354.00	1521.00	1511.00	1456.00	1363.00	1099.00	1034.00	1031.00	1060.00	1069.00	1231.00	1291.00	1342.00	1412.00	1477.00	1342.00	1253.00	1304.00	1573.00	2026.00	2082.00	1849.00	1822.00	2149.00	2280.00	2251.00	2155.00	2110.00	2131.00	2018.00	1970.00	1969.00	2124.00	2195.00	2162.00	2073.00	1973.00	2046.00	2093.00	2083.00	2102.00	2047.00	1944.00	1886.00	1826.00	1748.00	1706.00	1782.00	1721.00	1636.00	1490.00	1475.00	1455.00	1428.00	1412.00	1406.00	1405.00	1403.00	1402.00	1406.00	1405.00	1401.00	1400.00	1399.00	1402.00	1406.00	1411.00	1417.00	1425.00	1429.00	1426.00	1424.00	1425.00	1421.00	1438.00	1455.00	1462.00	1492.00	1511.00	1527.00	1569.00	1586.00	1602.00	1633.00	1638.00	1676.00	1750.00	1693.00	1671.00	1545.00	1502.00	1459.00	1445.00	1428.00	1401.00	1368.00	1360.00	1351.00	1348.00	1340.00	1389.00	1347.00	1316.00	1299.00	1298.00	1293.00	1287.00	1286.00	1287.00	1292.00	1292.00	1292.00	1291.00	1291.00	1291.00	1290.00	1291.00	1292.00	1302.00	1297.00	1292.00	1293.00	1295.00	1296.00	1295.00	1296.00	1297.00	1298.00	1298.00	1298.00	1301.00	1316.00	1324.00	1342.00	1380.00	1396.00	1349.00	1348.00	1335.00	1322.00	1255.00	1200.00
26.00	28.00	29.00	27.00	27.00	29.00	28.00	27.00	27.00	25.00	25.00	25.00	25.00	25.00	24.00	24.00	25.00	25.00	25.00	26.00	26.00	26.00	27.00	27.00	29.00	31.00	33.00	34.00	35.00	37.00	39.00	41.00	42.00	44.00	47.00	53.00	55.00	58.00	62.00	70.00	74.00	78.00	82.00	89.00	91.00	100.00	106.00	110.00	115.00	117.00	119.00	121.00	126.00	129.00	129.00	129.00	129.00	202.00	276.00	360.00	368.00	199.00	189.00	180.00	183.00	185.00	188.00	191.00	208.00	234.00	302.00	389.00	484.00	600.00	529.00	476.00	383.00	273.00	282.00	405.00	472.00	525.00	612.00	648.00	752.00	776.00	809.00	872.00	995.00	1000.00	1091.00	1176.00	1149.00	930.00	825.00	735.00	639.00	657.00	804.00	903.00	999.00	1107.00	1176.00	1256.00	1334.00	1198.00	1176.00	1287.00	1081.00	942.00	1070.00	1187.00	1298.00	1355.00	1440.00	1555.00	1520.00	1429.00	1339.00	1127.00	1166.00	1088.00	1128.00	1164.00	1231.00	1326.00	1442.00	1503.00	1615.00	1437.00	1345.00	1292.00	1506.00	1956.00	2193.00	2010.00	1979.00	2238.00	2452.00	2366.00	2132.00	2093.00	1990.00	1942.00	1935.00	1997.00	2126.00	2117.00	2070.00	1989.00	1903.00	2051.00	2085.00	2117.00	2047.00	1907.00	1833.00	1770.00	1712.00	1661.00	1554.00	1542.00	1511.00	1482.00	1448.00	1446.00	1459.00	1431.00	1407.00	1404.00	1404.00	1402.00	1401.00	1400.00	1400.00	1400.00	1400.00	1399.00	1399.00	1400.00	1402.00	1404.00	1407.00	1408.00	1409.00	1411.00	1412.00	1416.00	1424.00	1435.00	1445.00	1474.00	1499.00	1518.00	1546.00	1551.00	1584.00	1605.00	1652.00	1705.00	1633.00	1599.00	1566.00	1505.00	1466.00	1434.00	1418.00	1409.00	1391.00	1361.00	1343.00	1345.00	1330.00	1333.00	1308.00	1289.00	1283.00	1286.00	1286.00	1284.00	1282.00	1282.00	1283.00	1288.00	1290.00	1289.00	1289.00	1290.00	1290.00	1291.00	1291.00	1292.00	1295.00	1298.00	1294.00	1296.00	1299.00	1298.00	1298.00	1298.00	1298.00	1298.00	1298.00	1299.00	1300.00	1316.00	1331.00	1351.00	1399.00	1374.00	1335.00	1290.00	1287.00	1258.00	1211.00	1187.00
27.00	28.00	30.00	29.00	29.00	29.00	28.00	27.00	27.00	27.00	27.00	26.00	26.00	25.00	25.00	25.00	25.00	25.00	26.00	26.00	26.00	27.00	27.00	27.00	29.00	31.00	33.00	35.00	36.00	37.00	40.00	41.00	43.00	44.00	48.00	53.00	56.00	58.00	61.00	72.00	77.00	82.00	89.00	93.00	95.00	103.00	107.00	113.00	121.00	124.00	126.00	127.00	131.00	134.00	136.00	135.00	135.00	228.00	346.00	455.00	380.00	230.00	215.00	213.00	208.00	195.00	199.00	200.00	218.00	253.00	337.00	425.00	550.00	694.00	620.00	528.00	449.00	292.00	280.00	320.00	368.00	403.00	464.00	511.00	653.00	629.00	664.00	744.00	833.00	945.00	1069.00	1180.00	1230.00	1031.00	915.00	808.00	687.00	676.00	866.00	930.00	1007.00	1205.00	1249.00	1319.00	1383.00	1222.00	1257.00	1351.00	1252.00	1111.00	1025.00	1133.00	1227.00	1315.00	1421.00	1494.00	1432.00	1341.00	1258.00	1268.00	1225.00	1147.00	1154.00	1232.00	1253.00	1312.00	1463.00	1573.00	1712.00	1501.00	1412.00	1342.00	1419.00	1872.00	2142.00	2202.00	2183.00	2310.00	2485.00	2337.00	2084.00	2051.00	1945.00	1905.00	2000.00	2054.00	1993.00	2032.00	2031.00	2014.00	1927.00	1954.00	2003.00	2028.00	1974.00	1864.00	1795.00	1741.00	1705.00	1654.00	1499.00	1469.00	1456.00	1446.00	1427.00	1439.00	1461.00	1463.00	1412.00	1405.00	1404.00	1402.00	1401.00	1400.00	1400.00	1400.00	1399.00	1400.00	1400.00	1401.00	1403.00	1404.00	1413.00	1409.00	1412.00	1419.00	1430.00	1415.00	1415.00	1422.00	1429.00	1452.00	1468.00	1509.00	1524.00	1551.00	1595.00	1659.00	1670.00	1626.00	1534.00	1503.00	1499.00	1462.00	1442.00	1403.00	1391.00	1386.00	1374.00	1351.00	1349.00	1337.00	1318.00	1314.00	1293.00	1283.00	1277.00	1277.00	1277.00	1277.00	1277.00	1279.00	1281.00	1286.00	1286.00	1287.00	1288.00	1289.00	1291.00	1292.00	1293.00	1296.00	1299.00	1300.00	1303.00	1303.00	1306.00	1303.00	1302.00	1302.00	1300.00	1300.00	1302.00	1302.00	1302.00	1319.00	1356.00	1383.00	1353.00	1320.00	1288.00	1251.00	1233.00	1224.00	1194.00	1178.00
28.00	29.00	30.00	32.00	30.00	29.00	29.00	28.00	28.00	28.00	27.00	27.00	27.00	27.00	27.00	26.00	26.00	26.00	26.00	27.00	26.00	27.00	28.00	28.00	28.00	31.00	32.00	34.00	35.00	37.00	40.00	41.00	42.00	44.00	48.00	53.00	55.00	59.00	62.00	74.00	79.00	85.00	91.00	101.00	100.00	106.00	111.00	115.00	125.00	129.00	133.00	134.00	137.00	139.00	141.00	141.00	142.00	272.00	409.00	519.00	424.00	295.00	283.00	314.00	269.00	210.00	239.00	232.00	249.00	292.00	434.00	454.00	561.00	719.00	757.00	650.00	543.00	293.00	325.00	353.00	339.00	354.00	374.00	401.00	505.00	513.00	546.00	572.00	879.00	1024.00	1117.00	1203.00	1189.00	1115.00	1007.00	902.00	799.00	728.00	898.00	999.00	1061.00	1212.00	1291.00	1378.00	1408.00	1246.00	1344.00	1447.00	1487.00	1293.00	1004.00	1084.00	1215.00	1317.00	1431.00	1451.00	1358.00	1286.00	1238.00	1359.00	1281.00	1211.00	1259.00	1263.00	1323.00	1391.00	1494.00	1630.00	1802.00	1633.00	1508.00	1444.00	1459.00	1713.00	2016.00	2269.00	2394.00	2403.00	2394.00	2289.00	2029.00	1983.00	1891.00	1847.00	1935.00	1933.00	2005.00	2044.00	2080.00	2115.00	2040.00	1935.00	1989.00	1964.00	1886.00	1816.00	1800.00	1704.00	1627.00	1549.00	1475.00	1455.00	1445.00	1434.00	1419.00	1415.00	1411.00	1409.00	1407.00	1405.00	1404.00	1402.00	1401.00	1401.00	1400.00	1399.00	1400.00	1400.00	1401.00	1402.00	1404.00	1407.00	1451.00	1455.00	1464.00	1477.00	1455.00	1415.00	1414.00	1416.00	1421.00	1434.00	1450.00	1480.00	1501.00	1532.00	1616.00	1616.00	1579.00	1536.00	1474.00	1453.00	1445.00	1429.00	1413.00	1378.00	1370.00	1363.00	1354.00	1361.00	1348.00	1321.00	1304.00	1299.00	1287.00	1279.00	1273.00	1272.00	1272.00	1274.00	1275.00	1277.00	1279.00	1284.00	1285.00	1287.00	1289.00	1295.00	1298.00	1299.00	1300.00	1301.00	1308.00	1312.00	1333.00	1349.00	1314.00	1309.00	1307.00	1305.00	1304.00	1305.00	1308.00	1313.00	1314.00	1308.00	1336.00	1402.00	1366.00	1261.00	1297.00	1250.00	1219.00	1206.00	1185.00	1169.00
28.00	29.00	30.00	32.00	31.00	30.00	30.00	29.00	29.00	30.00	29.00	29.00	29.00	29.00	28.00	28.00	27.00	27.00	27.00	27.00	27.00	27.00	28.00	29.00	28.00	31.00	32.00	33.00	34.00	36.00	40.00	42.00	43.00	44.00	48.00	52.00	54.00	57.00	61.00	70.00	73.00	81.00	92.00	102.00	107.00	112.00	114.00	119.00	129.00	134.00	139.00	140.00	145.00	147.00	148.00	148.00	153.00	261.00	319.00	417.00	423.00	352.00	370.00	339.00	274.00	228.00	248.00	288.00	328.00	381.00	613.00	594.00	695.00	807.00	845.00	632.00	489.00	309.00	394.00	596.00	527.00	562.00	495.00	444.00	428.00	441.00	464.00	518.00	938.00	960.00	1020.00	1062.00	1083.00	1145.00	1122.00	1040.00	918.00	737.00	891.00	981.00	1062.00	1151.00	1244.00	1371.00	1417.00	1380.00	1367.00	1461.00	1600.00	1418.00	1104.00	1051.00	1121.00	1247.00	1476.00	1410.00	1358.00	1300.00	1269.00	1295.00	1272.00	1327.00	1410.00	1368.00	1445.00	1496.00	1567.00	1647.00	1825.00	1658.00	1559.00	1630.00	1646.00	1665.00	1968.00	2270.00	2398.00	2265.00	2253.00	2247.00	1981.00	1921.00	1821.00	1772.00	1799.00	1936.00	2105.00	2090.00	2079.00	2069.00	2012.00	1842.00	1785.00	1727.00	1676.00	1633.00	1605.00	1570.00	1532.00	1499.00	1466.00	1446.00	1438.00	1430.00	1418.00	1414.00	1411.00	1409.00	1408.00	1406.00	1404.00	1402.00	1401.00	1400.00	1399.00	1400.00	1399.00	1400.00	1402.00	1404.00	1407.00	1413.00	1439.00	1454.00	1466.00	1439.00	1425.00	1417.00	1416.00	1416.00	1418.00	1428.00	1432.00	1437.00	1471.00	1544.00	1540.00	1522.00	1492.00	1475.00	1435.00	1418.00	1406.00	1394.00	1389.00	1365.00	1362.00	1347.00	1337.00	1319.00	1313.00	1289.00	1286.00	1288.00	1279.00	1274.00	1269.00	1269.00	1271.00	1272.00	1274.00	1276.00	1277.00	1287.00	1291.00	1294.00	1298.00	1305.00	1308.00	1310.00	1311.00	1310.00	1317.00	1328.00	1358.00	1340.00	1319.00	1314.00	1314.00	1314.00	1313.00	1311.00	1317.00	1328.00	1353.00	1296.00	1368.00	1400.00	1303.00	1225.00	1236.00	1218.00	1197.00	1192.00	1178.00	1163.00
30.00	30.00	33.00	33.00	32.00	31.00	30.00	32.00	31.00	30.00	30.00	31.00	30.00	30.00	31.00	29.00	28.00	29.00	28.00	28.00	28.00	28.00	29.00	29.00	29.00	31.00	32.00	33.00	35.00	36.00	40.00	42.00	44.00	45.00	49.00	53.00	55.00	59.00	62.00	70.00	76.00	83.00	90.00	101.00	104.00	111.00	115.00	121.00	132.00	137.00	144.00	148.00	153.00	154.00	154.00	154.00	160.00	208.00	277.00	358.00	443.00	328.00	353.00	317.00	253.00	237.00	273.00	304.00	408.00	522.00	713.00	788.00	870.00	849.00	794.00	622.00	514.00	320.00	431.00	732.00	759.00	717.00	646.00	576.00	542.00	517.00	474.00	484.00	852.00	897.00	891.00	904.00	958.00	1081.00	1130.00	1146.00	1074.00	839.00	828.00	861.00	939.00	1127.00	1226.00	1314.00	1407.00	1483.00	1381.00	1471.00	1647.00	1532.00	1331.00	1255.00	1120.00	1185.00	1323.00	1309.00	1291.00	1304.00	1306.00	1350.00	1336.00	1407.00	1488.00	1497.00	1521.00	1585.00	1647.00	1693.00	1852.00	1625.00	1636.00	1788.00	1929.00	1792.00	1953.00	2152.00	2142.00	2183.00	2213.00	2168.00	1860.00	1821.00	1794.00	1756.00	1744.00	1867.00	2021.00	2004.00	2019.00	2024.00	1987.00	1834.00	1793.00	1818.00	1785.00	1830.00	1798.00	1774.00	1694.00	1515.00	1460.00	1441.00	1434.00	1427.00	1418.00	1414.00	1412.00	1411.00	1409.00	1406.00	1404.00	1403.00	1402.00	1401.00	1400.00	1400.00	1401.00	1400.00	1404.00	1409.00	1414.00	1426.00	1432.00	1441.00	1446.00	1433.00	1426.00	1422.00	1421.00	1420.00	1417.00	1422.00	1424.00	1427.00	1466.00	1496.00	1478.00	1470.00	1453.00	1436.00	1401.00	1393.00	1381.00	1360.00	1370.00	1355.00	1351.00	1336.00	1329.00	1290.00	1281.00	1274.00	1275.00	1276.00	1271.00	1268.00	1267.00	1267.00	1270.00	1271.00	1274.00	1277.00	1283.00	1298.00	1303.00	1305.00	1311.00	1320.00	1324.00	1326.00	1325.00	1329.00	1329.00	1334.00	1349.00	1345.00	1336.00	1326.00	1325.00	1322.00	1326.00	1319.00	1337.00	1358.00	1345.00	1276.00	1341.00	1307.00	1253.00	1206.00	1199.00	1191.00	1180.00	1176.00	1166.00	1157.00
31.00	32.00	35.00	35.00	33.00	33.00	33.00	33.00	33.00	32.00	32.00	32.00	31.00	31.00	30.00	30.00	30.00	30.00	30.00	29.00	30.00	29.00	29.00	30.00	30.00	31.00	33.00	34.00	35.00	37.00	39.00	42.00	44.00	45.00	49.00	54.00	56.00	58.00	62.00	70.00	76.00	80.00	87.00	101.00	103.00	113.00	117.00	123.00	134.00	140.00	147.00	154.00	160.00	162.00	162.00	160.00	169.00	248.00	278.00	372.00	445.00	303.00	303.00	277.00	255.00	279.00	325.00	342.00	390.00	478.00	690.00	840.00	924.00	880.00	751.00	552.00	488.00	340.00	457.00	735.00	848.00	844.00	771.00	689.00	660.00	672.00	611.00	599.00	725.00	827.00	774.00	768.00	864.00	1052.00	1106.00	1174.00	1102.00	966.00	990.00	894.00	892.00	1143.00	1262.00	1314.00	1361.00	1438.00	1483.00	1489.00	1687.00	1741.00	1484.00	1363.00	1267.00	1193.00	1179.00	1212.00	1236.00	1256.00	1288.00	1424.00	1390.00	1498.00	1559.00	1591.00	1644.00	1652.00	1691.00	1749.00	1858.00	1654.00	1716.00	1784.00	1867.00	1932.00	1937.00	1991.00	1932.00	2148.00	2071.00	2003.00	1808.00	1757.00	1743.00	1721.00	1692.00	1804.00	1860.00	1886.00	1922.00	1929.00	1911.00	1860.00	1876.00	1896.00	1898.00	1807.00	1754.00	1737.00	1711.00	1551.00	1450.00	1435.00	1430.00	1425.00	1418.00	1417.00	1414.00	1412.00	1410.00	1407.00	1405.00	1403.00	1403.00	1402.00	1403.00	1403.00	1402.00	1402.00	1413.00	1422.00	1429.00	1444.00	1452.00	1455.00	1465.00	1457.00	1440.00	1430.00	1451.00	1426.00	1417.00	1419.00	1421.00	1424.00	1438.00	1439.00	1449.00	1441.00	1425.00	1405.00	1368.00	1364.00	1353.00	1337.00	1340.00	1339.00	1335.00	1330.00	1294.00	1264.00	1265.00	1264.00	1265.00	1267.00	1264.00	1265.00	1265.00	1265.00	1271.00	1272.00	1279.00	1285.00	1292.00	1313.00	1321.00	1327.00	1335.00	1371.00	1349.00	1356.00	1364.00	1360.00	1348.00	1348.00	1369.00	1412.00	1388.00	1346.00	1337.00	1334.00	1331.00	1339.00	1341.00	1319.00	1298.00	1249.00	1245.00	1233.00	1218.00	1190.00	1183.00	1176.00	1168.00	1162.00	1155.00	1150.00
34.00	34.00	36.00	39.00	38.00	37.00	37.00	36.00	35.00	35.00	35.00	35.00	33.00	34.00	34.00	33.00	32.00	32.00	32.00	32.00	33.00	32.00	31.00	31.00	31.00	32.00	33.00	34.00	36.00	38.00	40.00	42.00	44.00	45.00	49.00	54.00	58.00	61.00	63.00	68.00	73.00	78.00	84.00	96.00	101.00	159.00	180.00	146.00	163.00	238.00	283.00	271.00	173.00	177.00	176.00	174.00	222.00	464.00	511.00	507.00	424.00	402.00	359.00	300.00	294.00	322.00	563.00	557.00	506.00	575.00	802.00	915.00	989.00	907.00	866.00	816.00	674.00	411.00	418.00	605.00	681.00	760.00	832.00	877.00	1071.00	1128.00	1123.00	1048.00	814.00	745.00	688.00	750.00	856.00	1043.00	1087.00	1157.00	1073.00	1190.00	1306.00	1196.00	1068.00	988.00	1067.00	1099.00	1167.00	1244.00	1367.00	1435.00	1643.00	1757.00	1720.00	1610.00	1506.00	1423.00	1384.00	1375.00	1352.00	1298.00	1347.00	1539.00	1584.00	1655.00	1710.00	1780.00	1965.00	2039.00	2034.00	1948.00	1735.00	1623.00	1609.00	1638.00	1679.00	1762.00	1680.00	1702.00	1762.00	1851.00	1831.00	1736.00	1652.00	1680.00	1615.00	1655.00	1735.00	1812.00	1951.00	1980.00	1979.00	1952.00	1953.00	1841.00	1829.00	1806.00	1813.00	1661.00	1586.00	1542.00	1507.00	1478.00	1443.00	1437.00	1434.00	1431.00	1425.00	1423.00	1422.00	1419.00	1416.00	1409.00	1407.00	1411.00	1418.00	1433.00	1448.00	1467.00	1465.00	1465.00	1500.00	1492.00	1492.00	1505.00	1519.00	1512.00	1496.00	1483.00	1475.00	1484.00	1438.00	1432.00	1429.00	1422.00	1434.00	1446.00	1454.00	1465.00	1428.00	1409.00	1388.00	1365.00	1326.00	1309.00	1316.00	1302.00	1285.00	1260.00	1252.00	1244.00	1240.00	1258.00	1253.00	1256.00	1256.00	1261.00	1265.00	1266.00	1272.00	1279.00	1291.00	1298.00	1319.00	1343.00	1338.00	1421.00	1385.00	1438.00	1525.00	1477.00	1524.00	1529.00	1503.00	1447.00	1402.00	1469.00	1426.00	1491.00	1435.00	1383.00	1368.00	1383.00	1367.00	1386.00	1401.00	1405.00	1344.00	1220.00	1202.00	1187.00	1184.00	1176.00	1167.00	1158.00	1151.00	1144.00	1138.00	1140.00
35.00	36.00	37.00	40.00	39.00	39.00	38.00	37.00	37.00	37.00	37.00	37.00	37.00	37.00	36.00	35.00	35.00	34.00	34.00	34.00	35.00	34.00	33.00	32.00	33.00	33.00	34.00	34.00	37.00	37.00	40.00	42.00	44.00	45.00	50.00	53.00	57.00	61.00	64.00	69.00	72.00	77.00	83.00	96.00	108.00	243.00	244.00	179.00	246.00	370.00	438.00	350.00	181.00	184.00	183.00	184.00	230.00	452.00	536.00	549.00	471.00	515.00	418.00	344.00	322.00	337.00	572.00	622.00	616.00	634.00	894.00	985.00	1065.00	1062.00	1079.00	862.00	799.00	548.00	413.00	488.00	587.00	608.00	690.00	796.00	1016.00	1064.00	1140.00	1210.00	973.00	883.00	776.00	744.00	859.00	1014.00	1075.00	1158.00	1102.00	1248.00	1393.00	1334.00	1192.00	982.00	1066.00	1124.00	1183.00	1252.00	1363.00	1454.00	1657.00	1756.00	1728.00	1647.00	1601.00	1518.00	1473.00	1370.00	1328.00	1356.00	1440.00	1586.00	1641.00	1727.00	1814.00	1911.00	2037.00	1959.00	1940.00	1861.00	1670.00	1569.00	1538.00	1562.00	1604.00	1652.00	1612.00	1607.00	1639.00	1660.00	1679.00	1629.00	1589.00	1590.00	1674.00	1728.00	1805.00	1843.00	1937.00	2005.00	2058.00	2065.00	2043.00	1831.00	1789.00	1748.00	1726.00	1637.00	1586.00	1552.00	1528.00	1508.00	1461.00	1445.00	1441.00	1437.00	1431.00	1428.00	1428.00	1429.00	1426.00	1420.00	1417.00	1450.00	1447.00	1468.00	1502.00	1519.00	1559.00	1626.00	1590.00	1556.00	1579.00	1587.00	1557.00	1546.00	1537.00	1518.00	1513.00	1511.00	1453.00	1446.00	1440.00	1442.00	1451.00	1478.00	1476.00	1489.00	1501.00	1461.00	1432.00	1395.00	1356.00	1327.00	1301.00	1285.00	1267.00	1249.00	1242.00	1236.00	1239.00	1326.00	1333.00	1330.00	1296.00	1287.00	1286.00	1291.00	1311.00	1348.00	1313.00	1311.00	1326.00	1374.00	1417.00	1510.00	1469.00	1456.00	1532.00	1541.00	1597.00	1540.00	1485.00	1432.00	1517.00	1561.00	1457.00	1483.00	1439.00	1408.00	1393.00	1396.00	1396.00	1433.00	1424.00	1363.00	1311.00	1212.00	1193.00	1179.00	1171.00	1167.00	1161.00	1153.00	1145.00	1139.00	1133.00	1135.00
35.00	36.00	37.00	40.00	39.00	39.00	38.00	37.00	37.00	37.00	37.00	37.00	37.00	37.00	36.00	35.00	35.00	34.00	34.00	34.00	35.00	34.00	33.00	32.00	33.00	33.00	34.00	34.00	37.00	37.00	40.00	42.00	44.00	45.00	50.00	53.00	57.00	61.00	64.00	69.00	72.00	77.00	83.00	96.00	108.00	243.00	244.00	179.00	246.00	370.00	438.00	350.00	181.00	184.00	183.00	184.00	230.00	452.00	536.00	549.00	471.00	515.00	418.00	344.00	322.00	337.00	572.00	622.00	616.00	634.00	894.00	985.00	1065.00	1062.00	1079.00	862.00	799.00	548.00	413.00	488.00	587.00	608.00	690.00	796.00	1016.00	1064.00	1140.00	1210.00	973.00	883.00	776.00	744.00	859.00	1014.00	1075.00	1158.00	1102.00	1248.00	1393.00	1334.00	1192.00	982.00	1066.00	1124.00	1183.00	1252.00	1363.00	1454.00	1657.00	1756.00	1728.00	1647.00	1601.00	1518.00	1473.00	1370.00	1328.00	1356.00	1440.00	1586.00	1641.00	1727.00	1814.00	1911.00	2037.00	1959.00	1940.00	1861.00	1670.00	1569.00	1538.00	1562.00	1604.00	1652.00	1612.00	1607.00	1639.00	1660.00	1679.00	1629.00	1589.00	1590.00	1674.00	1728.00	1805.00	1843.00	1937.00	2005.00	2058.00	2065.00	2043.00	1831.00	1789.00	1748.00	1726.00	1637.00	1586.00	1552.00	1528.00	1508.00	1461.00	1445.00	1441.00	1437.00	1431.00	1428.00	1428.00	1429.00	1426.00	1420.00	1417.00	1450.00	1447.00	1468.00	1502.00	1519.00	1559.00	1626.00	1590.00	1556.00	1579.00	1587.00	1557.00	1546.00	1537.00	1518.00	1513.00	1511.00	1453.00	1446.00	1440.00	1442.00	1451.00	1478.00	1476.00	1489.00	1501.00	1461.00	1432.00	1395.00	1356.00	1327.00	1301.00	1285.00	1267.00	1249.00	1242.00	1236.00	1239.00	1326.00	1333.00	1330.00	1296.00	1287.00	1286.00	1291.00	1311.00	1348.00	1313.00	1311.00	1326.00	1374.00	1417.00	1510.00	1469.00	1456.00	1532.00	1541.00	1597.00	1540.00	1485.00	1432.00	1517.00	1561.00	1457.00	1483.00	1439.00	1408.00	1393.00	1396.00	1396.00	1433.00	1424.00	1363.00	1311.00	1212.00	1193.00	1179.00	1171.00	1167.00	1161.00	1153.00	1145.00	1139.00	1133.00	1135.00
38.00	37.00	38.00	42.00	41.00	42.00	40.00	39.00	39.00	39.00	39.00	39.00	37.00	38.00	38.00	37.00	37.00	37.00	37.00	36.00	36.00	35.00	35.00	34.00	33.00	34.00	34.00	35.00	36.00	37.00	39.00	40.00	42.00	43.00	50.00	55.00	58.00	60.00	63.00	69.00	75.00	80.00	88.00	106.00	141.00	380.00	294.00	217.00	355.00	527.00	545.00	427.00	197.00	190.00	191.00	194.00	249.00	409.00	447.00	500.00	587.00	475.00	411.00	363.00	353.00	375.00	500.00	591.00	690.00	801.00	994.00	1104.00	1224.00	1284.00	1274.00	992.00	938.00	653.00	519.00	411.00	462.00	508.00	559.00	640.00	867.00	944.00	1043.00	1136.00	1109.00	1039.00	908.00	759.00	822.00	961.00	1043.00	1137.00	1134.00	1271.00	1403.00	1443.00	1282.00	1022.00	1068.00	1188.00	1291.00	1373.00	1472.00	1555.00	1688.00	1761.00	1751.00	1667.00	1609.00	1513.00	1446.00	1431.00	1422.00	1474.00	1539.00	1683.00	1735.00	1818.00	1932.00	2009.00	1964.00	1858.00	1750.00	1702.00	1568.00	1508.00	1479.00	1531.00	1583.00	1553.00	1542.00	1544.00	1525.00	1548.00	1546.00	1543.00	1564.00	1657.00	1801.00	1824.00	1869.00	1935.00	2033.00	2066.00	2053.00	2004.00	1963.00	1852.00	1811.00	1748.00	1701.00	1638.00	1593.00	1559.00	1533.00	1516.00	1471.00	1452.00	1448.00	1444.00	1437.00	1438.00	1447.00	1443.00	1435.00	1448.00	1452.00	1565.00	1544.00	1525.00	1569.00	1614.00	1623.00	1656.00	1678.00	1684.00	1696.00	1661.00	1618.00	1604.00	1607.00	1597.00	1601.00	1480.00	1464.00	1457.00	1455.00	1458.00	1485.00	1527.00	1505.00	1529.00	1569.00	1545.00	1497.00	1438.00	1362.00	1311.00	1272.00	1254.00	1247.00	1239.00	1234.00	1233.00	1242.00	1325.00	1338.00	1348.00	1362.00	1322.00	1337.00	1400.00	1398.00	1375.00	1339.00	1350.00	1385.00	1435.00	1529.00	1587.00	1511.00	1527.00	1479.00	1429.00	1473.00	1483.00	1527.00	1513.00	1515.00	1552.00	1512.00	1507.00	1510.00	1485.00	1436.00	1467.00	1402.00	1349.00	1322.00	1322.00	1263.00	1195.00	1178.00	1168.00	1161.00	1156.00	1152.00	1145.00	1139.00	1132.00	1130.00	1132.00
41.00	41.00	42.00	46.00	46.00	46.00	45.00	44.00	44.00	43.00	43.00	43.00	42.00	42.00	42.00	40.00	40.00	41.00	41.00	40.00	39.00	38.00	37.00	36.00	35.00	35.00	36.00	36.00	36.00	37.00	41.00	41.00	43.00	44.00	49.00	55.00	59.00	61.00	63.00	76.00	83.00	95.00	163.00	287.00	393.00	521.00	467.00	439.00	610.00	510.00	398.00	297.00	208.00	212.00	216.00	217.00	307.00	435.00	519.00	685.00	628.00	507.00	535.00	458.00	486.00	570.00	643.00	713.00	806.00	790.00	1011.00	1172.00	1354.00	1504.00	1411.00	1164.00	1017.00	735.00	615.00	419.00	515.00	659.00	844.00	954.00	1124.00	1113.00	1064.00	1100.00	1315.00	1225.00	1149.00	1002.00	869.00	990.00	1059.00	1151.00	1190.00	1345.00	1490.00	1564.00	1420.00	1170.00	1238.00	1257.00	1258.00	1401.00	1614.00	1755.00	1768.00	1700.00	1621.00	1552.00	1541.00	1600.00	1594.00	1623.00	1621.00	1618.00	1703.00	1908.00	1945.00	1917.00	1857.00	1777.00	1676.00	1614.00	1580.00	1547.00	1492.00	1417.00	1470.00	1469.00	1470.00	1449.00	1454.00	1459.00	1481.00	1569.00	1610.00	1630.00	1808.00	1996.00	2065.00	2010.00	2018.00	2058.00	2003.00	1983.00	1941.00	1909.00	1874.00	1806.00	1775.00	1746.00	1740.00	1640.00	1621.00	1586.00	1544.00	1517.00	1494.00	1471.00	1463.00	1456.00	1457.00	1475.00	1494.00	1522.00	1540.00	1548.00	1577.00	1710.00	1738.00	1765.00	1812.00	1840.00	1877.00	1941.00	1973.00	1999.00	1988.00	1923.00	1702.00	1679.00	1652.00	1625.00	1587.00	1512.00	1503.00	1467.00	1468.00	1475.00	1454.00	1481.00	1481.00	1489.00	1410.00	1403.00	1365.00	1311.00	1258.00	1235.00	1223.00	1224.00	1226.00	1226.00	1228.00	1229.00	1243.00	1287.00	1322.00	1359.00	1376.00	1428.00	1501.00	1519.00	1498.00	1482.00	1402.00	1387.00	1503.00	1514.00	1513.00	1385.00	1361.00	1374.00	1365.00	1342.00	1405.00	1393.00	1397.00	1440.00	1414.00	1452.00	1434.00	1496.00	1464.00	1410.00	1365.00	1361.00	1288.00	1274.00	1286.00	1251.00	1229.00	1191.00	1180.00	1170.00	1159.00	1139.00	1133.00	1128.00	1123.00	1120.00	1130.00	1125.00
43.00	43.00	44.00	48.00	48.00	48.00	48.00	47.00	47.00	46.00	45.00	45.00	45.00	45.00	45.00	44.00	43.00	42.00	42.00	42.00	41.00	40.00	39.00	38.00	37.00	38.00	37.00	37.00	45.00	44.00	49.00	44.00	44.00	45.00	53.00	59.00	61.00	64.00	64.00	80.00	87.00	97.00	139.00	329.00	516.00	609.00	587.00	590.00	512.00	391.00	311.00	256.00	215.00	224.00	230.00	235.00	381.00	497.00	611.00	737.00	665.00	675.00	700.00	585.00	519.00	547.00	804.00	932.00	1063.00	994.00	1025.00	1172.00	1337.00	1520.00	1508.00	1144.00	1014.00	769.00	637.00	431.00	497.00	621.00	784.00	932.00	1240.00	1250.00	1196.00	1148.00	1462.00	1415.00	1262.00	1082.00	945.00	1039.00	1125.00	1212.00	1257.00	1340.00	1486.00	1598.00	1498.00	1269.00	1333.00	1435.00	1371.00	1384.00	1606.00	1722.00	1730.00	1697.00	1682.00	1642.00	1689.00	1735.00	1689.00	1709.00	1730.00	1697.00	1696.00	1918.00	1895.00	1816.00	1728.00	1679.00	1570.00	1517.00	1526.00	1486.00	1437.00	1402.00	1433.00	1430.00	1417.00	1431.00	1485.00	1495.00	1516.00	1622.00	1703.00	1734.00	2000.00	2117.00	2013.00	1973.00	2024.00	2023.00	1994.00	1942.00	1882.00	1835.00	1812.00	1752.00	1728.00	1705.00	1677.00	1606.00	1568.00	1560.00	1559.00	1539.00	1555.00	1484.00	1473.00	1470.00	1472.00	1487.00	1515.00	1540.00	1565.00	1655.00	1709.00	1741.00	1768.00	1810.00	1861.00	1899.00	1944.00	1926.00	1929.00	1881.00	1813.00	1833.00	1740.00	1774.00	1755.00	1732.00	1680.00	1567.00	1565.00	1505.00	1436.00	1449.00	1424.00	1416.00	1433.00	1441.00	1365.00	1323.00	1304.00	1268.00	1229.00	1217.00	1215.00	1218.00	1220.00	1224.00	1224.00	1232.00	1257.00	1373.00	1385.00	1359.00	1324.00	1378.00	1464.00	1430.00	1398.00	1374.00	1336.00	1419.00	1469.00	1435.00	1376.00	1398.00	1364.00	1320.00	1315.00	1320.00	1333.00	1338.00	1353.00	1358.00	1361.00	1376.00	1395.00	1412.00	1438.00	1404.00	1367.00	1331.00	1326.00	1335.00	1347.00	1299.00	1237.00	1187.00	1175.00	1166.00	1156.00	1137.00	1129.00	1124.00	1119.00	1116.00	1129.00	1120.00
45.00	46.00	46.00	50.00	51.00	51.00	52.00	50.00	50.00	49.00	47.00	48.00	48.00	48.00	47.00	46.00	45.00	45.00	45.00	43.00	44.00	41.00	41.00	40.00	39.00	39.00	39.00	38.00	40.00	46.00	46.00	52.00	50.00	48.00	54.00	58.00	63.00	63.00	66.00	79.00	85.00	118.00	198.00	430.00	568.00	666.00	710.00	708.00	435.00	332.00	298.00	272.00	224.00	233.00	244.00	258.00	337.00	445.00	599.00	737.00	711.00	772.00	820.00	817.00	717.00	636.00	768.00	870.00	1060.00	1139.00	1138.00	1239.00	1404.00	1502.00	1428.00	1146.00	1067.00	773.00	652.00	446.00	509.00	664.00	822.00	992.00	1298.00	1369.00	1362.00	1314.00	1477.00	1494.00	1309.00	1127.00	1052.00	1054.00	1129.00	1213.00	1300.00	1321.00	1514.00	1636.00	1613.00	1375.00	1420.00	1531.00	1551.00	1571.00	1623.00	1707.00	1701.00	1668.00	1681.00	1689.00	1763.00	1837.00	1774.00	1794.00	1787.00	1790.00	1825.00	1795.00	1770.00	1754.00	1682.00	1612.00	1518.00	1468.00	1452.00	1450.00	1399.00	1373.00	1382.00	1388.00	1381.00	1443.00	1481.00	1561.00	1535.00	1594.00	1653.00	1695.00	2063.00	2082.00	1967.00	1982.00	2002.00	1995.00	1964.00	1934.00	1889.00	1818.00	1756.00	1688.00	1670.00	1659.00	1644.00	1604.00	1583.00	1578.00	1570.00	1558.00	1566.00	1518.00	1506.00	1499.00	1505.00	1530.00	1571.00	1620.00	1654.00	1753.00	1771.00	1758.00	1752.00	1808.00	1843.00	1899.00	1865.00	1852.00	1777.00	1768.00	1745.00	1734.00	1690.00	1726.00	1726.00	1700.00	1664.00	1573.00	1561.00	1499.00	1438.00	1400.00	1367.00	1357.00	1374.00	1353.00	1310.00	1283.00	1268.00	1253.00	1220.00	1214.00	1213.00	1214.00	1216.00	1220.00	1222.00	1239.00	1280.00	1345.00	1347.00	1318.00	1299.00	1327.00	1426.00	1397.00	1333.00	1318.00	1342.00	1388.00	1392.00	1413.00	1381.00	1301.00	1303.00	1298.00	1292.00	1302.00	1307.00	1316.00	1330.00	1327.00	1377.00	1371.00	1385.00	1411.00	1463.00	1464.00	1458.00	1446.00	1371.00	1299.00	1269.00	1249.00	1214.00	1180.00	1170.00	1159.00	1151.00	1134.00	1126.00	1119.00	1114.00	1111.00	1124.00	1115.00
48.00	48.00	48.00	51.00	53.00	54.00	55.00	53.00	53.00	52.00	50.00	51.00	52.00	51.00	49.00	49.00	48.00	48.00	48.00	46.00	46.00	43.00	43.00	42.00	41.00	40.00	40.00	40.00	41.00	43.00	46.00	51.00	59.00	57.00	60.00	65.00	64.00	66.00	72.00	81.00	98.00	177.00	290.00	535.00	578.00	706.00	736.00	611.00	478.00	438.00	441.00	371.00	233.00	243.00	255.00	266.00	305.00	386.00	570.00	730.00	745.00	832.00	890.00	941.00	942.00	877.00	950.00	1010.00	987.00	1095.00	1282.00	1352.00	1538.00	1469.00	1331.00	1050.00	917.00	768.00	646.00	456.00	536.00	718.00	912.00	1022.00	1219.00	1319.00	1434.00	1476.00	1494.00	1528.00	1368.00	1206.00	1229.00	1132.00	1172.00	1237.00	1338.00	1379.00	1551.00	1657.00	1710.00	1486.00	1472.00	1551.00	1676.00	1699.00	1684.00	1703.00	1717.00	1720.00	1715.00	1765.00	1846.00	1917.00	1884.00	1871.00	1835.00	1893.00	1899.00	1755.00	1670.00	1651.00	1598.00	1546.00	1437.00	1444.00	1404.00	1393.00	1361.00	1360.00	1349.00	1359.00	1386.00	1493.00	1682.00	1685.00	1616.00	1652.00	1678.00	1709.00	1968.00	2015.00	1937.00	1980.00	1980.00	1959.00	1898.00	1883.00	1850.00	1818.00	1822.00	1694.00	1666.00	1639.00	1618.00	1582.00	1574.00	1564.00	1605.00	1593.00	1591.00	1571.00	1561.00	1549.00	1595.00	1655.00	1696.00	1739.00	1801.00	1874.00	1874.00	1764.00	1734.00	1709.00	1745.00	1799.00	1771.00	1692.00	1704.00	1723.00	1779.00	1702.00	1593.00	1584.00	1613.00	1578.00	1558.00	1520.00	1493.00	1477.00	1447.00	1454.00	1425.00	1363.00	1351.00	1334.00	1277.00	1260.00	1248.00	1238.00	1219.00	1214.00	1212.00	1213.00	1214.00	1217.00	1219.00	1230.00	1269.00	1293.00	1321.00	1280.00	1290.00	1332.00	1382.00	1370.00	1352.00	1319.00	1299.00	1346.00	1366.00	1331.00	1303.00	1268.00	1264.00	1273.00	1278.00	1285.00	1291.00	1299.00	1309.00	1324.00	1377.00	1401.00	1454.00	1483.00	1485.00	1477.00	1434.00	1397.00	1283.00	1261.00	1235.00	1220.00	1212.00	1172.00	1163.00	1154.00	1146.00	1131.00	1124.00	1117.00	1111.00	1107.00	1117.00	1111.00
51.00	51.00	52.00	54.00	56.00	58.00	58.00	57.00	56.00	55.00	54.00	53.00	55.00	54.00	52.00	52.00	51.00	52.00	49.00	48.00	49.00	46.00	46.00	44.00	43.00	41.00	42.00	42.00	42.00	44.00	48.00	56.00	60.00	65.00	66.00	70.00	68.00	64.00	71.00	85.00	101.00	143.00	252.00	456.00	586.00	713.00	628.00	487.00	402.00	454.00	408.00	319.00	242.00	249.00	267.00	292.00	305.00	341.00	443.00	555.00	693.00	722.00	766.00	867.00	946.00	915.00	1094.00	1200.00	1134.00	1206.00	1438.00	1571.00	1551.00	1418.00	1309.00	1061.00	972.00	708.00	688.00	465.00	564.00	710.00	866.00	1016.00	1171.00	1256.00	1362.00	1467.00	1537.00	1566.00	1427.00	1353.00	1420.00	1255.00	1321.00	1345.00	1379.00	1501.00	1565.00	1677.00	1744.00	1594.00	1584.00	1635.00	1697.00	1745.00	1777.00	1726.00	1703.00	1712.00	1835.00	1931.00	1953.00	1968.00	1996.00	1978.00	1947.00	1860.00	1789.00	1679.00	1636.00	1567.00	1525.00	1499.00	1371.00	1391.00	1379.00	1351.00	1329.00	1324.00	1342.00	1386.00	1423.00	1563.00	1796.00	1771.00	1683.00	1726.00	1762.00	1779.00	1934.00	1949.00	1920.00	1949.00	1939.00	1917.00	1876.00	1861.00	1857.00	1854.00	1841.00	1764.00	1714.00	1665.00	1638.00	1595.00	1599.00	1601.00	1639.00	1644.00	1657.00	1665.00	1673.00	1671.00	1689.00	1733.00	1747.00	1755.00	1827.00	1851.00	1813.00	1691.00	1647.00	1588.00	1594.00	1609.00	1615.00	1592.00	1682.00	1670.00	1653.00	1644.00	1563.00	1531.00	1521.00	1522.00	1498.00	1465.00	1443.00	1433.00	1438.00	1420.00	1410.00	1368.00	1325.00	1286.00	1267.00	1257.00	1246.00	1236.00	1219.00	1213.00	1211.00	1211.00	1212.00	1213.00	1219.00	1226.00	1266.00	1268.00	1286.00	1259.00	1281.00	1302.00	1339.00	1292.00	1328.00	1359.00	1261.00	1262.00	1295.00	1357.00	1285.00	1253.00	1251.00	1258.00	1262.00	1275.00	1284.00	1295.00	1311.00	1338.00	1420.00	1434.00	1539.00	1481.00	1476.00	1366.00	1326.00	1303.00	1261.00	1248.00	1244.00	1222.00	1181.00	1159.00	1154.00	1147.00	1140.00	1126.00	1120.00	1114.00	1109.00	1104.00	1104.00	1100.00
54.00	56.00	56.00	57.00	59.00	60.00	61.00	62.00	61.00	60.00	58.00	57.00	59.00	57.00	56.00	56.00	55.00	54.00	53.00	52.00	51.00	49.00	47.00	46.00	45.00	43.00	42.00	42.00	42.00	43.00	55.00	66.00	80.00	94.00	68.00	73.00	74.00	71.00	73.00	90.00	111.00	149.00	193.00	406.00	592.00	726.00	530.00	439.00	355.00	459.00	393.00	295.00	254.00	263.00	319.00	348.00	330.00	353.00	380.00	428.00	549.00	611.00	644.00	702.00	811.00	842.00	1235.00	1269.00	1285.00	1297.00	1542.00	1613.00	1477.00	1332.00	1240.00	1100.00	981.00	794.00	742.00	485.00	537.00	665.00	834.00	959.00	1100.00	1207.00	1378.00	1434.00	1609.00	1593.00	1523.00	1520.00	1584.00	1419.00	1439.00	1490.00	1525.00	1579.00	1627.00	1700.00	1736.00	1713.00	1666.00	1697.00	1788.00	1863.00	1708.00	1695.00	1664.00	1724.00	1962.00	2044.00	2046.00	1997.00	1995.00	1871.00	1829.00	1758.00	1732.00	1575.00	1534.00	1506.00	1469.00	1437.00	1370.00	1327.00	1318.00	1312.00	1295.00	1351.00	1373.00	1401.00	1441.00	1666.00	1826.00	1830.00	1772.00	1799.00	1838.00	1832.00	1870.00	1891.00	1904.00	1924.00	1919.00	1899.00	1869.00	1858.00	1847.00	1841.00	1832.00	1780.00	1745.00	1728.00	1707.00	1610.00	1636.00	1659.00	1700.00	1717.00	1794.00	1898.00	1932.00	1905.00	1817.00	1795.00	1768.00	1719.00	1696.00	1681.00	1650.00	1584.00	1593.00	1554.00	1531.00	1528.00	1541.00	1571.00	1610.00	1599.00	1591.00	1617.00	1543.00	1527.00	1530.00	1511.00	1480.00	1432.00	1417.00	1406.00	1428.00	1378.00	1330.00	1299.00	1278.00	1265.00	1256.00	1249.00	1241.00	1233.00	1220.00	1215.00	1211.00	1209.00	1209.00	1212.00	1213.00	1222.00	1249.00	1272.00	1318.00	1254.00	1256.00	1267.00	1295.00	1254.00	1270.00	1274.00	1257.00	1240.00	1242.00	1255.00	1250.00	1238.00	1241.00	1280.00	1315.00	1313.00	1313.00	1312.00	1356.00	1376.00	1418.00	1407.00	1502.00	1506.00	1416.00	1395.00	1399.00	1343.00	1293.00	1274.00	1264.00	1201.00	1165.00	1144.00	1142.00	1137.00	1131.00	1119.00	1114.00	1109.00	1105.00	1101.00	1095.00	1094.00
56.00	57.00	57.00	59.00	62.00	63.00	64.00	65.00	64.00	63.00	61.00	61.00	62.00	61.00	59.00	59.00	58.00	57.00	56.00	55.00	56.00	52.00	50.00	48.00	47.00	45.00	44.00	42.00	42.00	44.00	165.00	208.00	181.00	107.00	71.00	80.00	85.00	85.00	83.00	133.00	206.00	262.00	269.00	483.00	678.00	672.00	506.00	401.00	321.00	339.00	298.00	269.00	278.00	316.00	416.00	377.00	430.00	467.00	443.00	422.00	476.00	782.00	823.00	822.00	838.00	851.00	1096.00	1178.00	1328.00	1401.00	1646.00	1555.00	1431.00	1295.00	1172.00	1019.00	879.00	713.00	623.00	571.00	519.00	552.00	669.00	807.00	968.00	1019.00	1124.00	1248.00	1587.00	1581.00	1575.00	1599.00	1617.00	1607.00	1557.00	1587.00	1655.00	1664.00	1670.00	1644.00	1674.00	1682.00	1648.00	1626.00	1704.00	1768.00	1654.00	1677.00	1686.00	1799.00	2054.00	2024.00	2066.00	1982.00	1881.00	1776.00	1729.00	1654.00	1597.00	1521.00	1490.00	1445.00	1419.00	1389.00	1317.00	1275.00	1263.00	1268.00	1337.00	1366.00	1393.00	1449.00	1510.00	1726.00	1870.00	1920.00	1887.00	1832.00	1873.00	1908.00	1865.00	1925.00	1928.00	1931.00	1911.00	1890.00	1861.00	1845.00	1831.00	1823.00	1812.00	1765.00	1747.00	1724.00	1686.00	1658.00	1711.00	1734.00	1804.00	1873.00	2022.00	2109.00	2101.00	2048.00	1908.00	1828.00	1753.00	1711.00	1668.00	1626.00	1604.00	1557.00	1538.00	1515.00	1503.00	1500.00	1512.00	1537.00	1543.00	1561.00	1586.00	1625.00	1551.00	1553.00	1551.00	1520.00	1492.00	1464.00	1436.00	1412.00	1398.00	1341.00	1303.00	1289.00	1278.00	1270.00	1252.00	1243.00	1244.00	1234.00	1220.00	1216.00	1212.00	1209.00	1209.00	1209.00	1214.00	1223.00	1238.00	1258.00	1276.00	1251.00	1229.00	1219.00	1252.00	1227.00	1227.00	1227.00	1224.00	1222.00	1221.00	1217.00	1222.00	1228.00	1234.00	1275.00	1295.00	1319.00	1342.00	1343.00	1337.00	1335.00	1395.00	1408.00	1475.00	1412.00	1307.00	1322.00	1379.00	1312.00	1262.00	1214.00	1263.00	1200.00	1163.00	1130.00	1128.00	1125.00	1121.00	1113.00	1109.00	1106.00	1102.00	1101.00	1089.00	1090.00
58.00	59.00	59.00	61.00	65.00	66.00	67.00	69.00	68.00	67.00	66.00	65.00	66.00	65.00	63.00	62.00	62.00	60.00	60.00	58.00	58.00	54.00	52.00	52.00	50.00	46.00	44.00	44.00	44.00	62.00	272.00	204.00	118.00	83.00	79.00	91.00	101.00	105.00	140.00	265.00	370.00	511.00	431.00	645.00	814.00	559.00	437.00	370.00	292.00	287.00	280.00	279.00	326.00	349.00	453.00	410.00	521.00	682.00	553.00	456.00	581.00	867.00	936.00	968.00	1011.00	1058.00	1105.00	1227.00	1331.00	1433.00	1651.00	1592.00	1453.00	1259.00	1120.00	905.00	792.00	630.00	599.00	716.00	610.00	530.00	552.00	617.00	809.00	1005.00	1084.00	1189.00	1431.00	1469.00	1463.00	1497.00	1530.00	1666.00	1688.00	1710.00	1779.00	1792.00	1750.00	1674.00	1636.00	1575.00	1567.00	1511.00	1585.00	1672.00	1595.00	1588.00	1705.00	1867.00	1950.00	1914.00	1937.00	1832.00	1814.00	1705.00	1644.00	1611.00	1569.00	1445.00	1436.00	1421.00	1380.00	1342.00	1286.00	1242.00	1326.00	1356.00	1328.00	1378.00	1435.00	1499.00	1547.00	1732.00	1816.00	1885.00	1920.00	1913.00	1922.00	1937.00	1907.00	1920.00	1974.00	1965.00	1933.00	1906.00	1869.00	1850.00	1836.00	1814.00	1798.00	1734.00	1712.00	1685.00	1693.00	1779.00	1828.00	1879.00	1949.00	2044.00	2141.00	2091.00	2038.00	1982.00	1934.00	1898.00	1832.00	1757.00	1699.00	1656.00	1626.00	1564.00	1549.00	1511.00	1495.00	1482.00	1486.00	1510.00	1571.00	1646.00	1709.00	1748.00	1641.00	1625.00	1590.00	1548.00	1553.00	1554.00	1492.00	1417.00	1364.00	1329.00	1298.00	1287.00	1276.00	1266.00	1255.00	1252.00	1260.00	1262.00	1224.00	1218.00	1217.00	1209.00	1209.00	1208.00	1210.00	1212.00	1214.00	1219.00	1225.00	1220.00	1214.00	1208.00	1203.00	1208.00	1206.00	1209.00	1220.00	1208.00	1206.00	1204.00	1208.00	1219.00	1221.00	1228.00	1241.00	1276.00	1283.00	1290.00	1315.00	1354.00	1442.00	1430.00	1333.00	1282.00	1322.00	1240.00	1275.00	1260.00	1204.00	1176.00	1190.00	1154.00	1134.00	1117.00	1116.00	1114.00	1111.00	1106.00	1104.00	1102.00	1100.00	1100.00	1095.00	1082.00
66.00	66.00	67.00	68.00	70.00	74.00	75.00	77.00	75.00	75.00	74.00	73.00	74.00	74.00	72.00	70.00	70.00	69.00	67.00	66.00	64.00	61.00	61.00	58.00	56.00	51.00	54.00	66.00	91.00	149.00	118.00	105.00	91.00	85.00	93.00	137.00	146.00	184.00	211.00	460.00	651.00	778.00	721.00	1004.00	913.00	658.00	551.00	383.00	312.00	402.00	506.00	551.00	590.00	507.00	656.00	603.00	754.00	799.00	618.00	513.00	649.00	842.00	953.00	1125.00	1280.00	1310.00	1491.00	1535.00	1663.00	1764.00	1534.00	1437.00	1317.00	1192.00	1054.00	775.00	741.00	869.00	889.00	941.00	859.00	743.00	644.00	571.00	682.00	758.00	898.00	946.00	1038.00	1115.00	1225.00	1272.00	1362.00	1548.00	1629.00	1763.00	1870.00	1947.00	1830.00	1760.00	1719.00	1561.00	1493.00	1508.00	1484.00	1403.00	1576.00	1716.00	1801.00	1813.00	1714.00	1673.00	1633.00	1684.00	1620.00	1544.00	1527.00	1490.00	1448.00	1384.00	1322.00	1295.00	1283.00	1258.00	1245.00	1275.00	1312.00	1358.00	1438.00	1473.00	1454.00	1467.00	1538.00	1666.00	1758.00	1874.00	1996.00	2246.00	2288.00	2306.00	2117.00	2033.00	2072.00	2149.00	2106.00	2050.00	1938.00	1921.00	1895.00	1872.00	1859.00	1788.00	1813.00	1842.00	1880.00	1927.00	1960.00	1990.00	2030.00	2061.00	1917.00	1971.00	1914.00	1857.00	1846.00	1828.00	1816.00	1782.00	1752.00	1709.00	1703.00	1654.00	1588.00	1542.00	1530.00	1490.00	1466.00	1497.00	1707.00	1710.00	1701.00	1706.00	1603.00	1613.00	1663.00	1586.00	1452.00	1371.00	1346.00	1316.00	1310.00	1306.00	1288.00	1279.00	1272.00	1275.00	1290.00	1315.00	1313.00	1281.00	1230.00	1222.00	1221.00	1229.00	1231.00	1224.00	1220.00	1216.00	1210.00	1203.00	1200.00	1200.00	1203.00	1207.00	1227.00	1224.00	1196.00	1206.00	1182.00	1180.00	1182.00	1186.00	1191.00	1199.00	1203.00	1213.00	1224.00	1249.00	1289.00	1363.00	1372.00	1312.00	1288.00	1236.00	1206.00	1196.00	1180.00	1175.00	1172.00	1161.00	1144.00	1134.00	1128.00	1119.00	1110.00	1100.00	1099.00	1097.00	1095.00	1092.00	1090.00	1089.00	1090.00	1097.00	1099.00	1085.00
66.00	66.00	67.00	68.00	70.00	74.00	75.00	77.00	75.00	75.00	74.00	73.00	74.00	74.00	72.00	70.00	70.00	69.00	67.00	66.00	64.00	61.00	61.00	58.00	56.00	51.00	54.00	66.00	91.00	149.00	118.00	105.00	91.00	85.00	93.00	137.00	146.00	184.00	211.00	460.00	651.00	778.00	721.00	1004.00	913.00	658.00	551.00	383.00	312.00	402.00	506.00	551.00	590.00	507.00	656.00	603.00	754.00	799.00	618.00	513.00	649.00	842.00	953.00	1125.00	1280.00	1310.00	1491.00	1535.00	1663.00	1764.00	1534.00	1437.00	1317.00	1192.00	1054.00	775.00	741.00	869.00	889.00	941.00	859.00	743.00	644.00	571.00	682.00	758.00	898.00	946.00	1038.00	1115.00	1225.00	1272.00	1362.00	1548.00	1629.00	1763.00	1870.00	1947.00	1830.00	1760.00	1719.00	1561.00	1493.00	1508.00	1484.00	1403.00	1576.00	1716.00	1801.00	1813.00	1714.00	1673.00	1633.00	1684.00	1620.00	1544.00	1527.00	1490.00	1448.00	1384.00	1322.00	1295.00	1283.00	1258.00	1245.00	1275.00	1312.00	1358.00	1438.00	1473.00	1454.00	1467.00	1538.00	1666.00	1758.00	1874.00	1996.00	2246.00	2288.00	2306.00	2117.00	2033.00	2072.00	2149.00	2106.00	2050.00	1938.00	1921.00	1895.00	1872.00	1859.00	1788.00	1813.00	1842.00	1880.00	1927.00	1960.00	1990.00	2030.00	2061.00	1917.00	1971.00	1914.00	1857.00	1846.00	1828.00	1816.00	1782.00	1752.00	1709.00	1703.00	1654.00	1588.00	1542.00	1530.00	1490.00	1466.00	1497.00	1707.00	1710.00	1701.00	1706.00	1603.00	1613.00	1663.00	1586.00	1452.00	1371.00	1346.00	1316.00	1310.00	1306.00	1288.00	1279.00	1272.00	1275.00	1290.00	1315.00	1313.00	1281.00	1230.00	1222.00	1221.00	1229.00	1231.00	1224.00	1220.00	1216.00	1210.00	1203.00	1200.00	1200.00	1203.00	1207.00	1227.00	1224.00	1196.00	1206.00	1182.00	1180.00	1182.00	1186.00	1191.00	1199.00	1203.00	1213.00	1224.00	1249.00	1289.00	1363.00	1372.00	1312.00	1288.00	1236.00	1206.00	1196.00	1180.00	1175.00	1172.00	1161.00	1144.00	1134.00	1128.00	1119.00	1110.00	1100.00	1099.00	1097.00	1095.00	1092.00	1090.00	1089.00	1090.00	1097.00	1099.00	1085.00
66.00	66.00	67.00	68.00	70.00	74.00	75.00	77.00	75.00	75.00	74.00	73.00	74.00	74.00	72.00	70.00	70.00	69.00	67.00	66.00	64.00	61.00	61.00	58.00	56.00	51.00	54.00	66.00	91.00	149.00	118.00	105.00	91.00	85.00	93.00	137.00	146.00	184.00	211.00	460.00	651.00	778.00	721.00	1004.00	913.00	658.00	551.00	383.00	312.00	402.00	506.00	551.00	590.00	507.00	656.00	603.00	754.00	799.00	618.00	513.00	649.00	842.00	953.00	1125.00	1280.00	1310.00	1491.00	1535.00	1663.00	1764.00	1534.00	1437.00	1317.00	1192.00	1054.00	775.00	741.00	869.00	889.00	941.00	859.00	743.00	644.00	571.00	682.00	758.00	898.00	946.00	1038.00	1115.00	1225.00	1272.00	1362.00	1548.00	1629.00	1763.00	1870.00	1947.00	1830.00	1760.00	1719.00	1561.00	1493.00	1508.00	1484.00	1403.00	1576.00	1716.00	1801.00	1813.00	1714.00	1673.00	1633.00	1684.00	1620.00	1544.00	1527.00	1490.00	1448.00	1384.00	1322.00	1295.00	1283.00	1258.00	1245.00	1275.00	1312.00	1358.00	1438.00	1473.00	1454.00	1467.00	1538.00	1666.00	1758.00	1874.00	1996.00	2246.00	2288.00	2306.00	2117.00	2033.00	2072.00	2149.00	2106.00	2050.00	1938.00	1921.00	1895.00	1872.00	1859.00	1788.00	1813.00	1842.00	1880.00	1927.00	1960.00	1990.00	2030.00	2061.00	1917.00	1971.00	1914.00	1857.00	1846.00	1828.00	1816.00	1782.00	1752.00	1709.00	1703.00	1654.00	1588.00	1542.00	1530.00	1490.00	1466.00	1497.00	1707.00	1710.00	1701.00	1706.00	1603.00	1613.00	1663.00	1586.00	1452.00	1371.00	1346.00	1316.00	1310.00	1306.00	1288.00	1279.00	1272.00	1275.00	1290.00	1315.00	1313.00	1281.00	1230.00	1222.00	1221.00	1229.00	1231.00	1224.00	1220.00	1216.00	1210.00	1203.00	1200.00	1200.00	1203.00	1207.00	1227.00	1224.00	1196.00	1206.00	1182.00	1180.00	1182.00	1186.00	1191.00	1199.00	1203.00	1213.00	1224.00	1249.00	1289.00	1363.00	1372.00	1312.00	1288.00	1236.00	1206.00	1196.00	1180.00	1175.00	1172.00	1161.00	1144.00	1134.00	1128.00	1119.00	1110.00	1100.00	1099.00	1097.00	1095.00	1092.00	1090.00	1089.00	1090.00	1097.00	1099.00	1085.00
69.00	69.00	70.00	73.00	74.00	77.00	79.00	80.00	80.00	79.00	79.00	79.00	78.00	78.00	77.00	76.00	75.00	73.00	71.00	70.00	68.00	67.00	65.00	61.00	59.00	70.00	120.00	137.00	179.00	153.00	116.00	104.00	91.00	89.00	133.00	263.00	265.00	347.00	399.00	435.00	633.00	828.00	902.00	1005.00	807.00	510.00	423.00	342.00	348.00	516.00	708.00	793.00	659.00	652.00	773.00	742.00	926.00	798.00	609.00	551.00	657.00	880.00	1002.00	1125.00	1165.00	1165.00	1504.00	1608.00	1792.00	1820.00	1617.00	1480.00	1326.00	1189.00	1034.00	797.00	845.00	967.00	993.00	1062.00	973.00	791.00	738.00	630.00	600.00	678.00	760.00	809.00	869.00	992.00	1080.00	1184.00	1309.00	1527.00	1553.00	1580.00	1725.00	1820.00	1706.00	1668.00	1656.00	1573.00	1633.00	1658.00	1549.00	1402.00	1480.00	1491.00	1619.00	1618.00	1519.00	1525.00	1554.00	1619.00	1583.00	1498.00	1450.00	1439.00	1427.00	1340.00	1303.00	1257.00	1201.00	1201.00	1299.00	1321.00	1367.00	1416.00	1493.00	1577.00	1553.00	1569.00	1506.00	1655.00	1728.00	1856.00	2063.00	2453.00	2487.00	2401.00	2155.00	2198.00	2129.00	2170.00	2224.00	2190.00	1996.00	1987.00	1962.00	1931.00	1889.00	1877.00	1884.00	1891.00	1932.00	1985.00	2003.00	2011.00	2013.00	1988.00	1887.00	1827.00	1823.00	1807.00	1748.00	1737.00	1740.00	1735.00	1744.00	1693.00	1714.00	1661.00	1634.00	1573.00	1561.00	1516.00	1459.00	1476.00	1639.00	1624.00	1631.00	1665.00	1516.00	1570.00	1570.00	1439.00	1353.00	1321.00	1306.00	1293.00	1294.00	1290.00	1277.00	1271.00	1265.00	1265.00	1280.00	1291.00	1285.00	1262.00	1231.00	1226.00	1229.00	1262.00	1269.00	1255.00	1241.00	1261.00	1257.00	1245.00	1258.00	1245.00	1254.00	1267.00	1315.00	1299.00	1267.00	1235.00	1176.00	1172.00	1175.00	1179.00	1182.00	1189.00	1195.00	1205.00	1215.00	1315.00	1325.00	1321.00	1313.00	1226.00	1213.00	1195.00	1176.00	1169.00	1158.00	1156.00	1152.00	1145.00	1130.00	1123.00	1117.00	1110.00	1105.00	1096.00	1095.00	1093.00	1092.00	1090.00	1087.00	1086.00	1086.00	1091.00	1092.00	1081.00
76.00	76.00	76.00	78.00	81.00	84.00	87.00	89.00	89.00	89.00	90.00	90.00	88.00	88.00	88.00	86.00	84.00	82.00	79.00	78.00	77.00	75.00	78.00	116.00	179.00	177.00	264.00	321.00	256.00	259.00	225.00	228.00	126.00	103.00	226.00	571.00	703.00	850.00	807.00	677.00	767.00	979.00	1221.00	1191.00	980.00	677.00	498.00	353.00	412.00	547.00	718.00	925.00	1031.00	964.00	1036.00	1077.00	1143.00	928.00	714.00	693.00	757.00	895.00	862.00	1018.00	1145.00	1147.00	1541.00	1746.00	1791.00	1690.00	1467.00	1299.00	1174.00	1074.00	991.00	984.00	1123.00	1182.00	1224.00	1301.00	1206.00	1038.00	962.00	895.00	710.00	692.00	646.00	613.00	724.00	800.00	922.00	1027.00	1117.00	1259.00	1320.00	1304.00	1417.00	1664.00	1624.00	1647.00	1633.00	1712.00	1711.00	1536.00	1294.00	1160.00	1266.00	1317.00	1344.00	1342.00	1309.00	1325.00	1441.00	1437.00	1419.00	1380.00	1364.00	1347.00	1290.00	1220.00	1170.00	1166.00	1212.00	1246.00	1346.00	1373.00	1429.00	1501.00	1627.00	1778.00	1772.00	1740.00	1631.00	1687.00	1790.00	1959.00	2193.00	2478.00	2469.00	2463.00	2392.00	2440.00	2395.00	2307.00	2308.00	2259.00	2171.00	2143.00	2112.00	2059.00	2021.00	1985.00	1981.00	1989.00	2009.00	1958.00	1942.00	1934.00	1908.00	1884.00	1769.00	1754.00	1745.00	1700.00	1629.00	1632.00	1643.00	1636.00	1617.00	1587.00	1571.00	1585.00	1646.00	1619.00	1559.00	1572.00	1560.00	1478.00	1456.00	1466.00	1486.00	1454.00	1423.00	1393.00	1368.00	1338.00	1307.00	1269.00	1265.00	1266.00	1266.00	1261.00	1258.00	1256.00	1252.00	1251.00	1248.00	1254.00	1263.00	1253.00	1241.00	1246.00	1266.00	1277.00	1307.00	1315.00	1332.00	1323.00	1313.00	1284.00	1269.00	1261.00	1260.00	1246.00	1217.00	1201.00	1194.00	1176.00	1166.00	1165.00	1164.00	1164.00	1166.00	1173.00	1180.00	1200.00	1272.00	1215.00	1193.00	1185.00	1175.00	1168.00	1157.00	1149.00	1139.00	1135.00	1126.00	1123.00	1123.00	1121.00	1117.00	1116.00	1114.00	1110.00	1106.00	1093.00	1097.00	1102.00	1101.00	1077.00	1077.00	1069.00	1062.00	1057.00	1058.00	1048.00
79.00	80.00	80.00	83.00	85.00	88.00	92.00	94.00	94.00	94.00	95.00	95.00	95.00	93.00	93.00	93.00	89.00	86.00	84.00	83.00	82.00	106.00	101.00	110.00	153.00	223.00	299.00	423.00	428.00	421.00	283.00	297.00	185.00	128.00	232.00	676.00	869.00	1011.00	1066.00	964.00	1040.00	1151.00	1297.00	1239.00	1058.00	643.00	465.00	371.00	410.00	572.00	718.00	807.00	1024.00	1141.00	1181.00	1233.00	1209.00	872.00	796.00	798.00	897.00	1146.00	1041.00	1006.00	1171.00	1303.00	1588.00	1790.00	1729.00	1571.00	1378.00	1225.00	1130.00	1093.00	1049.00	1137.00	1264.00	1276.00	1343.00	1397.00	1305.00	1173.00	1040.00	962.00	865.00	827.00	758.00	681.00	648.00	708.00	807.00	895.00	995.00	1135.00	1145.00	1203.00	1286.00	1566.00	1538.00	1546.00	1619.00	1692.00	1597.00	1395.00	1215.00	1105.00	1216.00	1260.00	1235.00	1238.00	1255.00	1324.00	1367.00	1379.00	1339.00	1316.00	1335.00	1350.00	1280.00	1153.00	1204.00	1237.00	1295.00	1314.00	1357.00	1399.00	1449.00	1505.00	1546.00	1767.00	1835.00	1816.00	1704.00	1765.00	1858.00	1992.00	2194.00	2532.00	2531.00	2514.00	2436.00	2444.00	2403.00	2332.00	2313.00	2277.00	2124.00	2076.00	2057.00	2032.00	2009.00	2016.00	1984.00	1941.00	1978.00	1966.00	1918.00	1866.00	1801.00	1740.00	1691.00	1653.00	1627.00	1631.00	1581.00	1587.00	1609.00	1614.00	1612.00	1580.00	1547.00	1517.00	1556.00	1614.00	1577.00	1583.00	1599.00	1575.00	1421.00	1427.00	1437.00	1442.00	1383.00	1355.00	1330.00	1314.00	1293.00	1260.00	1255.00	1256.00	1255.00	1251.00	1252.00	1252.00	1250.00	1246.00	1243.00	1246.00	1254.00	1266.00	1276.00	1264.00	1265.00	1299.00	1295.00	1335.00	1308.00	1295.00	1311.00	1253.00	1239.00	1230.00	1238.00	1233.00	1196.00	1188.00	1182.00	1177.00	1167.00	1164.00	1161.00	1160.00	1160.00	1164.00	1168.00	1176.00	1191.00	1174.00	1164.00	1162.00	1156.00	1150.00	1140.00	1135.00	1127.00	1123.00	1115.00	1112.00	1114.00	1115.00	1115.00	1114.00	1112.00	1110.00	1106.00	1096.00	1091.00	1092.00	1091.00	1076.00	1065.00	1062.00	1055.00	1048.00	1040.00	1030.00
82.00	83.00	84.00	87.00	90.00	93.00	95.00	99.00	99.00	99.00	99.00	100.00	99.00	99.00	99.00	99.00	93.00	91.00	88.00	87.00	87.00	92.00	98.00	103.00	128.00	194.00	302.00	420.00	583.00	554.00	421.00	407.00	327.00	211.00	201.00	605.00	809.00	988.00	1205.00	1300.00	1351.00	1387.00	1408.00	1248.00	1058.00	687.00	533.00	397.00	418.00	521.00	614.00	771.00	930.00	939.00	939.00	1042.00	1225.00	932.00	929.00	977.00	945.00	1265.00	1212.00	1077.00	1154.00	1328.00	1705.00	1789.00	1673.00	1541.00	1320.00	1230.00	1211.00	1199.00	1147.00	1165.00	1316.00	1415.00	1472.00	1448.00	1317.00	1198.00	1123.00	1097.00	955.00	867.00	802.00	737.00	641.00	696.00	760.00	839.00	928.00	981.00	1009.00	1116.00	1234.00	1312.00	1255.00	1408.00	1568.00	1394.00	1292.00	1221.00	1179.00	1086.00	1119.00	1150.00	1158.00	1149.00	1238.00	1298.00	1325.00	1327.00	1271.00	1298.00	1323.00	1301.00	1174.00	1225.00	1306.00	1298.00	1363.00	1342.00	1363.00	1405.00	1435.00	1448.00	1488.00	1681.00	1799.00	1853.00	1778.00	1801.00	1907.00	2152.00	2328.00	2485.00	2491.00	2444.00	2384.00	2396.00	2379.00	2318.00	2303.00	2239.00	2099.00	2058.00	2045.00	2020.00	1992.00	1943.00	1924.00	1881.00	1879.00	1855.00	1855.00	1793.00	1745.00	1739.00	1776.00	1719.00	1668.00	1617.00	1557.00	1551.00	1566.00	1573.00	1582.00	1604.00	1565.00	1500.00	1505.00	1569.00	1539.00	1547.00	1548.00	1555.00	1460.00	1405.00	1403.00	1427.00	1348.00	1327.00	1307.00	1292.00	1279.00	1258.00	1251.00	1249.00	1247.00	1244.00	1269.00	1277.00	1267.00	1246.00	1242.00	1247.00	1256.00	1285.00	1275.00	1260.00	1276.00	1299.00	1327.00	1322.00	1302.00	1286.00	1271.00	1247.00	1255.00	1242.00	1219.00	1211.00	1193.00	1188.00	1184.00	1179.00	1172.00	1170.00	1167.00	1163.00	1160.00	1154.00	1156.00	1155.00	1153.00	1152.00	1149.00	1145.00	1141.00	1136.00	1129.00	1126.00	1119.00	1116.00	1109.00	1104.00	1100.00	1099.00	1099.00	1103.00	1102.00	1101.00	1098.00	1089.00	1085.00	1079.00	1072.00	1067.00	1060.00	1053.00	1048.00	1043.00	1033.00	1026.00
85.00	87.00	89.00	91.00	95.00	97.00	99.00	103.00	103.00	104.00	104.00	106.00	106.00	106.00	104.00	104.00	98.00	96.00	93.00	91.00	91.00	95.00	101.00	109.00	120.00	194.00	251.00	383.00	561.00	616.00	699.00	697.00	547.00	356.00	180.00	578.00	718.00	877.00	1090.00	1392.00	1506.00	1409.00	1353.00	1169.00	964.00	570.00	466.00	389.00	407.00	472.00	622.00	674.00	727.00	729.00	773.00	885.00	1144.00	1120.00	1146.00	1136.00	1112.00	1292.00	1329.00	1233.00	1316.00	1384.00	1792.00	1802.00	1666.00	1533.00	1357.00	1389.00	1398.00	1351.00	1225.00	1197.00	1332.00	1517.00	1520.00	1403.00	1340.00	1288.00	1208.00	1129.00	974.00	908.00	842.00	788.00	674.00	659.00	719.00	760.00	809.00	1010.00	1109.00	1119.00	1179.00	1182.00	1171.00	1304.00	1355.00	1146.00	1138.00	1108.00	1089.00	1026.00	1063.00	1036.00	1094.00	1184.00	1260.00	1248.00	1288.00	1247.00	1227.00	1311.00	1291.00	1188.00	1085.00	1298.00	1391.00	1386.00	1343.00	1276.00	1458.00	1485.00	1553.00	1566.00	1549.00	1592.00	1686.00	1784.00	1805.00	1873.00	1999.00	2226.00	2372.00	2456.00	2402.00	2333.00	2310.00	2307.00	2281.00	2277.00	2272.00	2189.00	2106.00	2078.00	2039.00	2024.00	2028.00	1929.00	1867.00	1843.00	1830.00	1784.00	1785.00	1767.00	1759.00	1805.00	1822.00	1694.00	1655.00	1648.00	1561.00	1527.00	1525.00	1538.00	1537.00	1545.00	1552.00	1554.00	1494.00	1495.00	1503.00	1506.00	1508.00	1497.00	1471.00	1413.00	1380.00	1431.00	1325.00	1313.00	1298.00	1286.00	1277.00	1259.00	1253.00	1246.00	1243.00	1239.00	1247.00	1254.00	1271.00	1267.00	1239.00	1239.00	1247.00	1258.00	1260.00	1256.00	1275.00	1307.00	1322.00	1345.00	1318.00	1288.00	1292.00	1281.00	1275.00	1263.00	1228.00	1217.00	1204.00	1200.00	1198.00	1196.00	1188.00	1188.00	1186.00	1187.00	1198.00	1167.00	1147.00	1145.00	1142.00	1140.00	1139.00	1137.00	1135.00	1132.00	1125.00	1121.00	1115.00	1113.00	1112.00	1113.00	1111.00	1107.00	1095.00	1091.00	1088.00	1085.00	1083.00	1075.00	1071.00	1068.00	1065.00	1056.00	1051.00	1047.00	1042.00	1041.00	1039.00	1046.00
88.00	91.00	93.00	96.00	98.00	101.00	104.00	107.00	107.00	109.00	109.00	111.00	113.00	112.00	111.00	109.00	103.00	100.00	97.00	95.00	95.00	101.00	105.00	111.00	120.00	215.00	246.00	329.00	417.00	535.00	993.00	959.00	735.00	562.00	229.00	438.00	594.00	752.00	892.00	1303.00	1384.00	1248.00	1128.00	992.00	831.00	533.00	430.00	409.00	401.00	426.00	488.00	553.00	602.00	618.00	691.00	800.00	1048.00	1304.00	1374.00	1355.00	1340.00	1402.00	1490.00	1424.00	1466.00	1576.00	1786.00	1731.00	1673.00	1576.00	1522.00	1579.00	1524.00	1398.00	1267.00	1216.00	1333.00	1465.00	1455.00	1448.00	1426.00	1349.00	1266.00	1191.00	995.00	934.00	897.00	893.00	747.00	722.00	666.00	698.00	764.00	968.00	1077.00	1215.00	1252.00	1177.00	998.00	1047.00	1104.00	1024.00	1035.00	998.00	989.00	929.00	1010.00	1085.00	1156.00	1184.00	1092.00	1076.00	1103.00	1154.00	1219.00	1317.00	1215.00	1094.00	1063.00	1341.00	1399.00	1381.00	1278.00	1301.00	1504.00	1577.00	1675.00	1698.00	1672.00	1568.00	1685.00	1805.00	1897.00	2021.00	2078.00	2218.00	2340.00	2339.00	2286.00	2240.00	2252.00	2235.00	2225.00	2178.00	2156.00	2134.00	2089.00	2064.00	2045.00	2029.00	1972.00	1911.00	1893.00	1855.00	1820.00	1794.00	1809.00	1827.00	1794.00	1870.00	1767.00	1698.00	1688.00	1618.00	1573.00	1559.00	1537.00	1519.00	1514.00	1501.00	1525.00	1587.00	1567.00	1455.00	1449.00	1458.00	1451.00	1442.00	1432.00	1410.00	1384.00	1358.00	1319.00	1308.00	1298.00	1288.00	1278.00	1260.00	1253.00	1246.00	1241.00	1235.00	1233.00	1239.00	1255.00	1277.00	1237.00	1239.00	1242.00	1244.00	1249.00	1256.00	1265.00	1287.00	1299.00	1337.00	1370.00	1355.00	1356.00	1315.00	1263.00	1244.00	1236.00	1233.00	1244.00	1239.00	1238.00	1234.00	1221.00	1214.00	1242.00	1272.00	1261.00	1165.00	1147.00	1142.00	1139.00	1137.00	1139.00	1138.00	1132.00	1126.00	1127.00	1125.00	1125.00	1125.00	1124.00	1123.00	1119.00	1116.00	1107.00	1099.00	1092.00	1088.00	1081.00	1070.00	1067.00	1065.00	1062.00	1058.00	1056.00	1059.00	1058.00	1061.00	1065.00	1084.00
91.00	94.00	96.00	101.00	103.00	106.00	109.00	112.00	115.00	116.00	115.00	117.00	118.00	118.00	117.00	114.00	108.00	104.00	102.00	98.00	98.00	107.00	112.00	118.00	125.00	265.00	318.00	364.00	435.00	595.00	1030.00	1104.00	949.00	730.00	335.00	402.00	565.00	706.00	866.00	1242.00	1379.00	1260.00	1068.00	731.00	632.00	449.00	447.00	542.00	420.00	431.00	461.00	501.00	624.00	667.00	703.00	757.00	975.00	1281.00	1411.00	1499.00	1515.00	1504.00	1649.00	1671.00	1696.00	1776.00	1634.00	1577.00	1565.00	1611.00	1689.00	1625.00	1514.00	1396.00	1317.00	1287.00	1336.00	1439.00	1454.00	1495.00	1467.00	1397.00	1304.00	1208.00	1100.00	1065.00	1019.00	978.00	828.00	775.00	716.00	684.00	720.00	844.00	898.00	1037.00	1041.00	1019.00	898.00	936.00	949.00	915.00	940.00	900.00	915.00	895.00	967.00	993.00	1051.00	1040.00	982.00	1017.00	1084.00	1168.00	1165.00	1152.00	1112.00	1053.00	1075.00	1290.00	1232.00	1257.00	1308.00	1326.00	1456.00	1576.00	1714.00	1822.00	1774.00	1599.00	1677.00	1798.00	1982.00	2106.00	2088.00	2187.00	2270.00	2221.00	2181.00	2201.00	2219.00	2207.00	2173.00	2151.00	2142.00	2108.00	2101.00	2076.00	2027.00	1972.00	1939.00	1889.00	1876.00	1880.00	1891.00	1819.00	1876.00	1901.00	1832.00	1868.00	1797.00	1710.00	1703.00	1621.00	1563.00	1548.00	1537.00	1531.00	1548.00	1480.00	1487.00	1572.00	1577.00	1476.00	1435.00	1420.00	1418.00	1401.00	1399.00	1376.00	1345.00	1337.00	1318.00	1308.00	1297.00	1288.00	1278.00	1259.00	1252.00	1245.00	1241.00	1234.00	1229.00	1233.00	1244.00	1261.00	1235.00	1233.00	1233.00	1237.00	1250.00	1257.00	1267.00	1292.00	1327.00	1356.00	1358.00	1336.00	1336.00	1344.00	1328.00	1281.00	1266.00	1262.00	1371.00	1364.00	1360.00	1339.00	1294.00	1274.00	1258.00	1222.00	1198.00	1153.00	1143.00	1140.00	1140.00	1134.00	1133.00	1132.00	1132.00	1135.00	1135.00	1135.00	1136.00	1137.00	1134.00	1131.00	1128.00	1123.00	1120.00	1110.00	1102.00	1103.00	1098.00	1081.00	1083.00	1090.00	1078.00	1078.00	1075.00	1082.00	1081.00	1082.00	1098.00	1113.00
94.00	97.00	100.00	106.00	108.00	111.00	114.00	117.00	120.00	122.00	124.00	122.00	125.00	125.00	123.00	120.00	113.00	109.00	105.00	102.00	100.00	130.00	129.00	127.00	135.00	185.00	236.00	303.00	411.00	566.00	984.00	1063.00	991.00	737.00	484.00	522.00	583.00	717.00	868.00	1236.00	1308.00	1126.00	923.00	601.00	521.00	529.00	536.00	634.00	497.00	437.00	450.00	541.00	754.00	824.00	874.00	921.00	979.00	1198.00	1363.00	1496.00	1648.00	1680.00	1805.00	1745.00	1720.00	1649.00	1508.00	1461.00	1477.00	1581.00	1746.00	1632.00	1524.00	1427.00	1446.00	1358.00	1341.00	1459.00	1512.00	1554.00	1506.00	1422.00	1345.00	1280.00	1228.00	1204.00	1152.00	1135.00	894.00	808.00	826.00	752.00	707.00	757.00	804.00	878.00	886.00	879.00	842.00	867.00	835.00	836.00	847.00	849.00	867.00	865.00	881.00	895.00	935.00	928.00	991.00	997.00	1055.00	1142.00	1080.00	1030.00	1020.00	1057.00	1174.00	1195.00	1278.00	1324.00	1334.00	1404.00	1599.00	1698.00	1812.00	1890.00	1876.00	1660.00	1778.00	1848.00	2020.00	2141.00	2074.00	2112.00	2139.00	2127.00	2161.00	2187.00	2202.00	2210.00	2143.00	2117.00	2120.00	2127.00	2081.00	2035.00	2003.00	1969.00	1931.00	1990.00	2000.00	1981.00	1948.00	1855.00	1930.00	1908.00	1864.00	1872.00	1784.00	1735.00	1740.00	1698.00	1582.00	1556.00	1545.00	1575.00	1575.00	1503.00	1467.00	1535.00	1521.00	1456.00	1439.00	1416.00	1417.00	1406.00	1365.00	1348.00	1336.00	1325.00	1311.00	1303.00	1295.00	1286.00	1277.00	1258.00	1249.00	1243.00	1238.00	1232.00	1229.00	1230.00	1239.00	1241.00	1230.00	1231.00	1233.00	1237.00	1247.00	1253.00	1258.00	1279.00	1298.00	1307.00	1318.00	1330.00	1330.00	1362.00	1369.00	1342.00	1330.00	1304.00	1356.00	1306.00	1304.00	1313.00	1218.00	1228.00	1200.00	1180.00	1167.00	1142.00	1141.00	1140.00	1140.00	1138.00	1137.00	1139.00	1143.00	1146.00	1145.00	1143.00	1147.00	1149.00	1144.00	1139.00	1136.00	1133.00	1123.00	1117.00	1120.00	1117.00	1113.00	1097.00	1101.00	1106.00	1096.00	1093.00	1097.00	1096.00	1101.00	1097.00	1122.00	1144.00
97.00	100.00	102.00	110.00	113.00	116.00	118.00	122.00	125.00	128.00	132.00	131.00	132.00	133.00	130.00	126.00	117.00	111.00	107.00	107.00	132.00	185.00	229.00	173.00	174.00	183.00	210.00	263.00	363.00	509.00	917.00	997.00	1059.00	884.00	665.00	681.00	733.00	842.00	985.00	1221.00	1081.00	943.00	775.00	591.00	621.00	728.00	772.00	692.00	601.00	484.00	452.00	516.00	774.00	864.00	957.00	1084.00	1217.00	1317.00	1442.00	1577.00	1714.00	1814.00	1741.00	1618.00	1564.00	1492.00	1402.00	1373.00	1469.00	1585.00	1715.00	1616.00	1544.00	1499.00	1534.00	1430.00	1419.00	1503.00	1581.00	1651.00	1602.00	1496.00	1387.00	1352.00	1334.00	1319.00	1277.00	1251.00	1002.00	949.00	952.00	882.00	800.00	716.00	721.00	761.00	791.00	783.00	791.00	793.00	809.00	859.00	874.00	873.00	861.00	861.00	914.00	900.00	901.00	905.00	948.00	999.00	1089.00	1152.00	1063.00	1009.00	1035.00	1093.00	1210.00	1313.00	1335.00	1333.00	1344.00	1433.00	1747.00	1855.00	1893.00	1947.00	1979.00	1716.00	1858.00	1990.00	2118.00	2102.00	2068.00	2071.00	2084.00	2119.00	2133.00	2159.00	2212.00	2210.00	2098.00	2130.00	2142.00	2123.00	2121.00	2058.00	2005.00	1964.00	1959.00	1979.00	1982.00	1962.00	1916.00	1965.00	1946.00	1881.00	1814.00	1752.00	1799.00	1692.00	1692.00	1659.00	1578.00	1583.00	1639.00	1630.00	1539.00	1474.00	1469.00	1454.00	1461.00	1450.00	1433.00	1420.00	1420.00	1408.00	1352.00	1345.00	1336.00	1326.00	1300.00	1294.00	1287.00	1280.00	1271.00	1255.00	1248.00	1241.00	1236.00	1230.00	1228.00	1228.00	1227.00	1228.00	1229.00	1230.00	1233.00	1239.00	1248.00	1255.00	1261.00	1276.00	1285.00	1328.00	1327.00	1351.00	1354.00	1316.00	1302.00	1310.00	1299.00	1302.00	1289.00	1240.00	1221.00	1242.00	1186.00	1176.00	1164.00	1156.00	1150.00	1144.00	1147.00	1149.00	1150.00	1147.00	1145.00	1149.00	1153.00	1156.00	1153.00	1149.00	1158.00	1160.00	1153.00	1150.00	1145.00	1148.00	1133.00	1130.00	1136.00	1133.00	1129.00	1117.00	1122.00	1120.00	1117.00	1114.00	1113.00	1118.00	1117.00	1115.00	1141.00	1183.00
104.00	105.00	107.00	118.00	122.00	125.00	128.00	133.00	137.00	139.00	141.00	145.00	145.00	147.00	151.00	137.00	121.00	116.00	113.00	116.00	124.00	178.00	291.00	438.00	468.00	427.00	368.00	530.00	635.00	628.00	786.00	923.00	1096.00	1136.00	1029.00	1056.00	1116.00	1188.00	1298.00	1042.00	855.00	793.00	782.00	846.00	970.00	994.00	897.00	939.00	687.00	573.00	483.00	498.00	601.00	693.00	811.00	996.00	1297.00	1426.00	1498.00	1686.00	1777.00	1629.00	1522.00	1472.00	1380.00	1358.00	1235.00	1382.00	1493.00	1569.00	1717.00	1675.00	1676.00	1671.00	1633.00	1612.00	1613.00	1708.00	1740.00	1806.00	1782.00	1648.00	1557.00	1516.00	1529.00	1491.00	1489.00	1463.00	1265.00	1232.00	1144.00	1075.00	1007.00	798.00	763.00	754.00	766.00	872.00	983.00	1031.00	1077.00	1144.00	1138.00	1119.00	1099.00	1079.00	1136.00	1226.00	1165.00	1057.00	969.00	1049.00	1054.00	1047.00	1072.00	1186.00	1189.00	1088.00	1073.00	1297.00	1310.00	1348.00	1432.00	1605.00	1772.00	1812.00	1865.00	1926.00	1960.00	1808.00	1892.00	1922.00	2046.00	2104.00	2103.00	2104.00	2086.00	2115.00	2109.00	2086.00	2095.00	2092.00	2042.00	2064.00	2063.00	1995.00	2033.00	2002.00	1983.00	1965.00	1953.00	1927.00	1920.00	1954.00	1945.00	1749.00	1811.00	1753.00	1785.00	1708.00	1591.00	1549.00	1544.00	1547.00	1525.00	1564.00	1546.00	1548.00	1528.00	1479.00	1459.00	1442.00	1446.00	1443.00	1422.00	1394.00	1369.00	1359.00	1342.00	1335.00	1325.00	1317.00	1293.00	1284.00	1276.00	1270.00	1263.00	1250.00	1244.00	1239.00	1234.00	1228.00	1226.00	1226.00	1226.00	1227.00	1229.00	1230.00	1234.00	1239.00	1255.00	1265.00	1276.00	1313.00	1326.00	1298.00	1280.00	1252.00	1251.00	1198.00	1195.00	1198.00	1194.00	1194.00	1185.00	1178.00	1174.00	1170.00	1154.00	1151.00	1149.00	1149.00	1151.00	1165.00	1168.00	1170.00	1171.00	1166.00	1167.00	1172.00	1176.00	1175.00	1170.00	1170.00	1185.00	1179.00	1184.00	1177.00	1176.00	1164.00	1165.00	1161.00	1167.00	1169.00	1163.00	1158.00	1158.00	1161.00	1153.00	1155.00	1152.00	1154.00	1153.00	1161.00	1198.00	1337.00
108.00	109.00	112.00	121.00	125.00	129.00	133.00	138.00	141.00	145.00	147.00	151.00	151.00	154.00	192.00	176.00	145.00	150.00	152.00	126.00	135.00	172.00	262.00	421.00	563.00	638.00	526.00	626.00	866.00	937.00	870.00	944.00	1076.00	1209.00	1235.00	1325.00	1380.00	1450.00	1366.00	964.00	888.00	936.00	987.00	1030.00	1093.00	1008.00	988.00	1083.00	771.00	662.00	547.00	543.00	536.00	578.00	741.00	950.00	1167.00	1305.00	1442.00	1636.00	1666.00	1491.00	1390.00	1295.00	1264.00	1278.00	1265.00	1433.00	1584.00	1664.00	1720.00	1718.00	1734.00	1712.00	1698.00	1708.00	1725.00	1810.00	1848.00	1820.00	1817.00	1718.00	1617.00	1561.00	1499.00	1421.00	1359.00	1325.00	1328.00	1282.00	1211.00	1146.00	1060.00	850.00	799.00	787.00	809.00	967.00	1159.00	1215.00	1191.00	1205.00	1230.00	1258.00	1293.00	1240.00	1163.00	1201.00	1144.00	1081.00	947.00	971.00	1040.00	1093.00	1106.00	1149.00	1073.00	1047.00	1068.00	1335.00	1367.00	1458.00	1535.00	1599.00	1804.00	1924.00	1940.00	1943.00	1960.00	1824.00	1839.00	1961.00	2056.00	2148.00	2118.00	2119.00	2101.00	2042.00	1999.00	1958.00	1945.00	1963.00	1994.00	1963.00	1952.00	1958.00	1988.00	1999.00	1991.00	1976.00	1956.00	1939.00	1942.00	1942.00	1936.00	1722.00	1707.00	1729.00	1653.00	1614.00	1564.00	1538.00	1524.00	1514.00	1529.00	1564.00	1514.00	1543.00	1500.00	1470.00	1435.00	1415.00	1422.00	1423.00	1377.00	1351.00	1351.00	1349.00	1339.00	1340.00	1322.00	1314.00	1291.00	1283.00	1275.00	1267.00	1260.00	1248.00	1242.00	1238.00	1233.00	1228.00	1226.00	1225.00	1227.00	1229.00	1236.00	1238.00	1238.00	1243.00	1259.00	1269.00	1285.00	1329.00	1346.00	1221.00	1210.00	1198.00	1195.00	1180.00	1177.00	1173.00	1173.00	1173.00	1166.00	1162.00	1160.00	1157.00	1152.00	1150.00	1151.00	1153.00	1157.00	1174.00	1179.00	1182.00	1180.00	1178.00	1182.00	1185.00	1189.00	1186.00	1181.00	1183.00	1197.00	1194.00	1200.00	1195.00	1187.00	1181.00	1185.00	1183.00	1184.00	1186.00	1180.00	1181.00	1178.00	1181.00	1170.00	1179.00	1176.00	1173.00	1174.00	1192.00	1302.00	1321.00
108.00	109.00	112.00	121.00	125.00	129.00	133.00	138.00	141.00	145.00	147.00	151.00	151.00	154.00	192.00	176.00	145.00	150.00	152.00	126.00	135.00	172.00	262.00	421.00	563.00	638.00	526.00	626.00	866.00	937.00	870.00	944.00	1076.00	1209.00	1235.00	1325.00	1380.00	1450.00	1366.00	964.00	888.00	936.00	987.00	1030.00	1093.00	1008.00	988.00	1083.00	771.00	662.00	547.00	543.00	536.00	578.00	741.00	950.00	1167.00	1305.00	1442.00	1636.00	1666.00	1491.00	1390.00	1295.00	1264.00	1278.00	1265.00	1433.00	1584.00	1664.00	1720.00	1718.00	1734.00	1712.00	1698.00	1708.00	1725.00	1810.00	1848.00	1820.00	1817.00	1718.00	1617.00	1561.00	1499.00	1421.00	1359.00	1325.00	1328.00	1282.00	1211.00	1146.00	1060.00	850.00	799.00	787.00	809.00	967.00	1159.00	1215.00	1191.00	1205.00	1230.00	1258.00	1293.00	1240.00	1163.00	1201.00	1144.00	1081.00	947.00	971.00	1040.00	1093.00	1106.00	1149.00	1073.00	1047.00	1068.00	1335.00	1367.00	1458.00	1535.00	1599.00	1804.00	1924.00	1940.00	1943.00	1960.00	1824.00	1839.00	1961.00	2056.00	2148.00	2118.00	2119.00	2101.00	2042.00	1999.00	1958.00	1945.00	1963.00	1994.00	1963.00	1952.00	1958.00	1988.00	1999.00	1991.00	1976.00	1956.00	1939.00	1942.00	1942.00	1936.00	1722.00	1707.00	1729.00	1653.00	1614.00	1564.00	1538.00	1524.00	1514.00	1529.00	1564.00	1514.00	1543.00	1500.00	1470.00	1435.00	1415.00	1422.00	1423.00	1377.00	1351.00	1351.00	1349.00	1339.00	1340.00	1322.00	1314.00	1291.00	1283.00	1275.00	1267.00	1260.00	1248.00	1242.00	1238.00	1233.00	1228.00	1226.00	1225.00	1227.00	1229.00	1236.00	1238.00	1238.00	1243.00	1259.00	1269.00	1285.00	1329.00	1346.00	1221.00	1210.00	1198.00	1195.00	1180.00	1177.00	1173.00	1173.00	1173.00	1166.00	1162.00	1160.00	1157.00	1152.00	1150.00	1151.00	1153.00	1157.00	1174.00	1179.00	1182.00	1180.00	1178.00	1182.00	1185.00	1189.00	1186.00	1181.00	1183.00	1197.00	1194.00	1200.00	1195.00	1187.00	1181.00	1185.00	1183.00	1184.00	1186.00	1180.00	1181.00	1178.00	1181.00	1170.00	1179.00	1176.00	1173.00	1174.00	1192.00	1302.00	1321.00
111.00	113.00	116.00	124.00	127.00	132.00	136.00	143.00	146.00	150.00	154.00	158.00	159.00	160.00	267.00	257.00	264.00	259.00	242.00	208.00	176.00	167.00	223.00	317.00	503.00	948.00	802.00	882.00	1089.00	1179.00	979.00	1049.00	1110.00	1241.00	1383.00	1566.00	1600.00	1553.00	1326.00	1016.00	1031.00	1089.00	1116.00	1149.00	1148.00	1087.00	1102.00	1125.00	765.00	671.00	630.00	638.00	579.00	586.00	700.00	796.00	970.00	1192.00	1410.00	1523.00	1441.00	1280.00	1207.00	1172.00	1127.00	1123.00	1325.00	1459.00	1574.00	1612.00	1620.00	1659.00	1691.00	1725.00	1766.00	1809.00	1846.00	1894.00	1895.00	1789.00	1696.00	1576.00	1457.00	1429.00	1354.00	1277.00	1211.00	1255.00	1196.00	1195.00	1164.00	1079.00	961.00	814.00	839.00	907.00	974.00	1010.00	1291.00	1307.00	1294.00	1345.00	1446.00	1420.00	1414.00	1334.00	1177.00	1205.00	1190.00	1077.00	979.00	953.00	1003.00	1027.00	1069.00	1034.00	1025.00	1052.00	1083.00	1244.00	1338.00	1552.00	1741.00	1824.00	1837.00	1961.00	1997.00	1928.00	1887.00	1861.00	1927.00	1941.00	2026.00	2167.00	2132.00	2117.00	2134.00	2025.00	2002.00	1992.00	1935.00	1893.00	1894.00	1885.00	1900.00	1946.00	1958.00	1974.00	1975.00	1996.00	1977.00	1987.00	1955.00	1851.00	1820.00	1754.00	1657.00	1629.00	1591.00	1575.00	1548.00	1527.00	1516.00	1502.00	1545.00	1528.00	1489.00	1476.00	1447.00	1429.00	1418.00	1409.00	1400.00	1363.00	1350.00	1342.00	1339.00	1339.00	1331.00	1325.00	1316.00	1309.00	1288.00	1280.00	1272.00	1264.00	1257.00	1245.00	1240.00	1235.00	1232.00	1227.00	1228.00	1231.00	1245.00	1246.00	1247.00	1250.00	1248.00	1250.00	1258.00	1277.00	1277.00	1251.00	1261.00	1195.00	1187.00	1180.00	1175.00	1170.00	1168.00	1165.00	1163.00	1162.00	1158.00	1157.00	1155.00	1154.00	1153.00	1154.00	1157.00	1160.00	1165.00	1183.00	1189.00	1193.00	1193.00	1191.00	1197.00	1201.00	1200.00	1197.00	1193.00	1200.00	1205.00	1215.00	1219.00	1206.00	1203.00	1208.00	1205.00	1208.00	1205.00	1203.00	1195.00	1202.00	1201.00	1198.00	1204.00	1205.00	1203.00	1194.00	1197.00	1223.00	1366.00	1206.00
118.00	118.00	121.00	131.00	135.00	140.00	144.00	152.00	156.00	160.00	164.00	169.00	176.00	175.00	238.00	231.00	311.00	390.00	449.00	423.00	364.00	479.00	511.00	632.00	739.00	1091.00	1244.00	1354.00	1455.00	1483.00	1213.00	1268.00	1331.00	1411.00	1513.00	1701.00	1550.00	1400.00	1324.00	1272.00	1258.00	1294.00	1370.00	1408.00	1363.00	1252.00	1158.00	1033.00	780.00	758.00	873.00	958.00	923.00	780.00	711.00	638.00	744.00	1130.00	1091.00	1017.00	947.00	928.00	996.00	1058.00	1129.00	1197.00	1165.00	1227.00	1338.00	1454.00	1635.00	1681.00	1751.00	1825.00	1900.00	1994.00	2033.00	1991.00	1869.00	1639.00	1567.00	1488.00	1403.00	1303.00	1163.00	1135.00	1047.00	1087.00	1005.00	946.00	910.00	884.00	858.00	1008.00	1056.00	1186.00	1243.00	1116.00	1371.00	1478.00	1525.00	1562.00	1490.00	1394.00	1373.00	1374.00	1281.00	1257.00	1140.00	1111.00	1075.00	1012.00	995.00	978.00	979.00	1000.00	1034.00	1038.00	1066.00	1364.00	1556.00	1726.00	1744.00	1726.00	1784.00	1920.00	1923.00	1914.00	1827.00	1904.00	1974.00	2007.00	2010.00	2074.00	2070.00	2005.00	1969.00	1893.00	1873.00	1847.00	1834.00	1851.00	1850.00	1821.00	1828.00	1896.00	1873.00	1914.00	1962.00	2007.00	2051.00	1829.00	1765.00	1728.00	1663.00	1604.00	1588.00	1569.00	1556.00	1548.00	1524.00	1502.00	1494.00	1484.00	1507.00	1470.00	1471.00	1483.00	1455.00	1511.00	1532.00	1469.00	1466.00	1340.00	1333.00	1331.00	1327.00	1322.00	1314.00	1308.00	1302.00	1296.00	1276.00	1270.00	1263.00	1256.00	1249.00	1237.00	1233.00	1230.00	1227.00	1231.00	1225.00	1225.00	1234.00	1235.00	1267.00	1267.00	1247.00	1215.00	1210.00	1192.00	1191.00	1183.00	1180.00	1179.00	1177.00	1175.00	1173.00	1171.00	1169.00	1167.00	1165.00	1163.00	1162.00	1161.00	1161.00	1164.00	1169.00	1171.00	1172.00	1176.00	1179.00	1199.00	1207.00	1212.00	1213.00	1211.00	1221.00	1225.00	1218.00	1225.00	1219.00	1224.00	1238.00	1228.00	1235.00	1218.00	1231.00	1240.00	1245.00	1247.00	1240.00	1234.00	1233.00	1246.00	1238.00	1254.00	1258.00	1275.00	1256.00	1273.00	1319.00	1363.00	1305.00	1131.00
120.00	120.00	123.00	134.00	138.00	142.00	146.00	154.00	160.00	165.00	169.00	173.00	184.00	192.00	204.00	223.00	345.00	360.00	332.00	397.00	491.00	535.00	624.00	745.00	841.00	1005.00	1175.00	1313.00	1388.00	1325.00	1128.00	1200.00	1307.00	1427.00	1645.00	1695.00	1528.00	1450.00	1431.00	1415.00	1419.00	1441.00	1518.00	1530.00	1422.00	1238.00	1109.00	967.00	835.00	928.00	1026.00	1101.00	1034.00	945.00	874.00	813.00	688.00	940.00	864.00	813.00	870.00	1078.00	1154.00	1227.00	1248.00	1326.00	1266.00	1268.00	1312.00	1408.00	1684.00	1751.00	1829.00	1902.00	1970.00	2090.00	2088.00	1923.00	1804.00	1533.00	1435.00	1371.00	1334.00	1311.00	1095.00	1094.00	1039.00	1007.00	959.00	967.00	948.00	950.00	975.00	1092.00	1162.00	1229.00	1338.00	1221.00	1371.00	1481.00	1574.00	1533.00	1463.00	1455.00	1456.00	1420.00	1339.00	1274.00	1141.00	1119.00	1058.00	1038.00	1013.00	980.00	975.00	993.00	1006.00	1034.00	1121.00	1513.00	1661.00	1718.00	1677.00	1674.00	1736.00	1834.00	1915.00	1872.00	1791.00	1873.00	1941.00	2015.00	2049.00	2091.00	2058.00	1978.00	1926.00	1860.00	1845.00	1841.00	1872.00	1852.00	1899.00	1881.00	1846.00	1802.00	1946.00	1997.00	1986.00	1982.00	1977.00	1725.00	1683.00	1644.00	1618.00	1591.00	1575.00	1560.00	1545.00	1533.00	1513.00	1496.00	1495.00	1507.00	1486.00	1490.00	1479.00	1486.00	1515.00	1581.00	1644.00	1562.00	1445.00	1333.00	1323.00	1322.00	1319.00	1316.00	1307.00	1302.00	1297.00	1290.00	1270.00	1264.00	1258.00	1252.00	1245.00	1234.00	1231.00	1230.00	1232.00	1219.00	1225.00	1215.00	1219.00	1217.00	1227.00	1217.00	1206.00	1200.00	1192.00	1189.00	1187.00	1183.00	1182.00	1184.00	1182.00	1181.00	1182.00	1180.00	1177.00	1174.00	1172.00	1171.00	1170.00	1171.00	1171.00	1174.00	1181.00	1183.00	1183.00	1187.00	1191.00	1208.00	1219.00	1226.00	1225.00	1225.00	1230.00	1230.00	1237.00	1240.00	1238.00	1249.00	1257.00	1251.00	1248.00	1244.00	1243.00	1264.00	1267.00	1265.00	1260.00	1253.00	1254.00	1262.00	1273.00	1308.00	1342.00	1351.00	1301.00	1295.00	1366.00	1493.00	1234.00	1117.00
124.00	123.00	125.00	136.00	140.00	144.00	149.00	156.00	162.00	167.00	174.00	179.00	188.00	194.00	203.00	216.00	261.00	261.00	291.00	397.00	491.00	532.00	532.00	600.00	664.00	939.00	1128.00	1277.00	1170.00	1086.00	981.00	1140.00	1282.00	1431.00	1732.00	1751.00	1594.00	1570.00	1583.00	1670.00	1730.00	1761.00	1841.00	1630.00	1413.00	1160.00	983.00	903.00	1006.00	1145.00	1215.00	1261.00	1189.00	1118.00	1108.00	1062.00	737.00	757.00	799.00	914.00	1074.00	1144.00	1238.00	1348.00	1381.00	1424.00	1416.00	1439.00	1452.00	1416.00	1628.00	1729.00	1826.00	1922.00	2014.00	2129.00	2038.00	1848.00	1758.00	1510.00	1400.00	1302.00	1252.00	1206.00	1208.00	1213.00	1127.00	1021.00	1094.00	1122.00	1093.00	1103.00	1107.00	1069.00	1224.00	1321.00	1426.00	1454.00	1336.00	1400.00	1470.00	1563.00	1525.00	1513.00	1500.00	1485.00	1358.00	1286.00	1141.00	1091.00	1037.00	1018.00	996.00	989.00	987.00	993.00	1024.00	1138.00	1295.00	1615.00	1704.00	1689.00	1663.00	1661.00	1736.00	1871.00	1925.00	1879.00	1760.00	1874.00	1953.00	2027.00	2098.00	2065.00	2011.00	1974.00	1935.00	1857.00	1858.00	1890.00	1957.00	1997.00	1977.00	1955.00	1837.00	1815.00	1996.00	1956.00	1883.00	1799.00	1820.00	1659.00	1637.00	1622.00	1606.00	1573.00	1563.00	1550.00	1537.00	1525.00	1515.00	1514.00	1525.00	1584.00	1548.00	1509.00	1549.00	1521.00	1597.00	1679.00	1685.00	1454.00	1384.00	1323.00	1314.00	1313.00	1311.00	1309.00	1300.00	1297.00	1292.00	1286.00	1267.00	1260.00	1254.00	1249.00	1243.00	1238.00	1245.00	1237.00	1234.00	1217.00	1212.00	1209.00	1207.00	1207.00	1201.00	1199.00	1197.00	1195.00	1192.00	1189.00	1187.00	1185.00	1188.00	1189.00	1189.00	1191.00	1192.00	1190.00	1186.00	1184.00	1181.00	1179.00	1182.00	1180.00	1182.00	1185.00	1192.00	1198.00	1199.00	1200.00	1205.00	1217.00	1227.00	1238.00	1238.00	1242.00	1238.00	1238.00	1259.00	1255.00	1260.00	1275.00	1263.00	1279.00	1270.00	1274.00	1261.00	1278.00	1294.00	1284.00	1276.00	1279.00	1275.00	1337.00	1304.00	1350.00	1427.00	1420.00	1362.00	1390.00	1462.00	1483.00	1201.00	1101.00
129.00	125.00	124.00	135.00	138.00	155.00	207.00	158.00	163.00	168.00	175.00	181.00	194.00	199.00	211.00	214.00	230.00	250.00	295.00	366.00	443.00	419.00	432.00	472.00	553.00	928.00	1095.00	1195.00	1045.00	897.00	988.00	1087.00	1211.00	1409.00	1581.00	1773.00	1724.00	1780.00	1867.00	1999.00	1999.00	2006.00	1997.00	1557.00	1369.00	1086.00	1077.00	1064.00	1126.00	1272.00	1378.00	1451.00	1394.00	1359.00	1296.00	1136.00	774.00	926.00	1044.00	1125.00	1220.00	1237.00	1312.00	1430.00	1495.00	1524.00	1540.00	1542.00	1574.00	1514.00	1627.00	1717.00	1785.00	1863.00	1986.00	2126.00	2012.00	1801.00	1695.00	1469.00	1416.00	1416.00	1348.00	1283.00	1199.00	1152.00	1079.00	1089.00	1153.00	1228.00	1254.00	1295.00	1267.00	1079.00	1198.00	1308.00	1395.00	1547.00	1439.00	1511.00	1566.00	1614.00	1589.00	1577.00	1542.00	1509.00	1409.00	1328.00	1145.00	1100.00	1073.00	1037.00	1012.00	1010.00	1002.00	1026.00	1156.00	1361.00	1428.00	1703.00	1736.00	1750.00	1723.00	1696.00	1683.00	1748.00	1771.00	1756.00	1750.00	1907.00	1968.00	2020.00	2056.00	2051.00	2029.00	1962.00	1918.00	1876.00	1896.00	1937.00	1984.00	1944.00	1808.00	1758.00	1768.00	1882.00	1886.00	1796.00	1766.00	1731.00	1695.00	1632.00	1621.00	1607.00	1593.00	1568.00	1554.00	1542.00	1534.00	1533.00	1532.00	1537.00	1577.00	1635.00	1536.00	1526.00	1552.00	1598.00	1608.00	1600.00	1590.00	1404.00	1352.00	1312.00	1305.00	1304.00	1303.00	1301.00	1293.00	1290.00	1287.00	1282.00	1264.00	1258.00	1252.00	1258.00	1252.00	1257.00	1253.00	1223.00	1217.00	1215.00	1210.00	1208.00	1206.00	1204.00	1200.00	1198.00	1197.00	1195.00	1192.00	1190.00	1190.00	1194.00	1195.00	1198.00	1200.00	1202.00	1204.00	1199.00	1198.00	1194.00	1191.00	1190.00	1194.00	1194.00	1196.00	1199.00	1205.00	1212.00	1219.00	1231.00	1242.00	1247.00	1240.00	1247.00	1253.00	1256.00	1251.00	1259.00	1273.00	1273.00	1312.00	1321.00	1277.00	1298.00	1280.00	1275.00	1258.00	1258.00	1305.00	1304.00	1295.00	1305.00	1334.00	1416.00	1356.00	1385.00	1459.00	1533.00	1514.00	1473.00	1500.00	1352.00	1175.00	1093.00
