272.00	265.00	265.00	244.00	244.00	243.00	256.00	270.00	280.00	279.00	276.00	282.00	268.00	257.00	257.00	255.00	248.00	217.00	243.00	257.00	259.00	254.00	244.00	240.00	268.00	267.00	258.00	247.00	248.00	248.00	245.00	240.00	236.00	232.00	229.00	219.00	222.00	234.00	237.00	229.00	216.00	207.00	203.00	206.00	216.00	208.00	201.00	218.00	234.00	235.00	228.00	223.00	229.00	241.00	244.00	247.00	245.00	242.00	238.00	228.00	226.00	227.00	226.00	224.00	220.00	213.00	204.00	201.00	196.00	192.00	191.00	199.00	204.00	207.00	212.00	218.00	216.00	216.00	214.00	212.00	213.00	212.00	208.00	201.00	186.00	179.00	172.00	175.00	184.00	196.00	196.00	186.00	173.00	168.00	169.00	170.00	169.00	169.00	168.00	169.00	168.00	167.00	170.00	169.00	166.00	168.00	169.00	166.00	167.00	167.00	167.00	165.00	165.00	161.00	163.00	162.00	163.00	163.00	163.00	162.00	168.00	170.00	182.00	208.00	219.00	212.00	212.00	221.00	229.00	243.00	251.00	269.00	276.00	285.00	290.00	291.00	281.00	280.00	273.00	260.00	278.00	282.00	276.00	252.00	242.00	244.00	250.00	257.00	249.00	258.00	263.00	256.00	249.00	262.00	274.00	279.00	266.00	265.00	269.00	264.00	237.00	251.00	259.00	265.00	276.00	290.00	293.00	292.00	288.00	280.00	275.00	279.00	286.00	289.00	279.00	276.00	278.00	273.00	255.00	244.00	239.00	238.00	236.00	234.00	241.00	250.00	250.00	238.00	234.00	231.00	224.00	217.00	210.00	219.00	240.00	260.00	271.00	261.00	265.00	267.00	261.00	248.00	247.00	247.00	239.00	239.00	272.00	275.00	268.00	260.00	242.00	235.00	225.00	213.00	199.00	198.00	199.00	199.00	199.00	205.00	210.00	218.00	228.00	246.00	251.00	251.00	255.00	235.00	230.00	250.00	280.00	314.00	357.00	365.00	368.00	361.00	352.00	311.00	292.00	270.00	262.00	269.00	283.00	291.00	337.00	386.00	396.00	364.00	346.00	358.00	405.00	377.00	324.00	293.00	275.00	269.00
278.00	275.00	274.00	248.00	251.00	248.00	261.00	277.00	283.00	286.00	285.00	283.00	271.00	266.00	260.00	248.00	232.00	219.00	248.00	261.00	270.00	262.00	245.00	247.00	270.00	271.00	252.00	253.00	241.00	236.00	233.00	232.00	229.00	224.00	227.00	236.00	236.00	234.00	222.00	206.00	207.00	217.00	228.00	227.00	219.00	210.00	205.00	228.00	244.00	239.00	231.00	240.00	245.00	249.00	249.00	247.00	243.00	238.00	236.00	216.00	222.00	222.00	214.00	208.00	204.00	199.00	193.00	202.00	210.00	210.00	200.00	203.00	209.00	214.00	217.00	219.00	220.00	218.00	217.00	217.00	208.00	199.00	188.00	182.00	179.00	183.00	188.00	200.00	206.00	197.00	187.00	180.00	185.00	175.00	171.00	171.00	171.00	171.00	170.00	169.00	170.00	175.00	176.00	175.00	169.00	167.00	168.00	168.00	166.00	166.00	166.00	169.00	166.00	165.00	165.00	164.00	165.00	166.00	166.00	162.00	166.00	166.00	174.00	193.00	208.00	221.00	229.00	238.00	248.00	264.00	267.00	268.00	259.00	267.00	272.00	275.00	270.00	257.00	254.00	264.00	271.00	266.00	264.00	256.00	244.00	233.00	237.00	252.00	252.00	245.00	244.00	249.00	240.00	262.00	262.00	265.00	272.00	262.00	255.00	251.00	238.00	264.00	276.00	278.00	288.00	291.00	291.00	290.00	288.00	282.00	276.00	269.00	268.00	271.00	289.00	292.00	283.00	266.00	250.00	244.00	247.00	247.00	240.00	246.00	251.00	251.00	246.00	237.00	234.00	231.00	226.00	221.00	211.00	209.00	237.00	255.00	247.00	241.00	259.00	265.00	261.00	247.00	242.00	233.00	225.00	242.00	274.00	276.00	265.00	253.00	245.00	241.00	231.00	209.00	197.00	197.00	198.00	198.00	199.00	209.00	222.00	234.00	245.00	262.00	269.00	276.00	283.00	266.00	273.00	293.00	320.00	350.00	353.00	367.00	392.00	416.00	398.00	306.00	293.00	288.00	283.00	277.00	297.00	301.00	318.00	345.00	360.00	370.00	377.00	398.00	390.00	343.00	316.00	303.00	300.00	300.00
281.00	276.00	267.00	247.00	247.00	260.00	268.00	279.00	285.00	280.00	271.00	258.00	242.00	238.00	235.00	227.00	232.00	223.00	243.00	269.00	278.00	258.00	249.00	273.00	274.00	265.00	262.00	263.00	255.00	249.00	240.00	234.00	231.00	236.00	239.00	230.00	221.00	211.00	215.00	239.00	240.00	241.00	237.00	231.00	214.00	214.00	228.00	247.00	254.00	254.00	254.00	254.00	253.00	247.00	243.00	238.00	236.00	231.00	229.00	215.00	217.00	215.00	206.00	196.00	196.00	201.00	219.00	223.00	222.00	217.00	199.00	211.00	217.00	220.00	221.00	222.00	220.00	216.00	213.00	209.00	186.00	178.00	177.00	189.00	203.00	208.00	212.00	211.00	204.00	185.00	184.00	194.00	195.00	184.00	185.00	184.00	178.00	177.00	176.00	176.00	176.00	175.00	177.00	178.00	175.00	173.00	169.00	169.00	170.00	171.00	173.00	170.00	167.00	169.00	171.00	166.00	165.00	165.00	164.00	162.00	167.00	167.00	166.00	171.00	191.00	194.00	203.00	217.00	233.00	244.00	248.00	242.00	244.00	254.00	261.00	269.00	266.00	252.00	254.00	263.00	260.00	251.00	252.00	250.00	240.00	234.00	224.00	245.00	241.00	233.00	249.00	245.00	235.00	249.00	256.00	265.00	272.00	272.00	266.00	248.00	241.00	259.00	271.00	282.00	275.00	277.00	279.00	276.00	278.00	274.00	275.00	271.00	266.00	263.00	282.00	279.00	280.00	283.00	271.00	263.00	254.00	249.00	253.00	260.00	255.00	240.00	236.00	233.00	234.00	233.00	228.00	225.00	216.00	211.00	214.00	224.00	227.00	248.00	264.00	261.00	258.00	242.00	236.00	226.00	218.00	248.00	262.00	265.00	264.00	253.00	241.00	236.00	226.00	212.00	196.00	198.00	203.00	213.00	219.00	238.00	246.00	256.00	263.00	267.00	267.00	268.00	269.00	276.00	307.00	323.00	330.00	330.00	348.00	366.00	391.00	408.00	383.00	327.00	319.00	304.00	293.00	290.00	307.00	310.00	324.00	351.00	365.00	381.00	423.00	440.00	386.00	347.00	317.00	307.00	292.00	290.00
280.00	276.00	265.00	252.00	263.00	274.00	262.00	282.00	282.00	271.00	261.00	256.00	258.00	249.00	245.00	252.00	257.00	237.00	248.00	276.00	281.00	270.00	275.00	273.00	270.00	276.00	271.00	267.00	260.00	254.00	238.00	236.00	239.00	239.00	237.00	213.00	207.00	211.00	249.00	252.00	251.00	242.00	232.00	227.00	242.00	249.00	257.00	258.00	256.00	250.00	246.00	245.00	242.00	233.00	229.00	227.00	224.00	220.00	220.00	219.00	211.00	205.00	199.00	198.00	211.00	217.00	226.00	228.00	225.00	216.00	204.00	222.00	224.00	226.00	224.00	215.00	209.00	204.00	197.00	188.00	186.00	193.00	199.00	200.00	211.00	213.00	210.00	202.00	194.00	197.00	198.00	202.00	199.00	192.00	194.00	189.00	184.00	183.00	181.00	182.00	180.00	176.00	177.00	177.00	175.00	174.00	177.00	180.00	180.00	178.00	178.00	170.00	170.00	175.00	175.00	167.00	166.00	167.00	163.00	166.00	167.00	166.00	165.00	164.00	165.00	167.00	182.00	205.00	215.00	229.00	232.00	224.00	232.00	253.00	264.00	268.00	260.00	245.00	234.00	236.00	236.00	230.00	238.00	239.00	232.00	227.00	220.00	228.00	236.00	246.00	245.00	241.00	237.00	238.00	246.00	258.00	265.00	260.00	242.00	248.00	261.00	267.00	274.00	283.00	273.00	267.00	262.00	269.00	269.00	264.00	268.00	267.00	262.00	260.00	265.00	269.00	269.00	271.00	281.00	276.00	272.00	273.00	274.00	259.00	249.00	242.00	242.00	243.00	240.00	237.00	233.00	230.00	226.00	220.00	213.00	210.00	239.00	250.00	242.00	234.00	248.00	246.00	236.00	226.00	223.00	226.00	262.00	259.00	253.00	253.00	251.00	245.00	238.00	218.00	196.00	196.00	216.00	220.00	226.00	231.00	244.00	247.00	241.00	236.00	239.00	245.00	244.00	268.00	294.00	304.00	315.00	321.00	332.00	348.00	359.00	356.00	340.00	309.00	305.00	313.00	313.00	308.00	316.00	330.00	347.00	386.00	398.00	414.00	460.00	424.00	360.00	335.00	318.00	310.00	312.00	306.00
280.00	276.00	265.00	252.00	263.00	274.00	262.00	282.00	282.00	271.00	261.00	256.00	258.00	249.00	245.00	252.00	257.00	237.00	248.00	276.00	281.00	270.00	275.00	273.00	270.00	276.00	271.00	267.00	260.00	254.00	238.00	236.00	239.00	239.00	237.00	213.00	207.00	211.00	249.00	252.00	251.00	242.00	232.00	227.00	242.00	249.00	257.00	258.00	256.00	250.00	246.00	245.00	242.00	233.00	229.00	227.00	224.00	220.00	220.00	219.00	211.00	205.00	199.00	198.00	211.00	217.00	226.00	228.00	225.00	216.00	204.00	222.00	224.00	226.00	224.00	215.00	209.00	204.00	197.00	188.00	186.00	193.00	199.00	200.00	211.00	213.00	210.00	202.00	194.00	197.00	198.00	202.00	199.00	192.00	194.00	189.00	184.00	183.00	181.00	182.00	180.00	176.00	177.00	177.00	175.00	174.00	177.00	180.00	180.00	178.00	178.00	170.00	170.00	175.00	175.00	167.00	166.00	167.00	163.00	166.00	167.00	166.00	165.00	164.00	165.00	167.00	182.00	205.00	215.00	229.00	232.00	224.00	232.00	253.00	264.00	268.00	260.00	245.00	234.00	236.00	236.00	230.00	238.00	239.00	232.00	227.00	220.00	228.00	236.00	246.00	245.00	241.00	237.00	238.00	246.00	258.00	265.00	260.00	242.00	248.00	261.00	267.00	274.00	283.00	273.00	267.00	262.00	269.00	269.00	264.00	268.00	267.00	262.00	260.00	265.00	269.00	269.00	271.00	281.00	276.00	272.00	273.00	274.00	259.00	249.00	242.00	242.00	243.00	240.00	237.00	233.00	230.00	226.00	220.00	213.00	210.00	239.00	250.00	242.00	234.00	248.00	246.00	236.00	226.00	223.00	226.00	262.00	259.00	253.00	253.00	251.00	245.00	238.00	218.00	196.00	196.00	216.00	220.00	226.00	231.00	244.00	247.00	241.00	236.00	239.00	245.00	244.00	268.00	294.00	304.00	315.00	321.00	332.00	348.00	359.00	356.00	340.00	309.00	305.00	313.00	313.00	308.00	316.00	330.00	347.00	386.00	398.00	414.00	460.00	424.00	360.00	335.00	318.00	310.00	312.00	306.00
283.00	271.00	270.00	296.00	294.00	284.00	279.00	288.00	289.00	289.00	284.00	291.00	288.00	287.00	275.00	262.00	260.00	271.00	288.00	290.00	291.00	290.00	287.00	283.00	278.00	270.00	253.00	253.00	253.00	255.00	252.00	245.00	232.00	218.00	218.00	241.00	237.00	233.00	256.00	263.00	253.00	254.00	255.00	260.00	267.00	267.00	265.00	258.00	245.00	242.00	240.00	236.00	232.00	212.00	205.00	198.00	205.00	211.00	214.00	225.00	224.00	220.00	206.00	209.00	228.00	234.00	237.00	236.00	234.00	230.00	225.00	222.00	217.00	212.00	207.00	189.00	182.00	181.00	189.00	203.00	219.00	222.00	221.00	216.00	200.00	198.00	204.00	211.00	214.00	218.00	219.00	216.00	206.00	215.00	211.00	210.00	211.00	207.00	197.00	185.00	182.00	181.00	177.00	176.00	175.00	178.00	185.00	186.00	183.00	180.00	175.00	174.00	178.00	181.00	182.00	173.00	175.00	171.00	164.00	166.00	166.00	165.00	165.00	165.00	168.00	166.00	166.00	167.00	173.00	201.00	216.00	226.00	233.00	260.00	248.00	238.00	238.00	241.00	235.00	228.00	221.00	216.00	203.00	214.00	223.00	242.00	254.00	247.00	234.00	224.00	221.00	238.00	235.00	220.00	231.00	232.00	258.00	272.00	274.00	271.00	266.00	268.00	277.00	285.00	280.00	267.00	261.00	258.00	252.00	247.00	244.00	244.00	244.00	245.00	241.00	249.00	242.00	230.00	247.00	253.00	258.00	261.00	259.00	261.00	262.00	260.00	259.00	254.00	250.00	245.00	241.00	236.00	227.00	223.00	220.00	215.00	206.00	203.00	202.00	202.00	225.00	235.00	222.00	214.00	208.00	230.00	254.00	250.00	242.00	235.00	227.00	232.00	226.00	209.00	194.00	196.00	196.00	205.00	215.00	221.00	223.00	220.00	230.00	252.00	260.00	267.00	273.00	290.00	297.00	293.00	285.00	279.00	298.00	314.00	320.00	317.00	301.00	288.00	283.00	292.00	307.00	328.00	351.00	378.00	421.00	467.00	498.00	525.00	488.00	441.00	362.00	338.00	326.00	316.00	324.00	334.00
283.00	271.00	270.00	296.00	294.00	284.00	279.00	288.00	289.00	289.00	284.00	291.00	288.00	287.00	275.00	262.00	260.00	271.00	288.00	290.00	291.00	290.00	287.00	283.00	278.00	270.00	253.00	253.00	253.00	255.00	252.00	245.00	232.00	218.00	218.00	241.00	237.00	233.00	256.00	263.00	253.00	254.00	255.00	260.00	267.00	267.00	265.00	258.00	245.00	242.00	240.00	236.00	232.00	212.00	205.00	198.00	205.00	211.00	214.00	225.00	224.00	220.00	206.00	209.00	228.00	234.00	237.00	236.00	234.00	230.00	225.00	222.00	217.00	212.00	207.00	189.00	182.00	181.00	189.00	203.00	219.00	222.00	221.00	216.00	200.00	198.00	204.00	211.00	214.00	218.00	219.00	216.00	206.00	215.00	211.00	210.00	211.00	207.00	197.00	185.00	182.00	181.00	177.00	176.00	175.00	178.00	185.00	186.00	183.00	180.00	175.00	174.00	178.00	181.00	182.00	173.00	175.00	171.00	164.00	166.00	166.00	165.00	165.00	165.00	168.00	166.00	166.00	167.00	173.00	201.00	216.00	226.00	233.00	260.00	248.00	238.00	238.00	241.00	235.00	228.00	221.00	216.00	203.00	214.00	223.00	242.00	254.00	247.00	234.00	224.00	221.00	238.00	235.00	220.00	231.00	232.00	258.00	272.00	274.00	271.00	266.00	268.00	277.00	285.00	280.00	267.00	261.00	258.00	252.00	247.00	244.00	244.00	244.00	245.00	241.00	249.00	242.00	230.00	247.00	253.00	258.00	261.00	259.00	261.00	262.00	260.00	259.00	254.00	250.00	245.00	241.00	236.00	227.00	223.00	220.00	215.00	206.00	203.00	202.00	202.00	225.00	235.00	222.00	214.00	208.00	230.00	254.00	250.00	242.00	235.00	227.00	232.00	226.00	209.00	194.00	196.00	196.00	205.00	215.00	221.00	223.00	220.00	230.00	252.00	260.00	267.00	273.00	290.00	297.00	293.00	285.00	279.00	298.00	314.00	320.00	317.00	301.00	288.00	283.00	292.00	307.00	328.00	351.00	378.00	421.00	467.00	498.00	525.00	488.00	441.00	362.00	338.00	326.00	316.00	324.00	334.00
283.00	271.00	270.00	296.00	294.00	284.00	279.00	288.00	289.00	289.00	284.00	291.00	288.00	287.00	275.00	262.00	260.00	271.00	288.00	290.00	291.00	290.00	287.00	283.00	278.00	270.00	253.00	253.00	253.00	255.00	252.00	245.00	232.00	218.00	218.00	241.00	237.00	233.00	256.00	263.00	253.00	254.00	255.00	260.00	267.00	267.00	265.00	258.00	245.00	242.00	240.00	236.00	232.00	212.00	205.00	198.00	205.00	211.00	214.00	225.00	224.00	220.00	206.00	209.00	228.00	234.00	237.00	236.00	234.00	230.00	225.00	222.00	217.00	212.00	207.00	189.00	182.00	181.00	189.00	203.00	219.00	222.00	221.00	216.00	200.00	198.00	204.00	211.00	214.00	218.00	219.00	216.00	206.00	215.00	211.00	210.00	211.00	207.00	197.00	185.00	182.00	181.00	177.00	176.00	175.00	178.00	185.00	186.00	183.00	180.00	175.00	174.00	178.00	181.00	182.00	173.00	175.00	171.00	164.00	166.00	166.00	165.00	165.00	165.00	168.00	166.00	166.00	167.00	173.00	201.00	216.00	226.00	233.00	260.00	248.00	238.00	238.00	241.00	235.00	228.00	221.00	216.00	203.00	214.00	223.00	242.00	254.00	247.00	234.00	224.00	221.00	238.00	235.00	220.00	231.00	232.00	258.00	272.00	274.00	271.00	266.00	268.00	277.00	285.00	280.00	267.00	261.00	258.00	252.00	247.00	244.00	244.00	244.00	245.00	241.00	249.00	242.00	230.00	247.00	253.00	258.00	261.00	259.00	261.00	262.00	260.00	259.00	254.00	250.00	245.00	241.00	236.00	227.00	223.00	220.00	215.00	206.00	203.00	202.00	202.00	225.00	235.00	222.00	214.00	208.00	230.00	254.00	250.00	242.00	235.00	227.00	232.00	226.00	209.00	194.00	196.00	196.00	205.00	215.00	221.00	223.00	220.00	230.00	252.00	260.00	267.00	273.00	290.00	297.00	293.00	285.00	279.00	298.00	314.00	320.00	317.00	301.00	288.00	283.00	292.00	307.00	328.00	351.00	378.00	421.00	467.00	498.00	525.00	488.00	441.00	362.00	338.00	326.00	316.00	324.00	334.00
283.00	282.00	292.00	303.00	301.00	297.00	294.00	292.00	278.00	279.00	287.00	290.00	295.00	288.00	285.00	281.00	284.00	294.00	293.00	292.00	290.00	290.00	284.00	271.00	262.00	267.00	266.00	264.00	257.00	253.00	235.00	219.00	219.00	231.00	247.00	255.00	253.00	248.00	267.00	273.00	269.00	269.00	270.00	274.00	269.00	265.00	260.00	257.00	254.00	250.00	244.00	234.00	222.00	201.00	207.00	216.00	227.00	226.00	229.00	237.00	230.00	221.00	218.00	235.00	241.00	242.00	234.00	225.00	218.00	216.00	215.00	210.00	206.00	201.00	192.00	180.00	185.00	190.00	194.00	200.00	220.00	218.00	215.00	211.00	210.00	210.00	214.00	219.00	222.00	226.00	228.00	227.00	227.00	219.00	213.00	206.00	198.00	192.00	187.00	189.00	192.00	190.00	183.00	183.00	185.00	188.00	187.00	185.00	182.00	179.00	174.00	181.00	184.00	187.00	191.00	183.00	178.00	168.00	164.00	163.00	165.00	164.00	165.00	166.00	166.00	168.00	167.00	168.00	172.00	211.00	225.00	237.00	247.00	232.00	226.00	220.00	217.00	221.00	221.00	216.00	209.00	202.00	212.00	240.00	248.00	247.00	240.00	236.00	236.00	236.00	222.00	224.00	224.00	216.00	231.00	249.00	254.00	248.00	249.00	258.00	277.00	280.00	285.00	286.00	278.00	267.00	265.00	264.00	263.00	254.00	250.00	255.00	257.00	259.00	251.00	247.00	240.00	231.00	237.00	241.00	240.00	235.00	236.00	237.00	232.00	237.00	239.00	243.00	241.00	238.00	237.00	234.00	228.00	225.00	220.00	217.00	213.00	210.00	208.00	203.00	202.00	226.00	214.00	207.00	208.00	247.00	240.00	233.00	230.00	224.00	213.00	221.00	219.00	210.00	195.00	196.00	197.00	206.00	218.00	234.00	239.00	240.00	237.00	253.00	268.00	283.00	284.00	277.00	261.00	269.00	267.00	267.00	284.00	288.00	288.00	285.00	282.00	263.00	277.00	289.00	304.00	337.00	357.00	382.00	437.00	511.00	501.00	494.00	440.00	407.00	354.00	337.00	333.00	327.00	321.00	333.00
293.00	294.00	295.00	296.00	297.00	289.00	282.00	283.00	262.00	272.00	286.00	287.00	283.00	282.00	281.00	281.00	281.00	288.00	291.00	294.00	291.00	280.00	276.00	275.00	273.00	270.00	268.00	264.00	251.00	242.00	223.00	223.00	225.00	248.00	254.00	259.00	254.00	260.00	274.00	265.00	259.00	261.00	264.00	264.00	259.00	255.00	250.00	248.00	244.00	240.00	232.00	216.00	205.00	218.00	231.00	233.00	235.00	240.00	247.00	244.00	233.00	233.00	246.00	246.00	243.00	237.00	221.00	214.00	205.00	203.00	198.00	196.00	193.00	186.00	184.00	196.00	201.00	199.00	198.00	204.00	221.00	223.00	223.00	220.00	212.00	214.00	223.00	227.00	230.00	234.00	234.00	226.00	213.00	201.00	195.00	193.00	197.00	207.00	197.00	200.00	201.00	194.00	189.00	190.00	190.00	190.00	187.00	186.00	185.00	182.00	178.00	192.00	190.00	191.00	196.00	180.00	171.00	174.00	179.00	169.00	164.00	166.00	164.00	163.00	166.00	171.00	171.00	182.00	191.00	221.00	230.00	236.00	241.00	231.00	222.00	207.00	202.00	201.00	206.00	202.00	203.00	215.00	233.00	210.00	208.00	205.00	201.00	225.00	224.00	225.00	220.00	201.00	211.00	240.00	242.00	234.00	242.00	256.00	266.00	266.00	260.00	261.00	261.00	264.00	279.00	279.00	273.00	269.00	260.00	263.00	265.00	267.00	268.00	265.00	247.00	239.00	233.00	229.00	224.00	224.00	221.00	221.00	223.00	222.00	216.00	214.00	214.00	215.00	222.00	235.00	237.00	234.00	231.00	228.00	223.00	221.00	214.00	211.00	209.00	204.00	201.00	212.00	208.00	218.00	235.00	262.00	244.00	238.00	227.00	219.00	204.00	205.00	201.00	195.00	194.00	195.00	216.00	229.00	236.00	250.00	261.00	261.00	252.00	269.00	273.00	269.00	259.00	248.00	244.00	245.00	249.00	250.00	258.00	264.00	265.00	260.00	252.00	276.00	289.00	295.00	310.00	343.00	355.00	382.00	432.00	443.00	432.00	432.00	443.00	405.00	344.00	334.00	323.00	316.00	311.00	308.00
278.00	281.00	286.00	288.00	288.00	287.00	284.00	263.00	265.00	278.00	280.00	280.00	276.00	275.00	271.00	274.00	277.00	289.00	291.00	293.00	291.00	284.00	288.00	289.00	278.00	262.00	257.00	249.00	237.00	247.00	243.00	225.00	243.00	249.00	262.00	266.00	266.00	273.00	270.00	258.00	249.00	238.00	245.00	251.00	250.00	247.00	243.00	238.00	233.00	227.00	213.00	204.00	205.00	228.00	234.00	240.00	240.00	248.00	252.00	252.00	251.00	252.00	246.00	240.00	230.00	222.00	214.00	215.00	213.00	208.00	194.00	186.00	185.00	202.00	212.00	210.00	206.00	209.00	218.00	220.00	226.00	227.00	227.00	229.00	224.00	217.00	225.00	231.00	234.00	230.00	225.00	203.00	199.00	202.00	209.00	213.00	218.00	214.00	210.00	211.00	211.00	199.00	200.00	196.00	193.00	190.00	189.00	188.00	186.00	181.00	173.00	192.00	195.00	195.00	190.00	177.00	170.00	179.00	185.00	173.00	165.00	163.00	163.00	167.00	166.00	163.00	171.00	183.00	199.00	208.00	192.00	191.00	206.00	212.00	204.00	198.00	188.00	187.00	210.00	223.00	235.00	237.00	183.00	172.00	172.00	173.00	174.00	190.00	201.00	209.00	211.00	204.00	214.00	220.00	214.00	225.00	250.00	246.00	248.00	251.00	260.00	271.00	281.00	285.00	290.00	277.00	271.00	267.00	267.00	272.00	263.00	257.00	256.00	251.00	233.00	239.00	241.00	236.00	233.00	235.00	237.00	240.00	239.00	233.00	233.00	226.00	221.00	209.00	218.00	234.00	235.00	234.00	229.00	228.00	225.00	222.00	217.00	216.00	215.00	212.00	202.00	223.00	240.00	248.00	253.00	261.00	256.00	237.00	224.00	219.00	195.00	195.00	194.00	192.00	201.00	215.00	239.00	251.00	262.00	265.00	256.00	251.00	246.00	251.00	243.00	242.00	236.00	230.00	232.00	233.00	234.00	241.00	240.00	244.00	245.00	248.00	254.00	301.00	314.00	328.00	335.00	343.00	357.00	375.00	399.00	389.00	392.00	398.00	431.00	392.00	341.00	325.00	314.00	311.00	315.00	308.00
278.00	281.00	286.00	288.00	288.00	287.00	284.00	263.00	265.00	278.00	280.00	280.00	276.00	275.00	271.00	274.00	277.00	289.00	291.00	293.00	291.00	284.00	288.00	289.00	278.00	262.00	257.00	249.00	237.00	247.00	243.00	225.00	243.00	249.00	262.00	266.00	266.00	273.00	270.00	258.00	249.00	238.00	245.00	251.00	250.00	247.00	243.00	238.00	233.00	227.00	213.00	204.00	205.00	228.00	234.00	240.00	240.00	248.00	252.00	252.00	251.00	252.00	246.00	240.00	230.00	222.00	214.00	215.00	213.00	208.00	194.00	186.00	185.00	202.00	212.00	210.00	206.00	209.00	218.00	220.00	226.00	227.00	227.00	229.00	224.00	217.00	225.00	231.00	234.00	230.00	225.00	203.00	199.00	202.00	209.00	213.00	218.00	214.00	210.00	211.00	211.00	199.00	200.00	196.00	193.00	190.00	189.00	188.00	186.00	181.00	173.00	192.00	195.00	195.00	190.00	177.00	170.00	179.00	185.00	173.00	165.00	163.00	163.00	167.00	166.00	163.00	171.00	183.00	199.00	208.00	192.00	191.00	206.00	212.00	204.00	198.00	188.00	187.00	210.00	223.00	235.00	237.00	183.00	172.00	172.00	173.00	174.00	190.00	201.00	209.00	211.00	204.00	214.00	220.00	214.00	225.00	250.00	246.00	248.00	251.00	260.00	271.00	281.00	285.00	290.00	277.00	271.00	267.00	267.00	272.00	263.00	257.00	256.00	251.00	233.00	239.00	241.00	236.00	233.00	235.00	237.00	240.00	239.00	233.00	233.00	226.00	221.00	209.00	218.00	234.00	235.00	234.00	229.00	228.00	225.00	222.00	217.00	216.00	215.00	212.00	202.00	223.00	240.00	248.00	253.00	261.00	256.00	237.00	224.00	219.00	195.00	195.00	194.00	192.00	201.00	215.00	239.00	251.00	262.00	265.00	256.00	251.00	246.00	251.00	243.00	242.00	236.00	230.00	232.00	233.00	234.00	241.00	240.00	244.00	245.00	248.00	254.00	301.00	314.00	328.00	335.00	343.00	357.00	375.00	399.00	389.00	392.00	398.00	431.00	392.00	341.00	325.00	314.00	311.00	315.00	308.00
257.00	265.00	277.00	280.00	279.00	279.00	278.00	267.00	258.00	274.00	272.00	268.00	264.00	270.00	277.00	285.00	290.00	290.00	292.00	291.00	291.00	291.00	289.00	283.00	269.00	261.00	249.00	237.00	270.00	264.00	241.00	228.00	250.00	270.00	278.00	286.00	286.00	282.00	261.00	252.00	247.00	242.00	233.00	229.00	242.00	241.00	239.00	234.00	217.00	209.00	207.00	208.00	211.00	236.00	242.00	249.00	247.00	255.00	259.00	249.00	245.00	241.00	229.00	227.00	226.00	230.00	226.00	222.00	215.00	206.00	187.00	190.00	191.00	194.00	204.00	215.00	216.00	219.00	227.00	227.00	231.00	234.00	236.00	239.00	240.00	231.00	231.00	233.00	227.00	207.00	206.00	216.00	215.00	218.00	224.00	227.00	226.00	223.00	221.00	220.00	217.00	213.00	207.00	202.00	197.00	194.00	189.00	184.00	177.00	176.00	187.00	198.00	199.00	193.00	187.00	172.00	173.00	182.00	183.00	172.00	167.00	166.00	165.00	165.00	166.00	160.00	167.00	176.00	183.00	170.00	170.00	170.00	175.00	196.00	187.00	186.00	199.00	220.00	234.00	243.00	226.00	199.00	171.00	179.00	181.00	181.00	180.00	171.00	175.00	187.00	194.00	202.00	202.00	213.00	231.00	239.00	231.00	243.00	257.00	264.00	270.00	273.00	280.00	285.00	283.00	283.00	283.00	282.00	278.00	263.00	255.00	246.00	238.00	237.00	250.00	251.00	250.00	241.00	246.00	247.00	248.00	249.00	249.00	247.00	243.00	227.00	219.00	210.00	210.00	211.00	213.00	222.00	227.00	226.00	226.00	224.00	222.00	219.00	216.00	216.00	205.00	248.00	238.00	241.00	249.00	266.00	254.00	232.00	212.00	197.00	196.00	194.00	194.00	204.00	227.00	242.00	262.00	267.00	257.00	255.00	255.00	250.00	241.00	225.00	221.00	223.00	226.00	236.00	254.00	249.00	248.00	253.00	255.00	256.00	253.00	270.00	283.00	320.00	324.00	313.00	314.00	328.00	329.00	343.00	361.00	375.00	390.00	390.00	409.00	365.00	326.00	319.00	304.00	298.00	303.00	311.00
251.00	243.00	260.00	269.00	272.00	270.00	268.00	257.00	262.00	260.00	258.00	264.00	274.00	277.00	284.00	287.00	288.00	292.00	292.00	293.00	292.00	287.00	283.00	279.00	266.00	256.00	248.00	263.00	270.00	261.00	243.00	234.00	243.00	263.00	275.00	286.00	283.00	279.00	272.00	259.00	253.00	246.00	238.00	232.00	224.00	223.00	220.00	216.00	220.00	219.00	213.00	210.00	231.00	249.00	255.00	255.00	255.00	259.00	256.00	232.00	233.00	233.00	240.00	237.00	233.00	228.00	217.00	206.00	196.00	190.00	203.00	202.00	201.00	198.00	196.00	225.00	225.00	222.00	226.00	232.00	241.00	244.00	247.00	249.00	241.00	228.00	226.00	217.00	212.00	224.00	230.00	235.00	234.00	231.00	227.00	224.00	221.00	221.00	218.00	217.00	217.00	216.00	207.00	201.00	196.00	189.00	179.00	178.00	183.00	193.00	196.00	196.00	194.00	190.00	185.00	174.00	181.00	188.00	189.00	179.00	167.00	167.00	165.00	164.00	163.00	164.00	167.00	167.00	167.00	171.00	172.00	172.00	173.00	185.00	189.00	215.00	236.00	243.00	248.00	245.00	233.00	199.00	171.00	172.00	174.00	174.00	171.00	172.00	173.00	175.00	179.00	195.00	207.00	224.00	222.00	218.00	233.00	240.00	240.00	236.00	258.00	264.00	267.00	270.00	279.00	284.00	277.00	269.00	259.00	245.00	244.00	249.00	251.00	244.00	259.00	257.00	251.00	246.00	253.00	254.00	255.00	254.00	252.00	244.00	237.00	223.00	221.00	215.00	212.00	209.00	206.00	206.00	227.00	227.00	227.00	226.00	220.00	217.00	214.00	208.00	197.00	229.00	238.00	248.00	257.00	262.00	221.00	202.00	195.00	194.00	197.00	204.00	217.00	229.00	253.00	262.00	267.00	257.00	247.00	237.00	234.00	230.00	228.00	231.00	241.00	250.00	251.00	260.00	269.00	257.00	265.00	258.00	281.00	281.00	266.00	279.00	292.00	303.00	300.00	295.00	298.00	306.00	324.00	347.00	364.00	377.00	377.00	370.00	345.00	332.00	304.00	300.00	301.00	286.00	286.00	289.00
266.00	252.00	245.00	259.00	263.00	264.00	265.00	258.00	244.00	240.00	271.00	281.00	283.00	283.00	287.00	292.00	295.00	287.00	286.00	285.00	284.00	277.00	278.00	279.00	278.00	280.00	254.00	274.00	270.00	259.00	238.00	249.00	263.00	258.00	269.00	274.00	269.00	267.00	265.00	257.00	255.00	253.00	246.00	237.00	225.00	219.00	215.00	225.00	232.00	224.00	213.00	212.00	240.00	255.00	258.00	259.00	260.00	253.00	245.00	245.00	241.00	233.00	223.00	219.00	216.00	212.00	190.00	187.00	199.00	212.00	216.00	206.00	202.00	198.00	204.00	234.00	235.00	230.00	227.00	229.00	249.00	252.00	252.00	248.00	220.00	218.00	222.00	227.00	224.00	236.00	236.00	232.00	229.00	224.00	219.00	216.00	213.00	211.00	211.00	211.00	212.00	208.00	196.00	189.00	181.00	176.00	187.00	196.00	200.00	200.00	198.00	192.00	192.00	189.00	183.00	177.00	183.00	190.00	190.00	182.00	172.00	170.00	166.00	166.00	164.00	166.00	166.00	166.00	167.00	168.00	170.00	173.00	174.00	214.00	229.00	236.00	239.00	239.00	228.00	212.00	202.00	180.00	169.00	169.00	169.00	168.00	169.00	171.00	171.00	172.00	173.00	193.00	201.00	203.00	203.00	200.00	214.00	216.00	220.00	227.00	253.00	262.00	268.00	274.00	285.00	278.00	265.00	258.00	261.00	250.00	254.00	258.00	256.00	254.00	266.00	263.00	256.00	259.00	259.00	255.00	251.00	246.00	242.00	236.00	234.00	224.00	221.00	213.00	214.00	212.00	206.00	207.00	231.00	228.00	225.00	224.00	212.00	214.00	210.00	203.00	194.00	224.00	234.00	241.00	251.00	245.00	199.00	193.00	193.00	195.00	201.00	216.00	230.00	238.00	251.00	254.00	257.00	258.00	254.00	240.00	235.00	222.00	222.00	242.00	252.00	260.00	268.00	288.00	270.00	276.00	281.00	291.00	306.00	299.00	286.00	300.00	309.00	286.00	279.00	278.00	284.00	314.00	328.00	346.00	360.00	367.00	375.00	376.00	342.00	336.00	313.00	306.00	301.00	294.00	291.00	287.00
254.00	241.00	239.00	258.00	259.00	260.00	262.00	255.00	244.00	243.00	276.00	282.00	283.00	286.00	287.00	287.00	286.00	274.00	277.00	277.00	274.00	278.00	284.00	284.00	285.00	284.00	270.00	279.00	264.00	261.00	248.00	272.00	281.00	275.00	278.00	264.00	260.00	258.00	248.00	249.00	247.00	237.00	227.00	222.00	231.00	238.00	234.00	245.00	229.00	222.00	214.00	212.00	237.00	257.00	260.00	262.00	263.00	255.00	252.00	240.00	233.00	226.00	212.00	205.00	200.00	197.00	186.00	193.00	211.00	218.00	220.00	210.00	206.00	211.00	216.00	232.00	241.00	243.00	245.00	240.00	256.00	251.00	238.00	226.00	224.00	233.00	240.00	241.00	229.00	219.00	221.00	223.00	222.00	216.00	212.00	208.00	205.00	200.00	201.00	203.00	201.00	188.00	180.00	182.00	189.00	192.00	202.00	204.00	204.00	202.00	200.00	192.00	188.00	182.00	177.00	184.00	192.00	192.00	186.00	179.00	174.00	171.00	168.00	167.00	164.00	167.00	165.00	165.00	166.00	169.00	172.00	171.00	175.00	216.00	221.00	219.00	215.00	213.00	188.00	178.00	172.00	167.00	168.00	168.00	168.00	169.00	168.00	169.00	169.00	170.00	171.00	179.00	178.00	191.00	192.00	197.00	219.00	228.00	240.00	249.00	261.00	269.00	280.00	285.00	293.00	282.00	272.00	272.00	266.00	266.00	271.00	275.00	276.00	274.00	280.00	275.00	274.00	268.00	257.00	253.00	252.00	250.00	246.00	240.00	236.00	229.00	224.00	210.00	208.00	204.00	204.00	219.00	215.00	209.00	205.00	203.00	201.00	206.00	203.00	193.00	192.00	219.00	235.00	252.00	257.00	231.00	194.00	193.00	194.00	195.00	217.00	219.00	224.00	235.00	235.00	231.00	251.00	238.00	229.00	214.00	212.00	217.00	225.00	236.00	246.00	253.00	264.00	288.00	297.00	293.00	287.00	288.00	291.00	294.00	304.00	307.00	301.00	294.00	275.00	272.00	285.00	299.00	313.00	336.00	350.00	361.00	380.00	405.00	362.00	344.00	320.00	320.00	312.00	303.00	296.00	288.00
254.00	241.00	239.00	258.00	259.00	260.00	262.00	255.00	244.00	243.00	276.00	282.00	283.00	286.00	287.00	287.00	286.00	274.00	277.00	277.00	274.00	278.00	284.00	284.00	285.00	284.00	270.00	279.00	264.00	261.00	248.00	272.00	281.00	275.00	278.00	264.00	260.00	258.00	248.00	249.00	247.00	237.00	227.00	222.00	231.00	238.00	234.00	245.00	229.00	222.00	214.00	212.00	237.00	257.00	260.00	262.00	263.00	255.00	252.00	240.00	233.00	226.00	212.00	205.00	200.00	197.00	186.00	193.00	211.00	218.00	220.00	210.00	206.00	211.00	216.00	232.00	241.00	243.00	245.00	240.00	256.00	251.00	238.00	226.00	224.00	233.00	240.00	241.00	229.00	219.00	221.00	223.00	222.00	216.00	212.00	208.00	205.00	200.00	201.00	203.00	201.00	188.00	180.00	182.00	189.00	192.00	202.00	204.00	204.00	202.00	200.00	192.00	188.00	182.00	177.00	184.00	192.00	192.00	186.00	179.00	174.00	171.00	168.00	167.00	164.00	167.00	165.00	165.00	166.00	169.00	172.00	171.00	175.00	216.00	221.00	219.00	215.00	213.00	188.00	178.00	172.00	167.00	168.00	168.00	168.00	169.00	168.00	169.00	169.00	170.00	171.00	179.00	178.00	191.00	192.00	197.00	219.00	228.00	240.00	249.00	261.00	269.00	280.00	285.00	293.00	282.00	272.00	272.00	266.00	266.00	271.00	275.00	276.00	274.00	280.00	275.00	274.00	268.00	257.00	253.00	252.00	250.00	246.00	240.00	236.00	229.00	224.00	210.00	208.00	204.00	204.00	219.00	215.00	209.00	205.00	203.00	201.00	206.00	203.00	193.00	192.00	219.00	235.00	252.00	257.00	231.00	194.00	193.00	194.00	195.00	217.00	219.00	224.00	235.00	235.00	231.00	251.00	238.00	229.00	214.00	212.00	217.00	225.00	236.00	246.00	253.00	264.00	288.00	297.00	293.00	287.00	288.00	291.00	294.00	304.00	307.00	301.00	294.00	275.00	272.00	285.00	299.00	313.00	336.00	350.00	361.00	380.00	405.00	362.00	344.00	320.00	320.00	312.00	303.00	296.00	288.00
232.00	245.00	257.00	256.00	255.00	252.00	250.00	252.00	243.00	229.00	232.00	240.00	259.00	271.00	268.00	269.00	263.00	265.00	257.00	258.00	262.00	272.00	281.00	285.00	289.00	292.00	294.00	279.00	279.00	282.00	279.00	286.00	282.00	278.00	271.00	262.00	259.00	255.00	239.00	231.00	224.00	223.00	229.00	241.00	254.00	254.00	252.00	253.00	226.00	219.00	225.00	244.00	251.00	258.00	261.00	259.00	252.00	238.00	238.00	235.00	230.00	223.00	206.00	198.00	192.00	189.00	194.00	202.00	219.00	226.00	226.00	214.00	213.00	230.00	235.00	240.00	251.00	258.00	262.00	262.00	242.00	233.00	233.00	238.00	246.00	245.00	241.00	234.00	224.00	205.00	213.00	214.00	212.00	210.00	208.00	205.00	202.00	197.00	188.00	184.00	180.00	186.00	200.00	205.00	206.00	207.00	205.00	202.00	201.00	199.00	197.00	185.00	179.00	184.00	185.00	195.00	196.00	194.00	188.00	183.00	178.00	175.00	175.00	171.00	165.00	164.00	167.00	164.00	165.00	166.00	167.00	168.00	173.00	178.00	175.00	179.00	184.00	190.00	166.00	164.00	167.00	168.00	168.00	168.00	168.00	169.00	168.00	169.00	169.00	169.00	170.00	172.00	174.00	182.00	191.00	200.00	224.00	235.00	246.00	257.00	276.00	282.00	292.00	295.00	285.00	279.00	280.00	282.00	287.00	288.00	285.00	283.00	281.00	280.00	283.00	278.00	272.00	267.00	258.00	249.00	242.00	237.00	232.00	226.00	224.00	217.00	213.00	208.00	205.00	203.00	201.00	200.00	201.00	202.00	203.00	202.00	199.00	196.00	193.00	191.00	205.00	252.00	257.00	260.00	252.00	237.00	195.00	194.00	193.00	195.00	203.00	215.00	219.00	219.00	233.00	245.00	240.00	224.00	213.00	219.00	232.00	238.00	248.00	243.00	254.00	262.00	272.00	289.00	273.00	267.00	263.00	262.00	275.00	294.00	305.00	298.00	288.00	280.00	274.00	262.00	274.00	303.00	313.00	314.00	326.00	357.00	369.00	381.00	334.00	323.00	307.00	309.00	312.00	305.00	293.00	293.00
229.00	226.00	232.00	230.00	230.00	225.00	224.00	230.00	229.00	230.00	231.00	241.00	243.00	248.00	245.00	244.00	245.00	256.00	268.00	275.00	282.00	270.00	282.00	289.00	297.00	303.00	299.00	291.00	284.00	279.00	286.00	282.00	269.00	259.00	254.00	247.00	246.00	241.00	230.00	225.00	241.00	242.00	242.00	256.00	259.00	255.00	250.00	239.00	233.00	232.00	244.00	251.00	258.00	261.00	250.00	238.00	235.00	224.00	224.00	220.00	213.00	206.00	195.00	198.00	204.00	198.00	194.00	208.00	230.00	236.00	224.00	227.00	228.00	224.00	233.00	258.00	262.00	258.00	254.00	250.00	242.00	246.00	249.00	248.00	242.00	238.00	231.00	224.00	218.00	204.00	206.00	208.00	205.00	201.00	197.00	192.00	187.00	183.00	182.00	187.00	195.00	208.00	213.00	213.00	210.00	207.00	203.00	200.00	198.00	197.00	194.00	184.00	195.00	203.00	199.00	198.00	199.00	197.00	192.00	187.00	180.00	179.00	178.00	173.00	173.00	169.00	165.00	165.00	165.00	163.00	163.00	167.00	169.00	168.00	167.00	167.00	169.00	173.00	165.00	167.00	165.00	167.00	169.00	169.00	168.00	169.00	168.00	169.00	169.00	171.00	171.00	171.00	171.00	188.00	201.00	214.00	234.00	242.00	251.00	265.00	279.00	267.00	270.00	272.00	268.00	269.00	278.00	285.00	277.00	277.00	269.00	260.00	261.00	265.00	274.00	272.00	268.00	263.00	249.00	243.00	238.00	236.00	236.00	232.00	230.00	220.00	214.00	210.00	211.00	212.00	212.00	211.00	213.00	211.00	209.00	207.00	200.00	197.00	195.00	192.00	223.00	247.00	240.00	233.00	234.00	238.00	216.00	201.00	189.00	190.00	197.00	205.00	214.00	227.00	227.00	234.00	224.00	215.00	221.00	241.00	246.00	252.00	257.00	248.00	258.00	272.00	282.00	262.00	257.00	247.00	251.00	265.00	295.00	301.00	295.00	285.00	279.00	268.00	263.00	258.00	278.00	301.00	297.00	311.00	359.00	375.00	376.00	372.00	317.00	307.00	301.00	298.00	305.00	311.00	304.00	299.00
231.00	228.00	222.00	221.00	230.00	237.00	247.00	255.00	237.00	235.00	248.00	269.00	274.00	272.00	266.00	262.00	257.00	280.00	284.00	287.00	290.00	281.00	292.00	300.00	306.00	308.00	299.00	290.00	277.00	277.00	282.00	283.00	279.00	277.00	267.00	254.00	244.00	235.00	226.00	254.00	264.00	268.00	264.00	259.00	246.00	238.00	231.00	225.00	251.00	248.00	257.00	261.00	261.00	243.00	238.00	233.00	222.00	216.00	213.00	205.00	200.00	198.00	212.00	216.00	210.00	203.00	218.00	232.00	239.00	238.00	227.00	238.00	243.00	237.00	255.00	256.00	245.00	230.00	235.00	234.00	246.00	245.00	241.00	238.00	234.00	232.00	229.00	227.00	222.00	211.00	203.00	196.00	194.00	188.00	184.00	183.00	189.00	193.00	204.00	207.00	209.00	217.00	216.00	212.00	208.00	203.00	195.00	192.00	189.00	185.00	182.00	209.00	209.00	210.00	205.00	202.00	200.00	198.00	195.00	191.00	185.00	182.00	183.00	182.00	181.00	180.00	173.00	168.00	165.00	167.00	165.00	162.00	164.00	167.00	165.00	166.00	165.00	164.00	166.00	167.00	165.00	167.00	167.00	169.00	169.00	169.00	168.00	169.00	168.00	170.00	170.00	170.00	170.00	196.00	206.00	220.00	240.00	252.00	260.00	262.00	256.00	248.00	246.00	252.00	255.00	274.00	279.00	279.00	265.00	262.00	258.00	251.00	246.00	251.00	262.00	260.00	259.00	258.00	257.00	254.00	249.00	242.00	233.00	224.00	219.00	216.00	217.00	224.00	224.00	224.00	224.00	222.00	217.00	215.00	213.00	210.00	205.00	204.00	199.00	195.00	200.00	213.00	220.00	232.00	238.00	225.00	209.00	199.00	190.00	188.00	201.00	215.00	224.00	227.00	220.00	213.00	209.00	209.00	218.00	237.00	247.00	256.00	264.00	265.00	275.00	268.00	262.00	254.00	243.00	255.00	266.00	278.00	292.00	282.00	273.00	270.00	276.00	274.00	268.00	257.00	262.00	276.00	288.00	312.00	368.00	376.00	380.00	364.00	306.00	292.00	299.00	295.00	297.00	302.00	289.00	285.00
231.00	228.00	222.00	221.00	230.00	237.00	247.00	255.00	237.00	235.00	248.00	269.00	274.00	272.00	266.00	262.00	257.00	280.00	284.00	287.00	290.00	281.00	292.00	300.00	306.00	308.00	299.00	290.00	277.00	277.00	282.00	283.00	279.00	277.00	267.00	254.00	244.00	235.00	226.00	254.00	264.00	268.00	264.00	259.00	246.00	238.00	231.00	225.00	251.00	248.00	257.00	261.00	261.00	243.00	238.00	233.00	222.00	216.00	213.00	205.00	200.00	198.00	212.00	216.00	210.00	203.00	218.00	232.00	239.00	238.00	227.00	238.00	243.00	237.00	255.00	256.00	245.00	230.00	235.00	234.00	246.00	245.00	241.00	238.00	234.00	232.00	229.00	227.00	222.00	211.00	203.00	196.00	194.00	188.00	184.00	183.00	189.00	193.00	204.00	207.00	209.00	217.00	216.00	212.00	208.00	203.00	195.00	192.00	189.00	185.00	182.00	209.00	209.00	210.00	205.00	202.00	200.00	198.00	195.00	191.00	185.00	182.00	183.00	182.00	181.00	180.00	173.00	168.00	165.00	167.00	165.00	162.00	164.00	167.00	165.00	166.00	165.00	164.00	166.00	167.00	165.00	167.00	167.00	169.00	169.00	169.00	168.00	169.00	168.00	170.00	170.00	170.00	170.00	196.00	206.00	220.00	240.00	252.00	260.00	262.00	256.00	248.00	246.00	252.00	255.00	274.00	279.00	279.00	265.00	262.00	258.00	251.00	246.00	251.00	262.00	260.00	259.00	258.00	257.00	254.00	249.00	242.00	233.00	224.00	219.00	216.00	217.00	224.00	224.00	224.00	224.00	222.00	217.00	215.00	213.00	210.00	205.00	204.00	199.00	195.00	200.00	213.00	220.00	232.00	238.00	225.00	209.00	199.00	190.00	188.00	201.00	215.00	224.00	227.00	220.00	213.00	209.00	209.00	218.00	237.00	247.00	256.00	264.00	265.00	275.00	268.00	262.00	254.00	243.00	255.00	266.00	278.00	292.00	282.00	273.00	270.00	276.00	274.00	268.00	257.00	262.00	276.00	288.00	312.00	368.00	376.00	380.00	364.00	306.00	292.00	299.00	295.00	297.00	302.00	289.00	285.00
248.00	252.00	257.00	262.00	266.00	267.00	265.00	261.00	248.00	252.00	269.00	270.00	278.00	285.00	284.00	273.00	275.00	296.00	299.00	300.00	301.00	300.00	296.00	294.00	290.00	283.00	280.00	280.00	273.00	274.00	275.00	275.00	278.00	279.00	277.00	256.00	244.00	235.00	265.00	268.00	262.00	255.00	248.00	240.00	249.00	247.00	245.00	242.00	261.00	265.00	264.00	257.00	247.00	232.00	228.00	224.00	215.00	206.00	205.00	228.00	236.00	238.00	220.00	211.00	205.00	206.00	213.00	219.00	237.00	241.00	250.00	255.00	252.00	239.00	231.00	222.00	213.00	210.00	233.00	240.00	234.00	225.00	221.00	215.00	213.00	210.00	206.00	203.00	196.00	189.00	186.00	185.00	187.00	197.00	196.00	201.00	207.00	211.00	220.00	223.00	224.00	215.00	203.00	200.00	195.00	187.00	184.00	183.00	202.00	213.00	219.00	219.00	216.00	215.00	215.00	211.00	210.00	207.00	203.00	197.00	191.00	188.00	186.00	185.00	181.00	180.00	176.00	173.00	171.00	168.00	168.00	166.00	167.00	167.00	167.00	167.00	166.00	170.00	168.00	168.00	165.00	165.00	166.00	167.00	167.00	166.00	165.00	168.00	168.00	168.00	169.00	169.00	169.00	193.00	210.00	210.00	214.00	215.00	208.00	218.00	207.00	210.00	221.00	234.00	262.00	275.00	272.00	266.00	259.00	253.00	249.00	243.00	238.00	229.00	247.00	256.00	264.00	269.00	259.00	250.00	240.00	239.00	241.00	233.00	233.00	240.00	240.00	237.00	235.00	231.00	228.00	225.00	216.00	214.00	211.00	207.00	198.00	192.00	189.00	188.00	198.00	240.00	242.00	247.00	243.00	246.00	208.00	193.00	192.00	187.00	194.00	193.00	193.00	193.00	201.00	203.00	210.00	216.00	227.00	249.00	260.00	269.00	277.00	273.00	264.00	249.00	240.00	233.00	270.00	277.00	288.00	290.00	279.00	271.00	277.00	278.00	273.00	257.00	245.00	245.00	256.00	279.00	295.00	315.00	341.00	331.00	313.00	301.00	283.00	266.00	277.00	280.00	279.00	289.00	275.00	276.00
248.00	252.00	257.00	262.00	266.00	267.00	265.00	261.00	248.00	252.00	269.00	270.00	278.00	285.00	284.00	273.00	275.00	296.00	299.00	300.00	301.00	300.00	296.00	294.00	290.00	283.00	280.00	280.00	273.00	274.00	275.00	275.00	278.00	279.00	277.00	256.00	244.00	235.00	265.00	268.00	262.00	255.00	248.00	240.00	249.00	247.00	245.00	242.00	261.00	265.00	264.00	257.00	247.00	232.00	228.00	224.00	215.00	206.00	205.00	228.00	236.00	238.00	220.00	211.00	205.00	206.00	213.00	219.00	237.00	241.00	250.00	255.00	252.00	239.00	231.00	222.00	213.00	210.00	233.00	240.00	234.00	225.00	221.00	215.00	213.00	210.00	206.00	203.00	196.00	189.00	186.00	185.00	187.00	197.00	196.00	201.00	207.00	211.00	220.00	223.00	224.00	215.00	203.00	200.00	195.00	187.00	184.00	183.00	202.00	213.00	219.00	219.00	216.00	215.00	215.00	211.00	210.00	207.00	203.00	197.00	191.00	188.00	186.00	185.00	181.00	180.00	176.00	173.00	171.00	168.00	168.00	166.00	167.00	167.00	167.00	167.00	166.00	170.00	168.00	168.00	165.00	165.00	166.00	167.00	167.00	166.00	165.00	168.00	168.00	168.00	169.00	169.00	169.00	193.00	210.00	210.00	214.00	215.00	208.00	218.00	207.00	210.00	221.00	234.00	262.00	275.00	272.00	266.00	259.00	253.00	249.00	243.00	238.00	229.00	247.00	256.00	264.00	269.00	259.00	250.00	240.00	239.00	241.00	233.00	233.00	240.00	240.00	237.00	235.00	231.00	228.00	225.00	216.00	214.00	211.00	207.00	198.00	192.00	189.00	188.00	198.00	240.00	242.00	247.00	243.00	246.00	208.00	193.00	192.00	187.00	194.00	193.00	193.00	193.00	201.00	203.00	210.00	216.00	227.00	249.00	260.00	269.00	277.00	273.00	264.00	249.00	240.00	233.00	270.00	277.00	288.00	290.00	279.00	271.00	277.00	278.00	273.00	257.00	245.00	245.00	256.00	279.00	295.00	315.00	341.00	331.00	313.00	301.00	283.00	266.00	277.00	280.00	279.00	289.00	275.00	276.00
244.00	250.00	258.00	266.00	269.00	271.00	272.00	269.00	261.00	273.00	280.00	286.00	287.00	290.00	289.00	287.00	288.00	289.00	285.00	286.00	290.00	278.00	281.00	282.00	280.00	278.00	272.00	274.00	265.00	265.00	279.00	283.00	285.00	283.00	280.00	249.00	241.00	238.00	267.00	270.00	266.00	258.00	248.00	240.00	255.00	256.00	253.00	247.00	264.00	262.00	259.00	254.00	241.00	231.00	225.00	219.00	212.00	206.00	210.00	243.00	238.00	226.00	206.00	219.00	229.00	228.00	245.00	231.00	238.00	243.00	246.00	245.00	241.00	234.00	230.00	216.00	209.00	204.00	224.00	229.00	227.00	216.00	214.00	210.00	200.00	195.00	192.00	193.00	194.00	190.00	188.00	200.00	207.00	204.00	205.00	212.00	217.00	221.00	228.00	228.00	224.00	214.00	196.00	192.00	186.00	189.00	181.00	181.00	203.00	217.00	222.00	224.00	223.00	224.00	223.00	214.00	212.00	208.00	205.00	201.00	193.00	190.00	188.00	186.00	181.00	179.00	177.00	177.00	175.00	172.00	170.00	168.00	168.00	167.00	168.00	168.00	168.00	172.00	170.00	169.00	167.00	164.00	164.00	168.00	167.00	169.00	169.00	167.00	167.00	168.00	169.00	168.00	169.00	175.00	177.00	173.00	173.00	178.00	193.00	197.00	218.00	233.00	246.00	256.00	265.00	246.00	243.00	244.00	242.00	239.00	239.00	235.00	227.00	226.00	256.00	264.00	266.00	265.00	250.00	254.00	253.00	255.00	252.00	242.00	245.00	254.00	250.00	236.00	229.00	225.00	220.00	214.00	210.00	213.00	216.00	216.00	193.00	188.00	187.00	206.00	230.00	247.00	253.00	257.00	258.00	244.00	203.00	189.00	186.00	188.00	188.00	190.00	196.00	210.00	227.00	224.00	228.00	222.00	230.00	249.00	262.00	271.00	273.00	254.00	252.00	242.00	228.00	239.00	258.00	277.00	288.00	285.00	264.00	257.00	262.00	271.00	267.00	243.00	257.00	270.00	283.00	295.00	304.00	317.00	333.00	313.00	292.00	277.00	270.00	262.00	260.00	268.00	280.00	288.00	254.00	247.00
261.00	248.00	255.00	271.00	274.00	276.00	277.00	275.00	279.00	284.00	286.00	286.00	281.00	285.00	289.00	290.00	289.00	268.00	265.00	277.00	279.00	272.00	272.00	268.00	269.00	268.00	261.00	259.00	259.00	270.00	282.00	284.00	284.00	285.00	282.00	260.00	262.00	281.00	276.00	265.00	256.00	250.00	247.00	243.00	263.00	265.00	261.00	256.00	262.00	256.00	249.00	237.00	229.00	218.00	217.00	217.00	214.00	212.00	237.00	245.00	231.00	217.00	218.00	231.00	239.00	244.00	255.00	236.00	243.00	250.00	238.00	232.00	228.00	223.00	217.00	210.00	204.00	204.00	217.00	215.00	207.00	202.00	200.00	199.00	204.00	205.00	203.00	200.00	195.00	194.00	205.00	214.00	218.00	212.00	219.00	226.00	230.00	232.00	231.00	227.00	221.00	209.00	196.00	191.00	193.00	194.00	180.00	186.00	206.00	216.00	224.00	230.00	230.00	228.00	225.00	217.00	214.00	210.00	206.00	200.00	193.00	193.00	191.00	187.00	184.00	183.00	181.00	178.00	175.00	172.00	169.00	169.00	169.00	170.00	169.00	169.00	172.00	176.00	179.00	175.00	169.00	168.00	168.00	167.00	167.00	167.00	168.00	165.00	170.00	167.00	168.00	167.00	169.00	171.00	173.00	173.00	174.00	172.00	176.00	204.00	233.00	244.00	251.00	258.00	255.00	233.00	225.00	227.00	224.00	227.00	227.00	223.00	232.00	242.00	262.00	261.00	254.00	249.00	237.00	242.00	252.00	260.00	263.00	266.00	263.00	243.00	235.00	224.00	218.00	213.00	214.00	218.00	225.00	225.00	223.00	220.00	190.00	189.00	201.00	223.00	236.00	256.00	263.00	265.00	259.00	216.00	193.00	187.00	189.00	186.00	197.00	208.00	221.00	231.00	247.00	251.00	241.00	240.00	250.00	250.00	256.00	262.00	263.00	253.00	242.00	228.00	222.00	250.00	287.00	287.00	281.00	276.00	278.00	271.00	260.00	252.00	251.00	236.00	255.00	265.00	274.00	285.00	292.00	309.00	314.00	286.00	272.00	261.00	255.00	249.00	254.00	258.00	274.00	280.00	256.00	239.00
268.00	269.00	266.00	272.00	277.00	280.00	281.00	282.00	287.00	285.00	274.00	270.00	279.00	284.00	288.00	289.00	287.00	272.00	263.00	266.00	271.00	263.00	255.00	261.00	264.00	263.00	256.00	250.00	264.00	270.00	283.00	287.00	287.00	288.00	276.00	286.00	292.00	288.00	268.00	263.00	267.00	261.00	256.00	253.00	271.00	276.00	268.00	255.00	243.00	237.00	229.00	224.00	230.00	231.00	228.00	220.00	213.00	249.00	254.00	229.00	216.00	213.00	226.00	226.00	232.00	248.00	255.00	250.00	255.00	246.00	229.00	228.00	226.00	223.00	221.00	212.00	207.00	201.00	198.00	200.00	208.00	212.00	218.00	221.00	217.00	213.00	207.00	199.00	191.00	210.00	216.00	225.00	226.00	232.00	235.00	237.00	236.00	234.00	227.00	222.00	218.00	204.00	193.00	199.00	198.00	195.00	187.00	183.00	187.00	216.00	227.00	235.00	233.00	230.00	225.00	217.00	211.00	205.00	202.00	199.00	200.00	200.00	195.00	192.00	188.00	185.00	183.00	180.00	178.00	174.00	172.00	173.00	173.00	175.00	176.00	175.00	174.00	177.00	178.00	177.00	175.00	171.00	172.00	168.00	171.00	168.00	169.00	167.00	168.00	168.00	168.00	167.00	168.00	169.00	171.00	171.00	172.00	171.00	173.00	201.00	231.00	239.00	246.00	249.00	235.00	217.00	212.00	214.00	210.00	211.00	214.00	230.00	242.00	249.00	243.00	238.00	235.00	232.00	225.00	236.00	243.00	248.00	257.00	270.00	268.00	255.00	244.00	223.00	222.00	226.00	230.00	229.00	222.00	215.00	210.00	205.00	191.00	205.00	231.00	243.00	245.00	250.00	254.00	256.00	246.00	218.00	194.00	191.00	190.00	187.00	206.00	218.00	228.00	237.00	256.00	256.00	248.00	256.00	267.00	257.00	244.00	242.00	240.00	245.00	232.00	221.00	222.00	262.00	281.00	273.00	266.00	263.00	264.00	264.00	263.00	258.00	253.00	230.00	247.00	256.00	260.00	280.00	286.00	288.00	289.00	283.00	280.00	270.00	260.00	251.00	247.00	263.00	265.00	263.00	244.00	239.00
271.00	275.00	278.00	281.00	282.00	283.00	283.00	283.00	278.00	271.00	266.00	259.00	274.00	277.00	278.00	279.00	276.00	264.00	260.00	249.00	261.00	256.00	248.00	246.00	247.00	250.00	250.00	261.00	268.00	274.00	286.00	291.00	294.00	295.00	291.00	292.00	290.00	289.00	276.00	272.00	270.00	269.00	266.00	272.00	283.00	270.00	259.00	253.00	237.00	231.00	231.00	241.00	242.00	220.00	225.00	233.00	245.00	253.00	246.00	225.00	218.00	220.00	236.00	239.00	241.00	243.00	257.00	257.00	253.00	246.00	233.00	223.00	221.00	217.00	211.00	204.00	207.00	213.00	211.00	219.00	221.00	224.00	228.00	226.00	212.00	205.00	197.00	194.00	205.00	223.00	227.00	238.00	240.00	240.00	238.00	236.00	233.00	231.00	223.00	217.00	211.00	203.00	199.00	204.00	202.00	200.00	193.00	185.00	205.00	223.00	233.00	237.00	233.00	228.00	223.00	212.00	208.00	208.00	209.00	211.00	210.00	208.00	201.00	197.00	191.00	188.00	184.00	182.00	180.00	178.00	176.00	175.00	175.00	177.00	177.00	176.00	177.00	177.00	178.00	177.00	177.00	175.00	170.00	168.00	168.00	168.00	169.00	169.00	169.00	169.00	168.00	168.00	166.00	167.00	167.00	168.00	170.00	170.00	171.00	191.00	222.00	229.00	235.00	237.00	225.00	205.00	202.00	204.00	201.00	215.00	226.00	236.00	244.00	246.00	234.00	222.00	219.00	225.00	221.00	221.00	232.00	241.00	247.00	257.00	261.00	249.00	236.00	239.00	237.00	231.00	220.00	213.00	213.00	217.00	217.00	214.00	228.00	229.00	228.00	226.00	229.00	247.00	256.00	258.00	245.00	213.00	190.00	189.00	186.00	187.00	206.00	217.00	227.00	235.00	239.00	239.00	263.00	268.00	266.00	240.00	235.00	241.00	232.00	219.00	226.00	238.00	248.00	273.00	265.00	251.00	259.00	267.00	248.00	243.00	250.00	253.00	250.00	236.00	229.00	229.00	252.00	270.00	271.00	262.00	262.00	271.00	274.00	266.00	250.00	242.00	234.00	238.00	245.00	242.00	227.00	221.00
271.00	275.00	278.00	281.00	282.00	283.00	283.00	283.00	278.00	271.00	266.00	259.00	274.00	277.00	278.00	279.00	276.00	264.00	260.00	249.00	261.00	256.00	248.00	246.00	247.00	250.00	250.00	261.00	268.00	274.00	286.00	291.00	294.00	295.00	291.00	292.00	290.00	289.00	276.00	272.00	270.00	269.00	266.00	272.00	283.00	270.00	259.00	253.00	237.00	231.00	231.00	241.00	242.00	220.00	225.00	233.00	245.00	253.00	246.00	225.00	218.00	220.00	236.00	239.00	241.00	243.00	257.00	257.00	253.00	246.00	233.00	223.00	221.00	217.00	211.00	204.00	207.00	213.00	211.00	219.00	221.00	224.00	228.00	226.00	212.00	205.00	197.00	194.00	205.00	223.00	227.00	238.00	240.00	240.00	238.00	236.00	233.00	231.00	223.00	217.00	211.00	203.00	199.00	204.00	202.00	200.00	193.00	185.00	205.00	223.00	233.00	237.00	233.00	228.00	223.00	212.00	208.00	208.00	209.00	211.00	210.00	208.00	201.00	197.00	191.00	188.00	184.00	182.00	180.00	178.00	176.00	175.00	175.00	177.00	177.00	176.00	177.00	177.00	178.00	177.00	177.00	175.00	170.00	168.00	168.00	168.00	169.00	169.00	169.00	169.00	168.00	168.00	166.00	167.00	167.00	168.00	170.00	170.00	171.00	191.00	222.00	229.00	235.00	237.00	225.00	205.00	202.00	204.00	201.00	215.00	226.00	236.00	244.00	246.00	234.00	222.00	219.00	225.00	221.00	221.00	232.00	241.00	247.00	257.00	261.00	249.00	236.00	239.00	237.00	231.00	220.00	213.00	213.00	217.00	217.00	214.00	228.00	229.00	228.00	226.00	229.00	247.00	256.00	258.00	245.00	213.00	190.00	189.00	186.00	187.00	206.00	217.00	227.00	235.00	239.00	239.00	263.00	268.00	266.00	240.00	235.00	241.00	232.00	219.00	226.00	238.00	248.00	273.00	265.00	251.00	259.00	267.00	248.00	243.00	250.00	253.00	250.00	236.00	229.00	229.00	252.00	270.00	271.00	262.00	262.00	271.00	274.00	266.00	250.00	242.00	234.00	238.00	245.00	242.00	227.00	221.00
275.00	277.00	278.00	282.00	285.00	280.00	277.00	279.00	274.00	264.00	252.00	256.00	254.00	254.00	260.00	261.00	262.00	257.00	250.00	245.00	241.00	236.00	239.00	238.00	254.00	267.00	262.00	268.00	281.00	287.00	293.00	295.00	292.00	286.00	282.00	283.00	286.00	290.00	293.00	281.00	286.00	284.00	284.00	286.00	285.00	280.00	275.00	258.00	242.00	253.00	254.00	248.00	238.00	223.00	245.00	253.00	255.00	243.00	233.00	223.00	229.00	245.00	248.00	252.00	256.00	257.00	252.00	245.00	241.00	237.00	230.00	214.00	211.00	213.00	224.00	227.00	229.00	231.00	233.00	234.00	232.00	230.00	223.00	212.00	197.00	193.00	199.00	212.00	221.00	236.00	240.00	243.00	243.00	236.00	231.00	227.00	225.00	224.00	218.00	213.00	208.00	203.00	210.00	210.00	208.00	200.00	190.00	201.00	221.00	232.00	236.00	233.00	228.00	221.00	216.00	211.00	214.00	218.00	221.00	222.00	219.00	215.00	205.00	202.00	198.00	193.00	187.00	182.00	179.00	178.00	178.00	179.00	177.00	178.00	177.00	178.00	179.00	179.00	180.00	179.00	178.00	178.00	168.00	169.00	169.00	169.00	169.00	171.00	170.00	169.00	167.00	167.00	168.00	167.00	165.00	167.00	169.00	169.00	172.00	186.00	215.00	222.00	223.00	214.00	202.00	195.00	200.00	208.00	218.00	232.00	237.00	241.00	242.00	235.00	221.00	216.00	211.00	217.00	219.00	213.00	224.00	235.00	248.00	261.00	266.00	257.00	250.00	230.00	227.00	219.00	218.00	227.00	226.00	221.00	213.00	205.00	197.00	202.00	207.00	216.00	227.00	246.00	254.00	256.00	241.00	213.00	188.00	185.00	185.00	186.00	199.00	207.00	212.00	218.00	244.00	256.00	246.00	246.00	246.00	231.00	229.00	229.00	219.00	228.00	247.00	261.00	269.00	269.00	250.00	252.00	263.00	259.00	235.00	230.00	244.00	251.00	253.00	241.00	230.00	224.00	236.00	248.00	247.00	242.00	248.00	272.00	267.00	257.00	242.00	239.00	227.00	223.00	221.00	222.00	217.00	218.00
271.00	275.00	279.00	278.00	277.00	271.00	275.00	279.00	276.00	270.00	266.00	264.00	250.00	240.00	237.00	240.00	246.00	245.00	241.00	237.00	234.00	245.00	249.00	247.00	262.00	272.00	272.00	279.00	295.00	298.00	295.00	291.00	278.00	268.00	269.00	279.00	283.00	288.00	289.00	286.00	281.00	281.00	281.00	280.00	281.00	280.00	268.00	255.00	255.00	250.00	244.00	233.00	225.00	249.00	256.00	256.00	249.00	233.00	227.00	234.00	240.00	251.00	261.00	262.00	260.00	253.00	238.00	233.00	230.00	224.00	214.00	230.00	229.00	226.00	233.00	239.00	238.00	240.00	239.00	237.00	225.00	216.00	204.00	197.00	193.00	202.00	215.00	222.00	228.00	237.00	241.00	243.00	240.00	231.00	225.00	223.00	220.00	217.00	213.00	211.00	208.00	213.00	214.00	209.00	198.00	187.00	212.00	225.00	232.00	238.00	240.00	229.00	223.00	220.00	220.00	218.00	219.00	223.00	226.00	227.00	219.00	216.00	218.00	217.00	205.00	200.00	192.00	187.00	183.00	181.00	180.00	180.00	181.00	181.00	181.00	182.00	186.00	190.00	185.00	182.00	179.00	177.00	169.00	169.00	170.00	169.00	169.00	181.00	172.00	173.00	173.00	167.00	168.00	168.00	169.00	163.00	168.00	169.00	175.00	187.00	202.00	200.00	194.00	193.00	202.00	213.00	216.00	230.00	234.00	240.00	243.00	235.00	225.00	221.00	204.00	199.00	202.00	210.00	206.00	215.00	226.00	240.00	252.00	258.00	259.00	254.00	248.00	239.00	232.00	231.00	240.00	244.00	231.00	217.00	206.00	198.00	185.00	193.00	208.00	216.00	227.00	242.00	248.00	251.00	243.00	208.00	189.00	186.00	184.00	184.00	190.00	198.00	215.00	228.00	247.00	252.00	239.00	230.00	229.00	228.00	218.00	212.00	223.00	239.00	244.00	251.00	261.00	254.00	248.00	261.00	266.00	260.00	236.00	228.00	227.00	238.00	244.00	241.00	234.00	225.00	221.00	229.00	237.00	250.00	266.00	277.00	266.00	248.00	222.00	220.00	219.00	217.00	215.00	215.00	221.00	232.00
271.00	275.00	274.00	264.00	260.00	265.00	266.00	270.00	264.00	261.00	262.00	260.00	250.00	245.00	247.00	247.00	246.00	228.00	232.00	236.00	248.00	262.00	263.00	257.00	263.00	274.00	285.00	291.00	292.00	289.00	285.00	279.00	270.00	268.00	259.00	276.00	282.00	284.00	279.00	273.00	272.00	278.00	283.00	283.00	284.00	282.00	274.00	266.00	242.00	246.00	241.00	229.00	239.00	258.00	257.00	255.00	249.00	241.00	233.00	247.00	244.00	248.00	264.00	264.00	255.00	243.00	228.00	226.00	223.00	219.00	230.00	246.00	235.00	237.00	240.00	242.00	240.00	234.00	225.00	222.00	203.00	199.00	200.00	207.00	204.00	201.00	211.00	223.00	230.00	243.00	245.00	244.00	242.00	235.00	232.00	228.00	225.00	220.00	210.00	210.00	216.00	222.00	215.00	209.00	202.00	190.00	224.00	235.00	239.00	241.00	238.00	230.00	228.00	226.00	224.00	225.00	226.00	227.00	230.00	229.00	225.00	226.00	227.00	225.00	217.00	208.00	202.00	197.00	191.00	185.00	184.00	184.00	186.00	198.00	202.00	202.00	203.00	200.00	189.00	183.00	180.00	176.00	173.00	171.00	172.00	172.00	173.00	182.00	181.00	181.00	178.00	169.00	169.00	169.00	167.00	166.00	168.00	171.00	171.00	174.00	188.00	201.00	217.00	228.00	230.00	232.00	224.00	236.00	242.00	240.00	230.00	222.00	209.00	201.00	194.00	192.00	197.00	196.00	216.00	232.00	240.00	245.00	246.00	241.00	242.00	243.00	249.00	253.00	256.00	253.00	236.00	230.00	215.00	209.00	205.00	201.00	187.00	190.00	211.00	219.00	224.00	240.00	249.00	243.00	235.00	198.00	189.00	186.00	184.00	185.00	201.00	213.00	220.00	227.00	245.00	236.00	221.00	218.00	211.00	207.00	213.00	230.00	241.00	257.00	263.00	265.00	265.00	242.00	255.00	261.00	265.00	262.00	248.00	238.00	226.00	221.00	229.00	241.00	238.00	231.00	221.00	244.00	260.00	273.00	277.00	263.00	253.00	244.00	219.00	213.00	215.00	222.00	231.00	236.00	239.00	244.00
271.00	275.00	274.00	264.00	260.00	265.00	266.00	270.00	264.00	261.00	262.00	260.00	250.00	245.00	247.00	247.00	246.00	228.00	232.00	236.00	248.00	262.00	263.00	257.00	263.00	274.00	285.00	291.00	292.00	289.00	285.00	279.00	270.00	268.00	259.00	276.00	282.00	284.00	279.00	273.00	272.00	278.00	283.00	283.00	284.00	282.00	274.00	266.00	242.00	246.00	241.00	229.00	239.00	258.00	257.00	255.00	249.00	241.00	233.00	247.00	244.00	248.00	264.00	264.00	255.00	243.00	228.00	226.00	223.00	219.00	230.00	246.00	235.00	237.00	240.00	242.00	240.00	234.00	225.00	222.00	203.00	199.00	200.00	207.00	204.00	201.00	211.00	223.00	230.00	243.00	245.00	244.00	242.00	235.00	232.00	228.00	225.00	220.00	210.00	210.00	216.00	222.00	215.00	209.00	202.00	190.00	224.00	235.00	239.00	241.00	238.00	230.00	228.00	226.00	224.00	225.00	226.00	227.00	230.00	229.00	225.00	226.00	227.00	225.00	217.00	208.00	202.00	197.00	191.00	185.00	184.00	184.00	186.00	198.00	202.00	202.00	203.00	200.00	189.00	183.00	180.00	176.00	173.00	171.00	172.00	172.00	173.00	182.00	181.00	181.00	178.00	169.00	169.00	169.00	167.00	166.00	168.00	171.00	171.00	174.00	188.00	201.00	217.00	228.00	230.00	232.00	224.00	236.00	242.00	240.00	230.00	222.00	209.00	201.00	194.00	192.00	197.00	196.00	216.00	232.00	240.00	245.00	246.00	241.00	242.00	243.00	249.00	253.00	256.00	253.00	236.00	230.00	215.00	209.00	205.00	201.00	187.00	190.00	211.00	219.00	224.00	240.00	249.00	243.00	235.00	198.00	189.00	186.00	184.00	185.00	201.00	213.00	220.00	227.00	245.00	236.00	221.00	218.00	211.00	207.00	213.00	230.00	241.00	257.00	263.00	265.00	265.00	242.00	255.00	261.00	265.00	262.00	248.00	238.00	226.00	221.00	229.00	241.00	238.00	231.00	221.00	244.00	260.00	273.00	277.00	263.00	253.00	244.00	219.00	213.00	215.00	222.00	231.00	236.00	239.00	244.00
275.00	271.00	267.00	250.00	246.00	249.00	251.00	251.00	257.00	259.00	257.00	254.00	252.00	251.00	246.00	236.00	227.00	245.00	245.00	248.00	249.00	267.00	270.00	273.00	278.00	284.00	295.00	293.00	275.00	271.00	274.00	273.00	269.00	257.00	254.00	277.00	279.00	277.00	268.00	270.00	275.00	278.00	280.00	281.00	286.00	285.00	281.00	268.00	257.00	256.00	253.00	245.00	239.00	258.00	261.00	259.00	255.00	238.00	237.00	255.00	259.00	263.00	262.00	257.00	249.00	237.00	236.00	232.00	224.00	230.00	247.00	252.00	246.00	243.00	232.00	232.00	230.00	222.00	212.00	207.00	212.00	223.00	221.00	219.00	210.00	210.00	223.00	236.00	242.00	247.00	247.00	243.00	241.00	235.00	232.00	227.00	222.00	216.00	218.00	224.00	227.00	223.00	208.00	198.00	191.00	193.00	224.00	234.00	237.00	239.00	240.00	237.00	234.00	229.00	228.00	232.00	234.00	236.00	238.00	239.00	232.00	228.00	224.00	224.00	220.00	217.00	213.00	208.00	203.00	196.00	197.00	198.00	201.00	209.00	205.00	200.00	194.00	189.00	182.00	179.00	176.00	175.00	185.00	182.00	181.00	181.00	182.00	182.00	182.00	182.00	175.00	170.00	169.00	169.00	164.00	170.00	169.00	169.00	172.00	176.00	207.00	219.00	229.00	237.00	247.00	250.00	245.00	248.00	239.00	230.00	218.00	206.00	199.00	197.00	193.00	191.00	190.00	196.00	215.00	223.00	228.00	232.00	230.00	231.00	230.00	241.00	248.00	256.00	258.00	253.00	237.00	219.00	201.00	200.00	200.00	200.00	182.00	190.00	204.00	213.00	225.00	241.00	238.00	224.00	215.00	195.00	185.00	185.00	183.00	184.00	204.00	212.00	221.00	231.00	221.00	216.00	204.00	206.00	214.00	222.00	218.00	230.00	239.00	266.00	267.00	257.00	251.00	243.00	249.00	260.00	265.00	263.00	246.00	237.00	230.00	221.00	213.00	233.00	229.00	223.00	240.00	262.00	264.00	260.00	254.00	242.00	234.00	221.00	211.00	211.00	239.00	255.00	261.00	247.00	259.00	257.00
273.00	269.00	263.00	252.00	246.00	243.00	238.00	227.00	239.00	235.00	239.00	248.00	230.00	225.00	225.00	225.00	240.00	250.00	253.00	255.00	254.00	264.00	273.00	278.00	285.00	291.00	287.00	280.00	269.00	265.00	264.00	263.00	260.00	252.00	247.00	271.00	271.00	268.00	259.00	265.00	270.00	274.00	279.00	284.00	289.00	283.00	264.00	258.00	266.00	254.00	250.00	249.00	258.00	267.00	264.00	260.00	251.00	242.00	240.00	258.00	262.00	266.00	253.00	248.00	248.00	248.00	235.00	230.00	245.00	253.00	253.00	243.00	238.00	233.00	225.00	217.00	215.00	215.00	214.00	209.00	226.00	232.00	233.00	228.00	213.00	223.00	236.00	240.00	243.00	243.00	241.00	239.00	235.00	226.00	223.00	219.00	217.00	222.00	230.00	230.00	225.00	211.00	197.00	192.00	198.00	210.00	227.00	234.00	239.00	243.00	245.00	242.00	237.00	235.00	235.00	241.00	244.00	244.00	241.00	236.00	226.00	222.00	217.00	216.00	210.00	209.00	206.00	207.00	208.00	210.00	213.00	213.00	209.00	190.00	186.00	181.00	178.00	178.00	178.00	182.00	188.00	193.00	187.00	182.00	183.00	183.00	182.00	183.00	181.00	181.00	176.00	172.00	171.00	170.00	166.00	166.00	169.00	167.00	168.00	176.00	208.00	218.00	227.00	234.00	240.00	242.00	241.00	237.00	232.00	227.00	225.00	214.00	205.00	196.00	190.00	189.00	186.00	191.00	206.00	213.00	219.00	220.00	212.00	216.00	216.00	229.00	235.00	248.00	244.00	235.00	223.00	209.00	196.00	194.00	193.00	192.00	183.00	192.00	209.00	216.00	227.00	239.00	239.00	233.00	219.00	192.00	187.00	187.00	184.00	183.00	205.00	215.00	222.00	219.00	201.00	207.00	222.00	223.00	233.00	238.00	239.00	239.00	257.00	270.00	265.00	256.00	248.00	231.00	249.00	255.00	258.00	253.00	227.00	224.00	220.00	216.00	208.00	222.00	218.00	217.00	232.00	246.00	237.00	229.00	224.00	215.00	210.00	209.00	216.00	226.00	259.00	272.00	277.00	278.00	263.00	269.00
254.00	249.00	251.00	246.00	244.00	240.00	238.00	236.00	224.00	218.00	220.00	219.00	231.00	235.00	237.00	247.00	253.00	254.00	253.00	259.00	260.00	262.00	272.00	280.00	288.00	293.00	288.00	274.00	265.00	261.00	257.00	257.00	254.00	252.00	249.00	262.00	266.00	260.00	256.00	272.00	274.00	281.00	290.00	293.00	286.00	271.00	266.00	283.00	259.00	260.00	271.00	275.00	279.00	274.00	270.00	263.00	250.00	256.00	252.00	263.00	268.00	262.00	260.00	261.00	257.00	250.00	234.00	247.00	251.00	252.00	245.00	231.00	230.00	229.00	228.00	227.00	224.00	216.00	207.00	201.00	234.00	237.00	238.00	234.00	229.00	227.00	237.00	240.00	241.00	236.00	233.00	230.00	227.00	226.00	229.00	230.00	231.00	232.00	229.00	222.00	212.00	197.00	197.00	202.00	212.00	217.00	230.00	237.00	240.00	243.00	245.00	245.00	242.00	242.00	243.00	242.00	238.00	232.00	228.00	223.00	220.00	218.00	215.00	214.00	212.00	207.00	203.00	199.00	199.00	200.00	197.00	192.00	187.00	184.00	186.00	187.00	187.00	185.00	199.00	201.00	202.00	197.00	187.00	184.00	183.00	183.00	182.00	181.00	180.00	178.00	177.00	170.00	173.00	176.00	169.00	166.00	166.00	168.00	169.00	170.00	202.00	213.00	221.00	223.00	202.00	207.00	206.00	209.00	214.00	223.00	220.00	207.00	202.00	195.00	191.00	188.00	185.00	185.00	197.00	201.00	204.00	200.00	198.00	199.00	204.00	223.00	231.00	238.00	224.00	217.00	206.00	195.00	187.00	189.00	190.00	189.00	179.00	185.00	206.00	218.00	224.00	231.00	233.00	221.00	206.00	189.00	187.00	185.00	183.00	183.00	205.00	205.00	198.00	198.00	221.00	224.00	239.00	234.00	247.00	259.00	256.00	241.00	251.00	251.00	245.00	242.00	243.00	233.00	223.00	225.00	242.00	243.00	223.00	208.00	203.00	202.00	203.00	208.00	207.00	207.00	213.00	216.00	210.00	207.00	207.00	210.00	213.00	222.00	253.00	262.00	291.00	297.00	290.00	284.00	277.00	280.00
251.00	242.00	232.00	232.00	230.00	228.00	231.00	220.00	210.00	217.00	232.00	242.00	236.00	231.00	241.00	254.00	262.00	273.00	263.00	270.00	275.00	274.00	281.00	288.00	291.00	289.00	274.00	266.00	270.00	275.00	274.00	268.00	260.00	254.00	249.00	241.00	247.00	248.00	274.00	289.00	294.00	300.00	301.00	302.00	290.00	280.00	281.00	275.00	279.00	283.00	285.00	280.00	278.00	275.00	273.00	269.00	255.00	262.00	262.00	270.00	265.00	264.00	268.00	256.00	251.00	244.00	253.00	251.00	251.00	251.00	241.00	240.00	246.00	246.00	237.00	222.00	216.00	207.00	202.00	210.00	234.00	242.00	245.00	247.00	243.00	244.00	245.00	241.00	242.00	244.00	238.00	238.00	237.00	239.00	239.00	239.00	236.00	232.00	218.00	212.00	209.00	201.00	229.00	238.00	236.00	235.00	226.00	230.00	236.00	242.00	247.00	246.00	244.00	241.00	237.00	230.00	228.00	224.00	219.00	216.00	219.00	219.00	219.00	217.00	210.00	206.00	202.00	197.00	191.00	185.00	183.00	183.00	188.00	196.00	198.00	196.00	190.00	190.00	202.00	204.00	203.00	200.00	191.00	185.00	184.00	183.00	183.00	182.00	181.00	181.00	181.00	175.00	179.00	178.00	169.00	168.00	169.00	166.00	166.00	167.00	184.00	198.00	202.00	190.00	173.00	183.00	183.00	189.00	197.00	193.00	189.00	189.00	187.00	188.00	177.00	177.00	178.00	182.00	189.00	189.00	191.00	189.00	190.00	190.00	194.00	210.00	219.00	213.00	203.00	197.00	188.00	181.00	175.00	179.00	181.00	185.00	180.00	179.00	196.00	212.00	221.00	232.00	216.00	189.00	186.00	189.00	182.00	182.00	182.00	186.00	190.00	197.00	207.00	219.00	239.00	248.00	249.00	250.00	256.00	269.00	272.00	270.00	270.00	262.00	254.00	246.00	235.00	226.00	219.00	213.00	213.00	220.00	204.00	198.00	199.00	202.00	201.00	203.00	203.00	203.00	204.00	206.00	208.00	210.00	211.00	226.00	236.00	252.00	284.00	297.00	290.00	292.00	300.00	310.00	308.00	308.00
251.00	242.00	232.00	232.00	230.00	228.00	231.00	220.00	210.00	217.00	232.00	242.00	236.00	231.00	241.00	254.00	262.00	273.00	263.00	270.00	275.00	274.00	281.00	288.00	291.00	289.00	274.00	266.00	270.00	275.00	274.00	268.00	260.00	254.00	249.00	241.00	247.00	248.00	274.00	289.00	294.00	300.00	301.00	302.00	290.00	280.00	281.00	275.00	279.00	283.00	285.00	280.00	278.00	275.00	273.00	269.00	255.00	262.00	262.00	270.00	265.00	264.00	268.00	256.00	251.00	244.00	253.00	251.00	251.00	251.00	241.00	240.00	246.00	246.00	237.00	222.00	216.00	207.00	202.00	210.00	234.00	242.00	245.00	247.00	243.00	244.00	245.00	241.00	242.00	244.00	238.00	238.00	237.00	239.00	239.00	239.00	236.00	232.00	218.00	212.00	209.00	201.00	229.00	238.00	236.00	235.00	226.00	230.00	236.00	242.00	247.00	246.00	244.00	241.00	237.00	230.00	228.00	224.00	219.00	216.00	219.00	219.00	219.00	217.00	210.00	206.00	202.00	197.00	191.00	185.00	183.00	183.00	188.00	196.00	198.00	196.00	190.00	190.00	202.00	204.00	203.00	200.00	191.00	185.00	184.00	183.00	183.00	182.00	181.00	181.00	181.00	175.00	179.00	178.00	169.00	168.00	169.00	166.00	166.00	167.00	184.00	198.00	202.00	190.00	173.00	183.00	183.00	189.00	197.00	193.00	189.00	189.00	187.00	188.00	177.00	177.00	178.00	182.00	189.00	189.00	191.00	189.00	190.00	190.00	194.00	210.00	219.00	213.00	203.00	197.00	188.00	181.00	175.00	179.00	181.00	185.00	180.00	179.00	196.00	212.00	221.00	232.00	216.00	189.00	186.00	189.00	182.00	182.00	182.00	186.00	190.00	197.00	207.00	219.00	239.00	248.00	249.00	250.00	256.00	269.00	272.00	270.00	270.00	262.00	254.00	246.00	235.00	226.00	219.00	213.00	213.00	220.00	204.00	198.00	199.00	202.00	201.00	203.00	203.00	203.00	204.00	206.00	208.00	210.00	211.00	226.00	236.00	252.00	284.00	297.00	290.00	292.00	300.00	310.00	308.00	308.00
239.00	235.00	231.00	219.00	210.00	207.00	208.00	210.00	231.00	245.00	252.00	253.00	245.00	243.00	244.00	250.00	266.00	281.00	271.00	286.00	289.00	287.00	289.00	288.00	284.00	279.00	272.00	266.00	271.00	278.00	272.00	264.00	261.00	257.00	248.00	237.00	253.00	265.00	283.00	296.00	299.00	299.00	298.00	298.00	298.00	294.00	284.00	274.00	275.00	278.00	273.00	265.00	270.00	277.00	276.00	277.00	271.00	277.00	277.00	277.00	280.00	279.00	274.00	269.00	263.00	261.00	257.00	252.00	249.00	248.00	248.00	251.00	246.00	238.00	228.00	210.00	204.00	201.00	204.00	215.00	248.00	253.00	254.00	252.00	251.00	250.00	248.00	249.00	250.00	253.00	249.00	250.00	250.00	242.00	237.00	233.00	229.00	225.00	214.00	206.00	202.00	196.00	231.00	237.00	239.00	239.00	236.00	239.00	238.00	242.00	246.00	240.00	235.00	231.00	225.00	219.00	221.00	222.00	221.00	216.00	216.00	216.00	215.00	214.00	203.00	195.00	189.00	185.00	185.00	190.00	193.00	200.00	205.00	205.00	203.00	196.00	196.00	203.00	210.00	212.00	212.00	208.00	192.00	186.00	185.00	186.00	186.00	183.00	183.00	183.00	183.00	183.00	182.00	180.00	173.00	169.00	170.00	170.00	167.00	168.00	166.00	171.00	181.00	173.00	171.00	171.00	170.00	171.00	173.00	171.00	169.00	172.00	177.00	179.00	171.00	171.00	172.00	177.00	183.00	185.00	185.00	185.00	187.00	187.00	184.00	199.00	202.00	186.00	186.00	189.00	183.00	175.00	176.00	175.00	176.00	178.00	178.00	180.00	191.00	220.00	227.00	207.00	204.00	188.00	186.00	191.00	180.00	181.00	185.00	185.00	199.00	208.00	216.00	224.00	231.00	234.00	250.00	257.00	259.00	264.00	264.00	267.00	266.00	249.00	253.00	247.00	243.00	234.00	223.00	216.00	209.00	203.00	198.00	209.00	223.00	236.00	232.00	222.00	218.00	214.00	210.00	222.00	224.00	226.00	226.00	242.00	254.00	269.00	293.00	285.00	284.00	283.00	291.00	296.00	305.00	313.00
220.00	215.00	208.00	207.00	206.00	216.00	229.00	224.00	243.00	250.00	255.00	258.00	266.00	259.00	252.00	264.00	272.00	288.00	291.00	293.00	291.00	281.00	274.00	270.00	268.00	266.00	250.00	243.00	272.00	269.00	263.00	261.00	255.00	244.00	235.00	251.00	272.00	277.00	288.00	289.00	287.00	289.00	293.00	298.00	273.00	263.00	269.00	266.00	274.00	276.00	273.00	265.00	258.00	272.00	278.00	278.00	280.00	276.00	265.00	277.00	284.00	281.00	283.00	278.00	269.00	263.00	252.00	254.00	256.00	251.00	244.00	232.00	224.00	215.00	210.00	215.00	218.00	215.00	210.00	206.00	243.00	246.00	246.00	250.00	258.00	259.00	260.00	260.00	258.00	256.00	254.00	246.00	234.00	223.00	223.00	221.00	218.00	214.00	203.00	201.00	198.00	201.00	230.00	235.00	238.00	239.00	242.00	245.00	248.00	248.00	242.00	228.00	225.00	222.00	220.00	212.00	214.00	219.00	218.00	216.00	206.00	209.00	206.00	202.00	190.00	186.00	189.00	193.00	194.00	201.00	205.00	208.00	210.00	208.00	203.00	204.00	211.00	218.00	224.00	219.00	213.00	204.00	190.00	188.00	188.00	187.00	185.00	184.00	183.00	184.00	183.00	183.00	183.00	180.00	173.00	170.00	171.00	170.00	170.00	168.00	170.00	166.00	170.00	170.00	168.00	168.00	169.00	170.00	169.00	171.00	171.00	165.00	172.00	173.00	172.00	172.00	172.00	173.00	176.00	178.00	180.00	182.00	180.00	178.00	179.00	187.00	182.00	175.00	175.00	176.00	175.00	174.00	174.00	175.00	176.00	176.00	179.00	192.00	216.00	219.00	207.00	183.00	183.00	181.00	180.00	185.00	185.00	186.00	187.00	188.00	199.00	209.00	215.00	219.00	232.00	239.00	242.00	242.00	233.00	244.00	253.00	249.00	245.00	233.00	232.00	234.00	242.00	240.00	228.00	218.00	208.00	202.00	196.00	207.00	228.00	241.00	242.00	234.00	229.00	224.00	221.00	232.00	237.00	241.00	244.00	261.00	280.00	289.00	273.00	267.00	271.00	279.00	285.00	290.00	312.00	318.00
208.00	216.00	227.00	221.00	212.00	235.00	241.00	243.00	232.00	240.00	256.00	264.00	278.00	270.00	264.00	273.00	279.00	288.00	285.00	276.00	275.00	269.00	259.00	251.00	252.00	249.00	242.00	258.00	268.00	259.00	245.00	239.00	233.00	228.00	233.00	278.00	280.00	278.00	275.00	282.00	288.00	294.00	296.00	292.00	271.00	265.00	259.00	257.00	258.00	272.00	270.00	270.00	260.00	255.00	271.00	276.00	275.00	259.00	253.00	286.00	286.00	285.00	276.00	270.00	263.00	256.00	255.00	256.00	252.00	242.00	222.00	213.00	212.00	216.00	221.00	237.00	227.00	219.00	216.00	212.00	241.00	251.00	258.00	265.00	265.00	263.00	260.00	255.00	252.00	245.00	240.00	233.00	228.00	220.00	218.00	214.00	212.00	211.00	208.00	203.00	198.00	211.00	219.00	227.00	238.00	243.00	249.00	250.00	250.00	249.00	244.00	228.00	221.00	215.00	210.00	205.00	205.00	211.00	209.00	204.00	197.00	196.00	191.00	189.00	190.00	199.00	206.00	205.00	201.00	208.00	211.00	213.00	215.00	215.00	211.00	212.00	221.00	225.00	222.00	214.00	206.00	199.00	194.00	191.00	189.00	188.00	185.00	184.00	182.00	180.00	179.00	180.00	181.00	175.00	172.00	172.00	171.00	171.00	172.00	169.00	167.00	174.00	171.00	168.00	169.00	170.00	170.00	170.00	170.00	171.00	170.00	166.00	172.00	173.00	172.00	171.00	171.00	171.00	176.00	175.00	175.00	174.00	177.00	178.00	178.00	177.00	173.00	173.00	173.00	173.00	174.00	173.00	175.00	176.00	176.00	177.00	178.00	185.00	198.00	188.00	180.00	180.00	181.00	182.00	190.00	183.00	182.00	183.00	183.00	185.00	192.00	203.00	212.00	215.00	221.00	222.00	217.00	216.00	228.00	239.00	228.00	221.00	219.00	229.00	225.00	224.00	237.00	231.00	212.00	201.00	196.00	195.00	206.00	220.00	228.00	229.00	229.00	240.00	239.00	237.00	233.00	238.00	252.00	261.00	269.00	286.00	290.00	287.00	265.00	266.00	290.00	296.00	299.00	310.00	313.00	313.00
208.00	216.00	227.00	221.00	212.00	235.00	241.00	243.00	232.00	240.00	256.00	264.00	278.00	270.00	264.00	273.00	279.00	288.00	285.00	276.00	275.00	269.00	259.00	251.00	252.00	249.00	242.00	258.00	268.00	259.00	245.00	239.00	233.00	228.00	233.00	278.00	280.00	278.00	275.00	282.00	288.00	294.00	296.00	292.00	271.00	265.00	259.00	257.00	258.00	272.00	270.00	270.00	260.00	255.00	271.00	276.00	275.00	259.00	253.00	286.00	286.00	285.00	276.00	270.00	263.00	256.00	255.00	256.00	252.00	242.00	222.00	213.00	212.00	216.00	221.00	237.00	227.00	219.00	216.00	212.00	241.00	251.00	258.00	265.00	265.00	263.00	260.00	255.00	252.00	245.00	240.00	233.00	228.00	220.00	218.00	214.00	212.00	211.00	208.00	203.00	198.00	211.00	219.00	227.00	238.00	243.00	249.00	250.00	250.00	249.00	244.00	228.00	221.00	215.00	210.00	205.00	205.00	211.00	209.00	204.00	197.00	196.00	191.00	189.00	190.00	199.00	206.00	205.00	201.00	208.00	211.00	213.00	215.00	215.00	211.00	212.00	221.00	225.00	222.00	214.00	206.00	199.00	194.00	191.00	189.00	188.00	185.00	184.00	182.00	180.00	179.00	180.00	181.00	175.00	172.00	172.00	171.00	171.00	172.00	169.00	167.00	174.00	171.00	168.00	169.00	170.00	170.00	170.00	170.00	171.00	170.00	166.00	172.00	173.00	172.00	171.00	171.00	171.00	176.00	175.00	175.00	174.00	177.00	178.00	178.00	177.00	173.00	173.00	173.00	173.00	174.00	173.00	175.00	176.00	176.00	177.00	178.00	185.00	198.00	188.00	180.00	180.00	181.00	182.00	190.00	183.00	182.00	183.00	183.00	185.00	192.00	203.00	212.00	215.00	221.00	222.00	217.00	216.00	228.00	239.00	228.00	221.00	219.00	229.00	225.00	224.00	237.00	231.00	212.00	201.00	196.00	195.00	206.00	220.00	228.00	229.00	229.00	240.00	239.00	237.00	233.00	238.00	252.00	261.00	269.00	286.00	290.00	287.00	265.00	266.00	290.00	296.00	299.00	310.00	313.00	313.00
243.00	245.00	252.00	248.00	250.00	263.00	269.00	266.00	266.00	271.00	275.00	278.00	277.00	277.00	276.00	275.00	273.00	265.00	258.00	245.00	235.00	239.00	242.00	237.00	237.00	233.00	224.00	223.00	235.00	234.00	239.00	251.00	250.00	243.00	238.00	251.00	254.00	266.00	281.00	274.00	265.00	263.00	258.00	251.00	239.00	252.00	257.00	260.00	239.00	234.00	247.00	254.00	256.00	245.00	237.00	237.00	235.00	261.00	270.00	288.00	283.00	269.00	253.00	248.00	242.00	235.00	244.00	236.00	229.00	246.00	247.00	228.00	228.00	241.00	251.00	244.00	241.00	232.00	227.00	224.00	261.00	262.00	260.00	259.00	250.00	247.00	245.00	244.00	238.00	240.00	239.00	237.00	235.00	235.00	234.00	229.00	221.00	214.00	199.00	220.00	243.00	245.00	234.00	240.00	246.00	251.00	245.00	240.00	236.00	232.00	229.00	219.00	219.00	219.00	222.00	225.00	223.00	218.00	214.00	208.00	195.00	191.00	193.00	200.00	213.00	217.00	219.00	224.00	225.00	222.00	229.00	233.00	231.00	230.00	232.00	232.00	231.00	229.00	226.00	223.00	220.00	216.00	207.00	201.00	197.00	193.00	185.00	174.00	173.00	175.00	176.00	173.00	170.00	171.00	169.00	168.00	170.00	171.00	170.00	170.00	170.00	168.00	170.00	170.00	171.00	171.00	171.00	171.00	171.00	172.00	171.00	168.00	169.00	170.00	170.00	173.00	172.00	171.00	173.00	173.00	173.00	173.00	172.00	173.00	173.00	173.00	173.00	174.00	174.00	175.00	175.00	175.00	176.00	177.00	177.00	177.00	178.00	178.00	179.00	188.00	193.00	194.00	192.00	193.00	194.00	194.00	192.00	190.00	190.00	190.00	187.00	186.00	186.00	186.00	187.00	190.00	187.00	188.00	188.00	192.00	190.00	192.00	211.00	222.00	209.00	204.00	202.00	193.00	197.00	201.00	205.00	206.00	214.00	224.00	237.00	251.00	262.00	268.00	260.00	257.00	262.00	274.00	280.00	282.00	279.00	270.00	266.00	269.00	260.00	263.00	274.00	268.00	270.00	276.00	295.00	298.00
243.00	245.00	252.00	248.00	250.00	263.00	269.00	266.00	266.00	271.00	275.00	278.00	277.00	277.00	276.00	275.00	273.00	265.00	258.00	245.00	235.00	239.00	242.00	237.00	237.00	233.00	224.00	223.00	235.00	234.00	239.00	251.00	250.00	243.00	238.00	251.00	254.00	266.00	281.00	274.00	265.00	263.00	258.00	251.00	239.00	252.00	257.00	260.00	239.00	234.00	247.00	254.00	256.00	245.00	237.00	237.00	235.00	261.00	270.00	288.00	283.00	269.00	253.00	248.00	242.00	235.00	244.00	236.00	229.00	246.00	247.00	228.00	228.00	241.00	251.00	244.00	241.00	232.00	227.00	224.00	261.00	262.00	260.00	259.00	250.00	247.00	245.00	244.00	238.00	240.00	239.00	237.00	235.00	235.00	234.00	229.00	221.00	214.00	199.00	220.00	243.00	245.00	234.00	240.00	246.00	251.00	245.00	240.00	236.00	232.00	229.00	219.00	219.00	219.00	222.00	225.00	223.00	218.00	214.00	208.00	195.00	191.00	193.00	200.00	213.00	217.00	219.00	224.00	225.00	222.00	229.00	233.00	231.00	230.00	232.00	232.00	231.00	229.00	226.00	223.00	220.00	216.00	207.00	201.00	197.00	193.00	185.00	174.00	173.00	175.00	176.00	173.00	170.00	171.00	169.00	168.00	170.00	171.00	170.00	170.00	170.00	168.00	170.00	170.00	171.00	171.00	171.00	171.00	171.00	172.00	171.00	168.00	169.00	170.00	170.00	173.00	172.00	171.00	173.00	173.00	173.00	173.00	172.00	173.00	173.00	173.00	173.00	174.00	174.00	175.00	175.00	175.00	176.00	177.00	177.00	177.00	178.00	178.00	179.00	188.00	193.00	194.00	192.00	193.00	194.00	194.00	192.00	190.00	190.00	190.00	187.00	186.00	186.00	186.00	187.00	190.00	187.00	188.00	188.00	192.00	190.00	192.00	211.00	222.00	209.00	204.00	202.00	193.00	197.00	201.00	205.00	206.00	214.00	224.00	237.00	251.00	262.00	268.00	260.00	257.00	262.00	274.00	280.00	282.00	279.00	270.00	266.00	269.00	260.00	263.00	274.00	268.00	270.00	276.00	295.00	298.00
228.00	245.00	255.00	269.00	276.00	278.00	276.00	273.00	267.00	262.00	257.00	258.00	261.00	261.00	259.00	257.00	257.00	252.00	243.00	237.00	236.00	223.00	224.00	223.00	221.00	218.00	239.00	253.00	244.00	236.00	243.00	256.00	261.00	258.00	248.00	268.00	264.00	264.00	272.00	261.00	253.00	255.00	258.00	254.00	242.00	237.00	244.00	250.00	240.00	235.00	232.00	238.00	236.00	230.00	231.00	238.00	242.00	259.00	273.00	278.00	278.00	276.00	263.00	249.00	242.00	247.00	252.00	239.00	249.00	259.00	244.00	240.00	266.00	270.00	262.00	242.00	229.00	227.00	233.00	246.00	264.00	262.00	261.00	261.00	250.00	250.00	247.00	244.00	247.00	250.00	246.00	244.00	242.00	237.00	230.00	224.00	218.00	211.00	202.00	213.00	248.00	252.00	256.00	259.00	256.00	251.00	239.00	237.00	235.00	234.00	233.00	233.00	232.00	230.00	227.00	216.00	208.00	201.00	197.00	194.00	201.00	202.00	200.00	210.00	213.00	219.00	229.00	239.00	244.00	240.00	227.00	218.00	213.00	222.00	223.00	223.00	223.00	223.00	223.00	222.00	220.00	219.00	214.00	208.00	203.00	198.00	190.00	175.00	173.00	173.00	174.00	172.00	173.00	172.00	170.00	170.00	171.00	171.00	173.00	176.00	171.00	171.00	171.00	171.00	171.00	172.00	171.00	171.00	171.00	171.00	170.00	170.00	167.00	171.00	170.00	171.00	171.00	171.00	176.00	177.00	176.00	173.00	172.00	172.00	171.00	172.00	173.00	174.00	175.00	175.00	175.00	175.00	175.00	176.00	176.00	176.00	178.00	178.00	178.00	183.00	190.00	191.00	191.00	192.00	193.00	196.00	195.00	194.00	194.00	195.00	195.00	194.00	195.00	194.00	198.00	205.00	206.00	203.00	197.00	202.00	190.00	195.00	208.00	194.00	190.00	191.00	191.00	191.00	203.00	208.00	212.00	218.00	236.00	249.00	264.00	269.00	267.00	264.00	262.00	269.00	275.00	284.00	282.00	277.00	270.00	260.00	258.00	255.00	255.00	257.00	261.00	262.00	263.00	267.00	277.00	277.00
196.00	198.00	201.00	264.00	264.00	261.00	259.00	251.00	260.00	257.00	248.00	245.00	243.00	245.00	248.00	245.00	243.00	229.00	224.00	221.00	222.00	214.00	213.00	220.00	231.00	241.00	262.00	260.00	243.00	239.00	262.00	272.00	274.00	268.00	259.00	274.00	276.00	274.00	274.00	262.00	251.00	245.00	244.00	246.00	234.00	227.00	231.00	240.00	231.00	226.00	222.00	224.00	229.00	253.00	248.00	254.00	261.00	250.00	258.00	276.00	281.00	275.00	251.00	253.00	259.00	268.00	247.00	245.00	262.00	256.00	257.00	271.00	276.00	267.00	251.00	235.00	239.00	250.00	266.00	271.00	266.00	266.00	266.00	268.00	258.00	253.00	254.00	255.00	255.00	250.00	248.00	244.00	241.00	230.00	224.00	220.00	215.00	208.00	228.00	244.00	253.00	260.00	252.00	246.00	244.00	240.00	239.00	239.00	237.00	235.00	234.00	225.00	219.00	214.00	208.00	196.00	195.00	195.00	206.00	213.00	217.00	212.00	213.00	223.00	234.00	242.00	247.00	248.00	247.00	226.00	226.00	222.00	215.00	210.00	213.00	215.00	216.00	216.00	218.00	217.00	217.00	217.00	215.00	211.00	206.00	202.00	197.00	184.00	178.00	174.00	172.00	173.00	170.00	171.00	169.00	169.00	178.00	187.00	192.00	189.00	183.00	176.00	176.00	175.00	174.00	172.00	174.00	173.00	173.00	171.00	171.00	171.00	168.00	171.00	171.00	171.00	172.00	172.00	173.00	174.00	174.00	173.00	171.00	173.00	172.00	173.00	173.00	174.00	175.00	176.00	175.00	176.00	176.00	177.00	177.00	177.00	178.00	179.00	179.00	182.00	186.00	188.00	190.00	193.00	195.00	196.00	198.00	199.00	199.00	198.00	198.00	198.00	199.00	198.00	208.00	213.00	215.00	214.00	214.00	208.00	198.00	194.00	192.00	190.00	190.00	191.00	193.00	195.00	219.00	228.00	238.00	246.00	259.00	261.00	258.00	245.00	250.00	250.00	260.00	270.00	275.00	273.00	274.00	270.00	264.00	250.00	249.00	254.00	265.00	269.00	277.00	279.00	278.00	273.00	274.00	270.00
210.00	198.00	196.00	226.00	244.00	241.00	233.00	232.00	239.00	241.00	239.00	232.00	228.00	226.00	219.00	216.00	220.00	215.00	215.00	215.00	222.00	219.00	217.00	227.00	250.00	257.00	262.00	258.00	246.00	262.00	276.00	281.00	282.00	271.00	272.00	282.00	280.00	268.00	256.00	247.00	245.00	242.00	234.00	232.00	229.00	222.00	221.00	224.00	220.00	219.00	219.00	226.00	248.00	258.00	262.00	268.00	271.00	260.00	270.00	285.00	289.00	279.00	271.00	279.00	277.00	267.00	249.00	273.00	269.00	268.00	262.00	272.00	274.00	267.00	252.00	257.00	262.00	271.00	275.00	277.00	271.00	271.00	269.00	269.00	265.00	265.00	266.00	262.00	247.00	245.00	245.00	239.00	234.00	225.00	219.00	213.00	209.00	207.00	222.00	248.00	255.00	257.00	239.00	232.00	230.00	232.00	231.00	226.00	224.00	224.00	220.00	202.00	200.00	202.00	203.00	204.00	201.00	202.00	219.00	222.00	218.00	214.00	219.00	228.00	239.00	242.00	244.00	243.00	239.00	218.00	218.00	221.00	220.00	201.00	199.00	205.00	204.00	206.00	210.00	212.00	211.00	212.00	213.00	208.00	204.00	201.00	198.00	192.00	187.00	176.00	172.00	171.00	173.00	174.00	174.00	172.00	177.00	187.00	193.00	191.00	184.00	179.00	177.00	176.00	176.00	172.00	175.00	174.00	172.00	173.00	173.00	171.00	167.00	173.00	171.00	170.00	171.00	172.00	172.00	171.00	172.00	172.00	172.00	172.00	172.00	174.00	174.00	175.00	176.00	177.00	178.00	176.00	177.00	177.00	177.00	177.00	183.00	184.00	183.00	183.00	185.00	188.00	190.00	191.00	193.00	197.00	199.00	198.00	199.00	200.00	201.00	203.00	204.00	206.00	210.00	214.00	217.00	217.00	215.00	208.00	206.00	203.00	199.00	201.00	194.00	199.00	207.00	228.00	242.00	241.00	234.00	229.00	238.00	226.00	224.00	225.00	232.00	264.00	263.00	256.00	246.00	248.00	266.00	266.00	261.00	254.00	267.00	271.00	280.00	283.00	280.00	271.00	278.00	282.00	285.00	284.00
210.00	198.00	196.00	226.00	244.00	241.00	233.00	232.00	239.00	241.00	239.00	232.00	228.00	226.00	219.00	216.00	220.00	215.00	215.00	215.00	222.00	219.00	217.00	227.00	250.00	257.00	262.00	258.00	246.00	262.00	276.00	281.00	282.00	271.00	272.00	282.00	280.00	268.00	256.00	247.00	245.00	242.00	234.00	232.00	229.00	222.00	221.00	224.00	220.00	219.00	219.00	226.00	248.00	258.00	262.00	268.00	271.00	260.00	270.00	285.00	289.00	279.00	271.00	279.00	277.00	267.00	249.00	273.00	269.00	268.00	262.00	272.00	274.00	267.00	252.00	257.00	262.00	271.00	275.00	277.00	271.00	271.00	269.00	269.00	265.00	265.00	266.00	262.00	247.00	245.00	245.00	239.00	234.00	225.00	219.00	213.00	209.00	207.00	222.00	248.00	255.00	257.00	239.00	232.00	230.00	232.00	231.00	226.00	224.00	224.00	220.00	202.00	200.00	202.00	203.00	204.00	201.00	202.00	219.00	222.00	218.00	214.00	219.00	228.00	239.00	242.00	244.00	243.00	239.00	218.00	218.00	221.00	220.00	201.00	199.00	205.00	204.00	206.00	210.00	212.00	211.00	212.00	213.00	208.00	204.00	201.00	198.00	192.00	187.00	176.00	172.00	171.00	173.00	174.00	174.00	172.00	177.00	187.00	193.00	191.00	184.00	179.00	177.00	176.00	176.00	172.00	175.00	174.00	172.00	173.00	173.00	171.00	167.00	173.00	171.00	170.00	171.00	172.00	172.00	171.00	172.00	172.00	172.00	172.00	172.00	174.00	174.00	175.00	176.00	177.00	178.00	176.00	177.00	177.00	177.00	177.00	183.00	184.00	183.00	183.00	185.00	188.00	190.00	191.00	193.00	197.00	199.00	198.00	199.00	200.00	201.00	203.00	204.00	206.00	210.00	214.00	217.00	217.00	215.00	208.00	206.00	203.00	199.00	201.00	194.00	199.00	207.00	228.00	242.00	241.00	234.00	229.00	238.00	226.00	224.00	225.00	232.00	264.00	263.00	256.00	246.00	248.00	266.00	266.00	261.00	254.00	267.00	271.00	280.00	283.00	280.00	271.00	278.00	282.00	285.00	284.00
201.00	197.00	199.00	200.00	207.00	212.00	211.00	208.00	205.00	208.00	212.00	211.00	214.00	210.00	212.00	218.00	224.00	231.00	232.00	228.00	232.00	224.00	219.00	237.00	249.00	256.00	265.00	267.00	259.00	269.00	280.00	279.00	276.00	272.00	274.00	266.00	255.00	255.00	256.00	255.00	251.00	242.00	231.00	226.00	222.00	220.00	215.00	214.00	230.00	229.00	224.00	225.00	237.00	264.00	270.00	274.00	277.00	272.00	285.00	287.00	285.00	280.00	273.00	271.00	269.00	262.00	275.00	276.00	270.00	264.00	264.00	277.00	280.00	272.00	251.00	268.00	262.00	266.00	268.00	270.00	269.00	269.00	267.00	266.00	268.00	266.00	265.00	265.00	256.00	239.00	232.00	229.00	228.00	216.00	210.00	213.00	226.00	234.00	238.00	246.00	253.00	249.00	231.00	232.00	228.00	223.00	216.00	210.00	206.00	205.00	207.00	215.00	219.00	218.00	210.00	205.00	207.00	206.00	218.00	222.00	224.00	225.00	225.00	233.00	240.00	239.00	236.00	234.00	232.00	225.00	221.00	213.00	211.00	202.00	199.00	198.00	197.00	193.00	201.00	200.00	200.00	203.00	202.00	195.00	196.00	194.00	193.00	187.00	179.00	177.00	175.00	179.00	179.00	175.00	176.00	172.00	177.00	183.00	187.00	181.00	178.00	176.00	171.00	178.00	173.00	176.00	174.00	174.00	173.00	176.00	176.00	172.00	169.00	169.00	168.00	168.00	171.00	172.00	172.00	172.00	173.00	173.00	174.00	173.00	173.00	174.00	174.00	176.00	177.00	179.00	180.00	180.00	180.00	182.00	183.00	183.00	185.00	185.00	185.00	186.00	187.00	190.00	190.00	190.00	192.00	197.00	200.00	203.00	205.00	208.00	211.00	214.00	214.00	212.00	214.00	217.00	221.00	222.00	220.00	216.00	213.00	209.00	203.00	208.00	200.00	201.00	221.00	232.00	214.00	206.00	204.00	209.00	210.00	209.00	211.00	212.00	214.00	243.00	235.00	225.00	219.00	216.00	232.00	259.00	258.00	263.00	279.00	276.00	266.00	264.00	261.00	258.00	264.00	269.00	282.00	293.00
201.00	197.00	199.00	200.00	207.00	212.00	211.00	208.00	205.00	208.00	212.00	211.00	214.00	210.00	212.00	218.00	224.00	231.00	232.00	228.00	232.00	224.00	219.00	237.00	249.00	256.00	265.00	267.00	259.00	269.00	280.00	279.00	276.00	272.00	274.00	266.00	255.00	255.00	256.00	255.00	251.00	242.00	231.00	226.00	222.00	220.00	215.00	214.00	230.00	229.00	224.00	225.00	237.00	264.00	270.00	274.00	277.00	272.00	285.00	287.00	285.00	280.00	273.00	271.00	269.00	262.00	275.00	276.00	270.00	264.00	264.00	277.00	280.00	272.00	251.00	268.00	262.00	266.00	268.00	270.00	269.00	269.00	267.00	266.00	268.00	266.00	265.00	265.00	256.00	239.00	232.00	229.00	228.00	216.00	210.00	213.00	226.00	234.00	238.00	246.00	253.00	249.00	231.00	232.00	228.00	223.00	216.00	210.00	206.00	205.00	207.00	215.00	219.00	218.00	210.00	205.00	207.00	206.00	218.00	222.00	224.00	225.00	225.00	233.00	240.00	239.00	236.00	234.00	232.00	225.00	221.00	213.00	211.00	202.00	199.00	198.00	197.00	193.00	201.00	200.00	200.00	203.00	202.00	195.00	196.00	194.00	193.00	187.00	179.00	177.00	175.00	179.00	179.00	175.00	176.00	172.00	177.00	183.00	187.00	181.00	178.00	176.00	171.00	178.00	173.00	176.00	174.00	174.00	173.00	176.00	176.00	172.00	169.00	169.00	168.00	168.00	171.00	172.00	172.00	172.00	173.00	173.00	174.00	173.00	173.00	174.00	174.00	176.00	177.00	179.00	180.00	180.00	180.00	182.00	183.00	183.00	185.00	185.00	185.00	186.00	187.00	190.00	190.00	190.00	192.00	197.00	200.00	203.00	205.00	208.00	211.00	214.00	214.00	212.00	214.00	217.00	221.00	222.00	220.00	216.00	213.00	209.00	203.00	208.00	200.00	201.00	221.00	232.00	214.00	206.00	204.00	209.00	210.00	209.00	211.00	212.00	214.00	243.00	235.00	225.00	219.00	216.00	232.00	259.00	258.00	263.00	279.00	276.00	266.00	264.00	261.00	258.00	264.00	269.00	282.00	293.00
215.00	213.00	210.00	209.00	205.00	207.00	211.00	216.00	210.00	225.00	235.00	236.00	221.00	216.00	218.00	233.00	239.00	242.00	241.00	241.00	241.00	236.00	230.00	247.00	254.00	260.00	268.00	274.00	262.00	269.00	269.00	262.00	260.00	256.00	252.00	249.00	248.00	246.00	248.00	246.00	241.00	237.00	230.00	221.00	215.00	213.00	214.00	221.00	241.00	237.00	230.00	230.00	231.00	263.00	271.00	277.00	281.00	286.00	285.00	279.00	275.00	270.00	268.00	267.00	269.00	270.00	271.00	270.00	261.00	250.00	266.00	280.00	276.00	270.00	265.00	260.00	249.00	256.00	264.00	264.00	257.00	258.00	261.00	265.00	266.00	265.00	259.00	254.00	249.00	241.00	234.00	222.00	218.00	211.00	212.00	217.00	228.00	236.00	250.00	246.00	240.00	232.00	222.00	224.00	220.00	216.00	208.00	216.00	218.00	224.00	229.00	231.00	222.00	212.00	212.00	220.00	215.00	212.00	219.00	228.00	241.00	245.00	239.00	234.00	226.00	227.00	229.00	229.00	227.00	225.00	223.00	222.00	222.00	214.00	211.00	206.00	201.00	197.00	185.00	184.00	182.00	182.00	184.00	179.00	181.00	178.00	178.00	175.00	175.00	176.00	179.00	193.00	192.00	187.00	180.00	172.00	176.00	178.00	179.00	179.00	176.00	176.00	172.00	175.00	174.00	178.00	177.00	178.00	176.00	174.00	174.00	174.00	173.00	171.00	171.00	170.00	168.00	172.00	172.00	173.00	173.00	172.00	172.00	174.00	173.00	173.00	173.00	178.00	180.00	181.00	180.00	182.00	185.00	185.00	185.00	185.00	187.00	188.00	188.00	188.00	188.00	187.00	189.00	191.00	193.00	198.00	204.00	207.00	209.00	212.00	215.00	217.00	218.00	220.00	222.00	224.00	228.00	229.00	228.00	221.00	213.00	205.00	209.00	212.00	208.00	206.00	203.00	202.00	209.00	213.00	216.00	219.00	225.00	228.00	227.00	222.00	218.00	217.00	218.00	219.00	219.00	217.00	218.00	236.00	253.00	243.00	257.00	251.00	246.00	253.00	271.00	280.00	286.00	292.00	281.00	300.00
219.00	224.00	227.00	232.00	236.00	238.00	235.00	226.00	220.00	215.00	240.00	239.00	223.00	218.00	225.00	243.00	247.00	245.00	245.00	248.00	248.00	253.00	249.00	239.00	251.00	261.00	276.00	275.00	267.00	264.00	250.00	245.00	239.00	238.00	242.00	223.00	229.00	244.00	235.00	228.00	228.00	225.00	222.00	216.00	208.00	221.00	236.00	237.00	247.00	242.00	239.00	240.00	245.00	250.00	261.00	276.00	283.00	283.00	280.00	273.00	270.00	266.00	266.00	263.00	261.00	262.00	264.00	259.00	253.00	249.00	251.00	267.00	267.00	268.00	261.00	248.00	242.00	256.00	258.00	259.00	249.00	253.00	259.00	260.00	264.00	262.00	257.00	252.00	248.00	236.00	232.00	218.00	215.00	221.00	229.00	224.00	228.00	242.00	249.00	244.00	237.00	220.00	214.00	214.00	213.00	211.00	226.00	231.00	232.00	235.00	235.00	214.00	213.00	223.00	230.00	227.00	226.00	227.00	234.00	244.00	250.00	248.00	227.00	220.00	221.00	224.00	224.00	223.00	224.00	226.00	224.00	223.00	218.00	203.00	196.00	190.00	187.00	186.00	189.00	193.00	192.00	192.00	189.00	181.00	176.00	176.00	176.00	187.00	188.00	192.00	202.00	204.00	205.00	208.00	204.00	187.00	171.00	174.00	177.00	175.00	174.00	175.00	171.00	174.00	176.00	174.00	176.00	176.00	176.00	176.00	173.00	173.00	172.00	172.00	170.00	169.00	171.00	172.00	172.00	173.00	173.00	173.00	173.00	173.00	172.00	173.00	172.00	175.00	177.00	180.00	181.00	183.00	184.00	185.00	186.00	186.00	187.00	187.00	187.00	188.00	189.00	191.00	189.00	190.00	194.00	200.00	207.00	210.00	214.00	216.00	219.00	220.00	223.00	226.00	232.00	234.00	238.00	239.00	238.00	223.00	212.00	216.00	218.00	215.00	214.00	212.00	207.00	213.00	224.00	227.00	230.00	233.00	239.00	239.00	237.00	232.00	228.00	223.00	222.00	221.00	220.00	218.00	218.00	221.00	246.00	232.00	229.00	232.00	256.00	267.00	289.00	295.00	295.00	296.00	296.00	300.00
225.00	224.00	228.00	235.00	239.00	241.00	241.00	231.00	223.00	221.00	238.00	242.00	230.00	233.00	245.00	256.00	261.00	255.00	257.00	254.00	254.00	263.00	254.00	253.00	265.00	274.00	281.00	279.00	273.00	268.00	258.00	254.00	251.00	240.00	225.00	217.00	215.00	222.00	237.00	221.00	214.00	212.00	207.00	207.00	220.00	239.00	247.00	246.00	253.00	245.00	244.00	244.00	259.00	251.00	264.00	274.00	281.00	279.00	276.00	273.00	271.00	269.00	265.00	264.00	264.00	266.00	264.00	259.00	254.00	247.00	250.00	264.00	266.00	265.00	258.00	242.00	238.00	247.00	248.00	245.00	245.00	252.00	255.00	256.00	259.00	256.00	252.00	250.00	248.00	238.00	232.00	222.00	216.00	233.00	236.00	232.00	235.00	244.00	247.00	245.00	238.00	223.00	227.00	229.00	228.00	222.00	235.00	237.00	234.00	225.00	222.00	227.00	230.00	238.00	240.00	239.00	246.00	246.00	245.00	244.00	242.00	242.00	238.00	229.00	209.00	214.00	215.00	216.00	219.00	217.00	213.00	206.00	200.00	192.00	196.00	199.00	201.00	200.00	199.00	198.00	196.00	193.00	185.00	176.00	182.00	190.00	198.00	204.00	204.00	207.00	210.00	214.00	215.00	218.00	215.00	208.00	173.00	171.00	171.00	174.00	175.00	172.00	174.00	175.00	175.00	175.00	175.00	178.00	173.00	173.00	174.00	173.00	172.00	172.00	170.00	169.00	172.00	172.00	173.00	172.00	173.00	172.00	173.00	172.00	173.00	172.00	174.00	173.00	175.00	179.00	180.00	178.00	184.00	186.00	187.00	187.00	187.00	188.00	189.00	188.00	190.00	189.00	189.00	191.00	196.00	204.00	212.00	214.00	214.00	215.00	219.00	222.00	225.00	229.00	237.00	241.00	247.00	248.00	240.00	217.00	225.00	227.00	225.00	219.00	214.00	210.00	210.00	221.00	230.00	236.00	241.00	247.00	249.00	245.00	239.00	234.00	234.00	226.00	224.00	223.00	222.00	220.00	219.00	225.00	237.00	227.00	239.00	256.00	267.00	277.00	289.00	290.00	278.00	268.00	280.00	291.00
225.00	224.00	228.00	235.00	239.00	241.00	241.00	231.00	223.00	221.00	238.00	242.00	230.00	233.00	245.00	256.00	261.00	255.00	257.00	254.00	254.00	263.00	254.00	253.00	265.00	274.00	281.00	279.00	273.00	268.00	258.00	254.00	251.00	240.00	225.00	217.00	215.00	222.00	237.00	221.00	214.00	212.00	207.00	207.00	220.00	239.00	247.00	246.00	253.00	245.00	244.00	244.00	259.00	251.00	264.00	274.00	281.00	279.00	276.00	273.00	271.00	269.00	265.00	264.00	264.00	266.00	264.00	259.00	254.00	247.00	250.00	264.00	266.00	265.00	258.00	242.00	238.00	247.00	248.00	245.00	245.00	252.00	255.00	256.00	259.00	256.00	252.00	250.00	248.00	238.00	232.00	222.00	216.00	233.00	236.00	232.00	235.00	244.00	247.00	245.00	238.00	223.00	227.00	229.00	228.00	222.00	235.00	237.00	234.00	225.00	222.00	227.00	230.00	238.00	240.00	239.00	246.00	246.00	245.00	244.00	242.00	242.00	238.00	229.00	209.00	214.00	215.00	216.00	219.00	217.00	213.00	206.00	200.00	192.00	196.00	199.00	201.00	200.00	199.00	198.00	196.00	193.00	185.00	176.00	182.00	190.00	198.00	204.00	204.00	207.00	210.00	214.00	215.00	218.00	215.00	208.00	173.00	171.00	171.00	174.00	175.00	172.00	174.00	175.00	175.00	175.00	175.00	178.00	173.00	173.00	174.00	173.00	172.00	172.00	170.00	169.00	172.00	172.00	173.00	172.00	173.00	172.00	173.00	172.00	173.00	172.00	174.00	173.00	175.00	179.00	180.00	178.00	184.00	186.00	187.00	187.00	187.00	188.00	189.00	188.00	190.00	189.00	189.00	191.00	196.00	204.00	212.00	214.00	214.00	215.00	219.00	222.00	225.00	229.00	237.00	241.00	247.00	248.00	240.00	217.00	225.00	227.00	225.00	219.00	214.00	210.00	210.00	221.00	230.00	236.00	241.00	247.00	249.00	245.00	239.00	234.00	234.00	226.00	224.00	223.00	222.00	220.00	219.00	225.00	237.00	227.00	239.00	256.00	267.00	277.00	289.00	290.00	278.00	268.00	280.00	291.00
