965.00	964.00	964.00	966.00	966.00	966.00	965.00	964.00	964.00	963.00	964.00	965.00	962.00	963.00	963.00	962.00	964.00	961.00	959.00	959.00	958.00	959.00	957.00	958.00	959.00	958.00	957.00	960.00	960.00	960.00	961.00	960.00	960.00	960.00	959.00	960.00	958.00	958.00	960.00	958.00	959.00	959.00	959.00	958.00	958.00	958.00	957.00	957.00	957.00	957.00	958.00	956.00	956.00	956.00	957.00	957.00	957.00	956.00	956.00	957.00	957.00	956.00	956.00	955.00	953.00	954.00	955.00	955.00	955.00	954.00	954.00	952.00	952.00	954.00	952.00	953.00	954.00	952.00	954.00	955.00	955.00	954.00	953.00	953.00	954.00	953.00	954.00	953.00	954.00	954.00	953.00	953.00	953.00	951.00	953.00	952.00	952.00	952.00	951.00	950.00	951.00	950.00	950.00	951.00	950.00	950.00	950.00	952.00	951.00	950.00	950.00	948.00	949.00	949.00	949.00	950.00	950.00	949.00	950.00	948.00	950.00	948.00	947.00	948.00	948.00	948.00	950.00	949.00	946.00	948.00	949.00	948.00	948.00	948.00	948.00	947.00	946.00	947.00	947.00	947.00	947.00	946.00	947.00	945.00	944.00	945.00	945.00	945.00	944.00	944.00	944.00	943.00	944.00	943.00	942.00	944.00	943.00	940.00	941.00	941.00	942.00	942.00	942.00	941.00	942.00	941.00	944.00	944.00	942.00	942.00	940.00	941.00	940.00	940.00	941.00	941.00	938.00	939.00	939.00	939.00	939.00	939.00	939.00	940.00	939.00	938.00	939.00	939.00	938.00	937.00	938.00	938.00	938.00	938.00	939.00	937.00	938.00	937.00	939.00	938.00	937.00	940.00	943.00	937.00	937.00	941.00	937.00	937.00	936.00	935.00	937.00	937.00	937.00	937.00	933.00	932.00	933.00	934.00	932.00	934.00	934.00	932.00	933.00	933.00	933.00	932.00	932.00	932.00	932.00	932.00	934.00	932.00	931.00	931.00	931.00	931.00	930.00	930.00	931.00	931.00	930.00	929.00	931.00	932.00	929.00	930.00	931.00	929.00	929.00	931.00	930.00	930.00	930.00	932.00	932.00	930.00
964.00	967.00	966.00	965.00	964.00	965.00	964.00	964.00	963.00	963.00	962.00	963.00	963.00	964.00	965.00	963.00	962.00	959.00	959.00	959.00	958.00	958.00	958.00	958.00	958.00	959.00	959.00	959.00	959.00	959.00	960.00	960.00	959.00	960.00	960.00	958.00	958.00	958.00	958.00	958.00	958.00	957.00	958.00	957.00	955.00	956.00	956.00	957.00	956.00	956.00	957.00	957.00	956.00	956.00	956.00	957.00	957.00	957.00	957.00	957.00	956.00	956.00	956.00	953.00	954.00	954.00	955.00	954.00	955.00	956.00	956.00	953.00	953.00	952.00	954.00	954.00	953.00	952.00	956.00	957.00	953.00	954.00	953.00	954.00	952.00	954.00	955.00	954.00	954.00	954.00	954.00	954.00	954.00	952.00	953.00	951.00	950.00	951.00	952.00	951.00	951.00	951.00	951.00	952.00	951.00	949.00	950.00	949.00	949.00	949.00	949.00	948.00	949.00	950.00	949.00	950.00	949.00	950.00	949.00	948.00	949.00	948.00	948.00	947.00	947.00	949.00	949.00	948.00	948.00	947.00	948.00	947.00	948.00	947.00	948.00	947.00	946.00	948.00	947.00	947.00	947.00	948.00	947.00	945.00	945.00	944.00	944.00	945.00	945.00	944.00	943.00	945.00	944.00	944.00	943.00	943.00	944.00	941.00	941.00	941.00	943.00	942.00	941.00	943.00	941.00	941.00	941.00	941.00	943.00	943.00	941.00	941.00	940.00	940.00	940.00	942.00	943.00	939.00	938.00	939.00	940.00	940.00	940.00	940.00	938.00	939.00	938.00	937.00	937.00	938.00	938.00	937.00	939.00	937.00	939.00	939.00	937.00	938.00	937.00	939.00	937.00	937.00	939.00	939.00	938.00	937.00	938.00	939.00	937.00	936.00	935.00	936.00	936.00	938.00	938.00	934.00	933.00	934.00	933.00	934.00	932.00	935.00	932.00	932.00	934.00	933.00	933.00	932.00	932.00	932.00	932.00	932.00	930.00	931.00	931.00	931.00	932.00	933.00	929.00	930.00	931.00	929.00	931.00	932.00	933.00	933.00	930.00	930.00	932.00	932.00	931.00	934.00	929.00	929.00	930.00	929.00
964.00	967.00	966.00	965.00	964.00	965.00	964.00	964.00	963.00	963.00	962.00	963.00	963.00	964.00	965.00	963.00	962.00	959.00	959.00	959.00	958.00	958.00	958.00	958.00	958.00	959.00	959.00	959.00	959.00	959.00	960.00	960.00	959.00	960.00	960.00	958.00	958.00	958.00	958.00	958.00	958.00	957.00	958.00	957.00	955.00	956.00	956.00	957.00	956.00	956.00	957.00	957.00	956.00	956.00	956.00	957.00	957.00	957.00	957.00	957.00	956.00	956.00	956.00	953.00	954.00	954.00	955.00	954.00	955.00	956.00	956.00	953.00	953.00	952.00	954.00	954.00	953.00	952.00	956.00	957.00	953.00	954.00	953.00	954.00	952.00	954.00	955.00	954.00	954.00	954.00	954.00	954.00	954.00	952.00	953.00	951.00	950.00	951.00	952.00	951.00	951.00	951.00	951.00	952.00	951.00	949.00	950.00	949.00	949.00	949.00	949.00	948.00	949.00	950.00	949.00	950.00	949.00	950.00	949.00	948.00	949.00	948.00	948.00	947.00	947.00	949.00	949.00	948.00	948.00	947.00	948.00	947.00	948.00	947.00	948.00	947.00	946.00	948.00	947.00	947.00	947.00	948.00	947.00	945.00	945.00	944.00	944.00	945.00	945.00	944.00	943.00	945.00	944.00	944.00	943.00	943.00	944.00	941.00	941.00	941.00	943.00	942.00	941.00	943.00	941.00	941.00	941.00	941.00	943.00	943.00	941.00	941.00	940.00	940.00	940.00	942.00	943.00	939.00	938.00	939.00	940.00	940.00	940.00	940.00	938.00	939.00	938.00	937.00	937.00	938.00	938.00	937.00	939.00	937.00	939.00	939.00	937.00	938.00	937.00	939.00	937.00	937.00	939.00	939.00	938.00	937.00	938.00	939.00	937.00	936.00	935.00	936.00	936.00	938.00	938.00	934.00	933.00	934.00	933.00	934.00	932.00	935.00	932.00	932.00	934.00	933.00	933.00	932.00	932.00	932.00	932.00	932.00	930.00	931.00	931.00	931.00	932.00	933.00	929.00	930.00	931.00	929.00	931.00	932.00	933.00	933.00	930.00	930.00	932.00	932.00	931.00	934.00	929.00	929.00	930.00	929.00
964.00	965.00	965.00	964.00	963.00	962.00	963.00	963.00	962.00	963.00	961.00	961.00	961.00	960.00	960.00	958.00	960.00	959.00	959.00	959.00	959.00	959.00	960.00	959.00	959.00	959.00	960.00	960.00	959.00	959.00	959.00	960.00	957.00	958.00	959.00	958.00	958.00	959.00	958.00	959.00	958.00	957.00	958.00	956.00	957.00	957.00	957.00	957.00	956.00	956.00	957.00	957.00	957.00	956.00	955.00	953.00	953.00	955.00	956.00	955.00	956.00	957.00	956.00	956.00	957.00	955.00	956.00	954.00	954.00	954.00	954.00	955.00	953.00	954.00	953.00	954.00	953.00	953.00	953.00	954.00	956.00	954.00	954.00	954.00	955.00	954.00	954.00	953.00	953.00	952.00	951.00	952.00	953.00	950.00	951.00	949.00	950.00	951.00	951.00	952.00	951.00	950.00	950.00	951.00	951.00	951.00	950.00	949.00	949.00	951.00	950.00	950.00	950.00	950.00	949.00	950.00	949.00	949.00	949.00	949.00	950.00	949.00	950.00	949.00	949.00	949.00	947.00	948.00	950.00	949.00	948.00	950.00	948.00	948.00	947.00	947.00	948.00	948.00	947.00	947.00	946.00	946.00	946.00	946.00	946.00	944.00	946.00	944.00	944.00	943.00	942.00	943.00	943.00	943.00	943.00	943.00	940.00	943.00	942.00	941.00	941.00	941.00	942.00	940.00	941.00	941.00	941.00	941.00	939.00	942.00	940.00	941.00	939.00	940.00	939.00	939.00	940.00	940.00	939.00	939.00	939.00	939.00	938.00	939.00	940.00	940.00	938.00	938.00	939.00	938.00	941.00	938.00	939.00	938.00	937.00	937.00	937.00	938.00	938.00	937.00	937.00	937.00	938.00	938.00	937.00	937.00	939.00	937.00	941.00	935.00	934.00	935.00	935.00	934.00	935.00	936.00	935.00	935.00	934.00	935.00	933.00	934.00	934.00	937.00	932.00	931.00	934.00	936.00	933.00	933.00	931.00	933.00	933.00	931.00	931.00	931.00	935.00	935.00	932.00	931.00	932.00	928.00	929.00	929.00	928.00	929.00	931.00	932.00	931.00	931.00	931.00	929.00	930.00	930.00	930.00	930.00
964.00	964.00	964.00	964.00	963.00	963.00	963.00	963.00	962.00	962.00	962.00	960.00	960.00	960.00	959.00	959.00	959.00	959.00	959.00	959.00	959.00	959.00	959.00	958.00	960.00	960.00	960.00	959.00	959.00	960.00	960.00	960.00	958.00	958.00	959.00	957.00	959.00	957.00	958.00	958.00	958.00	957.00	957.00	958.00	958.00	957.00	956.00	957.00	956.00	956.00	957.00	957.00	957.00	956.00	954.00	953.00	952.00	956.00	956.00	955.00	956.00	957.00	956.00	955.00	956.00	955.00	954.00	953.00	954.00	954.00	952.00	953.00	952.00	952.00	953.00	954.00	953.00	955.00	955.00	954.00	954.00	953.00	953.00	952.00	951.00	952.00	954.00	952.00	953.00	951.00	952.00	953.00	950.00	950.00	952.00	952.00	951.00	952.00	953.00	952.00	953.00	952.00	951.00	952.00	951.00	951.00	950.00	950.00	950.00	949.00	951.00	951.00	950.00	949.00	950.00	950.00	949.00	949.00	950.00	950.00	950.00	949.00	949.00	950.00	950.00	949.00	950.00	948.00	948.00	949.00	949.00	948.00	949.00	948.00	948.00	947.00	946.00	947.00	947.00	947.00	946.00	946.00	945.00	946.00	946.00	945.00	945.00	944.00	943.00	944.00	944.00	943.00	943.00	942.00	943.00	942.00	942.00	942.00	941.00	941.00	941.00	942.00	942.00	942.00	942.00	941.00	940.00	942.00	940.00	939.00	939.00	940.00	938.00	939.00	939.00	940.00	938.00	939.00	940.00	941.00	940.00	940.00	938.00	939.00	939.00	939.00	938.00	938.00	938.00	937.00	937.00	939.00	939.00	939.00	938.00	937.00	938.00	938.00	939.00	937.00	937.00	937.00	937.00	936.00	937.00	938.00	940.00	940.00	939.00	941.00	937.00	933.00	935.00	935.00	934.00	933.00	935.00	933.00	932.00	934.00	936.00	935.00	933.00	933.00	935.00	934.00	937.00	933.00	933.00	934.00	933.00	933.00	932.00	932.00	931.00	931.00	930.00	931.00	934.00	937.00	936.00	930.00	930.00	930.00	929.00	930.00	929.00	930.00	930.00	930.00	931.00	930.00	929.00	930.00	932.00	931.00
964.00	964.00	965.00	963.00	964.00	962.00	963.00	962.00	961.00	962.00	962.00	960.00	960.00	959.00	960.00	960.00	959.00	959.00	960.00	959.00	959.00	959.00	960.00	959.00	960.00	960.00	957.00	958.00	960.00	959.00	960.00	959.00	959.00	957.00	958.00	958.00	959.00	958.00	958.00	957.00	957.00	958.00	958.00	956.00	958.00	956.00	957.00	957.00	957.00	958.00	957.00	958.00	957.00	957.00	957.00	954.00	955.00	957.00	954.00	955.00	955.00	956.00	957.00	955.00	954.00	954.00	954.00	953.00	953.00	953.00	952.00	953.00	954.00	952.00	954.00	954.00	955.00	954.00	954.00	955.00	953.00	953.00	951.00	953.00	953.00	953.00	955.00	952.00	952.00	951.00	951.00	952.00	951.00	950.00	951.00	952.00	952.00	952.00	952.00	952.00	951.00	951.00	951.00	950.00	952.00	950.00	950.00	950.00	950.00	951.00	949.00	949.00	949.00	950.00	950.00	949.00	950.00	951.00	950.00	951.00	951.00	950.00	950.00	950.00	950.00	950.00	950.00	949.00	947.00	950.00	950.00	949.00	950.00	948.00	947.00	947.00	947.00	947.00	946.00	947.00	945.00	946.00	945.00	946.00	945.00	945.00	944.00	945.00	945.00	944.00	944.00	945.00	943.00	943.00	943.00	943.00	943.00	944.00	942.00	943.00	944.00	943.00	943.00	942.00	941.00	940.00	940.00	942.00	941.00	939.00	939.00	941.00	940.00	938.00	939.00	939.00	939.00	940.00	938.00	939.00	939.00	939.00	939.00	940.00	938.00	939.00	938.00	938.00	939.00	937.00	938.00	938.00	938.00	938.00	940.00	938.00	936.00	937.00	938.00	939.00	937.00	938.00	937.00	937.00	936.00	937.00	938.00	941.00	939.00	942.00	935.00	933.00	935.00	937.00	934.00	934.00	933.00	934.00	935.00	934.00	933.00	934.00	937.00	933.00	936.00	932.00	932.00	933.00	932.00	933.00	931.00	933.00	933.00	933.00	934.00	931.00	931.00	930.00	930.00	930.00	934.00	938.00	934.00	931.00	930.00	930.00	928.00	930.00	929.00	930.00	931.00	930.00	932.00	932.00	933.00	935.00
965.00	964.00	963.00	963.00	962.00	963.00	962.00	962.00	962.00	961.00	961.00	960.00	959.00	959.00	959.00	959.00	958.00	960.00	960.00	960.00	960.00	959.00	960.00	959.00	960.00	960.00	960.00	958.00	959.00	959.00	959.00	960.00	955.00	956.00	957.00	959.00	958.00	958.00	959.00	957.00	957.00	957.00	957.00	958.00	956.00	956.00	957.00	957.00	958.00	957.00	958.00	956.00	957.00	957.00	957.00	955.00	956.00	956.00	956.00	956.00	956.00	956.00	956.00	954.00	954.00	955.00	954.00	950.00	954.00	953.00	953.00	953.00	953.00	954.00	954.00	953.00	954.00	955.00	953.00	954.00	952.00	951.00	952.00	954.00	952.00	951.00	954.00	954.00	952.00	951.00	952.00	953.00	950.00	952.00	952.00	952.00	953.00	953.00	953.00	953.00	954.00	952.00	952.00	950.00	951.00	951.00	950.00	950.00	950.00	951.00	951.00	949.00	951.00	951.00	950.00	951.00	950.00	950.00	952.00	951.00	950.00	949.00	949.00	949.00	949.00	950.00	949.00	949.00	948.00	947.00	947.00	947.00	948.00	948.00	947.00	946.00	948.00	946.00	947.00	946.00	946.00	947.00	946.00	945.00	946.00	945.00	945.00	944.00	944.00	943.00	944.00	943.00	943.00	944.00	944.00	943.00	943.00	942.00	941.00	942.00	941.00	942.00	942.00	942.00	942.00	942.00	941.00	940.00	941.00	939.00	939.00	938.00	940.00	940.00	939.00	939.00	939.00	938.00	942.00	940.00	939.00	938.00	939.00	938.00	939.00	938.00	940.00	938.00	938.00	939.00	936.00	937.00	938.00	938.00	938.00	939.00	940.00	937.00	938.00	937.00	938.00	937.00	938.00	937.00	936.00	937.00	937.00	938.00	940.00	938.00	937.00	937.00	933.00	937.00	935.00	933.00	934.00	933.00	934.00	933.00	935.00	934.00	934.00	934.00	933.00	934.00	932.00	933.00	937.00	931.00	931.00	932.00	932.00	930.00	931.00	932.00	932.00	930.00	930.00	931.00	931.00	929.00	933.00	929.00	930.00	927.00	929.00	927.00	930.00	932.00	931.00	932.00	930.00	930.00	930.00	930.00
964.00	963.00	964.00	964.00	963.00	963.00	963.00	961.00	961.00	961.00	960.00	960.00	959.00	959.00	959.00	960.00	960.00	959.00	959.00	959.00	961.00	960.00	960.00	959.00	960.00	960.00	960.00	960.00	960.00	958.00	958.00	959.00	957.00	957.00	958.00	959.00	958.00	958.00	957.00	959.00	957.00	958.00	958.00	957.00	956.00	958.00	958.00	958.00	957.00	957.00	958.00	957.00	957.00	957.00	958.00	957.00	957.00	956.00	955.00	955.00	956.00	957.00	955.00	954.00	955.00	955.00	954.00	952.00	951.00	953.00	953.00	953.00	953.00	954.00	953.00	955.00	954.00	954.00	954.00	952.00	953.00	953.00	957.00	952.00	953.00	954.00	952.00	954.00	953.00	951.00	952.00	953.00	952.00	952.00	953.00	951.00	951.00	952.00	953.00	951.00	952.00	952.00	952.00	951.00	950.00	950.00	951.00	949.00	950.00	951.00	950.00	951.00	951.00	950.00	951.00	951.00	950.00	951.00	950.00	949.00	948.00	949.00	948.00	948.00	948.00	948.00	949.00	948.00	948.00	947.00	948.00	948.00	948.00	948.00	947.00	947.00	946.00	948.00	947.00	947.00	946.00	946.00	946.00	945.00	945.00	945.00	944.00	944.00	945.00	945.00	945.00	944.00	943.00	944.00	944.00	943.00	944.00	942.00	944.00	942.00	942.00	940.00	942.00	941.00	941.00	942.00	941.00	940.00	939.00	939.00	940.00	938.00	939.00	938.00	939.00	940.00	938.00	938.00	940.00	940.00	939.00	937.00	938.00	938.00	938.00	939.00	938.00	938.00	938.00	938.00	937.00	937.00	938.00	937.00	938.00	939.00	937.00	936.00	937.00	937.00	937.00	937.00	936.00	937.00	938.00	937.00	937.00	936.00	938.00	942.00	939.00	937.00	934.00	932.00	939.00	936.00	934.00	934.00	933.00	933.00	932.00	932.00	932.00	933.00	933.00	935.00	932.00	933.00	933.00	934.00	931.00	932.00	931.00	935.00	934.00	929.00	931.00	934.00	934.00	932.00	930.00	931.00	931.00	935.00	928.00	930.00	930.00	930.00	929.00	930.00	932.00	930.00	930.00	929.00	931.00	931.00
964.00	963.00	964.00	963.00	963.00	962.00	961.00	961.00	960.00	960.00	960.00	959.00	959.00	959.00	959.00	959.00	959.00	959.00	959.00	959.00	960.00	960.00	960.00	960.00	960.00	959.00	960.00	959.00	959.00	959.00	958.00	959.00	958.00	959.00	959.00	958.00	958.00	957.00	958.00	958.00	958.00	957.00	957.00	957.00	957.00	957.00	957.00	957.00	956.00	956.00	956.00	956.00	957.00	957.00	958.00	956.00	958.00	956.00	955.00	954.00	954.00	955.00	954.00	953.00	953.00	954.00	955.00	954.00	953.00	953.00	954.00	953.00	952.00	954.00	952.00	955.00	956.00	953.00	955.00	952.00	956.00	955.00	955.00	953.00	954.00	953.00	953.00	952.00	951.00	951.00	951.00	952.00	951.00	953.00	952.00	952.00	953.00	953.00	952.00	951.00	951.00	952.00	952.00	952.00	951.00	950.00	951.00	950.00	951.00	951.00	951.00	950.00	949.00	951.00	951.00	951.00	950.00	949.00	949.00	949.00	948.00	949.00	948.00	948.00	949.00	948.00	948.00	947.00	948.00	948.00	949.00	947.00	948.00	948.00	948.00	947.00	946.00	948.00	947.00	946.00	946.00	946.00	946.00	946.00	946.00	945.00	945.00	945.00	945.00	944.00	944.00	943.00	944.00	944.00	944.00	944.00	944.00	941.00	942.00	943.00	941.00	943.00	941.00	943.00	943.00	940.00	941.00	940.00	939.00	939.00	940.00	939.00	939.00	940.00	939.00	938.00	939.00	939.00	938.00	938.00	939.00	941.00	942.00	938.00	937.00	938.00	938.00	939.00	939.00	937.00	937.00	937.00	943.00	939.00	938.00	937.00	940.00	937.00	940.00	937.00	937.00	937.00	937.00	937.00	937.00	937.00	936.00	937.00	937.00	940.00	935.00	936.00	936.00	936.00	931.00	937.00	934.00	938.00	936.00	932.00	934.00	933.00	932.00	932.00	933.00	932.00	933.00	932.00	932.00	933.00	936.00	935.00	930.00	931.00	933.00	931.00	931.00	931.00	931.00	930.00	934.00	932.00	930.00	930.00	934.00	930.00	928.00	929.00	929.00	929.00	933.00	932.00	930.00	930.00	932.00	931.00
964.00	963.00	963.00	963.00	962.00	961.00	962.00	961.00	960.00	959.00	959.00	960.00	959.00	959.00	959.00	959.00	960.00	959.00	960.00	959.00	959.00	960.00	960.00	960.00	960.00	960.00	960.00	960.00	960.00	959.00	959.00	959.00	958.00	958.00	959.00	958.00	959.00	959.00	957.00	957.00	957.00	956.00	955.00	957.00	957.00	957.00	957.00	957.00	956.00	956.00	957.00	957.00	956.00	955.00	956.00	955.00	956.00	956.00	955.00	955.00	955.00	954.00	954.00	953.00	953.00	954.00	953.00	953.00	953.00	954.00	953.00	954.00	954.00	955.00	954.00	957.00	954.00	955.00	955.00	954.00	954.00	954.00	953.00	954.00	953.00	953.00	954.00	953.00	953.00	951.00	952.00	953.00	952.00	952.00	952.00	952.00	951.00	952.00	951.00	951.00	951.00	950.00	952.00	951.00	951.00	951.00	952.00	951.00	950.00	951.00	951.00	951.00	951.00	948.00	951.00	951.00	949.00	948.00	949.00	948.00	947.00	948.00	948.00	948.00	948.00	947.00	948.00	947.00	948.00	947.00	948.00	948.00	947.00	947.00	947.00	948.00	947.00	950.00	946.00	947.00	946.00	946.00	946.00	946.00	946.00	944.00	946.00	945.00	945.00	945.00	944.00	944.00	944.00	944.00	943.00	943.00	944.00	941.00	943.00	941.00	941.00	941.00	942.00	941.00	941.00	940.00	940.00	939.00	941.00	941.00	940.00	940.00	938.00	938.00	939.00	941.00	940.00	939.00	939.00	939.00	937.00	938.00	941.00	938.00	936.00	937.00	938.00	938.00	938.00	938.00	936.00	936.00	937.00	939.00	939.00	937.00	941.00	937.00	936.00	936.00	937.00	937.00	937.00	938.00	937.00	938.00	937.00	936.00	937.00	939.00	939.00	934.00	938.00	935.00	935.00	934.00	933.00	934.00	934.00	933.00	932.00	934.00	933.00	933.00	932.00	932.00	933.00	931.00	932.00	931.00	931.00	931.00	933.00	934.00	933.00	934.00	932.00	933.00	930.00	931.00	933.00	931.00	933.00	931.00	931.00	932.00	929.00	931.00	930.00	929.00	929.00	931.00	931.00	932.00	931.00	932.00
964.00	963.00	963.00	962.00	962.00	962.00	962.00	961.00	961.00	959.00	959.00	961.00	962.00	960.00	960.00	959.00	960.00	960.00	960.00	960.00	960.00	960.00	960.00	960.00	960.00	960.00	959.00	960.00	959.00	959.00	959.00	958.00	958.00	958.00	959.00	957.00	957.00	958.00	957.00	957.00	958.00	956.00	955.00	956.00	957.00	956.00	956.00	956.00	956.00	955.00	957.00	957.00	956.00	957.00	955.00	954.00	955.00	957.00	955.00	953.00	954.00	954.00	954.00	954.00	953.00	954.00	954.00	953.00	954.00	954.00	955.00	954.00	953.00	955.00	956.00	956.00	956.00	954.00	954.00	954.00	954.00	954.00	953.00	955.00	953.00	952.00	952.00	952.00	951.00	951.00	951.00	950.00	953.00	951.00	953.00	951.00	951.00	951.00	951.00	951.00	952.00	951.00	951.00	951.00	952.00	951.00	951.00	951.00	950.00	951.00	950.00	950.00	950.00	951.00	949.00	949.00	948.00	948.00	948.00	947.00	948.00	948.00	947.00	947.00	947.00	948.00	947.00	947.00	946.00	946.00	946.00	947.00	947.00	947.00	948.00	947.00	947.00	948.00	946.00	948.00	946.00	946.00	945.00	946.00	945.00	946.00	946.00	944.00	945.00	944.00	944.00	944.00	942.00	942.00	942.00	943.00	943.00	944.00	942.00	942.00	943.00	940.00	940.00	940.00	942.00	940.00	939.00	940.00	938.00	938.00	939.00	941.00	940.00	940.00	939.00	938.00	939.00	939.00	938.00	938.00	938.00	938.00	938.00	941.00	939.00	938.00	938.00	940.00	938.00	937.00	936.00	936.00	936.00	937.00	936.00	937.00	938.00	940.00	938.00	936.00	936.00	937.00	936.00	937.00	937.00	938.00	936.00	936.00	936.00	937.00	940.00	942.00	936.00	936.00	936.00	936.00	936.00	933.00	934.00	934.00	934.00	932.00	933.00	933.00	932.00	932.00	931.00	934.00	931.00	932.00	933.00	933.00	930.00	933.00	935.00	933.00	938.00	930.00	933.00	930.00	930.00	930.00	932.00	931.00	930.00	932.00	929.00	930.00	932.00	930.00	928.00	928.00	931.00	932.00	931.00	932.00
963.00	963.00	962.00	962.00	961.00	962.00	961.00	960.00	960.00	959.00	960.00	961.00	960.00	960.00	960.00	959.00	960.00	959.00	960.00	961.00	961.00	961.00	960.00	961.00	960.00	960.00	958.00	959.00	959.00	958.00	959.00	958.00	958.00	958.00	958.00	958.00	958.00	958.00	955.00	957.00	956.00	956.00	957.00	956.00	957.00	957.00	956.00	955.00	956.00	957.00	956.00	957.00	956.00	955.00	954.00	955.00	954.00	955.00	953.00	954.00	954.00	953.00	955.00	954.00	952.00	953.00	954.00	952.00	954.00	953.00	956.00	954.00	955.00	954.00	955.00	955.00	955.00	954.00	952.00	954.00	951.00	955.00	954.00	952.00	952.00	952.00	950.00	951.00	951.00	952.00	953.00	953.00	952.00	951.00	951.00	951.00	951.00	951.00	951.00	950.00	951.00	950.00	950.00	950.00	951.00	951.00	950.00	950.00	949.00	950.00	949.00	949.00	949.00	949.00	949.00	949.00	948.00	948.00	947.00	947.00	948.00	948.00	947.00	948.00	947.00	947.00	948.00	947.00	947.00	946.00	947.00	947.00	946.00	946.00	947.00	945.00	945.00	947.00	946.00	947.00	944.00	944.00	945.00	944.00	945.00	945.00	944.00	944.00	944.00	943.00	943.00	943.00	944.00	943.00	942.00	943.00	942.00	944.00	942.00	941.00	942.00	940.00	941.00	940.00	940.00	940.00	939.00	940.00	940.00	939.00	939.00	940.00	941.00	939.00	938.00	937.00	939.00	938.00	938.00	940.00	939.00	938.00	938.00	943.00	941.00	939.00	938.00	938.00	937.00	939.00	937.00	939.00	938.00	937.00	937.00	937.00	938.00	938.00	937.00	937.00	937.00	937.00	937.00	937.00	937.00	937.00	936.00	936.00	936.00	937.00	938.00	938.00	940.00	934.00	936.00	932.00	933.00	935.00	932.00	934.00	933.00	933.00	932.00	933.00	932.00	932.00	932.00	934.00	930.00	931.00	930.00	931.00	931.00	930.00	930.00	931.00	931.00	934.00	941.00	933.00	933.00	931.00	933.00	933.00	930.00	929.00	934.00	932.00	931.00	934.00	929.00	930.00	931.00	930.00	930.00	932.00
963.00	962.00	962.00	962.00	962.00	963.00	961.00	960.00	960.00	961.00	959.00	960.00	961.00	961.00	961.00	961.00	961.00	960.00	961.00	961.00	961.00	961.00	960.00	960.00	960.00	960.00	959.00	959.00	958.00	959.00	958.00	957.00	958.00	958.00	958.00	958.00	958.00	957.00	958.00	957.00	958.00	957.00	957.00	956.00	958.00	956.00	955.00	958.00	955.00	955.00	955.00	956.00	957.00	954.00	955.00	954.00	956.00	955.00	958.00	955.00	954.00	955.00	953.00	954.00	952.00	953.00	953.00	951.00	953.00	952.00	956.00	952.00	953.00	954.00	955.00	955.00	955.00	955.00	955.00	954.00	955.00	955.00	953.00	952.00	952.00	951.00	951.00	952.00	951.00	951.00	950.00	950.00	951.00	951.00	951.00	951.00	951.00	951.00	951.00	950.00	951.00	950.00	950.00	950.00	950.00	950.00	949.00	949.00	949.00	949.00	950.00	949.00	948.00	948.00	949.00	948.00	948.00	948.00	947.00	949.00	948.00	948.00	949.00	948.00	948.00	948.00	948.00	948.00	947.00	946.00	946.00	947.00	947.00	946.00	946.00	946.00	946.00	946.00	948.00	949.00	950.00	946.00	945.00	945.00	944.00	945.00	945.00	945.00	945.00	944.00	943.00	944.00	944.00	943.00	943.00	943.00	943.00	942.00	942.00	941.00	942.00	942.00	941.00	939.00	941.00	940.00	940.00	939.00	940.00	940.00	939.00	939.00	941.00	942.00	940.00	938.00	937.00	937.00	938.00	938.00	936.00	937.00	938.00	939.00	942.00	940.00	941.00	939.00	939.00	938.00	937.00	939.00	938.00	940.00	938.00	938.00	939.00	938.00	936.00	936.00	937.00	937.00	937.00	936.00	935.00	937.00	936.00	936.00	936.00	936.00	936.00	937.00	936.00	938.00	939.00	933.00	935.00	933.00	936.00	932.00	933.00	933.00	932.00	932.00	933.00	933.00	933.00	932.00	933.00	930.00	931.00	932.00	931.00	933.00	933.00	930.00	929.00	929.00	933.00	933.00	930.00	933.00	933.00	932.00	934.00	931.00	931.00	933.00	935.00	932.00	931.00	930.00	929.00	929.00	931.00	929.00
962.00	962.00	962.00	961.00	961.00	962.00	962.00	962.00	961.00	961.00	959.00	959.00	960.00	961.00	962.00	961.00	960.00	960.00	960.00	960.00	960.00	961.00	960.00	959.00	961.00	961.00	962.00	959.00	959.00	958.00	959.00	959.00	958.00	957.00	959.00	956.00	958.00	959.00	958.00	957.00	957.00	957.00	956.00	957.00	956.00	956.00	957.00	955.00	957.00	955.00	957.00	955.00	955.00	954.00	954.00	954.00	954.00	955.00	953.00	954.00	954.00	955.00	954.00	954.00	953.00	953.00	952.00	954.00	954.00	954.00	955.00	953.00	955.00	955.00	955.00	954.00	956.00	955.00	955.00	953.00	956.00	953.00	955.00	955.00	952.00	951.00	950.00	951.00	951.00	952.00	952.00	951.00	950.00	950.00	951.00	950.00	950.00	949.00	950.00	949.00	949.00	951.00	950.00	950.00	950.00	950.00	949.00	949.00	949.00	950.00	950.00	949.00	948.00	949.00	948.00	947.00	948.00	948.00	948.00	947.00	947.00	947.00	947.00	947.00	947.00	947.00	947.00	948.00	947.00	947.00	946.00	946.00	946.00	947.00	946.00	946.00	946.00	945.00	948.00	946.00	947.00	945.00	945.00	944.00	944.00	945.00	945.00	944.00	943.00	944.00	943.00	944.00	942.00	944.00	944.00	943.00	944.00	941.00	941.00	941.00	942.00	940.00	940.00	939.00	940.00	939.00	939.00	940.00	940.00	940.00	941.00	940.00	940.00	940.00	938.00	939.00	939.00	938.00	938.00	936.00	938.00	938.00	938.00	938.00	937.00	938.00	940.00	940.00	940.00	937.00	938.00	938.00	938.00	937.00	938.00	938.00	937.00	936.00	936.00	937.00	937.00	937.00	936.00	936.00	936.00	936.00	937.00	936.00	935.00	936.00	937.00	937.00	936.00	936.00	938.00	936.00	934.00	934.00	934.00	933.00	934.00	933.00	934.00	933.00	932.00	930.00	930.00	931.00	931.00	933.00	931.00	931.00	931.00	931.00	932.00	934.00	934.00	933.00	930.00	933.00	930.00	929.00	930.00	928.00	933.00	933.00	930.00	930.00	931.00	930.00	930.00	932.00	931.00	931.00	929.00	930.00
962.00	962.00	962.00	961.00	962.00	961.00	960.00	960.00	961.00	960.00	961.00	961.00	962.00	961.00	961.00	961.00	962.00	961.00	961.00	959.00	961.00	960.00	960.00	960.00	960.00	960.00	960.00	960.00	959.00	958.00	959.00	960.00	959.00	958.00	958.00	958.00	957.00	957.00	958.00	957.00	958.00	957.00	957.00	956.00	958.00	957.00	956.00	958.00	956.00	956.00	955.00	955.00	956.00	954.00	955.00	954.00	955.00	952.00	954.00	953.00	954.00	955.00	952.00	952.00	952.00	953.00	954.00	953.00	953.00	951.00	953.00	955.00	954.00	953.00	955.00	953.00	954.00	955.00	954.00	954.00	954.00	953.00	953.00	954.00	953.00	952.00	953.00	952.00	953.00	953.00	951.00	951.00	951.00	951.00	950.00	952.00	950.00	950.00	950.00	951.00	950.00	951.00	949.00	950.00	950.00	949.00	950.00	950.00	949.00	949.00	948.00	948.00	949.00	949.00	950.00	949.00	948.00	947.00	948.00	947.00	947.00	947.00	947.00	947.00	947.00	947.00	947.00	947.00	947.00	947.00	948.00	947.00	946.00	947.00	946.00	947.00	946.00	945.00	945.00	947.00	946.00	946.00	944.00	944.00	945.00	945.00	944.00	944.00	946.00	945.00	943.00	943.00	943.00	943.00	942.00	944.00	944.00	942.00	943.00	942.00	939.00	939.00	941.00	940.00	941.00	940.00	940.00	940.00	941.00	940.00	939.00	938.00	938.00	939.00	937.00	939.00	938.00	938.00	938.00	938.00	937.00	938.00	938.00	938.00	938.00	938.00	939.00	939.00	940.00	937.00	938.00	937.00	936.00	938.00	937.00	938.00	938.00	939.00	938.00	935.00	937.00	936.00	937.00	936.00	936.00	936.00	935.00	936.00	936.00	935.00	937.00	937.00	937.00	937.00	937.00	935.00	936.00	936.00	938.00	934.00	934.00	933.00	933.00	934.00	932.00	932.00	934.00	932.00	931.00	930.00	931.00	930.00	932.00	931.00	930.00	930.00	933.00	931.00	932.00	931.00	932.00	931.00	931.00	932.00	930.00	932.00	933.00	932.00	930.00	930.00	929.00	932.00	932.00	935.00	928.00	928.00
961.00	961.00	961.00	961.00	961.00	960.00	960.00	960.00	960.00	962.00	961.00	961.00	960.00	961.00	961.00	961.00	959.00	961.00	961.00	962.00	960.00	961.00	960.00	960.00	959.00	960.00	960.00	958.00	958.00	959.00	959.00	959.00	960.00	959.00	960.00	958.00	957.00	958.00	958.00	958.00	958.00	957.00	958.00	955.00	955.00	955.00	955.00	957.00	956.00	957.00	957.00	955.00	956.00	954.00	955.00	955.00	954.00	951.00	953.00	953.00	954.00	954.00	953.00	953.00	953.00	953.00	954.00	954.00	953.00	954.00	953.00	954.00	954.00	955.00	955.00	956.00	954.00	956.00	955.00	954.00	953.00	952.00	951.00	952.00	952.00	952.00	952.00	952.00	952.00	953.00	952.00	953.00	952.00	950.00	952.00	951.00	951.00	951.00	950.00	950.00	950.00	950.00	949.00	949.00	949.00	949.00	950.00	949.00	950.00	949.00	949.00	949.00	949.00	947.00	948.00	949.00	948.00	948.00	947.00	948.00	948.00	948.00	948.00	948.00	947.00	947.00	947.00	947.00	947.00	946.00	947.00	946.00	946.00	947.00	945.00	946.00	946.00	946.00	945.00	945.00	945.00	945.00	944.00	945.00	945.00	945.00	944.00	943.00	944.00	945.00	945.00	943.00	945.00	945.00	943.00	942.00	943.00	942.00	942.00	939.00	940.00	941.00	939.00	940.00	941.00	938.00	937.00	941.00	939.00	939.00	940.00	940.00	939.00	937.00	939.00	938.00	938.00	936.00	937.00	938.00	936.00	936.00	937.00	938.00	938.00	939.00	939.00	938.00	938.00	939.00	938.00	939.00	938.00	937.00	937.00	937.00	937.00	937.00	937.00	938.00	936.00	936.00	936.00	936.00	936.00	936.00	936.00	935.00	936.00	936.00	935.00	936.00	937.00	938.00	937.00	936.00	939.00	939.00	938.00	935.00	935.00	935.00	932.00	935.00	935.00	934.00	931.00	935.00	932.00	932.00	931.00	930.00	932.00	931.00	932.00	931.00	930.00	929.00	931.00	931.00	931.00	930.00	932.00	929.00	930.00	930.00	937.00	931.00	932.00	931.00	932.00	930.00	930.00	933.00	929.00	929.00
962.00	962.00	961.00	962.00	961.00	961.00	962.00	961.00	961.00	961.00	961.00	961.00	962.00	961.00	961.00	962.00	961.00	959.00	961.00	961.00	961.00	960.00	959.00	958.00	958.00	958.00	959.00	959.00	960.00	959.00	960.00	958.00	959.00	958.00	959.00	960.00	958.00	958.00	958.00	957.00	958.00	958.00	958.00	958.00	958.00	957.00	957.00	957.00	956.00	956.00	955.00	955.00	955.00	955.00	954.00	955.00	954.00	952.00	953.00	953.00	953.00	954.00	954.00	954.00	954.00	953.00	952.00	956.00	952.00	953.00	953.00	954.00	954.00	954.00	953.00	955.00	955.00	955.00	955.00	955.00	952.00	953.00	953.00	951.00	951.00	953.00	954.00	953.00	954.00	953.00	953.00	952.00	951.00	952.00	951.00	950.00	952.00	949.00	951.00	952.00	952.00	951.00	949.00	950.00	950.00	950.00	951.00	950.00	949.00	949.00	950.00	949.00	949.00	949.00	948.00	947.00	948.00	947.00	946.00	947.00	949.00	948.00	947.00	948.00	947.00	948.00	947.00	947.00	947.00	946.00	948.00	946.00	947.00	945.00	946.00	946.00	946.00	945.00	945.00	945.00	945.00	945.00	945.00	945.00	943.00	944.00	945.00	943.00	943.00	944.00	944.00	943.00	944.00	943.00	944.00	945.00	943.00	943.00	944.00	943.00	941.00	940.00	939.00	940.00	941.00	938.00	937.00	939.00	941.00	940.00	939.00	938.00	939.00	939.00	936.00	937.00	937.00	937.00	938.00	938.00	937.00	937.00	938.00	936.00	938.00	938.00	937.00	938.00	938.00	938.00	937.00	938.00	936.00	937.00	937.00	937.00	937.00	938.00	937.00	939.00	937.00	937.00	936.00	937.00	935.00	936.00	935.00	937.00	937.00	935.00	935.00	935.00	936.00	937.00	939.00	939.00	937.00	939.00	939.00	935.00	933.00	934.00	934.00	933.00	932.00	932.00	933.00	934.00	936.00	933.00	932.00	933.00	930.00	930.00	930.00	931.00	931.00	932.00	930.00	929.00	930.00	929.00	931.00	931.00	929.00	930.00	933.00	930.00	932.00	932.00	932.00	932.00	932.00	932.00	934.00	933.00
961.00	960.00	961.00	961.00	961.00	962.00	962.00	961.00	960.00	960.00	961.00	961.00	962.00	962.00	961.00	961.00	962.00	961.00	962.00	960.00	961.00	960.00	960.00	961.00	959.00	960.00	959.00	960.00	957.00	957.00	960.00	958.00	959.00	958.00	958.00	958.00	958.00	958.00	958.00	958.00	957.00	957.00	958.00	958.00	958.00	956.00	958.00	956.00	956.00	955.00	955.00	955.00	955.00	953.00	954.00	953.00	953.00	952.00	953.00	953.00	954.00	954.00	954.00	955.00	954.00	954.00	954.00	954.00	955.00	955.00	954.00	954.00	953.00	954.00	953.00	954.00	953.00	955.00	954.00	955.00	953.00	952.00	953.00	951.00	953.00	953.00	953.00	953.00	953.00	952.00	953.00	953.00	952.00	951.00	953.00	952.00	950.00	950.00	951.00	950.00	950.00	951.00	950.00	950.00	950.00	951.00	951.00	948.00	950.00	950.00	948.00	949.00	947.00	948.00	947.00	947.00	947.00	947.00	947.00	947.00	949.00	948.00	947.00	947.00	948.00	947.00	947.00	945.00	945.00	947.00	947.00	947.00	947.00	946.00	946.00	946.00	944.00	945.00	944.00	946.00	946.00	945.00	944.00	945.00	944.00	945.00	944.00	944.00	944.00	943.00	943.00	944.00	943.00	943.00	942.00	943.00	942.00	941.00	941.00	942.00	942.00	940.00	939.00	939.00	940.00	945.00	939.00	940.00	939.00	939.00	940.00	938.00	938.00	938.00	938.00	936.00	937.00	937.00	936.00	938.00	938.00	936.00	938.00	937.00	935.00	940.00	941.00	938.00	938.00	938.00	938.00	937.00	937.00	937.00	937.00	937.00	937.00	938.00	936.00	939.00	937.00	938.00	938.00	937.00	938.00	937.00	935.00	935.00	937.00	935.00	935.00	936.00	936.00	935.00	937.00	935.00	932.00	936.00	937.00	937.00	933.00	933.00	933.00	935.00	932.00	935.00	931.00	932.00	933.00	931.00	932.00	929.00	931.00	930.00	930.00	931.00	931.00	931.00	932.00	931.00	930.00	930.00	931.00	931.00	931.00	930.00	932.00	932.00	932.00	932.00	930.00	933.00	930.00	930.00	934.00	935.00
962.00	961.00	961.00	962.00	961.00	962.00	963.00	962.00	962.00	962.00	962.00	962.00	962.00	962.00	961.00	962.00	961.00	961.00	961.00	961.00	960.00	961.00	960.00	960.00	959.00	960.00	959.00	959.00	960.00	959.00	958.00	959.00	959.00	959.00	958.00	959.00	957.00	957.00	956.00	957.00	957.00	957.00	956.00	957.00	958.00	958.00	957.00	956.00	956.00	955.00	955.00	954.00	954.00	954.00	953.00	954.00	954.00	954.00	953.00	951.00	952.00	955.00	955.00	956.00	954.00	953.00	955.00	956.00	954.00	955.00	955.00	954.00	956.00	953.00	953.00	954.00	953.00	952.00	951.00	954.00	951.00	951.00	952.00	952.00	953.00	953.00	952.00	953.00	954.00	952.00	951.00	952.00	952.00	951.00	950.00	950.00	950.00	950.00	950.00	951.00	950.00	950.00	951.00	950.00	949.00	950.00	952.00	950.00	949.00	950.00	950.00	949.00	948.00	948.00	948.00	948.00	948.00	948.00	947.00	947.00	947.00	947.00	948.00	948.00	948.00	948.00	948.00	947.00	947.00	946.00	946.00	948.00	946.00	946.00	946.00	945.00	945.00	944.00	944.00	943.00	944.00	945.00	944.00	943.00	944.00	943.00	944.00	944.00	944.00	943.00	943.00	943.00	942.00	941.00	942.00	942.00	942.00	942.00	941.00	941.00	943.00	941.00	940.00	939.00	941.00	940.00	942.00	940.00	939.00	938.00	939.00	943.00	939.00	937.00	939.00	939.00	939.00	937.00	938.00	939.00	938.00	937.00	937.00	936.00	937.00	938.00	938.00	941.00	937.00	938.00	937.00	938.00	937.00	937.00	937.00	937.00	936.00	937.00	937.00	936.00	940.00	937.00	939.00	938.00	937.00	938.00	935.00	935.00	935.00	937.00	936.00	935.00	935.00	937.00	936.00	936.00	934.00	934.00	935.00	937.00	936.00	934.00	935.00	935.00	933.00	933.00	932.00	933.00	931.00	935.00	932.00	933.00	930.00	932.00	934.00	930.00	931.00	929.00	930.00	930.00	928.00	930.00	931.00	931.00	931.00	933.00	930.00	930.00	930.00	932.00	932.00	932.00	931.00	929.00	930.00	930.00
961.00	961.00	962.00	962.00	962.00	962.00	962.00	962.00	963.00	962.00	963.00	962.00	962.00	961.00	961.00	962.00	962.00	961.00	961.00	961.00	960.00	961.00	960.00	959.00	960.00	959.00	960.00	958.00	959.00	959.00	959.00	959.00	958.00	959.00	960.00	958.00	958.00	958.00	958.00	957.00	957.00	956.00	956.00	956.00	956.00	956.00	955.00	955.00	956.00	955.00	956.00	954.00	954.00	954.00	954.00	954.00	958.00	952.00	953.00	951.00	953.00	954.00	956.00	953.00	958.00	956.00	955.00	954.00	954.00	957.00	954.00	954.00	954.00	952.00	954.00	953.00	953.00	954.00	953.00	953.00	954.00	953.00	952.00	953.00	952.00	954.00	953.00	952.00	952.00	950.00	952.00	952.00	951.00	952.00	951.00	952.00	949.00	951.00	949.00	947.00	949.00	950.00	951.00	951.00	950.00	950.00	950.00	949.00	949.00	950.00	949.00	949.00	947.00	950.00	949.00	948.00	948.00	948.00	947.00	947.00	948.00	948.00	947.00	947.00	948.00	947.00	948.00	948.00	947.00	947.00	946.00	950.00	948.00	947.00	948.00	946.00	945.00	945.00	944.00	943.00	943.00	944.00	945.00	945.00	946.00	945.00	945.00	943.00	944.00	943.00	943.00	943.00	942.00	943.00	942.00	942.00	941.00	942.00	941.00	942.00	942.00	944.00	948.00	943.00	940.00	940.00	940.00	940.00	940.00	939.00	939.00	939.00	941.00	941.00	937.00	937.00	936.00	938.00	937.00	938.00	938.00	937.00	938.00	938.00	937.00	936.00	937.00	939.00	940.00	938.00	937.00	937.00	936.00	936.00	937.00	938.00	937.00	936.00	937.00	936.00	938.00	937.00	935.00	937.00	937.00	937.00	936.00	937.00	936.00	936.00	936.00	936.00	936.00	936.00	935.00	937.00	935.00	935.00	934.00	935.00	935.00	936.00	934.00	935.00	935.00	934.00	933.00	933.00	931.00	931.00	933.00	931.00	931.00	930.00	931.00	935.00	931.00	932.00	930.00	930.00	931.00	931.00	931.00	929.00	930.00	931.00	929.00	930.00	930.00	930.00	931.00	932.00	931.00	933.00	930.00	930.00
962.00	961.00	961.00	962.00	962.00	962.00	962.00	962.00	962.00	962.00	963.00	963.00	963.00	961.00	962.00	962.00	961.00	961.00	961.00	961.00	960.00	961.00	961.00	961.00	960.00	961.00	960.00	960.00	959.00	959.00	959.00	960.00	959.00	959.00	959.00	961.00	959.00	958.00	959.00	958.00	958.00	957.00	957.00	955.00	955.00	956.00	955.00	956.00	956.00	955.00	956.00	955.00	953.00	953.00	954.00	954.00	955.00	954.00	953.00	954.00	954.00	955.00	952.00	954.00	956.00	955.00	956.00	953.00	955.00	955.00	953.00	955.00	953.00	953.00	953.00	954.00	953.00	953.00	954.00	952.00	952.00	953.00	952.00	953.00	953.00	952.00	954.00	953.00	951.00	952.00	954.00	952.00	954.00	952.00	952.00	952.00	951.00	950.00	950.00	950.00	951.00	950.00	950.00	951.00	951.00	950.00	949.00	949.00	949.00	949.00	950.00	948.00	950.00	948.00	948.00	947.00	949.00	949.00	948.00	948.00	949.00	948.00	947.00	949.00	948.00	947.00	947.00	948.00	947.00	947.00	947.00	946.00	948.00	949.00	949.00	945.00	945.00	945.00	945.00	945.00	944.00	944.00	944.00	944.00	943.00	944.00	945.00	943.00	943.00	942.00	943.00	942.00	943.00	941.00	942.00	941.00	942.00	942.00	941.00	942.00	941.00	942.00	942.00	944.00	941.00	939.00	944.00	942.00	938.00	939.00	941.00	941.00	941.00	940.00	937.00	941.00	939.00	938.00	937.00	938.00	937.00	937.00	938.00	938.00	937.00	938.00	937.00	938.00	939.00	936.00	937.00	937.00	939.00	938.00	938.00	937.00	938.00	937.00	937.00	937.00	937.00	937.00	936.00	935.00	936.00	937.00	937.00	937.00	934.00	936.00	934.00	936.00	935.00	935.00	935.00	934.00	935.00	937.00	937.00	933.00	934.00	933.00	933.00	935.00	934.00	936.00	935.00	934.00	933.00	931.00	932.00	931.00	933.00	930.00	930.00	932.00	930.00	930.00	932.00	930.00	930.00	930.00	931.00	931.00	929.00	930.00	930.00	930.00	929.00	929.00	933.00	930.00	930.00	931.00	930.00	928.00
961.00	962.00	962.00	961.00	962.00	962.00	963.00	962.00	963.00	963.00	962.00	963.00	962.00	962.00	961.00	961.00	962.00	962.00	962.00	961.00	960.00	959.00	958.00	960.00	960.00	960.00	960.00	960.00	959.00	960.00	961.00	958.00	959.00	959.00	959.00	959.00	960.00	959.00	959.00	958.00	958.00	959.00	957.00	959.00	956.00	957.00	957.00	956.00	956.00	954.00	955.00	954.00	955.00	956.00	955.00	955.00	953.00	954.00	955.00	954.00	956.00	954.00	957.00	957.00	955.00	954.00	956.00	952.00	953.00	954.00	954.00	955.00	953.00	955.00	953.00	952.00	952.00	952.00	951.00	952.00	951.00	951.00	952.00	953.00	951.00	952.00	952.00	952.00	953.00	952.00	952.00	953.00	953.00	951.00	951.00	953.00	950.00	950.00	950.00	950.00	950.00	951.00	949.00	950.00	950.00	950.00	949.00	948.00	949.00	948.00	950.00	948.00	948.00	948.00	949.00	948.00	947.00	947.00	949.00	949.00	948.00	947.00	947.00	946.00	948.00	948.00	948.00	947.00	946.00	946.00	947.00	947.00	947.00	947.00	946.00	946.00	945.00	946.00	944.00	944.00	944.00	945.00	945.00	944.00	944.00	944.00	943.00	946.00	942.00	943.00	942.00	943.00	943.00	941.00	942.00	942.00	942.00	941.00	941.00	942.00	942.00	941.00	942.00	941.00	941.00	940.00	942.00	942.00	943.00	941.00	939.00	939.00	940.00	942.00	939.00	943.00	939.00	937.00	940.00	939.00	937.00	939.00	937.00	939.00	937.00	937.00	938.00	935.00	941.00	938.00	939.00	938.00	941.00	939.00	937.00	937.00	936.00	936.00	937.00	936.00	935.00	937.00	936.00	935.00	936.00	935.00	936.00	939.00	938.00	937.00	935.00	936.00	936.00	935.00	937.00	934.00	934.00	934.00	937.00	935.00	934.00	936.00	937.00	936.00	936.00	936.00	937.00	939.00	935.00	935.00	933.00	931.00	934.00	931.00	929.00	932.00	936.00	931.00	933.00	933.00	929.00	930.00	933.00	930.00	932.00	931.00	928.00	930.00	931.00	932.00	932.00	931.00	930.00	929.00	930.00	929.00
962.00	962.00	963.00	964.00	963.00	963.00	962.00	963.00	963.00	963.00	963.00	963.00	962.00	961.00	962.00	962.00	961.00	961.00	962.00	961.00	961.00	960.00	961.00	960.00	960.00	960.00	959.00	960.00	960.00	960.00	960.00	959.00	959.00	960.00	959.00	959.00	959.00	960.00	962.00	959.00	960.00	956.00	958.00	959.00	958.00	959.00	958.00	956.00	955.00	956.00	955.00	956.00	954.00	954.00	957.00	956.00	956.00	955.00	956.00	956.00	955.00	955.00	955.00	955.00	954.00	955.00	954.00	954.00	953.00	956.00	953.00	954.00	954.00	953.00	953.00	953.00	952.00	951.00	952.00	951.00	952.00	952.00	952.00	953.00	952.00	952.00	952.00	953.00	952.00	953.00	954.00	952.00	952.00	952.00	953.00	952.00	951.00	952.00	953.00	951.00	950.00	951.00	949.00	949.00	950.00	949.00	949.00	949.00	950.00	948.00	948.00	949.00	949.00	949.00	949.00	949.00	946.00	946.00	948.00	948.00	947.00	947.00	947.00	948.00	947.00	948.00	947.00	947.00	946.00	947.00	946.00	945.00	946.00	947.00	945.00	946.00	945.00	945.00	945.00	944.00	945.00	945.00	946.00	944.00	943.00	943.00	944.00	943.00	943.00	943.00	941.00	942.00	941.00	942.00	941.00	942.00	942.00	941.00	941.00	941.00	940.00	942.00	941.00	940.00	940.00	941.00	940.00	939.00	939.00	939.00	939.00	939.00	938.00	939.00	938.00	937.00	941.00	939.00	941.00	939.00	937.00	938.00	935.00	939.00	937.00	939.00	938.00	939.00	937.00	939.00	939.00	940.00	937.00	938.00	938.00	936.00	937.00	936.00	936.00	936.00	937.00	935.00	936.00	936.00	936.00	936.00	936.00	938.00	935.00	936.00	936.00	937.00	938.00	934.00	935.00	935.00	935.00	934.00	934.00	935.00	938.00	932.00	933.00	932.00	933.00	933.00	933.00	935.00	936.00	936.00	937.00	937.00	934.00	933.00	934.00	931.00	930.00	936.00	936.00	932.00	932.00	931.00	932.00	931.00	932.00	932.00	927.00	929.00	930.00	928.00	930.00	931.00	929.00	932.00	931.00	929.00
964.00	963.00	964.00	963.00	963.00	963.00	962.00	963.00	963.00	963.00	963.00	962.00	962.00	962.00	962.00	962.00	961.00	960.00	960.00	962.00	963.00	961.00	960.00	961.00	961.00	962.00	958.00	960.00	960.00	960.00	959.00	960.00	958.00	959.00	959.00	958.00	957.00	957.00	956.00	958.00	959.00	957.00	956.00	956.00	956.00	956.00	957.00	955.00	957.00	957.00	957.00	953.00	954.00	955.00	954.00	955.00	954.00	956.00	956.00	956.00	956.00	955.00	955.00	956.00	955.00	955.00	954.00	956.00	955.00	953.00	953.00	953.00	954.00	953.00	950.00	951.00	952.00	950.00	952.00	951.00	952.00	953.00	953.00	953.00	952.00	954.00	953.00	955.00	955.00	952.00	953.00	950.00	950.00	952.00	952.00	952.00	951.00	950.00	950.00	950.00	950.00	950.00	951.00	948.00	950.00	949.00	949.00	948.00	949.00	948.00	949.00	951.00	952.00	950.00	949.00	949.00	949.00	949.00	948.00	950.00	946.00	946.00	948.00	948.00	949.00	948.00	947.00	949.00	947.00	946.00	947.00	948.00	946.00	945.00	947.00	947.00	945.00	944.00	946.00	945.00	946.00	947.00	944.00	945.00	946.00	943.00	943.00	942.00	942.00	943.00	941.00	941.00	942.00	942.00	941.00	941.00	944.00	941.00	940.00	941.00	941.00	940.00	941.00	939.00	940.00	939.00	939.00	938.00	939.00	938.00	938.00	938.00	938.00	940.00	939.00	940.00	938.00	937.00	938.00	938.00	940.00	939.00	939.00	939.00	940.00	936.00	937.00	938.00	937.00	937.00	936.00	938.00	938.00	941.00	941.00	939.00	937.00	938.00	937.00	936.00	937.00	936.00	935.00	935.00	936.00	937.00	937.00	936.00	936.00	935.00	935.00	934.00	935.00	939.00	935.00	935.00	934.00	934.00	934.00	934.00	935.00	935.00	936.00	936.00	933.00	934.00	934.00	932.00	934.00	934.00	935.00	931.00	932.00	934.00	934.00	935.00	935.00	931.00	932.00	936.00	933.00	936.00	932.00	932.00	931.00	931.00	934.00	932.00	932.00	931.00	929.00	928.00	929.00	929.00	929.00	930.00
964.00	963.00	964.00	963.00	963.00	963.00	962.00	963.00	963.00	963.00	963.00	962.00	962.00	962.00	962.00	962.00	961.00	960.00	960.00	962.00	963.00	961.00	960.00	961.00	961.00	962.00	958.00	960.00	960.00	960.00	959.00	960.00	958.00	959.00	959.00	958.00	957.00	957.00	956.00	958.00	959.00	957.00	956.00	956.00	956.00	956.00	957.00	955.00	957.00	957.00	957.00	953.00	954.00	955.00	954.00	955.00	954.00	956.00	956.00	956.00	956.00	955.00	955.00	956.00	955.00	955.00	954.00	956.00	955.00	953.00	953.00	953.00	954.00	953.00	950.00	951.00	952.00	950.00	952.00	951.00	952.00	953.00	953.00	953.00	952.00	954.00	953.00	955.00	955.00	952.00	953.00	950.00	950.00	952.00	952.00	952.00	951.00	950.00	950.00	950.00	950.00	950.00	951.00	948.00	950.00	949.00	949.00	948.00	949.00	948.00	949.00	951.00	952.00	950.00	949.00	949.00	949.00	949.00	948.00	950.00	946.00	946.00	948.00	948.00	949.00	948.00	947.00	949.00	947.00	946.00	947.00	948.00	946.00	945.00	947.00	947.00	945.00	944.00	946.00	945.00	946.00	947.00	944.00	945.00	946.00	943.00	943.00	942.00	942.00	943.00	941.00	941.00	942.00	942.00	941.00	941.00	944.00	941.00	940.00	941.00	941.00	940.00	941.00	939.00	940.00	939.00	939.00	938.00	939.00	938.00	938.00	938.00	938.00	940.00	939.00	940.00	938.00	937.00	938.00	938.00	940.00	939.00	939.00	939.00	940.00	936.00	937.00	938.00	937.00	937.00	936.00	938.00	938.00	941.00	941.00	939.00	937.00	938.00	937.00	936.00	937.00	936.00	935.00	935.00	936.00	937.00	937.00	936.00	936.00	935.00	935.00	934.00	935.00	939.00	935.00	935.00	934.00	934.00	934.00	934.00	935.00	935.00	936.00	936.00	933.00	934.00	934.00	932.00	934.00	934.00	935.00	931.00	932.00	934.00	934.00	935.00	935.00	931.00	932.00	936.00	933.00	936.00	932.00	932.00	931.00	931.00	934.00	932.00	932.00	931.00	929.00	928.00	929.00	929.00	929.00	930.00
964.00	963.00	964.00	963.00	963.00	963.00	962.00	963.00	963.00	963.00	963.00	962.00	962.00	962.00	962.00	962.00	961.00	960.00	960.00	962.00	963.00	961.00	960.00	961.00	961.00	962.00	958.00	960.00	960.00	960.00	959.00	960.00	958.00	959.00	959.00	958.00	957.00	957.00	956.00	958.00	959.00	957.00	956.00	956.00	956.00	956.00	957.00	955.00	957.00	957.00	957.00	953.00	954.00	955.00	954.00	955.00	954.00	956.00	956.00	956.00	956.00	955.00	955.00	956.00	955.00	955.00	954.00	956.00	955.00	953.00	953.00	953.00	954.00	953.00	950.00	951.00	952.00	950.00	952.00	951.00	952.00	953.00	953.00	953.00	952.00	954.00	953.00	955.00	955.00	952.00	953.00	950.00	950.00	952.00	952.00	952.00	951.00	950.00	950.00	950.00	950.00	950.00	951.00	948.00	950.00	949.00	949.00	948.00	949.00	948.00	949.00	951.00	952.00	950.00	949.00	949.00	949.00	949.00	948.00	950.00	946.00	946.00	948.00	948.00	949.00	948.00	947.00	949.00	947.00	946.00	947.00	948.00	946.00	945.00	947.00	947.00	945.00	944.00	946.00	945.00	946.00	947.00	944.00	945.00	946.00	943.00	943.00	942.00	942.00	943.00	941.00	941.00	942.00	942.00	941.00	941.00	944.00	941.00	940.00	941.00	941.00	940.00	941.00	939.00	940.00	939.00	939.00	938.00	939.00	938.00	938.00	938.00	938.00	940.00	939.00	940.00	938.00	937.00	938.00	938.00	940.00	939.00	939.00	939.00	940.00	936.00	937.00	938.00	937.00	937.00	936.00	938.00	938.00	941.00	941.00	939.00	937.00	938.00	937.00	936.00	937.00	936.00	935.00	935.00	936.00	937.00	937.00	936.00	936.00	935.00	935.00	934.00	935.00	939.00	935.00	935.00	934.00	934.00	934.00	934.00	935.00	935.00	936.00	936.00	933.00	934.00	934.00	932.00	934.00	934.00	935.00	931.00	932.00	934.00	934.00	935.00	935.00	931.00	932.00	936.00	933.00	936.00	932.00	932.00	931.00	931.00	934.00	932.00	932.00	931.00	929.00	928.00	929.00	929.00	929.00	930.00
963.00	964.00	964.00	963.00	964.00	963.00	963.00	963.00	962.00	963.00	963.00	962.00	961.00	962.00	961.00	961.00	961.00	961.00	960.00	960.00	961.00	962.00	961.00	960.00	960.00	961.00	960.00	959.00	960.00	960.00	960.00	960.00	960.00	960.00	958.00	959.00	959.00	956.00	958.00	956.00	959.00	959.00	957.00	957.00	956.00	956.00	955.00	955.00	955.00	955.00	955.00	955.00	956.00	956.00	956.00	954.00	955.00	959.00	955.00	956.00	955.00	956.00	956.00	952.00	954.00	954.00	953.00	953.00	954.00	952.00	953.00	953.00	952.00	951.00	950.00	951.00	952.00	952.00	952.00	953.00	951.00	952.00	952.00	952.00	953.00	952.00	950.00	952.00	953.00	952.00	952.00	952.00	951.00	952.00	954.00	952.00	953.00	950.00	950.00	951.00	949.00	950.00	950.00	948.00	949.00	949.00	949.00	949.00	950.00	948.00	949.00	948.00	950.00	951.00	951.00	949.00	948.00	947.00	949.00	950.00	947.00	948.00	946.00	947.00	948.00	948.00	947.00	948.00	947.00	946.00	945.00	947.00	946.00	946.00	949.00	947.00	946.00	944.00	945.00	943.00	945.00	946.00	945.00	944.00	944.00	945.00	945.00	943.00	942.00	942.00	942.00	942.00	941.00	942.00	942.00	942.00	944.00	943.00	942.00	940.00	940.00	939.00	939.00	940.00	940.00	941.00	940.00	941.00	940.00	939.00	939.00	939.00	940.00	939.00	938.00	939.00	940.00	939.00	941.00	939.00	938.00	939.00	937.00	938.00	937.00	937.00	936.00	937.00	937.00	936.00	938.00	937.00	936.00	936.00	938.00	939.00	937.00	937.00	938.00	937.00	937.00	937.00	936.00	935.00	935.00	936.00	937.00	936.00	936.00	936.00	934.00	935.00	935.00	935.00	938.00	935.00	933.00	934.00	932.00	933.00	934.00	936.00	936.00	936.00	933.00	936.00	937.00	937.00	932.00	932.00	933.00	935.00	933.00	933.00	934.00	933.00	933.00	934.00	932.00	932.00	933.00	938.00	935.00	933.00	930.00	932.00	932.00	933.00	934.00	932.00	931.00	930.00	929.00	929.00	929.00	930.00
963.00	963.00	963.00	963.00	964.00	963.00	963.00	963.00	963.00	962.00	962.00	961.00	962.00	962.00	961.00	962.00	962.00	961.00	961.00	961.00	961.00	961.00	961.00	961.00	961.00	961.00	960.00	961.00	959.00	960.00	960.00	960.00	959.00	961.00	961.00	957.00	958.00	956.00	957.00	956.00	957.00	957.00	956.00	956.00	956.00	955.00	955.00	955.00	954.00	956.00	956.00	957.00	957.00	956.00	959.00	955.00	956.00	956.00	955.00	956.00	954.00	955.00	957.00	954.00	956.00	953.00	954.00	952.00	956.00	954.00	951.00	953.00	952.00	949.00	951.00	954.00	953.00	954.00	952.00	951.00	954.00	954.00	952.00	953.00	953.00	952.00	953.00	952.00	951.00	954.00	952.00	954.00	952.00	951.00	952.00	951.00	952.00	950.00	952.00	950.00	949.00	950.00	950.00	950.00	949.00	950.00	949.00	949.00	949.00	949.00	948.00	949.00	949.00	950.00	949.00	948.00	948.00	950.00	948.00	948.00	948.00	949.00	947.00	947.00	947.00	947.00	949.00	946.00	947.00	946.00	946.00	947.00	947.00	946.00	946.00	946.00	947.00	944.00	946.00	949.00	945.00	943.00	945.00	944.00	944.00	944.00	943.00	947.00	942.00	942.00	942.00	942.00	942.00	941.00	946.00	946.00	941.00	941.00	942.00	943.00	942.00	942.00	941.00	940.00	941.00	939.00	940.00	940.00	941.00	939.00	938.00	940.00	941.00	938.00	938.00	937.00	938.00	938.00	937.00	940.00	939.00	938.00	939.00	939.00	939.00	938.00	937.00	937.00	938.00	939.00	936.00	936.00	937.00	937.00	937.00	938.00	937.00	937.00	937.00	936.00	938.00	936.00	935.00	937.00	934.00	936.00	936.00	935.00	935.00	936.00	935.00	934.00	935.00	934.00	935.00	934.00	934.00	935.00	934.00	934.00	935.00	934.00	934.00	936.00	935.00	935.00	934.00	937.00	933.00	932.00	932.00	933.00	933.00	932.00	933.00	932.00	933.00	933.00	934.00	934.00	933.00	933.00	933.00	937.00	934.00	934.00	933.00	930.00	931.00	934.00	935.00	930.00	928.00	931.00	931.00	932.00
964.00	964.00	964.00	964.00	964.00	964.00	963.00	963.00	962.00	961.00	962.00	962.00	962.00	961.00	962.00	961.00	961.00	960.00	960.00	961.00	961.00	961.00	960.00	961.00	961.00	962.00	960.00	960.00	961.00	960.00	960.00	959.00	959.00	960.00	960.00	961.00	958.00	957.00	956.00	955.00	957.00	957.00	956.00	957.00	958.00	954.00	954.00	955.00	955.00	956.00	956.00	957.00	957.00	957.00	955.00	957.00	955.00	954.00	955.00	955.00	956.00	954.00	954.00	953.00	954.00	958.00	952.00	952.00	953.00	954.00	955.00	956.00	955.00	949.00	951.00	954.00	957.00	952.00	952.00	953.00	953.00	952.00	953.00	953.00	954.00	955.00	952.00	952.00	953.00	953.00	951.00	952.00	952.00	950.00	951.00	950.00	951.00	951.00	952.00	953.00	952.00	952.00	950.00	949.00	948.00	950.00	950.00	949.00	949.00	950.00	949.00	949.00	949.00	949.00	949.00	950.00	948.00	947.00	949.00	951.00	948.00	949.00	949.00	946.00	946.00	947.00	947.00	948.00	947.00	947.00	946.00	945.00	945.00	946.00	946.00	945.00	947.00	949.00	943.00	944.00	947.00	946.00	945.00	949.00	949.00	944.00	944.00	944.00	946.00	945.00	943.00	942.00	942.00	943.00	942.00	943.00	943.00	942.00	939.00	940.00	940.00	943.00	942.00	940.00	941.00	939.00	939.00	940.00	939.00	941.00	939.00	938.00	939.00	941.00	938.00	938.00	939.00	939.00	937.00	940.00	941.00	939.00	938.00	938.00	939.00	940.00	939.00	938.00	937.00	937.00	937.00	938.00	937.00	938.00	939.00	936.00	936.00	935.00	937.00	936.00	938.00	936.00	935.00	935.00	936.00	938.00	938.00	936.00	936.00	935.00	934.00	935.00	934.00	933.00	934.00	934.00	934.00	933.00	934.00	934.00	934.00	933.00	934.00	934.00	934.00	932.00	933.00	934.00	934.00	936.00	934.00	934.00	933.00	936.00	935.00	933.00	933.00	934.00	938.00	935.00	933.00	933.00	931.00	933.00	933.00	931.00	931.00	930.00	930.00	931.00	929.00	933.00	930.00	928.00	932.00	931.00
964.00	964.00	964.00	964.00	964.00	964.00	963.00	963.00	962.00	961.00	962.00	962.00	962.00	961.00	962.00	961.00	961.00	960.00	960.00	961.00	961.00	961.00	960.00	961.00	961.00	962.00	960.00	960.00	961.00	960.00	960.00	959.00	959.00	960.00	960.00	961.00	958.00	957.00	956.00	955.00	957.00	957.00	956.00	957.00	958.00	954.00	954.00	955.00	955.00	956.00	956.00	957.00	957.00	957.00	955.00	957.00	955.00	954.00	955.00	955.00	956.00	954.00	954.00	953.00	954.00	958.00	952.00	952.00	953.00	954.00	955.00	956.00	955.00	949.00	951.00	954.00	957.00	952.00	952.00	953.00	953.00	952.00	953.00	953.00	954.00	955.00	952.00	952.00	953.00	953.00	951.00	952.00	952.00	950.00	951.00	950.00	951.00	951.00	952.00	953.00	952.00	952.00	950.00	949.00	948.00	950.00	950.00	949.00	949.00	950.00	949.00	949.00	949.00	949.00	949.00	950.00	948.00	947.00	949.00	951.00	948.00	949.00	949.00	946.00	946.00	947.00	947.00	948.00	947.00	947.00	946.00	945.00	945.00	946.00	946.00	945.00	947.00	949.00	943.00	944.00	947.00	946.00	945.00	949.00	949.00	944.00	944.00	944.00	946.00	945.00	943.00	942.00	942.00	943.00	942.00	943.00	943.00	942.00	939.00	940.00	940.00	943.00	942.00	940.00	941.00	939.00	939.00	940.00	939.00	941.00	939.00	938.00	939.00	941.00	938.00	938.00	939.00	939.00	937.00	940.00	941.00	939.00	938.00	938.00	939.00	940.00	939.00	938.00	937.00	937.00	937.00	938.00	937.00	938.00	939.00	936.00	936.00	935.00	937.00	936.00	938.00	936.00	935.00	935.00	936.00	938.00	938.00	936.00	936.00	935.00	934.00	935.00	934.00	933.00	934.00	934.00	934.00	933.00	934.00	934.00	934.00	933.00	934.00	934.00	934.00	932.00	933.00	934.00	934.00	936.00	934.00	934.00	933.00	936.00	935.00	933.00	933.00	934.00	938.00	935.00	933.00	933.00	931.00	933.00	933.00	931.00	931.00	930.00	930.00	931.00	929.00	933.00	930.00	928.00	932.00	931.00
963.00	963.00	963.00	963.00	964.00	962.00	962.00	963.00	963.00	963.00	962.00	961.00	961.00	962.00	960.00	961.00	961.00	960.00	961.00	960.00	960.00	961.00	961.00	961.00	960.00	961.00	961.00	960.00	960.00	959.00	960.00	959.00	960.00	959.00	959.00	960.00	959.00	957.00	956.00	957.00	957.00	956.00	955.00	956.00	957.00	955.00	954.00	954.00	954.00	954.00	956.00	955.00	956.00	958.00	957.00	956.00	957.00	955.00	956.00	956.00	955.00	954.00	956.00	956.00	954.00	952.00	952.00	951.00	953.00	953.00	952.00	953.00	955.00	953.00	952.00	953.00	953.00	954.00	954.00	952.00	951.00	952.00	952.00	953.00	952.00	954.00	953.00	951.00	951.00	951.00	951.00	950.00	951.00	950.00	950.00	954.00	951.00	949.00	949.00	950.00	952.00	951.00	951.00	950.00	950.00	950.00	950.00	950.00	948.00	949.00	949.00	949.00	950.00	950.00	948.00	948.00	948.00	949.00	948.00	948.00	947.00	948.00	948.00	948.00	948.00	947.00	948.00	947.00	947.00	946.00	946.00	947.00	947.00	945.00	945.00	945.00	945.00	947.00	946.00	946.00	945.00	945.00	945.00	942.00	944.00	944.00	942.00	943.00	943.00	942.00	944.00	941.00	941.00	942.00	941.00	942.00	944.00	946.00	940.00	939.00	941.00	940.00	942.00	943.00	941.00	938.00	939.00	938.00	940.00	939.00	939.00	938.00	939.00	940.00	939.00	939.00	938.00	939.00	939.00	937.00	938.00	940.00	940.00	939.00	938.00	937.00	938.00	937.00	937.00	936.00	937.00	938.00	936.00	936.00	937.00	937.00	937.00	936.00	936.00	934.00	936.00	939.00	935.00	935.00	936.00	934.00	936.00	937.00	937.00	936.00	935.00	933.00	935.00	934.00	934.00	934.00	934.00	933.00	934.00	933.00	933.00	933.00	933.00	934.00	935.00	933.00	934.00	935.00	934.00	934.00	933.00	933.00	934.00	934.00	935.00	935.00	933.00	934.00	935.00	933.00	936.00	931.00	932.00	933.00	931.00	931.00	928.00	930.00	931.00	930.00	932.00	931.00	938.00	932.00	927.00	933.00
964.00	964.00	963.00	964.00	963.00	963.00	963.00	963.00	962.00	963.00	963.00	963.00	962.00	961.00	962.00	963.00	960.00	960.00	960.00	960.00	961.00	960.00	960.00	961.00	960.00	960.00	961.00	961.00	960.00	959.00	959.00	959.00	959.00	959.00	958.00	959.00	961.00	958.00	960.00	958.00	956.00	955.00	955.00	957.00	954.00	957.00	957.00	957.00	955.00	956.00	955.00	957.00	958.00	957.00	957.00	959.00	957.00	956.00	955.00	955.00	955.00	955.00	953.00	952.00	954.00	955.00	954.00	952.00	953.00	953.00	953.00	952.00	953.00	954.00	952.00	954.00	953.00	953.00	955.00	952.00	954.00	955.00	952.00	951.00	950.00	951.00	953.00	953.00	953.00	951.00	951.00	951.00	951.00	951.00	951.00	952.00	952.00	951.00	951.00	951.00	951.00	949.00	951.00	950.00	950.00	949.00	949.00	950.00	950.00	950.00	949.00	949.00	949.00	949.00	948.00	948.00	948.00	948.00	947.00	948.00	949.00	947.00	949.00	947.00	947.00	947.00	947.00	946.00	947.00	947.00	946.00	946.00	946.00	946.00	946.00	946.00	945.00	945.00	946.00	946.00	946.00	946.00	944.00	945.00	946.00	944.00	943.00	943.00	943.00	943.00	946.00	945.00	941.00	943.00	943.00	942.00	942.00	941.00	944.00	942.00	941.00	942.00	941.00	941.00	946.00	939.00	939.00	940.00	939.00	940.00	939.00	938.00	938.00	938.00	940.00	940.00	940.00	940.00	941.00	939.00	939.00	939.00	938.00	939.00	938.00	938.00	936.00	937.00	940.00	938.00	937.00	936.00	936.00	936.00	936.00	937.00	935.00	936.00	936.00	936.00	936.00	936.00	935.00	935.00	935.00	935.00	936.00	935.00	935.00	935.00	936.00	934.00	936.00	934.00	933.00	934.00	932.00	934.00	933.00	933.00	933.00	933.00	934.00	933.00	934.00	934.00	934.00	932.00	935.00	936.00	933.00	933.00	935.00	933.00	933.00	934.00	932.00	931.00	932.00	935.00	935.00	932.00	932.00	931.00	932.00	934.00	933.00	931.00	928.00	929.00	930.00	930.00	931.00	933.00	933.00	928.00
964.00	964.00	963.00	963.00	962.00	963.00	963.00	964.00	963.00	962.00	962.00	962.00	962.00	962.00	961.00	962.00	961.00	962.00	962.00	960.00	960.00	960.00	962.00	961.00	961.00	961.00	960.00	960.00	962.00	959.00	960.00	958.00	958.00	959.00	958.00	957.00	958.00	959.00	959.00	959.00	957.00	956.00	956.00	957.00	956.00	956.00	956.00	955.00	958.00	957.00	957.00	956.00	956.00	957.00	957.00	957.00	958.00	959.00	958.00	955.00	956.00	954.00	957.00	956.00	954.00	956.00	954.00	956.00	953.00	953.00	953.00	952.00	954.00	954.00	953.00	952.00	953.00	952.00	952.00	953.00	952.00	954.00	954.00	954.00	952.00	952.00	952.00	952.00	953.00	952.00	951.00	952.00	951.00	950.00	952.00	951.00	954.00	952.00	953.00	952.00	950.00	951.00	952.00	950.00	951.00	951.00	949.00	950.00	954.00	950.00	950.00	949.00	948.00	949.00	949.00	948.00	948.00	948.00	950.00	947.00	948.00	948.00	947.00	947.00	947.00	948.00	948.00	946.00	947.00	947.00	945.00	946.00	946.00	946.00	946.00	945.00	946.00	944.00	945.00	945.00	945.00	944.00	944.00	943.00	943.00	946.00	945.00	944.00	943.00	943.00	942.00	944.00	945.00	942.00	942.00	941.00	940.00	941.00	941.00	943.00	945.00	941.00	941.00	939.00	940.00	939.00	940.00	941.00	940.00	940.00	939.00	940.00	940.00	939.00	938.00	939.00	938.00	938.00	939.00	939.00	940.00	938.00	939.00	938.00	937.00	938.00	937.00	938.00	938.00	935.00	935.00	938.00	936.00	937.00	937.00	935.00	937.00	938.00	937.00	937.00	936.00	935.00	935.00	934.00	934.00	934.00	935.00	936.00	936.00	933.00	933.00	935.00	935.00	933.00	936.00	934.00	933.00	932.00	934.00	934.00	933.00	932.00	935.00	934.00	934.00	933.00	933.00	932.00	934.00	935.00	935.00	934.00	933.00	933.00	933.00	933.00	933.00	934.00	931.00	935.00	935.00	932.00	932.00	931.00	933.00	932.00	932.00	934.00	933.00	928.00	928.00	929.00	930.00	930.00	932.00	932.00
964.00	964.00	963.00	964.00	963.00	962.00	963.00	963.00	962.00	962.00	962.00	962.00	962.00	962.00	962.00	960.00	962.00	962.00	962.00	964.00	961.00	961.00	960.00	963.00	960.00	961.00	961.00	959.00	959.00	960.00	960.00	959.00	958.00	957.00	957.00	956.00	957.00	957.00	958.00	957.00	959.00	959.00	958.00	956.00	957.00	955.00	957.00	955.00	955.00	958.00	957.00	957.00	957.00	955.00	955.00	956.00	956.00	955.00	956.00	956.00	955.00	953.00	955.00	952.00	952.00	953.00	954.00	952.00	954.00	953.00	952.00	953.00	952.00	954.00	955.00	952.00	954.00	953.00	954.00	955.00	951.00	950.00	952.00	953.00	951.00	953.00	951.00	951.00	953.00	954.00	952.00	951.00	950.00	950.00	951.00	950.00	951.00	952.00	951.00	955.00	953.00	952.00	951.00	951.00	950.00	950.00	950.00	950.00	949.00	949.00	949.00	950.00	948.00	949.00	948.00	950.00	949.00	949.00	949.00	948.00	947.00	947.00	947.00	947.00	946.00	946.00	947.00	946.00	946.00	946.00	944.00	946.00	946.00	946.00	946.00	945.00	945.00	946.00	944.00	945.00	944.00	945.00	944.00	944.00	944.00	943.00	943.00	943.00	943.00	943.00	943.00	942.00	947.00	945.00	941.00	942.00	941.00	942.00	940.00	941.00	942.00	943.00	941.00	941.00	938.00	940.00	940.00	941.00	942.00	941.00	938.00	940.00	940.00	939.00	939.00	941.00	939.00	939.00	939.00	938.00	938.00	938.00	937.00	939.00	938.00	937.00	939.00	937.00	938.00	940.00	939.00	936.00	940.00	937.00	936.00	937.00	935.00	936.00	935.00	936.00	936.00	937.00	934.00	934.00	935.00	935.00	935.00	936.00	936.00	934.00	935.00	936.00	934.00	934.00	934.00	936.00	936.00	934.00	933.00	934.00	934.00	933.00	934.00	932.00	934.00	933.00	933.00	932.00	934.00	934.00	935.00	932.00	933.00	933.00	933.00	933.00	932.00	933.00	932.00	932.00	934.00	934.00	934.00	933.00	932.00	932.00	933.00	934.00	931.00	932.00	930.00	931.00	931.00	930.00	931.00	931.00
964.00	964.00	963.00	964.00	963.00	962.00	963.00	963.00	962.00	962.00	962.00	962.00	962.00	962.00	962.00	960.00	962.00	962.00	962.00	964.00	961.00	961.00	960.00	963.00	960.00	961.00	961.00	959.00	959.00	960.00	960.00	959.00	958.00	957.00	957.00	956.00	957.00	957.00	958.00	957.00	959.00	959.00	958.00	956.00	957.00	955.00	957.00	955.00	955.00	958.00	957.00	957.00	957.00	955.00	955.00	956.00	956.00	955.00	956.00	956.00	955.00	953.00	955.00	952.00	952.00	953.00	954.00	952.00	954.00	953.00	952.00	953.00	952.00	954.00	955.00	952.00	954.00	953.00	954.00	955.00	951.00	950.00	952.00	953.00	951.00	953.00	951.00	951.00	953.00	954.00	952.00	951.00	950.00	950.00	951.00	950.00	951.00	952.00	951.00	955.00	953.00	952.00	951.00	951.00	950.00	950.00	950.00	950.00	949.00	949.00	949.00	950.00	948.00	949.00	948.00	950.00	949.00	949.00	949.00	948.00	947.00	947.00	947.00	947.00	946.00	946.00	947.00	946.00	946.00	946.00	944.00	946.00	946.00	946.00	946.00	945.00	945.00	946.00	944.00	945.00	944.00	945.00	944.00	944.00	944.00	943.00	943.00	943.00	943.00	943.00	943.00	942.00	947.00	945.00	941.00	942.00	941.00	942.00	940.00	941.00	942.00	943.00	941.00	941.00	938.00	940.00	940.00	941.00	942.00	941.00	938.00	940.00	940.00	939.00	939.00	941.00	939.00	939.00	939.00	938.00	938.00	938.00	937.00	939.00	938.00	937.00	939.00	937.00	938.00	940.00	939.00	936.00	940.00	937.00	936.00	937.00	935.00	936.00	935.00	936.00	936.00	937.00	934.00	934.00	935.00	935.00	935.00	936.00	936.00	934.00	935.00	936.00	934.00	934.00	934.00	936.00	936.00	934.00	933.00	934.00	934.00	933.00	934.00	932.00	934.00	933.00	933.00	932.00	934.00	934.00	935.00	932.00	933.00	933.00	933.00	933.00	932.00	933.00	932.00	932.00	934.00	934.00	934.00	933.00	932.00	932.00	933.00	934.00	931.00	932.00	930.00	931.00	931.00	930.00	931.00	931.00
964.00	964.00	963.00	962.00	962.00	963.00	964.00	962.00	964.00	962.00	962.00	962.00	961.00	961.00	961.00	963.00	962.00	962.00	963.00	962.00	963.00	962.00	961.00	962.00	962.00	961.00	960.00	962.00	960.00	959.00	958.00	959.00	960.00	959.00	959.00	959.00	961.00	958.00	958.00	957.00	956.00	956.00	957.00	958.00	957.00	956.00	957.00	957.00	957.00	957.00	956.00	958.00	958.00	955.00	955.00	956.00	957.00	956.00	956.00	956.00	955.00	955.00	956.00	953.00	955.00	956.00	955.00	955.00	952.00	954.00	953.00	953.00	953.00	953.00	953.00	956.00	956.00	957.00	954.00	953.00	957.00	955.00	954.00	954.00	957.00	950.00	952.00	950.00	951.00	952.00	952.00	951.00	951.00	951.00	951.00	952.00	951.00	951.00	952.00	952.00	951.00	951.00	953.00	951.00	951.00	951.00	950.00	950.00	950.00	950.00	950.00	948.00	949.00	956.00	951.00	946.00	949.00	947.00	948.00	948.00	948.00	948.00	946.00	947.00	947.00	945.00	947.00	947.00	946.00	946.00	945.00	946.00	946.00	945.00	946.00	945.00	945.00	945.00	943.00	944.00	944.00	944.00	944.00	944.00	943.00	945.00	945.00	943.00	944.00	944.00	944.00	941.00	942.00	944.00	946.00	946.00	943.00	940.00	940.00	939.00	941.00	941.00	940.00	941.00	942.00	942.00	940.00	943.00	939.00	941.00	939.00	939.00	939.00	943.00	939.00	940.00	938.00	939.00	939.00	938.00	939.00	940.00	937.00	938.00	938.00	942.00	940.00	937.00	939.00	937.00	941.00	939.00	937.00	939.00	937.00	935.00	935.00	936.00	936.00	936.00	936.00	935.00	935.00	935.00	937.00	938.00	935.00	934.00	935.00	936.00	934.00	933.00	934.00	933.00	935.00	935.00	934.00	935.00	938.00	933.00	932.00	935.00	932.00	934.00	933.00	935.00	933.00	932.00	933.00	933.00	933.00	931.00	934.00	933.00	932.00	935.00	933.00	933.00	932.00	933.00	932.00	935.00	933.00	932.00	932.00	934.00	930.00	929.00	933.00	937.00	933.00	930.00	931.00	929.00	930.00	930.00
963.00	963.00	964.00	964.00	961.00	962.00	962.00	962.00	963.00	961.00	962.00	962.00	962.00	962.00	962.00	961.00	961.00	962.00	962.00	963.00	962.00	962.00	962.00	962.00	962.00	961.00	960.00	960.00	961.00	959.00	958.00	958.00	958.00	958.00	959.00	957.00	957.00	957.00	961.00	957.00	958.00	956.00	958.00	959.00	959.00	957.00	959.00	956.00	957.00	957.00	959.00	959.00	957.00	958.00	956.00	955.00	954.00	955.00	955.00	954.00	956.00	956.00	954.00	954.00	953.00	954.00	954.00	954.00	953.00	954.00	955.00	953.00	953.00	952.00	953.00	955.00	955.00	954.00	953.00	955.00	954.00	956.00	956.00	955.00	953.00	952.00	951.00	954.00	953.00	951.00	952.00	951.00	950.00	952.00	951.00	951.00	952.00	952.00	952.00	950.00	950.00	951.00	956.00	950.00	951.00	949.00	950.00	950.00	951.00	951.00	950.00	950.00	950.00	951.00	949.00	948.00	950.00	949.00	948.00	947.00	948.00	947.00	947.00	947.00	947.00	949.00	946.00	946.00	947.00	946.00	946.00	946.00	946.00	945.00	946.00	945.00	944.00	945.00	945.00	945.00	945.00	944.00	943.00	943.00	944.00	944.00	944.00	943.00	943.00	941.00	943.00	943.00	941.00	942.00	944.00	947.00	945.00	941.00	939.00	940.00	940.00	941.00	940.00	940.00	941.00	941.00	941.00	940.00	940.00	941.00	941.00	940.00	939.00	939.00	939.00	939.00	940.00	938.00	939.00	940.00	942.00	939.00	939.00	937.00	937.00	938.00	938.00	937.00	940.00	936.00	936.00	938.00	936.00	941.00	940.00	938.00	934.00	936.00	936.00	937.00	937.00	934.00	936.00	933.00	934.00	935.00	934.00	935.00	933.00	934.00	938.00	939.00	933.00	933.00	933.00	934.00	935.00	934.00	935.00	934.00	933.00	932.00	933.00	934.00	934.00	933.00	934.00	933.00	932.00	933.00	933.00	932.00	932.00	933.00	933.00	933.00	933.00	932.00	933.00	932.00	932.00	934.00	933.00	932.00	932.00	933.00	933.00	931.00	932.00	931.00	932.00	932.00	929.00	933.00	930.00	930.00
962.00	963.00	963.00	964.00	964.00	963.00	963.00	963.00	961.00	961.00	962.00	961.00	961.00	961.00	962.00	961.00	962.00	961.00	962.00	962.00	962.00	962.00	961.00	961.00	961.00	960.00	960.00	959.00	961.00	961.00	959.00	960.00	960.00	958.00	957.00	958.00	957.00	957.00	958.00	958.00	957.00	958.00	957.00	959.00	960.00	960.00	959.00	960.00	960.00	960.00	957.00	958.00	958.00	956.00	960.00	957.00	953.00	956.00	953.00	954.00	955.00	954.00	956.00	955.00	954.00	954.00	954.00	954.00	954.00	954.00	952.00	953.00	954.00	952.00	954.00	953.00	953.00	955.00	954.00	953.00	953.00	953.00	953.00	954.00	954.00	953.00	951.00	954.00	952.00	951.00	951.00	951.00	951.00	951.00	950.00	951.00	951.00	950.00	950.00	951.00	949.00	950.00	952.00	953.00	956.00	953.00	952.00	950.00	948.00	950.00	949.00	951.00	949.00	949.00	950.00	948.00	949.00	949.00	947.00	948.00	947.00	947.00	947.00	947.00	947.00	947.00	947.00	947.00	948.00	947.00	946.00	945.00	945.00	945.00	945.00	945.00	945.00	944.00	944.00	945.00	944.00	946.00	947.00	943.00	943.00	942.00	944.00	943.00	944.00	943.00	942.00	942.00	940.00	941.00	941.00	942.00	945.00	943.00	943.00	941.00	940.00	940.00	940.00	940.00	941.00	940.00	939.00	939.00	945.00	941.00	944.00	942.00	939.00	939.00	939.00	940.00	940.00	940.00	938.00	939.00	939.00	940.00	938.00	938.00	938.00	938.00	938.00	941.00	939.00	939.00	937.00	936.00	937.00	938.00	938.00	939.00	939.00	936.00	937.00	936.00	936.00	935.00	933.00	937.00	936.00	936.00	934.00	931.00	934.00	933.00	933.00	937.00	937.00	935.00	938.00	938.00	933.00	935.00	936.00	935.00	935.00	933.00	933.00	935.00	936.00	934.00	932.00	934.00	936.00	933.00	932.00	933.00	933.00	933.00	932.00	933.00	932.00	931.00	930.00	932.00	930.00	932.00	933.00	933.00	933.00	933.00	935.00	933.00	934.00	934.00	932.00	932.00	934.00	930.00	933.00	929.00
962.00	963.00	963.00	964.00	964.00	963.00	963.00	963.00	961.00	961.00	962.00	961.00	961.00	961.00	962.00	961.00	962.00	961.00	962.00	962.00	962.00	962.00	961.00	961.00	961.00	960.00	960.00	959.00	961.00	961.00	959.00	960.00	960.00	958.00	957.00	958.00	957.00	957.00	958.00	958.00	957.00	958.00	957.00	959.00	960.00	960.00	959.00	960.00	960.00	960.00	957.00	958.00	958.00	956.00	960.00	957.00	953.00	956.00	953.00	954.00	955.00	954.00	956.00	955.00	954.00	954.00	954.00	954.00	954.00	954.00	952.00	953.00	954.00	952.00	954.00	953.00	953.00	955.00	954.00	953.00	953.00	953.00	953.00	954.00	954.00	953.00	951.00	954.00	952.00	951.00	951.00	951.00	951.00	951.00	950.00	951.00	951.00	950.00	950.00	951.00	949.00	950.00	952.00	953.00	956.00	953.00	952.00	950.00	948.00	950.00	949.00	951.00	949.00	949.00	950.00	948.00	949.00	949.00	947.00	948.00	947.00	947.00	947.00	947.00	947.00	947.00	947.00	947.00	948.00	947.00	946.00	945.00	945.00	945.00	945.00	945.00	945.00	944.00	944.00	945.00	944.00	946.00	947.00	943.00	943.00	942.00	944.00	943.00	944.00	943.00	942.00	942.00	940.00	941.00	941.00	942.00	945.00	943.00	943.00	941.00	940.00	940.00	940.00	940.00	941.00	940.00	939.00	939.00	945.00	941.00	944.00	942.00	939.00	939.00	939.00	940.00	940.00	940.00	938.00	939.00	939.00	940.00	938.00	938.00	938.00	938.00	938.00	941.00	939.00	939.00	937.00	936.00	937.00	938.00	938.00	939.00	939.00	936.00	937.00	936.00	936.00	935.00	933.00	937.00	936.00	936.00	934.00	931.00	934.00	933.00	933.00	937.00	937.00	935.00	938.00	938.00	933.00	935.00	936.00	935.00	935.00	933.00	933.00	935.00	936.00	934.00	932.00	934.00	936.00	933.00	932.00	933.00	933.00	933.00	932.00	933.00	932.00	931.00	930.00	932.00	930.00	932.00	933.00	933.00	933.00	933.00	935.00	933.00	934.00	934.00	932.00	932.00	934.00	930.00	933.00	929.00
962.00	962.00	962.00	962.00	963.00	963.00	962.00	963.00	964.00	964.00	966.00	961.00	963.00	962.00	961.00	960.00	960.00	961.00	962.00	963.00	961.00	962.00	961.00	960.00	960.00	960.00	958.00	959.00	959.00	960.00	959.00	959.00	957.00	959.00	960.00	957.00	960.00	958.00	958.00	957.00	960.00	963.00	959.00	958.00	958.00	958.00	959.00	959.00	962.00	957.00	959.00	958.00	956.00	958.00	956.00	960.00	958.00	955.00	953.00	954.00	954.00	953.00	954.00	953.00	954.00	953.00	955.00	953.00	954.00	954.00	954.00	953.00	953.00	955.00	958.00	952.00	951.00	952.00	953.00	952.00	953.00	952.00	953.00	952.00	954.00	956.00	955.00	956.00	952.00	951.00	951.00	952.00	952.00	954.00	954.00	950.00	954.00	949.00	951.00	951.00	952.00	950.00	950.00	950.00	951.00	951.00	952.00	952.00	950.00	950.00	951.00	950.00	952.00	951.00	948.00	949.00	948.00	948.00	948.00	949.00	947.00	948.00	947.00	947.00	948.00	946.00	947.00	946.00	945.00	947.00	944.00	945.00	946.00	945.00	945.00	945.00	945.00	944.00	944.00	944.00	944.00	945.00	945.00	945.00	947.00	943.00	942.00	942.00	942.00	942.00	943.00	942.00	945.00	946.00	941.00	942.00	941.00	943.00	946.00	948.00	947.00	943.00	940.00	940.00	939.00	941.00	943.00	942.00	941.00	941.00	940.00	940.00	938.00	941.00	940.00	937.00	937.00	941.00	941.00	937.00	938.00	940.00	941.00	941.00	937.00	937.00	936.00	937.00	939.00	936.00	937.00	936.00	937.00	935.00	937.00	940.00	934.00	935.00	935.00	935.00	934.00	936.00	937.00	936.00	935.00	933.00	934.00	940.00	934.00	934.00	934.00	933.00	934.00	933.00	937.00	941.00	935.00	934.00	934.00	935.00	935.00	934.00	932.00	933.00	933.00	932.00	933.00	932.00	932.00	932.00	932.00	934.00	932.00	933.00	932.00	932.00	933.00	933.00	933.00	931.00	933.00	932.00	931.00	932.00	933.00	933.00	931.00	933.00	933.00	931.00	932.00	934.00	933.00	929.00	931.00	930.00
963.00	963.00	962.00	962.00	963.00	962.00	962.00	963.00	963.00	963.00	963.00	965.00	966.00	962.00	963.00	964.00	965.00	962.00	962.00	961.00	962.00	961.00	962.00	961.00	960.00	959.00	960.00	959.00	958.00	958.00	960.00	958.00	959.00	958.00	958.00	958.00	960.00	961.00	958.00	959.00	959.00	959.00	965.00	958.00	958.00	957.00	957.00	959.00	959.00	957.00	957.00	958.00	959.00	957.00	958.00	956.00	956.00	953.00	954.00	953.00	953.00	953.00	955.00	954.00	954.00	954.00	955.00	956.00	954.00	955.00	954.00	954.00	955.00	953.00	954.00	955.00	952.00	952.00	951.00	953.00	953.00	951.00	951.00	951.00	952.00	953.00	956.00	956.00	957.00	951.00	953.00	954.00	956.00	952.00	955.00	952.00	951.00	950.00	951.00	952.00	951.00	950.00	950.00	951.00	950.00	951.00	950.00	952.00	952.00	951.00	954.00	949.00	950.00	949.00	949.00	950.00	949.00	948.00	948.00	947.00	948.00	947.00	947.00	947.00	947.00	948.00	946.00	946.00	945.00	947.00	946.00	944.00	945.00	945.00	945.00	946.00	945.00	945.00	944.00	943.00	944.00	944.00	944.00	945.00	945.00	944.00	943.00	942.00	943.00	942.00	942.00	942.00	942.00	943.00	944.00	943.00	941.00	941.00	942.00	944.00	944.00	945.00	945.00	943.00	941.00	939.00	940.00	940.00	941.00	943.00	941.00	942.00	940.00	940.00	941.00	940.00	941.00	937.00	942.00	940.00	938.00	938.00	941.00	939.00	941.00	939.00	937.00	937.00	939.00	943.00	939.00	936.00	936.00	936.00	935.00	938.00	937.00	937.00	936.00	935.00	936.00	933.00	936.00	935.00	935.00	935.00	934.00	935.00	940.00	936.00	940.00	935.00	934.00	933.00	933.00	937.00	937.00	934.00	935.00	935.00	933.00	938.00	934.00	933.00	936.00	933.00	933.00	934.00	934.00	933.00	932.00	933.00	934.00	934.00	933.00	931.00	931.00	931.00	932.00	932.00	931.00	932.00	934.00	931.00	930.00	931.00	932.00	931.00	931.00	935.00	931.00	932.00	933.00	934.00	934.00	933.00
965.00	964.00	966.00	963.00	963.00	962.00	962.00	962.00	962.00	962.00	962.00	962.00	963.00	961.00	962.00	963.00	961.00	964.00	962.00	961.00	962.00	963.00	959.00	959.00	959.00	959.00	959.00	959.00	958.00	959.00	959.00	959.00	957.00	957.00	958.00	959.00	959.00	960.00	959.00	959.00	959.00	960.00	961.00	961.00	960.00	959.00	956.00	957.00	960.00	955.00	958.00	957.00	959.00	954.00	956.00	957.00	958.00	956.00	956.00	957.00	958.00	955.00	955.00	954.00	955.00	955.00	956.00	955.00	957.00	960.00	955.00	953.00	955.00	954.00	953.00	955.00	952.00	950.00	951.00	951.00	952.00	954.00	953.00	953.00	953.00	953.00	952.00	955.00	955.00	954.00	951.00	955.00	959.00	951.00	953.00	955.00	948.00	951.00	951.00	951.00	953.00	951.00	951.00	950.00	950.00	949.00	949.00	949.00	951.00	952.00	952.00	950.00	949.00	950.00	950.00	948.00	949.00	948.00	948.00	949.00	946.00	948.00	947.00	947.00	946.00	952.00	948.00	946.00	946.00	947.00	946.00	945.00	944.00	944.00	944.00	945.00	944.00	947.00	946.00	944.00	944.00	943.00	945.00	945.00	946.00	946.00	944.00	942.00	942.00	943.00	943.00	943.00	942.00	943.00	942.00	943.00	940.00	941.00	941.00	941.00	942.00	945.00	944.00	946.00	946.00	942.00	939.00	940.00	940.00	941.00	943.00	940.00	941.00	943.00	939.00	938.00	938.00	939.00	937.00	940.00	939.00	938.00	938.00	938.00	938.00	937.00	939.00	937.00	937.00	942.00	941.00	941.00	936.00	935.00	936.00	934.00	936.00	935.00	936.00	935.00	933.00	934.00	935.00	935.00	935.00	937.00	934.00	933.00	933.00	935.00	938.00	937.00	937.00	934.00	932.00	934.00	939.00	936.00	936.00	934.00	935.00	935.00	935.00	934.00	934.00	934.00	936.00	934.00	940.00	935.00	933.00	935.00	933.00	933.00	934.00	932.00	932.00	934.00	931.00	932.00	932.00	932.00	933.00	933.00	931.00	932.00	931.00	932.00	932.00	934.00	931.00	931.00	932.00	930.00	933.00	931.00
964.00	964.00	963.00	966.00	962.00	963.00	961.00	963.00	962.00	962.00	963.00	961.00	962.00	962.00	963.00	962.00	961.00	961.00	962.00	961.00	960.00	962.00	958.00	959.00	960.00	959.00	958.00	959.00	959.00	958.00	958.00	958.00	958.00	958.00	958.00	960.00	959.00	960.00	959.00	959.00	960.00	961.00	959.00	960.00	959.00	957.00	957.00	957.00	957.00	958.00	956.00	957.00	958.00	959.00	954.00	955.00	957.00	955.00	955.00	955.00	959.00	954.00	954.00	955.00	955.00	955.00	954.00	954.00	955.00	954.00	955.00	953.00	954.00	954.00	953.00	955.00	957.00	953.00	953.00	954.00	953.00	951.00	953.00	952.00	955.00	951.00	952.00	953.00	953.00	954.00	953.00	951.00	950.00	954.00	950.00	953.00	952.00	955.00	951.00	951.00	951.00	950.00	953.00	951.00	950.00	948.00	950.00	950.00	950.00	949.00	950.00	951.00	951.00	949.00	948.00	950.00	948.00	949.00	948.00	948.00	949.00	948.00	947.00	947.00	947.00	946.00	946.00	945.00	947.00	945.00	946.00	945.00	945.00	945.00	947.00	945.00	947.00	945.00	948.00	944.00	943.00	944.00	944.00	942.00	943.00	945.00	944.00	942.00	943.00	943.00	942.00	941.00	942.00	941.00	942.00	942.00	942.00	941.00	941.00	942.00	942.00	942.00	942.00	942.00	945.00	940.00	940.00	940.00	941.00	940.00	944.00	946.00	940.00	942.00	940.00	937.00	938.00	938.00	939.00	939.00	942.00	938.00	937.00	938.00	937.00	938.00	939.00	937.00	937.00	938.00	941.00	941.00	941.00	937.00	936.00	938.00	937.00	935.00	935.00	938.00	935.00	936.00	934.00	934.00	933.00	934.00	936.00	935.00	934.00	933.00	935.00	934.00	935.00	935.00	938.00	934.00	935.00	938.00	941.00	934.00	934.00	932.00	935.00	934.00	935.00	934.00	931.00	933.00	934.00	936.00	936.00	935.00	930.00	932.00	933.00	932.00	933.00	932.00	932.00	932.00	932.00	932.00	933.00	933.00	932.00	932.00	934.00	930.00	933.00	932.00	933.00	932.00	933.00	932.00	930.00	931.00
963.00	963.00	964.00	962.00	963.00	965.00	962.00	962.00	963.00	962.00	962.00	962.00	962.00	961.00	960.00	962.00	961.00	962.00	961.00	961.00	961.00	962.00	961.00	960.00	959.00	959.00	959.00	959.00	960.00	960.00	959.00	958.00	959.00	960.00	960.00	959.00	959.00	960.00	959.00	959.00	959.00	959.00	959.00	959.00	959.00	959.00	957.00	957.00	957.00	960.00	957.00	957.00	956.00	959.00	956.00	955.00	956.00	957.00	955.00	954.00	954.00	955.00	954.00	955.00	955.00	954.00	955.00	955.00	955.00	956.00	956.00	955.00	953.00	954.00	955.00	956.00	956.00	957.00	955.00	952.00	954.00	952.00	951.00	954.00	954.00	952.00	951.00	951.00	952.00	951.00	952.00	951.00	953.00	953.00	952.00	952.00	952.00	952.00	952.00	951.00	950.00	950.00	950.00	952.00	952.00	949.00	949.00	950.00	949.00	949.00	948.00	952.00	953.00	954.00	950.00	950.00	948.00	949.00	949.00	947.00	948.00	948.00	949.00	948.00	946.00	946.00	948.00	947.00	946.00	949.00	945.00	945.00	946.00	947.00	944.00	944.00	945.00	944.00	945.00	944.00	944.00	944.00	944.00	944.00	943.00	944.00	946.00	944.00	944.00	943.00	941.00	944.00	946.00	945.00	941.00	942.00	942.00	940.00	942.00	941.00	941.00	941.00	940.00	941.00	944.00	944.00	940.00	942.00	941.00	938.00	940.00	943.00	944.00	939.00	942.00	940.00	938.00	938.00	939.00	940.00	941.00	943.00	940.00	941.00	937.00	937.00	937.00	937.00	937.00	936.00	937.00	937.00	938.00	939.00	936.00	936.00	936.00	936.00	933.00	936.00	935.00	936.00	935.00	934.00	936.00	933.00	935.00	935.00	935.00	934.00	935.00	935.00	933.00	935.00	933.00	935.00	933.00	934.00	936.00	936.00	936.00	934.00	934.00	934.00	935.00	935.00	936.00	933.00	934.00	932.00	936.00	935.00	932.00	932.00	932.00	933.00	931.00	932.00	931.00	932.00	932.00	932.00	932.00	932.00	933.00	931.00	931.00	931.00	931.00	932.00	932.00	933.00	931.00	930.00	929.00	930.00
964.00	962.00	962.00	962.00	964.00	964.00	964.00	962.00	962.00	962.00	963.00	962.00	965.00	960.00	960.00	960.00	961.00	960.00	961.00	962.00	962.00	961.00	960.00	960.00	959.00	958.00	959.00	961.00	962.00	963.00	958.00	959.00	959.00	960.00	959.00	961.00	961.00	960.00	961.00	960.00	959.00	959.00	959.00	958.00	960.00	957.00	959.00	958.00	956.00	957.00	957.00	956.00	955.00	961.00	956.00	954.00	955.00	954.00	955.00	955.00	955.00	955.00	955.00	955.00	955.00	955.00	955.00	955.00	955.00	955.00	956.00	955.00	955.00	953.00	954.00	953.00	956.00	957.00	956.00	952.00	953.00	957.00	955.00	953.00	952.00	955.00	953.00	951.00	953.00	954.00	954.00	953.00	954.00	952.00	953.00	949.00	952.00	951.00	950.00	950.00	950.00	950.00	950.00	950.00	952.00	949.00	949.00	948.00	948.00	948.00	947.00	948.00	950.00	951.00	953.00	950.00	952.00	947.00	948.00	948.00	947.00	948.00	949.00	947.00	945.00	948.00	946.00	948.00	948.00	943.00	946.00	946.00	943.00	944.00	944.00	945.00	944.00	944.00	943.00	943.00	944.00	943.00	943.00	944.00	944.00	943.00	945.00	945.00	947.00	943.00	943.00	942.00	942.00	946.00	942.00	942.00	942.00	942.00	941.00	941.00	940.00	944.00	946.00	941.00	942.00	947.00	942.00	941.00	941.00	942.00	939.00	940.00	942.00	941.00	940.00	941.00	940.00	940.00	944.00	938.00	937.00	938.00	939.00	939.00	941.00	940.00	939.00	937.00	936.00	936.00	936.00	937.00	940.00	938.00	936.00	939.00	939.00	934.00	935.00	935.00	935.00	938.00	938.00	934.00	935.00	937.00	934.00	933.00	934.00	934.00	939.00	937.00	936.00	938.00	935.00	934.00	934.00	934.00	934.00	937.00	936.00	938.00	936.00	940.00	938.00	935.00	936.00	933.00	933.00	931.00	931.00	936.00	931.00	933.00	932.00	934.00	932.00	931.00	932.00	933.00	933.00	932.00	932.00	933.00	932.00	932.00	931.00	931.00	931.00	931.00	931.00	931.00	931.00	930.00	929.00	932.00
967.00	964.00	962.00	962.00	963.00	963.00	963.00	962.00	965.00	962.00	961.00	961.00	961.00	965.00	965.00	960.00	960.00	961.00	961.00	960.00	961.00	959.00	959.00	960.00	960.00	959.00	960.00	959.00	959.00	962.00	959.00	959.00	959.00	960.00	960.00	960.00	961.00	960.00	960.00	961.00	959.00	959.00	958.00	957.00	960.00	959.00	956.00	957.00	956.00	956.00	956.00	955.00	956.00	957.00	957.00	958.00	955.00	955.00	955.00	955.00	958.00	957.00	956.00	954.00	955.00	954.00	954.00	954.00	955.00	954.00	955.00	955.00	953.00	953.00	954.00	954.00	954.00	954.00	958.00	957.00	953.00	953.00	954.00	954.00	955.00	953.00	953.00	953.00	953.00	953.00	953.00	953.00	953.00	954.00	954.00	954.00	951.00	951.00	952.00	951.00	951.00	951.00	951.00	949.00	949.00	949.00	949.00	950.00	949.00	949.00	948.00	949.00	948.00	949.00	951.00	950.00	950.00	951.00	948.00	948.00	948.00	947.00	948.00	949.00	947.00	946.00	947.00	946.00	945.00	945.00	943.00	945.00	944.00	945.00	946.00	943.00	945.00	944.00	944.00	943.00	942.00	944.00	943.00	944.00	944.00	943.00	944.00	943.00	946.00	944.00	942.00	941.00	941.00	943.00	945.00	942.00	941.00	943.00	941.00	942.00	941.00	941.00	943.00	942.00	942.00	944.00	945.00	944.00	942.00	941.00	939.00	940.00	940.00	941.00	942.00	941.00	939.00	939.00	940.00	938.00	937.00	938.00	936.00	940.00	937.00	940.00	939.00	939.00	938.00	937.00	936.00	937.00	938.00	936.00	938.00	937.00	940.00	935.00	936.00	934.00	935.00	934.00	937.00	937.00	936.00	934.00	934.00	934.00	933.00	934.00	936.00	937.00	937.00	937.00	938.00	935.00	936.00	935.00	933.00	934.00	935.00	936.00	937.00	936.00	936.00	932.00	935.00	933.00	934.00	930.00	931.00	936.00	939.00	935.00	932.00	933.00	935.00	933.00	934.00	933.00	933.00	934.00	933.00	934.00	938.00	935.00	932.00	932.00	930.00	931.00	932.00	931.00	931.00	933.00	936.00	929.00
966.00	964.00	963.00	963.00	964.00	963.00	962.00	964.00	966.00	967.00	962.00	961.00	962.00	961.00	962.00	963.00	968.00	960.00	960.00	960.00	960.00	960.00	959.00	959.00	960.00	959.00	958.00	962.00	958.00	960.00	958.00	961.00	960.00	959.00	960.00	959.00	959.00	960.00	960.00	958.00	960.00	960.00	959.00	958.00	958.00	961.00	959.00	959.00	957.00	955.00	955.00	956.00	954.00	954.00	956.00	959.00	956.00	955.00	956.00	955.00	955.00	955.00	955.00	955.00	955.00	954.00	955.00	955.00	955.00	954.00	954.00	954.00	955.00	954.00	955.00	954.00	954.00	953.00	955.00	956.00	955.00	954.00	954.00	952.00	953.00	954.00	953.00	954.00	954.00	952.00	952.00	952.00	952.00	954.00	954.00	956.00	954.00	950.00	951.00	951.00	950.00	950.00	950.00	949.00	950.00	948.00	949.00	953.00	949.00	948.00	948.00	950.00	949.00	948.00	949.00	949.00	949.00	952.00	951.00	948.00	949.00	948.00	947.00	950.00	949.00	948.00	945.00	946.00	947.00	946.00	945.00	944.00	945.00	945.00	945.00	945.00	944.00	946.00	945.00	943.00	943.00	945.00	947.00	943.00	943.00	942.00	943.00	944.00	943.00	946.00	945.00	946.00	941.00	942.00	944.00	944.00	941.00	942.00	942.00	942.00	942.00	940.00	941.00	941.00	941.00	944.00	944.00	941.00	942.00	941.00	939.00	939.00	939.00	941.00	941.00	944.00	942.00	938.00	940.00	939.00	939.00	938.00	940.00	941.00	938.00	937.00	938.00	937.00	940.00	939.00	936.00	937.00	936.00	936.00	936.00	937.00	937.00	938.00	934.00	934.00	936.00	935.00	935.00	935.00	935.00	937.00	937.00	936.00	934.00	934.00	934.00	935.00	933.00	933.00	938.00	935.00	933.00	936.00	933.00	933.00	933.00	932.00	934.00	935.00	936.00	934.00	934.00	935.00	934.00	932.00	932.00	934.00	935.00	938.00	934.00	931.00	932.00	934.00	933.00	932.00	933.00	932.00	933.00	932.00	933.00	935.00	935.00	931.00	931.00	933.00	931.00	932.00	930.00	932.00	932.00	930.00
968.00	966.00	964.00	963.00	964.00	964.00	962.00	963.00	962.00	964.00	966.00	960.00	960.00	960.00	960.00	960.00	962.00	961.00	959.00	958.00	960.00	959.00	959.00	958.00	959.00	960.00	958.00	960.00	962.00	960.00	960.00	962.00	958.00	960.00	960.00	959.00	959.00	960.00	959.00	959.00	959.00	958.00	960.00	959.00	958.00	960.00	959.00	956.00	958.00	955.00	956.00	957.00	954.00	955.00	955.00	956.00	957.00	955.00	956.00	955.00	957.00	955.00	955.00	955.00	956.00	955.00	954.00	954.00	954.00	954.00	954.00	953.00	954.00	954.00	954.00	954.00	954.00	954.00	954.00	954.00	955.00	955.00	954.00	954.00	954.00	954.00	957.00	954.00	953.00	953.00	953.00	954.00	953.00	954.00	954.00	951.00	953.00	952.00	952.00	953.00	952.00	949.00	949.00	948.00	951.00	951.00	950.00	949.00	950.00	949.00	949.00	948.00	949.00	951.00	948.00	948.00	948.00	949.00	951.00	951.00	949.00	950.00	950.00	947.00	947.00	949.00	946.00	947.00	945.00	945.00	947.00	946.00	945.00	945.00	944.00	944.00	947.00	944.00	945.00	947.00	944.00	942.00	944.00	943.00	942.00	944.00	943.00	944.00	943.00	944.00	943.00	946.00	943.00	944.00	944.00	945.00	944.00	942.00	941.00	941.00	941.00	942.00	941.00	940.00	941.00	942.00	944.00	941.00	941.00	940.00	944.00	942.00	940.00	939.00	941.00	940.00	943.00	943.00	940.00	941.00	940.00	939.00	939.00	940.00	939.00	936.00	938.00	938.00	936.00	942.00	941.00	939.00	937.00	937.00	936.00	935.00	935.00	939.00	937.00	936.00	934.00	934.00	934.00	935.00	935.00	934.00	937.00	936.00	934.00	934.00	934.00	939.00	937.00	935.00	938.00	937.00	936.00	934.00	934.00	934.00	935.00	932.00	932.00	932.00	933.00	935.00	938.00	937.00	936.00	935.00	930.00	932.00	932.00	936.00	934.00	933.00	933.00	933.00	932.00	935.00	936.00	931.00	932.00	932.00	932.00	932.00	935.00	937.00	931.00	930.00	930.00	931.00	930.00	931.00	931.00	935.00
964.00	965.00	965.00	964.00	965.00	963.00	963.00	964.00	964.00	964.00	965.00	961.00	961.00	960.00	960.00	961.00	962.00	960.00	960.00	959.00	961.00	964.00	958.00	959.00	959.00	959.00	959.00	959.00	959.00	959.00	960.00	961.00	961.00	961.00	960.00	958.00	960.00	958.00	957.00	958.00	959.00	959.00	958.00	958.00	957.00	959.00	959.00	962.00	956.00	957.00	956.00	957.00	958.00	956.00	955.00	957.00	956.00	956.00	956.00	956.00	956.00	955.00	957.00	956.00	956.00	957.00	954.00	954.00	953.00	954.00	953.00	953.00	953.00	953.00	954.00	953.00	954.00	954.00	954.00	954.00	954.00	953.00	953.00	954.00	955.00	955.00	955.00	953.00	954.00	952.00	953.00	953.00	954.00	953.00	953.00	954.00	954.00	952.00	950.00	952.00	953.00	949.00	951.00	954.00	950.00	953.00	949.00	949.00	948.00	950.00	950.00	948.00	948.00	947.00	949.00	951.00	948.00	948.00	950.00	949.00	948.00	947.00	948.00	948.00	948.00	948.00	947.00	947.00	945.00	946.00	945.00	945.00	946.00	948.00	943.00	942.00	943.00	945.00	943.00	945.00	943.00	943.00	944.00	946.00	945.00	942.00	943.00	947.00	942.00	944.00	944.00	944.00	945.00	944.00	943.00	943.00	946.00	946.00	943.00	943.00	941.00	942.00	942.00	941.00	941.00	940.00	942.00	943.00	942.00	940.00	947.00	941.00	941.00	940.00	938.00	940.00	940.00	942.00	943.00	943.00	943.00	940.00	938.00	939.00	939.00	937.00	938.00	940.00	935.00	937.00	942.00	940.00	935.00	936.00	937.00	937.00	935.00	937.00	939.00	937.00	933.00	936.00	936.00	935.00	935.00	934.00	935.00	937.00	936.00	937.00	934.00	935.00	937.00	939.00	937.00	940.00	935.00	934.00	937.00	931.00	933.00	937.00	935.00	934.00	931.00	933.00	932.00	934.00	936.00	934.00	934.00	933.00	931.00	932.00	936.00	940.00	939.00	932.00	932.00	933.00	934.00	932.00	931.00	931.00	932.00	931.00	933.00	934.00	936.00	930.00	930.00	931.00	931.00	931.00	930.00	932.00
965.00	964.00	964.00	964.00	965.00	965.00	965.00	963.00	963.00	964.00	964.00	961.00	961.00	962.00	962.00	962.00	962.00	962.00	962.00	962.00	963.00	962.00	960.00	960.00	960.00	959.00	959.00	960.00	960.00	963.00	960.00	961.00	960.00	960.00	959.00	959.00	961.00	959.00	958.00	959.00	959.00	958.00	956.00	957.00	958.00	956.00	956.00	957.00	960.00	957.00	957.00	957.00	957.00	955.00	955.00	955.00	956.00	957.00	956.00	956.00	957.00	957.00	955.00	955.00	956.00	956.00	956.00	955.00	953.00	954.00	956.00	953.00	954.00	955.00	954.00	954.00	954.00	954.00	954.00	954.00	954.00	954.00	952.00	954.00	953.00	953.00	954.00	953.00	954.00	952.00	951.00	952.00	953.00	952.00	952.00	956.00	954.00	952.00	953.00	950.00	952.00	955.00	950.00	949.00	951.00	949.00	951.00	949.00	950.00	948.00	949.00	949.00	949.00	948.00	948.00	948.00	948.00	948.00	947.00	947.00	949.00	949.00	947.00	947.00	947.00	947.00	947.00	947.00	947.00	948.00	946.00	944.00	944.00	946.00	944.00	944.00	944.00	945.00	944.00	944.00	944.00	944.00	944.00	944.00	943.00	944.00	943.00	943.00	944.00	945.00	942.00	944.00	943.00	945.00	945.00	942.00	943.00	941.00	943.00	943.00	945.00	942.00	942.00	942.00	940.00	941.00	940.00	942.00	943.00	941.00	943.00	943.00	940.00	941.00	938.00	938.00	939.00	939.00	940.00	940.00	942.00	941.00	939.00	939.00	938.00	939.00	938.00	938.00	939.00	936.00	939.00	938.00	936.00	935.00	935.00	937.00	938.00	936.00	936.00	937.00	935.00	938.00	937.00	936.00	934.00	934.00	937.00	935.00	935.00	936.00	935.00	934.00	934.00	934.00	936.00	934.00	937.00	938.00	936.00	933.00	931.00	938.00	934.00	938.00	936.00	935.00	937.00	939.00	934.00	936.00	933.00	937.00	932.00	930.00	932.00	935.00	936.00	933.00	931.00	930.00	931.00	931.00	930.00	930.00	931.00	931.00	932.00	931.00	931.00	935.00	933.00	931.00	930.00	930.00	930.00	929.00
963.00	963.00	964.00	964.00	964.00	965.00	965.00	963.00	964.00	963.00	964.00	961.00	961.00	961.00	963.00	962.00	964.00	962.00	960.00	959.00	960.00	962.00	960.00	961.00	963.00	961.00	960.00	960.00	961.00	960.00	964.00	960.00	961.00	961.00	961.00	958.00	961.00	962.00	960.00	959.00	958.00	957.00	958.00	958.00	956.00	958.00	956.00	958.00	957.00	957.00	955.00	955.00	957.00	958.00	956.00	956.00	956.00	956.00	955.00	956.00	957.00	956.00	955.00	955.00	955.00	956.00	957.00	956.00	957.00	956.00	957.00	954.00	953.00	953.00	953.00	953.00	953.00	954.00	953.00	953.00	954.00	953.00	952.00	952.00	952.00	952.00	954.00	953.00	954.00	952.00	952.00	953.00	952.00	952.00	951.00	953.00	954.00	952.00	951.00	955.00	952.00	952.00	950.00	949.00	949.00	949.00	950.00	949.00	951.00	953.00	952.00	949.00	948.00	948.00	947.00	947.00	947.00	947.00	947.00	949.00	948.00	950.00	950.00	952.00	948.00	947.00	946.00	946.00	947.00	946.00	947.00	946.00	945.00	945.00	945.00	945.00	945.00	944.00	944.00	944.00	944.00	943.00	943.00	945.00	943.00	944.00	943.00	943.00	942.00	943.00	942.00	943.00	943.00	943.00	945.00	944.00	942.00	942.00	942.00	943.00	942.00	944.00	941.00	942.00	942.00	940.00	940.00	941.00	942.00	941.00	940.00	946.00	942.00	943.00	941.00	938.00	938.00	940.00	940.00	938.00	940.00	941.00	939.00	942.00	939.00	940.00	939.00	937.00	937.00	937.00	940.00	938.00	939.00	938.00	941.00	934.00	936.00	935.00	935.00	935.00	936.00	936.00	939.00	936.00	935.00	934.00	937.00	939.00	934.00	936.00	933.00	934.00	933.00	933.00	935.00	938.00	938.00	936.00	934.00	935.00	936.00	934.00	934.00	934.00	935.00	936.00	936.00	937.00	931.00	934.00	935.00	935.00	936.00	936.00	933.00	934.00	935.00	936.00	932.00	932.00	932.00	933.00	932.00	931.00	930.00	930.00	932.00	931.00	931.00	932.00	930.00	935.00	931.00	930.00	930.00	930.00
965.00	964.00	963.00	963.00	963.00	963.00	963.00	965.00	963.00	964.00	962.00	963.00	963.00	960.00	960.00	960.00	962.00	960.00	962.00	961.00	961.00	963.00	960.00	962.00	962.00	961.00	960.00	961.00	961.00	961.00	962.00	959.00	960.00	962.00	960.00	959.00	962.00	961.00	961.00	958.00	959.00	957.00	956.00	956.00	957.00	957.00	957.00	957.00	957.00	956.00	958.00	956.00	958.00	955.00	957.00	957.00	957.00	957.00	956.00	956.00	955.00	955.00	956.00	954.00	954.00	954.00	955.00	953.00	954.00	955.00	954.00	956.00	955.00	954.00	953.00	954.00	954.00	954.00	953.00	953.00	954.00	953.00	953.00	956.00	953.00	953.00	952.00	952.00	954.00	954.00	952.00	951.00	952.00	951.00	951.00	952.00	953.00	956.00	952.00	952.00	953.00	953.00	954.00	952.00	951.00	949.00	949.00	950.00	953.00	952.00	952.00	949.00	948.00	950.00	950.00	947.00	947.00	948.00	947.00	948.00	948.00	949.00	950.00	951.00	948.00	946.00	945.00	947.00	947.00	947.00	946.00	949.00	947.00	945.00	945.00	944.00	945.00	943.00	947.00	945.00	945.00	943.00	944.00	944.00	947.00	942.00	942.00	943.00	943.00	943.00	942.00	943.00	943.00	942.00	944.00	943.00	944.00	942.00	944.00	943.00	942.00	941.00	946.00	943.00	941.00	940.00	941.00	940.00	940.00	943.00	940.00	941.00	943.00	941.00	946.00	943.00	938.00	938.00	940.00	937.00	937.00	938.00	939.00	943.00	943.00	939.00	941.00	936.00	935.00	935.00	936.00	939.00	939.00	939.00	936.00	939.00	937.00	937.00	935.00	937.00	935.00	936.00	935.00	938.00	937.00	936.00	936.00	939.00	936.00	935.00	935.00	935.00	935.00	932.00	933.00	934.00	937.00	940.00	934.00	933.00	936.00	934.00	934.00	934.00	934.00	935.00	936.00	938.00	934.00	933.00	935.00	931.00	935.00	935.00	933.00	933.00	933.00	936.00	935.00	935.00	931.00	935.00	936.00	933.00	933.00	932.00	932.00	931.00	930.00	933.00	931.00	934.00	934.00	932.00	933.00	932.00
