120.00	122.00	124.00	126.00	133.00	136.00	138.00	142.00	147.00	151.00	151.00	148.00	147.00	156.00	164.00	169.00	174.00	179.00	183.00	173.00	164.00	156.00	164.00	157.00	159.00	197.00	205.00	184.00	207.00	205.00	188.00	202.00	249.00	233.00	222.00	249.00	241.00	237.00	225.00	208.00	184.00	174.00	167.00	161.00	160.00	158.00	147.00	141.00	150.00	156.00	154.00	152.00	154.00	155.00	152.00	153.00	154.00	153.00	145.00	140.00	137.00	135.00	133.00	131.00	128.00	128.00	125.00	126.00	126.00	128.00	126.00	123.00	122.00	121.00	121.00	125.00	165.00	167.00	189.00	219.00	206.00	151.00	136.00	160.00	185.00	127.00	112.00	111.00	111.00	110.00	115.00	117.00	115.00	115.00	117.00	122.00	124.00	130.00	138.00	144.00	148.00	152.00	164.00	211.00	223.00	237.00	283.00	351.00	397.00	472.00	518.00	407.00	389.00	411.00	394.00	447.00	366.00	377.00	411.00	469.00	475.00	440.00	458.00	452.00	416.00	407.00	434.00	531.00	566.00	530.00	488.00	510.00	501.00	518.00	528.00	479.00	409.00	369.00	307.00	281.00	270.00	252.00	236.00	231.00	244.00	238.00	225.00	222.00	216.00	219.00	213.00	218.00	201.00	196.00	193.00	191.00	187.00	182.00	166.00	161.00	155.00	192.00	194.00	191.00	187.00	183.00	180.00	179.00	177.00	174.00	162.00	153.00	146.00	144.00	168.00	233.00	248.00	218.00	203.00	251.00	238.00	237.00	234.00	222.00	265.00	267.00	261.00	250.00	223.00	215.00	208.00	202.00	195.00	177.00	171.00	168.00	167.00	174.00	179.00	206.00	233.00	216.00	215.00	245.00	240.00	229.00	207.00	203.00	201.00	193.00	213.00	255.00	280.00	260.00	235.00	250.00	257.00	251.00	250.00	268.00	310.00	369.00	359.00	338.00	368.00	354.00	327.00	335.00	373.00	406.00	400.00	417.00	421.00	333.00	301.00	325.00	324.00	356.00	340.00	361.00	367.00	299.00	293.00	332.00	379.00	353.00	342.00	365.00	389.00	446.00	466.00	499.00	533.00	459.00	426.00	445.00
120.00	122.00	123.00	125.00	131.00	134.00	135.00	137.00	142.00	146.00	148.00	147.00	146.00	155.00	161.00	164.00	168.00	173.00	180.00	176.00	165.00	157.00	152.00	154.00	184.00	209.00	204.00	172.00	195.00	192.00	184.00	207.00	238.00	229.00	219.00	245.00	246.00	247.00	227.00	207.00	181.00	175.00	168.00	160.00	157.00	157.00	157.00	148.00	143.00	151.00	154.00	153.00	151.00	152.00	152.00	152.00	151.00	153.00	147.00	141.00	138.00	137.00	136.00	129.00	129.00	129.00	127.00	126.00	125.00	127.00	123.00	122.00	120.00	121.00	121.00	122.00	150.00	158.00	192.00	212.00	196.00	155.00	133.00	149.00	167.00	120.00	110.00	111.00	111.00	111.00	118.00	123.00	125.00	121.00	123.00	132.00	132.00	140.00	157.00	163.00	170.00	188.00	193.00	236.00	250.00	265.00	324.00	412.00	444.00	515.00	535.00	396.00	431.00	521.00	447.00	491.00	486.00	425.00	472.00	541.00	573.00	461.00	520.00	510.00	476.00	492.00	462.00	425.00	441.00	445.00	481.00	472.00	502.00	572.00	519.00	437.00	384.00	349.00	289.00	258.00	250.00	244.00	232.00	221.00	223.00	227.00	224.00	220.00	208.00	200.00	193.00	200.00	208.00	207.00	203.00	199.00	198.00	191.00	176.00	165.00	156.00	191.00	198.00	196.00	192.00	189.00	181.00	177.00	173.00	175.00	163.00	155.00	147.00	144.00	157.00	212.00	232.00	258.00	247.00	294.00	303.00	297.00	279.00	265.00	267.00	251.00	239.00	234.00	231.00	221.00	205.00	201.00	196.00	185.00	181.00	176.00	170.00	170.00	172.00	180.00	199.00	196.00	202.00	208.00	233.00	231.00	208.00	202.00	197.00	191.00	204.00	261.00	236.00	265.00	235.00	227.00	217.00	215.00	224.00	241.00	264.00	353.00	393.00	366.00	436.00	408.00	386.00	377.00	428.00	477.00	466.00	461.00	494.00	399.00	352.00	360.00	382.00	456.00	400.00	325.00	338.00	305.00	309.00	331.00	337.00	304.00	349.00	371.00	419.00	499.00	517.00	455.00	444.00	443.00	398.00	395.00
120.00	121.00	122.00	122.00	129.00	133.00	134.00	136.00	138.00	144.00	147.00	146.00	143.00	155.00	159.00	158.00	159.00	167.00	176.00	179.00	175.00	162.00	152.00	184.00	207.00	212.00	199.00	168.00	171.00	175.00	166.00	225.00	227.00	217.00	208.00	240.00	222.00	212.00	220.00	211.00	182.00	174.00	168.00	162.00	160.00	155.00	154.00	154.00	151.00	140.00	142.00	151.00	153.00	150.00	153.00	151.00	150.00	149.00	149.00	142.00	138.00	136.00	135.00	133.00	126.00	128.00	128.00	128.00	124.00	125.00	121.00	120.00	120.00	120.00	121.00	120.00	158.00	192.00	201.00	202.00	182.00	156.00	134.00	156.00	157.00	113.00	110.00	110.00	110.00	112.00	118.00	122.00	127.00	129.00	134.00	152.00	149.00	145.00	184.00	188.00	186.00	207.00	228.00	276.00	294.00	293.00	374.00	506.00	536.00	584.00	506.00	373.00	508.00	564.00	534.00	558.00	501.00	519.00	516.00	602.00	598.00	535.00	578.00	566.00	555.00	490.00	538.00	530.00	505.00	437.00	579.00	530.00	515.00	572.00	572.00	451.00	381.00	345.00	282.00	281.00	266.00	271.00	250.00	257.00	246.00	248.00	245.00	234.00	216.00	209.00	200.00	189.00	199.00	204.00	203.00	202.00	202.00	192.00	177.00	170.00	161.00	204.00	204.00	200.00	197.00	192.00	187.00	183.00	180.00	170.00	169.00	163.00	147.00	144.00	157.00	196.00	211.00	214.00	233.00	247.00	249.00	238.00	271.00	275.00	250.00	245.00	251.00	246.00	251.00	245.00	230.00	225.00	218.00	199.00	195.00	190.00	182.00	174.00	170.00	170.00	173.00	172.00	179.00	184.00	190.00	195.00	198.00	187.00	189.00	186.00	186.00	216.00	208.00	223.00	223.00	206.00	202.00	223.00	272.00	275.00	298.00	282.00	332.00	373.00	406.00	433.00	423.00	420.00	435.00	461.00	493.00	509.00	478.00	444.00	389.00	355.00	378.00	403.00	379.00	316.00	326.00	262.00	344.00	327.00	295.00	306.00	354.00	397.00	466.00	516.00	506.00	395.00	377.00	352.00	338.00	321.00
118.00	119.00	120.00	121.00	126.00	130.00	132.00	134.00	139.00	146.00	149.00	146.00	143.00	151.00	156.00	153.00	153.00	160.00	172.00	172.00	177.00	172.00	154.00	188.00	197.00	198.00	191.00	170.00	158.00	164.00	183.00	238.00	213.00	197.00	189.00	232.00	238.00	214.00	198.00	201.00	184.00	177.00	169.00	161.00	160.00	157.00	156.00	154.00	150.00	146.00	138.00	139.00	146.00	151.00	150.00	152.00	151.00	148.00	149.00	143.00	138.00	136.00	135.00	134.00	128.00	125.00	128.00	129.00	122.00	120.00	120.00	119.00	120.00	121.00	120.00	119.00	141.00	181.00	190.00	185.00	178.00	147.00	134.00	170.00	167.00	110.00	110.00	110.00	111.00	112.00	116.00	120.00	130.00	132.00	151.00	173.00	174.00	170.00	176.00	198.00	209.00	215.00	246.00	295.00	322.00	337.00	453.00	557.00	632.00	617.00	512.00	399.00	486.00	602.00	663.00	680.00	581.00	643.00	648.00	647.00	561.00	628.00	641.00	580.00	525.00	503.00	567.00	582.00	573.00	483.00	519.00	562.00	538.00	544.00	475.00	403.00	369.00	347.00	306.00	306.00	287.00	279.00	274.00	273.00	264.00	255.00	243.00	234.00	219.00	213.00	207.00	202.00	183.00	183.00	193.00	195.00	191.00	185.00	175.00	172.00	169.00	191.00	201.00	201.00	199.00	196.00	189.00	185.00	181.00	172.00	162.00	162.00	156.00	146.00	147.00	173.00	177.00	190.00	226.00	236.00	209.00	211.00	239.00	260.00	280.00	256.00	233.00	229.00	259.00	248.00	225.00	219.00	215.00	201.00	197.00	193.00	191.00	184.00	203.00	201.00	206.00	198.00	191.00	182.00	177.00	178.00	181.00	198.00	215.00	216.00	198.00	213.00	211.00	205.00	198.00	199.00	199.00	209.00	237.00	237.00	273.00	264.00	270.00	290.00	359.00	373.00	378.00	408.00	420.00	424.00	453.00	457.00	445.00	395.00	373.00	339.00	328.00	366.00	332.00	303.00	283.00	248.00	317.00	296.00	287.00	311.00	359.00	417.00	499.00	512.00	473.00	378.00	340.00	284.00	266.00	263.00
118.00	119.00	119.00	121.00	125.00	127.00	129.00	131.00	136.00	150.00	154.00	151.00	142.00	145.00	149.00	150.00	146.00	152.00	160.00	161.00	164.00	170.00	146.00	175.00	183.00	179.00	182.00	163.00	155.00	172.00	199.00	219.00	216.00	186.00	188.00	236.00	239.00	226.00	206.00	193.00	184.00	176.00	172.00	162.00	159.00	157.00	156.00	156.00	155.00	152.00	151.00	142.00	139.00	138.00	147.00	148.00	151.00	151.00	144.00	140.00	137.00	136.00	136.00	135.00	129.00	126.00	124.00	125.00	121.00	122.00	119.00	119.00	125.00	122.00	119.00	119.00	129.00	153.00	160.00	166.00	163.00	147.00	130.00	149.00	138.00	115.00	113.00	111.00	113.00	113.00	113.00	120.00	134.00	140.00	160.00	180.00	188.00	191.00	174.00	196.00	231.00	241.00	253.00	308.00	340.00	371.00	451.00	610.00	660.00	581.00	507.00	428.00	473.00	527.00	555.00	599.00	669.00	734.00	699.00	626.00	632.00	616.00	589.00	586.00	627.00	525.00	585.00	597.00	617.00	549.00	454.00	517.00	578.00	563.00	413.00	381.00	365.00	328.00	292.00	298.00	297.00	290.00	268.00	247.00	244.00	239.00	236.00	232.00	210.00	203.00	200.00	197.00	184.00	177.00	173.00	179.00	180.00	168.00	169.00	177.00	187.00	188.00	190.00	199.00	197.00	194.00	191.00	188.00	185.00	177.00	169.00	161.00	154.00	149.00	149.00	214.00	226.00	209.00	212.00	231.00	216.00	198.00	193.00	228.00	251.00	251.00	243.00	225.00	233.00	229.00	212.00	206.00	203.00	195.00	193.00	191.00	185.00	237.00	261.00	254.00	249.00	226.00	213.00	203.00	192.00	182.00	190.00	222.00	251.00	265.00	220.00	258.00	241.00	221.00	205.00	211.00	203.00	200.00	208.00	215.00	244.00	283.00	290.00	305.00	323.00	334.00	363.00	396.00	403.00	388.00	387.00	429.00	387.00	355.00	327.00	301.00	286.00	323.00	328.00	293.00	268.00	239.00	286.00	294.00	333.00	353.00	398.00	471.00	502.00	454.00	428.00	369.00	353.00	285.00	254.00	218.00
118.00	120.00	120.00	121.00	123.00	125.00	127.00	129.00	132.00	147.00	155.00	157.00	146.00	141.00	142.00	142.00	143.00	144.00	152.00	154.00	155.00	160.00	144.00	156.00	166.00	165.00	159.00	158.00	152.00	161.00	177.00	203.00	199.00	187.00	178.00	220.00	227.00	219.00	207.00	192.00	179.00	176.00	173.00	164.00	161.00	157.00	157.00	156.00	157.00	153.00	153.00	154.00	154.00	151.00	140.00	144.00	145.00	146.00	148.00	142.00	137.00	135.00	135.00	133.00	132.00	128.00	127.00	121.00	122.00	123.00	118.00	118.00	127.00	124.00	119.00	119.00	134.00	144.00	147.00	150.00	153.00	148.00	133.00	124.00	125.00	113.00	113.00	110.00	110.00	111.00	111.00	119.00	140.00	149.00	150.00	192.00	200.00	205.00	206.00	231.00	248.00	264.00	283.00	316.00	379.00	460.00	494.00	583.00	646.00	609.00	521.00	454.00	457.00	460.00	476.00	506.00	732.00	789.00	757.00	700.00	708.00	704.00	705.00	649.00	623.00	620.00	577.00	630.00	562.00	542.00	495.00	475.00	515.00	554.00	468.00	463.00	440.00	371.00	298.00	268.00	265.00	268.00	278.00	245.00	230.00	227.00	233.00	232.00	207.00	206.00	201.00	194.00	177.00	177.00	184.00	208.00	215.00	182.00	193.00	193.00	216.00	218.00	210.00	200.00	202.00	196.00	189.00	188.00	185.00	177.00	172.00	169.00	155.00	148.00	150.00	197.00	235.00	246.00	237.00	210.00	209.00	205.00	191.00	187.00	236.00	234.00	237.00	234.00	220.00	237.00	231.00	215.00	209.00	205.00	197.00	188.00	183.00	209.00	232.00	261.00	285.00	267.00	215.00	203.00	187.00	190.00	195.00	205.00	263.00	276.00	246.00	269.00	241.00	221.00	222.00	223.00	211.00	209.00	237.00	245.00	238.00	283.00	301.00	332.00	417.00	389.00	367.00	364.00	359.00	383.00	358.00	384.00	402.00	331.00	313.00	301.00	288.00	277.00	264.00	236.00	232.00	239.00	357.00	395.00	407.00	419.00	443.00	518.00	524.00	449.00	389.00	355.00	312.00	264.00	260.00	234.00
119.00	121.00	122.00	123.00	124.00	125.00	127.00	128.00	130.00	141.00	151.00	161.00	154.00	145.00	145.00	143.00	139.00	139.00	145.00	148.00	152.00	156.00	148.00	144.00	149.00	149.00	153.00	171.00	160.00	163.00	158.00	174.00	173.00	176.00	173.00	210.00	222.00	219.00	203.00	190.00	181.00	176.00	173.00	167.00	161.00	159.00	158.00	156.00	157.00	156.00	154.00	153.00	153.00	155.00	145.00	139.00	136.00	138.00	142.00	144.00	139.00	136.00	134.00	133.00	131.00	129.00	128.00	120.00	119.00	118.00	119.00	118.00	120.00	125.00	118.00	120.00	154.00	152.00	167.00	166.00	161.00	154.00	156.00	133.00	125.00	111.00	110.00	110.00	110.00	110.00	110.00	111.00	118.00	135.00	151.00	191.00	204.00	221.00	222.00	229.00	250.00	272.00	303.00	358.00	410.00	475.00	584.00	667.00	645.00	575.00	524.00	471.00	457.00	505.00	538.00	541.00	674.00	772.00	841.00	820.00	787.00	769.00	684.00	697.00	707.00	623.00	644.00	654.00	599.00	631.00	528.00	473.00	528.00	555.00	436.00	410.00	383.00	356.00	313.00	262.00	260.00	250.00	249.00	255.00	243.00	228.00	217.00	217.00	197.00	190.00	191.00	189.00	178.00	193.00	210.00	213.00	232.00	196.00	229.00	206.00	217.00	235.00	226.00	215.00	209.00	204.00	192.00	187.00	183.00	177.00	169.00	168.00	163.00	152.00	148.00	178.00	197.00	227.00	263.00	212.00	199.00	195.00	184.00	183.00	220.00	247.00	269.00	261.00	263.00	265.00	243.00	237.00	233.00	215.00	206.00	194.00	192.00	219.00	233.00	277.00	302.00	252.00	209.00	200.00	194.00	185.00	242.00	232.00	236.00	227.00	243.00	289.00	264.00	240.00	224.00	243.00	220.00	218.00	223.00	226.00	261.00	294.00	332.00	328.00	422.00	420.00	416.00	398.00	373.00	361.00	355.00	330.00	358.00	303.00	296.00	286.00	275.00	276.00	243.00	229.00	238.00	250.00	419.00	428.00	410.00	395.00	473.00	555.00	540.00	467.00	393.00	319.00	288.00	235.00	218.00	199.00
121.00	121.00	123.00	124.00	125.00	128.00	128.00	131.00	138.00	141.00	147.00	159.00	162.00	150.00	150.00	150.00	148.00	140.00	142.00	145.00	148.00	153.00	145.00	138.00	148.00	186.00	217.00	226.00	197.00	181.00	176.00	192.00	225.00	222.00	220.00	213.00	209.00	216.00	209.00	192.00	176.00	175.00	171.00	164.00	163.00	157.00	158.00	158.00	155.00	155.00	156.00	155.00	153.00	153.00	152.00	150.00	144.00	144.00	130.00	134.00	137.00	137.00	138.00	133.00	130.00	130.00	128.00	121.00	121.00	118.00	118.00	118.00	117.00	118.00	119.00	126.00	181.00	163.00	175.00	191.00	180.00	166.00	193.00	148.00	114.00	109.00	109.00	109.00	109.00	110.00	112.00	111.00	114.00	121.00	153.00	190.00	204.00	202.00	208.00	236.00	255.00	273.00	319.00	392.00	423.00	466.00	620.00	709.00	650.00	616.00	572.00	515.00	494.00	467.00	482.00	524.00	693.00	739.00	807.00	878.00	874.00	754.00	757.00	791.00	772.00	689.00	738.00	682.00	655.00	603.00	504.00	510.00	465.00	434.00	398.00	350.00	329.00	305.00	278.00	258.00	243.00	237.00	237.00	238.00	239.00	236.00	222.00	219.00	195.00	199.00	201.00	192.00	199.00	207.00	224.00	240.00	208.00	229.00	232.00	252.00	250.00	245.00	232.00	222.00	216.00	211.00	200.00	194.00	188.00	177.00	167.00	164.00	163.00	155.00	148.00	161.00	180.00	211.00	253.00	226.00	206.00	185.00	185.00	211.00	226.00	238.00	267.00	288.00	283.00	264.00	279.00	258.00	246.00	213.00	204.00	197.00	213.00	252.00	272.00	284.00	289.00	246.00	282.00	245.00	223.00	206.00	208.00	219.00	208.00	198.00	202.00	273.00	306.00	272.00	287.00	256.00	255.00	269.00	243.00	225.00	280.00	353.00	416.00	407.00	401.00	403.00	395.00	384.00	368.00	326.00	313.00	293.00	326.00	277.00	260.00	262.00	280.00	256.00	234.00	232.00	255.00	272.00	372.00	371.00	351.00	368.00	479.00	558.00	536.00	482.00	421.00	328.00	304.00	261.00	236.00	185.00
122.00	122.00	122.00	124.00	127.00	130.00	134.00	133.00	139.00	154.00	153.00	163.00	169.00	154.00	151.00	155.00	155.00	148.00	136.00	140.00	142.00	146.00	141.00	160.00	187.00	201.00	215.00	241.00	231.00	225.00	206.00	191.00	232.00	222.00	215.00	225.00	205.00	202.00	209.00	197.00	176.00	172.00	169.00	164.00	164.00	159.00	155.00	157.00	159.00	154.00	155.00	155.00	154.00	153.00	153.00	152.00	151.00	151.00	145.00	136.00	129.00	130.00	137.00	136.00	130.00	128.00	129.00	122.00	120.00	118.00	120.00	118.00	117.00	117.00	119.00	139.00	190.00	187.00	191.00	206.00	194.00	177.00	191.00	145.00	109.00	108.00	108.00	109.00	109.00	110.00	111.00	112.00	118.00	134.00	167.00	174.00	189.00	213.00	214.00	219.00	249.00	274.00	317.00	386.00	441.00	495.00	600.00	655.00	622.00	568.00	564.00	540.00	508.00	542.00	534.00	503.00	621.00	685.00	763.00	826.00	872.00	870.00	855.00	833.00	781.00	752.00	710.00	656.00	629.00	594.00	510.00	567.00	516.00	416.00	343.00	314.00	335.00	316.00	258.00	253.00	248.00	242.00	237.00	228.00	228.00	232.00	230.00	218.00	209.00	196.00	194.00	190.00	200.00	197.00	217.00	232.00	244.00	229.00	244.00	240.00	243.00	255.00	242.00	228.00	215.00	208.00	198.00	192.00	190.00	185.00	176.00	168.00	164.00	160.00	155.00	163.00	194.00	207.00	238.00	218.00	206.00	190.00	188.00	205.00	226.00	225.00	258.00	250.00	291.00	279.00	282.00	271.00	244.00	243.00	229.00	196.00	220.00	294.00	305.00	322.00	312.00	257.00	279.00	254.00	239.00	224.00	197.00	197.00	196.00	196.00	202.00	249.00	280.00	295.00	293.00	282.00	286.00	274.00	240.00	244.00	274.00	401.00	446.00	441.00	378.00	383.00	409.00	369.00	336.00	296.00	296.00	280.00	296.00	260.00	244.00	249.00	301.00	237.00	230.00	239.00	270.00	318.00	321.00	325.00	350.00	391.00	519.00	487.00	444.00	414.00	381.00	298.00	270.00	249.00	243.00	203.00
122.00	122.00	122.00	124.00	127.00	130.00	134.00	133.00	139.00	154.00	153.00	163.00	169.00	154.00	151.00	155.00	155.00	148.00	136.00	140.00	142.00	146.00	141.00	160.00	187.00	201.00	215.00	241.00	231.00	225.00	206.00	191.00	232.00	222.00	215.00	225.00	205.00	202.00	209.00	197.00	176.00	172.00	169.00	164.00	164.00	159.00	155.00	157.00	159.00	154.00	155.00	155.00	154.00	153.00	153.00	152.00	151.00	151.00	145.00	136.00	129.00	130.00	137.00	136.00	130.00	128.00	129.00	122.00	120.00	118.00	120.00	118.00	117.00	117.00	119.00	139.00	190.00	187.00	191.00	206.00	194.00	177.00	191.00	145.00	109.00	108.00	108.00	109.00	109.00	110.00	111.00	112.00	118.00	134.00	167.00	174.00	189.00	213.00	214.00	219.00	249.00	274.00	317.00	386.00	441.00	495.00	600.00	655.00	622.00	568.00	564.00	540.00	508.00	542.00	534.00	503.00	621.00	685.00	763.00	826.00	872.00	870.00	855.00	833.00	781.00	752.00	710.00	656.00	629.00	594.00	510.00	567.00	516.00	416.00	343.00	314.00	335.00	316.00	258.00	253.00	248.00	242.00	237.00	228.00	228.00	232.00	230.00	218.00	209.00	196.00	194.00	190.00	200.00	197.00	217.00	232.00	244.00	229.00	244.00	240.00	243.00	255.00	242.00	228.00	215.00	208.00	198.00	192.00	190.00	185.00	176.00	168.00	164.00	160.00	155.00	163.00	194.00	207.00	238.00	218.00	206.00	190.00	188.00	205.00	226.00	225.00	258.00	250.00	291.00	279.00	282.00	271.00	244.00	243.00	229.00	196.00	220.00	294.00	305.00	322.00	312.00	257.00	279.00	254.00	239.00	224.00	197.00	197.00	196.00	196.00	202.00	249.00	280.00	295.00	293.00	282.00	286.00	274.00	240.00	244.00	274.00	401.00	446.00	441.00	378.00	383.00	409.00	369.00	336.00	296.00	296.00	280.00	296.00	260.00	244.00	249.00	301.00	237.00	230.00	239.00	270.00	318.00	321.00	325.00	350.00	391.00	519.00	487.00	444.00	414.00	381.00	298.00	270.00	249.00	243.00	203.00
121.00	122.00	123.00	124.00	128.00	126.00	129.00	132.00	138.00	145.00	146.00	152.00	158.00	168.00	161.00	155.00	156.00	153.00	136.00	132.00	140.00	145.00	174.00	168.00	167.00	195.00	212.00	226.00	227.00	241.00	266.00	266.00	247.00	226.00	212.00	200.00	186.00	195.00	205.00	192.00	178.00	173.00	170.00	165.00	164.00	158.00	158.00	159.00	157.00	149.00	149.00	152.00	154.00	155.00	152.00	152.00	154.00	154.00	148.00	144.00	134.00	126.00	134.00	132.00	128.00	128.00	127.00	117.00	124.00	123.00	123.00	121.00	117.00	130.00	149.00	165.00	186.00	207.00	189.00	165.00	179.00	182.00	160.00	128.00	108.00	108.00	108.00	108.00	108.00	109.00	127.00	139.00	154.00	167.00	204.00	193.00	186.00	197.00	225.00	236.00	246.00	259.00	270.00	335.00	409.00	500.00	567.00	489.00	505.00	477.00	539.00	547.00	607.00	620.00	618.00	637.00	649.00	756.00	794.00	806.00	803.00	817.00	790.00	784.00	731.00	656.00	634.00	632.00	655.00	584.00	599.00	541.00	480.00	431.00	332.00	296.00	276.00	261.00	246.00	229.00	230.00	240.00	234.00	222.00	221.00	215.00	211.00	211.00	230.00	227.00	216.00	201.00	198.00	197.00	212.00	221.00	223.00	202.00	209.00	196.00	218.00	222.00	223.00	224.00	217.00	210.00	207.00	203.00	194.00	184.00	170.00	166.00	161.00	161.00	159.00	151.00	154.00	169.00	200.00	208.00	197.00	190.00	191.00	184.00	179.00	189.00	193.00	224.00	256.00	266.00	308.00	283.00	261.00	226.00	267.00	276.00	228.00	204.00	220.00	251.00	232.00	246.00	274.00	244.00	223.00	203.00	212.00	222.00	245.00	234.00	225.00	210.00	218.00	228.00	234.00	299.00	315.00	297.00	275.00	254.00	322.00	434.00	414.00	403.00	357.00	359.00	353.00	340.00	301.00	284.00	264.00	262.00	248.00	275.00	248.00	228.00	251.00	228.00	250.00	280.00	384.00	413.00	352.00	357.00	403.00	493.00	456.00	384.00	349.00	299.00	245.00	242.00	221.00	208.00	201.00	176.00
121.00	122.00	123.00	124.00	128.00	126.00	129.00	132.00	138.00	145.00	146.00	152.00	158.00	168.00	161.00	155.00	156.00	153.00	136.00	132.00	140.00	145.00	174.00	168.00	167.00	195.00	212.00	226.00	227.00	241.00	266.00	266.00	247.00	226.00	212.00	200.00	186.00	195.00	205.00	192.00	178.00	173.00	170.00	165.00	164.00	158.00	158.00	159.00	157.00	149.00	149.00	152.00	154.00	155.00	152.00	152.00	154.00	154.00	148.00	144.00	134.00	126.00	134.00	132.00	128.00	128.00	127.00	117.00	124.00	123.00	123.00	121.00	117.00	130.00	149.00	165.00	186.00	207.00	189.00	165.00	179.00	182.00	160.00	128.00	108.00	108.00	108.00	108.00	108.00	109.00	127.00	139.00	154.00	167.00	204.00	193.00	186.00	197.00	225.00	236.00	246.00	259.00	270.00	335.00	409.00	500.00	567.00	489.00	505.00	477.00	539.00	547.00	607.00	620.00	618.00	637.00	649.00	756.00	794.00	806.00	803.00	817.00	790.00	784.00	731.00	656.00	634.00	632.00	655.00	584.00	599.00	541.00	480.00	431.00	332.00	296.00	276.00	261.00	246.00	229.00	230.00	240.00	234.00	222.00	221.00	215.00	211.00	211.00	230.00	227.00	216.00	201.00	198.00	197.00	212.00	221.00	223.00	202.00	209.00	196.00	218.00	222.00	223.00	224.00	217.00	210.00	207.00	203.00	194.00	184.00	170.00	166.00	161.00	161.00	159.00	151.00	154.00	169.00	200.00	208.00	197.00	190.00	191.00	184.00	179.00	189.00	193.00	224.00	256.00	266.00	308.00	283.00	261.00	226.00	267.00	276.00	228.00	204.00	220.00	251.00	232.00	246.00	274.00	244.00	223.00	203.00	212.00	222.00	245.00	234.00	225.00	210.00	218.00	228.00	234.00	299.00	315.00	297.00	275.00	254.00	322.00	434.00	414.00	403.00	357.00	359.00	353.00	340.00	301.00	284.00	264.00	262.00	248.00	275.00	248.00	228.00	251.00	228.00	250.00	280.00	384.00	413.00	352.00	357.00	403.00	493.00	456.00	384.00	349.00	299.00	245.00	242.00	221.00	208.00	201.00	176.00
120.00	121.00	122.00	124.00	124.00	127.00	127.00	129.00	133.00	138.00	139.00	143.00	151.00	166.00	171.00	164.00	161.00	160.00	139.00	131.00	137.00	141.00	167.00	162.00	157.00	170.00	179.00	188.00	191.00	215.00	246.00	249.00	245.00	221.00	208.00	197.00	181.00	177.00	194.00	196.00	177.00	174.00	173.00	167.00	165.00	163.00	157.00	156.00	157.00	153.00	149.00	149.00	152.00	153.00	151.00	151.00	150.00	152.00	150.00	144.00	136.00	129.00	126.00	130.00	128.00	127.00	126.00	120.00	119.00	122.00	121.00	117.00	130.00	155.00	166.00	175.00	190.00	214.00	205.00	178.00	160.00	170.00	145.00	127.00	110.00	107.00	108.00	108.00	108.00	109.00	143.00	163.00	181.00	195.00	212.00	218.00	209.00	200.00	210.00	225.00	238.00	244.00	260.00	354.00	367.00	376.00	401.00	434.00	456.00	522.00	555.00	545.00	607.00	625.00	648.00	681.00	717.00	745.00	828.00	818.00	729.00	657.00	664.00	737.00	745.00	703.00	707.00	675.00	641.00	639.00	516.00	458.00	422.00	377.00	306.00	281.00	267.00	259.00	248.00	227.00	223.00	217.00	214.00	221.00	216.00	217.00	217.00	215.00	206.00	218.00	220.00	229.00	215.00	216.00	210.00	215.00	229.00	203.00	191.00	185.00	209.00	226.00	229.00	222.00	215.00	211.00	207.00	205.00	204.00	193.00	168.00	166.00	181.00	177.00	168.00	158.00	153.00	156.00	176.00	194.00	198.00	192.00	179.00	177.00	178.00	208.00	206.00	208.00	287.00	273.00	309.00	308.00	286.00	248.00	263.00	264.00	238.00	230.00	224.00	211.00	208.00	225.00	267.00	284.00	257.00	223.00	226.00	240.00	273.00	248.00	233.00	208.00	206.00	228.00	265.00	278.00	282.00	299.00	277.00	264.00	332.00	409.00	417.00	405.00	399.00	360.00	313.00	290.00	274.00	271.00	281.00	280.00	252.00	263.00	252.00	241.00	221.00	244.00	270.00	311.00	342.00	364.00	355.00	368.00	412.00	474.00	430.00	362.00	303.00	267.00	237.00	207.00	220.00	192.00	178.00	165.00
123.00	121.00	122.00	122.00	123.00	123.00	125.00	128.00	129.00	132.00	133.00	138.00	150.00	155.00	168.00	174.00	166.00	158.00	148.00	136.00	130.00	136.00	159.00	155.00	149.00	168.00	189.00	197.00	208.00	220.00	242.00	267.00	234.00	217.00	228.00	217.00	191.00	184.00	177.00	189.00	175.00	171.00	170.00	166.00	166.00	168.00	164.00	159.00	155.00	155.00	151.00	145.00	147.00	152.00	151.00	150.00	149.00	150.00	149.00	147.00	139.00	131.00	127.00	123.00	128.00	128.00	125.00	121.00	127.00	121.00	116.00	116.00	120.00	134.00	160.00	164.00	183.00	206.00	219.00	213.00	200.00	144.00	131.00	119.00	114.00	108.00	108.00	107.00	107.00	110.00	135.00	148.00	165.00	174.00	175.00	201.00	204.00	213.00	218.00	222.00	222.00	242.00	279.00	353.00	416.00	457.00	426.00	437.00	462.00	477.00	515.00	593.00	639.00	665.00	696.00	732.00	785.00	768.00	797.00	812.00	763.00	624.00	572.00	630.00	662.00	634.00	630.00	622.00	611.00	571.00	555.00	470.00	409.00	361.00	295.00	280.00	262.00	250.00	244.00	214.00	214.00	219.00	218.00	206.00	203.00	203.00	205.00	205.00	201.00	197.00	199.00	219.00	212.00	209.00	211.00	210.00	217.00	211.00	198.00	187.00	180.00	197.00	229.00	231.00	222.00	212.00	194.00	190.00	186.00	191.00	166.00	180.00	202.00	192.00	180.00	163.00	157.00	152.00	153.00	173.00	180.00	178.00	173.00	187.00	213.00	207.00	226.00	215.00	231.00	234.00	281.00	286.00	292.00	261.00	273.00	295.00	278.00	263.00	244.00	221.00	240.00	216.00	233.00	258.00	274.00	271.00	250.00	270.00	284.00	265.00	254.00	215.00	209.00	216.00	254.00	250.00	249.00	271.00	303.00	298.00	316.00	382.00	374.00	366.00	365.00	389.00	349.00	303.00	280.00	263.00	278.00	286.00	257.00	249.00	268.00	249.00	234.00	280.00	333.00	425.00	436.00	378.00	352.00	357.00	400.00	444.00	390.00	361.00	307.00	264.00	240.00	194.00	182.00	193.00	173.00	159.00
124.00	123.00	123.00	123.00	123.00	123.00	124.00	125.00	127.00	129.00	132.00	134.00	144.00	148.00	158.00	172.00	169.00	158.00	145.00	143.00	136.00	132.00	149.00	151.00	147.00	159.00	175.00	202.00	205.00	198.00	198.00	230.00	251.00	250.00	252.00	260.00	223.00	201.00	183.00	176.00	173.00	170.00	168.00	163.00	162.00	164.00	167.00	165.00	162.00	154.00	153.00	150.00	147.00	143.00	154.00	153.00	151.00	149.00	147.00	144.00	140.00	135.00	131.00	124.00	121.00	123.00	119.00	116.00	115.00	116.00	116.00	115.00	115.00	117.00	127.00	149.00	179.00	195.00	205.00	207.00	179.00	150.00	126.00	114.00	112.00	107.00	107.00	108.00	107.00	109.00	124.00	132.00	138.00	143.00	166.00	172.00	192.00	199.00	256.00	274.00	273.00	265.00	311.00	389.00	402.00	394.00	427.00	448.00	466.00	485.00	510.00	543.00	614.00	658.00	720.00	779.00	739.00	703.00	711.00	737.00	705.00	654.00	569.00	531.00	597.00	607.00	553.00	506.00	507.00	497.00	548.00	469.00	440.00	374.00	281.00	259.00	247.00	237.00	236.00	222.00	211.00	204.00	211.00	210.00	203.00	221.00	223.00	216.00	199.00	195.00	190.00	189.00	208.00	205.00	199.00	198.00	202.00	227.00	201.00	191.00	179.00	185.00	207.00	236.00	227.00	221.00	209.00	198.00	196.00	177.00	171.00	194.00	209.00	201.00	190.00	175.00	164.00	159.00	157.00	155.00	160.00	162.00	161.00	164.00	211.00	214.00	236.00	274.00	254.00	249.00	239.00	254.00	294.00	289.00	280.00	279.00	300.00	261.00	255.00	250.00	275.00	241.00	230.00	234.00	254.00	273.00	294.00	286.00	286.00	272.00	250.00	216.00	223.00	214.00	233.00	246.00	257.00	252.00	282.00	312.00	361.00	409.00	397.00	367.00	323.00	343.00	318.00	295.00	280.00	261.00	292.00	294.00	262.00	243.00	265.00	274.00	273.00	286.00	408.00	489.00	432.00	374.00	350.00	342.00	359.00	399.00	318.00	286.00	267.00	233.00	237.00	216.00	188.00	182.00	164.00	157.00
125.00	124.00	126.00	126.00	125.00	124.00	124.00	126.00	126.00	129.00	130.00	131.00	135.00	139.00	148.00	161.00	171.00	166.00	140.00	137.00	134.00	128.00	142.00	146.00	145.00	151.00	152.00	157.00	167.00	172.00	175.00	191.00	249.00	265.00	274.00	266.00	243.00	225.00	213.00	198.00	177.00	174.00	168.00	169.00	169.00	165.00	161.00	160.00	164.00	161.00	159.00	158.00	154.00	150.00	149.00	154.00	154.00	155.00	150.00	144.00	140.00	135.00	133.00	128.00	122.00	118.00	119.00	116.00	114.00	115.00	115.00	115.00	115.00	117.00	121.00	141.00	154.00	164.00	186.00	205.00	200.00	140.00	118.00	113.00	110.00	107.00	107.00	107.00	107.00	107.00	118.00	137.00	144.00	156.00	216.00	213.00	254.00	254.00	274.00	281.00	335.00	357.00	336.00	317.00	387.00	468.00	488.00	466.00	479.00	502.00	534.00	564.00	605.00	675.00	763.00	812.00	687.00	685.00	683.00	636.00	644.00	629.00	599.00	489.00	525.00	565.00	541.00	444.00	446.00	489.00	493.00	460.00	380.00	349.00	264.00	253.00	245.00	240.00	228.00	228.00	230.00	225.00	210.00	214.00	215.00	217.00	236.00	235.00	238.00	226.00	206.00	201.00	192.00	195.00	195.00	190.00	183.00	218.00	217.00	204.00	194.00	175.00	186.00	200.00	223.00	219.00	218.00	205.00	209.00	210.00	201.00	191.00	198.00	198.00	192.00	183.00	173.00	167.00	162.00	189.00	212.00	213.00	194.00	181.00	213.00	260.00	257.00	250.00	289.00	315.00	252.00	247.00	272.00	271.00	291.00	295.00	302.00	297.00	315.00	320.00	313.00	283.00	267.00	251.00	249.00	244.00	282.00	292.00	286.00	264.00	247.00	241.00	251.00	231.00	247.00	283.00	300.00	277.00	278.00	323.00	351.00	426.00	416.00	381.00	318.00	312.00	318.00	317.00	293.00	265.00	270.00	293.00	260.00	237.00	269.00	325.00	363.00	262.00	420.00	469.00	410.00	347.00	327.00	322.00	315.00	363.00	331.00	281.00	239.00	216.00	218.00	225.00	205.00	166.00	161.00	157.00
123.00	128.00	127.00	127.00	127.00	126.00	126.00	125.00	126.00	127.00	130.00	132.00	134.00	136.00	139.00	144.00	155.00	164.00	144.00	134.00	131.00	127.00	137.00	141.00	156.00	196.00	198.00	182.00	176.00	172.00	168.00	180.00	206.00	223.00	251.00	249.00	241.00	233.00	222.00	212.00	189.00	181.00	177.00	171.00	171.00	168.00	166.00	163.00	161.00	158.00	159.00	158.00	157.00	155.00	141.00	142.00	148.00	152.00	150.00	147.00	139.00	133.00	133.00	131.00	127.00	123.00	117.00	114.00	115.00	115.00	120.00	118.00	114.00	118.00	131.00	140.00	180.00	170.00	172.00	190.00	211.00	144.00	118.00	113.00	109.00	108.00	107.00	107.00	108.00	109.00	108.00	121.00	137.00	149.00	232.00	263.00	281.00	295.00	347.00	339.00	303.00	301.00	344.00	349.00	317.00	369.00	397.00	498.00	509.00	461.00	489.00	489.00	571.00	644.00	731.00	802.00	615.00	609.00	696.00	672.00	575.00	539.00	596.00	539.00	447.00	455.00	448.00	416.00	434.00	471.00	448.00	401.00	367.00	330.00	270.00	257.00	240.00	232.00	221.00	223.00	224.00	229.00	231.00	222.00	221.00	220.00	223.00	237.00	242.00	243.00	224.00	228.00	221.00	206.00	187.00	191.00	200.00	184.00	193.00	206.00	218.00	192.00	175.00	182.00	195.00	192.00	178.00	189.00	175.00	180.00	179.00	180.00	166.00	161.00	162.00	162.00	164.00	155.00	157.00	171.00	202.00	230.00	241.00	208.00	187.00	192.00	220.00	258.00	300.00	307.00	306.00	269.00	273.00	273.00	254.00	259.00	288.00	308.00	319.00	304.00	303.00	327.00	287.00	305.00	308.00	281.00	285.00	321.00	320.00	286.00	261.00	256.00	276.00	248.00	279.00	328.00	334.00	307.00	301.00	339.00	395.00	394.00	391.00	366.00	321.00	309.00	320.00	311.00	294.00	272.00	258.00	266.00	268.00	238.00	281.00	331.00	342.00	243.00	375.00	444.00	385.00	332.00	255.00	264.00	281.00	320.00	277.00	249.00	239.00	213.00	210.00	234.00	212.00	168.00	158.00	157.00
123.00	128.00	127.00	127.00	127.00	126.00	126.00	125.00	126.00	127.00	130.00	132.00	134.00	136.00	139.00	144.00	155.00	164.00	144.00	134.00	131.00	127.00	137.00	141.00	156.00	196.00	198.00	182.00	176.00	172.00	168.00	180.00	206.00	223.00	251.00	249.00	241.00	233.00	222.00	212.00	189.00	181.00	177.00	171.00	171.00	168.00	166.00	163.00	161.00	158.00	159.00	158.00	157.00	155.00	141.00	142.00	148.00	152.00	150.00	147.00	139.00	133.00	133.00	131.00	127.00	123.00	117.00	114.00	115.00	115.00	120.00	118.00	114.00	118.00	131.00	140.00	180.00	170.00	172.00	190.00	211.00	144.00	118.00	113.00	109.00	108.00	107.00	107.00	108.00	109.00	108.00	121.00	137.00	149.00	232.00	263.00	281.00	295.00	347.00	339.00	303.00	301.00	344.00	349.00	317.00	369.00	397.00	498.00	509.00	461.00	489.00	489.00	571.00	644.00	731.00	802.00	615.00	609.00	696.00	672.00	575.00	539.00	596.00	539.00	447.00	455.00	448.00	416.00	434.00	471.00	448.00	401.00	367.00	330.00	270.00	257.00	240.00	232.00	221.00	223.00	224.00	229.00	231.00	222.00	221.00	220.00	223.00	237.00	242.00	243.00	224.00	228.00	221.00	206.00	187.00	191.00	200.00	184.00	193.00	206.00	218.00	192.00	175.00	182.00	195.00	192.00	178.00	189.00	175.00	180.00	179.00	180.00	166.00	161.00	162.00	162.00	164.00	155.00	157.00	171.00	202.00	230.00	241.00	208.00	187.00	192.00	220.00	258.00	300.00	307.00	306.00	269.00	273.00	273.00	254.00	259.00	288.00	308.00	319.00	304.00	303.00	327.00	287.00	305.00	308.00	281.00	285.00	321.00	320.00	286.00	261.00	256.00	276.00	248.00	279.00	328.00	334.00	307.00	301.00	339.00	395.00	394.00	391.00	366.00	321.00	309.00	320.00	311.00	294.00	272.00	258.00	266.00	268.00	238.00	281.00	331.00	342.00	243.00	375.00	444.00	385.00	332.00	255.00	264.00	281.00	320.00	277.00	249.00	239.00	213.00	210.00	234.00	212.00	168.00	158.00	157.00
128.00	128.00	130.00	131.00	133.00	134.00	130.00	129.00	131.00	128.00	127.00	130.00	130.00	134.00	136.00	140.00	142.00	146.00	154.00	156.00	152.00	137.00	136.00	140.00	147.00	160.00	181.00	211.00	206.00	213.00	218.00	224.00	223.00	214.00	224.00	230.00	230.00	213.00	201.00	196.00	198.00	193.00	185.00	173.00	170.00	171.00	170.00	167.00	166.00	161.00	159.00	157.00	156.00	154.00	148.00	146.00	137.00	143.00	136.00	135.00	136.00	134.00	132.00	129.00	124.00	115.00	114.00	113.00	113.00	114.00	121.00	115.00	135.00	150.00	157.00	180.00	194.00	205.00	217.00	217.00	202.00	132.00	115.00	111.00	112.00	121.00	110.00	107.00	107.00	107.00	116.00	130.00	145.00	154.00	206.00	261.00	301.00	359.00	423.00	478.00	461.00	414.00	329.00	365.00	428.00	435.00	427.00	352.00	387.00	429.00	443.00	463.00	551.00	608.00	647.00	651.00	586.00	526.00	483.00	506.00	491.00	442.00	470.00	432.00	398.00	396.00	357.00	392.00	396.00	428.00	346.00	312.00	293.00	277.00	264.00	246.00	233.00	225.00	221.00	236.00	234.00	237.00	226.00	221.00	225.00	241.00	234.00	227.00	266.00	270.00	264.00	252.00	231.00	233.00	227.00	234.00	258.00	245.00	262.00	259.00	249.00	221.00	205.00	182.00	228.00	282.00	254.00	247.00	232.00	214.00	206.00	193.00	195.00	180.00	198.00	191.00	188.00	186.00	185.00	191.00	218.00	278.00	326.00	279.00	228.00	205.00	212.00	212.00	214.00	250.00	252.00	282.00	295.00	287.00	255.00	231.00	247.00	278.00	250.00	233.00	254.00	302.00	339.00	387.00	451.00	463.00	417.00	421.00	387.00	356.00	333.00	315.00	332.00	322.00	313.00	306.00	333.00	338.00	335.00	367.00	445.00	395.00	364.00	344.00	315.00	311.00	332.00	323.00	313.00	282.00	267.00	266.00	263.00	317.00	350.00	313.00	267.00	185.00	259.00	282.00	255.00	240.00	192.00	212.00	241.00	254.00	269.00	239.00	225.00	213.00	202.00	194.00	192.00	153.00	153.00	155.00
132.00	130.00	129.00	129.00	134.00	135.00	136.00	132.00	133.00	135.00	131.00	130.00	129.00	131.00	133.00	135.00	137.00	140.00	147.00	150.00	151.00	145.00	135.00	143.00	146.00	158.00	171.00	196.00	191.00	178.00	192.00	212.00	216.00	207.00	202.00	205.00	212.00	211.00	200.00	193.00	187.00	194.00	191.00	176.00	169.00	166.00	170.00	170.00	170.00	163.00	159.00	157.00	156.00	156.00	151.00	147.00	149.00	153.00	153.00	148.00	141.00	133.00	128.00	128.00	116.00	113.00	113.00	113.00	112.00	112.00	113.00	114.00	147.00	163.00	177.00	206.00	235.00	234.00	213.00	217.00	205.00	120.00	112.00	110.00	110.00	121.00	110.00	108.00	107.00	108.00	114.00	141.00	176.00	191.00	226.00	262.00	282.00	318.00	406.00	444.00	483.00	426.00	353.00	352.00	354.00	389.00	490.00	385.00	406.00	399.00	435.00	463.00	507.00	571.00	640.00	603.00	607.00	559.00	491.00	430.00	419.00	394.00	387.00	398.00	378.00	356.00	342.00	366.00	360.00	372.00	344.00	291.00	276.00	268.00	260.00	264.00	240.00	225.00	220.00	249.00	267.00	278.00	258.00	236.00	235.00	220.00	215.00	213.00	234.00	256.00	267.00	266.00	249.00	251.00	247.00	231.00	229.00	257.00	256.00	255.00	250.00	237.00	226.00	199.00	185.00	223.00	274.00	276.00	270.00	246.00	230.00	220.00	219.00	233.00	232.00	238.00	232.00	224.00	219.00	212.00	222.00	252.00	287.00	334.00	277.00	251.00	235.00	253.00	219.00	234.00	241.00	257.00	278.00	272.00	260.00	231.00	242.00	244.00	235.00	225.00	240.00	267.00	305.00	349.00	387.00	414.00	429.00	448.00	415.00	373.00	368.00	379.00	376.00	364.00	342.00	303.00	306.00	332.00	343.00	359.00	409.00	397.00	362.00	338.00	339.00	338.00	300.00	284.00	272.00	279.00	282.00	272.00	266.00	350.00	295.00	240.00	219.00	177.00	231.00	249.00	236.00	217.00	207.00	218.00	208.00	215.00	216.00	210.00	212.00	229.00	221.00	196.00	196.00	166.00	156.00	153.00
132.00	130.00	129.00	129.00	134.00	135.00	136.00	132.00	133.00	135.00	131.00	130.00	129.00	131.00	133.00	135.00	137.00	140.00	147.00	150.00	151.00	145.00	135.00	143.00	146.00	158.00	171.00	196.00	191.00	178.00	192.00	212.00	216.00	207.00	202.00	205.00	212.00	211.00	200.00	193.00	187.00	194.00	191.00	176.00	169.00	166.00	170.00	170.00	170.00	163.00	159.00	157.00	156.00	156.00	151.00	147.00	149.00	153.00	153.00	148.00	141.00	133.00	128.00	128.00	116.00	113.00	113.00	113.00	112.00	112.00	113.00	114.00	147.00	163.00	177.00	206.00	235.00	234.00	213.00	217.00	205.00	120.00	112.00	110.00	110.00	121.00	110.00	108.00	107.00	108.00	114.00	141.00	176.00	191.00	226.00	262.00	282.00	318.00	406.00	444.00	483.00	426.00	353.00	352.00	354.00	389.00	490.00	385.00	406.00	399.00	435.00	463.00	507.00	571.00	640.00	603.00	607.00	559.00	491.00	430.00	419.00	394.00	387.00	398.00	378.00	356.00	342.00	366.00	360.00	372.00	344.00	291.00	276.00	268.00	260.00	264.00	240.00	225.00	220.00	249.00	267.00	278.00	258.00	236.00	235.00	220.00	215.00	213.00	234.00	256.00	267.00	266.00	249.00	251.00	247.00	231.00	229.00	257.00	256.00	255.00	250.00	237.00	226.00	199.00	185.00	223.00	274.00	276.00	270.00	246.00	230.00	220.00	219.00	233.00	232.00	238.00	232.00	224.00	219.00	212.00	222.00	252.00	287.00	334.00	277.00	251.00	235.00	253.00	219.00	234.00	241.00	257.00	278.00	272.00	260.00	231.00	242.00	244.00	235.00	225.00	240.00	267.00	305.00	349.00	387.00	414.00	429.00	448.00	415.00	373.00	368.00	379.00	376.00	364.00	342.00	303.00	306.00	332.00	343.00	359.00	409.00	397.00	362.00	338.00	339.00	338.00	300.00	284.00	272.00	279.00	282.00	272.00	266.00	350.00	295.00	240.00	219.00	177.00	231.00	249.00	236.00	217.00	207.00	218.00	208.00	215.00	216.00	210.00	212.00	229.00	221.00	196.00	196.00	166.00	156.00	153.00
137.00	134.00	133.00	131.00	132.00	135.00	137.00	136.00	133.00	136.00	138.00	136.00	133.00	130.00	131.00	133.00	135.00	137.00	142.00	144.00	145.00	145.00	126.00	135.00	143.00	156.00	169.00	174.00	179.00	166.00	181.00	193.00	194.00	196.00	196.00	195.00	188.00	195.00	196.00	191.00	181.00	179.00	190.00	185.00	179.00	167.00	164.00	169.00	169.00	168.00	163.00	159.00	156.00	154.00	154.00	155.00	154.00	153.00	151.00	150.00	149.00	143.00	134.00	123.00	113.00	113.00	113.00	112.00	112.00	112.00	112.00	114.00	142.00	156.00	168.00	203.00	232.00	220.00	187.00	171.00	196.00	116.00	112.00	110.00	109.00	117.00	106.00	107.00	107.00	107.00	112.00	127.00	164.00	206.00	260.00	298.00	324.00	304.00	363.00	410.00	468.00	496.00	401.00	400.00	372.00	433.00	468.00	400.00	417.00	433.00	440.00	466.00	530.00	527.00	575.00	559.00	555.00	527.00	500.00	507.00	451.00	368.00	362.00	350.00	350.00	321.00	318.00	368.00	360.00	320.00	315.00	296.00	289.00	292.00	249.00	246.00	241.00	232.00	229.00	242.00	265.00	278.00	273.00	253.00	252.00	243.00	236.00	217.00	216.00	222.00	225.00	246.00	267.00	263.00	256.00	248.00	229.00	222.00	246.00	240.00	234.00	241.00	233.00	222.00	220.00	199.00	214.00	227.00	257.00	255.00	274.00	283.00	279.00	277.00	271.00	290.00	287.00	288.00	296.00	272.00	258.00	286.00	308.00	322.00	347.00	324.00	291.00	268.00	255.00	253.00	237.00	232.00	263.00	261.00	243.00	233.00	222.00	235.00	221.00	222.00	246.00	279.00	283.00	291.00	316.00	331.00	357.00	371.00	369.00	352.00	320.00	327.00	342.00	356.00	356.00	319.00	304.00	371.00	399.00	410.00	372.00	386.00	350.00	321.00	305.00	318.00	305.00	283.00	257.00	266.00	270.00	271.00	302.00	340.00	299.00	244.00	207.00	179.00	176.00	196.00	195.00	198.00	199.00	202.00	196.00	187.00	207.00	193.00	211.00	226.00	218.00	195.00	188.00	186.00	164.00	151.00
150.00	150.00	147.00	143.00	136.00	136.00	135.00	136.00	138.00	136.00	139.00	142.00	145.00	140.00	136.00	134.00	136.00	135.00	138.00	140.00	140.00	139.00	134.00	130.00	127.00	125.00	129.00	141.00	149.00	147.00	141.00	181.00	166.00	167.00	182.00	176.00	185.00	170.00	175.00	178.00	172.00	164.00	181.00	184.00	182.00	183.00	177.00	171.00	166.00	159.00	162.00	164.00	161.00	158.00	158.00	157.00	155.00	149.00	148.00	147.00	145.00	139.00	133.00	128.00	124.00	115.00	114.00	111.00	111.00	112.00	113.00	130.00	171.00	175.00	195.00	223.00	238.00	204.00	172.00	143.00	133.00	116.00	114.00	113.00	111.00	106.00	105.00	106.00	106.00	109.00	113.00	138.00	189.00	226.00	292.00	347.00	387.00	427.00	434.00	399.00	362.00	392.00	405.00	499.00	492.00	474.00	431.00	404.00	412.00	432.00	514.00	545.00	435.00	458.00	513.00	451.00	396.00	410.00	431.00	436.00	461.00	362.00	340.00	334.00	306.00	279.00	289.00	314.00	304.00	296.00	280.00	284.00	283.00	309.00	286.00	284.00	272.00	247.00	228.00	221.00	212.00	224.00	233.00	251.00	258.00	265.00	256.00	233.00	236.00	229.00	218.00	205.00	237.00	256.00	235.00	240.00	249.00	240.00	220.00	205.00	201.00	211.00	209.00	220.00	228.00	224.00	221.00	199.00	184.00	283.00	350.00	375.00	406.00	415.00	405.00	393.00	399.00	372.00	374.00	353.00	354.00	368.00	366.00	342.00	318.00	305.00	292.00	275.00	268.00	281.00	247.00	224.00	217.00	232.00	226.00	248.00	232.00	207.00	204.00	225.00	267.00	244.00	245.00	283.00	296.00	295.00	297.00	308.00	290.00	289.00	298.00	276.00	277.00	297.00	289.00	290.00	281.00	315.00	366.00	360.00	396.00	334.00	324.00	302.00	272.00	250.00	223.00	222.00	267.00	310.00	294.00	287.00	257.00	240.00	257.00	268.00	255.00	222.00	191.00	163.00	156.00	161.00	188.00	186.00	181.00	169.00	193.00	197.00	183.00	200.00	213.00	195.00	185.00	198.00	213.00	154.00
150.00	150.00	147.00	143.00	136.00	136.00	135.00	136.00	138.00	136.00	139.00	142.00	145.00	140.00	136.00	134.00	136.00	135.00	138.00	140.00	140.00	139.00	134.00	130.00	127.00	125.00	129.00	141.00	149.00	147.00	141.00	181.00	166.00	167.00	182.00	176.00	185.00	170.00	175.00	178.00	172.00	164.00	181.00	184.00	182.00	183.00	177.00	171.00	166.00	159.00	162.00	164.00	161.00	158.00	158.00	157.00	155.00	149.00	148.00	147.00	145.00	139.00	133.00	128.00	124.00	115.00	114.00	111.00	111.00	112.00	113.00	130.00	171.00	175.00	195.00	223.00	238.00	204.00	172.00	143.00	133.00	116.00	114.00	113.00	111.00	106.00	105.00	106.00	106.00	109.00	113.00	138.00	189.00	226.00	292.00	347.00	387.00	427.00	434.00	399.00	362.00	392.00	405.00	499.00	492.00	474.00	431.00	404.00	412.00	432.00	514.00	545.00	435.00	458.00	513.00	451.00	396.00	410.00	431.00	436.00	461.00	362.00	340.00	334.00	306.00	279.00	289.00	314.00	304.00	296.00	280.00	284.00	283.00	309.00	286.00	284.00	272.00	247.00	228.00	221.00	212.00	224.00	233.00	251.00	258.00	265.00	256.00	233.00	236.00	229.00	218.00	205.00	237.00	256.00	235.00	240.00	249.00	240.00	220.00	205.00	201.00	211.00	209.00	220.00	228.00	224.00	221.00	199.00	184.00	283.00	350.00	375.00	406.00	415.00	405.00	393.00	399.00	372.00	374.00	353.00	354.00	368.00	366.00	342.00	318.00	305.00	292.00	275.00	268.00	281.00	247.00	224.00	217.00	232.00	226.00	248.00	232.00	207.00	204.00	225.00	267.00	244.00	245.00	283.00	296.00	295.00	297.00	308.00	290.00	289.00	298.00	276.00	277.00	297.00	289.00	290.00	281.00	315.00	366.00	360.00	396.00	334.00	324.00	302.00	272.00	250.00	223.00	222.00	267.00	310.00	294.00	287.00	257.00	240.00	257.00	268.00	255.00	222.00	191.00	163.00	156.00	161.00	188.00	186.00	181.00	169.00	193.00	197.00	183.00	200.00	213.00	195.00	185.00	198.00	213.00	154.00
150.00	150.00	147.00	143.00	136.00	136.00	135.00	136.00	138.00	136.00	139.00	142.00	145.00	140.00	136.00	134.00	136.00	135.00	138.00	140.00	140.00	139.00	134.00	130.00	127.00	125.00	129.00	141.00	149.00	147.00	141.00	181.00	166.00	167.00	182.00	176.00	185.00	170.00	175.00	178.00	172.00	164.00	181.00	184.00	182.00	183.00	177.00	171.00	166.00	159.00	162.00	164.00	161.00	158.00	158.00	157.00	155.00	149.00	148.00	147.00	145.00	139.00	133.00	128.00	124.00	115.00	114.00	111.00	111.00	112.00	113.00	130.00	171.00	175.00	195.00	223.00	238.00	204.00	172.00	143.00	133.00	116.00	114.00	113.00	111.00	106.00	105.00	106.00	106.00	109.00	113.00	138.00	189.00	226.00	292.00	347.00	387.00	427.00	434.00	399.00	362.00	392.00	405.00	499.00	492.00	474.00	431.00	404.00	412.00	432.00	514.00	545.00	435.00	458.00	513.00	451.00	396.00	410.00	431.00	436.00	461.00	362.00	340.00	334.00	306.00	279.00	289.00	314.00	304.00	296.00	280.00	284.00	283.00	309.00	286.00	284.00	272.00	247.00	228.00	221.00	212.00	224.00	233.00	251.00	258.00	265.00	256.00	233.00	236.00	229.00	218.00	205.00	237.00	256.00	235.00	240.00	249.00	240.00	220.00	205.00	201.00	211.00	209.00	220.00	228.00	224.00	221.00	199.00	184.00	283.00	350.00	375.00	406.00	415.00	405.00	393.00	399.00	372.00	374.00	353.00	354.00	368.00	366.00	342.00	318.00	305.00	292.00	275.00	268.00	281.00	247.00	224.00	217.00	232.00	226.00	248.00	232.00	207.00	204.00	225.00	267.00	244.00	245.00	283.00	296.00	295.00	297.00	308.00	290.00	289.00	298.00	276.00	277.00	297.00	289.00	290.00	281.00	315.00	366.00	360.00	396.00	334.00	324.00	302.00	272.00	250.00	223.00	222.00	267.00	310.00	294.00	287.00	257.00	240.00	257.00	268.00	255.00	222.00	191.00	163.00	156.00	161.00	188.00	186.00	181.00	169.00	193.00	197.00	183.00	200.00	213.00	195.00	185.00	198.00	213.00	154.00
161.00	153.00	154.00	155.00	143.00	140.00	138.00	135.00	137.00	137.00	136.00	139.00	147.00	143.00	140.00	136.00	137.00	140.00	139.00	141.00	143.00	140.00	134.00	136.00	135.00	128.00	125.00	127.00	132.00	136.00	139.00	161.00	165.00	159.00	177.00	167.00	185.00	177.00	163.00	170.00	156.00	157.00	178.00	181.00	181.00	182.00	186.00	181.00	175.00	164.00	159.00	155.00	157.00	159.00	159.00	159.00	158.00	155.00	143.00	145.00	146.00	141.00	134.00	127.00	123.00	118.00	115.00	111.00	110.00	112.00	116.00	134.00	167.00	178.00	192.00	213.00	235.00	219.00	194.00	164.00	131.00	115.00	113.00	112.00	110.00	107.00	106.00	105.00	107.00	109.00	116.00	136.00	176.00	210.00	255.00	257.00	307.00	346.00	345.00	344.00	382.00	401.00	428.00	433.00	425.00	457.00	378.00	368.00	390.00	433.00	520.00	548.00	438.00	406.00	422.00	394.00	346.00	355.00	374.00	384.00	377.00	340.00	336.00	348.00	340.00	295.00	266.00	308.00	287.00	287.00	296.00	280.00	278.00	306.00	288.00	264.00	307.00	283.00	254.00	224.00	219.00	207.00	213.00	243.00	249.00	256.00	269.00	255.00	257.00	248.00	236.00	223.00	198.00	219.00	241.00	227.00	242.00	238.00	233.00	224.00	224.00	207.00	199.00	196.00	213.00	217.00	199.00	202.00	186.00	203.00	280.00	320.00	349.00	354.00	368.00	410.00	428.00	423.00	422.00	354.00	289.00	294.00	298.00	295.00	266.00	294.00	297.00	290.00	247.00	247.00	254.00	251.00	234.00	210.00	208.00	221.00	231.00	205.00	207.00	234.00	268.00	236.00	280.00	343.00	358.00	372.00	390.00	361.00	318.00	297.00	274.00	254.00	252.00	266.00	278.00	282.00	285.00	275.00	287.00	301.00	377.00	323.00	313.00	313.00	278.00	261.00	256.00	228.00	244.00	276.00	269.00	259.00	218.00	210.00	218.00	247.00	235.00	234.00	215.00	182.00	158.00	154.00	158.00	162.00	167.00	171.00	213.00	205.00	184.00	183.00	203.00	189.00	178.00	203.00	206.00	188.00
153.00	162.00	163.00	164.00	153.00	147.00	142.00	139.00	140.00	139.00	139.00	138.00	144.00	149.00	145.00	141.00	139.00	142.00	143.00	142.00	143.00	145.00	140.00	138.00	138.00	133.00	129.00	122.00	123.00	126.00	132.00	143.00	149.00	145.00	169.00	177.00	169.00	176.00	167.00	154.00	150.00	160.00	170.00	177.00	180.00	174.00	175.00	184.00	184.00	171.00	167.00	162.00	155.00	151.00	159.00	159.00	158.00	156.00	146.00	141.00	142.00	140.00	133.00	126.00	124.00	123.00	121.00	111.00	111.00	117.00	130.00	141.00	176.00	196.00	208.00	244.00	270.00	268.00	239.00	175.00	132.00	114.00	113.00	111.00	107.00	108.00	106.00	108.00	111.00	112.00	121.00	139.00	165.00	178.00	230.00	299.00	302.00	313.00	351.00	393.00	417.00	477.00	451.00	363.00	379.00	403.00	358.00	404.00	403.00	438.00	475.00	469.00	427.00	417.00	395.00	392.00	331.00	329.00	351.00	373.00	368.00	342.00	332.00	333.00	365.00	295.00	270.00	293.00	317.00	327.00	281.00	262.00	304.00	346.00	296.00	253.00	254.00	258.00	237.00	204.00	225.00	226.00	208.00	226.00	242.00	246.00	247.00	258.00	264.00	247.00	239.00	228.00	213.00	203.00	205.00	217.00	212.00	232.00	228.00	230.00	218.00	209.00	209.00	205.00	196.00	193.00	184.00	190.00	204.00	217.00	210.00	236.00	274.00	274.00	295.00	368.00	398.00	417.00	439.00	362.00	312.00	272.00	257.00	257.00	251.00	275.00	296.00	287.00	243.00	233.00	232.00	240.00	259.00	252.00	245.00	216.00	206.00	206.00	200.00	219.00	255.00	234.00	266.00	324.00	367.00	385.00	415.00	367.00	310.00	285.00	280.00	273.00	260.00	247.00	246.00	260.00	302.00	310.00	292.00	273.00	351.00	324.00	300.00	289.00	273.00	282.00	291.00	257.00	214.00	234.00	229.00	230.00	190.00	189.00	201.00	216.00	240.00	208.00	205.00	198.00	175.00	161.00	149.00	150.00	152.00	167.00	208.00	217.00	203.00	183.00	174.00	187.00	170.00	204.00	195.00	174.00
139.00	166.00	170.00	169.00	160.00	157.00	150.00	144.00	143.00	141.00	141.00	142.00	141.00	151.00	151.00	148.00	143.00	146.00	149.00	147.00	145.00	145.00	145.00	143.00	140.00	137.00	135.00	128.00	123.00	122.00	124.00	131.00	138.00	136.00	153.00	178.00	158.00	162.00	168.00	157.00	147.00	166.00	163.00	169.00	172.00	180.00	176.00	167.00	175.00	177.00	171.00	166.00	162.00	157.00	148.00	156.00	160.00	158.00	151.00	145.00	139.00	137.00	134.00	125.00	123.00	122.00	113.00	110.00	114.00	137.00	150.00	166.00	217.00	228.00	236.00	267.00	291.00	274.00	209.00	172.00	138.00	116.00	113.00	109.00	107.00	108.00	106.00	105.00	107.00	111.00	122.00	134.00	150.00	194.00	252.00	330.00	364.00	384.00	390.00	392.00	380.00	422.00	391.00	340.00	370.00	364.00	337.00	406.00	427.00	443.00	424.00	398.00	374.00	355.00	350.00	344.00	332.00	298.00	313.00	328.00	346.00	350.00	355.00	337.00	325.00	303.00	292.00	257.00	324.00	360.00	273.00	252.00	285.00	304.00	319.00	283.00	222.00	205.00	218.00	220.00	193.00	213.00	234.00	206.00	224.00	237.00	244.00	238.00	280.00	267.00	260.00	252.00	246.00	231.00	221.00	206.00	198.00	207.00	221.00	216.00	213.00	194.00	197.00	194.00	194.00	187.00	193.00	183.00	196.00	264.00	285.00	236.00	233.00	264.00	314.00	349.00	371.00	403.00	406.00	363.00	350.00	302.00	279.00	273.00	235.00	241.00	271.00	299.00	262.00	264.00	242.00	231.00	228.00	245.00	245.00	248.00	232.00	196.00	195.00	205.00	243.00	229.00	230.00	258.00	266.00	295.00	358.00	350.00	316.00	302.00	334.00	318.00	291.00	274.00	250.00	258.00	305.00	362.00	379.00	322.00	326.00	318.00	318.00	312.00	304.00	275.00	258.00	256.00	219.00	183.00	189.00	203.00	182.00	193.00	191.00	200.00	214.00	204.00	187.00	199.00	195.00	182.00	157.00	149.00	148.00	160.00	204.00	222.00	215.00	201.00	186.00	171.00	167.00	201.00	197.00	153.00
136.00	152.00	174.00	178.00	170.00	164.00	158.00	152.00	152.00	148.00	145.00	145.00	144.00	150.00	153.00	154.00	150.00	148.00	153.00	153.00	151.00	148.00	147.00	146.00	144.00	141.00	137.00	143.00	134.00	125.00	121.00	125.00	128.00	134.00	138.00	145.00	167.00	154.00	157.00	161.00	156.00	179.00	179.00	178.00	175.00	176.00	177.00	174.00	163.00	168.00	169.00	170.00	163.00	160.00	150.00	142.00	153.00	159.00	153.00	148.00	144.00	138.00	130.00	126.00	123.00	116.00	110.00	110.00	111.00	136.00	159.00	174.00	214.00	229.00	210.00	257.00	275.00	253.00	209.00	198.00	176.00	118.00	114.00	109.00	107.00	107.00	105.00	105.00	105.00	109.00	117.00	126.00	146.00	179.00	250.00	310.00	326.00	326.00	351.00	337.00	328.00	331.00	330.00	331.00	340.00	318.00	324.00	377.00	426.00	477.00	435.00	383.00	341.00	323.00	298.00	289.00	292.00	288.00	326.00	336.00	340.00	397.00	426.00	438.00	438.00	427.00	420.00	246.00	253.00	269.00	263.00	239.00	236.00	256.00	280.00	237.00	205.00	291.00	334.00	268.00	219.00	196.00	201.00	223.00	210.00	212.00	232.00	232.00	269.00	280.00	273.00	259.00	232.00	216.00	209.00	209.00	203.00	202.00	197.00	197.00	199.00	190.00	220.00	249.00	248.00	236.00	236.00	206.00	185.00	216.00	260.00	273.00	261.00	249.00	267.00	325.00	319.00	339.00	366.00	355.00	321.00	306.00	277.00	268.00	251.00	235.00	227.00	232.00	261.00	236.00	264.00	263.00	256.00	220.00	212.00	225.00	228.00	198.00	199.00	216.00	253.00	233.00	215.00	243.00	256.00	257.00	271.00	285.00	300.00	294.00	299.00	280.00	277.00	258.00	248.00	260.00	314.00	343.00	371.00	323.00	264.00	292.00	284.00	298.00	311.00	284.00	281.00	242.00	209.00	185.00	182.00	182.00	173.00	212.00	215.00	202.00	187.00	195.00	187.00	183.00	199.00	188.00	168.00	156.00	147.00	149.00	192.00	214.00	212.00	199.00	184.00	169.00	159.00	179.00	164.00	145.00
156.00	138.00	153.00	176.00	176.00	170.00	164.00	160.00	162.00	168.00	161.00	153.00	147.00	151.00	157.00	159.00	157.00	156.00	158.00	160.00	158.00	154.00	151.00	151.00	148.00	145.00	142.00	148.00	146.00	142.00	132.00	121.00	126.00	130.00	133.00	131.00	135.00	140.00	137.00	149.00	139.00	156.00	168.00	164.00	171.00	176.00	174.00	172.00	176.00	160.00	149.00	151.00	160.00	160.00	155.00	149.00	136.00	141.00	155.00	151.00	147.00	141.00	132.00	123.00	120.00	112.00	109.00	110.00	110.00	115.00	133.00	153.00	181.00	182.00	194.00	228.00	281.00	250.00	209.00	189.00	185.00	141.00	123.00	113.00	110.00	105.00	106.00	105.00	107.00	105.00	107.00	120.00	141.00	174.00	234.00	277.00	304.00	336.00	403.00	353.00	294.00	287.00	275.00	289.00	304.00	299.00	311.00	335.00	383.00	443.00	441.00	363.00	322.00	330.00	306.00	281.00	271.00	271.00	275.00	296.00	310.00	418.00	476.00	505.00	499.00	438.00	394.00	271.00	215.00	230.00	233.00	216.00	213.00	222.00	272.00	212.00	195.00	308.00	332.00	327.00	261.00	249.00	245.00	231.00	225.00	217.00	215.00	208.00	288.00	281.00	262.00	256.00	239.00	221.00	210.00	230.00	231.00	228.00	204.00	199.00	194.00	190.00	212.00	249.00	274.00	275.00	236.00	216.00	203.00	201.00	221.00	218.00	220.00	230.00	223.00	243.00	256.00	258.00	298.00	410.00	374.00	319.00	285.00	267.00	242.00	247.00	242.00	222.00	241.00	237.00	238.00	255.00	260.00	225.00	216.00	205.00	204.00	203.00	196.00	201.00	228.00	237.00	203.00	205.00	219.00	229.00	284.00	296.00	295.00	305.00	310.00	255.00	257.00	240.00	249.00	225.00	250.00	267.00	304.00	286.00	248.00	264.00	249.00	264.00	324.00	341.00	325.00	273.00	233.00	202.00	210.00	204.00	169.00	194.00	206.00	205.00	201.00	181.00	174.00	172.00	176.00	191.00	173.00	156.00	145.00	148.00	174.00	189.00	209.00	200.00	187.00	172.00	158.00	160.00	146.00	143.00
171.00	150.00	142.00	151.00	183.00	176.00	170.00	171.00	172.00	193.00	184.00	171.00	153.00	149.00	157.00	165.00	162.00	166.00	162.00	166.00	166.00	161.00	158.00	156.00	154.00	150.00	149.00	154.00	154.00	154.00	146.00	132.00	121.00	122.00	125.00	128.00	129.00	128.00	130.00	135.00	140.00	133.00	149.00	150.00	144.00	152.00	159.00	158.00	153.00	165.00	165.00	159.00	141.00	138.00	145.00	147.00	148.00	140.00	136.00	148.00	146.00	139.00	133.00	124.00	113.00	111.00	110.00	109.00	109.00	110.00	127.00	160.00	233.00	232.00	235.00	249.00	269.00	233.00	231.00	203.00	193.00	166.00	160.00	136.00	113.00	105.00	105.00	104.00	104.00	105.00	104.00	106.00	114.00	151.00	217.00	260.00	289.00	319.00	381.00	349.00	307.00	266.00	258.00	254.00	260.00	263.00	270.00	322.00	339.00	384.00	411.00	369.00	317.00	313.00	332.00	305.00	252.00	257.00	267.00	263.00	298.00	451.00	445.00	424.00	409.00	382.00	340.00	235.00	206.00	200.00	211.00	206.00	197.00	192.00	193.00	187.00	198.00	296.00	306.00	348.00	314.00	273.00	272.00	286.00	292.00	293.00	288.00	268.00	302.00	291.00	295.00	281.00	256.00	230.00	219.00	231.00	250.00	233.00	242.00	253.00	230.00	205.00	197.00	226.00	244.00	292.00	266.00	242.00	223.00	198.00	209.00	210.00	205.00	207.00	211.00	221.00	233.00	231.00	247.00	359.00	390.00	331.00	280.00	277.00	240.00	227.00	218.00	215.00	212.00	215.00	214.00	228.00	250.00	240.00	224.00	240.00	236.00	213.00	197.00	189.00	202.00	232.00	204.00	195.00	221.00	219.00	224.00	261.00	313.00	352.00	357.00	291.00	272.00	263.00	235.00	226.00	220.00	221.00	219.00	218.00	266.00	237.00	250.00	249.00	284.00	329.00	271.00	236.00	220.00	225.00	220.00	211.00	176.00	191.00	185.00	211.00	193.00	180.00	174.00	164.00	162.00	184.00	168.00	153.00	144.00	144.00	160.00	182.00	208.00	200.00	189.00	172.00	163.00	147.00	142.00	142.00
188.00	187.00	172.00	152.00	173.00	183.00	180.00	183.00	189.00	205.00	212.00	195.00	163.00	153.00	153.00	160.00	162.00	165.00	170.00	169.00	169.00	169.00	169.00	164.00	160.00	155.00	153.00	163.00	165.00	163.00	161.00	160.00	131.00	124.00	120.00	120.00	121.00	120.00	121.00	121.00	129.00	131.00	131.00	132.00	127.00	124.00	124.00	126.00	136.00	137.00	132.00	139.00	142.00	135.00	146.00	141.00	132.00	137.00	126.00	130.00	144.00	141.00	133.00	121.00	111.00	110.00	109.00	109.00	110.00	121.00	152.00	169.00	240.00	254.00	255.00	270.00	255.00	215.00	191.00	178.00	187.00	164.00	172.00	162.00	146.00	107.00	106.00	104.00	104.00	103.00	103.00	103.00	104.00	141.00	218.00	227.00	259.00	296.00	328.00	334.00	291.00	265.00	239.00	244.00	232.00	231.00	230.00	265.00	284.00	322.00	334.00	347.00	321.00	299.00	308.00	288.00	251.00	252.00	280.00	284.00	269.00	388.00	367.00	346.00	325.00	314.00	310.00	236.00	209.00	197.00	188.00	191.00	202.00	212.00	190.00	190.00	175.00	277.00	283.00	326.00	311.00	251.00	227.00	269.00	283.00	294.00	310.00	320.00	271.00	259.00	266.00	281.00	290.00	291.00	270.00	246.00	229.00	259.00	224.00	253.00	263.00	226.00	205.00	207.00	219.00	241.00	292.00	267.00	240.00	234.00	294.00	290.00	262.00	249.00	244.00	237.00	228.00	220.00	224.00	268.00	308.00	323.00	307.00	310.00	282.00	251.00	232.00	236.00	235.00	227.00	206.00	221.00	216.00	253.00	262.00	258.00	247.00	226.00	209.00	202.00	192.00	236.00	212.00	197.00	199.00	199.00	213.00	228.00	244.00	278.00	335.00	346.00	337.00	319.00	293.00	266.00	268.00	288.00	275.00	250.00	223.00	209.00	243.00	246.00	277.00	321.00	264.00	224.00	202.00	193.00	196.00	196.00	182.00	165.00	184.00	201.00	202.00	206.00	199.00	184.00	171.00	160.00	171.00	154.00	143.00	142.00	151.00	183.00	207.00	195.00	187.00	173.00	158.00	142.00	141.00	141.00
188.00	187.00	172.00	152.00	173.00	183.00	180.00	183.00	189.00	205.00	212.00	195.00	163.00	153.00	153.00	160.00	162.00	165.00	170.00	169.00	169.00	169.00	169.00	164.00	160.00	155.00	153.00	163.00	165.00	163.00	161.00	160.00	131.00	124.00	120.00	120.00	121.00	120.00	121.00	121.00	129.00	131.00	131.00	132.00	127.00	124.00	124.00	126.00	136.00	137.00	132.00	139.00	142.00	135.00	146.00	141.00	132.00	137.00	126.00	130.00	144.00	141.00	133.00	121.00	111.00	110.00	109.00	109.00	110.00	121.00	152.00	169.00	240.00	254.00	255.00	270.00	255.00	215.00	191.00	178.00	187.00	164.00	172.00	162.00	146.00	107.00	106.00	104.00	104.00	103.00	103.00	103.00	104.00	141.00	218.00	227.00	259.00	296.00	328.00	334.00	291.00	265.00	239.00	244.00	232.00	231.00	230.00	265.00	284.00	322.00	334.00	347.00	321.00	299.00	308.00	288.00	251.00	252.00	280.00	284.00	269.00	388.00	367.00	346.00	325.00	314.00	310.00	236.00	209.00	197.00	188.00	191.00	202.00	212.00	190.00	190.00	175.00	277.00	283.00	326.00	311.00	251.00	227.00	269.00	283.00	294.00	310.00	320.00	271.00	259.00	266.00	281.00	290.00	291.00	270.00	246.00	229.00	259.00	224.00	253.00	263.00	226.00	205.00	207.00	219.00	241.00	292.00	267.00	240.00	234.00	294.00	290.00	262.00	249.00	244.00	237.00	228.00	220.00	224.00	268.00	308.00	323.00	307.00	310.00	282.00	251.00	232.00	236.00	235.00	227.00	206.00	221.00	216.00	253.00	262.00	258.00	247.00	226.00	209.00	202.00	192.00	236.00	212.00	197.00	199.00	199.00	213.00	228.00	244.00	278.00	335.00	346.00	337.00	319.00	293.00	266.00	268.00	288.00	275.00	250.00	223.00	209.00	243.00	246.00	277.00	321.00	264.00	224.00	202.00	193.00	196.00	196.00	182.00	165.00	184.00	201.00	202.00	206.00	199.00	184.00	171.00	160.00	171.00	154.00	143.00	142.00	151.00	183.00	207.00	195.00	187.00	173.00	158.00	142.00	141.00	141.00
179.00	193.00	187.00	176.00	151.00	167.00	180.00	185.00	187.00	218.00	227.00	215.00	182.00	177.00	163.00	155.00	154.00	160.00	170.00	175.00	174.00	169.00	175.00	177.00	169.00	161.00	158.00	162.00	171.00	174.00	177.00	167.00	161.00	141.00	130.00	128.00	122.00	120.00	119.00	118.00	120.00	126.00	125.00	121.00	118.00	125.00	128.00	126.00	123.00	126.00	128.00	127.00	124.00	124.00	121.00	121.00	118.00	117.00	117.00	115.00	123.00	126.00	123.00	117.00	110.00	110.00	109.00	108.00	108.00	112.00	141.00	167.00	208.00	225.00	235.00	219.00	226.00	232.00	204.00	179.00	164.00	159.00	173.00	188.00	161.00	130.00	134.00	107.00	104.00	104.00	105.00	108.00	108.00	120.00	196.00	229.00	277.00	315.00	262.00	291.00	297.00	260.00	226.00	245.00	224.00	212.00	210.00	237.00	261.00	278.00	277.00	281.00	294.00	280.00	313.00	320.00	297.00	258.00	268.00	282.00	271.00	284.00	295.00	296.00	286.00	256.00	255.00	261.00	217.00	199.00	191.00	186.00	179.00	181.00	235.00	230.00	185.00	197.00	263.00	299.00	274.00	235.00	204.00	202.00	231.00	249.00	242.00	262.00	261.00	240.00	267.00	287.00	288.00	309.00	320.00	279.00	273.00	268.00	231.00	252.00	262.00	283.00	242.00	251.00	230.00	213.00	257.00	281.00	286.00	298.00	286.00	332.00	352.00	341.00	329.00	314.00	302.00	269.00	258.00	272.00	293.00	309.00	315.00	318.00	305.00	272.00	267.00	261.00	246.00	237.00	203.00	204.00	202.00	212.00	220.00	251.00	244.00	225.00	216.00	206.00	194.00	221.00	210.00	205.00	195.00	188.00	207.00	213.00	226.00	236.00	259.00	315.00	324.00	375.00	378.00	347.00	355.00	368.00	350.00	312.00	252.00	180.00	181.00	194.00	245.00	250.00	238.00	227.00	208.00	191.00	186.00	191.00	182.00	161.00	176.00	191.00	219.00	208.00	192.00	178.00	168.00	160.00	164.00	161.00	145.00	141.00	149.00	176.00	199.00	194.00	184.00	172.00	154.00	140.00	140.00	144.00
148.00	187.00	202.00	194.00	178.00	183.00	178.00	169.00	177.00	211.00	236.00	229.00	218.00	264.00	236.00	215.00	185.00	155.00	144.00	161.00	171.00	173.00	181.00	185.00	170.00	163.00	157.00	146.00	144.00	147.00	153.00	178.00	179.00	166.00	157.00	169.00	166.00	140.00	128.00	122.00	120.00	122.00	123.00	148.00	159.00	155.00	169.00	181.00	161.00	152.00	171.00	183.00	190.00	200.00	182.00	166.00	145.00	149.00	180.00	183.00	172.00	173.00	169.00	117.00	112.00	111.00	110.00	109.00	109.00	108.00	108.00	108.00	136.00	154.00	148.00	170.00	166.00	183.00	200.00	207.00	196.00	153.00	164.00	170.00	181.00	213.00	218.00	196.00	156.00	154.00	175.00	210.00	206.00	217.00	163.00	119.00	121.00	159.00	238.00	288.00	331.00	283.00	213.00	188.00	209.00	258.00	299.00	255.00	262.00	249.00	228.00	215.00	227.00	228.00	242.00	260.00	279.00	265.00	251.00	227.00	242.00	241.00	262.00	285.00	309.00	267.00	248.00	220.00	208.00	199.00	218.00	224.00	221.00	213.00	211.00	252.00	235.00	201.00	203.00	207.00	177.00	217.00	239.00	280.00	270.00	236.00	242.00	259.00	236.00	217.00	232.00	246.00	271.00	302.00	312.00	333.00	342.00	333.00	327.00	305.00	295.00	285.00	280.00	291.00	285.00	274.00	267.00	291.00	311.00	310.00	304.00	295.00	301.00	323.00	350.00	309.00	304.00	282.00	275.00	290.00	318.00	312.00	299.00	278.00	270.00	298.00	302.00	320.00	256.00	270.00	252.00	254.00	229.00	191.00	212.00	226.00	247.00	223.00	210.00	204.00	195.00	180.00	177.00	178.00	180.00	183.00	192.00	210.00	228.00	251.00	252.00	255.00	270.00	293.00	313.00	306.00	288.00	292.00	287.00	266.00	243.00	208.00	186.00	168.00	225.00	253.00	240.00	218.00	208.00	181.00	187.00	207.00	205.00	168.00	160.00	178.00	179.00	199.00	222.00	219.00	204.00	192.00	174.00	161.00	151.00	143.00	141.00	147.00	169.00	185.00	178.00	164.00	151.00	140.00	139.00	138.00
148.00	187.00	202.00	194.00	178.00	183.00	178.00	169.00	177.00	211.00	236.00	229.00	218.00	264.00	236.00	215.00	185.00	155.00	144.00	161.00	171.00	173.00	181.00	185.00	170.00	163.00	157.00	146.00	144.00	147.00	153.00	178.00	179.00	166.00	157.00	169.00	166.00	140.00	128.00	122.00	120.00	122.00	123.00	148.00	159.00	155.00	169.00	181.00	161.00	152.00	171.00	183.00	190.00	200.00	182.00	166.00	145.00	149.00	180.00	183.00	172.00	173.00	169.00	117.00	112.00	111.00	110.00	109.00	109.00	108.00	108.00	108.00	136.00	154.00	148.00	170.00	166.00	183.00	200.00	207.00	196.00	153.00	164.00	170.00	181.00	213.00	218.00	196.00	156.00	154.00	175.00	210.00	206.00	217.00	163.00	119.00	121.00	159.00	238.00	288.00	331.00	283.00	213.00	188.00	209.00	258.00	299.00	255.00	262.00	249.00	228.00	215.00	227.00	228.00	242.00	260.00	279.00	265.00	251.00	227.00	242.00	241.00	262.00	285.00	309.00	267.00	248.00	220.00	208.00	199.00	218.00	224.00	221.00	213.00	211.00	252.00	235.00	201.00	203.00	207.00	177.00	217.00	239.00	280.00	270.00	236.00	242.00	259.00	236.00	217.00	232.00	246.00	271.00	302.00	312.00	333.00	342.00	333.00	327.00	305.00	295.00	285.00	280.00	291.00	285.00	274.00	267.00	291.00	311.00	310.00	304.00	295.00	301.00	323.00	350.00	309.00	304.00	282.00	275.00	290.00	318.00	312.00	299.00	278.00	270.00	298.00	302.00	320.00	256.00	270.00	252.00	254.00	229.00	191.00	212.00	226.00	247.00	223.00	210.00	204.00	195.00	180.00	177.00	178.00	180.00	183.00	192.00	210.00	228.00	251.00	252.00	255.00	270.00	293.00	313.00	306.00	288.00	292.00	287.00	266.00	243.00	208.00	186.00	168.00	225.00	253.00	240.00	218.00	208.00	181.00	187.00	207.00	205.00	168.00	160.00	178.00	179.00	199.00	222.00	219.00	204.00	192.00	174.00	161.00	151.00	143.00	141.00	147.00	169.00	185.00	178.00	164.00	151.00	140.00	139.00	138.00
156.00	166.00	180.00	193.00	186.00	193.00	197.00	183.00	163.00	182.00	209.00	234.00	231.00	260.00	236.00	224.00	224.00	187.00	139.00	145.00	158.00	163.00	181.00	178.00	165.00	152.00	147.00	145.00	144.00	138.00	140.00	158.00	193.00	188.00	169.00	181.00	191.00	176.00	147.00	131.00	127.00	130.00	134.00	152.00	165.00	183.00	193.00	207.00	188.00	182.00	180.00	188.00	186.00	195.00	208.00	187.00	157.00	148.00	193.00	204.00	197.00	179.00	158.00	129.00	113.00	112.00	110.00	110.00	110.00	109.00	110.00	108.00	110.00	116.00	123.00	146.00	163.00	169.00	168.00	170.00	168.00	160.00	187.00	198.00	201.00	261.00	279.00	244.00	212.00	255.00	236.00	257.00	280.00	288.00	264.00	209.00	150.00	111.00	190.00	243.00	288.00	263.00	219.00	178.00	202.00	236.00	302.00	290.00	286.00	254.00	231.00	214.00	210.00	223.00	242.00	231.00	258.00	265.00	248.00	228.00	212.00	249.00	262.00	264.00	287.00	279.00	259.00	268.00	248.00	225.00	192.00	191.00	208.00	206.00	180.00	233.00	233.00	214.00	158.00	201.00	176.00	215.00	248.00	303.00	279.00	262.00	265.00	274.00	221.00	206.00	207.00	227.00	241.00	242.00	238.00	257.00	274.00	319.00	308.00	284.00	268.00	271.00	285.00	317.00	305.00	301.00	270.00	267.00	303.00	316.00	322.00	320.00	282.00	275.00	277.00	287.00	272.00	261.00	263.00	260.00	284.00	292.00	280.00	271.00	261.00	284.00	277.00	285.00	299.00	287.00	239.00	249.00	245.00	199.00	189.00	197.00	214.00	245.00	223.00	209.00	194.00	178.00	175.00	182.00	205.00	217.00	199.00	217.00	227.00	256.00	246.00	281.00	308.00	305.00	318.00	305.00	283.00	246.00	233.00	232.00	231.00	220.00	193.00	168.00	210.00	256.00	234.00	208.00	189.00	186.00	174.00	187.00	185.00	189.00	168.00	156.00	164.00	190.00	214.00	228.00	216.00	203.00	171.00	162.00	154.00	146.00	139.00	138.00	152.00	177.00	176.00	160.00	147.00	143.00	139.00	140.00
171.00	159.00	162.00	175.00	192.00	192.00	199.00	202.00	182.00	170.00	190.00	196.00	236.00	258.00	248.00	213.00	190.00	212.00	152.00	136.00	151.00	154.00	153.00	154.00	159.00	146.00	137.00	134.00	140.00	141.00	135.00	141.00	183.00	199.00	183.00	170.00	165.00	164.00	160.00	147.00	130.00	129.00	132.00	142.00	148.00	179.00	178.00	198.00	193.00	188.00	193.00	208.00	218.00	217.00	217.00	191.00	177.00	165.00	200.00	217.00	207.00	197.00	210.00	151.00	113.00	113.00	113.00	110.00	109.00	108.00	109.00	108.00	107.00	108.00	108.00	156.00	159.00	159.00	156.00	153.00	152.00	149.00	173.00	229.00	226.00	290.00	303.00	301.00	282.00	282.00	295.00	285.00	278.00	285.00	288.00	197.00	174.00	136.00	151.00	172.00	208.00	229.00	199.00	185.00	198.00	201.00	234.00	244.00	265.00	261.00	228.00	210.00	199.00	224.00	250.00	238.00	218.00	250.00	249.00	221.00	205.00	276.00	280.00	278.00	301.00	307.00	274.00	281.00	297.00	249.00	206.00	195.00	183.00	179.00	200.00	229.00	230.00	212.00	165.00	160.00	169.00	199.00	232.00	305.00	294.00	275.00	240.00	211.00	182.00	224.00	252.00	248.00	247.00	253.00	240.00	244.00	244.00	240.00	238.00	252.00	255.00	253.00	263.00	287.00	320.00	324.00	308.00	275.00	267.00	319.00	300.00	338.00	329.00	293.00	266.00	247.00	258.00	253.00	247.00	257.00	271.00	279.00	268.00	261.00	252.00	262.00	260.00	249.00	279.00	301.00	248.00	237.00	224.00	209.00	191.00	187.00	207.00	251.00	238.00	226.00	207.00	177.00	185.00	208.00	221.00	245.00	209.00	219.00	246.00	261.00	244.00	251.00	264.00	266.00	290.00	295.00	286.00	261.00	234.00	223.00	202.00	215.00	201.00	182.00	176.00	212.00	216.00	200.00	194.00	185.00	178.00	171.00	170.00	175.00	180.00	167.00	159.00	194.00	219.00	223.00	215.00	204.00	176.00	166.00	156.00	147.00	137.00	137.00	151.00	168.00	173.00	158.00	144.00	141.00	140.00	139.00
177.00	170.00	166.00	165.00	179.00	184.00	188.00	185.00	185.00	145.00	156.00	166.00	217.00	233.00	250.00	221.00	193.00	174.00	168.00	142.00	130.00	134.00	141.00	138.00	138.00	138.00	132.00	126.00	128.00	132.00	133.00	130.00	157.00	169.00	181.00	166.00	147.00	149.00	145.00	143.00	129.00	126.00	125.00	129.00	129.00	146.00	148.00	168.00	159.00	195.00	187.00	181.00	196.00	210.00	225.00	220.00	211.00	200.00	221.00	225.00	219.00	209.00	228.00	152.00	115.00	114.00	113.00	109.00	109.00	108.00	106.00	107.00	107.00	106.00	114.00	149.00	153.00	151.00	152.00	148.00	145.00	162.00	186.00	216.00	244.00	297.00	315.00	331.00	334.00	311.00	290.00	276.00	268.00	263.00	258.00	246.00	203.00	161.00	116.00	133.00	170.00	192.00	166.00	213.00	235.00	220.00	199.00	210.00	228.00	240.00	224.00	194.00	214.00	233.00	240.00	245.00	200.00	217.00	239.00	230.00	197.00	261.00	256.00	290.00	316.00	326.00	316.00	255.00	242.00	223.00	189.00	194.00	181.00	155.00	231.00	237.00	208.00	182.00	142.00	196.00	195.00	206.00	236.00	304.00	282.00	236.00	225.00	224.00	217.00	291.00	331.00	322.00	351.00	337.00	326.00	330.00	323.00	301.00	281.00	264.00	257.00	272.00	317.00	320.00	323.00	327.00	305.00	291.00	278.00	273.00	267.00	300.00	296.00	294.00	294.00	248.00	249.00	255.00	256.00	244.00	251.00	267.00	260.00	253.00	241.00	239.00	244.00	256.00	274.00	280.00	274.00	253.00	240.00	207.00	197.00	184.00	199.00	235.00	238.00	213.00	204.00	175.00	191.00	230.00	228.00	243.00	252.00	229.00	255.00	261.00	237.00	227.00	253.00	272.00	290.00	278.00	270.00	278.00	254.00	240.00	227.00	192.00	202.00	195.00	163.00	187.00	201.00	187.00	195.00	194.00	198.00	189.00	171.00	180.00	162.00	163.00	153.00	188.00	214.00	216.00	210.00	199.00	173.00	167.00	161.00	151.00	136.00	138.00	152.00	164.00	169.00	159.00	144.00	139.00	136.00	138.00
169.00	189.00	185.00	173.00	167.00	165.00	177.00	186.00	194.00	155.00	139.00	145.00	189.00	206.00	223.00	205.00	208.00	203.00	161.00	152.00	143.00	127.00	154.00	146.00	133.00	129.00	129.00	124.00	123.00	124.00	126.00	124.00	134.00	139.00	149.00	152.00	139.00	135.00	136.00	130.00	127.00	126.00	124.00	124.00	125.00	127.00	130.00	136.00	144.00	168.00	174.00	170.00	168.00	186.00	187.00	222.00	241.00	236.00	241.00	233.00	221.00	220.00	235.00	164.00	121.00	119.00	115.00	109.00	108.00	108.00	106.00	106.00	108.00	113.00	127.00	143.00	143.00	146.00	145.00	145.00	141.00	180.00	216.00	235.00	260.00	323.00	354.00	357.00	344.00	342.00	352.00	355.00	311.00	287.00	235.00	257.00	211.00	168.00	105.00	115.00	130.00	155.00	167.00	154.00	189.00	208.00	191.00	211.00	233.00	228.00	206.00	179.00	244.00	242.00	248.00	248.00	217.00	200.00	209.00	221.00	190.00	220.00	223.00	280.00	331.00	298.00	347.00	355.00	337.00	276.00	182.00	150.00	167.00	217.00	227.00	205.00	171.00	131.00	237.00	235.00	232.00	237.00	248.00	272.00	256.00	219.00	182.00	167.00	198.00	267.00	355.00	411.00	467.00	464.00	442.00	457.00	458.00	384.00	390.00	362.00	337.00	302.00	305.00	339.00	356.00	335.00	324.00	314.00	288.00	278.00	252.00	260.00	269.00	257.00	262.00	245.00	249.00	247.00	239.00	241.00	227.00	230.00	242.00	240.00	239.00	237.00	249.00	257.00	279.00	272.00	276.00	249.00	229.00	212.00	201.00	190.00	214.00	227.00	247.00	231.00	211.00	178.00	202.00	221.00	215.00	255.00	297.00	283.00	260.00	238.00	238.00	228.00	244.00	266.00	269.00	260.00	258.00	283.00	281.00	278.00	229.00	192.00	176.00	175.00	161.00	162.00	175.00	180.00	180.00	178.00	183.00	195.00	199.00	186.00	170.00	155.00	151.00	179.00	204.00	207.00	195.00	192.00	164.00	160.00	156.00	149.00	134.00	135.00	143.00	158.00	163.00	158.00	154.00	139.00	137.00	142.00
159.00	182.00	189.00	184.00	177.00	164.00	160.00	172.00	184.00	192.00	164.00	137.00	191.00	175.00	205.00	179.00	170.00	190.00	181.00	163.00	146.00	138.00	136.00	137.00	133.00	127.00	122.00	122.00	121.00	122.00	122.00	121.00	124.00	127.00	129.00	128.00	129.00	128.00	126.00	125.00	124.00	124.00	125.00	122.00	122.00	125.00	126.00	126.00	129.00	136.00	145.00	157.00	155.00	160.00	174.00	206.00	218.00	209.00	237.00	245.00	243.00	231.00	239.00	173.00	159.00	148.00	133.00	114.00	108.00	108.00	107.00	106.00	106.00	108.00	114.00	131.00	126.00	134.00	138.00	136.00	134.00	187.00	181.00	204.00	220.00	280.00	304.00	332.00	335.00	353.00	357.00	357.00	299.00	268.00	262.00	181.00	211.00	183.00	112.00	104.00	111.00	116.00	130.00	126.00	146.00	164.00	173.00	175.00	215.00	226.00	210.00	171.00	208.00	219.00	235.00	235.00	227.00	213.00	184.00	185.00	208.00	241.00	234.00	228.00	230.00	264.00	310.00	267.00	287.00	284.00	151.00	147.00	212.00	233.00	160.00	147.00	148.00	127.00	219.00	247.00	270.00	268.00	261.00	233.00	167.00	164.00	180.00	196.00	217.00	216.00	261.00	317.00	416.00	486.00	489.00	530.00	548.00	559.00	545.00	476.00	426.00	350.00	339.00	342.00	297.00	267.00	249.00	308.00	318.00	322.00	280.00	262.00	252.00	254.00	252.00	262.00	264.00	270.00	271.00	240.00	245.00	230.00	245.00	278.00	248.00	250.00	253.00	251.00	259.00	270.00	264.00	267.00	249.00	200.00	194.00	185.00	192.00	202.00	242.00	231.00	218.00	184.00	215.00	205.00	205.00	256.00	311.00	287.00	253.00	236.00	222.00	217.00	236.00	242.00	238.00	256.00	247.00	259.00	292.00	306.00	285.00	221.00	209.00	224.00	186.00	164.00	157.00	166.00	177.00	179.00	171.00	201.00	219.00	192.00	176.00	162.00	151.00	179.00	208.00	210.00	203.00	194.00	169.00	157.00	148.00	146.00	134.00	134.00	141.00	156.00	155.00	153.00	153.00	141.00	138.00	145.00
159.00	182.00	189.00	184.00	177.00	164.00	160.00	172.00	184.00	192.00	164.00	137.00	191.00	175.00	205.00	179.00	170.00	190.00	181.00	163.00	146.00	138.00	136.00	137.00	133.00	127.00	122.00	122.00	121.00	122.00	122.00	121.00	124.00	127.00	129.00	128.00	129.00	128.00	126.00	125.00	124.00	124.00	125.00	122.00	122.00	125.00	126.00	126.00	129.00	136.00	145.00	157.00	155.00	160.00	174.00	206.00	218.00	209.00	237.00	245.00	243.00	231.00	239.00	173.00	159.00	148.00	133.00	114.00	108.00	108.00	107.00	106.00	106.00	108.00	114.00	131.00	126.00	134.00	138.00	136.00	134.00	187.00	181.00	204.00	220.00	280.00	304.00	332.00	335.00	353.00	357.00	357.00	299.00	268.00	262.00	181.00	211.00	183.00	112.00	104.00	111.00	116.00	130.00	126.00	146.00	164.00	173.00	175.00	215.00	226.00	210.00	171.00	208.00	219.00	235.00	235.00	227.00	213.00	184.00	185.00	208.00	241.00	234.00	228.00	230.00	264.00	310.00	267.00	287.00	284.00	151.00	147.00	212.00	233.00	160.00	147.00	148.00	127.00	219.00	247.00	270.00	268.00	261.00	233.00	167.00	164.00	180.00	196.00	217.00	216.00	261.00	317.00	416.00	486.00	489.00	530.00	548.00	559.00	545.00	476.00	426.00	350.00	339.00	342.00	297.00	267.00	249.00	308.00	318.00	322.00	280.00	262.00	252.00	254.00	252.00	262.00	264.00	270.00	271.00	240.00	245.00	230.00	245.00	278.00	248.00	250.00	253.00	251.00	259.00	270.00	264.00	267.00	249.00	200.00	194.00	185.00	192.00	202.00	242.00	231.00	218.00	184.00	215.00	205.00	205.00	256.00	311.00	287.00	253.00	236.00	222.00	217.00	236.00	242.00	238.00	256.00	247.00	259.00	292.00	306.00	285.00	221.00	209.00	224.00	186.00	164.00	157.00	166.00	177.00	179.00	171.00	201.00	219.00	192.00	176.00	162.00	151.00	179.00	208.00	210.00	203.00	194.00	169.00	157.00	148.00	146.00	134.00	134.00	141.00	156.00	155.00	153.00	153.00	141.00	138.00	145.00
181.00	173.00	198.00	204.00	202.00	196.00	184.00	168.00	151.00	183.00	174.00	146.00	144.00	150.00	163.00	195.00	177.00	149.00	163.00	155.00	137.00	132.00	125.00	121.00	119.00	119.00	120.00	117.00	117.00	118.00	119.00	122.00	120.00	121.00	122.00	125.00	123.00	123.00	122.00	123.00	122.00	124.00	122.00	123.00	123.00	123.00	122.00	122.00	123.00	124.00	124.00	126.00	128.00	132.00	178.00	176.00	178.00	189.00	208.00	201.00	181.00	197.00	215.00	229.00	237.00	244.00	215.00	119.00	112.00	113.00	109.00	108.00	105.00	105.00	105.00	104.00	103.00	104.00	105.00	105.00	105.00	104.00	105.00	114.00	145.00	242.00	258.00	284.00	280.00	226.00	195.00	195.00	179.00	148.00	127.00	110.00	112.00	113.00	105.00	104.00	105.00	105.00	106.00	103.00	106.00	133.00	138.00	140.00	138.00	165.00	189.00	184.00	151.00	191.00	184.00	166.00	197.00	189.00	189.00	212.00	243.00	220.00	194.00	198.00	226.00	155.00	142.00	157.00	147.00	136.00	116.00	113.00	111.00	108.00	153.00	168.00	144.00	123.00	124.00	132.00	142.00	154.00	161.00	221.00	231.00	235.00	235.00	244.00	246.00	253.00	236.00	245.00	270.00	251.00	259.00	299.00	316.00	379.00	451.00	463.00	421.00	323.00	288.00	261.00	271.00	247.00	193.00	185.00	208.00	227.00	257.00	309.00	301.00	308.00	343.00	341.00	356.00	360.00	354.00	314.00	300.00	303.00	302.00	280.00	257.00	320.00	284.00	244.00	213.00	228.00	271.00	264.00	244.00	224.00	215.00	204.00	195.00	173.00	209.00	235.00	217.00	183.00	185.00	201.00	222.00	210.00	216.00	235.00	265.00	249.00	244.00	199.00	203.00	203.00	213.00	281.00	271.00	242.00	238.00	251.00	283.00	247.00	215.00	201.00	186.00	183.00	176.00	165.00	153.00	163.00	176.00	192.00	225.00	186.00	176.00	170.00	159.00	162.00	191.00	208.00	203.00	193.00	180.00	173.00	165.00	157.00	138.00	133.00	134.00	140.00	145.00	152.00	152.00	141.00	134.00	139.00
154.00	180.00	176.00	190.00	208.00	201.00	193.00	179.00	166.00	152.00	169.00	161.00	128.00	139.00	138.00	168.00	156.00	140.00	134.00	130.00	128.00	129.00	129.00	126.00	120.00	117.00	117.00	116.00	115.00	115.00	116.00	121.00	121.00	122.00	121.00	122.00	123.00	123.00	122.00	122.00	124.00	124.00	124.00	122.00	122.00	123.00	123.00	124.00	123.00	124.00	125.00	124.00	126.00	130.00	153.00	174.00	190.00	192.00	176.00	171.00	157.00	160.00	183.00	210.00	199.00	215.00	228.00	158.00	114.00	111.00	108.00	107.00	106.00	105.00	105.00	104.00	103.00	102.00	103.00	103.00	103.00	105.00	103.00	103.00	103.00	115.00	121.00	123.00	149.00	143.00	109.00	107.00	104.00	103.00	103.00	105.00	105.00	106.00	106.00	105.00	106.00	105.00	107.00	105.00	110.00	118.00	136.00	128.00	125.00	141.00	157.00	170.00	153.00	195.00	181.00	155.00	237.00	238.00	224.00	221.00	232.00	228.00	203.00	188.00	179.00	209.00	168.00	124.00	110.00	102.00	102.00	102.00	100.00	102.00	109.00	111.00	108.00	107.00	106.00	106.00	115.00	155.00	186.00	239.00	253.00	205.00	174.00	189.00	222.00	242.00	251.00	256.00	200.00	205.00	213.00	239.00	264.00	286.00	330.00	352.00	345.00	277.00	250.00	248.00	225.00	251.00	233.00	189.00	174.00	191.00	256.00	270.00	251.00	250.00	281.00	317.00	330.00	335.00	297.00	278.00	286.00	314.00	304.00	282.00	233.00	259.00	292.00	261.00	205.00	227.00	277.00	263.00	246.00	223.00	216.00	205.00	193.00	175.00	185.00	202.00	219.00	187.00	181.00	233.00	226.00	206.00	214.00	239.00	256.00	252.00	228.00	228.00	213.00	194.00	215.00	259.00	263.00	248.00	231.00	252.00	278.00	217.00	201.00	181.00	175.00	173.00	173.00	172.00	159.00	184.00	199.00	210.00	227.00	209.00	198.00	185.00	169.00	154.00	179.00	202.00	203.00	198.00	171.00	167.00	163.00	158.00	145.00	140.00	133.00	131.00	137.00	149.00	149.00	135.00	133.00	136.00
154.00	180.00	176.00	190.00	208.00	201.00	193.00	179.00	166.00	152.00	169.00	161.00	128.00	139.00	138.00	168.00	156.00	140.00	134.00	130.00	128.00	129.00	129.00	126.00	120.00	117.00	117.00	116.00	115.00	115.00	116.00	121.00	121.00	122.00	121.00	122.00	123.00	123.00	122.00	122.00	124.00	124.00	124.00	122.00	122.00	123.00	123.00	124.00	123.00	124.00	125.00	124.00	126.00	130.00	153.00	174.00	190.00	192.00	176.00	171.00	157.00	160.00	183.00	210.00	199.00	215.00	228.00	158.00	114.00	111.00	108.00	107.00	106.00	105.00	105.00	104.00	103.00	102.00	103.00	103.00	103.00	105.00	103.00	103.00	103.00	115.00	121.00	123.00	149.00	143.00	109.00	107.00	104.00	103.00	103.00	105.00	105.00	106.00	106.00	105.00	106.00	105.00	107.00	105.00	110.00	118.00	136.00	128.00	125.00	141.00	157.00	170.00	153.00	195.00	181.00	155.00	237.00	238.00	224.00	221.00	232.00	228.00	203.00	188.00	179.00	209.00	168.00	124.00	110.00	102.00	102.00	102.00	100.00	102.00	109.00	111.00	108.00	107.00	106.00	106.00	115.00	155.00	186.00	239.00	253.00	205.00	174.00	189.00	222.00	242.00	251.00	256.00	200.00	205.00	213.00	239.00	264.00	286.00	330.00	352.00	345.00	277.00	250.00	248.00	225.00	251.00	233.00	189.00	174.00	191.00	256.00	270.00	251.00	250.00	281.00	317.00	330.00	335.00	297.00	278.00	286.00	314.00	304.00	282.00	233.00	259.00	292.00	261.00	205.00	227.00	277.00	263.00	246.00	223.00	216.00	205.00	193.00	175.00	185.00	202.00	219.00	187.00	181.00	233.00	226.00	206.00	214.00	239.00	256.00	252.00	228.00	228.00	213.00	194.00	215.00	259.00	263.00	248.00	231.00	252.00	278.00	217.00	201.00	181.00	175.00	173.00	173.00	172.00	159.00	184.00	199.00	210.00	227.00	209.00	198.00	185.00	169.00	154.00	179.00	202.00	203.00	198.00	171.00	167.00	163.00	158.00	145.00	140.00	133.00	131.00	137.00	149.00	149.00	135.00	133.00	136.00
128.00	138.00	149.00	160.00	197.00	202.00	200.00	184.00	166.00	169.00	148.00	141.00	128.00	131.00	131.00	133.00	132.00	131.00	129.00	128.00	126.00	125.00	127.00	127.00	126.00	120.00	117.00	117.00	114.00	116.00	115.00	120.00	123.00	123.00	123.00	120.00	121.00	121.00	122.00	121.00	121.00	122.00	123.00	122.00	122.00	121.00	121.00	121.00	121.00	124.00	122.00	122.00	122.00	124.00	131.00	131.00	135.00	139.00	135.00	136.00	138.00	139.00	153.00	203.00	172.00	190.00	179.00	161.00	137.00	117.00	109.00	107.00	106.00	105.00	105.00	104.00	102.00	102.00	102.00	103.00	103.00	103.00	103.00	103.00	105.00	103.00	102.00	101.00	101.00	101.00	101.00	101.00	103.00	103.00	103.00	101.00	101.00	101.00	102.00	103.00	103.00	104.00	104.00	103.00	106.00	107.00	112.00	117.00	122.00	123.00	131.00	143.00	202.00	212.00	190.00	149.00	207.00	213.00	196.00	199.00	202.00	277.00	288.00	283.00	256.00	160.00	129.00	104.00	102.00	102.00	100.00	99.00	99.00	99.00	101.00	101.00	101.00	100.00	100.00	102.00	103.00	106.00	116.00	158.00	179.00	162.00	148.00	171.00	198.00	190.00	201.00	219.00	190.00	172.00	179.00	202.00	238.00	227.00	239.00	262.00	274.00	229.00	213.00	204.00	203.00	241.00	233.00	215.00	185.00	180.00	257.00	238.00	211.00	209.00	202.00	210.00	247.00	256.00	241.00	244.00	236.00	260.00	294.00	296.00	250.00	236.00	220.00	212.00	189.00	200.00	268.00	260.00	248.00	222.00	213.00	204.00	191.00	184.00	173.00	167.00	192.00	175.00	191.00	241.00	273.00	259.00	226.00	239.00	253.00	238.00	223.00	259.00	229.00	203.00	208.00	236.00	225.00	230.00	222.00	236.00	282.00	228.00	220.00	180.00	196.00	192.00	187.00	179.00	162.00	163.00	193.00	215.00	225.00	201.00	195.00	186.00	173.00	148.00	165.00	187.00	196.00	194.00	181.00	175.00	167.00	161.00	151.00	147.00	135.00	131.00	140.00	148.00	146.00	142.00	133.00	137.00
121.00	124.00	127.00	132.00	145.00	160.00	171.00	174.00	168.00	148.00	162.00	141.00	127.00	118.00	119.00	121.00	123.00	124.00	128.00	127.00	126.00	125.00	126.00	126.00	126.00	126.00	120.00	113.00	114.00	115.00	116.00	116.00	122.00	124.00	124.00	123.00	121.00	121.00	121.00	119.00	121.00	122.00	122.00	122.00	121.00	120.00	120.00	121.00	119.00	122.00	121.00	120.00	120.00	119.00	124.00	122.00	121.00	122.00	126.00	128.00	129.00	131.00	130.00	140.00	139.00	134.00	128.00	124.00	121.00	118.00	118.00	115.00	108.00	107.00	105.00	106.00	104.00	102.00	103.00	103.00	103.00	104.00	104.00	102.00	101.00	106.00	106.00	107.00	107.00	106.00	106.00	107.00	110.00	114.00	134.00	109.00	113.00	122.00	120.00	104.00	101.00	101.00	101.00	101.00	101.00	102.00	104.00	107.00	116.00	117.00	122.00	127.00	162.00	212.00	196.00	153.00	182.00	187.00	215.00	255.00	281.00	282.00	304.00	284.00	213.00	134.00	109.00	101.00	100.00	99.00	101.00	103.00	104.00	107.00	108.00	107.00	105.00	105.00	105.00	103.00	101.00	99.00	100.00	108.00	120.00	132.00	130.00	139.00	145.00	153.00	158.00	159.00	175.00	152.00	167.00	208.00	226.00	204.00	192.00	223.00	242.00	197.00	179.00	171.00	184.00	199.00	223.00	209.00	190.00	178.00	215.00	233.00	209.00	181.00	172.00	178.00	192.00	201.00	238.00	265.00	249.00	240.00	236.00	259.00	264.00	247.00	239.00	237.00	189.00	183.00	237.00	240.00	227.00	216.00	209.00	206.00	200.00	178.00	175.00	164.00	187.00	170.00	190.00	247.00	280.00	290.00	285.00	262.00	242.00	233.00	216.00	259.00	244.00	206.00	202.00	224.00	219.00	234.00	242.00	269.00	264.00	231.00	220.00	219.00	204.00	203.00	201.00	193.00	175.00	151.00	171.00	188.00	217.00	200.00	186.00	183.00	178.00	146.00	150.00	169.00	189.00	187.00	179.00	175.00	172.00	168.00	152.00	144.00	131.00	130.00	131.00	145.00	145.00	141.00	134.00	132.00
119.00	120.00	122.00	123.00	127.00	132.00	136.00	143.00	146.00	134.00	129.00	128.00	120.00	118.00	116.00	116.00	117.00	119.00	126.00	127.00	126.00	126.00	125.00	125.00	126.00	126.00	126.00	116.00	112.00	116.00	119.00	123.00	118.00	121.00	122.00	122.00	119.00	119.00	119.00	119.00	121.00	120.00	121.00	122.00	122.00	120.00	120.00	120.00	120.00	119.00	119.00	118.00	116.00	116.00	119.00	119.00	120.00	121.00	124.00	125.00	126.00	126.00	125.00	126.00	128.00	126.00	124.00	121.00	119.00	118.00	118.00	117.00	109.00	107.00	106.00	106.00	106.00	103.00	102.00	102.00	105.00	103.00	101.00	104.00	110.00	113.00	112.00	111.00	111.00	111.00	110.00	116.00	133.00	180.00	239.00	123.00	154.00	227.00	280.00	209.00	142.00	110.00	103.00	104.00	104.00	102.00	103.00	102.00	101.00	101.00	104.00	111.00	123.00	170.00	198.00	173.00	192.00	247.00	272.00	281.00	312.00	335.00	268.00	196.00	154.00	109.00	102.00	99.00	101.00	105.00	107.00	109.00	107.00	105.00	104.00	107.00	109.00	105.00	102.00	106.00	106.00	107.00	105.00	99.00	101.00	113.00	129.00	131.00	133.00	132.00	136.00	135.00	146.00	138.00	157.00	202.00	233.00	202.00	175.00	203.00	230.00	182.00	166.00	168.00	209.00	208.00	220.00	206.00	192.00	157.00	174.00	179.00	187.00	196.00	163.00	169.00	170.00	207.00	222.00	303.00	282.00	278.00	277.00	267.00	220.00	211.00	199.00	203.00	200.00	185.00	182.00	191.00	190.00	207.00	204.00	199.00	195.00	180.00	171.00	161.00	183.00	162.00	199.00	220.00	233.00	246.00	290.00	276.00	249.00	240.00	240.00	240.00	263.00	237.00	197.00	226.00	210.00	193.00	221.00	252.00	240.00	232.00	210.00	221.00	220.00	203.00	189.00	179.00	171.00	148.00	154.00	169.00	203.00	202.00	192.00	178.00	168.00	154.00	143.00	157.00	173.00	180.00	172.00	170.00	172.00	173.00	154.00	146.00	135.00	130.00	129.00	136.00	144.00	137.00	131.00	131.00
117.00	122.00	119.00	120.00	121.00	123.00	124.00	125.00	131.00	132.00	126.00	123.00	119.00	116.00	117.00	115.00	115.00	116.00	121.00	126.00	129.00	127.00	126.00	126.00	127.00	126.00	127.00	126.00	116.00	116.00	118.00	119.00	111.00	110.00	110.00	111.00	113.00	111.00	111.00	111.00	114.00	117.00	122.00	125.00	123.00	121.00	121.00	121.00	122.00	122.00	121.00	120.00	117.00	113.00	116.00	117.00	119.00	121.00	122.00	123.00	123.00	122.00	122.00	123.00	123.00	122.00	121.00	120.00	118.00	118.00	120.00	119.00	119.00	117.00	111.00	106.00	104.00	105.00	104.00	102.00	105.00	101.00	105.00	116.00	119.00	122.00	123.00	124.00	122.00	117.00	113.00	116.00	132.00	172.00	231.00	135.00	180.00	254.00	274.00	255.00	206.00	162.00	134.00	103.00	103.00	101.00	103.00	102.00	102.00	101.00	102.00	101.00	105.00	142.00	179.00	141.00	192.00	237.00	262.00	274.00	287.00	256.00	191.00	150.00	125.00	102.00	99.00	99.00	103.00	106.00	103.00	103.00	105.00	106.00	104.00	103.00	104.00	103.00	103.00	101.00	101.00	104.00	107.00	107.00	102.00	105.00	105.00	110.00	126.00	127.00	134.00	129.00	131.00	134.00	157.00	185.00	222.00	198.00	171.00	187.00	216.00	185.00	161.00	170.00	219.00	250.00	224.00	207.00	188.00	156.00	175.00	174.00	153.00	176.00	196.00	153.00	151.00	170.00	218.00	285.00	303.00	276.00	253.00	266.00	220.00	192.00	225.00	251.00	203.00	187.00	182.00	180.00	172.00	185.00	189.00	189.00	184.00	182.00	170.00	159.00	185.00	161.00	190.00	204.00	236.00	247.00	259.00	256.00	252.00	231.00	220.00	224.00	261.00	250.00	219.00	188.00	206.00	188.00	207.00	232.00	221.00	218.00	200.00	215.00	237.00	228.00	215.00	199.00	187.00	156.00	145.00	151.00	188.00	196.00	186.00	182.00	175.00	158.00	146.00	143.00	154.00	170.00	166.00	167.00	165.00	166.00	155.00	149.00	146.00	139.00	129.00	134.00	139.00	130.00	129.00	131.00
117.00	117.00	118.00	118.00	118.00	119.00	121.00	121.00	123.00	130.00	130.00	125.00	119.00	116.00	115.00	115.00	114.00	114.00	116.00	119.00	124.00	125.00	127.00	127.00	127.00	127.00	127.00	122.00	117.00	110.00	109.00	106.00	106.00	106.00	106.00	106.00	106.00	106.00	106.00	106.00	106.00	105.00	108.00	116.00	118.00	123.00	123.00	123.00	124.00	123.00	122.00	123.00	123.00	121.00	114.00	114.00	119.00	121.00	122.00	121.00	121.00	121.00	121.00	121.00	122.00	121.00	120.00	119.00	118.00	117.00	118.00	117.00	118.00	117.00	115.00	118.00	105.00	107.00	105.00	103.00	106.00	101.00	114.00	127.00	132.00	148.00	155.00	161.00	148.00	143.00	123.00	118.00	121.00	133.00	171.00	165.00	206.00	243.00	270.00	243.00	221.00	228.00	171.00	126.00	107.00	103.00	104.00	107.00	106.00	103.00	104.00	104.00	101.00	105.00	127.00	154.00	214.00	239.00	257.00	274.00	282.00	190.00	149.00	126.00	109.00	99.00	99.00	131.00	219.00	202.00	182.00	144.00	127.00	111.00	103.00	104.00	102.00	104.00	102.00	102.00	102.00	102.00	111.00	107.00	109.00	105.00	102.00	101.00	119.00	119.00	123.00	122.00	129.00	136.00	156.00	190.00	223.00	202.00	173.00	163.00	174.00	187.00	169.00	153.00	171.00	200.00	250.00	227.00	189.00	156.00	196.00	201.00	166.00	148.00	167.00	156.00	146.00	151.00	161.00	250.00	287.00	307.00	282.00	241.00	234.00	199.00	220.00	255.00	277.00	246.00	214.00	195.00	193.00	166.00	163.00	163.00	173.00	186.00	179.00	168.00	164.00	164.00	214.00	222.00	204.00	212.00	255.00	255.00	235.00	227.00	216.00	198.00	225.00	233.00	236.00	183.00	179.00	186.00	193.00	205.00	206.00	223.00	205.00	194.00	229.00	225.00	213.00	203.00	190.00	166.00	152.00	144.00	174.00	189.00	176.00	170.00	169.00	163.00	158.00	144.00	145.00	163.00	166.00	162.00	160.00	156.00	154.00	147.00	145.00	144.00	137.00	129.00	128.00	128.00	129.00	131.00
118.00	118.00	118.00	118.00	117.00	118.00	118.00	119.00	120.00	121.00	126.00	129.00	122.00	118.00	118.00	116.00	115.00	114.00	113.00	113.00	115.00	116.00	128.00	123.00	119.00	117.00	115.00	107.00	105.00	106.00	105.00	105.00	105.00	106.00	107.00	107.00	106.00	107.00	105.00	104.00	103.00	103.00	103.00	103.00	103.00	105.00	109.00	113.00	116.00	121.00	121.00	123.00	124.00	124.00	120.00	116.00	112.00	118.00	120.00	119.00	119.00	118.00	118.00	119.00	120.00	119.00	120.00	118.00	117.00	118.00	118.00	119.00	119.00	117.00	116.00	120.00	117.00	110.00	109.00	109.00	109.00	101.00	123.00	127.00	138.00	193.00	206.00	207.00	200.00	203.00	157.00	150.00	135.00	132.00	151.00	147.00	206.00	263.00	323.00	309.00	273.00	281.00	223.00	154.00	144.00	117.00	105.00	105.00	106.00	106.00	105.00	105.00	102.00	101.00	109.00	147.00	268.00	267.00	290.00	289.00	286.00	170.00	147.00	116.00	104.00	99.00	118.00	196.00	272.00	285.00	213.00	211.00	209.00	155.00	111.00	104.00	103.00	103.00	104.00	104.00	103.00	102.00	104.00	105.00	106.00	103.00	105.00	103.00	107.00	110.00	120.00	124.00	130.00	134.00	142.00	160.00	171.00	210.00	180.00	168.00	155.00	184.00	173.00	160.00	149.00	169.00	203.00	214.00	191.00	154.00	143.00	170.00	164.00	145.00	141.00	155.00	146.00	160.00	170.00	194.00	220.00	265.00	258.00	232.00	239.00	222.00	225.00	270.00	281.00	265.00	246.00	231.00	217.00	175.00	166.00	160.00	163.00	198.00	194.00	186.00	162.00	168.00	235.00	244.00	248.00	242.00	247.00	257.00	256.00	236.00	240.00	230.00	193.00	201.00	229.00	201.00	175.00	173.00	171.00	177.00	207.00	235.00	213.00	194.00	196.00	208.00	209.00	194.00	187.00	170.00	164.00	150.00	157.00	186.00	175.00	168.00	161.00	159.00	155.00	148.00	141.00	159.00	163.00	165.00	163.00	157.00	148.00	146.00	144.00	143.00	142.00	129.00	128.00	128.00	128.00	134.00
118.00	117.00	118.00	118.00	117.00	116.00	117.00	117.00	118.00	118.00	119.00	121.00	127.00	120.00	119.00	119.00	117.00	115.00	113.00	113.00	112.00	112.00	120.00	119.00	119.00	116.00	106.00	106.00	106.00	107.00	106.00	106.00	105.00	106.00	108.00	107.00	106.00	105.00	104.00	104.00	104.00	104.00	103.00	103.00	102.00	102.00	102.00	103.00	103.00	106.00	107.00	107.00	110.00	113.00	119.00	119.00	116.00	113.00	120.00	118.00	117.00	116.00	116.00	116.00	117.00	118.00	119.00	118.00	118.00	117.00	118.00	119.00	118.00	118.00	118.00	119.00	122.00	120.00	111.00	110.00	108.00	102.00	107.00	110.00	113.00	241.00	258.00	263.00	278.00	252.00	232.00	218.00	179.00	169.00	149.00	172.00	217.00	282.00	309.00	284.00	297.00	275.00	239.00	185.00	152.00	135.00	108.00	105.00	105.00	106.00	104.00	103.00	103.00	101.00	113.00	166.00	350.00	338.00	331.00	330.00	315.00	171.00	139.00	110.00	101.00	103.00	191.00	309.00	341.00	337.00	264.00	284.00	298.00	262.00	142.00	127.00	115.00	106.00	102.00	103.00	103.00	105.00	107.00	107.00	105.00	103.00	103.00	105.00	100.00	102.00	108.00	112.00	125.00	131.00	134.00	137.00	153.00	177.00	180.00	172.00	164.00	164.00	170.00	159.00	149.00	145.00	191.00	207.00	186.00	150.00	136.00	157.00	167.00	140.00	153.00	171.00	167.00	155.00	177.00	230.00	249.00	240.00	239.00	229.00	285.00	294.00	266.00	259.00	295.00	271.00	233.00	232.00	224.00	187.00	169.00	160.00	168.00	169.00	158.00	162.00	161.00	169.00	203.00	205.00	226.00	254.00	223.00	238.00	221.00	213.00	228.00	242.00	223.00	195.00	187.00	207.00	189.00	167.00	168.00	172.00	194.00	235.00	237.00	219.00	181.00	182.00	212.00	205.00	186.00	169.00	166.00	161.00	142.00	173.00	169.00	165.00	163.00	152.00	152.00	150.00	141.00	156.00	162.00	158.00	157.00	157.00	152.00	145.00	143.00	143.00	142.00	134.00	129.00	128.00	127.00	131.00
111.00	119.00	119.00	119.00	122.00	124.00	117.00	117.00	116.00	117.00	116.00	116.00	120.00	122.00	118.00	117.00	118.00	117.00	115.00	112.00	110.00	109.00	113.00	116.00	118.00	108.00	106.00	106.00	106.00	106.00	106.00	106.00	106.00	106.00	106.00	107.00	104.00	104.00	104.00	104.00	108.00	110.00	109.00	104.00	103.00	102.00	102.00	103.00	103.00	104.00	103.00	104.00	103.00	103.00	104.00	104.00	105.00	107.00	114.00	116.00	116.00	115.00	115.00	113.00	115.00	116.00	116.00	118.00	119.00	119.00	119.00	119.00	118.00	119.00	119.00	117.00	119.00	119.00	112.00	111.00	105.00	103.00	106.00	110.00	109.00	223.00	261.00	295.00	311.00	328.00	341.00	295.00	223.00	179.00	180.00	254.00	324.00	346.00	308.00	251.00	239.00	215.00	206.00	216.00	168.00	156.00	123.00	111.00	110.00	107.00	105.00	103.00	102.00	101.00	122.00	170.00	336.00	374.00	368.00	336.00	277.00	170.00	127.00	106.00	100.00	125.00	196.00	319.00	345.00	330.00	315.00	362.00	350.00	283.00	182.00	169.00	140.00	118.00	105.00	104.00	103.00	102.00	103.00	103.00	105.00	105.00	102.00	104.00	104.00	102.00	100.00	107.00	114.00	120.00	126.00	130.00	133.00	163.00	192.00	173.00	156.00	146.00	168.00	166.00	153.00	143.00	171.00	198.00	185.00	146.00	131.00	143.00	161.00	152.00	134.00	170.00	209.00	207.00	186.00	230.00	239.00	239.00	236.00	254.00	277.00	304.00	303.00	282.00	288.00	276.00	240.00	229.00	214.00	195.00	173.00	160.00	173.00	162.00	205.00	193.00	167.00	162.00	200.00	218.00	239.00	258.00	222.00	218.00	223.00	197.00	224.00	227.00	233.00	220.00	201.00	184.00	193.00	183.00	169.00	167.00	172.00	206.00	230.00	224.00	187.00	171.00	188.00	210.00	200.00	176.00	166.00	157.00	144.00	157.00	166.00	157.00	156.00	147.00	142.00	143.00	137.00	154.00	162.00	158.00	155.00	152.00	148.00	148.00	143.00	140.00	139.00	139.00	131.00	127.00	126.00	129.00
