449.00	469.00	484.00	500.00	525.00	558.00	542.00	492.00	452.00	449.00	460.00	484.00	499.00	451.00	388.00	367.00	355.00	348.00	340.00	326.00	322.00	320.00	323.00	323.00	324.00	325.00	324.00	322.00	323.00	324.00	325.00	324.00	324.00	325.00	326.00	327.00	328.00	331.00	332.00	332.00	335.00	339.00	343.00	345.00	346.00	349.00	353.00	354.00	355.00	356.00	365.00	367.00	368.00	368.00	370.00	373.00	374.00	374.00	376.00	383.00	410.00	434.00	473.00	507.00	515.00	504.00	493.00	479.00	438.00	432.00	402.00	381.00	380.00	385.00	387.00	385.00	380.00	381.00	385.00	390.00	395.00	397.00	388.00	384.00	381.00	378.00	376.00	379.00	377.00	371.00	360.00	350.00	342.00	342.00	345.00	349.00	350.00	354.00	357.00	358.00	371.00	378.00	384.00	395.00	400.00	401.00	402.00	396.00	384.00	376.00	370.00	366.00	365.00	375.00	379.00	382.00	387.00	388.00	385.00	382.00	379.00	381.00	389.00	397.00	399.00	401.00	408.00	408.00	408.00	408.00	407.00	399.00	400.00	397.00	398.00	400.00	402.00	400.00	398.00	398.00	396.00	397.00	401.00	406.00	398.00	396.00	392.00	390.00	391.00	393.00	394.00	395.00	396.00	400.00	404.00	412.00	417.00	416.00	411.00	410.00	410.00	410.00	410.00	410.00	413.00	415.00	419.00	422.00	423.00	424.00	425.00	430.00	430.00	430.00	431.00	433.00	438.00	437.00	433.00	432.00	440.00	442.00	445.00	449.00	455.00	458.00	458.00	459.00	460.00	463.00	466.00	469.00	470.00	472.00	474.00	476.00	477.00	472.00	459.00	463.00	461.00	453.00	444.00	433.00	429.00	425.00	419.00	401.00	398.00	392.00	387.00	386.00	386.00	388.00	390.00	391.00	391.00	391.00	392.00	392.00	392.00	394.00	394.00	394.00	393.00	392.00	392.00	392.00	390.00	389.00	389.00	389.00	389.00	390.00	390.00	390.00	391.00	391.00	391.00	391.00	391.00	390.00	390.00	391.00	391.00	391.00	392.00	392.00	393.00	394.00	394.00	394.00	395.00	395.00	395.00	395.00
473.00	499.00	509.00	527.00	547.00	574.00	560.00	536.00	512.00	494.00	475.00	475.00	449.00	420.00	380.00	366.00	354.00	347.00	339.00	319.00	315.00	321.00	324.00	322.00	322.00	322.00	321.00	319.00	320.00	320.00	322.00	321.00	322.00	322.00	323.00	324.00	326.00	329.00	330.00	328.00	330.00	338.00	339.00	340.00	342.00	345.00	349.00	350.00	351.00	352.00	359.00	361.00	362.00	364.00	367.00	369.00	370.00	371.00	372.00	374.00	379.00	383.00	389.00	400.00	459.00	482.00	505.00	522.00	464.00	439.00	422.00	382.00	378.00	386.00	389.00	389.00	385.00	384.00	386.00	389.00	395.00	399.00	391.00	387.00	383.00	381.00	378.00	376.00	374.00	368.00	361.00	352.00	344.00	340.00	342.00	345.00	348.00	350.00	354.00	360.00	368.00	372.00	377.00	388.00	393.00	396.00	399.00	400.00	393.00	387.00	380.00	374.00	371.00	371.00	376.00	378.00	384.00	393.00	391.00	387.00	383.00	383.00	386.00	391.00	393.00	395.00	401.00	406.00	408.00	408.00	410.00	410.00	407.00	404.00	401.00	405.00	406.00	404.00	400.00	399.00	398.00	397.00	400.00	406.00	404.00	397.00	393.00	390.00	390.00	391.00	394.00	396.00	397.00	403.00	408.00	413.00	417.00	416.00	409.00	410.00	410.00	408.00	411.00	413.00	415.00	418.00	419.00	421.00	420.00	418.00	418.00	426.00	428.00	428.00	427.00	427.00	431.00	433.00	433.00	433.00	439.00	441.00	446.00	451.00	457.00	461.00	456.00	455.00	456.00	460.00	464.00	468.00	471.00	474.00	472.00	471.00	469.00	459.00	447.00	446.00	444.00	438.00	431.00	420.00	415.00	411.00	406.00	394.00	390.00	386.00	384.00	383.00	384.00	386.00	387.00	388.00	388.00	389.00	390.00	390.00	391.00	392.00	392.00	392.00	392.00	391.00	391.00	390.00	389.00	388.00	385.00	384.00	385.00	388.00	389.00	389.00	389.00	390.00	390.00	390.00	390.00	390.00	390.00	390.00	391.00	391.00	392.00	392.00	395.00	395.00	394.00	394.00	395.00	395.00	396.00	396.00
473.00	499.00	509.00	527.00	547.00	574.00	560.00	536.00	512.00	494.00	475.00	475.00	449.00	420.00	380.00	366.00	354.00	347.00	339.00	319.00	315.00	321.00	324.00	322.00	322.00	322.00	321.00	319.00	320.00	320.00	322.00	321.00	322.00	322.00	323.00	324.00	326.00	329.00	330.00	328.00	330.00	338.00	339.00	340.00	342.00	345.00	349.00	350.00	351.00	352.00	359.00	361.00	362.00	364.00	367.00	369.00	370.00	371.00	372.00	374.00	379.00	383.00	389.00	400.00	459.00	482.00	505.00	522.00	464.00	439.00	422.00	382.00	378.00	386.00	389.00	389.00	385.00	384.00	386.00	389.00	395.00	399.00	391.00	387.00	383.00	381.00	378.00	376.00	374.00	368.00	361.00	352.00	344.00	340.00	342.00	345.00	348.00	350.00	354.00	360.00	368.00	372.00	377.00	388.00	393.00	396.00	399.00	400.00	393.00	387.00	380.00	374.00	371.00	371.00	376.00	378.00	384.00	393.00	391.00	387.00	383.00	383.00	386.00	391.00	393.00	395.00	401.00	406.00	408.00	408.00	410.00	410.00	407.00	404.00	401.00	405.00	406.00	404.00	400.00	399.00	398.00	397.00	400.00	406.00	404.00	397.00	393.00	390.00	390.00	391.00	394.00	396.00	397.00	403.00	408.00	413.00	417.00	416.00	409.00	410.00	410.00	408.00	411.00	413.00	415.00	418.00	419.00	421.00	420.00	418.00	418.00	426.00	428.00	428.00	427.00	427.00	431.00	433.00	433.00	433.00	439.00	441.00	446.00	451.00	457.00	461.00	456.00	455.00	456.00	460.00	464.00	468.00	471.00	474.00	472.00	471.00	469.00	459.00	447.00	446.00	444.00	438.00	431.00	420.00	415.00	411.00	406.00	394.00	390.00	386.00	384.00	383.00	384.00	386.00	387.00	388.00	388.00	389.00	390.00	390.00	391.00	392.00	392.00	392.00	392.00	391.00	391.00	390.00	389.00	388.00	385.00	384.00	385.00	388.00	389.00	389.00	389.00	390.00	390.00	390.00	390.00	390.00	390.00	390.00	391.00	391.00	392.00	392.00	395.00	395.00	394.00	394.00	395.00	395.00	396.00	396.00
503.00	521.00	521.00	522.00	523.00	557.00	576.00	569.00	518.00	506.00	509.00	475.00	437.00	407.00	371.00	354.00	342.00	336.00	332.00	316.00	310.00	316.00	320.00	319.00	320.00	319.00	319.00	315.00	315.00	314.00	314.00	316.00	318.00	320.00	321.00	321.00	323.00	325.00	325.00	325.00	327.00	331.00	333.00	335.00	338.00	340.00	344.00	347.00	348.00	350.00	356.00	358.00	359.00	361.00	364.00	364.00	364.00	364.00	366.00	369.00	377.00	380.00	381.00	380.00	391.00	397.00	415.00	445.00	470.00	441.00	430.00	382.00	377.00	387.00	391.00	391.00	389.00	389.00	389.00	390.00	392.00	395.00	390.00	388.00	384.00	381.00	378.00	374.00	370.00	361.00	350.00	350.00	343.00	340.00	339.00	343.00	345.00	348.00	354.00	362.00	370.00	373.00	378.00	389.00	396.00	398.00	399.00	398.00	398.00	392.00	385.00	379.00	375.00	371.00	374.00	377.00	383.00	390.00	390.00	388.00	390.00	393.00	389.00	388.00	390.00	392.00	394.00	396.00	399.00	403.00	407.00	413.00	411.00	409.00	406.00	409.00	410.00	410.00	409.00	406.00	399.00	398.00	397.00	397.00	399.00	395.00	392.00	392.00	392.00	392.00	393.00	397.00	399.00	402.00	407.00	418.00	419.00	417.00	409.00	408.00	406.00	408.00	413.00	416.00	417.00	420.00	418.00	420.00	419.00	417.00	416.00	420.00	424.00	426.00	425.00	424.00	428.00	431.00	436.00	440.00	445.00	450.00	451.00	452.00	455.00	456.00	452.00	452.00	453.00	460.00	463.00	468.00	470.00	471.00	468.00	465.00	460.00	446.00	436.00	436.00	434.00	429.00	423.00	411.00	407.00	402.00	399.00	385.00	383.00	382.00	381.00	380.00	381.00	381.00	382.00	384.00	385.00	385.00	386.00	387.00	389.00	389.00	390.00	391.00	391.00	391.00	390.00	390.00	388.00	386.00	383.00	382.00	383.00	385.00	387.00	387.00	388.00	389.00	389.00	388.00	388.00	388.00	388.00	390.00	391.00	392.00	393.00	393.00	395.00	395.00	395.00	395.00	396.00	396.00	397.00	398.00
505.00	492.00	487.00	505.00	524.00	570.00	548.00	534.00	517.00	530.00	515.00	457.00	423.00	399.00	363.00	346.00	334.00	326.00	320.00	313.00	309.00	307.00	306.00	312.00	313.00	313.00	312.00	308.00	310.00	308.00	309.00	311.00	315.00	317.00	318.00	319.00	321.00	321.00	320.00	321.00	325.00	328.00	330.00	333.00	337.00	340.00	349.00	351.00	351.00	352.00	355.00	356.00	357.00	358.00	359.00	359.00	359.00	359.00	359.00	362.00	371.00	375.00	378.00	380.00	390.00	393.00	396.00	405.00	428.00	436.00	434.00	393.00	377.00	383.00	389.00	390.00	390.00	391.00	391.00	389.00	388.00	387.00	385.00	385.00	383.00	380.00	378.00	373.00	367.00	355.00	349.00	347.00	339.00	339.00	338.00	341.00	344.00	346.00	352.00	361.00	369.00	372.00	378.00	392.00	400.00	401.00	402.00	401.00	400.00	392.00	388.00	381.00	376.00	370.00	373.00	377.00	379.00	388.00	389.00	389.00	389.00	391.00	397.00	389.00	388.00	389.00	390.00	390.00	393.00	400.00	404.00	410.00	410.00	410.00	409.00	410.00	410.00	413.00	412.00	409.00	405.00	404.00	403.00	399.00	394.00	394.00	394.00	394.00	393.00	393.00	393.00	394.00	397.00	400.00	401.00	408.00	410.00	409.00	404.00	403.00	407.00	410.00	415.00	419.00	420.00	419.00	413.00	419.00	421.00	422.00	422.00	421.00	423.00	425.00	425.00	423.00	425.00	427.00	431.00	437.00	444.00	447.00	449.00	449.00	446.00	444.00	447.00	449.00	451.00	456.00	459.00	464.00	466.00	465.00	462.00	458.00	453.00	441.00	431.00	429.00	426.00	424.00	419.00	406.00	401.00	395.00	391.00	378.00	378.00	377.00	376.00	376.00	377.00	377.00	378.00	380.00	381.00	381.00	382.00	383.00	385.00	386.00	387.00	388.00	389.00	391.00	391.00	391.00	390.00	389.00	384.00	380.00	381.00	383.00	384.00	385.00	387.00	389.00	388.00	385.00	386.00	387.00	388.00	390.00	391.00	392.00	393.00	394.00	395.00	395.00	395.00	395.00	397.00	397.00	398.00	399.00
505.00	492.00	487.00	505.00	524.00	570.00	548.00	534.00	517.00	530.00	515.00	457.00	423.00	399.00	363.00	346.00	334.00	326.00	320.00	313.00	309.00	307.00	306.00	312.00	313.00	313.00	312.00	308.00	310.00	308.00	309.00	311.00	315.00	317.00	318.00	319.00	321.00	321.00	320.00	321.00	325.00	328.00	330.00	333.00	337.00	340.00	349.00	351.00	351.00	352.00	355.00	356.00	357.00	358.00	359.00	359.00	359.00	359.00	359.00	362.00	371.00	375.00	378.00	380.00	390.00	393.00	396.00	405.00	428.00	436.00	434.00	393.00	377.00	383.00	389.00	390.00	390.00	391.00	391.00	389.00	388.00	387.00	385.00	385.00	383.00	380.00	378.00	373.00	367.00	355.00	349.00	347.00	339.00	339.00	338.00	341.00	344.00	346.00	352.00	361.00	369.00	372.00	378.00	392.00	400.00	401.00	402.00	401.00	400.00	392.00	388.00	381.00	376.00	370.00	373.00	377.00	379.00	388.00	389.00	389.00	389.00	391.00	397.00	389.00	388.00	389.00	390.00	390.00	393.00	400.00	404.00	410.00	410.00	410.00	409.00	410.00	410.00	413.00	412.00	409.00	405.00	404.00	403.00	399.00	394.00	394.00	394.00	394.00	393.00	393.00	393.00	394.00	397.00	400.00	401.00	408.00	410.00	409.00	404.00	403.00	407.00	410.00	415.00	419.00	420.00	419.00	413.00	419.00	421.00	422.00	422.00	421.00	423.00	425.00	425.00	423.00	425.00	427.00	431.00	437.00	444.00	447.00	449.00	449.00	446.00	444.00	447.00	449.00	451.00	456.00	459.00	464.00	466.00	465.00	462.00	458.00	453.00	441.00	431.00	429.00	426.00	424.00	419.00	406.00	401.00	395.00	391.00	378.00	378.00	377.00	376.00	376.00	377.00	377.00	378.00	380.00	381.00	381.00	382.00	383.00	385.00	386.00	387.00	388.00	389.00	391.00	391.00	391.00	390.00	389.00	384.00	380.00	381.00	383.00	384.00	385.00	387.00	389.00	388.00	385.00	386.00	387.00	388.00	390.00	391.00	392.00	393.00	394.00	395.00	395.00	395.00	395.00	397.00	397.00	398.00	399.00
467.00	468.00	480.00	494.00	523.00	530.00	508.00	503.00	534.00	591.00	514.00	452.00	423.00	395.00	353.00	339.00	329.00	323.00	317.00	310.00	309.00	304.00	300.00	302.00	303.00	303.00	305.00	304.00	304.00	304.00	305.00	307.00	310.00	312.00	315.00	317.00	319.00	318.00	319.00	320.00	323.00	327.00	329.00	330.00	336.00	341.00	349.00	349.00	349.00	350.00	354.00	355.00	356.00	356.00	356.00	356.00	356.00	356.00	356.00	359.00	365.00	368.00	371.00	374.00	384.00	392.00	394.00	396.00	416.00	419.00	424.00	423.00	390.00	385.00	389.00	391.00	392.00	391.00	386.00	386.00	386.00	382.00	382.00	382.00	380.00	377.00	371.00	368.00	367.00	351.00	345.00	348.00	341.00	340.00	340.00	340.00	344.00	348.00	352.00	358.00	366.00	370.00	375.00	391.00	398.00	401.00	400.00	400.00	397.00	388.00	385.00	380.00	376.00	370.00	371.00	377.00	386.00	387.00	387.00	388.00	391.00	392.00	395.00	390.00	388.00	388.00	388.00	387.00	388.00	392.00	398.00	402.00	405.00	406.00	410.00	411.00	412.00	414.00	413.00	412.00	406.00	408.00	409.00	410.00	401.00	401.00	403.00	401.00	398.00	397.00	397.00	397.00	397.00	398.00	398.00	399.00	398.00	398.00	397.00	398.00	399.00	401.00	408.00	410.00	408.00	403.00	406.00	420.00	421.00	420.00	419.00	421.00	422.00	424.00	424.00	422.00	422.00	424.00	426.00	427.00	436.00	437.00	435.00	432.00	429.00	431.00	440.00	446.00	450.00	456.00	460.00	461.00	461.00	454.00	453.00	450.00	445.00	436.00	431.00	429.00	424.00	419.00	413.00	401.00	395.00	391.00	386.00	374.00	374.00	375.00	375.00	374.00	373.00	373.00	374.00	376.00	377.00	377.00	378.00	379.00	381.00	382.00	383.00	383.00	385.00	389.00	390.00	389.00	387.00	386.00	381.00	379.00	380.00	382.00	383.00	383.00	385.00	385.00	383.00	384.00	385.00	386.00	388.00	390.00	390.00	391.00	392.00	393.00	395.00	395.00	396.00	398.00	398.00	399.00	399.00	399.00
467.00	468.00	480.00	494.00	523.00	530.00	508.00	503.00	534.00	591.00	514.00	452.00	423.00	395.00	353.00	339.00	329.00	323.00	317.00	310.00	309.00	304.00	300.00	302.00	303.00	303.00	305.00	304.00	304.00	304.00	305.00	307.00	310.00	312.00	315.00	317.00	319.00	318.00	319.00	320.00	323.00	327.00	329.00	330.00	336.00	341.00	349.00	349.00	349.00	350.00	354.00	355.00	356.00	356.00	356.00	356.00	356.00	356.00	356.00	359.00	365.00	368.00	371.00	374.00	384.00	392.00	394.00	396.00	416.00	419.00	424.00	423.00	390.00	385.00	389.00	391.00	392.00	391.00	386.00	386.00	386.00	382.00	382.00	382.00	380.00	377.00	371.00	368.00	367.00	351.00	345.00	348.00	341.00	340.00	340.00	340.00	344.00	348.00	352.00	358.00	366.00	370.00	375.00	391.00	398.00	401.00	400.00	400.00	397.00	388.00	385.00	380.00	376.00	370.00	371.00	377.00	386.00	387.00	387.00	388.00	391.00	392.00	395.00	390.00	388.00	388.00	388.00	387.00	388.00	392.00	398.00	402.00	405.00	406.00	410.00	411.00	412.00	414.00	413.00	412.00	406.00	408.00	409.00	410.00	401.00	401.00	403.00	401.00	398.00	397.00	397.00	397.00	397.00	398.00	398.00	399.00	398.00	398.00	397.00	398.00	399.00	401.00	408.00	410.00	408.00	403.00	406.00	420.00	421.00	420.00	419.00	421.00	422.00	424.00	424.00	422.00	422.00	424.00	426.00	427.00	436.00	437.00	435.00	432.00	429.00	431.00	440.00	446.00	450.00	456.00	460.00	461.00	461.00	454.00	453.00	450.00	445.00	436.00	431.00	429.00	424.00	419.00	413.00	401.00	395.00	391.00	386.00	374.00	374.00	375.00	375.00	374.00	373.00	373.00	374.00	376.00	377.00	377.00	378.00	379.00	381.00	382.00	383.00	383.00	385.00	389.00	390.00	389.00	387.00	386.00	381.00	379.00	380.00	382.00	383.00	383.00	385.00	385.00	383.00	384.00	385.00	386.00	388.00	390.00	390.00	391.00	392.00	393.00	395.00	395.00	396.00	398.00	398.00	399.00	399.00	399.00
507.00	500.00	494.00	489.00	486.00	491.00	493.00	494.00	538.00	571.00	490.00	441.00	409.00	386.00	345.00	337.00	329.00	322.00	317.00	305.00	303.00	299.00	294.00	295.00	293.00	293.00	298.00	298.00	299.00	300.00	302.00	303.00	309.00	311.00	312.00	313.00	313.00	316.00	318.00	321.00	324.00	326.00	327.00	329.00	332.00	335.00	339.00	341.00	344.00	348.00	355.00	357.00	357.00	357.00	357.00	357.00	357.00	357.00	358.00	359.00	364.00	366.00	369.00	371.00	373.00	379.00	387.00	392.00	414.00	437.00	436.00	435.00	419.00	382.00	389.00	398.00	395.00	389.00	381.00	379.00	381.00	381.00	378.00	379.00	377.00	373.00	365.00	361.00	362.00	351.00	345.00	345.00	340.00	338.00	338.00	341.00	343.00	346.00	350.00	355.00	363.00	366.00	370.00	384.00	392.00	396.00	394.00	393.00	389.00	386.00	384.00	383.00	385.00	375.00	370.00	373.00	381.00	396.00	393.00	392.00	397.00	398.00	396.00	393.00	392.00	392.00	391.00	388.00	387.00	388.00	392.00	397.00	400.00	401.00	408.00	410.00	412.00	412.00	413.00	414.00	415.00	414.00	415.00	417.00	412.00	411.00	413.00	414.00	414.00	409.00	406.00	405.00	403.00	399.00	397.00	398.00	401.00	403.00	400.00	397.00	398.00	399.00	396.00	395.00	394.00	394.00	394.00	406.00	409.00	409.00	407.00	413.00	417.00	419.00	419.00	417.00	418.00	422.00	422.00	423.00	425.00	422.00	419.00	415.00	413.00	418.00	427.00	433.00	441.00	452.00	453.00	452.00	451.00	444.00	442.00	439.00	433.00	426.00	423.00	421.00	417.00	411.00	405.00	392.00	385.00	382.00	377.00	370.00	372.00	373.00	372.00	371.00	369.00	370.00	369.00	371.00	373.00	372.00	373.00	374.00	374.00	377.00	378.00	378.00	380.00	385.00	386.00	386.00	379.00	378.00	377.00	377.00	379.00	380.00	381.00	382.00	382.00	382.00	381.00	383.00	384.00	386.00	387.00	389.00	390.00	391.00	392.00	393.00	395.00	396.00	396.00	397.00	400.00	399.00	399.00	399.00
507.00	500.00	494.00	489.00	486.00	491.00	493.00	494.00	538.00	571.00	490.00	441.00	409.00	386.00	345.00	337.00	329.00	322.00	317.00	305.00	303.00	299.00	294.00	295.00	293.00	293.00	298.00	298.00	299.00	300.00	302.00	303.00	309.00	311.00	312.00	313.00	313.00	316.00	318.00	321.00	324.00	326.00	327.00	329.00	332.00	335.00	339.00	341.00	344.00	348.00	355.00	357.00	357.00	357.00	357.00	357.00	357.00	357.00	358.00	359.00	364.00	366.00	369.00	371.00	373.00	379.00	387.00	392.00	414.00	437.00	436.00	435.00	419.00	382.00	389.00	398.00	395.00	389.00	381.00	379.00	381.00	381.00	378.00	379.00	377.00	373.00	365.00	361.00	362.00	351.00	345.00	345.00	340.00	338.00	338.00	341.00	343.00	346.00	350.00	355.00	363.00	366.00	370.00	384.00	392.00	396.00	394.00	393.00	389.00	386.00	384.00	383.00	385.00	375.00	370.00	373.00	381.00	396.00	393.00	392.00	397.00	398.00	396.00	393.00	392.00	392.00	391.00	388.00	387.00	388.00	392.00	397.00	400.00	401.00	408.00	410.00	412.00	412.00	413.00	414.00	415.00	414.00	415.00	417.00	412.00	411.00	413.00	414.00	414.00	409.00	406.00	405.00	403.00	399.00	397.00	398.00	401.00	403.00	400.00	397.00	398.00	399.00	396.00	395.00	394.00	394.00	394.00	406.00	409.00	409.00	407.00	413.00	417.00	419.00	419.00	417.00	418.00	422.00	422.00	423.00	425.00	422.00	419.00	415.00	413.00	418.00	427.00	433.00	441.00	452.00	453.00	452.00	451.00	444.00	442.00	439.00	433.00	426.00	423.00	421.00	417.00	411.00	405.00	392.00	385.00	382.00	377.00	370.00	372.00	373.00	372.00	371.00	369.00	370.00	369.00	371.00	373.00	372.00	373.00	374.00	374.00	377.00	378.00	378.00	380.00	385.00	386.00	386.00	379.00	378.00	377.00	377.00	379.00	380.00	381.00	382.00	382.00	382.00	381.00	383.00	384.00	386.00	387.00	389.00	390.00	391.00	392.00	393.00	395.00	396.00	396.00	397.00	400.00	399.00	399.00	399.00
520.00	543.00	556.00	547.00	523.00	504.00	500.00	500.00	595.00	626.00	495.00	440.00	408.00	384.00	348.00	336.00	326.00	319.00	315.00	301.00	298.00	294.00	289.00	290.00	288.00	290.00	291.00	291.00	293.00	297.00	299.00	300.00	305.00	307.00	308.00	309.00	311.00	316.00	319.00	321.00	327.00	328.00	330.00	331.00	333.00	337.00	342.00	344.00	346.00	349.00	356.00	358.00	359.00	359.00	360.00	362.00	363.00	363.00	362.00	363.00	374.00	378.00	379.00	378.00	377.00	383.00	388.00	389.00	412.00	451.00	450.00	448.00	436.00	392.00	386.00	389.00	389.00	384.00	380.00	380.00	379.00	380.00	379.00	376.00	374.00	370.00	365.00	359.00	353.00	350.00	348.00	343.00	338.00	337.00	336.00	338.00	340.00	344.00	347.00	350.00	359.00	362.00	367.00	378.00	387.00	389.00	388.00	387.00	387.00	387.00	388.00	388.00	390.00	379.00	375.00	370.00	373.00	390.00	393.00	395.00	397.00	400.00	404.00	400.00	399.00	399.00	399.00	394.00	390.00	388.00	389.00	398.00	397.00	398.00	403.00	405.00	409.00	410.00	412.00	413.00	420.00	421.00	420.00	421.00	418.00	417.00	416.00	418.00	420.00	419.00	414.00	410.00	408.00	404.00	405.00	409.00	414.00	416.00	410.00	404.00	403.00	405.00	400.00	396.00	391.00	388.00	387.00	397.00	402.00	401.00	399.00	400.00	403.00	406.00	408.00	407.00	409.00	413.00	414.00	413.00	411.00	415.00	415.00	412.00	409.00	407.00	412.00	417.00	422.00	432.00	436.00	440.00	441.00	437.00	426.00	423.00	416.00	412.00	415.00	413.00	406.00	399.00	392.00	384.00	379.00	375.00	369.00	369.00	369.00	370.00	370.00	368.00	369.00	369.00	370.00	369.00	369.00	369.00	369.00	369.00	368.00	370.00	371.00	370.00	371.00	379.00	382.00	383.00	378.00	376.00	376.00	376.00	377.00	378.00	379.00	380.00	380.00	380.00	379.00	383.00	385.00	386.00	387.00	389.00	390.00	391.00	392.00	393.00	395.00	397.00	397.00	397.00	399.00	399.00	400.00	401.00
479.00	513.00	534.00	557.00	561.00	515.00	511.00	512.00	606.00	610.00	481.00	442.00	418.00	392.00	351.00	337.00	324.00	316.00	310.00	297.00	293.00	290.00	287.00	286.00	286.00	286.00	287.00	287.00	288.00	293.00	296.00	298.00	301.00	303.00	305.00	309.00	312.00	318.00	320.00	324.00	329.00	331.00	334.00	337.00	342.00	342.00	346.00	350.00	350.00	352.00	358.00	359.00	360.00	361.00	362.00	364.00	365.00	366.00	365.00	368.00	378.00	382.00	383.00	382.00	382.00	388.00	392.00	393.00	428.00	453.00	460.00	457.00	436.00	411.00	388.00	389.00	388.00	384.00	386.00	384.00	383.00	380.00	379.00	378.00	374.00	370.00	360.00	358.00	359.00	351.00	349.00	343.00	337.00	336.00	336.00	336.00	339.00	341.00	344.00	347.00	352.00	359.00	364.00	369.00	381.00	383.00	381.00	381.00	381.00	384.00	389.00	390.00	389.00	379.00	379.00	373.00	371.00	388.00	393.00	395.00	399.00	402.00	406.00	406.00	408.00	408.00	401.00	397.00	394.00	390.00	389.00	393.00	391.00	396.00	398.00	398.00	400.00	403.00	407.00	410.00	417.00	418.00	419.00	419.00	419.00	419.00	416.00	417.00	418.00	419.00	419.00	417.00	416.00	414.00	415.00	417.00	418.00	420.00	416.00	412.00	411.00	407.00	402.00	397.00	394.00	392.00	396.00	398.00	400.00	402.00	402.00	397.00	394.00	397.00	398.00	398.00	403.00	406.00	406.00	408.00	413.00	418.00	420.00	420.00	416.00	410.00	404.00	404.00	407.00	411.00	417.00	421.00	425.00	423.00	414.00	408.00	402.00	397.00	403.00	401.00	396.00	391.00	385.00	374.00	371.00	370.00	369.00	365.00	364.00	365.00	365.00	365.00	370.00	370.00	369.00	369.00	366.00	366.00	366.00	365.00	365.00	366.00	367.00	367.00	367.00	370.00	373.00	377.00	380.00	379.00	376.00	377.00	377.00	377.00	377.00	378.00	378.00	379.00	380.00	384.00	385.00	386.00	386.00	389.00	390.00	391.00	392.00	393.00	395.00	397.00	397.00	399.00	399.00	399.00	400.00	402.00
479.00	513.00	534.00	557.00	561.00	515.00	511.00	512.00	606.00	610.00	481.00	442.00	418.00	392.00	351.00	337.00	324.00	316.00	310.00	297.00	293.00	290.00	287.00	286.00	286.00	286.00	287.00	287.00	288.00	293.00	296.00	298.00	301.00	303.00	305.00	309.00	312.00	318.00	320.00	324.00	329.00	331.00	334.00	337.00	342.00	342.00	346.00	350.00	350.00	352.00	358.00	359.00	360.00	361.00	362.00	364.00	365.00	366.00	365.00	368.00	378.00	382.00	383.00	382.00	382.00	388.00	392.00	393.00	428.00	453.00	460.00	457.00	436.00	411.00	388.00	389.00	388.00	384.00	386.00	384.00	383.00	380.00	379.00	378.00	374.00	370.00	360.00	358.00	359.00	351.00	349.00	343.00	337.00	336.00	336.00	336.00	339.00	341.00	344.00	347.00	352.00	359.00	364.00	369.00	381.00	383.00	381.00	381.00	381.00	384.00	389.00	390.00	389.00	379.00	379.00	373.00	371.00	388.00	393.00	395.00	399.00	402.00	406.00	406.00	408.00	408.00	401.00	397.00	394.00	390.00	389.00	393.00	391.00	396.00	398.00	398.00	400.00	403.00	407.00	410.00	417.00	418.00	419.00	419.00	419.00	419.00	416.00	417.00	418.00	419.00	419.00	417.00	416.00	414.00	415.00	417.00	418.00	420.00	416.00	412.00	411.00	407.00	402.00	397.00	394.00	392.00	396.00	398.00	400.00	402.00	402.00	397.00	394.00	397.00	398.00	398.00	403.00	406.00	406.00	408.00	413.00	418.00	420.00	420.00	416.00	410.00	404.00	404.00	407.00	411.00	417.00	421.00	425.00	423.00	414.00	408.00	402.00	397.00	403.00	401.00	396.00	391.00	385.00	374.00	371.00	370.00	369.00	365.00	364.00	365.00	365.00	365.00	370.00	370.00	369.00	369.00	366.00	366.00	366.00	365.00	365.00	366.00	367.00	367.00	367.00	370.00	373.00	377.00	380.00	379.00	376.00	377.00	377.00	377.00	377.00	378.00	378.00	379.00	380.00	384.00	385.00	386.00	386.00	389.00	390.00	391.00	392.00	393.00	395.00	397.00	397.00	399.00	399.00	399.00	400.00	402.00
479.00	513.00	534.00	557.00	561.00	515.00	511.00	512.00	606.00	610.00	481.00	442.00	418.00	392.00	351.00	337.00	324.00	316.00	310.00	297.00	293.00	290.00	287.00	286.00	286.00	286.00	287.00	287.00	288.00	293.00	296.00	298.00	301.00	303.00	305.00	309.00	312.00	318.00	320.00	324.00	329.00	331.00	334.00	337.00	342.00	342.00	346.00	350.00	350.00	352.00	358.00	359.00	360.00	361.00	362.00	364.00	365.00	366.00	365.00	368.00	378.00	382.00	383.00	382.00	382.00	388.00	392.00	393.00	428.00	453.00	460.00	457.00	436.00	411.00	388.00	389.00	388.00	384.00	386.00	384.00	383.00	380.00	379.00	378.00	374.00	370.00	360.00	358.00	359.00	351.00	349.00	343.00	337.00	336.00	336.00	336.00	339.00	341.00	344.00	347.00	352.00	359.00	364.00	369.00	381.00	383.00	381.00	381.00	381.00	384.00	389.00	390.00	389.00	379.00	379.00	373.00	371.00	388.00	393.00	395.00	399.00	402.00	406.00	406.00	408.00	408.00	401.00	397.00	394.00	390.00	389.00	393.00	391.00	396.00	398.00	398.00	400.00	403.00	407.00	410.00	417.00	418.00	419.00	419.00	419.00	419.00	416.00	417.00	418.00	419.00	419.00	417.00	416.00	414.00	415.00	417.00	418.00	420.00	416.00	412.00	411.00	407.00	402.00	397.00	394.00	392.00	396.00	398.00	400.00	402.00	402.00	397.00	394.00	397.00	398.00	398.00	403.00	406.00	406.00	408.00	413.00	418.00	420.00	420.00	416.00	410.00	404.00	404.00	407.00	411.00	417.00	421.00	425.00	423.00	414.00	408.00	402.00	397.00	403.00	401.00	396.00	391.00	385.00	374.00	371.00	370.00	369.00	365.00	364.00	365.00	365.00	365.00	370.00	370.00	369.00	369.00	366.00	366.00	366.00	365.00	365.00	366.00	367.00	367.00	367.00	370.00	373.00	377.00	380.00	379.00	376.00	377.00	377.00	377.00	377.00	378.00	378.00	379.00	380.00	384.00	385.00	386.00	386.00	389.00	390.00	391.00	392.00	393.00	395.00	397.00	397.00	399.00	399.00	399.00	400.00	402.00
507.00	511.00	521.00	547.00	572.00	531.00	522.00	525.00	615.00	634.00	519.00	451.00	412.00	387.00	357.00	341.00	328.00	319.00	312.00	293.00	290.00	288.00	285.00	283.00	283.00	284.00	284.00	283.00	286.00	289.00	291.00	293.00	299.00	300.00	302.00	306.00	309.00	318.00	321.00	322.00	328.00	332.00	335.00	339.00	343.00	347.00	347.00	349.00	350.00	351.00	362.00	361.00	360.00	361.00	362.00	363.00	363.00	364.00	365.00	369.00	376.00	380.00	382.00	383.00	383.00	384.00	390.00	392.00	415.00	444.00	463.00	453.00	437.00	407.00	397.00	393.00	390.00	387.00	387.00	389.00	391.00	391.00	374.00	371.00	369.00	367.00	357.00	351.00	349.00	347.00	345.00	341.00	336.00	336.00	336.00	337.00	340.00	342.00	345.00	349.00	353.00	358.00	361.00	367.00	377.00	378.00	377.00	376.00	377.00	381.00	386.00	390.00	389.00	380.00	379.00	374.00	370.00	377.00	382.00	387.00	394.00	399.00	401.00	405.00	407.00	409.00	408.00	401.00	397.00	393.00	389.00	384.00	385.00	388.00	394.00	394.00	394.00	396.00	399.00	402.00	408.00	411.00	413.00	413.00	412.00	414.00	414.00	414.00	415.00	418.00	420.00	422.00	424.00	420.00	420.00	419.00	420.00	420.00	415.00	413.00	409.00	407.00	408.00	405.00	405.00	404.00	407.00	408.00	408.00	409.00	408.00	399.00	394.00	391.00	391.00	391.00	397.00	401.00	405.00	409.00	412.00	417.00	419.00	420.00	420.00	416.00	409.00	404.00	400.00	401.00	402.00	405.00	406.00	405.00	403.00	398.00	396.00	390.00	391.00	388.00	384.00	379.00	374.00	368.00	366.00	367.00	366.00	363.00	362.00	363.00	365.00	366.00	370.00	369.00	368.00	368.00	366.00	364.00	363.00	363.00	363.00	363.00	364.00	364.00	364.00	366.00	366.00	366.00	372.00	377.00	379.00	378.00	377.00	377.00	377.00	377.00	377.00	378.00	379.00	383.00	384.00	385.00	386.00	389.00	390.00	391.00	392.00	393.00	394.00	396.00	397.00	399.00	399.00	399.00	399.00	402.00
497.00	527.00	539.00	564.00	586.00	543.00	532.00	546.00	632.00	632.00	506.00	438.00	406.00	385.00	356.00	344.00	333.00	323.00	313.00	293.00	288.00	285.00	283.00	280.00	281.00	282.00	281.00	281.00	283.00	289.00	291.00	294.00	300.00	303.00	305.00	309.00	312.00	319.00	321.00	323.00	331.00	334.00	333.00	336.00	344.00	349.00	354.00	356.00	357.00	356.00	354.00	353.00	357.00	360.00	361.00	361.00	360.00	361.00	362.00	365.00	370.00	374.00	379.00	381.00	382.00	383.00	386.00	390.00	394.00	415.00	447.00	464.00	455.00	412.00	398.00	391.00	388.00	389.00	392.00	398.00	401.00	397.00	374.00	369.00	365.00	361.00	356.00	353.00	349.00	347.00	343.00	338.00	336.00	336.00	336.00	339.00	343.00	346.00	347.00	349.00	352.00	358.00	362.00	368.00	374.00	375.00	377.00	377.00	378.00	387.00	391.00	394.00	393.00	381.00	378.00	374.00	372.00	369.00	370.00	375.00	380.00	381.00	391.00	399.00	399.00	398.00	399.00	399.00	398.00	395.00	390.00	382.00	380.00	380.00	386.00	387.00	388.00	388.00	391.00	394.00	402.00	404.00	406.00	407.00	404.00	407.00	410.00	412.00	413.00	411.00	413.00	413.00	418.00	421.00	418.00	417.00	418.00	418.00	412.00	409.00	409.00	410.00	409.00	409.00	411.00	409.00	408.00	406.00	408.00	408.00	406.00	398.00	393.00	388.00	386.00	387.00	389.00	394.00	398.00	401.00	407.00	409.00	409.00	411.00	416.00	419.00	410.00	406.00	402.00	399.00	396.00	394.00	394.00	393.00	392.00	388.00	387.00	385.00	383.00	380.00	375.00	370.00	367.00	365.00	364.00	364.00	364.00	362.00	362.00	367.00	370.00	370.00	369.00	368.00	367.00	367.00	365.00	363.00	361.00	360.00	360.00	360.00	361.00	361.00	361.00	362.00	362.00	362.00	365.00	368.00	372.00	377.00	380.00	379.00	377.00	377.00	377.00	375.00	377.00	382.00	383.00	385.00	386.00	390.00	390.00	391.00	392.00	393.00	394.00	395.00	396.00	398.00	398.00	399.00	401.00	402.00
497.00	527.00	539.00	564.00	586.00	543.00	532.00	546.00	632.00	632.00	506.00	438.00	406.00	385.00	356.00	344.00	333.00	323.00	313.00	293.00	288.00	285.00	283.00	280.00	281.00	282.00	281.00	281.00	283.00	289.00	291.00	294.00	300.00	303.00	305.00	309.00	312.00	319.00	321.00	323.00	331.00	334.00	333.00	336.00	344.00	349.00	354.00	356.00	357.00	356.00	354.00	353.00	357.00	360.00	361.00	361.00	360.00	361.00	362.00	365.00	370.00	374.00	379.00	381.00	382.00	383.00	386.00	390.00	394.00	415.00	447.00	464.00	455.00	412.00	398.00	391.00	388.00	389.00	392.00	398.00	401.00	397.00	374.00	369.00	365.00	361.00	356.00	353.00	349.00	347.00	343.00	338.00	336.00	336.00	336.00	339.00	343.00	346.00	347.00	349.00	352.00	358.00	362.00	368.00	374.00	375.00	377.00	377.00	378.00	387.00	391.00	394.00	393.00	381.00	378.00	374.00	372.00	369.00	370.00	375.00	380.00	381.00	391.00	399.00	399.00	398.00	399.00	399.00	398.00	395.00	390.00	382.00	380.00	380.00	386.00	387.00	388.00	388.00	391.00	394.00	402.00	404.00	406.00	407.00	404.00	407.00	410.00	412.00	413.00	411.00	413.00	413.00	418.00	421.00	418.00	417.00	418.00	418.00	412.00	409.00	409.00	410.00	409.00	409.00	411.00	409.00	408.00	406.00	408.00	408.00	406.00	398.00	393.00	388.00	386.00	387.00	389.00	394.00	398.00	401.00	407.00	409.00	409.00	411.00	416.00	419.00	410.00	406.00	402.00	399.00	396.00	394.00	394.00	393.00	392.00	388.00	387.00	385.00	383.00	380.00	375.00	370.00	367.00	365.00	364.00	364.00	364.00	362.00	362.00	367.00	370.00	370.00	369.00	368.00	367.00	367.00	365.00	363.00	361.00	360.00	360.00	360.00	361.00	361.00	361.00	362.00	362.00	362.00	365.00	368.00	372.00	377.00	380.00	379.00	377.00	377.00	377.00	375.00	377.00	382.00	383.00	385.00	386.00	390.00	390.00	391.00	392.00	393.00	394.00	395.00	396.00	398.00	398.00	399.00	401.00	402.00
489.00	549.00	565.00	573.00	577.00	543.00	538.00	555.00	659.00	633.00	476.00	429.00	399.00	381.00	353.00	343.00	333.00	321.00	310.00	290.00	285.00	283.00	281.00	278.00	280.00	280.00	280.00	279.00	282.00	292.00	296.00	299.00	305.00	310.00	312.00	315.00	316.00	325.00	327.00	330.00	337.00	342.00	345.00	347.00	347.00	350.00	356.00	360.00	361.00	361.00	360.00	360.00	360.00	357.00	359.00	357.00	357.00	358.00	359.00	361.00	369.00	371.00	373.00	377.00	380.00	380.00	382.00	387.00	389.00	390.00	412.00	478.00	473.00	432.00	412.00	395.00	389.00	390.00	393.00	396.00	394.00	392.00	373.00	366.00	360.00	357.00	350.00	350.00	350.00	348.00	343.00	337.00	336.00	336.00	336.00	341.00	343.00	347.00	348.00	350.00	353.00	356.00	360.00	367.00	372.00	376.00	379.00	379.00	380.00	388.00	390.00	392.00	393.00	384.00	380.00	377.00	374.00	368.00	369.00	368.00	368.00	372.00	382.00	392.00	390.00	389.00	387.00	387.00	387.00	387.00	386.00	380.00	378.00	377.00	379.00	380.00	380.00	380.00	380.00	382.00	393.00	396.00	398.00	400.00	399.00	398.00	401.00	407.00	410.00	406.00	401.00	403.00	406.00	410.00	410.00	410.00	408.00	407.00	405.00	405.00	406.00	405.00	407.00	407.00	409.00	407.00	404.00	401.00	399.00	394.00	391.00	387.00	386.00	385.00	382.00	381.00	388.00	389.00	390.00	391.00	399.00	401.00	401.00	402.00	403.00	404.00	403.00	399.00	396.00	394.00	392.00	392.00	390.00	388.00	381.00	379.00	378.00	377.00	373.00	369.00	364.00	362.00	362.00	363.00	362.00	361.00	360.00	360.00	361.00	365.00	367.00	368.00	367.00	366.00	366.00	365.00	364.00	362.00	360.00	359.00	359.00	357.00	357.00	357.00	357.00	358.00	359.00	358.00	360.00	363.00	365.00	367.00	371.00	375.00	375.00	374.00	374.00	373.00	377.00	381.00	383.00	385.00	387.00	390.00	390.00	391.00	392.00	393.00	394.00	394.00	395.00	397.00	398.00	399.00	401.00	403.00
489.00	549.00	565.00	573.00	577.00	543.00	538.00	555.00	659.00	633.00	476.00	429.00	399.00	381.00	353.00	343.00	333.00	321.00	310.00	290.00	285.00	283.00	281.00	278.00	280.00	280.00	280.00	279.00	282.00	292.00	296.00	299.00	305.00	310.00	312.00	315.00	316.00	325.00	327.00	330.00	337.00	342.00	345.00	347.00	347.00	350.00	356.00	360.00	361.00	361.00	360.00	360.00	360.00	357.00	359.00	357.00	357.00	358.00	359.00	361.00	369.00	371.00	373.00	377.00	380.00	380.00	382.00	387.00	389.00	390.00	412.00	478.00	473.00	432.00	412.00	395.00	389.00	390.00	393.00	396.00	394.00	392.00	373.00	366.00	360.00	357.00	350.00	350.00	350.00	348.00	343.00	337.00	336.00	336.00	336.00	341.00	343.00	347.00	348.00	350.00	353.00	356.00	360.00	367.00	372.00	376.00	379.00	379.00	380.00	388.00	390.00	392.00	393.00	384.00	380.00	377.00	374.00	368.00	369.00	368.00	368.00	372.00	382.00	392.00	390.00	389.00	387.00	387.00	387.00	387.00	386.00	380.00	378.00	377.00	379.00	380.00	380.00	380.00	380.00	382.00	393.00	396.00	398.00	400.00	399.00	398.00	401.00	407.00	410.00	406.00	401.00	403.00	406.00	410.00	410.00	410.00	408.00	407.00	405.00	405.00	406.00	405.00	407.00	407.00	409.00	407.00	404.00	401.00	399.00	394.00	391.00	387.00	386.00	385.00	382.00	381.00	388.00	389.00	390.00	391.00	399.00	401.00	401.00	402.00	403.00	404.00	403.00	399.00	396.00	394.00	392.00	392.00	390.00	388.00	381.00	379.00	378.00	377.00	373.00	369.00	364.00	362.00	362.00	363.00	362.00	361.00	360.00	360.00	361.00	365.00	367.00	368.00	367.00	366.00	366.00	365.00	364.00	362.00	360.00	359.00	359.00	357.00	357.00	357.00	357.00	358.00	359.00	358.00	360.00	363.00	365.00	367.00	371.00	375.00	375.00	374.00	374.00	373.00	377.00	381.00	383.00	385.00	387.00	390.00	390.00	391.00	392.00	393.00	394.00	394.00	395.00	397.00	398.00	399.00	401.00	403.00
479.00	533.00	563.00	582.00	578.00	530.00	523.00	533.00	610.00	588.00	461.00	420.00	392.00	376.00	346.00	335.00	322.00	312.00	303.00	284.00	280.00	279.00	277.00	278.00	278.00	276.00	276.00	278.00	289.00	299.00	302.00	307.00	312.00	314.00	319.00	320.00	323.00	329.00	332.00	335.00	341.00	347.00	350.00	354.00	357.00	358.00	358.00	359.00	359.00	360.00	363.00	363.00	362.00	361.00	361.00	360.00	359.00	359.00	359.00	360.00	367.00	369.00	370.00	374.00	380.00	377.00	378.00	380.00	390.00	391.00	402.00	482.00	485.00	458.00	432.00	410.00	392.00	389.00	391.00	393.00	390.00	386.00	367.00	362.00	358.00	355.00	350.00	348.00	348.00	346.00	342.00	338.00	336.00	336.00	340.00	344.00	344.00	345.00	348.00	350.00	353.00	354.00	355.00	361.00	370.00	373.00	376.00	378.00	379.00	382.00	384.00	387.00	389.00	384.00	381.00	378.00	375.00	369.00	367.00	365.00	365.00	366.00	375.00	378.00	378.00	379.00	379.00	380.00	381.00	380.00	380.00	376.00	375.00	374.00	374.00	373.00	375.00	375.00	373.00	373.00	379.00	385.00	389.00	392.00	399.00	397.00	399.00	403.00	402.00	399.00	398.00	395.00	396.00	397.00	400.00	398.00	396.00	395.00	396.00	396.00	396.00	396.00	400.00	399.00	398.00	396.00	397.00	393.00	390.00	383.00	379.00	377.00	375.00	373.00	372.00	372.00	379.00	382.00	382.00	382.00	385.00	387.00	385.00	382.00	381.00	380.00	383.00	384.00	382.00	378.00	378.00	377.00	377.00	375.00	373.00	369.00	366.00	363.00	360.00	359.00	358.00	357.00	358.00	360.00	360.00	360.00	359.00	359.00	361.00	363.00	364.00	365.00	365.00	366.00	365.00	364.00	363.00	363.00	361.00	360.00	359.00	357.00	357.00	357.00	357.00	357.00	357.00	357.00	358.00	360.00	361.00	363.00	366.00	367.00	370.00	370.00	371.00	371.00	374.00	381.00	382.00	384.00	387.00	390.00	390.00	391.00	392.00	392.00	393.00	394.00	394.00	395.00	399.00	399.00	400.00	403.00
479.00	533.00	563.00	582.00	578.00	530.00	523.00	533.00	610.00	588.00	461.00	420.00	392.00	376.00	346.00	335.00	322.00	312.00	303.00	284.00	280.00	279.00	277.00	278.00	278.00	276.00	276.00	278.00	289.00	299.00	302.00	307.00	312.00	314.00	319.00	320.00	323.00	329.00	332.00	335.00	341.00	347.00	350.00	354.00	357.00	358.00	358.00	359.00	359.00	360.00	363.00	363.00	362.00	361.00	361.00	360.00	359.00	359.00	359.00	360.00	367.00	369.00	370.00	374.00	380.00	377.00	378.00	380.00	390.00	391.00	402.00	482.00	485.00	458.00	432.00	410.00	392.00	389.00	391.00	393.00	390.00	386.00	367.00	362.00	358.00	355.00	350.00	348.00	348.00	346.00	342.00	338.00	336.00	336.00	340.00	344.00	344.00	345.00	348.00	350.00	353.00	354.00	355.00	361.00	370.00	373.00	376.00	378.00	379.00	382.00	384.00	387.00	389.00	384.00	381.00	378.00	375.00	369.00	367.00	365.00	365.00	366.00	375.00	378.00	378.00	379.00	379.00	380.00	381.00	380.00	380.00	376.00	375.00	374.00	374.00	373.00	375.00	375.00	373.00	373.00	379.00	385.00	389.00	392.00	399.00	397.00	399.00	403.00	402.00	399.00	398.00	395.00	396.00	397.00	400.00	398.00	396.00	395.00	396.00	396.00	396.00	396.00	400.00	399.00	398.00	396.00	397.00	393.00	390.00	383.00	379.00	377.00	375.00	373.00	372.00	372.00	379.00	382.00	382.00	382.00	385.00	387.00	385.00	382.00	381.00	380.00	383.00	384.00	382.00	378.00	378.00	377.00	377.00	375.00	373.00	369.00	366.00	363.00	360.00	359.00	358.00	357.00	358.00	360.00	360.00	360.00	359.00	359.00	361.00	363.00	364.00	365.00	365.00	366.00	365.00	364.00	363.00	363.00	361.00	360.00	359.00	357.00	357.00	357.00	357.00	357.00	357.00	357.00	358.00	360.00	361.00	363.00	366.00	367.00	370.00	370.00	371.00	371.00	374.00	381.00	382.00	384.00	387.00	390.00	390.00	391.00	392.00	392.00	393.00	394.00	394.00	395.00	399.00	399.00	400.00	403.00
486.00	522.00	539.00	549.00	548.00	524.00	507.00	493.00	479.00	464.00	447.00	414.00	385.00	367.00	338.00	324.00	308.00	299.00	294.00	280.00	276.00	274.00	274.00	274.00	274.00	274.00	277.00	279.00	296.00	306.00	309.00	314.00	321.00	323.00	325.00	326.00	328.00	333.00	336.00	339.00	344.00	352.00	357.00	360.00	361.00	362.00	364.00	364.00	363.00	361.00	362.00	363.00	363.00	365.00	368.00	369.00	369.00	369.00	368.00	367.00	368.00	368.00	370.00	372.00	374.00	375.00	376.00	379.00	390.00	394.00	399.00	460.00	501.00	489.00	456.00	429.00	405.00	387.00	388.00	391.00	390.00	384.00	364.00	360.00	356.00	354.00	350.00	347.00	345.00	344.00	343.00	341.00	340.00	338.00	338.00	341.00	342.00	344.00	347.00	348.00	351.00	352.00	351.00	352.00	364.00	367.00	369.00	372.00	373.00	376.00	378.00	381.00	388.00	381.00	379.00	378.00	375.00	370.00	368.00	366.00	363.00	360.00	360.00	367.00	368.00	368.00	370.00	371.00	371.00	371.00	373.00	371.00	371.00	371.00	368.00	368.00	372.00	372.00	369.00	368.00	368.00	372.00	376.00	382.00	396.00	394.00	394.00	396.00	393.00	391.00	391.00	389.00	388.00	393.00	393.00	390.00	388.00	385.00	384.00	389.00	390.00	388.00	386.00	386.00	386.00	384.00	380.00	375.00	374.00	371.00	369.00	367.00	366.00	361.00	359.00	361.00	365.00	365.00	365.00	366.00	365.00	363.00	362.00	360.00	359.00	360.00	361.00	363.00	364.00	361.00	362.00	361.00	360.00	359.00	358.00	356.00	354.00	352.00	353.00	354.00	354.00	354.00	355.00	357.00	357.00	357.00	357.00	361.00	362.00	363.00	364.00	364.00	365.00	365.00	365.00	364.00	362.00	363.00	366.00	364.00	361.00	359.00	358.00	357.00	357.00	357.00	357.00	357.00	357.00	359.00	360.00	361.00	363.00	364.00	368.00	370.00	371.00	373.00	375.00	379.00	381.00	383.00	386.00	389.00	390.00	391.00	392.00	392.00	392.00	394.00	394.00	394.00	397.00	398.00	396.00	394.00
486.00	522.00	539.00	549.00	548.00	524.00	507.00	493.00	479.00	464.00	447.00	414.00	385.00	367.00	338.00	324.00	308.00	299.00	294.00	280.00	276.00	274.00	274.00	274.00	274.00	274.00	277.00	279.00	296.00	306.00	309.00	314.00	321.00	323.00	325.00	326.00	328.00	333.00	336.00	339.00	344.00	352.00	357.00	360.00	361.00	362.00	364.00	364.00	363.00	361.00	362.00	363.00	363.00	365.00	368.00	369.00	369.00	369.00	368.00	367.00	368.00	368.00	370.00	372.00	374.00	375.00	376.00	379.00	390.00	394.00	399.00	460.00	501.00	489.00	456.00	429.00	405.00	387.00	388.00	391.00	390.00	384.00	364.00	360.00	356.00	354.00	350.00	347.00	345.00	344.00	343.00	341.00	340.00	338.00	338.00	341.00	342.00	344.00	347.00	348.00	351.00	352.00	351.00	352.00	364.00	367.00	369.00	372.00	373.00	376.00	378.00	381.00	388.00	381.00	379.00	378.00	375.00	370.00	368.00	366.00	363.00	360.00	360.00	367.00	368.00	368.00	370.00	371.00	371.00	371.00	373.00	371.00	371.00	371.00	368.00	368.00	372.00	372.00	369.00	368.00	368.00	372.00	376.00	382.00	396.00	394.00	394.00	396.00	393.00	391.00	391.00	389.00	388.00	393.00	393.00	390.00	388.00	385.00	384.00	389.00	390.00	388.00	386.00	386.00	386.00	384.00	380.00	375.00	374.00	371.00	369.00	367.00	366.00	361.00	359.00	361.00	365.00	365.00	365.00	366.00	365.00	363.00	362.00	360.00	359.00	360.00	361.00	363.00	364.00	361.00	362.00	361.00	360.00	359.00	358.00	356.00	354.00	352.00	353.00	354.00	354.00	354.00	355.00	357.00	357.00	357.00	357.00	361.00	362.00	363.00	364.00	364.00	365.00	365.00	365.00	364.00	362.00	363.00	366.00	364.00	361.00	359.00	358.00	357.00	357.00	357.00	357.00	357.00	357.00	359.00	360.00	361.00	363.00	364.00	368.00	370.00	371.00	373.00	375.00	379.00	381.00	383.00	386.00	389.00	390.00	391.00	392.00	392.00	392.00	394.00	394.00	394.00	397.00	398.00	396.00	394.00
486.00	532.00	568.00	595.00	596.00	550.00	521.00	513.00	568.00	577.00	581.00	471.00	408.00	374.00	331.00	314.00	300.00	292.00	287.00	276.00	272.00	272.00	272.00	272.00	274.00	275.00	278.00	282.00	300.00	311.00	313.00	317.00	321.00	327.00	331.00	333.00	336.00	340.00	340.00	341.00	346.00	351.00	356.00	361.00	362.00	362.00	363.00	364.00	361.00	361.00	361.00	362.00	363.00	364.00	366.00	368.00	368.00	368.00	369.00	372.00	376.00	379.00	382.00	385.00	386.00	384.00	384.00	383.00	383.00	385.00	393.00	434.00	475.00	523.00	489.00	459.00	429.00	388.00	386.00	387.00	390.00	386.00	362.00	357.00	353.00	351.00	350.00	346.00	345.00	348.00	349.00	347.00	341.00	340.00	335.00	339.00	341.00	343.00	345.00	346.00	349.00	350.00	350.00	349.00	358.00	360.00	362.00	365.00	367.00	372.00	374.00	378.00	382.00	376.00	372.00	369.00	367.00	368.00	367.00	364.00	362.00	360.00	355.00	357.00	358.00	359.00	362.00	362.00	361.00	362.00	363.00	360.00	362.00	364.00	360.00	361.00	365.00	365.00	363.00	361.00	363.00	365.00	369.00	375.00	388.00	385.00	384.00	384.00	382.00	379.00	378.00	377.00	376.00	383.00	381.00	378.00	377.00	378.00	373.00	379.00	379.00	374.00	368.00	369.00	367.00	364.00	357.00	357.00	356.00	357.00	359.00	355.00	350.00	347.00	345.00	343.00	345.00	345.00	346.00	346.00	345.00	344.00	342.00	341.00	338.00	339.00	339.00	341.00	343.00	343.00	344.00	344.00	344.00	346.00	345.00	345.00	346.00	347.00	349.00	350.00	351.00	351.00	353.00	354.00	355.00	355.00	354.00	362.00	364.00	364.00	364.00	363.00	364.00	364.00	364.00	363.00	362.00	362.00	366.00	365.00	363.00	360.00	359.00	359.00	360.00	359.00	357.00	354.00	359.00	359.00	360.00	362.00	365.00	366.00	368.00	370.00	371.00	374.00	376.00	380.00	381.00	383.00	385.00	387.00	389.00	390.00	391.00	392.00	392.00	394.00	394.00	394.00	394.00	394.00	393.00	393.00
477.00	513.00	539.00	572.00	602.00	585.00	537.00	526.00	580.00	648.00	589.00	474.00	416.00	375.00	327.00	309.00	295.00	287.00	282.00	274.00	270.00	270.00	270.00	274.00	276.00	278.00	285.00	291.00	304.00	316.00	320.00	325.00	330.00	329.00	328.00	330.00	333.00	340.00	343.00	346.00	351.00	353.00	355.00	357.00	356.00	358.00	360.00	358.00	357.00	359.00	362.00	362.00	362.00	362.00	362.00	364.00	365.00	365.00	366.00	370.00	374.00	378.00	380.00	383.00	389.00	390.00	391.00	391.00	389.00	388.00	384.00	392.00	428.00	515.00	513.00	488.00	463.00	400.00	390.00	382.00	384.00	381.00	357.00	355.00	351.00	349.00	345.00	345.00	346.00	352.00	356.00	352.00	341.00	341.00	341.00	332.00	338.00	342.00	342.00	343.00	345.00	346.00	346.00	348.00	352.00	353.00	355.00	359.00	361.00	368.00	370.00	373.00	375.00	369.00	364.00	361.00	359.00	358.00	357.00	356.00	356.00	354.00	349.00	351.00	350.00	349.00	352.00	352.00	351.00	351.00	351.00	351.00	352.00	353.00	353.00	355.00	356.00	359.00	360.00	359.00	355.00	359.00	363.00	367.00	374.00	375.00	374.00	372.00	372.00	371.00	368.00	365.00	364.00	364.00	365.00	361.00	362.00	365.00	361.00	361.00	360.00	357.00	351.00	349.00	347.00	345.00	341.00	341.00	341.00	339.00	337.00	334.00	328.00	325.00	325.00	322.00	325.00	325.00	324.00	325.00	324.00	324.00	323.00	322.00	323.00	327.00	327.00	330.00	332.00	333.00	335.00	335.00	336.00	338.00	339.00	340.00	343.00	345.00	347.00	348.00	348.00	348.00	351.00	353.00	353.00	353.00	353.00	361.00	362.00	363.00	363.00	362.00	364.00	364.00	364.00	362.00	360.00	361.00	365.00	365.00	364.00	362.00	361.00	360.00	360.00	358.00	356.00	353.00	359.00	360.00	359.00	360.00	364.00	365.00	367.00	370.00	371.00	373.00	375.00	380.00	381.00	383.00	384.00	385.00	387.00	389.00	390.00	391.00	392.00	393.00	393.00	393.00	393.00	393.00	393.00	393.00
477.00	513.00	539.00	572.00	602.00	585.00	537.00	526.00	580.00	648.00	589.00	474.00	416.00	375.00	327.00	309.00	295.00	287.00	282.00	274.00	270.00	270.00	270.00	274.00	276.00	278.00	285.00	291.00	304.00	316.00	320.00	325.00	330.00	329.00	328.00	330.00	333.00	340.00	343.00	346.00	351.00	353.00	355.00	357.00	356.00	358.00	360.00	358.00	357.00	359.00	362.00	362.00	362.00	362.00	362.00	364.00	365.00	365.00	366.00	370.00	374.00	378.00	380.00	383.00	389.00	390.00	391.00	391.00	389.00	388.00	384.00	392.00	428.00	515.00	513.00	488.00	463.00	400.00	390.00	382.00	384.00	381.00	357.00	355.00	351.00	349.00	345.00	345.00	346.00	352.00	356.00	352.00	341.00	341.00	341.00	332.00	338.00	342.00	342.00	343.00	345.00	346.00	346.00	348.00	352.00	353.00	355.00	359.00	361.00	368.00	370.00	373.00	375.00	369.00	364.00	361.00	359.00	358.00	357.00	356.00	356.00	354.00	349.00	351.00	350.00	349.00	352.00	352.00	351.00	351.00	351.00	351.00	352.00	353.00	353.00	355.00	356.00	359.00	360.00	359.00	355.00	359.00	363.00	367.00	374.00	375.00	374.00	372.00	372.00	371.00	368.00	365.00	364.00	364.00	365.00	361.00	362.00	365.00	361.00	361.00	360.00	357.00	351.00	349.00	347.00	345.00	341.00	341.00	341.00	339.00	337.00	334.00	328.00	325.00	325.00	322.00	325.00	325.00	324.00	325.00	324.00	324.00	323.00	322.00	323.00	327.00	327.00	330.00	332.00	333.00	335.00	335.00	336.00	338.00	339.00	340.00	343.00	345.00	347.00	348.00	348.00	348.00	351.00	353.00	353.00	353.00	353.00	361.00	362.00	363.00	363.00	362.00	364.00	364.00	364.00	362.00	360.00	361.00	365.00	365.00	364.00	362.00	361.00	360.00	360.00	358.00	356.00	353.00	359.00	360.00	359.00	360.00	364.00	365.00	367.00	370.00	371.00	373.00	375.00	380.00	381.00	383.00	384.00	385.00	387.00	389.00	390.00	391.00	392.00	393.00	393.00	393.00	393.00	393.00	393.00	393.00
475.00	523.00	565.00	620.00	631.00	601.00	574.00	550.00	579.00	651.00	619.00	486.00	421.00	369.00	313.00	301.00	291.00	281.00	273.00	269.00	268.00	269.00	271.00	275.00	281.00	288.00	296.00	303.00	314.00	327.00	332.00	336.00	339.00	339.00	337.00	334.00	337.00	345.00	346.00	348.00	353.00	358.00	361.00	361.00	360.00	361.00	361.00	360.00	359.00	358.00	361.00	362.00	362.00	362.00	362.00	362.00	362.00	362.00	363.00	366.00	370.00	376.00	377.00	382.00	386.00	386.00	386.00	388.00	392.00	393.00	392.00	386.00	384.00	445.00	483.00	482.00	479.00	426.00	407.00	391.00	381.00	373.00	359.00	359.00	357.00	351.00	346.00	345.00	346.00	351.00	360.00	358.00	345.00	339.00	337.00	332.00	335.00	337.00	340.00	340.00	342.00	343.00	343.00	346.00	347.00	348.00	349.00	352.00	353.00	360.00	362.00	366.00	369.00	358.00	355.00	354.00	352.00	349.00	348.00	347.00	346.00	346.00	342.00	341.00	340.00	337.00	339.00	337.00	339.00	341.00	341.00	341.00	344.00	344.00	346.00	351.00	355.00	358.00	358.00	354.00	346.00	346.00	349.00	355.00	361.00	361.00	362.00	360.00	358.00	358.00	358.00	355.00	351.00	352.00	353.00	349.00	347.00	346.00	345.00	344.00	343.00	341.00	337.00	334.00	332.00	329.00	325.00	321.00	319.00	317.00	315.00	317.00	313.00	311.00	310.00	310.00	313.00	314.00	314.00	314.00	313.00	312.00	312.00	312.00	316.00	320.00	322.00	324.00	327.00	328.00	330.00	330.00	332.00	334.00	337.00	339.00	341.00	343.00	345.00	344.00	344.00	345.00	348.00	351.00	351.00	351.00	351.00	359.00	360.00	360.00	360.00	360.00	362.00	362.00	361.00	360.00	361.00	361.00	366.00	366.00	365.00	362.00	361.00	361.00	361.00	360.00	358.00	355.00	354.00	357.00	356.00	360.00	362.00	363.00	365.00	368.00	369.00	372.00	374.00	380.00	380.00	381.00	382.00	385.00	386.00	388.00	390.00	390.00	391.00	392.00	393.00	393.00	393.00	393.00	394.00	395.00
475.00	523.00	565.00	620.00	631.00	601.00	574.00	550.00	579.00	651.00	619.00	486.00	421.00	369.00	313.00	301.00	291.00	281.00	273.00	269.00	268.00	269.00	271.00	275.00	281.00	288.00	296.00	303.00	314.00	327.00	332.00	336.00	339.00	339.00	337.00	334.00	337.00	345.00	346.00	348.00	353.00	358.00	361.00	361.00	360.00	361.00	361.00	360.00	359.00	358.00	361.00	362.00	362.00	362.00	362.00	362.00	362.00	362.00	363.00	366.00	370.00	376.00	377.00	382.00	386.00	386.00	386.00	388.00	392.00	393.00	392.00	386.00	384.00	445.00	483.00	482.00	479.00	426.00	407.00	391.00	381.00	373.00	359.00	359.00	357.00	351.00	346.00	345.00	346.00	351.00	360.00	358.00	345.00	339.00	337.00	332.00	335.00	337.00	340.00	340.00	342.00	343.00	343.00	346.00	347.00	348.00	349.00	352.00	353.00	360.00	362.00	366.00	369.00	358.00	355.00	354.00	352.00	349.00	348.00	347.00	346.00	346.00	342.00	341.00	340.00	337.00	339.00	337.00	339.00	341.00	341.00	341.00	344.00	344.00	346.00	351.00	355.00	358.00	358.00	354.00	346.00	346.00	349.00	355.00	361.00	361.00	362.00	360.00	358.00	358.00	358.00	355.00	351.00	352.00	353.00	349.00	347.00	346.00	345.00	344.00	343.00	341.00	337.00	334.00	332.00	329.00	325.00	321.00	319.00	317.00	315.00	317.00	313.00	311.00	310.00	310.00	313.00	314.00	314.00	314.00	313.00	312.00	312.00	312.00	316.00	320.00	322.00	324.00	327.00	328.00	330.00	330.00	332.00	334.00	337.00	339.00	341.00	343.00	345.00	344.00	344.00	345.00	348.00	351.00	351.00	351.00	351.00	359.00	360.00	360.00	360.00	360.00	362.00	362.00	361.00	360.00	361.00	361.00	366.00	366.00	365.00	362.00	361.00	361.00	361.00	360.00	358.00	355.00	354.00	357.00	356.00	360.00	362.00	363.00	365.00	368.00	369.00	372.00	374.00	380.00	380.00	381.00	382.00	385.00	386.00	388.00	390.00	390.00	391.00	392.00	393.00	393.00	393.00	393.00	394.00	395.00
462.00	496.00	522.00	551.00	542.00	568.00	545.00	525.00	559.00	648.00	587.00	468.00	404.00	359.00	301.00	298.00	291.00	280.00	270.00	263.00	267.00	272.00	272.00	279.00	293.00	300.00	307.00	314.00	326.00	335.00	339.00	344.00	346.00	348.00	349.00	348.00	346.00	354.00	359.00	359.00	354.00	359.00	362.00	364.00	364.00	364.00	363.00	362.00	360.00	360.00	359.00	361.00	362.00	362.00	362.00	362.00	362.00	362.00	362.00	362.00	365.00	366.00	368.00	370.00	377.00	379.00	381.00	384.00	391.00	392.00	393.00	396.00	397.00	392.00	394.00	414.00	442.00	447.00	440.00	431.00	414.00	392.00	358.00	355.00	353.00	351.00	348.00	347.00	348.00	351.00	359.00	358.00	344.00	339.00	334.00	335.00	334.00	331.00	331.00	333.00	337.00	339.00	340.00	341.00	344.00	345.00	346.00	346.00	347.00	350.00	353.00	355.00	358.00	351.00	348.00	346.00	343.00	339.00	338.00	337.00	336.00	336.00	334.00	330.00	329.00	325.00	323.00	324.00	330.00	331.00	331.00	327.00	331.00	331.00	335.00	340.00	340.00	339.00	340.00	340.00	335.00	332.00	333.00	336.00	343.00	345.00	345.00	342.00	340.00	338.00	337.00	337.00	336.00	339.00	338.00	334.00	333.00	332.00	328.00	328.00	327.00	326.00	323.00	320.00	315.00	312.00	310.00	308.00	306.00	305.00	304.00	303.00	302.00	302.00	302.00	302.00	305.00	306.00	306.00	306.00	307.00	306.00	306.00	309.00	312.00	315.00	319.00	321.00	323.00	325.00	326.00	328.00	330.00	331.00	334.00	336.00	337.00	340.00	343.00	342.00	340.00	341.00	342.00	348.00	347.00	347.00	350.00	356.00	359.00	359.00	359.00	358.00	359.00	359.00	360.00	360.00	362.00	362.00	365.00	365.00	364.00	362.00	361.00	361.00	361.00	360.00	361.00	360.00	357.00	357.00	351.00	355.00	359.00	360.00	363.00	366.00	369.00	371.00	372.00	379.00	380.00	380.00	381.00	383.00	385.00	386.00	388.00	390.00	391.00	391.00	392.00	393.00	395.00	398.00	399.00	401.00
462.00	496.00	522.00	551.00	542.00	568.00	545.00	525.00	559.00	648.00	587.00	468.00	404.00	359.00	301.00	298.00	291.00	280.00	270.00	263.00	267.00	272.00	272.00	279.00	293.00	300.00	307.00	314.00	326.00	335.00	339.00	344.00	346.00	348.00	349.00	348.00	346.00	354.00	359.00	359.00	354.00	359.00	362.00	364.00	364.00	364.00	363.00	362.00	360.00	360.00	359.00	361.00	362.00	362.00	362.00	362.00	362.00	362.00	362.00	362.00	365.00	366.00	368.00	370.00	377.00	379.00	381.00	384.00	391.00	392.00	393.00	396.00	397.00	392.00	394.00	414.00	442.00	447.00	440.00	431.00	414.00	392.00	358.00	355.00	353.00	351.00	348.00	347.00	348.00	351.00	359.00	358.00	344.00	339.00	334.00	335.00	334.00	331.00	331.00	333.00	337.00	339.00	340.00	341.00	344.00	345.00	346.00	346.00	347.00	350.00	353.00	355.00	358.00	351.00	348.00	346.00	343.00	339.00	338.00	337.00	336.00	336.00	334.00	330.00	329.00	325.00	323.00	324.00	330.00	331.00	331.00	327.00	331.00	331.00	335.00	340.00	340.00	339.00	340.00	340.00	335.00	332.00	333.00	336.00	343.00	345.00	345.00	342.00	340.00	338.00	337.00	337.00	336.00	339.00	338.00	334.00	333.00	332.00	328.00	328.00	327.00	326.00	323.00	320.00	315.00	312.00	310.00	308.00	306.00	305.00	304.00	303.00	302.00	302.00	302.00	302.00	305.00	306.00	306.00	306.00	307.00	306.00	306.00	309.00	312.00	315.00	319.00	321.00	323.00	325.00	326.00	328.00	330.00	331.00	334.00	336.00	337.00	340.00	343.00	342.00	340.00	341.00	342.00	348.00	347.00	347.00	350.00	356.00	359.00	359.00	359.00	358.00	359.00	359.00	360.00	360.00	362.00	362.00	365.00	365.00	364.00	362.00	361.00	361.00	361.00	360.00	361.00	360.00	357.00	357.00	351.00	355.00	359.00	360.00	363.00	366.00	369.00	371.00	372.00	379.00	380.00	380.00	381.00	383.00	385.00	386.00	388.00	390.00	391.00	391.00	392.00	393.00	395.00	398.00	399.00	401.00
455.00	514.00	532.00	534.00	544.00	565.00	505.00	457.00	554.00	623.00	598.00	466.00	397.00	350.00	304.00	295.00	287.00	275.00	267.00	261.00	265.00	274.00	276.00	274.00	300.00	314.00	321.00	327.00	336.00	343.00	347.00	352.00	356.00	358.00	361.00	361.00	359.00	361.00	363.00	363.00	362.00	360.00	363.00	367.00	368.00	367.00	366.00	365.00	363.00	363.00	361.00	362.00	362.00	362.00	362.00	362.00	362.00	362.00	362.00	362.00	363.00	364.00	366.00	368.00	374.00	375.00	379.00	382.00	387.00	388.00	391.00	395.00	398.00	403.00	410.00	418.00	426.00	445.00	444.00	442.00	442.00	428.00	369.00	362.00	358.00	356.00	353.00	349.00	348.00	348.00	349.00	349.00	339.00	336.00	333.00	334.00	335.00	333.00	331.00	331.00	331.00	334.00	336.00	337.00	341.00	342.00	342.00	342.00	342.00	342.00	344.00	345.00	344.00	341.00	340.00	338.00	336.00	332.00	331.00	330.00	329.00	328.00	326.00	324.00	324.00	323.00	314.00	318.00	323.00	323.00	324.00	321.00	321.00	323.00	323.00	324.00	324.00	324.00	325.00	326.00	326.00	324.00	324.00	324.00	324.00	325.00	326.00	324.00	323.00	321.00	321.00	320.00	320.00	319.00	319.00	318.00	317.00	315.00	313.00	313.00	312.00	310.00	307.00	305.00	304.00	303.00	302.00	301.00	300.00	299.00	299.00	297.00	296.00	297.00	296.00	294.00	298.00	299.00	299.00	300.00	303.00	303.00	306.00	308.00	309.00	312.00	315.00	318.00	319.00	322.00	323.00	326.00	329.00	330.00	331.00	332.00	334.00	338.00	340.00	340.00	337.00	344.00	345.00	344.00	346.00	349.00	350.00	349.00	350.00	351.00	353.00	358.00	360.00	360.00	360.00	360.00	361.00	361.00	363.00	363.00	363.00	362.00	361.00	361.00	361.00	359.00	359.00	359.00	359.00	359.00	350.00	353.00	356.00	358.00	361.00	365.00	368.00	369.00	371.00	377.00	378.00	379.00	380.00	380.00	383.00	385.00	388.00	388.00	390.00	392.00	393.00	393.00	399.00	400.00	402.00	403.00
443.00	505.00	535.00	583.00	598.00	504.00	443.00	435.00	563.00	640.00	525.00	409.00	370.00	342.00	304.00	292.00	284.00	272.00	264.00	259.00	265.00	267.00	268.00	293.00	313.00	328.00	334.00	337.00	347.00	354.00	359.00	365.00	367.00	367.00	369.00	370.00	372.00	376.00	374.00	372.00	369.00	367.00	367.00	370.00	371.00	370.00	368.00	367.00	366.00	365.00	365.00	364.00	363.00	362.00	362.00	362.00	362.00	362.00	362.00	362.00	363.00	364.00	365.00	367.00	371.00	373.00	378.00	380.00	383.00	383.00	386.00	391.00	395.00	404.00	410.00	416.00	423.00	434.00	437.00	440.00	444.00	443.00	412.00	392.00	378.00	369.00	363.00	358.00	354.00	351.00	349.00	340.00	336.00	333.00	331.00	331.00	331.00	331.00	331.00	332.00	333.00	331.00	331.00	333.00	336.00	338.00	338.00	337.00	338.00	336.00	336.00	334.00	333.00	332.00	332.00	330.00	329.00	327.00	326.00	325.00	325.00	323.00	320.00	319.00	319.00	318.00	312.00	310.00	310.00	314.00	316.00	318.00	317.00	317.00	317.00	317.00	317.00	317.00	318.00	318.00	317.00	317.00	318.00	318.00	317.00	317.00	318.00	317.00	316.00	316.00	315.00	315.00	316.00	313.00	311.00	310.00	308.00	308.00	307.00	306.00	305.00	304.00	301.00	299.00	298.00	298.00	297.00	296.00	296.00	296.00	295.00	292.00	292.00	292.00	292.00	289.00	294.00	294.00	295.00	296.00	300.00	301.00	302.00	304.00	305.00	310.00	310.00	312.00	315.00	319.00	320.00	322.00	324.00	326.00	327.00	328.00	330.00	335.00	336.00	337.00	338.00	338.00	342.00	344.00	345.00	347.00	348.00	350.00	352.00	354.00	356.00	357.00	358.00	359.00	359.00	359.00	359.00	360.00	361.00	362.00	361.00	361.00	361.00	360.00	360.00	358.00	355.00	355.00	355.00	354.00	349.00	350.00	353.00	355.00	358.00	362.00	364.00	367.00	369.00	376.00	376.00	376.00	378.00	380.00	383.00	384.00	386.00	387.00	389.00	393.00	394.00	398.00	401.00	402.00	403.00	404.00
443.00	505.00	535.00	583.00	598.00	504.00	443.00	435.00	563.00	640.00	525.00	409.00	370.00	342.00	304.00	292.00	284.00	272.00	264.00	259.00	265.00	267.00	268.00	293.00	313.00	328.00	334.00	337.00	347.00	354.00	359.00	365.00	367.00	367.00	369.00	370.00	372.00	376.00	374.00	372.00	369.00	367.00	367.00	370.00	371.00	370.00	368.00	367.00	366.00	365.00	365.00	364.00	363.00	362.00	362.00	362.00	362.00	362.00	362.00	362.00	363.00	364.00	365.00	367.00	371.00	373.00	378.00	380.00	383.00	383.00	386.00	391.00	395.00	404.00	410.00	416.00	423.00	434.00	437.00	440.00	444.00	443.00	412.00	392.00	378.00	369.00	363.00	358.00	354.00	351.00	349.00	340.00	336.00	333.00	331.00	331.00	331.00	331.00	331.00	332.00	333.00	331.00	331.00	333.00	336.00	338.00	338.00	337.00	338.00	336.00	336.00	334.00	333.00	332.00	332.00	330.00	329.00	327.00	326.00	325.00	325.00	323.00	320.00	319.00	319.00	318.00	312.00	310.00	310.00	314.00	316.00	318.00	317.00	317.00	317.00	317.00	317.00	317.00	318.00	318.00	317.00	317.00	318.00	318.00	317.00	317.00	318.00	317.00	316.00	316.00	315.00	315.00	316.00	313.00	311.00	310.00	308.00	308.00	307.00	306.00	305.00	304.00	301.00	299.00	298.00	298.00	297.00	296.00	296.00	296.00	295.00	292.00	292.00	292.00	292.00	289.00	294.00	294.00	295.00	296.00	300.00	301.00	302.00	304.00	305.00	310.00	310.00	312.00	315.00	319.00	320.00	322.00	324.00	326.00	327.00	328.00	330.00	335.00	336.00	337.00	338.00	338.00	342.00	344.00	345.00	347.00	348.00	350.00	352.00	354.00	356.00	357.00	358.00	359.00	359.00	359.00	359.00	360.00	361.00	362.00	361.00	361.00	361.00	360.00	360.00	358.00	355.00	355.00	355.00	354.00	349.00	350.00	353.00	355.00	358.00	362.00	364.00	367.00	369.00	376.00	376.00	376.00	378.00	380.00	383.00	384.00	386.00	387.00	389.00	393.00	394.00	398.00	401.00	402.00	403.00	404.00
443.00	505.00	535.00	583.00	598.00	504.00	443.00	435.00	563.00	640.00	525.00	409.00	370.00	342.00	304.00	292.00	284.00	272.00	264.00	259.00	265.00	267.00	268.00	293.00	313.00	328.00	334.00	337.00	347.00	354.00	359.00	365.00	367.00	367.00	369.00	370.00	372.00	376.00	374.00	372.00	369.00	367.00	367.00	370.00	371.00	370.00	368.00	367.00	366.00	365.00	365.00	364.00	363.00	362.00	362.00	362.00	362.00	362.00	362.00	362.00	363.00	364.00	365.00	367.00	371.00	373.00	378.00	380.00	383.00	383.00	386.00	391.00	395.00	404.00	410.00	416.00	423.00	434.00	437.00	440.00	444.00	443.00	412.00	392.00	378.00	369.00	363.00	358.00	354.00	351.00	349.00	340.00	336.00	333.00	331.00	331.00	331.00	331.00	331.00	332.00	333.00	331.00	331.00	333.00	336.00	338.00	338.00	337.00	338.00	336.00	336.00	334.00	333.00	332.00	332.00	330.00	329.00	327.00	326.00	325.00	325.00	323.00	320.00	319.00	319.00	318.00	312.00	310.00	310.00	314.00	316.00	318.00	317.00	317.00	317.00	317.00	317.00	317.00	318.00	318.00	317.00	317.00	318.00	318.00	317.00	317.00	318.00	317.00	316.00	316.00	315.00	315.00	316.00	313.00	311.00	310.00	308.00	308.00	307.00	306.00	305.00	304.00	301.00	299.00	298.00	298.00	297.00	296.00	296.00	296.00	295.00	292.00	292.00	292.00	292.00	289.00	294.00	294.00	295.00	296.00	300.00	301.00	302.00	304.00	305.00	310.00	310.00	312.00	315.00	319.00	320.00	322.00	324.00	326.00	327.00	328.00	330.00	335.00	336.00	337.00	338.00	338.00	342.00	344.00	345.00	347.00	348.00	350.00	352.00	354.00	356.00	357.00	358.00	359.00	359.00	359.00	359.00	360.00	361.00	362.00	361.00	361.00	361.00	360.00	360.00	358.00	355.00	355.00	355.00	354.00	349.00	350.00	353.00	355.00	358.00	362.00	364.00	367.00	369.00	376.00	376.00	376.00	378.00	380.00	383.00	384.00	386.00	387.00	389.00	393.00	394.00	398.00	401.00	402.00	403.00	404.00
419.00	451.00	455.00	507.00	497.00	423.00	413.00	434.00	555.00	633.00	460.00	383.00	359.00	337.00	298.00	286.00	280.00	270.00	259.00	264.00	262.00	260.00	270.00	321.00	333.00	341.00	342.00	341.00	349.00	362.00	367.00	374.00	378.00	377.00	379.00	380.00	383.00	384.00	383.00	381.00	378.00	376.00	375.00	375.00	375.00	372.00	371.00	370.00	369.00	368.00	365.00	365.00	365.00	365.00	364.00	362.00	362.00	362.00	362.00	362.00	362.00	362.00	364.00	365.00	369.00	372.00	375.00	377.00	380.00	379.00	378.00	390.00	395.00	409.00	413.00	418.00	424.00	439.00	444.00	449.00	447.00	447.00	480.00	459.00	452.00	437.00	386.00	373.00	364.00	358.00	353.00	344.00	338.00	335.00	330.00	327.00	328.00	328.00	329.00	329.00	332.00	332.00	331.00	328.00	328.00	330.00	332.00	332.00	332.00	331.00	331.00	330.00	329.00	327.00	327.00	327.00	326.00	324.00	323.00	322.00	321.00	320.00	317.00	316.00	315.00	314.00	311.00	308.00	309.00	306.00	308.00	313.00	312.00	312.00	313.00	313.00	313.00	314.00	314.00	313.00	311.00	313.00	314.00	314.00	313.00	314.00	315.00	314.00	313.00	313.00	313.00	313.00	314.00	310.00	308.00	306.00	306.00	306.00	305.00	303.00	302.00	301.00	299.00	298.00	297.00	296.00	295.00	293.00	293.00	293.00	292.00	290.00	289.00	289.00	288.00	289.00	290.00	291.00	292.00	293.00	296.00	297.00	298.00	300.00	301.00	306.00	309.00	309.00	311.00	315.00	315.00	318.00	320.00	321.00	323.00	324.00	325.00	329.00	331.00	335.00	335.00	336.00	340.00	342.00	342.00	344.00	348.00	349.00	350.00	352.00	353.00	354.00	353.00	354.00	355.00	354.00	355.00	356.00	358.00	358.00	360.00	360.00	360.00	357.00	356.00	355.00	355.00	355.00	353.00	351.00	347.00	348.00	351.00	352.00	359.00	361.00	364.00	367.00	370.00	374.00	375.00	375.00	377.00	380.00	380.00	382.00	384.00	386.00	388.00	392.00	394.00	398.00	401.00	402.00	404.00	405.00
419.00	451.00	455.00	507.00	497.00	423.00	413.00	434.00	555.00	633.00	460.00	383.00	359.00	337.00	298.00	286.00	280.00	270.00	259.00	264.00	262.00	260.00	270.00	321.00	333.00	341.00	342.00	341.00	349.00	362.00	367.00	374.00	378.00	377.00	379.00	380.00	383.00	384.00	383.00	381.00	378.00	376.00	375.00	375.00	375.00	372.00	371.00	370.00	369.00	368.00	365.00	365.00	365.00	365.00	364.00	362.00	362.00	362.00	362.00	362.00	362.00	362.00	364.00	365.00	369.00	372.00	375.00	377.00	380.00	379.00	378.00	390.00	395.00	409.00	413.00	418.00	424.00	439.00	444.00	449.00	447.00	447.00	480.00	459.00	452.00	437.00	386.00	373.00	364.00	358.00	353.00	344.00	338.00	335.00	330.00	327.00	328.00	328.00	329.00	329.00	332.00	332.00	331.00	328.00	328.00	330.00	332.00	332.00	332.00	331.00	331.00	330.00	329.00	327.00	327.00	327.00	326.00	324.00	323.00	322.00	321.00	320.00	317.00	316.00	315.00	314.00	311.00	308.00	309.00	306.00	308.00	313.00	312.00	312.00	313.00	313.00	313.00	314.00	314.00	313.00	311.00	313.00	314.00	314.00	313.00	314.00	315.00	314.00	313.00	313.00	313.00	313.00	314.00	310.00	308.00	306.00	306.00	306.00	305.00	303.00	302.00	301.00	299.00	298.00	297.00	296.00	295.00	293.00	293.00	293.00	292.00	290.00	289.00	289.00	288.00	289.00	290.00	291.00	292.00	293.00	296.00	297.00	298.00	300.00	301.00	306.00	309.00	309.00	311.00	315.00	315.00	318.00	320.00	321.00	323.00	324.00	325.00	329.00	331.00	335.00	335.00	336.00	340.00	342.00	342.00	344.00	348.00	349.00	350.00	352.00	353.00	354.00	353.00	354.00	355.00	354.00	355.00	356.00	358.00	358.00	360.00	360.00	360.00	357.00	356.00	355.00	355.00	355.00	353.00	351.00	347.00	348.00	351.00	352.00	359.00	361.00	364.00	367.00	370.00	374.00	375.00	375.00	377.00	380.00	380.00	382.00	384.00	386.00	388.00	392.00	394.00	398.00	401.00	402.00	404.00	405.00
397.00	401.00	413.00	428.00	434.00	396.00	420.00	464.00	566.00	608.00	393.00	357.00	338.00	320.00	286.00	276.00	269.00	262.00	250.00	271.00	261.00	259.00	281.00	314.00	329.00	333.00	336.00	342.00	359.00	362.00	365.00	373.00	379.00	381.00	383.00	386.00	389.00	391.00	389.00	388.00	385.00	383.00	381.00	380.00	379.00	377.00	375.00	375.00	374.00	372.00	368.00	368.00	368.00	368.00	367.00	365.00	365.00	364.00	363.00	362.00	362.00	362.00	362.00	364.00	368.00	369.00	372.00	375.00	375.00	374.00	374.00	388.00	396.00	412.00	416.00	420.00	426.00	440.00	452.00	455.00	457.00	457.00	517.00	504.00	483.00	472.00	434.00	410.00	389.00	376.00	367.00	348.00	343.00	340.00	334.00	326.00	324.00	324.00	324.00	325.00	329.00	330.00	330.00	324.00	320.00	321.00	326.00	328.00	328.00	328.00	328.00	328.00	328.00	324.00	325.00	325.00	324.00	321.00	320.00	319.00	318.00	317.00	315.00	313.00	312.00	311.00	308.00	306.00	304.00	303.00	302.00	309.00	308.00	308.00	309.00	310.00	310.00	311.00	311.00	310.00	308.00	309.00	309.00	309.00	310.00	311.00	311.00	311.00	311.00	310.00	310.00	311.00	311.00	307.00	305.00	305.00	304.00	304.00	303.00	302.00	301.00	300.00	300.00	298.00	296.00	295.00	294.00	294.00	294.00	293.00	291.00	290.00	290.00	289.00	290.00	290.00	290.00	288.00	289.00	289.00	291.00	293.00	295.00	297.00	299.00	302.00	305.00	306.00	307.00	308.00	310.00	312.00	313.00	316.00	321.00	321.00	322.00	324.00	329.00	330.00	330.00	335.00	339.00	340.00	341.00	343.00	345.00	350.00	350.00	351.00	351.00	351.00	349.00	349.00	350.00	350.00	350.00	350.00	351.00	353.00	354.00	356.00	355.00	353.00	352.00	352.00	352.00	352.00	352.00	350.00	344.00	346.00	349.00	351.00	359.00	360.00	363.00	366.00	369.00	372.00	372.00	373.00	375.00	378.00	380.00	382.00	384.00	386.00	389.00	391.00	393.00	394.00	399.00	399.00	400.00	401.00
397.00	401.00	413.00	428.00	434.00	396.00	420.00	464.00	566.00	608.00	393.00	357.00	338.00	320.00	286.00	276.00	269.00	262.00	250.00	271.00	261.00	259.00	281.00	314.00	329.00	333.00	336.00	342.00	359.00	362.00	365.00	373.00	379.00	381.00	383.00	386.00	389.00	391.00	389.00	388.00	385.00	383.00	381.00	380.00	379.00	377.00	375.00	375.00	374.00	372.00	368.00	368.00	368.00	368.00	367.00	365.00	365.00	364.00	363.00	362.00	362.00	362.00	362.00	364.00	368.00	369.00	372.00	375.00	375.00	374.00	374.00	388.00	396.00	412.00	416.00	420.00	426.00	440.00	452.00	455.00	457.00	457.00	517.00	504.00	483.00	472.00	434.00	410.00	389.00	376.00	367.00	348.00	343.00	340.00	334.00	326.00	324.00	324.00	324.00	325.00	329.00	330.00	330.00	324.00	320.00	321.00	326.00	328.00	328.00	328.00	328.00	328.00	328.00	324.00	325.00	325.00	324.00	321.00	320.00	319.00	318.00	317.00	315.00	313.00	312.00	311.00	308.00	306.00	304.00	303.00	302.00	309.00	308.00	308.00	309.00	310.00	310.00	311.00	311.00	310.00	308.00	309.00	309.00	309.00	310.00	311.00	311.00	311.00	311.00	310.00	310.00	311.00	311.00	307.00	305.00	305.00	304.00	304.00	303.00	302.00	301.00	300.00	300.00	298.00	296.00	295.00	294.00	294.00	294.00	293.00	291.00	290.00	290.00	289.00	290.00	290.00	290.00	288.00	289.00	289.00	291.00	293.00	295.00	297.00	299.00	302.00	305.00	306.00	307.00	308.00	310.00	312.00	313.00	316.00	321.00	321.00	322.00	324.00	329.00	330.00	330.00	335.00	339.00	340.00	341.00	343.00	345.00	350.00	350.00	351.00	351.00	351.00	349.00	349.00	350.00	350.00	350.00	350.00	351.00	353.00	354.00	356.00	355.00	353.00	352.00	352.00	352.00	352.00	352.00	350.00	344.00	346.00	349.00	351.00	359.00	360.00	363.00	366.00	369.00	372.00	372.00	373.00	375.00	378.00	380.00	382.00	384.00	386.00	389.00	391.00	393.00	394.00	399.00	399.00	400.00	401.00
463.00	507.00	504.00	538.00	525.00	416.00	429.00	451.00	476.00	475.00	376.00	348.00	327.00	309.00	273.00	265.00	262.00	256.00	251.00	261.00	254.00	266.00	306.00	328.00	331.00	341.00	350.00	359.00	373.00	380.00	381.00	383.00	395.00	396.00	401.00	401.00	403.00	398.00	396.00	397.00	394.00	389.00	389.00	388.00	385.00	384.00	382.00	380.00	379.00	378.00	373.00	372.00	371.00	371.00	370.00	368.00	368.00	367.00	365.00	364.00	362.00	362.00	362.00	363.00	364.00	367.00	370.00	371.00	369.00	369.00	369.00	382.00	392.00	411.00	418.00	423.00	429.00	447.00	453.00	463.00	479.00	490.00	497.00	502.00	496.00	472.00	451.00	441.00	416.00	395.00	379.00	352.00	342.00	339.00	336.00	328.00	324.00	321.00	321.00	321.00	322.00	323.00	323.00	318.00	319.00	320.00	324.00	324.00	324.00	325.00	325.00	325.00	325.00	323.00	323.00	323.00	323.00	320.00	318.00	317.00	316.00	315.00	312.00	310.00	309.00	308.00	304.00	303.00	301.00	299.00	297.00	303.00	304.00	304.00	306.00	307.00	306.00	306.00	307.00	306.00	304.00	304.00	304.00	304.00	307.00	310.00	309.00	308.00	308.00	307.00	307.00	307.00	308.00	305.00	303.00	302.00	302.00	302.00	301.00	300.00	300.00	299.00	297.00	296.00	295.00	295.00	294.00	292.00	291.00	291.00	291.00	290.00	290.00	289.00	289.00	288.00	289.00	288.00	288.00	288.00	286.00	290.00	291.00	293.00	295.00	299.00	301.00	302.00	303.00	304.00	306.00	308.00	310.00	312.00	316.00	318.00	319.00	322.00	329.00	327.00	327.00	330.00	331.00	338.00	339.00	341.00	342.00	348.00	348.00	349.00	350.00	350.00	348.00	347.00	347.00	347.00	347.00	347.00	347.00	348.00	348.00	348.00	348.00	347.00	347.00	346.00	347.00	347.00	346.00	345.00	341.00	344.00	347.00	351.00	356.00	359.00	362.00	365.00	366.00	370.00	370.00	371.00	373.00	377.00	379.00	381.00	383.00	384.00	388.00	390.00	393.00	395.00	397.00	398.00	399.00	401.00
457.00	541.00	572.00	546.00	535.00	469.00	482.00	529.00	614.00	551.00	387.00	343.00	322.00	302.00	268.00	259.00	253.00	248.00	244.00	276.00	258.00	263.00	304.00	351.00	358.00	365.00	371.00	374.00	382.00	392.00	392.00	403.00	415.00	414.00	414.00	413.00	413.00	408.00	407.00	407.00	404.00	398.00	399.00	397.00	394.00	392.00	391.00	389.00	389.00	387.00	379.00	377.00	376.00	375.00	373.00	372.00	371.00	370.00	369.00	369.00	368.00	366.00	365.00	365.00	365.00	365.00	365.00	366.00	367.00	367.00	368.00	375.00	382.00	405.00	419.00	429.00	431.00	447.00	458.00	474.00	485.00	502.00	512.00	506.00	492.00	474.00	447.00	448.00	439.00	407.00	384.00	355.00	341.00	336.00	334.00	328.00	324.00	320.00	319.00	318.00	317.00	316.00	317.00	316.00	319.00	319.00	320.00	320.00	321.00	322.00	322.00	322.00	322.00	321.00	321.00	321.00	321.00	319.00	318.00	316.00	315.00	313.00	309.00	307.00	306.00	304.00	301.00	300.00	298.00	297.00	294.00	297.00	300.00	301.00	302.00	303.00	302.00	302.00	302.00	301.00	300.00	300.00	300.00	300.00	303.00	304.00	306.00	305.00	304.00	303.00	302.00	302.00	303.00	301.00	300.00	299.00	299.00	299.00	298.00	299.00	299.00	299.00	296.00	295.00	294.00	294.00	292.00	292.00	291.00	291.00	290.00	289.00	289.00	289.00	286.00	286.00	285.00	284.00	283.00	284.00	281.00	285.00	287.00	288.00	289.00	293.00	296.00	297.00	298.00	300.00	302.00	303.00	305.00	306.00	310.00	312.00	313.00	319.00	326.00	322.00	324.00	325.00	325.00	331.00	334.00	337.00	339.00	341.00	341.00	342.00	346.00	347.00	345.00	345.00	345.00	345.00	345.00	345.00	345.00	345.00	344.00	341.00	342.00	341.00	341.00	340.00	340.00	340.00	338.00	338.00	339.00	342.00	347.00	351.00	354.00	358.00	360.00	362.00	364.00	366.00	368.00	369.00	370.00	375.00	378.00	380.00	382.00	384.00	388.00	391.00	393.00	397.00	400.00	402.00	404.00	408.00
457.00	541.00	572.00	546.00	535.00	469.00	482.00	529.00	614.00	551.00	387.00	343.00	322.00	302.00	268.00	259.00	253.00	248.00	244.00	276.00	258.00	263.00	304.00	351.00	358.00	365.00	371.00	374.00	382.00	392.00	392.00	403.00	415.00	414.00	414.00	413.00	413.00	408.00	407.00	407.00	404.00	398.00	399.00	397.00	394.00	392.00	391.00	389.00	389.00	387.00	379.00	377.00	376.00	375.00	373.00	372.00	371.00	370.00	369.00	369.00	368.00	366.00	365.00	365.00	365.00	365.00	365.00	366.00	367.00	367.00	368.00	375.00	382.00	405.00	419.00	429.00	431.00	447.00	458.00	474.00	485.00	502.00	512.00	506.00	492.00	474.00	447.00	448.00	439.00	407.00	384.00	355.00	341.00	336.00	334.00	328.00	324.00	320.00	319.00	318.00	317.00	316.00	317.00	316.00	319.00	319.00	320.00	320.00	321.00	322.00	322.00	322.00	322.00	321.00	321.00	321.00	321.00	319.00	318.00	316.00	315.00	313.00	309.00	307.00	306.00	304.00	301.00	300.00	298.00	297.00	294.00	297.00	300.00	301.00	302.00	303.00	302.00	302.00	302.00	301.00	300.00	300.00	300.00	300.00	303.00	304.00	306.00	305.00	304.00	303.00	302.00	302.00	303.00	301.00	300.00	299.00	299.00	299.00	298.00	299.00	299.00	299.00	296.00	295.00	294.00	294.00	292.00	292.00	291.00	291.00	290.00	289.00	289.00	289.00	286.00	286.00	285.00	284.00	283.00	284.00	281.00	285.00	287.00	288.00	289.00	293.00	296.00	297.00	298.00	300.00	302.00	303.00	305.00	306.00	310.00	312.00	313.00	319.00	326.00	322.00	324.00	325.00	325.00	331.00	334.00	337.00	339.00	341.00	341.00	342.00	346.00	347.00	345.00	345.00	345.00	345.00	345.00	345.00	345.00	345.00	344.00	341.00	342.00	341.00	341.00	340.00	340.00	340.00	338.00	338.00	339.00	342.00	347.00	351.00	354.00	358.00	360.00	362.00	364.00	366.00	368.00	369.00	370.00	375.00	378.00	380.00	382.00	384.00	388.00	391.00	393.00	397.00	400.00	402.00	404.00	408.00
460.00	517.00	542.00	506.00	508.00	467.00	499.00	548.00	614.00	575.00	383.00	350.00	324.00	296.00	264.00	255.00	246.00	241.00	239.00	276.00	256.00	238.00	273.00	353.00	366.00	378.00	386.00	394.00	401.00	403.00	403.00	409.00	417.00	419.00	419.00	418.00	420.00	419.00	419.00	419.00	417.00	413.00	411.00	407.00	405.00	405.00	400.00	400.00	400.00	397.00	388.00	386.00	383.00	380.00	378.00	376.00	375.00	375.00	374.00	373.00	374.00	372.00	372.00	372.00	372.00	371.00	370.00	369.00	368.00	369.00	369.00	373.00	377.00	395.00	411.00	427.00	430.00	446.00	450.00	470.00	495.00	513.00	531.00	522.00	506.00	494.00	449.00	439.00	405.00	382.00	362.00	351.00	340.00	332.00	331.00	328.00	324.00	321.00	319.00	317.00	314.00	315.00	315.00	317.00	318.00	317.00	317.00	318.00	318.00	320.00	319.00	319.00	319.00	319.00	319.00	319.00	320.00	318.00	317.00	316.00	314.00	313.00	310.00	305.00	303.00	301.00	298.00	297.00	295.00	294.00	291.00	289.00	292.00	295.00	298.00	298.00	298.00	298.00	297.00	296.00	294.00	296.00	296.00	296.00	299.00	299.00	302.00	301.00	300.00	300.00	300.00	300.00	299.00	297.00	296.00	295.00	295.00	294.00	296.00	297.00	300.00	300.00	295.00	294.00	292.00	292.00	291.00	291.00	291.00	290.00	290.00	289.00	288.00	286.00	285.00	283.00	281.00	281.00	280.00	280.00	280.00	281.00	282.00	283.00	285.00	287.00	291.00	291.00	292.00	294.00	295.00	297.00	298.00	298.00	303.00	304.00	305.00	310.00	316.00	319.00	320.00	319.00	319.00	327.00	328.00	330.00	332.00	334.00	336.00	340.00	343.00	344.00	344.00	344.00	344.00	343.00	343.00	343.00	343.00	343.00	343.00	339.00	338.00	337.00	336.00	335.00	335.00	334.00	334.00	334.00	340.00	342.00	345.00	347.00	350.00	352.00	355.00	360.00	360.00	364.00	367.00	369.00	370.00	375.00	377.00	379.00	381.00	383.00	386.00	391.00	393.00	395.00	399.00	401.00	404.00	407.00
460.00	517.00	542.00	506.00	508.00	467.00	499.00	548.00	614.00	575.00	383.00	350.00	324.00	296.00	264.00	255.00	246.00	241.00	239.00	276.00	256.00	238.00	273.00	353.00	366.00	378.00	386.00	394.00	401.00	403.00	403.00	409.00	417.00	419.00	419.00	418.00	420.00	419.00	419.00	419.00	417.00	413.00	411.00	407.00	405.00	405.00	400.00	400.00	400.00	397.00	388.00	386.00	383.00	380.00	378.00	376.00	375.00	375.00	374.00	373.00	374.00	372.00	372.00	372.00	372.00	371.00	370.00	369.00	368.00	369.00	369.00	373.00	377.00	395.00	411.00	427.00	430.00	446.00	450.00	470.00	495.00	513.00	531.00	522.00	506.00	494.00	449.00	439.00	405.00	382.00	362.00	351.00	340.00	332.00	331.00	328.00	324.00	321.00	319.00	317.00	314.00	315.00	315.00	317.00	318.00	317.00	317.00	318.00	318.00	320.00	319.00	319.00	319.00	319.00	319.00	319.00	320.00	318.00	317.00	316.00	314.00	313.00	310.00	305.00	303.00	301.00	298.00	297.00	295.00	294.00	291.00	289.00	292.00	295.00	298.00	298.00	298.00	298.00	297.00	296.00	294.00	296.00	296.00	296.00	299.00	299.00	302.00	301.00	300.00	300.00	300.00	300.00	299.00	297.00	296.00	295.00	295.00	294.00	296.00	297.00	300.00	300.00	295.00	294.00	292.00	292.00	291.00	291.00	291.00	290.00	290.00	289.00	288.00	286.00	285.00	283.00	281.00	281.00	280.00	280.00	280.00	281.00	282.00	283.00	285.00	287.00	291.00	291.00	292.00	294.00	295.00	297.00	298.00	298.00	303.00	304.00	305.00	310.00	316.00	319.00	320.00	319.00	319.00	327.00	328.00	330.00	332.00	334.00	336.00	340.00	343.00	344.00	344.00	344.00	344.00	343.00	343.00	343.00	343.00	343.00	343.00	339.00	338.00	337.00	336.00	335.00	335.00	334.00	334.00	334.00	340.00	342.00	345.00	347.00	350.00	352.00	355.00	360.00	360.00	364.00	367.00	369.00	370.00	375.00	377.00	379.00	381.00	383.00	386.00	391.00	393.00	395.00	399.00	401.00	404.00	407.00
439.00	422.00	398.00	402.00	440.00	399.00	449.00	532.00	623.00	536.00	385.00	352.00	317.00	289.00	255.00	249.00	241.00	233.00	231.00	242.00	240.00	272.00	323.00	353.00	374.00	389.00	393.00	395.00	393.00	402.00	411.00	419.00	430.00	432.00	433.00	432.00	434.00	432.00	433.00	430.00	429.00	423.00	423.00	418.00	417.00	417.00	412.00	411.00	411.00	406.00	397.00	394.00	392.00	389.00	386.00	383.00	384.00	381.00	379.00	378.00	378.00	378.00	377.00	377.00	377.00	378.00	379.00	379.00	374.00	373.00	374.00	375.00	376.00	386.00	395.00	407.00	414.00	440.00	455.00	477.00	493.00	510.00	545.00	544.00	524.00	510.00	464.00	451.00	408.00	385.00	381.00	370.00	346.00	339.00	335.00	325.00	322.00	320.00	319.00	317.00	313.00	314.00	315.00	316.00	317.00	317.00	316.00	316.00	317.00	317.00	317.00	317.00	317.00	318.00	318.00	318.00	318.00	317.00	316.00	315.00	314.00	312.00	310.00	307.00	304.00	301.00	298.00	296.00	294.00	292.00	291.00	288.00	287.00	288.00	292.00	293.00	292.00	293.00	292.00	291.00	290.00	292.00	292.00	293.00	299.00	298.00	297.00	297.00	296.00	298.00	297.00	296.00	295.00	294.00	292.00	292.00	291.00	290.00	292.00	295.00	298.00	298.00	294.00	292.00	291.00	290.00	290.00	290.00	290.00	290.00	290.00	289.00	287.00	286.00	284.00	281.00	279.00	279.00	278.00	277.00	278.00	279.00	279.00	279.00	280.00	283.00	286.00	286.00	287.00	288.00	289.00	290.00	292.00	292.00	296.00	298.00	298.00	300.00	308.00	311.00	318.00	315.00	312.00	316.00	318.00	321.00	322.00	328.00	333.00	337.00	340.00	341.00	342.00	342.00	342.00	342.00	341.00	341.00	341.00	341.00	341.00	340.00	338.00	335.00	333.00	330.00	330.00	330.00	330.00	332.00	336.00	338.00	340.00	342.00	345.00	346.00	348.00	350.00	354.00	363.00	367.00	369.00	370.00	373.00	374.00	377.00	380.00	381.00	385.00	389.00	391.00	392.00	397.00	399.00	402.00	406.00
439.00	422.00	398.00	402.00	440.00	399.00	449.00	532.00	623.00	536.00	385.00	352.00	317.00	289.00	255.00	249.00	241.00	233.00	231.00	242.00	240.00	272.00	323.00	353.00	374.00	389.00	393.00	395.00	393.00	402.00	411.00	419.00	430.00	432.00	433.00	432.00	434.00	432.00	433.00	430.00	429.00	423.00	423.00	418.00	417.00	417.00	412.00	411.00	411.00	406.00	397.00	394.00	392.00	389.00	386.00	383.00	384.00	381.00	379.00	378.00	378.00	378.00	377.00	377.00	377.00	378.00	379.00	379.00	374.00	373.00	374.00	375.00	376.00	386.00	395.00	407.00	414.00	440.00	455.00	477.00	493.00	510.00	545.00	544.00	524.00	510.00	464.00	451.00	408.00	385.00	381.00	370.00	346.00	339.00	335.00	325.00	322.00	320.00	319.00	317.00	313.00	314.00	315.00	316.00	317.00	317.00	316.00	316.00	317.00	317.00	317.00	317.00	317.00	318.00	318.00	318.00	318.00	317.00	316.00	315.00	314.00	312.00	310.00	307.00	304.00	301.00	298.00	296.00	294.00	292.00	291.00	288.00	287.00	288.00	292.00	293.00	292.00	293.00	292.00	291.00	290.00	292.00	292.00	293.00	299.00	298.00	297.00	297.00	296.00	298.00	297.00	296.00	295.00	294.00	292.00	292.00	291.00	290.00	292.00	295.00	298.00	298.00	294.00	292.00	291.00	290.00	290.00	290.00	290.00	290.00	290.00	289.00	287.00	286.00	284.00	281.00	279.00	279.00	278.00	277.00	278.00	279.00	279.00	279.00	280.00	283.00	286.00	286.00	287.00	288.00	289.00	290.00	292.00	292.00	296.00	298.00	298.00	300.00	308.00	311.00	318.00	315.00	312.00	316.00	318.00	321.00	322.00	328.00	333.00	337.00	340.00	341.00	342.00	342.00	342.00	342.00	341.00	341.00	341.00	341.00	341.00	340.00	338.00	335.00	333.00	330.00	330.00	330.00	330.00	332.00	336.00	338.00	340.00	342.00	345.00	346.00	348.00	350.00	354.00	363.00	367.00	369.00	370.00	373.00	374.00	377.00	380.00	381.00	385.00	389.00	391.00	392.00	397.00	399.00	402.00	406.00
349.00	381.00	361.00	373.00	383.00	376.00	435.00	515.00	626.00	537.00	419.00	378.00	317.00	285.00	251.00	244.00	243.00	235.00	232.00	245.00	258.00	282.00	295.00	325.00	346.00	360.00	372.00	378.00	411.00	423.00	431.00	438.00	446.00	447.00	447.00	446.00	447.00	445.00	441.00	441.00	439.00	434.00	434.00	428.00	427.00	427.00	424.00	421.00	420.00	415.00	407.00	404.00	402.00	398.00	395.00	393.00	393.00	391.00	390.00	386.00	385.00	385.00	384.00	385.00	383.00	384.00	385.00	384.00	381.00	379.00	378.00	378.00	378.00	381.00	390.00	399.00	407.00	429.00	449.00	468.00	486.00	502.00	537.00	549.00	549.00	525.00	485.00	462.00	429.00	413.00	416.00	398.00	367.00	354.00	342.00	329.00	324.00	320.00	318.00	316.00	313.00	313.00	314.00	315.00	316.00	316.00	315.00	315.00	316.00	316.00	315.00	314.00	314.00	316.00	317.00	317.00	316.00	315.00	315.00	314.00	313.00	312.00	311.00	310.00	307.00	304.00	300.00	298.00	296.00	293.00	291.00	289.00	286.00	285.00	285.00	287.00	287.00	288.00	287.00	287.00	289.00	290.00	290.00	291.00	297.00	296.00	291.00	292.00	293.00	295.00	294.00	292.00	292.00	291.00	289.00	289.00	288.00	288.00	289.00	291.00	293.00	293.00	290.00	290.00	289.00	288.00	288.00	287.00	287.00	288.00	288.00	286.00	285.00	284.00	283.00	281.00	279.00	278.00	277.00	276.00	276.00	277.00	278.00	277.00	277.00	278.00	280.00	281.00	282.00	282.00	284.00	286.00	287.00	287.00	287.00	289.00	292.00	292.00	299.00	302.00	306.00	310.00	310.00	307.00	310.00	313.00	314.00	319.00	321.00	324.00	328.00	331.00	336.00	337.00	336.00	336.00	336.00	336.00	337.00	337.00	337.00	337.00	336.00	335.00	332.00	327.00	326.00	326.00	329.00	330.00	332.00	334.00	337.00	339.00	340.00	342.00	344.00	348.00	350.00	361.00	363.00	364.00	367.00	370.00	371.00	374.00	377.00	379.00	382.00	386.00	388.00	390.00	395.00	398.00	401.00	405.00
349.00	381.00	361.00	373.00	383.00	376.00	435.00	515.00	626.00	537.00	419.00	378.00	317.00	285.00	251.00	244.00	243.00	235.00	232.00	245.00	258.00	282.00	295.00	325.00	346.00	360.00	372.00	378.00	411.00	423.00	431.00	438.00	446.00	447.00	447.00	446.00	447.00	445.00	441.00	441.00	439.00	434.00	434.00	428.00	427.00	427.00	424.00	421.00	420.00	415.00	407.00	404.00	402.00	398.00	395.00	393.00	393.00	391.00	390.00	386.00	385.00	385.00	384.00	385.00	383.00	384.00	385.00	384.00	381.00	379.00	378.00	378.00	378.00	381.00	390.00	399.00	407.00	429.00	449.00	468.00	486.00	502.00	537.00	549.00	549.00	525.00	485.00	462.00	429.00	413.00	416.00	398.00	367.00	354.00	342.00	329.00	324.00	320.00	318.00	316.00	313.00	313.00	314.00	315.00	316.00	316.00	315.00	315.00	316.00	316.00	315.00	314.00	314.00	316.00	317.00	317.00	316.00	315.00	315.00	314.00	313.00	312.00	311.00	310.00	307.00	304.00	300.00	298.00	296.00	293.00	291.00	289.00	286.00	285.00	285.00	287.00	287.00	288.00	287.00	287.00	289.00	290.00	290.00	291.00	297.00	296.00	291.00	292.00	293.00	295.00	294.00	292.00	292.00	291.00	289.00	289.00	288.00	288.00	289.00	291.00	293.00	293.00	290.00	290.00	289.00	288.00	288.00	287.00	287.00	288.00	288.00	286.00	285.00	284.00	283.00	281.00	279.00	278.00	277.00	276.00	276.00	277.00	278.00	277.00	277.00	278.00	280.00	281.00	282.00	282.00	284.00	286.00	287.00	287.00	287.00	289.00	292.00	292.00	299.00	302.00	306.00	310.00	310.00	307.00	310.00	313.00	314.00	319.00	321.00	324.00	328.00	331.00	336.00	337.00	336.00	336.00	336.00	336.00	337.00	337.00	337.00	337.00	336.00	335.00	332.00	327.00	326.00	326.00	329.00	330.00	332.00	334.00	337.00	339.00	340.00	342.00	344.00	348.00	350.00	361.00	363.00	364.00	367.00	370.00	371.00	374.00	377.00	379.00	382.00	386.00	388.00	390.00	395.00	398.00	401.00	405.00
455.00	514.00	496.00	492.00	536.00	415.00	439.00	525.00	625.00	518.00	404.00	351.00	302.00	281.00	250.00	241.00	238.00	234.00	234.00	241.00	250.00	287.00	300.00	362.00	382.00	405.00	417.00	421.00	427.00	436.00	442.00	448.00	459.00	461.00	461.00	461.00	459.00	453.00	451.00	450.00	450.00	447.00	446.00	441.00	440.00	436.00	432.00	429.00	426.00	423.00	417.00	414.00	412.00	408.00	406.00	403.00	402.00	402.00	401.00	399.00	395.00	395.00	394.00	393.00	391.00	390.00	389.00	388.00	386.00	384.00	382.00	381.00	380.00	382.00	387.00	393.00	406.00	426.00	439.00	454.00	470.00	482.00	532.00	543.00	551.00	554.00	505.00	489.00	470.00	459.00	462.00	426.00	388.00	373.00	359.00	335.00	327.00	320.00	318.00	317.00	312.00	312.00	313.00	314.00	314.00	314.00	314.00	314.00	313.00	313.00	313.00	312.00	313.00	315.00	314.00	315.00	315.00	313.00	312.00	312.00	311.00	311.00	310.00	308.00	306.00	305.00	301.00	299.00	296.00	293.00	290.00	287.00	285.00	284.00	282.00	282.00	282.00	282.00	282.00	282.00	284.00	286.00	287.00	288.00	288.00	287.00	287.00	288.00	290.00	291.00	291.00	290.00	290.00	289.00	287.00	287.00	286.00	286.00	288.00	288.00	289.00	288.00	288.00	288.00	287.00	286.00	285.00	285.00	285.00	286.00	285.00	283.00	282.00	281.00	281.00	280.00	279.00	278.00	277.00	276.00	275.00	276.00	276.00	275.00	274.00	274.00	275.00	275.00	275.00	277.00	279.00	280.00	282.00	281.00	281.00	283.00	286.00	286.00	291.00	293.00	296.00	302.00	302.00	300.00	302.00	304.00	307.00	313.00	314.00	316.00	318.00	320.00	324.00	325.00	327.00	327.00	329.00	330.00	330.00	330.00	330.00	332.00	332.00	332.00	330.00	325.00	324.00	325.00	326.00	327.00	328.00	331.00	332.00	333.00	336.00	339.00	342.00	345.00	349.00	357.00	359.00	360.00	362.00	367.00	368.00	370.00	373.00	375.00	380.00	384.00	386.00	388.00	393.00	397.00	399.00	401.00
456.00	437.00	417.00	449.00	515.00	436.00	449.00	522.00	617.00	518.00	386.00	340.00	295.00	273.00	247.00	241.00	234.00	224.00	231.00	233.00	245.00	273.00	288.00	360.00	393.00	414.00	428.00	436.00	441.00	450.00	454.00	457.00	469.00	470.00	468.00	467.00	467.00	467.00	466.00	463.00	463.00	459.00	459.00	454.00	452.00	447.00	441.00	438.00	437.00	436.00	425.00	424.00	422.00	418.00	416.00	414.00	413.00	411.00	409.00	407.00	405.00	405.00	403.00	402.00	399.00	396.00	394.00	391.00	386.00	385.00	383.00	381.00	382.00	384.00	386.00	389.00	398.00	418.00	429.00	445.00	453.00	467.00	523.00	525.00	531.00	539.00	521.00	510.00	497.00	484.00	478.00	441.00	399.00	381.00	368.00	343.00	332.00	324.00	319.00	317.00	313.00	311.00	311.00	311.00	312.00	313.00	314.00	312.00	311.00	312.00	312.00	312.00	312.00	313.00	313.00	314.00	314.00	314.00	314.00	314.00	312.00	310.00	308.00	306.00	305.00	304.00	301.00	300.00	297.00	294.00	290.00	287.00	285.00	284.00	282.00	282.00	281.00	280.00	280.00	280.00	281.00	281.00	281.00	283.00	285.00	285.00	285.00	285.00	286.00	288.00	288.00	287.00	287.00	287.00	286.00	284.00	284.00	284.00	285.00	286.00	286.00	284.00	283.00	284.00	285.00	284.00	283.00	282.00	281.00	281.00	281.00	281.00	280.00	280.00	279.00	279.00	280.00	280.00	278.00	277.00	274.00	274.00	273.00	273.00	273.00	273.00	273.00	273.00	273.00	273.00	273.00	273.00	274.00	274.00	276.00	278.00	280.00	282.00	285.00	287.00	294.00	301.00	293.00	294.00	295.00	297.00	299.00	305.00	308.00	309.00	311.00	312.00	316.00	318.00	320.00	322.00	323.00	323.00	324.00	324.00	325.00	327.00	327.00	328.00	327.00	322.00	323.00	325.00	325.00	325.00	325.00	326.00	328.00	330.00	333.00	338.00	340.00	342.00	346.00	353.00	355.00	357.00	359.00	363.00	364.00	366.00	369.00	371.00	377.00	382.00	384.00	386.00	391.00	394.00	396.00	399.00
456.00	437.00	417.00	449.00	515.00	436.00	449.00	522.00	617.00	518.00	386.00	340.00	295.00	273.00	247.00	241.00	234.00	224.00	231.00	233.00	245.00	273.00	288.00	360.00	393.00	414.00	428.00	436.00	441.00	450.00	454.00	457.00	469.00	470.00	468.00	467.00	467.00	467.00	466.00	463.00	463.00	459.00	459.00	454.00	452.00	447.00	441.00	438.00	437.00	436.00	425.00	424.00	422.00	418.00	416.00	414.00	413.00	411.00	409.00	407.00	405.00	405.00	403.00	402.00	399.00	396.00	394.00	391.00	386.00	385.00	383.00	381.00	382.00	384.00	386.00	389.00	398.00	418.00	429.00	445.00	453.00	467.00	523.00	525.00	531.00	539.00	521.00	510.00	497.00	484.00	478.00	441.00	399.00	381.00	368.00	343.00	332.00	324.00	319.00	317.00	313.00	311.00	311.00	311.00	312.00	313.00	314.00	312.00	311.00	312.00	312.00	312.00	312.00	313.00	313.00	314.00	314.00	314.00	314.00	314.00	312.00	310.00	308.00	306.00	305.00	304.00	301.00	300.00	297.00	294.00	290.00	287.00	285.00	284.00	282.00	282.00	281.00	280.00	280.00	280.00	281.00	281.00	281.00	283.00	285.00	285.00	285.00	285.00	286.00	288.00	288.00	287.00	287.00	287.00	286.00	284.00	284.00	284.00	285.00	286.00	286.00	284.00	283.00	284.00	285.00	284.00	283.00	282.00	281.00	281.00	281.00	281.00	280.00	280.00	279.00	279.00	280.00	280.00	278.00	277.00	274.00	274.00	273.00	273.00	273.00	273.00	273.00	273.00	273.00	273.00	273.00	273.00	274.00	274.00	276.00	278.00	280.00	282.00	285.00	287.00	294.00	301.00	293.00	294.00	295.00	297.00	299.00	305.00	308.00	309.00	311.00	312.00	316.00	318.00	320.00	322.00	323.00	323.00	324.00	324.00	325.00	327.00	327.00	328.00	327.00	322.00	323.00	325.00	325.00	325.00	325.00	326.00	328.00	330.00	333.00	338.00	340.00	342.00	346.00	353.00	355.00	357.00	359.00	363.00	364.00	366.00	369.00	371.00	377.00	382.00	384.00	386.00	391.00	394.00	396.00	399.00
456.00	437.00	417.00	449.00	515.00	436.00	449.00	522.00	617.00	518.00	386.00	340.00	295.00	273.00	247.00	241.00	234.00	224.00	231.00	233.00	245.00	273.00	288.00	360.00	393.00	414.00	428.00	436.00	441.00	450.00	454.00	457.00	469.00	470.00	468.00	467.00	467.00	467.00	466.00	463.00	463.00	459.00	459.00	454.00	452.00	447.00	441.00	438.00	437.00	436.00	425.00	424.00	422.00	418.00	416.00	414.00	413.00	411.00	409.00	407.00	405.00	405.00	403.00	402.00	399.00	396.00	394.00	391.00	386.00	385.00	383.00	381.00	382.00	384.00	386.00	389.00	398.00	418.00	429.00	445.00	453.00	467.00	523.00	525.00	531.00	539.00	521.00	510.00	497.00	484.00	478.00	441.00	399.00	381.00	368.00	343.00	332.00	324.00	319.00	317.00	313.00	311.00	311.00	311.00	312.00	313.00	314.00	312.00	311.00	312.00	312.00	312.00	312.00	313.00	313.00	314.00	314.00	314.00	314.00	314.00	312.00	310.00	308.00	306.00	305.00	304.00	301.00	300.00	297.00	294.00	290.00	287.00	285.00	284.00	282.00	282.00	281.00	280.00	280.00	280.00	281.00	281.00	281.00	283.00	285.00	285.00	285.00	285.00	286.00	288.00	288.00	287.00	287.00	287.00	286.00	284.00	284.00	284.00	285.00	286.00	286.00	284.00	283.00	284.00	285.00	284.00	283.00	282.00	281.00	281.00	281.00	281.00	280.00	280.00	279.00	279.00	280.00	280.00	278.00	277.00	274.00	274.00	273.00	273.00	273.00	273.00	273.00	273.00	273.00	273.00	273.00	273.00	274.00	274.00	276.00	278.00	280.00	282.00	285.00	287.00	294.00	301.00	293.00	294.00	295.00	297.00	299.00	305.00	308.00	309.00	311.00	312.00	316.00	318.00	320.00	322.00	323.00	323.00	324.00	324.00	325.00	327.00	327.00	328.00	327.00	322.00	323.00	325.00	325.00	325.00	325.00	326.00	328.00	330.00	333.00	338.00	340.00	342.00	346.00	353.00	355.00	357.00	359.00	363.00	364.00	366.00	369.00	371.00	377.00	382.00	384.00	386.00	391.00	394.00	396.00	399.00
443.00	360.00	335.00	363.00	380.00	371.00	418.00	480.00	584.00	530.00	388.00	354.00	296.00	271.00	244.00	241.00	234.00	221.00	217.00	262.00	284.00	281.00	305.00	360.00	388.00	409.00	429.00	441.00	452.00	460.00	465.00	467.00	472.00	475.00	476.00	477.00	479.00	479.00	476.00	475.00	472.00	470.00	469.00	467.00	462.00	459.00	451.00	451.00	448.00	443.00	440.00	437.00	432.00	431.00	429.00	426.00	422.00	420.00	418.00	416.00	413.00	412.00	412.00	411.00	405.00	400.00	396.00	392.00	383.00	381.00	380.00	381.00	382.00	385.00	385.00	385.00	387.00	409.00	420.00	432.00	447.00	461.00	506.00	512.00	517.00	520.00	521.00	513.00	500.00	488.00	478.00	441.00	403.00	387.00	376.00	348.00	338.00	330.00	323.00	319.00	315.00	312.00	311.00	310.00	311.00	312.00	312.00	311.00	310.00	311.00	311.00	311.00	311.00	313.00	313.00	313.00	313.00	312.00	312.00	312.00	310.00	309.00	307.00	305.00	304.00	304.00	302.00	300.00	298.00	295.00	292.00	288.00	286.00	285.00	282.00	282.00	282.00	282.00	280.00	280.00	280.00	280.00	279.00	280.00	283.00	283.00	282.00	282.00	282.00	285.00	285.00	285.00	285.00	285.00	284.00	283.00	283.00	283.00	283.00	284.00	285.00	282.00	282.00	282.00	282.00	282.00	282.00	281.00	281.00	280.00	279.00	279.00	279.00	279.00	279.00	278.00	277.00	278.00	278.00	275.00	273.00	273.00	273.00	273.00	273.00	273.00	273.00	273.00	273.00	273.00	273.00	273.00	273.00	273.00	273.00	273.00	274.00	275.00	279.00	282.00	289.00	291.00	286.00	289.00	290.00	291.00	292.00	296.00	299.00	302.00	304.00	306.00	310.00	312.00	314.00	316.00	318.00	318.00	319.00	319.00	320.00	322.00	321.00	319.00	319.00	321.00	322.00	324.00	322.00	322.00	323.00	322.00	323.00	325.00	330.00	333.00	336.00	339.00	343.00	350.00	351.00	353.00	355.00	359.00	361.00	364.00	366.00	368.00	373.00	379.00	381.00	383.00	390.00	392.00	394.00	397.00
303.00	381.00	403.00	428.00	434.00	403.00	419.00	465.00	538.00	524.00	398.00	357.00	297.00	272.00	239.00	225.00	218.00	206.00	222.00	277.00	296.00	282.00	293.00	361.00	405.00	419.00	428.00	439.00	457.00	464.00	470.00	476.00	483.00	485.00	485.00	489.00	493.00	492.00	487.00	487.00	484.00	484.00	477.00	476.00	472.00	469.00	460.00	458.00	455.00	453.00	449.00	448.00	453.00	448.00	443.00	435.00	434.00	432.00	430.00	427.00	421.00	418.00	417.00	415.00	407.00	401.00	395.00	390.00	381.00	379.00	377.00	378.00	379.00	382.00	384.00	384.00	384.00	400.00	410.00	425.00	440.00	452.00	497.00	513.00	519.00	520.00	514.00	511.00	500.00	488.00	476.00	437.00	398.00	388.00	379.00	354.00	342.00	334.00	326.00	322.00	316.00	314.00	311.00	309.00	310.00	311.00	310.00	310.00	310.00	310.00	310.00	310.00	311.00	311.00	312.00	312.00	312.00	312.00	312.00	312.00	310.00	310.00	309.00	307.00	307.00	306.00	306.00	305.00	302.00	300.00	298.00	293.00	290.00	290.00	285.00	285.00	284.00	284.00	284.00	283.00	284.00	281.00	281.00	279.00	281.00	281.00	281.00	281.00	281.00	282.00	282.00	281.00	281.00	282.00	282.00	282.00	282.00	282.00	282.00	282.00	283.00	282.00	282.00	282.00	282.00	282.00	282.00	282.00	282.00	281.00	281.00	280.00	280.00	279.00	278.00	279.00	276.00	277.00	276.00	274.00	273.00	273.00	273.00	273.00	273.00	273.00	273.00	273.00	273.00	273.00	273.00	273.00	273.00	273.00	273.00	273.00	273.00	273.00	273.00	274.00	279.00	282.00	280.00	281.00	283.00	284.00	286.00	290.00	292.00	295.00	297.00	300.00	302.00	305.00	308.00	308.00	310.00	311.00	313.00	313.00	312.00	313.00	314.00	315.00	318.00	320.00	321.00	321.00	320.00	320.00	320.00	319.00	319.00	320.00	330.00	336.00	338.00	339.00	340.00	346.00	348.00	350.00	352.00	356.00	359.00	361.00	364.00	365.00	370.00	376.00	378.00	379.00	385.00	388.00	390.00	392.00
