486.00	596.00	643.00	695.00	822.00	868.00	897.00	903.00	905.00	922.00	917.00	929.00	944.00	947.00	1105.00	1176.00	1276.00	1342.00	1388.00	1443.00	1400.00	1346.00	1328.00	1399.00	1287.00	1154.00	1037.00	944.00	842.00	800.00	742.00	709.00	748.00	803.00	838.00	833.00	752.00	599.00	594.00	606.00	642.00	845.00	1016.00	1095.00	1100.00	1063.00	912.00	960.00	993.00	976.00	889.00	812.00	730.00	670.00	629.00	566.00	565.00	582.00	622.00	672.00	684.00	681.00	671.00	642.00	554.00	534.00	529.00	581.00	658.00	694.00	716.00	748.00	763.00	771.00	774.00	753.00	728.00	735.00	735.00	736.00	742.00	743.00	746.00	746.00	739.00	733.00	722.00	722.00	715.00	716.00	720.00	727.00	737.00	743.00	752.00	762.00	769.00	774.00	782.00	785.00	794.00	804.00	821.00	838.00	892.00	917.00	942.00	961.00	962.00	1015.00	1053.00	1094.00	1136.00	1216.00	1207.00	1180.00	1176.00	1174.00	1191.00	1190.00	1132.00	1022.00	835.00	791.00	771.00	757.00	759.00	824.00	846.00	884.00	978.00	1006.00	1016.00	1015.00	1021.00	1030.00	1056.00	1074.00	1083.00	1089.00	1046.00	1015.00	1003.00	994.00	987.00	959.00	950.00	949.00	965.00	1010.00	1044.00	1049.00	1055.00	1075.00	1089.00	1093.00	1061.00	1000.00	925.00	889.00	847.00	767.00	735.00	728.00	716.00	696.00	684.00	707.00	715.00	705.00	680.00	577.00	537.00	521.00	514.00	513.00	541.00	549.00	558.00	567.00	586.00	598.00	678.00	705.00	739.00	810.00	836.00	889.00	917.00	956.00	962.00	969.00	980.00	1008.00	1099.00	1136.00	1172.00	1205.00	1279.00	1302.00	1308.00	1310.00	1324.00	1341.00	1327.00	1314.00	1301.00	1307.00	1349.00	1377.00	1394.00	1426.00	1491.00	1483.00	1470.00	1458.00	1383.00	1322.00	1302.00	1300.00	1299.00	1297.00	1294.00	1290.00	1269.00	1108.00	1051.00	1004.00	933.00	883.00	879.00	890.00	901.00	907.00	905.00	916.00	946.00	979.00	1001.00	992.00	979.00	970.00	965.00	964.00	964.00	953.00	947.00	944.00	933.00	937.00	943.00	930.00	787.00	690.00	663.00	614.00
486.00	596.00	643.00	695.00	822.00	868.00	897.00	903.00	905.00	922.00	917.00	929.00	944.00	947.00	1105.00	1176.00	1276.00	1342.00	1388.00	1443.00	1400.00	1346.00	1328.00	1399.00	1287.00	1154.00	1037.00	944.00	842.00	800.00	742.00	709.00	748.00	803.00	838.00	833.00	752.00	599.00	594.00	606.00	642.00	845.00	1016.00	1095.00	1100.00	1063.00	912.00	960.00	993.00	976.00	889.00	812.00	730.00	670.00	629.00	566.00	565.00	582.00	622.00	672.00	684.00	681.00	671.00	642.00	554.00	534.00	529.00	581.00	658.00	694.00	716.00	748.00	763.00	771.00	774.00	753.00	728.00	735.00	735.00	736.00	742.00	743.00	746.00	746.00	739.00	733.00	722.00	722.00	715.00	716.00	720.00	727.00	737.00	743.00	752.00	762.00	769.00	774.00	782.00	785.00	794.00	804.00	821.00	838.00	892.00	917.00	942.00	961.00	962.00	1015.00	1053.00	1094.00	1136.00	1216.00	1207.00	1180.00	1176.00	1174.00	1191.00	1190.00	1132.00	1022.00	835.00	791.00	771.00	757.00	759.00	824.00	846.00	884.00	978.00	1006.00	1016.00	1015.00	1021.00	1030.00	1056.00	1074.00	1083.00	1089.00	1046.00	1015.00	1003.00	994.00	987.00	959.00	950.00	949.00	965.00	1010.00	1044.00	1049.00	1055.00	1075.00	1089.00	1093.00	1061.00	1000.00	925.00	889.00	847.00	767.00	735.00	728.00	716.00	696.00	684.00	707.00	715.00	705.00	680.00	577.00	537.00	521.00	514.00	513.00	541.00	549.00	558.00	567.00	586.00	598.00	678.00	705.00	739.00	810.00	836.00	889.00	917.00	956.00	962.00	969.00	980.00	1008.00	1099.00	1136.00	1172.00	1205.00	1279.00	1302.00	1308.00	1310.00	1324.00	1341.00	1327.00	1314.00	1301.00	1307.00	1349.00	1377.00	1394.00	1426.00	1491.00	1483.00	1470.00	1458.00	1383.00	1322.00	1302.00	1300.00	1299.00	1297.00	1294.00	1290.00	1269.00	1108.00	1051.00	1004.00	933.00	883.00	879.00	890.00	901.00	907.00	905.00	916.00	946.00	979.00	1001.00	992.00	979.00	970.00	965.00	964.00	964.00	953.00	947.00	944.00	933.00	937.00	943.00	930.00	787.00	690.00	663.00	614.00
486.00	596.00	643.00	695.00	822.00	868.00	897.00	903.00	905.00	922.00	917.00	929.00	944.00	947.00	1105.00	1176.00	1276.00	1342.00	1388.00	1443.00	1400.00	1346.00	1328.00	1399.00	1287.00	1154.00	1037.00	944.00	842.00	800.00	742.00	709.00	748.00	803.00	838.00	833.00	752.00	599.00	594.00	606.00	642.00	845.00	1016.00	1095.00	1100.00	1063.00	912.00	960.00	993.00	976.00	889.00	812.00	730.00	670.00	629.00	566.00	565.00	582.00	622.00	672.00	684.00	681.00	671.00	642.00	554.00	534.00	529.00	581.00	658.00	694.00	716.00	748.00	763.00	771.00	774.00	753.00	728.00	735.00	735.00	736.00	742.00	743.00	746.00	746.00	739.00	733.00	722.00	722.00	715.00	716.00	720.00	727.00	737.00	743.00	752.00	762.00	769.00	774.00	782.00	785.00	794.00	804.00	821.00	838.00	892.00	917.00	942.00	961.00	962.00	1015.00	1053.00	1094.00	1136.00	1216.00	1207.00	1180.00	1176.00	1174.00	1191.00	1190.00	1132.00	1022.00	835.00	791.00	771.00	757.00	759.00	824.00	846.00	884.00	978.00	1006.00	1016.00	1015.00	1021.00	1030.00	1056.00	1074.00	1083.00	1089.00	1046.00	1015.00	1003.00	994.00	987.00	959.00	950.00	949.00	965.00	1010.00	1044.00	1049.00	1055.00	1075.00	1089.00	1093.00	1061.00	1000.00	925.00	889.00	847.00	767.00	735.00	728.00	716.00	696.00	684.00	707.00	715.00	705.00	680.00	577.00	537.00	521.00	514.00	513.00	541.00	549.00	558.00	567.00	586.00	598.00	678.00	705.00	739.00	810.00	836.00	889.00	917.00	956.00	962.00	969.00	980.00	1008.00	1099.00	1136.00	1172.00	1205.00	1279.00	1302.00	1308.00	1310.00	1324.00	1341.00	1327.00	1314.00	1301.00	1307.00	1349.00	1377.00	1394.00	1426.00	1491.00	1483.00	1470.00	1458.00	1383.00	1322.00	1302.00	1300.00	1299.00	1297.00	1294.00	1290.00	1269.00	1108.00	1051.00	1004.00	933.00	883.00	879.00	890.00	901.00	907.00	905.00	916.00	946.00	979.00	1001.00	992.00	979.00	970.00	965.00	964.00	964.00	953.00	947.00	944.00	933.00	937.00	943.00	930.00	787.00	690.00	663.00	614.00
497.00	557.00	571.00	595.00	619.00	635.00	706.00	757.00	796.00	833.00	847.00	842.00	861.00	890.00	1152.00	1201.00	1270.00	1316.00	1344.00	1336.00	1331.00	1369.00	1398.00	1397.00	1380.00	1354.00	1249.00	1105.00	841.00	754.00	694.00	657.00	627.00	636.00	664.00	675.00	621.00	575.00	594.00	621.00	658.00	834.00	973.00	1098.00	1176.00	1169.00	1050.00	1105.00	1119.00	1070.00	936.00	870.00	795.00	730.00	673.00	591.00	555.00	557.00	591.00	659.00	692.00	710.00	706.00	660.00	569.00	546.00	528.00	579.00	615.00	628.00	643.00	643.00	640.00	646.00	652.00	657.00	660.00	679.00	681.00	682.00	684.00	688.00	682.00	681.00	681.00	681.00	687.00	681.00	680.00	683.00	691.00	710.00	720.00	733.00	743.00	757.00	759.00	761.00	765.00	767.00	789.00	804.00	826.00	851.00	968.00	1008.00	1034.00	1033.00	1042.00	1076.00	1091.00	1114.00	1144.00	1224.00	1249.00	1263.00	1275.00	1288.00	1270.00	1129.00	1039.00	955.00	802.00	776.00	755.00	746.00	747.00	779.00	819.00	860.00	935.00	967.00	1001.00	1035.00	1087.00	1122.00	1136.00	1151.00	1157.00	1156.00	1056.00	1034.00	1035.00	1041.00	1041.00	1025.00	1018.00	1018.00	1023.00	1041.00	1094.00	1100.00	1100.00	1094.00	1085.00	1073.00	1054.00	1035.00	992.00	958.00	926.00	844.00	757.00	723.00	689.00	650.00	631.00	624.00	602.00	570.00	534.00	493.00	502.00	512.00	519.00	532.00	556.00	565.00	575.00	584.00	638.00	677.00	743.00	770.00	786.00	800.00	815.00	841.00	868.00	893.00	899.00	928.00	959.00	1005.00	1120.00	1185.00	1236.00	1284.00	1367.00	1396.00	1413.00	1432.00	1447.00	1438.00	1422.00	1399.00	1374.00	1313.00	1341.00	1388.00	1405.00	1439.00	1489.00	1457.00	1420.00	1396.00	1297.00	1239.00	1209.00	1216.00	1239.00	1242.00	1235.00	1219.00	1193.00	1160.00	1097.00	1053.00	982.00	905.00	849.00	847.00	857.00	869.00	870.00	871.00	894.00	927.00	965.00	994.00	993.00	983.00	972.00	967.00	961.00	937.00	925.00	918.00	908.00	903.00	898.00	861.00	700.00	670.00	644.00	605.00
569.00	591.00	610.00	617.00	648.00	666.00	683.00	685.00	685.00	692.00	692.00	673.00	647.00	643.00	812.00	910.00	1020.00	1101.00	1136.00	1103.00	1165.00	1226.00	1215.00	1169.00	1241.00	1308.00	1341.00	1301.00	1036.00	951.00	836.00	717.00	616.00	598.00	582.00	559.00	546.00	561.00	582.00	612.00	665.00	868.00	977.00	1054.00	1097.00	1107.00	1102.00	1097.00	1068.00	997.00	869.00	843.00	802.00	752.00	696.00	604.00	531.00	517.00	531.00	568.00	576.00	577.00	581.00	563.00	538.00	522.00	507.00	509.00	519.00	534.00	542.00	555.00	564.00	587.00	595.00	604.00	610.00	634.00	636.00	634.00	634.00	632.00	642.00	652.00	664.00	678.00	692.00	672.00	666.00	671.00	677.00	692.00	705.00	720.00	728.00	722.00	732.00	738.00	748.00	759.00	786.00	801.00	824.00	853.00	927.00	959.00	977.00	993.00	998.00	1026.00	1041.00	1057.00	1079.00	1141.00	1172.00	1186.00	1196.00	1204.00	1137.00	993.00	934.00	879.00	775.00	756.00	744.00	741.00	744.00	775.00	815.00	841.00	894.00	968.00	1021.00	1077.00	1150.00	1191.00	1186.00	1175.00	1164.00	1152.00	1051.00	1045.00	1054.00	1085.00	1135.00	1150.00	1146.00	1127.00	1116.00	1089.00	1083.00	1085.00	1082.00	1075.00	1078.00	1082.00	1092.00	1095.00	1072.00	1039.00	998.00	909.00	803.00	764.00	716.00	661.00	601.00	534.00	517.00	503.00	500.00	501.00	519.00	532.00	544.00	556.00	578.00	595.00	631.00	679.00	771.00	807.00	870.00	896.00	908.00	910.00	924.00	931.00	941.00	954.00	962.00	972.00	980.00	991.00	1027.00	1085.00	1160.00	1219.00	1331.00	1389.00	1439.00	1483.00	1492.00	1493.00	1493.00	1488.00	1460.00	1394.00	1333.00	1318.00	1349.00	1389.00	1424.00	1413.00	1395.00	1363.00	1281.00	1228.00	1195.00	1179.00	1181.00	1183.00	1163.00	1111.00	1056.00	1059.00	1047.00	1005.00	956.00	901.00	851.00	832.00	817.00	817.00	828.00	828.00	842.00	865.00	887.00	950.00	974.00	981.00	977.00	972.00	961.00	930.00	915.00	899.00	865.00	823.00	773.00	710.00	677.00	657.00	636.00	606.00
569.00	591.00	610.00	617.00	648.00	666.00	683.00	685.00	685.00	692.00	692.00	673.00	647.00	643.00	812.00	910.00	1020.00	1101.00	1136.00	1103.00	1165.00	1226.00	1215.00	1169.00	1241.00	1308.00	1341.00	1301.00	1036.00	951.00	836.00	717.00	616.00	598.00	582.00	559.00	546.00	561.00	582.00	612.00	665.00	868.00	977.00	1054.00	1097.00	1107.00	1102.00	1097.00	1068.00	997.00	869.00	843.00	802.00	752.00	696.00	604.00	531.00	517.00	531.00	568.00	576.00	577.00	581.00	563.00	538.00	522.00	507.00	509.00	519.00	534.00	542.00	555.00	564.00	587.00	595.00	604.00	610.00	634.00	636.00	634.00	634.00	632.00	642.00	652.00	664.00	678.00	692.00	672.00	666.00	671.00	677.00	692.00	705.00	720.00	728.00	722.00	732.00	738.00	748.00	759.00	786.00	801.00	824.00	853.00	927.00	959.00	977.00	993.00	998.00	1026.00	1041.00	1057.00	1079.00	1141.00	1172.00	1186.00	1196.00	1204.00	1137.00	993.00	934.00	879.00	775.00	756.00	744.00	741.00	744.00	775.00	815.00	841.00	894.00	968.00	1021.00	1077.00	1150.00	1191.00	1186.00	1175.00	1164.00	1152.00	1051.00	1045.00	1054.00	1085.00	1135.00	1150.00	1146.00	1127.00	1116.00	1089.00	1083.00	1085.00	1082.00	1075.00	1078.00	1082.00	1092.00	1095.00	1072.00	1039.00	998.00	909.00	803.00	764.00	716.00	661.00	601.00	534.00	517.00	503.00	500.00	501.00	519.00	532.00	544.00	556.00	578.00	595.00	631.00	679.00	771.00	807.00	870.00	896.00	908.00	910.00	924.00	931.00	941.00	954.00	962.00	972.00	980.00	991.00	1027.00	1085.00	1160.00	1219.00	1331.00	1389.00	1439.00	1483.00	1492.00	1493.00	1493.00	1488.00	1460.00	1394.00	1333.00	1318.00	1349.00	1389.00	1424.00	1413.00	1395.00	1363.00	1281.00	1228.00	1195.00	1179.00	1181.00	1183.00	1163.00	1111.00	1056.00	1059.00	1047.00	1005.00	956.00	901.00	851.00	832.00	817.00	817.00	828.00	828.00	842.00	865.00	887.00	950.00	974.00	981.00	977.00	972.00	961.00	930.00	915.00	899.00	865.00	823.00	773.00	710.00	677.00	657.00	636.00	606.00
686.00	671.00	680.00	694.00	745.00	769.00	807.00	817.00	817.00	818.00	815.00	790.00	753.00	680.00	617.00	656.00	706.00	757.00	804.00	873.00	947.00	1002.00	1028.00	1044.00	1138.00	1190.00	1223.00	1239.00	1178.00	1070.00	970.00	867.00	670.00	613.00	577.00	521.00	511.00	534.00	558.00	608.00	702.00	904.00	970.00	1001.00	993.00	970.00	945.00	942.00	932.00	914.00	858.00	832.00	804.00	754.00	690.00	579.00	487.00	465.00	455.00	455.00	460.00	473.00	490.00	499.00	507.00	497.00	478.00	450.00	449.00	460.00	479.00	498.00	513.00	555.00	574.00	586.00	606.00	618.00	620.00	622.00	631.00	639.00	669.00	685.00	702.00	715.00	683.00	666.00	657.00	650.00	651.00	656.00	661.00	665.00	674.00	684.00	693.00	708.00	737.00	750.00	776.00	786.00	799.00	814.00	836.00	842.00	853.00	871.00	884.00	900.00	913.00	918.00	934.00	971.00	1002.00	1035.00	1042.00	1006.00	1000.00	937.00	912.00	840.00	751.00	741.00	734.00	736.00	741.00	775.00	814.00	847.00	912.00	1021.00	1074.00	1131.00	1178.00	1198.00	1180.00	1167.00	1155.00	1144.00	1135.00	1110.00	1097.00	1109.00	1141.00	1226.00	1237.00	1231.00	1216.00	1162.00	1071.00	1048.00	1035.00	1004.00	1001.00	1008.00	1033.00	1051.00	1064.00	1052.00	1026.00	929.00	840.00	787.00	731.00	649.00	575.00	520.00	503.00	498.00	509.00	518.00	540.00	559.00	576.00	589.00	618.00	667.00	706.00	764.00	804.00	846.00	942.00	993.00	1024.00	1082.00	1100.00	1115.00	1131.00	1155.00	1161.00	1158.00	1143.00	1120.00	1124.00	1136.00	1163.00	1182.00	1260.00	1335.00	1406.00	1457.00	1465.00	1440.00	1461.00	1452.00	1428.00	1340.00	1276.00	1245.00	1255.00	1273.00	1329.00	1342.00	1333.00	1322.00	1302.00	1275.00	1207.00	1135.00	1100.00	1057.00	1021.00	995.00	972.00	952.00	936.00	921.00	902.00	893.00	859.00	841.00	822.00	803.00	795.00	798.00	799.00	816.00	836.00	872.00	886.00	904.00	944.00	1000.00	993.00	966.00	952.00	923.00	855.00	808.00	747.00	695.00	663.00	644.00	625.00	605.00
686.00	671.00	680.00	694.00	745.00	769.00	807.00	817.00	817.00	818.00	815.00	790.00	753.00	680.00	617.00	656.00	706.00	757.00	804.00	873.00	947.00	1002.00	1028.00	1044.00	1138.00	1190.00	1223.00	1239.00	1178.00	1070.00	970.00	867.00	670.00	613.00	577.00	521.00	511.00	534.00	558.00	608.00	702.00	904.00	970.00	1001.00	993.00	970.00	945.00	942.00	932.00	914.00	858.00	832.00	804.00	754.00	690.00	579.00	487.00	465.00	455.00	455.00	460.00	473.00	490.00	499.00	507.00	497.00	478.00	450.00	449.00	460.00	479.00	498.00	513.00	555.00	574.00	586.00	606.00	618.00	620.00	622.00	631.00	639.00	669.00	685.00	702.00	715.00	683.00	666.00	657.00	650.00	651.00	656.00	661.00	665.00	674.00	684.00	693.00	708.00	737.00	750.00	776.00	786.00	799.00	814.00	836.00	842.00	853.00	871.00	884.00	900.00	913.00	918.00	934.00	971.00	1002.00	1035.00	1042.00	1006.00	1000.00	937.00	912.00	840.00	751.00	741.00	734.00	736.00	741.00	775.00	814.00	847.00	912.00	1021.00	1074.00	1131.00	1178.00	1198.00	1180.00	1167.00	1155.00	1144.00	1135.00	1110.00	1097.00	1109.00	1141.00	1226.00	1237.00	1231.00	1216.00	1162.00	1071.00	1048.00	1035.00	1004.00	1001.00	1008.00	1033.00	1051.00	1064.00	1052.00	1026.00	929.00	840.00	787.00	731.00	649.00	575.00	520.00	503.00	498.00	509.00	518.00	540.00	559.00	576.00	589.00	618.00	667.00	706.00	764.00	804.00	846.00	942.00	993.00	1024.00	1082.00	1100.00	1115.00	1131.00	1155.00	1161.00	1158.00	1143.00	1120.00	1124.00	1136.00	1163.00	1182.00	1260.00	1335.00	1406.00	1457.00	1465.00	1440.00	1461.00	1452.00	1428.00	1340.00	1276.00	1245.00	1255.00	1273.00	1329.00	1342.00	1333.00	1322.00	1302.00	1275.00	1207.00	1135.00	1100.00	1057.00	1021.00	995.00	972.00	952.00	936.00	921.00	902.00	893.00	859.00	841.00	822.00	803.00	795.00	798.00	799.00	816.00	836.00	872.00	886.00	904.00	944.00	1000.00	993.00	966.00	952.00	923.00	855.00	808.00	747.00	695.00	663.00	644.00	625.00	605.00
862.00	865.00	838.00	812.00	814.00	843.00	889.00	902.00	911.00	925.00	931.00	912.00	858.00	756.00	586.00	578.00	576.00	577.00	580.00	602.00	638.00	683.00	750.00	957.00	1076.00	1113.00	1132.00	1143.00	1114.00	1086.00	1049.00	982.00	780.00	708.00	617.00	523.00	504.00	503.00	518.00	573.00	664.00	832.00	848.00	838.00	838.00	828.00	816.00	820.00	809.00	792.00	729.00	702.00	671.00	621.00	571.00	489.00	441.00	422.00	407.00	398.00	404.00	420.00	437.00	441.00	441.00	437.00	434.00	426.00	424.00	441.00	464.00	483.00	502.00	541.00	557.00	571.00	579.00	618.00	628.00	636.00	632.00	614.00	610.00	619.00	621.00	624.00	639.00	635.00	626.00	625.00	626.00	613.00	615.00	633.00	654.00	679.00	715.00	753.00	792.00	804.00	819.00	831.00	844.00	849.00	861.00	868.00	875.00	877.00	879.00	901.00	896.00	908.00	921.00	958.00	969.00	986.00	992.00	950.00	927.00	912.00	895.00	846.00	744.00	736.00	729.00	730.00	738.00	772.00	811.00	857.00	930.00	1025.00	1084.00	1132.00	1164.00	1171.00	1161.00	1151.00	1145.00	1162.00	1225.00	1169.00	1137.00	1139.00	1153.00	1210.00	1234.00	1249.00	1254.00	1149.00	1033.00	1001.00	989.00	954.00	941.00	935.00	943.00	941.00	963.00	967.00	968.00	921.00	825.00	759.00	688.00	603.00	542.00	504.00	498.00	505.00	523.00	550.00	586.00	625.00	664.00	681.00	682.00	704.00	731.00	767.00	793.00	807.00	915.00	980.00	1025.00	1090.00	1116.00	1152.00	1190.00	1259.00	1290.00	1297.00	1298.00	1273.00	1259.00	1260.00	1258.00	1248.00	1295.00	1345.00	1396.00	1436.00	1405.00	1211.00	1212.00	1217.00	1207.00	1159.00	1143.00	1145.00	1159.00	1184.00	1246.00	1296.00	1322.00	1362.00	1410.00	1367.00	1269.00	1144.00	1093.00	1039.00	1014.00	1010.00	995.00	980.00	967.00	949.00	926.00	902.00	871.00	854.00	835.00	816.00	784.00	779.00	779.00	785.00	796.00	832.00	853.00	873.00	895.00	981.00	1016.00	1049.00	1038.00	993.00	890.00	829.00	758.00	689.00	655.00	636.00	618.00	605.00
862.00	865.00	838.00	812.00	814.00	843.00	889.00	902.00	911.00	925.00	931.00	912.00	858.00	756.00	586.00	578.00	576.00	577.00	580.00	602.00	638.00	683.00	750.00	957.00	1076.00	1113.00	1132.00	1143.00	1114.00	1086.00	1049.00	982.00	780.00	708.00	617.00	523.00	504.00	503.00	518.00	573.00	664.00	832.00	848.00	838.00	838.00	828.00	816.00	820.00	809.00	792.00	729.00	702.00	671.00	621.00	571.00	489.00	441.00	422.00	407.00	398.00	404.00	420.00	437.00	441.00	441.00	437.00	434.00	426.00	424.00	441.00	464.00	483.00	502.00	541.00	557.00	571.00	579.00	618.00	628.00	636.00	632.00	614.00	610.00	619.00	621.00	624.00	639.00	635.00	626.00	625.00	626.00	613.00	615.00	633.00	654.00	679.00	715.00	753.00	792.00	804.00	819.00	831.00	844.00	849.00	861.00	868.00	875.00	877.00	879.00	901.00	896.00	908.00	921.00	958.00	969.00	986.00	992.00	950.00	927.00	912.00	895.00	846.00	744.00	736.00	729.00	730.00	738.00	772.00	811.00	857.00	930.00	1025.00	1084.00	1132.00	1164.00	1171.00	1161.00	1151.00	1145.00	1162.00	1225.00	1169.00	1137.00	1139.00	1153.00	1210.00	1234.00	1249.00	1254.00	1149.00	1033.00	1001.00	989.00	954.00	941.00	935.00	943.00	941.00	963.00	967.00	968.00	921.00	825.00	759.00	688.00	603.00	542.00	504.00	498.00	505.00	523.00	550.00	586.00	625.00	664.00	681.00	682.00	704.00	731.00	767.00	793.00	807.00	915.00	980.00	1025.00	1090.00	1116.00	1152.00	1190.00	1259.00	1290.00	1297.00	1298.00	1273.00	1259.00	1260.00	1258.00	1248.00	1295.00	1345.00	1396.00	1436.00	1405.00	1211.00	1212.00	1217.00	1207.00	1159.00	1143.00	1145.00	1159.00	1184.00	1246.00	1296.00	1322.00	1362.00	1410.00	1367.00	1269.00	1144.00	1093.00	1039.00	1014.00	1010.00	995.00	980.00	967.00	949.00	926.00	902.00	871.00	854.00	835.00	816.00	784.00	779.00	779.00	785.00	796.00	832.00	853.00	873.00	895.00	981.00	1016.00	1049.00	1038.00	993.00	890.00	829.00	758.00	689.00	655.00	636.00	618.00	605.00
1001.00	1015.00	1016.00	1018.00	951.00	936.00	961.00	966.00	964.00	969.00	945.00	902.00	857.00	816.00	657.00	614.00	584.00	551.00	525.00	495.00	505.00	518.00	542.00	640.00	731.00	774.00	814.00	833.00	840.00	832.00	834.00	825.00	754.00	711.00	663.00	554.00	519.00	462.00	488.00	507.00	548.00	650.00	656.00	652.00	635.00	630.00	618.00	614.00	605.00	606.00	587.00	570.00	542.00	494.00	436.00	399.00	390.00	384.00	384.00	384.00	384.00	384.00	384.00	384.00	385.00	384.00	385.00	387.00	417.00	427.00	442.00	452.00	465.00	500.00	517.00	538.00	557.00	602.00	594.00	583.00	570.00	558.00	557.00	556.00	553.00	557.00	570.00	581.00	581.00	581.00	591.00	588.00	576.00	588.00	602.00	622.00	674.00	749.00	874.00	899.00	951.00	972.00	997.00	1016.00	986.00	980.00	980.00	975.00	975.00	999.00	1014.00	1023.00	1024.00	1004.00	968.00	922.00	897.00	896.00	889.00	878.00	851.00	825.00	743.00	728.00	723.00	728.00	736.00	761.00	792.00	826.00	894.00	973.00	1023.00	1069.00	1110.00	1121.00	1135.00	1133.00	1149.00	1189.00	1283.00	1222.00	1177.00	1169.00	1177.00	1214.00	1236.00	1256.00	1260.00	1129.00	1067.00	1049.00	1024.00	973.00	953.00	931.00	910.00	889.00	883.00	888.00	897.00	875.00	750.00	645.00	591.00	547.00	522.00	497.00	509.00	524.00	540.00	613.00	697.00	744.00	754.00	752.00	749.00	772.00	790.00	803.00	830.00	847.00	885.00	926.00	985.00	1027.00	1067.00	1111.00	1165.00	1247.00	1284.00	1306.00	1326.00	1359.00	1382.00	1397.00	1391.00	1372.00	1370.00	1402.00	1432.00	1417.00	1339.00	1086.00	1078.00	1075.00	1073.00	1080.00	1088.00	1096.00	1109.00	1125.00	1165.00	1238.00	1300.00	1381.00	1489.00	1453.00	1363.00	1254.00	1122.00	1082.00	1077.00	1084.00	1065.00	1031.00	1019.00	1009.00	992.00	966.00	906.00	885.00	865.00	846.00	795.00	788.00	777.00	766.00	769.00	798.00	821.00	845.00	868.00	924.00	977.00	1071.00	1088.00	1054.00	919.00	857.00	766.00	688.00	655.00	639.00	623.00	605.00
1001.00	1015.00	1016.00	1018.00	951.00	936.00	961.00	966.00	964.00	969.00	945.00	902.00	857.00	816.00	657.00	614.00	584.00	551.00	525.00	495.00	505.00	518.00	542.00	640.00	731.00	774.00	814.00	833.00	840.00	832.00	834.00	825.00	754.00	711.00	663.00	554.00	519.00	462.00	488.00	507.00	548.00	650.00	656.00	652.00	635.00	630.00	618.00	614.00	605.00	606.00	587.00	570.00	542.00	494.00	436.00	399.00	390.00	384.00	384.00	384.00	384.00	384.00	384.00	384.00	385.00	384.00	385.00	387.00	417.00	427.00	442.00	452.00	465.00	500.00	517.00	538.00	557.00	602.00	594.00	583.00	570.00	558.00	557.00	556.00	553.00	557.00	570.00	581.00	581.00	581.00	591.00	588.00	576.00	588.00	602.00	622.00	674.00	749.00	874.00	899.00	951.00	972.00	997.00	1016.00	986.00	980.00	980.00	975.00	975.00	999.00	1014.00	1023.00	1024.00	1004.00	968.00	922.00	897.00	896.00	889.00	878.00	851.00	825.00	743.00	728.00	723.00	728.00	736.00	761.00	792.00	826.00	894.00	973.00	1023.00	1069.00	1110.00	1121.00	1135.00	1133.00	1149.00	1189.00	1283.00	1222.00	1177.00	1169.00	1177.00	1214.00	1236.00	1256.00	1260.00	1129.00	1067.00	1049.00	1024.00	973.00	953.00	931.00	910.00	889.00	883.00	888.00	897.00	875.00	750.00	645.00	591.00	547.00	522.00	497.00	509.00	524.00	540.00	613.00	697.00	744.00	754.00	752.00	749.00	772.00	790.00	803.00	830.00	847.00	885.00	926.00	985.00	1027.00	1067.00	1111.00	1165.00	1247.00	1284.00	1306.00	1326.00	1359.00	1382.00	1397.00	1391.00	1372.00	1370.00	1402.00	1432.00	1417.00	1339.00	1086.00	1078.00	1075.00	1073.00	1080.00	1088.00	1096.00	1109.00	1125.00	1165.00	1238.00	1300.00	1381.00	1489.00	1453.00	1363.00	1254.00	1122.00	1082.00	1077.00	1084.00	1065.00	1031.00	1019.00	1009.00	992.00	966.00	906.00	885.00	865.00	846.00	795.00	788.00	777.00	766.00	769.00	798.00	821.00	845.00	868.00	924.00	977.00	1071.00	1088.00	1054.00	919.00	857.00	766.00	688.00	655.00	639.00	623.00	605.00
1050.00	1065.00	1068.00	1093.00	1070.00	1067.00	1050.00	1057.00	1062.00	1056.00	1010.00	1009.00	995.00	956.00	863.00	811.00	761.00	683.00	613.00	463.00	435.00	426.00	423.00	429.00	456.00	473.00	488.00	504.00	526.00	533.00	542.00	562.00	576.00	556.00	524.00	466.00	445.00	406.00	409.00	410.00	423.00	429.00	440.00	443.00	448.00	457.00	474.00	481.00	484.00	484.00	482.00	480.00	466.00	431.00	389.00	384.00	384.00	384.00	384.00	384.00	384.00	384.00	384.00	384.00	384.00	384.00	384.00	385.00	396.00	408.00	413.00	429.00	444.00	475.00	487.00	500.00	508.00	522.00	523.00	523.00	523.00	524.00	525.00	521.00	521.00	520.00	522.00	525.00	524.00	527.00	532.00	548.00	548.00	545.00	556.00	579.00	596.00	634.00	810.00	890.00	1001.00	1030.00	1061.00	1092.00	1086.00	1076.00	1084.00	1089.00	1093.00	1118.00	1119.00	1074.00	1026.00	919.00	874.00	846.00	835.00	831.00	820.00	836.00	825.00	806.00	738.00	716.00	718.00	725.00	732.00	747.00	767.00	793.00	841.00	903.00	948.00	992.00	1026.00	1061.00	1099.00	1116.00	1145.00	1197.00	1298.00	1294.00	1255.00	1214.00	1200.00	1226.00	1247.00	1270.00	1293.00	1245.00	1183.00	1125.00	1077.00	1021.00	996.00	969.00	944.00	913.00	847.00	828.00	811.00	799.00	648.00	570.00	540.00	525.00	510.00	499.00	512.00	530.00	547.00	718.00	786.00	791.00	793.00	796.00	815.00	834.00	844.00	857.00	891.00	909.00	934.00	973.00	989.00	993.00	995.00	1036.00	1091.00	1183.00	1205.00	1262.00	1294.00	1349.00	1389.00	1403.00	1433.00	1464.00	1472.00	1468.00	1425.00	1355.00	1236.00	1060.00	1044.00	1045.00	1061.00	1098.00	1133.00	1172.00	1187.00	1191.00	1185.00	1182.00	1202.00	1249.00	1372.00	1398.00	1398.00	1347.00	1262.00	1138.00	1175.00	1208.00	1153.00	1094.00	1076.00	1067.00	1055.00	1038.00	985.00	955.00	919.00	893.00	825.00	806.00	791.00	774.00	758.00	782.00	802.00	820.00	840.00	879.00	907.00	992.00	1006.00	985.00	873.00	824.00	736.00	685.00	655.00	640.00	625.00	606.00
1050.00	1065.00	1068.00	1093.00	1070.00	1067.00	1050.00	1057.00	1062.00	1056.00	1010.00	1009.00	995.00	956.00	863.00	811.00	761.00	683.00	613.00	463.00	435.00	426.00	423.00	429.00	456.00	473.00	488.00	504.00	526.00	533.00	542.00	562.00	576.00	556.00	524.00	466.00	445.00	406.00	409.00	410.00	423.00	429.00	440.00	443.00	448.00	457.00	474.00	481.00	484.00	484.00	482.00	480.00	466.00	431.00	389.00	384.00	384.00	384.00	384.00	384.00	384.00	384.00	384.00	384.00	384.00	384.00	384.00	385.00	396.00	408.00	413.00	429.00	444.00	475.00	487.00	500.00	508.00	522.00	523.00	523.00	523.00	524.00	525.00	521.00	521.00	520.00	522.00	525.00	524.00	527.00	532.00	548.00	548.00	545.00	556.00	579.00	596.00	634.00	810.00	890.00	1001.00	1030.00	1061.00	1092.00	1086.00	1076.00	1084.00	1089.00	1093.00	1118.00	1119.00	1074.00	1026.00	919.00	874.00	846.00	835.00	831.00	820.00	836.00	825.00	806.00	738.00	716.00	718.00	725.00	732.00	747.00	767.00	793.00	841.00	903.00	948.00	992.00	1026.00	1061.00	1099.00	1116.00	1145.00	1197.00	1298.00	1294.00	1255.00	1214.00	1200.00	1226.00	1247.00	1270.00	1293.00	1245.00	1183.00	1125.00	1077.00	1021.00	996.00	969.00	944.00	913.00	847.00	828.00	811.00	799.00	648.00	570.00	540.00	525.00	510.00	499.00	512.00	530.00	547.00	718.00	786.00	791.00	793.00	796.00	815.00	834.00	844.00	857.00	891.00	909.00	934.00	973.00	989.00	993.00	995.00	1036.00	1091.00	1183.00	1205.00	1262.00	1294.00	1349.00	1389.00	1403.00	1433.00	1464.00	1472.00	1468.00	1425.00	1355.00	1236.00	1060.00	1044.00	1045.00	1061.00	1098.00	1133.00	1172.00	1187.00	1191.00	1185.00	1182.00	1202.00	1249.00	1372.00	1398.00	1398.00	1347.00	1262.00	1138.00	1175.00	1208.00	1153.00	1094.00	1076.00	1067.00	1055.00	1038.00	985.00	955.00	919.00	893.00	825.00	806.00	791.00	774.00	758.00	782.00	802.00	820.00	840.00	879.00	907.00	992.00	1006.00	985.00	873.00	824.00	736.00	685.00	655.00	640.00	625.00	606.00
843.00	872.00	881.00	884.00	876.00	855.00	841.00	851.00	852.00	858.00	890.00	898.00	901.00	895.00	872.00	871.00	840.00	791.00	696.00	506.00	461.00	436.00	420.00	399.00	387.00	388.00	389.00	389.00	394.00	402.00	406.00	407.00	406.00	402.00	393.00	384.00	384.00	384.00	384.00	384.00	384.00	384.00	384.00	384.00	384.00	384.00	400.00	406.00	408.00	411.00	415.00	406.00	401.00	388.00	384.00	384.00	384.00	384.00	384.00	384.00	384.00	384.00	384.00	384.00	384.00	384.00	384.00	384.00	384.00	387.00	390.00	405.00	419.00	454.00	466.00	483.00	490.00	482.00	485.00	488.00	493.00	495.00	519.00	522.00	517.00	522.00	519.00	519.00	519.00	520.00	521.00	520.00	528.00	530.00	535.00	556.00	573.00	589.00	679.00	768.00	928.00	991.00	1034.00	1056.00	1065.00	1071.00	1086.00	1110.00	1127.00	1101.00	1039.00	1000.00	968.00	903.00	868.00	837.00	810.00	796.00	778.00	764.00	753.00	743.00	725.00	710.00	712.00	717.00	724.00	739.00	748.00	764.00	815.00	878.00	916.00	951.00	981.00	1014.00	1049.00	1077.00	1119.00	1164.00	1295.00	1299.00	1249.00	1189.00	1154.00	1185.00	1210.00	1229.00	1233.00	1210.00	1182.00	1158.00	1132.00	1102.00	1074.00	1037.00	996.00	971.00	909.00	873.00	826.00	726.00	619.00	572.00	542.00	525.00	507.00	495.00	503.00	522.00	544.00	707.00	767.00	778.00	789.00	809.00	879.00	884.00	885.00	892.00	951.00	989.00	1043.00	1055.00	1039.00	1022.00	1047.00	1089.00	1121.00	1179.00	1210.00	1273.00	1299.00	1329.00	1353.00	1368.00	1388.00	1423.00	1476.00	1453.00	1401.00	1296.00	1169.00	1031.00	1017.00	1059.00	1093.00	1243.00	1337.00	1378.00	1415.00	1444.00	1417.00	1286.00	1229.00	1206.00	1265.00	1295.00	1339.00	1375.00	1400.00	1358.00	1361.00	1379.00	1336.00	1240.00	1242.00	1243.00	1206.00	1145.00	1049.00	1000.00	974.00	935.00	857.00	832.00	811.00	796.00	787.00	748.00	766.00	792.00	812.00	844.00	857.00	890.00	894.00	879.00	830.00	800.00	720.00	681.00	649.00	632.00	616.00	606.00
843.00	872.00	881.00	884.00	876.00	855.00	841.00	851.00	852.00	858.00	890.00	898.00	901.00	895.00	872.00	871.00	840.00	791.00	696.00	506.00	461.00	436.00	420.00	399.00	387.00	388.00	389.00	389.00	394.00	402.00	406.00	407.00	406.00	402.00	393.00	384.00	384.00	384.00	384.00	384.00	384.00	384.00	384.00	384.00	384.00	384.00	400.00	406.00	408.00	411.00	415.00	406.00	401.00	388.00	384.00	384.00	384.00	384.00	384.00	384.00	384.00	384.00	384.00	384.00	384.00	384.00	384.00	384.00	384.00	387.00	390.00	405.00	419.00	454.00	466.00	483.00	490.00	482.00	485.00	488.00	493.00	495.00	519.00	522.00	517.00	522.00	519.00	519.00	519.00	520.00	521.00	520.00	528.00	530.00	535.00	556.00	573.00	589.00	679.00	768.00	928.00	991.00	1034.00	1056.00	1065.00	1071.00	1086.00	1110.00	1127.00	1101.00	1039.00	1000.00	968.00	903.00	868.00	837.00	810.00	796.00	778.00	764.00	753.00	743.00	725.00	710.00	712.00	717.00	724.00	739.00	748.00	764.00	815.00	878.00	916.00	951.00	981.00	1014.00	1049.00	1077.00	1119.00	1164.00	1295.00	1299.00	1249.00	1189.00	1154.00	1185.00	1210.00	1229.00	1233.00	1210.00	1182.00	1158.00	1132.00	1102.00	1074.00	1037.00	996.00	971.00	909.00	873.00	826.00	726.00	619.00	572.00	542.00	525.00	507.00	495.00	503.00	522.00	544.00	707.00	767.00	778.00	789.00	809.00	879.00	884.00	885.00	892.00	951.00	989.00	1043.00	1055.00	1039.00	1022.00	1047.00	1089.00	1121.00	1179.00	1210.00	1273.00	1299.00	1329.00	1353.00	1368.00	1388.00	1423.00	1476.00	1453.00	1401.00	1296.00	1169.00	1031.00	1017.00	1059.00	1093.00	1243.00	1337.00	1378.00	1415.00	1444.00	1417.00	1286.00	1229.00	1206.00	1265.00	1295.00	1339.00	1375.00	1400.00	1358.00	1361.00	1379.00	1336.00	1240.00	1242.00	1243.00	1206.00	1145.00	1049.00	1000.00	974.00	935.00	857.00	832.00	811.00	796.00	787.00	748.00	766.00	792.00	812.00	844.00	857.00	890.00	894.00	879.00	830.00	800.00	720.00	681.00	649.00	632.00	616.00	606.00
620.00	614.00	613.00	616.00	612.00	616.00	608.00	608.00	597.00	599.00	606.00	619.00	623.00	620.00	624.00	624.00	619.00	612.00	596.00	534.00	488.00	453.00	430.00	400.00	384.00	384.00	384.00	384.00	384.00	384.00	384.00	384.00	384.00	384.00	384.00	384.00	384.00	384.00	384.00	384.00	384.00	384.00	384.00	384.00	384.00	384.00	384.00	384.00	384.00	384.00	384.00	384.00	384.00	384.00	384.00	384.00	384.00	384.00	384.00	384.00	384.00	384.00	384.00	384.00	384.00	384.00	384.00	386.00	391.00	404.00	421.00	437.00	441.00	445.00	449.00	445.00	438.00	449.00	459.00	469.00	480.00	491.00	514.00	529.00	539.00	554.00	582.00	600.00	600.00	600.00	594.00	561.00	559.00	549.00	541.00	551.00	565.00	578.00	602.00	651.00	793.00	875.00	943.00	980.00	993.00	1013.00	1040.00	1051.00	1044.00	967.00	935.00	932.00	935.00	905.00	867.00	836.00	806.00	786.00	755.00	706.00	695.00	692.00	696.00	698.00	702.00	707.00	714.00	730.00	738.00	746.00	786.00	845.00	881.00	915.00	940.00	961.00	1001.00	1032.00	1076.00	1126.00	1231.00	1254.00	1194.00	1129.00	1083.00	1078.00	1095.00	1107.00	1103.00	1071.00	1052.00	1045.00	1049.00	1074.00	1074.00	1054.00	1028.00	1008.00	947.00	922.00	889.00	793.00	624.00	566.00	539.00	522.00	505.00	491.00	498.00	515.00	540.00	642.00	690.00	715.00	750.00	781.00	843.00	877.00	893.00	917.00	1002.00	1063.00	1163.00	1175.00	1161.00	1116.00	1134.00	1163.00	1185.00	1235.00	1262.00	1267.00	1271.00	1262.00	1287.00	1308.00	1318.00	1321.00	1326.00	1322.00	1281.00	1199.00	1106.00	1012.00	995.00	1002.00	1076.00	1300.00	1399.00	1474.00	1562.00	1621.00	1592.00	1473.00	1396.00	1329.00	1266.00	1279.00	1300.00	1365.00	1425.00	1494.00	1494.00	1489.00	1388.00	1276.00	1255.00	1237.00	1188.00	1106.00	995.00	994.00	975.00	948.00	886.00	864.00	842.00	823.00	809.00	768.00	740.00	738.00	763.00	786.00	788.00	789.00	797.00	799.00	802.00	780.00	712.00	680.00	646.00	630.00	613.00	605.00
620.00	614.00	613.00	616.00	612.00	616.00	608.00	608.00	597.00	599.00	606.00	619.00	623.00	620.00	624.00	624.00	619.00	612.00	596.00	534.00	488.00	453.00	430.00	400.00	384.00	384.00	384.00	384.00	384.00	384.00	384.00	384.00	384.00	384.00	384.00	384.00	384.00	384.00	384.00	384.00	384.00	384.00	384.00	384.00	384.00	384.00	384.00	384.00	384.00	384.00	384.00	384.00	384.00	384.00	384.00	384.00	384.00	384.00	384.00	384.00	384.00	384.00	384.00	384.00	384.00	384.00	384.00	386.00	391.00	404.00	421.00	437.00	441.00	445.00	449.00	445.00	438.00	449.00	459.00	469.00	480.00	491.00	514.00	529.00	539.00	554.00	582.00	600.00	600.00	600.00	594.00	561.00	559.00	549.00	541.00	551.00	565.00	578.00	602.00	651.00	793.00	875.00	943.00	980.00	993.00	1013.00	1040.00	1051.00	1044.00	967.00	935.00	932.00	935.00	905.00	867.00	836.00	806.00	786.00	755.00	706.00	695.00	692.00	696.00	698.00	702.00	707.00	714.00	730.00	738.00	746.00	786.00	845.00	881.00	915.00	940.00	961.00	1001.00	1032.00	1076.00	1126.00	1231.00	1254.00	1194.00	1129.00	1083.00	1078.00	1095.00	1107.00	1103.00	1071.00	1052.00	1045.00	1049.00	1074.00	1074.00	1054.00	1028.00	1008.00	947.00	922.00	889.00	793.00	624.00	566.00	539.00	522.00	505.00	491.00	498.00	515.00	540.00	642.00	690.00	715.00	750.00	781.00	843.00	877.00	893.00	917.00	1002.00	1063.00	1163.00	1175.00	1161.00	1116.00	1134.00	1163.00	1185.00	1235.00	1262.00	1267.00	1271.00	1262.00	1287.00	1308.00	1318.00	1321.00	1326.00	1322.00	1281.00	1199.00	1106.00	1012.00	995.00	1002.00	1076.00	1300.00	1399.00	1474.00	1562.00	1621.00	1592.00	1473.00	1396.00	1329.00	1266.00	1279.00	1300.00	1365.00	1425.00	1494.00	1494.00	1489.00	1388.00	1276.00	1255.00	1237.00	1188.00	1106.00	995.00	994.00	975.00	948.00	886.00	864.00	842.00	823.00	809.00	768.00	740.00	738.00	763.00	786.00	788.00	789.00	797.00	799.00	802.00	780.00	712.00	680.00	646.00	630.00	613.00	605.00
521.00	488.00	469.00	460.00	457.00	462.00	488.00	496.00	480.00	465.00	472.00	480.00	478.00	483.00	501.00	507.00	510.00	506.00	498.00	477.00	465.00	441.00	428.00	412.00	390.00	384.00	384.00	384.00	384.00	384.00	384.00	384.00	384.00	384.00	384.00	384.00	384.00	384.00	384.00	384.00	384.00	384.00	384.00	384.00	384.00	384.00	384.00	384.00	384.00	384.00	384.00	384.00	384.00	384.00	384.00	394.00	391.00	385.00	384.00	384.00	384.00	384.00	384.00	384.00	384.00	384.00	384.00	385.00	396.00	398.00	400.00	405.00	408.00	411.00	415.00	425.00	433.00	469.00	491.00	511.00	526.00	535.00	563.00	586.00	622.00	669.00	728.00	734.00	731.00	729.00	729.00	672.00	624.00	587.00	557.00	559.00	567.00	577.00	591.00	598.00	687.00	754.00	817.00	859.00	917.00	936.00	960.00	973.00	958.00	891.00	907.00	932.00	948.00	928.00	902.00	870.00	837.00	801.00	746.00	689.00	668.00	658.00	674.00	684.00	697.00	709.00	722.00	736.00	743.00	746.00	760.00	808.00	835.00	869.00	905.00	923.00	959.00	989.00	1034.00	1076.00	1167.00	1187.00	1192.00	1140.00	1057.00	1028.00	1029.00	1032.00	1029.00	1015.00	975.00	975.00	982.00	986.00	985.00	979.00	963.00	940.00	909.00	894.00	869.00	769.00	625.00	578.00	546.00	526.00	506.00	490.00	499.00	518.00	540.00	595.00	643.00	685.00	717.00	754.00	792.00	822.00	869.00	905.00	1015.00	1112.00	1198.00	1204.00	1205.00	1193.00	1200.00	1222.00	1240.00	1241.00	1215.00	1193.00	1190.00	1196.00	1164.00	1189.00	1215.00	1209.00	1142.00	1116.00	1096.00	1055.00	1025.00	981.00	986.00	999.00	1067.00	1272.00	1375.00	1456.00	1530.00	1601.00	1666.00	1546.00	1487.00	1442.00	1363.00	1349.00	1374.00	1419.00	1443.00	1435.00	1396.00	1346.00	1234.00	1196.00	1169.00	1122.00	1093.00	1077.00	1006.00	992.00	977.00	957.00	900.00	884.00	863.00	842.00	822.00	787.00	758.00	731.00	719.00	743.00	746.00	745.00	745.00	743.00	735.00	713.00	690.00	674.00	644.00	630.00	616.00	605.00
521.00	488.00	469.00	460.00	457.00	462.00	488.00	496.00	480.00	465.00	472.00	480.00	478.00	483.00	501.00	507.00	510.00	506.00	498.00	477.00	465.00	441.00	428.00	412.00	390.00	384.00	384.00	384.00	384.00	384.00	384.00	384.00	384.00	384.00	384.00	384.00	384.00	384.00	384.00	384.00	384.00	384.00	384.00	384.00	384.00	384.00	384.00	384.00	384.00	384.00	384.00	384.00	384.00	384.00	384.00	394.00	391.00	385.00	384.00	384.00	384.00	384.00	384.00	384.00	384.00	384.00	384.00	385.00	396.00	398.00	400.00	405.00	408.00	411.00	415.00	425.00	433.00	469.00	491.00	511.00	526.00	535.00	563.00	586.00	622.00	669.00	728.00	734.00	731.00	729.00	729.00	672.00	624.00	587.00	557.00	559.00	567.00	577.00	591.00	598.00	687.00	754.00	817.00	859.00	917.00	936.00	960.00	973.00	958.00	891.00	907.00	932.00	948.00	928.00	902.00	870.00	837.00	801.00	746.00	689.00	668.00	658.00	674.00	684.00	697.00	709.00	722.00	736.00	743.00	746.00	760.00	808.00	835.00	869.00	905.00	923.00	959.00	989.00	1034.00	1076.00	1167.00	1187.00	1192.00	1140.00	1057.00	1028.00	1029.00	1032.00	1029.00	1015.00	975.00	975.00	982.00	986.00	985.00	979.00	963.00	940.00	909.00	894.00	869.00	769.00	625.00	578.00	546.00	526.00	506.00	490.00	499.00	518.00	540.00	595.00	643.00	685.00	717.00	754.00	792.00	822.00	869.00	905.00	1015.00	1112.00	1198.00	1204.00	1205.00	1193.00	1200.00	1222.00	1240.00	1241.00	1215.00	1193.00	1190.00	1196.00	1164.00	1189.00	1215.00	1209.00	1142.00	1116.00	1096.00	1055.00	1025.00	981.00	986.00	999.00	1067.00	1272.00	1375.00	1456.00	1530.00	1601.00	1666.00	1546.00	1487.00	1442.00	1363.00	1349.00	1374.00	1419.00	1443.00	1435.00	1396.00	1346.00	1234.00	1196.00	1169.00	1122.00	1093.00	1077.00	1006.00	992.00	977.00	957.00	900.00	884.00	863.00	842.00	822.00	787.00	758.00	731.00	719.00	743.00	746.00	745.00	745.00	743.00	735.00	713.00	690.00	674.00	644.00	630.00	616.00	605.00
466.00	422.00	401.00	401.00	392.00	394.00	405.00	413.00	410.00	400.00	403.00	406.00	405.00	410.00	452.00	482.00	499.00	505.00	504.00	469.00	441.00	419.00	403.00	385.00	384.00	384.00	384.00	384.00	384.00	384.00	384.00	384.00	384.00	384.00	384.00	384.00	384.00	384.00	384.00	384.00	384.00	384.00	384.00	384.00	384.00	384.00	384.00	384.00	384.00	384.00	391.00	395.00	402.00	432.00	477.00	529.00	514.00	506.00	485.00	455.00	441.00	440.00	433.00	421.00	395.00	395.00	396.00	403.00	412.00	420.00	430.00	426.00	435.00	455.00	465.00	485.00	515.00	538.00	544.00	549.00	558.00	567.00	588.00	597.00	609.00	623.00	651.00	682.00	701.00	712.00	721.00	698.00	669.00	640.00	625.00	598.00	603.00	591.00	593.00	595.00	615.00	666.00	725.00	778.00	864.00	864.00	837.00	826.00	822.00	886.00	908.00	924.00	940.00	950.00	948.00	923.00	889.00	845.00	772.00	700.00	672.00	650.00	659.00	685.00	705.00	719.00	733.00	753.00	760.00	767.00	772.00	792.00	813.00	851.00	886.00	901.00	917.00	946.00	975.00	1008.00	1110.00	1126.00	1133.00	1118.00	1072.00	1019.00	1002.00	992.00	986.00	968.00	942.00	938.00	935.00	929.00	925.00	917.00	901.00	881.00	842.00	825.00	801.00	726.00	617.00	582.00	552.00	530.00	510.00	489.00	497.00	520.00	564.00	652.00	693.00	720.00	751.00	776.00	803.00	832.00	867.00	904.00	1030.00	1125.00	1193.00	1190.00	1190.00	1210.00	1219.00	1214.00	1209.00	1202.00	1190.00	1166.00	1141.00	1112.00	1069.00	1059.00	1066.00	1077.00	1030.00	995.00	977.00	952.00	931.00	928.00	959.00	994.00	1045.00	1210.00	1284.00	1363.00	1427.00	1487.00	1571.00	1578.00	1547.00	1537.00	1541.00	1598.00	1627.00	1626.00	1569.00	1424.00	1363.00	1306.00	1229.00	1178.00	1145.00	1107.00	1088.00	1066.00	1014.00	991.00	969.00	948.00	894.00	879.00	859.00	840.00	819.00	784.00	765.00	744.00	722.00	705.00	708.00	707.00	703.00	697.00	683.00	674.00	663.00	650.00	623.00	613.00	607.00	605.00
413.00	406.00	402.00	390.00	384.00	384.00	384.00	384.00	384.00	384.00	388.00	387.00	385.00	385.00	406.00	410.00	413.00	420.00	420.00	408.00	398.00	400.00	402.00	396.00	384.00	384.00	384.00	384.00	384.00	384.00	384.00	384.00	384.00	384.00	384.00	384.00	384.00	384.00	384.00	384.00	384.00	384.00	384.00	384.00	384.00	384.00	384.00	384.00	384.00	384.00	420.00	463.00	502.00	554.00	592.00	643.00	640.00	654.00	668.00	620.00	583.00	562.00	530.00	489.00	447.00	441.00	435.00	438.00	463.00	478.00	492.00	498.00	519.00	532.00	564.00	601.00	672.00	717.00	696.00	661.00	633.00	623.00	635.00	635.00	646.00	654.00	678.00	703.00	717.00	736.00	759.00	803.00	808.00	792.00	780.00	755.00	763.00	731.00	629.00	603.00	595.00	597.00	606.00	626.00	675.00	690.00	712.00	745.00	781.00	889.00	899.00	906.00	918.00	934.00	940.00	929.00	910.00	881.00	805.00	735.00	698.00	668.00	643.00	659.00	682.00	704.00	722.00	754.00	760.00	764.00	771.00	787.00	799.00	824.00	846.00	869.00	893.00	900.00	916.00	939.00	1059.00	1099.00	1110.00	1110.00	1104.00	1071.00	1055.00	1037.00	1018.00	995.00	980.00	967.00	950.00	910.00	897.00	882.00	862.00	840.00	783.00	762.00	739.00	672.00	599.00	570.00	545.00	528.00	510.00	486.00	493.00	502.00	536.00	691.00	713.00	747.00	781.00	789.00	817.00	856.00	894.00	937.00	1057.00	1122.00	1133.00	1114.00	1112.00	1139.00	1143.00	1140.00	1141.00	1162.00	1153.00	1137.00	1119.00	1060.00	995.00	982.00	958.00	932.00	905.00	881.00	877.00	870.00	866.00	863.00	879.00	922.00	973.00	1068.00	1101.00	1154.00	1214.00	1292.00	1399.00	1474.00	1487.00	1515.00	1563.00	1628.00	1676.00	1717.00	1704.00	1568.00	1485.00	1410.00	1311.00	1216.00	1181.00	1141.00	1099.00	1068.00	1006.00	987.00	967.00	945.00	893.00	879.00	861.00	842.00	823.00	791.00	776.00	755.00	734.00	696.00	689.00	685.00	677.00	670.00	658.00	649.00	637.00	625.00	606.00	606.00	607.00	606.00
413.00	406.00	402.00	390.00	384.00	384.00	384.00	384.00	384.00	384.00	388.00	387.00	385.00	385.00	406.00	410.00	413.00	420.00	420.00	408.00	398.00	400.00	402.00	396.00	384.00	384.00	384.00	384.00	384.00	384.00	384.00	384.00	384.00	384.00	384.00	384.00	384.00	384.00	384.00	384.00	384.00	384.00	384.00	384.00	384.00	384.00	384.00	384.00	384.00	384.00	420.00	463.00	502.00	554.00	592.00	643.00	640.00	654.00	668.00	620.00	583.00	562.00	530.00	489.00	447.00	441.00	435.00	438.00	463.00	478.00	492.00	498.00	519.00	532.00	564.00	601.00	672.00	717.00	696.00	661.00	633.00	623.00	635.00	635.00	646.00	654.00	678.00	703.00	717.00	736.00	759.00	803.00	808.00	792.00	780.00	755.00	763.00	731.00	629.00	603.00	595.00	597.00	606.00	626.00	675.00	690.00	712.00	745.00	781.00	889.00	899.00	906.00	918.00	934.00	940.00	929.00	910.00	881.00	805.00	735.00	698.00	668.00	643.00	659.00	682.00	704.00	722.00	754.00	760.00	764.00	771.00	787.00	799.00	824.00	846.00	869.00	893.00	900.00	916.00	939.00	1059.00	1099.00	1110.00	1110.00	1104.00	1071.00	1055.00	1037.00	1018.00	995.00	980.00	967.00	950.00	910.00	897.00	882.00	862.00	840.00	783.00	762.00	739.00	672.00	599.00	570.00	545.00	528.00	510.00	486.00	493.00	502.00	536.00	691.00	713.00	747.00	781.00	789.00	817.00	856.00	894.00	937.00	1057.00	1122.00	1133.00	1114.00	1112.00	1139.00	1143.00	1140.00	1141.00	1162.00	1153.00	1137.00	1119.00	1060.00	995.00	982.00	958.00	932.00	905.00	881.00	877.00	870.00	866.00	863.00	879.00	922.00	973.00	1068.00	1101.00	1154.00	1214.00	1292.00	1399.00	1474.00	1487.00	1515.00	1563.00	1628.00	1676.00	1717.00	1704.00	1568.00	1485.00	1410.00	1311.00	1216.00	1181.00	1141.00	1099.00	1068.00	1006.00	987.00	967.00	945.00	893.00	879.00	861.00	842.00	823.00	791.00	776.00	755.00	734.00	696.00	689.00	685.00	677.00	670.00	658.00	649.00	637.00	625.00	606.00	606.00	607.00	606.00
413.00	406.00	402.00	390.00	384.00	384.00	384.00	384.00	384.00	384.00	388.00	387.00	385.00	385.00	406.00	410.00	413.00	420.00	420.00	408.00	398.00	400.00	402.00	396.00	384.00	384.00	384.00	384.00	384.00	384.00	384.00	384.00	384.00	384.00	384.00	384.00	384.00	384.00	384.00	384.00	384.00	384.00	384.00	384.00	384.00	384.00	384.00	384.00	384.00	384.00	420.00	463.00	502.00	554.00	592.00	643.00	640.00	654.00	668.00	620.00	583.00	562.00	530.00	489.00	447.00	441.00	435.00	438.00	463.00	478.00	492.00	498.00	519.00	532.00	564.00	601.00	672.00	717.00	696.00	661.00	633.00	623.00	635.00	635.00	646.00	654.00	678.00	703.00	717.00	736.00	759.00	803.00	808.00	792.00	780.00	755.00	763.00	731.00	629.00	603.00	595.00	597.00	606.00	626.00	675.00	690.00	712.00	745.00	781.00	889.00	899.00	906.00	918.00	934.00	940.00	929.00	910.00	881.00	805.00	735.00	698.00	668.00	643.00	659.00	682.00	704.00	722.00	754.00	760.00	764.00	771.00	787.00	799.00	824.00	846.00	869.00	893.00	900.00	916.00	939.00	1059.00	1099.00	1110.00	1110.00	1104.00	1071.00	1055.00	1037.00	1018.00	995.00	980.00	967.00	950.00	910.00	897.00	882.00	862.00	840.00	783.00	762.00	739.00	672.00	599.00	570.00	545.00	528.00	510.00	486.00	493.00	502.00	536.00	691.00	713.00	747.00	781.00	789.00	817.00	856.00	894.00	937.00	1057.00	1122.00	1133.00	1114.00	1112.00	1139.00	1143.00	1140.00	1141.00	1162.00	1153.00	1137.00	1119.00	1060.00	995.00	982.00	958.00	932.00	905.00	881.00	877.00	870.00	866.00	863.00	879.00	922.00	973.00	1068.00	1101.00	1154.00	1214.00	1292.00	1399.00	1474.00	1487.00	1515.00	1563.00	1628.00	1676.00	1717.00	1704.00	1568.00	1485.00	1410.00	1311.00	1216.00	1181.00	1141.00	1099.00	1068.00	1006.00	987.00	967.00	945.00	893.00	879.00	861.00	842.00	823.00	791.00	776.00	755.00	734.00	696.00	689.00	685.00	677.00	670.00	658.00	649.00	637.00	625.00	606.00	606.00	607.00	606.00
407.00	434.00	430.00	407.00	384.00	384.00	384.00	384.00	384.00	384.00	384.00	384.00	384.00	384.00	384.00	384.00	384.00	388.00	398.00	384.00	388.00	396.00	395.00	386.00	384.00	384.00	384.00	384.00	384.00	384.00	384.00	384.00	384.00	384.00	384.00	384.00	384.00	384.00	384.00	384.00	384.00	384.00	384.00	384.00	384.00	384.00	384.00	384.00	384.00	386.00	497.00	575.00	628.00	673.00	717.00	741.00	765.00	787.00	783.00	736.00	730.00	697.00	645.00	591.00	530.00	517.00	510.00	461.00	560.00	615.00	667.00	661.00	665.00	657.00	663.00	703.00	761.00	870.00	881.00	853.00	825.00	783.00	724.00	713.00	720.00	728.00	765.00	777.00	781.00	799.00	812.00	866.00	890.00	912.00	935.00	959.00	969.00	954.00	834.00	755.00	617.00	596.00	595.00	594.00	597.00	621.00	662.00	697.00	738.00	852.00	864.00	872.00	887.00	914.00	925.00	930.00	916.00	899.00	843.00	770.00	727.00	694.00	641.00	634.00	641.00	651.00	667.00	711.00	727.00	744.00	764.00	780.00	790.00	805.00	827.00	850.00	877.00	882.00	886.00	893.00	976.00	1023.00	1061.00	1086.00	1100.00	1118.00	1123.00	1132.00	1130.00	1119.00	1097.00	1074.00	1049.00	979.00	948.00	931.00	904.00	866.00	785.00	749.00	716.00	651.00	589.00	562.00	542.00	527.00	511.00	486.00	487.00	493.00	503.00	643.00	689.00	710.00	743.00	767.00	816.00	874.00	922.00	975.00	1045.00	1081.00	1082.00	1058.00	1042.00	1045.00	1051.00	1048.00	1044.00	1078.00	1089.00	1094.00	1093.00	1053.00	1000.00	957.00	914.00	874.00	822.00	820.00	827.00	832.00	835.00	846.00	842.00	842.00	852.00	874.00	890.00	914.00	953.00	1032.00	1149.00	1223.00	1251.00	1270.00	1358.00	1410.00	1468.00	1561.00	1603.00	1619.00	1562.00	1476.00	1317.00	1225.00	1191.00	1151.00	1110.00	1075.00	1018.00	997.00	976.00	951.00	894.00	884.00	870.00	855.00	839.00	807.00	792.00	768.00	742.00	695.00	685.00	672.00	665.00	656.00	641.00	632.00	624.00	616.00	607.00	607.00	607.00	607.00
425.00	500.00	500.00	475.00	400.00	386.00	384.00	384.00	384.00	384.00	384.00	384.00	384.00	384.00	384.00	384.00	384.00	384.00	384.00	384.00	385.00	386.00	384.00	384.00	384.00	384.00	384.00	384.00	384.00	384.00	384.00	384.00	384.00	384.00	384.00	384.00	384.00	384.00	384.00	384.00	384.00	384.00	384.00	384.00	384.00	384.00	388.00	405.00	432.00	456.00	591.00	708.00	789.00	844.00	874.00	877.00	887.00	882.00	868.00	846.00	800.00	724.00	658.00	626.00	576.00	553.00	537.00	505.00	510.00	537.00	566.00	599.00	644.00	715.00	735.00	751.00	767.00	837.00	861.00	928.00	1031.00	995.00	875.00	873.00	878.00	896.00	910.00	910.00	904.00	918.00	938.00	973.00	994.00	1013.00	1025.00	1023.00	1027.00	1025.00	901.00	797.00	662.00	609.00	591.00	586.00	584.00	601.00	632.00	665.00	703.00	796.00	818.00	834.00	851.00	892.00	906.00	919.00	919.00	910.00	886.00	812.00	769.00	726.00	664.00	641.00	626.00	627.00	636.00	667.00	691.00	716.00	746.00	759.00	771.00	785.00	801.00	820.00	850.00	860.00	865.00	869.00	902.00	931.00	970.00	1008.00	1038.00	1085.00	1095.00	1114.00	1124.00	1148.00	1137.00	1130.00	1116.00	1049.00	1007.00	984.00	967.00	945.00	861.00	824.00	782.00	684.00	599.00	560.00	539.00	529.00	522.00	503.00	489.00	485.00	490.00	573.00	649.00	702.00	729.00	760.00	823.00	874.00	912.00	938.00	983.00	1014.00	1049.00	1006.00	994.00	983.00	980.00	974.00	973.00	994.00	997.00	1004.00	1001.00	984.00	921.00	869.00	825.00	801.00	827.00	851.00	871.00	896.00	908.00	928.00	917.00	908.00	905.00	891.00	871.00	858.00	867.00	888.00	914.00	953.00	956.00	957.00	1012.00	1064.00	1133.00	1217.00	1246.00	1395.00	1374.00	1338.00	1221.00	1139.00	1105.00	1077.00	1063.00	1047.00	1012.00	996.00	977.00	955.00	910.00	901.00	893.00	879.00	861.00	819.00	796.00	772.00	746.00	698.00	687.00	675.00	668.00	660.00	645.00	638.00	631.00	623.00	614.00	612.00	609.00	607.00
425.00	500.00	500.00	475.00	400.00	386.00	384.00	384.00	384.00	384.00	384.00	384.00	384.00	384.00	384.00	384.00	384.00	384.00	384.00	384.00	385.00	386.00	384.00	384.00	384.00	384.00	384.00	384.00	384.00	384.00	384.00	384.00	384.00	384.00	384.00	384.00	384.00	384.00	384.00	384.00	384.00	384.00	384.00	384.00	384.00	384.00	388.00	405.00	432.00	456.00	591.00	708.00	789.00	844.00	874.00	877.00	887.00	882.00	868.00	846.00	800.00	724.00	658.00	626.00	576.00	553.00	537.00	505.00	510.00	537.00	566.00	599.00	644.00	715.00	735.00	751.00	767.00	837.00	861.00	928.00	1031.00	995.00	875.00	873.00	878.00	896.00	910.00	910.00	904.00	918.00	938.00	973.00	994.00	1013.00	1025.00	1023.00	1027.00	1025.00	901.00	797.00	662.00	609.00	591.00	586.00	584.00	601.00	632.00	665.00	703.00	796.00	818.00	834.00	851.00	892.00	906.00	919.00	919.00	910.00	886.00	812.00	769.00	726.00	664.00	641.00	626.00	627.00	636.00	667.00	691.00	716.00	746.00	759.00	771.00	785.00	801.00	820.00	850.00	860.00	865.00	869.00	902.00	931.00	970.00	1008.00	1038.00	1085.00	1095.00	1114.00	1124.00	1148.00	1137.00	1130.00	1116.00	1049.00	1007.00	984.00	967.00	945.00	861.00	824.00	782.00	684.00	599.00	560.00	539.00	529.00	522.00	503.00	489.00	485.00	490.00	573.00	649.00	702.00	729.00	760.00	823.00	874.00	912.00	938.00	983.00	1014.00	1049.00	1006.00	994.00	983.00	980.00	974.00	973.00	994.00	997.00	1004.00	1001.00	984.00	921.00	869.00	825.00	801.00	827.00	851.00	871.00	896.00	908.00	928.00	917.00	908.00	905.00	891.00	871.00	858.00	867.00	888.00	914.00	953.00	956.00	957.00	1012.00	1064.00	1133.00	1217.00	1246.00	1395.00	1374.00	1338.00	1221.00	1139.00	1105.00	1077.00	1063.00	1047.00	1012.00	996.00	977.00	955.00	910.00	901.00	893.00	879.00	861.00	819.00	796.00	772.00	746.00	698.00	687.00	675.00	668.00	660.00	645.00	638.00	631.00	623.00	614.00	612.00	609.00	607.00
548.00	570.00	576.00	563.00	485.00	438.00	393.00	387.00	385.00	384.00	384.00	384.00	384.00	384.00	393.00	389.00	384.00	384.00	384.00	384.00	384.00	384.00	384.00	384.00	384.00	384.00	384.00	384.00	384.00	384.00	384.00	384.00	384.00	384.00	384.00	384.00	384.00	384.00	384.00	384.00	384.00	384.00	384.00	384.00	384.00	385.00	492.00	550.00	589.00	616.00	668.00	714.00	772.00	855.00	912.00	987.00	999.00	998.00	1003.00	880.00	772.00	731.00	691.00	645.00	605.00	583.00	567.00	542.00	525.00	527.00	542.00	566.00	609.00	738.00	789.00	831.00	876.00	938.00	921.00	914.00	951.00	951.00	973.00	992.00	1018.00	1042.00	1056.00	1046.00	1052.00	1064.00	1077.00	1106.00	1123.00	1141.00	1146.00	1107.00	1050.00	991.00	829.00	776.00	685.00	619.00	594.00	583.00	570.00	581.00	603.00	644.00	685.00	792.00	813.00	828.00	846.00	880.00	896.00	906.00	911.00	912.00	902.00	860.00	820.00	766.00	684.00	657.00	633.00	617.00	622.00	642.00	658.00	677.00	710.00	732.00	745.00	761.00	773.00	784.00	811.00	829.00	848.00	856.00	867.00	881.00	902.00	933.00	957.00	990.00	1005.00	1018.00	1039.00	1068.00	1063.00	1065.00	1075.00	1078.00	1061.00	1036.00	1010.00	972.00	888.00	846.00	817.00	756.00	650.00	589.00	549.00	539.00	530.00	513.00	504.00	491.00	482.00	497.00	559.00	648.00	707.00	741.00	788.00	799.00	829.00	858.00	925.00	972.00	1023.00	999.00	991.00	959.00	946.00	932.00	921.00	923.00	926.00	924.00	913.00	864.00	800.00	788.00	788.00	797.00	866.00	905.00	963.00	1013.00	1039.00	1100.00	1104.00	1114.00	1132.00	1130.00	1098.00	1056.00	1014.00	1003.00	981.00	943.00	923.00	923.00	906.00	899.00	895.00	916.00	927.00	1011.00	1044.00	1063.00	1062.00	1009.00	982.00	972.00	989.00	989.00	978.00	980.00	976.00	963.00	934.00	928.00	928.00	921.00	909.00	859.00	821.00	784.00	755.00	702.00	688.00	677.00	671.00	664.00	651.00	644.00	638.00	632.00	622.00	619.00	615.00	607.00
548.00	570.00	576.00	563.00	485.00	438.00	393.00	387.00	385.00	384.00	384.00	384.00	384.00	384.00	393.00	389.00	384.00	384.00	384.00	384.00	384.00	384.00	384.00	384.00	384.00	384.00	384.00	384.00	384.00	384.00	384.00	384.00	384.00	384.00	384.00	384.00	384.00	384.00	384.00	384.00	384.00	384.00	384.00	384.00	384.00	385.00	492.00	550.00	589.00	616.00	668.00	714.00	772.00	855.00	912.00	987.00	999.00	998.00	1003.00	880.00	772.00	731.00	691.00	645.00	605.00	583.00	567.00	542.00	525.00	527.00	542.00	566.00	609.00	738.00	789.00	831.00	876.00	938.00	921.00	914.00	951.00	951.00	973.00	992.00	1018.00	1042.00	1056.00	1046.00	1052.00	1064.00	1077.00	1106.00	1123.00	1141.00	1146.00	1107.00	1050.00	991.00	829.00	776.00	685.00	619.00	594.00	583.00	570.00	581.00	603.00	644.00	685.00	792.00	813.00	828.00	846.00	880.00	896.00	906.00	911.00	912.00	902.00	860.00	820.00	766.00	684.00	657.00	633.00	617.00	622.00	642.00	658.00	677.00	710.00	732.00	745.00	761.00	773.00	784.00	811.00	829.00	848.00	856.00	867.00	881.00	902.00	933.00	957.00	990.00	1005.00	1018.00	1039.00	1068.00	1063.00	1065.00	1075.00	1078.00	1061.00	1036.00	1010.00	972.00	888.00	846.00	817.00	756.00	650.00	589.00	549.00	539.00	530.00	513.00	504.00	491.00	482.00	497.00	559.00	648.00	707.00	741.00	788.00	799.00	829.00	858.00	925.00	972.00	1023.00	999.00	991.00	959.00	946.00	932.00	921.00	923.00	926.00	924.00	913.00	864.00	800.00	788.00	788.00	797.00	866.00	905.00	963.00	1013.00	1039.00	1100.00	1104.00	1114.00	1132.00	1130.00	1098.00	1056.00	1014.00	1003.00	981.00	943.00	923.00	923.00	906.00	899.00	895.00	916.00	927.00	1011.00	1044.00	1063.00	1062.00	1009.00	982.00	972.00	989.00	989.00	978.00	980.00	976.00	963.00	934.00	928.00	928.00	921.00	909.00	859.00	821.00	784.00	755.00	702.00	688.00	677.00	671.00	664.00	651.00	644.00	638.00	632.00	622.00	619.00	615.00	607.00
753.00	742.00	736.00	714.00	630.00	573.00	477.00	452.00	432.00	411.00	391.00	398.00	403.00	414.00	428.00	409.00	403.00	410.00	397.00	384.00	384.00	384.00	384.00	384.00	384.00	384.00	384.00	384.00	384.00	384.00	384.00	384.00	384.00	384.00	384.00	384.00	384.00	384.00	384.00	384.00	384.00	384.00	384.00	389.00	405.00	439.00	572.00	618.00	668.00	718.00	818.00	849.00	901.00	959.00	996.00	1075.00	1179.00	1206.00	1219.00	1059.00	904.00	820.00	797.00	716.00	661.00	633.00	613.00	583.00	570.00	563.00	562.00	567.00	581.00	628.00	660.00	685.00	716.00	868.00	918.00	961.00	1001.00	1014.00	1047.00	1071.00	1108.00	1137.00	1175.00	1178.00	1174.00	1177.00	1195.00	1234.00	1240.00	1240.00	1244.00	1213.00	1076.00	939.00	857.00	787.00	688.00	642.00	598.00	579.00	549.00	547.00	566.00	606.00	649.00	758.00	784.00	798.00	817.00	853.00	866.00	874.00	887.00	901.00	904.00	871.00	837.00	800.00	720.00	684.00	650.00	622.00	609.00	628.00	641.00	656.00	685.00	702.00	714.00	728.00	739.00	752.00	773.00	793.00	821.00	847.00	851.00	849.00	851.00	864.00	886.00	919.00	925.00	938.00	961.00	995.00	1000.00	1001.00	1009.00	1027.00	1039.00	1030.00	1003.00	950.00	865.00	839.00	818.00	759.00	682.00	630.00	575.00	550.00	538.00	522.00	514.00	506.00	496.00	472.00	483.00	510.00	587.00	650.00	698.00	721.00	759.00	790.00	865.00	904.00	972.00	984.00	972.00	929.00	911.00	893.00	874.00	864.00	863.00	855.00	832.00	786.00	778.00	792.00	823.00	855.00	948.00	1014.00	1067.00	1109.00	1151.00	1297.00	1339.00	1362.00	1400.00	1396.00	1355.00	1338.00	1326.00	1320.00	1273.00	1192.00	1167.00	1153.00	1088.00	1052.00	1018.00	996.00	957.00	909.00	897.00	896.00	904.00	889.00	885.00	884.00	892.00	902.00	927.00	940.00	947.00	950.00	947.00	956.00	965.00	974.00	982.00	936.00	891.00	794.00	756.00	697.00	689.00	679.00	674.00	668.00	657.00	651.00	646.00	640.00	632.00	627.00	623.00	615.00
753.00	742.00	736.00	714.00	630.00	573.00	477.00	452.00	432.00	411.00	391.00	398.00	403.00	414.00	428.00	409.00	403.00	410.00	397.00	384.00	384.00	384.00	384.00	384.00	384.00	384.00	384.00	384.00	384.00	384.00	384.00	384.00	384.00	384.00	384.00	384.00	384.00	384.00	384.00	384.00	384.00	384.00	384.00	389.00	405.00	439.00	572.00	618.00	668.00	718.00	818.00	849.00	901.00	959.00	996.00	1075.00	1179.00	1206.00	1219.00	1059.00	904.00	820.00	797.00	716.00	661.00	633.00	613.00	583.00	570.00	563.00	562.00	567.00	581.00	628.00	660.00	685.00	716.00	868.00	918.00	961.00	1001.00	1014.00	1047.00	1071.00	1108.00	1137.00	1175.00	1178.00	1174.00	1177.00	1195.00	1234.00	1240.00	1240.00	1244.00	1213.00	1076.00	939.00	857.00	787.00	688.00	642.00	598.00	579.00	549.00	547.00	566.00	606.00	649.00	758.00	784.00	798.00	817.00	853.00	866.00	874.00	887.00	901.00	904.00	871.00	837.00	800.00	720.00	684.00	650.00	622.00	609.00	628.00	641.00	656.00	685.00	702.00	714.00	728.00	739.00	752.00	773.00	793.00	821.00	847.00	851.00	849.00	851.00	864.00	886.00	919.00	925.00	938.00	961.00	995.00	1000.00	1001.00	1009.00	1027.00	1039.00	1030.00	1003.00	950.00	865.00	839.00	818.00	759.00	682.00	630.00	575.00	550.00	538.00	522.00	514.00	506.00	496.00	472.00	483.00	510.00	587.00	650.00	698.00	721.00	759.00	790.00	865.00	904.00	972.00	984.00	972.00	929.00	911.00	893.00	874.00	864.00	863.00	855.00	832.00	786.00	778.00	792.00	823.00	855.00	948.00	1014.00	1067.00	1109.00	1151.00	1297.00	1339.00	1362.00	1400.00	1396.00	1355.00	1338.00	1326.00	1320.00	1273.00	1192.00	1167.00	1153.00	1088.00	1052.00	1018.00	996.00	957.00	909.00	897.00	896.00	904.00	889.00	885.00	884.00	892.00	902.00	927.00	940.00	947.00	950.00	947.00	956.00	965.00	974.00	982.00	936.00	891.00	794.00	756.00	697.00	689.00	679.00	674.00	668.00	657.00	651.00	646.00	640.00	632.00	627.00	623.00	615.00
968.00	883.00	856.00	821.00	726.00	670.00	564.00	531.00	507.00	479.00	428.00	428.00	440.00	458.00	469.00	487.00	503.00	478.00	435.00	384.00	384.00	384.00	384.00	384.00	384.00	384.00	384.00	384.00	384.00	384.00	384.00	384.00	384.00	384.00	384.00	384.00	384.00	384.00	384.00	384.00	385.00	416.00	444.00	481.00	524.00	567.00	663.00	678.00	695.00	735.00	843.00	893.00	945.00	1013.00	1112.00	1200.00	1262.00	1313.00	1344.00	1182.00	1080.00	962.00	876.00	782.00	710.00	679.00	663.00	633.00	617.00	605.00	595.00	594.00	607.00	648.00	661.00	678.00	687.00	735.00	778.00	851.00	909.00	971.00	1026.00	1063.00	1092.00	1120.00	1207.00	1264.00	1271.00	1273.00	1279.00	1300.00	1315.00	1321.00	1321.00	1234.00	1083.00	983.00	896.00	838.00	710.00	669.00	625.00	589.00	547.00	536.00	538.00	552.00	578.00	648.00	660.00	684.00	704.00	757.00	785.00	807.00	828.00	846.00	860.00	847.00	827.00	797.00	736.00	701.00	669.00	635.00	603.00	620.00	642.00	659.00	675.00	686.00	691.00	697.00	706.00	718.00	740.00	752.00	777.00	811.00	826.00	824.00	823.00	824.00	831.00	862.00	872.00	882.00	893.00	913.00	934.00	946.00	956.00	985.00	991.00	989.00	974.00	950.00	874.00	848.00	829.00	774.00	680.00	637.00	591.00	569.00	547.00	517.00	515.00	510.00	504.00	469.00	470.00	477.00	485.00	502.00	612.00	678.00	717.00	748.00	814.00	852.00	898.00	907.00	903.00	882.00	867.00	847.00	827.00	804.00	797.00	788.00	773.00	768.00	823.00	875.00	919.00	958.00	1083.00	1128.00	1145.00	1167.00	1197.00	1431.00	1483.00	1516.00	1556.00	1580.00	1545.00	1492.00	1490.00	1513.00	1531.00	1471.00	1442.00	1438.00	1347.00	1333.00	1319.00	1257.00	1203.00	1064.00	1014.00	966.00	909.00	888.00	882.00	874.00	864.00	862.00	888.00	901.00	911.00	919.00	926.00	935.00	948.00	956.00	954.00	915.00	838.00	777.00	750.00	698.00	690.00	679.00	674.00	670.00	660.00	656.00	652.00	647.00	638.00	634.00	629.00	619.00
981.00	876.00	844.00	804.00	716.00	673.00	599.00	567.00	539.00	510.00	492.00	503.00	509.00	502.00	528.00	531.00	516.00	483.00	434.00	384.00	384.00	384.00	384.00	384.00	384.00	384.00	384.00	384.00	384.00	385.00	392.00	399.00	389.00	384.00	384.00	399.00	402.00	400.00	412.00	441.00	471.00	524.00	552.00	566.00	578.00	610.00	733.00	744.00	747.00	746.00	786.00	847.00	918.00	979.00	1119.00	1354.00	1371.00	1390.00	1366.00	1156.00	1050.00	972.00	883.00	805.00	769.00	748.00	728.00	714.00	647.00	623.00	616.00	627.00	656.00	728.00	760.00	772.00	769.00	747.00	771.00	816.00	862.00	887.00	921.00	958.00	994.00	1033.00	1139.00	1193.00	1207.00	1225.00	1247.00	1283.00	1305.00	1322.00	1331.00	1182.00	1093.00	1024.00	910.00	843.00	727.00	692.00	659.00	620.00	564.00	547.00	529.00	521.00	520.00	546.00	558.00	569.00	586.00	643.00	680.00	715.00	745.00	768.00	804.00	826.00	814.00	792.00	728.00	692.00	657.00	617.00	588.00	613.00	635.00	652.00	664.00	675.00	681.00	686.00	692.00	699.00	714.00	712.00	718.00	737.00	789.00	790.00	794.00	796.00	796.00	811.00	826.00	849.00	861.00	853.00	869.00	881.00	894.00	925.00	938.00	943.00	925.00	903.00	857.00	833.00	813.00	747.00	651.00	621.00	592.00	571.00	550.00	504.00	499.00	499.00	497.00	474.00	469.00	469.00	475.00	482.00	520.00	598.00	665.00	707.00	778.00	806.00	853.00	858.00	855.00	837.00	822.00	806.00	787.00	760.00	750.00	747.00	756.00	795.00	891.00	935.00	977.00	1042.00	1171.00	1222.00	1220.00	1219.00	1225.00	1390.00	1477.00	1535.00	1533.00	1500.00	1485.00	1474.00	1473.00	1480.00	1512.00	1562.00	1581.00	1592.00	1572.00	1596.00	1566.00	1512.00	1444.00	1265.00	1153.00	1076.00	984.00	892.00	886.00	876.00	865.00	853.00	847.00	859.00	872.00	883.00	891.00	892.00	887.00	879.00	862.00	801.00	779.00	758.00	736.00	694.00	687.00	675.00	670.00	665.00	654.00	650.00	646.00	641.00	631.00	626.00	621.00	610.00
981.00	876.00	844.00	804.00	716.00	673.00	599.00	567.00	539.00	510.00	492.00	503.00	509.00	502.00	528.00	531.00	516.00	483.00	434.00	384.00	384.00	384.00	384.00	384.00	384.00	384.00	384.00	384.00	384.00	385.00	392.00	399.00	389.00	384.00	384.00	399.00	402.00	400.00	412.00	441.00	471.00	524.00	552.00	566.00	578.00	610.00	733.00	744.00	747.00	746.00	786.00	847.00	918.00	979.00	1119.00	1354.00	1371.00	1390.00	1366.00	1156.00	1050.00	972.00	883.00	805.00	769.00	748.00	728.00	714.00	647.00	623.00	616.00	627.00	656.00	728.00	760.00	772.00	769.00	747.00	771.00	816.00	862.00	887.00	921.00	958.00	994.00	1033.00	1139.00	1193.00	1207.00	1225.00	1247.00	1283.00	1305.00	1322.00	1331.00	1182.00	1093.00	1024.00	910.00	843.00	727.00	692.00	659.00	620.00	564.00	547.00	529.00	521.00	520.00	546.00	558.00	569.00	586.00	643.00	680.00	715.00	745.00	768.00	804.00	826.00	814.00	792.00	728.00	692.00	657.00	617.00	588.00	613.00	635.00	652.00	664.00	675.00	681.00	686.00	692.00	699.00	714.00	712.00	718.00	737.00	789.00	790.00	794.00	796.00	796.00	811.00	826.00	849.00	861.00	853.00	869.00	881.00	894.00	925.00	938.00	943.00	925.00	903.00	857.00	833.00	813.00	747.00	651.00	621.00	592.00	571.00	550.00	504.00	499.00	499.00	497.00	474.00	469.00	469.00	475.00	482.00	520.00	598.00	665.00	707.00	778.00	806.00	853.00	858.00	855.00	837.00	822.00	806.00	787.00	760.00	750.00	747.00	756.00	795.00	891.00	935.00	977.00	1042.00	1171.00	1222.00	1220.00	1219.00	1225.00	1390.00	1477.00	1535.00	1533.00	1500.00	1485.00	1474.00	1473.00	1480.00	1512.00	1562.00	1581.00	1592.00	1572.00	1596.00	1566.00	1512.00	1444.00	1265.00	1153.00	1076.00	984.00	892.00	886.00	876.00	865.00	853.00	847.00	859.00	872.00	883.00	891.00	892.00	887.00	879.00	862.00	801.00	779.00	758.00	736.00	694.00	687.00	675.00	670.00	665.00	654.00	650.00	646.00	641.00	631.00	626.00	621.00	610.00
867.00	794.00	746.00	710.00	632.00	614.00	571.00	547.00	530.00	526.00	539.00	532.00	522.00	519.00	488.00	466.00	422.00	390.00	384.00	384.00	384.00	384.00	384.00	384.00	384.00	384.00	387.00	393.00	407.00	427.00	454.00	479.00	465.00	446.00	438.00	458.00	459.00	458.00	486.00	515.00	545.00	595.00	622.00	629.00	624.00	634.00	741.00	782.00	810.00	834.00	861.00	867.00	884.00	924.00	990.00	1226.00	1289.00	1194.00	1121.00	1067.00	1050.00	996.00	910.00	840.00	814.00	799.00	785.00	736.00	642.00	636.00	648.00	667.00	713.00	840.00	882.00	888.00	868.00	769.00	766.00	772.00	791.00	814.00	847.00	866.00	886.00	941.00	1060.00	1138.00	1161.00	1176.00	1169.00	1179.00	1199.00	1206.00	1198.00	1126.00	1067.00	986.00	879.00	819.00	734.00	700.00	671.00	643.00	589.00	570.00	554.00	537.00	516.00	501.00	508.00	517.00	527.00	548.00	575.00	605.00	634.00	654.00	710.00	774.00	778.00	771.00	732.00	699.00	661.00	619.00	580.00	593.00	612.00	629.00	654.00	664.00	670.00	675.00	681.00	685.00	684.00	672.00	666.00	670.00	751.00	761.00	770.00	776.00	774.00	777.00	785.00	799.00	811.00	812.00	819.00	829.00	842.00	864.00	873.00	875.00	870.00	855.00	810.00	783.00	759.00	706.00	629.00	600.00	577.00	562.00	548.00	517.00	504.00	497.00	494.00	474.00	469.00	468.00	470.00	476.00	490.00	535.00	604.00	656.00	730.00	773.00	813.00	816.00	814.00	802.00	787.00	766.00	748.00	734.00	752.00	772.00	788.00	839.00	937.00	985.00	1025.00	1080.00	1204.00	1282.00	1318.00	1372.00	1386.00	1432.00	1465.00	1471.00	1446.00	1340.00	1328.00	1326.00	1329.00	1333.00	1343.00	1387.00	1432.00	1485.00	1572.00	1584.00	1569.00	1541.00	1474.00	1292.00	1232.00	1147.00	992.00	893.00	890.00	882.00	871.00	859.00	832.00	824.00	824.00	833.00	844.00	840.00	829.00	813.00	796.00	771.00	757.00	741.00	724.00	692.00	685.00	672.00	665.00	659.00	647.00	642.00	637.00	631.00	620.00	614.00	610.00	607.00
867.00	794.00	746.00	710.00	632.00	614.00	571.00	547.00	530.00	526.00	539.00	532.00	522.00	519.00	488.00	466.00	422.00	390.00	384.00	384.00	384.00	384.00	384.00	384.00	384.00	384.00	387.00	393.00	407.00	427.00	454.00	479.00	465.00	446.00	438.00	458.00	459.00	458.00	486.00	515.00	545.00	595.00	622.00	629.00	624.00	634.00	741.00	782.00	810.00	834.00	861.00	867.00	884.00	924.00	990.00	1226.00	1289.00	1194.00	1121.00	1067.00	1050.00	996.00	910.00	840.00	814.00	799.00	785.00	736.00	642.00	636.00	648.00	667.00	713.00	840.00	882.00	888.00	868.00	769.00	766.00	772.00	791.00	814.00	847.00	866.00	886.00	941.00	1060.00	1138.00	1161.00	1176.00	1169.00	1179.00	1199.00	1206.00	1198.00	1126.00	1067.00	986.00	879.00	819.00	734.00	700.00	671.00	643.00	589.00	570.00	554.00	537.00	516.00	501.00	508.00	517.00	527.00	548.00	575.00	605.00	634.00	654.00	710.00	774.00	778.00	771.00	732.00	699.00	661.00	619.00	580.00	593.00	612.00	629.00	654.00	664.00	670.00	675.00	681.00	685.00	684.00	672.00	666.00	670.00	751.00	761.00	770.00	776.00	774.00	777.00	785.00	799.00	811.00	812.00	819.00	829.00	842.00	864.00	873.00	875.00	870.00	855.00	810.00	783.00	759.00	706.00	629.00	600.00	577.00	562.00	548.00	517.00	504.00	497.00	494.00	474.00	469.00	468.00	470.00	476.00	490.00	535.00	604.00	656.00	730.00	773.00	813.00	816.00	814.00	802.00	787.00	766.00	748.00	734.00	752.00	772.00	788.00	839.00	937.00	985.00	1025.00	1080.00	1204.00	1282.00	1318.00	1372.00	1386.00	1432.00	1465.00	1471.00	1446.00	1340.00	1328.00	1326.00	1329.00	1333.00	1343.00	1387.00	1432.00	1485.00	1572.00	1584.00	1569.00	1541.00	1474.00	1292.00	1232.00	1147.00	992.00	893.00	890.00	882.00	871.00	859.00	832.00	824.00	824.00	833.00	844.00	840.00	829.00	813.00	796.00	771.00	757.00	741.00	724.00	692.00	685.00	672.00	665.00	659.00	647.00	642.00	637.00	631.00	620.00	614.00	610.00	607.00
750.00	688.00	659.00	630.00	589.00	569.00	554.00	556.00	567.00	562.00	541.00	520.00	505.00	486.00	427.00	392.00	384.00	384.00	384.00	389.00	392.00	393.00	392.00	392.00	393.00	396.00	407.00	424.00	479.00	501.00	525.00	536.00	540.00	540.00	540.00	524.00	513.00	538.00	552.00	572.00	596.00	651.00	667.00	662.00	676.00	681.00	719.00	753.00	789.00	819.00	914.00	966.00	985.00	979.00	960.00	960.00	994.00	974.00	983.00	995.00	987.00	961.00	921.00	876.00	808.00	788.00	787.00	727.00	641.00	653.00	672.00	691.00	734.00	810.00	848.00	895.00	907.00	823.00	803.00	807.00	822.00	838.00	847.00	849.00	835.00	846.00	919.00	1021.00	1047.00	1051.00	1063.00	1015.00	991.00	970.00	964.00	947.00	914.00	892.00	818.00	794.00	739.00	726.00	716.00	699.00	642.00	617.00	592.00	572.00	550.00	507.00	498.00	495.00	498.00	519.00	531.00	540.00	554.00	571.00	613.00	669.00	695.00	718.00	716.00	689.00	655.00	615.00	578.00	555.00	568.00	587.00	621.00	652.00	658.00	662.00	665.00	669.00	668.00	660.00	659.00	659.00	717.00	735.00	748.00	756.00	758.00	742.00	747.00	760.00	766.00	767.00	775.00	780.00	786.00	810.00	814.00	812.00	807.00	787.00	733.00	703.00	676.00	624.00	575.00	553.00	539.00	527.00	519.00	505.00	500.00	496.00	490.00	473.00	471.00	468.00	468.00	470.00	485.00	497.00	546.00	600.00	683.00	724.00	780.00	789.00	788.00	750.00	731.00	718.00	715.00	760.00	785.00	819.00	866.00	934.00	990.00	1023.00	1056.00	1088.00	1174.00	1226.00	1268.00	1286.00	1302.00	1299.00	1275.00	1260.00	1266.00	1214.00	1194.00	1187.00	1197.00	1210.00	1256.00	1289.00	1306.00	1362.00	1443.00	1493.00	1496.00	1486.00	1438.00	1346.00	1278.00	1185.00	1015.00	923.00	899.00	889.00	879.00	865.00	836.00	822.00	810.00	801.00	803.00	801.00	794.00	783.00	772.00	751.00	739.00	727.00	714.00	690.00	682.00	668.00	661.00	654.00	640.00	634.00	627.00	621.00	609.00	607.00	607.00	608.00
750.00	688.00	659.00	630.00	589.00	569.00	554.00	556.00	567.00	562.00	541.00	520.00	505.00	486.00	427.00	392.00	384.00	384.00	384.00	389.00	392.00	393.00	392.00	392.00	393.00	396.00	407.00	424.00	479.00	501.00	525.00	536.00	540.00	540.00	540.00	524.00	513.00	538.00	552.00	572.00	596.00	651.00	667.00	662.00	676.00	681.00	719.00	753.00	789.00	819.00	914.00	966.00	985.00	979.00	960.00	960.00	994.00	974.00	983.00	995.00	987.00	961.00	921.00	876.00	808.00	788.00	787.00	727.00	641.00	653.00	672.00	691.00	734.00	810.00	848.00	895.00	907.00	823.00	803.00	807.00	822.00	838.00	847.00	849.00	835.00	846.00	919.00	1021.00	1047.00	1051.00	1063.00	1015.00	991.00	970.00	964.00	947.00	914.00	892.00	818.00	794.00	739.00	726.00	716.00	699.00	642.00	617.00	592.00	572.00	550.00	507.00	498.00	495.00	498.00	519.00	531.00	540.00	554.00	571.00	613.00	669.00	695.00	718.00	716.00	689.00	655.00	615.00	578.00	555.00	568.00	587.00	621.00	652.00	658.00	662.00	665.00	669.00	668.00	660.00	659.00	659.00	717.00	735.00	748.00	756.00	758.00	742.00	747.00	760.00	766.00	767.00	775.00	780.00	786.00	810.00	814.00	812.00	807.00	787.00	733.00	703.00	676.00	624.00	575.00	553.00	539.00	527.00	519.00	505.00	500.00	496.00	490.00	473.00	471.00	468.00	468.00	470.00	485.00	497.00	546.00	600.00	683.00	724.00	780.00	789.00	788.00	750.00	731.00	718.00	715.00	760.00	785.00	819.00	866.00	934.00	990.00	1023.00	1056.00	1088.00	1174.00	1226.00	1268.00	1286.00	1302.00	1299.00	1275.00	1260.00	1266.00	1214.00	1194.00	1187.00	1197.00	1210.00	1256.00	1289.00	1306.00	1362.00	1443.00	1493.00	1496.00	1486.00	1438.00	1346.00	1278.00	1185.00	1015.00	923.00	899.00	889.00	879.00	865.00	836.00	822.00	810.00	801.00	803.00	801.00	794.00	783.00	772.00	751.00	739.00	727.00	714.00	690.00	682.00	668.00	661.00	654.00	640.00	634.00	627.00	621.00	609.00	607.00	607.00	608.00
654.00	620.00	610.00	596.00	577.00	572.00	577.00	580.00	567.00	552.00	522.00	488.00	443.00	412.00	384.00	384.00	384.00	384.00	384.00	385.00	386.00	389.00	393.00	401.00	417.00	427.00	440.00	457.00	530.00	568.00	587.00	599.00	621.00	623.00	618.00	600.00	578.00	615.00	631.00	626.00	654.00	692.00	725.00	745.00	744.00	737.00	781.00	794.00	819.00	839.00	885.00	923.00	969.00	1003.00	1027.00	1029.00	1026.00	1018.00	993.00	976.00	971.00	937.00	903.00	885.00	782.00	746.00	722.00	675.00	648.00	649.00	664.00	694.00	724.00	795.00	821.00	842.00	859.00	877.00	847.00	840.00	845.00	835.00	819.00	803.00	790.00	789.00	790.00	799.00	811.00	831.00	839.00	839.00	823.00	807.00	808.00	806.00	802.00	788.00	765.00	765.00	762.00	756.00	749.00	734.00	702.00	683.00	659.00	632.00	600.00	531.00	512.00	500.00	491.00	503.00	510.00	518.00	526.00	534.00	555.00	576.00	594.00	615.00	675.00	680.00	634.00	590.00	559.00	527.00	528.00	539.00	570.00	601.00	618.00	632.00	644.00	653.00	659.00	659.00	659.00	659.00	682.00	689.00	697.00	708.00	716.00	698.00	696.00	704.00	713.00	706.00	710.00	718.00	728.00	730.00	735.00	731.00	722.00	707.00	655.00	627.00	601.00	561.00	517.00	507.00	501.00	498.00	496.00	493.00	490.00	487.00	484.00	471.00	470.00	468.00	468.00	469.00	480.00	487.00	498.00	530.00	605.00	629.00	689.00	704.00	707.00	696.00	696.00	699.00	713.00	772.00	797.00	843.00	895.00	993.00	1035.00	1067.00	1097.00	1133.00	1193.00	1217.00	1244.00	1253.00	1242.00	1129.00	1095.00	1090.00	1101.00	1132.00	1155.00	1182.00	1229.00	1284.00	1366.00	1366.00	1391.00	1423.00	1531.00	1556.00	1540.00	1482.00	1420.00	1260.00	1200.00	1134.00	1041.00	972.00	934.00	901.00	886.00	870.00	840.00	824.00	807.00	795.00	778.00	771.00	766.00	758.00	751.00	732.00	722.00	712.00	702.00	688.00	680.00	664.00	656.00	648.00	633.00	625.00	618.00	610.00	600.00	599.00	602.00	614.00
654.00	620.00	610.00	596.00	577.00	572.00	577.00	580.00	567.00	552.00	522.00	488.00	443.00	412.00	384.00	384.00	384.00	384.00	384.00	385.00	386.00	389.00	393.00	401.00	417.00	427.00	440.00	457.00	530.00	568.00	587.00	599.00	621.00	623.00	618.00	600.00	578.00	615.00	631.00	626.00	654.00	692.00	725.00	745.00	744.00	737.00	781.00	794.00	819.00	839.00	885.00	923.00	969.00	1003.00	1027.00	1029.00	1026.00	1018.00	993.00	976.00	971.00	937.00	903.00	885.00	782.00	746.00	722.00	675.00	648.00	649.00	664.00	694.00	724.00	795.00	821.00	842.00	859.00	877.00	847.00	840.00	845.00	835.00	819.00	803.00	790.00	789.00	790.00	799.00	811.00	831.00	839.00	839.00	823.00	807.00	808.00	806.00	802.00	788.00	765.00	765.00	762.00	756.00	749.00	734.00	702.00	683.00	659.00	632.00	600.00	531.00	512.00	500.00	491.00	503.00	510.00	518.00	526.00	534.00	555.00	576.00	594.00	615.00	675.00	680.00	634.00	590.00	559.00	527.00	528.00	539.00	570.00	601.00	618.00	632.00	644.00	653.00	659.00	659.00	659.00	659.00	682.00	689.00	697.00	708.00	716.00	698.00	696.00	704.00	713.00	706.00	710.00	718.00	728.00	730.00	735.00	731.00	722.00	707.00	655.00	627.00	601.00	561.00	517.00	507.00	501.00	498.00	496.00	493.00	490.00	487.00	484.00	471.00	470.00	468.00	468.00	469.00	480.00	487.00	498.00	530.00	605.00	629.00	689.00	704.00	707.00	696.00	696.00	699.00	713.00	772.00	797.00	843.00	895.00	993.00	1035.00	1067.00	1097.00	1133.00	1193.00	1217.00	1244.00	1253.00	1242.00	1129.00	1095.00	1090.00	1101.00	1132.00	1155.00	1182.00	1229.00	1284.00	1366.00	1366.00	1391.00	1423.00	1531.00	1556.00	1540.00	1482.00	1420.00	1260.00	1200.00	1134.00	1041.00	972.00	934.00	901.00	886.00	870.00	840.00	824.00	807.00	795.00	778.00	771.00	766.00	758.00	751.00	732.00	722.00	712.00	702.00	688.00	680.00	664.00	656.00	648.00	633.00	625.00	618.00	610.00	600.00	599.00	602.00	614.00
680.00	650.00	636.00	627.00	612.00	612.00	594.00	580.00	556.00	523.00	471.00	443.00	402.00	386.00	384.00	384.00	384.00	384.00	384.00	384.00	384.00	384.00	384.00	386.00	429.00	453.00	468.00	486.00	572.00	610.00	641.00	664.00	680.00	668.00	656.00	620.00	604.00	610.00	607.00	607.00	615.00	653.00	696.00	733.00	766.00	792.00	888.00	904.00	910.00	897.00	895.00	903.00	905.00	912.00	919.00	950.00	956.00	950.00	951.00	950.00	928.00	909.00	888.00	855.00	774.00	738.00	710.00	675.00	668.00	666.00	675.00	709.00	753.00	817.00	842.00	854.00	862.00	871.00	885.00	893.00	890.00	865.00	847.00	833.00	824.00	806.00	761.00	766.00	780.00	788.00	802.00	794.00	782.00	754.00	719.00	675.00	679.00	680.00	696.00	708.00	712.00	716.00	714.00	722.00	729.00	724.00	712.00	695.00	669.00	587.00	558.00	533.00	510.00	489.00	490.00	495.00	503.00	509.00	515.00	515.00	518.00	521.00	549.00	549.00	536.00	516.00	502.00	498.00	494.00	495.00	521.00	533.00	546.00	559.00	573.00	585.00	620.00	635.00	639.00	649.00	664.00	670.00	676.00	678.00	672.00	663.00	663.00	664.00	665.00	659.00	660.00	655.00	651.00	640.00	634.00	631.00	623.00	609.00	563.00	545.00	533.00	507.00	494.00	493.00	491.00	490.00	488.00	486.00	484.00	482.00	479.00	468.00	468.00	468.00	468.00	469.00	478.00	483.00	487.00	492.00	533.00	553.00	603.00	621.00	652.00	680.00	686.00	692.00	707.00	784.00	816.00	858.00	895.00	1002.00	1041.00	1059.00	1088.00	1136.00	1203.00	1212.00	1213.00	1205.00	1179.00	1045.00	1057.00	1078.00	1096.00	1174.00	1217.00	1256.00	1323.00	1396.00	1483.00	1486.00	1498.00	1520.00	1541.00	1548.00	1541.00	1492.00	1435.00	1226.00	1152.00	1094.00	1044.00	997.00	965.00	921.00	897.00	884.00	854.00	838.00	821.00	808.00	778.00	767.00	757.00	747.00	737.00	719.00	710.00	701.00	694.00	685.00	677.00	660.00	651.00	642.00	625.00	617.00	609.00	601.00	597.00	600.00	609.00	633.00
785.00	754.00	747.00	738.00	713.00	698.00	651.00	616.00	583.00	541.00	469.00	423.00	386.00	384.00	384.00	384.00	384.00	384.00	384.00	384.00	384.00	384.00	384.00	399.00	442.00	469.00	507.00	545.00	623.00	631.00	643.00	658.00	684.00	698.00	701.00	659.00	646.00	632.00	607.00	602.00	603.00	619.00	660.00	716.00	765.00	812.00	926.00	956.00	978.00	992.00	981.00	956.00	948.00	948.00	950.00	930.00	928.00	924.00	921.00	904.00	888.00	880.00	868.00	851.00	819.00	796.00	768.00	723.00	719.00	726.00	732.00	739.00	760.00	785.00	795.00	805.00	803.00	778.00	749.00	735.00	714.00	705.00	709.00	702.00	696.00	694.00	673.00	665.00	682.00	687.00	681.00	671.00	665.00	659.00	670.00	636.00	619.00	614.00	624.00	639.00	640.00	647.00	651.00	663.00	679.00	699.00	716.00	718.00	714.00	681.00	657.00	623.00	589.00	524.00	505.00	490.00	485.00	482.00	478.00	475.00	477.00	475.00	486.00	487.00	478.00	475.00	475.00	475.00	475.00	476.00	478.00	490.00	497.00	508.00	513.00	516.00	530.00	538.00	546.00	563.00	628.00	646.00	656.00	660.00	662.00	653.00	643.00	639.00	633.00	625.00	613.00	600.00	590.00	569.00	564.00	563.00	560.00	550.00	512.00	502.00	501.00	486.00	484.00	483.00	482.00	482.00	481.00	481.00	479.00	478.00	475.00	468.00	468.00	468.00	468.00	468.00	475.00	478.00	482.00	485.00	492.00	496.00	571.00	603.00	632.00	667.00	681.00	693.00	740.00	844.00	888.00	923.00	966.00	1032.00	1067.00	1067.00	1042.00	1064.00	1143.00	1160.00	1149.00	1121.00	1074.00	1009.00	1039.00	1077.00	1134.00	1256.00	1296.00	1344.00	1388.00	1421.00	1465.00	1454.00	1453.00	1440.00	1385.00	1375.00	1394.00	1409.00	1403.00	1260.00	1148.00	1088.00	1048.00	1006.00	982.00	953.00	927.00	906.00	873.00	854.00	836.00	819.00	779.00	769.00	759.00	749.00	739.00	719.00	710.00	701.00	695.00	683.00	673.00	655.00	645.00	636.00	617.00	608.00	599.00	595.00	597.00	606.00	620.00	652.00
785.00	754.00	747.00	738.00	713.00	698.00	651.00	616.00	583.00	541.00	469.00	423.00	386.00	384.00	384.00	384.00	384.00	384.00	384.00	384.00	384.00	384.00	384.00	399.00	442.00	469.00	507.00	545.00	623.00	631.00	643.00	658.00	684.00	698.00	701.00	659.00	646.00	632.00	607.00	602.00	603.00	619.00	660.00	716.00	765.00	812.00	926.00	956.00	978.00	992.00	981.00	956.00	948.00	948.00	950.00	930.00	928.00	924.00	921.00	904.00	888.00	880.00	868.00	851.00	819.00	796.00	768.00	723.00	719.00	726.00	732.00	739.00	760.00	785.00	795.00	805.00	803.00	778.00	749.00	735.00	714.00	705.00	709.00	702.00	696.00	694.00	673.00	665.00	682.00	687.00	681.00	671.00	665.00	659.00	670.00	636.00	619.00	614.00	624.00	639.00	640.00	647.00	651.00	663.00	679.00	699.00	716.00	718.00	714.00	681.00	657.00	623.00	589.00	524.00	505.00	490.00	485.00	482.00	478.00	475.00	477.00	475.00	486.00	487.00	478.00	475.00	475.00	475.00	475.00	476.00	478.00	490.00	497.00	508.00	513.00	516.00	530.00	538.00	546.00	563.00	628.00	646.00	656.00	660.00	662.00	653.00	643.00	639.00	633.00	625.00	613.00	600.00	590.00	569.00	564.00	563.00	560.00	550.00	512.00	502.00	501.00	486.00	484.00	483.00	482.00	482.00	481.00	481.00	479.00	478.00	475.00	468.00	468.00	468.00	468.00	468.00	475.00	478.00	482.00	485.00	492.00	496.00	571.00	603.00	632.00	667.00	681.00	693.00	740.00	844.00	888.00	923.00	966.00	1032.00	1067.00	1067.00	1042.00	1064.00	1143.00	1160.00	1149.00	1121.00	1074.00	1009.00	1039.00	1077.00	1134.00	1256.00	1296.00	1344.00	1388.00	1421.00	1465.00	1454.00	1453.00	1440.00	1385.00	1375.00	1394.00	1409.00	1403.00	1260.00	1148.00	1088.00	1048.00	1006.00	982.00	953.00	927.00	906.00	873.00	854.00	836.00	819.00	779.00	769.00	759.00	749.00	739.00	719.00	710.00	701.00	695.00	683.00	673.00	655.00	645.00	636.00	617.00	608.00	599.00	595.00	597.00	606.00	620.00	652.00
785.00	754.00	747.00	738.00	713.00	698.00	651.00	616.00	583.00	541.00	469.00	423.00	386.00	384.00	384.00	384.00	384.00	384.00	384.00	384.00	384.00	384.00	384.00	399.00	442.00	469.00	507.00	545.00	623.00	631.00	643.00	658.00	684.00	698.00	701.00	659.00	646.00	632.00	607.00	602.00	603.00	619.00	660.00	716.00	765.00	812.00	926.00	956.00	978.00	992.00	981.00	956.00	948.00	948.00	950.00	930.00	928.00	924.00	921.00	904.00	888.00	880.00	868.00	851.00	819.00	796.00	768.00	723.00	719.00	726.00	732.00	739.00	760.00	785.00	795.00	805.00	803.00	778.00	749.00	735.00	714.00	705.00	709.00	702.00	696.00	694.00	673.00	665.00	682.00	687.00	681.00	671.00	665.00	659.00	670.00	636.00	619.00	614.00	624.00	639.00	640.00	647.00	651.00	663.00	679.00	699.00	716.00	718.00	714.00	681.00	657.00	623.00	589.00	524.00	505.00	490.00	485.00	482.00	478.00	475.00	477.00	475.00	486.00	487.00	478.00	475.00	475.00	475.00	475.00	476.00	478.00	490.00	497.00	508.00	513.00	516.00	530.00	538.00	546.00	563.00	628.00	646.00	656.00	660.00	662.00	653.00	643.00	639.00	633.00	625.00	613.00	600.00	590.00	569.00	564.00	563.00	560.00	550.00	512.00	502.00	501.00	486.00	484.00	483.00	482.00	482.00	481.00	481.00	479.00	478.00	475.00	468.00	468.00	468.00	468.00	468.00	475.00	478.00	482.00	485.00	492.00	496.00	571.00	603.00	632.00	667.00	681.00	693.00	740.00	844.00	888.00	923.00	966.00	1032.00	1067.00	1067.00	1042.00	1064.00	1143.00	1160.00	1149.00	1121.00	1074.00	1009.00	1039.00	1077.00	1134.00	1256.00	1296.00	1344.00	1388.00	1421.00	1465.00	1454.00	1453.00	1440.00	1385.00	1375.00	1394.00	1409.00	1403.00	1260.00	1148.00	1088.00	1048.00	1006.00	982.00	953.00	927.00	906.00	873.00	854.00	836.00	819.00	779.00	769.00	759.00	749.00	739.00	719.00	710.00	701.00	695.00	683.00	673.00	655.00	645.00	636.00	617.00	608.00	599.00	595.00	597.00	606.00	620.00	652.00
837.00	822.00	822.00	825.00	802.00	775.00	694.00	657.00	617.00	580.00	485.00	434.00	389.00	384.00	384.00	384.00	384.00	384.00	384.00	384.00	384.00	384.00	384.00	391.00	426.00	443.00	459.00	478.00	492.00	516.00	550.00	573.00	617.00	646.00	667.00	713.00	727.00	681.00	658.00	647.00	659.00	669.00	694.00	732.00	774.00	812.00	934.00	969.00	1005.00	1045.00	1102.00	1116.00	1122.00	1113.00	1116.00	1075.00	1031.00	1011.00	990.00	941.00	935.00	919.00	892.00	863.00	847.00	851.00	853.00	833.00	815.00	814.00	809.00	803.00	778.00	747.00	740.00	730.00	708.00	679.00	670.00	661.00	657.00	658.00	667.00	673.00	683.00	697.00	720.00	731.00	720.00	713.00	695.00	677.00	680.00	678.00	672.00	648.00	640.00	629.00	623.00	619.00	627.00	628.00	632.00	636.00	642.00	648.00	659.00	668.00	678.00	709.00	709.00	704.00	688.00	629.00	597.00	565.00	527.00	489.00	475.00	475.00	475.00	475.00	475.00	475.00	475.00	475.00	475.00	475.00	475.00	475.00	475.00	475.00	475.00	475.00	478.00	480.00	475.00	476.00	478.00	479.00	518.00	547.00	575.00	596.00	616.00	637.00	633.00	619.00	611.00	608.00	602.00	592.00	576.00	539.00	531.00	524.00	519.00	508.00	473.00	466.00	470.00	470.00	473.00	474.00	475.00	477.00	477.00	476.00	474.00	473.00	471.00	471.00	470.00	469.00	468.00	468.00	470.00	473.00	477.00	480.00	487.00	492.00	552.00	592.00	616.00	672.00	701.00	753.00	792.00	874.00	909.00	952.00	991.00	1054.00	1093.00	1088.00	1049.00	1009.00	1046.00	1050.00	1040.00	1005.00	976.00	991.00	1006.00	1057.00	1109.00	1212.00	1272.00	1328.00	1381.00	1394.00	1377.00	1353.00	1342.00	1324.00	1296.00	1303.00	1365.00	1384.00	1351.00	1214.00	1125.00	1083.00	1045.00	1005.00	985.00	963.00	941.00	918.00	879.00	860.00	840.00	820.00	781.00	771.00	760.00	750.00	740.00	720.00	710.00	701.00	694.00	680.00	670.00	650.00	640.00	630.00	609.00	600.00	593.00	592.00	597.00	611.00	628.00	661.00
799.00	790.00	775.00	761.00	725.00	695.00	644.00	614.00	585.00	552.00	480.00	448.00	413.00	388.00	384.00	384.00	384.00	384.00	384.00	384.00	384.00	384.00	384.00	388.00	403.00	400.00	409.00	422.00	456.00	466.00	473.00	479.00	550.00	587.00	624.00	685.00	712.00	740.00	743.00	731.00	743.00	762.00	756.00	769.00	783.00	801.00	911.00	950.00	986.00	1018.00	1073.00	1086.00	1097.00	1098.00	1103.00	1116.00	1081.00	1065.00	1045.00	1016.00	993.00	980.00	951.00	919.00	877.00	844.00	813.00	774.00	742.00	718.00	714.00	705.00	699.00	686.00	675.00	665.00	662.00	667.00	678.00	704.00	741.00	766.00	820.00	843.00	871.00	886.00	887.00	894.00	898.00	886.00	870.00	848.00	836.00	824.00	807.00	753.00	719.00	696.00	688.00	677.00	660.00	651.00	650.00	646.00	638.00	632.00	630.00	635.00	642.00	673.00	690.00	708.00	715.00	696.00	672.00	647.00	616.00	584.00	490.00	475.00	475.00	476.00	475.00	475.00	475.00	475.00	475.00	475.00	478.00	476.00	475.00	475.00	475.00	475.00	475.00	475.00	475.00	475.00	475.00	475.00	475.00	476.00	491.00	516.00	522.00	544.00	550.00	550.00	550.00	540.00	536.00	533.00	528.00	510.00	505.00	496.00	487.00	478.00	466.00	459.00	457.00	458.00	463.00	464.00	466.00	468.00	470.00	471.00	469.00	469.00	468.00	473.00	471.00	469.00	468.00	468.00	468.00	469.00	471.00	473.00	479.00	484.00	502.00	530.00	577.00	660.00	704.00	751.00	780.00	829.00	867.00	905.00	943.00	990.00	1041.00	1022.00	986.00	963.00	951.00	947.00	931.00	915.00	926.00	1010.00	1052.00	1099.00	1162.00	1247.00	1278.00	1302.00	1322.00	1323.00	1278.00	1281.00	1286.00	1293.00	1299.00	1334.00	1380.00	1393.00	1382.00	1202.00	1142.00	1097.00	1051.00	1004.00	989.00	970.00	948.00	925.00	886.00	866.00	846.00	826.00	783.00	773.00	763.00	752.00	742.00	722.00	711.00	701.00	694.00	677.00	667.00	646.00	635.00	625.00	603.00	594.00	588.00	588.00	599.00	612.00	626.00	654.00
799.00	790.00	775.00	761.00	725.00	695.00	644.00	614.00	585.00	552.00	480.00	448.00	413.00	388.00	384.00	384.00	384.00	384.00	384.00	384.00	384.00	384.00	384.00	388.00	403.00	400.00	409.00	422.00	456.00	466.00	473.00	479.00	550.00	587.00	624.00	685.00	712.00	740.00	743.00	731.00	743.00	762.00	756.00	769.00	783.00	801.00	911.00	950.00	986.00	1018.00	1073.00	1086.00	1097.00	1098.00	1103.00	1116.00	1081.00	1065.00	1045.00	1016.00	993.00	980.00	951.00	919.00	877.00	844.00	813.00	774.00	742.00	718.00	714.00	705.00	699.00	686.00	675.00	665.00	662.00	667.00	678.00	704.00	741.00	766.00	820.00	843.00	871.00	886.00	887.00	894.00	898.00	886.00	870.00	848.00	836.00	824.00	807.00	753.00	719.00	696.00	688.00	677.00	660.00	651.00	650.00	646.00	638.00	632.00	630.00	635.00	642.00	673.00	690.00	708.00	715.00	696.00	672.00	647.00	616.00	584.00	490.00	475.00	475.00	476.00	475.00	475.00	475.00	475.00	475.00	475.00	478.00	476.00	475.00	475.00	475.00	475.00	475.00	475.00	475.00	475.00	475.00	475.00	475.00	476.00	491.00	516.00	522.00	544.00	550.00	550.00	550.00	540.00	536.00	533.00	528.00	510.00	505.00	496.00	487.00	478.00	466.00	459.00	457.00	458.00	463.00	464.00	466.00	468.00	470.00	471.00	469.00	469.00	468.00	473.00	471.00	469.00	468.00	468.00	468.00	469.00	471.00	473.00	479.00	484.00	502.00	530.00	577.00	660.00	704.00	751.00	780.00	829.00	867.00	905.00	943.00	990.00	1041.00	1022.00	986.00	963.00	951.00	947.00	931.00	915.00	926.00	1010.00	1052.00	1099.00	1162.00	1247.00	1278.00	1302.00	1322.00	1323.00	1278.00	1281.00	1286.00	1293.00	1299.00	1334.00	1380.00	1393.00	1382.00	1202.00	1142.00	1097.00	1051.00	1004.00	989.00	970.00	948.00	925.00	886.00	866.00	846.00	826.00	783.00	773.00	763.00	752.00	742.00	722.00	711.00	701.00	694.00	677.00	667.00	646.00	635.00	625.00	603.00	594.00	588.00	588.00	599.00	612.00	626.00	654.00
642.00	643.00	641.00	630.00	602.00	586.00	548.00	528.00	506.00	482.00	426.00	397.00	384.00	384.00	384.00	384.00	384.00	384.00	384.00	384.00	384.00	386.00	388.00	392.00	397.00	401.00	410.00	420.00	441.00	452.00	470.00	501.00	558.00	583.00	605.00	655.00	688.00	736.00	758.00	773.00	777.00	829.00	836.00	846.00	861.00	875.00	948.00	949.00	948.00	982.00	1047.00	1030.00	966.00	962.00	982.00	1030.00	1028.00	1020.00	1005.00	929.00	902.00	877.00	855.00	846.00	788.00	761.00	744.00	729.00	713.00	706.00	704.00	699.00	690.00	677.00	686.00	704.00	726.00	738.00	764.00	808.00	849.00	866.00	861.00	842.00	843.00	835.00	862.00	935.00	956.00	961.00	954.00	908.00	913.00	919.00	920.00	871.00	828.00	820.00	787.00	765.00	711.00	695.00	677.00	656.00	641.00	635.00	630.00	626.00	621.00	629.00	634.00	642.00	650.00	647.00	636.00	623.00	606.00	580.00	526.00	503.00	507.00	510.00	513.00	503.00	495.00	488.00	485.00	492.00	501.00	504.00	494.00	478.00	475.00	475.00	475.00	475.00	475.00	475.00	475.00	475.00	475.00	475.00	475.00	475.00	477.00	483.00	483.00	480.00	481.00	483.00	477.00	477.00	477.00	476.00	480.00	484.00	489.00	499.00	508.00	509.00	502.00	469.00	457.00	457.00	457.00	458.00	459.00	463.00	464.00	465.00	464.00	474.00	472.00	470.00	469.00	468.00	468.00	468.00	468.00	468.00	470.00	473.00	481.00	487.00	507.00	618.00	660.00	690.00	716.00	765.00	791.00	828.00	857.00	893.00	928.00	915.00	885.00	873.00	862.00	870.00	880.00	891.00	928.00	1057.00	1110.00	1173.00	1200.00	1204.00	1204.00	1195.00	1164.00	1127.00	1150.00	1203.00	1251.00	1274.00	1290.00	1322.00	1362.00	1380.00	1378.00	1254.00	1180.00	1126.00	1072.00	1023.00	1001.00	984.00	961.00	936.00	892.00	873.00	852.00	832.00	787.00	778.00	768.00	757.00	747.00	726.00	716.00	706.00	696.00	677.00	666.00	644.00	633.00	622.00	600.00	592.00	585.00	586.00	603.00	615.00	627.00	652.00
548.00	540.00	531.00	522.00	491.00	470.00	433.00	417.00	408.00	400.00	386.00	384.00	384.00	384.00	384.00	384.00	384.00	384.00	384.00	384.00	384.00	391.00	396.00	414.00	419.00	418.00	421.00	426.00	457.00	476.00	494.00	511.00	546.00	571.00	584.00	624.00	654.00	703.00	713.00	715.00	730.00	762.00	780.00	784.00	792.00	794.00	778.00	780.00	773.00	787.00	812.00	806.00	794.00	798.00	832.00	840.00	824.00	822.00	812.00	796.00	787.00	771.00	754.00	740.00	730.00	730.00	724.00	712.00	708.00	702.00	692.00	685.00	687.00	705.00	726.00	754.00	771.00	812.00	812.00	815.00	813.00	790.00	796.00	808.00	826.00	850.00	882.00	898.00	910.00	914.00	915.00	887.00	892.00	896.00	903.00	888.00	865.00	849.00	804.00	793.00	723.00	706.00	687.00	668.00	655.00	650.00	643.00	632.00	621.00	599.00	597.00	596.00	594.00	591.00	585.00	581.00	580.00	587.00	586.00	584.00	578.00	578.00	590.00	588.00	577.00	570.00	560.00	559.00	562.00	567.00	570.00	556.00	534.00	509.00	490.00	482.00	475.00	475.00	475.00	475.00	475.00	475.00	475.00	475.00	475.00	475.00	475.00	475.00	475.00	475.00	475.00	475.00	475.00	475.00	477.00	478.00	483.00	493.00	514.00	523.00	531.00	535.00	536.00	525.00	518.00	501.00	496.00	465.00	462.00	461.00	460.00	472.00	473.00	471.00	470.00	469.00	468.00	468.00	468.00	468.00	468.00	468.00	469.00	473.00	480.00	534.00	590.00	624.00	646.00	689.00	711.00	738.00	754.00	788.00	797.00	790.00	792.00	797.00	833.00	854.00	875.00	894.00	948.00	1079.00	1113.00	1123.00	1109.00	1044.00	1017.00	1020.00	1017.00	1022.00	1092.00	1190.00	1196.00	1197.00	1232.00	1270.00	1296.00	1298.00	1296.00	1232.00	1158.00	1113.00	1096.00	1053.00	1024.00	998.00	974.00	948.00	899.00	881.00	864.00	846.00	798.00	788.00	776.00	764.00	753.00	731.00	721.00	710.00	699.00	679.00	668.00	645.00	634.00	622.00	599.00	590.00	579.00	580.00	604.00	617.00	631.00	660.00
548.00	540.00	531.00	522.00	491.00	470.00	433.00	417.00	408.00	400.00	386.00	384.00	384.00	384.00	384.00	384.00	384.00	384.00	384.00	384.00	384.00	391.00	396.00	414.00	419.00	418.00	421.00	426.00	457.00	476.00	494.00	511.00	546.00	571.00	584.00	624.00	654.00	703.00	713.00	715.00	730.00	762.00	780.00	784.00	792.00	794.00	778.00	780.00	773.00	787.00	812.00	806.00	794.00	798.00	832.00	840.00	824.00	822.00	812.00	796.00	787.00	771.00	754.00	740.00	730.00	730.00	724.00	712.00	708.00	702.00	692.00	685.00	687.00	705.00	726.00	754.00	771.00	812.00	812.00	815.00	813.00	790.00	796.00	808.00	826.00	850.00	882.00	898.00	910.00	914.00	915.00	887.00	892.00	896.00	903.00	888.00	865.00	849.00	804.00	793.00	723.00	706.00	687.00	668.00	655.00	650.00	643.00	632.00	621.00	599.00	597.00	596.00	594.00	591.00	585.00	581.00	580.00	587.00	586.00	584.00	578.00	578.00	590.00	588.00	577.00	570.00	560.00	559.00	562.00	567.00	570.00	556.00	534.00	509.00	490.00	482.00	475.00	475.00	475.00	475.00	475.00	475.00	475.00	475.00	475.00	475.00	475.00	475.00	475.00	475.00	475.00	475.00	475.00	475.00	477.00	478.00	483.00	493.00	514.00	523.00	531.00	535.00	536.00	525.00	518.00	501.00	496.00	465.00	462.00	461.00	460.00	472.00	473.00	471.00	470.00	469.00	468.00	468.00	468.00	468.00	468.00	468.00	469.00	473.00	480.00	534.00	590.00	624.00	646.00	689.00	711.00	738.00	754.00	788.00	797.00	790.00	792.00	797.00	833.00	854.00	875.00	894.00	948.00	1079.00	1113.00	1123.00	1109.00	1044.00	1017.00	1020.00	1017.00	1022.00	1092.00	1190.00	1196.00	1197.00	1232.00	1270.00	1296.00	1298.00	1296.00	1232.00	1158.00	1113.00	1096.00	1053.00	1024.00	998.00	974.00	948.00	899.00	881.00	864.00	846.00	798.00	788.00	776.00	764.00	753.00	731.00	721.00	710.00	699.00	679.00	668.00	645.00	634.00	622.00	599.00	590.00	579.00	580.00	604.00	617.00	631.00	660.00
548.00	540.00	531.00	522.00	491.00	470.00	433.00	417.00	408.00	400.00	386.00	384.00	384.00	384.00	384.00	384.00	384.00	384.00	384.00	384.00	384.00	391.00	396.00	414.00	419.00	418.00	421.00	426.00	457.00	476.00	494.00	511.00	546.00	571.00	584.00	624.00	654.00	703.00	713.00	715.00	730.00	762.00	780.00	784.00	792.00	794.00	778.00	780.00	773.00	787.00	812.00	806.00	794.00	798.00	832.00	840.00	824.00	822.00	812.00	796.00	787.00	771.00	754.00	740.00	730.00	730.00	724.00	712.00	708.00	702.00	692.00	685.00	687.00	705.00	726.00	754.00	771.00	812.00	812.00	815.00	813.00	790.00	796.00	808.00	826.00	850.00	882.00	898.00	910.00	914.00	915.00	887.00	892.00	896.00	903.00	888.00	865.00	849.00	804.00	793.00	723.00	706.00	687.00	668.00	655.00	650.00	643.00	632.00	621.00	599.00	597.00	596.00	594.00	591.00	585.00	581.00	580.00	587.00	586.00	584.00	578.00	578.00	590.00	588.00	577.00	570.00	560.00	559.00	562.00	567.00	570.00	556.00	534.00	509.00	490.00	482.00	475.00	475.00	475.00	475.00	475.00	475.00	475.00	475.00	475.00	475.00	475.00	475.00	475.00	475.00	475.00	475.00	475.00	475.00	477.00	478.00	483.00	493.00	514.00	523.00	531.00	535.00	536.00	525.00	518.00	501.00	496.00	465.00	462.00	461.00	460.00	472.00	473.00	471.00	470.00	469.00	468.00	468.00	468.00	468.00	468.00	468.00	469.00	473.00	480.00	534.00	590.00	624.00	646.00	689.00	711.00	738.00	754.00	788.00	797.00	790.00	792.00	797.00	833.00	854.00	875.00	894.00	948.00	1079.00	1113.00	1123.00	1109.00	1044.00	1017.00	1020.00	1017.00	1022.00	1092.00	1190.00	1196.00	1197.00	1232.00	1270.00	1296.00	1298.00	1296.00	1232.00	1158.00	1113.00	1096.00	1053.00	1024.00	998.00	974.00	948.00	899.00	881.00	864.00	846.00	798.00	788.00	776.00	764.00	753.00	731.00	721.00	710.00	699.00	679.00	668.00	645.00	634.00	622.00	599.00	590.00	579.00	580.00	604.00	617.00	631.00	660.00
