1037.00	975.00	933.00	1005.00	826.00	748.00	748.00	615.00	635.00	723.00	915.00	643.00	564.00	504.00	461.00	595.00	809.00	834.00	1012.00	991.00	1138.00	1142.00	1052.00	993.00	971.00	980.00	1050.00	1158.00	1121.00	1263.00	1264.00	1337.00	1338.00	1329.00	1172.00	1077.00	1105.00	1113.00	1024.00	1092.00	1068.00	1072.00	1055.00	1036.00	1074.00	1091.00	1088.00	1102.00	1111.00	1106.00	1072.00	1029.00	954.00	962.00	954.00	938.00	1032.00	1016.00	1113.00	1171.00	994.00	695.00	753.00	830.00	842.00	829.00	680.00	617.00	620.00	579.00	558.00	461.00	331.00	311.00	452.00	634.00	651.00	820.00	1066.00	1134.00	1079.00	980.00	909.00	1095.00	1245.00	1285.00	1178.00	1152.00	1170.00	1190.00	1199.00	1169.00	1066.00	1127.00	1141.00	1060.00	1006.00	1017.00	1022.00	1043.00	1021.00	904.00	896.00	926.00	886.00	915.00	910.00	878.00	821.00	779.00	821.00	740.00	633.00	577.00	528.00	424.00	323.00	272.00	229.00	294.00	254.00	209.00	234.00	287.00	493.00	553.00	713.00	632.00	457.00	551.00	650.00	635.00	576.00	607.00	698.00	885.00	847.00	836.00	756.00	761.00	729.00	630.00	625.00	599.00	590.00	574.00	578.00	547.00	521.00	443.00	354.00	335.00	312.00	288.00	266.00	232.00	192.00	206.00	159.00	198.00	162.00	234.00	365.00	459.00	409.00	278.00	356.00	362.00	634.00	827.00	926.00	999.00	844.00	734.00	761.00	878.00	1030.00	938.00	803.00	757.00	699.00	652.00	873.00	782.00	706.00	691.00	455.00	374.00	380.00	426.00	436.00	570.00	587.00	618.00	736.00	773.00	772.00	866.00	781.00	751.00	710.00	554.00	494.00	429.00	342.00	434.00	529.00	472.00	289.00	260.00	268.00	270.00	250.00	362.00	252.00	271.00	388.00	293.00	269.00	204.00	94.00	90.00	59.00	101.00	205.00	186.00	159.00	314.00	290.00	72.00	65.00	28.00	18.00	21.00	45.00	186.00	236.00	204.00	149.00	117.00	90.00	62.00	67.00	86.00	124.00	172.00	247.00	299.00	400.00	446.00	281.00	376.00	383.00	446.00	420.00	463.00
863.00	793.00	889.00	952.00	943.00	960.00	859.00	598.00	681.00	798.00	892.00	618.00	539.00	450.00	527.00	641.00	797.00	929.00	1052.00	907.00	1111.00	1056.00	997.00	923.00	946.00	919.00	1032.00	1022.00	967.00	1162.00	1227.00	1292.00	1339.00	1271.00	1150.00	1147.00	1175.00	1097.00	1056.00	1063.00	1059.00	1039.00	1073.00	1039.00	1051.00	1034.00	1037.00	1095.00	1126.00	1128.00	1106.00	1074.00	1004.00	927.00	913.00	908.00	934.00	897.00	925.00	1047.00	1091.00	757.00	818.00	847.00	907.00	845.00	755.00	710.00	693.00	629.00	612.00	580.00	371.00	314.00	456.00	528.00	613.00	770.00	936.00	1008.00	1018.00	1057.00	1118.00	925.00	1089.00	1241.00	1215.00	1188.00	1164.00	1151.00	1159.00	1211.00	1108.00	1110.00	1103.00	1125.00	1037.00	1011.00	1034.00	1035.00	1045.00	1005.00	1004.00	889.00	950.00	937.00	939.00	914.00	867.00	867.00	761.00	717.00	801.00	639.00	652.00	597.00	484.00	357.00	292.00	258.00	273.00	237.00	214.00	279.00	435.00	451.00	577.00	598.00	413.00	411.00	520.00	596.00	626.00	632.00	712.00	858.00	845.00	912.00	819.00	843.00	868.00	689.00	606.00	598.00	603.00	515.00	509.00	494.00	481.00	459.00	375.00	363.00	337.00	324.00	328.00	289.00	211.00	280.00	246.00	123.00	127.00	217.00	336.00	349.00	487.00	369.00	499.00	511.00	596.00	753.00	959.00	1079.00	970.00	842.00	967.00	978.00	980.00	929.00	861.00	838.00	781.00	720.00	829.00	899.00	877.00	868.00	451.00	448.00	450.00	390.00	367.00	410.00	464.00	483.00	517.00	550.00	562.00	611.00	518.00	552.00	541.00	424.00	329.00	317.00	434.00	492.00	461.00	396.00	258.00	272.00	366.00	442.00	380.00	330.00	248.00	266.00	495.00	362.00	249.00	220.00	138.00	99.00	65.00	111.00	178.00	167.00	240.00	383.00	367.00	70.00	56.00	38.00	21.00	20.00	53.00	209.00	328.00	245.00	206.00	156.00	82.00	57.00	57.00	73.00	206.00	171.00	297.00	357.00	296.00	343.00	197.00	255.00	371.00	436.00	295.00	311.00
721.00	624.00	759.00	843.00	986.00	1087.00	1029.00	646.00	570.00	926.00	850.00	624.00	481.00	470.00	568.00	709.00	672.00	883.00	1004.00	874.00	1065.00	928.00	842.00	772.00	935.00	946.00	1030.00	932.00	869.00	1038.00	1109.00	1219.00	1267.00	1283.00	1256.00	1179.00	1163.00	1071.00	1100.00	1103.00	1066.00	1060.00	1025.00	1095.00	1021.00	1035.00	1083.00	1067.00	1114.00	1138.00	1108.00	1061.00	1007.00	986.00	938.00	895.00	845.00	834.00	839.00	897.00	898.00	808.00	972.00	1001.00	993.00	923.00	862.00	781.00	712.00	673.00	621.00	540.00	452.00	362.00	463.00	516.00	609.00	738.00	836.00	881.00	900.00	948.00	1027.00	887.00	870.00	996.00	1174.00	1202.00	1186.00	1151.00	1149.00	1165.00	1113.00	1102.00	1084.00	1101.00	1094.00	1048.00	1023.00	1022.00	1035.00	1067.00	1075.00	908.00	895.00	978.00	983.00	968.00	919.00	869.00	818.00	731.00	789.00	818.00	753.00	767.00	655.00	474.00	384.00	274.00	238.00	238.00	226.00	236.00	347.00	374.00	450.00	574.00	426.00	368.00	436.00	631.00	797.00	690.00	697.00	874.00	871.00	863.00	802.00	826.00	875.00	751.00	653.00	628.00	597.00	561.00	509.00	510.00	526.00	524.00	393.00	365.00	365.00	385.00	372.00	285.00	335.00	374.00	384.00	151.00	119.00	120.00	175.00	289.00	380.00	336.00	458.00	711.00	742.00	822.00	884.00	982.00	1117.00	969.00	1100.00	1156.00	1083.00	908.00	856.00	804.00	724.00	725.00	842.00	894.00	961.00	837.00	404.00	467.00	512.00	402.00	365.00	413.00	392.00	401.00	421.00	404.00	384.00	385.00	351.00	419.00	366.00	310.00	314.00	449.00	513.00	590.00	641.00	563.00	373.00	413.00	305.00	394.00	558.00	336.00	257.00	228.00	386.00	359.00	250.00	230.00	173.00	109.00	90.00	98.00	159.00	155.00	381.00	492.00	378.00	87.00	67.00	38.00	20.00	18.00	52.00	272.00	335.00	201.00	180.00	122.00	127.00	70.00	61.00	74.00	191.00	220.00	294.00	292.00	178.00	273.00	179.00	292.00	333.00	325.00	300.00	229.00
522.00	491.00	613.00	672.00	693.00	845.00	1000.00	837.00	681.00	578.00	613.00	647.00	499.00	410.00	450.00	466.00	808.00	941.00	805.00	717.00	932.00	778.00	750.00	694.00	753.00	759.00	736.00	701.00	865.00	1229.00	1307.00	1316.00	1307.00	1257.00	1148.00	1195.00	1134.00	978.00	973.00	866.00	1059.00	1089.00	1082.00	1061.00	1014.00	1063.00	1113.00	1074.00	1099.00	1075.00	1058.00	1023.00	1022.00	1021.00	1006.00	969.00	902.00	886.00	892.00	908.00	792.00	797.00	832.00	870.00	891.00	907.00	903.00	844.00	796.00	644.00	532.00	490.00	597.00	512.00	338.00	347.00	422.00	524.00	720.00	790.00	816.00	889.00	893.00	926.00	935.00	828.00	827.00	1079.00	1189.00	1166.00	1156.00	1164.00	1130.00	1127.00	1078.00	1123.00	1251.00	1116.00	1140.00	1087.00	1043.00	1058.00	1122.00	1110.00	1030.00	931.00	970.00	995.00	1000.00	990.00	928.00	868.00	764.00	869.00	679.00	668.00	737.00	829.00	734.00	369.00	305.00	251.00	262.00	278.00	246.00	331.00	385.00	423.00	376.00	386.00	420.00	499.00	642.00	797.00	804.00	869.00	880.00	820.00	815.00	792.00	813.00	910.00	842.00	698.00	648.00	725.00	586.00	601.00	607.00	599.00	703.00	648.00	512.00	411.00	357.00	342.00	251.00	209.00	221.00	176.00	153.00	121.00	118.00	118.00	139.00	133.00	260.00	336.00	570.00	565.00	661.00	837.00	1014.00	1184.00	1300.00	1289.00	1250.00	1006.00	955.00	896.00	906.00	809.00	598.00	595.00	637.00	614.00	431.00	302.00	401.00	338.00	361.00	500.00	588.00	548.00	535.00	413.00	395.00	370.00	336.00	256.00	243.00	360.00	499.00	590.00	757.00	797.00	799.00	809.00	659.00	640.00	603.00	644.00	667.00	321.00	268.00	260.00	309.00	269.00	244.00	257.00	188.00	109.00	172.00	202.00	148.00	197.00	496.00	459.00	306.00	86.00	51.00	35.00	26.00	17.00	49.00	269.00	249.00	157.00	140.00	174.00	80.00	97.00	62.00	50.00	76.00	102.00	78.00	68.00	82.00	96.00	183.00	207.00	171.00	139.00	218.00	238.00
469.00	455.00	509.00	597.00	632.00	822.00	973.00	873.00	712.00	460.00	443.00	588.00	622.00	481.00	450.00	549.00	816.00	835.00	653.00	786.00	854.00	708.00	656.00	655.00	761.00	644.00	692.00	719.00	843.00	1193.00	1225.00	1244.00	1240.00	1228.00	1174.00	1217.00	1144.00	962.00	847.00	824.00	1117.00	1136.00	1105.00	1052.00	1060.00	1045.00	1045.00	1110.00	1098.00	1115.00	1082.00	964.00	1053.00	1000.00	985.00	904.00	957.00	996.00	1033.00	1035.00	913.00	806.00	837.00	858.00	865.00	875.00	887.00	872.00	842.00	718.00	648.00	565.00	681.00	655.00	412.00	348.00	357.00	456.00	705.00	709.00	722.00	800.00	832.00	842.00	813.00	809.00	849.00	881.00	967.00	1139.00	1174.00	1150.00	1118.00	1085.00	1116.00	1104.00	1221.00	1238.00	1130.00	1100.00	1047.00	1092.00	1098.00	1068.00	1063.00	984.00	963.00	964.00	962.00	989.00	945.00	924.00	857.00	785.00	747.00	788.00	826.00	806.00	785.00	457.00	357.00	270.00	266.00	313.00	245.00	253.00	286.00	340.00	481.00	484.00	419.00	446.00	615.00	761.00	816.00	856.00	844.00	862.00	822.00	802.00	780.00	886.00	904.00	733.00	640.00	723.00	668.00	690.00	683.00	632.00	722.00	787.00	627.00	541.00	526.00	290.00	271.00	282.00	281.00	233.00	194.00	145.00	121.00	118.00	118.00	125.00	291.00	424.00	686.00	727.00	663.00	731.00	873.00	1020.00	1100.00	1068.00	1039.00	1007.00	934.00	860.00	942.00	821.00	615.00	610.00	587.00	606.00	445.00	264.00	304.00	411.00	506.00	534.00	694.00	590.00	549.00	488.00	434.00	323.00	292.00	255.00	292.00	345.00	435.00	501.00	595.00	666.00	780.00	835.00	726.00	599.00	574.00	503.00	523.00	282.00	297.00	284.00	335.00	238.00	244.00	290.00	214.00	123.00	195.00	241.00	140.00	173.00	436.00	493.00	356.00	96.00	56.00	32.00	25.00	17.00	58.00	191.00	197.00	128.00	94.00	93.00	78.00	55.00	56.00	43.00	62.00	57.00	71.00	103.00	79.00	99.00	152.00	146.00	156.00	126.00	149.00	136.00
437.00	469.00	477.00	505.00	588.00	741.00	882.00	1023.00	917.00	625.00	564.00	428.00	633.00	452.00	528.00	582.00	809.00	691.00	598.00	761.00	922.00	807.00	652.00	710.00	616.00	820.00	875.00	848.00	865.00	1136.00	1149.00	1200.00	1187.00	1182.00	1170.00	1202.00	1196.00	1050.00	747.00	796.00	1045.00	1116.00	1106.00	1086.00	1095.00	1053.00	1070.00	1090.00	1092.00	1106.00	1038.00	1076.00	1112.00	1124.00	1101.00	990.00	1073.00	1080.00	1075.00	1066.00	832.00	850.00	838.00	846.00	852.00	864.00	882.00	907.00	938.00	789.00	658.00	601.00	689.00	673.00	469.00	453.00	370.00	363.00	503.00	586.00	630.00	713.00	720.00	834.00	837.00	797.00	778.00	807.00	817.00	925.00	1104.00	1139.00	1116.00	1147.00	1130.00	1147.00	1135.00	1218.00	1240.00	1129.00	1123.00	1052.00	1064.00	1082.00	1056.00	1083.00	1016.00	984.00	962.00	981.00	982.00	964.00	942.00	893.00	772.00	815.00	789.00	759.00	828.00	535.00	385.00	321.00	309.00	320.00	281.00	254.00	346.00	428.00	660.00	634.00	496.00	436.00	565.00	744.00	800.00	859.00	879.00	908.00	859.00	844.00	778.00	838.00	859.00	702.00	630.00	685.00	628.00	542.00	611.00	607.00	725.00	689.00	634.00	573.00	509.00	355.00	378.00	450.00	390.00	269.00	235.00	209.00	165.00	129.00	127.00	118.00	250.00	494.00	763.00	726.00	728.00	826.00	941.00	890.00	949.00	1028.00	929.00	765.00	687.00	808.00	945.00	828.00	673.00	690.00	682.00	633.00	520.00	363.00	280.00	372.00	391.00	659.00	754.00	776.00	680.00	482.00	420.00	339.00	316.00	280.00	366.00	450.00	486.00	504.00	640.00	683.00	832.00	875.00	612.00	499.00	434.00	382.00	362.00	409.00	341.00	289.00	373.00	236.00	267.00	316.00	280.00	214.00	142.00	227.00	169.00	254.00	368.00	337.00	256.00	84.00	75.00	33.00	26.00	18.00	36.00	92.00	154.00	124.00	119.00	81.00	50.00	45.00	41.00	38.00	62.00	63.00	75.00	91.00	122.00	149.00	190.00	190.00	177.00	129.00	136.00	126.00
434.00	366.00	500.00	461.00	649.00	803.00	913.00	1053.00	1057.00	794.00	742.00	418.00	544.00	535.00	414.00	565.00	771.00	620.00	607.00	734.00	990.00	822.00	633.00	577.00	586.00	850.00	870.00	887.00	939.00	1048.00	1082.00	1159.00	1205.00	1199.00	1196.00	1211.00	1187.00	1093.00	778.00	723.00	902.00	996.00	1021.00	1139.00	1141.00	1093.00	1083.00	1032.00	1024.00	1040.00	1036.00	1101.00	1097.00	1061.00	1026.00	1108.00	1126.00	1113.00	1135.00	1029.00	946.00	952.00	891.00	876.00	864.00	880.00	873.00	899.00	905.00	848.00	765.00	750.00	674.00	628.00	600.00	499.00	502.00	416.00	437.00	467.00	483.00	552.00	623.00	743.00	763.00	801.00	813.00	686.00	778.00	816.00	926.00	1041.00	1057.00	1094.00	1132.00	1110.00	1071.00	1111.00	1198.00	1176.00	1119.00	1050.00	1048.00	1086.00	1083.00	1027.00	1028.00	986.00	985.00	961.00	990.00	948.00	937.00	884.00	825.00	833.00	821.00	766.00	779.00	693.00	547.00	452.00	382.00	302.00	255.00	260.00	296.00	391.00	547.00	655.00	608.00	537.00	490.00	626.00	759.00	828.00	905.00	866.00	877.00	877.00	787.00	830.00	759.00	648.00	590.00	577.00	547.00	432.00	445.00	499.00	610.00	517.00	413.00	388.00	331.00	567.00	581.00	504.00	387.00	295.00	301.00	275.00	201.00	160.00	246.00	164.00	195.00	397.00	674.00	581.00	660.00	839.00	1005.00	800.00	867.00	1005.00	1031.00	544.00	590.00	744.00	891.00	828.00	712.00	730.00	747.00	639.00	542.00	460.00	332.00	338.00	407.00	618.00	742.00	824.00	785.00	591.00	521.00	411.00	249.00	285.00	380.00	461.00	538.00	596.00	782.00	843.00	954.00	1025.00	719.00	663.00	564.00	495.00	499.00	490.00	344.00	314.00	391.00	238.00	272.00	300.00	300.00	311.00	179.00	191.00	201.00	342.00	468.00	414.00	331.00	99.00	87.00	32.00	36.00	17.00	21.00	71.00	146.00	150.00	138.00	95.00	44.00	32.00	35.00	37.00	67.00	71.00	71.00	90.00	107.00	174.00	166.00	168.00	174.00	134.00	95.00	97.00
452.00	343.00	404.00	426.00	474.00	652.00	664.00	693.00	848.00	618.00	621.00	366.00	406.00	397.00	384.00	509.00	748.00	669.00	521.00	630.00	727.00	601.00	524.00	677.00	806.00	771.00	905.00	979.00	952.00	908.00	985.00	1047.00	1114.00	1190.00	1223.00	1201.00	1149.00	1059.00	899.00	815.00	708.00	785.00	766.00	1011.00	1180.00	1226.00	1216.00	1048.00	1006.00	1000.00	979.00	995.00	1089.00	1055.00	1035.00	1034.00	939.00	883.00	936.00	1071.00	1164.00	1114.00	1104.00	1101.00	1063.00	1010.00	995.00	1009.00	982.00	935.00	972.00	1027.00	947.00	872.00	876.00	779.00	720.00	624.00	567.00	555.00	462.00	444.00	495.00	475.00	477.00	511.00	532.00	664.00	666.00	587.00	616.00	684.00	864.00	935.00	1022.00	1045.00	1108.00	1177.00	1158.00	1073.00	1064.00	1129.00	1127.00	1068.00	1048.00	1006.00	1012.00	1042.00	1044.00	1024.00	991.00	976.00	989.00	958.00	884.00	898.00	875.00	907.00	894.00	782.00	727.00	715.00	596.00	329.00	268.00	284.00	279.00	303.00	448.00	470.00	450.00	496.00	678.00	667.00	606.00	855.00	838.00	934.00	944.00	994.00	945.00	726.00	676.00	706.00	666.00	701.00	428.00	279.00	245.00	226.00	251.00	242.00	214.00	206.00	245.00	316.00	359.00	403.00	365.00	327.00	390.00	432.00	423.00	387.00	258.00	189.00	163.00	244.00	441.00	474.00	500.00	573.00	603.00	679.00	760.00	654.00	690.00	427.00	622.00	780.00	864.00	802.00	733.00	818.00	852.00	782.00	576.00	336.00	281.00	381.00	472.00	505.00	536.00	654.00	766.00	698.00	509.00	401.00	273.00	337.00	428.00	431.00	556.00	624.00	699.00	796.00	887.00	916.00	1030.00	920.00	898.00	902.00	721.00	373.00	314.00	289.00	276.00	245.00	266.00	279.00	301.00	373.00	286.00	379.00	408.00	427.00	453.00	298.00	174.00	210.00	153.00	39.00	28.00	16.00	24.00	110.00	61.00	67.00	63.00	36.00	45.00	79.00	124.00	127.00	104.00	121.00	176.00	242.00	201.00	155.00	141.00	144.00	179.00	175.00	126.00	115.00
494.00	345.00	458.00	550.00	635.00	648.00	523.00	634.00	799.00	517.00	501.00	367.00	508.00	451.00	444.00	390.00	505.00	611.00	548.00	541.00	582.00	528.00	598.00	617.00	845.00	840.00	887.00	906.00	846.00	933.00	978.00	979.00	991.00	1082.00	1170.00	1151.00	1133.00	1055.00	973.00	873.00	649.00	720.00	814.00	1004.00	1002.00	1074.00	1186.00	1109.00	1086.00	1058.00	986.00	1043.00	1088.00	1032.00	1019.00	1007.00	974.00	901.00	978.00	1055.00	1193.00	1202.00	1155.00	1143.00	1153.00	1119.00	1125.00	1094.00	1101.00	1048.00	1041.00	1107.00	1093.00	1087.00	1043.00	984.00	926.00	838.00	662.00	598.00	575.00	525.00	555.00	482.00	480.00	467.00	449.00	524.00	537.00	501.00	510.00	562.00	760.00	839.00	952.00	1010.00	1039.00	1183.00	1237.00	1249.00	1165.00	1108.00	1156.00	1097.00	1161.00	1046.00	996.00	989.00	1033.00	1032.00	1012.00	998.00	983.00	964.00	911.00	908.00	900.00	863.00	842.00	832.00	737.00	710.00	688.00	375.00	267.00	288.00	338.00	272.00	316.00	374.00	385.00	454.00	594.00	711.00	768.00	933.00	957.00	902.00	918.00	870.00	890.00	866.00	737.00	752.00	692.00	638.00	505.00	372.00	295.00	282.00	216.00	198.00	187.00	176.00	182.00	211.00	232.00	283.00	259.00	261.00	291.00	398.00	399.00	356.00	325.00	318.00	142.00	284.00	445.00	474.00	510.00	511.00	524.00	577.00	643.00	497.00	482.00	547.00	629.00	704.00	726.00	720.00	742.00	799.00	807.00	741.00	615.00	370.00	266.00	302.00	357.00	519.00	580.00	702.00	690.00	535.00	466.00	368.00	258.00	397.00	416.00	463.00	564.00	679.00	796.00	869.00	819.00	725.00	957.00	827.00	773.00	849.00	706.00	332.00	284.00	271.00	273.00	245.00	295.00	308.00	302.00	348.00	355.00	380.00	513.00	551.00	470.00	305.00	172.00	253.00	116.00	41.00	16.00	17.00	22.00	55.00	37.00	52.00	31.00	21.00	73.00	94.00	190.00	262.00	199.00	172.00	161.00	183.00	167.00	163.00	128.00	164.00	164.00	177.00	159.00	128.00
529.00	362.00	427.00	586.00	581.00	571.00	443.00	568.00	626.00	462.00	393.00	379.00	505.00	592.00	593.00	526.00	456.00	431.00	473.00	511.00	522.00	655.00	699.00	636.00	851.00	981.00	865.00	800.00	799.00	887.00	882.00	851.00	966.00	1031.00	1072.00	1081.00	1095.00	1044.00	963.00	874.00	578.00	780.00	971.00	917.00	867.00	942.00	1025.00	1177.00	1189.00	1093.00	1019.00	1063.00	1119.00	1072.00	1028.00	1020.00	936.00	1024.00	1025.00	1081.00	1101.00	1199.00	1165.00	1140.00	1106.00	1153.00	1154.00	1147.00	1123.00	1110.00	1108.00	1075.00	1135.00	1138.00	1103.00	1091.00	1081.00	1065.00	784.00	677.00	603.00	580.00	750.00	686.00	686.00	619.00	512.00	459.00	450.00	444.00	443.00	452.00	652.00	805.00	932.00	954.00	994.00	1069.00	1130.00	1201.00	1209.00	1064.00	1174.00	1150.00	1154.00	1089.00	1011.00	988.00	995.00	1027.00	1022.00	1020.00	1002.00	985.00	904.00	891.00	904.00	860.00	829.00	788.00	837.00	787.00	766.00	408.00	282.00	278.00	352.00	346.00	296.00	306.00	336.00	378.00	555.00	658.00	739.00	835.00	865.00	852.00	876.00	854.00	828.00	826.00	823.00	810.00	713.00	599.00	525.00	495.00	448.00	404.00	303.00	232.00	270.00	272.00	226.00	168.00	170.00	182.00	176.00	194.00	224.00	305.00	248.00	282.00	307.00	339.00	121.00	219.00	427.00	457.00	589.00	633.00	553.00	507.00	405.00	312.00	239.00	602.00	657.00	673.00	720.00	760.00	806.00	817.00	808.00	765.00	623.00	518.00	373.00	286.00	480.00	646.00	720.00	781.00	650.00	469.00	392.00	294.00	317.00	309.00	389.00	530.00	618.00	728.00	816.00	729.00	646.00	617.00	714.00	715.00	630.00	679.00	530.00	310.00	270.00	257.00	246.00	271.00	352.00	368.00	390.00	471.00	446.00	483.00	527.00	443.00	315.00	251.00	258.00	279.00	130.00	28.00	16.00	21.00	20.00	26.00	28.00	29.00	24.00	38.00	141.00	132.00	164.00	197.00	182.00	182.00	166.00	139.00	153.00	175.00	130.00	174.00	186.00	171.00	159.00	139.00
494.00	359.00	492.00	570.00	505.00	417.00	364.00	414.00	493.00	374.00	338.00	433.00	523.00	628.00	738.00	669.00	631.00	544.00	563.00	695.00	679.00	797.00	690.00	694.00	886.00	1027.00	933.00	852.00	794.00	806.00	752.00	797.00	912.00	994.00	1024.00	1007.00	970.00	952.00	755.00	745.00	538.00	721.00	808.00	791.00	916.00	877.00	905.00	1177.00	1244.00	1162.00	1086.00	1003.00	1192.00	1127.00	1044.00	1006.00	914.00	1012.00	1047.00	1049.00	1116.00	1180.00	1191.00	1248.00	1212.00	1134.00	1147.00	1141.00	1176.00	1163.00	1162.00	1139.00	1190.00	1200.00	1176.00	1165.00	1156.00	1123.00	834.00	749.00	717.00	666.00	696.00	712.00	867.00	812.00	618.00	582.00	539.00	490.00	476.00	450.00	541.00	648.00	833.00	881.00	1016.00	1077.00	1138.00	1080.00	1170.00	1162.00	1092.00	1124.00	1134.00	1182.00	1075.00	995.00	983.00	994.00	1058.00	1039.00	1016.00	1001.00	910.00	880.00	898.00	895.00	843.00	852.00	870.00	853.00	774.00	416.00	307.00	298.00	345.00	411.00	325.00	332.00	380.00	337.00	467.00	599.00	671.00	693.00	733.00	912.00	889.00	851.00	913.00	834.00	776.00	748.00	699.00	670.00	627.00	667.00	621.00	566.00	428.00	364.00	397.00	342.00	230.00	201.00	172.00	153.00	153.00	153.00	162.00	206.00	200.00	222.00	198.00	170.00	160.00	131.00	301.00	415.00	614.00	763.00	593.00	443.00	241.00	194.00	384.00	616.00	672.00	728.00	780.00	817.00	864.00	906.00	830.00	788.00	625.00	462.00	303.00	240.00	410.00	482.00	582.00	688.00	676.00	344.00	278.00	272.00	300.00	381.00	456.00	561.00	681.00	632.00	610.00	582.00	529.00	569.00	610.00	578.00	604.00	526.00	400.00	320.00	271.00	253.00	252.00	283.00	351.00	379.00	440.00	544.00	586.00	643.00	549.00	538.00	261.00	178.00	199.00	247.00	105.00	21.00	17.00	25.00	52.00	39.00	52.00	49.00	46.00	66.00	183.00	181.00	192.00	188.00	170.00	178.00	163.00	142.00	114.00	169.00	112.00	148.00	167.00	156.00	152.00	101.00
357.00	311.00	298.00	341.00	316.00	300.00	388.00	345.00	377.00	499.00	617.00	764.00	586.00	603.00	742.00	732.00	805.00	786.00	849.00	914.00	1062.00	926.00	858.00	814.00	811.00	942.00	995.00	893.00	899.00	740.00	674.00	811.00	936.00	985.00	855.00	971.00	936.00	960.00	750.00	625.00	482.00	665.00	794.00	911.00	1107.00	1181.00	1128.00	1061.00	1222.00	1275.00	1299.00	1091.00	1119.00	1129.00	1167.00	1221.00	967.00	1072.00	1070.00	1105.00	1217.00	1165.00	1190.00	1199.00	1236.00	1277.00	1217.00	1178.00	1157.00	1077.00	1080.00	1047.00	1038.00	1028.00	1009.00	991.00	1092.00	1087.00	1056.00	956.00	843.00	831.00	838.00	970.00	896.00	814.00	739.00	704.00	761.00	743.00	729.00	595.00	497.00	581.00	659.00	732.00	970.00	1082.00	1111.00	1044.00	1140.00	1172.00	1091.00	1084.00	1069.00	1045.00	1034.00	1078.00	1067.00	1035.00	1047.00	1045.00	1071.00	1039.00	996.00	995.00	923.00	921.00	906.00	960.00	973.00	909.00	837.00	578.00	569.00	546.00	561.00	592.00	555.00	493.00	473.00	455.00	361.00	407.00	483.00	660.00	876.00	977.00	976.00	868.00	784.00	832.00	853.00	853.00	766.00	802.00	700.00	682.00	662.00	600.00	618.00	580.00	399.00	284.00	275.00	394.00	347.00	344.00	359.00	312.00	211.00	155.00	223.00	298.00	266.00	308.00	280.00	253.00	131.00	271.00	391.00	487.00	395.00	174.00	335.00	551.00	672.00	594.00	702.00	742.00	753.00	798.00	830.00	841.00	749.00	769.00	646.00	490.00	421.00	272.00	262.00	161.00	223.00	292.00	328.00	383.00	245.00	236.00	255.00	283.00	312.00	348.00	392.00	354.00	442.00	425.00	452.00	516.00	501.00	416.00	373.00	341.00	321.00	416.00	320.00	307.00	290.00	310.00	374.00	381.00	356.00	328.00	473.00	679.00	569.00	415.00	217.00	141.00	178.00	86.00	77.00	17.00	21.00	39.00	45.00	58.00	93.00	90.00	90.00	118.00	312.00	230.00	182.00	198.00	240.00	230.00	225.00	169.00	145.00	108.00	105.00	139.00	144.00	147.00	150.00	123.00
357.00	311.00	298.00	341.00	316.00	300.00	388.00	345.00	377.00	499.00	617.00	764.00	586.00	603.00	742.00	732.00	805.00	786.00	849.00	914.00	1062.00	926.00	858.00	814.00	811.00	942.00	995.00	893.00	899.00	740.00	674.00	811.00	936.00	985.00	855.00	971.00	936.00	960.00	750.00	625.00	482.00	665.00	794.00	911.00	1107.00	1181.00	1128.00	1061.00	1222.00	1275.00	1299.00	1091.00	1119.00	1129.00	1167.00	1221.00	967.00	1072.00	1070.00	1105.00	1217.00	1165.00	1190.00	1199.00	1236.00	1277.00	1217.00	1178.00	1157.00	1077.00	1080.00	1047.00	1038.00	1028.00	1009.00	991.00	1092.00	1087.00	1056.00	956.00	843.00	831.00	838.00	970.00	896.00	814.00	739.00	704.00	761.00	743.00	729.00	595.00	497.00	581.00	659.00	732.00	970.00	1082.00	1111.00	1044.00	1140.00	1172.00	1091.00	1084.00	1069.00	1045.00	1034.00	1078.00	1067.00	1035.00	1047.00	1045.00	1071.00	1039.00	996.00	995.00	923.00	921.00	906.00	960.00	973.00	909.00	837.00	578.00	569.00	546.00	561.00	592.00	555.00	493.00	473.00	455.00	361.00	407.00	483.00	660.00	876.00	977.00	976.00	868.00	784.00	832.00	853.00	853.00	766.00	802.00	700.00	682.00	662.00	600.00	618.00	580.00	399.00	284.00	275.00	394.00	347.00	344.00	359.00	312.00	211.00	155.00	223.00	298.00	266.00	308.00	280.00	253.00	131.00	271.00	391.00	487.00	395.00	174.00	335.00	551.00	672.00	594.00	702.00	742.00	753.00	798.00	830.00	841.00	749.00	769.00	646.00	490.00	421.00	272.00	262.00	161.00	223.00	292.00	328.00	383.00	245.00	236.00	255.00	283.00	312.00	348.00	392.00	354.00	442.00	425.00	452.00	516.00	501.00	416.00	373.00	341.00	321.00	416.00	320.00	307.00	290.00	310.00	374.00	381.00	356.00	328.00	473.00	679.00	569.00	415.00	217.00	141.00	178.00	86.00	77.00	17.00	21.00	39.00	45.00	58.00	93.00	90.00	90.00	118.00	312.00	230.00	182.00	198.00	240.00	230.00	225.00	169.00	145.00	108.00	105.00	139.00	144.00	147.00	150.00	123.00
515.00	397.00	348.00	285.00	297.00	391.00	522.00	477.00	547.00	476.00	627.00	775.00	536.00	448.00	576.00	552.00	560.00	561.00	622.00	662.00	1037.00	1083.00	1016.00	921.00	922.00	1024.00	954.00	816.00	795.00	755.00	659.00	825.00	920.00	966.00	807.00	903.00	849.00	886.00	609.00	548.00	475.00	632.00	842.00	1023.00	1133.00	1267.00	1184.00	1163.00	1196.00	1342.00	1295.00	1248.00	1126.00	1206.00	1191.00	1089.00	1011.00	1102.00	1127.00	1128.00	1161.00	1181.00	1176.00	1191.00	1173.00	1247.00	1213.00	1194.00	1129.00	1063.00	1037.00	1054.00	1087.00	1007.00	949.00	951.00	1014.00	1003.00	1089.00	1168.00	1144.00	1107.00	1007.00	863.00	859.00	833.00	741.00	644.00	702.00	715.00	725.00	717.00	641.00	764.00	739.00	770.00	923.00	999.00	1032.00	1074.00	1146.00	1207.00	1149.00	1160.00	1090.00	1098.00	1064.00	1087.00	1136.00	1069.00	999.00	1021.00	1010.00	1034.00	1009.00	1040.00	1054.00	990.00	954.00	932.00	948.00	913.00	872.00	779.00	828.00	792.00	791.00	817.00	728.00	619.00	520.00	489.00	406.00	362.00	410.00	617.00	822.00	881.00	806.00	730.00	689.00	690.00	797.00	820.00	811.00	841.00	810.00	703.00	670.00	679.00	646.00	568.00	416.00	352.00	404.00	424.00	344.00	296.00	250.00	195.00	182.00	200.00	265.00	334.00	302.00	358.00	313.00	259.00	121.00	156.00	251.00	242.00	159.00	269.00	510.00	670.00	617.00	590.00	685.00	705.00	741.00	742.00	766.00	755.00	740.00	708.00	637.00	543.00	491.00	395.00	491.00	218.00	144.00	155.00	257.00	299.00	185.00	196.00	272.00	396.00	354.00	370.00	380.00	418.00	500.00	492.00	594.00	609.00	369.00	346.00	348.00	351.00	370.00	406.00	347.00	369.00	375.00	359.00	360.00	351.00	338.00	286.00	461.00	589.00	487.00	347.00	197.00	124.00	231.00	78.00	50.00	17.00	21.00	42.00	60.00	92.00	69.00	71.00	71.00	93.00	249.00	189.00	212.00	290.00	350.00	252.00	244.00	215.00	182.00	101.00	149.00	185.00	152.00	163.00	163.00	118.00
627.00	569.00	417.00	308.00	279.00	371.00	534.00	588.00	634.00	524.00	684.00	722.00	639.00	444.00	419.00	438.00	409.00	457.00	526.00	608.00	905.00	1072.00	1139.00	1071.00	1065.00	956.00	857.00	760.00	732.00	771.00	653.00	751.00	843.00	968.00	732.00	851.00	768.00	817.00	529.00	459.00	545.00	671.00	852.00	1036.00	1182.00	1234.00	1290.00	1325.00	1346.00	1268.00	1228.00	1160.00	1140.00	1168.00	1085.00	999.00	981.00	1190.00	1185.00	1177.00	1113.00	1179.00	1143.00	1172.00	1183.00	1163.00	1149.00	1144.00	1146.00	1056.00	1059.00	1048.00	1042.00	975.00	929.00	981.00	988.00	960.00	934.00	1074.00	1164.00	1231.00	1224.00	936.00	800.00	709.00	672.00	678.00	735.00	753.00	732.00	790.00	749.00	743.00	756.00	799.00	846.00	904.00	1019.00	1071.00	1162.00	1221.00	1157.00	1172.00	1214.00	1227.00	1111.00	1164.00	1151.00	1130.00	997.00	980.00	1023.00	1022.00	1033.00	1022.00	1024.00	1017.00	991.00	983.00	958.00	916.00	927.00	882.00	955.00	926.00	930.00	892.00	814.00	684.00	541.00	450.00	416.00	378.00	402.00	594.00	743.00	908.00	849.00	847.00	749.00	557.00	655.00	760.00	743.00	833.00	712.00	657.00	684.00	671.00	639.00	610.00	539.00	545.00	589.00	374.00	289.00	275.00	224.00	196.00	270.00	216.00	257.00	370.00	474.00	516.00	361.00	259.00	205.00	118.00	121.00	123.00	126.00	204.00	364.00	515.00	557.00	618.00	764.00	769.00	785.00	759.00	753.00	744.00	738.00	723.00	645.00	577.00	611.00	618.00	549.00	333.00	238.00	169.00	253.00	340.00	239.00	144.00	355.00	546.00	439.00	443.00	459.00	524.00	583.00	530.00	551.00	498.00	361.00	358.00	370.00	399.00	441.00	265.00	348.00	473.00	487.00	412.00	343.00	285.00	238.00	233.00	342.00	361.00	431.00	297.00	154.00	108.00	219.00	79.00	58.00	19.00	21.00	38.00	99.00	163.00	126.00	119.00	100.00	103.00	206.00	197.00	217.00	271.00	307.00	240.00	199.00	175.00	172.00	125.00	107.00	162.00	166.00	154.00	141.00	117.00
319.00	383.00	514.00	327.00	279.00	371.00	505.00	537.00	661.00	833.00	709.00	484.00	431.00	470.00	384.00	382.00	621.00	686.00	754.00	787.00	843.00	996.00	1190.00	1151.00	1002.00	981.00	936.00	818.00	683.00	713.00	632.00	755.00	887.00	941.00	742.00	650.00	714.00	684.00	493.00	414.00	499.00	622.00	773.00	1121.00	1201.00	1221.00	1215.00	1342.00	1321.00	1312.00	1271.00	1237.00	1252.00	1255.00	1226.00	1159.00	990.00	988.00	1063.00	1174.00	1138.00	1171.00	1156.00	1214.00	1226.00	1209.00	1199.00	1231.00	1193.00	1115.00	1161.00	1194.00	1119.00	1092.00	822.00	864.00	879.00	873.00	838.00	884.00	891.00	947.00	1023.00	1046.00	1026.00	1008.00	889.00	797.00	727.00	655.00	579.00	526.00	760.00	765.00	772.00	792.00	800.00	823.00	837.00	837.00	897.00	1110.00	1169.00	1220.00	1301.00	1196.00	1207.00	1194.00	1132.00	1231.00	1122.00	1037.00	1032.00	1086.00	1096.00	1071.00	1046.00	1039.00	1009.00	928.00	914.00	901.00	852.00	930.00	957.00	966.00	890.00	902.00	869.00	836.00	712.00	561.00	481.00	421.00	444.00	616.00	604.00	845.00	903.00	926.00	959.00	775.00	550.00	482.00	424.00	464.00	466.00	459.00	479.00	597.00	764.00	753.00	795.00	695.00	761.00	484.00	385.00	274.00	332.00	419.00	352.00	324.00	427.00	602.00	518.00	439.00	270.00	136.00	324.00	461.00	418.00	320.00	261.00	147.00	125.00	255.00	405.00	567.00	515.00	406.00	440.00	476.00	689.00	818.00	864.00	1020.00	782.00	637.00	662.00	677.00	608.00	368.00	209.00	168.00	244.00	250.00	321.00	379.00	500.00	486.00	451.00	480.00	609.00	627.00	530.00	554.00	559.00	543.00	509.00	520.00	368.00	300.00	264.00	248.00	375.00	372.00	284.00	253.00	540.00	563.00	420.00	342.00	169.00	250.00	340.00	279.00	326.00	212.00	87.00	154.00	108.00	18.00	23.00	26.00	46.00	155.00	219.00	249.00	261.00	231.00	232.00	247.00	254.00	286.00	277.00	310.00	281.00	285.00	235.00	104.00	90.00	71.00	92.00	78.00	72.00	103.00
335.00	297.00	472.00	291.00	291.00	430.00	531.00	441.00	572.00	714.00	607.00	391.00	417.00	349.00	332.00	399.00	629.00	709.00	731.00	638.00	688.00	787.00	915.00	1093.00	1020.00	822.00	797.00	764.00	678.00	600.00	692.00	862.00	978.00	1001.00	744.00	621.00	743.00	712.00	539.00	411.00	641.00	676.00	811.00	1025.00	1108.00	1155.00	1245.00	1318.00	1319.00	1290.00	1284.00	1231.00	1192.00	1262.00	1177.00	1074.00	1105.00	1027.00	1063.00	1132.00	1250.00	1106.00	1164.00	1187.00	1189.00	1189.00	1174.00	1169.00	1135.00	1157.00	1162.00	1149.00	1053.00	882.00	970.00	1105.00	1027.00	911.00	840.00	921.00	919.00	900.00	902.00	829.00	811.00	876.00	903.00	873.00	781.00	740.00	720.00	624.00	777.00	770.00	773.00	792.00	799.00	824.00	830.00	832.00	814.00	955.00	1056.00	1163.00	1189.00	1173.00	1136.00	1169.00	1142.00	1111.00	1149.00	1115.00	1128.00	1141.00	1076.00	1051.00	1041.00	1047.00	1036.00	1008.00	972.00	944.00	932.00	927.00	906.00	898.00	934.00	894.00	869.00	827.00	750.00	572.00	539.00	540.00	473.00	547.00	555.00	611.00	654.00	758.00	825.00	820.00	634.00	642.00	523.00	368.00	384.00	403.00	404.00	486.00	735.00	723.00	708.00	666.00	758.00	474.00	371.00	337.00	396.00	520.00	395.00	439.00	586.00	627.00	489.00	403.00	161.00	210.00	383.00	609.00	702.00	555.00	500.00	285.00	153.00	134.00	233.00	432.00	395.00	277.00	264.00	328.00	536.00	684.00	758.00	916.00	643.00	440.00	413.00	457.00	355.00	396.00	251.00	136.00	174.00	349.00	388.00	433.00	581.00	455.00	442.00	489.00	674.00	824.00	727.00	619.00	611.00	579.00	447.00	360.00	211.00	160.00	180.00	242.00	291.00	274.00	237.00	250.00	594.00	594.00	442.00	307.00	193.00	232.00	185.00	249.00	316.00	211.00	89.00	105.00	69.00	17.00	20.00	23.00	46.00	146.00	184.00	145.00	226.00	323.00	276.00	273.00	241.00	256.00	308.00	315.00	254.00	209.00	180.00	138.00	119.00	85.00	59.00	102.00	72.00	52.00
444.00	330.00	411.00	310.00	268.00	310.00	424.00	465.00	558.00	572.00	503.00	338.00	364.00	292.00	368.00	491.00	625.00	531.00	541.00	473.00	578.00	650.00	788.00	989.00	1129.00	927.00	882.00	819.00	700.00	626.00	624.00	782.00	976.00	948.00	731.00	601.00	730.00	743.00	469.00	429.00	668.00	757.00	718.00	843.00	923.00	1001.00	1111.00	1276.00	1271.00	1266.00	1311.00	1329.00	1187.00	1175.00	1095.00	1077.00	1134.00	1044.00	1074.00	1126.00	1205.00	1234.00	1153.00	1159.00	1169.00	1165.00	1159.00	1168.00	1165.00	1185.00	1215.00	1142.00	842.00	875.00	1130.00	1123.00	1102.00	1025.00	970.00	851.00	933.00	930.00	982.00	770.00	692.00	700.00	714.00	763.00	790.00	759.00	753.00	750.00	773.00	776.00	761.00	777.00	806.00	801.00	794.00	810.00	815.00	833.00	867.00	932.00	990.00	1090.00	1129.00	1140.00	1124.00	1025.00	1104.00	1068.00	1091.00	1079.00	1046.00	1031.00	1028.00	1029.00	1025.00	980.00	949.00	922.00	924.00	907.00	881.00	902.00	884.00	871.00	870.00	828.00	768.00	665.00	627.00	625.00	557.00	495.00	488.00	481.00	506.00	559.00	678.00	845.00	712.00	602.00	537.00	308.00	397.00	353.00	381.00	419.00	531.00	717.00	798.00	750.00	679.00	587.00	539.00	482.00	528.00	592.00	468.00	565.00	596.00	504.00	432.00	320.00	257.00	335.00	511.00	711.00	729.00	620.00	552.00	303.00	193.00	118.00	120.00	346.00	300.00	219.00	373.00	503.00	666.00	717.00	647.00	798.00	721.00	527.00	367.00	330.00	259.00	395.00	249.00	154.00	235.00	390.00	416.00	428.00	454.00	439.00	479.00	650.00	701.00	794.00	788.00	679.00	599.00	626.00	355.00	222.00	169.00	129.00	132.00	188.00	158.00	157.00	134.00	285.00	518.00	470.00	429.00	328.00	239.00	138.00	169.00	210.00	231.00	127.00	59.00	113.00	63.00	22.00	17.00	19.00	34.00	84.00	95.00	104.00	180.00	301.00	254.00	263.00	270.00	314.00	368.00	280.00	216.00	209.00	167.00	162.00	128.00	126.00	81.00	44.00	74.00	84.00
410.00	350.00	269.00	260.00	261.00	263.00	277.00	340.00	386.00	452.00	407.00	272.00	366.00	353.00	389.00	466.00	483.00	399.00	396.00	450.00	559.00	655.00	764.00	952.00	1193.00	1019.00	893.00	785.00	690.00	677.00	604.00	725.00	911.00	887.00	645.00	574.00	733.00	707.00	437.00	469.00	606.00	701.00	581.00	697.00	750.00	846.00	1015.00	1203.00	1210.00	1180.00	1230.00	1305.00	1200.00	1228.00	1086.00	1044.00	1100.00	1044.00	1048.00	1144.00	1115.00	1097.00	1140.00	1116.00	1135.00	1160.00	1176.00	1178.00	1153.00	1094.00	1165.00	994.00	926.00	1089.00	1136.00	1140.00	1137.00	1099.00	1029.00	948.00	908.00	862.00	816.00	749.00	662.00	632.00	617.00	875.00	932.00	849.00	752.00	649.00	684.00	789.00	793.00	840.00	744.00	745.00	758.00	777.00	790.00	835.00	826.00	837.00	849.00	971.00	1010.00	961.00	983.00	952.00	1004.00	1057.00	1063.00	1049.00	1033.00	1011.00	1004.00	995.00	1032.00	970.00	960.00	938.00	919.00	930.00	897.00	875.00	861.00	855.00	882.00	854.00	802.00	785.00	634.00	620.00	640.00	525.00	512.00	442.00	415.00	439.00	513.00	632.00	607.00	466.00	386.00	323.00	388.00	351.00	360.00	377.00	444.00	497.00	577.00	686.00	646.00	772.00	800.00	670.00	694.00	706.00	629.00	746.00	671.00	621.00	463.00	340.00	341.00	428.00	635.00	712.00	632.00	615.00	629.00	402.00	281.00	175.00	118.00	188.00	174.00	218.00	464.00	716.00	813.00	672.00	562.00	708.00	742.00	705.00	484.00	371.00	320.00	194.00	140.00	224.00	271.00	455.00	456.00	469.00	514.00	526.00	611.00	819.00	758.00	702.00	723.00	641.00	530.00	468.00	248.00	141.00	122.00	120.00	118.00	119.00	120.00	120.00	120.00	250.00	392.00	332.00	274.00	388.00	224.00	150.00	117.00	128.00	88.00	63.00	45.00	124.00	68.00	24.00	23.00	20.00	20.00	114.00	160.00	150.00	236.00	300.00	320.00	309.00	308.00	321.00	358.00	396.00	275.00	249.00	251.00	195.00	161.00	120.00	104.00	52.00	101.00	100.00
315.00	321.00	431.00	328.00	427.00	363.00	417.00	375.00	320.00	271.00	262.00	256.00	260.00	294.00	288.00	297.00	363.00	478.00	643.00	828.00	968.00	1087.00	1226.00	1301.00	1292.00	1223.00	1072.00	1013.00	914.00	556.00	703.00	864.00	789.00	631.00	537.00	690.00	742.00	602.00	389.00	457.00	706.00	588.00	476.00	491.00	557.00	684.00	840.00	1121.00	1071.00	929.00	840.00	1096.00	1252.00	1264.00	1224.00	1152.00	1075.00	1111.00	1104.00	1148.00	1214.00	1082.00	1007.00	1005.00	962.00	931.00	937.00	953.00	973.00	935.00	873.00	834.00	1059.00	1119.00	1149.00	1148.00	1108.00	1072.00	1094.00	1031.00	1040.00	1029.00	1041.00	1022.00	1054.00	1014.00	916.00	744.00	660.00	690.00	707.00	809.00	614.00	611.00	693.00	742.00	759.00	730.00	736.00	748.00	771.00	890.00	873.00	829.00	825.00	856.00	932.00	972.00	927.00	937.00	960.00	967.00	968.00	969.00	984.00	975.00	975.00	973.00	966.00	975.00	929.00	920.00	935.00	921.00	864.00	841.00	833.00	829.00	736.00	666.00	609.00	592.00	566.00	558.00	568.00	593.00	593.00	539.00	572.00	574.00	518.00	329.00	353.00	332.00	347.00	277.00	392.00	428.00	429.00	390.00	395.00	365.00	341.00	429.00	469.00	553.00	626.00	772.00	939.00	899.00	785.00	568.00	420.00	334.00	287.00	194.00	210.00	224.00	400.00	459.00	566.00	585.00	586.00	591.00	440.00	220.00	123.00	118.00	137.00	229.00	316.00	525.00	540.00	334.00	293.00	449.00	394.00	326.00	271.00	228.00	193.00	159.00	259.00	419.00	607.00	542.00	625.00	731.00	681.00	747.00	844.00	844.00	777.00	771.00	812.00	789.00	681.00	611.00	432.00	396.00	364.00	351.00	332.00	193.00	128.00	118.00	118.00	192.00	211.00	150.00	195.00	191.00	228.00	331.00	341.00	281.00	209.00	142.00	92.00	48.00	48.00	27.00	26.00	23.00	24.00	70.00	114.00	155.00	216.00	312.00	221.00	272.00	283.00	318.00	284.00	321.00	332.00	288.00	315.00	276.00	137.00	175.00	161.00	49.00	69.00	82.00
483.00	435.00	521.00	360.00	438.00	415.00	476.00	507.00	389.00	402.00	368.00	268.00	260.00	290.00	448.00	455.00	397.00	478.00	578.00	697.00	951.00	1112.00	1283.00	1294.00	1236.00	1242.00	1060.00	873.00	780.00	559.00	584.00	764.00	785.00	652.00	476.00	666.00	766.00	600.00	387.00	478.00	654.00	529.00	440.00	613.00	681.00	774.00	893.00	960.00	921.00	757.00	744.00	1135.00	1036.00	1184.00	1249.00	1242.00	1156.00	1202.00	1235.00	1232.00	1259.00	1064.00	1113.00	1077.00	1059.00	990.00	957.00	918.00	894.00	936.00	904.00	841.00	978.00	1051.00	1068.00	1100.00	1078.00	1038.00	1043.00	1013.00	1049.00	1049.00	1021.00	1106.00	1080.00	1051.00	1035.00	1026.00	975.00	931.00	870.00	829.00	639.00	602.00	701.00	723.00	726.00	727.00	757.00	796.00	874.00	864.00	829.00	833.00	824.00	852.00	909.00	976.00	940.00	933.00	945.00	949.00	958.00	968.00	986.00	979.00	969.00	967.00	967.00	960.00	976.00	925.00	867.00	890.00	846.00	828.00	811.00	793.00	649.00	613.00	582.00	594.00	614.00	606.00	595.00	550.00	549.00	539.00	557.00	556.00	549.00	319.00	276.00	275.00	286.00	331.00	285.00	319.00	376.00	349.00	307.00	301.00	285.00	315.00	329.00	487.00	533.00	603.00	676.00	767.00	742.00	623.00	512.00	373.00	224.00	240.00	395.00	281.00	370.00	501.00	618.00	526.00	504.00	456.00	353.00	214.00	248.00	121.00	118.00	125.00	183.00	325.00	409.00	252.00	399.00	601.00	570.00	446.00	437.00	363.00	185.00	301.00	442.00	608.00	683.00	586.00	633.00	612.00	629.00	671.00	743.00	808.00	849.00	880.00	974.00	935.00	765.00	624.00	478.00	437.00	397.00	374.00	349.00	280.00	199.00	123.00	118.00	154.00	136.00	120.00	122.00	138.00	295.00	363.00	455.00	355.00	241.00	161.00	198.00	43.00	32.00	28.00	26.00	27.00	25.00	64.00	136.00	182.00	213.00	302.00	197.00	210.00	256.00	282.00	346.00	277.00	245.00	306.00	318.00	213.00	176.00	144.00	117.00	76.00	132.00	90.00
539.00	549.00	545.00	381.00	488.00	526.00	492.00	451.00	360.00	490.00	428.00	347.00	263.00	278.00	407.00	447.00	330.00	377.00	450.00	534.00	955.00	1100.00	1132.00	1088.00	1109.00	1226.00	1098.00	940.00	745.00	651.00	522.00	620.00	762.00	668.00	478.00	640.00	744.00	646.00	383.00	475.00	567.00	441.00	427.00	666.00	646.00	740.00	807.00	738.00	737.00	601.00	746.00	1030.00	869.00	1049.00	1257.00	1297.00	1295.00	1283.00	1326.00	1294.00	1232.00	1128.00	1223.00	1111.00	1147.00	1106.00	1044.00	964.00	894.00	873.00	859.00	842.00	929.00	939.00	1085.00	1069.00	1045.00	1022.00	1004.00	1026.00	1008.00	998.00	1007.00	1156.00	1079.00	1024.00	1065.00	1083.00	1055.00	1034.00	1003.00	941.00	690.00	610.00	679.00	712.00	764.00	812.00	823.00	818.00	814.00	816.00	804.00	805.00	817.00	832.00	878.00	954.00	965.00	950.00	954.00	945.00	947.00	956.00	978.00	978.00	981.00	966.00	963.00	954.00	953.00	957.00	897.00	854.00	828.00	819.00	763.00	684.00	597.00	601.00	620.00	634.00	631.00	622.00	626.00	543.00	558.00	580.00	588.00	563.00	616.00	407.00	373.00	364.00	335.00	493.00	288.00	274.00	284.00	279.00	268.00	247.00	257.00	260.00	239.00	408.00	465.00	516.00	540.00	572.00	618.00	529.00	389.00	427.00	279.00	312.00	482.00	361.00	409.00	562.00	712.00	604.00	546.00	448.00	332.00	332.00	413.00	206.00	131.00	118.00	120.00	167.00	238.00	183.00	429.00	645.00	575.00	409.00	330.00	242.00	142.00	213.00	395.00	511.00	540.00	519.00	510.00	530.00	602.00	802.00	887.00	961.00	1001.00	1005.00	957.00	758.00	587.00	552.00	445.00	444.00	439.00	421.00	387.00	328.00	192.00	122.00	118.00	120.00	140.00	147.00	171.00	264.00	340.00	467.00	385.00	301.00	211.00	256.00	191.00	42.00	23.00	26.00	28.00	25.00	19.00	65.00	113.00	104.00	168.00	278.00	199.00	185.00	222.00	263.00	403.00	368.00	255.00	253.00	276.00	237.00	143.00	176.00	142.00	68.00	162.00	125.00
471.00	582.00	603.00	437.00	568.00	689.00	668.00	607.00	515.00	518.00	353.00	402.00	290.00	256.00	285.00	313.00	473.00	473.00	511.00	609.00	825.00	958.00	1019.00	958.00	1124.00	1102.00	1029.00	929.00	746.00	737.00	565.00	491.00	528.00	607.00	523.00	658.00	734.00	587.00	362.00	456.00	613.00	444.00	409.00	587.00	565.00	653.00	782.00	666.00	537.00	595.00	827.00	787.00	788.00	935.00	1130.00	1376.00	1326.00	1314.00	1310.00	1408.00	1293.00	1205.00	1251.00	1219.00	1246.00	1089.00	1053.00	939.00	971.00	913.00	893.00	926.00	893.00	935.00	986.00	1059.00	1116.00	1117.00	1024.00	1035.00	1041.00	1016.00	994.00	1120.00	1065.00	1058.00	1034.00	1114.00	1046.00	986.00	1048.00	953.00	764.00	688.00	637.00	703.00	764.00	811.00	800.00	802.00	827.00	802.00	803.00	802.00	815.00	853.00	877.00	948.00	952.00	949.00	962.00	954.00	947.00	953.00	975.00	976.00	973.00	965.00	960.00	960.00	946.00	947.00	956.00	854.00	846.00	829.00	728.00	622.00	701.00	720.00	748.00	745.00	678.00	619.00	584.00	580.00	619.00	591.00	623.00	579.00	649.00	638.00	560.00	490.00	446.00	422.00	334.00	321.00	326.00	341.00	296.00	298.00	290.00	297.00	319.00	259.00	347.00	381.00	438.00	469.00	466.00	495.00	344.00	274.00	305.00	457.00	475.00	517.00	470.00	625.00	796.00	733.00	585.00	375.00	431.00	450.00	468.00	400.00	262.00	159.00	118.00	120.00	149.00	227.00	422.00	455.00	381.00	366.00	234.00	168.00	129.00	232.00	281.00	283.00	294.00	328.00	422.00	532.00	660.00	785.00	764.00	841.00	1012.00	1054.00	794.00	561.00	409.00	335.00	470.00	394.00	485.00	488.00	482.00	335.00	182.00	137.00	121.00	118.00	144.00	246.00	293.00	285.00	419.00	436.00	330.00	283.00	319.00	235.00	119.00	42.00	34.00	25.00	23.00	18.00	22.00	57.00	127.00	98.00	181.00	261.00	192.00	183.00	201.00	237.00	341.00	430.00	336.00	218.00	296.00	252.00	237.00	248.00	186.00	85.00	71.00	94.00
435.00	414.00	720.00	750.00	686.00	846.00	916.00	770.00	652.00	347.00	405.00	497.00	426.00	311.00	254.00	256.00	449.00	523.00	443.00	370.00	634.00	775.00	904.00	762.00	825.00	1061.00	882.00	679.00	594.00	757.00	738.00	611.00	506.00	426.00	410.00	489.00	635.00	587.00	348.00	440.00	485.00	373.00	461.00	537.00	706.00	804.00	667.00	459.00	549.00	629.00	550.00	693.00	1011.00	1024.00	964.00	1014.00	1315.00	1273.00	1250.00	1204.00	1368.00	1320.00	1259.00	1192.00	1109.00	1006.00	1067.00	1039.00	1052.00	982.00	1076.00	1128.00	998.00	946.00	958.00	916.00	959.00	989.00	1175.00	1130.00	1076.00	1075.00	1040.00	998.00	1050.00	1076.00	1084.00	1078.00	1067.00	1013.00	990.00	899.00	829.00	811.00	849.00	729.00	712.00	742.00	833.00	960.00	999.00	840.00	806.00	818.00	833.00	848.00	885.00	971.00	996.00	1016.00	972.00	964.00	963.00	960.00	968.00	977.00	973.00	982.00	968.00	963.00	957.00	949.00	948.00	920.00	888.00	879.00	863.00	866.00	936.00	933.00	946.00	938.00	818.00	765.00	711.00	649.00	615.00	645.00	709.00	690.00	614.00	774.00	767.00	730.00	713.00	602.00	646.00	626.00	573.00	491.00	434.00	457.00	426.00	377.00	324.00	280.00	283.00	279.00	244.00	247.00	285.00	261.00	223.00	333.00	591.00	700.00	592.00	551.00	782.00	857.00	795.00	629.00	603.00	505.00	507.00	506.00	632.00	567.00	437.00	267.00	291.00	311.00	119.00	118.00	130.00	162.00	304.00	186.00	143.00	136.00	141.00	194.00	220.00	180.00	212.00	338.00	484.00	552.00	515.00	674.00	895.00	1039.00	876.00	696.00	500.00	422.00	307.00	229.00	136.00	184.00	202.00	227.00	186.00	236.00	243.00	149.00	118.00	118.00	330.00	318.00	428.00	566.00	358.00	337.00	388.00	442.00	234.00	116.00	88.00	88.00	32.00	27.00	24.00	22.00	22.00	57.00	122.00	166.00	177.00	220.00	220.00	196.00	172.00	198.00	332.00	448.00	348.00	273.00	179.00	368.00	373.00	263.00	207.00	127.00	104.00	195.00
698.00	558.00	629.00	762.00	843.00	826.00	864.00	566.00	476.00	381.00	521.00	509.00	402.00	334.00	275.00	256.00	399.00	353.00	321.00	453.00	646.00	773.00	785.00	680.00	675.00	985.00	992.00	798.00	584.00	693.00	794.00	710.00	619.00	512.00	388.00	414.00	544.00	598.00	366.00	379.00	401.00	336.00	443.00	535.00	678.00	768.00	614.00	481.00	528.00	530.00	485.00	708.00	847.00	857.00	772.00	827.00	1278.00	1284.00	1092.00	1033.00	1297.00	1417.00	1352.00	1273.00	1156.00	1200.00	1243.00	1179.00	1011.00	1065.00	1115.00	1096.00	967.00	1040.00	1047.00	931.00	974.00	978.00	1085.00	1130.00	1118.00	1147.00	1108.00	1014.00	1073.00	1074.00	1053.00	1063.00	1046.00	999.00	987.00	893.00	927.00	828.00	776.00	723.00	758.00	725.00	781.00	961.00	1063.00	988.00	921.00	850.00	818.00	887.00	931.00	1005.00	1043.00	1037.00	972.00	960.00	960.00	963.00	971.00	979.00	981.00	996.00	973.00	976.00	958.00	949.00	946.00	973.00	996.00	989.00	977.00	954.00	952.00	954.00	955.00	929.00	901.00	851.00	805.00	752.00	687.00	716.00	703.00	677.00	624.00	734.00	789.00	753.00	708.00	681.00	720.00	704.00	721.00	720.00	626.00	665.00	653.00	514.00	378.00	303.00	362.00	358.00	322.00	301.00	320.00	332.00	254.00	282.00	490.00	627.00	736.00	725.00	845.00	972.00	921.00	816.00	832.00	537.00	613.00	606.00	679.00	606.00	522.00	420.00	462.00	491.00	139.00	121.00	119.00	118.00	146.00	166.00	119.00	118.00	138.00	315.00	329.00	331.00	374.00	306.00	417.00	655.00	641.00	815.00	982.00	1032.00	878.00	622.00	429.00	403.00	315.00	366.00	146.00	159.00	238.00	240.00	265.00	201.00	213.00	138.00	167.00	118.00	287.00	267.00	408.00	491.00	317.00	395.00	448.00	412.00	155.00	148.00	155.00	42.00	42.00	23.00	20.00	21.00	20.00	59.00	98.00	123.00	221.00	273.00	243.00	197.00	174.00	177.00	352.00	494.00	371.00	244.00	164.00	290.00	342.00	269.00	243.00	163.00	121.00	169.00
833.00	754.00	721.00	847.00	867.00	724.00	708.00	463.00	495.00	475.00	580.00	478.00	388.00	359.00	357.00	264.00	285.00	314.00	356.00	376.00	673.00	614.00	625.00	597.00	645.00	946.00	937.00	734.00	576.00	628.00	696.00	770.00	779.00	657.00	492.00	384.00	383.00	411.00	408.00	341.00	373.00	344.00	451.00	492.00	589.00	708.00	581.00	449.00	435.00	449.00	569.00	778.00	660.00	628.00	676.00	800.00	1198.00	1244.00	1093.00	986.00	1129.00	1362.00	1327.00	1285.00	1284.00	1326.00	1339.00	1204.00	1068.00	1184.00	1160.00	1074.00	1069.00	1106.00	1037.00	972.00	1016.00	1082.00	1010.00	984.00	1077.00	1112.00	1108.00	1076.00	1071.00	1023.00	1093.00	1066.00	1063.00	1046.00	1010.00	974.00	949.00	967.00	921.00	805.00	741.00	746.00	780.00	936.00	1029.00	1069.00	1007.00	945.00	837.00	877.00	1004.00	1038.00	1051.00	1078.00	990.00	987.00	970.00	1048.00	990.00	993.00	996.00	996.00	1009.00	974.00	959.00	980.00	984.00	961.00	996.00	985.00	965.00	963.00	943.00	937.00	933.00	931.00	923.00	875.00	829.00	873.00	822.00	826.00	791.00	750.00	728.00	742.00	785.00	731.00	719.00	679.00	717.00	733.00	741.00	769.00	758.00	776.00	697.00	643.00	616.00	417.00	353.00	302.00	299.00	320.00	267.00	232.00	232.00	253.00	402.00	469.00	582.00	707.00	929.00	851.00	774.00	877.00	926.00	692.00	771.00	785.00	762.00	594.00	584.00	618.00	642.00	511.00	251.00	164.00	187.00	155.00	118.00	121.00	128.00	136.00	150.00	239.00	239.00	206.00	329.00	478.00	529.00	667.00	738.00	804.00	828.00	801.00	733.00	694.00	619.00	549.00	472.00	422.00	276.00	151.00	138.00	193.00	290.00	139.00	177.00	178.00	125.00	118.00	237.00	149.00	261.00	333.00	254.00	353.00	370.00	318.00	118.00	130.00	133.00	30.00	110.00	20.00	21.00	20.00	22.00	64.00	115.00	216.00	315.00	312.00	198.00	219.00	171.00	166.00	339.00	403.00	458.00	320.00	176.00	213.00	344.00	327.00	324.00	159.00	125.00	122.00
814.00	861.00	771.00	879.00	840.00	716.00	613.00	589.00	684.00	535.00	694.00	577.00	486.00	478.00	381.00	273.00	294.00	379.00	468.00	422.00	593.00	454.00	458.00	543.00	676.00	977.00	867.00	725.00	586.00	511.00	552.00	646.00	727.00	757.00	568.00	475.00	414.00	378.00	319.00	334.00	323.00	369.00	453.00	459.00	633.00	719.00	591.00	384.00	477.00	574.00	723.00	685.00	506.00	575.00	741.00	885.00	1254.00	1272.00	1203.00	1079.00	987.00	1278.00	1355.00	1323.00	1284.00	1356.00	1212.00	1158.00	1147.00	1275.00	1212.00	1223.00	1195.00	1137.00	999.00	966.00	1020.00	1056.00	1016.00	951.00	890.00	939.00	1012.00	1007.00	1019.00	1011.00	1042.00	1060.00	1005.00	1100.00	1067.00	1000.00	880.00	1047.00	983.00	863.00	719.00	697.00	768.00	920.00	1032.00	1049.00	1038.00	995.00	915.00	886.00	1017.00	1123.00	1091.00	1078.00	1044.00	1011.00	992.00	1075.00	1057.00	1026.00	1051.00	1098.00	1063.00	1064.00	1062.00	1036.00	999.00	991.00	994.00	984.00	967.00	953.00	946.00	947.00	946.00	937.00	992.00	894.00	851.00	961.00	950.00	887.00	824.00	790.00	748.00	729.00	774.00	787.00	736.00	725.00	738.00	785.00	804.00	833.00	795.00	832.00	756.00	691.00	613.00	583.00	511.00	393.00	304.00	274.00	317.00	237.00	250.00	289.00	315.00	375.00	445.00	548.00	806.00	656.00	643.00	779.00	922.00	931.00	936.00	940.00	791.00	600.00	542.00	595.00	727.00	635.00	415.00	311.00	357.00	234.00	143.00	118.00	125.00	187.00	131.00	124.00	142.00	196.00	281.00	538.00	638.00	781.00	852.00	670.00	584.00	541.00	531.00	513.00	501.00	469.00	415.00	368.00	331.00	212.00	122.00	156.00	170.00	133.00	142.00	125.00	119.00	118.00	120.00	121.00	188.00	251.00	142.00	232.00	199.00	164.00	118.00	118.00	118.00	107.00	115.00	20.00	20.00	19.00	21.00	71.00	122.00	173.00	269.00	341.00	204.00	176.00	198.00	176.00	213.00	298.00	421.00	427.00	301.00	159.00	284.00	324.00	329.00	180.00	129.00	157.00
526.00	522.00	539.00	705.00	876.00	961.00	872.00	802.00	826.00	813.00	810.00	663.00	513.00	396.00	322.00	333.00	265.00	390.00	559.00	672.00	455.00	428.00	587.00	694.00	702.00	906.00	759.00	666.00	709.00	544.00	399.00	456.00	598.00	768.00	830.00	791.00	726.00	665.00	476.00	511.00	440.00	357.00	364.00	556.00	682.00	780.00	652.00	354.00	465.00	499.00	472.00	411.00	531.00	680.00	849.00	987.00	1115.00	1207.00	1088.00	999.00	932.00	1169.00	1165.00	1202.00	1305.00	1226.00	1268.00	1226.00	1243.00	1371.00	1423.00	1373.00	1263.00	1260.00	1121.00	1118.00	1171.00	1170.00	1030.00	1037.00	1039.00	993.00	947.00	865.00	844.00	846.00	871.00	888.00	837.00	878.00	913.00	908.00	794.00	829.00	822.00	805.00	792.00	800.00	773.00	794.00	918.00	1109.00	1061.00	1032.00	1016.00	941.00	1017.00	1152.00	1182.00	1053.00	1190.00	1101.00	1001.00	1058.00	1111.00	1092.00	1102.00	1130.00	1095.00	1143.00	1140.00	1148.00	1145.00	1081.00	1081.00	1079.00	1054.00	1063.00	1035.00	996.00	982.00	996.00	1065.00	1042.00	1042.00	1059.00	1099.00	1021.00	1022.00	1032.00	1017.00	1012.00	971.00	941.00	904.00	891.00	868.00	842.00	898.00	1011.00	1079.00	1139.00	1070.00	960.00	900.00	645.00	655.00	657.00	547.00	342.00	275.00	257.00	260.00	261.00	250.00	286.00	396.00	490.00	425.00	491.00	689.00	707.00	771.00	660.00	746.00	910.00	893.00	705.00	630.00	592.00	597.00	681.00	615.00	660.00	718.00	575.00	265.00	121.00	122.00	246.00	393.00	182.00	205.00	157.00	224.00	324.00	379.00	453.00	462.00	398.00	452.00	464.00	457.00	385.00	437.00	461.00	447.00	408.00	284.00	172.00	136.00	120.00	143.00	118.00	118.00	124.00	151.00	118.00	141.00	129.00	123.00	119.00	118.00	118.00	118.00	119.00	162.00	128.00	124.00	181.00	104.00	71.00	22.00	22.00	26.00	74.00	98.00	129.00	209.00	314.00	244.00	354.00	270.00	256.00	150.00	163.00	203.00	234.00	260.00	202.00	138.00	179.00	202.00	135.00	130.00	139.00
431.00	446.00	551.00	588.00	727.00	881.00	959.00	888.00	735.00	698.00	729.00	614.00	593.00	528.00	454.00	376.00	279.00	456.00	593.00	655.00	361.00	382.00	479.00	581.00	627.00	779.00	692.00	546.00	592.00	463.00	368.00	481.00	612.00	716.00	737.00	862.00	893.00	763.00	619.00	655.00	521.00	335.00	342.00	516.00	562.00	697.00	561.00	335.00	367.00	354.00	361.00	485.00	630.00	813.00	870.00	936.00	1123.00	1222.00	1095.00	969.00	843.00	1098.00	1089.00	1157.00	1195.00	1264.00	1227.00	1151.00	1101.00	1279.00	1310.00	1311.00	1297.00	1254.00	1139.00	1176.00	1196.00	1188.00	1141.00	1104.00	1039.00	992.00	985.00	936.00	917.00	937.00	996.00	954.00	982.00	953.00	984.00	990.00	870.00	799.00	767.00	742.00	753.00	722.00	713.00	716.00	801.00	1090.00	1100.00	1041.00	1042.00	913.00	999.00	1113.00	1155.00	1092.00	1160.00	1168.00	1076.00	1009.00	1136.00	1116.00	1128.00	1140.00	1151.00	1086.00	1108.00	1091.00	1127.00	1137.00	1134.00	1076.00	1069.00	1078.00	1041.00	1050.00	1046.00	1015.00	1124.00	1146.00	1134.00	1149.00	1112.00	1076.00	1060.00	1054.00	1060.00	1059.00	1054.00	1057.00	1053.00	1026.00	1016.00	998.00	1021.00	1125.00	1160.00	1063.00	1020.00	927.00	899.00	676.00	627.00	609.00	631.00	448.00	340.00	297.00	282.00	336.00	308.00	260.00	328.00	381.00	355.00	400.00	502.00	557.00	689.00	597.00	736.00	765.00	728.00	557.00	530.00	434.00	501.00	559.00	496.00	567.00	688.00	475.00	192.00	118.00	121.00	233.00	345.00	269.00	306.00	219.00	202.00	288.00	329.00	352.00	395.00	403.00	491.00	463.00	406.00	362.00	377.00	427.00	441.00	402.00	296.00	209.00	166.00	128.00	134.00	118.00	118.00	135.00	139.00	118.00	202.00	129.00	214.00	179.00	120.00	124.00	146.00	201.00	181.00	169.00	176.00	297.00	216.00	80.00	24.00	24.00	24.00	61.00	85.00	104.00	241.00	316.00	291.00	379.00	251.00	196.00	150.00	146.00	157.00	164.00	173.00	162.00	151.00	129.00	143.00	131.00	121.00	151.00
537.00	469.00	738.00	699.00	682.00	811.00	1018.00	857.00	692.00	524.00	578.00	549.00	613.00	576.00	491.00	325.00	250.00	333.00	497.00	620.00	350.00	411.00	602.00	720.00	767.00	745.00	564.00	476.00	502.00	537.00	396.00	376.00	511.00	565.00	616.00	773.00	814.00	793.00	781.00	777.00	466.00	406.00	353.00	383.00	478.00	518.00	580.00	321.00	371.00	436.00	487.00	628.00	752.00	731.00	686.00	757.00	1070.00	1102.00	991.00	845.00	677.00	1020.00	1198.00	1261.00	1127.00	1182.00	1245.00	1183.00	1042.00	1261.00	1272.00	1249.00	1237.00	1168.00	1246.00	1272.00	1250.00	1184.00	1133.00	1080.00	1035.00	1051.00	998.00	875.00	880.00	841.00	874.00	973.00	988.00	919.00	842.00	899.00	867.00	817.00	767.00	824.00	871.00	814.00	771.00	736.00	757.00	962.00	1048.00	1069.00	1046.00	958.00	941.00	1062.00	1196.00	1181.00	1067.00	1174.00	1208.00	1093.00	1156.00	1164.00	1154.00	1155.00	1171.00	1166.00	1202.00	1130.00	1093.00	1083.00	1111.00	1101.00	1089.00	1105.00	1097.00	1125.00	1104.00	1125.00	1178.00	1201.00	1213.00	1197.00	1165.00	1197.00	1160.00	1160.00	1126.00	1132.00	1105.00	1086.00	1104.00	1151.00	1138.00	1147.00	1146.00	1140.00	1079.00	1007.00	967.00	835.00	763.00	645.00	584.00	586.00	555.00	570.00	468.00	348.00	322.00	382.00	299.00	284.00	273.00	299.00	335.00	378.00	436.00	493.00	514.00	613.00	618.00	610.00	605.00	411.00	476.00	422.00	387.00	472.00	429.00	439.00	603.00	518.00	202.00	118.00	127.00	177.00	258.00	353.00	339.00	260.00	241.00	232.00	284.00	285.00	351.00	432.00	426.00	459.00	388.00	443.00	275.00	406.00	465.00	331.00	192.00	221.00	222.00	127.00	118.00	118.00	118.00	133.00	188.00	120.00	254.00	219.00	353.00	237.00	149.00	199.00	275.00	283.00	288.00	266.00	333.00	291.00	148.00	46.00	27.00	30.00	31.00	76.00	106.00	178.00	358.00	317.00	353.00	341.00	243.00	286.00	152.00	147.00	163.00	228.00	202.00	152.00	252.00	177.00	175.00	118.00	125.00	161.00
611.00	526.00	727.00	831.00	794.00	844.00	1022.00	831.00	686.00	452.00	438.00	421.00	557.00	496.00	360.00	286.00	280.00	262.00	335.00	435.00	318.00	441.00	519.00	680.00	830.00	782.00	674.00	513.00	390.00	414.00	424.00	343.00	402.00	419.00	623.00	746.00	663.00	655.00	741.00	777.00	587.00	522.00	422.00	305.00	355.00	383.00	463.00	316.00	344.00	443.00	600.00	676.00	622.00	554.00	520.00	671.00	927.00	890.00	891.00	794.00	630.00	1076.00	1299.00	1356.00	1127.00	1149.00	1140.00	1031.00	997.00	1319.00	1325.00	1273.00	1190.00	1176.00	1224.00	1192.00	1160.00	1159.00	1128.00	1055.00	1050.00	998.00	926.00	960.00	949.00	886.00	905.00	833.00	858.00	864.00	822.00	813.00	752.00	731.00	836.00	899.00	919.00	865.00	829.00	835.00	848.00	896.00	944.00	1038.00	1073.00	1017.00	945.00	1055.00	1205.00	1238.00	1075.00	1135.00	1266.00	1225.00	1059.00	1126.00	1168.00	1146.00	1172.00	1151.00	1141.00	1149.00	1174.00	1105.00	1119.00	1099.00	1104.00	1107.00	1118.00	1116.00	1112.00	1162.00	1203.00	1220.00	1185.00	1169.00	1190.00	1202.00	1206.00	1178.00	1170.00	1200.00	1142.00	1151.00	1189.00	1259.00	1264.00	1292.00	1219.00	1193.00	1080.00	1029.00	974.00	876.00	739.00	666.00	595.00	632.00	573.00	556.00	511.00	476.00	389.00	407.00	328.00	446.00	383.00	325.00	360.00	449.00	425.00	383.00	389.00	460.00	463.00	518.00	566.00	321.00	319.00	314.00	312.00	395.00	367.00	313.00	441.00	312.00	135.00	152.00	167.00	147.00	145.00	270.00	311.00	293.00	294.00	244.00	156.00	172.00	225.00	397.00	301.00	356.00	274.00	361.00	229.00	268.00	412.00	241.00	130.00	140.00	132.00	122.00	118.00	128.00	147.00	200.00	239.00	190.00	369.00	354.00	318.00	153.00	261.00	346.00	366.00	356.00	281.00	266.00	236.00	133.00	64.00	31.00	30.00	34.00	48.00	198.00	236.00	318.00	407.00	301.00	402.00	280.00	266.00	325.00	181.00	145.00	156.00	230.00	262.00	164.00	273.00	286.00	244.00	139.00	113.00	127.00
795.00	677.00	715.00	805.00	938.00	1040.00	987.00	885.00	745.00	573.00	473.00	342.00	305.00	296.00	293.00	386.00	363.00	269.00	267.00	249.00	431.00	503.00	564.00	586.00	516.00	529.00	572.00	657.00	584.00	314.00	420.00	435.00	421.00	496.00	628.00	552.00	425.00	447.00	426.00	397.00	577.00	683.00	616.00	419.00	362.00	287.00	303.00	399.00	292.00	394.00	444.00	456.00	415.00	471.00	618.00	790.00	707.00	577.00	548.00	470.00	831.00	1138.00	1331.00	1257.00	1067.00	775.00	800.00	870.00	913.00	1196.00	1245.00	1236.00	1176.00	1251.00	1163.00	1109.00	1126.00	1099.00	1045.00	1029.00	1040.00	1075.00	1036.00	911.00	923.00	912.00	880.00	912.00	951.00	880.00	835.00	785.00	737.00	714.00	720.00	731.00	867.00	963.00	1129.00	1154.00	1120.00	1062.00	1053.00	1003.00	954.00	917.00	927.00	975.00	1092.00	1162.00	1238.00	1182.00	1155.00	1218.00	1147.00	1041.00	1011.00	1025.00	1075.00	1184.00	1159.00	1161.00	1148.00	1089.00	1088.00	1128.00	1130.00	1121.00	1139.00	1133.00	1139.00	1168.00	1204.00	1197.00	1195.00	1235.00	1240.00	1244.00	1245.00	1224.00	1207.00	1217.00	1201.00	1187.00	1176.00	1269.00	1239.00	1231.00	1223.00	1248.00	1287.00	1207.00	1112.00	1070.00	991.00	777.00	692.00	738.00	676.00	524.00	518.00	502.00	502.00	413.00	380.00	475.00	620.00	507.00	454.00	433.00	414.00	393.00	480.00	564.00	500.00	495.00	564.00	572.00	467.00	343.00	253.00	211.00	204.00	130.00	156.00	126.00	121.00	151.00	202.00	250.00	348.00	271.00	294.00	256.00	218.00	143.00	118.00	124.00	174.00	238.00	171.00	175.00	216.00	218.00	165.00	155.00	227.00	213.00	118.00	118.00	118.00	126.00	140.00	119.00	129.00	180.00	203.00	374.00	419.00	297.00	326.00	397.00	225.00	264.00	236.00	147.00	74.00	97.00	100.00	109.00	122.00	62.00	56.00	46.00	63.00	142.00	223.00	246.00	352.00	375.00	308.00	343.00	371.00	370.00	293.00	237.00	171.00	158.00	196.00	254.00	124.00	157.00	170.00	130.00	105.00	133.00
835.00	735.00	797.00	912.00	999.00	918.00	817.00	837.00	838.00	618.00	574.00	365.00	293.00	319.00	345.00	466.00	283.00	290.00	388.00	299.00	310.00	393.00	412.00	473.00	388.00	441.00	520.00	538.00	580.00	316.00	460.00	535.00	560.00	589.00	514.00	447.00	384.00	461.00	471.00	328.00	503.00	603.00	702.00	587.00	464.00	318.00	279.00	358.00	278.00	301.00	326.00	353.00	469.00	595.00	660.00	810.00	654.00	501.00	439.00	486.00	843.00	1055.00	1151.00	1184.00	1184.00	788.00	684.00	903.00	1034.00	1303.00	1324.00	1284.00	1180.00	1175.00	1198.00	1159.00	1152.00	1103.00	1069.00	1068.00	1060.00	1103.00	1106.00	1001.00	1019.00	974.00	947.00	956.00	890.00	847.00	806.00	772.00	750.00	720.00	728.00	738.00	785.00	862.00	1019.00	1177.00	1166.00	1104.00	1105.00	1084.00	1037.00	928.00	913.00	923.00	1017.00	1065.00	1210.00	1201.00	1170.00	1171.00	1233.00	1099.00	1018.00	991.00	983.00	1134.00	1144.00	1137.00	1135.00	1086.00	1120.00	1177.00	1185.00	1214.00	1251.00	1239.00	1242.00	1254.00	1254.00	1279.00	1309.00	1314.00	1278.00	1297.00	1297.00	1285.00	1262.00	1296.00	1315.00	1347.00	1300.00	1230.00	1180.00	1188.00	1160.00	1180.00	1194.00	1202.00	1133.00	1131.00	1135.00	937.00	863.00	809.00	682.00	513.00	486.00	478.00	489.00	463.00	448.00	460.00	651.00	667.00	579.00	579.00	537.00	509.00	512.00	455.00	443.00	472.00	666.00	564.00	431.00	317.00	212.00	157.00	170.00	140.00	118.00	118.00	120.00	118.00	142.00	169.00	215.00	164.00	162.00	133.00	121.00	119.00	118.00	118.00	118.00	131.00	120.00	124.00	134.00	134.00	119.00	118.00	118.00	118.00	118.00	118.00	129.00	152.00	132.00	126.00	155.00	208.00	263.00	454.00	419.00	431.00	389.00	368.00	179.00	141.00	112.00	144.00	204.00	260.00	305.00	205.00	134.00	92.00	86.00	54.00	80.00	119.00	154.00	294.00	393.00	425.00	372.00	399.00	417.00	407.00	377.00	336.00	280.00	199.00	179.00	325.00	109.00	121.00	144.00	167.00	107.00	129.00
851.00	832.00	866.00	947.00	977.00	847.00	654.00	623.00	659.00	573.00	468.00	358.00	301.00	342.00	382.00	402.00	271.00	352.00	503.00	421.00	250.00	267.00	279.00	343.00	335.00	340.00	430.00	423.00	456.00	285.00	360.00	392.00	403.00	529.00	567.00	395.00	332.00	438.00	392.00	320.00	445.00	461.00	565.00	533.00	526.00	382.00	285.00	281.00	309.00	359.00	390.00	446.00	523.00	619.00	804.00	855.00	520.00	423.00	493.00	546.00	785.00	873.00	907.00	1000.00	1021.00	873.00	662.00	858.00	1025.00	1316.00	1291.00	1251.00	1227.00	1148.00	1175.00	1207.00	1230.00	1193.00	1131.00	1211.00	1165.00	1152.00	1149.00	1051.00	1028.00	1080.00	1008.00	945.00	957.00	896.00	844.00	812.00	769.00	732.00	742.00	743.00	757.00	812.00	909.00	1116.00	1150.00	1142.00	1129.00	1114.00	1093.00	977.00	926.00	907.00	927.00	990.00	1070.00	1126.00	1114.00	1124.00	1142.00	1182.00	1077.00	1034.00	1042.00	932.00	964.00	989.00	1014.00	1118.00	1106.00	1073.00	1050.00	1084.00	1167.00	1172.00	1176.00	1186.00	1252.00	1285.00	1297.00	1345.00	1399.00	1375.00	1376.00	1372.00	1348.00	1354.00	1334.00	1344.00	1296.00	1315.00	1345.00	1303.00	1236.00	1189.00	1146.00	1108.00	1107.00	1173.00	1218.00	999.00	970.00	881.00	733.00	561.00	515.00	494.00	497.00	501.00	474.00	491.00	578.00	625.00	618.00	614.00	627.00	628.00	515.00	382.00	348.00	324.00	427.00	505.00	474.00	420.00	348.00	198.00	120.00	124.00	118.00	118.00	122.00	118.00	118.00	118.00	120.00	128.00	131.00	120.00	118.00	118.00	118.00	118.00	118.00	131.00	120.00	134.00	122.00	118.00	118.00	120.00	118.00	118.00	118.00	118.00	119.00	142.00	156.00	185.00	197.00	333.00	380.00	406.00	461.00	380.00	296.00	274.00	165.00	122.00	262.00	248.00	248.00	260.00	296.00	227.00	156.00	87.00	105.00	63.00	88.00	223.00	274.00	289.00	390.00	444.00	392.00	392.00	372.00	364.00	352.00	344.00	351.00	270.00	179.00	274.00	102.00	106.00	117.00	192.00	123.00	126.00
703.00	823.00	781.00	771.00	818.00	818.00	693.00	505.00	504.00	587.00	477.00	321.00	316.00	391.00	435.00	423.00	279.00	362.00	521.00	525.00	313.00	255.00	248.00	245.00	256.00	282.00	319.00	285.00	288.00	240.00	243.00	260.00	296.00	372.00	521.00	379.00	301.00	342.00	270.00	262.00	317.00	362.00	401.00	385.00	460.00	470.00	379.00	263.00	369.00	486.00	526.00	545.00	697.00	719.00	830.00	776.00	476.00	453.00	559.00	628.00	745.00	703.00	725.00	913.00	906.00	670.00	602.00	736.00	895.00	1238.00	1178.00	1229.00	1167.00	1120.00	1160.00	1238.00	1267.00	1234.00	1183.00	1204.00	1222.00	1156.00	1132.00	1068.00	945.00	995.00	919.00	847.00	840.00	854.00	847.00	790.00	748.00	747.00	735.00	741.00	743.00	765.00	854.00	1046.00	1125.00	1137.00	1148.00	1127.00	1114.00	1025.00	963.00	967.00	917.00	888.00	932.00	926.00	878.00	898.00	936.00	1026.00	1003.00	970.00	948.00	918.00	983.00	942.00	920.00	984.00	1008.00	995.00	997.00	1008.00	1069.00	1134.00	1218.00	1185.00	1191.00	1166.00	1163.00	1215.00	1236.00	1283.00	1303.00	1328.00	1297.00	1381.00	1385.00	1405.00	1424.00	1376.00	1324.00	1353.00	1311.00	1300.00	1238.00	1186.00	1095.00	1118.00	1185.00	1005.00	920.00	843.00	768.00	641.00	599.00	518.00	498.00	487.00	412.00	441.00	496.00	575.00	623.00	619.00	609.00	664.00	658.00	545.00	482.00	362.00	240.00	367.00	448.00	369.00	301.00	227.00	145.00	118.00	118.00	118.00	118.00	118.00	118.00	118.00	118.00	123.00	140.00	135.00	122.00	118.00	118.00	118.00	118.00	118.00	118.00	118.00	119.00	118.00	118.00	122.00	126.00	122.00	166.00	155.00	160.00	160.00	241.00	342.00	300.00	229.00	245.00	246.00	295.00	271.00	256.00	205.00	136.00	172.00	345.00	408.00	257.00	261.00	264.00	240.00	194.00	149.00	87.00	89.00	114.00	301.00	338.00	327.00	381.00	474.00	390.00	387.00	387.00	415.00	357.00	341.00	325.00	274.00	205.00	213.00	109.00	111.00	115.00	177.00	207.00	109.00
868.00	878.00	659.00	588.00	569.00	527.00	550.00	570.00	486.00	383.00	376.00	403.00	353.00	389.00	404.00	338.00	313.00	333.00	451.00	612.00	311.00	267.00	369.00	378.00	375.00	309.00	314.00	321.00	385.00	276.00	384.00	485.00	443.00	353.00	265.00	278.00	266.00	323.00	293.00	355.00	339.00	279.00	301.00	252.00	244.00	238.00	253.00	258.00	366.00	503.00	701.00	826.00	986.00	946.00	789.00	639.00	396.00	432.00	537.00	605.00	655.00	480.00	568.00	679.00	697.00	510.00	666.00	877.00	1080.00	933.00	915.00	848.00	906.00	1009.00	1167.00	1175.00	1179.00	1107.00	1019.00	1066.00	1005.00	996.00	974.00	1026.00	946.00	845.00	854.00	1072.00	1000.00	923.00	882.00	844.00	792.00	758.00	754.00	747.00	742.00	741.00	772.00	856.00	970.00	985.00	981.00	1069.00	1111.00	1093.00	960.00	998.00	970.00	949.00	810.00	687.00	606.00	597.00	631.00	642.00	677.00	741.00	767.00	734.00	711.00	779.00	848.00	938.00	1011.00	971.00	942.00	933.00	984.00	1037.00	1111.00	1162.00	1211.00	1251.00	1264.00	1297.00	1286.00	1257.00	1322.00	1318.00	1281.00	1276.00	1253.00	1265.00	1315.00	1340.00	1444.00	1409.00	1344.00	1278.00	1247.00	1257.00	1236.00	1113.00	1088.00	1086.00	1034.00	949.00	867.00	752.00	660.00	571.00	517.00	494.00	480.00	436.00	459.00	468.00	468.00	517.00	467.00	437.00	460.00	533.00	616.00	478.00	385.00	136.00	200.00	209.00	200.00	166.00	118.00	118.00	118.00	118.00	155.00	121.00	118.00	118.00	118.00	120.00	143.00	146.00	151.00	120.00	118.00	118.00	230.00	176.00	157.00	140.00	158.00	150.00	161.00	124.00	120.00	141.00	152.00	184.00	149.00	120.00	120.00	133.00	121.00	124.00	122.00	127.00	143.00	165.00	171.00	181.00	177.00	226.00	291.00	361.00	231.00	235.00	251.00	296.00	301.00	143.00	139.00	116.00	224.00	266.00	351.00	417.00	510.00	525.00	459.00	490.00	408.00	379.00	376.00	339.00	306.00	279.00	258.00	211.00	109.00	126.00	112.00	109.00	130.00	98.00
977.00	1006.00	711.00	713.00	607.00	571.00	516.00	451.00	455.00	415.00	371.00	470.00	406.00	412.00	377.00	317.00	371.00	411.00	423.00	595.00	383.00	281.00	355.00	471.00	443.00	415.00	378.00	448.00	519.00	287.00	382.00	567.00	623.00	534.00	345.00	346.00	361.00	401.00	338.00	425.00	442.00	359.00	404.00	393.00	415.00	348.00	279.00	268.00	413.00	528.00	643.00	825.00	923.00	956.00	802.00	636.00	426.00	365.00	512.00	695.00	516.00	465.00	582.00	552.00	552.00	539.00	699.00	852.00	1046.00	914.00	766.00	686.00	910.00	1031.00	1129.00	1157.00	1233.00	1205.00	1003.00	943.00	928.00	929.00	921.00	935.00	927.00	899.00	838.00	1143.00	1137.00	1059.00	1042.00	1011.00	775.00	780.00	819.00	772.00	749.00	752.00	751.00	783.00	817.00	813.00	820.00	918.00	1004.00	1037.00	939.00	911.00	922.00	933.00	733.00	626.00	549.00	545.00	554.00	563.00	583.00	600.00	616.00	625.00	601.00	643.00	668.00	714.00	763.00	743.00	758.00	790.00	904.00	936.00	915.00	949.00	1053.00	1088.00	1086.00	1108.00	1101.00	1143.00	1189.00	1218.00	1259.00	1296.00	1329.00	1319.00	1385.00	1341.00	1339.00	1375.00	1383.00	1380.00	1226.00	1200.00	1213.00	1189.00	1130.00	1088.00	1104.00	1017.00	968.00	834.00	787.00	706.00	595.00	513.00	488.00	492.00	394.00	442.00	405.00	417.00	454.00	459.00	406.00	456.00	519.00	560.00	435.00	156.00	132.00	119.00	121.00	119.00	119.00	127.00	119.00	142.00	321.00	219.00	161.00	119.00	120.00	119.00	122.00	118.00	118.00	118.00	120.00	149.00	438.00	351.00	276.00	250.00	206.00	236.00	229.00	188.00	173.00	234.00	190.00	199.00	215.00	206.00	155.00	141.00	149.00	141.00	152.00	205.00	245.00	198.00	212.00	186.00	309.00	410.00	455.00	354.00	227.00	227.00	246.00	273.00	296.00	236.00	171.00	152.00	211.00	351.00	433.00	471.00	548.00	535.00	520.00	477.00	478.00	389.00	354.00	331.00	317.00	286.00	311.00	240.00	109.00	116.00	115.00	110.00	105.00	105.00
1025.00	1073.00	813.00	783.00	701.00	697.00	620.00	504.00	457.00	436.00	407.00	451.00	489.00	442.00	349.00	349.00	477.00	521.00	513.00	583.00	387.00	284.00	373.00	539.00	586.00	565.00	465.00	576.00	683.00	312.00	339.00	505.00	690.00	673.00	431.00	391.00	484.00	444.00	500.00	545.00	473.00	439.00	451.00	444.00	600.00	557.00	425.00	258.00	354.00	409.00	448.00	628.00	823.00	928.00	807.00	671.00	505.00	359.00	466.00	683.00	528.00	502.00	609.00	512.00	422.00	599.00	725.00	791.00	932.00	772.00	698.00	581.00	896.00	1061.00	1130.00	1159.00	1252.00	1262.00	1060.00	1028.00	1037.00	1033.00	1032.00	872.00	869.00	861.00	836.00	1013.00	1101.00	1054.00	968.00	990.00	812.00	779.00	805.00	806.00	749.00	753.00	753.00	748.00	755.00	701.00	707.00	763.00	792.00	849.00	817.00	773.00	757.00	734.00	647.00	561.00	515.00	567.00	583.00	540.00	528.00	531.00	565.00	581.00	555.00	540.00	543.00	563.00	599.00	605.00	602.00	621.00	704.00	752.00	764.00	767.00	839.00	923.00	886.00	903.00	898.00	966.00	999.00	1097.00	1183.00	1203.00	1201.00	1148.00	1241.00	1354.00	1303.00	1290.00	1240.00	1290.00	1329.00	1219.00	1164.00	1178.00	1185.00	1056.00	1022.00	1026.00	1072.00	903.00	853.00	783.00	685.00	586.00	516.00	505.00	442.00	388.00	428.00	440.00	408.00	443.00	443.00	420.00	487.00	462.00	411.00	272.00	191.00	136.00	126.00	144.00	182.00	200.00	181.00	198.00	441.00	395.00	314.00	225.00	161.00	258.00	270.00	181.00	139.00	122.00	127.00	169.00	295.00	287.00	205.00	168.00	183.00	190.00	227.00	198.00	244.00	218.00	291.00	192.00	273.00	374.00	278.00	196.00	231.00	235.00	212.00	325.00	324.00	254.00	303.00	309.00	399.00	494.00	548.00	379.00	225.00	218.00	236.00	252.00	277.00	244.00	171.00	153.00	210.00	432.00	495.00	539.00	523.00	520.00	309.00	277.00	377.00	354.00	336.00	316.00	305.00	284.00	286.00	318.00	182.00	142.00	118.00	112.00	112.00	114.00
1109.00	1008.00	939.00	827.00	841.00	737.00	659.00	598.00	567.00	497.00	489.00	440.00	488.00	430.00	351.00	369.00	536.00	615.00	505.00	446.00	331.00	290.00	349.00	473.00	538.00	705.00	638.00	672.00	649.00	362.00	318.00	460.00	642.00	708.00	538.00	500.00	576.00	555.00	545.00	592.00	641.00	490.00	535.00	500.00	644.00	684.00	539.00	260.00	260.00	310.00	389.00	467.00	735.00	829.00	743.00	706.00	434.00	340.00	412.00	590.00	558.00	431.00	541.00	535.00	390.00	515.00	594.00	704.00	816.00	642.00	546.00	620.00	934.00	1094.00	1180.00	1160.00	1226.00	1313.00	1120.00	1126.00	1145.00	1132.00	1041.00	940.00	949.00	902.00	878.00	970.00	997.00	968.00	968.00	970.00	867.00	815.00	779.00	786.00	803.00	769.00	751.00	745.00	750.00	716.00	678.00	674.00	667.00	694.00	680.00	649.00	635.00	611.00	601.00	540.00	526.00	570.00	590.00	543.00	522.00	527.00	567.00	535.00	518.00	492.00	479.00	482.00	499.00	514.00	526.00	533.00	617.00	638.00	719.00	732.00	745.00	737.00	724.00	748.00	767.00	840.00	856.00	936.00	1001.00	1072.00	1046.00	1044.00	1073.00	1247.00	1402.00	1356.00	1261.00	1209.00	1299.00	1299.00	1218.00	1148.00	1144.00	1097.00	1054.00	1004.00	1003.00	987.00	897.00	839.00	755.00	660.00	528.00	525.00	528.00	426.00	437.00	479.00	462.00	416.00	390.00	367.00	390.00	354.00	280.00	174.00	203.00	246.00	188.00	217.00	315.00	351.00	297.00	365.00	595.00	590.00	472.00	357.00	236.00	241.00	264.00	258.00	157.00	148.00	118.00	119.00	138.00	137.00	129.00	157.00	169.00	181.00	157.00	166.00	201.00	185.00	196.00	215.00	338.00	396.00	422.00	253.00	193.00	220.00	263.00	341.00	311.00	330.00	385.00	422.00	440.00	446.00	442.00	376.00	217.00	217.00	218.00	236.00	254.00	241.00	266.00	269.00	296.00	311.00	328.00	347.00	298.00	288.00	199.00	189.00	232.00	308.00	326.00	294.00	323.00	307.00	290.00	256.00	180.00	131.00	132.00	118.00	131.00	128.00
1173.00	1109.00	1007.00	995.00	1085.00	1069.00	911.00	850.00	802.00	799.00	715.00	565.00	479.00	461.00	398.00	395.00	565.00	568.00	454.00	369.00	454.00	506.00	395.00	383.00	500.00	645.00	768.00	708.00	623.00	472.00	351.00	365.00	514.00	606.00	803.00	826.00	872.00	884.00	845.00	830.00	735.00	698.00	713.00	612.00	451.00	407.00	355.00	360.00	448.00	342.00	240.00	319.00	505.00	526.00	602.00	423.00	314.00	429.00	582.00	646.00	594.00	402.00	370.00	428.00	385.00	459.00	545.00	655.00	593.00	457.00	552.00	702.00	1055.00	1186.00	1270.00	1208.00	1232.00	1331.00	1219.00	1117.00	1138.00	1192.00	1153.00	980.00	1010.00	1069.00	1016.00	1111.00	1089.00	1001.00	954.00	939.00	962.00	890.00	841.00	852.00	868.00	825.00	771.00	701.00	672.00	695.00	679.00	641.00	598.00	609.00	611.00	607.00	578.00	517.00	460.00	450.00	455.00	458.00	467.00	476.00	513.00	519.00	498.00	518.00	501.00	470.00	467.00	443.00	520.00	530.00	528.00	548.00	583.00	596.00	616.00	634.00	628.00	615.00	597.00	580.00	589.00	598.00	633.00	725.00	861.00	864.00	854.00	853.00	863.00	966.00	1188.00	1277.00	1345.00	1369.00	1172.00	1117.00	1044.00	1114.00	1154.00	1164.00	1168.00	1141.00	1017.00	994.00	1011.00	956.00	880.00	898.00	744.00	626.00	522.00	541.00	503.00	428.00	448.00	463.00	417.00	454.00	469.00	426.00	438.00	322.00	280.00	244.00	244.00	276.00	415.00	549.00	690.00	805.00	711.00	612.00	562.00	532.00	463.00	343.00	237.00	189.00	172.00	231.00	191.00	166.00	118.00	118.00	118.00	119.00	119.00	120.00	125.00	122.00	122.00	141.00	246.00	332.00	249.00	224.00	335.00	366.00	210.00	118.00	123.00	143.00	216.00	294.00	330.00	271.00	295.00	259.00	228.00	270.00	233.00	216.00	206.00	210.00	214.00	226.00	239.00	242.00	222.00	219.00	218.00	228.00	251.00	265.00	195.00	189.00	178.00	173.00	161.00	158.00	153.00	136.00	129.00	119.00	117.00	115.00	116.00	106.00	95.00	99.00
1262.00	1183.00	1132.00	1108.00	1115.00	1208.00	1072.00	1048.00	1022.00	849.00	835.00	658.00	588.00	546.00	467.00	454.00	515.00	438.00	407.00	379.00	584.00	584.00	442.00	450.00	442.00	613.00	772.00	802.00	736.00	474.00	368.00	408.00	404.00	507.00	782.00	839.00	946.00	1001.00	927.00	878.00	620.00	561.00	568.00	538.00	393.00	322.00	330.00	483.00	473.00	377.00	265.00	249.00	424.00	425.00	458.00	354.00	398.00	563.00	683.00	723.00	578.00	464.00	390.00	339.00	345.00	395.00	551.00	578.00	539.00	470.00	578.00	759.00	1096.00	1180.00	1292.00	1283.00	1235.00	1328.00	1225.00	1174.00	1125.00	1104.00	1038.00	1013.00	1000.00	1091.00	1070.00	1163.00	1155.00	1067.00	1014.00	961.00	941.00	937.00	895.00	854.00	860.00	833.00	806.00	742.00	617.00	599.00	606.00	582.00	589.00	523.00	526.00	545.00	532.00	505.00	486.00	487.00	467.00	514.00	480.00	453.00	425.00	449.00	462.00	469.00	498.00	466.00	464.00	433.00	549.00	535.00	566.00	551.00	595.00	591.00	602.00	591.00	596.00	597.00	593.00	575.00	583.00	617.00	636.00	697.00	783.00	906.00	935.00	965.00	933.00	865.00	1062.00	1104.00	1145.00	1225.00	1275.00	1088.00	995.00	968.00	1037.00	1131.00	1194.00	1181.00	1098.00	966.00	1014.00	983.00	933.00	906.00	771.00	695.00	470.00	477.00	498.00	473.00	408.00	411.00	435.00	477.00	432.00	389.00	411.00	398.00	312.00	242.00	282.00	329.00	451.00	539.00	789.00	889.00	699.00	640.00	549.00	512.00	474.00	397.00	354.00	268.00	267.00	193.00	242.00	258.00	135.00	118.00	118.00	118.00	119.00	118.00	129.00	171.00	163.00	172.00	208.00	224.00	278.00	244.00	182.00	222.00	156.00	186.00	144.00	147.00	168.00	247.00	341.00	343.00	213.00	231.00	215.00	203.00	205.00	221.00	215.00	206.00	216.00	232.00	240.00	242.00	227.00	274.00	312.00	340.00	381.00	414.00	273.00	285.00	310.00	231.00	245.00	205.00	187.00	182.00	169.00	142.00	127.00	127.00	134.00	114.00	103.00	111.00
1386.00	1276.00	1267.00	1253.00	1255.00	1275.00	1179.00	1226.00	1284.00	978.00	1007.00	834.00	736.00	565.00	497.00	561.00	555.00	506.00	436.00	439.00	547.00	625.00	518.00	535.00	570.00	577.00	728.00	798.00	692.00	422.00	395.00	443.00	487.00	478.00	633.00	666.00	768.00	854.00	796.00	733.00	627.00	513.00	448.00	420.00	502.00	522.00	461.00	396.00	321.00	274.00	305.00	238.00	337.00	319.00	322.00	277.00	458.00	545.00	569.00	545.00	602.00	457.00	519.00	422.00	316.00	439.00	567.00	513.00	429.00	478.00	611.00	767.00	1024.00	1048.00	1245.00	1317.00	1331.00	1342.00	1230.00	1187.00	1139.00	1101.00	1072.00	1026.00	1093.00	1109.00	1121.00	1107.00	1209.00	1118.00	1052.00	976.00	968.00	905.00	819.00	781.00	714.00	671.00	639.00	620.00	577.00	497.00	490.00	484.00	493.00	485.00	479.00	488.00	525.00	563.00	555.00	542.00	496.00	507.00	492.00	478.00	446.00	436.00	434.00	419.00	428.00	446.00	409.00	411.00	532.00	525.00	548.00	591.00	597.00	577.00	568.00	571.00	597.00	591.00	562.00	546.00	532.00	569.00	636.00	667.00	694.00	763.00	851.00	913.00	982.00	933.00	942.00	1074.00	1124.00	1070.00	1228.00	1177.00	1010.00	971.00	987.00	1124.00	1139.00	1225.00	1112.00	992.00	973.00	974.00	992.00	933.00	807.00	678.00	543.00	469.00	448.00	464.00	441.00	437.00	437.00	486.00	426.00	372.00	340.00	302.00	279.00	296.00	318.00	350.00	376.00	569.00	819.00	871.00	803.00	669.00	597.00	544.00	479.00	445.00	407.00	348.00	348.00	289.00	321.00	318.00	341.00	144.00	121.00	119.00	128.00	127.00	120.00	124.00	121.00	121.00	146.00	167.00	197.00	216.00	180.00	148.00	138.00	218.00	252.00	154.00	185.00	167.00	221.00	315.00	216.00	185.00	189.00	195.00	193.00	193.00	195.00	218.00	241.00	265.00	256.00	243.00	246.00	339.00	402.00	451.00	459.00	498.00	398.00	406.00	387.00	314.00	319.00	286.00	262.00	309.00	275.00	192.00	149.00	141.00	135.00	119.00	117.00	116.00
1485.00	1425.00	1462.00	1404.00	1398.00	1400.00	1300.00	1382.00	1419.00	1138.00	1060.00	1022.00	874.00	704.00	556.00	550.00	645.00	629.00	531.00	509.00	577.00	680.00	644.00	624.00	666.00	668.00	671.00	692.00	615.00	492.00	473.00	544.00	586.00	571.00	494.00	573.00	625.00	725.00	635.00	670.00	712.00	607.00	536.00	554.00	603.00	617.00	568.00	295.00	260.00	264.00	380.00	337.00	238.00	236.00	231.00	268.00	356.00	401.00	433.00	409.00	434.00	395.00	503.00	389.00	322.00	518.00	483.00	407.00	492.00	606.00	653.00	813.00	859.00	934.00	1143.00	1293.00	1363.00	1293.00	1249.00	1226.00	1158.00	1091.00	1074.00	1086.00	1148.00	1104.00	1157.00	1134.00	1243.00	1211.00	1144.00	1079.00	909.00	856.00	907.00	900.00	820.00	809.00	746.00	692.00	667.00	578.00	587.00	510.00	497.00	476.00	469.00	502.00	507.00	551.00	591.00	595.00	587.00	650.00	618.00	618.00	599.00	580.00	564.00	540.00	545.00	554.00	522.00	411.00	534.00	507.00	524.00	538.00	602.00	559.00	565.00	537.00	585.00	610.00	594.00	526.00	558.00	602.00	657.00	638.00	648.00	684.00	709.00	747.00	798.00	806.00	850.00	935.00	989.00	995.00	1010.00	1048.00	950.00	954.00	999.00	1082.00	1087.00	1119.00	1110.00	977.00	964.00	966.00	958.00	953.00	819.00	755.00	704.00	619.00	563.00	559.00	564.00	548.00	532.00	526.00	480.00	423.00	432.00	322.00	352.00	342.00	350.00	376.00	488.00	720.00	923.00	913.00	867.00	737.00	661.00	589.00	518.00	474.00	423.00	387.00	348.00	388.00	382.00	282.00	411.00	324.00	234.00	205.00	164.00	145.00	119.00	118.00	145.00	153.00	170.00	181.00	195.00	184.00	166.00	151.00	139.00	174.00	214.00	214.00	269.00	260.00	199.00	214.00	208.00	180.00	181.00	185.00	194.00	213.00	206.00	218.00	235.00	249.00	247.00	250.00	258.00	361.00	399.00	459.00	425.00	394.00	505.00	540.00	452.00	411.00	444.00	310.00	319.00	421.00	442.00	318.00	207.00	184.00	144.00	122.00	113.00	102.00
1592.00	1573.00	1503.00	1468.00	1443.00	1532.00	1600.00	1433.00	1281.00	1208.00	1265.00	1233.00	1087.00	961.00	800.00	701.00	827.00	927.00	930.00	856.00	723.00	813.00	910.00	714.00	651.00	625.00	643.00	585.00	479.00	378.00	379.00	392.00	380.00	386.00	389.00	403.00	438.00	521.00	474.00	498.00	604.00	664.00	611.00	437.00	324.00	312.00	275.00	287.00	311.00	351.00	314.00	468.00	506.00	491.00	450.00	382.00	291.00	236.00	236.00	262.00	339.00	299.00	293.00	378.00	503.00	443.00	411.00	537.00	626.00	539.00	593.00	631.00	671.00	857.00	1111.00	1100.00	1180.00	1171.00	1259.00	1229.00	1186.00	1160.00	1142.00	1218.00	1272.00	1207.00	1194.00	1059.00	1113.00	1071.00	1056.00	1074.00	1151.00	1105.00	1102.00	988.00	1013.00	1029.00	1016.00	951.00	820.00	713.00	768.00	832.00	721.00	784.00	737.00	713.00	768.00	724.00	689.00	662.00	599.00	622.00	556.00	540.00	504.00	485.00	477.00	448.00	412.00	373.00	360.00	336.00	293.00	272.00	323.00	378.00	415.00	468.00	463.00	458.00	440.00	476.00	522.00	533.00	595.00	631.00	657.00	592.00	569.00	536.00	572.00	597.00	613.00	581.00	570.00	581.00	567.00	594.00	631.00	649.00	658.00	652.00	656.00	878.00	901.00	979.00	937.00	961.00	945.00	903.00	898.00	893.00	897.00	811.00	729.00	702.00	784.00	857.00	850.00	801.00	715.00	539.00	488.00	465.00	442.00	387.00	405.00	381.00	373.00	330.00	551.00	595.00	718.00	846.00	895.00	784.00	720.00	626.00	578.00	526.00	480.00	406.00	357.00	255.00	286.00	290.00	435.00	368.00	427.00	413.00	420.00	311.00	142.00	187.00	130.00	129.00	135.00	182.00	147.00	133.00	138.00	180.00	192.00	157.00	161.00	238.00	486.00	359.00	398.00	457.00	209.00	212.00	231.00	208.00	192.00	195.00	195.00	198.00	215.00	234.00	232.00	217.00	226.00	258.00	301.00	322.00	294.00	294.00	631.00	707.00	675.00	607.00	657.00	476.00	408.00	634.00	698.00	467.00	256.00	303.00	256.00	179.00	121.00	121.00
1501.00	1492.00	1432.00	1392.00	1373.00	1388.00	1451.00	1447.00	1374.00	1084.00	1053.00	1154.00	1219.00	1089.00	904.00	862.00	730.00	808.00	972.00	883.00	592.00	703.00	743.00	656.00	545.00	508.00	535.00	489.00	421.00	433.00	400.00	364.00	374.00	345.00	352.00	356.00	386.00	397.00	399.00	434.00	487.00	559.00	449.00	396.00	293.00	277.00	295.00	431.00	364.00	399.00	352.00	466.00	648.00	649.00	487.00	432.00	439.00	272.00	226.00	347.00	520.00	458.00	331.00	423.00	505.00	421.00	444.00	526.00	524.00	502.00	508.00	546.00	659.00	842.00	952.00	1022.00	1067.00	1125.00	1257.00	1272.00	1246.00	1206.00	1178.00	1252.00	1219.00	1113.00	1038.00	1020.00	959.00	949.00	934.00	975.00	1181.00	1322.00	1212.00	1054.00	1158.00	1129.00	1043.00	834.00	696.00	915.00	859.00	897.00	836.00	877.00	882.00	902.00	814.00	785.00	911.00	829.00	780.00	766.00	706.00	638.00	574.00	593.00	610.00	476.00	493.00	464.00	446.00	386.00	307.00	284.00	255.00	265.00	279.00	321.00	315.00	305.00	294.00	325.00	386.00	419.00	508.00	691.00	686.00	659.00	627.00	515.00	544.00	566.00	579.00	585.00	486.00	477.00	465.00	480.00	482.00	496.00	512.00	499.00	513.00	693.00	718.00	824.00	920.00	762.00	749.00	764.00	861.00	866.00	884.00	864.00	833.00	784.00	784.00	845.00	940.00	1020.00	935.00	782.00	746.00	650.00	577.00	537.00	539.00	581.00	539.00	412.00	296.00	367.00	502.00	655.00	929.00	745.00	682.00	576.00	556.00	554.00	529.00	475.00	387.00	257.00	246.00	243.00	373.00	317.00	455.00	357.00	295.00	391.00	149.00	180.00	173.00	146.00	152.00	123.00	175.00	223.00	189.00	183.00	248.00	207.00	164.00	202.00	479.00	359.00	456.00	491.00	272.00	218.00	247.00	210.00	198.00	198.00	212.00	205.00	216.00	227.00	245.00	237.00	225.00	251.00	266.00	282.00	287.00	270.00	474.00	603.00	740.00	726.00	860.00	604.00	452.00	694.00	843.00	469.00	305.00	372.00	346.00	281.00	153.00	132.00
1485.00	1473.00	1457.00	1381.00	1288.00	1310.00	1378.00	1349.00	1438.00	1196.00	1047.00	957.00	1059.00	1008.00	861.00	781.00	716.00	714.00	826.00	825.00	512.00	553.00	611.00	521.00	467.00	425.00	430.00	417.00	450.00	478.00	435.00	437.00	481.00	397.00	340.00	327.00	328.00	324.00	324.00	353.00	381.00	394.00	366.00	298.00	267.00	299.00	381.00	366.00	467.00	449.00	439.00	418.00	699.00	748.00	574.00	509.00	505.00	339.00	233.00	332.00	625.00	542.00	369.00	329.00	333.00	347.00	412.00	424.00	427.00	595.00	621.00	673.00	749.00	896.00	853.00	905.00	967.00	1040.00	1143.00	1143.00	1160.00	1126.00	1212.00	1202.00	1156.00	1025.00	917.00	957.00	863.00	798.00	826.00	910.00	1151.00	1280.00	1282.00	1258.00	1106.00	954.00	828.00	727.00	827.00	1088.00	1034.00	1020.00	845.00	962.00	1012.00	1032.00	972.00	894.00	1001.00	937.00	913.00	878.00	851.00	818.00	777.00	792.00	762.00	636.00	689.00	625.00	599.00	483.00	421.00	425.00	343.00	268.00	241.00	233.00	234.00	233.00	230.00	244.00	273.00	435.00	511.00	625.00	576.00	546.00	597.00	525.00	657.00	650.00	621.00	633.00	596.00	537.00	462.00	408.00	376.00	388.00	393.00	385.00	382.00	507.00	514.00	570.00	639.00	545.00	483.00	556.00	796.00	877.00	843.00	830.00	869.00	927.00	936.00	943.00	975.00	1039.00	1078.00	1099.00	1051.00	948.00	879.00	840.00	819.00	711.00	687.00	618.00	332.00	245.00	276.00	498.00	874.00	797.00	667.00	572.00	558.00	610.00	582.00	564.00	470.00	274.00	244.00	241.00	276.00	271.00	351.00	312.00	226.00	384.00	264.00	264.00	189.00	141.00	222.00	158.00	140.00	171.00	173.00	226.00	232.00	277.00	211.00	195.00	343.00	399.00	452.00	473.00	369.00	246.00	226.00	233.00	198.00	217.00	212.00	203.00	208.00	236.00	234.00	239.00	237.00	236.00	244.00	252.00	261.00	268.00	418.00	529.00	716.00	791.00	940.00	728.00	548.00	690.00	830.00	620.00	377.00	487.00	492.00	306.00	203.00	143.00
1459.00	1460.00	1407.00	1340.00	1220.00	1197.00	1254.00	1244.00	1319.00	1259.00	1164.00	845.00	878.00	856.00	907.00	733.00	641.00	611.00	683.00	686.00	560.00	473.00	480.00	476.00	460.00	439.00	515.00	542.00	595.00	540.00	442.00	465.00	597.00	544.00	431.00	352.00	340.00	337.00	311.00	304.00	300.00	306.00	290.00	276.00	312.00	299.00	337.00	394.00	425.00	540.00	500.00	425.00	625.00	758.00	693.00	625.00	533.00	370.00	239.00	311.00	565.00	589.00	405.00	476.00	448.00	392.00	498.00	517.00	542.00	494.00	557.00	620.00	844.00	903.00	744.00	796.00	850.00	909.00	1045.00	1012.00	1023.00	1035.00	1087.00	1211.00	1096.00	977.00	856.00	792.00	768.00	715.00	816.00	846.00	1051.00	1204.00	1298.00	1278.00	1017.00	905.00	805.00	752.00	847.00	1133.00	1079.00	1034.00	913.00	1099.00	1144.00	1162.00	1119.00	1084.00	1094.00	1102.00	1036.00	955.00	943.00	957.00	948.00	851.00	789.00	827.00	850.00	794.00	759.00	457.00	463.00	489.00	386.00	380.00	316.00	328.00	308.00	314.00	299.00	259.00	272.00	319.00	420.00	509.00	428.00	403.00	433.00	602.00	725.00	794.00	777.00	770.00	712.00	656.00	604.00	527.00	383.00	338.00	317.00	296.00	283.00	388.00	401.00	417.00	439.00	417.00	383.00	441.00	580.00	626.00	743.00	714.00	805.00	862.00	1066.00	1034.00	1013.00	1036.00	1060.00	1187.00	1207.00	1190.00	1165.00	1098.00	1037.00	875.00	859.00	878.00	568.00	353.00	265.00	438.00	828.00	865.00	861.00	737.00	638.00	581.00	586.00	581.00	516.00	331.00	249.00	243.00	247.00	241.00	303.00	370.00	231.00	271.00	368.00	324.00	250.00	264.00	206.00	178.00	168.00	163.00	184.00	261.00	256.00	299.00	318.00	219.00	452.00	467.00	517.00	476.00	408.00	260.00	210.00	210.00	204.00	222.00	215.00	213.00	214.00	217.00	230.00	241.00	241.00	257.00	253.00	263.00	270.00	289.00	443.00	580.00	723.00	861.00	932.00	766.00	667.00	823.00	902.00	579.00	510.00	603.00	449.00	251.00	248.00	168.00
1373.00	1447.00	1293.00	1169.00	1128.00	1207.00	1155.00	1048.00	1164.00	1266.00	1199.00	1036.00	930.00	801.00	698.00	633.00	731.00	603.00	538.00	520.00	522.00	599.00	629.00	559.00	586.00	489.00	608.00	780.00	903.00	621.00	474.00	465.00	615.00	751.00	588.00	528.00	460.00	474.00	464.00	395.00	366.00	334.00	338.00	366.00	507.00	543.00	485.00	476.00	527.00	540.00	587.00	654.00	603.00	670.00	613.00	548.00	659.00	485.00	284.00	241.00	468.00	701.00	540.00	626.00	658.00	664.00	792.00	732.00	840.00	574.00	548.00	748.00	928.00	787.00	570.00	706.00	804.00	918.00	843.00	813.00	767.00	875.00	1015.00	936.00	950.00	839.00	711.00	688.00	751.00	743.00	848.00	983.00	1147.00	1183.00	1309.00	1278.00	1177.00	1094.00	984.00	903.00	971.00	1190.00	1371.00	1300.00	1215.00	1252.00	1298.00	1353.00	1346.00	1376.00	1336.00	1299.00	1219.00	1070.00	1105.00	1157.00	1160.00	1105.00	1045.00	1045.00	1068.00	964.00	784.00	632.00	678.00	630.00	530.00	526.00	561.00	521.00	486.00	454.00	415.00	376.00	327.00	260.00	244.00	246.00	325.00	352.00	354.00	408.00	461.00	518.00	558.00	845.00	947.00	925.00	890.00	845.00	728.00	650.00	496.00	431.00	376.00	239.00	221.00	217.00	225.00	234.00	248.00	235.00	275.00	300.00	313.00	334.00	462.00	633.00	800.00	895.00	966.00	986.00	969.00	1059.00	1139.00	1196.00	1221.00	1095.00	1101.00	1057.00	962.00	796.00	541.00	434.00	275.00	484.00	688.00	753.00	722.00	723.00	855.00	666.00	553.00	545.00	543.00	374.00	265.00	235.00	240.00	285.00	256.00	285.00	241.00	229.00	355.00	408.00	313.00	275.00	228.00	218.00	235.00	269.00	272.00	234.00	291.00	313.00	402.00	262.00	360.00	470.00	454.00	448.00	369.00	248.00	215.00	199.00	191.00	191.00	198.00	219.00	227.00	261.00	309.00	273.00	327.00	280.00	324.00	299.00	293.00	313.00	571.00	713.00	814.00	905.00	904.00	943.00	847.00	900.00	956.00	881.00	868.00	750.00	570.00	422.00	287.00	212.00
1265.00	1374.00	1266.00	1216.00	1196.00	1205.00	1153.00	948.00	1013.00	1213.00	1183.00	1034.00	924.00	873.00	767.00	652.00	775.00	685.00	627.00	570.00	581.00	659.00	751.00	654.00	532.00	480.00	558.00	699.00	843.00	581.00	485.00	453.00	541.00	666.00	727.00	680.00	519.00	547.00	458.00	491.00	502.00	446.00	387.00	382.00	477.00	623.00	559.00	460.00	541.00	602.00	544.00	584.00	472.00	583.00	568.00	436.00	502.00	463.00	288.00	237.00	457.00	740.00	709.00	779.00	770.00	873.00	971.00	883.00	889.00	724.00	564.00	684.00	881.00	729.00	518.00	642.00	737.00	872.00	707.00	651.00	658.00	832.00	989.00	809.00	767.00	641.00	606.00	818.00	880.00	835.00	818.00	961.00	1288.00	1291.00	1352.00	1281.00	1228.00	1096.00	978.00	949.00	999.00	1189.00	1395.00	1421.00	1349.00	1378.00	1323.00	1299.00	1304.00	1342.00	1440.00	1365.00	1237.00	1218.00	1256.00	1271.00	1285.00	1261.00	1245.00	1140.00	989.00	833.00	722.00	761.00	758.00	659.00	627.00	619.00	579.00	530.00	511.00	500.00	477.00	415.00	379.00	214.00	295.00	378.00	497.00	537.00	487.00	482.00	502.00	489.00	512.00	811.00	1033.00	1033.00	1008.00	982.00	863.00	805.00	676.00	520.00	404.00	247.00	213.00	198.00	195.00	212.00	219.00	212.00	222.00	224.00	238.00	274.00	384.00	483.00	657.00	627.00	634.00	722.00	812.00	1043.00	1112.00	1130.00	1129.00	971.00	904.00	856.00	738.00	523.00	283.00	244.00	335.00	522.00	635.00	756.00	669.00	771.00	787.00	822.00	588.00	536.00	544.00	413.00	305.00	254.00	255.00	238.00	248.00	250.00	234.00	232.00	284.00	385.00	323.00	309.00	239.00	266.00	255.00	307.00	325.00	270.00	329.00	399.00	455.00	330.00	456.00	464.00	428.00	459.00	353.00	245.00	218.00	202.00	192.00	194.00	194.00	208.00	210.00	241.00	340.00	347.00	336.00	317.00	346.00	315.00	321.00	372.00	594.00	674.00	828.00	1011.00	1012.00	1019.00	915.00	929.00	1039.00	878.00	804.00	725.00	588.00	523.00	389.00	252.00
1245.00	1368.00	1196.00	1219.00	1187.00	1163.00	1126.00	1035.00	926.00	1037.00	1049.00	969.00	808.00	749.00	683.00	698.00	852.00	792.00	713.00	681.00	702.00	743.00	750.00	648.00	578.00	471.00	526.00	614.00	705.00	651.00	585.00	485.00	516.00	611.00	826.00	776.00	603.00	585.00	557.00	570.00	677.00	571.00	482.00	471.00	552.00	644.00	684.00	603.00	563.00	588.00	491.00	520.00	456.00	439.00	439.00	402.00	426.00	339.00	284.00	241.00	448.00	738.00	738.00	717.00	740.00	900.00	953.00	957.00	972.00	849.00	638.00	666.00	896.00	757.00	529.00	538.00	684.00	799.00	585.00	576.00	652.00	828.00	898.00	670.00	617.00	553.00	648.00	898.00	948.00	938.00	878.00	921.00	1415.00	1457.00	1470.00	1391.00	1203.00	1125.00	1058.00	1073.00	1069.00	1227.00	1363.00	1489.00	1415.00	1553.00	1488.00	1447.00	1438.00	1332.00	1514.00	1407.00	1409.00	1419.00	1426.00	1414.00	1386.00	1397.00	1423.00	1201.00	1055.00	917.00	835.00	799.00	865.00	827.00	833.00	785.00	596.00	574.00	551.00	564.00	549.00	543.00	474.00	266.00	198.00	351.00	444.00	491.00	545.00	562.00	619.00	617.00	644.00	667.00	911.00	1070.00	1109.00	1107.00	958.00	776.00	631.00	532.00	441.00	241.00	217.00	195.00	188.00	199.00	200.00	199.00	196.00	198.00	213.00	233.00	301.00	373.00	438.00	456.00	462.00	523.00	631.00	946.00	1057.00	1090.00	1038.00	716.00	601.00	540.00	499.00	352.00	244.00	220.00	347.00	544.00	648.00	608.00	727.00	812.00	809.00	813.00	724.00	656.00	534.00	474.00	374.00	282.00	247.00	250.00	257.00	250.00	236.00	235.00	232.00	272.00	242.00	247.00	235.00	268.00	303.00	337.00	265.00	271.00	279.00	401.00	494.00	455.00	517.00	512.00	449.00	469.00	362.00	291.00	229.00	207.00	192.00	199.00	199.00	205.00	224.00	216.00	241.00	317.00	365.00	371.00	350.00	339.00	341.00	404.00	592.00	703.00	830.00	988.00	1107.00	1070.00	986.00	998.00	956.00	695.00	551.00	614.00	458.00	526.00	417.00	282.00
1194.00	1231.00	1146.00	1155.00	1199.00	1208.00	1206.00	1017.00	912.00	874.00	894.00	831.00	774.00	793.00	789.00	908.00	907.00	941.00	861.00	787.00	824.00	859.00	781.00	696.00	573.00	517.00	508.00	533.00	593.00	622.00	560.00	505.00	529.00	543.00	736.00	841.00	744.00	662.00	683.00	700.00	759.00	702.00	607.00	531.00	657.00	788.00	849.00	760.00	676.00	601.00	508.00	440.00	373.00	336.00	337.00	338.00	331.00	315.00	281.00	226.00	346.00	661.00	575.00	512.00	596.00	680.00	714.00	811.00	873.00	957.00	780.00	687.00	891.00	750.00	585.00	488.00	618.00	683.00	513.00	692.00	825.00	810.00	800.00	534.00	500.00	590.00	586.00	736.00	866.00	974.00	994.00	992.00	1284.00	1437.00	1520.00	1514.00	1271.00	1205.00	1186.00	1223.00	1225.00	1327.00	1459.00	1613.00	1579.00	1729.00	1570.00	1487.00	1425.00	1429.00	1542.00	1526.00	1543.00	1523.00	1424.00	1310.00	1303.00	1313.00	1342.00	1161.00	1038.00	984.00	874.00	704.00	818.00	842.00	850.00	751.00	646.00	673.00	645.00	614.00	628.00	667.00	521.00	298.00	213.00	275.00	416.00	500.00	513.00	631.00	676.00	741.00	754.00	684.00	822.00	1013.00	1190.00	1200.00	855.00	776.00	746.00	612.00	448.00	257.00	223.00	212.00	197.00	198.00	194.00	196.00	190.00	192.00	201.00	220.00	256.00	284.00	309.00	325.00	349.00	394.00	484.00	764.00	800.00	883.00	839.00	510.00	437.00	395.00	401.00	284.00	217.00	199.00	221.00	431.00	566.00	592.00	698.00	746.00	797.00	740.00	732.00	739.00	579.00	490.00	422.00	329.00	253.00	265.00	273.00	243.00	227.00	228.00	222.00	232.00	241.00	242.00	226.00	241.00	277.00	261.00	194.00	233.00	241.00	350.00	491.00	519.00	538.00	544.00	480.00	523.00	447.00	370.00	298.00	226.00	194.00	210.00	202.00	201.00	209.00	226.00	222.00	247.00	303.00	320.00	288.00	308.00	307.00	376.00	712.00	737.00	777.00	875.00	1073.00	1047.00	988.00	844.00	791.00	571.00	401.00	419.00	365.00	479.00	419.00	302.00
1042.00	1121.00	1213.00	1146.00	1115.00	1041.00	986.00	990.00	970.00	936.00	883.00	864.00	955.00	1026.00	921.00	972.00	1007.00	1163.00	1141.00	1053.00	959.00	895.00	820.00	696.00	587.00	608.00	676.00	738.00	766.00	650.00	613.00	613.00	625.00	735.00	861.00	938.00	1028.00	946.00	942.00	1037.00	971.00	881.00	830.00	703.00	697.00	821.00	941.00	687.00	620.00	530.00	435.00	362.00	344.00	376.00	406.00	357.00	262.00	284.00	335.00	320.00	236.00	551.00	440.00	449.00	583.00	551.00	695.00	831.00	1038.00	1069.00	1010.00	1018.00	845.00	718.00	496.00	453.00	507.00	498.00	684.00	639.00	544.00	635.00	649.00	583.00	703.00	800.00	798.00	841.00	935.00	1038.00	1156.00	1229.00	1257.00	1338.00	1392.00	1443.00	1393.00	1473.00	1454.00	1471.00	1474.00	1487.00	1546.00	1797.00	1677.00	1365.00	1308.00	1151.00	1151.00	1216.00	1117.00	1129.00	1107.00	1134.00	1134.00	1016.00	926.00	979.00	983.00	893.00	895.00	807.00	682.00	603.00	508.00	571.00	671.00	661.00	524.00	522.00	541.00	594.00	809.00	768.00	719.00	537.00	352.00	315.00	435.00	436.00	525.00	717.00	802.00	920.00	849.00	824.00	916.00	926.00	1049.00	1152.00	1046.00	885.00	761.00	726.00	669.00	446.00	312.00	310.00	236.00	182.00	180.00	174.00	173.00	190.00	226.00	237.00	223.00	232.00	247.00	262.00	274.00	289.00	316.00	420.00	443.00	428.00	453.00	316.00	298.00	312.00	238.00	228.00	199.00	266.00	182.00	168.00	476.00	681.00	675.00	758.00	767.00	801.00	765.00	648.00	656.00	464.00	464.00	410.00	311.00	288.00	275.00	244.00	217.00	203.00	211.00	218.00	230.00	245.00	232.00	228.00	204.00	177.00	168.00	146.00	268.00	348.00	491.00	583.00	592.00	487.00	476.00	505.00	414.00	331.00	235.00	213.00	197.00	196.00	200.00	213.00	217.00	218.00	234.00	252.00	308.00	348.00	379.00	402.00	367.00	422.00	679.00	742.00	668.00	696.00	824.00	970.00	954.00	823.00	764.00	568.00	512.00	398.00	302.00	185.00	206.00	247.00
