206.00	211.00	218.00	219.00	211.00	202.00	202.00	192.00	183.00	179.00	187.00	190.00	176.00	154.00	123.00	133.00	142.00	153.00	168.00	183.00	200.00	224.00	241.00	233.00	223.00	217.00	228.00	281.00	287.00	278.00	269.00	262.00	260.00	262.00	265.00	275.00	307.00	323.00	337.00	343.00	332.00	336.00	341.00	351.00	363.00	408.00	417.00	425.00	438.00	469.00	485.00	500.00	510.00	517.00	563.00	593.00	612.00	579.00	489.00	452.00	424.00	397.00	376.00	401.00	422.00	429.00	432.00	472.00	496.00	538.00	599.00	657.00	681.00	671.00	651.00	622.00	556.00	575.00	579.00	573.00	557.00	508.00	480.00	448.00	423.00	442.00	462.00	506.00	539.00	578.00	623.00	621.00	606.00	589.00	573.00	557.00	526.00	493.00	443.00	398.00	358.00	328.00	314.00	331.00	358.00	398.00	445.00	470.00	427.00	418.00	404.00	399.00	444.00	481.00	516.00	527.00	530.00	572.00	602.00	635.00	637.00	645.00	647.00	645.00	638.00	621.00	565.00	538.00	505.00	497.00	582.00	601.00	612.00	619.00	619.00	605.00	596.00	596.00	592.00	545.00	530.00	532.00	545.00	554.00	572.00	570.00	555.00	524.00	477.00	464.00	473.00	497.00	527.00	554.00	551.00	541.00	527.00	493.00	474.00	452.00	431.00	382.00	364.00	378.00	396.00	410.00	445.00	465.00	480.00	495.00	514.00	575.00	587.00	593.00	599.00	603.00	597.00	587.00	566.00	526.00	510.00	497.00	456.00	428.00	399.00	428.00	457.00	473.00	496.00	501.00	500.00	481.00	437.00	402.00	417.00	454.00	477.00	496.00	501.00	505.00	512.00	524.00	571.00	597.00	626.00	651.00	700.00	719.00	729.00	725.00	706.00	673.00	662.00	573.00	513.00	456.00	465.00	499.00	539.00	582.00	653.00	665.00	665.00	650.00	527.00	504.00	521.00	562.00	597.00	653.00	665.00	637.00	586.00	504.00	421.00	400.00	413.00	429.00	466.00	497.00	535.00	565.00	642.00	688.00	727.00	777.00	801.00	794.00	773.00	727.00	680.00	606.00	570.00	530.00	493.00	422.00
186.00	190.00	192.00	195.00	182.00	171.00	168.00	165.00	154.00	133.00	137.00	144.00	139.00	126.00	161.00	182.00	193.00	200.00	242.00	251.00	280.00	316.00	337.00	309.00	282.00	269.00	252.00	301.00	314.00	312.00	309.00	300.00	279.00	285.00	289.00	284.00	285.00	296.00	309.00	312.00	324.00	344.00	359.00	363.00	373.00	405.00	413.00	423.00	456.00	520.00	542.00	558.00	569.00	582.00	638.00	648.00	583.00	535.00	463.00	440.00	421.00	401.00	380.00	399.00	425.00	447.00	470.00	556.00	584.00	617.00	661.00	686.00	673.00	663.00	657.00	645.00	609.00	640.00	663.00	666.00	641.00	555.00	510.00	470.00	438.00	413.00	438.00	496.00	529.00	559.00	603.00	594.00	574.00	549.00	534.00	567.00	571.00	556.00	507.00	450.00	386.00	341.00	317.00	331.00	353.00	371.00	386.00	387.00	372.00	382.00	396.00	416.00	475.00	509.00	538.00	557.00	563.00	592.00	616.00	637.00	638.00	640.00	643.00	639.00	627.00	602.00	523.00	487.00	462.00	468.00	560.00	586.00	593.00	578.00	555.00	513.00	517.00	551.00	592.00	597.00	582.00	565.00	545.00	539.00	576.00	583.00	582.00	572.00	542.00	543.00	544.00	550.00	559.00	564.00	554.00	543.00	532.00	508.00	485.00	454.00	420.00	370.00	377.00	403.00	424.00	443.00	451.00	457.00	473.00	492.00	516.00	585.00	597.00	596.00	591.00	568.00	549.00	530.00	512.00	485.00	475.00	464.00	417.00	394.00	420.00	443.00	465.00	483.00	511.00	518.00	507.00	484.00	448.00	420.00	402.00	422.00	445.00	467.00	479.00	500.00	520.00	541.00	583.00	606.00	635.00	668.00	736.00	755.00	750.00	728.00	699.00	639.00	623.00	552.00	502.00	490.00	507.00	553.00	600.00	643.00	682.00	697.00	693.00	671.00	538.00	538.00	569.00	606.00	641.00	673.00	652.00	612.00	568.00	497.00	429.00	425.00	442.00	457.00	500.00	533.00	569.00	602.00	673.00	711.00	745.00	813.00	843.00	815.00	782.00	726.00	676.00	663.00	645.00	601.00	540.00	449.00
186.00	190.00	192.00	195.00	182.00	171.00	168.00	165.00	154.00	133.00	137.00	144.00	139.00	126.00	161.00	182.00	193.00	200.00	242.00	251.00	280.00	316.00	337.00	309.00	282.00	269.00	252.00	301.00	314.00	312.00	309.00	300.00	279.00	285.00	289.00	284.00	285.00	296.00	309.00	312.00	324.00	344.00	359.00	363.00	373.00	405.00	413.00	423.00	456.00	520.00	542.00	558.00	569.00	582.00	638.00	648.00	583.00	535.00	463.00	440.00	421.00	401.00	380.00	399.00	425.00	447.00	470.00	556.00	584.00	617.00	661.00	686.00	673.00	663.00	657.00	645.00	609.00	640.00	663.00	666.00	641.00	555.00	510.00	470.00	438.00	413.00	438.00	496.00	529.00	559.00	603.00	594.00	574.00	549.00	534.00	567.00	571.00	556.00	507.00	450.00	386.00	341.00	317.00	331.00	353.00	371.00	386.00	387.00	372.00	382.00	396.00	416.00	475.00	509.00	538.00	557.00	563.00	592.00	616.00	637.00	638.00	640.00	643.00	639.00	627.00	602.00	523.00	487.00	462.00	468.00	560.00	586.00	593.00	578.00	555.00	513.00	517.00	551.00	592.00	597.00	582.00	565.00	545.00	539.00	576.00	583.00	582.00	572.00	542.00	543.00	544.00	550.00	559.00	564.00	554.00	543.00	532.00	508.00	485.00	454.00	420.00	370.00	377.00	403.00	424.00	443.00	451.00	457.00	473.00	492.00	516.00	585.00	597.00	596.00	591.00	568.00	549.00	530.00	512.00	485.00	475.00	464.00	417.00	394.00	420.00	443.00	465.00	483.00	511.00	518.00	507.00	484.00	448.00	420.00	402.00	422.00	445.00	467.00	479.00	500.00	520.00	541.00	583.00	606.00	635.00	668.00	736.00	755.00	750.00	728.00	699.00	639.00	623.00	552.00	502.00	490.00	507.00	553.00	600.00	643.00	682.00	697.00	693.00	671.00	538.00	538.00	569.00	606.00	641.00	673.00	652.00	612.00	568.00	497.00	429.00	425.00	442.00	457.00	500.00	533.00	569.00	602.00	673.00	711.00	745.00	813.00	843.00	815.00	782.00	726.00	676.00	663.00	645.00	601.00	540.00	449.00
163.00	167.00	166.00	167.00	158.00	136.00	132.00	130.00	127.00	119.00	121.00	122.00	122.00	125.00	219.00	275.00	291.00	251.00	259.00	285.00	317.00	348.00	365.00	353.00	330.00	312.00	301.00	349.00	370.00	377.00	367.00	349.00	317.00	320.00	330.00	321.00	307.00	316.00	322.00	324.00	337.00	365.00	392.00	394.00	397.00	451.00	459.00	461.00	489.00	601.00	635.00	663.00	675.00	689.00	711.00	683.00	586.00	543.00	488.00	469.00	447.00	426.00	400.00	403.00	434.00	465.00	508.00	669.00	694.00	702.00	691.00	666.00	605.00	595.00	609.00	634.00	680.00	704.00	732.00	734.00	691.00	567.00	520.00	472.00	438.00	393.00	400.00	447.00	462.00	488.00	553.00	563.00	545.00	521.00	478.00	507.00	535.00	550.00	543.00	461.00	395.00	344.00	314.00	321.00	343.00	356.00	359.00	362.00	387.00	397.00	408.00	422.00	470.00	503.00	533.00	554.00	567.00	595.00	616.00	636.00	636.00	630.00	625.00	612.00	590.00	558.00	480.00	452.00	435.00	452.00	543.00	577.00	568.00	529.00	496.00	459.00	458.00	487.00	532.00	533.00	507.00	492.00	488.00	500.00	569.00	589.00	605.00	612.00	604.00	595.00	580.00	577.00	577.00	570.00	559.00	548.00	537.00	513.00	492.00	461.00	426.00	373.00	406.00	432.00	461.00	484.00	499.00	494.00	499.00	514.00	532.00	588.00	601.00	600.00	589.00	547.00	523.00	502.00	482.00	454.00	443.00	428.00	395.00	404.00	454.00	469.00	485.00	499.00	517.00	513.00	498.00	474.00	452.00	426.00	401.00	399.00	419.00	471.00	484.00	501.00	524.00	552.00	614.00	632.00	654.00	683.00	727.00	728.00	715.00	696.00	680.00	654.00	648.00	587.00	541.00	572.00	586.00	628.00	653.00	663.00	696.00	701.00	691.00	668.00	573.00	595.00	629.00	660.00	676.00	657.00	622.00	586.00	549.00	473.00	449.00	467.00	487.00	502.00	533.00	565.00	610.00	653.00	722.00	749.00	772.00	805.00	805.00	780.00	754.00	722.00	693.00	647.00	609.00	566.00	517.00	431.00
139.00	139.00	135.00	131.00	128.00	119.00	121.00	126.00	131.00	144.00	161.00	170.00	162.00	158.00	255.00	308.00	333.00	301.00	249.00	276.00	310.00	330.00	334.00	338.00	347.00	338.00	343.00	379.00	394.00	396.00	388.00	376.00	352.00	359.00	369.00	357.00	332.00	338.00	344.00	350.00	373.00	378.00	402.00	422.00	430.00	475.00	491.00	511.00	516.00	553.00	613.00	674.00	714.00	733.00	734.00	712.00	635.00	596.00	595.00	561.00	505.00	458.00	426.00	394.00	415.00	446.00	486.00	647.00	649.00	627.00	601.00	575.00	515.00	497.00	513.00	559.00	708.00	742.00	752.00	728.00	679.00	587.00	545.00	495.00	452.00	381.00	371.00	388.00	397.00	423.00	500.00	520.00	520.00	500.00	438.00	420.00	434.00	460.00	432.00	384.00	345.00	313.00	298.00	332.00	370.00	404.00	407.00	409.00	432.00	443.00	455.00	463.00	479.00	493.00	509.00	530.00	552.00	599.00	617.00	624.00	629.00	620.00	593.00	554.00	519.00	491.00	445.00	430.00	425.00	468.00	552.00	565.00	550.00	514.00	478.00	435.00	420.00	424.00	442.00	451.00	449.00	457.00	479.00	509.00	576.00	598.00	611.00	620.00	603.00	576.00	524.00	505.00	519.00	550.00	548.00	540.00	531.00	506.00	477.00	442.00	407.00	384.00	432.00	450.00	470.00	492.00	516.00	518.00	525.00	538.00	554.00	604.00	612.00	606.00	591.00	554.00	532.00	504.00	479.00	435.00	421.00	416.00	410.00	429.00	477.00	494.00	511.00	526.00	542.00	536.00	523.00	513.00	488.00	440.00	414.00	404.00	410.00	444.00	463.00	481.00	499.00	515.00	567.00	590.00	614.00	642.00	681.00	677.00	666.00	652.00	641.00	619.00	623.00	604.00	590.00	614.00	649.00	660.00	675.00	704.00	715.00	706.00	683.00	651.00	628.00	657.00	679.00	688.00	682.00	628.00	592.00	557.00	522.00	461.00	499.00	523.00	543.00	559.00	581.00	592.00	612.00	651.00	736.00	778.00	807.00	812.00	796.00	755.00	728.00	683.00	636.00	567.00	528.00	491.00	466.00	426.00
139.00	139.00	135.00	131.00	128.00	119.00	121.00	126.00	131.00	144.00	161.00	170.00	162.00	158.00	255.00	308.00	333.00	301.00	249.00	276.00	310.00	330.00	334.00	338.00	347.00	338.00	343.00	379.00	394.00	396.00	388.00	376.00	352.00	359.00	369.00	357.00	332.00	338.00	344.00	350.00	373.00	378.00	402.00	422.00	430.00	475.00	491.00	511.00	516.00	553.00	613.00	674.00	714.00	733.00	734.00	712.00	635.00	596.00	595.00	561.00	505.00	458.00	426.00	394.00	415.00	446.00	486.00	647.00	649.00	627.00	601.00	575.00	515.00	497.00	513.00	559.00	708.00	742.00	752.00	728.00	679.00	587.00	545.00	495.00	452.00	381.00	371.00	388.00	397.00	423.00	500.00	520.00	520.00	500.00	438.00	420.00	434.00	460.00	432.00	384.00	345.00	313.00	298.00	332.00	370.00	404.00	407.00	409.00	432.00	443.00	455.00	463.00	479.00	493.00	509.00	530.00	552.00	599.00	617.00	624.00	629.00	620.00	593.00	554.00	519.00	491.00	445.00	430.00	425.00	468.00	552.00	565.00	550.00	514.00	478.00	435.00	420.00	424.00	442.00	451.00	449.00	457.00	479.00	509.00	576.00	598.00	611.00	620.00	603.00	576.00	524.00	505.00	519.00	550.00	548.00	540.00	531.00	506.00	477.00	442.00	407.00	384.00	432.00	450.00	470.00	492.00	516.00	518.00	525.00	538.00	554.00	604.00	612.00	606.00	591.00	554.00	532.00	504.00	479.00	435.00	421.00	416.00	410.00	429.00	477.00	494.00	511.00	526.00	542.00	536.00	523.00	513.00	488.00	440.00	414.00	404.00	410.00	444.00	463.00	481.00	499.00	515.00	567.00	590.00	614.00	642.00	681.00	677.00	666.00	652.00	641.00	619.00	623.00	604.00	590.00	614.00	649.00	660.00	675.00	704.00	715.00	706.00	683.00	651.00	628.00	657.00	679.00	688.00	682.00	628.00	592.00	557.00	522.00	461.00	499.00	523.00	543.00	559.00	581.00	592.00	612.00	651.00	736.00	778.00	807.00	812.00	796.00	755.00	728.00	683.00	636.00	567.00	528.00	491.00	466.00	426.00
139.00	139.00	135.00	131.00	128.00	119.00	121.00	126.00	131.00	144.00	161.00	170.00	162.00	158.00	255.00	308.00	333.00	301.00	249.00	276.00	310.00	330.00	334.00	338.00	347.00	338.00	343.00	379.00	394.00	396.00	388.00	376.00	352.00	359.00	369.00	357.00	332.00	338.00	344.00	350.00	373.00	378.00	402.00	422.00	430.00	475.00	491.00	511.00	516.00	553.00	613.00	674.00	714.00	733.00	734.00	712.00	635.00	596.00	595.00	561.00	505.00	458.00	426.00	394.00	415.00	446.00	486.00	647.00	649.00	627.00	601.00	575.00	515.00	497.00	513.00	559.00	708.00	742.00	752.00	728.00	679.00	587.00	545.00	495.00	452.00	381.00	371.00	388.00	397.00	423.00	500.00	520.00	520.00	500.00	438.00	420.00	434.00	460.00	432.00	384.00	345.00	313.00	298.00	332.00	370.00	404.00	407.00	409.00	432.00	443.00	455.00	463.00	479.00	493.00	509.00	530.00	552.00	599.00	617.00	624.00	629.00	620.00	593.00	554.00	519.00	491.00	445.00	430.00	425.00	468.00	552.00	565.00	550.00	514.00	478.00	435.00	420.00	424.00	442.00	451.00	449.00	457.00	479.00	509.00	576.00	598.00	611.00	620.00	603.00	576.00	524.00	505.00	519.00	550.00	548.00	540.00	531.00	506.00	477.00	442.00	407.00	384.00	432.00	450.00	470.00	492.00	516.00	518.00	525.00	538.00	554.00	604.00	612.00	606.00	591.00	554.00	532.00	504.00	479.00	435.00	421.00	416.00	410.00	429.00	477.00	494.00	511.00	526.00	542.00	536.00	523.00	513.00	488.00	440.00	414.00	404.00	410.00	444.00	463.00	481.00	499.00	515.00	567.00	590.00	614.00	642.00	681.00	677.00	666.00	652.00	641.00	619.00	623.00	604.00	590.00	614.00	649.00	660.00	675.00	704.00	715.00	706.00	683.00	651.00	628.00	657.00	679.00	688.00	682.00	628.00	592.00	557.00	522.00	461.00	499.00	523.00	543.00	559.00	581.00	592.00	612.00	651.00	736.00	778.00	807.00	812.00	796.00	755.00	728.00	683.00	636.00	567.00	528.00	491.00	466.00	426.00
111.00	118.00	118.00	119.00	131.00	132.00	142.00	158.00	173.00	187.00	211.00	234.00	222.00	201.00	270.00	280.00	288.00	293.00	262.00	268.00	284.00	290.00	291.00	295.00	316.00	322.00	330.00	353.00	362.00	371.00	379.00	382.00	383.00	391.00	395.00	371.00	357.00	371.00	383.00	380.00	379.00	394.00	413.00	434.00	451.00	494.00	508.00	529.00	557.00	594.00	607.00	651.00	698.00	736.00	756.00	758.00	744.00	712.00	703.00	644.00	572.00	511.00	463.00	404.00	399.00	417.00	444.00	525.00	526.00	519.00	516.00	519.00	505.00	477.00	464.00	489.00	605.00	630.00	641.00	630.00	613.00	575.00	547.00	515.00	475.00	399.00	370.00	362.00	364.00	378.00	433.00	457.00	469.00	461.00	399.00	377.00	366.00	364.00	338.00	312.00	302.00	297.00	301.00	370.00	437.00	496.00	488.00	485.00	507.00	514.00	523.00	534.00	545.00	550.00	552.00	562.00	580.00	619.00	622.00	568.00	572.00	556.00	525.00	493.00	466.00	446.00	423.00	416.00	417.00	463.00	567.00	582.00	559.00	513.00	473.00	425.00	410.00	396.00	397.00	430.00	446.00	460.00	476.00	495.00	548.00	562.00	553.00	540.00	506.00	480.00	432.00	423.00	440.00	481.00	494.00	509.00	514.00	501.00	482.00	449.00	408.00	409.00	474.00	485.00	488.00	487.00	506.00	517.00	530.00	549.00	566.00	598.00	595.00	584.00	564.00	530.00	513.00	491.00	466.00	438.00	446.00	453.00	441.00	436.00	469.00	493.00	513.00	533.00	558.00	559.00	548.00	533.00	487.00	439.00	439.00	449.00	455.00	435.00	439.00	454.00	466.00	476.00	519.00	540.00	564.00	589.00	628.00	635.00	633.00	625.00	606.00	589.00	606.00	626.00	619.00	614.00	638.00	661.00	684.00	703.00	709.00	693.00	673.00	654.00	674.00	695.00	706.00	703.00	683.00	620.00	581.00	544.00	509.00	486.00	563.00	595.00	623.00	648.00	671.00	681.00	692.00	712.00	778.00	826.00	861.00	860.00	830.00	753.00	728.00	662.00	597.00	595.00	570.00	526.00	488.00	418.00
131.00	132.00	132.00	137.00	165.00	164.00	170.00	190.00	218.00	244.00	263.00	279.00	269.00	245.00	240.00	243.00	260.00	287.00	299.00	288.00	293.00	307.00	314.00	308.00	316.00	325.00	328.00	350.00	352.00	348.00	358.00	373.00	412.00	424.00	420.00	390.00	410.00	410.00	415.00	421.00	397.00	386.00	404.00	425.00	438.00	503.00	531.00	564.00	603.00	685.00	722.00	745.00	755.00	760.00	763.00	771.00	786.00	795.00	740.00	674.00	604.00	543.00	494.00	427.00	404.00	393.00	400.00	453.00	458.00	462.00	465.00	468.00	466.00	452.00	433.00	435.00	494.00	510.00	519.00	520.00	513.00	491.00	475.00	457.00	436.00	396.00	378.00	358.00	350.00	348.00	371.00	381.00	397.00	396.00	357.00	339.00	324.00	315.00	303.00	292.00	296.00	303.00	316.00	393.00	461.00	512.00	518.00	530.00	568.00	574.00	581.00	592.00	604.00	609.00	612.00	618.00	627.00	582.00	557.00	515.00	506.00	466.00	450.00	438.00	430.00	426.00	412.00	407.00	414.00	478.00	576.00	590.00	554.00	492.00	444.00	389.00	380.00	377.00	380.00	436.00	446.00	450.00	449.00	443.00	441.00	439.00	431.00	427.00	419.00	412.00	393.00	395.00	406.00	418.00	419.00	425.00	424.00	422.00	416.00	413.00	410.00	434.00	495.00	512.00	519.00	520.00	520.00	531.00	546.00	561.00	575.00	586.00	576.00	560.00	541.00	500.00	479.00	463.00	461.00	489.00	494.00	494.00	481.00	469.00	461.00	482.00	500.00	518.00	557.00	558.00	546.00	525.00	472.00	466.00	482.00	494.00	496.00	467.00	464.00	480.00	487.00	490.00	500.00	514.00	534.00	548.00	575.00	591.00	607.00	612.00	601.00	602.00	620.00	631.00	631.00	616.00	640.00	658.00	669.00	677.00	681.00	676.00	669.00	666.00	688.00	697.00	703.00	698.00	676.00	610.00	574.00	543.00	520.00	505.00	604.00	641.00	676.00	705.00	734.00	743.00	756.00	771.00	818.00	850.00	875.00	895.00	885.00	822.00	783.00	707.00	636.00	654.00	643.00	596.00	536.00	454.00
131.00	132.00	132.00	137.00	165.00	164.00	170.00	190.00	218.00	244.00	263.00	279.00	269.00	245.00	240.00	243.00	260.00	287.00	299.00	288.00	293.00	307.00	314.00	308.00	316.00	325.00	328.00	350.00	352.00	348.00	358.00	373.00	412.00	424.00	420.00	390.00	410.00	410.00	415.00	421.00	397.00	386.00	404.00	425.00	438.00	503.00	531.00	564.00	603.00	685.00	722.00	745.00	755.00	760.00	763.00	771.00	786.00	795.00	740.00	674.00	604.00	543.00	494.00	427.00	404.00	393.00	400.00	453.00	458.00	462.00	465.00	468.00	466.00	452.00	433.00	435.00	494.00	510.00	519.00	520.00	513.00	491.00	475.00	457.00	436.00	396.00	378.00	358.00	350.00	348.00	371.00	381.00	397.00	396.00	357.00	339.00	324.00	315.00	303.00	292.00	296.00	303.00	316.00	393.00	461.00	512.00	518.00	530.00	568.00	574.00	581.00	592.00	604.00	609.00	612.00	618.00	627.00	582.00	557.00	515.00	506.00	466.00	450.00	438.00	430.00	426.00	412.00	407.00	414.00	478.00	576.00	590.00	554.00	492.00	444.00	389.00	380.00	377.00	380.00	436.00	446.00	450.00	449.00	443.00	441.00	439.00	431.00	427.00	419.00	412.00	393.00	395.00	406.00	418.00	419.00	425.00	424.00	422.00	416.00	413.00	410.00	434.00	495.00	512.00	519.00	520.00	520.00	531.00	546.00	561.00	575.00	586.00	576.00	560.00	541.00	500.00	479.00	463.00	461.00	489.00	494.00	494.00	481.00	469.00	461.00	482.00	500.00	518.00	557.00	558.00	546.00	525.00	472.00	466.00	482.00	494.00	496.00	467.00	464.00	480.00	487.00	490.00	500.00	514.00	534.00	548.00	575.00	591.00	607.00	612.00	601.00	602.00	620.00	631.00	631.00	616.00	640.00	658.00	669.00	677.00	681.00	676.00	669.00	666.00	688.00	697.00	703.00	698.00	676.00	610.00	574.00	543.00	520.00	505.00	604.00	641.00	676.00	705.00	734.00	743.00	756.00	771.00	818.00	850.00	875.00	895.00	885.00	822.00	783.00	707.00	636.00	654.00	643.00	596.00	536.00	454.00
207.00	210.00	201.00	190.00	209.00	213.00	226.00	250.00	278.00	292.00	280.00	268.00	258.00	248.00	243.00	235.00	236.00	262.00	323.00	326.00	316.00	316.00	325.00	330.00	331.00	338.00	344.00	358.00	363.00	361.00	362.00	383.00	430.00	446.00	446.00	434.00	445.00	436.00	425.00	420.00	403.00	399.00	418.00	435.00	448.00	508.00	533.00	565.00	608.00	729.00	785.00	800.00	768.00	738.00	728.00	733.00	725.00	720.00	652.00	612.00	570.00	529.00	491.00	440.00	424.00	402.00	388.00	411.00	414.00	420.00	422.00	423.00	418.00	411.00	407.00	413.00	422.00	429.00	435.00	442.00	443.00	435.00	427.00	418.00	405.00	381.00	368.00	359.00	355.00	345.00	338.00	339.00	342.00	335.00	308.00	300.00	292.00	288.00	286.00	298.00	311.00	320.00	324.00	359.00	388.00	407.00	428.00	451.00	493.00	504.00	531.00	558.00	605.00	622.00	636.00	642.00	632.00	517.00	489.00	490.00	471.00	424.00	412.00	409.00	411.00	409.00	398.00	401.00	415.00	488.00	547.00	534.00	490.00	444.00	414.00	373.00	364.00	371.00	380.00	416.00	421.00	419.00	407.00	390.00	375.00	371.00	372.00	378.00	385.00	381.00	374.00	382.00	389.00	391.00	379.00	381.00	406.00	468.00	485.00	488.00	477.00	454.00	499.00	513.00	522.00	528.00	533.00	539.00	552.00	563.00	574.00	574.00	562.00	544.00	525.00	488.00	482.00	483.00	491.00	524.00	532.00	529.00	512.00	501.00	477.00	486.00	499.00	514.00	547.00	549.00	539.00	523.00	482.00	510.00	524.00	531.00	528.00	493.00	490.00	510.00	530.00	540.00	537.00	532.00	537.00	544.00	551.00	561.00	572.00	582.00	590.00	598.00	604.00	622.00	635.00	639.00	653.00	663.00	666.00	667.00	656.00	659.00	666.00	673.00	684.00	680.00	674.00	665.00	648.00	583.00	551.00	531.00	513.00	495.00	588.00	625.00	662.00	696.00	732.00	747.00	772.00	799.00	864.00	888.00	900.00	913.00	916.00	908.00	877.00	803.00	741.00	676.00	636.00	585.00	532.00	445.00
276.00	273.00	253.00	237.00	239.00	250.00	266.00	284.00	307.00	313.00	290.00	272.00	260.00	252.00	268.00	256.00	245.00	248.00	295.00	307.00	311.00	311.00	318.00	350.00	360.00	363.00	361.00	388.00	400.00	396.00	389.00	401.00	441.00	447.00	448.00	454.00	445.00	439.00	433.00	430.00	401.00	405.00	422.00	432.00	440.00	495.00	521.00	553.00	591.00	674.00	715.00	732.00	707.00	669.00	614.00	602.00	580.00	575.00	557.00	534.00	510.00	487.00	470.00	440.00	424.00	410.00	397.00	380.00	380.00	383.00	386.00	389.00	388.00	385.00	395.00	399.00	392.00	399.00	401.00	400.00	398.00	398.00	393.00	386.00	375.00	358.00	356.00	346.00	347.00	359.00	353.00	323.00	301.00	292.00	275.00	272.00	277.00	284.00	301.00	327.00	343.00	362.00	371.00	352.00	352.00	364.00	378.00	393.00	423.00	440.00	465.00	501.00	598.00	622.00	630.00	622.00	585.00	473.00	449.00	429.00	415.00	386.00	382.00	388.00	392.00	391.00	393.00	410.00	430.00	464.00	451.00	425.00	399.00	384.00	369.00	355.00	366.00	381.00	391.00	411.00	410.00	401.00	383.00	368.00	350.00	345.00	352.00	366.00	377.00	371.00	367.00	381.00	389.00	377.00	375.00	397.00	435.00	525.00	534.00	523.00	513.00	496.00	500.00	506.00	510.00	514.00	537.00	549.00	563.00	573.00	580.00	578.00	563.00	537.00	514.00	514.00	524.00	526.00	523.00	535.00	549.00	555.00	539.00	526.00	510.00	514.00	520.00	527.00	546.00	550.00	543.00	527.00	503.00	545.00	558.00	562.00	553.00	515.00	510.00	530.00	552.00	569.00	587.00	580.00	576.00	586.00	597.00	606.00	614.00	622.00	622.00	605.00	605.00	606.00	625.00	645.00	649.00	653.00	655.00	655.00	652.00	661.00	668.00	672.00	671.00	670.00	667.00	661.00	652.00	599.00	566.00	541.00	525.00	496.00	545.00	573.00	603.00	633.00	689.00	714.00	740.00	769.00	845.00	880.00	896.00	907.00	915.00	897.00	863.00	806.00	750.00	664.00	625.00	587.00	546.00	451.00
276.00	273.00	253.00	237.00	239.00	250.00	266.00	284.00	307.00	313.00	290.00	272.00	260.00	252.00	268.00	256.00	245.00	248.00	295.00	307.00	311.00	311.00	318.00	350.00	360.00	363.00	361.00	388.00	400.00	396.00	389.00	401.00	441.00	447.00	448.00	454.00	445.00	439.00	433.00	430.00	401.00	405.00	422.00	432.00	440.00	495.00	521.00	553.00	591.00	674.00	715.00	732.00	707.00	669.00	614.00	602.00	580.00	575.00	557.00	534.00	510.00	487.00	470.00	440.00	424.00	410.00	397.00	380.00	380.00	383.00	386.00	389.00	388.00	385.00	395.00	399.00	392.00	399.00	401.00	400.00	398.00	398.00	393.00	386.00	375.00	358.00	356.00	346.00	347.00	359.00	353.00	323.00	301.00	292.00	275.00	272.00	277.00	284.00	301.00	327.00	343.00	362.00	371.00	352.00	352.00	364.00	378.00	393.00	423.00	440.00	465.00	501.00	598.00	622.00	630.00	622.00	585.00	473.00	449.00	429.00	415.00	386.00	382.00	388.00	392.00	391.00	393.00	410.00	430.00	464.00	451.00	425.00	399.00	384.00	369.00	355.00	366.00	381.00	391.00	411.00	410.00	401.00	383.00	368.00	350.00	345.00	352.00	366.00	377.00	371.00	367.00	381.00	389.00	377.00	375.00	397.00	435.00	525.00	534.00	523.00	513.00	496.00	500.00	506.00	510.00	514.00	537.00	549.00	563.00	573.00	580.00	578.00	563.00	537.00	514.00	514.00	524.00	526.00	523.00	535.00	549.00	555.00	539.00	526.00	510.00	514.00	520.00	527.00	546.00	550.00	543.00	527.00	503.00	545.00	558.00	562.00	553.00	515.00	510.00	530.00	552.00	569.00	587.00	580.00	576.00	586.00	597.00	606.00	614.00	622.00	622.00	605.00	605.00	606.00	625.00	645.00	649.00	653.00	655.00	655.00	652.00	661.00	668.00	672.00	671.00	670.00	667.00	661.00	652.00	599.00	566.00	541.00	525.00	496.00	545.00	573.00	603.00	633.00	689.00	714.00	740.00	769.00	845.00	880.00	896.00	907.00	915.00	897.00	863.00	806.00	750.00	664.00	625.00	587.00	546.00	451.00
287.00	294.00	301.00	302.00	286.00	272.00	287.00	305.00	321.00	324.00	315.00	310.00	297.00	278.00	285.00	276.00	259.00	248.00	295.00	311.00	313.00	317.00	331.00	369.00	387.00	386.00	379.00	394.00	406.00	408.00	408.00	416.00	431.00	426.00	423.00	439.00	440.00	437.00	431.00	421.00	414.00	419.00	428.00	441.00	453.00	482.00	493.00	509.00	533.00	581.00	600.00	605.00	599.00	587.00	551.00	536.00	529.00	520.00	493.00	479.00	463.00	449.00	437.00	419.00	411.00	405.00	400.00	374.00	366.00	361.00	358.00	361.00	361.00	357.00	364.00	369.00	373.00	387.00	397.00	404.00	408.00	393.00	381.00	371.00	367.00	356.00	352.00	334.00	335.00	354.00	330.00	302.00	283.00	274.00	269.00	274.00	290.00	307.00	345.00	376.00	392.00	419.00	439.00	392.00	372.00	368.00	379.00	390.00	415.00	426.00	445.00	472.00	544.00	578.00	593.00	577.00	533.00	440.00	424.00	396.00	381.00	362.00	364.00	369.00	373.00	378.00	410.00	442.00	474.00	463.00	396.00	376.00	362.00	348.00	341.00	363.00	384.00	402.00	417.00	405.00	383.00	374.00	376.00	370.00	353.00	342.00	339.00	350.00	364.00	359.00	371.00	380.00	378.00	367.00	376.00	391.00	413.00	493.00	531.00	542.00	534.00	524.00	527.00	531.00	534.00	540.00	551.00	561.00	575.00	589.00	596.00	573.00	550.00	535.00	539.00	558.00	564.00	570.00	566.00	573.00	584.00	590.00	574.00	557.00	549.00	554.00	560.00	566.00	568.00	565.00	556.00	536.00	525.00	560.00	573.00	580.00	578.00	545.00	540.00	550.00	568.00	593.00	649.00	646.00	645.00	651.00	667.00	667.00	664.00	643.00	612.00	578.00	581.00	591.00	618.00	661.00	663.00	660.00	656.00	652.00	648.00	654.00	657.00	659.00	658.00	660.00	659.00	658.00	652.00	599.00	579.00	565.00	550.00	535.00	543.00	570.00	604.00	639.00	700.00	724.00	748.00	774.00	846.00	872.00	879.00	880.00	877.00	815.00	773.00	720.00	672.00	624.00	597.00	566.00	532.00	439.00
287.00	294.00	301.00	302.00	286.00	272.00	287.00	305.00	321.00	324.00	315.00	310.00	297.00	278.00	285.00	276.00	259.00	248.00	295.00	311.00	313.00	317.00	331.00	369.00	387.00	386.00	379.00	394.00	406.00	408.00	408.00	416.00	431.00	426.00	423.00	439.00	440.00	437.00	431.00	421.00	414.00	419.00	428.00	441.00	453.00	482.00	493.00	509.00	533.00	581.00	600.00	605.00	599.00	587.00	551.00	536.00	529.00	520.00	493.00	479.00	463.00	449.00	437.00	419.00	411.00	405.00	400.00	374.00	366.00	361.00	358.00	361.00	361.00	357.00	364.00	369.00	373.00	387.00	397.00	404.00	408.00	393.00	381.00	371.00	367.00	356.00	352.00	334.00	335.00	354.00	330.00	302.00	283.00	274.00	269.00	274.00	290.00	307.00	345.00	376.00	392.00	419.00	439.00	392.00	372.00	368.00	379.00	390.00	415.00	426.00	445.00	472.00	544.00	578.00	593.00	577.00	533.00	440.00	424.00	396.00	381.00	362.00	364.00	369.00	373.00	378.00	410.00	442.00	474.00	463.00	396.00	376.00	362.00	348.00	341.00	363.00	384.00	402.00	417.00	405.00	383.00	374.00	376.00	370.00	353.00	342.00	339.00	350.00	364.00	359.00	371.00	380.00	378.00	367.00	376.00	391.00	413.00	493.00	531.00	542.00	534.00	524.00	527.00	531.00	534.00	540.00	551.00	561.00	575.00	589.00	596.00	573.00	550.00	535.00	539.00	558.00	564.00	570.00	566.00	573.00	584.00	590.00	574.00	557.00	549.00	554.00	560.00	566.00	568.00	565.00	556.00	536.00	525.00	560.00	573.00	580.00	578.00	545.00	540.00	550.00	568.00	593.00	649.00	646.00	645.00	651.00	667.00	667.00	664.00	643.00	612.00	578.00	581.00	591.00	618.00	661.00	663.00	660.00	656.00	652.00	648.00	654.00	657.00	659.00	658.00	660.00	659.00	658.00	652.00	599.00	579.00	565.00	550.00	535.00	543.00	570.00	604.00	639.00	700.00	724.00	748.00	774.00	846.00	872.00	879.00	880.00	877.00	815.00	773.00	720.00	672.00	624.00	597.00	566.00	532.00	439.00
254.00	273.00	303.00	330.00	338.00	327.00	327.00	328.00	331.00	334.00	332.00	332.00	329.00	316.00	311.00	305.00	284.00	264.00	282.00	307.00	327.00	341.00	356.00	390.00	393.00	384.00	378.00	380.00	389.00	393.00	396.00	407.00	417.00	407.00	401.00	427.00	432.00	426.00	422.00	421.00	432.00	435.00	434.00	443.00	451.00	474.00	484.00	496.00	510.00	528.00	538.00	547.00	555.00	554.00	527.00	512.00	492.00	485.00	465.00	450.00	433.00	419.00	411.00	395.00	391.00	389.00	386.00	370.00	367.00	364.00	362.00	352.00	331.00	333.00	341.00	342.00	395.00	444.00	481.00	500.00	489.00	428.00	406.00	388.00	378.00	357.00	346.00	331.00	330.00	334.00	298.00	282.00	271.00	266.00	277.00	292.00	313.00	340.00	400.00	462.00	476.00	482.00	477.00	423.00	390.00	376.00	394.00	419.00	475.00	486.00	499.00	518.00	567.00	587.00	588.00	557.00	511.00	423.00	409.00	382.00	364.00	345.00	352.00	369.00	389.00	409.00	470.00	517.00	558.00	516.00	392.00	364.00	344.00	328.00	335.00	393.00	431.00	472.00	499.00	391.00	359.00	351.00	351.00	345.00	332.00	328.00	320.00	325.00	343.00	345.00	355.00	358.00	360.00	369.00	372.00	377.00	386.00	430.00	463.00	502.00	528.00	536.00	556.00	563.00	568.00	575.00	582.00	584.00	596.00	611.00	616.00	568.00	569.00	570.00	576.00	607.00	618.00	620.00	625.00	634.00	641.00	641.00	614.00	591.00	591.00	601.00	609.00	613.00	601.00	588.00	576.00	556.00	553.00	580.00	592.00	600.00	599.00	589.00	587.00	592.00	606.00	625.00	682.00	689.00	692.00	695.00	695.00	688.00	672.00	651.00	627.00	566.00	553.00	569.00	604.00	666.00	665.00	663.00	659.00	656.00	644.00	626.00	622.00	625.00	653.00	657.00	661.00	664.00	662.00	651.00	646.00	626.00	596.00	597.00	578.00	572.00	591.00	625.00	693.00	721.00	756.00	798.00	878.00	887.00	886.00	883.00	867.00	779.00	728.00	678.00	637.00	589.00	555.00	513.00	476.00	473.00
232.00	245.00	262.00	288.00	328.00	353.00	342.00	329.00	320.00	316.00	321.00	325.00	324.00	316.00	332.00	333.00	313.00	280.00	289.00	307.00	324.00	341.00	355.00	379.00	371.00	356.00	350.00	353.00	357.00	369.00	381.00	388.00	388.00	382.00	378.00	393.00	413.00	424.00	439.00	446.00	450.00	447.00	447.00	453.00	463.00	482.00	492.00	507.00	523.00	530.00	521.00	512.00	513.00	520.00	518.00	510.00	483.00	468.00	443.00	432.00	422.00	410.00	401.00	380.00	369.00	364.00	366.00	360.00	359.00	357.00	354.00	344.00	317.00	314.00	319.00	319.00	439.00	495.00	536.00	559.00	529.00	428.00	399.00	380.00	367.00	348.00	338.00	334.00	334.00	315.00	275.00	267.00	262.00	257.00	287.00	323.00	364.00	417.00	474.00	533.00	540.00	526.00	507.00	447.00	422.00	409.00	420.00	444.00	547.00	566.00	575.00	585.00	598.00	598.00	583.00	553.00	520.00	448.00	423.00	383.00	359.00	338.00	356.00	385.00	418.00	458.00	546.00	583.00	598.00	506.00	385.00	347.00	325.00	325.00	352.00	436.00	490.00	535.00	540.00	382.00	353.00	343.00	340.00	332.00	297.00	303.00	324.00	331.00	348.00	357.00	354.00	351.00	353.00	366.00	373.00	386.00	391.00	404.00	419.00	433.00	456.00	522.00	576.00	586.00	596.00	610.00	627.00	633.00	644.00	648.00	641.00	602.00	612.00	617.00	617.00	648.00	663.00	668.00	670.00	673.00	672.00	673.00	664.00	648.00	660.00	669.00	669.00	670.00	649.00	624.00	592.00	573.00	603.00	640.00	652.00	657.00	653.00	655.00	654.00	659.00	666.00	676.00	694.00	697.00	698.00	699.00	706.00	704.00	696.00	682.00	660.00	574.00	547.00	561.00	603.00	675.00	667.00	664.00	659.00	649.00	598.00	578.00	589.00	620.00	668.00	679.00	688.00	690.00	688.00	679.00	676.00	662.00	647.00	657.00	648.00	629.00	609.00	613.00	679.00	710.00	744.00	788.00	871.00	880.00	875.00	846.00	830.00	760.00	714.00	664.00	624.00	551.00	521.00	489.00	485.00	546.00
232.00	245.00	262.00	288.00	328.00	353.00	342.00	329.00	320.00	316.00	321.00	325.00	324.00	316.00	332.00	333.00	313.00	280.00	289.00	307.00	324.00	341.00	355.00	379.00	371.00	356.00	350.00	353.00	357.00	369.00	381.00	388.00	388.00	382.00	378.00	393.00	413.00	424.00	439.00	446.00	450.00	447.00	447.00	453.00	463.00	482.00	492.00	507.00	523.00	530.00	521.00	512.00	513.00	520.00	518.00	510.00	483.00	468.00	443.00	432.00	422.00	410.00	401.00	380.00	369.00	364.00	366.00	360.00	359.00	357.00	354.00	344.00	317.00	314.00	319.00	319.00	439.00	495.00	536.00	559.00	529.00	428.00	399.00	380.00	367.00	348.00	338.00	334.00	334.00	315.00	275.00	267.00	262.00	257.00	287.00	323.00	364.00	417.00	474.00	533.00	540.00	526.00	507.00	447.00	422.00	409.00	420.00	444.00	547.00	566.00	575.00	585.00	598.00	598.00	583.00	553.00	520.00	448.00	423.00	383.00	359.00	338.00	356.00	385.00	418.00	458.00	546.00	583.00	598.00	506.00	385.00	347.00	325.00	325.00	352.00	436.00	490.00	535.00	540.00	382.00	353.00	343.00	340.00	332.00	297.00	303.00	324.00	331.00	348.00	357.00	354.00	351.00	353.00	366.00	373.00	386.00	391.00	404.00	419.00	433.00	456.00	522.00	576.00	586.00	596.00	610.00	627.00	633.00	644.00	648.00	641.00	602.00	612.00	617.00	617.00	648.00	663.00	668.00	670.00	673.00	672.00	673.00	664.00	648.00	660.00	669.00	669.00	670.00	649.00	624.00	592.00	573.00	603.00	640.00	652.00	657.00	653.00	655.00	654.00	659.00	666.00	676.00	694.00	697.00	698.00	699.00	706.00	704.00	696.00	682.00	660.00	574.00	547.00	561.00	603.00	675.00	667.00	664.00	659.00	649.00	598.00	578.00	589.00	620.00	668.00	679.00	688.00	690.00	688.00	679.00	676.00	662.00	647.00	657.00	648.00	629.00	609.00	613.00	679.00	710.00	744.00	788.00	871.00	880.00	875.00	846.00	830.00	760.00	714.00	664.00	624.00	551.00	521.00	489.00	485.00	546.00
262.00	267.00	275.00	302.00	332.00	329.00	328.00	318.00	318.00	337.00	340.00	335.00	320.00	301.00	298.00	307.00	308.00	296.00	299.00	313.00	325.00	341.00	359.00	386.00	352.00	334.00	326.00	328.00	339.00	356.00	371.00	374.00	358.00	361.00	379.00	418.00	449.00	475.00	498.00	500.00	486.00	482.00	483.00	484.00	487.00	523.00	543.00	562.00	568.00	542.00	532.00	522.00	509.00	498.00	504.00	505.00	488.00	469.00	432.00	415.00	401.00	390.00	384.00	368.00	357.00	350.00	343.00	338.00	337.00	334.00	328.00	322.00	308.00	304.00	302.00	305.00	375.00	404.00	424.00	438.00	431.00	380.00	362.00	351.00	341.00	328.00	320.00	310.00	319.00	302.00	261.00	253.00	251.00	256.00	307.00	369.00	439.00	470.00	478.00	508.00	514.00	512.00	512.00	491.00	470.00	456.00	442.00	435.00	469.00	487.00	509.00	543.00	587.00	593.00	579.00	547.00	510.00	467.00	449.00	400.00	375.00	338.00	350.00	377.00	413.00	462.00	544.00	563.00	553.00	446.00	346.00	315.00	317.00	344.00	380.00	484.00	535.00	553.00	542.00	381.00	353.00	341.00	337.00	328.00	286.00	303.00	329.00	340.00	354.00	362.00	364.00	355.00	353.00	367.00	372.00	381.00	391.00	413.00	426.00	434.00	444.00	482.00	527.00	545.00	565.00	589.00	630.00	642.00	650.00	650.00	638.00	637.00	651.00	658.00	661.00	670.00	676.00	679.00	684.00	690.00	689.00	688.00	688.00	687.00	694.00	694.00	692.00	688.00	680.00	663.00	626.00	600.00	650.00	679.00	682.00	683.00	680.00	672.00	669.00	670.00	671.00	673.00	672.00	673.00	673.00	678.00	693.00	698.00	698.00	689.00	667.00	570.00	535.00	542.00	577.00	671.00	663.00	658.00	644.00	615.00	549.00	555.00	592.00	625.00	678.00	690.00	699.00	702.00	702.00	689.00	680.00	680.00	683.00	693.00	684.00	669.00	647.00	629.00	671.00	703.00	729.00	761.00	828.00	837.00	827.00	776.00	750.00	708.00	672.00	625.00	585.00	533.00	527.00	530.00	551.00	612.00
304.00	317.00	319.00	333.00	333.00	296.00	294.00	310.00	342.00	379.00	370.00	357.00	333.00	303.00	279.00	281.00	279.00	280.00	303.00	316.00	328.00	336.00	350.00	376.00	354.00	332.00	316.00	304.00	309.00	320.00	333.00	340.00	356.00	381.00	412.00	473.00	510.00	527.00	533.00	519.00	502.00	506.00	510.00	506.00	501.00	544.00	566.00	574.00	563.00	539.00	533.00	524.00	502.00	473.00	478.00	490.00	468.00	448.00	415.00	405.00	395.00	387.00	382.00	371.00	363.00	355.00	346.00	321.00	320.00	317.00	311.00	305.00	295.00	293.00	291.00	288.00	308.00	320.00	328.00	333.00	334.00	327.00	322.00	318.00	315.00	304.00	300.00	290.00	289.00	279.00	256.00	245.00	238.00	244.00	318.00	366.00	398.00	409.00	408.00	427.00	447.00	475.00	502.00	535.00	525.00	497.00	463.00	432.00	400.00	407.00	416.00	436.00	491.00	520.00	539.00	525.00	501.00	473.00	453.00	399.00	375.00	332.00	322.00	330.00	354.00	380.00	410.00	430.00	453.00	415.00	323.00	301.00	326.00	366.00	407.00	525.00	548.00	552.00	533.00	373.00	347.00	336.00	331.00	313.00	282.00	307.00	325.00	336.00	355.00	355.00	344.00	342.00	347.00	371.00	380.00	387.00	395.00	417.00	431.00	449.00	472.00	523.00	539.00	539.00	541.00	552.00	589.00	609.00	625.00	640.00	645.00	656.00	661.00	664.00	666.00	668.00	671.00	675.00	678.00	683.00	684.00	685.00	676.00	682.00	700.00	702.00	702.00	699.00	683.00	657.00	617.00	590.00	632.00	681.00	686.00	684.00	678.00	632.00	614.00	620.00	635.00	639.00	634.00	651.00	666.00	681.00	689.00	691.00	690.00	682.00	662.00	565.00	525.00	520.00	558.00	665.00	655.00	636.00	615.00	586.00	525.00	538.00	572.00	592.00	653.00	658.00	665.00	675.00	685.00	702.00	706.00	710.00	722.00	718.00	697.00	686.00	672.00	658.00	667.00	686.00	711.00	739.00	771.00	777.00	773.00	746.00	727.00	687.00	666.00	628.00	590.00	568.00	559.00	568.00	606.00	671.00
304.00	317.00	319.00	333.00	333.00	296.00	294.00	310.00	342.00	379.00	370.00	357.00	333.00	303.00	279.00	281.00	279.00	280.00	303.00	316.00	328.00	336.00	350.00	376.00	354.00	332.00	316.00	304.00	309.00	320.00	333.00	340.00	356.00	381.00	412.00	473.00	510.00	527.00	533.00	519.00	502.00	506.00	510.00	506.00	501.00	544.00	566.00	574.00	563.00	539.00	533.00	524.00	502.00	473.00	478.00	490.00	468.00	448.00	415.00	405.00	395.00	387.00	382.00	371.00	363.00	355.00	346.00	321.00	320.00	317.00	311.00	305.00	295.00	293.00	291.00	288.00	308.00	320.00	328.00	333.00	334.00	327.00	322.00	318.00	315.00	304.00	300.00	290.00	289.00	279.00	256.00	245.00	238.00	244.00	318.00	366.00	398.00	409.00	408.00	427.00	447.00	475.00	502.00	535.00	525.00	497.00	463.00	432.00	400.00	407.00	416.00	436.00	491.00	520.00	539.00	525.00	501.00	473.00	453.00	399.00	375.00	332.00	322.00	330.00	354.00	380.00	410.00	430.00	453.00	415.00	323.00	301.00	326.00	366.00	407.00	525.00	548.00	552.00	533.00	373.00	347.00	336.00	331.00	313.00	282.00	307.00	325.00	336.00	355.00	355.00	344.00	342.00	347.00	371.00	380.00	387.00	395.00	417.00	431.00	449.00	472.00	523.00	539.00	539.00	541.00	552.00	589.00	609.00	625.00	640.00	645.00	656.00	661.00	664.00	666.00	668.00	671.00	675.00	678.00	683.00	684.00	685.00	676.00	682.00	700.00	702.00	702.00	699.00	683.00	657.00	617.00	590.00	632.00	681.00	686.00	684.00	678.00	632.00	614.00	620.00	635.00	639.00	634.00	651.00	666.00	681.00	689.00	691.00	690.00	682.00	662.00	565.00	525.00	520.00	558.00	665.00	655.00	636.00	615.00	586.00	525.00	538.00	572.00	592.00	653.00	658.00	665.00	675.00	685.00	702.00	706.00	710.00	722.00	718.00	697.00	686.00	672.00	658.00	667.00	686.00	711.00	739.00	771.00	777.00	773.00	746.00	727.00	687.00	666.00	628.00	590.00	568.00	559.00	568.00	606.00	671.00
304.00	317.00	319.00	333.00	333.00	296.00	294.00	310.00	342.00	379.00	370.00	357.00	333.00	303.00	279.00	281.00	279.00	280.00	303.00	316.00	328.00	336.00	350.00	376.00	354.00	332.00	316.00	304.00	309.00	320.00	333.00	340.00	356.00	381.00	412.00	473.00	510.00	527.00	533.00	519.00	502.00	506.00	510.00	506.00	501.00	544.00	566.00	574.00	563.00	539.00	533.00	524.00	502.00	473.00	478.00	490.00	468.00	448.00	415.00	405.00	395.00	387.00	382.00	371.00	363.00	355.00	346.00	321.00	320.00	317.00	311.00	305.00	295.00	293.00	291.00	288.00	308.00	320.00	328.00	333.00	334.00	327.00	322.00	318.00	315.00	304.00	300.00	290.00	289.00	279.00	256.00	245.00	238.00	244.00	318.00	366.00	398.00	409.00	408.00	427.00	447.00	475.00	502.00	535.00	525.00	497.00	463.00	432.00	400.00	407.00	416.00	436.00	491.00	520.00	539.00	525.00	501.00	473.00	453.00	399.00	375.00	332.00	322.00	330.00	354.00	380.00	410.00	430.00	453.00	415.00	323.00	301.00	326.00	366.00	407.00	525.00	548.00	552.00	533.00	373.00	347.00	336.00	331.00	313.00	282.00	307.00	325.00	336.00	355.00	355.00	344.00	342.00	347.00	371.00	380.00	387.00	395.00	417.00	431.00	449.00	472.00	523.00	539.00	539.00	541.00	552.00	589.00	609.00	625.00	640.00	645.00	656.00	661.00	664.00	666.00	668.00	671.00	675.00	678.00	683.00	684.00	685.00	676.00	682.00	700.00	702.00	702.00	699.00	683.00	657.00	617.00	590.00	632.00	681.00	686.00	684.00	678.00	632.00	614.00	620.00	635.00	639.00	634.00	651.00	666.00	681.00	689.00	691.00	690.00	682.00	662.00	565.00	525.00	520.00	558.00	665.00	655.00	636.00	615.00	586.00	525.00	538.00	572.00	592.00	653.00	658.00	665.00	675.00	685.00	702.00	706.00	710.00	722.00	718.00	697.00	686.00	672.00	658.00	667.00	686.00	711.00	739.00	771.00	777.00	773.00	746.00	727.00	687.00	666.00	628.00	590.00	568.00	559.00	568.00	606.00	671.00
289.00	316.00	323.00	319.00	306.00	280.00	297.00	322.00	346.00	380.00	385.00	372.00	340.00	303.00	275.00	276.00	277.00	288.00	321.00	326.00	329.00	334.00	346.00	369.00	356.00	343.00	338.00	322.00	306.00	294.00	301.00	312.00	347.00	378.00	410.00	450.00	477.00	484.00	490.00	487.00	480.00	479.00	470.00	454.00	456.00	542.00	550.00	556.00	560.00	536.00	525.00	513.00	491.00	461.00	435.00	440.00	416.00	396.00	362.00	354.00	344.00	339.00	338.00	334.00	339.00	343.00	344.00	335.00	333.00	329.00	324.00	322.00	304.00	295.00	291.00	285.00	276.00	282.00	288.00	292.00	291.00	297.00	298.00	298.00	297.00	293.00	291.00	286.00	278.00	264.00	240.00	235.00	238.00	246.00	294.00	316.00	322.00	331.00	368.00	413.00	441.00	471.00	502.00	526.00	499.00	464.00	434.00	411.00	364.00	353.00	356.00	374.00	430.00	463.00	487.00	492.00	495.00	501.00	484.00	413.00	380.00	341.00	330.00	313.00	301.00	297.00	306.00	320.00	352.00	376.00	310.00	299.00	330.00	381.00	435.00	534.00	550.00	555.00	537.00	381.00	348.00	327.00	311.00	285.00	303.00	326.00	334.00	341.00	344.00	335.00	330.00	336.00	346.00	369.00	381.00	392.00	401.00	427.00	446.00	473.00	501.00	567.00	600.00	600.00	596.00	593.00	603.00	611.00	623.00	636.00	650.00	667.00	663.00	658.00	649.00	646.00	654.00	660.00	661.00	668.00	666.00	658.00	651.00	671.00	692.00	696.00	698.00	699.00	675.00	633.00	589.00	572.00	626.00	677.00	681.00	680.00	676.00	635.00	605.00	584.00	574.00	576.00	619.00	649.00	673.00	687.00	694.00	693.00	691.00	682.00	664.00	567.00	518.00	506.00	543.00	655.00	652.00	610.00	589.00	557.00	503.00	497.00	517.00	543.00	596.00	613.00	642.00	672.00	693.00	721.00	734.00	748.00	756.00	745.00	713.00	701.00	697.00	694.00	692.00	697.00	706.00	716.00	726.00	734.00	749.00	766.00	763.00	735.00	724.00	665.00	607.00	619.00	633.00	645.00	669.00	753.00
209.00	246.00	266.00	279.00	272.00	262.00	281.00	296.00	308.00	373.00	402.00	394.00	354.00	314.00	258.00	266.00	272.00	278.00	293.00	299.00	304.00	319.00	339.00	356.00	354.00	349.00	344.00	333.00	316.00	298.00	298.00	316.00	361.00	375.00	382.00	402.00	426.00	438.00	444.00	440.00	420.00	409.00	402.00	409.00	440.00	533.00	535.00	538.00	542.00	528.00	522.00	511.00	485.00	450.00	388.00	374.00	348.00	330.00	329.00	317.00	298.00	290.00	290.00	292.00	293.00	304.00	315.00	333.00	337.00	337.00	331.00	331.00	328.00	324.00	317.00	308.00	278.00	269.00	265.00	268.00	267.00	268.00	270.00	273.00	275.00	282.00	280.00	275.00	267.00	254.00	234.00	236.00	248.00	261.00	303.00	321.00	328.00	344.00	395.00	463.00	500.00	522.00	531.00	483.00	445.00	412.00	384.00	364.00	344.00	335.00	329.00	340.00	408.00	447.00	473.00	489.00	497.00	502.00	494.00	441.00	406.00	350.00	337.00	321.00	303.00	285.00	264.00	268.00	280.00	300.00	281.00	294.00	331.00	377.00	428.00	499.00	494.00	493.00	473.00	355.00	322.00	294.00	273.00	269.00	311.00	320.00	324.00	325.00	317.00	322.00	342.00	351.00	358.00	375.00	385.00	396.00	408.00	446.00	472.00	507.00	545.00	619.00	657.00	666.00	664.00	656.00	652.00	652.00	651.00	650.00	655.00	661.00	657.00	642.00	616.00	598.00	621.00	641.00	652.00	636.00	609.00	595.00	629.00	656.00	690.00	692.00	692.00	692.00	648.00	603.00	565.00	559.00	625.00	668.00	673.00	671.00	668.00	642.00	606.00	570.00	544.00	531.00	620.00	646.00	670.00	686.00	699.00	699.00	698.00	695.00	681.00	572.00	518.00	483.00	508.00	590.00	612.00	610.00	592.00	540.00	475.00	466.00	479.00	507.00	582.00	605.00	631.00	660.00	690.00	733.00	752.00	772.00	787.00	773.00	733.00	729.00	743.00	754.00	754.00	751.00	751.00	746.00	723.00	733.00	755.00	805.00	821.00	814.00	802.00	746.00	688.00	713.00	716.00	713.00	724.00	821.00
209.00	246.00	266.00	279.00	272.00	262.00	281.00	296.00	308.00	373.00	402.00	394.00	354.00	314.00	258.00	266.00	272.00	278.00	293.00	299.00	304.00	319.00	339.00	356.00	354.00	349.00	344.00	333.00	316.00	298.00	298.00	316.00	361.00	375.00	382.00	402.00	426.00	438.00	444.00	440.00	420.00	409.00	402.00	409.00	440.00	533.00	535.00	538.00	542.00	528.00	522.00	511.00	485.00	450.00	388.00	374.00	348.00	330.00	329.00	317.00	298.00	290.00	290.00	292.00	293.00	304.00	315.00	333.00	337.00	337.00	331.00	331.00	328.00	324.00	317.00	308.00	278.00	269.00	265.00	268.00	267.00	268.00	270.00	273.00	275.00	282.00	280.00	275.00	267.00	254.00	234.00	236.00	248.00	261.00	303.00	321.00	328.00	344.00	395.00	463.00	500.00	522.00	531.00	483.00	445.00	412.00	384.00	364.00	344.00	335.00	329.00	340.00	408.00	447.00	473.00	489.00	497.00	502.00	494.00	441.00	406.00	350.00	337.00	321.00	303.00	285.00	264.00	268.00	280.00	300.00	281.00	294.00	331.00	377.00	428.00	499.00	494.00	493.00	473.00	355.00	322.00	294.00	273.00	269.00	311.00	320.00	324.00	325.00	317.00	322.00	342.00	351.00	358.00	375.00	385.00	396.00	408.00	446.00	472.00	507.00	545.00	619.00	657.00	666.00	664.00	656.00	652.00	652.00	651.00	650.00	655.00	661.00	657.00	642.00	616.00	598.00	621.00	641.00	652.00	636.00	609.00	595.00	629.00	656.00	690.00	692.00	692.00	692.00	648.00	603.00	565.00	559.00	625.00	668.00	673.00	671.00	668.00	642.00	606.00	570.00	544.00	531.00	620.00	646.00	670.00	686.00	699.00	699.00	698.00	695.00	681.00	572.00	518.00	483.00	508.00	590.00	612.00	610.00	592.00	540.00	475.00	466.00	479.00	507.00	582.00	605.00	631.00	660.00	690.00	733.00	752.00	772.00	787.00	773.00	733.00	729.00	743.00	754.00	754.00	751.00	751.00	746.00	723.00	733.00	755.00	805.00	821.00	814.00	802.00	746.00	688.00	713.00	716.00	713.00	724.00	821.00
130.00	158.00	191.00	219.00	243.00	243.00	241.00	247.00	254.00	306.00	347.00	361.00	337.00	305.00	251.00	267.00	277.00	285.00	312.00	317.00	317.00	318.00	324.00	322.00	337.00	339.00	333.00	317.00	307.00	303.00	316.00	333.00	372.00	384.00	386.00	389.00	409.00	418.00	420.00	411.00	380.00	365.00	371.00	393.00	412.00	477.00	479.00	475.00	459.00	416.00	411.00	411.00	406.00	392.00	350.00	332.00	304.00	295.00	289.00	280.00	280.00	282.00	288.00	297.00	293.00	292.00	294.00	322.00	339.00	344.00	343.00	339.00	327.00	322.00	316.00	310.00	298.00	289.00	281.00	277.00	276.00	268.00	266.00	266.00	263.00	254.00	248.00	246.00	244.00	241.00	232.00	236.00	247.00	263.00	307.00	323.00	335.00	353.00	422.00	529.00	579.00	601.00	588.00	474.00	422.00	391.00	368.00	350.00	315.00	308.00	307.00	323.00	396.00	430.00	447.00	460.00	474.00	490.00	475.00	419.00	389.00	335.00	316.00	300.00	286.00	276.00	250.00	246.00	256.00	257.00	277.00	275.00	291.00	323.00	349.00	359.00	354.00	344.00	329.00	286.00	273.00	265.00	271.00	279.00	295.00	302.00	306.00	309.00	310.00	319.00	335.00	342.00	352.00	373.00	387.00	400.00	416.00	466.00	506.00	548.00	586.00	662.00	691.00	691.00	688.00	683.00	675.00	675.00	672.00	666.00	665.00	664.00	661.00	642.00	608.00	558.00	570.00	589.00	609.00	604.00	586.00	569.00	601.00	626.00	679.00	687.00	688.00	685.00	626.00	582.00	543.00	534.00	610.00	661.00	667.00	666.00	660.00	617.00	578.00	552.00	532.00	511.00	601.00	629.00	644.00	658.00	687.00	692.00	693.00	688.00	680.00	583.00	521.00	457.00	461.00	513.00	554.00	572.00	562.00	516.00	444.00	441.00	477.00	520.00	623.00	650.00	666.00	676.00	690.00	717.00	729.00	738.00	738.00	716.00	712.00	738.00	773.00	814.00	837.00	823.00	803.00	769.00	725.00	747.00	775.00	844.00	874.00	880.00	878.00	849.00	821.00	832.00	837.00	825.00	818.00	844.00
130.00	158.00	191.00	219.00	243.00	243.00	241.00	247.00	254.00	306.00	347.00	361.00	337.00	305.00	251.00	267.00	277.00	285.00	312.00	317.00	317.00	318.00	324.00	322.00	337.00	339.00	333.00	317.00	307.00	303.00	316.00	333.00	372.00	384.00	386.00	389.00	409.00	418.00	420.00	411.00	380.00	365.00	371.00	393.00	412.00	477.00	479.00	475.00	459.00	416.00	411.00	411.00	406.00	392.00	350.00	332.00	304.00	295.00	289.00	280.00	280.00	282.00	288.00	297.00	293.00	292.00	294.00	322.00	339.00	344.00	343.00	339.00	327.00	322.00	316.00	310.00	298.00	289.00	281.00	277.00	276.00	268.00	266.00	266.00	263.00	254.00	248.00	246.00	244.00	241.00	232.00	236.00	247.00	263.00	307.00	323.00	335.00	353.00	422.00	529.00	579.00	601.00	588.00	474.00	422.00	391.00	368.00	350.00	315.00	308.00	307.00	323.00	396.00	430.00	447.00	460.00	474.00	490.00	475.00	419.00	389.00	335.00	316.00	300.00	286.00	276.00	250.00	246.00	256.00	257.00	277.00	275.00	291.00	323.00	349.00	359.00	354.00	344.00	329.00	286.00	273.00	265.00	271.00	279.00	295.00	302.00	306.00	309.00	310.00	319.00	335.00	342.00	352.00	373.00	387.00	400.00	416.00	466.00	506.00	548.00	586.00	662.00	691.00	691.00	688.00	683.00	675.00	675.00	672.00	666.00	665.00	664.00	661.00	642.00	608.00	558.00	570.00	589.00	609.00	604.00	586.00	569.00	601.00	626.00	679.00	687.00	688.00	685.00	626.00	582.00	543.00	534.00	610.00	661.00	667.00	666.00	660.00	617.00	578.00	552.00	532.00	511.00	601.00	629.00	644.00	658.00	687.00	692.00	693.00	688.00	680.00	583.00	521.00	457.00	461.00	513.00	554.00	572.00	562.00	516.00	444.00	441.00	477.00	520.00	623.00	650.00	666.00	676.00	690.00	717.00	729.00	738.00	738.00	716.00	712.00	738.00	773.00	814.00	837.00	823.00	803.00	769.00	725.00	747.00	775.00	844.00	874.00	880.00	878.00	849.00	821.00	832.00	837.00	825.00	818.00	844.00
81.00	93.00	120.00	140.00	179.00	227.00	261.00	284.00	279.00	263.00	272.00	290.00	297.00	290.00	249.00	271.00	288.00	307.00	352.00	360.00	361.00	355.00	340.00	310.00	316.00	323.00	323.00	296.00	288.00	302.00	333.00	362.00	405.00	409.00	398.00	376.00	378.00	386.00	390.00	385.00	367.00	352.00	348.00	365.00	379.00	413.00	399.00	378.00	361.00	321.00	310.00	321.00	325.00	320.00	306.00	295.00	280.00	268.00	268.00	285.00	299.00	310.00	319.00	333.00	335.00	332.00	322.00	337.00	345.00	345.00	342.00	338.00	331.00	324.00	316.00	308.00	294.00	289.00	288.00	285.00	280.00	274.00	271.00	266.00	262.00	259.00	253.00	240.00	231.00	227.00	229.00	231.00	234.00	240.00	273.00	301.00	324.00	351.00	433.00	541.00	592.00	616.00	601.00	482.00	424.00	386.00	361.00	344.00	310.00	296.00	293.00	307.00	365.00	397.00	411.00	422.00	434.00	436.00	419.00	370.00	343.00	306.00	290.00	274.00	264.00	258.00	247.00	244.00	254.00	274.00	270.00	251.00	252.00	272.00	275.00	270.00	265.00	263.00	261.00	265.00	275.00	282.00	287.00	292.00	311.00	321.00	329.00	335.00	336.00	334.00	348.00	352.00	354.00	362.00	376.00	394.00	416.00	473.00	516.00	561.00	603.00	669.00	690.00	682.00	664.00	651.00	656.00	662.00	662.00	659.00	660.00	677.00	674.00	662.00	637.00	556.00	536.00	538.00	553.00	561.00	547.00	532.00	570.00	602.00	662.00	672.00	674.00	667.00	597.00	559.00	528.00	508.00	567.00	637.00	655.00	658.00	653.00	609.00	571.00	543.00	520.00	493.00	554.00	578.00	601.00	625.00	678.00	690.00	691.00	684.00	674.00	583.00	521.00	447.00	431.00	452.00	480.00	502.00	500.00	465.00	411.00	418.00	467.00	515.00	610.00	644.00	676.00	696.00	703.00	703.00	699.00	689.00	676.00	661.00	714.00	742.00	766.00	821.00	808.00	771.00	752.00	721.00	711.00	751.00	776.00	856.00	885.00	887.00	887.00	873.00	859.00	851.00	860.00	853.00	849.00	831.00
81.00	93.00	120.00	140.00	179.00	227.00	261.00	284.00	279.00	263.00	272.00	290.00	297.00	290.00	249.00	271.00	288.00	307.00	352.00	360.00	361.00	355.00	340.00	310.00	316.00	323.00	323.00	296.00	288.00	302.00	333.00	362.00	405.00	409.00	398.00	376.00	378.00	386.00	390.00	385.00	367.00	352.00	348.00	365.00	379.00	413.00	399.00	378.00	361.00	321.00	310.00	321.00	325.00	320.00	306.00	295.00	280.00	268.00	268.00	285.00	299.00	310.00	319.00	333.00	335.00	332.00	322.00	337.00	345.00	345.00	342.00	338.00	331.00	324.00	316.00	308.00	294.00	289.00	288.00	285.00	280.00	274.00	271.00	266.00	262.00	259.00	253.00	240.00	231.00	227.00	229.00	231.00	234.00	240.00	273.00	301.00	324.00	351.00	433.00	541.00	592.00	616.00	601.00	482.00	424.00	386.00	361.00	344.00	310.00	296.00	293.00	307.00	365.00	397.00	411.00	422.00	434.00	436.00	419.00	370.00	343.00	306.00	290.00	274.00	264.00	258.00	247.00	244.00	254.00	274.00	270.00	251.00	252.00	272.00	275.00	270.00	265.00	263.00	261.00	265.00	275.00	282.00	287.00	292.00	311.00	321.00	329.00	335.00	336.00	334.00	348.00	352.00	354.00	362.00	376.00	394.00	416.00	473.00	516.00	561.00	603.00	669.00	690.00	682.00	664.00	651.00	656.00	662.00	662.00	659.00	660.00	677.00	674.00	662.00	637.00	556.00	536.00	538.00	553.00	561.00	547.00	532.00	570.00	602.00	662.00	672.00	674.00	667.00	597.00	559.00	528.00	508.00	567.00	637.00	655.00	658.00	653.00	609.00	571.00	543.00	520.00	493.00	554.00	578.00	601.00	625.00	678.00	690.00	691.00	684.00	674.00	583.00	521.00	447.00	431.00	452.00	480.00	502.00	500.00	465.00	411.00	418.00	467.00	515.00	610.00	644.00	676.00	696.00	703.00	703.00	699.00	689.00	676.00	661.00	714.00	742.00	766.00	821.00	808.00	771.00	752.00	721.00	711.00	751.00	776.00	856.00	885.00	887.00	887.00	873.00	859.00	851.00	860.00	853.00	849.00	831.00
78.00	78.00	79.00	95.00	144.00	198.00	243.00	275.00	274.00	251.00	240.00	240.00	250.00	257.00	232.00	236.00	254.00	273.00	318.00	337.00	349.00	352.00	346.00	314.00	300.00	310.00	316.00	289.00	289.00	315.00	352.00	384.00	409.00	410.00	405.00	363.00	335.00	341.00	345.00	348.00	347.00	340.00	325.00	321.00	335.00	358.00	337.00	313.00	297.00	278.00	264.00	263.00	261.00	258.00	259.00	258.00	265.00	278.00	306.00	306.00	306.00	313.00	331.00	350.00	344.00	338.00	336.00	361.00	358.00	354.00	348.00	343.00	337.00	333.00	328.00	323.00	300.00	294.00	287.00	283.00	280.00	277.00	279.00	284.00	286.00	280.00	272.00	249.00	239.00	231.00	229.00	229.00	226.00	225.00	244.00	268.00	294.00	321.00	397.00	499.00	545.00	570.00	565.00	466.00	419.00	379.00	349.00	327.00	290.00	281.00	282.00	296.00	346.00	383.00	394.00	386.00	392.00	390.00	382.00	342.00	309.00	277.00	277.00	275.00	269.00	260.00	245.00	240.00	250.00	259.00	242.00	238.00	241.00	247.00	249.00	248.00	254.00	266.00	274.00	280.00	282.00	292.00	302.00	307.00	322.00	331.00	342.00	351.00	355.00	357.00	366.00	370.00	376.00	377.00	372.00	381.00	402.00	474.00	525.00	572.00	614.00	683.00	673.00	641.00	611.00	597.00	606.00	607.00	610.00	623.00	644.00	675.00	679.00	672.00	644.00	569.00	537.00	511.00	510.00	533.00	525.00	509.00	552.00	588.00	652.00	664.00	665.00	652.00	571.00	535.00	511.00	484.00	515.00	597.00	626.00	644.00	642.00	594.00	558.00	530.00	505.00	474.00	527.00	560.00	596.00	634.00	684.00	687.00	686.00	680.00	663.00	600.00	531.00	445.00	413.00	398.00	408.00	424.00	427.00	410.00	403.00	418.00	451.00	496.00	581.00	620.00	680.00	700.00	681.00	658.00	663.00	637.00	605.00	652.00	700.00	720.00	738.00	755.00	700.00	662.00	653.00	642.00	687.00	728.00	762.00	823.00	850.00	841.00	836.00	808.00	773.00	739.00	754.00	790.00	821.00	840.00
78.00	78.00	79.00	95.00	144.00	198.00	243.00	275.00	274.00	251.00	240.00	240.00	250.00	257.00	232.00	236.00	254.00	273.00	318.00	337.00	349.00	352.00	346.00	314.00	300.00	310.00	316.00	289.00	289.00	315.00	352.00	384.00	409.00	410.00	405.00	363.00	335.00	341.00	345.00	348.00	347.00	340.00	325.00	321.00	335.00	358.00	337.00	313.00	297.00	278.00	264.00	263.00	261.00	258.00	259.00	258.00	265.00	278.00	306.00	306.00	306.00	313.00	331.00	350.00	344.00	338.00	336.00	361.00	358.00	354.00	348.00	343.00	337.00	333.00	328.00	323.00	300.00	294.00	287.00	283.00	280.00	277.00	279.00	284.00	286.00	280.00	272.00	249.00	239.00	231.00	229.00	229.00	226.00	225.00	244.00	268.00	294.00	321.00	397.00	499.00	545.00	570.00	565.00	466.00	419.00	379.00	349.00	327.00	290.00	281.00	282.00	296.00	346.00	383.00	394.00	386.00	392.00	390.00	382.00	342.00	309.00	277.00	277.00	275.00	269.00	260.00	245.00	240.00	250.00	259.00	242.00	238.00	241.00	247.00	249.00	248.00	254.00	266.00	274.00	280.00	282.00	292.00	302.00	307.00	322.00	331.00	342.00	351.00	355.00	357.00	366.00	370.00	376.00	377.00	372.00	381.00	402.00	474.00	525.00	572.00	614.00	683.00	673.00	641.00	611.00	597.00	606.00	607.00	610.00	623.00	644.00	675.00	679.00	672.00	644.00	569.00	537.00	511.00	510.00	533.00	525.00	509.00	552.00	588.00	652.00	664.00	665.00	652.00	571.00	535.00	511.00	484.00	515.00	597.00	626.00	644.00	642.00	594.00	558.00	530.00	505.00	474.00	527.00	560.00	596.00	634.00	684.00	687.00	686.00	680.00	663.00	600.00	531.00	445.00	413.00	398.00	408.00	424.00	427.00	410.00	403.00	418.00	451.00	496.00	581.00	620.00	680.00	700.00	681.00	658.00	663.00	637.00	605.00	652.00	700.00	720.00	738.00	755.00	700.00	662.00	653.00	642.00	687.00	728.00	762.00	823.00	850.00	841.00	836.00	808.00	773.00	739.00	754.00	790.00	821.00	840.00
78.00	78.00	78.00	78.00	100.00	146.00	167.00	185.00	196.00	211.00	210.00	214.00	224.00	231.00	221.00	226.00	245.00	253.00	260.00	270.00	284.00	297.00	304.00	302.00	293.00	292.00	291.00	283.00	304.00	333.00	354.00	364.00	377.00	386.00	385.00	341.00	308.00	303.00	304.00	305.00	307.00	311.00	306.00	295.00	298.00	316.00	303.00	285.00	266.00	246.00	238.00	238.00	247.00	258.00	269.00	279.00	319.00	345.00	382.00	376.00	363.00	352.00	353.00	370.00	365.00	361.00	370.00	375.00	372.00	369.00	364.00	359.00	347.00	340.00	335.00	329.00	317.00	313.00	309.00	306.00	302.00	292.00	288.00	284.00	278.00	274.00	269.00	252.00	243.00	235.00	226.00	220.00	216.00	216.00	230.00	248.00	271.00	294.00	351.00	428.00	453.00	450.00	425.00	371.00	349.00	330.00	314.00	301.00	272.00	267.00	270.00	277.00	320.00	334.00	345.00	355.00	360.00	330.00	310.00	283.00	272.00	260.00	268.00	271.00	265.00	253.00	233.00	233.00	237.00	239.00	240.00	249.00	265.00	276.00	279.00	279.00	284.00	297.00	306.00	309.00	307.00	314.00	327.00	335.00	343.00	338.00	342.00	356.00	370.00	370.00	386.00	394.00	400.00	405.00	402.00	404.00	412.00	461.00	510.00	554.00	585.00	643.00	640.00	616.00	591.00	570.00	550.00	554.00	571.00	594.00	610.00	624.00	622.00	613.00	587.00	530.00	507.00	487.00	484.00	515.00	508.00	490.00	518.00	551.00	615.00	640.00	649.00	636.00	558.00	529.00	502.00	469.00	473.00	555.00	592.00	615.00	620.00	575.00	544.00	517.00	485.00	451.00	508.00	542.00	578.00	612.00	665.00	674.00	674.00	668.00	651.00	607.00	551.00	453.00	417.00	378.00	372.00	375.00	376.00	373.00	394.00	423.00	462.00	511.00	600.00	648.00	685.00	673.00	634.00	582.00	575.00	564.00	580.00	657.00	691.00	703.00	709.00	709.00	649.00	617.00	606.00	612.00	669.00	704.00	733.00	800.00	813.00	780.00	731.00	704.00	689.00	645.00	631.00	672.00	713.00	774.00
90.00	79.00	78.00	78.00	78.00	114.00	132.00	140.00	149.00	164.00	172.00	178.00	184.00	193.00	192.00	205.00	224.00	237.00	260.00	271.00	281.00	292.00	292.00	281.00	276.00	273.00	267.00	264.00	278.00	299.00	318.00	324.00	332.00	343.00	349.00	321.00	291.00	285.00	279.00	275.00	267.00	263.00	267.00	268.00	265.00	267.00	257.00	241.00	227.00	215.00	225.00	234.00	244.00	257.00	284.00	305.00	371.00	414.00	469.00	460.00	438.00	416.00	402.00	398.00	399.00	397.00	395.00	394.00	391.00	387.00	380.00	373.00	361.00	354.00	346.00	340.00	329.00	327.00	321.00	313.00	310.00	300.00	291.00	286.00	282.00	274.00	267.00	255.00	245.00	235.00	222.00	217.00	215.00	214.00	231.00	245.00	259.00	275.00	315.00	367.00	382.00	377.00	356.00	314.00	299.00	287.00	277.00	268.00	247.00	245.00	247.00	251.00	268.00	274.00	277.00	281.00	284.00	286.00	282.00	276.00	270.00	258.00	251.00	242.00	236.00	229.00	223.00	222.00	223.00	230.00	236.00	249.00	262.00	281.00	294.00	296.00	299.00	303.00	311.00	320.00	319.00	323.00	330.00	338.00	352.00	352.00	356.00	366.00	385.00	389.00	396.00	404.00	414.00	424.00	425.00	425.00	428.00	449.00	470.00	502.00	537.00	597.00	615.00	606.00	589.00	565.00	522.00	521.00	532.00	540.00	546.00	547.00	541.00	536.00	526.00	492.00	472.00	457.00	456.00	499.00	498.00	482.00	473.00	503.00	557.00	584.00	613.00	616.00	558.00	526.00	495.00	470.00	432.00	495.00	539.00	569.00	582.00	560.00	528.00	497.00	466.00	440.00	484.00	519.00	555.00	590.00	642.00	660.00	667.00	670.00	665.00	606.00	562.00	487.00	456.00	404.00	379.00	357.00	360.00	359.00	390.00	428.00	467.00	505.00	603.00	635.00	653.00	648.00	627.00	564.00	537.00	556.00	585.00	652.00	689.00	695.00	691.00	679.00	633.00	606.00	588.00	593.00	652.00	681.00	703.00	744.00	743.00	694.00	668.00	654.00	643.00	588.00	586.00	606.00	636.00	694.00
90.00	79.00	78.00	78.00	78.00	114.00	132.00	140.00	149.00	164.00	172.00	178.00	184.00	193.00	192.00	205.00	224.00	237.00	260.00	271.00	281.00	292.00	292.00	281.00	276.00	273.00	267.00	264.00	278.00	299.00	318.00	324.00	332.00	343.00	349.00	321.00	291.00	285.00	279.00	275.00	267.00	263.00	267.00	268.00	265.00	267.00	257.00	241.00	227.00	215.00	225.00	234.00	244.00	257.00	284.00	305.00	371.00	414.00	469.00	460.00	438.00	416.00	402.00	398.00	399.00	397.00	395.00	394.00	391.00	387.00	380.00	373.00	361.00	354.00	346.00	340.00	329.00	327.00	321.00	313.00	310.00	300.00	291.00	286.00	282.00	274.00	267.00	255.00	245.00	235.00	222.00	217.00	215.00	214.00	231.00	245.00	259.00	275.00	315.00	367.00	382.00	377.00	356.00	314.00	299.00	287.00	277.00	268.00	247.00	245.00	247.00	251.00	268.00	274.00	277.00	281.00	284.00	286.00	282.00	276.00	270.00	258.00	251.00	242.00	236.00	229.00	223.00	222.00	223.00	230.00	236.00	249.00	262.00	281.00	294.00	296.00	299.00	303.00	311.00	320.00	319.00	323.00	330.00	338.00	352.00	352.00	356.00	366.00	385.00	389.00	396.00	404.00	414.00	424.00	425.00	425.00	428.00	449.00	470.00	502.00	537.00	597.00	615.00	606.00	589.00	565.00	522.00	521.00	532.00	540.00	546.00	547.00	541.00	536.00	526.00	492.00	472.00	457.00	456.00	499.00	498.00	482.00	473.00	503.00	557.00	584.00	613.00	616.00	558.00	526.00	495.00	470.00	432.00	495.00	539.00	569.00	582.00	560.00	528.00	497.00	466.00	440.00	484.00	519.00	555.00	590.00	642.00	660.00	667.00	670.00	665.00	606.00	562.00	487.00	456.00	404.00	379.00	357.00	360.00	359.00	390.00	428.00	467.00	505.00	603.00	635.00	653.00	648.00	627.00	564.00	537.00	556.00	585.00	652.00	689.00	695.00	691.00	679.00	633.00	606.00	588.00	593.00	652.00	681.00	703.00	744.00	743.00	694.00	668.00	654.00	643.00	588.00	586.00	606.00	636.00	694.00
107.00	103.00	95.00	90.00	87.00	93.00	101.00	106.00	118.00	132.00	137.00	145.00	149.00	154.00	190.00	206.00	229.00	253.00	273.00	287.00	293.00	315.00	316.00	274.00	254.00	258.00	259.00	246.00	256.00	279.00	289.00	299.00	316.00	314.00	319.00	308.00	285.00	281.00	275.00	271.00	246.00	237.00	229.00	233.00	235.00	222.00	214.00	201.00	196.00	214.00	226.00	233.00	243.00	255.00	307.00	351.00	456.00	489.00	523.00	508.00	483.00	463.00	448.00	435.00	434.00	436.00	445.00	430.00	421.00	410.00	399.00	390.00	374.00	367.00	365.00	360.00	339.00	330.00	328.00	326.00	322.00	307.00	303.00	302.00	294.00	277.00	272.00	259.00	251.00	241.00	222.00	217.00	212.00	208.00	221.00	243.00	261.00	279.00	303.00	334.00	334.00	319.00	296.00	268.00	261.00	257.00	252.00	247.00	236.00	230.00	226.00	234.00	241.00	243.00	239.00	237.00	243.00	256.00	253.00	256.00	250.00	239.00	231.00	215.00	214.00	213.00	218.00	220.00	221.00	222.00	239.00	251.00	269.00	292.00	319.00	342.00	325.00	319.00	322.00	334.00	346.00	354.00	351.00	357.00	390.00	392.00	400.00	401.00	402.00	408.00	414.00	421.00	430.00	457.00	461.00	458.00	458.00	465.00	480.00	511.00	549.00	606.00	605.00	611.00	595.00	567.00	528.00	509.00	494.00	476.00	474.00	475.00	471.00	470.00	462.00	432.00	427.00	422.00	412.00	470.00	469.00	453.00	430.00	466.00	516.00	541.00	561.00	572.00	531.00	501.00	470.00	451.00	388.00	461.00	511.00	542.00	560.00	526.00	494.00	467.00	435.00	408.00	470.00	509.00	550.00	586.00	613.00	625.00	641.00	660.00	670.00	627.00	576.00	507.00	478.00	411.00	384.00	351.00	338.00	341.00	392.00	436.00	469.00	502.00	594.00	612.00	617.00	613.00	593.00	507.00	505.00	559.00	591.00	652.00	690.00	688.00	675.00	657.00	616.00	588.00	564.00	569.00	635.00	668.00	675.00	668.00	644.00	621.00	612.00	601.00	584.00	574.00	592.00	618.00	651.00	729.00
107.00	103.00	95.00	90.00	87.00	93.00	101.00	106.00	118.00	132.00	137.00	145.00	149.00	154.00	190.00	206.00	229.00	253.00	273.00	287.00	293.00	315.00	316.00	274.00	254.00	258.00	259.00	246.00	256.00	279.00	289.00	299.00	316.00	314.00	319.00	308.00	285.00	281.00	275.00	271.00	246.00	237.00	229.00	233.00	235.00	222.00	214.00	201.00	196.00	214.00	226.00	233.00	243.00	255.00	307.00	351.00	456.00	489.00	523.00	508.00	483.00	463.00	448.00	435.00	434.00	436.00	445.00	430.00	421.00	410.00	399.00	390.00	374.00	367.00	365.00	360.00	339.00	330.00	328.00	326.00	322.00	307.00	303.00	302.00	294.00	277.00	272.00	259.00	251.00	241.00	222.00	217.00	212.00	208.00	221.00	243.00	261.00	279.00	303.00	334.00	334.00	319.00	296.00	268.00	261.00	257.00	252.00	247.00	236.00	230.00	226.00	234.00	241.00	243.00	239.00	237.00	243.00	256.00	253.00	256.00	250.00	239.00	231.00	215.00	214.00	213.00	218.00	220.00	221.00	222.00	239.00	251.00	269.00	292.00	319.00	342.00	325.00	319.00	322.00	334.00	346.00	354.00	351.00	357.00	390.00	392.00	400.00	401.00	402.00	408.00	414.00	421.00	430.00	457.00	461.00	458.00	458.00	465.00	480.00	511.00	549.00	606.00	605.00	611.00	595.00	567.00	528.00	509.00	494.00	476.00	474.00	475.00	471.00	470.00	462.00	432.00	427.00	422.00	412.00	470.00	469.00	453.00	430.00	466.00	516.00	541.00	561.00	572.00	531.00	501.00	470.00	451.00	388.00	461.00	511.00	542.00	560.00	526.00	494.00	467.00	435.00	408.00	470.00	509.00	550.00	586.00	613.00	625.00	641.00	660.00	670.00	627.00	576.00	507.00	478.00	411.00	384.00	351.00	338.00	341.00	392.00	436.00	469.00	502.00	594.00	612.00	617.00	613.00	593.00	507.00	505.00	559.00	591.00	652.00	690.00	688.00	675.00	657.00	616.00	588.00	564.00	569.00	635.00	668.00	675.00	668.00	644.00	621.00	612.00	601.00	584.00	574.00	592.00	618.00	651.00	729.00
100.00	100.00	105.00	101.00	89.00	88.00	85.00	87.00	94.00	109.00	117.00	124.00	129.00	140.00	168.00	198.00	241.00	268.00	282.00	292.00	296.00	315.00	318.00	282.00	259.00	252.00	248.00	241.00	252.00	279.00	281.00	284.00	276.00	272.00	273.00	299.00	274.00	266.00	261.00	256.00	230.00	225.00	220.00	211.00	203.00	203.00	196.00	191.00	204.00	223.00	227.00	232.00	241.00	247.00	310.00	362.00	464.00	498.00	530.00	527.00	518.00	506.00	496.00	477.00	481.00	496.00	508.00	487.00	468.00	447.00	427.00	411.00	401.00	409.00	408.00	401.00	382.00	372.00	362.00	355.00	346.00	332.00	325.00	314.00	305.00	283.00	279.00	261.00	252.00	243.00	223.00	217.00	211.00	207.00	221.00	247.00	262.00	270.00	279.00	292.00	285.00	275.00	265.00	246.00	242.00	243.00	241.00	239.00	232.00	226.00	220.00	215.00	222.00	218.00	217.00	219.00	227.00	228.00	234.00	244.00	241.00	234.00	229.00	215.00	216.00	219.00	227.00	230.00	230.00	229.00	236.00	248.00	262.00	280.00	307.00	336.00	315.00	308.00	312.00	351.00	393.00	421.00	412.00	404.00	489.00	505.00	507.00	503.00	491.00	488.00	471.00	469.00	481.00	537.00	548.00	541.00	534.00	522.00	530.00	558.00	594.00	655.00	661.00	656.00	629.00	602.00	568.00	539.00	517.00	494.00	483.00	446.00	446.00	441.00	424.00	394.00	389.00	385.00	387.00	415.00	417.00	411.00	396.00	439.00	511.00	523.00	509.00	518.00	474.00	448.00	426.00	408.00	359.00	424.00	470.00	505.00	526.00	502.00	470.00	437.00	405.00	376.00	443.00	473.00	496.00	526.00	573.00	596.00	621.00	647.00	666.00	629.00	597.00	517.00	485.00	413.00	382.00	359.00	340.00	320.00	370.00	409.00	449.00	486.00	552.00	551.00	545.00	534.00	511.00	484.00	521.00	546.00	579.00	640.00	686.00	676.00	650.00	642.00	610.00	570.00	537.00	540.00	617.00	647.00	631.00	604.00	584.00	549.00	538.00	532.00	531.00	562.00	585.00	616.00	650.00	729.00
100.00	100.00	105.00	101.00	89.00	88.00	85.00	87.00	94.00	109.00	117.00	124.00	129.00	140.00	168.00	198.00	241.00	268.00	282.00	292.00	296.00	315.00	318.00	282.00	259.00	252.00	248.00	241.00	252.00	279.00	281.00	284.00	276.00	272.00	273.00	299.00	274.00	266.00	261.00	256.00	230.00	225.00	220.00	211.00	203.00	203.00	196.00	191.00	204.00	223.00	227.00	232.00	241.00	247.00	310.00	362.00	464.00	498.00	530.00	527.00	518.00	506.00	496.00	477.00	481.00	496.00	508.00	487.00	468.00	447.00	427.00	411.00	401.00	409.00	408.00	401.00	382.00	372.00	362.00	355.00	346.00	332.00	325.00	314.00	305.00	283.00	279.00	261.00	252.00	243.00	223.00	217.00	211.00	207.00	221.00	247.00	262.00	270.00	279.00	292.00	285.00	275.00	265.00	246.00	242.00	243.00	241.00	239.00	232.00	226.00	220.00	215.00	222.00	218.00	217.00	219.00	227.00	228.00	234.00	244.00	241.00	234.00	229.00	215.00	216.00	219.00	227.00	230.00	230.00	229.00	236.00	248.00	262.00	280.00	307.00	336.00	315.00	308.00	312.00	351.00	393.00	421.00	412.00	404.00	489.00	505.00	507.00	503.00	491.00	488.00	471.00	469.00	481.00	537.00	548.00	541.00	534.00	522.00	530.00	558.00	594.00	655.00	661.00	656.00	629.00	602.00	568.00	539.00	517.00	494.00	483.00	446.00	446.00	441.00	424.00	394.00	389.00	385.00	387.00	415.00	417.00	411.00	396.00	439.00	511.00	523.00	509.00	518.00	474.00	448.00	426.00	408.00	359.00	424.00	470.00	505.00	526.00	502.00	470.00	437.00	405.00	376.00	443.00	473.00	496.00	526.00	573.00	596.00	621.00	647.00	666.00	629.00	597.00	517.00	485.00	413.00	382.00	359.00	340.00	320.00	370.00	409.00	449.00	486.00	552.00	551.00	545.00	534.00	511.00	484.00	521.00	546.00	579.00	640.00	686.00	676.00	650.00	642.00	610.00	570.00	537.00	540.00	617.00	647.00	631.00	604.00	584.00	549.00	538.00	532.00	531.00	562.00	585.00	616.00	650.00	729.00
101.00	100.00	99.00	100.00	98.00	85.00	87.00	87.00	88.00	93.00	97.00	102.00	111.00	118.00	151.00	171.00	191.00	214.00	273.00	302.00	292.00	284.00	294.00	275.00	295.00	287.00	254.00	230.00	251.00	264.00	252.00	240.00	239.00	249.00	268.00	291.00	270.00	260.00	251.00	244.00	222.00	215.00	212.00	205.00	187.00	186.00	199.00	207.00	210.00	220.00	231.00	239.00	246.00	254.00	283.00	319.00	406.00	447.00	513.00	533.00	538.00	546.00	546.00	537.00	545.00	547.00	549.00	511.00	493.00	468.00	441.00	427.00	454.00	468.00	471.00	462.00	429.00	420.00	405.00	391.00	379.00	353.00	339.00	324.00	306.00	283.00	280.00	265.00	254.00	243.00	225.00	218.00	213.00	209.00	209.00	229.00	242.00	249.00	255.00	248.00	250.00	248.00	248.00	235.00	230.00	227.00	226.00	224.00	210.00	207.00	207.00	208.00	211.00	212.00	215.00	222.00	229.00	240.00	249.00	245.00	237.00	237.00	232.00	221.00	225.00	231.00	239.00	244.00	250.00	250.00	242.00	239.00	239.00	242.00	252.00	278.00	271.00	271.00	281.00	323.00	337.00	346.00	348.00	358.00	420.00	445.00	460.00	477.00	504.00	525.00	543.00	538.00	548.00	599.00	621.00	622.00	622.00	597.00	586.00	602.00	638.00	697.00	683.00	665.00	645.00	626.00	590.00	566.00	562.00	556.00	547.00	507.00	492.00	476.00	455.00	416.00	400.00	393.00	381.00	367.00	367.00	363.00	372.00	417.00	476.00	490.00	493.00	488.00	459.00	437.00	410.00	376.00	331.00	384.00	441.00	478.00	495.00	467.00	429.00	389.00	363.00	349.00	421.00	448.00	471.00	497.00	565.00	614.00	653.00	657.00	661.00	642.00	614.00	516.00	474.00	400.00	375.00	352.00	332.00	307.00	359.00	403.00	437.00	451.00	468.00	462.00	456.00	443.00	443.00	512.00	543.00	570.00	592.00	645.00	682.00	665.00	635.00	610.00	562.00	536.00	509.00	518.00	583.00	613.00	623.00	568.00	539.00	499.00	490.00	493.00	507.00	555.00	588.00	622.00	648.00	705.00
103.00	101.00	102.00	103.00	106.00	93.00	89.00	89.00	90.00	88.00	89.00	93.00	94.00	99.00	126.00	140.00	157.00	170.00	207.00	243.00	272.00	272.00	260.00	250.00	278.00	293.00	279.00	234.00	224.00	222.00	217.00	214.00	245.00	244.00	252.00	266.00	278.00	260.00	249.00	236.00	219.00	202.00	183.00	173.00	176.00	202.00	222.00	232.00	237.00	225.00	226.00	233.00	240.00	252.00	279.00	302.00	369.00	404.00	471.00	506.00	531.00	553.00	567.00	585.00	589.00	579.00	562.00	507.00	490.00	472.00	462.00	466.00	504.00	525.00	528.00	519.00	476.00	468.00	454.00	435.00	415.00	375.00	361.00	344.00	316.00	285.00	277.00	265.00	256.00	246.00	230.00	223.00	217.00	211.00	199.00	202.00	211.00	209.00	215.00	220.00	224.00	226.00	228.00	229.00	223.00	218.00	217.00	215.00	212.00	219.00	227.00	235.00	238.00	238.00	239.00	239.00	235.00	247.00	255.00	250.00	246.00	245.00	240.00	232.00	236.00	248.00	273.00	276.00	279.00	281.00	272.00	267.00	263.00	258.00	261.00	256.00	261.00	258.00	260.00	307.00	319.00	316.00	322.00	340.00	361.00	365.00	374.00	382.00	416.00	437.00	458.00	470.00	499.00	586.00	631.00	649.00	667.00	670.00	661.00	672.00	692.00	721.00	703.00	679.00	671.00	652.00	619.00	623.00	628.00	613.00	583.00	509.00	494.00	483.00	473.00	453.00	436.00	417.00	403.00	375.00	364.00	352.00	343.00	358.00	397.00	418.00	434.00	444.00	454.00	442.00	405.00	362.00	317.00	327.00	363.00	388.00	400.00	401.00	375.00	340.00	325.00	330.00	442.00	479.00	503.00	522.00	582.00	619.00	618.00	597.00	603.00	614.00	592.00	505.00	457.00	380.00	355.00	333.00	310.00	307.00	349.00	366.00	379.00	385.00	397.00	410.00	420.00	447.00	476.00	502.00	528.00	562.00	589.00	639.00	660.00	656.00	639.00	609.00	545.00	518.00	491.00	490.00	547.00	572.00	577.00	524.00	504.00	465.00	464.00	487.00	506.00	552.00	585.00	618.00	642.00	644.00
103.00	101.00	102.00	103.00	106.00	93.00	89.00	89.00	90.00	88.00	89.00	93.00	94.00	99.00	126.00	140.00	157.00	170.00	207.00	243.00	272.00	272.00	260.00	250.00	278.00	293.00	279.00	234.00	224.00	222.00	217.00	214.00	245.00	244.00	252.00	266.00	278.00	260.00	249.00	236.00	219.00	202.00	183.00	173.00	176.00	202.00	222.00	232.00	237.00	225.00	226.00	233.00	240.00	252.00	279.00	302.00	369.00	404.00	471.00	506.00	531.00	553.00	567.00	585.00	589.00	579.00	562.00	507.00	490.00	472.00	462.00	466.00	504.00	525.00	528.00	519.00	476.00	468.00	454.00	435.00	415.00	375.00	361.00	344.00	316.00	285.00	277.00	265.00	256.00	246.00	230.00	223.00	217.00	211.00	199.00	202.00	211.00	209.00	215.00	220.00	224.00	226.00	228.00	229.00	223.00	218.00	217.00	215.00	212.00	219.00	227.00	235.00	238.00	238.00	239.00	239.00	235.00	247.00	255.00	250.00	246.00	245.00	240.00	232.00	236.00	248.00	273.00	276.00	279.00	281.00	272.00	267.00	263.00	258.00	261.00	256.00	261.00	258.00	260.00	307.00	319.00	316.00	322.00	340.00	361.00	365.00	374.00	382.00	416.00	437.00	458.00	470.00	499.00	586.00	631.00	649.00	667.00	670.00	661.00	672.00	692.00	721.00	703.00	679.00	671.00	652.00	619.00	623.00	628.00	613.00	583.00	509.00	494.00	483.00	473.00	453.00	436.00	417.00	403.00	375.00	364.00	352.00	343.00	358.00	397.00	418.00	434.00	444.00	454.00	442.00	405.00	362.00	317.00	327.00	363.00	388.00	400.00	401.00	375.00	340.00	325.00	330.00	442.00	479.00	503.00	522.00	582.00	619.00	618.00	597.00	603.00	614.00	592.00	505.00	457.00	380.00	355.00	333.00	310.00	307.00	349.00	366.00	379.00	385.00	397.00	410.00	420.00	447.00	476.00	502.00	528.00	562.00	589.00	639.00	660.00	656.00	639.00	609.00	545.00	518.00	491.00	490.00	547.00	572.00	577.00	524.00	504.00	465.00	464.00	487.00	506.00	552.00	585.00	618.00	642.00	644.00
123.00	119.00	118.00	111.00	102.00	99.00	98.00	93.00	91.00	88.00	87.00	86.00	88.00	91.00	110.00	115.00	118.00	139.00	214.00	226.00	221.00	221.00	215.00	220.00	257.00	278.00	272.00	252.00	242.00	230.00	215.00	204.00	218.00	225.00	229.00	260.00	266.00	244.00	232.00	220.00	193.00	170.00	160.00	181.00	198.00	225.00	226.00	229.00	225.00	241.00	245.00	254.00	260.00	270.00	317.00	358.00	461.00	496.00	508.00	515.00	529.00	540.00	553.00	580.00	583.00	578.00	570.00	549.00	524.00	507.00	502.00	499.00	542.00	557.00	552.00	544.00	522.00	510.00	496.00	477.00	455.00	411.00	389.00	367.00	342.00	297.00	278.00	264.00	256.00	246.00	232.00	228.00	231.00	227.00	207.00	197.00	196.00	195.00	194.00	202.00	201.00	201.00	203.00	205.00	204.00	212.00	219.00	230.00	252.00	255.00	266.00	274.00	261.00	253.00	254.00	251.00	246.00	255.00	262.00	251.00	250.00	257.00	255.00	251.00	250.00	250.00	275.00	292.00	306.00	308.00	294.00	289.00	286.00	278.00	281.00	284.00	281.00	275.00	267.00	276.00	286.00	289.00	298.00	305.00	315.00	326.00	337.00	351.00	386.00	407.00	436.00	450.00	476.00	560.00	606.00	647.00	677.00	708.00	698.00	701.00	726.00	720.00	719.00	714.00	702.00	683.00	644.00	624.00	607.00	579.00	550.00	527.00	505.00	474.00	452.00	436.00	420.00	413.00	419.00	424.00	410.00	388.00	359.00	347.00	343.00	348.00	352.00	351.00	361.00	361.00	347.00	330.00	297.00	291.00	297.00	302.00	308.00	325.00	323.00	310.00	307.00	333.00	429.00	460.00	485.00	508.00	528.00	517.00	514.00	525.00	540.00	563.00	542.00	463.00	419.00	352.00	324.00	303.00	286.00	298.00	318.00	326.00	334.00	351.00	454.00	475.00	480.00	484.00	506.00	529.00	541.00	568.00	597.00	655.00	640.00	619.00	603.00	589.00	525.00	497.00	466.00	458.00	529.00	555.00	553.00	503.00	476.00	442.00	447.00	463.00	484.00	525.00	545.00	564.00	577.00	565.00
123.00	119.00	118.00	111.00	102.00	99.00	98.00	93.00	91.00	88.00	87.00	86.00	88.00	91.00	110.00	115.00	118.00	139.00	214.00	226.00	221.00	221.00	215.00	220.00	257.00	278.00	272.00	252.00	242.00	230.00	215.00	204.00	218.00	225.00	229.00	260.00	266.00	244.00	232.00	220.00	193.00	170.00	160.00	181.00	198.00	225.00	226.00	229.00	225.00	241.00	245.00	254.00	260.00	270.00	317.00	358.00	461.00	496.00	508.00	515.00	529.00	540.00	553.00	580.00	583.00	578.00	570.00	549.00	524.00	507.00	502.00	499.00	542.00	557.00	552.00	544.00	522.00	510.00	496.00	477.00	455.00	411.00	389.00	367.00	342.00	297.00	278.00	264.00	256.00	246.00	232.00	228.00	231.00	227.00	207.00	197.00	196.00	195.00	194.00	202.00	201.00	201.00	203.00	205.00	204.00	212.00	219.00	230.00	252.00	255.00	266.00	274.00	261.00	253.00	254.00	251.00	246.00	255.00	262.00	251.00	250.00	257.00	255.00	251.00	250.00	250.00	275.00	292.00	306.00	308.00	294.00	289.00	286.00	278.00	281.00	284.00	281.00	275.00	267.00	276.00	286.00	289.00	298.00	305.00	315.00	326.00	337.00	351.00	386.00	407.00	436.00	450.00	476.00	560.00	606.00	647.00	677.00	708.00	698.00	701.00	726.00	720.00	719.00	714.00	702.00	683.00	644.00	624.00	607.00	579.00	550.00	527.00	505.00	474.00	452.00	436.00	420.00	413.00	419.00	424.00	410.00	388.00	359.00	347.00	343.00	348.00	352.00	351.00	361.00	361.00	347.00	330.00	297.00	291.00	297.00	302.00	308.00	325.00	323.00	310.00	307.00	333.00	429.00	460.00	485.00	508.00	528.00	517.00	514.00	525.00	540.00	563.00	542.00	463.00	419.00	352.00	324.00	303.00	286.00	298.00	318.00	326.00	334.00	351.00	454.00	475.00	480.00	484.00	506.00	529.00	541.00	568.00	597.00	655.00	640.00	619.00	603.00	589.00	525.00	497.00	466.00	458.00	529.00	555.00	553.00	503.00	476.00	442.00	447.00	463.00	484.00	525.00	545.00	564.00	577.00	565.00
145.00	141.00	127.00	140.00	150.00	120.00	103.00	98.00	93.00	84.00	83.00	82.00	83.00	83.00	94.00	101.00	101.00	117.00	154.00	157.00	167.00	182.00	190.00	239.00	261.00	262.00	258.00	263.00	259.00	243.00	228.00	212.00	221.00	226.00	245.00	269.00	248.00	225.00	208.00	201.00	166.00	155.00	168.00	178.00	185.00	233.00	241.00	246.00	245.00	255.00	266.00	264.00	280.00	305.00	347.00	394.00	509.00	535.00	561.00	562.00	561.00	559.00	556.00	559.00	558.00	558.00	562.00	548.00	532.00	512.00	475.00	441.00	472.00	500.00	524.00	531.00	516.00	511.00	508.00	507.00	502.00	456.00	419.00	385.00	357.00	311.00	291.00	268.00	258.00	246.00	254.00	258.00	251.00	246.00	222.00	204.00	194.00	194.00	198.00	210.00	214.00	219.00	228.00	226.00	217.00	228.00	234.00	231.00	261.00	278.00	285.00	281.00	260.00	261.00	272.00	268.00	261.00	254.00	265.00	262.00	262.00	266.00	269.00	272.00	269.00	265.00	286.00	297.00	311.00	331.00	315.00	309.00	302.00	299.00	301.00	319.00	313.00	297.00	276.00	281.00	284.00	288.00	292.00	300.00	336.00	347.00	349.00	351.00	380.00	399.00	432.00	457.00	496.00	558.00	609.00	666.00	699.00	736.00	749.00	734.00	712.00	728.00	724.00	725.00	703.00	671.00	634.00	618.00	626.00	619.00	612.00	598.00	556.00	509.00	482.00	456.00	461.00	469.00	478.00	480.00	465.00	441.00	392.00	372.00	339.00	329.00	321.00	311.00	296.00	292.00	288.00	285.00	276.00	273.00	270.00	267.00	269.00	279.00	282.00	289.00	312.00	349.00	432.00	457.00	472.00	477.00	458.00	450.00	441.00	461.00	485.00	533.00	525.00	450.00	405.00	331.00	300.00	279.00	269.00	277.00	306.00	333.00	366.00	400.00	500.00	523.00	534.00	542.00	551.00	579.00	588.00	600.00	624.00	668.00	617.00	568.00	536.00	516.00	475.00	450.00	433.00	455.00	543.00	570.00	552.00	498.00	467.00	422.00	415.00	430.00	454.00	489.00	493.00	495.00	498.00	494.00
161.00	145.00	157.00	185.00	208.00	185.00	141.00	112.00	105.00	83.00	79.00	78.00	78.00	79.00	81.00	88.00	97.00	110.00	128.00	143.00	162.00	179.00	191.00	235.00	235.00	226.00	220.00	221.00	215.00	211.00	216.00	214.00	223.00	237.00	255.00	266.00	229.00	197.00	178.00	167.00	144.00	172.00	191.00	201.00	210.00	217.00	228.00	242.00	249.00	265.00	280.00	294.00	318.00	345.00	427.00	465.00	513.00	537.00	563.00	564.00	556.00	543.00	541.00	528.00	526.00	537.00	547.00	536.00	490.00	438.00	402.00	382.00	389.00	406.00	427.00	440.00	444.00	451.00	464.00	485.00	504.00	495.00	466.00	410.00	356.00	294.00	283.00	279.00	269.00	267.00	278.00	268.00	252.00	237.00	210.00	202.00	194.00	195.00	214.00	222.00	237.00	255.00	265.00	263.00	250.00	261.00	264.00	258.00	248.00	262.00	274.00	275.00	282.00	281.00	273.00	268.00	266.00	266.00	272.00	276.00	273.00	286.00	291.00	287.00	281.00	275.00	295.00	312.00	321.00	340.00	328.00	320.00	317.00	320.00	319.00	314.00	303.00	287.00	278.00	280.00	285.00	291.00	300.00	310.00	347.00	360.00	371.00	377.00	408.00	419.00	459.00	503.00	567.00	633.00	665.00	688.00	710.00	731.00	738.00	740.00	730.00	719.00	712.00	701.00	694.00	686.00	659.00	670.00	702.00	723.00	723.00	665.00	611.00	565.00	528.00	531.00	537.00	537.00	536.00	526.00	514.00	490.00	422.00	388.00	366.00	368.00	353.00	334.00	313.00	304.00	300.00	294.00	292.00	280.00	268.00	258.00	253.00	260.00	262.00	273.00	299.00	340.00	406.00	430.00	442.00	440.00	410.00	406.00	395.00	399.00	411.00	491.00	523.00	482.00	431.00	330.00	291.00	267.00	263.00	269.00	321.00	366.00	415.00	457.00	529.00	557.00	589.00	605.00	615.00	649.00	655.00	660.00	644.00	655.00	609.00	569.00	535.00	500.00	449.00	419.00	402.00	414.00	510.00	552.00	541.00	485.00	456.00	399.00	384.00	393.00	420.00	437.00	434.00	427.00	430.00	432.00
161.00	145.00	157.00	185.00	208.00	185.00	141.00	112.00	105.00	83.00	79.00	78.00	78.00	79.00	81.00	88.00	97.00	110.00	128.00	143.00	162.00	179.00	191.00	235.00	235.00	226.00	220.00	221.00	215.00	211.00	216.00	214.00	223.00	237.00	255.00	266.00	229.00	197.00	178.00	167.00	144.00	172.00	191.00	201.00	210.00	217.00	228.00	242.00	249.00	265.00	280.00	294.00	318.00	345.00	427.00	465.00	513.00	537.00	563.00	564.00	556.00	543.00	541.00	528.00	526.00	537.00	547.00	536.00	490.00	438.00	402.00	382.00	389.00	406.00	427.00	440.00	444.00	451.00	464.00	485.00	504.00	495.00	466.00	410.00	356.00	294.00	283.00	279.00	269.00	267.00	278.00	268.00	252.00	237.00	210.00	202.00	194.00	195.00	214.00	222.00	237.00	255.00	265.00	263.00	250.00	261.00	264.00	258.00	248.00	262.00	274.00	275.00	282.00	281.00	273.00	268.00	266.00	266.00	272.00	276.00	273.00	286.00	291.00	287.00	281.00	275.00	295.00	312.00	321.00	340.00	328.00	320.00	317.00	320.00	319.00	314.00	303.00	287.00	278.00	280.00	285.00	291.00	300.00	310.00	347.00	360.00	371.00	377.00	408.00	419.00	459.00	503.00	567.00	633.00	665.00	688.00	710.00	731.00	738.00	740.00	730.00	719.00	712.00	701.00	694.00	686.00	659.00	670.00	702.00	723.00	723.00	665.00	611.00	565.00	528.00	531.00	537.00	537.00	536.00	526.00	514.00	490.00	422.00	388.00	366.00	368.00	353.00	334.00	313.00	304.00	300.00	294.00	292.00	280.00	268.00	258.00	253.00	260.00	262.00	273.00	299.00	340.00	406.00	430.00	442.00	440.00	410.00	406.00	395.00	399.00	411.00	491.00	523.00	482.00	431.00	330.00	291.00	267.00	263.00	269.00	321.00	366.00	415.00	457.00	529.00	557.00	589.00	605.00	615.00	649.00	655.00	660.00	644.00	655.00	609.00	569.00	535.00	500.00	449.00	419.00	402.00	414.00	510.00	552.00	541.00	485.00	456.00	399.00	384.00	393.00	420.00	437.00	434.00	427.00	430.00	432.00
153.00	156.00	189.00	226.00	237.00	250.00	212.00	159.00	125.00	93.00	79.00	79.00	80.00	80.00	79.00	80.00	88.00	102.00	121.00	134.00	149.00	165.00	179.00	188.00	174.00	180.00	179.00	219.00	249.00	277.00	271.00	247.00	236.00	258.00	267.00	265.00	211.00	180.00	159.00	141.00	172.00	194.00	205.00	210.00	215.00	230.00	230.00	237.00	244.00	267.00	293.00	324.00	365.00	407.00	485.00	514.00	552.00	559.00	564.00	557.00	548.00	536.00	526.00	507.00	518.00	525.00	528.00	519.00	472.00	412.00	370.00	347.00	329.00	332.00	337.00	351.00	361.00	376.00	391.00	417.00	452.00	486.00	448.00	389.00	334.00	283.00	298.00	351.00	336.00	314.00	265.00	243.00	222.00	200.00	188.00	193.00	199.00	204.00	211.00	224.00	239.00	258.00	271.00	269.00	268.00	280.00	288.00	288.00	268.00	262.00	275.00	286.00	284.00	271.00	262.00	261.00	260.00	279.00	286.00	294.00	288.00	322.00	322.00	306.00	299.00	296.00	320.00	350.00	379.00	382.00	348.00	338.00	335.00	330.00	324.00	312.00	302.00	292.00	281.00	283.00	292.00	307.00	328.00	343.00	358.00	374.00	389.00	400.00	431.00	446.00	492.00	534.00	593.00	691.00	694.00	696.00	718.00	730.00	726.00	718.00	711.00	706.00	704.00	695.00	691.00	690.00	690.00	700.00	724.00	745.00	750.00	710.00	681.00	655.00	616.00	611.00	607.00	588.00	574.00	525.00	502.00	472.00	416.00	408.00	421.00	418.00	403.00	388.00	359.00	343.00	330.00	325.00	326.00	312.00	302.00	285.00	271.00	255.00	250.00	251.00	254.00	270.00	324.00	342.00	361.00	379.00	371.00	361.00	357.00	360.00	369.00	450.00	477.00	462.00	419.00	341.00	303.00	269.00	256.00	265.00	313.00	353.00	399.00	456.00	588.00	603.00	627.00	650.00	663.00	676.00	653.00	625.00	605.00	618.00	635.00	609.00	582.00	540.00	463.00	427.00	397.00	376.00	415.00	440.00	448.00	425.00	402.00	366.00	356.00	359.00	374.00	386.00	389.00	396.00	414.00	446.00
185.00	175.00	182.00	208.00	235.00	205.00	191.00	161.00	136.00	95.00	79.00	80.00	82.00	83.00	81.00	84.00	83.00	87.00	114.00	134.00	152.00	155.00	153.00	142.00	178.00	223.00	243.00	264.00	298.00	326.00	320.00	284.00	262.00	267.00	262.00	246.00	201.00	178.00	151.00	130.00	164.00	175.00	185.00	195.00	197.00	217.00	222.00	233.00	240.00	280.00	298.00	340.00	399.00	453.00	515.00	529.00	548.00	550.00	558.00	554.00	546.00	535.00	527.00	492.00	489.00	489.00	504.00	486.00	431.00	381.00	349.00	333.00	302.00	291.00	286.00	287.00	294.00	309.00	336.00	371.00	420.00	469.00	404.00	340.00	305.00	280.00	301.00	386.00	367.00	321.00	237.00	212.00	198.00	190.00	193.00	199.00	206.00	213.00	216.00	220.00	225.00	240.00	253.00	284.00	292.00	299.00	307.00	312.00	288.00	283.00	286.00	288.00	275.00	263.00	263.00	266.00	274.00	294.00	300.00	329.00	331.00	329.00	346.00	339.00	330.00	323.00	342.00	385.00	447.00	449.00	386.00	367.00	358.00	353.00	355.00	335.00	315.00	297.00	285.00	296.00	307.00	317.00	332.00	353.00	388.00	395.00	406.00	423.00	468.00	489.00	550.00	603.00	648.00	709.00	722.00	728.00	723.00	704.00	704.00	690.00	669.00	679.00	706.00	696.00	691.00	693.00	696.00	704.00	714.00	719.00	718.00	751.00	719.00	687.00	682.00	672.00	652.00	611.00	567.00	499.00	472.00	453.00	464.00	474.00	482.00	479.00	470.00	455.00	422.00	405.00	399.00	392.00	353.00	319.00	306.00	293.00	282.00	265.00	258.00	253.00	250.00	246.00	258.00	273.00	285.00	295.00	304.00	317.00	318.00	319.00	328.00	396.00	413.00	422.00	391.00	328.00	281.00	244.00	242.00	262.00	310.00	340.00	373.00	412.00	552.00	589.00	627.00	656.00	677.00	647.00	608.00	573.00	548.00	546.00	565.00	587.00	598.00	564.00	478.00	439.00	405.00	373.00	354.00	360.00	357.00	341.00	335.00	341.00	343.00	349.00	362.00	397.00	411.00	426.00	445.00	475.00
185.00	175.00	182.00	208.00	235.00	205.00	191.00	161.00	136.00	95.00	79.00	80.00	82.00	83.00	81.00	84.00	83.00	87.00	114.00	134.00	152.00	155.00	153.00	142.00	178.00	223.00	243.00	264.00	298.00	326.00	320.00	284.00	262.00	267.00	262.00	246.00	201.00	178.00	151.00	130.00	164.00	175.00	185.00	195.00	197.00	217.00	222.00	233.00	240.00	280.00	298.00	340.00	399.00	453.00	515.00	529.00	548.00	550.00	558.00	554.00	546.00	535.00	527.00	492.00	489.00	489.00	504.00	486.00	431.00	381.00	349.00	333.00	302.00	291.00	286.00	287.00	294.00	309.00	336.00	371.00	420.00	469.00	404.00	340.00	305.00	280.00	301.00	386.00	367.00	321.00	237.00	212.00	198.00	190.00	193.00	199.00	206.00	213.00	216.00	220.00	225.00	240.00	253.00	284.00	292.00	299.00	307.00	312.00	288.00	283.00	286.00	288.00	275.00	263.00	263.00	266.00	274.00	294.00	300.00	329.00	331.00	329.00	346.00	339.00	330.00	323.00	342.00	385.00	447.00	449.00	386.00	367.00	358.00	353.00	355.00	335.00	315.00	297.00	285.00	296.00	307.00	317.00	332.00	353.00	388.00	395.00	406.00	423.00	468.00	489.00	550.00	603.00	648.00	709.00	722.00	728.00	723.00	704.00	704.00	690.00	669.00	679.00	706.00	696.00	691.00	693.00	696.00	704.00	714.00	719.00	718.00	751.00	719.00	687.00	682.00	672.00	652.00	611.00	567.00	499.00	472.00	453.00	464.00	474.00	482.00	479.00	470.00	455.00	422.00	405.00	399.00	392.00	353.00	319.00	306.00	293.00	282.00	265.00	258.00	253.00	250.00	246.00	258.00	273.00	285.00	295.00	304.00	317.00	318.00	319.00	328.00	396.00	413.00	422.00	391.00	328.00	281.00	244.00	242.00	262.00	310.00	340.00	373.00	412.00	552.00	589.00	627.00	656.00	677.00	647.00	608.00	573.00	548.00	546.00	565.00	587.00	598.00	564.00	478.00	439.00	405.00	373.00	354.00	360.00	357.00	341.00	335.00	341.00	343.00	349.00	362.00	397.00	411.00	426.00	445.00	475.00
211.00	216.00	217.00	215.00	212.00	209.00	195.00	171.00	144.00	89.00	79.00	90.00	89.00	82.00	89.00	89.00	82.00	82.00	89.00	100.00	116.00	120.00	117.00	121.00	148.00	177.00	203.00	249.00	273.00	272.00	278.00	280.00	256.00	233.00	219.00	210.00	187.00	162.00	131.00	135.00	181.00	197.00	209.00	217.00	216.00	234.00	234.00	241.00	262.00	307.00	334.00	379.00	431.00	469.00	524.00	523.00	528.00	542.00	558.00	559.00	551.00	545.00	541.00	512.00	474.00	444.00	484.00	453.00	395.00	351.00	331.00	318.00	286.00	279.00	268.00	257.00	253.00	267.00	287.00	313.00	337.00	355.00	319.00	280.00	266.00	255.00	239.00	256.00	245.00	224.00	191.00	192.00	195.00	200.00	221.00	228.00	221.00	221.00	232.00	235.00	239.00	248.00	252.00	286.00	319.00	331.00	342.00	346.00	322.00	315.00	306.00	298.00	270.00	270.00	270.00	275.00	302.00	332.00	345.00	385.00	412.00	387.00	391.00	382.00	367.00	355.00	353.00	394.00	453.00	512.00	455.00	434.00	418.00	421.00	434.00	405.00	355.00	320.00	300.00	317.00	329.00	345.00	364.00	388.00	439.00	468.00	501.00	515.00	562.00	589.00	648.00	670.00	688.00	732.00	728.00	709.00	696.00	672.00	668.00	663.00	637.00	672.00	685.00	677.00	675.00	677.00	685.00	697.00	699.00	694.00	698.00	742.00	725.00	682.00	681.00	673.00	639.00	595.00	546.00	501.00	509.00	526.00	547.00	559.00	557.00	537.00	517.00	503.00	464.00	451.00	436.00	419.00	363.00	331.00	337.00	341.00	338.00	316.00	311.00	295.00	285.00	272.00	235.00	237.00	242.00	245.00	255.00	266.00	267.00	268.00	275.00	330.00	340.00	348.00	338.00	281.00	255.00	235.00	249.00	272.00	328.00	365.00	407.00	441.00	510.00	546.00	589.00	627.00	655.00	627.00	594.00	547.00	505.00	457.00	484.00	512.00	539.00	519.00	438.00	404.00	376.00	366.00	336.00	317.00	310.00	312.00	323.00	351.00	355.00	367.00	384.00	424.00	441.00	460.00	475.00	512.00
211.00	216.00	217.00	215.00	212.00	209.00	195.00	171.00	144.00	89.00	79.00	90.00	89.00	82.00	89.00	89.00	82.00	82.00	89.00	100.00	116.00	120.00	117.00	121.00	148.00	177.00	203.00	249.00	273.00	272.00	278.00	280.00	256.00	233.00	219.00	210.00	187.00	162.00	131.00	135.00	181.00	197.00	209.00	217.00	216.00	234.00	234.00	241.00	262.00	307.00	334.00	379.00	431.00	469.00	524.00	523.00	528.00	542.00	558.00	559.00	551.00	545.00	541.00	512.00	474.00	444.00	484.00	453.00	395.00	351.00	331.00	318.00	286.00	279.00	268.00	257.00	253.00	267.00	287.00	313.00	337.00	355.00	319.00	280.00	266.00	255.00	239.00	256.00	245.00	224.00	191.00	192.00	195.00	200.00	221.00	228.00	221.00	221.00	232.00	235.00	239.00	248.00	252.00	286.00	319.00	331.00	342.00	346.00	322.00	315.00	306.00	298.00	270.00	270.00	270.00	275.00	302.00	332.00	345.00	385.00	412.00	387.00	391.00	382.00	367.00	355.00	353.00	394.00	453.00	512.00	455.00	434.00	418.00	421.00	434.00	405.00	355.00	320.00	300.00	317.00	329.00	345.00	364.00	388.00	439.00	468.00	501.00	515.00	562.00	589.00	648.00	670.00	688.00	732.00	728.00	709.00	696.00	672.00	668.00	663.00	637.00	672.00	685.00	677.00	675.00	677.00	685.00	697.00	699.00	694.00	698.00	742.00	725.00	682.00	681.00	673.00	639.00	595.00	546.00	501.00	509.00	526.00	547.00	559.00	557.00	537.00	517.00	503.00	464.00	451.00	436.00	419.00	363.00	331.00	337.00	341.00	338.00	316.00	311.00	295.00	285.00	272.00	235.00	237.00	242.00	245.00	255.00	266.00	267.00	268.00	275.00	330.00	340.00	348.00	338.00	281.00	255.00	235.00	249.00	272.00	328.00	365.00	407.00	441.00	510.00	546.00	589.00	627.00	655.00	627.00	594.00	547.00	505.00	457.00	484.00	512.00	539.00	519.00	438.00	404.00	376.00	366.00	336.00	317.00	310.00	312.00	323.00	351.00	355.00	367.00	384.00	424.00	441.00	460.00	475.00	512.00
234.00	239.00	237.00	223.00	183.00	181.00	167.00	144.00	127.00	90.00	79.00	90.00	93.00	82.00	89.00	91.00	92.00	88.00	82.00	86.00	90.00	101.00	105.00	114.00	118.00	137.00	158.00	177.00	184.00	198.00	227.00	263.00	234.00	212.00	199.00	176.00	158.00	137.00	128.00	152.00	194.00	211.00	233.00	245.00	248.00	261.00	280.00	299.00	330.00	373.00	407.00	431.00	462.00	495.00	514.00	503.00	514.00	526.00	552.00	552.00	549.00	540.00	533.00	487.00	428.00	415.00	456.00	413.00	371.00	339.00	321.00	309.00	281.00	271.00	260.00	247.00	221.00	232.00	243.00	252.00	249.00	234.00	226.00	207.00	199.00	194.00	199.00	209.00	217.00	224.00	245.00	258.00	271.00	283.00	293.00	284.00	256.00	237.00	259.00	264.00	272.00	280.00	284.00	285.00	322.00	358.00	383.00	394.00	347.00	335.00	331.00	320.00	290.00	289.00	283.00	293.00	324.00	398.00	447.00	539.00	564.00	560.00	524.00	467.00	419.00	398.00	406.00	444.00	484.00	546.00	547.00	534.00	523.00	526.00	529.00	442.00	384.00	342.00	319.00	338.00	359.00	386.00	417.00	457.00	550.00	609.00	658.00	676.00	714.00	707.00	717.00	716.00	730.00	708.00	697.00	688.00	677.00	641.00	635.00	632.00	615.00	651.00	648.00	642.00	654.00	662.00	665.00	681.00	681.00	680.00	690.00	699.00	701.00	704.00	702.00	678.00	644.00	621.00	591.00	585.00	598.00	618.00	643.00	662.00	617.00	590.00	549.00	521.00	468.00	448.00	422.00	401.00	386.00	423.00	440.00	452.00	455.00	416.00	390.00	366.00	346.00	329.00	264.00	245.00	232.00	226.00	224.00	222.00	217.00	223.00	227.00	256.00	260.00	280.00	275.00	228.00	224.00	241.00	262.00	289.00	356.00	409.00	468.00	515.00	589.00	580.00	591.00	612.00	628.00	593.00	552.00	505.00	467.00	416.00	400.00	414.00	425.00	409.00	360.00	336.00	318.00	310.00	297.00	291.00	300.00	323.00	333.00	360.00	369.00	382.00	396.00	440.00	466.00	491.00	516.00	565.00
234.00	239.00	237.00	223.00	183.00	181.00	167.00	144.00	127.00	90.00	79.00	90.00	93.00	82.00	89.00	91.00	92.00	88.00	82.00	86.00	90.00	101.00	105.00	114.00	118.00	137.00	158.00	177.00	184.00	198.00	227.00	263.00	234.00	212.00	199.00	176.00	158.00	137.00	128.00	152.00	194.00	211.00	233.00	245.00	248.00	261.00	280.00	299.00	330.00	373.00	407.00	431.00	462.00	495.00	514.00	503.00	514.00	526.00	552.00	552.00	549.00	540.00	533.00	487.00	428.00	415.00	456.00	413.00	371.00	339.00	321.00	309.00	281.00	271.00	260.00	247.00	221.00	232.00	243.00	252.00	249.00	234.00	226.00	207.00	199.00	194.00	199.00	209.00	217.00	224.00	245.00	258.00	271.00	283.00	293.00	284.00	256.00	237.00	259.00	264.00	272.00	280.00	284.00	285.00	322.00	358.00	383.00	394.00	347.00	335.00	331.00	320.00	290.00	289.00	283.00	293.00	324.00	398.00	447.00	539.00	564.00	560.00	524.00	467.00	419.00	398.00	406.00	444.00	484.00	546.00	547.00	534.00	523.00	526.00	529.00	442.00	384.00	342.00	319.00	338.00	359.00	386.00	417.00	457.00	550.00	609.00	658.00	676.00	714.00	707.00	717.00	716.00	730.00	708.00	697.00	688.00	677.00	641.00	635.00	632.00	615.00	651.00	648.00	642.00	654.00	662.00	665.00	681.00	681.00	680.00	690.00	699.00	701.00	704.00	702.00	678.00	644.00	621.00	591.00	585.00	598.00	618.00	643.00	662.00	617.00	590.00	549.00	521.00	468.00	448.00	422.00	401.00	386.00	423.00	440.00	452.00	455.00	416.00	390.00	366.00	346.00	329.00	264.00	245.00	232.00	226.00	224.00	222.00	217.00	223.00	227.00	256.00	260.00	280.00	275.00	228.00	224.00	241.00	262.00	289.00	356.00	409.00	468.00	515.00	589.00	580.00	591.00	612.00	628.00	593.00	552.00	505.00	467.00	416.00	400.00	414.00	425.00	409.00	360.00	336.00	318.00	310.00	297.00	291.00	300.00	323.00	333.00	360.00	369.00	382.00	396.00	440.00	466.00	491.00	516.00	565.00
