470.00	470.00	521.00	520.00	532.00	551.00	582.00	553.00	582.00	566.00	498.00	464.00	455.00	466.00	518.00	560.00	595.00	587.00	556.00	566.00	540.00	519.00	441.00	446.00	428.00	438.00	463.00	475.00	473.00	447.00	457.00	456.00	410.00	401.00	335.00	335.00	334.00	350.00	390.00	382.00	394.00	381.00	401.00	373.00	349.00	315.00	280.00	246.00	258.00	250.00	209.00	230.00	273.00	282.00	306.00	311.00	362.00	393.00	425.00	458.00	472.00	507.00	542.00	499.00	522.00	446.00	439.00	396.00	382.00	381.00	407.00	425.00	405.00	388.00	407.00	442.00	467.00	483.00	491.00	467.00	460.00	436.00	511.00	475.00	461.00	428.00	431.00	433.00	371.00	338.00	312.00	343.00	430.00	407.00	406.00	402.00	379.00	358.00	351.00	349.00	338.00	329.00	348.00	380.00	361.00	425.00	421.00	379.00	361.00	350.00	355.00	383.00	403.00	410.00	410.00	423.00	493.00	527.00	505.00	462.00	465.00	428.00	407.00	482.00	467.00	442.00	433.00	452.00	471.00	480.00	468.00	469.00	502.00	508.00	475.00	462.00	483.00	555.00	557.00	542.00	534.00	550.00	478.00	475.00	534.00	592.00	644.00	667.00	670.00	670.00	654.00	669.00	676.00	668.00	651.00	534.00	488.00	419.00	434.00	499.00	524.00	505.00	504.00	498.00	534.00	500.00	489.00	490.00	470.00	460.00	468.00	467.00	455.00	434.00	456.00	434.00	323.00	333.00	337.00	332.00	329.00	331.00	383.00	348.00	332.00	317.00	451.00	518.00	538.00	527.00	494.00	427.00	418.00	398.00	362.00	322.00	296.00	320.00	323.00	326.00	326.00	326.00	325.00	327.00	324.00	368.00	342.00	332.00	340.00	363.00	401.00	385.00	411.00	452.00	475.00	478.00	444.00	403.00	379.00	400.00	413.00	430.00	450.00	507.00	583.00	632.00	669.00	657.00	634.00	521.00	488.00	524.00	542.00	556.00	486.00	442.00	459.00	494.00	513.00	555.00	543.00	550.00	610.00	655.00	539.00	505.00	490.00	489.00	509.00	638.00	646.00	632.00	617.00	626.00	619.00	614.00
470.00	470.00	521.00	520.00	532.00	551.00	582.00	553.00	582.00	566.00	498.00	464.00	455.00	466.00	518.00	560.00	595.00	587.00	556.00	566.00	540.00	519.00	441.00	446.00	428.00	438.00	463.00	475.00	473.00	447.00	457.00	456.00	410.00	401.00	335.00	335.00	334.00	350.00	390.00	382.00	394.00	381.00	401.00	373.00	349.00	315.00	280.00	246.00	258.00	250.00	209.00	230.00	273.00	282.00	306.00	311.00	362.00	393.00	425.00	458.00	472.00	507.00	542.00	499.00	522.00	446.00	439.00	396.00	382.00	381.00	407.00	425.00	405.00	388.00	407.00	442.00	467.00	483.00	491.00	467.00	460.00	436.00	511.00	475.00	461.00	428.00	431.00	433.00	371.00	338.00	312.00	343.00	430.00	407.00	406.00	402.00	379.00	358.00	351.00	349.00	338.00	329.00	348.00	380.00	361.00	425.00	421.00	379.00	361.00	350.00	355.00	383.00	403.00	410.00	410.00	423.00	493.00	527.00	505.00	462.00	465.00	428.00	407.00	482.00	467.00	442.00	433.00	452.00	471.00	480.00	468.00	469.00	502.00	508.00	475.00	462.00	483.00	555.00	557.00	542.00	534.00	550.00	478.00	475.00	534.00	592.00	644.00	667.00	670.00	670.00	654.00	669.00	676.00	668.00	651.00	534.00	488.00	419.00	434.00	499.00	524.00	505.00	504.00	498.00	534.00	500.00	489.00	490.00	470.00	460.00	468.00	467.00	455.00	434.00	456.00	434.00	323.00	333.00	337.00	332.00	329.00	331.00	383.00	348.00	332.00	317.00	451.00	518.00	538.00	527.00	494.00	427.00	418.00	398.00	362.00	322.00	296.00	320.00	323.00	326.00	326.00	326.00	325.00	327.00	324.00	368.00	342.00	332.00	340.00	363.00	401.00	385.00	411.00	452.00	475.00	478.00	444.00	403.00	379.00	400.00	413.00	430.00	450.00	507.00	583.00	632.00	669.00	657.00	634.00	521.00	488.00	524.00	542.00	556.00	486.00	442.00	459.00	494.00	513.00	555.00	543.00	550.00	610.00	655.00	539.00	505.00	490.00	489.00	509.00	638.00	646.00	632.00	617.00	626.00	619.00	614.00
471.00	495.00	591.00	566.00	549.00	555.00	557.00	550.00	580.00	561.00	515.00	480.00	460.00	487.00	524.00	542.00	563.00	551.00	554.00	550.00	480.00	448.00	427.00	430.00	434.00	482.00	517.00	535.00	534.00	501.00	487.00	492.00	460.00	409.00	334.00	339.00	374.00	406.00	389.00	370.00	388.00	367.00	386.00	397.00	352.00	323.00	315.00	216.00	210.00	209.00	240.00	273.00	302.00	279.00	310.00	337.00	373.00	381.00	414.00	445.00	480.00	547.00	553.00	496.00	511.00	435.00	435.00	394.00	387.00	385.00	381.00	383.00	386.00	382.00	395.00	439.00	489.00	469.00	464.00	445.00	443.00	431.00	472.00	451.00	428.00	424.00	457.00	448.00	375.00	329.00	301.00	325.00	379.00	384.00	396.00	386.00	398.00	394.00	348.00	326.00	325.00	341.00	377.00	382.00	374.00	456.00	427.00	371.00	375.00	363.00	370.00	398.00	402.00	394.00	402.00	452.00	493.00	496.00	498.00	465.00	444.00	414.00	455.00	509.00	500.00	492.00	457.00	439.00	441.00	441.00	443.00	457.00	484.00	489.00	461.00	455.00	464.00	507.00	515.00	515.00	511.00	508.00	464.00	475.00	519.00	583.00	600.00	613.00	611.00	615.00	616.00	635.00	657.00	655.00	639.00	516.00	459.00	421.00	418.00	468.00	473.00	472.00	475.00	463.00	497.00	460.00	473.00	509.00	480.00	491.00	501.00	479.00	441.00	462.00	451.00	442.00	321.00	329.00	332.00	329.00	321.00	318.00	337.00	330.00	329.00	328.00	454.00	498.00	493.00	499.00	518.00	468.00	447.00	447.00	446.00	334.00	294.00	318.00	319.00	321.00	325.00	325.00	327.00	325.00	387.00	465.00	389.00	366.00	344.00	434.00	487.00	457.00	459.00	484.00	551.00	586.00	538.00	431.00	383.00	418.00	436.00	481.00	469.00	552.00	629.00	666.00	708.00	673.00	634.00	554.00	514.00	560.00	559.00	569.00	565.00	447.00	463.00	511.00	520.00	541.00	530.00	531.00	538.00	549.00	569.00	584.00	511.00	490.00	523.00	613.00	616.00	614.00	608.00	602.00	600.00	607.00
491.00	533.00	613.00	614.00	601.00	628.00	626.00	570.00	564.00	546.00	542.00	507.00	483.00	496.00	512.00	508.00	531.00	530.00	573.00	561.00	440.00	432.00	450.00	474.00	485.00	517.00	556.00	559.00	533.00	518.00	494.00	470.00	466.00	417.00	331.00	342.00	406.00	447.00	380.00	370.00	374.00	366.00	390.00	404.00	372.00	318.00	280.00	209.00	205.00	217.00	285.00	320.00	292.00	298.00	353.00	395.00	371.00	394.00	422.00	445.00	497.00	543.00	533.00	474.00	465.00	417.00	416.00	414.00	402.00	393.00	395.00	399.00	371.00	389.00	388.00	395.00	418.00	430.00	422.00	432.00	424.00	417.00	427.00	424.00	421.00	430.00	451.00	446.00	390.00	339.00	301.00	318.00	358.00	404.00	414.00	398.00	411.00	347.00	339.00	354.00	384.00	430.00	393.00	397.00	371.00	408.00	419.00	392.00	399.00	361.00	399.00	392.00	395.00	406.00	447.00	491.00	526.00	504.00	495.00	465.00	424.00	421.00	465.00	512.00	507.00	499.00	473.00	463.00	475.00	489.00	512.00	516.00	486.00	476.00	456.00	456.00	457.00	470.00	471.00	483.00	483.00	477.00	466.00	467.00	510.00	558.00	575.00	601.00	623.00	636.00	633.00	620.00	604.00	609.00	585.00	531.00	489.00	426.00	414.00	438.00	438.00	432.00	427.00	422.00	423.00	434.00	448.00	478.00	485.00	516.00	531.00	493.00	448.00	429.00	408.00	406.00	327.00	328.00	322.00	329.00	362.00	370.00	323.00	322.00	337.00	365.00	459.00	469.00	481.00	503.00	501.00	482.00	460.00	480.00	507.00	324.00	292.00	310.00	316.00	318.00	322.00	319.00	331.00	347.00	409.00	449.00	418.00	375.00	348.00	425.00	478.00	469.00	458.00	548.00	650.00	675.00	597.00	532.00	370.00	399.00	448.00	481.00	474.00	530.00	621.00	660.00	702.00	684.00	599.00	562.00	545.00	590.00	600.00	626.00	648.00	502.00	470.00	525.00	556.00	571.00	588.00	566.00	552.00	554.00	545.00	570.00	498.00	537.00	579.00	644.00	649.00	641.00	650.00	618.00	613.00	646.00
538.00	559.00	618.00	623.00	614.00	614.00	621.00	573.00	586.00	592.00	609.00	576.00	547.00	527.00	518.00	499.00	496.00	515.00	559.00	537.00	432.00	464.00	514.00	534.00	548.00	541.00	538.00	531.00	519.00	505.00	491.00	465.00	436.00	404.00	341.00	330.00	341.00	377.00	381.00	393.00	395.00	388.00	368.00	382.00	401.00	362.00	282.00	206.00	211.00	248.00	342.00	351.00	293.00	306.00	335.00	366.00	385.00	426.00	448.00	429.00	467.00	506.00	507.00	456.00	456.00	398.00	410.00	436.00	425.00	393.00	424.00	392.00	368.00	387.00	375.00	375.00	375.00	379.00	405.00	429.00	416.00	402.00	389.00	421.00	423.00	410.00	415.00	426.00	374.00	324.00	293.00	289.00	344.00	374.00	381.00	366.00	355.00	365.00	405.00	431.00	451.00	501.00	453.00	456.00	391.00	390.00	397.00	395.00	394.00	380.00	444.00	416.00	408.00	424.00	486.00	518.00	532.00	512.00	499.00	432.00	406.00	433.00	450.00	494.00	491.00	482.00	493.00	505.00	515.00	528.00	545.00	558.00	573.00	559.00	472.00	457.00	466.00	479.00	477.00	465.00	460.00	459.00	457.00	460.00	513.00	580.00	646.00	656.00	665.00	675.00	617.00	636.00	587.00	559.00	527.00	467.00	459.00	427.00	413.00	416.00	423.00	437.00	453.00	442.00	413.00	409.00	410.00	426.00	467.00	508.00	509.00	472.00	475.00	461.00	402.00	355.00	321.00	329.00	330.00	383.00	415.00	390.00	320.00	346.00	381.00	414.00	470.00	472.00	470.00	460.00	469.00	495.00	485.00	493.00	502.00	311.00	288.00	308.00	315.00	331.00	328.00	339.00	409.00	422.00	380.00	405.00	379.00	366.00	388.00	455.00	472.00	480.00	477.00	630.00	700.00	708.00	666.00	674.00	376.00	397.00	423.00	456.00	495.00	499.00	556.00	634.00	649.00	679.00	596.00	575.00	587.00	594.00	608.00	620.00	639.00	548.00	469.00	536.00	603.00	613.00	597.00	584.00	562.00	539.00	538.00	533.00	514.00	567.00	611.00	644.00	655.00	640.00	670.00	665.00	679.00	713.00
609.00	602.00	631.00	639.00	640.00	629.00	599.00	593.00	602.00	632.00	642.00	618.00	583.00	569.00	553.00	549.00	508.00	522.00	521.00	480.00	461.00	512.00	574.00	606.00	607.00	565.00	523.00	516.00	517.00	476.00	461.00	449.00	410.00	389.00	353.00	330.00	330.00	333.00	354.00	386.00	387.00	402.00	384.00	322.00	343.00	332.00	281.00	207.00	220.00	246.00	310.00	323.00	295.00	306.00	318.00	348.00	386.00	398.00	419.00	413.00	427.00	453.00	444.00	427.00	422.00	394.00	388.00	416.00	411.00	393.00	445.00	375.00	395.00	417.00	359.00	348.00	362.00	342.00	367.00	385.00	387.00	369.00	355.00	420.00	429.00	399.00	395.00	412.00	340.00	298.00	286.00	290.00	366.00	341.00	341.00	358.00	333.00	392.00	465.00	490.00	506.00	538.00	507.00	534.00	463.00	413.00	434.00	401.00	384.00	406.00	463.00	436.00	429.00	445.00	473.00	490.00	504.00	514.00	519.00	424.00	408.00	438.00	458.00	499.00	507.00	483.00	500.00	534.00	544.00	542.00	538.00	542.00	566.00	551.00	480.00	463.00	495.00	530.00	520.00	472.00	462.00	467.00	454.00	467.00	520.00	624.00	672.00	672.00	657.00	625.00	610.00	586.00	570.00	547.00	540.00	501.00	466.00	429.00	413.00	422.00	428.00	458.00	493.00	500.00	467.00	442.00	415.00	399.00	456.00	522.00	531.00	505.00	497.00	410.00	367.00	341.00	330.00	340.00	344.00	371.00	393.00	361.00	330.00	372.00	412.00	440.00	468.00	464.00	447.00	438.00	433.00	470.00	475.00	468.00	452.00	362.00	312.00	293.00	313.00	355.00	334.00	388.00	412.00	378.00	375.00	424.00	470.00	432.00	438.00	500.00	492.00	510.00	512.00	648.00	703.00	731.00	763.00	752.00	377.00	396.00	472.00	555.00	610.00	594.00	627.00	671.00	641.00	628.00	618.00	620.00	611.00	577.00	572.00	568.00	575.00	520.00	466.00	495.00	521.00	589.00	583.00	554.00	550.00	529.00	509.00	495.00	514.00	542.00	598.00	637.00	642.00	615.00	655.00	685.00	731.00	720.00
609.00	602.00	631.00	639.00	640.00	629.00	599.00	593.00	602.00	632.00	642.00	618.00	583.00	569.00	553.00	549.00	508.00	522.00	521.00	480.00	461.00	512.00	574.00	606.00	607.00	565.00	523.00	516.00	517.00	476.00	461.00	449.00	410.00	389.00	353.00	330.00	330.00	333.00	354.00	386.00	387.00	402.00	384.00	322.00	343.00	332.00	281.00	207.00	220.00	246.00	310.00	323.00	295.00	306.00	318.00	348.00	386.00	398.00	419.00	413.00	427.00	453.00	444.00	427.00	422.00	394.00	388.00	416.00	411.00	393.00	445.00	375.00	395.00	417.00	359.00	348.00	362.00	342.00	367.00	385.00	387.00	369.00	355.00	420.00	429.00	399.00	395.00	412.00	340.00	298.00	286.00	290.00	366.00	341.00	341.00	358.00	333.00	392.00	465.00	490.00	506.00	538.00	507.00	534.00	463.00	413.00	434.00	401.00	384.00	406.00	463.00	436.00	429.00	445.00	473.00	490.00	504.00	514.00	519.00	424.00	408.00	438.00	458.00	499.00	507.00	483.00	500.00	534.00	544.00	542.00	538.00	542.00	566.00	551.00	480.00	463.00	495.00	530.00	520.00	472.00	462.00	467.00	454.00	467.00	520.00	624.00	672.00	672.00	657.00	625.00	610.00	586.00	570.00	547.00	540.00	501.00	466.00	429.00	413.00	422.00	428.00	458.00	493.00	500.00	467.00	442.00	415.00	399.00	456.00	522.00	531.00	505.00	497.00	410.00	367.00	341.00	330.00	340.00	344.00	371.00	393.00	361.00	330.00	372.00	412.00	440.00	468.00	464.00	447.00	438.00	433.00	470.00	475.00	468.00	452.00	362.00	312.00	293.00	313.00	355.00	334.00	388.00	412.00	378.00	375.00	424.00	470.00	432.00	438.00	500.00	492.00	510.00	512.00	648.00	703.00	731.00	763.00	752.00	377.00	396.00	472.00	555.00	610.00	594.00	627.00	671.00	641.00	628.00	618.00	620.00	611.00	577.00	572.00	568.00	575.00	520.00	466.00	495.00	521.00	589.00	583.00	554.00	550.00	529.00	509.00	495.00	514.00	542.00	598.00	637.00	642.00	615.00	655.00	685.00	731.00	720.00
622.00	628.00	581.00	572.00	595.00	606.00	569.00	595.00	635.00	620.00	607.00	615.00	614.00	557.00	532.00	564.00	491.00	486.00	460.00	460.00	522.00	554.00	597.00	618.00	626.00	559.00	530.00	517.00	505.00	511.00	486.00	415.00	412.00	435.00	430.00	393.00	373.00	399.00	386.00	361.00	329.00	322.00	314.00	300.00	361.00	350.00	256.00	210.00	207.00	237.00	289.00	337.00	300.00	332.00	351.00	362.00	364.00	397.00	447.00	442.00	457.00	470.00	512.00	510.00	437.00	403.00	385.00	380.00	378.00	399.00	360.00	350.00	371.00	372.00	342.00	328.00	328.00	309.00	308.00	313.00	323.00	353.00	342.00	327.00	334.00	332.00	326.00	313.00	336.00	345.00	296.00	287.00	320.00	318.00	304.00	331.00	368.00	528.00	554.00	585.00	603.00	581.00	623.00	583.00	502.00	421.00	400.00	396.00	424.00	479.00	454.00	470.00	475.00	461.00	496.00	521.00	490.00	488.00	469.00	405.00	431.00	465.00	485.00	489.00	499.00	521.00	535.00	557.00	555.00	546.00	555.00	574.00	609.00	586.00	465.00	470.00	508.00	533.00	527.00	530.00	526.00	461.00	455.00	473.00	515.00	593.00	625.00	633.00	612.00	618.00	673.00	661.00	667.00	659.00	635.00	621.00	577.00	437.00	449.00	421.00	430.00	478.00	530.00	573.00	546.00	471.00	455.00	433.00	400.00	402.00	402.00	404.00	406.00	392.00	368.00	346.00	330.00	415.00	384.00	374.00	353.00	325.00	322.00	355.00	422.00	458.00	518.00	494.00	469.00	444.00	431.00	392.00	368.00	342.00	338.00	321.00	318.00	305.00	326.00	312.00	320.00	323.00	333.00	349.00	471.00	502.00	519.00	448.00	522.00	548.00	558.00	560.00	591.00	704.00	723.00	778.00	788.00	771.00	425.00	416.00	524.00	579.00	652.00	677.00	683.00	675.00	660.00	593.00	592.00	621.00	637.00	577.00	590.00	568.00	500.00	522.00	511.00	542.00	552.00	548.00	550.00	522.00	528.00	558.00	497.00	491.00	495.00	492.00	494.00	576.00	619.00	605.00	621.00	682.00	692.00	696.00
622.00	628.00	581.00	572.00	595.00	606.00	569.00	595.00	635.00	620.00	607.00	615.00	614.00	557.00	532.00	564.00	491.00	486.00	460.00	460.00	522.00	554.00	597.00	618.00	626.00	559.00	530.00	517.00	505.00	511.00	486.00	415.00	412.00	435.00	430.00	393.00	373.00	399.00	386.00	361.00	329.00	322.00	314.00	300.00	361.00	350.00	256.00	210.00	207.00	237.00	289.00	337.00	300.00	332.00	351.00	362.00	364.00	397.00	447.00	442.00	457.00	470.00	512.00	510.00	437.00	403.00	385.00	380.00	378.00	399.00	360.00	350.00	371.00	372.00	342.00	328.00	328.00	309.00	308.00	313.00	323.00	353.00	342.00	327.00	334.00	332.00	326.00	313.00	336.00	345.00	296.00	287.00	320.00	318.00	304.00	331.00	368.00	528.00	554.00	585.00	603.00	581.00	623.00	583.00	502.00	421.00	400.00	396.00	424.00	479.00	454.00	470.00	475.00	461.00	496.00	521.00	490.00	488.00	469.00	405.00	431.00	465.00	485.00	489.00	499.00	521.00	535.00	557.00	555.00	546.00	555.00	574.00	609.00	586.00	465.00	470.00	508.00	533.00	527.00	530.00	526.00	461.00	455.00	473.00	515.00	593.00	625.00	633.00	612.00	618.00	673.00	661.00	667.00	659.00	635.00	621.00	577.00	437.00	449.00	421.00	430.00	478.00	530.00	573.00	546.00	471.00	455.00	433.00	400.00	402.00	402.00	404.00	406.00	392.00	368.00	346.00	330.00	415.00	384.00	374.00	353.00	325.00	322.00	355.00	422.00	458.00	518.00	494.00	469.00	444.00	431.00	392.00	368.00	342.00	338.00	321.00	318.00	305.00	326.00	312.00	320.00	323.00	333.00	349.00	471.00	502.00	519.00	448.00	522.00	548.00	558.00	560.00	591.00	704.00	723.00	778.00	788.00	771.00	425.00	416.00	524.00	579.00	652.00	677.00	683.00	675.00	660.00	593.00	592.00	621.00	637.00	577.00	590.00	568.00	500.00	522.00	511.00	542.00	552.00	548.00	550.00	522.00	528.00	558.00	497.00	491.00	495.00	492.00	494.00	576.00	619.00	605.00	621.00	682.00	692.00	696.00
606.00	615.00	585.00	570.00	595.00	574.00	572.00	615.00	614.00	598.00	588.00	588.00	584.00	540.00	513.00	517.00	499.00	491.00	488.00	498.00	548.00	563.00	568.00	577.00	578.00	542.00	541.00	555.00	568.00	454.00	431.00	438.00	472.00	498.00	460.00	426.00	393.00	405.00	401.00	388.00	373.00	360.00	337.00	306.00	341.00	301.00	259.00	211.00	205.00	225.00	278.00	308.00	299.00	303.00	308.00	303.00	342.00	364.00	405.00	409.00	408.00	453.00	468.00	494.00	445.00	399.00	392.00	396.00	362.00	380.00	343.00	326.00	340.00	365.00	343.00	324.00	313.00	305.00	317.00	326.00	364.00	391.00	361.00	337.00	370.00	342.00	305.00	303.00	354.00	334.00	309.00	276.00	319.00	301.00	311.00	345.00	402.00	550.00	576.00	622.00	620.00	607.00	628.00	592.00	512.00	417.00	421.00	435.00	490.00	520.00	466.00	472.00	461.00	451.00	499.00	535.00	524.00	499.00	474.00	406.00	437.00	465.00	496.00	490.00	503.00	528.00	547.00	546.00	542.00	539.00	539.00	555.00	566.00	533.00	448.00	463.00	493.00	514.00	516.00	530.00	547.00	461.00	456.00	476.00	510.00	557.00	611.00	621.00	620.00	644.00	665.00	687.00	694.00	677.00	660.00	652.00	561.00	457.00	457.00	418.00	439.00	480.00	528.00	563.00	565.00	477.00	459.00	449.00	423.00	409.00	405.00	401.00	384.00	351.00	343.00	343.00	321.00	346.00	365.00	366.00	333.00	320.00	348.00	351.00	416.00	459.00	482.00	462.00	448.00	447.00	452.00	433.00	426.00	339.00	325.00	319.00	306.00	321.00	352.00	360.00	320.00	319.00	328.00	368.00	445.00	489.00	474.00	479.00	551.00	578.00	597.00	586.00	627.00	706.00	741.00	767.00	782.00	763.00	450.00	425.00	533.00	627.00	677.00	690.00	665.00	662.00	650.00	620.00	636.00	624.00	630.00	569.00	537.00	538.00	504.00	549.00	536.00	540.00	579.00	567.00	532.00	510.00	510.00	512.00	489.00	490.00	494.00	521.00	552.00	549.00	541.00	537.00	545.00	632.00	643.00	648.00
587.00	603.00	585.00	563.00	562.00	560.00	595.00	614.00	598.00	607.00	603.00	584.00	560.00	530.00	524.00	519.00	489.00	495.00	507.00	512.00	550.00	568.00	567.00	564.00	564.00	560.00	569.00	596.00	610.00	474.00	485.00	512.00	538.00	532.00	459.00	431.00	398.00	384.00	414.00	419.00	407.00	409.00	353.00	336.00	340.00	284.00	285.00	253.00	204.00	212.00	265.00	312.00	312.00	331.00	346.00	296.00	346.00	409.00	418.00	366.00	400.00	443.00	423.00	432.00	430.00	363.00	408.00	410.00	363.00	379.00	367.00	324.00	347.00	346.00	340.00	326.00	303.00	302.00	329.00	362.00	396.00	387.00	421.00	374.00	369.00	332.00	322.00	344.00	330.00	326.00	301.00	275.00	305.00	328.00	299.00	337.00	420.00	526.00	559.00	597.00	605.00	601.00	602.00	561.00	505.00	418.00	428.00	446.00	505.00	536.00	472.00	476.00	453.00	454.00	483.00	508.00	514.00	523.00	482.00	399.00	419.00	473.00	452.00	511.00	520.00	532.00	562.00	551.00	548.00	535.00	522.00	524.00	513.00	464.00	441.00	455.00	491.00	543.00	552.00	557.00	551.00	456.00	461.00	486.00	521.00	576.00	628.00	638.00	628.00	620.00	666.00	693.00	695.00	691.00	668.00	660.00	583.00	479.00	438.00	425.00	455.00	499.00	521.00	546.00	557.00	489.00	458.00	454.00	451.00	444.00	435.00	435.00	424.00	413.00	403.00	327.00	316.00	327.00	328.00	331.00	325.00	321.00	347.00	342.00	367.00	402.00	448.00	402.00	423.00	462.00	476.00	424.00	372.00	332.00	325.00	308.00	289.00	326.00	359.00	366.00	314.00	319.00	346.00	376.00	455.00	473.00	471.00	521.00	557.00	633.00	640.00	621.00	656.00	716.00	726.00	738.00	750.00	732.00	477.00	458.00	553.00	633.00	667.00	684.00	646.00	605.00	599.00	667.00	625.00	629.00	625.00	644.00	594.00	522.00	510.00	559.00	559.00	553.00	596.00	570.00	545.00	562.00	522.00	521.00	491.00	530.00	553.00	603.00	638.00	596.00	554.00	525.00	530.00	606.00	614.00	605.00
575.00	566.00	592.00	564.00	555.00	562.00	571.00	582.00	608.00	625.00	604.00	561.00	543.00	533.00	540.00	532.00	512.00	495.00	524.00	511.00	561.00	593.00	599.00	571.00	574.00	565.00	581.00	587.00	529.00	531.00	576.00	595.00	585.00	576.00	518.00	444.00	406.00	417.00	431.00	427.00	418.00	399.00	352.00	343.00	334.00	324.00	342.00	350.00	209.00	209.00	296.00	335.00	345.00	334.00	334.00	291.00	347.00	435.00	379.00	356.00	392.00	452.00	425.00	401.00	380.00	367.00	381.00	379.00	369.00	410.00	387.00	327.00	352.00	361.00	347.00	302.00	299.00	315.00	322.00	355.00	376.00	370.00	424.00	357.00	336.00	351.00	353.00	360.00	345.00	325.00	292.00	276.00	354.00	314.00	292.00	335.00	431.00	500.00	565.00	601.00	588.00	592.00	573.00	518.00	458.00	410.00	429.00	440.00	485.00	491.00	500.00	528.00	496.00	458.00	481.00	502.00	512.00	502.00	433.00	428.00	424.00	402.00	406.00	528.00	530.00	520.00	523.00	534.00	567.00	560.00	528.00	505.00	472.00	449.00	433.00	463.00	504.00	567.00	561.00	551.00	518.00	455.00	466.00	481.00	513.00	604.00	637.00	627.00	629.00	621.00	683.00	696.00	699.00	682.00	687.00	664.00	560.00	530.00	465.00	420.00	453.00	496.00	527.00	542.00	566.00	488.00	449.00	444.00	465.00	479.00	470.00	456.00	449.00	402.00	372.00	339.00	322.00	320.00	321.00	317.00	312.00	311.00	322.00	324.00	327.00	365.00	367.00	348.00	434.00	464.00	477.00	400.00	354.00	331.00	322.00	300.00	290.00	339.00	339.00	334.00	311.00	357.00	405.00	416.00	433.00	443.00	475.00	508.00	575.00	668.00	684.00	690.00	700.00	726.00	716.00	721.00	720.00	712.00	531.00	468.00	556.00	630.00	661.00	662.00	644.00	598.00	618.00	710.00	645.00	626.00	615.00	654.00	606.00	514.00	511.00	532.00	547.00	554.00	586.00	557.00	584.00	577.00	568.00	499.00	489.00	505.00	518.00	563.00	607.00	603.00	546.00	528.00	579.00	664.00	641.00	634.00
575.00	563.00	591.00	566.00	554.00	557.00	561.00	562.00	621.00	612.00	588.00	544.00	532.00	529.00	518.00	507.00	494.00	498.00	508.00	521.00	553.00	592.00	613.00	580.00	571.00	559.00	586.00	557.00	530.00	585.00	601.00	596.00	589.00	581.00	506.00	451.00	437.00	473.00	480.00	438.00	415.00	385.00	372.00	366.00	309.00	316.00	392.00	386.00	220.00	205.00	307.00	330.00	384.00	371.00	360.00	299.00	338.00	383.00	349.00	342.00	390.00	442.00	448.00	454.00	437.00	418.00	396.00	356.00	359.00	387.00	401.00	332.00	336.00	377.00	365.00	314.00	310.00	341.00	318.00	319.00	336.00	350.00	380.00	347.00	362.00	364.00	352.00	327.00	353.00	325.00	292.00	283.00	319.00	294.00	293.00	333.00	420.00	478.00	544.00	577.00	557.00	545.00	558.00	533.00	490.00	428.00	433.00	458.00	481.00	440.00	529.00	565.00	543.00	451.00	463.00	476.00	474.00	459.00	438.00	466.00	466.00	454.00	408.00	437.00	468.00	470.00	502.00	518.00	547.00	556.00	551.00	533.00	458.00	453.00	429.00	473.00	518.00	563.00	552.00	533.00	490.00	458.00	467.00	479.00	498.00	603.00	642.00	655.00	629.00	641.00	686.00	700.00	699.00	679.00	648.00	599.00	606.00	612.00	510.00	422.00	460.00	502.00	527.00	529.00	549.00	466.00	452.00	471.00	497.00	507.00	500.00	479.00	467.00	408.00	382.00	391.00	394.00	345.00	334.00	319.00	313.00	305.00	310.00	319.00	320.00	328.00	323.00	326.00	360.00	352.00	351.00	360.00	327.00	318.00	323.00	292.00	313.00	337.00	324.00	318.00	312.00	380.00	444.00	433.00	450.00	479.00	512.00	537.00	585.00	678.00	666.00	723.00	732.00	717.00	715.00	726.00	706.00	700.00	558.00	474.00	572.00	644.00	671.00	678.00	637.00	612.00	628.00	673.00	680.00	656.00	629.00	628.00	651.00	559.00	534.00	579.00	534.00	536.00	529.00	595.00	580.00	605.00	616.00	516.00	498.00	497.00	519.00	570.00	587.00	598.00	537.00	533.00	591.00	668.00	650.00	625.00
592.00	578.00	561.00	560.00	562.00	566.00	559.00	555.00	617.00	632.00	605.00	536.00	553.00	556.00	516.00	499.00	502.00	507.00	496.00	531.00	545.00	547.00	559.00	542.00	543.00	599.00	550.00	532.00	568.00	590.00	593.00	599.00	577.00	532.00	471.00	479.00	480.00	467.00	448.00	409.00	391.00	402.00	412.00	392.00	296.00	298.00	363.00	318.00	209.00	206.00	275.00	324.00	367.00	380.00	354.00	307.00	323.00	351.00	335.00	334.00	378.00	404.00	411.00	435.00	421.00	447.00	411.00	378.00	401.00	348.00	367.00	337.00	335.00	344.00	350.00	329.00	298.00	308.00	308.00	312.00	315.00	335.00	366.00	358.00	397.00	374.00	362.00	337.00	324.00	307.00	279.00	281.00	294.00	293.00	315.00	348.00	395.00	434.00	497.00	536.00	520.00	509.00	503.00	485.00	457.00	428.00	445.00	497.00	489.00	436.00	538.00	543.00	516.00	440.00	438.00	443.00	430.00	422.00	426.00	435.00	423.00	437.00	439.00	416.00	458.00	480.00	523.00	545.00	564.00	587.00	587.00	514.00	431.00	427.00	450.00	492.00	532.00	543.00	524.00	494.00	465.00	465.00	463.00	488.00	494.00	555.00	637.00	653.00	643.00	638.00	666.00	663.00	631.00	617.00	629.00	541.00	555.00	572.00	541.00	420.00	459.00	493.00	512.00	516.00	504.00	454.00	460.00	495.00	573.00	544.00	513.00	504.00	485.00	444.00	429.00	457.00	480.00	419.00	415.00	366.00	335.00	319.00	307.00	308.00	319.00	321.00	324.00	324.00	323.00	325.00	330.00	329.00	313.00	320.00	320.00	300.00	320.00	322.00	322.00	316.00	310.00	344.00	403.00	433.00	473.00	502.00	540.00	596.00	600.00	638.00	659.00	700.00	730.00	720.00	719.00	740.00	711.00	688.00	554.00	485.00	572.00	638.00	688.00	692.00	641.00	612.00	635.00	682.00	684.00	671.00	638.00	627.00	636.00	577.00	526.00	569.00	572.00	538.00	532.00	559.00	620.00	655.00	631.00	522.00	585.00	591.00	622.00	638.00	614.00	568.00	527.00	533.00	623.00	664.00	660.00	641.00
592.00	578.00	561.00	560.00	562.00	566.00	559.00	555.00	617.00	632.00	605.00	536.00	553.00	556.00	516.00	499.00	502.00	507.00	496.00	531.00	545.00	547.00	559.00	542.00	543.00	599.00	550.00	532.00	568.00	590.00	593.00	599.00	577.00	532.00	471.00	479.00	480.00	467.00	448.00	409.00	391.00	402.00	412.00	392.00	296.00	298.00	363.00	318.00	209.00	206.00	275.00	324.00	367.00	380.00	354.00	307.00	323.00	351.00	335.00	334.00	378.00	404.00	411.00	435.00	421.00	447.00	411.00	378.00	401.00	348.00	367.00	337.00	335.00	344.00	350.00	329.00	298.00	308.00	308.00	312.00	315.00	335.00	366.00	358.00	397.00	374.00	362.00	337.00	324.00	307.00	279.00	281.00	294.00	293.00	315.00	348.00	395.00	434.00	497.00	536.00	520.00	509.00	503.00	485.00	457.00	428.00	445.00	497.00	489.00	436.00	538.00	543.00	516.00	440.00	438.00	443.00	430.00	422.00	426.00	435.00	423.00	437.00	439.00	416.00	458.00	480.00	523.00	545.00	564.00	587.00	587.00	514.00	431.00	427.00	450.00	492.00	532.00	543.00	524.00	494.00	465.00	465.00	463.00	488.00	494.00	555.00	637.00	653.00	643.00	638.00	666.00	663.00	631.00	617.00	629.00	541.00	555.00	572.00	541.00	420.00	459.00	493.00	512.00	516.00	504.00	454.00	460.00	495.00	573.00	544.00	513.00	504.00	485.00	444.00	429.00	457.00	480.00	419.00	415.00	366.00	335.00	319.00	307.00	308.00	319.00	321.00	324.00	324.00	323.00	325.00	330.00	329.00	313.00	320.00	320.00	300.00	320.00	322.00	322.00	316.00	310.00	344.00	403.00	433.00	473.00	502.00	540.00	596.00	600.00	638.00	659.00	700.00	730.00	720.00	719.00	740.00	711.00	688.00	554.00	485.00	572.00	638.00	688.00	692.00	641.00	612.00	635.00	682.00	684.00	671.00	638.00	627.00	636.00	577.00	526.00	569.00	572.00	538.00	532.00	559.00	620.00	655.00	631.00	522.00	585.00	591.00	622.00	638.00	614.00	568.00	527.00	533.00	623.00	664.00	660.00	641.00
591.00	565.00	615.00	631.00	620.00	571.00	550.00	559.00	597.00	599.00	560.00	582.00	571.00	573.00	556.00	519.00	503.00	507.00	507.00	563.00	601.00	591.00	526.00	523.00	551.00	536.00	545.00	583.00	585.00	569.00	545.00	520.00	550.00	514.00	494.00	474.00	473.00	442.00	434.00	451.00	436.00	444.00	445.00	414.00	354.00	341.00	325.00	204.00	223.00	257.00	334.00	351.00	379.00	362.00	367.00	326.00	284.00	301.00	346.00	364.00	404.00	404.00	369.00	346.00	305.00	332.00	339.00	335.00	347.00	345.00	346.00	314.00	319.00	327.00	349.00	345.00	311.00	288.00	309.00	294.00	291.00	348.00	388.00	379.00	397.00	388.00	355.00	329.00	298.00	297.00	276.00	286.00	304.00	348.00	403.00	475.00	498.00	503.00	486.00	450.00	438.00	432.00	434.00	455.00	456.00	418.00	426.00	469.00	448.00	420.00	468.00	452.00	422.00	467.00	435.00	418.00	418.00	423.00	446.00	455.00	445.00	418.00	399.00	447.00	477.00	516.00	546.00	570.00	553.00	537.00	506.00	440.00	424.00	437.00	455.00	492.00	510.00	448.00	445.00	449.00	450.00	459.00	476.00	480.00	473.00	550.00	612.00	618.00	619.00	613.00	620.00	612.00	607.00	594.00	557.00	489.00	498.00	517.00	486.00	417.00	441.00	505.00	554.00	534.00	485.00	485.00	484.00	492.00	555.00	552.00	549.00	540.00	531.00	489.00	476.00	470.00	499.00	450.00	457.00	441.00	411.00	402.00	434.00	438.00	376.00	332.00	329.00	336.00	326.00	355.00	380.00	341.00	322.00	319.00	306.00	300.00	321.00	323.00	321.00	316.00	324.00	398.00	457.00	511.00	549.00	558.00	531.00	547.00	640.00	748.00	699.00	694.00	741.00	723.00	732.00	755.00	700.00	673.00	491.00	481.00	531.00	608.00	723.00	684.00	622.00	624.00	634.00	659.00	688.00	688.00	647.00	647.00	635.00	555.00	528.00	571.00	595.00	568.00	536.00	610.00	651.00	602.00	557.00	521.00	627.00	631.00	653.00	679.00	650.00	527.00	579.00	634.00	662.00	687.00	681.00	670.00
591.00	565.00	615.00	631.00	620.00	571.00	550.00	559.00	597.00	599.00	560.00	582.00	571.00	573.00	556.00	519.00	503.00	507.00	507.00	563.00	601.00	591.00	526.00	523.00	551.00	536.00	545.00	583.00	585.00	569.00	545.00	520.00	550.00	514.00	494.00	474.00	473.00	442.00	434.00	451.00	436.00	444.00	445.00	414.00	354.00	341.00	325.00	204.00	223.00	257.00	334.00	351.00	379.00	362.00	367.00	326.00	284.00	301.00	346.00	364.00	404.00	404.00	369.00	346.00	305.00	332.00	339.00	335.00	347.00	345.00	346.00	314.00	319.00	327.00	349.00	345.00	311.00	288.00	309.00	294.00	291.00	348.00	388.00	379.00	397.00	388.00	355.00	329.00	298.00	297.00	276.00	286.00	304.00	348.00	403.00	475.00	498.00	503.00	486.00	450.00	438.00	432.00	434.00	455.00	456.00	418.00	426.00	469.00	448.00	420.00	468.00	452.00	422.00	467.00	435.00	418.00	418.00	423.00	446.00	455.00	445.00	418.00	399.00	447.00	477.00	516.00	546.00	570.00	553.00	537.00	506.00	440.00	424.00	437.00	455.00	492.00	510.00	448.00	445.00	449.00	450.00	459.00	476.00	480.00	473.00	550.00	612.00	618.00	619.00	613.00	620.00	612.00	607.00	594.00	557.00	489.00	498.00	517.00	486.00	417.00	441.00	505.00	554.00	534.00	485.00	485.00	484.00	492.00	555.00	552.00	549.00	540.00	531.00	489.00	476.00	470.00	499.00	450.00	457.00	441.00	411.00	402.00	434.00	438.00	376.00	332.00	329.00	336.00	326.00	355.00	380.00	341.00	322.00	319.00	306.00	300.00	321.00	323.00	321.00	316.00	324.00	398.00	457.00	511.00	549.00	558.00	531.00	547.00	640.00	748.00	699.00	694.00	741.00	723.00	732.00	755.00	700.00	673.00	491.00	481.00	531.00	608.00	723.00	684.00	622.00	624.00	634.00	659.00	688.00	688.00	647.00	647.00	635.00	555.00	528.00	571.00	595.00	568.00	536.00	610.00	651.00	602.00	557.00	521.00	627.00	631.00	653.00	679.00	650.00	527.00	579.00	634.00	662.00	687.00	681.00	670.00
578.00	601.00	631.00	631.00	611.00	576.00	560.00	549.00	600.00	586.00	557.00	560.00	572.00	588.00	572.00	521.00	503.00	515.00	509.00	568.00	567.00	560.00	530.00	523.00	532.00	559.00	571.00	578.00	572.00	558.00	507.00	471.00	473.00	461.00	442.00	442.00	433.00	420.00	442.00	463.00	494.00	484.00	476.00	437.00	393.00	378.00	273.00	215.00	267.00	288.00	339.00	382.00	342.00	319.00	343.00	339.00	286.00	286.00	313.00	348.00	407.00	354.00	360.00	367.00	307.00	368.00	337.00	338.00	346.00	326.00	313.00	314.00	294.00	319.00	326.00	330.00	291.00	277.00	323.00	286.00	316.00	378.00	373.00	340.00	355.00	371.00	362.00	303.00	287.00	289.00	292.00	327.00	352.00	438.00	476.00	517.00	522.00	561.00	525.00	473.00	427.00	419.00	481.00	498.00	452.00	418.00	418.00	430.00	420.00	438.00	508.00	466.00	432.00	485.00	420.00	419.00	421.00	473.00	510.00	460.00	441.00	407.00	399.00	462.00	489.00	522.00	539.00	542.00	531.00	515.00	461.00	404.00	405.00	417.00	437.00	450.00	452.00	436.00	469.00	493.00	478.00	485.00	486.00	484.00	487.00	567.00	623.00	615.00	619.00	632.00	644.00	636.00	614.00	587.00	590.00	542.00	578.00	557.00	474.00	416.00	426.00	446.00	492.00	504.00	482.00	528.00	511.00	523.00	522.00	520.00	537.00	536.00	532.00	508.00	487.00	482.00	488.00	467.00	465.00	472.00	458.00	440.00	490.00	500.00	462.00	420.00	312.00	314.00	319.00	323.00	331.00	327.00	333.00	318.00	288.00	311.00	325.00	326.00	317.00	312.00	346.00	418.00	483.00	553.00	565.00	597.00	566.00	553.00	628.00	717.00	686.00	681.00	710.00	711.00	724.00	774.00	711.00	638.00	484.00	480.00	547.00	637.00	689.00	675.00	638.00	628.00	654.00	653.00	684.00	656.00	636.00	659.00	657.00	581.00	546.00	567.00	581.00	532.00	513.00	609.00	635.00	619.00	518.00	532.00	617.00	640.00	644.00	649.00	657.00	532.00	591.00	628.00	637.00	671.00	673.00	675.00
621.00	642.00	626.00	630.00	628.00	609.00	600.00	574.00	573.00	574.00	553.00	589.00	585.00	584.00	570.00	529.00	512.00	501.00	505.00	549.00	550.00	547.00	527.00	547.00	578.00	599.00	614.00	605.00	585.00	522.00	480.00	467.00	465.00	473.00	460.00	452.00	439.00	415.00	455.00	480.00	517.00	505.00	502.00	406.00	402.00	348.00	238.00	225.00	286.00	307.00	351.00	381.00	344.00	315.00	311.00	296.00	330.00	338.00	333.00	301.00	332.00	375.00	385.00	358.00	299.00	420.00	356.00	358.00	354.00	329.00	293.00	300.00	293.00	299.00	284.00	286.00	307.00	343.00	356.00	321.00	338.00	354.00	342.00	343.00	336.00	343.00	330.00	305.00	286.00	307.00	296.00	316.00	370.00	434.00	505.00	542.00	529.00	546.00	520.00	503.00	449.00	442.00	490.00	511.00	425.00	418.00	418.00	418.00	433.00	466.00	467.00	442.00	426.00	455.00	422.00	452.00	437.00	512.00	512.00	418.00	407.00	399.00	399.00	463.00	492.00	511.00	539.00	550.00	502.00	512.00	437.00	430.00	392.00	394.00	408.00	419.00	417.00	459.00	484.00	506.00	518.00	537.00	533.00	500.00	491.00	576.00	646.00	630.00	622.00	619.00	646.00	612.00	591.00	576.00	562.00	529.00	541.00	511.00	475.00	415.00	419.00	438.00	468.00	486.00	491.00	548.00	524.00	515.00	529.00	511.00	505.00	524.00	538.00	505.00	486.00	506.00	556.00	518.00	530.00	541.00	514.00	474.00	508.00	521.00	515.00	489.00	364.00	318.00	303.00	292.00	314.00	363.00	335.00	316.00	291.00	327.00	349.00	339.00	309.00	308.00	368.00	433.00	520.00	576.00	539.00	558.00	563.00	563.00	655.00	699.00	692.00	685.00	721.00	705.00	702.00	728.00	692.00	673.00	470.00	499.00	623.00	711.00	687.00	658.00	647.00	630.00	629.00	636.00	689.00	643.00	613.00	614.00	587.00	524.00	537.00	574.00	576.00	524.00	568.00	596.00	588.00	546.00	517.00	580.00	643.00	653.00	644.00	625.00	618.00	553.00	606.00	599.00	566.00	628.00	662.00	653.00
661.00	672.00	656.00	642.00	634.00	621.00	615.00	574.00	561.00	562.00	555.00	567.00	580.00	575.00	564.00	534.00	512.00	506.00	508.00	532.00	525.00	519.00	532.00	580.00	610.00	625.00	627.00	609.00	561.00	496.00	473.00	480.00	484.00	466.00	497.00	462.00	431.00	413.00	445.00	474.00	520.00	524.00	517.00	413.00	339.00	253.00	210.00	232.00	273.00	292.00	346.00	375.00	395.00	387.00	357.00	298.00	330.00	335.00	321.00	299.00	292.00	435.00	436.00	328.00	304.00	407.00	346.00	329.00	326.00	324.00	288.00	288.00	294.00	292.00	297.00	286.00	301.00	318.00	318.00	324.00	327.00	326.00	315.00	310.00	304.00	303.00	303.00	297.00	304.00	290.00	293.00	301.00	388.00	437.00	512.00	533.00	549.00	561.00	562.00	513.00	467.00	463.00	508.00	445.00	418.00	421.00	422.00	434.00	471.00	470.00	459.00	444.00	449.00	423.00	451.00	467.00	466.00	518.00	503.00	410.00	425.00	402.00	399.00	445.00	490.00	499.00	517.00	536.00	460.00	478.00	441.00	466.00	411.00	421.00	465.00	475.00	453.00	523.00	556.00	566.00	588.00	599.00	574.00	519.00	502.00	573.00	616.00	618.00	615.00	605.00	620.00	595.00	606.00	551.00	516.00	518.00	522.00	501.00	502.00	414.00	426.00	457.00	458.00	464.00	517.00	571.00	509.00	514.00	565.00	503.00	484.00	496.00	501.00	484.00	485.00	511.00	623.00	585.00	595.00	613.00	550.00	518.00	543.00	541.00	540.00	525.00	440.00	381.00	328.00	294.00	305.00	331.00	320.00	312.00	289.00	315.00	340.00	317.00	302.00	310.00	389.00	438.00	487.00	506.00	508.00	544.00	554.00	551.00	646.00	697.00	691.00	684.00	725.00	694.00	678.00	696.00	698.00	680.00	477.00	555.00	682.00	729.00	681.00	680.00	656.00	622.00	611.00	652.00	662.00	606.00	602.00	618.00	528.00	563.00	594.00	599.00	520.00	526.00	605.00	623.00	635.00	567.00	505.00	570.00	622.00	628.00	634.00	637.00	612.00	566.00	596.00	569.00	543.00	641.00	664.00	652.00
647.00	653.00	646.00	627.00	622.00	622.00	617.00	571.00	570.00	571.00	560.00	561.00	570.00	564.00	546.00	527.00	509.00	506.00	502.00	508.00	507.00	503.00	535.00	572.00	582.00	624.00	617.00	559.00	515.00	511.00	511.00	496.00	488.00	479.00	467.00	446.00	413.00	412.00	446.00	475.00	516.00	526.00	505.00	459.00	377.00	251.00	207.00	241.00	274.00	305.00	322.00	339.00	399.00	384.00	355.00	318.00	308.00	312.00	297.00	275.00	296.00	429.00	415.00	308.00	334.00	387.00	364.00	346.00	367.00	374.00	285.00	281.00	278.00	273.00	280.00	273.00	270.00	285.00	288.00	363.00	356.00	322.00	296.00	280.00	279.00	293.00	300.00	283.00	286.00	315.00	307.00	304.00	422.00	450.00	494.00	517.00	530.00	550.00	518.00	485.00	474.00	493.00	444.00	424.00	418.00	419.00	436.00	430.00	429.00	443.00	440.00	438.00	445.00	418.00	469.00	456.00	449.00	504.00	459.00	462.00	495.00	415.00	413.00	461.00	485.00	476.00	497.00	493.00	452.00	468.00	439.00	449.00	405.00	430.00	454.00	455.00	458.00	567.00	591.00	593.00	624.00	594.00	582.00	536.00	525.00	556.00	587.00	604.00	599.00	588.00	565.00	571.00	572.00	526.00	520.00	524.00	532.00	542.00	499.00	414.00	425.00	454.00	460.00	474.00	541.00	564.00	514.00	517.00	581.00	489.00	484.00	491.00	486.00	511.00	556.00	561.00	653.00	621.00	629.00	652.00	569.00	555.00	580.00	562.00	541.00	532.00	497.00	453.00	391.00	318.00	286.00	321.00	320.00	318.00	293.00	314.00	319.00	301.00	307.00	312.00	378.00	409.00	427.00	455.00	523.00	561.00	564.00	547.00	608.00	665.00	666.00	684.00	724.00	682.00	653.00	660.00	688.00	683.00	526.00	623.00	702.00	729.00	701.00	701.00	695.00	646.00	624.00	666.00	614.00	576.00	624.00	555.00	509.00	560.00	584.00	589.00	553.00	606.00	632.00	622.00	631.00	539.00	521.00	593.00	625.00	636.00	610.00	597.00	581.00	539.00	547.00	543.00	530.00	555.00	590.00	626.00
647.00	653.00	646.00	627.00	622.00	622.00	617.00	571.00	570.00	571.00	560.00	561.00	570.00	564.00	546.00	527.00	509.00	506.00	502.00	508.00	507.00	503.00	535.00	572.00	582.00	624.00	617.00	559.00	515.00	511.00	511.00	496.00	488.00	479.00	467.00	446.00	413.00	412.00	446.00	475.00	516.00	526.00	505.00	459.00	377.00	251.00	207.00	241.00	274.00	305.00	322.00	339.00	399.00	384.00	355.00	318.00	308.00	312.00	297.00	275.00	296.00	429.00	415.00	308.00	334.00	387.00	364.00	346.00	367.00	374.00	285.00	281.00	278.00	273.00	280.00	273.00	270.00	285.00	288.00	363.00	356.00	322.00	296.00	280.00	279.00	293.00	300.00	283.00	286.00	315.00	307.00	304.00	422.00	450.00	494.00	517.00	530.00	550.00	518.00	485.00	474.00	493.00	444.00	424.00	418.00	419.00	436.00	430.00	429.00	443.00	440.00	438.00	445.00	418.00	469.00	456.00	449.00	504.00	459.00	462.00	495.00	415.00	413.00	461.00	485.00	476.00	497.00	493.00	452.00	468.00	439.00	449.00	405.00	430.00	454.00	455.00	458.00	567.00	591.00	593.00	624.00	594.00	582.00	536.00	525.00	556.00	587.00	604.00	599.00	588.00	565.00	571.00	572.00	526.00	520.00	524.00	532.00	542.00	499.00	414.00	425.00	454.00	460.00	474.00	541.00	564.00	514.00	517.00	581.00	489.00	484.00	491.00	486.00	511.00	556.00	561.00	653.00	621.00	629.00	652.00	569.00	555.00	580.00	562.00	541.00	532.00	497.00	453.00	391.00	318.00	286.00	321.00	320.00	318.00	293.00	314.00	319.00	301.00	307.00	312.00	378.00	409.00	427.00	455.00	523.00	561.00	564.00	547.00	608.00	665.00	666.00	684.00	724.00	682.00	653.00	660.00	688.00	683.00	526.00	623.00	702.00	729.00	701.00	701.00	695.00	646.00	624.00	666.00	614.00	576.00	624.00	555.00	509.00	560.00	584.00	589.00	553.00	606.00	632.00	622.00	631.00	539.00	521.00	593.00	625.00	636.00	610.00	597.00	581.00	539.00	547.00	543.00	530.00	555.00	590.00	626.00
665.00	650.00	652.00	639.00	619.00	621.00	618.00	571.00	586.00	577.00	570.00	556.00	544.00	535.00	523.00	512.00	524.00	509.00	501.00	505.00	534.00	503.00	514.00	542.00	566.00	556.00	564.00	553.00	513.00	564.00	553.00	513.00	509.00	514.00	492.00	421.00	412.00	415.00	462.00	509.00	441.00	415.00	396.00	461.00	342.00	207.00	224.00	264.00	320.00	377.00	342.00	331.00	346.00	348.00	356.00	370.00	298.00	301.00	303.00	289.00	267.00	375.00	336.00	318.00	337.00	366.00	357.00	337.00	371.00	380.00	276.00	271.00	269.00	270.00	293.00	340.00	336.00	324.00	288.00	308.00	306.00	295.00	311.00	278.00	281.00	282.00	288.00	288.00	292.00	310.00	304.00	326.00	453.00	482.00	523.00	551.00	562.00	509.00	483.00	482.00	496.00	487.00	418.00	418.00	425.00	418.00	418.00	418.00	418.00	418.00	421.00	420.00	420.00	419.00	449.00	429.00	418.00	420.00	464.00	480.00	464.00	411.00	463.00	445.00	465.00	488.00	515.00	492.00	444.00	462.00	432.00	402.00	434.00	454.00	442.00	441.00	462.00	556.00	578.00	570.00	608.00	582.00	571.00	534.00	551.00	583.00	559.00	567.00	566.00	562.00	564.00	591.00	575.00	541.00	555.00	611.00	601.00	592.00	539.00	413.00	418.00	438.00	461.00	490.00	558.00	573.00	520.00	490.00	526.00	484.00	505.00	551.00	548.00	614.00	667.00	708.00	740.00	628.00	614.00	617.00	600.00	588.00	598.00	571.00	543.00	516.00	533.00	524.00	478.00	377.00	299.00	318.00	323.00	322.00	303.00	296.00	296.00	326.00	336.00	336.00	365.00	393.00	413.00	448.00	583.00	626.00	592.00	552.00	607.00	692.00	656.00	664.00	711.00	668.00	630.00	623.00	632.00	574.00	613.00	669.00	689.00	701.00	722.00	696.00	657.00	645.00	626.00	642.00	586.00	577.00	610.00	496.00	553.00	607.00	587.00	535.00	626.00	635.00	665.00	642.00	650.00	508.00	555.00	616.00	655.00	651.00	640.00	640.00	615.00	557.00	577.00	551.00	538.00	600.00	663.00	714.00
684.00	662.00	645.00	634.00	617.00	608.00	609.00	569.00	582.00	590.00	597.00	573.00	550.00	522.00	511.00	508.00	505.00	501.00	516.00	546.00	531.00	489.00	493.00	513.00	520.00	545.00	549.00	541.00	506.00	545.00	522.00	517.00	539.00	566.00	510.00	417.00	419.00	439.00	477.00	490.00	442.00	365.00	356.00	411.00	281.00	214.00	227.00	294.00	343.00	399.00	361.00	350.00	380.00	382.00	433.00	459.00	302.00	326.00	333.00	347.00	291.00	338.00	299.00	304.00	313.00	367.00	338.00	341.00	367.00	352.00	286.00	266.00	277.00	309.00	341.00	366.00	349.00	308.00	292.00	282.00	292.00	297.00	303.00	282.00	293.00	289.00	280.00	275.00	290.00	302.00	299.00	321.00	450.00	515.00	591.00	603.00	614.00	520.00	480.00	510.00	508.00	453.00	435.00	451.00	475.00	444.00	429.00	426.00	429.00	422.00	418.00	418.00	418.00	418.00	419.00	418.00	419.00	438.00	444.00	459.00	438.00	417.00	464.00	456.00	477.00	510.00	519.00	473.00	449.00	429.00	418.00	406.00	482.00	456.00	420.00	443.00	471.00	529.00	549.00	551.00	559.00	554.00	550.00	529.00	549.00	610.00	547.00	556.00	548.00	551.00	573.00	602.00	593.00	588.00	596.00	635.00	617.00	603.00	535.00	413.00	432.00	457.00	460.00	499.00	584.00	541.00	510.00	495.00	493.00	523.00	564.00	627.00	630.00	672.00	707.00	724.00	712.00	659.00	631.00	617.00	597.00	596.00	593.00	584.00	546.00	510.00	511.00	494.00	465.00	418.00	362.00	302.00	325.00	306.00	289.00	300.00	309.00	333.00	352.00	360.00	370.00	384.00	403.00	433.00	596.00	665.00	603.00	576.00	634.00	712.00	668.00	656.00	653.00	651.00	607.00	618.00	586.00	529.00	612.00	627.00	663.00	670.00	669.00	669.00	695.00	679.00	626.00	627.00	566.00	589.00	571.00	505.00	574.00	586.00	535.00	509.00	634.00	671.00	687.00	677.00	577.00	510.00	592.00	629.00	643.00	646.00	670.00	666.00	624.00	555.00	553.00	539.00	576.00	671.00	697.00	722.00
692.00	684.00	620.00	611.00	600.00	589.00	587.00	593.00	557.00	584.00	602.00	567.00	535.00	516.00	518.00	524.00	518.00	509.00	538.00	546.00	513.00	480.00	488.00	504.00	491.00	511.00	525.00	512.00	500.00	499.00	499.00	523.00	537.00	534.00	435.00	429.00	467.00	485.00	492.00	453.00	431.00	351.00	371.00	259.00	211.00	245.00	261.00	306.00	329.00	361.00	377.00	413.00	441.00	443.00	438.00	459.00	312.00	360.00	364.00	346.00	325.00	271.00	298.00	309.00	362.00	347.00	337.00	341.00	340.00	287.00	304.00	266.00	277.00	306.00	307.00	325.00	328.00	287.00	278.00	289.00	305.00	303.00	278.00	281.00	287.00	279.00	276.00	286.00	322.00	323.00	327.00	333.00	472.00	560.00	609.00	616.00	600.00	501.00	485.00	490.00	484.00	443.00	483.00	517.00	509.00	492.00	483.00	502.00	523.00	477.00	439.00	432.00	425.00	418.00	418.00	418.00	419.00	466.00	454.00	487.00	423.00	400.00	407.00	455.00	451.00	459.00	507.00	485.00	435.00	422.00	405.00	423.00	456.00	431.00	438.00	502.00	534.00	549.00	594.00	600.00	588.00	610.00	563.00	534.00	530.00	582.00	546.00	546.00	550.00	578.00	585.00	616.00	608.00	590.00	601.00	619.00	600.00	604.00	571.00	414.00	439.00	468.00	467.00	508.00	569.00	541.00	520.00	496.00	552.00	608.00	659.00	684.00	675.00	690.00	699.00	686.00	643.00	673.00	647.00	649.00	647.00	624.00	578.00	598.00	588.00	566.00	461.00	423.00	386.00	366.00	356.00	295.00	291.00	289.00	292.00	318.00	308.00	346.00	370.00	387.00	396.00	391.00	408.00	433.00	564.00	646.00	610.00	609.00	661.00	695.00	671.00	666.00	650.00	676.00	643.00	627.00	571.00	494.00	644.00	661.00	671.00	703.00	690.00	670.00	680.00	659.00	632.00	610.00	591.00	612.00	550.00	493.00	512.00	501.00	491.00	552.00	647.00	659.00	657.00	678.00	543.00	570.00	634.00	638.00	619.00	635.00	662.00	662.00	595.00	631.00	610.00	596.00	605.00	680.00	684.00	689.00
628.00	632.00	611.00	606.00	601.00	588.00	585.00	590.00	537.00	543.00	558.00	544.00	545.00	545.00	554.00	555.00	514.00	514.00	538.00	526.00	515.00	474.00	474.00	508.00	498.00	496.00	478.00	474.00	471.00	461.00	519.00	543.00	519.00	507.00	410.00	433.00	493.00	523.00	511.00	460.00	333.00	336.00	344.00	212.00	271.00	332.00	335.00	353.00	364.00	378.00	392.00	424.00	487.00	462.00	425.00	404.00	328.00	380.00	410.00	361.00	340.00	297.00	285.00	274.00	353.00	346.00	337.00	342.00	330.00	276.00	288.00	272.00	282.00	292.00	305.00	332.00	342.00	303.00	276.00	321.00	298.00	300.00	278.00	313.00	330.00	312.00	294.00	330.00	418.00	415.00	429.00	404.00	522.00	599.00	614.00	619.00	573.00	525.00	524.00	525.00	512.00	450.00	505.00	528.00	551.00	561.00	554.00	593.00	592.00	569.00	489.00	481.00	464.00	419.00	418.00	418.00	421.00	451.00	450.00	443.00	419.00	423.00	423.00	414.00	417.00	405.00	428.00	442.00	429.00	410.00	394.00	403.00	405.00	414.00	467.00	547.00	590.00	559.00	597.00	609.00	598.00	587.00	562.00	547.00	530.00	570.00	547.00	558.00	584.00	596.00	620.00	661.00	665.00	639.00	611.00	609.00	573.00	530.00	500.00	414.00	430.00	452.00	470.00	514.00	534.00	525.00	502.00	509.00	599.00	639.00	680.00	707.00	692.00	638.00	665.00	663.00	612.00	665.00	669.00	668.00	654.00	626.00	567.00	614.00	617.00	589.00	440.00	411.00	393.00	354.00	317.00	297.00	292.00	286.00	295.00	312.00	311.00	388.00	417.00	454.00	446.00	410.00	397.00	417.00	513.00	583.00	615.00	614.00	685.00	664.00	646.00	661.00	650.00	670.00	653.00	637.00	598.00	481.00	652.00	692.00	695.00	708.00	696.00	684.00	658.00	651.00	632.00	608.00	577.00	602.00	571.00	460.00	463.00	480.00	560.00	605.00	643.00	644.00	644.00	688.00	516.00	589.00	655.00	648.00	630.00	638.00	663.00	633.00	562.00	625.00	673.00	690.00	662.00	678.00	671.00	671.00
653.00	637.00	612.00	624.00	627.00	601.00	581.00	587.00	542.00	543.00	564.00	573.00	568.00	574.00	565.00	545.00	510.00	524.00	541.00	534.00	512.00	483.00	462.00	466.00	469.00	476.00	480.00	479.00	468.00	436.00	511.00	515.00	503.00	495.00	407.00	435.00	492.00	500.00	516.00	485.00	220.00	226.00	215.00	258.00	317.00	371.00	389.00	423.00	428.00	415.00	399.00	429.00	498.00	475.00	468.00	419.00	346.00	388.00	436.00	399.00	361.00	316.00	299.00	251.00	305.00	381.00	361.00	340.00	284.00	292.00	267.00	274.00	304.00	337.00	378.00	358.00	340.00	313.00	275.00	303.00	314.00	291.00	280.00	292.00	290.00	302.00	324.00	368.00	445.00	488.00	505.00	455.00	554.00	590.00	603.00	578.00	549.00	517.00	540.00	527.00	485.00	456.00	530.00	591.00	630.00	623.00	590.00	594.00	573.00	550.00	516.00	517.00	482.00	446.00	424.00	418.00	431.00	483.00	477.00	487.00	492.00	497.00	455.00	382.00	382.00	382.00	382.00	392.00	396.00	407.00	400.00	387.00	426.00	417.00	452.00	495.00	542.00	546.00	562.00	570.00	580.00	571.00	557.00	551.00	542.00	562.00	557.00	566.00	608.00	615.00	661.00	693.00	690.00	668.00	657.00	638.00	611.00	537.00	467.00	418.00	458.00	454.00	463.00	473.00	536.00	531.00	516.00	540.00	609.00	670.00	714.00	691.00	661.00	619.00	585.00	576.00	615.00	633.00	644.00	646.00	647.00	620.00	553.00	571.00	602.00	580.00	446.00	470.00	463.00	440.00	358.00	309.00	294.00	289.00	310.00	309.00	337.00	448.00	484.00	540.00	488.00	463.00	405.00	402.00	484.00	544.00	601.00	610.00	664.00	682.00	639.00	632.00	633.00	650.00	658.00	617.00	579.00	478.00	676.00	691.00	680.00	688.00	689.00	694.00	659.00	616.00	592.00	599.00	539.00	532.00	528.00	419.00	460.00	546.00	602.00	614.00	624.00	653.00	653.00	668.00	547.00	651.00	671.00	659.00	646.00	628.00	623.00	596.00	556.00	664.00	659.00	662.00	665.00	696.00	678.00	653.00
636.00	623.00	599.00	593.00	597.00	591.00	569.00	562.00	532.00	549.00	598.00	588.00	568.00	563.00	551.00	544.00	523.00	519.00	528.00	544.00	522.00	487.00	463.00	468.00	479.00	458.00	462.00	473.00	476.00	425.00	468.00	471.00	423.00	411.00	416.00	424.00	430.00	443.00	439.00	452.00	210.00	224.00	241.00	270.00	308.00	339.00	363.00	379.00	396.00	428.00	410.00	445.00	548.00	541.00	509.00	403.00	360.00	413.00	429.00	388.00	317.00	280.00	263.00	286.00	351.00	382.00	398.00	333.00	268.00	276.00	293.00	313.00	345.00	399.00	453.00	448.00	414.00	322.00	279.00	284.00	287.00	275.00	279.00	281.00	306.00	330.00	375.00	421.00	452.00	470.00	481.00	475.00	532.00	552.00	549.00	545.00	521.00	524.00	572.00	547.00	474.00	542.00	577.00	615.00	617.00	577.00	563.00	555.00	551.00	535.00	529.00	547.00	521.00	492.00	445.00	429.00	465.00	511.00	487.00	528.00	499.00	504.00	466.00	383.00	382.00	379.00	384.00	392.00	420.00	388.00	388.00	388.00	442.00	425.00	475.00	502.00	509.00	545.00	569.00	568.00	585.00	577.00	549.00	531.00	527.00	559.00	565.00	571.00	608.00	614.00	659.00	671.00	670.00	667.00	668.00	635.00	600.00	551.00	497.00	413.00	437.00	455.00	494.00	507.00	507.00	528.00	525.00	533.00	627.00	710.00	728.00	708.00	649.00	558.00	533.00	537.00	623.00	626.00	617.00	607.00	603.00	593.00	563.00	536.00	526.00	527.00	486.00	507.00	524.00	485.00	361.00	314.00	295.00	291.00	315.00	325.00	377.00	482.00	535.00	567.00	505.00	495.00	441.00	399.00	448.00	483.00	529.00	563.00	621.00	675.00	647.00	623.00	622.00	597.00	638.00	616.00	569.00	498.00	592.00	629.00	646.00	648.00	640.00	646.00	621.00	599.00	586.00	574.00	513.00	489.00	441.00	462.00	521.00	527.00	572.00	584.00	604.00	626.00	640.00	557.00	619.00	693.00	701.00	690.00	651.00	646.00	622.00	559.00	598.00	647.00	632.00	624.00	653.00	678.00	675.00	667.00
591.00	603.00	604.00	581.00	559.00	576.00	548.00	581.00	528.00	537.00	577.00	595.00	570.00	555.00	557.00	551.00	521.00	530.00	537.00	554.00	527.00	498.00	481.00	457.00	462.00	422.00	410.00	427.00	427.00	403.00	400.00	398.00	398.00	417.00	369.00	394.00	391.00	371.00	353.00	338.00	226.00	245.00	303.00	292.00	303.00	343.00	415.00	428.00	420.00	382.00	411.00	440.00	537.00	525.00	464.00	361.00	364.00	394.00	393.00	319.00	282.00	245.00	245.00	297.00	333.00	345.00	304.00	278.00	282.00	297.00	326.00	358.00	404.00	463.00	487.00	478.00	416.00	299.00	279.00	287.00	275.00	274.00	279.00	327.00	411.00	453.00	468.00	510.00	526.00	497.00	470.00	461.00	528.00	544.00	540.00	544.00	516.00	547.00	531.00	482.00	489.00	580.00	585.00	594.00	583.00	547.00	536.00	524.00	519.00	519.00	540.00	566.00	552.00	504.00	449.00	449.00	501.00	506.00	486.00	535.00	504.00	516.00	432.00	381.00	385.00	399.00	417.00	425.00	422.00	386.00	389.00	398.00	442.00	459.00	509.00	536.00	536.00	541.00	556.00	555.00	556.00	568.00	559.00	541.00	524.00	589.00	549.00	558.00	589.00	615.00	639.00	637.00	645.00	648.00	654.00	632.00	553.00	444.00	418.00	413.00	419.00	452.00	473.00	497.00	484.00	516.00	522.00	545.00	652.00	724.00	713.00	665.00	603.00	552.00	508.00	503.00	583.00	585.00	585.00	581.00	586.00	580.00	556.00	533.00	496.00	480.00	535.00	545.00	542.00	477.00	341.00	321.00	297.00	286.00	301.00	331.00	367.00	481.00	523.00	556.00	525.00	494.00	457.00	420.00	429.00	442.00	500.00	531.00	591.00	612.00	647.00	625.00	632.00	572.00	600.00	556.00	504.00	524.00	635.00	652.00	637.00	627.00	624.00	640.00	658.00	648.00	625.00	552.00	493.00	440.00	404.00	463.00	500.00	534.00	554.00	548.00	547.00	572.00	600.00	523.00	644.00	674.00	677.00	671.00	662.00	660.00	616.00	569.00	618.00	635.00	615.00	642.00	665.00	646.00	652.00	654.00
591.00	603.00	604.00	581.00	559.00	576.00	548.00	581.00	528.00	537.00	577.00	595.00	570.00	555.00	557.00	551.00	521.00	530.00	537.00	554.00	527.00	498.00	481.00	457.00	462.00	422.00	410.00	427.00	427.00	403.00	400.00	398.00	398.00	417.00	369.00	394.00	391.00	371.00	353.00	338.00	226.00	245.00	303.00	292.00	303.00	343.00	415.00	428.00	420.00	382.00	411.00	440.00	537.00	525.00	464.00	361.00	364.00	394.00	393.00	319.00	282.00	245.00	245.00	297.00	333.00	345.00	304.00	278.00	282.00	297.00	326.00	358.00	404.00	463.00	487.00	478.00	416.00	299.00	279.00	287.00	275.00	274.00	279.00	327.00	411.00	453.00	468.00	510.00	526.00	497.00	470.00	461.00	528.00	544.00	540.00	544.00	516.00	547.00	531.00	482.00	489.00	580.00	585.00	594.00	583.00	547.00	536.00	524.00	519.00	519.00	540.00	566.00	552.00	504.00	449.00	449.00	501.00	506.00	486.00	535.00	504.00	516.00	432.00	381.00	385.00	399.00	417.00	425.00	422.00	386.00	389.00	398.00	442.00	459.00	509.00	536.00	536.00	541.00	556.00	555.00	556.00	568.00	559.00	541.00	524.00	589.00	549.00	558.00	589.00	615.00	639.00	637.00	645.00	648.00	654.00	632.00	553.00	444.00	418.00	413.00	419.00	452.00	473.00	497.00	484.00	516.00	522.00	545.00	652.00	724.00	713.00	665.00	603.00	552.00	508.00	503.00	583.00	585.00	585.00	581.00	586.00	580.00	556.00	533.00	496.00	480.00	535.00	545.00	542.00	477.00	341.00	321.00	297.00	286.00	301.00	331.00	367.00	481.00	523.00	556.00	525.00	494.00	457.00	420.00	429.00	442.00	500.00	531.00	591.00	612.00	647.00	625.00	632.00	572.00	600.00	556.00	504.00	524.00	635.00	652.00	637.00	627.00	624.00	640.00	658.00	648.00	625.00	552.00	493.00	440.00	404.00	463.00	500.00	534.00	554.00	548.00	547.00	572.00	600.00	523.00	644.00	674.00	677.00	671.00	662.00	660.00	616.00	569.00	618.00	635.00	615.00	642.00	665.00	646.00	652.00	654.00
604.00	607.00	605.00	567.00	537.00	539.00	544.00	573.00	525.00	566.00	607.00	603.00	584.00	565.00	562.00	562.00	525.00	538.00	550.00	559.00	595.00	563.00	511.00	466.00	449.00	431.00	412.00	408.00	396.00	384.00	382.00	397.00	390.00	381.00	362.00	360.00	345.00	334.00	305.00	263.00	227.00	231.00	253.00	286.00	270.00	289.00	302.00	393.00	371.00	367.00	414.00	420.00	499.00	501.00	467.00	384.00	390.00	395.00	327.00	297.00	278.00	301.00	279.00	270.00	319.00	308.00	267.00	286.00	303.00	348.00	388.00	430.00	454.00	464.00	452.00	447.00	367.00	283.00	279.00	283.00	276.00	280.00	324.00	414.00	485.00	498.00	498.00	543.00	591.00	524.00	470.00	466.00	548.00	560.00	538.00	510.00	506.00	529.00	477.00	488.00	524.00	555.00	639.00	626.00	585.00	578.00	551.00	519.00	521.00	525.00	546.00	586.00	546.00	516.00	453.00	473.00	502.00	483.00	500.00	524.00	489.00	465.00	395.00	384.00	404.00	436.00	417.00	405.00	390.00	387.00	398.00	400.00	452.00	503.00	532.00	549.00	550.00	539.00	561.00	554.00	566.00	602.00	578.00	552.00	518.00	576.00	545.00	561.00	573.00	602.00	641.00	626.00	598.00	587.00	583.00	572.00	444.00	414.00	426.00	452.00	416.00	433.00	444.00	462.00	495.00	559.00	584.00	611.00	627.00	648.00	642.00	632.00	628.00	623.00	561.00	482.00	541.00	600.00	620.00	606.00	587.00	601.00	577.00	517.00	482.00	478.00	501.00	497.00	499.00	409.00	338.00	340.00	295.00	286.00	296.00	331.00	377.00	480.00	518.00	551.00	566.00	542.00	511.00	452.00	417.00	435.00	507.00	542.00	585.00	589.00	602.00	594.00	604.00	538.00	538.00	471.00	501.00	559.00	638.00	655.00	649.00	631.00	648.00	653.00	641.00	642.00	621.00	553.00	514.00	432.00	394.00	445.00	470.00	531.00	589.00	550.00	576.00	572.00	582.00	498.00	623.00	648.00	663.00	668.00	665.00	629.00	565.00	592.00	628.00	655.00	625.00	648.00	666.00	636.00	637.00	618.00
561.00	587.00	571.00	545.00	532.00	530.00	508.00	519.00	540.00	588.00	636.00	614.00	614.00	592.00	551.00	537.00	526.00	541.00	562.00	554.00	581.00	568.00	515.00	506.00	498.00	472.00	456.00	446.00	428.00	374.00	384.00	388.00	385.00	390.00	355.00	365.00	381.00	400.00	335.00	259.00	214.00	225.00	228.00	234.00	246.00	268.00	292.00	284.00	345.00	370.00	384.00	382.00	487.00	478.00	430.00	330.00	425.00	393.00	268.00	235.00	212.00	312.00	333.00	319.00	301.00	259.00	295.00	365.00	370.00	419.00	430.00	427.00	460.00	455.00	343.00	306.00	279.00	274.00	275.00	313.00	319.00	349.00	429.00	495.00	498.00	495.00	498.00	526.00	522.00	488.00	474.00	485.00	547.00	535.00	500.00	488.00	493.00	485.00	476.00	511.00	517.00	570.00	653.00	641.00	590.00	563.00	549.00	536.00	601.00	561.00	600.00	586.00	539.00	521.00	456.00	486.00	482.00	507.00	525.00	489.00	444.00	419.00	385.00	405.00	425.00	414.00	407.00	471.00	469.00	452.00	470.00	434.00	457.00	490.00	538.00	535.00	525.00	537.00	563.00	577.00	589.00	575.00	555.00	514.00	538.00	548.00	526.00	545.00	567.00	602.00	631.00	605.00	576.00	565.00	555.00	480.00	443.00	465.00	509.00	553.00	452.00	426.00	421.00	436.00	524.00	613.00	656.00	639.00	629.00	654.00	660.00	668.00	649.00	556.00	520.00	483.00	540.00	623.00	633.00	613.00	584.00	561.00	550.00	497.00	490.00	505.00	456.00	461.00	472.00	398.00	369.00	316.00	286.00	290.00	290.00	335.00	390.00	481.00	533.00	572.00	627.00	627.00	589.00	487.00	448.00	472.00	517.00	576.00	581.00	591.00	589.00	606.00	614.00	495.00	465.00	499.00	571.00	622.00	654.00	639.00	613.00	631.00	657.00	667.00	644.00	631.00	596.00	553.00	414.00	397.00	397.00	489.00	517.00	583.00	610.00	562.00	598.00	601.00	549.00	497.00	625.00	622.00	623.00	633.00	638.00	596.00	555.00	611.00	631.00	636.00	606.00	639.00	634.00	611.00	613.00	575.00
517.00	562.00	547.00	521.00	507.00	512.00	519.00	530.00	567.00	594.00	639.00	610.00	597.00	578.00	559.00	538.00	535.00	566.00	588.00	556.00	550.00	529.00	515.00	525.00	522.00	514.00	512.00	510.00	491.00	387.00	404.00	447.00	431.00	448.00	372.00	402.00	437.00	477.00	368.00	271.00	211.00	205.00	206.00	210.00	215.00	220.00	233.00	227.00	259.00	314.00	299.00	309.00	425.00	414.00	397.00	309.00	399.00	317.00	228.00	205.00	206.00	326.00	358.00	374.00	374.00	262.00	317.00	352.00	361.00	399.00	425.00	399.00	416.00	403.00	285.00	275.00	274.00	296.00	340.00	440.00	439.00	439.00	513.00	523.00	508.00	519.00	518.00	510.00	482.00	480.00	495.00	507.00	524.00	506.00	485.00	496.00	504.00	504.00	546.00	562.00	576.00	606.00	596.00	598.00	571.00	610.00	577.00	570.00	582.00	565.00	586.00	573.00	532.00	533.00	473.00	480.00	506.00	526.00	532.00	497.00	424.00	395.00	394.00	392.00	406.00	398.00	408.00	455.00	469.00	460.00	438.00	436.00	496.00	514.00	513.00	515.00	525.00	560.00	582.00	583.00	588.00	551.00	527.00	518.00	526.00	544.00	526.00	527.00	543.00	586.00	612.00	585.00	556.00	553.00	528.00	433.00	433.00	443.00	465.00	519.00	471.00	461.00	417.00	444.00	551.00	646.00	663.00	651.00	665.00	692.00	662.00	640.00	627.00	506.00	514.00	513.00	502.00	577.00	603.00	600.00	562.00	504.00	469.00	471.00	488.00	516.00	459.00	424.00	382.00	346.00	364.00	288.00	310.00	309.00	314.00	337.00	385.00	483.00	538.00	591.00	682.00	680.00	611.00	491.00	485.00	487.00	519.00	586.00	572.00	590.00	587.00	602.00	627.00	483.00	448.00	503.00	555.00	586.00	647.00	613.00	618.00	641.00	647.00	656.00	633.00	599.00	604.00	617.00	426.00	391.00	405.00	578.00	561.00	583.00	594.00	575.00	562.00	563.00	505.00	507.00	601.00	620.00	629.00	617.00	583.00	543.00	556.00	605.00	617.00	619.00	600.00	634.00	639.00	600.00	572.00	567.00
502.00	533.00	523.00	497.00	514.00	522.00	532.00	560.00	570.00	580.00	608.00	604.00	595.00	584.00	575.00	542.00	554.00	570.00	577.00	563.00	542.00	533.00	554.00	541.00	529.00	532.00	537.00	518.00	511.00	426.00	419.00	445.00	452.00	436.00	425.00	434.00	479.00	492.00	352.00	312.00	260.00	238.00	218.00	205.00	204.00	203.00	203.00	208.00	210.00	229.00	235.00	244.00	371.00	351.00	331.00	287.00	294.00	293.00	285.00	206.00	223.00	361.00	389.00	382.00	339.00	286.00	307.00	304.00	336.00	369.00	387.00	391.00	406.00	312.00	274.00	277.00	308.00	407.00	476.00	462.00	443.00	473.00	559.00	519.00	513.00	511.00	499.00	492.00	484.00	524.00	556.00	531.00	493.00	493.00	482.00	499.00	494.00	575.00	613.00	632.00	660.00	651.00	660.00	627.00	622.00	576.00	563.00	556.00	570.00	575.00	562.00	548.00	521.00	532.00	465.00	503.00	541.00	530.00	509.00	427.00	402.00	413.00	420.00	418.00	397.00	385.00	402.00	434.00	455.00	442.00	426.00	436.00	489.00	509.00	527.00	525.00	533.00	572.00	559.00	561.00	572.00	585.00	559.00	520.00	497.00	496.00	531.00	522.00	529.00	541.00	574.00	543.00	527.00	525.00	507.00	409.00	395.00	413.00	416.00	412.00	432.00	441.00	423.00	474.00	572.00	655.00	675.00	656.00	656.00	686.00	657.00	610.00	553.00	505.00	542.00	545.00	474.00	564.00	586.00	563.00	524.00	504.00	479.00	502.00	528.00	538.00	428.00	389.00	338.00	338.00	321.00	301.00	310.00	310.00	326.00	345.00	383.00	483.00	546.00	597.00	663.00	698.00	605.00	519.00	511.00	514.00	522.00	551.00	594.00	597.00	587.00	602.00	621.00	502.00	445.00	485.00	552.00	591.00	645.00	591.00	615.00	648.00	649.00	642.00	630.00	592.00	585.00	582.00	410.00	394.00	453.00	598.00	585.00	580.00	572.00	575.00	581.00	588.00	530.00	503.00	551.00	551.00	576.00	592.00	544.00	514.00	554.00	604.00	604.00	543.00	545.00	583.00	592.00	588.00	531.00	509.00
502.00	533.00	523.00	497.00	514.00	522.00	532.00	560.00	570.00	580.00	608.00	604.00	595.00	584.00	575.00	542.00	554.00	570.00	577.00	563.00	542.00	533.00	554.00	541.00	529.00	532.00	537.00	518.00	511.00	426.00	419.00	445.00	452.00	436.00	425.00	434.00	479.00	492.00	352.00	312.00	260.00	238.00	218.00	205.00	204.00	203.00	203.00	208.00	210.00	229.00	235.00	244.00	371.00	351.00	331.00	287.00	294.00	293.00	285.00	206.00	223.00	361.00	389.00	382.00	339.00	286.00	307.00	304.00	336.00	369.00	387.00	391.00	406.00	312.00	274.00	277.00	308.00	407.00	476.00	462.00	443.00	473.00	559.00	519.00	513.00	511.00	499.00	492.00	484.00	524.00	556.00	531.00	493.00	493.00	482.00	499.00	494.00	575.00	613.00	632.00	660.00	651.00	660.00	627.00	622.00	576.00	563.00	556.00	570.00	575.00	562.00	548.00	521.00	532.00	465.00	503.00	541.00	530.00	509.00	427.00	402.00	413.00	420.00	418.00	397.00	385.00	402.00	434.00	455.00	442.00	426.00	436.00	489.00	509.00	527.00	525.00	533.00	572.00	559.00	561.00	572.00	585.00	559.00	520.00	497.00	496.00	531.00	522.00	529.00	541.00	574.00	543.00	527.00	525.00	507.00	409.00	395.00	413.00	416.00	412.00	432.00	441.00	423.00	474.00	572.00	655.00	675.00	656.00	656.00	686.00	657.00	610.00	553.00	505.00	542.00	545.00	474.00	564.00	586.00	563.00	524.00	504.00	479.00	502.00	528.00	538.00	428.00	389.00	338.00	338.00	321.00	301.00	310.00	310.00	326.00	345.00	383.00	483.00	546.00	597.00	663.00	698.00	605.00	519.00	511.00	514.00	522.00	551.00	594.00	597.00	587.00	602.00	621.00	502.00	445.00	485.00	552.00	591.00	645.00	591.00	615.00	648.00	649.00	642.00	630.00	592.00	585.00	582.00	410.00	394.00	453.00	598.00	585.00	580.00	572.00	575.00	581.00	588.00	530.00	503.00	551.00	551.00	576.00	592.00	544.00	514.00	554.00	604.00	604.00	543.00	545.00	583.00	592.00	588.00	531.00	509.00
490.00	501.00	535.00	508.00	498.00	506.00	516.00	578.00	577.00	574.00	613.00	610.00	588.00	572.00	552.00	562.00	563.00	576.00	591.00	576.00	597.00	569.00	582.00	602.00	587.00	596.00	562.00	562.00	544.00	470.00	471.00	446.00	454.00	445.00	421.00	390.00	398.00	379.00	373.00	399.00	378.00	415.00	376.00	327.00	304.00	273.00	235.00	207.00	203.00	209.00	227.00	222.00	244.00	255.00	270.00	250.00	250.00	277.00	260.00	209.00	257.00	399.00	403.00	400.00	352.00	308.00	282.00	343.00	382.00	428.00	349.00	293.00	301.00	294.00	346.00	379.00	411.00	433.00	448.00	393.00	466.00	491.00	470.00	485.00	508.00	494.00	480.00	498.00	569.00	611.00	581.00	549.00	495.00	499.00	521.00	530.00	543.00	644.00	642.00	644.00	661.00	681.00	647.00	634.00	612.00	575.00	569.00	551.00	512.00	525.00	520.00	495.00	515.00	484.00	506.00	508.00	523.00	520.00	484.00	455.00	431.00	389.00	379.00	420.00	430.00	428.00	408.00	395.00	451.00	424.00	423.00	418.00	511.00	552.00	543.00	536.00	543.00	571.00	562.00	537.00	518.00	556.00	559.00	535.00	487.00	509.00	471.00	462.00	492.00	519.00	498.00	503.00	526.00	514.00	466.00	405.00	388.00	383.00	396.00	382.00	375.00	404.00	460.00	520.00	588.00	619.00	628.00	632.00	621.00	645.00	644.00	609.00	568.00	493.00	464.00	439.00	445.00	429.00	448.00	446.00	459.00	470.00	417.00	408.00	423.00	443.00	322.00	316.00	315.00	302.00	287.00	310.00	318.00	356.00	388.00	396.00	402.00	468.00	520.00	561.00	642.00	670.00	655.00	607.00	500.00	539.00	564.00	591.00	629.00	628.00	625.00	626.00	611.00	480.00	460.00	537.00	562.00	637.00	615.00	578.00	616.00	658.00	673.00	661.00	615.00	616.00	608.00	519.00	392.00	397.00	459.00	591.00	605.00	613.00	595.00	583.00	591.00	555.00	529.00	463.00	566.00	600.00	587.00	561.00	512.00	608.00	647.00	656.00	642.00	556.00	607.00	602.00	590.00	586.00	600.00	588.00
490.00	501.00	535.00	508.00	498.00	506.00	516.00	578.00	577.00	574.00	613.00	610.00	588.00	572.00	552.00	562.00	563.00	576.00	591.00	576.00	597.00	569.00	582.00	602.00	587.00	596.00	562.00	562.00	544.00	470.00	471.00	446.00	454.00	445.00	421.00	390.00	398.00	379.00	373.00	399.00	378.00	415.00	376.00	327.00	304.00	273.00	235.00	207.00	203.00	209.00	227.00	222.00	244.00	255.00	270.00	250.00	250.00	277.00	260.00	209.00	257.00	399.00	403.00	400.00	352.00	308.00	282.00	343.00	382.00	428.00	349.00	293.00	301.00	294.00	346.00	379.00	411.00	433.00	448.00	393.00	466.00	491.00	470.00	485.00	508.00	494.00	480.00	498.00	569.00	611.00	581.00	549.00	495.00	499.00	521.00	530.00	543.00	644.00	642.00	644.00	661.00	681.00	647.00	634.00	612.00	575.00	569.00	551.00	512.00	525.00	520.00	495.00	515.00	484.00	506.00	508.00	523.00	520.00	484.00	455.00	431.00	389.00	379.00	420.00	430.00	428.00	408.00	395.00	451.00	424.00	423.00	418.00	511.00	552.00	543.00	536.00	543.00	571.00	562.00	537.00	518.00	556.00	559.00	535.00	487.00	509.00	471.00	462.00	492.00	519.00	498.00	503.00	526.00	514.00	466.00	405.00	388.00	383.00	396.00	382.00	375.00	404.00	460.00	520.00	588.00	619.00	628.00	632.00	621.00	645.00	644.00	609.00	568.00	493.00	464.00	439.00	445.00	429.00	448.00	446.00	459.00	470.00	417.00	408.00	423.00	443.00	322.00	316.00	315.00	302.00	287.00	310.00	318.00	356.00	388.00	396.00	402.00	468.00	520.00	561.00	642.00	670.00	655.00	607.00	500.00	539.00	564.00	591.00	629.00	628.00	625.00	626.00	611.00	480.00	460.00	537.00	562.00	637.00	615.00	578.00	616.00	658.00	673.00	661.00	615.00	616.00	608.00	519.00	392.00	397.00	459.00	591.00	605.00	613.00	595.00	583.00	591.00	555.00	529.00	463.00	566.00	600.00	587.00	561.00	512.00	608.00	647.00	656.00	642.00	556.00	607.00	602.00	590.00	586.00	600.00	588.00
490.00	501.00	535.00	508.00	498.00	506.00	516.00	578.00	577.00	574.00	613.00	610.00	588.00	572.00	552.00	562.00	563.00	576.00	591.00	576.00	597.00	569.00	582.00	602.00	587.00	596.00	562.00	562.00	544.00	470.00	471.00	446.00	454.00	445.00	421.00	390.00	398.00	379.00	373.00	399.00	378.00	415.00	376.00	327.00	304.00	273.00	235.00	207.00	203.00	209.00	227.00	222.00	244.00	255.00	270.00	250.00	250.00	277.00	260.00	209.00	257.00	399.00	403.00	400.00	352.00	308.00	282.00	343.00	382.00	428.00	349.00	293.00	301.00	294.00	346.00	379.00	411.00	433.00	448.00	393.00	466.00	491.00	470.00	485.00	508.00	494.00	480.00	498.00	569.00	611.00	581.00	549.00	495.00	499.00	521.00	530.00	543.00	644.00	642.00	644.00	661.00	681.00	647.00	634.00	612.00	575.00	569.00	551.00	512.00	525.00	520.00	495.00	515.00	484.00	506.00	508.00	523.00	520.00	484.00	455.00	431.00	389.00	379.00	420.00	430.00	428.00	408.00	395.00	451.00	424.00	423.00	418.00	511.00	552.00	543.00	536.00	543.00	571.00	562.00	537.00	518.00	556.00	559.00	535.00	487.00	509.00	471.00	462.00	492.00	519.00	498.00	503.00	526.00	514.00	466.00	405.00	388.00	383.00	396.00	382.00	375.00	404.00	460.00	520.00	588.00	619.00	628.00	632.00	621.00	645.00	644.00	609.00	568.00	493.00	464.00	439.00	445.00	429.00	448.00	446.00	459.00	470.00	417.00	408.00	423.00	443.00	322.00	316.00	315.00	302.00	287.00	310.00	318.00	356.00	388.00	396.00	402.00	468.00	520.00	561.00	642.00	670.00	655.00	607.00	500.00	539.00	564.00	591.00	629.00	628.00	625.00	626.00	611.00	480.00	460.00	537.00	562.00	637.00	615.00	578.00	616.00	658.00	673.00	661.00	615.00	616.00	608.00	519.00	392.00	397.00	459.00	591.00	605.00	613.00	595.00	583.00	591.00	555.00	529.00	463.00	566.00	600.00	587.00	561.00	512.00	608.00	647.00	656.00	642.00	556.00	607.00	602.00	590.00	586.00	600.00	588.00
498.00	537.00	513.00	493.00	514.00	532.00	532.00	572.00	574.00	573.00	592.00	597.00	572.00	562.00	563.00	567.00	567.00	568.00	577.00	605.00	598.00	585.00	568.00	560.00	571.00	563.00	543.00	538.00	538.00	449.00	441.00	442.00	445.00	445.00	429.00	382.00	355.00	350.00	370.00	389.00	394.00	427.00	406.00	414.00	364.00	314.00	269.00	235.00	219.00	206.00	207.00	213.00	222.00	222.00	220.00	219.00	219.00	220.00	220.00	208.00	275.00	365.00	363.00	377.00	307.00	266.00	262.00	321.00	365.00	384.00	336.00	266.00	278.00	293.00	350.00	399.00	403.00	380.00	383.00	378.00	442.00	448.00	466.00	510.00	524.00	497.00	485.00	522.00	629.00	621.00	559.00	527.00	537.00	556.00	554.00	540.00	553.00	636.00	638.00	650.00	655.00	633.00	629.00	605.00	572.00	553.00	562.00	552.00	520.00	510.00	480.00	479.00	462.00	450.00	472.00	462.00	480.00	489.00	464.00	407.00	380.00	380.00	375.00	392.00	394.00	400.00	383.00	383.00	417.00	424.00	421.00	421.00	507.00	545.00	545.00	540.00	557.00	577.00	569.00	525.00	497.00	497.00	520.00	521.00	477.00	519.00	474.00	462.00	493.00	492.00	491.00	541.00	550.00	528.00	467.00	456.00	427.00	400.00	384.00	373.00	374.00	426.00	511.00	582.00	606.00	614.00	615.00	597.00	610.00	662.00	669.00	636.00	599.00	532.00	500.00	464.00	412.00	406.00	443.00	471.00	489.00	469.00	410.00	388.00	393.00	386.00	316.00	313.00	299.00	287.00	290.00	320.00	342.00	386.00	424.00	485.00	431.00	454.00	481.00	526.00	640.00	655.00	637.00	605.00	496.00	530.00	587.00	640.00	651.00	636.00	641.00	634.00	588.00	506.00	448.00	517.00	579.00	621.00	599.00	578.00	628.00	666.00	680.00	673.00	635.00	647.00	645.00	527.00	397.00	413.00	510.00	630.00	649.00	633.00	602.00	583.00	569.00	563.00	565.00	461.00	585.00	618.00	601.00	531.00	529.00	609.00	635.00	648.00	624.00	610.00	676.00	671.00	661.00	666.00	657.00	634.00
485.00	483.00	484.00	491.00	503.00	535.00	536.00	566.00	597.00	574.00	572.00	589.00	584.00	568.00	566.00	552.00	547.00	548.00	537.00	589.00	586.00	594.00	583.00	585.00	588.00	565.00	531.00	536.00	527.00	441.00	453.00	464.00	439.00	401.00	398.00	344.00	338.00	357.00	401.00	444.00	520.00	504.00	502.00	503.00	465.00	471.00	413.00	299.00	273.00	247.00	227.00	207.00	203.00	203.00	203.00	203.00	203.00	203.00	206.00	207.00	249.00	315.00	328.00	327.00	336.00	242.00	270.00	269.00	290.00	314.00	298.00	245.00	231.00	258.00	294.00	314.00	333.00	353.00	340.00	357.00	410.00	487.00	456.00	466.00	483.00	521.00	559.00	557.00	529.00	534.00	580.00	598.00	597.00	558.00	547.00	547.00	554.00	639.00	658.00	651.00	642.00	619.00	594.00	563.00	550.00	534.00	526.00	514.00	499.00	473.00	445.00	441.00	441.00	443.00	462.00	443.00	449.00	440.00	433.00	388.00	390.00	385.00	373.00	403.00	399.00	401.00	379.00	389.00	433.00	457.00	473.00	495.00	479.00	507.00	516.00	513.00	513.00	541.00	576.00	555.00	541.00	501.00	487.00	462.00	465.00	466.00	456.00	458.00	476.00	498.00	462.00	487.00	496.00	458.00	415.00	431.00	438.00	452.00	468.00	373.00	373.00	411.00	479.00	544.00	599.00	587.00	568.00	566.00	599.00	668.00	706.00	692.00	647.00	556.00	538.00	522.00	474.00	417.00	439.00	485.00	528.00	512.00	508.00	494.00	448.00	387.00	300.00	286.00	288.00	307.00	319.00	425.00	480.00	520.00	575.00	580.00	532.00	459.00	459.00	495.00	632.00	621.00	592.00	552.00	494.00	503.00	547.00	598.00	620.00	618.00	619.00	604.00	593.00	579.00	563.00	469.00	526.00	627.00	625.00	577.00	588.00	644.00	692.00	695.00	669.00	677.00	611.00	451.00	397.00	437.00	548.00	589.00	620.00	620.00	614.00	593.00	575.00	578.00	576.00	465.00	549.00	606.00	561.00	493.00	607.00	642.00	634.00	603.00	569.00	636.00	678.00	687.00	696.00	708.00	693.00	676.00
485.00	483.00	484.00	491.00	503.00	535.00	536.00	566.00	597.00	574.00	572.00	589.00	584.00	568.00	566.00	552.00	547.00	548.00	537.00	589.00	586.00	594.00	583.00	585.00	588.00	565.00	531.00	536.00	527.00	441.00	453.00	464.00	439.00	401.00	398.00	344.00	338.00	357.00	401.00	444.00	520.00	504.00	502.00	503.00	465.00	471.00	413.00	299.00	273.00	247.00	227.00	207.00	203.00	203.00	203.00	203.00	203.00	203.00	206.00	207.00	249.00	315.00	328.00	327.00	336.00	242.00	270.00	269.00	290.00	314.00	298.00	245.00	231.00	258.00	294.00	314.00	333.00	353.00	340.00	357.00	410.00	487.00	456.00	466.00	483.00	521.00	559.00	557.00	529.00	534.00	580.00	598.00	597.00	558.00	547.00	547.00	554.00	639.00	658.00	651.00	642.00	619.00	594.00	563.00	550.00	534.00	526.00	514.00	499.00	473.00	445.00	441.00	441.00	443.00	462.00	443.00	449.00	440.00	433.00	388.00	390.00	385.00	373.00	403.00	399.00	401.00	379.00	389.00	433.00	457.00	473.00	495.00	479.00	507.00	516.00	513.00	513.00	541.00	576.00	555.00	541.00	501.00	487.00	462.00	465.00	466.00	456.00	458.00	476.00	498.00	462.00	487.00	496.00	458.00	415.00	431.00	438.00	452.00	468.00	373.00	373.00	411.00	479.00	544.00	599.00	587.00	568.00	566.00	599.00	668.00	706.00	692.00	647.00	556.00	538.00	522.00	474.00	417.00	439.00	485.00	528.00	512.00	508.00	494.00	448.00	387.00	300.00	286.00	288.00	307.00	319.00	425.00	480.00	520.00	575.00	580.00	532.00	459.00	459.00	495.00	632.00	621.00	592.00	552.00	494.00	503.00	547.00	598.00	620.00	618.00	619.00	604.00	593.00	579.00	563.00	469.00	526.00	627.00	625.00	577.00	588.00	644.00	692.00	695.00	669.00	677.00	611.00	451.00	397.00	437.00	548.00	589.00	620.00	620.00	614.00	593.00	575.00	578.00	576.00	465.00	549.00	606.00	561.00	493.00	607.00	642.00	634.00	603.00	569.00	636.00	678.00	687.00	696.00	708.00	693.00	676.00
483.00	484.00	506.00	514.00	528.00	547.00	566.00	576.00	576.00	572.00	577.00	569.00	569.00	578.00	569.00	561.00	543.00	534.00	532.00	585.00	573.00	576.00	581.00	595.00	571.00	571.00	522.00	518.00	515.00	473.00	439.00	440.00	404.00	400.00	403.00	347.00	347.00	371.00	443.00	446.00	509.00	509.00	482.00	513.00	491.00	485.00	451.00	322.00	303.00	283.00	236.00	224.00	204.00	203.00	203.00	203.00	203.00	203.00	204.00	205.00	230.00	277.00	275.00	251.00	249.00	241.00	270.00	246.00	236.00	242.00	286.00	247.00	227.00	254.00	241.00	259.00	293.00	330.00	338.00	401.00	469.00	494.00	433.00	464.00	490.00	538.00	550.00	500.00	511.00	552.00	588.00	598.00	571.00	559.00	547.00	538.00	540.00	601.00	614.00	629.00	620.00	617.00	583.00	549.00	530.00	514.00	494.00	487.00	460.00	443.00	441.00	441.00	441.00	450.00	476.00	420.00	429.00	414.00	391.00	385.00	374.00	372.00	373.00	382.00	382.00	380.00	392.00	427.00	475.00	485.00	503.00	506.00	476.00	507.00	542.00	541.00	521.00	551.00	567.00	572.00	542.00	472.00	460.00	461.00	494.00	494.00	463.00	469.00	503.00	510.00	474.00	520.00	557.00	527.00	418.00	458.00	485.00	439.00	396.00	375.00	391.00	415.00	475.00	526.00	569.00	546.00	542.00	558.00	571.00	657.00	709.00	708.00	676.00	539.00	518.00	488.00	505.00	425.00	409.00	456.00	499.00	531.00	568.00	568.00	519.00	397.00	290.00	287.00	299.00	315.00	336.00	476.00	544.00	565.00	599.00	640.00	608.00	473.00	475.00	495.00	610.00	619.00	593.00	576.00	508.00	528.00	523.00	582.00	638.00	614.00	595.00	582.00	591.00	590.00	585.00	539.00	476.00	562.00	586.00	569.00	603.00	644.00	691.00	677.00	666.00	682.00	660.00	444.00	397.00	458.00	549.00	582.00	603.00	610.00	613.00	600.00	529.00	512.00	510.00	457.00	600.00	629.00	542.00	493.00	600.00	647.00	655.00	625.00	592.00	707.00	726.00	719.00	723.00	703.00	685.00	660.00
501.00	531.00	533.00	537.00	547.00	575.00	596.00	585.00	566.00	563.00	576.00	572.00	579.00	579.00	574.00	575.00	561.00	545.00	528.00	586.00	575.00	573.00	587.00	575.00	554.00	551.00	527.00	498.00	498.00	469.00	446.00	410.00	404.00	399.00	414.00	354.00	347.00	368.00	446.00	438.00	460.00	470.00	461.00	509.00	498.00	498.00	465.00	342.00	341.00	352.00	344.00	301.00	215.00	206.00	203.00	203.00	203.00	203.00	203.00	204.00	206.00	242.00	248.00	225.00	219.00	243.00	245.00	219.00	212.00	209.00	216.00	237.00	219.00	223.00	247.00	266.00	289.00	304.00	317.00	424.00	409.00	417.00	402.00	423.00	472.00	504.00	496.00	459.00	514.00	535.00	539.00	557.00	556.00	581.00	552.00	538.00	539.00	549.00	574.00	586.00	587.00	587.00	558.00	535.00	504.00	479.00	469.00	450.00	441.00	441.00	441.00	441.00	443.00	488.00	454.00	451.00	406.00	387.00	375.00	371.00	371.00	380.00	371.00	371.00	372.00	381.00	427.00	488.00	515.00	509.00	537.00	531.00	487.00	515.00	531.00	548.00	535.00	551.00	545.00	542.00	525.00	461.00	466.00	463.00	483.00	502.00	462.00	469.00	505.00	510.00	461.00	469.00	504.00	490.00	455.00	454.00	476.00	462.00	426.00	377.00	421.00	458.00	470.00	508.00	565.00	549.00	512.00	520.00	502.00	573.00	591.00	571.00	557.00	530.00	509.00	531.00	530.00	442.00	396.00	399.00	414.00	423.00	512.00	433.00	342.00	313.00	287.00	297.00	312.00	319.00	348.00	451.00	497.00	545.00	586.00	658.00	643.00	494.00	475.00	479.00	597.00	610.00	634.00	606.00	509.00	536.00	521.00	578.00	644.00	613.00	602.00	593.00	571.00	567.00	566.00	555.00	479.00	505.00	527.00	539.00	598.00	654.00	679.00	660.00	654.00	629.00	637.00	549.00	400.00	495.00	540.00	573.00	573.00	593.00	604.00	598.00	519.00	550.00	626.00	458.00	646.00	683.00	612.00	511.00	685.00	718.00	725.00	695.00	617.00	692.00	703.00	712.00	698.00	669.00	650.00	627.00
534.00	534.00	547.00	560.00	554.00	562.00	581.00	589.00	575.00	560.00	566.00	579.00	580.00	580.00	581.00	573.00	585.00	563.00	530.00	566.00	561.00	564.00	565.00	564.00	559.00	535.00	508.00	486.00	486.00	463.00	440.00	399.00	386.00	380.00	386.00	368.00	349.00	344.00	427.00	449.00	484.00	514.00	480.00	478.00	490.00	482.00	441.00	342.00	360.00	408.00	419.00	341.00	231.00	217.00	205.00	203.00	203.00	206.00	204.00	206.00	212.00	217.00	218.00	216.00	216.00	219.00	219.00	217.00	207.00	206.00	215.00	234.00	246.00	260.00	323.00	324.00	317.00	294.00	293.00	376.00	383.00	419.00	372.00	426.00	454.00	467.00	442.00	446.00	498.00	504.00	498.00	516.00	563.00	573.00	548.00	545.00	536.00	529.00	546.00	563.00	566.00	566.00	530.00	510.00	481.00	451.00	442.00	441.00	441.00	442.00	488.00	489.00	472.00	455.00	441.00	423.00	392.00	374.00	374.00	371.00	371.00	371.00	372.00	374.00	396.00	420.00	449.00	482.00	518.00	527.00	525.00	527.00	489.00	488.00	502.00	508.00	505.00	495.00	496.00	490.00	482.00	506.00	498.00	492.00	499.00	471.00	459.00	461.00	483.00	496.00	453.00	434.00	435.00	400.00	385.00	389.00	403.00	428.00	417.00	381.00	423.00	484.00	492.00	508.00	549.00	520.00	486.00	466.00	480.00	547.00	574.00	587.00	543.00	507.00	518.00	535.00	530.00	445.00	411.00	397.00	382.00	359.00	367.00	349.00	316.00	310.00	298.00	307.00	314.00	315.00	346.00	500.00	511.00	548.00	577.00	678.00	693.00	533.00	489.00	477.00	561.00	607.00	642.00	646.00	505.00	534.00	520.00	551.00	612.00	598.00	589.00	576.00	563.00	543.00	525.00	532.00	484.00	458.00	508.00	508.00	581.00	654.00	679.00	659.00	636.00	626.00	573.00	534.00	447.00	545.00	569.00	559.00	569.00	576.00	575.00	574.00	606.00	649.00	672.00	473.00	660.00	679.00	583.00	535.00	693.00	693.00	686.00	671.00	610.00	649.00	661.00	677.00	662.00	632.00	608.00	592.00
521.00	531.00	559.00	551.00	537.00	553.00	575.00	566.00	591.00	554.00	552.00	575.00	582.00	586.00	591.00	581.00	582.00	576.00	554.00	546.00	555.00	547.00	554.00	571.00	570.00	535.00	504.00	474.00	452.00	400.00	395.00	383.00	383.00	370.00	368.00	360.00	345.00	338.00	408.00	454.00	515.00	537.00	518.00	483.00	477.00	462.00	408.00	351.00	399.00	443.00	418.00	358.00	250.00	230.00	221.00	204.00	206.00	209.00	204.00	204.00	203.00	208.00	214.00	214.00	214.00	217.00	221.00	212.00	221.00	238.00	263.00	361.00	336.00	340.00	401.00	386.00	371.00	341.00	316.00	347.00	390.00	451.00	363.00	405.00	429.00	431.00	427.00	453.00	501.00	532.00	500.00	494.00	562.00	552.00	569.00	570.00	535.00	530.00	538.00	558.00	559.00	587.00	536.00	495.00	477.00	447.00	442.00	441.00	441.00	461.00	512.00	466.00	464.00	523.00	459.00	417.00	373.00	377.00	377.00	386.00	373.00	375.00	375.00	391.00	426.00	469.00	476.00	481.00	512.00	507.00	509.00	498.00	475.00	467.00	479.00	481.00	478.00	479.00	482.00	494.00	500.00	521.00	499.00	504.00	508.00	502.00	497.00	500.00	515.00	534.00	457.00	448.00	448.00	442.00	432.00	382.00	382.00	392.00	390.00	387.00	436.00	487.00	466.00	494.00	604.00	603.00	562.00	468.00	494.00	578.00	582.00	540.00	524.00	499.00	489.00	489.00	452.00	418.00	404.00	381.00	366.00	358.00	325.00	313.00	307.00	299.00	302.00	316.00	325.00	319.00	340.00	479.00	531.00	565.00	609.00	696.00	738.00	585.00	503.00	487.00	543.00	603.00	628.00	618.00	516.00	521.00	519.00	518.00	605.00	590.00	564.00	569.00	578.00	579.00	586.00	583.00	556.00	459.00	512.00	512.00	589.00	659.00	664.00	633.00	598.00	569.00	503.00	413.00	475.00	577.00	592.00	556.00	573.00	618.00	625.00	615.00	636.00	639.00	640.00	496.00	644.00	627.00	521.00	554.00	659.00	654.00	645.00	616.00	546.00	654.00	662.00	651.00	653.00	624.00	595.00	556.00
521.00	531.00	559.00	551.00	537.00	553.00	575.00	566.00	591.00	554.00	552.00	575.00	582.00	586.00	591.00	581.00	582.00	576.00	554.00	546.00	555.00	547.00	554.00	571.00	570.00	535.00	504.00	474.00	452.00	400.00	395.00	383.00	383.00	370.00	368.00	360.00	345.00	338.00	408.00	454.00	515.00	537.00	518.00	483.00	477.00	462.00	408.00	351.00	399.00	443.00	418.00	358.00	250.00	230.00	221.00	204.00	206.00	209.00	204.00	204.00	203.00	208.00	214.00	214.00	214.00	217.00	221.00	212.00	221.00	238.00	263.00	361.00	336.00	340.00	401.00	386.00	371.00	341.00	316.00	347.00	390.00	451.00	363.00	405.00	429.00	431.00	427.00	453.00	501.00	532.00	500.00	494.00	562.00	552.00	569.00	570.00	535.00	530.00	538.00	558.00	559.00	587.00	536.00	495.00	477.00	447.00	442.00	441.00	441.00	461.00	512.00	466.00	464.00	523.00	459.00	417.00	373.00	377.00	377.00	386.00	373.00	375.00	375.00	391.00	426.00	469.00	476.00	481.00	512.00	507.00	509.00	498.00	475.00	467.00	479.00	481.00	478.00	479.00	482.00	494.00	500.00	521.00	499.00	504.00	508.00	502.00	497.00	500.00	515.00	534.00	457.00	448.00	448.00	442.00	432.00	382.00	382.00	392.00	390.00	387.00	436.00	487.00	466.00	494.00	604.00	603.00	562.00	468.00	494.00	578.00	582.00	540.00	524.00	499.00	489.00	489.00	452.00	418.00	404.00	381.00	366.00	358.00	325.00	313.00	307.00	299.00	302.00	316.00	325.00	319.00	340.00	479.00	531.00	565.00	609.00	696.00	738.00	585.00	503.00	487.00	543.00	603.00	628.00	618.00	516.00	521.00	519.00	518.00	605.00	590.00	564.00	569.00	578.00	579.00	586.00	583.00	556.00	459.00	512.00	512.00	589.00	659.00	664.00	633.00	598.00	569.00	503.00	413.00	475.00	577.00	592.00	556.00	573.00	618.00	625.00	615.00	636.00	639.00	640.00	496.00	644.00	627.00	521.00	554.00	659.00	654.00	645.00	616.00	546.00	654.00	662.00	651.00	653.00	624.00	595.00	556.00
525.00	516.00	522.00	517.00	518.00	526.00	566.00	551.00	586.00	567.00	543.00	570.00	582.00	585.00	586.00	582.00	581.00	570.00	562.00	529.00	536.00	553.00	560.00	536.00	544.00	513.00	490.00	469.00	423.00	402.00	378.00	389.00	368.00	351.00	349.00	350.00	338.00	337.00	410.00	481.00	516.00	531.00	527.00	469.00	459.00	443.00	431.00	367.00	403.00	441.00	399.00	355.00	285.00	272.00	258.00	214.00	212.00	208.00	203.00	203.00	203.00	204.00	209.00	212.00	212.00	214.00	219.00	235.00	323.00	329.00	288.00	370.00	351.00	381.00	437.00	411.00	408.00	401.00	377.00	365.00	397.00	413.00	357.00	413.00	413.00	407.00	435.00	487.00	516.00	501.00	491.00	501.00	547.00	542.00	573.00	563.00	535.00	516.00	524.00	577.00	530.00	564.00	523.00	485.00	451.00	442.00	443.00	450.00	458.00	489.00	500.00	452.00	489.00	556.00	453.00	422.00	375.00	397.00	374.00	385.00	396.00	428.00	379.00	392.00	431.00	485.00	493.00	507.00	486.00	473.00	483.00	493.00	472.00	461.00	451.00	448.00	449.00	467.00	458.00	472.00	458.00	496.00	500.00	518.00	528.00	549.00	548.00	579.00	580.00	566.00	515.00	501.00	516.00	516.00	499.00	426.00	388.00	379.00	374.00	377.00	393.00	410.00	427.00	449.00	519.00	533.00	519.00	464.00	499.00	532.00	508.00	506.00	514.00	505.00	532.00	528.00	468.00	429.00	419.00	407.00	379.00	385.00	368.00	288.00	287.00	290.00	311.00	345.00	347.00	343.00	342.00	443.00	513.00	576.00	629.00	744.00	756.00	608.00	516.00	516.00	536.00	575.00	599.00	587.00	534.00	533.00	525.00	512.00	600.00	579.00	573.00	566.00	574.00	600.00	598.00	568.00	590.00	534.00	524.00	512.00	583.00	631.00	643.00	629.00	619.00	596.00	520.00	416.00	411.00	508.00	589.00	492.00	561.00	622.00	637.00	636.00	640.00	627.00	616.00	489.00	567.00	533.00	504.00	592.00	659.00	634.00	632.00	612.00	550.00	656.00	671.00	655.00	633.00	649.00	624.00	584.00
494.00	497.00	493.00	491.00	490.00	486.00	504.00	560.00	551.00	547.00	536.00	542.00	553.00	570.00	573.00	571.00	565.00	568.00	566.00	525.00	516.00	520.00	526.00	519.00	522.00	509.00	483.00	476.00	438.00	433.00	406.00	414.00	380.00	358.00	338.00	339.00	338.00	339.00	407.00	484.00	497.00	491.00	498.00	467.00	457.00	460.00	456.00	378.00	423.00	428.00	400.00	347.00	282.00	281.00	283.00	231.00	208.00	209.00	203.00	203.00	203.00	203.00	203.00	203.00	205.00	219.00	218.00	227.00	290.00	283.00	296.00	377.00	391.00	427.00	403.00	393.00	405.00	400.00	389.00	373.00	388.00	381.00	358.00	394.00	409.00	443.00	508.00	544.00	550.00	511.00	517.00	542.00	551.00	538.00	537.00	539.00	545.00	518.00	535.00	549.00	516.00	512.00	474.00	450.00	441.00	464.00	470.00	481.00	527.00	523.00	523.00	447.00	510.00	556.00	459.00	397.00	411.00	402.00	422.00	411.00	447.00	442.00	382.00	403.00	434.00	472.00	488.00	495.00	476.00	498.00	516.00	520.00	483.00	448.00	433.00	433.00	433.00	444.00	439.00	452.00	466.00	549.00	547.00	545.00	564.00	586.00	571.00	620.00	637.00	616.00	546.00	551.00	588.00	605.00	540.00	443.00	418.00	414.00	372.00	381.00	395.00	405.00	425.00	470.00	532.00	491.00	476.00	444.00	497.00	555.00	541.00	563.00	585.00	555.00	543.00	541.00	466.00	462.00	461.00	496.00	455.00	409.00	385.00	292.00	286.00	287.00	339.00	391.00	397.00	366.00	349.00	438.00	525.00	622.00	659.00	729.00	734.00	618.00	531.00	537.00	572.00	571.00	590.00	591.00	565.00	555.00	560.00	525.00	591.00	590.00	592.00	586.00	573.00	546.00	549.00	531.00	536.00	538.00	531.00	526.00	587.00	622.00	628.00	609.00	570.00	542.00	505.00	440.00	361.00	374.00	395.00	435.00	445.00	506.00	551.00	587.00	575.00	562.00	581.00	474.00	533.00	515.00	516.00	617.00	639.00	639.00	634.00	619.00	549.00	610.00	638.00	650.00	623.00	587.00	595.00	594.00
482.00	483.00	477.00	476.00	477.00	476.00	478.00	565.00	549.00	536.00	529.00	527.00	534.00	564.00	574.00	562.00	562.00	565.00	543.00	543.00	521.00	520.00	531.00	536.00	545.00	530.00	484.00	492.00	459.00	424.00	496.00	488.00	432.00	364.00	338.00	338.00	338.00	339.00	402.00	447.00	481.00	484.00	485.00	458.00	449.00	450.00	450.00	358.00	419.00	416.00	377.00	338.00	277.00	265.00	268.00	234.00	203.00	203.00	203.00	203.00	203.00	203.00	203.00	203.00	204.00	230.00	238.00	247.00	234.00	235.00	324.00	424.00	420.00	425.00	369.00	381.00	406.00	399.00	385.00	348.00	343.00	344.00	369.00	424.00	474.00	515.00	537.00	543.00	505.00	507.00	528.00	588.00	555.00	509.00	507.00	536.00	521.00	571.00	575.00	537.00	513.00	485.00	450.00	441.00	441.00	497.00	535.00	542.00	551.00	548.00	531.00	448.00	523.00	504.00	432.00	378.00	407.00	396.00	436.00	450.00	448.00	411.00	373.00	408.00	447.00	492.00	520.00	517.00	499.00	508.00	536.00	527.00	448.00	436.00	434.00	448.00	468.00	458.00	446.00	452.00	485.00	528.00	524.00	527.00	552.00	616.00	587.00	619.00	623.00	615.00	584.00	574.00	581.00	620.00	606.00	497.00	476.00	431.00	374.00	391.00	409.00	425.00	472.00	502.00	563.00	560.00	480.00	438.00	494.00	497.00	517.00	543.00	565.00	583.00	601.00	573.00	502.00	546.00	513.00	474.00	446.00	386.00	385.00	289.00	286.00	297.00	382.00	446.00	466.00	430.00	363.00	450.00	541.00	632.00	694.00	706.00	706.00	640.00	561.00	544.00	602.00	583.00	602.00	616.00	583.00	578.00	561.00	556.00	568.00	590.00	589.00	614.00	591.00	542.00	538.00	518.00	496.00	504.00	525.00	523.00	579.00	589.00	612.00	581.00	553.00	572.00	556.00	425.00	369.00	336.00	332.00	382.00	400.00	432.00	469.00	501.00	521.00	527.00	487.00	438.00	463.00	488.00	467.00	483.00	594.00	586.00	557.00	531.00	495.00	483.00	530.00	594.00	591.00	606.00	581.00	544.00
479.00	477.00	476.00	476.00	476.00	476.00	476.00	543.00	552.00	543.00	528.00	537.00	539.00	548.00	562.00	552.00	564.00	542.00	539.00	554.00	544.00	528.00	553.00	549.00	539.00	538.00	479.00	462.00	429.00	457.00	454.00	458.00	466.00	428.00	342.00	345.00	340.00	346.00	409.00	424.00	468.00	480.00	480.00	439.00	436.00	437.00	425.00	354.00	399.00	382.00	338.00	309.00	295.00	284.00	268.00	246.00	204.00	203.00	203.00	203.00	203.00	203.00	203.00	203.00	208.00	231.00	219.00	220.00	253.00	293.00	356.00	389.00	404.00	402.00	344.00	383.00	404.00	373.00	350.00	322.00	327.00	347.00	379.00	470.00	502.00	505.00	497.00	500.00	500.00	520.00	567.00	607.00	563.00	510.00	502.00	533.00	518.00	577.00	571.00	546.00	541.00	506.00	442.00	441.00	441.00	488.00	533.00	543.00	546.00	549.00	485.00	440.00	496.00	511.00	391.00	376.00	394.00	394.00	414.00	440.00	412.00	378.00	371.00	450.00	475.00	512.00	539.00	529.00	485.00	483.00	522.00	488.00	436.00	454.00	451.00	473.00	479.00	436.00	454.00	483.00	518.00	575.00	533.00	513.00	536.00	615.00	591.00	633.00	637.00	611.00	580.00	577.00	579.00	612.00	607.00	457.00	458.00	415.00	376.00	384.00	390.00	417.00	509.00	578.00	570.00	565.00	522.00	446.00	460.00	475.00	450.00	455.00	471.00	526.00	554.00	559.00	538.00	614.00	566.00	507.00	460.00	384.00	393.00	287.00	290.00	303.00	397.00	450.00	487.00	484.00	404.00	443.00	530.00	590.00	641.00	677.00	683.00	659.00	604.00	551.00	647.00	581.00	621.00	622.00	564.00	531.00	550.00	557.00	555.00	579.00	601.00	613.00	606.00	555.00	526.00	511.00	490.00	483.00	463.00	522.00	573.00	570.00	528.00	549.00	606.00	610.00	586.00	424.00	372.00	374.00	354.00	332.00	382.00	429.00	496.00	541.00	549.00	545.00	510.00	431.00	464.00	464.00	480.00	535.00	596.00	578.00	532.00	485.00	485.00	529.00	590.00	628.00	629.00	614.00	596.00	568.00
479.00	477.00	476.00	476.00	476.00	476.00	476.00	543.00	552.00	543.00	528.00	537.00	539.00	548.00	562.00	552.00	564.00	542.00	539.00	554.00	544.00	528.00	553.00	549.00	539.00	538.00	479.00	462.00	429.00	457.00	454.00	458.00	466.00	428.00	342.00	345.00	340.00	346.00	409.00	424.00	468.00	480.00	480.00	439.00	436.00	437.00	425.00	354.00	399.00	382.00	338.00	309.00	295.00	284.00	268.00	246.00	204.00	203.00	203.00	203.00	203.00	203.00	203.00	203.00	208.00	231.00	219.00	220.00	253.00	293.00	356.00	389.00	404.00	402.00	344.00	383.00	404.00	373.00	350.00	322.00	327.00	347.00	379.00	470.00	502.00	505.00	497.00	500.00	500.00	520.00	567.00	607.00	563.00	510.00	502.00	533.00	518.00	577.00	571.00	546.00	541.00	506.00	442.00	441.00	441.00	488.00	533.00	543.00	546.00	549.00	485.00	440.00	496.00	511.00	391.00	376.00	394.00	394.00	414.00	440.00	412.00	378.00	371.00	450.00	475.00	512.00	539.00	529.00	485.00	483.00	522.00	488.00	436.00	454.00	451.00	473.00	479.00	436.00	454.00	483.00	518.00	575.00	533.00	513.00	536.00	615.00	591.00	633.00	637.00	611.00	580.00	577.00	579.00	612.00	607.00	457.00	458.00	415.00	376.00	384.00	390.00	417.00	509.00	578.00	570.00	565.00	522.00	446.00	460.00	475.00	450.00	455.00	471.00	526.00	554.00	559.00	538.00	614.00	566.00	507.00	460.00	384.00	393.00	287.00	290.00	303.00	397.00	450.00	487.00	484.00	404.00	443.00	530.00	590.00	641.00	677.00	683.00	659.00	604.00	551.00	647.00	581.00	621.00	622.00	564.00	531.00	550.00	557.00	555.00	579.00	601.00	613.00	606.00	555.00	526.00	511.00	490.00	483.00	463.00	522.00	573.00	570.00	528.00	549.00	606.00	610.00	586.00	424.00	372.00	374.00	354.00	332.00	382.00	429.00	496.00	541.00	549.00	545.00	510.00	431.00	464.00	464.00	480.00	535.00	596.00	578.00	532.00	485.00	485.00	529.00	590.00	628.00	629.00	614.00	596.00	568.00
476.00	476.00	476.00	477.00	487.00	480.00	516.00	558.00	568.00	545.00	531.00	536.00	572.00	581.00	545.00	542.00	545.00	540.00	548.00	530.00	529.00	548.00	572.00	571.00	546.00	484.00	454.00	444.00	462.00	488.00	522.00	547.00	465.00	389.00	380.00	392.00	430.00	437.00	384.00	418.00	437.00	404.00	405.00	429.00	431.00	444.00	398.00	340.00	334.00	345.00	282.00	279.00	276.00	269.00	249.00	246.00	240.00	210.00	203.00	203.00	203.00	203.00	203.00	203.00	203.00	211.00	236.00	261.00	283.00	288.00	326.00	342.00	332.00	322.00	302.00	309.00	314.00	304.00	298.00	326.00	343.00	367.00	457.00	489.00	480.00	486.00	539.00	555.00	510.00	540.00	541.00	556.00	533.00	543.00	506.00	503.00	518.00	554.00	531.00	506.00	472.00	441.00	453.00	468.00	477.00	520.00	575.00	561.00	513.00	523.00	430.00	443.00	487.00	532.00	387.00	441.00	473.00	451.00	439.00	415.00	401.00	388.00	371.00	502.00	510.00	524.00	529.00	457.00	493.00	481.00	452.00	438.00	505.00	471.00	427.00	435.00	427.00	484.00	556.00	573.00	615.00	659.00	627.00	586.00	599.00	624.00	630.00	613.00	640.00	633.00	587.00	584.00	584.00	573.00	588.00	524.00	514.00	376.00	371.00	468.00	474.00	460.00	472.00	481.00	505.00	521.00	484.00	448.00	423.00	414.00	415.00	406.00	407.00	406.00	413.00	438.00	479.00	617.00	602.00	538.00	454.00	387.00	306.00	287.00	289.00	298.00	340.00	357.00	407.00	417.00	394.00	500.00	604.00	682.00	704.00	661.00	683.00	694.00	602.00	561.00	624.00	644.00	599.00	612.00	546.00	547.00	574.00	574.00	453.00	528.00	612.00	630.00	626.00	630.00	618.00	548.00	511.00	516.00	418.00	463.00	469.00	463.00	500.00	520.00	520.00	561.00	513.00	396.00	501.00	552.00	457.00	316.00	348.00	428.00	529.00	580.00	635.00	638.00	567.00	511.00	598.00	629.00	655.00	666.00	659.00	648.00	612.00	531.00	494.00	637.00	621.00	647.00	637.00	614.00	603.00	571.00
507.00	501.00	480.00	492.00	509.00	514.00	540.00	556.00	563.00	531.00	532.00	539.00	535.00	568.00	553.00	541.00	545.00	540.00	540.00	566.00	521.00	535.00	536.00	540.00	537.00	459.00	455.00	459.00	465.00	542.00	557.00	542.00	494.00	438.00	419.00	448.00	480.00	457.00	392.00	395.00	416.00	395.00	407.00	378.00	418.00	426.00	378.00	344.00	394.00	381.00	262.00	260.00	327.00	262.00	227.00	236.00	225.00	212.00	203.00	203.00	203.00	203.00	203.00	203.00	203.00	213.00	230.00	239.00	268.00	308.00	356.00	298.00	309.00	275.00	301.00	336.00	326.00	316.00	308.00	349.00	360.00	366.00	447.00	460.00	473.00	518.00	548.00	550.00	521.00	544.00	532.00	533.00	506.00	507.00	501.00	483.00	513.00	529.00	515.00	532.00	502.00	481.00	499.00	516.00	548.00	597.00	622.00	552.00	514.00	518.00	402.00	418.00	494.00	461.00	402.00	491.00	506.00	455.00	425.00	391.00	390.00	383.00	374.00	452.00	460.00	489.00	471.00	454.00	496.00	464.00	440.00	426.00	462.00	430.00	424.00	429.00	427.00	512.00	546.00	597.00	664.00	657.00	643.00	604.00	619.00	633.00	642.00	630.00	648.00	637.00	609.00	612.00	601.00	590.00	600.00	492.00	416.00	379.00	408.00	499.00	513.00	491.00	498.00	497.00	547.00	534.00	504.00	516.00	484.00	451.00	443.00	426.00	406.00	402.00	414.00	447.00	508.00	614.00	599.00	542.00	454.00	385.00	307.00	286.00	286.00	291.00	308.00	349.00	426.00	392.00	363.00	452.00	539.00	636.00	706.00	674.00	680.00	687.00	665.00	631.00	615.00	590.00	581.00	621.00	609.00	562.00	614.00	595.00	462.00	528.00	602.00	636.00	640.00	599.00	583.00	571.00	533.00	498.00	411.00	414.00	429.00	453.00	433.00	434.00	442.00	452.00	409.00	423.00	527.00	578.00	501.00	312.00	332.00	408.00	502.00	571.00	612.00	592.00	465.00	505.00	618.00	647.00	662.00	666.00	657.00	640.00	601.00	553.00	510.00	675.00	658.00	642.00	624.00	604.00	601.00	526.00
