120.00	120.00	121.00	119.00	120.00	119.00	118.00	116.00	116.00	117.00	117.00	117.00	116.00	116.00	115.00	112.00	116.00	120.00	116.00	114.00	112.00	114.00	113.00	120.00	121.00	120.00	120.00	124.00	113.00	105.00	107.00	108.00	106.00	106.00	111.00	109.00	109.00	109.00	111.00	112.00	115.00	112.00	112.00	112.00	113.00	113.00	113.00	112.00	112.00	115.00	111.00	114.00	111.00	110.00	112.00	112.00	117.00	110.00	110.00	113.00	112.00	117.00	119.00	122.00	122.00	131.00	141.00	142.00	135.00	151.00	134.00	122.00	127.00	131.00	114.00	111.00	108.00	104.00	103.00	97.00	97.00	96.00	96.00	97.00	99.00	98.00	100.00	100.00	104.00	109.00	115.00	118.00	122.00	130.00	117.00	106.00	105.00	108.00	105.00	101.00	104.00	111.00	128.00	148.00	192.00	283.00	291.00	268.00	233.00	215.00	232.00	230.00	230.00	230.00	218.00	217.00	228.00	249.00	265.00	258.00	257.00	260.00	257.00	248.00	253.00	259.00	254.00	267.00	279.00	260.00	238.00	200.00	174.00	167.00	152.00	154.00	154.00	152.00	146.00	139.00	132.00	122.00	122.00	120.00	120.00	115.00	114.00	110.00	108.00	110.00	116.00	119.00	121.00	119.00	119.00	125.00	124.00	123.00	119.00	121.00	127.00	128.00	126.00	128.00	130.00	134.00	137.00	140.00	140.00	140.00	138.00	141.00	141.00	136.00	133.00	131.00	130.00	130.00	129.00	131.00	132.00	130.00	131.00	131.00	132.00	135.00	135.00	137.00	132.00	133.00	130.00	132.00	133.00	135.00	136.00	134.00	136.00	130.00	127.00	123.00	128.00	127.00	125.00	129.00	130.00	133.00	131.00	132.00	131.00	136.00	136.00	137.00	142.00	154.00	157.00	152.00	153.00	150.00	146.00	150.00	159.00	163.00	167.00	164.00	172.00	174.00	168.00	172.00	173.00	174.00	173.00	164.00	162.00	157.00	151.00	153.00	159.00	158.00	161.00	170.00	162.00	160.00	162.00	166.00	167.00	169.00	172.00	170.00	169.00	175.00	178.00	182.00	185.00	167.00	167.00	162.00
119.00	119.00	120.00	118.00	118.00	118.00	122.00	119.00	115.00	115.00	116.00	116.00	116.00	115.00	115.00	113.00	113.00	118.00	115.00	111.00	113.00	113.00	114.00	119.00	120.00	123.00	123.00	113.00	109.00	105.00	108.00	109.00	105.00	107.00	110.00	107.00	109.00	109.00	109.00	111.00	112.00	111.00	110.00	112.00	112.00	112.00	111.00	112.00	112.00	113.00	110.00	112.00	110.00	109.00	110.00	110.00	116.00	109.00	111.00	109.00	107.00	108.00	108.00	110.00	110.00	112.00	116.00	114.00	114.00	117.00	115.00	110.00	110.00	111.00	105.00	104.00	103.00	102.00	102.00	98.00	96.00	94.00	94.00	96.00	97.00	100.00	101.00	104.00	106.00	112.00	116.00	125.00	153.00	165.00	152.00	118.00	105.00	108.00	103.00	101.00	102.00	110.00	129.00	146.00	189.00	268.00	221.00	205.00	210.00	233.00	236.00	225.00	218.00	207.00	199.00	214.00	239.00	248.00	244.00	244.00	253.00	258.00	265.00	268.00	286.00	282.00	270.00	268.00	253.00	241.00	214.00	199.00	184.00	178.00	157.00	147.00	129.00	127.00	127.00	122.00	117.00	116.00	118.00	118.00	118.00	116.00	115.00	115.00	116.00	112.00	114.00	112.00	116.00	116.00	113.00	125.00	121.00	117.00	120.00	125.00	128.00	127.00	125.00	125.00	130.00	133.00	136.00	138.00	139.00	139.00	138.00	139.00	141.00	134.00	131.00	129.00	130.00	129.00	131.00	132.00	132.00	131.00	129.00	129.00	133.00	135.00	133.00	131.00	133.00	131.00	129.00	130.00	132.00	136.00	137.00	132.00	132.00	131.00	127.00	125.00	127.00	124.00	126.00	130.00	128.00	131.00	128.00	127.00	129.00	130.00	133.00	137.00	145.00	154.00	154.00	149.00	148.00	146.00	143.00	158.00	155.00	158.00	163.00	167.00	169.00	171.00	169.00	171.00	172.00	174.00	173.00	166.00	159.00	153.00	151.00	151.00	159.00	161.00	163.00	171.00	161.00	160.00	161.00	168.00	177.00	189.00	185.00	182.00	173.00	187.00	191.00	183.00	175.00	167.00	163.00	159.00
120.00	116.00	119.00	118.00	117.00	118.00	124.00	124.00	120.00	115.00	114.00	114.00	114.00	114.00	114.00	113.00	112.00	116.00	118.00	111.00	113.00	114.00	116.00	118.00	117.00	110.00	109.00	108.00	107.00	106.00	107.00	110.00	108.00	106.00	108.00	108.00	109.00	110.00	109.00	110.00	110.00	111.00	110.00	111.00	111.00	112.00	112.00	110.00	114.00	112.00	109.00	112.00	109.00	110.00	108.00	109.00	113.00	111.00	113.00	108.00	108.00	107.00	111.00	106.00	107.00	107.00	105.00	106.00	107.00	103.00	106.00	106.00	107.00	110.00	110.00	106.00	104.00	101.00	99.00	95.00	94.00	95.00	95.00	94.00	96.00	98.00	99.00	105.00	109.00	113.00	119.00	125.00	181.00	209.00	162.00	113.00	102.00	108.00	104.00	104.00	108.00	123.00	178.00	221.00	261.00	208.00	195.00	200.00	223.00	233.00	225.00	212.00	196.00	191.00	214.00	241.00	242.00	225.00	215.00	231.00	242.00	248.00	253.00	285.00	274.00	229.00	202.00	189.00	164.00	166.00	172.00	188.00	184.00	174.00	151.00	146.00	144.00	122.00	120.00	116.00	115.00	114.00	116.00	117.00	116.00	117.00	115.00	115.00	115.00	114.00	111.00	111.00	114.00	115.00	114.00	119.00	116.00	118.00	122.00	124.00	126.00	126.00	123.00	123.00	127.00	133.00	135.00	138.00	138.00	138.00	139.00	142.00	139.00	136.00	135.00	132.00	129.00	128.00	129.00	134.00	131.00	127.00	128.00	127.00	132.00	135.00	129.00	129.00	133.00	130.00	127.00	133.00	135.00	137.00	142.00	135.00	131.00	128.00	126.00	125.00	124.00	123.00	125.00	131.00	124.00	126.00	124.00	124.00	126.00	130.00	133.00	138.00	145.00	149.00	146.00	144.00	144.00	144.00	143.00	151.00	155.00	152.00	158.00	161.00	166.00	170.00	168.00	169.00	170.00	172.00	173.00	165.00	157.00	155.00	152.00	152.00	152.00	152.00	153.00	158.00	161.00	170.00	168.00	172.00	194.00	196.00	188.00	180.00	178.00	195.00	213.00	205.00	197.00	178.00	168.00	173.00
121.00	117.00	118.00	118.00	117.00	116.00	121.00	116.00	115.00	116.00	114.00	113.00	114.00	112.00	112.00	112.00	111.00	112.00	116.00	118.00	112.00	112.00	113.00	113.00	111.00	111.00	110.00	109.00	108.00	106.00	106.00	107.00	110.00	106.00	106.00	109.00	110.00	110.00	109.00	112.00	109.00	110.00	110.00	110.00	111.00	113.00	111.00	114.00	113.00	111.00	109.00	110.00	108.00	107.00	107.00	108.00	114.00	110.00	113.00	110.00	108.00	109.00	112.00	110.00	106.00	104.00	103.00	103.00	101.00	100.00	102.00	104.00	114.00	128.00	141.00	127.00	110.00	102.00	99.00	93.00	92.00	94.00	93.00	94.00	96.00	98.00	100.00	103.00	109.00	114.00	119.00	141.00	206.00	188.00	132.00	109.00	106.00	135.00	109.00	152.00	156.00	178.00	221.00	221.00	187.00	211.00	195.00	201.00	207.00	202.00	183.00	180.00	181.00	199.00	217.00	219.00	211.00	203.00	217.00	225.00	229.00	241.00	255.00	276.00	239.00	175.00	147.00	137.00	131.00	128.00	131.00	150.00	188.00	177.00	158.00	165.00	157.00	120.00	119.00	116.00	115.00	113.00	115.00	115.00	116.00	116.00	118.00	120.00	117.00	115.00	112.00	110.00	109.00	113.00	111.00	115.00	114.00	121.00	123.00	121.00	121.00	121.00	121.00	123.00	128.00	134.00	137.00	140.00	138.00	137.00	139.00	138.00	139.00	137.00	136.00	135.00	129.00	127.00	128.00	133.00	133.00	127.00	126.00	129.00	131.00	131.00	127.00	130.00	132.00	130.00	134.00	136.00	140.00	144.00	146.00	135.00	129.00	128.00	126.00	124.00	122.00	121.00	127.00	130.00	121.00	122.00	122.00	125.00	129.00	132.00	139.00	145.00	147.00	144.00	143.00	140.00	139.00	142.00	149.00	149.00	152.00	152.00	153.00	159.00	163.00	167.00	167.00	167.00	170.00	170.00	170.00	162.00	157.00	154.00	151.00	150.00	148.00	150.00	152.00	153.00	164.00	171.00	168.00	167.00	202.00	208.00	201.00	199.00	201.00	211.00	215.00	204.00	188.00	167.00	165.00	185.00
117.00	117.00	118.00	117.00	116.00	116.00	117.00	118.00	114.00	113.00	113.00	112.00	112.00	111.00	110.00	110.00	109.00	109.00	110.00	117.00	117.00	113.00	108.00	108.00	108.00	107.00	109.00	110.00	108.00	106.00	105.00	105.00	109.00	110.00	107.00	109.00	109.00	109.00	110.00	112.00	109.00	108.00	109.00	109.00	109.00	109.00	110.00	111.00	109.00	109.00	111.00	107.00	105.00	107.00	107.00	111.00	112.00	108.00	109.00	108.00	107.00	105.00	104.00	106.00	109.00	105.00	103.00	100.00	99.00	99.00	100.00	149.00	142.00	129.00	130.00	127.00	105.00	96.00	94.00	93.00	91.00	89.00	92.00	95.00	96.00	104.00	110.00	111.00	116.00	122.00	122.00	118.00	140.00	192.00	199.00	149.00	112.00	102.00	103.00	100.00	100.00	110.00	122.00	119.00	122.00	151.00	165.00	164.00	161.00	172.00	214.00	228.00	221.00	214.00	182.00	200.00	221.00	211.00	228.00	243.00	250.00	259.00	275.00	172.00	140.00	127.00	125.00	127.00	124.00	122.00	121.00	121.00	161.00	192.00	130.00	119.00	114.00	117.00	115.00	113.00	112.00	112.00	112.00	114.00	113.00	115.00	124.00	134.00	131.00	122.00	106.00	108.00	105.00	105.00	109.00	113.00	119.00	114.00	113.00	116.00	118.00	120.00	123.00	125.00	129.00	133.00	136.00	139.00	138.00	136.00	134.00	138.00	137.00	136.00	134.00	135.00	132.00	131.00	127.00	129.00	134.00	126.00	126.00	128.00	125.00	124.00	129.00	128.00	130.00	138.00	146.00	138.00	135.00	133.00	131.00	130.00	128.00	123.00	124.00	125.00	122.00	120.00	125.00	124.00	124.00	124.00	126.00	129.00	136.00	144.00	147.00	148.00	144.00	140.00	139.00	138.00	140.00	143.00	166.00	157.00	156.00	153.00	163.00	161.00	162.00	166.00	165.00	167.00	170.00	170.00	171.00	171.00	158.00	154.00	154.00	149.00	146.00	147.00	150.00	151.00	155.00	156.00	159.00	159.00	164.00	158.00	157.00	162.00	164.00	159.00	155.00	153.00	159.00	152.00	150.00	151.00
117.00	117.00	118.00	117.00	116.00	116.00	117.00	118.00	114.00	113.00	113.00	112.00	112.00	111.00	110.00	110.00	109.00	109.00	110.00	117.00	117.00	113.00	108.00	108.00	108.00	107.00	109.00	110.00	108.00	106.00	105.00	105.00	109.00	110.00	107.00	109.00	109.00	109.00	110.00	112.00	109.00	108.00	109.00	109.00	109.00	109.00	110.00	111.00	109.00	109.00	111.00	107.00	105.00	107.00	107.00	111.00	112.00	108.00	109.00	108.00	107.00	105.00	104.00	106.00	109.00	105.00	103.00	100.00	99.00	99.00	100.00	149.00	142.00	129.00	130.00	127.00	105.00	96.00	94.00	93.00	91.00	89.00	92.00	95.00	96.00	104.00	110.00	111.00	116.00	122.00	122.00	118.00	140.00	192.00	199.00	149.00	112.00	102.00	103.00	100.00	100.00	110.00	122.00	119.00	122.00	151.00	165.00	164.00	161.00	172.00	214.00	228.00	221.00	214.00	182.00	200.00	221.00	211.00	228.00	243.00	250.00	259.00	275.00	172.00	140.00	127.00	125.00	127.00	124.00	122.00	121.00	121.00	161.00	192.00	130.00	119.00	114.00	117.00	115.00	113.00	112.00	112.00	112.00	114.00	113.00	115.00	124.00	134.00	131.00	122.00	106.00	108.00	105.00	105.00	109.00	113.00	119.00	114.00	113.00	116.00	118.00	120.00	123.00	125.00	129.00	133.00	136.00	139.00	138.00	136.00	134.00	138.00	137.00	136.00	134.00	135.00	132.00	131.00	127.00	129.00	134.00	126.00	126.00	128.00	125.00	124.00	129.00	128.00	130.00	138.00	146.00	138.00	135.00	133.00	131.00	130.00	128.00	123.00	124.00	125.00	122.00	120.00	125.00	124.00	124.00	124.00	126.00	129.00	136.00	144.00	147.00	148.00	144.00	140.00	139.00	138.00	140.00	143.00	166.00	157.00	156.00	153.00	163.00	161.00	162.00	166.00	165.00	167.00	170.00	170.00	171.00	171.00	158.00	154.00	154.00	149.00	146.00	147.00	150.00	151.00	155.00	156.00	159.00	159.00	164.00	158.00	157.00	162.00	164.00	159.00	155.00	153.00	159.00	152.00	150.00	151.00
116.00	116.00	117.00	116.00	117.00	115.00	114.00	118.00	115.00	113.00	113.00	111.00	111.00	111.00	110.00	109.00	109.00	110.00	114.00	114.00	117.00	112.00	107.00	108.00	107.00	106.00	105.00	107.00	110.00	105.00	105.00	106.00	106.00	108.00	108.00	109.00	108.00	109.00	110.00	110.00	112.00	108.00	107.00	108.00	108.00	108.00	108.00	111.00	108.00	107.00	107.00	107.00	108.00	106.00	109.00	111.00	111.00	110.00	110.00	106.00	109.00	106.00	104.00	103.00	103.00	104.00	101.00	100.00	98.00	99.00	97.00	126.00	121.00	108.00	103.00	99.00	94.00	92.00	92.00	91.00	91.00	90.00	94.00	95.00	97.00	104.00	112.00	117.00	130.00	122.00	116.00	124.00	138.00	131.00	117.00	107.00	104.00	102.00	103.00	99.00	106.00	113.00	111.00	118.00	133.00	201.00	170.00	159.00	177.00	193.00	224.00	244.00	230.00	175.00	197.00	218.00	219.00	234.00	257.00	274.00	277.00	272.00	249.00	141.00	133.00	128.00	126.00	124.00	120.00	120.00	118.00	118.00	128.00	153.00	119.00	112.00	113.00	114.00	112.00	113.00	112.00	111.00	112.00	112.00	113.00	119.00	127.00	121.00	119.00	116.00	107.00	107.00	107.00	107.00	112.00	114.00	113.00	111.00	111.00	119.00	120.00	121.00	124.00	125.00	128.00	132.00	131.00	133.00	138.00	138.00	135.00	135.00	136.00	134.00	134.00	131.00	133.00	128.00	128.00	126.00	131.00	126.00	126.00	127.00	123.00	124.00	130.00	131.00	131.00	133.00	140.00	139.00	136.00	136.00	133.00	129.00	125.00	121.00	121.00	121.00	121.00	121.00	122.00	120.00	124.00	128.00	131.00	130.00	144.00	145.00	147.00	148.00	140.00	138.00	137.00	139.00	140.00	140.00	173.00	164.00	161.00	161.00	165.00	169.00	166.00	166.00	164.00	167.00	168.00	169.00	169.00	169.00	158.00	151.00	152.00	148.00	147.00	146.00	147.00	151.00	153.00	154.00	158.00	155.00	152.00	154.00	157.00	163.00	164.00	153.00	154.00	151.00	149.00	147.00	148.00	148.00
115.00	115.00	117.00	116.00	116.00	115.00	114.00	118.00	115.00	112.00	113.00	109.00	110.00	110.00	111.00	108.00	114.00	114.00	113.00	115.00	117.00	115.00	113.00	107.00	107.00	106.00	106.00	108.00	112.00	104.00	105.00	106.00	107.00	108.00	108.00	108.00	106.00	111.00	106.00	108.00	110.00	108.00	106.00	107.00	107.00	108.00	106.00	107.00	106.00	107.00	107.00	107.00	106.00	108.00	112.00	110.00	110.00	112.00	110.00	109.00	112.00	107.00	104.00	104.00	103.00	104.00	103.00	101.00	101.00	100.00	99.00	98.00	98.00	97.00	95.00	94.00	92.00	92.00	92.00	90.00	91.00	91.00	96.00	97.00	99.00	101.00	109.00	129.00	166.00	170.00	150.00	113.00	107.00	103.00	100.00	104.00	105.00	103.00	103.00	110.00	109.00	104.00	116.00	162.00	192.00	200.00	161.00	160.00	175.00	184.00	204.00	214.00	208.00	179.00	213.00	203.00	222.00	248.00	261.00	263.00	271.00	240.00	199.00	131.00	132.00	133.00	129.00	126.00	119.00	118.00	117.00	116.00	120.00	122.00	114.00	110.00	110.00	113.00	113.00	113.00	112.00	112.00	113.00	114.00	114.00	125.00	117.00	115.00	114.00	113.00	106.00	106.00	110.00	112.00	114.00	110.00	109.00	110.00	113.00	121.00	123.00	125.00	126.00	126.00	128.00	128.00	127.00	132.00	139.00	138.00	136.00	133.00	136.00	135.00	135.00	130.00	129.00	130.00	126.00	126.00	131.00	134.00	124.00	124.00	126.00	124.00	134.00	136.00	139.00	139.00	152.00	146.00	139.00	136.00	134.00	131.00	128.00	121.00	123.00	122.00	122.00	121.00	120.00	123.00	137.00	141.00	139.00	138.00	145.00	146.00	149.00	143.00	138.00	136.00	137.00	138.00	138.00	141.00	175.00	174.00	173.00	169.00	168.00	166.00	165.00	164.00	163.00	166.00	168.00	168.00	169.00	167.00	161.00	151.00	147.00	145.00	146.00	146.00	145.00	150.00	155.00	157.00	153.00	152.00	150.00	153.00	159.00	160.00	161.00	151.00	151.00	148.00	148.00	146.00	146.00	147.00
113.00	114.00	114.00	115.00	114.00	113.00	114.00	116.00	112.00	111.00	111.00	109.00	109.00	109.00	109.00	109.00	113.00	111.00	107.00	116.00	112.00	109.00	111.00	108.00	105.00	105.00	106.00	103.00	103.00	106.00	108.00	106.00	105.00	108.00	106.00	106.00	106.00	105.00	105.00	106.00	111.00	106.00	105.00	107.00	106.00	107.00	105.00	109.00	106.00	106.00	131.00	108.00	106.00	109.00	118.00	132.00	137.00	156.00	149.00	146.00	114.00	106.00	108.00	107.00	106.00	101.00	105.00	103.00	101.00	103.00	101.00	99.00	98.00	97.00	94.00	93.00	93.00	91.00	92.00	91.00	91.00	90.00	102.00	121.00	113.00	114.00	117.00	119.00	113.00	108.00	106.00	99.00	105.00	105.00	104.00	102.00	98.00	104.00	101.00	104.00	103.00	105.00	114.00	120.00	128.00	149.00	162.00	164.00	173.00	148.00	131.00	133.00	150.00	141.00	173.00	199.00	220.00	235.00	230.00	195.00	180.00	149.00	129.00	125.00	130.00	140.00	133.00	122.00	118.00	120.00	125.00	119.00	116.00	114.00	116.00	114.00	116.00	112.00	111.00	111.00	115.00	120.00	114.00	112.00	111.00	114.00	110.00	112.00	111.00	109.00	109.00	104.00	105.00	106.00	111.00	109.00	114.00	118.00	122.00	124.00	121.00	121.00	123.00	122.00	122.00	122.00	125.00	128.00	138.00	137.00	135.00	134.00	132.00	133.00	131.00	127.00	124.00	130.00	127.00	124.00	125.00	134.00	122.00	122.00	125.00	130.00	181.00	181.00	188.00	181.00	163.00	208.00	183.00	161.00	146.00	136.00	135.00	128.00	126.00	125.00	123.00	124.00	124.00	126.00	135.00	142.00	143.00	142.00	140.00	140.00	136.00	135.00	135.00	135.00	136.00	136.00	136.00	140.00	165.00	169.00	179.00	183.00	171.00	165.00	162.00	162.00	161.00	165.00	167.00	164.00	166.00	167.00	159.00	153.00	149.00	144.00	144.00	144.00	143.00	166.00	155.00	149.00	152.00	148.00	151.00	155.00	157.00	157.00	160.00	160.00	159.00	151.00	150.00	145.00	145.00	144.00
113.00	114.00	114.00	113.00	112.00	113.00	115.00	117.00	112.00	111.00	109.00	110.00	107.00	108.00	108.00	107.00	111.00	112.00	107.00	113.00	108.00	107.00	106.00	107.00	105.00	104.00	105.00	102.00	103.00	106.00	106.00	105.00	108.00	106.00	106.00	106.00	106.00	105.00	105.00	105.00	109.00	107.00	106.00	106.00	105.00	107.00	106.00	108.00	105.00	107.00	113.00	106.00	105.00	107.00	107.00	106.00	105.00	107.00	111.00	118.00	110.00	127.00	118.00	110.00	107.00	105.00	106.00	102.00	102.00	100.00	97.00	97.00	96.00	96.00	93.00	94.00	93.00	92.00	92.00	92.00	91.00	91.00	97.00	101.00	100.00	102.00	107.00	108.00	107.00	105.00	101.00	100.00	104.00	105.00	102.00	99.00	98.00	105.00	104.00	100.00	101.00	105.00	108.00	111.00	134.00	158.00	151.00	144.00	138.00	121.00	121.00	133.00	132.00	134.00	187.00	208.00	207.00	205.00	193.00	143.00	130.00	125.00	124.00	122.00	127.00	129.00	127.00	120.00	116.00	116.00	117.00	116.00	117.00	117.00	114.00	113.00	115.00	114.00	109.00	110.00	109.00	111.00	109.00	110.00	110.00	113.00	110.00	112.00	111.00	108.00	111.00	105.00	103.00	107.00	111.00	114.00	120.00	122.00	121.00	124.00	121.00	119.00	120.00	120.00	121.00	122.00	126.00	129.00	137.00	136.00	134.00	133.00	134.00	134.00	132.00	129.00	124.00	131.00	128.00	125.00	123.00	126.00	122.00	119.00	133.00	163.00	160.00	177.00	229.00	233.00	203.00	179.00	158.00	146.00	145.00	146.00	142.00	129.00	124.00	120.00	122.00	120.00	123.00	126.00	138.00	140.00	139.00	138.00	137.00	134.00	134.00	133.00	133.00	133.00	134.00	134.00	135.00	139.00	156.00	172.00	179.00	181.00	173.00	165.00	161.00	159.00	162.00	165.00	165.00	164.00	163.00	164.00	158.00	155.00	152.00	147.00	142.00	143.00	143.00	157.00	149.00	149.00	147.00	147.00	164.00	161.00	162.00	161.00	162.00	161.00	153.00	152.00	152.00	144.00	143.00	143.00
113.00	113.00	114.00	114.00	113.00	113.00	113.00	112.00	112.00	111.00	110.00	109.00	109.00	108.00	107.00	109.00	108.00	110.00	106.00	114.00	106.00	105.00	105.00	106.00	106.00	103.00	106.00	102.00	103.00	105.00	102.00	104.00	105.00	105.00	107.00	104.00	105.00	105.00	104.00	104.00	107.00	106.00	105.00	105.00	105.00	105.00	104.00	110.00	107.00	108.00	101.00	105.00	106.00	102.00	102.00	102.00	101.00	100.00	98.00	98.00	98.00	114.00	110.00	118.00	117.00	137.00	144.00	117.00	102.00	99.00	96.00	94.00	94.00	94.00	96.00	95.00	94.00	93.00	91.00	91.00	91.00	92.00	94.00	93.00	98.00	100.00	101.00	105.00	104.00	101.00	101.00	102.00	104.00	102.00	98.00	96.00	96.00	98.00	103.00	101.00	101.00	104.00	108.00	108.00	117.00	121.00	121.00	117.00	117.00	115.00	122.00	122.00	116.00	147.00	182.00	167.00	151.00	143.00	134.00	120.00	118.00	119.00	119.00	121.00	124.00	123.00	119.00	116.00	111.00	114.00	113.00	111.00	111.00	109.00	109.00	108.00	113.00	111.00	110.00	110.00	111.00	110.00	109.00	108.00	110.00	110.00	110.00	110.00	110.00	109.00	110.00	110.00	109.00	108.00	114.00	116.00	117.00	121.00	123.00	123.00	120.00	119.00	117.00	119.00	119.00	127.00	131.00	133.00	137.00	134.00	132.00	131.00	132.00	135.00	135.00	132.00	122.00	129.00	129.00	128.00	122.00	121.00	123.00	124.00	154.00	181.00	159.00	202.00	217.00	216.00	194.00	161.00	159.00	156.00	155.00	136.00	130.00	122.00	121.00	122.00	121.00	121.00	127.00	134.00	139.00	137.00	136.00	137.00	133.00	131.00	130.00	130.00	128.00	133.00	132.00	131.00	135.00	140.00	157.00	167.00	177.00	178.00	173.00	165.00	160.00	159.00	161.00	161.00	163.00	164.00	163.00	161.00	157.00	154.00	150.00	147.00	142.00	142.00	141.00	141.00	146.00	145.00	143.00	146.00	158.00	157.00	153.00	155.00	158.00	154.00	152.00	154.00	150.00	148.00	144.00	144.00
114.00	113.00	112.00	114.00	112.00	111.00	111.00	111.00	112.00	113.00	110.00	108.00	108.00	106.00	106.00	106.00	107.00	111.00	110.00	108.00	106.00	108.00	105.00	105.00	106.00	103.00	104.00	103.00	103.00	105.00	102.00	105.00	104.00	105.00	105.00	104.00	104.00	103.00	105.00	106.00	105.00	103.00	104.00	105.00	105.00	105.00	105.00	109.00	107.00	108.00	101.00	103.00	102.00	101.00	102.00	101.00	101.00	98.00	98.00	98.00	97.00	97.00	96.00	97.00	109.00	139.00	146.00	143.00	106.00	99.00	96.00	94.00	94.00	94.00	93.00	92.00	92.00	92.00	93.00	92.00	92.00	94.00	95.00	95.00	97.00	97.00	98.00	100.00	100.00	101.00	101.00	102.00	103.00	103.00	97.00	96.00	97.00	98.00	103.00	105.00	101.00	106.00	102.00	104.00	107.00	107.00	108.00	111.00	112.00	114.00	117.00	115.00	115.00	137.00	130.00	120.00	116.00	113.00	113.00	115.00	116.00	114.00	113.00	123.00	122.00	121.00	119.00	117.00	110.00	113.00	112.00	111.00	109.00	108.00	106.00	108.00	108.00	106.00	110.00	108.00	110.00	109.00	105.00	106.00	110.00	109.00	109.00	110.00	110.00	107.00	109.00	110.00	110.00	113.00	115.00	114.00	117.00	121.00	121.00	117.00	116.00	116.00	117.00	117.00	119.00	126.00	131.00	133.00	135.00	134.00	132.00	130.00	129.00	132.00	134.00	132.00	122.00	129.00	128.00	127.00	119.00	118.00	122.00	130.00	158.00	185.00	162.00	181.00	187.00	186.00	172.00	166.00	160.00	151.00	145.00	133.00	128.00	121.00	119.00	121.00	120.00	122.00	130.00	139.00	136.00	134.00	133.00	134.00	131.00	130.00	132.00	129.00	126.00	133.00	133.00	130.00	134.00	138.00	150.00	158.00	174.00	175.00	168.00	163.00	162.00	159.00	159.00	160.00	162.00	162.00	162.00	158.00	153.00	154.00	150.00	149.00	142.00	141.00	143.00	140.00	143.00	143.00	143.00	144.00	153.00	149.00	151.00	151.00	159.00	159.00	160.00	161.00	159.00	153.00	143.00	139.00
111.00	111.00	111.00	111.00	110.00	110.00	109.00	108.00	109.00	112.00	117.00	108.00	107.00	107.00	104.00	104.00	103.00	104.00	105.00	104.00	106.00	106.00	103.00	106.00	103.00	105.00	105.00	102.00	103.00	106.00	103.00	103.00	102.00	102.00	104.00	102.00	102.00	102.00	102.00	102.00	102.00	101.00	102.00	102.00	103.00	103.00	102.00	102.00	101.00	105.00	102.00	100.00	101.00	101.00	105.00	101.00	98.00	98.00	98.00	98.00	97.00	97.00	95.00	93.00	93.00	91.00	94.00	95.00	95.00	95.00	96.00	94.00	93.00	92.00	92.00	90.00	91.00	91.00	91.00	90.00	92.00	91.00	92.00	93.00	94.00	96.00	97.00	97.00	98.00	99.00	100.00	99.00	104.00	100.00	94.00	94.00	95.00	96.00	98.00	103.00	104.00	100.00	102.00	105.00	108.00	114.00	106.00	104.00	107.00	109.00	107.00	108.00	102.00	102.00	103.00	104.00	108.00	111.00	114.00	116.00	117.00	118.00	113.00	122.00	125.00	124.00	119.00	117.00	112.00	109.00	110.00	112.00	107.00	104.00	104.00	106.00	104.00	105.00	106.00	106.00	107.00	105.00	104.00	103.00	103.00	106.00	109.00	109.00	108.00	106.00	104.00	102.00	106.00	108.00	112.00	110.00	110.00	110.00	110.00	110.00	111.00	112.00	116.00	118.00	130.00	129.00	130.00	126.00	129.00	133.00	129.00	126.00	124.00	126.00	130.00	128.00	123.00	126.00	126.00	124.00	122.00	121.00	133.00	175.00	219.00	218.00	143.00	138.00	143.00	154.00	153.00	143.00	141.00	137.00	133.00	127.00	126.00	120.00	116.00	119.00	121.00	123.00	133.00	132.00	130.00	129.00	125.00	123.00	123.00	124.00	126.00	129.00	129.00	127.00	125.00	130.00	133.00	134.00	144.00	150.00	159.00	171.00	171.00	167.00	160.00	157.00	156.00	157.00	158.00	158.00	157.00	151.00	150.00	150.00	150.00	148.00	141.00	138.00	139.00	138.00	137.00	141.00	142.00	146.00	144.00	146.00	148.00	155.00	163.00	163.00	159.00	155.00	152.00	150.00	148.00	144.00
110.00	110.00	111.00	110.00	110.00	109.00	109.00	108.00	107.00	110.00	118.00	111.00	107.00	107.00	106.00	105.00	103.00	104.00	104.00	103.00	103.00	103.00	104.00	105.00	104.00	104.00	104.00	104.00	101.00	101.00	105.00	102.00	103.00	103.00	105.00	102.00	101.00	102.00	103.00	102.00	101.00	101.00	101.00	101.00	102.00	102.00	102.00	102.00	101.00	101.00	102.00	99.00	103.00	99.00	99.00	104.00	97.00	97.00	96.00	97.00	97.00	98.00	97.00	95.00	93.00	93.00	94.00	95.00	96.00	95.00	98.00	93.00	92.00	92.00	90.00	92.00	89.00	89.00	90.00	89.00	92.00	92.00	92.00	93.00	95.00	96.00	96.00	95.00	98.00	98.00	100.00	97.00	102.00	99.00	94.00	94.00	95.00	95.00	95.00	100.00	103.00	100.00	106.00	112.00	119.00	109.00	105.00	106.00	107.00	107.00	103.00	105.00	102.00	101.00	101.00	104.00	107.00	116.00	122.00	113.00	113.00	112.00	113.00	118.00	122.00	123.00	121.00	120.00	112.00	109.00	109.00	109.00	104.00	102.00	104.00	105.00	103.00	105.00	104.00	104.00	102.00	103.00	101.00	101.00	104.00	106.00	108.00	108.00	107.00	106.00	102.00	104.00	105.00	109.00	112.00	106.00	106.00	107.00	108.00	112.00	113.00	115.00	118.00	122.00	130.00	130.00	127.00	123.00	129.00	131.00	129.00	126.00	123.00	121.00	126.00	129.00	126.00	126.00	125.00	126.00	124.00	125.00	131.00	158.00	170.00	189.00	140.00	136.00	148.00	142.00	145.00	141.00	136.00	134.00	132.00	124.00	123.00	122.00	123.00	121.00	120.00	125.00	129.00	129.00	129.00	126.00	122.00	121.00	124.00	126.00	129.00	130.00	129.00	129.00	128.00	129.00	132.00	134.00	142.00	148.00	155.00	163.00	170.00	165.00	162.00	155.00	155.00	157.00	157.00	156.00	156.00	152.00	151.00	149.00	149.00	148.00	141.00	137.00	138.00	138.00	137.00	143.00	140.00	140.00	140.00	145.00	159.00	157.00	164.00	156.00	153.00	149.00	146.00	151.00	146.00	145.00
111.00	110.00	109.00	109.00	109.00	108.00	108.00	108.00	107.00	108.00	115.00	116.00	108.00	105.00	106.00	104.00	103.00	105.00	106.00	104.00	102.00	102.00	102.00	105.00	102.00	102.00	104.00	103.00	101.00	100.00	104.00	103.00	101.00	102.00	102.00	102.00	102.00	103.00	102.00	101.00	102.00	102.00	102.00	101.00	101.00	102.00	102.00	102.00	101.00	100.00	103.00	101.00	101.00	100.00	100.00	99.00	97.00	96.00	99.00	99.00	98.00	101.00	100.00	98.00	92.00	95.00	94.00	94.00	94.00	94.00	98.00	92.00	93.00	91.00	91.00	90.00	90.00	89.00	90.00	89.00	90.00	93.00	91.00	94.00	95.00	96.00	95.00	94.00	97.00	98.00	100.00	96.00	102.00	97.00	93.00	95.00	95.00	94.00	96.00	96.00	99.00	100.00	111.00	112.00	108.00	105.00	102.00	104.00	105.00	103.00	103.00	103.00	100.00	100.00	100.00	103.00	107.00	116.00	119.00	114.00	111.00	111.00	117.00	114.00	115.00	119.00	120.00	120.00	110.00	108.00	108.00	106.00	105.00	102.00	101.00	102.00	103.00	104.00	104.00	103.00	102.00	101.00	102.00	101.00	103.00	107.00	108.00	107.00	109.00	108.00	102.00	108.00	111.00	110.00	109.00	105.00	107.00	108.00	111.00	116.00	117.00	117.00	119.00	124.00	129.00	127.00	127.00	122.00	126.00	130.00	129.00	127.00	123.00	121.00	126.00	128.00	128.00	123.00	123.00	123.00	125.00	122.00	129.00	149.00	153.00	148.00	138.00	135.00	135.00	138.00	139.00	135.00	136.00	134.00	132.00	125.00	122.00	120.00	120.00	119.00	119.00	125.00	127.00	126.00	129.00	122.00	120.00	121.00	122.00	125.00	126.00	126.00	128.00	131.00	133.00	134.00	134.00	135.00	146.00	152.00	160.00	169.00	166.00	162.00	161.00	155.00	154.00	156.00	155.00	154.00	153.00	153.00	149.00	149.00	148.00	148.00	141.00	136.00	136.00	136.00	137.00	140.00	140.00	139.00	140.00	143.00	158.00	155.00	159.00	149.00	147.00	143.00	145.00	149.00	145.00	143.00
110.00	110.00	108.00	109.00	108.00	108.00	107.00	107.00	106.00	107.00	110.00	117.00	112.00	107.00	104.00	105.00	103.00	103.00	102.00	104.00	101.00	101.00	101.00	105.00	102.00	104.00	103.00	102.00	100.00	102.00	100.00	101.00	100.00	101.00	103.00	101.00	101.00	100.00	101.00	100.00	104.00	105.00	106.00	100.00	101.00	103.00	102.00	101.00	101.00	100.00	101.00	103.00	103.00	99.00	101.00	101.00	100.00	97.00	102.00	103.00	97.00	100.00	99.00	96.00	93.00	93.00	93.00	94.00	93.00	93.00	95.00	92.00	91.00	92.00	91.00	90.00	89.00	90.00	92.00	89.00	89.00	93.00	92.00	95.00	95.00	95.00	95.00	94.00	94.00	98.00	99.00	98.00	99.00	95.00	93.00	97.00	94.00	93.00	101.00	98.00	96.00	101.00	103.00	104.00	103.00	102.00	104.00	101.00	101.00	101.00	102.00	102.00	98.00	99.00	99.00	102.00	109.00	114.00	118.00	112.00	109.00	110.00	118.00	111.00	114.00	118.00	118.00	115.00	109.00	108.00	107.00	106.00	103.00	101.00	103.00	102.00	102.00	103.00	103.00	102.00	101.00	100.00	100.00	101.00	104.00	106.00	106.00	106.00	109.00	108.00	105.00	105.00	108.00	106.00	105.00	105.00	106.00	110.00	112.00	114.00	118.00	119.00	120.00	124.00	129.00	126.00	123.00	123.00	121.00	124.00	127.00	126.00	119.00	120.00	123.00	126.00	125.00	122.00	125.00	125.00	126.00	121.00	125.00	131.00	142.00	144.00	133.00	130.00	131.00	130.00	130.00	130.00	132.00	133.00	131.00	128.00	126.00	118.00	117.00	117.00	119.00	123.00	124.00	127.00	127.00	121.00	119.00	120.00	120.00	125.00	123.00	125.00	126.00	127.00	132.00	137.00	139.00	138.00	147.00	154.00	166.00	167.00	167.00	160.00	158.00	153.00	153.00	154.00	154.00	153.00	151.00	151.00	148.00	146.00	147.00	147.00	146.00	141.00	138.00	138.00	138.00	141.00	139.00	139.00	139.00	139.00	144.00	155.00	158.00	154.00	151.00	145.00	140.00	147.00	146.00	142.00
110.00	113.00	108.00	109.00	109.00	108.00	108.00	109.00	107.00	105.00	104.00	113.00	115.00	110.00	105.00	110.00	102.00	101.00	101.00	103.00	103.00	103.00	102.00	102.00	102.00	100.00	103.00	103.00	103.00	104.00	101.00	100.00	99.00	102.00	100.00	100.00	100.00	99.00	99.00	99.00	101.00	99.00	99.00	99.00	101.00	102.00	100.00	101.00	101.00	102.00	100.00	98.00	98.00	98.00	99.00	103.00	100.00	102.00	102.00	100.00	98.00	93.00	93.00	95.00	95.00	91.00	92.00	96.00	94.00	92.00	93.00	92.00	91.00	91.00	91.00	90.00	89.00	89.00	91.00	88.00	88.00	91.00	93.00	94.00	93.00	93.00	93.00	95.00	94.00	99.00	97.00	96.00	92.00	92.00	94.00	93.00	92.00	93.00	97.00	97.00	94.00	100.00	99.00	99.00	98.00	98.00	97.00	97.00	100.00	101.00	98.00	98.00	95.00	96.00	101.00	100.00	106.00	109.00	112.00	111.00	107.00	106.00	108.00	107.00	111.00	112.00	114.00	110.00	104.00	104.00	105.00	104.00	100.00	99.00	101.00	102.00	99.00	102.00	101.00	100.00	99.00	100.00	100.00	101.00	105.00	103.00	105.00	106.00	106.00	107.00	106.00	106.00	104.00	104.00	103.00	109.00	116.00	120.00	124.00	119.00	121.00	127.00	125.00	127.00	131.00	127.00	124.00	122.00	121.00	120.00	120.00	121.00	118.00	116.00	119.00	125.00	121.00	123.00	123.00	123.00	122.00	119.00	118.00	120.00	124.00	140.00	131.00	131.00	126.00	126.00	125.00	126.00	125.00	125.00	124.00	125.00	128.00	129.00	129.00	126.00	118.00	118.00	121.00	118.00	122.00	119.00	119.00	120.00	119.00	122.00	121.00	121.00	119.00	123.00	126.00	129.00	136.00	137.00	145.00	153.00	155.00	165.00	163.00	155.00	153.00	151.00	152.00	151.00	151.00	149.00	148.00	149.00	147.00	146.00	146.00	146.00	144.00	141.00	135.00	135.00	134.00	140.00	139.00	138.00	138.00	137.00	138.00	139.00	149.00	143.00	143.00	140.00	139.00	136.00	138.00	141.00
107.00	109.00	109.00	108.00	107.00	106.00	108.00	109.00	110.00	105.00	107.00	114.00	107.00	110.00	105.00	105.00	103.00	102.00	101.00	101.00	101.00	102.00	102.00	100.00	99.00	101.00	102.00	103.00	101.00	104.00	103.00	101.00	101.00	100.00	100.00	99.00	99.00	100.00	99.00	99.00	100.00	99.00	98.00	99.00	99.00	102.00	100.00	99.00	100.00	100.00	98.00	98.00	98.00	98.00	99.00	97.00	100.00	103.00	101.00	100.00	99.00	95.00	93.00	94.00	95.00	92.00	92.00	93.00	92.00	92.00	92.00	91.00	91.00	90.00	89.00	89.00	90.00	88.00	88.00	90.00	90.00	92.00	91.00	93.00	93.00	92.00	93.00	93.00	91.00	94.00	98.00	95.00	92.00	93.00	92.00	94.00	91.00	93.00	97.00	98.00	96.00	99.00	93.00	97.00	97.00	97.00	95.00	96.00	100.00	98.00	98.00	96.00	96.00	97.00	102.00	103.00	106.00	107.00	109.00	111.00	109.00	106.00	106.00	106.00	107.00	111.00	111.00	107.00	103.00	102.00	104.00	105.00	98.00	98.00	101.00	100.00	100.00	101.00	100.00	99.00	99.00	99.00	100.00	102.00	104.00	101.00	105.00	106.00	106.00	106.00	108.00	104.00	104.00	104.00	105.00	118.00	122.00	122.00	121.00	124.00	124.00	125.00	131.00	135.00	133.00	126.00	126.00	123.00	119.00	118.00	117.00	117.00	117.00	116.00	120.00	123.00	119.00	121.00	122.00	121.00	118.00	117.00	118.00	120.00	122.00	130.00	131.00	127.00	126.00	124.00	124.00	119.00	120.00	124.00	125.00	122.00	123.00	126.00	130.00	130.00	118.00	118.00	117.00	116.00	121.00	118.00	119.00	119.00	122.00	122.00	121.00	119.00	120.00	124.00	125.00	129.00	132.00	131.00	140.00	146.00	152.00	162.00	159.00	154.00	153.00	151.00	150.00	151.00	150.00	148.00	147.00	147.00	146.00	145.00	144.00	146.00	145.00	138.00	135.00	136.00	134.00	137.00	139.00	139.00	138.00	138.00	137.00	139.00	146.00	149.00	147.00	148.00	145.00	136.00	135.00	136.00
108.00	108.00	108.00	107.00	106.00	107.00	108.00	106.00	105.00	110.00	110.00	113.00	104.00	108.00	107.00	105.00	105.00	101.00	100.00	101.00	99.00	102.00	99.00	99.00	99.00	101.00	100.00	102.00	101.00	102.00	101.00	98.00	99.00	99.00	102.00	99.00	99.00	98.00	99.00	99.00	99.00	99.00	98.00	99.00	103.00	102.00	99.00	99.00	100.00	100.00	101.00	99.00	99.00	98.00	97.00	97.00	95.00	96.00	101.00	102.00	102.00	95.00	94.00	93.00	95.00	92.00	91.00	91.00	92.00	91.00	92.00	91.00	91.00	89.00	89.00	87.00	88.00	89.00	89.00	89.00	90.00	92.00	93.00	91.00	92.00	92.00	92.00	91.00	92.00	91.00	92.00	94.00	92.00	92.00	93.00	91.00	91.00	93.00	96.00	96.00	99.00	96.00	96.00	95.00	94.00	94.00	94.00	96.00	97.00	96.00	96.00	92.00	96.00	98.00	100.00	102.00	105.00	105.00	107.00	109.00	108.00	104.00	103.00	103.00	106.00	108.00	110.00	107.00	103.00	102.00	102.00	104.00	100.00	100.00	98.00	98.00	100.00	101.00	99.00	99.00	98.00	99.00	101.00	101.00	102.00	100.00	106.00	101.00	104.00	105.00	104.00	104.00	104.00	105.00	109.00	119.00	118.00	117.00	118.00	127.00	128.00	129.00	131.00	132.00	134.00	128.00	129.00	128.00	120.00	120.00	119.00	116.00	115.00	114.00	123.00	125.00	117.00	120.00	119.00	120.00	120.00	118.00	117.00	123.00	123.00	127.00	132.00	127.00	123.00	121.00	122.00	119.00	120.00	122.00	123.00	120.00	117.00	123.00	130.00	127.00	115.00	117.00	115.00	115.00	117.00	117.00	119.00	119.00	120.00	119.00	117.00	118.00	117.00	125.00	126.00	129.00	130.00	127.00	139.00	142.00	151.00	162.00	157.00	156.00	153.00	150.00	151.00	151.00	148.00	147.00	144.00	145.00	144.00	144.00	144.00	145.00	142.00	139.00	133.00	134.00	136.00	133.00	137.00	137.00	138.00	137.00	137.00	141.00	149.00	144.00	142.00	143.00	143.00	134.00	132.00	134.00
109.00	108.00	108.00	106.00	108.00	106.00	107.00	106.00	109.00	106.00	108.00	112.00	104.00	107.00	107.00	105.00	110.00	105.00	100.00	100.00	99.00	101.00	102.00	100.00	99.00	101.00	102.00	101.00	101.00	97.00	98.00	99.00	98.00	99.00	99.00	99.00	99.00	98.00	99.00	99.00	97.00	98.00	97.00	98.00	104.00	101.00	99.00	104.00	99.00	100.00	102.00	105.00	99.00	97.00	98.00	98.00	96.00	97.00	97.00	101.00	101.00	96.00	94.00	93.00	95.00	91.00	92.00	91.00	91.00	92.00	91.00	90.00	89.00	89.00	88.00	88.00	88.00	87.00	87.00	88.00	90.00	93.00	90.00	91.00	91.00	91.00	92.00	92.00	91.00	98.00	92.00	93.00	92.00	93.00	91.00	90.00	92.00	91.00	93.00	93.00	94.00	100.00	96.00	98.00	94.00	93.00	93.00	96.00	95.00	96.00	94.00	95.00	93.00	97.00	99.00	101.00	103.00	104.00	105.00	106.00	106.00	104.00	102.00	101.00	102.00	107.00	108.00	107.00	101.00	100.00	101.00	103.00	99.00	100.00	97.00	98.00	99.00	99.00	99.00	100.00	98.00	100.00	100.00	100.00	99.00	102.00	102.00	100.00	103.00	103.00	104.00	104.00	106.00	112.00	115.00	113.00	114.00	114.00	121.00	128.00	128.00	127.00	129.00	136.00	132.00	133.00	132.00	130.00	124.00	122.00	118.00	116.00	114.00	113.00	121.00	123.00	115.00	120.00	118.00	120.00	121.00	117.00	118.00	124.00	127.00	131.00	134.00	132.00	125.00	124.00	120.00	119.00	119.00	117.00	121.00	116.00	117.00	125.00	121.00	119.00	116.00	116.00	115.00	115.00	116.00	118.00	118.00	118.00	117.00	118.00	116.00	117.00	117.00	122.00	125.00	128.00	129.00	126.00	135.00	140.00	155.00	161.00	156.00	156.00	150.00	149.00	150.00	152.00	147.00	147.00	143.00	143.00	143.00	142.00	143.00	143.00	142.00	141.00	136.00	133.00	134.00	133.00	136.00	136.00	136.00	136.00	136.00	137.00	150.00	146.00	140.00	137.00	141.00	143.00	139.00	136.00
108.00	107.00	108.00	107.00	106.00	105.00	104.00	105.00	107.00	106.00	104.00	111.00	108.00	106.00	107.00	102.00	101.00	103.00	107.00	105.00	100.00	103.00	99.00	97.00	98.00	98.00	98.00	98.00	99.00	99.00	100.00	103.00	101.00	99.00	101.00	99.00	99.00	98.00	98.00	99.00	97.00	97.00	96.00	102.00	107.00	106.00	103.00	101.00	102.00	101.00	97.00	101.00	96.00	96.00	97.00	96.00	95.00	96.00	97.00	100.00	101.00	93.00	95.00	93.00	92.00	91.00	92.00	92.00	92.00	91.00	91.00	89.00	89.00	89.00	88.00	87.00	88.00	87.00	87.00	86.00	91.00	94.00	92.00	88.00	90.00	92.00	92.00	93.00	90.00	90.00	90.00	90.00	93.00	89.00	90.00	91.00	90.00	90.00	91.00	91.00	91.00	98.00	93.00	96.00	97.00	91.00	92.00	94.00	91.00	91.00	91.00	93.00	91.00	96.00	96.00	97.00	100.00	102.00	102.00	103.00	103.00	102.00	99.00	97.00	100.00	103.00	105.00	106.00	101.00	99.00	99.00	99.00	98.00	98.00	96.00	97.00	97.00	97.00	97.00	97.00	97.00	98.00	97.00	96.00	97.00	98.00	103.00	99.00	101.00	101.00	100.00	102.00	104.00	113.00	116.00	109.00	112.00	117.00	116.00	118.00	119.00	122.00	126.00	128.00	130.00	127.00	123.00	126.00	119.00	118.00	115.00	114.00	113.00	113.00	118.00	119.00	116.00	117.00	117.00	117.00	118.00	118.00	121.00	122.00	124.00	128.00	127.00	125.00	122.00	119.00	115.00	117.00	118.00	117.00	116.00	112.00	116.00	120.00	122.00	124.00	115.00	115.00	115.00	116.00	117.00	116.00	116.00	115.00	117.00	114.00	114.00	114.00	115.00	118.00	119.00	121.00	120.00	126.00	139.00	151.00	149.00	156.00	150.00	149.00	148.00	147.00	147.00	146.00	145.00	145.00	145.00	140.00	140.00	140.00	140.00	140.00	140.00	140.00	138.00	133.00	130.00	131.00	134.00	135.00	134.00	135.00	135.00	138.00	148.00	147.00	143.00	138.00	135.00	133.00	134.00	133.00
110.00	107.00	105.00	107.00	105.00	104.00	104.00	104.00	105.00	108.00	107.00	112.00	110.00	104.00	103.00	101.00	100.00	102.00	105.00	109.00	105.00	99.00	98.00	98.00	98.00	98.00	98.00	98.00	97.00	102.00	104.00	103.00	100.00	99.00	99.00	98.00	98.00	97.00	97.00	99.00	96.00	97.00	95.00	103.00	106.00	106.00	105.00	102.00	100.00	102.00	102.00	105.00	97.00	97.00	96.00	96.00	94.00	95.00	94.00	98.00	99.00	95.00	92.00	93.00	91.00	91.00	92.00	92.00	91.00	90.00	90.00	87.00	89.00	90.00	87.00	86.00	87.00	87.00	88.00	87.00	93.00	91.00	93.00	90.00	91.00	93.00	94.00	89.00	88.00	89.00	90.00	89.00	92.00	90.00	90.00	91.00	89.00	89.00	92.00	94.00	91.00	99.00	94.00	94.00	93.00	95.00	92.00	92.00	90.00	89.00	90.00	93.00	92.00	94.00	95.00	96.00	97.00	97.00	101.00	103.00	103.00	101.00	100.00	96.00	97.00	99.00	102.00	105.00	100.00	98.00	97.00	98.00	95.00	96.00	96.00	96.00	97.00	96.00	98.00	96.00	98.00	97.00	97.00	96.00	97.00	98.00	100.00	98.00	98.00	99.00	100.00	101.00	104.00	108.00	113.00	107.00	110.00	111.00	113.00	117.00	122.00	123.00	125.00	127.00	130.00	122.00	121.00	123.00	119.00	119.00	117.00	116.00	115.00	114.00	112.00	116.00	113.00	114.00	114.00	114.00	119.00	117.00	123.00	123.00	122.00	121.00	124.00	122.00	119.00	119.00	117.00	115.00	115.00	118.00	113.00	112.00	114.00	121.00	120.00	120.00	116.00	113.00	114.00	115.00	118.00	116.00	116.00	116.00	116.00	114.00	113.00	114.00	114.00	120.00	121.00	120.00	122.00	125.00	136.00	140.00	148.00	153.00	147.00	147.00	146.00	145.00	145.00	145.00	145.00	145.00	145.00	140.00	140.00	139.00	139.00	139.00	138.00	137.00	136.00	130.00	130.00	130.00	133.00	134.00	134.00	134.00	134.00	139.00	145.00	145.00	141.00	138.00	136.00	131.00	130.00	129.00
107.00	108.00	105.00	105.00	106.00	105.00	105.00	103.00	105.00	113.00	112.00	111.00	112.00	105.00	102.00	101.00	101.00	102.00	105.00	108.00	104.00	98.00	97.00	97.00	97.00	99.00	100.00	97.00	96.00	104.00	101.00	103.00	100.00	97.00	99.00	97.00	99.00	97.00	97.00	98.00	97.00	96.00	96.00	102.00	104.00	105.00	105.00	100.00	102.00	102.00	97.00	96.00	96.00	97.00	95.00	95.00	94.00	94.00	93.00	94.00	98.00	100.00	92.00	93.00	90.00	90.00	89.00	91.00	89.00	88.00	88.00	91.00	90.00	89.00	87.00	86.00	86.00	86.00	88.00	88.00	91.00	87.00	91.00	96.00	95.00	94.00	91.00	91.00	89.00	89.00	89.00	88.00	89.00	89.00	90.00	88.00	88.00	89.00	90.00	92.00	92.00	93.00	95.00	92.00	93.00	94.00	93.00	92.00	88.00	89.00	92.00	92.00	92.00	93.00	92.00	96.00	97.00	97.00	99.00	100.00	101.00	101.00	99.00	96.00	97.00	101.00	103.00	103.00	98.00	98.00	98.00	97.00	97.00	93.00	95.00	95.00	94.00	96.00	95.00	96.00	97.00	97.00	97.00	96.00	99.00	99.00	101.00	100.00	101.00	102.00	99.00	98.00	100.00	108.00	112.00	109.00	113.00	113.00	115.00	120.00	121.00	122.00	124.00	125.00	128.00	120.00	121.00	117.00	120.00	119.00	117.00	117.00	118.00	113.00	110.00	113.00	110.00	112.00	115.00	119.00	116.00	115.00	122.00	120.00	120.00	123.00	121.00	119.00	118.00	118.00	115.00	112.00	111.00	112.00	112.00	111.00	114.00	119.00	119.00	113.00	114.00	115.00	114.00	114.00	115.00	115.00	114.00	113.00	114.00	116.00	115.00	113.00	114.00	119.00	118.00	119.00	121.00	123.00	140.00	143.00	149.00	150.00	147.00	145.00	145.00	144.00	145.00	143.00	143.00	144.00	143.00	141.00	140.00	138.00	138.00	139.00	138.00	136.00	133.00	130.00	129.00	129.00	130.00	134.00	137.00	139.00	138.00	143.00	146.00	138.00	138.00	136.00	138.00	132.00	131.00	129.00
106.00	109.00	104.00	107.00	105.00	104.00	105.00	104.00	102.00	109.00	114.00	108.00	104.00	102.00	101.00	100.00	100.00	101.00	102.00	104.00	101.00	99.00	97.00	97.00	96.00	97.00	98.00	96.00	98.00	105.00	102.00	104.00	107.00	98.00	99.00	98.00	98.00	96.00	96.00	98.00	96.00	98.00	95.00	103.00	98.00	101.00	104.00	101.00	101.00	101.00	96.00	96.00	96.00	97.00	95.00	94.00	95.00	94.00	94.00	94.00	94.00	92.00	92.00	92.00	91.00	90.00	90.00	91.00	91.00	90.00	88.00	88.00	89.00	88.00	86.00	86.00	86.00	86.00	86.00	88.00	88.00	88.00	88.00	91.00	90.00	89.00	88.00	89.00	88.00	88.00	90.00	90.00	88.00	90.00	88.00	87.00	87.00	88.00	90.00	89.00	91.00	95.00	94.00	91.00	92.00	94.00	95.00	94.00	90.00	90.00	91.00	90.00	90.00	90.00	93.00	95.00	95.00	96.00	97.00	99.00	100.00	100.00	98.00	95.00	97.00	100.00	101.00	102.00	98.00	97.00	96.00	97.00	98.00	96.00	94.00	93.00	95.00	94.00	96.00	96.00	96.00	96.00	95.00	97.00	97.00	98.00	102.00	101.00	98.00	100.00	98.00	102.00	106.00	107.00	110.00	106.00	109.00	112.00	115.00	118.00	119.00	121.00	124.00	125.00	124.00	117.00	116.00	117.00	118.00	117.00	116.00	113.00	114.00	113.00	109.00	109.00	113.00	116.00	118.00	119.00	114.00	115.00	118.00	118.00	119.00	121.00	123.00	118.00	115.00	112.00	114.00	112.00	111.00	109.00	110.00	113.00	111.00	119.00	124.00	116.00	115.00	114.00	113.00	113.00	115.00	114.00	113.00	111.00	113.00	116.00	117.00	116.00	116.00	117.00	121.00	121.00	123.00	126.00	140.00	150.00	150.00	147.00	144.00	143.00	144.00	145.00	144.00	143.00	143.00	142.00	141.00	141.00	139.00	138.00	138.00	138.00	137.00	134.00	134.00	130.00	129.00	128.00	129.00	132.00	145.00	143.00	140.00	142.00	145.00	143.00	137.00	134.00	136.00	134.00	133.00	131.00
109.00	107.00	107.00	106.00	110.00	112.00	108.00	104.00	102.00	101.00	102.00	101.00	101.00	101.00	101.00	99.00	99.00	100.00	99.00	98.00	100.00	102.00	98.00	98.00	100.00	96.00	99.00	101.00	97.00	97.00	96.00	100.00	101.00	99.00	96.00	95.00	95.00	96.00	95.00	95.00	96.00	94.00	94.00	94.00	95.00	97.00	97.00	101.00	94.00	93.00	94.00	93.00	93.00	93.00	92.00	92.00	93.00	92.00	93.00	93.00	93.00	91.00	90.00	93.00	90.00	90.00	89.00	90.00	90.00	90.00	92.00	94.00	90.00	88.00	86.00	86.00	86.00	88.00	86.00	88.00	87.00	87.00	87.00	87.00	87.00	86.00	86.00	88.00	88.00	87.00	88.00	86.00	91.00	92.00	91.00	89.00	87.00	87.00	89.00	90.00	87.00	90.00	87.00	91.00	90.00	91.00	91.00	91.00	90.00	90.00	90.00	89.00	87.00	89.00	89.00	90.00	92.00	92.00	93.00	94.00	93.00	94.00	93.00	92.00	92.00	95.00	96.00	95.00	95.00	94.00	95.00	99.00	100.00	96.00	95.00	99.00	95.00	94.00	93.00	93.00	94.00	95.00	95.00	97.00	98.00	100.00	104.00	104.00	99.00	97.00	104.00	104.00	104.00	101.00	105.00	112.00	113.00	114.00	113.00	117.00	117.00	120.00	124.00	125.00	127.00	115.00	112.00	112.00	110.00	109.00	109.00	109.00	108.00	109.00	111.00	108.00	112.00	113.00	115.00	116.00	112.00	113.00	117.00	116.00	114.00	112.00	115.00	117.00	116.00	112.00	109.00	109.00	111.00	112.00	109.00	106.00	114.00	115.00	111.00	107.00	111.00	111.00	112.00	114.00	111.00	107.00	108.00	113.00	110.00	109.00	112.00	114.00	116.00	121.00	126.00	131.00	135.00	139.00	147.00	145.00	144.00	143.00	143.00	142.00	140.00	142.00	140.00	138.00	140.00	140.00	140.00	137.00	136.00	136.00	135.00	134.00	133.00	132.00	132.00	130.00	128.00	131.00	132.00	131.00	137.00	132.00	135.00	133.00	136.00	139.00	137.00	135.00	133.00	132.00	127.00	127.00
108.00	108.00	107.00	107.00	106.00	108.00	108.00	107.00	101.00	102.00	102.00	101.00	101.00	101.00	102.00	101.00	100.00	100.00	97.00	97.00	100.00	98.00	98.00	98.00	96.00	97.00	99.00	97.00	98.00	96.00	96.00	100.00	99.00	101.00	97.00	97.00	95.00	95.00	95.00	95.00	96.00	94.00	93.00	93.00	93.00	97.00	96.00	103.00	96.00	94.00	95.00	93.00	94.00	92.00	92.00	93.00	92.00	92.00	91.00	92.00	92.00	89.00	90.00	92.00	89.00	89.00	89.00	89.00	88.00	89.00	89.00	90.00	87.00	89.00	86.00	85.00	86.00	85.00	85.00	89.00	87.00	86.00	85.00	87.00	88.00	88.00	88.00	87.00	86.00	86.00	88.00	88.00	91.00	88.00	90.00	88.00	86.00	86.00	88.00	90.00	87.00	91.00	87.00	89.00	90.00	88.00	93.00	93.00	91.00	90.00	92.00	90.00	91.00	92.00	87.00	90.00	90.00	90.00	91.00	93.00	92.00	92.00	92.00	90.00	92.00	92.00	93.00	93.00	94.00	94.00	94.00	97.00	99.00	98.00	94.00	99.00	94.00	94.00	93.00	92.00	93.00	99.00	95.00	96.00	103.00	99.00	101.00	99.00	98.00	97.00	103.00	100.00	97.00	102.00	108.00	112.00	112.00	113.00	112.00	115.00	116.00	118.00	119.00	121.00	123.00	115.00	114.00	115.00	110.00	107.00	107.00	106.00	108.00	108.00	109.00	110.00	112.00	113.00	114.00	115.00	111.00	114.00	116.00	115.00	113.00	111.00	115.00	118.00	117.00	115.00	112.00	108.00	106.00	108.00	109.00	107.00	112.00	111.00	110.00	107.00	107.00	109.00	109.00	110.00	108.00	108.00	107.00	107.00	108.00	110.00	112.00	113.00	114.00	121.00	125.00	129.00	131.00	134.00	146.00	145.00	142.00	140.00	141.00	140.00	140.00	141.00	141.00	139.00	139.00	139.00	137.00	135.00	135.00	135.00	134.00	133.00	132.00	132.00	132.00	131.00	131.00	131.00	130.00	128.00	137.00	131.00	131.00	131.00	136.00	134.00	135.00	134.00	131.00	131.00	129.00	126.00
106.00	106.00	106.00	105.00	105.00	104.00	104.00	108.00	103.00	101.00	102.00	100.00	100.00	106.00	106.00	102.00	102.00	104.00	97.00	97.00	102.00	99.00	97.00	96.00	97.00	98.00	99.00	97.00	96.00	100.00	100.00	96.00	100.00	99.00	97.00	100.00	93.00	94.00	93.00	94.00	95.00	94.00	93.00	93.00	95.00	94.00	95.00	103.00	101.00	100.00	96.00	92.00	92.00	92.00	92.00	93.00	95.00	93.00	93.00	93.00	91.00	89.00	89.00	93.00	89.00	89.00	91.00	89.00	89.00	89.00	89.00	87.00	86.00	93.00	87.00	86.00	87.00	85.00	85.00	90.00	87.00	87.00	87.00	88.00	87.00	87.00	86.00	87.00	85.00	86.00	87.00	87.00	92.00	92.00	87.00	88.00	87.00	86.00	86.00	90.00	88.00	91.00	87.00	88.00	88.00	91.00	89.00	90.00	91.00	90.00	90.00	88.00	86.00	87.00	89.00	84.00	88.00	91.00	89.00	92.00	92.00	93.00	93.00	90.00	90.00	92.00	92.00	94.00	95.00	94.00	94.00	96.00	99.00	98.00	94.00	93.00	93.00	98.00	97.00	99.00	101.00	100.00	100.00	102.00	102.00	99.00	98.00	96.00	98.00	99.00	104.00	100.00	99.00	105.00	108.00	111.00	110.00	112.00	112.00	113.00	116.00	117.00	118.00	119.00	123.00	117.00	116.00	115.00	112.00	109.00	106.00	106.00	109.00	109.00	107.00	107.00	109.00	111.00	114.00	114.00	111.00	112.00	113.00	115.00	114.00	112.00	113.00	117.00	117.00	114.00	112.00	106.00	104.00	104.00	104.00	108.00	111.00	109.00	108.00	108.00	107.00	110.00	108.00	108.00	109.00	109.00	107.00	106.00	109.00	113.00	113.00	115.00	117.00	120.00	121.00	124.00	131.00	134.00	145.00	142.00	140.00	138.00	139.00	139.00	139.00	141.00	139.00	139.00	136.00	137.00	135.00	133.00	134.00	134.00	133.00	132.00	132.00	133.00	131.00	131.00	130.00	128.00	127.00	128.00	132.00	129.00	128.00	130.00	135.00	131.00	134.00	135.00	134.00	129.00	128.00	126.00
108.00	109.00	106.00	105.00	105.00	105.00	103.00	102.00	104.00	102.00	102.00	100.00	101.00	105.00	108.00	105.00	98.00	102.00	99.00	98.00	102.00	99.00	96.00	95.00	96.00	99.00	103.00	97.00	94.00	102.00	97.00	97.00	98.00	97.00	96.00	93.00	92.00	94.00	93.00	95.00	94.00	95.00	94.00	93.00	93.00	96.00	97.00	100.00	100.00	98.00	99.00	92.00	92.00	92.00	95.00	100.00	100.00	97.00	92.00	92.00	91.00	90.00	89.00	90.00	94.00	89.00	90.00	90.00	91.00	91.00	86.00	87.00	90.00	91.00	88.00	85.00	86.00	85.00	84.00	88.00	88.00	86.00	86.00	87.00	86.00	85.00	85.00	85.00	85.00	86.00	85.00	85.00	90.00	91.00	88.00	88.00	86.00	89.00	88.00	90.00	87.00	91.00	86.00	85.00	85.00	87.00	88.00	91.00	88.00	89.00	89.00	88.00	85.00	86.00	90.00	88.00	88.00	91.00	87.00	91.00	92.00	90.00	88.00	89.00	92.00	92.00	93.00	93.00	93.00	93.00	93.00	95.00	98.00	94.00	94.00	92.00	91.00	99.00	101.00	100.00	100.00	101.00	97.00	98.00	96.00	100.00	98.00	95.00	96.00	98.00	105.00	100.00	103.00	106.00	108.00	109.00	110.00	110.00	112.00	112.00	114.00	114.00	117.00	121.00	122.00	119.00	120.00	118.00	113.00	111.00	108.00	106.00	109.00	110.00	107.00	107.00	111.00	110.00	113.00	111.00	110.00	110.00	113.00	114.00	115.00	111.00	112.00	116.00	118.00	115.00	112.00	109.00	108.00	104.00	105.00	105.00	105.00	107.00	106.00	108.00	109.00	109.00	108.00	110.00	110.00	111.00	111.00	110.00	113.00	114.00	116.00	116.00	116.00	118.00	124.00	132.00	135.00	137.00	142.00	139.00	138.00	139.00	138.00	138.00	138.00	138.00	138.00	138.00	134.00	135.00	134.00	132.00	133.00	132.00	131.00	132.00	131.00	133.00	130.00	131.00	129.00	129.00	125.00	125.00	126.00	128.00	128.00	129.00	133.00	128.00	129.00	134.00	134.00	133.00	126.00	126.00
104.00	104.00	106.00	104.00	104.00	104.00	105.00	102.00	103.00	102.00	102.00	101.00	101.00	100.00	99.00	99.00	98.00	98.00	100.00	103.00	104.00	103.00	102.00	99.00	95.00	95.00	97.00	96.00	98.00	99.00	99.00	97.00	96.00	96.00	95.00	93.00	92.00	92.00	95.00	96.00	95.00	93.00	92.00	93.00	92.00	92.00	95.00	93.00	94.00	97.00	92.00	92.00	100.00	91.00	97.00	102.00	95.00	93.00	91.00	89.00	90.00	89.00	88.00	88.00	88.00	90.00	90.00	90.00	88.00	89.00	87.00	89.00	85.00	88.00	85.00	84.00	86.00	87.00	90.00	90.00	89.00	86.00	86.00	87.00	85.00	85.00	85.00	85.00	85.00	87.00	85.00	86.00	92.00	91.00	89.00	87.00	87.00	88.00	89.00	86.00	90.00	86.00	86.00	85.00	85.00	84.00	85.00	86.00	86.00	89.00	89.00	88.00	87.00	84.00	86.00	88.00	87.00	84.00	83.00	91.00	86.00	88.00	87.00	90.00	89.00	92.00	92.00	89.00	89.00	91.00	92.00	92.00	94.00	92.00	94.00	92.00	91.00	97.00	97.00	96.00	94.00	97.00	95.00	94.00	99.00	93.00	94.00	93.00	96.00	94.00	106.00	99.00	106.00	106.00	108.00	107.00	106.00	109.00	108.00	110.00	110.00	112.00	113.00	116.00	118.00	120.00	123.00	128.00	114.00	108.00	104.00	104.00	110.00	105.00	104.00	104.00	108.00	111.00	114.00	112.00	110.00	108.00	111.00	110.00	111.00	109.00	113.00	112.00	116.00	116.00	113.00	110.00	110.00	108.00	109.00	105.00	105.00	104.00	105.00	105.00	107.00	106.00	107.00	107.00	109.00	107.00	106.00	107.00	109.00	114.00	115.00	113.00	114.00	120.00	122.00	125.00	131.00	138.00	136.00	135.00	135.00	135.00	135.00	138.00	137.00	139.00	137.00	136.00	132.00	134.00	132.00	132.00	131.00	130.00	128.00	128.00	130.00	131.00	128.00	130.00	127.00	125.00	123.00	127.00	127.00	127.00	126.00	126.00	128.00	133.00	127.00	126.00	126.00	134.00	126.00	126.00
105.00	104.00	103.00	103.00	102.00	102.00	104.00	103.00	102.00	100.00	100.00	100.00	99.00	100.00	99.00	99.00	98.00	97.00	98.00	101.00	99.00	99.00	99.00	98.00	102.00	95.00	97.00	96.00	94.00	94.00	101.00	97.00	96.00	93.00	97.00	93.00	92.00	93.00	96.00	94.00	93.00	92.00	92.00	92.00	92.00	91.00	94.00	93.00	91.00	91.00	90.00	90.00	95.00	93.00	97.00	97.00	88.00	93.00	92.00	92.00	89.00	88.00	87.00	87.00	88.00	87.00	87.00	91.00	91.00	86.00	88.00	87.00	88.00	88.00	85.00	85.00	86.00	89.00	89.00	91.00	92.00	86.00	86.00	86.00	86.00	86.00	84.00	85.00	86.00	85.00	86.00	86.00	91.00	91.00	87.00	85.00	87.00	89.00	87.00	90.00	87.00	86.00	85.00	85.00	84.00	85.00	84.00	85.00	86.00	87.00	89.00	89.00	87.00	83.00	86.00	84.00	87.00	86.00	83.00	85.00	88.00	87.00	86.00	89.00	89.00	90.00	89.00	90.00	90.00	92.00	92.00	91.00	93.00	92.00	90.00	92.00	92.00	94.00	95.00	94.00	93.00	94.00	93.00	94.00	94.00	93.00	94.00	93.00	95.00	97.00	100.00	100.00	103.00	106.00	105.00	105.00	106.00	108.00	108.00	108.00	108.00	110.00	111.00	113.00	114.00	116.00	120.00	124.00	114.00	109.00	105.00	108.00	110.00	104.00	103.00	105.00	105.00	111.00	113.00	111.00	107.00	108.00	111.00	110.00	109.00	106.00	110.00	111.00	113.00	113.00	111.00	109.00	107.00	105.00	107.00	104.00	102.00	106.00	103.00	106.00	103.00	109.00	111.00	114.00	111.00	109.00	106.00	108.00	109.00	114.00	113.00	112.00	115.00	119.00	124.00	130.00	135.00	136.00	134.00	135.00	135.00	135.00	134.00	135.00	136.00	137.00	138.00	135.00	132.00	129.00	129.00	133.00	131.00	128.00	126.00	126.00	129.00	130.00	129.00	128.00	126.00	124.00	125.00	125.00	125.00	126.00	126.00	126.00	126.00	133.00	129.00	126.00	124.00	132.00	131.00	135.00
105.00	105.00	102.00	102.00	101.00	102.00	102.00	103.00	104.00	103.00	101.00	100.00	101.00	99.00	100.00	99.00	98.00	97.00	96.00	95.00	94.00	95.00	95.00	95.00	100.00	94.00	95.00	94.00	95.00	94.00	96.00	99.00	97.00	96.00	94.00	92.00	92.00	92.00	95.00	94.00	92.00	91.00	93.00	93.00	90.00	90.00	90.00	94.00	94.00	93.00	89.00	92.00	90.00	92.00	90.00	89.00	91.00	97.00	100.00	98.00	89.00	87.00	88.00	87.00	87.00	87.00	89.00	89.00	89.00	88.00	90.00	87.00	85.00	85.00	85.00	84.00	85.00	85.00	88.00	89.00	88.00	87.00	84.00	87.00	84.00	85.00	84.00	85.00	85.00	85.00	85.00	86.00	88.00	89.00	86.00	84.00	86.00	89.00	88.00	91.00	86.00	87.00	84.00	85.00	86.00	85.00	84.00	84.00	86.00	87.00	88.00	90.00	86.00	83.00	85.00	83.00	86.00	87.00	84.00	83.00	84.00	84.00	86.00	89.00	87.00	88.00	88.00	88.00	90.00	90.00	91.00	90.00	90.00	92.00	91.00	93.00	90.00	94.00	91.00	93.00	93.00	93.00	92.00	92.00	93.00	94.00	95.00	93.00	97.00	99.00	96.00	99.00	102.00	106.00	105.00	104.00	105.00	106.00	107.00	106.00	107.00	109.00	111.00	110.00	111.00	115.00	118.00	122.00	115.00	109.00	105.00	106.00	109.00	103.00	103.00	105.00	103.00	108.00	113.00	110.00	106.00	106.00	108.00	109.00	107.00	106.00	109.00	110.00	112.00	113.00	111.00	108.00	107.00	106.00	106.00	103.00	101.00	104.00	104.00	105.00	105.00	113.00	115.00	115.00	111.00	108.00	104.00	104.00	107.00	112.00	111.00	114.00	114.00	122.00	127.00	129.00	136.00	133.00	134.00	133.00	136.00	136.00	134.00	134.00	136.00	136.00	138.00	134.00	129.00	127.00	130.00	131.00	129.00	126.00	126.00	127.00	129.00	130.00	130.00	130.00	123.00	124.00	124.00	125.00	125.00	126.00	126.00	126.00	124.00	130.00	128.00	126.00	124.00	130.00	137.00	138.00
104.00	103.00	102.00	101.00	101.00	103.00	102.00	102.00	102.00	101.00	104.00	99.00	99.00	100.00	99.00	99.00	97.00	97.00	96.00	96.00	96.00	94.00	95.00	95.00	99.00	98.00	101.00	100.00	95.00	94.00	92.00	100.00	98.00	95.00	92.00	92.00	92.00	92.00	93.00	95.00	93.00	93.00	92.00	94.00	91.00	92.00	91.00	91.00	91.00	91.00	92.00	95.00	89.00	89.00	89.00	89.00	100.00	100.00	97.00	99.00	91.00	88.00	87.00	86.00	87.00	90.00	90.00	86.00	87.00	89.00	90.00	86.00	85.00	85.00	85.00	85.00	85.00	85.00	89.00	86.00	85.00	84.00	85.00	86.00	84.00	84.00	84.00	86.00	84.00	84.00	85.00	86.00	90.00	90.00	85.00	84.00	86.00	89.00	87.00	88.00	85.00	85.00	84.00	86.00	87.00	85.00	85.00	83.00	85.00	85.00	85.00	88.00	88.00	85.00	83.00	85.00	83.00	85.00	85.00	83.00	83.00	84.00	85.00	88.00	87.00	88.00	89.00	89.00	89.00	90.00	90.00	89.00	90.00	91.00	93.00	91.00	89.00	93.00	94.00	92.00	91.00	92.00	92.00	91.00	92.00	93.00	94.00	93.00	96.00	96.00	96.00	99.00	101.00	103.00	104.00	103.00	104.00	104.00	106.00	104.00	106.00	106.00	107.00	108.00	110.00	116.00	117.00	121.00	121.00	114.00	112.00	105.00	108.00	104.00	104.00	106.00	102.00	109.00	112.00	110.00	106.00	105.00	107.00	107.00	106.00	106.00	108.00	110.00	112.00	112.00	110.00	110.00	107.00	107.00	107.00	103.00	105.00	104.00	104.00	106.00	109.00	109.00	112.00	113.00	112.00	109.00	107.00	105.00	112.00	110.00	110.00	114.00	116.00	120.00	125.00	130.00	133.00	133.00	132.00	134.00	134.00	133.00	134.00	135.00	136.00	135.00	136.00	132.00	127.00	128.00	128.00	128.00	126.00	124.00	126.00	126.00	128.00	129.00	133.00	134.00	122.00	122.00	124.00	124.00	123.00	124.00	125.00	125.00	123.00	128.00	126.00	123.00	123.00	123.00	127.00	133.00
103.00	102.00	101.00	102.00	101.00	102.00	102.00	100.00	100.00	99.00	99.00	102.00	100.00	99.00	99.00	98.00	97.00	97.00	97.00	97.00	97.00	95.00	96.00	95.00	94.00	98.00	98.00	100.00	98.00	99.00	97.00	94.00	92.00	93.00	93.00	92.00	92.00	92.00	92.00	91.00	90.00	90.00	91.00	91.00	91.00	91.00	90.00	89.00	90.00	90.00	94.00	95.00	94.00	88.00	88.00	88.00	91.00	95.00	94.00	97.00	99.00	87.00	87.00	86.00	86.00	87.00	86.00	85.00	86.00	87.00	85.00	86.00	85.00	86.00	85.00	84.00	83.00	84.00	86.00	88.00	89.00	88.00	85.00	85.00	85.00	84.00	86.00	84.00	83.00	84.00	87.00	85.00	87.00	86.00	84.00	84.00	88.00	86.00	86.00	87.00	85.00	85.00	83.00	87.00	88.00	86.00	86.00	85.00	89.00	89.00	87.00	88.00	85.00	85.00	82.00	85.00	83.00	82.00	83.00	83.00	83.00	85.00	86.00	86.00	87.00	87.00	88.00	89.00	88.00	89.00	90.00	89.00	91.00	92.00	90.00	91.00	90.00	90.00	91.00	92.00	90.00	92.00	91.00	93.00	93.00	92.00	93.00	93.00	94.00	95.00	96.00	99.00	99.00	102.00	101.00	100.00	99.00	101.00	102.00	102.00	103.00	104.00	104.00	105.00	109.00	111.00	114.00	116.00	125.00	117.00	109.00	104.00	105.00	106.00	105.00	106.00	109.00	109.00	108.00	104.00	106.00	104.00	106.00	105.00	106.00	104.00	109.00	113.00	115.00	112.00	111.00	107.00	107.00	105.00	104.00	100.00	102.00	103.00	104.00	103.00	104.00	106.00	108.00	107.00	103.00	100.00	102.00	105.00	106.00	107.00	107.00	109.00	113.00	125.00	132.00	133.00	133.00	133.00	133.00	133.00	134.00	134.00	130.00	132.00	133.00	134.00	134.00	130.00	125.00	124.00	126.00	124.00	123.00	124.00	126.00	127.00	127.00	129.00	137.00	138.00	130.00	124.00	122.00	121.00	123.00	124.00	123.00	122.00	122.00	127.00	130.00	126.00	127.00	123.00	121.00	124.00
103.00	102.00	101.00	101.00	101.00	102.00	101.00	100.00	99.00	98.00	99.00	98.00	103.00	98.00	97.00	97.00	97.00	97.00	96.00	98.00	102.00	97.00	94.00	95.00	97.00	97.00	98.00	100.00	101.00	98.00	94.00	95.00	98.00	94.00	98.00	93.00	92.00	92.00	90.00	91.00	90.00	90.00	90.00	91.00	93.00	92.00	92.00	89.00	89.00	89.00	93.00	92.00	94.00	90.00	88.00	87.00	88.00	95.00	97.00	99.00	94.00	88.00	87.00	86.00	86.00	86.00	86.00	85.00	85.00	85.00	86.00	84.00	84.00	83.00	84.00	84.00	83.00	85.00	85.00	87.00	87.00	87.00	87.00	84.00	84.00	85.00	86.00	83.00	83.00	83.00	85.00	86.00	90.00	86.00	87.00	86.00	85.00	84.00	87.00	87.00	85.00	86.00	84.00	88.00	87.00	85.00	85.00	88.00	89.00	88.00	84.00	85.00	84.00	83.00	83.00	83.00	82.00	82.00	82.00	85.00	86.00	86.00	88.00	87.00	86.00	87.00	87.00	87.00	88.00	89.00	91.00	92.00	92.00	94.00	91.00	92.00	90.00	91.00	93.00	90.00	90.00	91.00	91.00	93.00	92.00	91.00	92.00	93.00	93.00	94.00	98.00	97.00	99.00	100.00	101.00	100.00	101.00	99.00	100.00	102.00	103.00	102.00	103.00	103.00	107.00	109.00	112.00	114.00	124.00	124.00	115.00	107.00	102.00	103.00	106.00	107.00	107.00	107.00	107.00	105.00	106.00	105.00	103.00	102.00	102.00	102.00	109.00	112.00	115.00	113.00	111.00	107.00	106.00	106.00	104.00	101.00	100.00	105.00	103.00	103.00	105.00	105.00	108.00	106.00	99.00	98.00	102.00	104.00	106.00	108.00	108.00	110.00	113.00	127.00	131.00	132.00	131.00	132.00	131.00	132.00	133.00	131.00	129.00	131.00	133.00	132.00	131.00	129.00	125.00	124.00	124.00	122.00	123.00	126.00	126.00	127.00	128.00	130.00	135.00	142.00	135.00	128.00	120.00	121.00	121.00	124.00	123.00	122.00	123.00	124.00	127.00	128.00	132.00	121.00	121.00	120.00
103.00	102.00	101.00	101.00	100.00	101.00	101.00	100.00	98.00	98.00	98.00	98.00	100.00	97.00	97.00	97.00	97.00	96.00	97.00	97.00	101.00	99.00	95.00	95.00	95.00	94.00	99.00	99.00	100.00	95.00	96.00	94.00	97.00	94.00	95.00	94.00	90.00	90.00	90.00	90.00	89.00	90.00	90.00	89.00	90.00	90.00	90.00	89.00	88.00	89.00	91.00	89.00	88.00	87.00	87.00	88.00	87.00	90.00	96.00	90.00	88.00	91.00	90.00	88.00	87.00	87.00	86.00	86.00	85.00	84.00	84.00	84.00	84.00	83.00	83.00	82.00	82.00	83.00	82.00	84.00	84.00	85.00	85.00	86.00	83.00	84.00	83.00	85.00	81.00	83.00	85.00	86.00	89.00	85.00	87.00	88.00	84.00	85.00	84.00	87.00	84.00	86.00	84.00	86.00	87.00	86.00	84.00	88.00	86.00	88.00	83.00	82.00	85.00	83.00	82.00	83.00	82.00	83.00	82.00	86.00	87.00	86.00	86.00	84.00	85.00	87.00	86.00	86.00	86.00	89.00	91.00	90.00	91.00	90.00	88.00	95.00	90.00	92.00	90.00	90.00	90.00	92.00	89.00	90.00	91.00	92.00	92.00	93.00	93.00	92.00	97.00	98.00	96.00	97.00	98.00	99.00	100.00	100.00	99.00	101.00	102.00	102.00	102.00	102.00	105.00	110.00	111.00	112.00	117.00	124.00	121.00	108.00	102.00	106.00	105.00	107.00	107.00	106.00	107.00	104.00	106.00	106.00	103.00	102.00	102.00	102.00	110.00	111.00	111.00	112.00	111.00	107.00	106.00	103.00	104.00	100.00	101.00	103.00	101.00	104.00	104.00	102.00	105.00	106.00	98.00	100.00	103.00	104.00	107.00	109.00	111.00	113.00	117.00	127.00	133.00	130.00	131.00	130.00	130.00	131.00	131.00	131.00	127.00	129.00	131.00	131.00	130.00	126.00	124.00	127.00	128.00	123.00	125.00	126.00	127.00	130.00	131.00	134.00	137.00	142.00	134.00	131.00	124.00	122.00	120.00	121.00	122.00	122.00	122.00	121.00	126.00	130.00	134.00	124.00	118.00	116.00
103.00	103.00	102.00	101.00	101.00	101.00	100.00	100.00	98.00	98.00	98.00	97.00	98.00	97.00	97.00	97.00	96.00	96.00	95.00	97.00	97.00	96.00	95.00	95.00	94.00	93.00	92.00	95.00	100.00	94.00	99.00	94.00	96.00	93.00	93.00	95.00	92.00	92.00	90.00	89.00	89.00	89.00	89.00	89.00	90.00	90.00	89.00	89.00	88.00	88.00	92.00	88.00	88.00	87.00	88.00	87.00	87.00	87.00	87.00	87.00	87.00	92.00	93.00	89.00	86.00	85.00	85.00	85.00	84.00	84.00	85.00	84.00	83.00	84.00	83.00	82.00	81.00	82.00	83.00	83.00	84.00	85.00	85.00	84.00	83.00	85.00	84.00	83.00	82.00	83.00	84.00	86.00	87.00	83.00	83.00	86.00	84.00	83.00	84.00	84.00	86.00	85.00	86.00	87.00	87.00	86.00	87.00	88.00	85.00	86.00	84.00	84.00	84.00	83.00	84.00	84.00	83.00	84.00	84.00	86.00	85.00	84.00	86.00	86.00	85.00	85.00	85.00	86.00	89.00	91.00	91.00	92.00	89.00	88.00	88.00	91.00	92.00	89.00	89.00	89.00	91.00	90.00	91.00	92.00	90.00	92.00	91.00	92.00	93.00	92.00	94.00	97.00	95.00	97.00	97.00	97.00	99.00	98.00	99.00	100.00	101.00	100.00	102.00	102.00	105.00	109.00	108.00	110.00	119.00	127.00	120.00	111.00	105.00	107.00	107.00	109.00	107.00	105.00	108.00	106.00	104.00	105.00	102.00	102.00	101.00	103.00	110.00	109.00	109.00	110.00	111.00	109.00	106.00	104.00	104.00	100.00	102.00	102.00	103.00	103.00	101.00	102.00	102.00	102.00	98.00	101.00	105.00	105.00	106.00	109.00	110.00	117.00	123.00	129.00	129.00	130.00	129.00	128.00	128.00	130.00	130.00	130.00	127.00	127.00	130.00	130.00	128.00	124.00	123.00	124.00	127.00	123.00	123.00	125.00	125.00	125.00	133.00	134.00	145.00	138.00	131.00	129.00	126.00	123.00	120.00	120.00	120.00	121.00	121.00	122.00	122.00	129.00	139.00	125.00	121.00	117.00
104.00	103.00	101.00	102.00	101.00	101.00	100.00	100.00	98.00	98.00	97.00	97.00	97.00	98.00	101.00	96.00	95.00	95.00	93.00	93.00	93.00	94.00	94.00	96.00	95.00	93.00	93.00	91.00	91.00	93.00	93.00	91.00	94.00	97.00	94.00	98.00	100.00	96.00	95.00	91.00	89.00	88.00	88.00	87.00	87.00	88.00	88.00	86.00	86.00	88.00	89.00	93.00	90.00	87.00	87.00	87.00	86.00	87.00	87.00	87.00	87.00	85.00	86.00	86.00	87.00	85.00	84.00	85.00	84.00	83.00	84.00	83.00	84.00	89.00	89.00	84.00	82.00	82.00	82.00	83.00	84.00	84.00	83.00	83.00	82.00	83.00	82.00	86.00	82.00	82.00	81.00	83.00	83.00	83.00	82.00	86.00	83.00	83.00	82.00	86.00	87.00	87.00	86.00	85.00	86.00	86.00	87.00	86.00	85.00	85.00	87.00	90.00	91.00	93.00	91.00	90.00	90.00	94.00	90.00	83.00	85.00	88.00	88.00	87.00	87.00	89.00	91.00	91.00	91.00	90.00	88.00	91.00	89.00	87.00	92.00	89.00	89.00	89.00	89.00	89.00	88.00	88.00	90.00	89.00	89.00	90.00	91.00	93.00	95.00	96.00	99.00	100.00	100.00	100.00	96.00	99.00	99.00	98.00	95.00	100.00	101.00	101.00	101.00	101.00	105.00	105.00	105.00	107.00	118.00	121.00	122.00	124.00	123.00	115.00	106.00	105.00	106.00	105.00	104.00	103.00	101.00	99.00	102.00	101.00	101.00	102.00	108.00	112.00	109.00	106.00	104.00	104.00	102.00	102.00	102.00	100.00	101.00	101.00	98.00	96.00	99.00	97.00	97.00	97.00	100.00	100.00	100.00	103.00	105.00	111.00	115.00	120.00	124.00	126.00	125.00	125.00	124.00	126.00	127.00	125.00	126.00	125.00	123.00	126.00	126.00	124.00	124.00	121.00	123.00	122.00	124.00	123.00	124.00	124.00	125.00	128.00	136.00	142.00	149.00	147.00	132.00	128.00	126.00	124.00	116.00	117.00	117.00	117.00	121.00	118.00	120.00	125.00	131.00	124.00	121.00	117.00
104.00	103.00	101.00	102.00	101.00	101.00	100.00	100.00	98.00	98.00	97.00	97.00	97.00	98.00	101.00	96.00	95.00	95.00	93.00	93.00	93.00	94.00	94.00	96.00	95.00	93.00	93.00	91.00	91.00	93.00	93.00	91.00	94.00	97.00	94.00	98.00	100.00	96.00	95.00	91.00	89.00	88.00	88.00	87.00	87.00	88.00	88.00	86.00	86.00	88.00	89.00	93.00	90.00	87.00	87.00	87.00	86.00	87.00	87.00	87.00	87.00	85.00	86.00	86.00	87.00	85.00	84.00	85.00	84.00	83.00	84.00	83.00	84.00	89.00	89.00	84.00	82.00	82.00	82.00	83.00	84.00	84.00	83.00	83.00	82.00	83.00	82.00	86.00	82.00	82.00	81.00	83.00	83.00	83.00	82.00	86.00	83.00	83.00	82.00	86.00	87.00	87.00	86.00	85.00	86.00	86.00	87.00	86.00	85.00	85.00	87.00	90.00	91.00	93.00	91.00	90.00	90.00	94.00	90.00	83.00	85.00	88.00	88.00	87.00	87.00	89.00	91.00	91.00	91.00	90.00	88.00	91.00	89.00	87.00	92.00	89.00	89.00	89.00	89.00	89.00	88.00	88.00	90.00	89.00	89.00	90.00	91.00	93.00	95.00	96.00	99.00	100.00	100.00	100.00	96.00	99.00	99.00	98.00	95.00	100.00	101.00	101.00	101.00	101.00	105.00	105.00	105.00	107.00	118.00	121.00	122.00	124.00	123.00	115.00	106.00	105.00	106.00	105.00	104.00	103.00	101.00	99.00	102.00	101.00	101.00	102.00	108.00	112.00	109.00	106.00	104.00	104.00	102.00	102.00	102.00	100.00	101.00	101.00	98.00	96.00	99.00	97.00	97.00	97.00	100.00	100.00	100.00	103.00	105.00	111.00	115.00	120.00	124.00	126.00	125.00	125.00	124.00	126.00	127.00	125.00	126.00	125.00	123.00	126.00	126.00	124.00	124.00	121.00	123.00	122.00	124.00	123.00	124.00	124.00	125.00	128.00	136.00	142.00	149.00	147.00	132.00	128.00	126.00	124.00	116.00	117.00	117.00	117.00	121.00	118.00	120.00	125.00	131.00	124.00	121.00	117.00
103.00	103.00	102.00	102.00	102.00	101.00	100.00	100.00	99.00	98.00	98.00	96.00	96.00	96.00	97.00	97.00	95.00	95.00	96.00	93.00	93.00	93.00	94.00	95.00	94.00	96.00	94.00	93.00	92.00	94.00	97.00	96.00	93.00	91.00	93.00	96.00	98.00	96.00	100.00	97.00	89.00	88.00	87.00	87.00	88.00	87.00	88.00	86.00	87.00	88.00	88.00	87.00	89.00	86.00	87.00	88.00	90.00	94.00	89.00	88.00	88.00	86.00	85.00	85.00	87.00	85.00	84.00	84.00	84.00	84.00	83.00	83.00	83.00	85.00	83.00	83.00	83.00	83.00	82.00	82.00	83.00	83.00	84.00	83.00	82.00	85.00	81.00	85.00	81.00	81.00	82.00	84.00	82.00	82.00	81.00	86.00	84.00	82.00	81.00	89.00	87.00	88.00	89.00	87.00	86.00	87.00	87.00	88.00	88.00	86.00	89.00	86.00	94.00	98.00	95.00	93.00	93.00	96.00	97.00	90.00	90.00	91.00	89.00	90.00	89.00	90.00	91.00	90.00	90.00	91.00	91.00	93.00	87.00	86.00	89.00	87.00	89.00	88.00	89.00	89.00	89.00	88.00	89.00	89.00	89.00	90.00	91.00	92.00	99.00	101.00	98.00	97.00	102.00	102.00	99.00	101.00	100.00	98.00	97.00	100.00	101.00	101.00	102.00	102.00	103.00	104.00	105.00	107.00	121.00	122.00	122.00	123.00	121.00	116.00	103.00	108.00	105.00	104.00	101.00	101.00	101.00	98.00	101.00	98.00	98.00	99.00	108.00	111.00	108.00	105.00	102.00	102.00	102.00	100.00	100.00	99.00	100.00	99.00	99.00	96.00	99.00	101.00	100.00	101.00	103.00	103.00	104.00	106.00	107.00	110.00	114.00	121.00	124.00	124.00	123.00	124.00	124.00	124.00	125.00	124.00	123.00	123.00	123.00	123.00	124.00	123.00	122.00	120.00	122.00	123.00	123.00	124.00	123.00	124.00	126.00	126.00	133.00	140.00	149.00	147.00	133.00	127.00	125.00	123.00	117.00	115.00	116.00	115.00	118.00	119.00	120.00	123.00	129.00	120.00	118.00	116.00
102.00	102.00	102.00	102.00	101.00	101.00	100.00	99.00	100.00	99.00	98.00	97.00	97.00	96.00	96.00	95.00	98.00	95.00	96.00	95.00	92.00	92.00	92.00	93.00	93.00	94.00	98.00	95.00	92.00	93.00	91.00	98.00	96.00	93.00	92.00	94.00	98.00	99.00	97.00	95.00	90.00	88.00	88.00	87.00	87.00	87.00	86.00	87.00	87.00	86.00	85.00	87.00	89.00	86.00	88.00	91.00	95.00	93.00	89.00	86.00	86.00	84.00	84.00	85.00	85.00	86.00	84.00	83.00	83.00	83.00	83.00	82.00	83.00	83.00	82.00	82.00	82.00	82.00	81.00	82.00	84.00	81.00	84.00	83.00	82.00	84.00	82.00	85.00	81.00	80.00	83.00	83.00	82.00	83.00	81.00	85.00	83.00	83.00	84.00	86.00	87.00	89.00	90.00	89.00	88.00	87.00	88.00	90.00	87.00	86.00	89.00	87.00	99.00	103.00	101.00	99.00	99.00	103.00	104.00	101.00	99.00	96.00	94.00	89.00	90.00	90.00	90.00	89.00	90.00	91.00	92.00	93.00	87.00	86.00	88.00	87.00	90.00	88.00	89.00	87.00	87.00	87.00	88.00	89.00	90.00	91.00	91.00	93.00	101.00	100.00	97.00	98.00	103.00	106.00	101.00	98.00	99.00	98.00	96.00	97.00	99.00	99.00	101.00	103.00	105.00	103.00	104.00	106.00	116.00	122.00	121.00	120.00	118.00	108.00	106.00	104.00	106.00	104.00	102.00	101.00	101.00	102.00	99.00	99.00	97.00	98.00	106.00	109.00	109.00	102.00	99.00	102.00	101.00	99.00	100.00	103.00	99.00	97.00	98.00	96.00	97.00	99.00	101.00	102.00	104.00	104.00	104.00	105.00	108.00	112.00	115.00	120.00	123.00	122.00	123.00	123.00	123.00	123.00	125.00	123.00	124.00	124.00	122.00	122.00	123.00	121.00	118.00	119.00	120.00	120.00	121.00	123.00	123.00	124.00	124.00	125.00	132.00	144.00	153.00	143.00	137.00	130.00	127.00	121.00	118.00	117.00	115.00	116.00	117.00	118.00	118.00	125.00	127.00	118.00	116.00	114.00
101.00	100.00	102.00	102.00	102.00	102.00	101.00	99.00	98.00	97.00	98.00	101.00	96.00	96.00	95.00	95.00	95.00	95.00	94.00	93.00	92.00	91.00	91.00	92.00	93.00	93.00	91.00	91.00	91.00	91.00	92.00	91.00	91.00	90.00	89.00	93.00	93.00	94.00	94.00	95.00	90.00	89.00	88.00	87.00	87.00	87.00	86.00	86.00	87.00	86.00	86.00	85.00	89.00	90.00	94.00	92.00	91.00	89.00	86.00	84.00	84.00	84.00	84.00	84.00	84.00	85.00	85.00	82.00	83.00	84.00	84.00	82.00	81.00	82.00	82.00	82.00	82.00	83.00	84.00	81.00	80.00	83.00	88.00	83.00	81.00	83.00	80.00	81.00	80.00	80.00	82.00	82.00	81.00	82.00	84.00	82.00	84.00	81.00	82.00	82.00	85.00	94.00	92.00	88.00	87.00	88.00	92.00	90.00	86.00	89.00	94.00	102.00	107.00	117.00	113.00	115.00	115.00	115.00	113.00	110.00	105.00	97.00	93.00	93.00	92.00	84.00	85.00	85.00	85.00	85.00	87.00	89.00	85.00	91.00	86.00	86.00	88.00	88.00	90.00	91.00	94.00	88.00	88.00	91.00	93.00	93.00	94.00	91.00	95.00	97.00	94.00	97.00	104.00	103.00	100.00	96.00	96.00	96.00	95.00	95.00	96.00	97.00	98.00	99.00	101.00	101.00	102.00	104.00	108.00	115.00	121.00	118.00	115.00	117.00	113.00	110.00	106.00	105.00	101.00	101.00	99.00	98.00	96.00	95.00	96.00	97.00	106.00	106.00	106.00	102.00	98.00	98.00	97.00	101.00	100.00	101.00	99.00	95.00	94.00	96.00	98.00	100.00	100.00	99.00	98.00	101.00	103.00	104.00	108.00	116.00	120.00	121.00	122.00	120.00	120.00	123.00	121.00	122.00	121.00	121.00	121.00	122.00	122.00	122.00	119.00	117.00	118.00	120.00	119.00	120.00	120.00	119.00	120.00	120.00	122.00	123.00	133.00	145.00	149.00	148.00	142.00	134.00	128.00	125.00	117.00	117.00	116.00	115.00	116.00	118.00	118.00	120.00	120.00	114.00	113.00	111.00
102.00	102.00	102.00	104.00	102.00	103.00	102.00	99.00	99.00	97.00	101.00	103.00	99.00	97.00	97.00	96.00	97.00	98.00	103.00	93.00	93.00	91.00	92.00	92.00	92.00	93.00	92.00	92.00	91.00	90.00	93.00	90.00	88.00	90.00	89.00	92.00	93.00	90.00	90.00	92.00	96.00	91.00	87.00	86.00	87.00	87.00	87.00	88.00	89.00	89.00	93.00	87.00	89.00	88.00	87.00	90.00	87.00	87.00	85.00	86.00	84.00	84.00	84.00	84.00	84.00	85.00	84.00	83.00	83.00	82.00	84.00	83.00	81.00	81.00	82.00	81.00	81.00	87.00	84.00	80.00	80.00	80.00	88.00	82.00	81.00	83.00	82.00	82.00	80.00	79.00	80.00	81.00	81.00	80.00	81.00	83.00	81.00	81.00	82.00	82.00	85.00	89.00	92.00	88.00	87.00	88.00	89.00	89.00	90.00	98.00	98.00	102.00	107.00	117.00	119.00	124.00	122.00	114.00	109.00	105.00	98.00	95.00	93.00	91.00	93.00	88.00	84.00	84.00	84.00	87.00	89.00	86.00	85.00	87.00	85.00	86.00	88.00	88.00	90.00	92.00	92.00	95.00	94.00	96.00	97.00	98.00	98.00	93.00	95.00	96.00	97.00	98.00	102.00	102.00	101.00	96.00	95.00	94.00	94.00	93.00	94.00	96.00	97.00	98.00	100.00	100.00	101.00	102.00	106.00	117.00	120.00	118.00	115.00	118.00	119.00	116.00	104.00	105.00	103.00	101.00	97.00	97.00	97.00	96.00	96.00	98.00	102.00	107.00	105.00	101.00	99.00	99.00	97.00	99.00	100.00	101.00	97.00	95.00	95.00	99.00	97.00	98.00	99.00	97.00	99.00	99.00	100.00	103.00	108.00	120.00	120.00	119.00	119.00	121.00	121.00	120.00	120.00	120.00	119.00	119.00	119.00	120.00	121.00	121.00	119.00	116.00	119.00	118.00	119.00	119.00	120.00	120.00	121.00	120.00	120.00	121.00	139.00	146.00	150.00	149.00	142.00	137.00	127.00	122.00	117.00	117.00	116.00	115.00	115.00	119.00	119.00	118.00	115.00	113.00	111.00	113.00
101.00	102.00	106.00	106.00	104.00	102.00	103.00	103.00	99.00	100.00	101.00	97.00	100.00	100.00	97.00	96.00	94.00	94.00	94.00	95.00	94.00	94.00	92.00	92.00	92.00	95.00	93.00	93.00	92.00	90.00	91.00	91.00	89.00	88.00	89.00	92.00	96.00	91.00	90.00	91.00	94.00	97.00	88.00	87.00	88.00	86.00	86.00	87.00	90.00	91.00	90.00	86.00	90.00	90.00	86.00	84.00	84.00	86.00	86.00	85.00	87.00	84.00	84.00	85.00	85.00	84.00	84.00	82.00	83.00	82.00	82.00	83.00	82.00	81.00	82.00	82.00	80.00	82.00	82.00	80.00	80.00	80.00	86.00	86.00	82.00	82.00	83.00	80.00	79.00	80.00	81.00	80.00	80.00	80.00	80.00	81.00	80.00	81.00	81.00	82.00	84.00	87.00	93.00	92.00	90.00	89.00	91.00	93.00	97.00	100.00	100.00	100.00	105.00	112.00	129.00	124.00	116.00	108.00	102.00	99.00	98.00	96.00	98.00	93.00	92.00	92.00	86.00	85.00	84.00	88.00	86.00	86.00	85.00	89.00	86.00	85.00	87.00	86.00	87.00	90.00	92.00	96.00	95.00	98.00	98.00	96.00	93.00	92.00	93.00	95.00	93.00	96.00	98.00	99.00	99.00	94.00	93.00	93.00	93.00	91.00	93.00	95.00	95.00	96.00	98.00	99.00	99.00	99.00	107.00	119.00	120.00	119.00	115.00	115.00	115.00	118.00	105.00	105.00	104.00	103.00	101.00	96.00	95.00	95.00	95.00	95.00	99.00	101.00	102.00	101.00	98.00	99.00	97.00	98.00	100.00	101.00	97.00	97.00	97.00	97.00	95.00	95.00	96.00	99.00	99.00	99.00	100.00	101.00	108.00	118.00	119.00	118.00	119.00	118.00	119.00	119.00	119.00	117.00	118.00	119.00	119.00	120.00	119.00	118.00	116.00	116.00	116.00	117.00	118.00	119.00	120.00	117.00	118.00	119.00	119.00	120.00	134.00	142.00	149.00	148.00	144.00	133.00	128.00	123.00	116.00	115.00	114.00	114.00	115.00	118.00	119.00	116.00	114.00	113.00	114.00	114.00
101.00	103.00	99.00	101.00	101.00	101.00	101.00	105.00	102.00	100.00	98.00	97.00	98.00	97.00	96.00	95.00	94.00	94.00	93.00	93.00	97.00	96.00	92.00	96.00	91.00	92.00	93.00	92.00	94.00	92.00	94.00	89.00	88.00	88.00	90.00	91.00	96.00	95.00	90.00	90.00	90.00	97.00	90.00	86.00	87.00	87.00	86.00	87.00	87.00	90.00	87.00	87.00	87.00	89.00	89.00	89.00	84.00	85.00	86.00	93.00	92.00	87.00	85.00	84.00	83.00	84.00	83.00	82.00	83.00	82.00	81.00	84.00	82.00	81.00	81.00	81.00	80.00	80.00	80.00	80.00	80.00	81.00	80.00	81.00	80.00	80.00	83.00	79.00	80.00	81.00	81.00	81.00	80.00	79.00	80.00	80.00	80.00	80.00	80.00	82.00	85.00	87.00	90.00	87.00	86.00	88.00	91.00	97.00	100.00	105.00	105.00	102.00	108.00	120.00	121.00	115.00	109.00	105.00	102.00	103.00	98.00	101.00	106.00	101.00	97.00	93.00	88.00	85.00	85.00	84.00	85.00	86.00	85.00	87.00	85.00	86.00	86.00	86.00	86.00	89.00	94.00	96.00	93.00	95.00	97.00	94.00	93.00	95.00	95.00	93.00	92.00	95.00	96.00	96.00	98.00	93.00	93.00	92.00	93.00	91.00	92.00	93.00	95.00	95.00	97.00	97.00	98.00	98.00	107.00	116.00	116.00	115.00	115.00	113.00	114.00	115.00	111.00	104.00	106.00	105.00	101.00	97.00	94.00	95.00	95.00	94.00	95.00	97.00	98.00	99.00	98.00	97.00	96.00	99.00	97.00	101.00	97.00	96.00	96.00	95.00	96.00	95.00	97.00	98.00	103.00	101.00	101.00	102.00	105.00	115.00	117.00	117.00	118.00	118.00	119.00	118.00	117.00	118.00	117.00	118.00	119.00	120.00	119.00	117.00	114.00	115.00	116.00	117.00	118.00	118.00	119.00	117.00	120.00	118.00	117.00	120.00	134.00	140.00	147.00	147.00	143.00	138.00	128.00	122.00	115.00	114.00	115.00	113.00	114.00	115.00	115.00	115.00	113.00	113.00	112.00	111.00
101.00	102.00	100.00	101.00	101.00	100.00	100.00	100.00	99.00	100.00	98.00	98.00	98.00	97.00	96.00	96.00	94.00	94.00	93.00	92.00	91.00	92.00	94.00	92.00	91.00	90.00	91.00	93.00	91.00	92.00	91.00	96.00	95.00	92.00	95.00	91.00	88.00	87.00	91.00	89.00	88.00	89.00	90.00	91.00	88.00	88.00	87.00	86.00	89.00	87.00	89.00	88.00	87.00	85.00	87.00	86.00	85.00	85.00	84.00	84.00	83.00	82.00	83.00	83.00	83.00	82.00	81.00	82.00	82.00	82.00	82.00	81.00	83.00	81.00	81.00	81.00	79.00	80.00	80.00	79.00	79.00	85.00	82.00	85.00	85.00	86.00	84.00	86.00	82.00	82.00	83.00	81.00	79.00	79.00	79.00	80.00	83.00	82.00	80.00	80.00	79.00	80.00	85.00	84.00	78.00	87.00	92.00	96.00	104.00	109.00	107.00	112.00	115.00	119.00	115.00	113.00	113.00	115.00	114.00	116.00	114.00	111.00	115.00	108.00	99.00	90.00	86.00	87.00	88.00	85.00	84.00	84.00	83.00	85.00	84.00	86.00	85.00	88.00	92.00	91.00	94.00	85.00	86.00	86.00	86.00	88.00	87.00	88.00	89.00	91.00	93.00	91.00	92.00	92.00	93.00	91.00	90.00	89.00	88.00	92.00	89.00	91.00	91.00	91.00	94.00	94.00	95.00	97.00	105.00	113.00	109.00	103.00	104.00	112.00	112.00	108.00	112.00	112.00	105.00	103.00	102.00	95.00	93.00	94.00	94.00	95.00	95.00	94.00	96.00	98.00	95.00	94.00	94.00	94.00	97.00	99.00	96.00	98.00	96.00	95.00	97.00	98.00	101.00	102.00	102.00	103.00	104.00	105.00	108.00	117.00	114.00	114.00	114.00	115.00	117.00	116.00	116.00	115.00	116.00	117.00	118.00	117.00	115.00	113.00	113.00	113.00	113.00	113.00	117.00	115.00	116.00	115.00	115.00	116.00	116.00	120.00	139.00	143.00	144.00	141.00	136.00	134.00	134.00	131.00	118.00	114.00	114.00	113.00	112.00	111.00	111.00	115.00	114.00	111.00	111.00	113.00
102.00	102.00	102.00	100.00	101.00	100.00	99.00	100.00	99.00	99.00	97.00	96.00	97.00	96.00	96.00	97.00	95.00	93.00	93.00	92.00	92.00	92.00	93.00	95.00	91.00	92.00	93.00	94.00	96.00	91.00	91.00	93.00	95.00	96.00	91.00	88.00	88.00	88.00	89.00	91.00	88.00	91.00	89.00	94.00	88.00	90.00	88.00	89.00	88.00	91.00	87.00	87.00	89.00	86.00	87.00	85.00	83.00	83.00	84.00	84.00	84.00	82.00	82.00	83.00	82.00	82.00	82.00	82.00	81.00	81.00	81.00	82.00	81.00	81.00	80.00	81.00	79.00	80.00	80.00	79.00	78.00	81.00	83.00	84.00	86.00	85.00	86.00	85.00	82.00	83.00	83.00	79.00	79.00	79.00	79.00	80.00	80.00	82.00	83.00	81.00	81.00	82.00	85.00	83.00	79.00	85.00	87.00	92.00	102.00	110.00	104.00	108.00	110.00	111.00	106.00	105.00	104.00	108.00	105.00	105.00	108.00	111.00	114.00	106.00	97.00	91.00	85.00	85.00	91.00	87.00	84.00	83.00	84.00	84.00	85.00	85.00	84.00	92.00	91.00	93.00	92.00	86.00	86.00	85.00	86.00	87.00	90.00	88.00	92.00	91.00	88.00	87.00	89.00	89.00	89.00	90.00	88.00	87.00	88.00	90.00	89.00	89.00	88.00	90.00	91.00	92.00	94.00	95.00	102.00	109.00	105.00	101.00	102.00	108.00	110.00	105.00	108.00	110.00	107.00	102.00	103.00	98.00	95.00	94.00	94.00	95.00	94.00	93.00	96.00	98.00	96.00	94.00	95.00	94.00	98.00	97.00	95.00	95.00	95.00	96.00	99.00	100.00	101.00	102.00	104.00	104.00	106.00	109.00	111.00	114.00	113.00	113.00	114.00	116.00	116.00	115.00	113.00	113.00	114.00	116.00	116.00	117.00	115.00	114.00	113.00	112.00	112.00	114.00	115.00	115.00	115.00	115.00	115.00	115.00	118.00	123.00	139.00	140.00	142.00	142.00	130.00	130.00	130.00	128.00	119.00	115.00	113.00	112.00	112.00	110.00	111.00	112.00	111.00	111.00	110.00	113.00
100.00	101.00	101.00	100.00	99.00	99.00	99.00	99.00	98.00	98.00	98.00	97.00	96.00	96.00	97.00	96.00	94.00	93.00	93.00	92.00	92.00	92.00	93.00	94.00	92.00	90.00	89.00	91.00	91.00	91.00	91.00	93.00	96.00	94.00	88.00	88.00	88.00	88.00	89.00	92.00	87.00	89.00	91.00	89.00	87.00	87.00	88.00	88.00	90.00	92.00	88.00	86.00	86.00	85.00	83.00	86.00	87.00	83.00	84.00	83.00	82.00	83.00	82.00	82.00	82.00	82.00	82.00	82.00	82.00	82.00	82.00	82.00	81.00	82.00	81.00	81.00	80.00	80.00	79.00	78.00	79.00	79.00	84.00	82.00	81.00	86.00	86.00	84.00	83.00	83.00	80.00	82.00	78.00	79.00	80.00	79.00	80.00	79.00	82.00	80.00	80.00	84.00	86.00	83.00	78.00	87.00	94.00	100.00	101.00	104.00	100.00	104.00	105.00	103.00	99.00	96.00	95.00	101.00	99.00	96.00	99.00	100.00	102.00	98.00	91.00	86.00	84.00	83.00	85.00	86.00	83.00	84.00	84.00	84.00	83.00	83.00	87.00	91.00	90.00	90.00	96.00	85.00	85.00	85.00	86.00	86.00	93.00	91.00	96.00	97.00	93.00	87.00	88.00	87.00	88.00	89.00	88.00	87.00	87.00	91.00	92.00	89.00	86.00	87.00	91.00	91.00	94.00	95.00	99.00	105.00	107.00	100.00	101.00	108.00	110.00	104.00	105.00	110.00	109.00	102.00	101.00	103.00	101.00	96.00	94.00	94.00	94.00	94.00	96.00	96.00	95.00	93.00	94.00	95.00	99.00	99.00	97.00	94.00	94.00	96.00	102.00	102.00	104.00	104.00	106.00	105.00	107.00	112.00	114.00	112.00	112.00	113.00	115.00	116.00	115.00	114.00	113.00	112.00	113.00	114.00	114.00	115.00	112.00	111.00	108.00	110.00	112.00	113.00	114.00	114.00	113.00	113.00	113.00	116.00	118.00	123.00	134.00	136.00	138.00	143.00	131.00	124.00	130.00	125.00	121.00	118.00	113.00	113.00	115.00	112.00	111.00	111.00	113.00	111.00	111.00	115.00
102.00	101.00	101.00	99.00	99.00	98.00	98.00	99.00	98.00	97.00	98.00	97.00	97.00	97.00	97.00	97.00	94.00	94.00	94.00	93.00	93.00	93.00	95.00	94.00	92.00	90.00	89.00	91.00	89.00	92.00	92.00	93.00	95.00	94.00	87.00	87.00	88.00	88.00	88.00	89.00	91.00	90.00	91.00	87.00	92.00	87.00	86.00	87.00	92.00	91.00	90.00	89.00	90.00	84.00	84.00	85.00	84.00	86.00	85.00	84.00	84.00	82.00	82.00	83.00	81.00	81.00	83.00	82.00	81.00	82.00	80.00	81.00	81.00	81.00	81.00	80.00	81.00	80.00	79.00	81.00	79.00	79.00	82.00	78.00	78.00	80.00	85.00	84.00	84.00	81.00	79.00	81.00	81.00	78.00	78.00	78.00	79.00	78.00	80.00	82.00	80.00	85.00	85.00	85.00	84.00	92.00	99.00	106.00	105.00	101.00	95.00	99.00	99.00	98.00	93.00	90.00	89.00	90.00	92.00	87.00	88.00	91.00	92.00	89.00	85.00	83.00	82.00	82.00	83.00	84.00	83.00	83.00	84.00	83.00	83.00	84.00	86.00	88.00	91.00	94.00	98.00	84.00	84.00	85.00	85.00	86.00	92.00	92.00	95.00	98.00	93.00	89.00	86.00	85.00	87.00	88.00	88.00	89.00	87.00	88.00	86.00	85.00	85.00	87.00	88.00	89.00	92.00	92.00	97.00	103.00	103.00	100.00	99.00	100.00	105.00	103.00	102.00	108.00	105.00	105.00	101.00	101.00	101.00	103.00	96.00	94.00	93.00	93.00	94.00	96.00	95.00	93.00	93.00	95.00	98.00	98.00	97.00	94.00	93.00	95.00	105.00	103.00	104.00	102.00	105.00	106.00	109.00	114.00	115.00	112.00	110.00	112.00	113.00	115.00	113.00	113.00	113.00	112.00	112.00	112.00	114.00	112.00	108.00	107.00	107.00	110.00	113.00	113.00	113.00	112.00	111.00	111.00	112.00	115.00	118.00	123.00	128.00	133.00	137.00	141.00	126.00	123.00	120.00	119.00	117.00	112.00	112.00	114.00	115.00	109.00	111.00	111.00	111.00	111.00	110.00	112.00
103.00	102.00	102.00	101.00	100.00	99.00	98.00	98.00	97.00	97.00	97.00	97.00	98.00	96.00	96.00	95.00	96.00	94.00	94.00	94.00	95.00	93.00	92.00	92.00	91.00	91.00	91.00	92.00	90.00	90.00	89.00	89.00	93.00	92.00	95.00	95.00	96.00	95.00	90.00	91.00	89.00	89.00	93.00	96.00	94.00	92.00	91.00	87.00	88.00	91.00	88.00	88.00	87.00	85.00	86.00	83.00	83.00	84.00	82.00	83.00	81.00	81.00	81.00	81.00	82.00	82.00	81.00	81.00	81.00	81.00	87.00	88.00	81.00	80.00	81.00	81.00	80.00	79.00	81.00	79.00	79.00	79.00	78.00	78.00	77.00	77.00	79.00	83.00	80.00	83.00	81.00	80.00	77.00	77.00	78.00	77.00	78.00	78.00	77.00	81.00	83.00	82.00	84.00	84.00	86.00	86.00	95.00	96.00	98.00	95.00	90.00	89.00	93.00	88.00	85.00	82.00	79.00	80.00	80.00	80.00	84.00	83.00	82.00	81.00	81.00	81.00	82.00	82.00	84.00	84.00	86.00	84.00	84.00	82.00	84.00	85.00	85.00	84.00	88.00	89.00	90.00	87.00	91.00	92.00	89.00	88.00	91.00	91.00	95.00	97.00	91.00	88.00	83.00	84.00	84.00	85.00	86.00	85.00	83.00	84.00	83.00	83.00	83.00	88.00	85.00	87.00	87.00	87.00	88.00	88.00	91.00	90.00	93.00	94.00	96.00	99.00	99.00	103.00	106.00	105.00	106.00	102.00	100.00	100.00	99.00	102.00	92.00	92.00	94.00	96.00	96.00	94.00	97.00	96.00	97.00	97.00	98.00	95.00	94.00	96.00	97.00	99.00	100.00	101.00	104.00	107.00	110.00	114.00	111.00	109.00	110.00	111.00	111.00	111.00	110.00	109.00	110.00	111.00	110.00	110.00	109.00	110.00	109.00	108.00	109.00	112.00	113.00	112.00	113.00	112.00	112.00	112.00	114.00	115.00	117.00	121.00	134.00	135.00	137.00	133.00	125.00	121.00	117.00	114.00	113.00	111.00	113.00	114.00	111.00	110.00	108.00	110.00	109.00	111.00	112.00	117.00
103.00	105.00	101.00	101.00	101.00	99.00	99.00	98.00	98.00	98.00	98.00	97.00	97.00	97.00	97.00	95.00	95.00	94.00	96.00	95.00	93.00	92.00	91.00	90.00	91.00	90.00	89.00	90.00	91.00	88.00	90.00	88.00	91.00	89.00	94.00	95.00	93.00	94.00	89.00	92.00	93.00	88.00	86.00	94.00	93.00	86.00	87.00	92.00	92.00	89.00	85.00	87.00	87.00	85.00	84.00	85.00	84.00	85.00	82.00	84.00	81.00	82.00	82.00	81.00	82.00	81.00	81.00	81.00	80.00	82.00	83.00	85.00	80.00	80.00	80.00	81.00	80.00	80.00	82.00	80.00	80.00	79.00	78.00	77.00	77.00	77.00	77.00	84.00	80.00	82.00	80.00	79.00	76.00	76.00	77.00	78.00	78.00	77.00	78.00	81.00	83.00	82.00	83.00	84.00	83.00	87.00	90.00	91.00	92.00	91.00	85.00	88.00	89.00	85.00	84.00	83.00	81.00	78.00	77.00	80.00	85.00	84.00	84.00	80.00	83.00	81.00	82.00	84.00	82.00	85.00	86.00	85.00	82.00	81.00	90.00	88.00	87.00	89.00	87.00	88.00	85.00	86.00	84.00	87.00	86.00	85.00	85.00	91.00	95.00	96.00	89.00	85.00	84.00	84.00	83.00	86.00	86.00	85.00	85.00	84.00	83.00	82.00	82.00	82.00	83.00	86.00	86.00	86.00	86.00	86.00	87.00	89.00	91.00	91.00	93.00	97.00	95.00	101.00	102.00	103.00	103.00	104.00	99.00	99.00	100.00	98.00	93.00	92.00	93.00	97.00	96.00	95.00	93.00	96.00	99.00	95.00	98.00	94.00	99.00	98.00	99.00	99.00	101.00	106.00	109.00	112.00	114.00	114.00	111.00	108.00	108.00	111.00	111.00	109.00	109.00	110.00	109.00	109.00	109.00	108.00	108.00	109.00	111.00	111.00	111.00	112.00	111.00	112.00	112.00	111.00	110.00	112.00	111.00	114.00	120.00	123.00	131.00	136.00	135.00	133.00	128.00	122.00	119.00	114.00	111.00	112.00	113.00	110.00	110.00	110.00	108.00	108.00	109.00	109.00	109.00	110.00
101.00	101.00	100.00	99.00	99.00	99.00	98.00	98.00	97.00	98.00	98.00	96.00	97.00	96.00	96.00	94.00	94.00	94.00	94.00	93.00	91.00	92.00	91.00	91.00	92.00	90.00	89.00	89.00	88.00	92.00	89.00	88.00	88.00	86.00	86.00	87.00	87.00	88.00	91.00	90.00	93.00	90.00	88.00	89.00	88.00	89.00	93.00	95.00	91.00	92.00	85.00	86.00	86.00	88.00	86.00	86.00	85.00	86.00	83.00	83.00	87.00	81.00	84.00	80.00	81.00	80.00	79.00	82.00	87.00	84.00	85.00	84.00	86.00	84.00	82.00	79.00	80.00	79.00	80.00	77.00	77.00	78.00	78.00	77.00	77.00	77.00	76.00	83.00	78.00	77.00	77.00	79.00	75.00	76.00	76.00	75.00	76.00	78.00	77.00	82.00	84.00	81.00	82.00	81.00	78.00	81.00	82.00	82.00	81.00	82.00	82.00	78.00	81.00	81.00	88.00	86.00	83.00	84.00	84.00	83.00	86.00	86.00	84.00	82.00	82.00	83.00	83.00	87.00	84.00	85.00	88.00	86.00	81.00	82.00	86.00	82.00	84.00	90.00	93.00	88.00	90.00	90.00	89.00	86.00	85.00	85.00	91.00	93.00	91.00	92.00	93.00	86.00	85.00	84.00	84.00	86.00	89.00	89.00	90.00	88.00	88.00	88.00	86.00	86.00	81.00	85.00	85.00	86.00	87.00	86.00	87.00	89.00	87.00	86.00	89.00	91.00	92.00	99.00	97.00	98.00	99.00	97.00	96.00	93.00	93.00	93.00	96.00	95.00	93.00	95.00	94.00	92.00	92.00	93.00	91.00	96.00	97.00	96.00	99.00	102.00	103.00	105.00	107.00	109.00	122.00	119.00	116.00	112.00	110.00	108.00	108.00	110.00	108.00	107.00	107.00	107.00	107.00	107.00	107.00	109.00	110.00	110.00	110.00	110.00	110.00	110.00	109.00	109.00	111.00	110.00	111.00	111.00	114.00	113.00	117.00	119.00	128.00	131.00	131.00	132.00	124.00	118.00	115.00	112.00	110.00	110.00	110.00	110.00	110.00	109.00	109.00	109.00	110.00	108.00	110.00	117.00
101.00	101.00	99.00	100.00	99.00	98.00	98.00	96.00	96.00	96.00	96.00	95.00	96.00	96.00	96.00	95.00	92.00	94.00	95.00	92.00	92.00	91.00	92.00	89.00	90.00	89.00	89.00	87.00	88.00	88.00	88.00	88.00	87.00	87.00	86.00	87.00	88.00	86.00	90.00	92.00	92.00	93.00	95.00	93.00	91.00	94.00	95.00	91.00	91.00	88.00	87.00	88.00	88.00	88.00	88.00	83.00	87.00	87.00	85.00	84.00	81.00	80.00	82.00	85.00	81.00	81.00	79.00	82.00	85.00	85.00	82.00	79.00	85.00	85.00	84.00	80.00	81.00	81.00	79.00	78.00	77.00	78.00	77.00	78.00	77.00	77.00	77.00	83.00	80.00	77.00	75.00	78.00	76.00	75.00	75.00	76.00	76.00	78.00	78.00	83.00	83.00	80.00	82.00	83.00	79.00	80.00	78.00	78.00	79.00	79.00	80.00	77.00	77.00	80.00	88.00	88.00	87.00	85.00	83.00	85.00	87.00	85.00	85.00	80.00	80.00	80.00	81.00	84.00	82.00	85.00	88.00	86.00	81.00	83.00	84.00	83.00	83.00	90.00	91.00	90.00	90.00	90.00	90.00	86.00	84.00	85.00	92.00	93.00	92.00	91.00	88.00	84.00	86.00	84.00	84.00	89.00	90.00	92.00	98.00	94.00	92.00	93.00	92.00	87.00	81.00	84.00	84.00	87.00	86.00	85.00	83.00	87.00	85.00	84.00	88.00	90.00	91.00	95.00	96.00	97.00	97.00	93.00	93.00	91.00	93.00	90.00	96.00	95.00	92.00	95.00	95.00	93.00	93.00	91.00	95.00	96.00	94.00	96.00	97.00	101.00	106.00	108.00	111.00	120.00	129.00	121.00	116.00	112.00	109.00	108.00	107.00	107.00	109.00	106.00	107.00	106.00	107.00	107.00	108.00	109.00	109.00	109.00	109.00	109.00	109.00	109.00	110.00	108.00	111.00	110.00	110.00	113.00	114.00	115.00	117.00	122.00	128.00	131.00	131.00	129.00	122.00	118.00	114.00	111.00	108.00	109.00	108.00	109.00	109.00	109.00	108.00	109.00	108.00	108.00	109.00	116.00
105.00	99.00	98.00	98.00	99.00	98.00	98.00	97.00	96.00	96.00	96.00	95.00	95.00	95.00	96.00	95.00	94.00	94.00	93.00	91.00	90.00	91.00	89.00	89.00	89.00	89.00	88.00	88.00	89.00	87.00	89.00	88.00	88.00	86.00	88.00	88.00	86.00	88.00	86.00	85.00	90.00	91.00	93.00	93.00	91.00	92.00	91.00	92.00	90.00	91.00	87.00	88.00	90.00	89.00	84.00	82.00	83.00	83.00	83.00	83.00	83.00	90.00	87.00	81.00	83.00	83.00	81.00	84.00	82.00	79.00	84.00	84.00	83.00	85.00	82.00	84.00	84.00	86.00	78.00	77.00	77.00	76.00	76.00	76.00	77.00	78.00	81.00	83.00	83.00	76.00	75.00	77.00	76.00	76.00	76.00	76.00	75.00	77.00	76.00	75.00	80.00	76.00	81.00	84.00	79.00	77.00	76.00	77.00	81.00	76.00	78.00	79.00	77.00	77.00	80.00	79.00	80.00	80.00	80.00	83.00	84.00	83.00	85.00	84.00	83.00	84.00	86.00	84.00	84.00	87.00	81.00	80.00	81.00	82.00	81.00	82.00	83.00	83.00	85.00	86.00	90.00	89.00	87.00	86.00	84.00	86.00	91.00	88.00	86.00	87.00	88.00	88.00	87.00	88.00	89.00	98.00	98.00	100.00	105.00	103.00	101.00	98.00	93.00	88.00	82.00	82.00	82.00	83.00	84.00	81.00	81.00	81.00	83.00	84.00	84.00	85.00	88.00	91.00	94.00	93.00	93.00	92.00	89.00	88.00	89.00	89.00	97.00	95.00	95.00	95.00	95.00	93.00	92.00	93.00	95.00	94.00	92.00	97.00	103.00	101.00	108.00	112.00	123.00	128.00	124.00	127.00	118.00	111.00	107.00	106.00	105.00	105.00	106.00	106.00	106.00	105.00	104.00	105.00	107.00	107.00	108.00	107.00	107.00	107.00	108.00	108.00	107.00	106.00	110.00	112.00	108.00	110.00	111.00	117.00	121.00	126.00	130.00	129.00	128.00	127.00	122.00	115.00	111.00	110.00	111.00	113.00	115.00	111.00	112.00	109.00	107.00	108.00	108.00	110.00	117.00	122.00
100.00	98.00	98.00	98.00	98.00	98.00	97.00	96.00	96.00	97.00	96.00	95.00	95.00	95.00	95.00	94.00	92.00	93.00	93.00	91.00	93.00	90.00	90.00	89.00	90.00	88.00	89.00	88.00	90.00	88.00	88.00	88.00	87.00	91.00	86.00	87.00	86.00	87.00	85.00	85.00	88.00	88.00	87.00	92.00	94.00	90.00	91.00	88.00	91.00	89.00	89.00	87.00	90.00	85.00	82.00	81.00	83.00	82.00	81.00	81.00	83.00	87.00	89.00	83.00	81.00	84.00	81.00	84.00	88.00	83.00	82.00	82.00	81.00	82.00	77.00	77.00	77.00	84.00	81.00	77.00	77.00	76.00	76.00	77.00	79.00	80.00	83.00	83.00	82.00	77.00	76.00	76.00	79.00	75.00	75.00	75.00	75.00	76.00	76.00	78.00	81.00	77.00	81.00	84.00	79.00	78.00	75.00	80.00	81.00	76.00	76.00	77.00	78.00	79.00	78.00	79.00	79.00	81.00	79.00	82.00	84.00	84.00	85.00	84.00	84.00	86.00	87.00	85.00	83.00	83.00	80.00	80.00	82.00	82.00	81.00	82.00	82.00	84.00	84.00	88.00	90.00	87.00	88.00	86.00	84.00	86.00	83.00	84.00	86.00	87.00	91.00	91.00	88.00	89.00	94.00	99.00	103.00	105.00	106.00	100.00	96.00	93.00	89.00	88.00	88.00	85.00	82.00	80.00	79.00	78.00	79.00	80.00	84.00	83.00	83.00	85.00	87.00	91.00	91.00	90.00	91.00	92.00	88.00	89.00	89.00	90.00	97.00	96.00	94.00	93.00	95.00	92.00	93.00	94.00	93.00	93.00	92.00	96.00	102.00	107.00	114.00	118.00	124.00	123.00	121.00	125.00	121.00	114.00	105.00	104.00	103.00	104.00	104.00	105.00	104.00	103.00	104.00	105.00	107.00	106.00	106.00	107.00	106.00	108.00	106.00	105.00	107.00	107.00	108.00	110.00	109.00	108.00	112.00	120.00	126.00	127.00	127.00	129.00	126.00	129.00	122.00	119.00	115.00	110.00	114.00	113.00	113.00	110.00	110.00	108.00	109.00	108.00	108.00	116.00	119.00	124.00
101.00	99.00	98.00	98.00	98.00	97.00	98.00	95.00	95.00	96.00	96.00	93.00	95.00	96.00	95.00	94.00	93.00	92.00	93.00	92.00	91.00	91.00	92.00	90.00	89.00	88.00	89.00	88.00	89.00	88.00	88.00	88.00	88.00	87.00	86.00	86.00	86.00	86.00	85.00	84.00	87.00	86.00	91.00	92.00	90.00	87.00	89.00	89.00	90.00	88.00	87.00	87.00	85.00	82.00	84.00	83.00	82.00	80.00	81.00	81.00	82.00	87.00	89.00	89.00	87.00	88.00	87.00	85.00	86.00	86.00	84.00	84.00	79.00	80.00	76.00	77.00	77.00	84.00	86.00	76.00	78.00	76.00	77.00	80.00	80.00	78.00	79.00	79.00	80.00	78.00	77.00	76.00	79.00	75.00	74.00	75.00	76.00	76.00	76.00	80.00	80.00	77.00	78.00	78.00	79.00	76.00	77.00	75.00	74.00	75.00	76.00	76.00	76.00	80.00	78.00	79.00	81.00	80.00	80.00	80.00	82.00	84.00	84.00	84.00	83.00	83.00	83.00	82.00	82.00	81.00	80.00	80.00	81.00	81.00	81.00	82.00	88.00	85.00	86.00	90.00	91.00	89.00	88.00	85.00	89.00	89.00	85.00	85.00	85.00	91.00	95.00	91.00	89.00	95.00	98.00	102.00	104.00	108.00	106.00	98.00	95.00	91.00	88.00	89.00	93.00	90.00	87.00	84.00	79.00	79.00	79.00	79.00	79.00	86.00	84.00	86.00	84.00	86.00	86.00	86.00	89.00	89.00	92.00	94.00	92.00	94.00	98.00	93.00	94.00	95.00	94.00	94.00	95.00	90.00	90.00	94.00	97.00	96.00	105.00	113.00	116.00	118.00	118.00	119.00	122.00	124.00	120.00	113.00	105.00	103.00	103.00	104.00	104.00	104.00	103.00	103.00	102.00	104.00	106.00	106.00	105.00	106.00	106.00	104.00	105.00	105.00	106.00	105.00	108.00	110.00	107.00	107.00	112.00	121.00	125.00	125.00	125.00	125.00	125.00	124.00	117.00	113.00	112.00	110.00	113.00	112.00	110.00	107.00	110.00	109.00	109.00	109.00	112.00	116.00	118.00	117.00
100.00	98.00	98.00	96.00	97.00	97.00	95.00	95.00	95.00	95.00	95.00	96.00	94.00	95.00	95.00	94.00	94.00	92.00	92.00	91.00	90.00	90.00	90.00	89.00	89.00	89.00	90.00	89.00	90.00	88.00	89.00	87.00	87.00	88.00	86.00	87.00	85.00	86.00	86.00	87.00	86.00	86.00	87.00	85.00	85.00	86.00	87.00	88.00	87.00	88.00	88.00	88.00	81.00	81.00	86.00	84.00	81.00	81.00	81.00	86.00	87.00	83.00	86.00	90.00	90.00	83.00	81.00	81.00	85.00	86.00	86.00	85.00	80.00	77.00	78.00	77.00	77.00	84.00	84.00	77.00	76.00	76.00	79.00	79.00	80.00	77.00	77.00	77.00	80.00	76.00	75.00	77.00	81.00	77.00	75.00	76.00	76.00	78.00	76.00	80.00	79.00	75.00	79.00	82.00	81.00	75.00	75.00	74.00	75.00	76.00	77.00	78.00	76.00	80.00	82.00	80.00	82.00	79.00	81.00	84.00	83.00	81.00	81.00	85.00	83.00	84.00	82.00	82.00	81.00	81.00	83.00	84.00	82.00	80.00	82.00	81.00	85.00	84.00	83.00	84.00	85.00	89.00	89.00	89.00	89.00	88.00	88.00	86.00	87.00	91.00	96.00	93.00	93.00	96.00	101.00	107.00	108.00	109.00	105.00	102.00	99.00	95.00	92.00	94.00	101.00	97.00	93.00	91.00	82.00	79.00	79.00	78.00	79.00	82.00	85.00	89.00	83.00	86.00	87.00	86.00	89.00	90.00	92.00	93.00	93.00	94.00	97.00	93.00	93.00	95.00	95.00	91.00	91.00	88.00	88.00	91.00	100.00	99.00	110.00	117.00	113.00	113.00	115.00	115.00	119.00	119.00	121.00	114.00	105.00	101.00	101.00	103.00	103.00	102.00	103.00	103.00	103.00	105.00	105.00	106.00	105.00	106.00	104.00	105.00	104.00	106.00	106.00	105.00	104.00	106.00	105.00	108.00	112.00	121.00	124.00	125.00	122.00	123.00	123.00	122.00	112.00	110.00	108.00	109.00	112.00	112.00	109.00	108.00	109.00	110.00	107.00	110.00	113.00	112.00	113.00	114.00
