1389.00	1357.00	1339.00	1320.00	1300.00	1303.00	1322.00	1310.00	1307.00	1321.00	1358.00	1366.00	1358.00	1368.00	1357.00	1310.00	1287.00	1274.00	1281.00	1316.00	1298.00	1261.00	1230.00	1215.00	1232.00	1244.00	1279.00	1302.00	1316.00	1415.00	1505.00	1596.00	1477.00	1335.00	1209.00	1197.00	1176.00	1022.00	1026.00	1025.00	1003.00	1090.00	1305.00	1463.00	1445.00	1508.00	1538.00	1499.00	1513.00	1551.00	1591.00	1652.00	1668.00	1735.00	1720.00	1786.00	1839.00	1913.00	1962.00	1810.00	1718.00	1613.00	1525.00	1511.00	1460.00	1428.00	1426.00	1388.00	1319.00	1343.00	1370.00	1418.00	1395.00	1368.00	1349.00	1349.00	1366.00	1436.00	1465.00	1577.00	1565.00	1540.00	1539.00	1543.00	1557.00	1506.00	1500.00	1521.00	1494.00	1518.00	1546.00	1532.00	1575.00	1608.00	1606.00	1463.00	1525.00	1537.00	1523.00	1504.00	1229.00	1115.00	1020.00	889.00	788.00	773.00	777.00	933.00	1032.00	1176.00	1215.00	1277.00	1292.00	1315.00	1267.00	1254.00	1267.00	1249.00	1231.00	1272.00	1297.00	1405.00	1176.00	989.00	935.00	906.00	913.00	1026.00	1090.00	1027.00	1047.00	936.00	1036.00	1008.00	884.00	900.00	975.00	1068.00	1141.00	1184.00	907.00	800.00	738.00	695.00	679.00	656.00	664.00	666.00	672.00	696.00	684.00	668.00	666.00	662.00	649.00	641.00	636.00	633.00	626.00	623.00	621.00	618.00	615.00	607.00	606.00	605.00	603.00	590.00	592.00	594.00	592.00	587.00	589.00	587.00	582.00	581.00	582.00	583.00	588.00	592.00	592.00	591.00	591.00	589.00	585.00	578.00	572.00	566.00	559.00	545.00	541.00	542.00	534.00	530.00	530.00	526.00	532.00	524.00	504.00	506.00	503.00	502.00	507.00	534.00	540.00	530.00	522.00	498.00	510.00	521.00	509.00	496.00	495.00	498.00	515.00	528.00	498.00	482.00	476.00	464.00	453.00	463.00	477.00	482.00	482.00	509.00	522.00	492.00	484.00	520.00	511.00	501.00	486.00	475.00	466.00	460.00	450.00	447.00	462.00	487.00	500.00	501.00	499.00	478.00	468.00	464.00	464.00	455.00	441.00	436.00	430.00	439.00	424.00	417.00	422.00	433.00
1343.00	1324.00	1315.00	1310.00	1300.00	1284.00	1288.00	1303.00	1334.00	1341.00	1326.00	1336.00	1349.00	1363.00	1369.00	1330.00	1321.00	1327.00	1339.00	1307.00	1274.00	1264.00	1270.00	1298.00	1339.00	1327.00	1392.00	1495.00	1656.00	1573.00	1423.00	1358.00	1454.00	1462.00	1428.00	1443.00	1448.00	1295.00	1175.00	1044.00	966.00	1123.00	1286.00	1317.00	1328.00	1406.00	1404.00	1455.00	1442.00	1491.00	1680.00	1785.00	1903.00	1899.00	1872.00	1665.00	1726.00	1771.00	1839.00	1805.00	1795.00	1786.00	1728.00	1654.00	1518.00	1442.00	1414.00	1378.00	1314.00	1284.00	1310.00	1372.00	1377.00	1318.00	1349.00	1380.00	1411.00	1497.00	1556.00	1520.00	1485.00	1461.00	1514.00	1610.00	1631.00	1557.00	1425.00	1432.00	1514.00	1641.00	1758.00	1666.00	1682.00	1692.00	1656.00	1690.00	1534.00	1399.00	1364.00	1279.00	1191.00	1140.00	1137.00	800.00	765.00	824.00	950.00	991.00	1030.00	1211.00	1271.00	1276.00	1223.00	1185.00	1231.00	1288.00	1288.00	1287.00	1319.00	1389.00	1425.00	1442.00	1216.00	973.00	1004.00	1018.00	1039.00	1081.00	1166.00	1177.00	1155.00	1084.00	1153.00	1212.00	995.00	985.00	1003.00	977.00	937.00	949.00	977.00	882.00	811.00	788.00	747.00	676.00	684.00	694.00	690.00	685.00	682.00	677.00	672.00	665.00	655.00	647.00	645.00	641.00	637.00	637.00	638.00	632.00	626.00	620.00	621.00	627.00	621.00	604.00	617.00	629.00	628.00	604.00	599.00	593.00	581.00	577.00	575.00	569.00	568.00	575.00	595.00	592.00	586.00	592.00	588.00	591.00	579.00	563.00	553.00	538.00	530.00	523.00	519.00	515.00	518.00	509.00	507.00	525.00	513.00	512.00	496.00	485.00	500.00	520.00	514.00	511.00	503.00	490.00	494.00	503.00	511.00	509.00	477.00	484.00	490.00	480.00	485.00	476.00	459.00	449.00	444.00	458.00	465.00	475.00	492.00	471.00	467.00	466.00	467.00	483.00	482.00	483.00	489.00	482.00	480.00	473.00	463.00	444.00	447.00	457.00	470.00	496.00	498.00	464.00	455.00	457.00	465.00	461.00	459.00	439.00	436.00	434.00	420.00	417.00	419.00	417.00
1347.00	1322.00	1311.00	1301.00	1290.00	1279.00	1296.00	1307.00	1329.00	1325.00	1317.00	1325.00	1333.00	1356.00	1374.00	1360.00	1355.00	1361.00	1389.00	1298.00	1302.00	1317.00	1293.00	1318.00	1398.00	1430.00	1511.00	1627.00	1633.00	1432.00	1475.00	1533.00	1517.00	1490.00	1485.00	1440.00	1428.00	1395.00	1276.00	1142.00	956.00	1136.00	1259.00	1262.00	1347.00	1383.00	1386.00	1448.00	1541.00	1554.00	1742.00	1848.00	1847.00	1780.00	1703.00	1562.00	1649.00	1738.00	1741.00	1715.00	1723.00	1780.00	1841.00	1738.00	1503.00	1448.00	1421.00	1428.00	1325.00	1298.00	1275.00	1330.00	1366.00	1304.00	1332.00	1372.00	1399.00	1485.00	1538.00	1511.00	1480.00	1469.00	1556.00	1713.00	1721.00	1590.00	1373.00	1445.00	1526.00	1658.00	1712.00	1502.00	1488.00	1551.00	1504.00	1626.00	1583.00	1470.00	1317.00	1232.00	1083.00	1040.00	999.00	784.00	774.00	884.00	945.00	957.00	1016.00	1169.00	1209.00	1189.00	1182.00	1243.00	1280.00	1339.00	1345.00	1290.00	1317.00	1362.00	1401.00	1423.00	1271.00	1050.00	1130.00	1124.00	1196.00	1201.00	1258.00	1238.00	1156.00	1153.00	1187.00	1180.00	1085.00	1146.00	1121.00	989.00	896.00	839.00	867.00	860.00	811.00	816.00	830.00	691.00	698.00	700.00	694.00	689.00	683.00	679.00	673.00	669.00	658.00	650.00	647.00	645.00	644.00	641.00	641.00	640.00	632.00	629.00	633.00	641.00	618.00	614.00	621.00	625.00	617.00	604.00	607.00	596.00	580.00	567.00	563.00	557.00	558.00	564.00	571.00	570.00	570.00	571.00	568.00	564.00	571.00	580.00	571.00	550.00	545.00	534.00	529.00	522.00	509.00	510.00	501.00	509.00	499.00	494.00	485.00	494.00	504.00	506.00	500.00	496.00	494.00	494.00	482.00	499.00	499.00	493.00	477.00	473.00	480.00	469.00	488.00	483.00	460.00	454.00	440.00	467.00	468.00	472.00	482.00	459.00	456.00	457.00	451.00	461.00	468.00	484.00	494.00	482.00	464.00	460.00	449.00	451.00	438.00	475.00	482.00	494.00	481.00	471.00	450.00	446.00	448.00	463.00	466.00	451.00	447.00	445.00	436.00	436.00	427.00	433.00
1365.00	1345.00	1331.00	1315.00	1298.00	1281.00	1274.00	1289.00	1318.00	1298.00	1309.00	1306.00	1325.00	1344.00	1349.00	1360.00	1372.00	1392.00	1420.00	1324.00	1344.00	1342.00	1331.00	1359.00	1606.00	1692.00	1707.00	1645.00	1580.00	1570.00	1580.00	1553.00	1491.00	1452.00	1427.00	1407.00	1407.00	1425.00	1320.00	1174.00	953.00	1025.00	1161.00	1193.00	1286.00	1247.00	1441.00	1564.00	1680.00	1646.00	1750.00	1703.00	1759.00	1772.00	1706.00	1480.00	1572.00	1613.00	1624.00	1600.00	1541.00	1669.00	1679.00	1664.00	1546.00	1536.00	1515.00	1455.00	1350.00	1309.00	1281.00	1316.00	1337.00	1270.00	1324.00	1367.00	1413.00	1523.00	1597.00	1590.00	1571.00	1517.00	1550.00	1632.00	1627.00	1630.00	1332.00	1394.00	1535.00	1607.00	1618.00	1369.00	1321.00	1406.00	1365.00	1427.00	1396.00	1320.00	1222.00	1125.00	1080.00	1073.00	1022.00	796.00	780.00	818.00	851.00	894.00	944.00	1115.00	1137.00	1141.00	1146.00	1272.00	1262.00	1289.00	1334.00	1295.00	1314.00	1342.00	1375.00	1382.00	1188.00	1303.00	1412.00	1327.00	1340.00	1413.00	1406.00	1310.00	1245.00	1106.00	1051.00	1044.00	1125.00	1104.00	1064.00	1072.00	961.00	846.00	795.00	789.00	771.00	761.00	763.00	712.00	714.00	705.00	700.00	691.00	686.00	680.00	677.00	673.00	661.00	650.00	645.00	644.00	632.00	626.00	631.00	631.00	629.00	631.00	634.00	619.00	621.00	611.00	613.00	612.00	604.00	591.00	601.00	604.00	583.00	575.00	552.00	549.00	556.00	567.00	559.00	556.00	561.00	557.00	557.00	548.00	569.00	574.00	569.00	567.00	558.00	550.00	541.00	528.00	510.00	510.00	496.00	492.00	484.00	483.00	481.00	491.00	488.00	494.00	494.00	490.00	481.00	491.00	476.00	482.00	480.00	472.00	485.00	468.00	470.00	464.00	481.00	495.00	472.00	458.00	446.00	447.00	448.00	462.00	469.00	455.00	442.00	446.00	465.00	460.00	475.00	494.00	489.00	476.00	477.00	462.00	458.00	454.00	441.00	461.00	467.00	460.00	481.00	456.00	449.00	436.00	448.00	459.00	454.00	466.00	465.00	457.00	443.00	432.00	440.00	438.00
1353.00	1346.00	1332.00	1319.00	1317.00	1293.00	1255.00	1285.00	1304.00	1278.00	1293.00	1289.00	1305.00	1318.00	1334.00	1373.00	1383.00	1402.00	1424.00	1370.00	1383.00	1384.00	1424.00	1471.00	1752.00	1694.00	1581.00	1528.00	1614.00	1592.00	1533.00	1526.00	1445.00	1437.00	1412.00	1392.00	1384.00	1408.00	1325.00	1184.00	945.00	934.00	1014.00	1111.00	1155.00	1248.00	1521.00	1631.00	1608.00	1544.00	1615.00	1593.00	1667.00	1693.00	1583.00	1416.00	1417.00	1530.00	1466.00	1486.00	1429.00	1518.00	1537.00	1592.00	1487.00	1445.00	1410.00	1386.00	1329.00	1350.00	1334.00	1265.00	1274.00	1311.00	1358.00	1381.00	1459.00	1638.00	1691.00	1597.00	1545.00	1401.00	1534.00	1579.00	1507.00	1587.00	1291.00	1304.00	1441.00	1456.00	1518.00	1306.00	1220.00	1287.00	1225.00	1468.00	1457.00	1412.00	1327.00	1357.00	1356.00	1321.00	1240.00	894.00	759.00	774.00	792.00	842.00	953.00	1119.00	1106.00	1151.00	1166.00	1317.00	1367.00	1385.00	1366.00	1327.00	1343.00	1325.00	1345.00	1377.00	1305.00	1476.00	1515.00	1557.00	1581.00	1648.00	1603.00	1436.00	1332.00	1029.00	975.00	962.00	1015.00	977.00	951.00	940.00	912.00	828.00	776.00	765.00	756.00	750.00	741.00	719.00	713.00	710.00	705.00	693.00	687.00	682.00	679.00	672.00	661.00	648.00	643.00	637.00	623.00	616.00	618.00	617.00	618.00	622.00	617.00	605.00	610.00	595.00	596.00	605.00	607.00	581.00	586.00	582.00	572.00	575.00	549.00	547.00	558.00	562.00	559.00	547.00	549.00	547.00	553.00	544.00	560.00	555.00	554.00	548.00	554.00	552.00	539.00	530.00	518.00	506.00	496.00	497.00	499.00	477.00	474.00	474.00	487.00	483.00	482.00	490.00	476.00	495.00	477.00	471.00	475.00	461.00	472.00	472.00	468.00	458.00	464.00	480.00	466.00	453.00	454.00	432.00	445.00	461.00	467.00	463.00	437.00	442.00	443.00	464.00	481.00	502.00	498.00	502.00	482.00	484.00	475.00	459.00	446.00	445.00	442.00	468.00	485.00	456.00	449.00	439.00	432.00	433.00	438.00	459.00	469.00	454.00	425.00	419.00	423.00	431.00
1308.00	1306.00	1312.00	1287.00	1276.00	1273.00	1252.00	1239.00	1256.00	1261.00	1291.00	1303.00	1333.00	1340.00	1340.00	1373.00	1398.00	1426.00	1459.00	1534.00	1582.00	1748.00	1778.00	1674.00	1498.00	1466.00	1504.00	1586.00	1556.00	1488.00	1453.00	1430.00	1459.00	1449.00	1413.00	1383.00	1362.00	1359.00	1310.00	1264.00	1024.00	952.00	1052.00	1138.00	1237.00	1346.00	1338.00	1283.00	1238.00	1241.00	1468.00	1568.00	1697.00	1766.00	1686.00	1606.00	1379.00	1259.00	1274.00	1423.00	1339.00	1426.00	1482.00	1570.00	1581.00	1582.00	1584.00	1528.00	1439.00	1414.00	1338.00	1219.00	1206.00	1283.00	1439.00	1434.00	1472.00	1575.00	1588.00	1495.00	1414.00	1345.00	1332.00	1400.00	1258.00	1254.00	1154.00	1292.00	1419.00	1522.00	1544.00	1558.00	1250.00	1121.00	1235.00	1472.00	1547.00	1463.00	1343.00	1395.00	1229.00	1138.00	1079.00	821.00	769.00	863.00	1010.00	1087.00	1078.00	1156.00	1180.00	1204.00	1206.00	1351.00	1403.00	1380.00	1295.00	1290.00	1332.00	1380.00	1413.00	1387.00	1318.00	1286.00	1319.00	1351.00	1439.00	1500.00	1498.00	1469.00	1409.00	1123.00	999.00	891.00	855.00	859.00	845.00	886.00	887.00	857.00	786.00	802.00	806.00	794.00	781.00	745.00	739.00	732.00	722.00	704.00	697.00	691.00	685.00	680.00	665.00	652.00	643.00	635.00	618.00	612.00	606.00	599.00	594.00	597.00	599.00	594.00	582.00	598.00	607.00	597.00	579.00	570.00	569.00	575.00	562.00	553.00	539.00	538.00	548.00	551.00	558.00	560.00	549.00	539.00	530.00	528.00	546.00	535.00	533.00	527.00	538.00	536.00	527.00	527.00	523.00	522.00	516.00	512.00	495.00	490.00	487.00	475.00	462.00	469.00	483.00	467.00	465.00	478.00	477.00	475.00	479.00	464.00	445.00	450.00	462.00	468.00	449.00	466.00	446.00	452.00	451.00	447.00	426.00	429.00	429.00	423.00	415.00	429.00	460.00	431.00	453.00	457.00	453.00	449.00	485.00	469.00	460.00	461.00	449.00	412.00	424.00	437.00	442.00	436.00	430.00	435.00	436.00	419.00	425.00	451.00	450.00	435.00	424.00	406.00	404.00	407.00
1288.00	1304.00	1307.00	1280.00	1269.00	1256.00	1234.00	1232.00	1245.00	1269.00	1322.00	1315.00	1328.00	1355.00	1368.00	1402.00	1423.00	1445.00	1495.00	1741.00	1758.00	1738.00	1632.00	1528.00	1443.00	1448.00	1529.00	1572.00	1500.00	1432.00	1414.00	1442.00	1415.00	1457.00	1424.00	1368.00	1339.00	1290.00	1191.00	1134.00	933.00	1044.00	1135.00	1137.00	1202.00	1198.00	1188.00	1143.00	1204.00	1327.00	1559.00	1654.00	1692.00	1744.00	1733.00	1667.00	1453.00	1296.00	1205.00	1352.00	1268.00	1381.00	1535.00	1671.00	1642.00	1686.00	1696.00	1691.00	1571.00	1543.00	1440.00	1181.00	1213.00	1260.00	1321.00	1401.00	1496.00	1427.00	1464.00	1363.00	1271.00	1177.00	1325.00	1366.00	1257.00	1177.00	1151.00	1344.00	1529.00	1573.00	1585.00	1572.00	1288.00	1107.00	1181.00	1460.00	1502.00	1416.00	1318.00	1495.00	1296.00	1155.00	1011.00	822.00	916.00	1075.00	1179.00	1260.00	1244.00	1287.00	1342.00	1357.00	1330.00	1303.00	1375.00	1297.00	1231.00	1263.00	1344.00	1367.00	1391.00	1400.00	1333.00	1265.00	1220.00	1247.00	1291.00	1363.00	1449.00	1424.00	1407.00	1196.00	967.00	907.00	898.00	913.00	891.00	956.00	1059.00	993.00	830.00	882.00	876.00	852.00	825.00	771.00	756.00	753.00	739.00	710.00	702.00	696.00	690.00	683.00	669.00	655.00	648.00	639.00	623.00	621.00	616.00	608.00	600.00	585.00	585.00	587.00	574.00	595.00	587.00	587.00	575.00	560.00	569.00	570.00	570.00	559.00	536.00	532.00	544.00	539.00	548.00	547.00	555.00	555.00	544.00	522.00	541.00	536.00	522.00	522.00	531.00	537.00	531.00	518.00	509.00	515.00	507.00	502.00	491.00	482.00	484.00	483.00	471.00	459.00	468.00	457.00	452.00	467.00	461.00	451.00	456.00	449.00	435.00	436.00	449.00	462.00	445.00	463.00	438.00	436.00	429.00	436.00	437.00	416.00	418.00	441.00	409.00	436.00	437.00	419.00	430.00	436.00	458.00	471.00	477.00	461.00	449.00	439.00	431.00	403.00	405.00	415.00	422.00	424.00	424.00	414.00	427.00	417.00	431.00	456.00	440.00	419.00	420.00	406.00	390.00	401.00
1271.00	1309.00	1307.00	1299.00	1300.00	1271.00	1232.00	1224.00	1267.00	1284.00	1333.00	1344.00	1342.00	1370.00	1394.00	1443.00	1463.00	1489.00	1595.00	1791.00	1664.00	1602.00	1540.00	1467.00	1412.00	1451.00	1500.00	1481.00	1479.00	1444.00	1401.00	1396.00	1350.00	1357.00	1340.00	1351.00	1259.00	1136.00	1028.00	983.00	908.00	911.00	940.00	960.00	1013.00	1038.00	1082.00	1143.00	1259.00	1361.00	1496.00	1627.00	1608.00	1664.00	1693.00	1606.00	1513.00	1302.00	1177.00	1432.00	1227.00	1498.00	1552.00	1597.00	1545.00	1557.00	1567.00	1656.00	1510.00	1431.00	1357.00	1149.00	1156.00	1287.00	1428.00	1464.00	1466.00	1296.00	1309.00	1375.00	1271.00	1145.00	1403.00	1439.00	1246.00	1087.00	1143.00	1350.00	1426.00	1436.00	1481.00	1405.00	1214.00	1074.00	1254.00	1374.00	1427.00	1284.00	1307.00	1510.00	1448.00	1250.00	1081.00	863.00	861.00	998.00	1086.00	1182.00	1296.00	1345.00	1358.00	1393.00	1444.00	1253.00	1278.00	1203.00	1258.00	1326.00	1348.00	1327.00	1356.00	1387.00	1389.00	1259.00	1216.00	1180.00	1238.00	1283.00	1360.00	1296.00	1222.00	1023.00	946.00	1041.00	976.00	978.00	961.00	1049.00	998.00	952.00	913.00	1052.00	1028.00	953.00	912.00	785.00	768.00	751.00	735.00	717.00	711.00	703.00	696.00	688.00	673.00	655.00	646.00	639.00	629.00	624.00	618.00	610.00	602.00	583.00	575.00	571.00	566.00	587.00	576.00	582.00	573.00	554.00	556.00	560.00	568.00	562.00	532.00	527.00	534.00	530.00	537.00	540.00	553.00	549.00	540.00	517.00	537.00	528.00	516.00	516.00	524.00	533.00	529.00	521.00	504.00	499.00	497.00	488.00	482.00	478.00	472.00	471.00	467.00	460.00	452.00	456.00	450.00	448.00	446.00	440.00	443.00	443.00	443.00	439.00	432.00	434.00	431.00	440.00	431.00	422.00	426.00	421.00	422.00	414.00	433.00	432.00	405.00	428.00	433.00	400.00	419.00	437.00	470.00	466.00	454.00	445.00	449.00	443.00	440.00	414.00	399.00	395.00	409.00	421.00	417.00	405.00	428.00	418.00	407.00	423.00	416.00	416.00	401.00	394.00	379.00	378.00
1276.00	1310.00	1326.00	1324.00	1295.00	1275.00	1231.00	1217.00	1273.00	1305.00	1321.00	1359.00	1373.00	1379.00	1398.00	1468.00	1503.00	1606.00	1756.00	1612.00	1539.00	1503.00	1496.00	1472.00	1400.00	1421.00	1425.00	1434.00	1520.00	1451.00	1421.00	1340.00	1299.00	1269.00	1242.00	1211.00	1109.00	984.00	972.00	973.00	921.00	971.00	917.00	894.00	913.00	990.00	1071.00	1152.00	1228.00	1354.00	1501.00	1594.00	1520.00	1609.00	1690.00	1462.00	1518.00	1390.00	1181.00	1386.00	1199.00	1385.00	1385.00	1512.00	1387.00	1392.00	1365.00	1479.00	1511.00	1453.00	1358.00	1165.00	1071.00	1299.00	1367.00	1457.00	1491.00	1224.00	1253.00	1415.00	1336.00	1113.00	1299.00	1336.00	1257.00	1040.00	1219.00	1334.00	1290.00	1297.00	1341.00	1240.00	1135.00	1076.00	1288.00	1293.00	1307.00	1156.00	1332.00	1411.00	1312.00	1203.00	1175.00	894.00	862.00	1052.00	1159.00	1158.00	1169.00	1321.00	1360.00	1405.00	1425.00	1259.00	1176.00	1242.00	1301.00	1395.00	1441.00	1409.00	1419.00	1464.00	1428.00	1337.00	1248.00	1168.00	1130.00	1137.00	1145.00	1107.00	1059.00	980.00	1089.00	1135.00	1109.00	1104.00	1034.00	1010.00	968.00	873.00	953.00	1069.00	1190.00	1194.00	1104.00	828.00	792.00	752.00	737.00	722.00	713.00	706.00	696.00	689.00	671.00	654.00	649.00	641.00	628.00	623.00	616.00	611.00	606.00	595.00	588.00	585.00	567.00	571.00	570.00	580.00	576.00	558.00	548.00	549.00	554.00	558.00	539.00	525.00	523.00	526.00	528.00	538.00	542.00	540.00	532.00	515.00	534.00	533.00	518.00	517.00	512.00	521.00	530.00	524.00	507.00	505.00	500.00	501.00	498.00	488.00	481.00	486.00	487.00	475.00	461.00	460.00	469.00	444.00	457.00	455.00	471.00	462.00	458.00	450.00	440.00	449.00	438.00	430.00	429.00	444.00	443.00	443.00	441.00	439.00	440.00	415.00	408.00	420.00	402.00	412.00	396.00	428.00	436.00	447.00	430.00	437.00	454.00	435.00	424.00	421.00	417.00	411.00	387.00	401.00	406.00	397.00	403.00	413.00	392.00	405.00	416.00	398.00	398.00	384.00	395.00	368.00
1253.00	1284.00	1310.00	1289.00	1270.00	1261.00	1224.00	1207.00	1225.00	1262.00	1350.00	1403.00	1452.00	1471.00	1539.00	1622.00	1628.00	1539.00	1454.00	1470.00	1501.00	1490.00	1421.00	1409.00	1406.00	1378.00	1375.00	1415.00	1392.00	1305.00	1201.00	1149.00	1092.00	1065.00	1095.00	1097.00	1154.00	1131.00	1096.00	1054.00	1081.00	1132.00	1022.00	928.00	882.00	938.00	1102.00	1154.00	1250.00	1223.00	1453.00	1538.00	1405.00	1426.00	1493.00	1433.00	1287.00	1319.00	1241.00	1178.00	1241.00	1054.00	1151.00	1310.00	1152.00	1170.00	1350.00	1276.00	1301.00	1293.00	1306.00	1063.00	966.00	1265.00	1324.00	1301.00	1303.00	1160.00	1046.00	1150.00	1126.00	1072.00	1094.00	1061.00	1070.00	1024.00	1054.00	1039.00	1052.00	1054.00	1069.00	1076.00	1069.00	983.00	1072.00	1094.00	1077.00	1018.00	1136.00	1042.00	1131.00	1080.00	971.00	792.00	911.00	1040.00	954.00	1023.00	1219.00	1481.00	1518.00	1524.00	1343.00	1147.00	1208.00	1241.00	1292.00	1325.00	1402.00	1477.00	1448.00	1410.00	1351.00	1299.00	1301.00	1258.00	1180.00	1042.00	1058.00	1016.00	1039.00	1200.00	1260.00	1384.00	1522.00	1415.00	1136.00	1007.00	920.00	862.00	909.00	975.00	1081.00	1104.00	1029.00	846.00	797.00	771.00	757.00	726.00	715.00	707.00	700.00	688.00	668.00	653.00	647.00	642.00	631.00	625.00	618.00	610.00	607.00	609.00	609.00	604.00	584.00	555.00	547.00	553.00	561.00	559.00	551.00	544.00	535.00	538.00	541.00	528.00	518.00	515.00	517.00	522.00	528.00	521.00	530.00	503.00	517.00	522.00	513.00	495.00	506.00	522.00	525.00	513.00	513.00	508.00	500.00	498.00	498.00	474.00	462.00	462.00	465.00	454.00	462.00	472.00	470.00	471.00	468.00	485.00	485.00	465.00	481.00	467.00	453.00	454.00	469.00	460.00	449.00	462.00	462.00	470.00	473.00	467.00	456.00	444.00	433.00	447.00	439.00	420.00	388.00	403.00	429.00	427.00	425.00	420.00	413.00	405.00	396.00	376.00	372.00	377.00	374.00	382.00	379.00	383.00	375.00	379.00	372.00	397.00	384.00	390.00	397.00	374.00	363.00	378.00
1256.00	1291.00	1304.00	1295.00	1282.00	1255.00	1211.00	1194.00	1248.00	1307.00	1422.00	1456.00	1546.00	1648.00	1738.00	1533.00	1411.00	1356.00	1406.00	1498.00	1449.00	1440.00	1443.00	1419.00	1373.00	1368.00	1341.00	1373.00	1308.00	1178.00	1167.00	1172.00	1181.00	1146.00	1158.00	1260.00	1225.00	1263.00	1226.00	1169.00	1105.00	995.00	961.00	918.00	871.00	922.00	1122.00	1225.00	1261.00	1148.00	1457.00	1536.00	1447.00	1301.00	1387.00	1451.00	1366.00	1223.00	1238.00	1080.00	1211.00	1019.00	1092.00	1224.00	1100.00	1129.00	1253.00	1170.00	1081.00	1031.00	1043.00	935.00	950.00	1200.00	1197.00	1196.00	1204.00	1059.00	990.00	1019.00	1026.00	1005.00	956.00	947.00	931.00	910.00	915.00	923.00	942.00	963.00	998.00	1011.00	1001.00	956.00	984.00	999.00	1044.00	970.00	981.00	964.00	998.00	951.00	868.00	735.00	906.00	903.00	904.00	993.00	1087.00	1377.00	1494.00	1431.00	1255.00	1222.00	1291.00	1330.00	1355.00	1384.00	1436.00	1440.00	1432.00	1389.00	1409.00	1227.00	1204.00	1168.00	1162.00	1169.00	1148.00	1072.00	1212.00	1397.00	1411.00	1425.00	1520.00	1523.00	1180.00	1041.00	909.00	879.00	966.00	1021.00	1099.00	1041.00	947.00	891.00	908.00	834.00	846.00	733.00	721.00	710.00	698.00	687.00	666.00	648.00	639.00	634.00	621.00	614.00	608.00	600.00	595.00	600.00	595.00	585.00	579.00	562.00	549.00	542.00	554.00	568.00	566.00	558.00	542.00	530.00	541.00	538.00	525.00	511.00	507.00	507.00	516.00	513.00	523.00	499.00	521.00	519.00	508.00	492.00	504.00	518.00	518.00	508.00	503.00	509.00	503.00	483.00	482.00	462.00	474.00	469.00	460.00	461.00	467.00	480.00	472.00	478.00	477.00	490.00	488.00	473.00	476.00	461.00	467.00	465.00	480.00	475.00	462.00	478.00	483.00	471.00	457.00	453.00	441.00	435.00	442.00	428.00	422.00	405.00	386.00	414.00	426.00	418.00	423.00	422.00	399.00	403.00	383.00	399.00	389.00	383.00	369.00	372.00	368.00	369.00	366.00	368.00	363.00	375.00	369.00	365.00	365.00	372.00	383.00	400.00
1270.00	1295.00	1322.00	1316.00	1279.00	1254.00	1199.00	1187.00	1252.00	1323.00	1537.00	1610.00	1726.00	1776.00	1685.00	1362.00	1326.00	1433.00	1532.00	1519.00	1532.00	1509.00	1545.00	1509.00	1370.00	1329.00	1305.00	1301.00	1216.00	1290.00	1346.00	1317.00	1213.00	1248.00	1251.00	1324.00	1278.00	1286.00	1178.00	1089.00	999.00	872.00	858.00	863.00	879.00	943.00	1147.00	1269.00	1241.00	1111.00	1325.00	1446.00	1478.00	1339.00	1228.00	1346.00	1349.00	1222.00	1138.00	1025.00	1131.00	1051.00	973.00	1072.00	1015.00	1071.00	1123.00	1042.00	886.00	884.00	932.00	878.00	899.00	1105.00	1118.00	1139.00	1141.00	1053.00	960.00	922.00	906.00	889.00	854.00	860.00	863.00	847.00	906.00	942.00	978.00	1027.00	1087.00	1009.00	946.00	935.00	914.00	939.00	928.00	917.00	889.00	881.00	861.00	822.00	811.00	747.00	819.00	850.00	970.00	1142.00	1239.00	1385.00	1426.00	1316.00	1173.00	1131.00	1201.00	1258.00	1299.00	1381.00	1419.00	1369.00	1363.00	1389.00	1387.00	1255.00	1250.00	1269.00	1284.00	1206.00	1119.00	1148.00	1213.00	1387.00	1462.00	1494.00	1539.00	1537.00	1183.00	1019.00	906.00	929.00	1021.00	1087.00	1163.00	1092.00	976.00	1025.00	966.00	941.00	927.00	740.00	723.00	710.00	699.00	688.00	668.00	646.00	637.00	629.00	615.00	607.00	601.00	595.00	588.00	581.00	580.00	575.00	566.00	563.00	550.00	540.00	543.00	565.00	571.00	562.00	555.00	547.00	526.00	532.00	524.00	514.00	502.00	501.00	500.00	502.00	512.00	496.00	516.00	511.00	511.00	486.00	494.00	507.00	509.00	504.00	492.00	504.00	503.00	484.00	473.00	463.00	460.00	471.00	475.00	467.00	477.00	486.00	472.00	493.00	493.00	493.00	485.00	480.00	472.00	481.00	477.00	483.00	497.00	487.00	484.00	479.00	466.00	457.00	444.00	450.00	443.00	426.00	417.00	410.00	404.00	387.00	398.00	409.00	407.00	407.00	420.00	412.00	399.00	381.00	373.00	409.00	403.00	400.00	383.00	390.00	385.00	390.00	385.00	382.00	375.00	371.00	383.00	376.00	401.00	402.00	391.00	408.00
1286.00	1316.00	1333.00	1325.00	1276.00	1247.00	1200.00	1181.00	1322.00	1428.00	1714.00	1741.00	1684.00	1545.00	1462.00	1282.00	1365.00	1448.00	1496.00	1571.00	1544.00	1561.00	1498.00	1432.00	1487.00	1499.00	1439.00	1360.00	1308.00	1433.00	1455.00	1409.00	1361.00	1412.00	1374.00	1396.00	1361.00	1251.00	1151.00	1080.00	961.00	855.00	873.00	949.00	962.00	1039.00	1107.00	1184.00	1209.00	1161.00	1290.00	1314.00	1313.00	1332.00	1228.00	1245.00	1203.00	1155.00	1111.00	1003.00	1036.00	1046.00	954.00	962.00	941.00	966.00	932.00	881.00	816.00	834.00	847.00	875.00	933.00	1086.00	1076.00	1070.00	1085.00	1075.00	998.00	962.00	939.00	889.00	820.00	819.00	828.00	898.00	1003.00	1049.00	1043.00	1048.00	1096.00	1111.00	979.00	923.00	896.00	892.00	888.00	866.00	841.00	827.00	803.00	778.00	730.00	753.00	806.00	917.00	1057.00	1192.00	1271.00	1173.00	1240.00	1135.00	1101.00	1157.00	1187.00	1256.00	1326.00	1394.00	1440.00	1381.00	1337.00	1396.00	1364.00	1344.00	1377.00	1353.00	1308.00	1227.00	1245.00	1253.00	1212.00	1298.00	1364.00	1458.00	1491.00	1487.00	1188.00	1006.00	948.00	1004.00	1072.00	1178.00	1167.00	1066.00	1066.00	1051.00	993.00	938.00	857.00	741.00	731.00	718.00	714.00	703.00	690.00	645.00	634.00	627.00	618.00	609.00	600.00	592.00	586.00	574.00	568.00	564.00	556.00	553.00	551.00	544.00	537.00	539.00	548.00	539.00	547.00	548.00	519.00	515.00	512.00	509.00	506.00	514.00	507.00	498.00	502.00	496.00	495.00	499.00	498.00	481.00	483.00	497.00	499.00	492.00	486.00	492.00	487.00	473.00	468.00	463.00	465.00	481.00	479.00	471.00	478.00	490.00	479.00	500.00	503.00	499.00	491.00	491.00	482.00	491.00	490.00	491.00	483.00	473.00	473.00	467.00	454.00	448.00	433.00	430.00	423.00	410.00	399.00	398.00	395.00	410.00	395.00	401.00	396.00	387.00	397.00	387.00	378.00	376.00	388.00	421.00	421.00	396.00	409.00	409.00	402.00	405.00	391.00	390.00	386.00	379.00	399.00	403.00	413.00	418.00	424.00	434.00
1369.00	1409.00	1411.00	1406.00	1442.00	1440.00	1442.00	1298.00	1320.00	1483.00	1417.00	1350.00	1280.00	1244.00	1287.00	1323.00	1358.00	1443.00	1538.00	1580.00	1489.00	1475.00	1526.00	1510.00	1536.00	1534.00	1589.00	1553.00	1599.00	1613.00	1682.00	1633.00	1578.00	1625.00	1635.00	1600.00	1524.00	1247.00	1168.00	1103.00	976.00	889.00	858.00	846.00	844.00	847.00	864.00	874.00	928.00	988.00	1031.00	1016.00	1020.00	1029.00	1044.00	1039.00	1010.00	992.00	984.00	941.00	917.00	888.00	867.00	855.00	839.00	829.00	805.00	793.00	847.00	900.00	981.00	1135.00	1195.00	1208.00	1120.00	1031.00	1046.00	1271.00	1260.00	1224.00	1132.00	1072.00	804.00	800.00	864.00	941.00	1102.00	1069.00	1050.00	1022.00	975.00	886.00	813.00	807.00	842.00	876.00	841.00	822.00	825.00	843.00	763.00	733.00	715.00	762.00	893.00	949.00	950.00	988.00	981.00	929.00	911.00	899.00	930.00	1203.00	1288.00	1441.00	1472.00	1362.00	1401.00	1397.00	1340.00	1285.00	1309.00	1400.00	1416.00	1390.00	1339.00	1299.00	1345.00	1307.00	1299.00	1341.00	1303.00	1331.00	1374.00	1361.00	1343.00	1233.00	1187.00	1325.00	1506.00	1561.00	1523.00	1458.00	1396.00	1007.00	896.00	839.00	800.00	794.00	821.00	906.00	859.00	754.00	677.00	649.00	636.00	652.00	693.00	627.00	607.00	595.00	588.00	580.00	573.00	567.00	550.00	547.00	545.00	541.00	543.00	536.00	530.00	527.00	521.00	531.00	517.00	508.00	511.00	513.00	528.00	525.00	514.00	502.00	496.00	504.00	487.00	485.00	489.00	497.00	492.00	483.00	476.00	485.00	476.00	468.00	475.00	480.00	472.00	471.00	476.00	489.00	495.00	487.00	487.00	491.00	493.00	510.00	505.00	496.00	488.00	485.00	481.00	480.00	474.00	476.00	461.00	457.00	445.00	439.00	440.00	437.00	438.00	435.00	430.00	409.00	433.00	429.00	429.00	420.00	394.00	400.00	388.00	379.00	393.00	406.00	420.00	407.00	414.00	424.00	431.00	424.00	433.00	434.00	420.00	408.00	410.00	402.00	390.00	394.00	408.00	414.00	422.00	435.00	444.00	437.00
1369.00	1409.00	1411.00	1406.00	1442.00	1440.00	1442.00	1298.00	1320.00	1483.00	1417.00	1350.00	1280.00	1244.00	1287.00	1323.00	1358.00	1443.00	1538.00	1580.00	1489.00	1475.00	1526.00	1510.00	1536.00	1534.00	1589.00	1553.00	1599.00	1613.00	1682.00	1633.00	1578.00	1625.00	1635.00	1600.00	1524.00	1247.00	1168.00	1103.00	976.00	889.00	858.00	846.00	844.00	847.00	864.00	874.00	928.00	988.00	1031.00	1016.00	1020.00	1029.00	1044.00	1039.00	1010.00	992.00	984.00	941.00	917.00	888.00	867.00	855.00	839.00	829.00	805.00	793.00	847.00	900.00	981.00	1135.00	1195.00	1208.00	1120.00	1031.00	1046.00	1271.00	1260.00	1224.00	1132.00	1072.00	804.00	800.00	864.00	941.00	1102.00	1069.00	1050.00	1022.00	975.00	886.00	813.00	807.00	842.00	876.00	841.00	822.00	825.00	843.00	763.00	733.00	715.00	762.00	893.00	949.00	950.00	988.00	981.00	929.00	911.00	899.00	930.00	1203.00	1288.00	1441.00	1472.00	1362.00	1401.00	1397.00	1340.00	1285.00	1309.00	1400.00	1416.00	1390.00	1339.00	1299.00	1345.00	1307.00	1299.00	1341.00	1303.00	1331.00	1374.00	1361.00	1343.00	1233.00	1187.00	1325.00	1506.00	1561.00	1523.00	1458.00	1396.00	1007.00	896.00	839.00	800.00	794.00	821.00	906.00	859.00	754.00	677.00	649.00	636.00	652.00	693.00	627.00	607.00	595.00	588.00	580.00	573.00	567.00	550.00	547.00	545.00	541.00	543.00	536.00	530.00	527.00	521.00	531.00	517.00	508.00	511.00	513.00	528.00	525.00	514.00	502.00	496.00	504.00	487.00	485.00	489.00	497.00	492.00	483.00	476.00	485.00	476.00	468.00	475.00	480.00	472.00	471.00	476.00	489.00	495.00	487.00	487.00	491.00	493.00	510.00	505.00	496.00	488.00	485.00	481.00	480.00	474.00	476.00	461.00	457.00	445.00	439.00	440.00	437.00	438.00	435.00	430.00	409.00	433.00	429.00	429.00	420.00	394.00	400.00	388.00	379.00	393.00	406.00	420.00	407.00	414.00	424.00	431.00	424.00	433.00	434.00	420.00	408.00	410.00	402.00	390.00	394.00	408.00	414.00	422.00	435.00	444.00	437.00
1375.00	1474.00	1496.00	1530.00	1641.00	1699.00	1582.00	1383.00	1214.00	1326.00	1276.00	1206.00	1218.00	1253.00	1229.00	1330.00	1388.00	1439.00	1478.00	1555.00	1612.00	1583.00	1631.00	1595.00	1626.00	1674.00	1710.00	1668.00	1605.00	1533.00	1590.00	1543.00	1588.00	1647.00	1658.00	1613.00	1420.00	1228.00	1185.00	1110.00	983.00	946.00	913.00	866.00	868.00	862.00	820.00	819.00	841.00	922.00	927.00	953.00	997.00	1064.00	1133.00	1113.00	1070.00	1001.00	960.00	928.00	903.00	871.00	859.00	866.00	819.00	794.00	784.00	860.00	975.00	1027.00	1100.00	1147.00	1191.00	1244.00	1199.00	1099.00	1016.00	1304.00	1337.00	1325.00	1272.00	1260.00	828.00	791.00	925.00	1074.00	1109.00	1001.00	951.00	913.00	836.00	770.00	753.00	842.00	882.00	864.00	856.00	835.00	814.00	802.00	815.00	736.00	712.00	746.00	867.00	851.00	840.00	844.00	836.00	881.00	965.00	989.00	1048.00	1271.00	1407.00	1549.00	1535.00	1384.00	1293.00	1347.00	1307.00	1250.00	1322.00	1437.00	1410.00	1358.00	1344.00	1316.00	1319.00	1354.00	1389.00	1353.00	1293.00	1246.00	1265.00	1329.00	1300.00	1312.00	1378.00	1402.00	1383.00	1357.00	1373.00	1356.00	1307.00	1034.00	876.00	810.00	791.00	839.00	902.00	958.00	824.00	739.00	689.00	653.00	651.00	693.00	686.00	622.00	603.00	594.00	588.00	576.00	571.00	560.00	556.00	557.00	551.00	551.00	551.00	542.00	533.00	527.00	521.00	516.00	508.00	515.00	520.00	522.00	528.00	516.00	506.00	502.00	506.00	506.00	492.00	493.00	507.00	498.00	502.00	491.00	476.00	475.00	470.00	476.00	485.00	491.00	481.00	480.00	481.00	488.00	501.00	496.00	494.00	501.00	504.00	508.00	501.00	496.00	493.00	489.00	474.00	471.00	469.00	465.00	461.00	458.00	450.00	450.00	456.00	439.00	432.00	411.00	408.00	424.00	440.00	459.00	445.00	417.00	400.00	399.00	379.00	402.00	409.00	415.00	425.00	422.00	426.00	445.00	446.00	446.00	443.00	430.00	416.00	418.00	416.00	399.00	395.00	402.00	415.00	425.00	438.00	441.00	445.00	441.00
1472.00	1537.00	1638.00	1729.00	1705.00	1702.00	1559.00	1503.00	1171.00	1194.00	1238.00	1161.00	1198.00	1199.00	1297.00	1411.00	1495.00	1533.00	1540.00	1703.00	1781.00	1735.00	1761.00	1718.00	1557.00	1558.00	1604.00	1551.00	1463.00	1468.00	1440.00	1471.00	1598.00	1672.00	1717.00	1655.00	1483.00	1281.00	1216.00	1115.00	1043.00	1001.00	1022.00	969.00	952.00	914.00	826.00	811.00	828.00	856.00	956.00	1030.00	1126.00	1175.00	1281.00	1290.00	1221.00	1148.00	1073.00	1067.00	1021.00	855.00	904.00	971.00	905.00	830.00	810.00	903.00	888.00	901.00	912.00	912.00	920.00	950.00	950.00	993.00	966.00	1069.00	1087.00	1088.00	1100.00	1106.00	863.00	802.00	975.00	1049.00	963.00	916.00	926.00	939.00	859.00	716.00	797.00	922.00	984.00	858.00	850.00	866.00	882.00	839.00	753.00	720.00	705.00	734.00	778.00	776.00	793.00	841.00	953.00	1086.00	1183.00	1178.00	1138.00	1377.00	1468.00	1482.00	1441.00	1354.00	1285.00	1276.00	1245.00	1246.00	1345.00	1451.00	1408.00	1329.00	1322.00	1284.00	1324.00	1347.00	1391.00	1340.00	1366.00	1334.00	1188.00	1172.00	1205.00	1249.00	1253.00	1214.00	1146.00	1135.00	1178.00	1143.00	1102.00	925.00	843.00	873.00	828.00	926.00	989.00	951.00	800.00	752.00	695.00	663.00	684.00	726.00	697.00	623.00	604.00	592.00	581.00	572.00	566.00	561.00	570.00	564.00	560.00	561.00	555.00	535.00	528.00	529.00	521.00	515.00	516.00	527.00	527.00	532.00	523.00	511.00	507.00	511.00	516.00	513.00	501.00	509.00	508.00	496.00	490.00	478.00	477.00	479.00	475.00	488.00	488.00	494.00	484.00	489.00	494.00	488.00	496.00	503.00	501.00	510.00	519.00	509.00	506.00	505.00	498.00	488.00	484.00	480.00	478.00	468.00	473.00	468.00	461.00	454.00	445.00	426.00	412.00	417.00	422.00	460.00	485.00	453.00	439.00	412.00	411.00	393.00	377.00	386.00	414.00	426.00	441.00	437.00	443.00	477.00	479.00	477.00	462.00	429.00	420.00	427.00	410.00	408.00	398.00	407.00	410.00	420.00	435.00	446.00	451.00	455.00
1727.00	1629.00	1549.00	1472.00	1382.00	1322.00	1203.00	1179.00	1147.00	1103.00	1141.00	1200.00	1324.00	1347.00	1405.00	1499.00	1429.00	1532.00	1700.00	1818.00	1773.00	1756.00	1680.00	1596.00	1460.00	1432.00	1444.00	1364.00	1414.00	1352.00	1504.00	1517.00	1467.00	1467.00	1531.00	1579.00	1615.00	1373.00	1260.00	1215.00	1232.00	1087.00	968.00	894.00	852.00	835.00	813.00	799.00	840.00	942.00	1103.00	1056.00	1008.00	960.00	948.00	996.00	966.00	942.00	919.00	854.00	821.00	804.00	808.00	807.00	809.00	799.00	762.00	748.00	755.00	765.00	778.00	819.00	855.00	910.00	949.00	986.00	985.00	960.00	889.00	828.00	781.00	768.00	713.00	714.00	722.00	720.00	741.00	774.00	777.00	760.00	712.00	721.00	763.00	838.00	973.00	886.00	891.00	1059.00	1160.00	983.00	799.00	745.00	702.00	724.00	747.00	763.00	794.00	849.00	922.00	1038.00	1151.00	1241.00	1299.00	1249.00	1231.00	1254.00	1296.00	1223.00	1205.00	1201.00	1258.00	1316.00	1417.00	1353.00	1300.00	1266.00	1254.00	1299.00	1340.00	1368.00	1395.00	1274.00	1290.00	1291.00	1274.00	1316.00	1188.00	1140.00	1176.00	1080.00	1052.00	1058.00	1096.00	1115.00	1122.00	1107.00	1015.00	912.00	941.00	1069.00	981.00	1040.00	982.00	852.00	739.00	711.00	768.00	732.00	641.00	618.00	602.00	596.00	591.00	580.00	574.00	587.00	589.00	567.00	559.00	551.00	542.00	541.00	534.00	526.00	520.00	523.00	539.00	545.00	543.00	537.00	520.00	518.00	526.00	531.00	526.00	516.00	510.00	502.00	490.00	491.00	485.00	491.00	499.00	488.00	497.00	505.00	506.00	504.00	500.00	508.00	511.00	509.00	515.00	530.00	529.00	517.00	510.00	490.00	483.00	488.00	485.00	485.00	476.00	484.00	487.00	488.00	484.00	470.00	450.00	433.00	420.00	437.00	433.00	440.00	453.00	452.00	454.00	445.00	442.00	442.00	406.00	395.00	381.00	385.00	415.00	414.00	420.00	427.00	444.00	488.00	479.00	463.00	451.00	436.00	434.00	419.00	413.00	411.00	408.00	422.00	428.00	430.00	443.00	456.00	465.00	458.00
1513.00	1476.00	1383.00	1327.00	1295.00	1283.00	1238.00	1248.00	1189.00	1127.00	1110.00	1186.00	1229.00	1356.00	1365.00	1330.00	1425.00	1594.00	1749.00	1759.00	1731.00	1670.00	1614.00	1571.00	1600.00	1591.00	1491.00	1390.00	1282.00	1377.00	1372.00	1342.00	1412.00	1495.00	1580.00	1630.00	1554.00	1404.00	1326.00	1340.00	1096.00	986.00	934.00	878.00	856.00	907.00	821.00	798.00	826.00	845.00	881.00	859.00	863.00	941.00	1033.00	1002.00	964.00	927.00	868.00	780.00	768.00	783.00	781.00	767.00	738.00	733.00	732.00	736.00	738.00	743.00	751.00	747.00	740.00	742.00	759.00	797.00	815.00	963.00	998.00	920.00	800.00	730.00	707.00	707.00	712.00	727.00	791.00	807.00	811.00	792.00	773.00	811.00	755.00	729.00	893.00	867.00	965.00	1079.00	1123.00	1071.00	784.00	733.00	699.00	716.00	743.00	758.00	778.00	811.00	867.00	995.00	1045.00	1107.00	1184.00	1136.00	1098.00	1156.00	1206.00	1188.00	1181.00	1218.00	1293.00	1357.00	1411.00	1339.00	1306.00	1262.00	1243.00	1336.00	1375.00	1373.00	1333.00	1258.00	1236.00	1267.00	1292.00	1330.00	1230.00	1197.00	1162.00	1130.00	1149.00	1198.00	1240.00	1280.00	1288.00	1363.00	1133.00	1085.00	1066.00	1117.00	1052.00	1130.00	1072.00	907.00	752.00	725.00	718.00	664.00	628.00	614.00	606.00	600.00	593.00	580.00	591.00	599.00	576.00	554.00	548.00	545.00	544.00	530.00	526.00	523.00	530.00	535.00	552.00	553.00	543.00	536.00	524.00	530.00	527.00	524.00	523.00	506.00	499.00	492.00	487.00	499.00	493.00	503.00	505.00	488.00	504.00	514.00	513.00	513.00	499.00	513.00	517.00	526.00	527.00	521.00	516.00	516.00	504.00	489.00	480.00	473.00	468.00	468.00	462.00	470.00	473.00	473.00	474.00	471.00	438.00	432.00	422.00	462.00	452.00	456.00	469.00	463.00	477.00	464.00	446.00	445.00	419.00	416.00	396.00	378.00	397.00	407.00	414.00	428.00	443.00	464.00	471.00	460.00	447.00	447.00	433.00	423.00	416.00	415.00	419.00	434.00	427.00	438.00	449.00	458.00	463.00	454.00
1318.00	1314.00	1305.00	1339.00	1331.00	1365.00	1313.00	1243.00	1209.00	1163.00	1105.00	1208.00	1225.00	1235.00	1234.00	1464.00	1615.00	1656.00	1665.00	1667.00	1770.00	1753.00	1737.00	1723.00	1681.00	1598.00	1514.00	1426.00	1263.00	1291.00	1306.00	1416.00	1558.00	1597.00	1669.00	1631.00	1432.00	1341.00	1196.00	1192.00	1030.00	934.00	901.00	872.00	919.00	1041.00	859.00	805.00	791.00	786.00	907.00	848.00	870.00	878.00	865.00	834.00	825.00	811.00	789.00	757.00	754.00	763.00	763.00	754.00	729.00	726.00	727.00	730.00	732.00	735.00	740.00	737.00	730.00	717.00	715.00	714.00	719.00	789.00	838.00	933.00	869.00	730.00	739.00	766.00	800.00	837.00	872.00	889.00	890.00	867.00	865.00	843.00	739.00	705.00	782.00	840.00	901.00	946.00	1001.00	1041.00	769.00	704.00	697.00	715.00	747.00	787.00	785.00	803.00	824.00	901.00	975.00	1028.00	1098.00	999.00	1044.00	1011.00	1079.00	1158.00	1240.00	1258.00	1266.00	1274.00	1346.00	1304.00	1351.00	1285.00	1219.00	1290.00	1310.00	1354.00	1309.00	1274.00	1233.00	1292.00	1320.00	1296.00	1245.00	1256.00	1212.00	1150.00	1179.00	1172.00	1192.00	1226.00	1246.00	1378.00	1326.00	1426.00	1285.00	1187.00	1158.00	1163.00	1022.00	915.00	817.00	768.00	736.00	657.00	624.00	614.00	606.00	597.00	596.00	589.00	599.00	589.00	567.00	555.00	558.00	551.00	536.00	532.00	534.00	531.00	543.00	543.00	559.00	561.00	553.00	543.00	534.00	527.00	513.00	509.00	506.00	511.00	491.00	491.00	492.00	510.00	505.00	511.00	504.00	490.00	501.00	517.00	524.00	523.00	506.00	517.00	530.00	531.00	522.00	509.00	503.00	504.00	501.00	484.00	478.00	467.00	474.00	470.00	462.00	457.00	457.00	458.00	470.00	470.00	456.00	443.00	426.00	446.00	459.00	475.00	483.00	479.00	477.00	463.00	446.00	458.00	424.00	411.00	400.00	385.00	402.00	419.00	428.00	430.00	434.00	455.00	464.00	461.00	455.00	445.00	434.00	428.00	424.00	419.00	432.00	433.00	439.00	438.00	464.00	465.00	464.00	461.00
1175.00	1303.00	1329.00	1337.00	1314.00	1336.00	1375.00	1367.00	1284.00	1265.00	1105.00	1096.00	1154.00	1244.00	1360.00	1590.00	1579.00	1500.00	1529.00	1623.00	1703.00	1703.00	1632.00	1692.00	1579.00	1573.00	1523.00	1450.00	1335.00	1246.00	1399.00	1530.00	1603.00	1580.00	1580.00	1540.00	1377.00	1208.00	1150.00	1068.00	981.00	918.00	890.00	887.00	980.00	911.00	823.00	815.00	804.00	791.00	780.00	786.00	785.00	782.00	786.00	799.00	819.00	843.00	836.00	764.00	743.00	743.00	742.00	735.00	723.00	720.00	721.00	723.00	727.00	727.00	728.00	726.00	721.00	713.00	711.00	710.00	710.00	717.00	735.00	751.00	802.00	719.00	841.00	971.00	1012.00	1066.00	1072.00	1085.00	1082.00	1072.00	1079.00	898.00	768.00	707.00	704.00	757.00	790.00	871.00	931.00	975.00	729.00	694.00	703.00	723.00	753.00	802.00	835.00	861.00	831.00	873.00	920.00	995.00	1077.00	911.00	915.00	925.00	1089.00	1250.00	1177.00	1162.00	1200.00	1268.00	1346.00	1290.00	1293.00	1269.00	1218.00	1283.00	1324.00	1348.00	1282.00	1236.00	1207.00	1232.00	1310.00	1270.00	1198.00	1208.00	1242.00	1251.00	1172.00	1145.00	1150.00	1166.00	1197.00	1395.00	1454.00	1564.00	1525.00	1262.00	1168.00	1082.00	1008.00	905.00	882.00	809.00	707.00	657.00	626.00	614.00	608.00	609.00	605.00	598.00	593.00	582.00	565.00	563.00	552.00	538.00	535.00	546.00	539.00	537.00	543.00	550.00	560.00	554.00	551.00	549.00	524.00	514.00	516.00	523.00	513.00	516.00	496.00	496.00	507.00	518.00	507.00	499.00	494.00	496.00	497.00	511.00	527.00	518.00	517.00	528.00	542.00	537.00	529.00	519.00	510.00	500.00	495.00	478.00	471.00	471.00	485.00	489.00	467.00	468.00	463.00	457.00	454.00	453.00	450.00	434.00	431.00	445.00	456.00	470.00	489.00	489.00	476.00	462.00	454.00	457.00	441.00	427.00	407.00	391.00	400.00	418.00	418.00	418.00	427.00	446.00	457.00	467.00	465.00	444.00	436.00	441.00	436.00	427.00	432.00	442.00	451.00	444.00	461.00	472.00	466.00	470.00
1131.00	1236.00	1296.00	1278.00	1256.00	1321.00	1438.00	1533.00	1535.00	1418.00	1158.00	1078.00	1098.00	1211.00	1348.00	1431.00	1322.00	1270.00	1403.00	1668.00	1448.00	1490.00	1446.00	1598.00	1523.00	1405.00	1347.00	1332.00	1249.00	1176.00	1307.00	1379.00	1330.00	1360.00	1271.00	1305.00	1178.00	1048.00	1031.00	998.00	949.00	945.00	996.00	905.00	852.00	841.00	830.00	830.00	830.00	828.00	781.00	766.00	758.00	760.00	792.00	878.00	971.00	1046.00	1034.00	865.00	781.00	722.00	722.00	725.00	788.00	816.00	826.00	838.00	857.00	841.00	803.00	738.00	724.00	717.00	716.00	719.00	722.00	717.00	713.00	710.00	708.00	718.00	905.00	1026.00	904.00	893.00	1010.00	1158.00	1210.00	1233.00	1187.00	1065.00	929.00	792.00	727.00	686.00	696.00	716.00	772.00	714.00	807.00	874.00	915.00	906.00	801.00	894.00	955.00	973.00	1002.00	1035.00	986.00	879.00	901.00	841.00	922.00	1052.00	1138.00	1055.00	960.00	1089.00	1195.00	1298.00	1554.00	1333.00	1250.00	1167.00	1193.00	1271.00	1273.00	1254.00	1246.00	1180.00	1153.00	1176.00	1217.00	1182.00	1183.00	1222.00	1220.00	1220.00	1114.00	1144.00	1181.00	1258.00	1354.00	1631.00	1743.00	1794.00	1614.00	1361.00	1291.00	1202.00	1097.00	987.00	821.00	734.00	670.00	653.00	643.00	634.00	630.00	619.00	616.00	609.00	593.00	586.00	565.00	546.00	551.00	549.00	546.00	560.00	552.00	549.00	556.00	566.00	539.00	532.00	529.00	529.00	519.00	525.00	533.00	518.00	506.00	497.00	510.00	509.00	516.00	520.00	513.00	509.00	517.00	528.00	505.00	515.00	525.00	536.00	544.00	534.00	528.00	519.00	514.00	508.00	505.00	509.00	506.00	491.00	479.00	478.00	494.00	492.00	494.00	489.00	482.00	467.00	452.00	448.00	443.00	453.00	461.00	461.00	473.00	485.00	492.00	487.00	475.00	478.00	478.00	451.00	431.00	427.00	419.00	401.00	405.00	420.00	417.00	427.00	438.00	454.00	464.00	473.00	469.00	451.00	458.00	451.00	440.00	435.00	447.00	446.00	458.00	471.00	467.00	480.00	483.00	478.00
1097.00	1168.00	1226.00	1267.00	1238.00	1307.00	1540.00	1543.00	1541.00	1466.00	1234.00	1102.00	1057.00	1114.00	1188.00	1239.00	1226.00	1294.00	1374.00	1594.00	1451.00	1335.00	1359.00	1518.00	1513.00	1430.00	1442.00	1482.00	1356.00	1138.00	1171.00	1218.00	1265.00	1222.00	1199.00	1159.00	1115.00	1049.00	1016.00	984.00	948.00	1054.00	958.00	895.00	835.00	810.00	854.00	829.00	820.00	818.00	810.00	802.00	779.00	752.00	795.00	841.00	868.00	882.00	858.00	802.00	768.00	724.00	723.00	730.00	760.00	776.00	787.00	795.00	808.00	819.00	827.00	820.00	812.00	763.00	752.00	739.00	736.00	726.00	719.00	714.00	718.00	720.00	840.00	1004.00	896.00	865.00	1019.00	1085.00	1136.00	1202.00	1195.00	1061.00	984.00	947.00	812.00	684.00	681.00	684.00	688.00	726.00	908.00	895.00	908.00	952.00	881.00	849.00	845.00	848.00	881.00	999.00	1003.00	882.00	845.00	860.00	874.00	1012.00	1023.00	934.00	1013.00	1107.00	1226.00	1341.00	1410.00	1285.00	1205.00	1140.00	1148.00	1207.00	1227.00	1210.00	1185.00	1139.00	1138.00	1158.00	1166.00	1146.00	1169.00	1144.00	1149.00	1133.00	1133.00	1195.00	1287.00	1371.00	1423.00	1772.00	1831.00	1787.00	1569.00	1333.00	1260.00	1197.00	1069.00	924.00	801.00	683.00	673.00	666.00	652.00	638.00	624.00	602.00	596.00	590.00	576.00	573.00	554.00	559.00	558.00	551.00	554.00	568.00	561.00	559.00	566.00	574.00	547.00	545.00	542.00	536.00	522.00	526.00	527.00	515.00	509.00	507.00	512.00	516.00	524.00	523.00	524.00	514.00	527.00	532.00	514.00	517.00	531.00	545.00	534.00	526.00	518.00	513.00	513.00	506.00	497.00	494.00	496.00	481.00	480.00	490.00	499.00	497.00	487.00	474.00	469.00	457.00	467.00	454.00	463.00	472.00	459.00	459.00	465.00	478.00	496.00	489.00	493.00	492.00	478.00	452.00	442.00	436.00	420.00	416.00	399.00	419.00	432.00	432.00	440.00	464.00	464.00	476.00	472.00	463.00	458.00	447.00	447.00	448.00	439.00	447.00	454.00	464.00	477.00	484.00	489.00	488.00
1069.00	1164.00	1277.00	1235.00	1252.00	1385.00	1427.00	1387.00	1563.00	1493.00	1279.00	1149.00	1044.00	1089.00	1186.00	1163.00	1284.00	1411.00	1468.00	1544.00	1470.00	1299.00	1345.00	1438.00	1392.00	1355.00	1324.00	1371.00	1238.00	1128.00	1128.00	1225.00	1252.00	1223.00	1159.00	1114.00	1071.00	1042.00	1006.00	989.00	983.00	1074.00	948.00	911.00	821.00	817.00	786.00	775.00	768.00	763.00	755.00	752.00	748.00	748.00	756.00	783.00	797.00	796.00	787.00	766.00	748.00	725.00	722.00	732.00	762.00	767.00	773.00	781.00	801.00	812.00	820.00	812.00	803.00	788.00	790.00	792.00	786.00	737.00	726.00	719.00	722.00	730.00	778.00	906.00	922.00	847.00	932.00	1015.00	1017.00	1095.00	1091.00	1030.00	922.00	938.00	934.00	707.00	682.00	678.00	677.00	689.00	818.00	787.00	792.00	897.00	847.00	756.00	736.00	767.00	776.00	867.00	935.00	959.00	857.00	861.00	822.00	891.00	885.00	867.00	1044.00	1116.00	1198.00	1324.00	1279.00	1292.00	1194.00	1098.00	1116.00	1149.00	1171.00	1167.00	1136.00	1105.00	1127.00	1175.00	1124.00	1113.00	1105.00	1149.00	1171.00	1155.00	1180.00	1275.00	1299.00	1296.00	1396.00	1777.00	1788.00	1777.00	1638.00	1317.00	1259.00	1162.00	1012.00	902.00	796.00	702.00	689.00	681.00	642.00	621.00	604.00	593.00	586.00	571.00	566.00	562.00	565.00	568.00	556.00	559.00	565.00	575.00	573.00	576.00	574.00	569.00	542.00	539.00	533.00	530.00	525.00	529.00	532.00	521.00	514.00	518.00	518.00	530.00	533.00	536.00	523.00	521.00	534.00	532.00	526.00	534.00	536.00	551.00	526.00	521.00	524.00	529.00	529.00	507.00	499.00	492.00	489.00	486.00	492.00	500.00	503.00	493.00	470.00	465.00	464.00	470.00	476.00	467.00	474.00	464.00	462.00	471.00	480.00	486.00	495.00	484.00	489.00	481.00	473.00	466.00	443.00	441.00	422.00	399.00	389.00	399.00	415.00	436.00	456.00	475.00	472.00	477.00	478.00	464.00	455.00	461.00	455.00	448.00	439.00	457.00	461.00	464.00	478.00	492.00	501.00	501.00
1063.00	1213.00	1274.00	1192.00	1271.00	1363.00	1301.00	1414.00	1392.00	1379.00	1267.00	1137.00	1056.00	1049.00	1114.00	1111.00	1217.00	1291.00	1312.00	1488.00	1458.00	1324.00	1254.00	1272.00	1402.00	1325.00	1175.00	1193.00	1125.00	1084.00	1155.00	1223.00	1140.00	1138.00	1202.00	1133.00	1092.00	1122.00	1094.00	1124.00	1024.00	1045.00	999.00	881.00	836.00	882.00	794.00	771.00	759.00	752.00	744.00	740.00	743.00	748.00	749.00	759.00	762.00	762.00	760.00	748.00	741.00	725.00	731.00	812.00	899.00	889.00	852.00	819.00	813.00	824.00	835.00	829.00	812.00	788.00	777.00	767.00	757.00	739.00	728.00	726.00	731.00	737.00	774.00	795.00	877.00	827.00	875.00	905.00	934.00	986.00	1045.00	964.00	852.00	866.00	890.00	736.00	692.00	682.00	680.00	679.00	701.00	693.00	688.00	827.00	753.00	716.00	690.00	691.00	698.00	744.00	804.00	871.00	898.00	790.00	806.00	818.00	857.00	937.00	1111.00	1217.00	1316.00	1424.00	1235.00	1156.00	1131.00	1095.00	1056.00	1076.00	1112.00	1114.00	1075.00	1125.00	1137.00	1109.00	1128.00	1065.00	1164.00	1200.00	1157.00	1184.00	1100.00	1212.00	1194.00	1255.00	1374.00	1656.00	1690.00	1715.00	1697.00	1345.00	1272.00	1109.00	948.00	908.00	757.00	748.00	726.00	714.00	651.00	624.00	608.00	608.00	599.00	573.00	578.00	571.00	578.00	564.00	561.00	566.00	571.00	585.00	580.00	575.00	568.00	554.00	543.00	541.00	545.00	542.00	530.00	528.00	536.00	531.00	528.00	526.00	527.00	531.00	544.00	536.00	521.00	531.00	546.00	533.00	535.00	549.00	550.00	541.00	529.00	532.00	540.00	540.00	530.00	514.00	508.00	495.00	494.00	493.00	504.00	510.00	508.00	496.00	468.00	479.00	472.00	479.00	486.00	485.00	478.00	465.00	480.00	486.00	500.00	499.00	489.00	472.00	474.00	468.00	464.00	450.00	430.00	432.00	414.00	405.00	408.00	390.00	410.00	436.00	446.00	485.00	487.00	484.00	489.00	467.00	468.00	463.00	459.00	457.00	452.00	464.00	469.00	477.00	490.00	503.00	513.00	502.00
1098.00	1160.00	1160.00	1112.00	1118.00	1146.00	1280.00	1236.00	1260.00	1334.00	1322.00	1248.00	1221.00	1159.00	1069.00	1048.00	1097.00	1156.00	1239.00	1241.00	1202.00	1234.00	1223.00	1157.00	1173.00	1169.00	1104.00	1059.00	1035.00	1066.00	1023.00	977.00	954.00	977.00	1010.00	1062.00	980.00	946.00	997.00	1255.00	1228.00	987.00	889.00	870.00	982.00	1048.00	853.00	785.00	763.00	750.00	730.00	731.00	734.00	736.00	734.00	733.00	732.00	733.00	735.00	729.00	733.00	728.00	760.00	822.00	871.00	881.00	897.00	910.00	944.00	1010.00	1053.00	1117.00	1073.00	881.00	814.00	792.00	775.00	744.00	735.00	742.00	765.00	812.00	900.00	845.00	791.00	837.00	908.00	883.00	917.00	974.00	988.00	836.00	933.00	879.00	770.00	716.00	739.00	814.00	867.00	813.00	732.00	708.00	719.00	769.00	807.00	773.00	736.00	693.00	679.00	670.00	671.00	715.00	789.00	802.00	774.00	772.00	839.00	907.00	1030.00	1119.00	1209.00	1299.00	1242.00	1079.00	1042.00	1094.00	1079.00	1001.00	1063.00	1040.00	1028.00	1019.00	1053.00	1053.00	1021.00	1057.00	1085.00	1112.00	1010.00	906.00	985.00	1025.00	1127.00	1213.00	1276.00	1523.00	1581.00	1635.00	1579.00	1171.00	1084.00	1019.00	973.00	979.00	891.00	1004.00	837.00	751.00	653.00	640.00	622.00	603.00	589.00	597.00	582.00	594.00	584.00	574.00	579.00	593.00	597.00	578.00	583.00	580.00	566.00	553.00	561.00	550.00	549.00	554.00	547.00	535.00	541.00	540.00	541.00	535.00	559.00	557.00	559.00	531.00	535.00	549.00	555.00	545.00	548.00	562.00	560.00	545.00	554.00	550.00	538.00	531.00	534.00	512.00	507.00	500.00	502.00	518.00	515.00	503.00	493.00	481.00	478.00	482.00	493.00	492.00	506.00	492.00	481.00	477.00	482.00	508.00	501.00	492.00	488.00	478.00	477.00	469.00	455.00	441.00	428.00	420.00	430.00	433.00	421.00	401.00	398.00	422.00	437.00	465.00	474.00	476.00	487.00	484.00	482.00	478.00	475.00	469.00	465.00	471.00	485.00	499.00	518.00	519.00	505.00	492.00
1203.00	1058.00	1065.00	1095.00	1133.00	1137.00	1226.00	1196.00	1273.00	1244.00	1302.00	1229.00	1211.00	1133.00	1059.00	1011.00	1066.00	1131.00	1201.00	1113.00	1108.00	1101.00	1120.00	1125.00	1096.00	1069.00	1052.00	1082.00	1051.00	997.00	980.00	951.00	931.00	973.00	1004.00	1026.00	1091.00	915.00	922.00	1064.00	1247.00	945.00	855.00	842.00	970.00	997.00	827.00	765.00	751.00	743.00	730.00	730.00	731.00	730.00	730.00	729.00	728.00	728.00	727.00	726.00	730.00	744.00	756.00	782.00	790.00	806.00	819.00	827.00	862.00	889.00	911.00	982.00	1028.00	1037.00	914.00	821.00	791.00	750.00	739.00	745.00	757.00	777.00	833.00	923.00	845.00	805.00	906.00	940.00	959.00	1019.00	986.00	865.00	851.00	818.00	739.00	783.00	835.00	879.00	925.00	963.00	797.00	760.00	736.00	758.00	852.00	891.00	902.00	832.00	743.00	683.00	671.00	669.00	693.00	762.00	765.00	750.00	791.00	862.00	994.00	1114.00	1221.00	1216.00	1229.00	1073.00	1026.00	1010.00	1008.00	1076.00	1077.00	1018.00	984.00	1021.00	1050.00	1028.00	999.00	1017.00	1070.00	972.00	885.00	863.00	902.00	960.00	1062.00	1157.00	1261.00	1487.00	1512.00	1485.00	1527.00	1279.00	1242.00	1143.00	1176.00	1132.00	1042.00	1032.00	872.00	766.00	671.00	661.00	629.00	607.00	597.00	593.00	597.00	604.00	599.00	580.00	585.00	601.00	604.00	596.00	590.00	572.00	560.00	560.00	561.00	561.00	566.00	564.00	543.00	544.00	556.00	545.00	549.00	543.00	563.00	567.00	555.00	540.00	547.00	547.00	559.00	559.00	559.00	566.00	557.00	557.00	548.00	542.00	540.00	539.00	533.00	506.00	501.00	503.00	517.00	517.00	509.00	498.00	488.00	482.00	483.00	486.00	500.00	509.00	505.00	490.00	498.00	486.00	488.00	509.00	506.00	502.00	495.00	486.00	471.00	464.00	449.00	438.00	424.00	429.00	450.00	442.00	448.00	408.00	398.00	417.00	430.00	453.00	451.00	468.00	479.00	487.00	494.00	491.00	483.00	483.00	467.00	469.00	481.00	498.00	515.00	516.00	504.00	502.00
1088.00	1046.00	1071.00	1123.00	1157.00	1192.00	1174.00	1202.00	1200.00	1201.00	1242.00	1203.00	1165.00	1143.00	1122.00	997.00	1002.00	1032.00	1042.00	1056.00	1063.00	1063.00	1081.00	1107.00	1071.00	1047.00	1097.00	1089.00	1023.00	976.00	959.00	942.00	908.00	893.00	883.00	893.00	945.00	993.00	882.00	880.00	990.00	858.00	807.00	809.00	853.00	861.00	789.00	754.00	742.00	734.00	732.00	730.00	731.00	734.00	742.00	752.00	752.00	756.00	749.00	740.00	757.00	750.00	768.00	781.00	809.00	823.00	834.00	841.00	825.00	821.00	817.00	824.00	854.00	927.00	973.00	922.00	827.00	755.00	743.00	747.00	757.00	773.00	864.00	867.00	920.00	829.00	897.00	937.00	992.00	972.00	928.00	832.00	766.00	750.00	730.00	788.00	856.00	940.00	949.00	961.00	956.00	845.00	787.00	740.00	786.00	849.00	909.00	932.00	881.00	739.00	685.00	669.00	670.00	721.00	722.00	750.00	785.00	843.00	968.00	1070.00	1153.00	1097.00	1124.00	1006.00	982.00	945.00	947.00	1023.00	1062.00	1124.00	1044.00	1004.00	994.00	1031.00	993.00	1029.00	964.00	850.00	862.00	837.00	885.00	977.00	1072.00	1165.00	1269.00	1448.00	1344.00	1368.00	1556.00	1555.00	1384.00	1334.00	1318.00	1272.00	1148.00	1079.00	917.00	810.00	700.00	676.00	631.00	610.00	610.00	607.00	613.00	602.00	599.00	591.00	597.00	607.00	601.00	585.00	574.00	571.00	572.00	575.00	570.00	576.00	575.00	558.00	555.00	559.00	549.00	546.00	553.00	552.00	571.00	567.00	553.00	550.00	562.00	553.00	559.00	570.00	569.00	572.00	566.00	551.00	537.00	536.00	527.00	521.00	518.00	506.00	508.00	517.00	526.00	512.00	511.00	495.00	490.00	499.00	487.00	499.00	501.00	513.00	504.00	498.00	503.00	497.00	499.00	519.00	522.00	513.00	501.00	478.00	462.00	447.00	448.00	454.00	445.00	461.00	472.00	454.00	440.00	405.00	399.00	404.00	415.00	437.00	453.00	464.00	461.00	483.00	500.00	504.00	498.00	491.00	478.00	463.00	475.00	489.00	501.00	506.00	513.00	512.00
1058.00	1051.00	1107.00	1184.00	1206.00	1190.00	1123.00	1148.00	1093.00	1129.00	1060.00	1046.00	1036.00	1025.00	1007.00	989.00	987.00	989.00	997.00	1026.00	1040.00	1079.00	1131.00	1157.00	1095.00	1044.00	1036.00	1006.00	977.00	960.00	950.00	936.00	904.00	888.00	873.00	860.00	862.00	1060.00	923.00	862.00	833.00	797.00	780.00	782.00	781.00	789.00	760.00	747.00	738.00	732.00	736.00	735.00	741.00	751.00	757.00	766.00	765.00	758.00	750.00	742.00	753.00	762.00	773.00	794.00	813.00	836.00	828.00	843.00	819.00	815.00	810.00	802.00	796.00	799.00	812.00	870.00	884.00	753.00	749.00	753.00	760.00	774.00	927.00	926.00	954.00	900.00	845.00	904.00	887.00	896.00	960.00	821.00	760.00	778.00	752.00	761.00	845.00	870.00	886.00	913.00	1022.00	999.00	844.00	786.00	812.00	804.00	825.00	884.00	925.00	890.00	753.00	670.00	671.00	706.00	723.00	747.00	788.00	867.00	1056.00	1003.00	1013.00	982.00	997.00	926.00	934.00	903.00	914.00	979.00	1038.00	1055.00	1051.00	950.00	982.00	1002.00	998.00	1028.00	896.00	828.00	820.00	821.00	882.00	970.00	1070.00	1177.00	1253.00	1360.00	1227.00	1383.00	1535.00	1643.00	1614.00	1465.00	1382.00	1348.00	1177.00	1111.00	1006.00	872.00	729.00	702.00	644.00	618.00	630.00	627.00	612.00	621.00	599.00	611.00	611.00	600.00	587.00	573.00	574.00	588.00	582.00	586.00	581.00	574.00	561.00	561.00	568.00	551.00	557.00	556.00	557.00	565.00	574.00	562.00	549.00	558.00	568.00	569.00	568.00	566.00	559.00	562.00	557.00	555.00	530.00	522.00	515.00	511.00	511.00	516.00	521.00	535.00	533.00	502.00	496.00	494.00	500.00	500.00	498.00	507.00	517.00	522.00	514.00	506.00	509.00	513.00	513.00	514.00	515.00	506.00	489.00	480.00	464.00	450.00	462.00	446.00	461.00	470.00	467.00	451.00	413.00	401.00	414.00	413.00	407.00	448.00	450.00	450.00	461.00	485.00	501.00	507.00	501.00	492.00	492.00	475.00	468.00	478.00	493.00	507.00	506.00	497.00
1047.00	1025.00	1021.00	1024.00	1029.00	1033.00	1042.00	1035.00	1033.00	1029.00	1021.00	1019.00	1012.00	998.00	989.00	977.00	971.00	972.00	973.00	970.00	972.00	978.00	991.00	1007.00	1017.00	995.00	978.00	967.00	936.00	926.00	920.00	911.00	886.00	875.00	891.00	865.00	836.00	835.00	877.00	999.00	902.00	757.00	746.00	741.00	738.00	735.00	735.00	734.00	733.00	734.00	744.00	744.00	745.00	754.00	770.00	853.00	892.00	905.00	833.00	756.00	782.00	978.00	963.00	923.00	845.00	839.00	844.00	846.00	836.00	827.00	821.00	807.00	798.00	782.00	776.00	775.00	767.00	767.00	763.00	767.00	774.00	784.00	855.00	951.00	1050.00	993.00	862.00	842.00	838.00	847.00	829.00	800.00	802.00	768.00	763.00	783.00	811.00	846.00	883.00	891.00	968.00	988.00	963.00	1008.00	1064.00	982.00	869.00	789.00	762.00	774.00	827.00	759.00	679.00	818.00	821.00	786.00	795.00	846.00	1064.00	1053.00	955.00	939.00	861.00	751.00	770.00	794.00	830.00	867.00	864.00	855.00	871.00	994.00	1042.00	1016.00	999.00	936.00	833.00	799.00	832.00	855.00	1023.00	1038.00	1039.00	1026.00	1069.00	1029.00	1136.00	1262.00	1397.00	1720.00	1790.00	1586.00	1465.00	1412.00	1250.00	1126.00	1052.00	907.00	725.00	672.00	691.00	692.00	673.00	655.00	643.00	626.00	611.00	607.00	608.00	600.00	591.00	593.00	593.00	611.00	616.00	607.00	578.00	587.00	583.00	577.00	564.00	567.00	562.00	579.00	578.00	581.00	577.00	567.00	560.00	580.00	577.00	566.00	557.00	552.00	541.00	537.00	541.00	528.00	522.00	532.00	533.00	520.00	521.00	524.00	537.00	531.00	521.00	515.00	518.00	520.00	511.00	501.00	516.00	519.00	525.00	534.00	543.00	540.00	527.00	520.00	512.00	503.00	491.00	489.00	481.00	466.00	474.00	481.00	487.00	479.00	447.00	430.00	415.00	405.00	429.00	447.00	445.00	447.00	442.00	430.00	440.00	458.00	466.00	472.00	471.00	477.00	487.00	495.00	506.00	494.00	480.00	477.00	486.00	493.00	505.00	511.00
1050.00	1023.00	1018.00	1017.00	1013.00	1021.00	1026.00	1023.00	1058.00	1074.00	1076.00	1039.00	1018.00	992.00	977.00	971.00	967.00	963.00	965.00	962.00	971.00	977.00	990.00	983.00	963.00	950.00	951.00	950.00	925.00	909.00	903.00	894.00	875.00	862.00	849.00	882.00	857.00	802.00	816.00	885.00	869.00	743.00	736.00	736.00	736.00	738.00	737.00	734.00	734.00	737.00	748.00	749.00	749.00	763.00	777.00	897.00	906.00	855.00	817.00	768.00	806.00	957.00	1005.00	1025.00	965.00	991.00	994.00	967.00	907.00	874.00	853.00	815.00	804.00	789.00	786.00	784.00	781.00	772.00	771.00	775.00	780.00	788.00	833.00	871.00	935.00	1001.00	901.00	847.00	836.00	824.00	824.00	859.00	813.00	785.00	779.00	881.00	898.00	887.00	905.00	1004.00	979.00	1032.00	991.00	980.00	1102.00	1105.00	920.00	840.00	786.00	706.00	722.00	753.00	679.00	992.00	971.00	880.00	840.00	873.00	1013.00	1070.00	1044.00	1035.00	920.00	851.00	702.00	736.00	747.00	769.00	791.00	847.00	891.00	1035.00	1059.00	1034.00	968.00	891.00	867.00	893.00	970.00	926.00	955.00	909.00	920.00	942.00	1002.00	993.00	1124.00	1286.00	1460.00	1683.00	1747.00	1675.00	1501.00	1430.00	1278.00	1108.00	1070.00	981.00	732.00	780.00	763.00	729.00	728.00	648.00	635.00	626.00	622.00	618.00	616.00	598.00	605.00	604.00	603.00	620.00	618.00	600.00	593.00	595.00	580.00	566.00	577.00	567.00	570.00	577.00	581.00	589.00	584.00	571.00	572.00	579.00	574.00	567.00	561.00	558.00	543.00	534.00	528.00	531.00	537.00	541.00	527.00	526.00	534.00	530.00	536.00	536.00	531.00	526.00	532.00	523.00	509.00	507.00	526.00	544.00	543.00	549.00	562.00	554.00	525.00	513.00	500.00	487.00	482.00	477.00	472.00	481.00	488.00	490.00	486.00	472.00	437.00	414.00	410.00	429.00	449.00	460.00	459.00	464.00	446.00	438.00	449.00	455.00	454.00	466.00	476.00	483.00	489.00	491.00	504.00	489.00	491.00	484.00	488.00	501.00	512.00	515.00
1069.00	1018.00	1016.00	1011.00	1009.00	1009.00	1015.00	1040.00	1044.00	1031.00	1008.00	996.00	994.00	985.00	968.00	964.00	960.00	956.00	959.00	955.00	953.00	953.00	949.00	942.00	930.00	929.00	933.00	931.00	913.00	894.00	886.00	879.00	863.00	852.00	839.00	828.00	820.00	788.00	781.00	784.00	765.00	736.00	737.00	742.00	743.00	743.00	739.00	737.00	739.00	740.00	750.00	753.00	754.00	755.00	757.00	797.00	823.00	863.00	855.00	786.00	784.00	839.00	874.00	883.00	1028.00	1129.00	1148.00	1132.00	1083.00	1011.00	971.00	847.00	813.00	798.00	794.00	794.00	786.00	780.00	780.00	785.00	790.00	795.00	830.00	850.00	876.00	998.00	885.00	865.00	852.00	861.00	847.00	880.00	865.00	827.00	813.00	867.00	960.00	976.00	975.00	1024.00	1025.00	1059.00	1025.00	974.00	1013.00	1060.00	1049.00	913.00	833.00	713.00	686.00	677.00	673.00	934.00	906.00	904.00	977.00	1000.00	918.00	967.00	933.00	937.00	813.00	838.00	754.00	679.00	728.00	704.00	779.00	819.00	868.00	988.00	965.00	951.00	859.00	832.00	943.00	965.00	1027.00	1072.00	885.00	826.00	826.00	843.00	853.00	1187.00	1198.00	1292.00	1404.00	1595.00	1661.00	1710.00	1494.00	1400.00	1247.00	1143.00	1113.00	953.00	859.00	823.00	772.00	715.00	687.00	651.00	643.00	634.00	632.00	627.00	613.00	608.00	609.00	626.00	623.00	618.00	611.00	601.00	604.00	589.00	577.00	570.00	581.00	572.00	579.00	582.00	583.00	602.00	587.00	582.00	581.00	567.00	564.00	558.00	550.00	548.00	537.00	539.00	536.00	543.00	548.00	537.00	527.00	536.00	545.00	536.00	541.00	545.00	532.00	544.00	538.00	523.00	512.00	520.00	525.00	536.00	547.00	565.00	558.00	541.00	513.00	502.00	500.00	492.00	495.00	488.00	484.00	483.00	466.00	467.00	465.00	453.00	432.00	412.00	435.00	446.00	466.00	471.00	474.00	461.00	442.00	445.00	451.00	454.00	459.00	484.00	492.00	499.00	506.00	504.00	507.00	504.00	494.00	493.00	487.00	493.00	509.00	509.00
1101.00	1014.00	1011.00	1006.00	1005.00	1001.00	1001.00	1003.00	1003.00	1008.00	1014.00	989.00	977.00	966.00	959.00	955.00	952.00	950.00	953.00	953.00	954.00	955.00	952.00	949.00	941.00	934.00	923.00	917.00	898.00	881.00	872.00	865.00	849.00	841.00	829.00	817.00	806.00	796.00	776.00	766.00	751.00	742.00	745.00	748.00	747.00	746.00	740.00	741.00	744.00	743.00	751.00	754.00	757.00	760.00	762.00	768.00	776.00	785.00	797.00	836.00	834.00	824.00	827.00	880.00	1116.00	1209.00	1190.00	1100.00	1120.00	1121.00	1127.00	935.00	851.00	811.00	803.00	794.00	786.00	787.00	790.00	845.00	810.00	804.00	833.00	846.00	862.00	930.00	892.00	867.00	854.00	877.00	896.00	907.00	861.00	856.00	869.00	872.00	893.00	911.00	946.00	975.00	991.00	1013.00	975.00	963.00	932.00	984.00	1037.00	1063.00	983.00	754.00	698.00	665.00	669.00	783.00	800.00	856.00	911.00	1011.00	837.00	843.00	802.00	840.00	708.00	743.00	717.00	662.00	655.00	654.00	705.00	742.00	753.00	838.00	791.00	837.00	896.00	968.00	1113.00	1118.00	1098.00	1045.00	786.00	747.00	750.00	777.00	847.00	1190.00	1279.00	1276.00	1360.00	1551.00	1655.00	1760.00	1622.00	1439.00	1296.00	1181.00	1091.00	983.00	835.00	766.00	723.00	697.00	679.00	658.00	649.00	645.00	634.00	635.00	627.00	618.00	617.00	641.00	634.00	628.00	621.00	609.00	592.00	589.00	582.00	573.00	584.00	583.00	585.00	590.00	593.00	607.00	587.00	581.00	570.00	559.00	555.00	549.00	544.00	548.00	546.00	537.00	534.00	551.00	550.00	542.00	532.00	538.00	551.00	540.00	548.00	541.00	533.00	550.00	535.00	520.00	522.00	535.00	539.00	553.00	560.00	572.00	542.00	528.00	511.00	507.00	505.00	494.00	498.00	499.00	494.00	475.00	460.00	451.00	447.00	435.00	412.00	431.00	453.00	465.00	477.00	483.00	465.00	447.00	439.00	452.00	461.00	466.00	472.00	494.00	500.00	502.00	496.00	493.00	516.00	506.00	499.00	504.00	497.00	495.00	507.00	517.00
1024.00	1002.00	1000.00	998.00	994.00	995.00	988.00	985.00	976.00	973.00	976.00	995.00	1024.00	1040.00	1050.00	1022.00	966.00	938.00	975.00	1025.00	1028.00	1084.00	1128.00	1167.00	1179.00	1175.00	1101.00	1008.00	1016.00	884.00	875.00	917.00	992.00	946.00	874.00	843.00	858.00	783.00	764.00	760.00	748.00	754.00	772.00	757.00	751.00	749.00	752.00	747.00	748.00	749.00	757.00	758.00	759.00	764.00	769.00	775.00	779.00	782.00	782.00	782.00	789.00	807.00	822.00	855.00	929.00	982.00	1009.00	1027.00	1039.00	1015.00	1008.00	1053.00	1068.00	889.00	830.00	814.00	807.00	799.00	803.00	815.00	817.00	825.00	901.00	950.00	961.00	959.00	1003.00	942.00	938.00	875.00	885.00	903.00	872.00	896.00	903.00	914.00	931.00	927.00	928.00	931.00	915.00	884.00	910.00	862.00	889.00	922.00	954.00	943.00	960.00	854.00	739.00	672.00	661.00	671.00	709.00	768.00	795.00	905.00	835.00	710.00	662.00	652.00	651.00	656.00	664.00	707.00	799.00	766.00	675.00	648.00	695.00	941.00	945.00	960.00	1053.00	1118.00	1146.00	1183.00	1039.00	896.00	693.00	712.00	749.00	815.00	889.00	1135.00	1238.00	1340.00	1408.00	1558.00	1637.00	1640.00	1621.00	1656.00	1360.00	1148.00	1080.00	1081.00	828.00	755.00	721.00	700.00	692.00	684.00	673.00	663.00	657.00	671.00	672.00	659.00	647.00	628.00	619.00	612.00	607.00	602.00	594.00	591.00	596.00	588.00	606.00	609.00	612.00	618.00	614.00	592.00	578.00	572.00	568.00	556.00	557.00	564.00	565.00	554.00	544.00	549.00	558.00	574.00	548.00	538.00	546.00	555.00	561.00	553.00	566.00	562.00	553.00	546.00	536.00	543.00	553.00	568.00	575.00	576.00	568.00	554.00	543.00	545.00	520.00	510.00	493.00	479.00	475.00	491.00	502.00	485.00	468.00	459.00	441.00	418.00	465.00	471.00	478.00	500.00	473.00	461.00	455.00	449.00	442.00	453.00	464.00	475.00	480.00	474.00	473.00	472.00	475.00	486.00	500.00	520.00	524.00	533.00	511.00	501.00	507.00	515.00
1024.00	1002.00	1000.00	998.00	994.00	995.00	988.00	985.00	976.00	973.00	976.00	995.00	1024.00	1040.00	1050.00	1022.00	966.00	938.00	975.00	1025.00	1028.00	1084.00	1128.00	1167.00	1179.00	1175.00	1101.00	1008.00	1016.00	884.00	875.00	917.00	992.00	946.00	874.00	843.00	858.00	783.00	764.00	760.00	748.00	754.00	772.00	757.00	751.00	749.00	752.00	747.00	748.00	749.00	757.00	758.00	759.00	764.00	769.00	775.00	779.00	782.00	782.00	782.00	789.00	807.00	822.00	855.00	929.00	982.00	1009.00	1027.00	1039.00	1015.00	1008.00	1053.00	1068.00	889.00	830.00	814.00	807.00	799.00	803.00	815.00	817.00	825.00	901.00	950.00	961.00	959.00	1003.00	942.00	938.00	875.00	885.00	903.00	872.00	896.00	903.00	914.00	931.00	927.00	928.00	931.00	915.00	884.00	910.00	862.00	889.00	922.00	954.00	943.00	960.00	854.00	739.00	672.00	661.00	671.00	709.00	768.00	795.00	905.00	835.00	710.00	662.00	652.00	651.00	656.00	664.00	707.00	799.00	766.00	675.00	648.00	695.00	941.00	945.00	960.00	1053.00	1118.00	1146.00	1183.00	1039.00	896.00	693.00	712.00	749.00	815.00	889.00	1135.00	1238.00	1340.00	1408.00	1558.00	1637.00	1640.00	1621.00	1656.00	1360.00	1148.00	1080.00	1081.00	828.00	755.00	721.00	700.00	692.00	684.00	673.00	663.00	657.00	671.00	672.00	659.00	647.00	628.00	619.00	612.00	607.00	602.00	594.00	591.00	596.00	588.00	606.00	609.00	612.00	618.00	614.00	592.00	578.00	572.00	568.00	556.00	557.00	564.00	565.00	554.00	544.00	549.00	558.00	574.00	548.00	538.00	546.00	555.00	561.00	553.00	566.00	562.00	553.00	546.00	536.00	543.00	553.00	568.00	575.00	576.00	568.00	554.00	543.00	545.00	520.00	510.00	493.00	479.00	475.00	491.00	502.00	485.00	468.00	459.00	441.00	418.00	465.00	471.00	478.00	500.00	473.00	461.00	455.00	449.00	442.00	453.00	464.00	475.00	480.00	474.00	473.00	472.00	475.00	486.00	500.00	520.00	524.00	533.00	511.00	501.00	507.00	515.00
1006.00	996.00	995.00	992.00	989.00	989.00	984.00	982.00	988.00	999.00	1063.00	1126.00	1149.00	1139.00	1118.00	1033.00	976.00	937.00	935.00	915.00	918.00	936.00	958.00	993.00	1034.00	1079.00	1122.00	1054.00	1001.00	883.00	912.00	973.00	987.00	993.00	962.00	897.00	841.00	774.00	755.00	752.00	738.00	748.00	757.00	758.00	753.00	750.00	753.00	754.00	752.00	753.00	762.00	764.00	766.00	766.00	773.00	783.00	786.00	792.00	794.00	787.00	788.00	801.00	810.00	813.00	833.00	883.00	895.00	931.00	1031.00	1054.00	991.00	1002.00	1018.00	1030.00	886.00	835.00	822.00	809.00	812.00	815.00	823.00	832.00	870.00	899.00	957.00	1047.00	1060.00	992.00	1016.00	898.00	892.00	956.00	856.00	861.00	870.00	876.00	902.00	902.00	901.00	902.00	871.00	842.00	845.00	932.00	1001.00	986.00	978.00	948.00	915.00	931.00	853.00	731.00	679.00	656.00	657.00	684.00	757.00	841.00	750.00	674.00	662.00	678.00	686.00	701.00	707.00	748.00	789.00	789.00	703.00	654.00	664.00	822.00	821.00	891.00	1084.00	1162.00	1154.00	1219.00	1075.00	883.00	685.00	721.00	822.00	828.00	854.00	1161.00	1248.00	1325.00	1333.00	1486.00	1510.00	1506.00	1587.00	1693.00	1360.00	1233.00	1171.00	1119.00	838.00	750.00	722.00	721.00	716.00	706.00	683.00	677.00	673.00	703.00	682.00	658.00	649.00	625.00	623.00	625.00	614.00	611.00	605.00	605.00	604.00	600.00	618.00	622.00	619.00	610.00	610.00	594.00	579.00	575.00	569.00	562.00	569.00	571.00	560.00	549.00	557.00	563.00	567.00	566.00	553.00	545.00	551.00	565.00	568.00	560.00	567.00	567.00	567.00	548.00	552.00	561.00	570.00	579.00	570.00	557.00	559.00	559.00	558.00	548.00	523.00	513.00	497.00	484.00	470.00	481.00	494.00	489.00	470.00	455.00	449.00	425.00	461.00	457.00	476.00	491.00	473.00	476.00	469.00	462.00	444.00	443.00	464.00	471.00	464.00	458.00	462.00	471.00	478.00	477.00	494.00	520.00	535.00	538.00	520.00	505.00	516.00	525.00
995.00	990.00	987.00	986.00	985.00	983.00	979.00	1023.00	1029.00	1029.00	1028.00	1032.00	1036.00	1033.00	1029.00	995.00	976.00	949.00	929.00	907.00	904.00	920.00	951.00	947.00	901.00	902.00	906.00	918.00	895.00	861.00	905.00	941.00	874.00	877.00	891.00	872.00	833.00	762.00	752.00	745.00	737.00	746.00	753.00	757.00	758.00	757.00	758.00	758.00	759.00	759.00	770.00	771.00	773.00	772.00	778.00	791.00	793.00	798.00	804.00	794.00	792.00	803.00	809.00	809.00	821.00	833.00	852.00	882.00	962.00	989.00	999.00	1063.00	1084.00	1064.00	1015.00	941.00	884.00	823.00	824.00	823.00	831.00	841.00	868.00	882.00	911.00	1027.00	994.00	1032.00	971.00	942.00	901.00	1035.00	861.00	842.00	836.00	838.00	855.00	867.00	860.00	846.00	838.00	825.00	814.00	864.00	969.00	1038.00	1041.00	980.00	946.00	886.00	907.00	873.00	786.00	665.00	654.00	654.00	673.00	743.00	674.00	694.00	733.00	762.00	756.00	750.00	793.00	884.00	847.00	766.00	798.00	689.00	647.00	742.00	765.00	823.00	1069.00	1077.00	1202.00	1128.00	920.00	746.00	689.00	766.00	843.00	925.00	909.00	1137.00	1213.00	1229.00	1270.00	1446.00	1417.00	1489.00	1636.00	1702.00	1325.00	1104.00	1057.00	1031.00	828.00	748.00	766.00	759.00	752.00	721.00	704.00	704.00	702.00	723.00	682.00	680.00	665.00	633.00	642.00	632.00	625.00	613.00	613.00	619.00	612.00	612.00	631.00	626.00	616.00	608.00	599.00	585.00	577.00	573.00	575.00	575.00	582.00	577.00	564.00	556.00	569.00	574.00	579.00	569.00	564.00	558.00	549.00	559.00	572.00	573.00	578.00	575.00	569.00	564.00	569.00	568.00	568.00	565.00	557.00	541.00	545.00	549.00	531.00	527.00	502.00	513.00	505.00	486.00	468.00	471.00	481.00	471.00	470.00	470.00	452.00	420.00	446.00	463.00	471.00	495.00	491.00	485.00	470.00	456.00	459.00	438.00	449.00	452.00	449.00	464.00	470.00	482.00	490.00	483.00	496.00	529.00	540.00	531.00	513.00	509.00	512.00	519.00
981.00	979.00	978.00	975.00	973.00	970.00	967.00	969.00	992.00	992.00	964.00	957.00	947.00	937.00	926.00	913.00	910.00	905.00	903.00	897.00	896.00	892.00	887.00	882.00	903.00	868.00	853.00	847.00	836.00	829.00	822.00	816.00	817.00	809.00	816.00	814.00	778.00	760.00	756.00	749.00	737.00	749.00	751.00	755.00	761.00	767.00	770.00	774.00	775.00	776.00	786.00	788.00	787.00	792.00	798.00	826.00	845.00	819.00	823.00	814.00	808.00	808.00	808.00	805.00	809.00	816.00	823.00	831.00	849.00	868.00	882.00	1015.00	1070.00	1115.00	1151.00	1245.00	1178.00	886.00	851.00	847.00	849.00	860.00	897.00	893.00	962.00	954.00	926.00	911.00	923.00	905.00	918.00	1117.00	945.00	840.00	827.00	814.00	809.00	803.00	794.00	786.00	779.00	783.00	785.00	782.00	819.00	852.00	902.00	931.00	987.00	1023.00	907.00	794.00	853.00	759.00	695.00	668.00	660.00	655.00	708.00	786.00	873.00	955.00	1058.00	918.00	890.00	904.00	929.00	797.00	796.00	738.00	712.00	718.00	657.00	684.00	973.00	935.00	1063.00	852.00	685.00	661.00	832.00	963.00	1098.00	1189.00	1111.00	999.00	1014.00	1104.00	1188.00	1317.00	1297.00	1318.00	1384.00	1487.00	1154.00	981.00	894.00	846.00	895.00	833.00	889.00	914.00	886.00	810.00	866.00	819.00	854.00	824.00	837.00	760.00	678.00	665.00	653.00	646.00	631.00	630.00	625.00	642.00	649.00	637.00	619.00	614.00	611.00	604.00	600.00	595.00	601.00	602.00	592.00	573.00	569.00	564.00	562.00	561.00	565.00	577.00	588.00	596.00	583.00	568.00	565.00	567.00	580.00	574.00	565.00	558.00	550.00	561.00	555.00	543.00	534.00	526.00	540.00	530.00	518.00	512.00	505.00	490.00	474.00	477.00	474.00	482.00	471.00	457.00	456.00	456.00	442.00	430.00	427.00	427.00	457.00	480.00	508.00	534.00	503.00	488.00	489.00	494.00	492.00	470.00	449.00	450.00	467.00	474.00	485.00	487.00	490.00	502.00	510.00	532.00	544.00	538.00	526.00	520.00	532.00	535.00
977.00	971.00	974.00	971.00	969.00	968.00	961.00	962.00	950.00	945.00	937.00	935.00	937.00	942.00	921.00	907.00	903.00	898.00	896.00	891.00	889.00	888.00	885.00	879.00	876.00	858.00	851.00	845.00	835.00	825.00	820.00	813.00	801.00	798.00	790.00	786.00	777.00	765.00	759.00	753.00	738.00	757.00	753.00	758.00	763.00	769.00	777.00	781.00	783.00	785.00	794.00	796.00	796.00	801.00	806.00	821.00	827.00	835.00	833.00	846.00	820.00	819.00	817.00	815.00	814.00	815.00	823.00	830.00	845.00	850.00	861.00	920.00	976.00	1008.00	1052.00	1175.00	1185.00	944.00	866.00	862.00	865.00	876.00	903.00	912.00	969.00	1057.00	905.00	893.00	887.00	889.00	885.00	1087.00	1032.00	863.00	822.00	812.00	810.00	815.00	814.00	797.00	775.00	770.00	771.00	771.00	779.00	788.00	816.00	876.00	912.00	994.00	956.00	802.00	757.00	836.00	730.00	678.00	662.00	661.00	679.00	729.00	807.00	887.00	1069.00	1133.00	1053.00	973.00	937.00	826.00	778.00	752.00	809.00	799.00	695.00	647.00	881.00	881.00	836.00	768.00	647.00	693.00	913.00	1044.00	1153.00	1145.00	1190.00	913.00	978.00	1043.00	1128.00	1244.00	1142.00	1203.00	1326.00	1390.00	1109.00	992.00	928.00	956.00	926.00	919.00	1034.00	1106.00	1005.00	931.00	959.00	904.00	942.00	946.00	833.00	729.00	693.00	687.00	663.00	649.00	642.00	644.00	644.00	650.00	639.00	636.00	623.00	619.00	614.00	611.00	609.00	605.00	605.00	594.00	583.00	583.00	574.00	572.00	576.00	575.00	568.00	583.00	590.00	601.00	581.00	579.00	579.00	581.00	586.00	572.00	566.00	554.00	547.00	566.00	568.00	554.00	538.00	523.00	529.00	534.00	521.00	497.00	490.00	501.00	465.00	465.00	470.00	468.00	461.00	454.00	444.00	435.00	422.00	425.00	433.00	436.00	448.00	469.00	507.00	542.00	525.00	518.00	501.00	489.00	482.00	458.00	446.00	456.00	473.00	474.00	482.00	494.00	496.00	511.00	526.00	532.00	546.00	542.00	539.00	527.00	534.00	545.00
970.00	964.00	962.00	959.00	958.00	959.00	957.00	954.00	947.00	941.00	932.00	930.00	927.00	919.00	913.00	905.00	906.00	904.00	891.00	885.00	887.00	882.00	882.00	887.00	865.00	861.00	852.00	846.00	832.00	821.00	813.00	807.00	797.00	792.00	786.00	782.00	777.00	765.00	757.00	749.00	738.00	754.00	758.00	760.00	765.00	774.00	785.00	788.00	791.00	797.00	829.00	805.00	805.00	810.00	816.00	840.00	855.00	848.00	849.00	872.00	831.00	830.00	827.00	825.00	824.00	822.00	820.00	825.00	837.00	846.00	851.00	860.00	878.00	919.00	958.00	1066.00	1121.00	989.00	903.00	934.00	934.00	947.00	933.00	929.00	942.00	984.00	898.00	882.00	872.00	866.00	868.00	949.00	1015.00	870.00	815.00	810.00	815.00	823.00	824.00	816.00	795.00	768.00	759.00	760.00	754.00	763.00	776.00	802.00	857.00	895.00	960.00	820.00	719.00	872.00	810.00	686.00	663.00	666.00	698.00	700.00	743.00	823.00	998.00	1166.00	1190.00	1144.00	1012.00	864.00	827.00	783.00	843.00	790.00	695.00	691.00	702.00	769.00	696.00	654.00	653.00	770.00	916.00	1057.00	1076.00	1081.00	1150.00	875.00	939.00	1027.00	1075.00	1151.00	1024.00	1205.00	1257.00	1250.00	1238.00	1085.00	1025.00	1113.00	1015.00	1010.00	1113.00	1194.00	1233.00	1086.00	1082.00	1035.00	1005.00	901.00	813.00	789.00	750.00	707.00	677.00	667.00	670.00	662.00	658.00	652.00	651.00	642.00	631.00	629.00	627.00	620.00	621.00	610.00	593.00	590.00	590.00	586.00	579.00	589.00	591.00	588.00	574.00	575.00	586.00	600.00	596.00	592.00	591.00	588.00	596.00	583.00	562.00	546.00	534.00	569.00	572.00	561.00	548.00	530.00	515.00	530.00	513.00	493.00	482.00	495.00	470.00	454.00	462.00	450.00	446.00	438.00	425.00	428.00	438.00	437.00	446.00	443.00	455.00	463.00	484.00	505.00	518.00	507.00	482.00	465.00	456.00	445.00	446.00	461.00	471.00	487.00	487.00	505.00	510.00	506.00	525.00	546.00	558.00	561.00	545.00	532.00	537.00	550.00
968.00	959.00	956.00	953.00	953.00	955.00	952.00	950.00	943.00	939.00	930.00	929.00	928.00	930.00	932.00	966.00	944.00	909.00	888.00	882.00	895.00	879.00	877.00	933.00	863.00	857.00	852.00	846.00	835.00	823.00	818.00	811.00	800.00	793.00	787.00	779.00	772.00	764.00	757.00	750.00	737.00	751.00	759.00	765.00	769.00	776.00	797.00	805.00	801.00	808.00	885.00	816.00	818.00	822.00	831.00	860.00	926.00	920.00	894.00	913.00	903.00	844.00	837.00	835.00	835.00	832.00	829.00	826.00	833.00	839.00	841.00	855.00	862.00	883.00	894.00	929.00	986.00	1009.00	990.00	1055.00	1129.00	1145.00	991.00	977.00	969.00	1053.00	888.00	871.00	861.00	855.00	854.00	861.00	928.00	834.00	810.00	814.00	823.00	836.00	848.00	847.00	798.00	781.00	767.00	746.00	740.00	743.00	752.00	765.00	776.00	836.00	871.00	773.00	699.00	774.00	739.00	671.00	675.00	685.00	741.00	741.00	736.00	764.00	928.00	1080.00	1166.00	1243.00	1199.00	928.00	864.00	827.00	853.00	745.00	797.00	837.00	645.00	639.00	636.00	632.00	696.00	868.00	1049.00	991.00	1012.00	1091.00	1103.00	838.00	930.00	968.00	1041.00	1079.00	999.00	1194.00	1159.00	1193.00	1422.00	1246.00	1159.00	1208.00	1137.00	1135.00	1149.00	1240.00	1282.00	1226.00	1183.00	1114.00	1004.00	928.00	860.00	798.00	822.00	717.00	711.00	711.00	701.00	676.00	664.00	664.00	655.00	642.00	641.00	647.00	637.00	633.00	626.00	605.00	608.00	601.00	603.00	586.00	589.00	604.00	607.00	601.00	580.00	582.00	592.00	609.00	611.00	600.00	579.00	575.00	579.00	581.00	564.00	547.00	528.00	559.00	552.00	551.00	543.00	527.00	507.00	515.00	502.00	489.00	470.00	468.00	466.00	449.00	446.00	436.00	436.00	436.00	433.00	449.00	457.00	447.00	462.00	450.00	473.00	466.00	468.00	484.00	496.00	476.00	466.00	452.00	458.00	451.00	462.00	458.00	474.00	492.00	496.00	502.00	513.00	520.00	541.00	559.00	558.00	557.00	550.00	540.00	541.00	557.00
967.00	959.00	955.00	951.00	948.00	947.00	944.00	942.00	934.00	930.00	925.00	925.00	926.00	922.00	910.00	891.00	882.00	879.00	880.00	873.00	890.00	949.00	875.00	860.00	853.00	847.00	845.00	840.00	830.00	818.00	814.00	807.00	797.00	789.00	783.00	778.00	773.00	759.00	748.00	742.00	740.00	755.00	765.00	775.00	781.00	791.00	853.00	861.00	845.00	843.00	917.00	859.00	842.00	855.00	935.00	1070.00	1186.00	1162.00	1139.00	1104.00	1071.00	972.00	929.00	878.00	858.00	854.00	850.00	848.00	848.00	845.00	845.00	852.00	855.00	868.00	874.00	883.00	929.00	991.00	1045.00	1128.00	1144.00	1065.00	1155.00	1070.00	969.00	902.00	854.00	841.00	835.00	833.00	833.00	903.00	818.00	810.00	805.00	831.00	852.00	926.00	1088.00	1094.00	869.00	802.00	777.00	751.00	726.00	724.00	719.00	719.00	722.00	730.00	727.00	684.00	682.00	685.00	733.00	809.00	879.00	900.00	1023.00	1004.00	958.00	882.00	820.00	936.00	1031.00	1117.00	1206.00	1113.00	1016.00	970.00	874.00	858.00	963.00	862.00	712.00	794.00	630.00	704.00	913.00	851.00	866.00	790.00	895.00	905.00	824.00	792.00	835.00	910.00	908.00	846.00	945.00	976.00	1075.00	1227.00	1408.00	1549.00	1622.00	1529.00	1377.00	1377.00	1344.00	1358.00	1384.00	1332.00	1332.00	1256.00	1118.00	973.00	953.00	880.00	848.00	745.00	724.00	722.00	719.00	710.00	688.00	670.00	660.00	666.00	675.00	657.00	636.00	631.00	635.00	617.00	633.00	640.00	626.00	604.00	619.00	626.00	626.00	616.00	613.00	607.00	609.00	605.00	589.00	566.00	559.00	548.00	549.00	545.00	533.00	524.00	511.00	521.00	516.00	521.00	528.00	515.00	489.00	499.00	501.00	500.00	487.00	476.00	452.00	442.00	460.00	455.00	469.00	475.00	474.00	476.00	477.00	483.00	490.00	468.00	495.00	503.00	493.00	497.00	496.00	469.00	457.00	474.00	499.00	462.00	459.00	476.00	481.00	488.00	497.00	502.00	514.00	524.00	531.00	539.00	532.00	531.00	557.00	558.00	564.00	563.00
968.00	961.00	955.00	950.00	947.00	943.00	940.00	938.00	932.00	928.00	918.00	915.00	913.00	908.00	903.00	885.00	881.00	877.00	875.00	869.00	867.00	871.00	864.00	856.00	848.00	844.00	839.00	835.00	827.00	817.00	811.00	805.00	793.00	787.00	782.00	775.00	767.00	757.00	746.00	743.00	754.00	748.00	769.00	780.00	786.00	791.00	810.00	868.00	881.00	896.00	961.00	932.00	864.00	917.00	1002.00	1145.00	1213.00	1178.00	1180.00	1260.00	1289.00	1185.00	1103.00	947.00	874.00	868.00	860.00	858.00	855.00	856.00	853.00	861.00	863.00	870.00	872.00	881.00	891.00	931.00	970.00	969.00	1009.00	990.00	1093.00	1003.00	911.00	877.00	847.00	834.00	825.00	821.00	823.00	899.00	816.00	806.00	803.00	854.00	884.00	950.00	998.00	1007.00	967.00	829.00	777.00	749.00	729.00	719.00	716.00	712.00	707.00	701.00	688.00	691.00	698.00	695.00	710.00	761.00	848.00	930.00	1069.00	1165.00	1156.00	1001.00	868.00	878.00	970.00	1063.00	1144.00	1301.00	1160.00	1032.00	932.00	921.00	890.00	782.00	833.00	862.00	644.00	699.00	816.00	753.00	748.00	735.00	759.00	756.00	717.00	830.00	922.00	916.00	873.00	865.00	957.00	1014.00	1107.00	1205.00	1337.00	1473.00	1553.00	1600.00	1654.00	1572.00	1463.00	1447.00	1435.00	1383.00	1342.00	1311.00	1138.00	1022.00	983.00	979.00	955.00	767.00	738.00	773.00	765.00	721.00	694.00	676.00	683.00	694.00	687.00	654.00	642.00	653.00	649.00	628.00	650.00	639.00	622.00	624.00	631.00	623.00	615.00	611.00	600.00	586.00	589.00	589.00	580.00	568.00	557.00	546.00	534.00	534.00	536.00	520.00	507.00	519.00	503.00	508.00	510.00	501.00	486.00	485.00	487.00	489.00	488.00	478.00	458.00	446.00	458.00	465.00	469.00	480.00	482.00	484.00	495.00	492.00	485.00	478.00	517.00	520.00	506.00	499.00	478.00	461.00	462.00	479.00	496.00	469.00	455.00	474.00	489.00	494.00	500.00	510.00	510.00	510.00	522.00	527.00	521.00	534.00	545.00	550.00	553.00	557.00
966.00	957.00	953.00	948.00	944.00	941.00	936.00	935.00	929.00	926.00	918.00	914.00	908.00	904.00	898.00	888.00	882.00	878.00	873.00	867.00	863.00	861.00	858.00	853.00	845.00	839.00	836.00	832.00	823.00	813.00	808.00	803.00	792.00	785.00	781.00	781.00	784.00	754.00	744.00	740.00	746.00	754.00	763.00	775.00	780.00	784.00	796.00	813.00	843.00	898.00	966.00	994.00	962.00	921.00	963.00	1171.00	1206.00	1217.00	1247.00	1332.00	1407.00	1409.00	1256.00	1084.00	900.00	881.00	874.00	865.00	863.00	864.00	864.00	868.00	872.00	878.00	879.00	880.00	888.00	910.00	923.00	934.00	948.00	975.00	1030.00	929.00	882.00	863.00	841.00	829.00	819.00	813.00	815.00	922.00	827.00	816.00	798.00	976.00	1011.00	964.00	942.00	1019.00	946.00	836.00	781.00	751.00	729.00	721.00	715.00	708.00	700.00	690.00	696.00	698.00	722.00	709.00	718.00	729.00	776.00	847.00	1023.00	1110.00	1202.00	1236.00	972.00	873.00	916.00	1003.00	1087.00	1258.00	1281.00	1060.00	1017.00	932.00	835.00	808.00	935.00	846.00	749.00	660.00	683.00	727.00	693.00	716.00	706.00	702.00	700.00	850.00	902.00	770.00	762.00	870.00	911.00	977.00	1083.00	1169.00	1235.00	1381.00	1456.00	1514.00	1668.00	1644.00	1624.00	1671.00	1557.00	1457.00	1344.00	1287.00	1114.00	1062.00	1048.00	1053.00	962.00	763.00	785.00	863.00	773.00	731.00	693.00	701.00	732.00	748.00	660.00	650.00	666.00	680.00	658.00	634.00	657.00	650.00	636.00	625.00	624.00	610.00	600.00	601.00	581.00	571.00	572.00	577.00	582.00	579.00	570.00	558.00	538.00	520.00	526.00	526.00	517.00	505.00	503.00	489.00	489.00	485.00	484.00	479.00	474.00	475.00	485.00	469.00	460.00	447.00	453.00	480.00	486.00	497.00	510.00	506.00	504.00	492.00	504.00	483.00	520.00	516.00	505.00	494.00	475.00	463.00	464.00	478.00	491.00	472.00	455.00	467.00	478.00	493.00	502.00	497.00	493.00	496.00	519.00	520.00	518.00	533.00	534.00	539.00	542.00	554.00
962.00	955.00	951.00	948.00	945.00	942.00	934.00	931.00	925.00	922.00	913.00	910.00	908.00	903.00	897.00	887.00	882.00	878.00	872.00	864.00	861.00	858.00	855.00	851.00	843.00	839.00	835.00	830.00	821.00	812.00	806.00	801.00	791.00	788.00	795.00	830.00	829.00	764.00	752.00	743.00	748.00	758.00	770.00	772.00	779.00	782.00	792.00	797.00	814.00	850.00	947.00	967.00	994.00	1000.00	1014.00	1180.00	1193.00	1203.00	1243.00	1346.00	1411.00	1463.00	1410.00	1298.00	969.00	916.00	891.00	879.00	873.00	872.00	873.00	878.00	882.00	886.00	890.00	893.00	904.00	904.00	913.00	923.00	932.00	946.00	956.00	883.00	861.00	850.00	836.00	826.00	817.00	809.00	808.00	967.00	895.00	848.00	792.00	863.00	896.00	902.00	989.00	962.00	884.00	814.00	788.00	753.00	728.00	718.00	710.00	704.00	696.00	702.00	707.00	708.00	713.00	752.00	755.00	762.00	791.00	848.00	983.00	1050.00	1134.00	1219.00	1073.00	907.00	896.00	958.00	1036.00	1205.00	1276.00	1238.00	1089.00	953.00	883.00	860.00	970.00	879.00	793.00	661.00	655.00	706.00	745.00	761.00	687.00	674.00	698.00	788.00	727.00	693.00	719.00	919.00	942.00	1010.00	1063.00	1086.00	1149.00	1294.00	1388.00	1480.00	1522.00	1539.00	1684.00	1770.00	1770.00	1435.00	1376.00	1312.00	1170.00	1112.00	1081.00	994.00	871.00	790.00	858.00	907.00	775.00	793.00	715.00	762.00	784.00	714.00	675.00	671.00	693.00	672.00	654.00	653.00	662.00	653.00	636.00	617.00	602.00	595.00	585.00	581.00	567.00	562.00	551.00	542.00	565.00	566.00	564.00	559.00	553.00	516.00	514.00	536.00	534.00	491.00	495.00	481.00	480.00	472.00	462.00	468.00	478.00	468.00	481.00	475.00	448.00	449.00	454.00	476.00	496.00	510.00	530.00	527.00	513.00	500.00	509.00	489.00	509.00	501.00	495.00	488.00	472.00	464.00	460.00	475.00	485.00	464.00	456.00	467.00	475.00	493.00	491.00	482.00	492.00	503.00	513.00	511.00	515.00	525.00	526.00	536.00	549.00	561.00
955.00	947.00	942.00	942.00	940.00	934.00	925.00	924.00	919.00	915.00	908.00	905.00	901.00	897.00	892.00	884.00	880.00	876.00	871.00	859.00	857.00	854.00	851.00	848.00	840.00	837.00	834.00	829.00	820.00	811.00	806.00	802.00	804.00	801.00	798.00	798.00	803.00	844.00	801.00	759.00	745.00	762.00	798.00	792.00	788.00	783.00	789.00	796.00	800.00	804.00	856.00	875.00	903.00	951.00	974.00	1009.00	1075.00	1138.00	1200.00	1265.00	1234.00	1348.00	1332.00	1300.00	1233.00	1187.00	1081.00	936.00	898.00	910.00	931.00	902.00	906.00	903.00	909.00	913.00	921.00	910.00	911.00	925.00	942.00	951.00	957.00	935.00	885.00	892.00	833.00	825.00	816.00	808.00	799.00	794.00	783.00	776.00	776.00	795.00	807.00	811.00	813.00	831.00	949.00	887.00	925.00	752.00	719.00	707.00	701.00	701.00	708.00	716.00	719.00	722.00	721.00	761.00	816.00	901.00	906.00	940.00	1044.00	1069.00	1095.00	1132.00	1246.00	1042.00	1011.00	985.00	980.00	1095.00	1195.00	1275.00	1299.00	1017.00	1043.00	1056.00	980.00	1040.00	845.00	817.00	720.00	642.00	729.00	671.00	645.00	647.00	649.00	693.00	713.00	779.00	857.00	999.00	1071.00	966.00	912.00	932.00	983.00	1136.00	1245.00	1317.00	1411.00	1497.00	1583.00	1604.00	1484.00	1705.00	1586.00	1469.00	1373.00	1086.00	965.00	979.00	945.00	911.00	980.00	956.00	891.00	994.00	884.00	839.00	815.00	799.00	755.00	727.00	691.00	679.00	679.00	630.00	603.00	606.00	621.00	631.00	622.00	617.00	606.00	596.00	581.00	562.00	546.00	518.00	525.00	520.00	521.00	536.00	532.00	530.00	520.00	496.00	503.00	490.00	480.00	477.00	463.00	460.00	476.00	459.00	456.00	468.00	462.00	451.00	465.00	475.00	468.00	473.00	478.00	485.00	494.00	522.00	519.00	512.00	528.00	513.00	506.00	497.00	500.00	491.00	480.00	476.00	463.00	475.00	489.00	471.00	464.00	462.00	467.00	477.00	471.00	479.00	490.00	496.00	496.00	509.00	518.00	522.00	528.00	536.00	535.00	538.00
943.00	937.00	934.00	934.00	930.00	925.00	921.00	921.00	915.00	913.00	905.00	900.00	898.00	894.00	891.00	881.00	877.00	873.00	870.00	858.00	854.00	852.00	850.00	847.00	839.00	836.00	832.00	828.00	819.00	809.00	807.00	804.00	842.00	862.00	828.00	809.00	806.00	831.00	796.00	774.00	746.00	746.00	785.00	806.00	799.00	799.00	791.00	795.00	798.00	804.00	827.00	852.00	875.00	895.00	902.00	969.00	1092.00	1131.00	1179.00	1188.00	1204.00	1248.00	1233.00	1214.00	1272.00	1245.00	1180.00	1069.00	921.00	1009.00	1063.00	942.00	922.00	920.00	940.00	924.00	925.00	917.00	916.00	920.00	929.00	932.00	1039.00	963.00	933.00	939.00	836.00	824.00	814.00	806.00	797.00	784.00	774.00	770.00	770.00	780.00	788.00	789.00	794.00	800.00	850.00	909.00	930.00	782.00	708.00	707.00	709.00	712.00	713.00	719.00	723.00	727.00	726.00	762.00	806.00	855.00	906.00	891.00	1023.00	1092.00	1079.00	1104.00	1219.00	1198.00	1117.00	1095.00	1047.00	1050.00	1126.00	1222.00	1285.00	1168.00	1059.00	990.00	895.00	917.00	803.00	743.00	688.00	649.00	628.00	631.00	637.00	654.00	678.00	904.00	839.00	974.00	949.00	1030.00	1002.00	1026.00	910.00	812.00	910.00	1119.00	1166.00	1211.00	1326.00	1391.00	1485.00	1443.00	1357.00	1694.00	1791.00	1722.00	1304.00	1049.00	1066.00	1152.00	1111.00	978.00	1093.00	986.00	951.00	1021.00	972.00	893.00	840.00	839.00	712.00	677.00	642.00	637.00	623.00	608.00	590.00	600.00	610.00	629.00	623.00	616.00	604.00	602.00	570.00	551.00	529.00	520.00	513.00	506.00	519.00	534.00	510.00	502.00	505.00	492.00	493.00	498.00	491.00	476.00	471.00	462.00	473.00	463.00	455.00	458.00	450.00	456.00	474.00	489.00	477.00	487.00	489.00	496.00	495.00	523.00	526.00	518.00	538.00	531.00	511.00	507.00	498.00	489.00	484.00	472.00	468.00	477.00	487.00	474.00	479.00	472.00	474.00	478.00	475.00	479.00	488.00	496.00	510.00	518.00	519.00	516.00	517.00	524.00	523.00	527.00
935.00	928.00	926.00	924.00	921.00	919.00	916.00	916.00	913.00	909.00	903.00	899.00	894.00	892.00	888.00	881.00	876.00	870.00	868.00	856.00	853.00	851.00	849.00	845.00	839.00	835.00	830.00	827.00	818.00	811.00	808.00	808.00	827.00	891.00	910.00	829.00	810.00	861.00	837.00	793.00	760.00	746.00	755.00	853.00	803.00	806.00	801.00	802.00	802.00	804.00	819.00	833.00	863.00	867.00	876.00	934.00	1050.00	1109.00	1156.00	1150.00	1190.00	1213.00	1169.00	1198.00	1299.00	1318.00	1233.00	1157.00	1053.00	1092.00	1122.00	959.00	941.00	938.00	1003.00	938.00	935.00	930.00	924.00	925.00	920.00	919.00	1040.00	970.00	965.00	978.00	851.00	824.00	814.00	806.00	796.00	781.00	773.00	768.00	765.00	766.00	770.00	773.00	776.00	779.00	791.00	829.00	821.00	724.00	712.00	716.00	718.00	721.00	720.00	724.00	728.00	732.00	731.00	768.00	786.00	831.00	844.00	867.00	1030.00	1070.00	1018.00	1024.00	1153.00	1291.00	1319.00	1298.00	1160.00	1067.00	1076.00	1145.00	1208.00	1276.00	1051.00	953.00	837.00	802.00	734.00	703.00	678.00	650.00	654.00	765.00	795.00	823.00	899.00	865.00	953.00	952.00	880.00	968.00	888.00	921.00	878.00	747.00	937.00	1006.00	1055.00	1124.00	1276.00	1268.00	1298.00	1273.00	1431.00	1681.00	1802.00	1804.00	1275.00	1183.00	1251.00	1238.00	1178.00	1042.00	1070.00	1013.00	1074.00	1045.00	890.00	868.00	856.00	810.00	678.00	653.00	641.00	620.00	608.00	591.00	581.00	581.00	596.00	612.00	587.00	583.00	575.00	582.00	560.00	539.00	526.00	509.00	501.00	500.00	517.00	525.00	507.00	475.00	478.00	480.00	484.00	491.00	482.00	481.00	477.00	463.00	481.00	473.00	460.00	458.00	456.00	465.00	490.00	492.00	480.00	481.00	499.00	504.00	508.00	531.00	530.00	528.00	546.00	544.00	523.00	517.00	510.00	504.00	485.00	475.00	468.00	473.00	485.00	485.00	488.00	481.00	489.00	483.00	476.00	479.00	483.00	485.00	503.00	508.00	505.00	503.00	512.00	518.00	525.00	533.00
934.00	926.00	922.00	920.00	918.00	914.00	912.00	912.00	912.00	904.00	901.00	904.00	910.00	911.00	902.00	893.00	887.00	872.00	867.00	854.00	852.00	850.00	847.00	843.00	837.00	834.00	830.00	826.00	818.00	812.00	811.00	844.00	829.00	883.00	932.00	849.00	810.00	852.00	889.00	798.00	763.00	750.00	753.00	823.00	815.00	853.00	825.00	823.00	821.00	821.00	819.00	828.00	840.00	842.00	852.00	896.00	975.00	1066.00	1092.00	1080.00	1137.00	1201.00	1178.00	1253.00	1287.00	1278.00	1200.00	1184.00	1280.00	1234.00	1191.00	1018.00	971.00	967.00	975.00	950.00	947.00	974.00	952.00	949.00	940.00	911.00	1005.00	1019.00	977.00	965.00	894.00	831.00	818.00	810.00	801.00	785.00	771.00	767.00	762.00	754.00	756.00	761.00	762.00	761.00	754.00	749.00	735.00	740.00	733.00	728.00	729.00	731.00	730.00	729.00	734.00	739.00	741.00	762.00	775.00	796.00	837.00	877.00	916.00	919.00	922.00	972.00	1103.00	1236.00	1326.00	1390.00	1315.00	1081.00	1033.00	1067.00	1140.00	1290.00	1107.00	990.00	894.00	819.00	837.00	762.00	691.00	636.00	774.00	904.00	945.00	1013.00	1057.00	715.00	822.00	804.00	887.00	859.00	772.00	755.00	731.00	675.00	866.00	894.00	981.00	1075.00	1211.00	1153.00	1190.00	1376.00	1490.00	1612.00	1693.00	1667.00	1394.00	1354.00	1348.00	1328.00	1280.00	1117.00	1111.00	1085.00	1096.00	1035.00	780.00	755.00	740.00	702.00	663.00	648.00	634.00	626.00	625.00	594.00	575.00	565.00	566.00	585.00	558.00	556.00	550.00	549.00	551.00	538.00	532.00	516.00	493.00	491.00	492.00	492.00	482.00	485.00	475.00	474.00	488.00	489.00	487.00	487.00	466.00	468.00	491.00	481.00	466.00	465.00	464.00	472.00	502.00	499.00	489.00	485.00	500.00	514.00	520.00	538.00	536.00	540.00	553.00	543.00	517.00	511.00	506.00	497.00	493.00	484.00	478.00	472.00	471.00	492.00	495.00	493.00	495.00	489.00	484.00	480.00	485.00	482.00	485.00	496.00	497.00	508.00	518.00	523.00	529.00	527.00
933.00	952.00	949.00	929.00	916.00	944.00	963.00	947.00	900.00	913.00	898.00	888.00	882.00	877.00	873.00	868.00	867.00	866.00	864.00	933.00	967.00	928.00	880.00	854.00	837.00	833.00	830.00	828.00	824.00	847.00	871.00	840.00	847.00	910.00	840.00	812.00	797.00	852.00	921.00	851.00	780.00	836.00	890.00	803.00	790.00	831.00	905.00	954.00	990.00	988.00	822.00	823.00	826.00	827.00	831.00	843.00	869.00	902.00	931.00	937.00	1016.00	1068.00	1111.00	1109.00	1109.00	1113.00	1229.00	1283.00	1355.00	1367.00	1289.00	1310.00	1342.00	1235.00	1121.00	1030.00	996.00	1015.00	978.00	971.00	936.00	909.00	906.00	911.00	918.00	961.00	985.00	970.00	875.00	848.00	827.00	794.00	785.00	780.00	775.00	770.00	761.00	752.00	746.00	741.00	739.00	734.00	723.00	783.00	840.00	809.00	768.00	762.00	767.00	768.00	760.00	764.00	760.00	763.00	772.00	780.00	791.00	828.00	930.00	1020.00	1112.00	1181.00	1238.00	1195.00	1217.00	1290.00	1380.00	1082.00	969.00	952.00	1028.00	1154.00	1195.00	987.00	819.00	745.00	704.00	713.00	673.00	627.00	635.00	633.00	637.00	723.00	696.00	688.00	680.00	657.00	644.00	674.00	656.00	631.00	641.00	653.00	696.00	754.00	811.00	873.00	1026.00	1020.00	1149.00	1225.00	1265.00	1402.00	1450.00	1400.00	1497.00	1689.00	1737.00	1693.00	1626.00	1432.00	1360.00	1239.00	1075.00	979.00	848.00	790.00	774.00	728.00	679.00	689.00	682.00	658.00	645.00	607.00	581.00	573.00	568.00	541.00	535.00	529.00	524.00	521.00	520.00	514.00	523.00	523.00	517.00	509.00	502.00	492.00	483.00	504.00	485.00	471.00	486.00	468.00	468.00	466.00	466.00	479.00	502.00	495.00	482.00	479.00	480.00	488.00	511.00	512.00	514.00	505.00	500.00	506.00	518.00	550.00	549.00	539.00	532.00	516.00	514.00	516.00	515.00	512.00	516.00	511.00	514.00	510.00	501.00	474.00	482.00	497.00	509.00	494.00	487.00	489.00	500.00	505.00	489.00	495.00	502.00	496.00	496.00	503.00	512.00	508.00
