739.00	739.00	734.00	726.00	720.00	713.00	712.00	715.00	708.00	708.00	710.00	709.00	710.00	712.00	713.00	711.00	705.00	702.00	700.00	699.00	697.00	696.00	695.00	694.00	692.00	692.00	692.00	698.00	701.00	706.00	703.00	701.00	698.00	700.00	701.00	698.00	696.00	699.00	701.00	704.00	706.00	701.00	698.00	691.00	690.00	686.00	680.00	681.00	681.00	682.00	682.00	680.00	666.00	659.00	664.00	672.00	678.00	682.00	679.00	676.00	666.00	662.00	664.00	665.00	665.00	667.00	659.00	652.00	650.00	657.00	670.00	667.00	666.00	663.00	661.00	661.00	661.00	658.00	656.00	661.00	662.00	658.00	665.00	671.00	672.00	670.00	671.00	668.00	675.00	677.00	681.00	681.00	677.00	685.00	686.00	686.00	688.00	686.00	684.00	682.00	678.00	672.00	659.00	657.00	655.00	645.00	652.00	653.00	655.00	656.00	656.00	658.00	665.00	667.00	669.00	671.00	668.00	663.00	661.00	656.00	661.00	655.00	662.00	658.00	663.00	661.00	662.00	658.00	659.00	665.00	660.00	668.00	674.00	673.00	673.00	667.00	670.00	671.00	674.00	677.00	670.00	667.00	666.00	665.00	672.00	671.00	676.00	681.00	682.00	683.00	680.00	668.00	666.00	675.00	680.00	673.00	673.00	670.00	668.00	667.00	660.00	656.00	650.00	640.00	640.00	634.00	632.00	632.00	633.00	630.00	627.00	624.00	622.00	618.00	617.00	614.00	612.00	610.00	607.00	602.00	602.00	603.00	599.00	598.00	596.00	596.00	593.00	590.00	587.00	582.00	585.00	584.00	583.00	581.00	581.00	580.00	578.00	576.00	576.00	574.00	572.00	567.00	566.00	562.00	556.00	531.00	529.00	496.00	492.00	514.00	528.00	539.00	544.00	546.00	547.00	546.00	543.00	542.00	523.00	508.00	497.00	481.00	476.00	479.00	496.00	513.00	521.00	533.00	535.00	536.00	535.00	536.00	536.00	534.00	532.00	529.00	523.00	521.00	522.00	524.00	525.00	521.00	520.00	518.00	513.00	505.00	501.00	496.00	494.00	499.00	498.00	496.00	494.00	495.00	495.00	496.00
739.00	739.00	734.00	726.00	720.00	713.00	712.00	715.00	708.00	708.00	710.00	709.00	710.00	712.00	713.00	711.00	705.00	702.00	700.00	699.00	697.00	696.00	695.00	694.00	692.00	692.00	692.00	698.00	701.00	706.00	703.00	701.00	698.00	700.00	701.00	698.00	696.00	699.00	701.00	704.00	706.00	701.00	698.00	691.00	690.00	686.00	680.00	681.00	681.00	682.00	682.00	680.00	666.00	659.00	664.00	672.00	678.00	682.00	679.00	676.00	666.00	662.00	664.00	665.00	665.00	667.00	659.00	652.00	650.00	657.00	670.00	667.00	666.00	663.00	661.00	661.00	661.00	658.00	656.00	661.00	662.00	658.00	665.00	671.00	672.00	670.00	671.00	668.00	675.00	677.00	681.00	681.00	677.00	685.00	686.00	686.00	688.00	686.00	684.00	682.00	678.00	672.00	659.00	657.00	655.00	645.00	652.00	653.00	655.00	656.00	656.00	658.00	665.00	667.00	669.00	671.00	668.00	663.00	661.00	656.00	661.00	655.00	662.00	658.00	663.00	661.00	662.00	658.00	659.00	665.00	660.00	668.00	674.00	673.00	673.00	667.00	670.00	671.00	674.00	677.00	670.00	667.00	666.00	665.00	672.00	671.00	676.00	681.00	682.00	683.00	680.00	668.00	666.00	675.00	680.00	673.00	673.00	670.00	668.00	667.00	660.00	656.00	650.00	640.00	640.00	634.00	632.00	632.00	633.00	630.00	627.00	624.00	622.00	618.00	617.00	614.00	612.00	610.00	607.00	602.00	602.00	603.00	599.00	598.00	596.00	596.00	593.00	590.00	587.00	582.00	585.00	584.00	583.00	581.00	581.00	580.00	578.00	576.00	576.00	574.00	572.00	567.00	566.00	562.00	556.00	531.00	529.00	496.00	492.00	514.00	528.00	539.00	544.00	546.00	547.00	546.00	543.00	542.00	523.00	508.00	497.00	481.00	476.00	479.00	496.00	513.00	521.00	533.00	535.00	536.00	535.00	536.00	536.00	534.00	532.00	529.00	523.00	521.00	522.00	524.00	525.00	521.00	520.00	518.00	513.00	505.00	501.00	496.00	494.00	499.00	498.00	496.00	494.00	495.00	495.00	496.00
741.00	738.00	735.00	724.00	717.00	712.00	714.00	715.00	708.00	709.00	711.00	709.00	716.00	720.00	722.00	720.00	714.00	710.00	706.00	704.00	700.00	700.00	697.00	696.00	695.00	690.00	692.00	698.00	701.00	710.00	702.00	697.00	697.00	699.00	695.00	695.00	694.00	696.00	701.00	703.00	702.00	694.00	692.00	686.00	685.00	681.00	679.00	680.00	682.00	680.00	679.00	677.00	661.00	659.00	673.00	679.00	681.00	680.00	678.00	680.00	678.00	668.00	672.00	668.00	666.00	664.00	664.00	666.00	668.00	670.00	669.00	666.00	664.00	659.00	657.00	661.00	661.00	657.00	656.00	658.00	657.00	660.00	667.00	670.00	672.00	676.00	675.00	672.00	678.00	676.00	679.00	678.00	674.00	680.00	684.00	684.00	680.00	678.00	678.00	672.00	663.00	658.00	657.00	654.00	650.00	646.00	652.00	652.00	654.00	654.00	655.00	662.00	664.00	666.00	665.00	663.00	664.00	662.00	664.00	666.00	661.00	659.00	656.00	658.00	656.00	658.00	660.00	664.00	660.00	658.00	663.00	667.00	663.00	663.00	669.00	672.00	665.00	672.00	676.00	672.00	673.00	667.00	667.00	668.00	674.00	675.00	676.00	683.00	686.00	686.00	684.00	671.00	669.00	677.00	682.00	677.00	676.00	674.00	670.00	668.00	666.00	663.00	657.00	649.00	641.00	637.00	635.00	634.00	635.00	631.00	629.00	626.00	624.00	621.00	619.00	616.00	614.00	612.00	606.00	604.00	605.00	604.00	600.00	599.00	598.00	597.00	594.00	591.00	587.00	585.00	587.00	585.00	584.00	582.00	581.00	580.00	577.00	576.00	574.00	571.00	556.00	546.00	543.00	542.00	534.00	525.00	516.00	505.00	492.00	510.00	517.00	529.00	540.00	543.00	545.00	546.00	544.00	543.00	535.00	525.00	518.00	501.00	479.00	478.00	487.00	502.00	519.00	535.00	541.00	541.00	538.00	537.00	536.00	534.00	534.00	533.00	529.00	527.00	524.00	521.00	524.00	521.00	520.00	519.00	516.00	511.00	505.00	502.00	498.00	495.00	499.00	497.00	493.00	493.00	496.00	496.00
741.00	738.00	735.00	724.00	717.00	712.00	714.00	715.00	708.00	709.00	711.00	709.00	716.00	720.00	722.00	720.00	714.00	710.00	706.00	704.00	700.00	700.00	697.00	696.00	695.00	690.00	692.00	698.00	701.00	710.00	702.00	697.00	697.00	699.00	695.00	695.00	694.00	696.00	701.00	703.00	702.00	694.00	692.00	686.00	685.00	681.00	679.00	680.00	682.00	680.00	679.00	677.00	661.00	659.00	673.00	679.00	681.00	680.00	678.00	680.00	678.00	668.00	672.00	668.00	666.00	664.00	664.00	666.00	668.00	670.00	669.00	666.00	664.00	659.00	657.00	661.00	661.00	657.00	656.00	658.00	657.00	660.00	667.00	670.00	672.00	676.00	675.00	672.00	678.00	676.00	679.00	678.00	674.00	680.00	684.00	684.00	680.00	678.00	678.00	672.00	663.00	658.00	657.00	654.00	650.00	646.00	652.00	652.00	654.00	654.00	655.00	662.00	664.00	666.00	665.00	663.00	664.00	662.00	664.00	666.00	661.00	659.00	656.00	658.00	656.00	658.00	660.00	664.00	660.00	658.00	663.00	667.00	663.00	663.00	669.00	672.00	665.00	672.00	676.00	672.00	673.00	667.00	667.00	668.00	674.00	675.00	676.00	683.00	686.00	686.00	684.00	671.00	669.00	677.00	682.00	677.00	676.00	674.00	670.00	668.00	666.00	663.00	657.00	649.00	641.00	637.00	635.00	634.00	635.00	631.00	629.00	626.00	624.00	621.00	619.00	616.00	614.00	612.00	606.00	604.00	605.00	604.00	600.00	599.00	598.00	597.00	594.00	591.00	587.00	585.00	587.00	585.00	584.00	582.00	581.00	580.00	577.00	576.00	574.00	571.00	556.00	546.00	543.00	542.00	534.00	525.00	516.00	505.00	492.00	510.00	517.00	529.00	540.00	543.00	545.00	546.00	544.00	543.00	535.00	525.00	518.00	501.00	479.00	478.00	487.00	502.00	519.00	535.00	541.00	541.00	538.00	537.00	536.00	534.00	534.00	533.00	529.00	527.00	524.00	521.00	524.00	521.00	520.00	519.00	516.00	511.00	505.00	502.00	498.00	495.00	499.00	497.00	493.00	493.00	496.00	496.00
729.00	726.00	720.00	718.00	718.00	719.00	721.00	723.00	724.00	725.00	727.00	724.00	724.00	727.00	729.00	728.00	722.00	717.00	713.00	710.00	707.00	705.00	702.00	698.00	699.00	699.00	702.00	708.00	706.00	713.00	705.00	702.00	699.00	697.00	699.00	699.00	700.00	697.00	695.00	690.00	688.00	684.00	676.00	675.00	677.00	680.00	680.00	677.00	670.00	667.00	665.00	659.00	668.00	677.00	681.00	683.00	681.00	677.00	681.00	681.00	677.00	677.00	679.00	680.00	689.00	692.00	686.00	678.00	675.00	674.00	667.00	667.00	668.00	665.00	668.00	660.00	656.00	650.00	649.00	650.00	658.00	661.00	665.00	665.00	660.00	666.00	672.00	679.00	685.00	684.00	683.00	684.00	673.00	663.00	666.00	663.00	656.00	647.00	650.00	652.00	653.00	655.00	645.00	644.00	645.00	647.00	646.00	645.00	651.00	651.00	649.00	653.00	655.00	656.00	659.00	662.00	666.00	666.00	666.00	663.00	664.00	661.00	656.00	657.00	663.00	663.00	664.00	664.00	658.00	672.00	677.00	671.00	662.00	680.00	677.00	676.00	675.00	669.00	663.00	676.00	674.00	667.00	663.00	665.00	673.00	672.00	677.00	676.00	674.00	681.00	687.00	677.00	667.00	670.00	677.00	680.00	681.00	678.00	678.00	676.00	671.00	666.00	661.00	657.00	651.00	647.00	649.00	649.00	644.00	637.00	634.00	632.00	628.00	623.00	622.00	618.00	615.00	612.00	611.00	610.00	608.00	606.00	603.00	600.00	600.00	598.00	596.00	594.00	594.00	593.00	592.00	588.00	588.00	586.00	584.00	583.00	580.00	576.00	565.00	558.00	573.00	571.00	569.00	564.00	560.00	555.00	555.00	540.00	518.00	490.00	489.00	491.00	497.00	507.00	523.00	534.00	535.00	541.00	538.00	529.00	523.00	514.00	500.00	476.00	478.00	488.00	502.00	531.00	537.00	539.00	538.00	538.00	536.00	535.00	537.00	535.00	535.00	534.00	523.00	525.00	523.00	524.00	524.00	523.00	522.00	516.00	515.00	512.00	506.00	495.00	498.00	497.00	495.00	493.00	494.00	494.00
729.00	726.00	720.00	718.00	718.00	719.00	721.00	723.00	724.00	725.00	727.00	724.00	724.00	727.00	729.00	728.00	722.00	717.00	713.00	710.00	707.00	705.00	702.00	698.00	699.00	699.00	702.00	708.00	706.00	713.00	705.00	702.00	699.00	697.00	699.00	699.00	700.00	697.00	695.00	690.00	688.00	684.00	676.00	675.00	677.00	680.00	680.00	677.00	670.00	667.00	665.00	659.00	668.00	677.00	681.00	683.00	681.00	677.00	681.00	681.00	677.00	677.00	679.00	680.00	689.00	692.00	686.00	678.00	675.00	674.00	667.00	667.00	668.00	665.00	668.00	660.00	656.00	650.00	649.00	650.00	658.00	661.00	665.00	665.00	660.00	666.00	672.00	679.00	685.00	684.00	683.00	684.00	673.00	663.00	666.00	663.00	656.00	647.00	650.00	652.00	653.00	655.00	645.00	644.00	645.00	647.00	646.00	645.00	651.00	651.00	649.00	653.00	655.00	656.00	659.00	662.00	666.00	666.00	666.00	663.00	664.00	661.00	656.00	657.00	663.00	663.00	664.00	664.00	658.00	672.00	677.00	671.00	662.00	680.00	677.00	676.00	675.00	669.00	663.00	676.00	674.00	667.00	663.00	665.00	673.00	672.00	677.00	676.00	674.00	681.00	687.00	677.00	667.00	670.00	677.00	680.00	681.00	678.00	678.00	676.00	671.00	666.00	661.00	657.00	651.00	647.00	649.00	649.00	644.00	637.00	634.00	632.00	628.00	623.00	622.00	618.00	615.00	612.00	611.00	610.00	608.00	606.00	603.00	600.00	600.00	598.00	596.00	594.00	594.00	593.00	592.00	588.00	588.00	586.00	584.00	583.00	580.00	576.00	565.00	558.00	573.00	571.00	569.00	564.00	560.00	555.00	555.00	540.00	518.00	490.00	489.00	491.00	497.00	507.00	523.00	534.00	535.00	541.00	538.00	529.00	523.00	514.00	500.00	476.00	478.00	488.00	502.00	531.00	537.00	539.00	538.00	538.00	536.00	535.00	537.00	535.00	535.00	534.00	523.00	525.00	523.00	524.00	524.00	523.00	522.00	516.00	515.00	512.00	506.00	495.00	498.00	497.00	495.00	493.00	494.00	494.00
713.00	713.00	714.00	726.00	727.00	727.00	725.00	728.00	739.00	736.00	737.00	732.00	723.00	724.00	730.00	733.00	727.00	726.00	723.00	717.00	714.00	712.00	705.00	705.00	708.00	705.00	703.00	703.00	710.00	714.00	706.00	702.00	702.00	701.00	701.00	701.00	702.00	698.00	697.00	687.00	682.00	678.00	670.00	667.00	664.00	663.00	658.00	656.00	655.00	657.00	655.00	655.00	665.00	668.00	671.00	676.00	676.00	676.00	679.00	681.00	680.00	680.00	680.00	680.00	690.00	697.00	689.00	680.00	673.00	669.00	666.00	664.00	672.00	668.00	664.00	658.00	653.00	655.00	661.00	655.00	661.00	663.00	658.00	658.00	672.00	672.00	678.00	682.00	684.00	683.00	683.00	680.00	672.00	662.00	655.00	645.00	642.00	651.00	654.00	655.00	654.00	652.00	643.00	643.00	646.00	645.00	653.00	647.00	644.00	646.00	649.00	654.00	654.00	656.00	656.00	664.00	668.00	663.00	664.00	663.00	657.00	652.00	651.00	657.00	672.00	676.00	668.00	659.00	657.00	672.00	675.00	676.00	669.00	682.00	677.00	669.00	665.00	662.00	667.00	675.00	671.00	666.00	663.00	664.00	668.00	673.00	674.00	674.00	675.00	677.00	682.00	680.00	668.00	671.00	681.00	682.00	683.00	680.00	679.00	677.00	673.00	670.00	667.00	661.00	654.00	647.00	647.00	645.00	642.00	635.00	631.00	631.00	630.00	627.00	624.00	620.00	617.00	613.00	612.00	611.00	608.00	607.00	605.00	604.00	602.00	601.00	599.00	596.00	595.00	594.00	592.00	590.00	588.00	587.00	585.00	582.00	570.00	568.00	569.00	575.00	575.00	574.00	572.00	569.00	563.00	562.00	560.00	536.00	515.00	508.00	500.00	496.00	490.00	488.00	501.00	508.00	517.00	515.00	516.00	508.00	516.00	516.00	514.00	476.00	477.00	481.00	498.00	529.00	531.00	536.00	537.00	540.00	536.00	536.00	535.00	538.00	537.00	537.00	529.00	522.00	521.00	525.00	525.00	524.00	523.00	519.00	518.00	517.00	512.00	503.00	494.00	495.00	497.00	495.00	493.00	494.00
713.00	721.00	728.00	731.00	731.00	732.00	733.00	736.00	746.00	745.00	744.00	739.00	728.00	732.00	738.00	737.00	732.00	735.00	735.00	728.00	722.00	714.00	710.00	710.00	714.00	710.00	708.00	708.00	709.00	714.00	711.00	708.00	705.00	703.00	704.00	705.00	703.00	702.00	699.00	680.00	677.00	676.00	671.00	655.00	657.00	661.00	660.00	666.00	665.00	666.00	666.00	665.00	669.00	673.00	668.00	667.00	669.00	672.00	677.00	680.00	681.00	680.00	680.00	680.00	686.00	693.00	689.00	679.00	674.00	674.00	667.00	668.00	668.00	668.00	669.00	664.00	664.00	658.00	656.00	659.00	658.00	657.00	656.00	660.00	670.00	677.00	680.00	680.00	679.00	679.00	677.00	675.00	666.00	654.00	651.00	652.00	654.00	648.00	648.00	646.00	646.00	645.00	642.00	645.00	649.00	652.00	653.00	644.00	643.00	641.00	645.00	653.00	655.00	654.00	656.00	665.00	665.00	662.00	658.00	653.00	650.00	649.00	651.00	658.00	665.00	662.00	659.00	655.00	655.00	667.00	673.00	678.00	681.00	678.00	672.00	664.00	660.00	659.00	669.00	675.00	675.00	671.00	665.00	667.00	667.00	672.00	676.00	678.00	675.00	680.00	677.00	672.00	666.00	668.00	684.00	687.00	685.00	680.00	678.00	678.00	674.00	671.00	669.00	668.00	664.00	651.00	649.00	648.00	646.00	642.00	634.00	629.00	629.00	627.00	625.00	620.00	618.00	617.00	616.00	614.00	613.00	610.00	606.00	605.00	605.00	604.00	601.00	598.00	596.00	595.00	594.00	589.00	586.00	584.00	583.00	582.00	582.00	581.00	581.00	579.00	576.00	574.00	572.00	570.00	568.00	565.00	559.00	535.00	547.00	537.00	527.00	522.00	501.00	505.00	489.00	487.00	488.00	489.00	489.00	486.00	487.00	488.00	491.00	479.00	476.00	476.00	486.00	526.00	525.00	528.00	532.00	535.00	535.00	531.00	531.00	533.00	537.00	536.00	532.00	527.00	523.00	520.00	523.00	525.00	525.00	521.00	521.00	520.00	519.00	510.00	499.00	492.00	496.00	495.00	492.00	494.00
716.00	722.00	728.00	733.00	736.00	739.00	743.00	745.00	746.00	751.00	747.00	740.00	731.00	731.00	732.00	732.00	739.00	738.00	742.00	736.00	731.00	718.00	711.00	715.00	718.00	714.00	712.00	715.00	712.00	716.00	718.00	717.00	714.00	713.00	708.00	705.00	703.00	699.00	696.00	685.00	685.00	675.00	662.00	656.00	666.00	678.00	674.00	674.00	677.00	677.00	678.00	678.00	665.00	672.00	670.00	662.00	668.00	676.00	677.00	678.00	679.00	679.00	680.00	681.00	685.00	688.00	686.00	680.00	677.00	674.00	670.00	673.00	676.00	675.00	674.00	673.00	670.00	665.00	660.00	664.00	666.00	658.00	659.00	660.00	669.00	671.00	674.00	677.00	674.00	675.00	673.00	668.00	662.00	658.00	664.00	661.00	653.00	649.00	644.00	637.00	638.00	638.00	647.00	649.00	651.00	653.00	651.00	649.00	644.00	645.00	650.00	655.00	656.00	657.00	658.00	665.00	662.00	662.00	659.00	645.00	644.00	649.00	654.00	656.00	659.00	661.00	660.00	656.00	654.00	666.00	668.00	669.00	675.00	667.00	667.00	670.00	661.00	661.00	665.00	669.00	672.00	675.00	668.00	668.00	667.00	667.00	672.00	673.00	673.00	672.00	671.00	666.00	664.00	674.00	684.00	687.00	683.00	683.00	680.00	678.00	674.00	672.00	671.00	669.00	663.00	657.00	657.00	656.00	653.00	643.00	634.00	632.00	630.00	627.00	628.00	619.00	620.00	620.00	618.00	616.00	615.00	613.00	609.00	608.00	607.00	606.00	602.00	599.00	598.00	597.00	594.00	589.00	590.00	589.00	588.00	587.00	585.00	582.00	582.00	581.00	577.00	576.00	575.00	572.00	569.00	551.00	548.00	557.00	542.00	518.00	509.00	510.00	518.00	527.00	510.00	497.00	495.00	489.00	485.00	490.00	487.00	483.00	481.00	481.00	478.00	477.00	483.00	525.00	525.00	523.00	524.00	528.00	528.00	534.00	540.00	542.00	536.00	536.00	534.00	531.00	525.00	518.00	523.00	527.00	526.00	524.00	524.00	524.00	522.00	514.00	505.00	496.00	491.00	495.00	490.00	494.00
715.00	720.00	723.00	731.00	733.00	739.00	745.00	749.00	748.00	746.00	747.00	748.00	740.00	738.00	737.00	741.00	743.00	739.00	742.00	740.00	739.00	722.00	719.00	717.00	722.00	718.00	714.00	717.00	718.00	717.00	723.00	724.00	717.00	713.00	707.00	703.00	698.00	696.00	693.00	682.00	678.00	660.00	654.00	676.00	674.00	683.00	685.00	680.00	684.00	682.00	682.00	681.00	670.00	668.00	667.00	662.00	669.00	673.00	669.00	670.00	677.00	676.00	677.00	677.00	677.00	683.00	679.00	677.00	667.00	660.00	663.00	674.00	680.00	684.00	686.00	669.00	666.00	672.00	664.00	670.00	672.00	660.00	657.00	658.00	662.00	668.00	671.00	673.00	668.00	669.00	664.00	658.00	658.00	657.00	661.00	660.00	655.00	653.00	651.00	647.00	643.00	642.00	648.00	650.00	651.00	654.00	650.00	650.00	651.00	650.00	653.00	657.00	656.00	661.00	663.00	665.00	659.00	655.00	639.00	634.00	649.00	658.00	658.00	656.00	659.00	670.00	665.00	655.00	653.00	659.00	654.00	654.00	658.00	662.00	658.00	661.00	660.00	660.00	656.00	658.00	666.00	665.00	668.00	664.00	665.00	665.00	667.00	668.00	665.00	667.00	662.00	660.00	662.00	673.00	682.00	686.00	686.00	686.00	686.00	679.00	675.00	674.00	673.00	671.00	663.00	663.00	663.00	663.00	657.00	647.00	640.00	634.00	633.00	627.00	629.00	624.00	624.00	623.00	619.00	617.00	616.00	615.00	612.00	610.00	608.00	606.00	603.00	600.00	599.00	597.00	595.00	592.00	592.00	590.00	589.00	587.00	583.00	581.00	580.00	579.00	578.00	576.00	573.00	566.00	565.00	567.00	566.00	552.00	534.00	530.00	540.00	546.00	545.00	528.00	529.00	519.00	522.00	527.00	502.00	500.00	512.00	503.00	493.00	480.00	478.00	479.00	484.00	528.00	525.00	523.00	524.00	523.00	525.00	531.00	537.00	541.00	543.00	541.00	537.00	533.00	534.00	524.00	523.00	526.00	527.00	527.00	526.00	526.00	524.00	517.00	506.00	498.00	492.00	493.00	490.00	495.00
726.00	731.00	730.00	737.00	741.00	742.00	750.00	757.00	748.00	749.00	750.00	753.00	746.00	746.00	748.00	750.00	746.00	740.00	741.00	738.00	737.00	729.00	725.00	722.00	725.00	721.00	721.00	720.00	720.00	717.00	724.00	722.00	719.00	714.00	708.00	703.00	699.00	697.00	699.00	672.00	667.00	655.00	654.00	685.00	686.00	685.00	686.00	683.00	686.00	684.00	684.00	682.00	672.00	669.00	666.00	663.00	661.00	663.00	662.00	662.00	666.00	668.00	665.00	667.00	665.00	666.00	663.00	662.00	663.00	662.00	665.00	676.00	681.00	685.00	690.00	671.00	666.00	669.00	677.00	676.00	678.00	659.00	654.00	651.00	659.00	666.00	665.00	665.00	660.00	659.00	654.00	653.00	656.00	657.00	654.00	654.00	654.00	655.00	653.00	651.00	645.00	643.00	650.00	655.00	656.00	654.00	651.00	653.00	654.00	657.00	657.00	656.00	659.00	666.00	670.00	661.00	646.00	634.00	633.00	638.00	653.00	657.00	660.00	654.00	654.00	662.00	660.00	652.00	647.00	642.00	646.00	649.00	648.00	651.00	651.00	655.00	656.00	656.00	648.00	657.00	662.00	665.00	660.00	658.00	660.00	660.00	655.00	666.00	662.00	658.00	651.00	662.00	664.00	672.00	689.00	685.00	686.00	685.00	686.00	682.00	677.00	675.00	675.00	673.00	665.00	669.00	668.00	664.00	661.00	650.00	646.00	644.00	641.00	631.00	630.00	628.00	626.00	625.00	620.00	620.00	618.00	617.00	614.00	612.00	611.00	608.00	606.00	600.00	599.00	598.00	596.00	595.00	593.00	592.00	590.00	589.00	585.00	582.00	580.00	579.00	577.00	574.00	574.00	574.00	572.00	561.00	556.00	533.00	527.00	557.00	560.00	559.00	556.00	544.00	552.00	547.00	541.00	548.00	501.00	521.00	529.00	522.00	509.00	484.00	479.00	479.00	486.00	528.00	526.00	526.00	525.00	525.00	525.00	527.00	531.00	534.00	545.00	548.00	540.00	536.00	534.00	528.00	524.00	524.00	527.00	527.00	526.00	525.00	523.00	518.00	508.00	502.00	491.00	492.00	490.00	493.00
728.00	734.00	732.00	733.00	739.00	744.00	748.00	753.00	743.00	748.00	751.00	751.00	747.00	749.00	751.00	756.00	743.00	742.00	738.00	736.00	735.00	733.00	728.00	727.00	728.00	729.00	725.00	722.00	720.00	716.00	724.00	722.00	724.00	722.00	716.00	714.00	709.00	703.00	699.00	682.00	662.00	654.00	667.00	690.00	689.00	689.00	687.00	687.00	689.00	686.00	685.00	682.00	675.00	673.00	673.00	668.00	667.00	661.00	662.00	658.00	663.00	663.00	666.00	663.00	667.00	664.00	668.00	666.00	667.00	670.00	672.00	667.00	673.00	678.00	684.00	674.00	673.00	670.00	676.00	679.00	676.00	660.00	650.00	648.00	648.00	651.00	655.00	658.00	655.00	653.00	652.00	651.00	654.00	653.00	653.00	654.00	656.00	652.00	650.00	644.00	642.00	644.00	652.00	655.00	654.00	653.00	652.00	655.00	658.00	658.00	657.00	658.00	667.00	671.00	666.00	638.00	637.00	641.00	650.00	656.00	660.00	660.00	666.00	656.00	652.00	657.00	656.00	644.00	639.00	649.00	655.00	656.00	654.00	647.00	642.00	642.00	644.00	644.00	644.00	655.00	657.00	658.00	657.00	653.00	646.00	647.00	648.00	654.00	656.00	650.00	647.00	667.00	667.00	674.00	684.00	688.00	689.00	688.00	687.00	685.00	680.00	678.00	678.00	671.00	671.00	670.00	670.00	665.00	661.00	654.00	651.00	649.00	644.00	639.00	636.00	630.00	628.00	625.00	622.00	621.00	619.00	618.00	615.00	613.00	612.00	609.00	605.00	602.00	602.00	600.00	600.00	596.00	594.00	593.00	592.00	591.00	586.00	584.00	582.00	580.00	578.00	575.00	574.00	566.00	555.00	553.00	550.00	540.00	542.00	565.00	564.00	562.00	560.00	555.00	558.00	556.00	552.00	550.00	527.00	540.00	539.00	529.00	518.00	489.00	480.00	479.00	482.00	524.00	528.00	526.00	522.00	521.00	524.00	526.00	527.00	530.00	538.00	542.00	545.00	541.00	539.00	529.00	526.00	528.00	530.00	526.00	525.00	524.00	521.00	517.00	510.00	505.00	495.00	491.00	492.00	493.00
720.00	732.00	733.00	741.00	744.00	748.00	751.00	750.00	741.00	739.00	745.00	744.00	740.00	741.00	743.00	740.00	747.00	739.00	730.00	733.00	730.00	734.00	729.00	727.00	733.00	721.00	724.00	724.00	720.00	715.00	723.00	727.00	730.00	732.00	723.00	718.00	712.00	703.00	694.00	677.00	656.00	658.00	671.00	688.00	695.00	695.00	693.00	690.00	688.00	686.00	685.00	683.00	683.00	681.00	679.00	677.00	672.00	661.00	661.00	661.00	669.00	672.00	669.00	669.00	673.00	673.00	673.00	678.00	680.00	683.00	675.00	677.00	679.00	676.00	677.00	673.00	671.00	677.00	678.00	680.00	676.00	666.00	653.00	649.00	638.00	637.00	641.00	649.00	648.00	648.00	648.00	652.00	652.00	652.00	653.00	653.00	653.00	651.00	645.00	641.00	642.00	645.00	651.00	652.00	653.00	653.00	654.00	656.00	657.00	658.00	660.00	661.00	668.00	664.00	652.00	634.00	644.00	652.00	657.00	661.00	665.00	665.00	664.00	653.00	652.00	658.00	649.00	640.00	647.00	639.00	646.00	654.00	654.00	635.00	637.00	636.00	637.00	633.00	626.00	625.00	629.00	637.00	648.00	645.00	633.00	638.00	643.00	649.00	643.00	644.00	652.00	669.00	671.00	669.00	673.00	689.00	689.00	691.00	689.00	687.00	683.00	685.00	680.00	675.00	678.00	673.00	671.00	668.00	665.00	656.00	656.00	653.00	651.00	647.00	644.00	634.00	629.00	626.00	622.00	621.00	620.00	619.00	617.00	615.00	613.00	611.00	607.00	604.00	604.00	602.00	601.00	599.00	596.00	595.00	593.00	592.00	587.00	584.00	582.00	581.00	577.00	564.00	562.00	564.00	572.00	563.00	553.00	557.00	564.00	567.00	566.00	564.00	563.00	560.00	559.00	557.00	554.00	547.00	535.00	551.00	546.00	537.00	536.00	502.00	485.00	479.00	479.00	508.00	522.00	528.00	524.00	516.00	524.00	524.00	524.00	525.00	529.00	535.00	543.00	544.00	540.00	533.00	528.00	526.00	530.00	528.00	525.00	523.00	519.00	516.00	509.00	506.00	501.00	495.00	490.00	495.00
721.00	727.00	734.00	752.00	758.00	756.00	748.00	742.00	737.00	736.00	737.00	739.00	731.00	731.00	734.00	736.00	738.00	733.00	725.00	735.00	728.00	725.00	726.00	724.00	720.00	715.00	720.00	721.00	719.00	713.00	728.00	734.00	736.00	736.00	724.00	717.00	708.00	700.00	700.00	666.00	655.00	670.00	683.00	685.00	694.00	699.00	697.00	694.00	688.00	687.00	686.00	686.00	687.00	685.00	683.00	680.00	676.00	663.00	662.00	667.00	676.00	679.00	679.00	675.00	679.00	682.00	683.00	680.00	686.00	693.00	683.00	683.00	682.00	681.00	681.00	674.00	676.00	680.00	682.00	680.00	675.00	666.00	660.00	648.00	632.00	630.00	630.00	633.00	642.00	644.00	646.00	650.00	651.00	651.00	651.00	650.00	651.00	648.00	641.00	643.00	646.00	646.00	651.00	652.00	654.00	654.00	659.00	659.00	663.00	660.00	656.00	668.00	655.00	644.00	641.00	644.00	656.00	658.00	659.00	669.00	666.00	664.00	657.00	646.00	644.00	642.00	643.00	647.00	648.00	648.00	652.00	650.00	652.00	649.00	646.00	648.00	640.00	631.00	646.00	643.00	638.00	629.00	634.00	636.00	640.00	642.00	641.00	644.00	642.00	652.00	663.00	665.00	670.00	671.00	676.00	694.00	694.00	694.00	691.00	689.00	687.00	684.00	682.00	682.00	685.00	680.00	676.00	670.00	668.00	661.00	658.00	656.00	653.00	649.00	645.00	637.00	633.00	629.00	625.00	624.00	622.00	620.00	617.00	618.00	615.00	613.00	610.00	607.00	606.00	604.00	602.00	600.00	599.00	596.00	595.00	593.00	588.00	586.00	578.00	568.00	569.00	572.00	577.00	576.00	574.00	564.00	567.00	572.00	570.00	571.00	569.00	566.00	563.00	563.00	560.00	559.00	556.00	553.00	526.00	545.00	552.00	549.00	545.00	513.00	492.00	481.00	477.00	489.00	503.00	513.00	526.00	521.00	521.00	522.00	520.00	522.00	525.00	528.00	534.00	538.00	543.00	535.00	532.00	531.00	524.00	529.00	526.00	524.00	520.00	515.00	508.00	508.00	503.00	499.00	492.00	491.00
721.00	727.00	734.00	752.00	758.00	756.00	748.00	742.00	737.00	736.00	737.00	739.00	731.00	731.00	734.00	736.00	738.00	733.00	725.00	735.00	728.00	725.00	726.00	724.00	720.00	715.00	720.00	721.00	719.00	713.00	728.00	734.00	736.00	736.00	724.00	717.00	708.00	700.00	700.00	666.00	655.00	670.00	683.00	685.00	694.00	699.00	697.00	694.00	688.00	687.00	686.00	686.00	687.00	685.00	683.00	680.00	676.00	663.00	662.00	667.00	676.00	679.00	679.00	675.00	679.00	682.00	683.00	680.00	686.00	693.00	683.00	683.00	682.00	681.00	681.00	674.00	676.00	680.00	682.00	680.00	675.00	666.00	660.00	648.00	632.00	630.00	630.00	633.00	642.00	644.00	646.00	650.00	651.00	651.00	651.00	650.00	651.00	648.00	641.00	643.00	646.00	646.00	651.00	652.00	654.00	654.00	659.00	659.00	663.00	660.00	656.00	668.00	655.00	644.00	641.00	644.00	656.00	658.00	659.00	669.00	666.00	664.00	657.00	646.00	644.00	642.00	643.00	647.00	648.00	648.00	652.00	650.00	652.00	649.00	646.00	648.00	640.00	631.00	646.00	643.00	638.00	629.00	634.00	636.00	640.00	642.00	641.00	644.00	642.00	652.00	663.00	665.00	670.00	671.00	676.00	694.00	694.00	694.00	691.00	689.00	687.00	684.00	682.00	682.00	685.00	680.00	676.00	670.00	668.00	661.00	658.00	656.00	653.00	649.00	645.00	637.00	633.00	629.00	625.00	624.00	622.00	620.00	617.00	618.00	615.00	613.00	610.00	607.00	606.00	604.00	602.00	600.00	599.00	596.00	595.00	593.00	588.00	586.00	578.00	568.00	569.00	572.00	577.00	576.00	574.00	564.00	567.00	572.00	570.00	571.00	569.00	566.00	563.00	563.00	560.00	559.00	556.00	553.00	526.00	545.00	552.00	549.00	545.00	513.00	492.00	481.00	477.00	489.00	503.00	513.00	526.00	521.00	521.00	522.00	520.00	522.00	525.00	528.00	534.00	538.00	543.00	535.00	532.00	531.00	524.00	529.00	526.00	524.00	520.00	515.00	508.00	508.00	503.00	499.00	492.00	491.00
731.00	735.00	740.00	750.00	752.00	752.00	747.00	742.00	734.00	734.00	732.00	730.00	725.00	727.00	728.00	730.00	732.00	731.00	724.00	727.00	724.00	719.00	719.00	718.00	713.00	708.00	708.00	713.00	714.00	712.00	726.00	732.00	737.00	737.00	721.00	712.00	709.00	708.00	706.00	655.00	658.00	677.00	690.00	693.00	694.00	697.00	698.00	696.00	689.00	687.00	686.00	687.00	687.00	683.00	679.00	676.00	669.00	665.00	669.00	675.00	681.00	681.00	684.00	680.00	683.00	685.00	685.00	684.00	683.00	687.00	690.00	690.00	685.00	687.00	686.00	680.00	680.00	681.00	681.00	676.00	674.00	663.00	653.00	645.00	634.00	632.00	629.00	628.00	632.00	636.00	643.00	649.00	652.00	648.00	646.00	647.00	647.00	643.00	640.00	644.00	646.00	648.00	650.00	653.00	655.00	655.00	660.00	663.00	665.00	657.00	652.00	663.00	651.00	640.00	646.00	657.00	660.00	657.00	659.00	668.00	659.00	658.00	656.00	643.00	649.00	652.00	650.00	653.00	649.00	646.00	647.00	646.00	643.00	656.00	653.00	646.00	641.00	626.00	643.00	642.00	642.00	635.00	636.00	637.00	637.00	637.00	636.00	639.00	644.00	649.00	651.00	663.00	669.00	677.00	677.00	690.00	694.00	692.00	693.00	692.00	689.00	688.00	688.00	688.00	685.00	684.00	677.00	675.00	673.00	665.00	661.00	658.00	657.00	651.00	647.00	639.00	635.00	632.00	630.00	628.00	627.00	625.00	616.00	616.00	613.00	612.00	610.00	609.00	606.00	605.00	604.00	601.00	600.00	598.00	597.00	595.00	588.00	580.00	582.00	581.00	581.00	580.00	579.00	575.00	568.00	576.00	575.00	574.00	572.00	571.00	569.00	566.00	564.00	563.00	558.00	553.00	553.00	549.00	539.00	552.00	553.00	552.00	550.00	517.00	514.00	494.00	480.00	480.00	483.00	492.00	500.00	509.00	510.00	521.00	520.00	520.00	522.00	525.00	529.00	530.00	532.00	537.00	535.00	535.00	532.00	529.00	526.00	524.00	522.00	515.00	509.00	507.00	505.00	502.00	496.00	492.00
739.00	734.00	734.00	731.00	730.00	734.00	738.00	741.00	746.00	736.00	727.00	718.00	712.00	716.00	719.00	720.00	724.00	727.00	743.00	737.00	730.00	716.00	707.00	708.00	706.00	706.00	709.00	709.00	708.00	708.00	711.00	716.00	722.00	725.00	716.00	705.00	694.00	682.00	681.00	669.00	654.00	664.00	675.00	693.00	693.00	690.00	690.00	691.00	686.00	679.00	678.00	676.00	675.00	672.00	673.00	682.00	689.00	680.00	679.00	682.00	688.00	687.00	687.00	686.00	687.00	686.00	687.00	688.00	686.00	688.00	698.00	700.00	694.00	691.00	688.00	688.00	686.00	685.00	682.00	675.00	671.00	661.00	655.00	650.00	640.00	639.00	629.00	624.00	619.00	624.00	639.00	646.00	649.00	642.00	641.00	638.00	637.00	642.00	645.00	649.00	649.00	650.00	655.00	660.00	665.00	660.00	657.00	659.00	661.00	663.00	656.00	654.00	644.00	648.00	654.00	654.00	649.00	652.00	654.00	652.00	651.00	643.00	638.00	636.00	650.00	648.00	648.00	652.00	652.00	657.00	656.00	654.00	655.00	643.00	637.00	629.00	624.00	620.00	627.00	634.00	640.00	642.00	646.00	648.00	638.00	638.00	640.00	650.00	649.00	655.00	659.00	668.00	675.00	680.00	680.00	684.00	684.00	686.00	686.00	690.00	691.00	687.00	684.00	687.00	686.00	684.00	679.00	676.00	675.00	671.00	669.00	669.00	671.00	662.00	658.00	650.00	643.00	641.00	639.00	636.00	633.00	631.00	624.00	623.00	622.00	620.00	617.00	612.00	610.00	607.00	601.00	597.00	593.00	595.00	594.00	593.00	590.00	591.00	589.00	588.00	584.00	583.00	583.00	582.00	581.00	577.00	575.00	573.00	572.00	568.00	570.00	569.00	567.00	565.00	564.00	563.00	563.00	561.00	554.00	550.00	551.00	552.00	553.00	551.00	548.00	539.00	517.00	480.00	478.00	478.00	477.00	479.00	483.00	491.00	502.00	510.00	518.00	522.00	523.00	522.00	525.00	522.00	515.00	516.00	514.00	513.00	512.00	515.00	514.00	519.00	515.00	507.00	503.00	505.00	498.00	495.00
739.00	734.00	734.00	731.00	730.00	734.00	738.00	741.00	746.00	736.00	727.00	718.00	712.00	716.00	719.00	720.00	724.00	727.00	743.00	737.00	730.00	716.00	707.00	708.00	706.00	706.00	709.00	709.00	708.00	708.00	711.00	716.00	722.00	725.00	716.00	705.00	694.00	682.00	681.00	669.00	654.00	664.00	675.00	693.00	693.00	690.00	690.00	691.00	686.00	679.00	678.00	676.00	675.00	672.00	673.00	682.00	689.00	680.00	679.00	682.00	688.00	687.00	687.00	686.00	687.00	686.00	687.00	688.00	686.00	688.00	698.00	700.00	694.00	691.00	688.00	688.00	686.00	685.00	682.00	675.00	671.00	661.00	655.00	650.00	640.00	639.00	629.00	624.00	619.00	624.00	639.00	646.00	649.00	642.00	641.00	638.00	637.00	642.00	645.00	649.00	649.00	650.00	655.00	660.00	665.00	660.00	657.00	659.00	661.00	663.00	656.00	654.00	644.00	648.00	654.00	654.00	649.00	652.00	654.00	652.00	651.00	643.00	638.00	636.00	650.00	648.00	648.00	652.00	652.00	657.00	656.00	654.00	655.00	643.00	637.00	629.00	624.00	620.00	627.00	634.00	640.00	642.00	646.00	648.00	638.00	638.00	640.00	650.00	649.00	655.00	659.00	668.00	675.00	680.00	680.00	684.00	684.00	686.00	686.00	690.00	691.00	687.00	684.00	687.00	686.00	684.00	679.00	676.00	675.00	671.00	669.00	669.00	671.00	662.00	658.00	650.00	643.00	641.00	639.00	636.00	633.00	631.00	624.00	623.00	622.00	620.00	617.00	612.00	610.00	607.00	601.00	597.00	593.00	595.00	594.00	593.00	590.00	591.00	589.00	588.00	584.00	583.00	583.00	582.00	581.00	577.00	575.00	573.00	572.00	568.00	570.00	569.00	567.00	565.00	564.00	563.00	563.00	561.00	554.00	550.00	551.00	552.00	553.00	551.00	548.00	539.00	517.00	480.00	478.00	478.00	477.00	479.00	483.00	491.00	502.00	510.00	518.00	522.00	523.00	522.00	525.00	522.00	515.00	516.00	514.00	513.00	512.00	515.00	514.00	519.00	515.00	507.00	503.00	505.00	498.00	495.00
733.00	731.00	728.00	725.00	727.00	731.00	736.00	741.00	746.00	738.00	728.00	715.00	710.00	715.00	716.00	717.00	719.00	723.00	736.00	732.00	731.00	714.00	704.00	700.00	700.00	705.00	706.00	707.00	707.00	708.00	712.00	713.00	718.00	721.00	717.00	706.00	696.00	686.00	668.00	662.00	654.00	667.00	677.00	684.00	684.00	686.00	691.00	686.00	675.00	672.00	673.00	679.00	676.00	677.00	681.00	687.00	694.00	681.00	681.00	684.00	689.00	688.00	687.00	688.00	687.00	686.00	685.00	687.00	689.00	691.00	698.00	696.00	692.00	691.00	693.00	691.00	690.00	686.00	684.00	677.00	672.00	663.00	657.00	652.00	634.00	629.00	629.00	619.00	615.00	618.00	636.00	648.00	648.00	637.00	636.00	637.00	637.00	644.00	649.00	651.00	650.00	647.00	651.00	656.00	662.00	666.00	655.00	653.00	661.00	659.00	650.00	639.00	643.00	651.00	653.00	651.00	654.00	659.00	655.00	648.00	637.00	627.00	622.00	639.00	648.00	649.00	651.00	653.00	654.00	652.00	651.00	652.00	650.00	638.00	631.00	624.00	617.00	617.00	636.00	646.00	650.00	643.00	653.00	654.00	654.00	654.00	653.00	659.00	659.00	660.00	658.00	668.00	673.00	678.00	678.00	682.00	682.00	680.00	679.00	681.00	683.00	684.00	683.00	683.00	688.00	682.00	679.00	676.00	674.00	678.00	677.00	677.00	675.00	670.00	664.00	656.00	648.00	647.00	644.00	640.00	636.00	635.00	629.00	626.00	624.00	622.00	619.00	614.00	612.00	610.00	606.00	602.00	602.00	600.00	600.00	599.00	592.00	591.00	591.00	589.00	587.00	586.00	584.00	583.00	582.00	576.00	576.00	575.00	574.00	571.00	569.00	568.00	567.00	567.00	561.00	560.00	556.00	553.00	548.00	546.00	537.00	537.00	534.00	548.00	549.00	541.00	530.00	497.00	482.00	478.00	477.00	477.00	476.00	476.00	482.00	492.00	504.00	517.00	516.00	515.00	513.00	516.00	509.00	493.00	487.00	486.00	488.00	489.00	488.00	495.00	510.00	507.00	499.00	498.00	500.00	503.00
725.00	727.00	727.00	726.00	727.00	734.00	740.00	739.00	736.00	730.00	723.00	715.00	711.00	710.00	710.00	710.00	713.00	718.00	725.00	728.00	724.00	710.00	704.00	697.00	696.00	700.00	700.00	699.00	695.00	700.00	703.00	702.00	707.00	711.00	705.00	699.00	693.00	688.00	680.00	652.00	661.00	673.00	674.00	675.00	675.00	683.00	691.00	684.00	670.00	672.00	679.00	683.00	687.00	691.00	690.00	693.00	695.00	683.00	682.00	687.00	689.00	685.00	687.00	685.00	685.00	686.00	686.00	690.00	691.00	692.00	695.00	693.00	695.00	697.00	695.00	694.00	693.00	686.00	681.00	675.00	671.00	660.00	654.00	650.00	638.00	641.00	633.00	621.00	612.00	612.00	627.00	644.00	644.00	635.00	636.00	637.00	639.00	644.00	645.00	647.00	647.00	647.00	649.00	653.00	660.00	663.00	654.00	654.00	653.00	655.00	651.00	641.00	647.00	650.00	648.00	650.00	656.00	660.00	652.00	640.00	623.00	628.00	629.00	639.00	645.00	644.00	648.00	647.00	647.00	642.00	641.00	640.00	642.00	631.00	621.00	617.00	617.00	624.00	643.00	642.00	646.00	642.00	649.00	658.00	666.00	664.00	657.00	660.00	663.00	662.00	663.00	667.00	672.00	676.00	676.00	678.00	677.00	677.00	677.00	675.00	677.00	680.00	677.00	677.00	683.00	677.00	675.00	676.00	680.00	681.00	680.00	678.00	675.00	675.00	675.00	663.00	658.00	655.00	651.00	646.00	642.00	637.00	632.00	629.00	627.00	625.00	621.00	619.00	616.00	614.00	610.00	606.00	605.00	603.00	601.00	600.00	596.00	593.00	592.00	591.00	587.00	586.00	586.00	584.00	582.00	578.00	578.00	575.00	574.00	570.00	571.00	572.00	571.00	569.00	562.00	560.00	560.00	563.00	559.00	554.00	552.00	534.00	542.00	522.00	525.00	534.00	544.00	526.00	501.00	492.00	480.00	478.00	476.00	476.00	476.00	476.00	490.00	508.00	506.00	506.00	501.00	491.00	482.00	478.00	477.00	474.00	474.00	475.00	474.00	475.00	480.00	488.00	491.00	496.00	498.00	501.00
727.00	730.00	731.00	729.00	725.00	729.00	731.00	730.00	726.00	720.00	717.00	712.00	708.00	706.00	705.00	704.00	708.00	709.00	720.00	722.00	715.00	703.00	700.00	695.00	693.00	696.00	697.00	695.00	691.00	690.00	696.00	696.00	698.00	700.00	697.00	693.00	685.00	675.00	666.00	652.00	666.00	673.00	664.00	669.00	673.00	679.00	682.00	684.00	673.00	675.00	682.00	686.00	692.00	695.00	693.00	693.00	693.00	686.00	685.00	686.00	687.00	686.00	684.00	685.00	688.00	686.00	690.00	692.00	692.00	697.00	695.00	697.00	699.00	697.00	694.00	693.00	689.00	683.00	679.00	671.00	667.00	659.00	656.00	653.00	642.00	644.00	637.00	624.00	612.00	612.00	615.00	634.00	635.00	633.00	636.00	638.00	638.00	642.00	646.00	649.00	649.00	646.00	648.00	650.00	653.00	658.00	651.00	655.00	651.00	652.00	651.00	638.00	652.00	655.00	654.00	652.00	653.00	652.00	645.00	636.00	629.00	642.00	640.00	642.00	642.00	640.00	638.00	638.00	637.00	636.00	638.00	639.00	637.00	623.00	617.00	620.00	623.00	633.00	643.00	645.00	647.00	647.00	644.00	649.00	661.00	664.00	665.00	662.00	661.00	659.00	660.00	669.00	672.00	670.00	670.00	670.00	668.00	663.00	664.00	664.00	662.00	668.00	675.00	678.00	687.00	681.00	682.00	681.00	684.00	682.00	680.00	686.00	684.00	678.00	679.00	669.00	667.00	662.00	658.00	654.00	649.00	644.00	637.00	634.00	631.00	629.00	625.00	620.00	619.00	615.00	611.00	610.00	610.00	607.00	605.00	602.00	597.00	595.00	592.00	590.00	586.00	586.00	585.00	584.00	584.00	582.00	579.00	575.00	574.00	573.00	572.00	571.00	571.00	570.00	564.00	566.00	564.00	563.00	561.00	555.00	539.00	548.00	555.00	545.00	533.00	514.00	535.00	537.00	527.00	508.00	495.00	481.00	476.00	476.00	476.00	476.00	479.00	498.00	495.00	491.00	486.00	478.00	475.00	475.00	476.00	475.00	474.00	473.00	473.00	474.00	473.00	472.00	475.00	480.00	490.00	495.00
737.00	735.00	730.00	726.00	723.00	720.00	720.00	719.00	716.00	714.00	709.00	704.00	706.00	705.00	706.00	706.00	707.00	709.00	715.00	714.00	711.00	696.00	693.00	693.00	696.00	694.00	693.00	692.00	692.00	691.00	690.00	691.00	696.00	692.00	697.00	697.00	688.00	680.00	679.00	652.00	654.00	659.00	667.00	676.00	677.00	679.00	677.00	681.00	677.00	681.00	679.00	685.00	693.00	695.00	694.00	694.00	693.00	688.00	690.00	690.00	691.00	687.00	686.00	686.00	689.00	688.00	694.00	697.00	699.00	701.00	697.00	698.00	698.00	698.00	696.00	691.00	684.00	678.00	676.00	666.00	664.00	656.00	652.00	650.00	655.00	652.00	648.00	637.00	612.00	612.00	614.00	631.00	630.00	635.00	638.00	640.00	641.00	643.00	646.00	648.00	649.00	647.00	649.00	650.00	650.00	654.00	648.00	646.00	646.00	647.00	646.00	634.00	649.00	652.00	654.00	650.00	648.00	642.00	623.00	618.00	637.00	639.00	641.00	645.00	635.00	634.00	634.00	638.00	642.00	643.00	640.00	639.00	633.00	617.00	618.00	625.00	629.00	637.00	644.00	650.00	646.00	648.00	649.00	654.00	659.00	664.00	671.00	661.00	659.00	659.00	665.00	666.00	669.00	668.00	668.00	664.00	657.00	652.00	661.00	665.00	670.00	669.00	675.00	676.00	682.00	680.00	681.00	680.00	678.00	681.00	685.00	686.00	684.00	680.00	683.00	677.00	674.00	669.00	661.00	658.00	656.00	652.00	643.00	639.00	635.00	633.00	627.00	623.00	619.00	618.00	615.00	615.00	613.00	610.00	608.00	605.00	600.00	598.00	596.00	594.00	588.00	587.00	588.00	587.00	586.00	583.00	579.00	576.00	576.00	574.00	573.00	571.00	568.00	568.00	567.00	566.00	565.00	564.00	551.00	548.00	557.00	560.00	559.00	552.00	545.00	525.00	509.00	534.00	531.00	526.00	518.00	501.00	478.00	478.00	476.00	475.00	475.00	479.00	478.00	478.00	477.00	475.00	475.00	474.00	475.00	475.00	475.00	481.00	485.00	474.00	474.00	473.00	473.00	473.00	476.00	479.00
738.00	734.00	729.00	722.00	720.00	725.00	722.00	720.00	713.00	713.00	706.00	704.00	705.00	707.00	708.00	708.00	709.00	710.00	721.00	722.00	717.00	701.00	697.00	697.00	695.00	693.00	692.00	692.00	692.00	689.00	690.00	690.00	690.00	691.00	696.00	698.00	697.00	694.00	689.00	667.00	656.00	651.00	651.00	671.00	680.00	680.00	676.00	668.00	674.00	685.00	685.00	686.00	692.00	693.00	695.00	693.00	692.00	689.00	692.00	692.00	690.00	689.00	691.00	694.00	691.00	689.00	697.00	703.00	705.00	704.00	702.00	700.00	701.00	700.00	697.00	688.00	681.00	677.00	674.00	669.00	666.00	659.00	660.00	662.00	658.00	655.00	653.00	642.00	614.00	614.00	617.00	626.00	628.00	634.00	639.00	641.00	640.00	642.00	645.00	650.00	651.00	649.00	649.00	649.00	648.00	649.00	641.00	642.00	641.00	638.00	637.00	629.00	640.00	643.00	648.00	643.00	632.00	621.00	620.00	631.00	637.00	643.00	652.00	651.00	644.00	641.00	643.00	648.00	647.00	637.00	631.00	629.00	625.00	620.00	624.00	631.00	632.00	640.00	646.00	647.00	650.00	646.00	651.00	658.00	661.00	663.00	664.00	666.00	664.00	664.00	659.00	660.00	668.00	669.00	662.00	650.00	649.00	653.00	659.00	660.00	664.00	669.00	673.00	674.00	678.00	677.00	675.00	676.00	676.00	681.00	682.00	679.00	677.00	677.00	679.00	676.00	677.00	675.00	666.00	669.00	662.00	660.00	649.00	646.00	642.00	638.00	632.00	626.00	623.00	620.00	620.00	616.00	613.00	612.00	610.00	608.00	601.00	599.00	597.00	596.00	593.00	587.00	588.00	588.00	587.00	581.00	578.00	576.00	576.00	573.00	570.00	568.00	571.00	570.00	568.00	567.00	563.00	554.00	553.00	561.00	562.00	561.00	559.00	556.00	553.00	540.00	519.00	506.00	502.00	509.00	513.00	500.00	482.00	479.00	478.00	478.00	476.00	476.00	473.00	475.00	474.00	473.00	473.00	474.00	474.00	483.00	499.00	499.00	505.00	496.00	476.00	473.00	473.00	472.00	472.00	472.00
738.00	734.00	729.00	722.00	720.00	725.00	722.00	720.00	713.00	713.00	706.00	704.00	705.00	707.00	708.00	708.00	709.00	710.00	721.00	722.00	717.00	701.00	697.00	697.00	695.00	693.00	692.00	692.00	692.00	689.00	690.00	690.00	690.00	691.00	696.00	698.00	697.00	694.00	689.00	667.00	656.00	651.00	651.00	671.00	680.00	680.00	676.00	668.00	674.00	685.00	685.00	686.00	692.00	693.00	695.00	693.00	692.00	689.00	692.00	692.00	690.00	689.00	691.00	694.00	691.00	689.00	697.00	703.00	705.00	704.00	702.00	700.00	701.00	700.00	697.00	688.00	681.00	677.00	674.00	669.00	666.00	659.00	660.00	662.00	658.00	655.00	653.00	642.00	614.00	614.00	617.00	626.00	628.00	634.00	639.00	641.00	640.00	642.00	645.00	650.00	651.00	649.00	649.00	649.00	648.00	649.00	641.00	642.00	641.00	638.00	637.00	629.00	640.00	643.00	648.00	643.00	632.00	621.00	620.00	631.00	637.00	643.00	652.00	651.00	644.00	641.00	643.00	648.00	647.00	637.00	631.00	629.00	625.00	620.00	624.00	631.00	632.00	640.00	646.00	647.00	650.00	646.00	651.00	658.00	661.00	663.00	664.00	666.00	664.00	664.00	659.00	660.00	668.00	669.00	662.00	650.00	649.00	653.00	659.00	660.00	664.00	669.00	673.00	674.00	678.00	677.00	675.00	676.00	676.00	681.00	682.00	679.00	677.00	677.00	679.00	676.00	677.00	675.00	666.00	669.00	662.00	660.00	649.00	646.00	642.00	638.00	632.00	626.00	623.00	620.00	620.00	616.00	613.00	612.00	610.00	608.00	601.00	599.00	597.00	596.00	593.00	587.00	588.00	588.00	587.00	581.00	578.00	576.00	576.00	573.00	570.00	568.00	571.00	570.00	568.00	567.00	563.00	554.00	553.00	561.00	562.00	561.00	559.00	556.00	553.00	540.00	519.00	506.00	502.00	509.00	513.00	500.00	482.00	479.00	478.00	478.00	476.00	476.00	473.00	475.00	474.00	473.00	473.00	474.00	474.00	483.00	499.00	499.00	505.00	496.00	476.00	473.00	473.00	472.00	472.00	472.00
738.00	734.00	726.00	723.00	729.00	732.00	734.00	732.00	718.00	716.00	715.00	713.00	717.00	719.00	720.00	719.00	715.00	716.00	720.00	721.00	722.00	715.00	711.00	702.00	698.00	696.00	698.00	695.00	695.00	694.00	691.00	686.00	688.00	691.00	688.00	686.00	684.00	690.00	687.00	684.00	672.00	672.00	675.00	653.00	651.00	651.00	662.00	668.00	683.00	680.00	685.00	688.00	692.00	695.00	693.00	693.00	690.00	693.00	696.00	696.00	695.00	697.00	697.00	694.00	696.00	695.00	698.00	700.00	703.00	705.00	703.00	704.00	703.00	701.00	697.00	688.00	683.00	679.00	677.00	673.00	668.00	669.00	670.00	668.00	663.00	658.00	649.00	645.00	628.00	617.00	615.00	614.00	622.00	630.00	633.00	637.00	638.00	644.00	648.00	648.00	650.00	651.00	646.00	644.00	637.00	633.00	623.00	623.00	623.00	623.00	625.00	634.00	625.00	626.00	631.00	616.00	621.00	630.00	633.00	638.00	642.00	641.00	640.00	640.00	633.00	626.00	628.00	631.00	628.00	625.00	627.00	627.00	615.00	629.00	628.00	634.00	645.00	648.00	645.00	648.00	645.00	646.00	654.00	657.00	659.00	659.00	658.00	663.00	664.00	658.00	658.00	658.00	652.00	648.00	647.00	655.00	659.00	656.00	653.00	654.00	659.00	661.00	668.00	669.00	668.00	666.00	670.00	673.00	679.00	678.00	678.00	680.00	679.00	680.00	678.00	681.00	680.00	678.00	672.00	669.00	667.00	667.00	661.00	657.00	651.00	644.00	644.00	634.00	631.00	627.00	624.00	621.00	619.00	617.00	615.00	613.00	607.00	605.00	604.00	603.00	599.00	597.00	593.00	590.00	588.00	587.00	585.00	583.00	581.00	577.00	576.00	573.00	571.00	569.00	560.00	568.00	567.00	566.00	563.00	561.00	561.00	557.00	552.00	549.00	552.00	550.00	535.00	503.00	507.00	513.00	512.00	526.00	526.00	517.00	502.00	491.00	481.00	480.00	479.00	479.00	478.00	482.00	484.00	487.00	494.00	517.00	528.00	528.00	530.00	528.00	517.00	514.00	507.00	484.00	472.00	471.00
738.00	734.00	726.00	723.00	729.00	732.00	734.00	732.00	718.00	716.00	715.00	713.00	717.00	719.00	720.00	719.00	715.00	716.00	720.00	721.00	722.00	715.00	711.00	702.00	698.00	696.00	698.00	695.00	695.00	694.00	691.00	686.00	688.00	691.00	688.00	686.00	684.00	690.00	687.00	684.00	672.00	672.00	675.00	653.00	651.00	651.00	662.00	668.00	683.00	680.00	685.00	688.00	692.00	695.00	693.00	693.00	690.00	693.00	696.00	696.00	695.00	697.00	697.00	694.00	696.00	695.00	698.00	700.00	703.00	705.00	703.00	704.00	703.00	701.00	697.00	688.00	683.00	679.00	677.00	673.00	668.00	669.00	670.00	668.00	663.00	658.00	649.00	645.00	628.00	617.00	615.00	614.00	622.00	630.00	633.00	637.00	638.00	644.00	648.00	648.00	650.00	651.00	646.00	644.00	637.00	633.00	623.00	623.00	623.00	623.00	625.00	634.00	625.00	626.00	631.00	616.00	621.00	630.00	633.00	638.00	642.00	641.00	640.00	640.00	633.00	626.00	628.00	631.00	628.00	625.00	627.00	627.00	615.00	629.00	628.00	634.00	645.00	648.00	645.00	648.00	645.00	646.00	654.00	657.00	659.00	659.00	658.00	663.00	664.00	658.00	658.00	658.00	652.00	648.00	647.00	655.00	659.00	656.00	653.00	654.00	659.00	661.00	668.00	669.00	668.00	666.00	670.00	673.00	679.00	678.00	678.00	680.00	679.00	680.00	678.00	681.00	680.00	678.00	672.00	669.00	667.00	667.00	661.00	657.00	651.00	644.00	644.00	634.00	631.00	627.00	624.00	621.00	619.00	617.00	615.00	613.00	607.00	605.00	604.00	603.00	599.00	597.00	593.00	590.00	588.00	587.00	585.00	583.00	581.00	577.00	576.00	573.00	571.00	569.00	560.00	568.00	567.00	566.00	563.00	561.00	561.00	557.00	552.00	549.00	552.00	550.00	535.00	503.00	507.00	513.00	512.00	526.00	526.00	517.00	502.00	491.00	481.00	480.00	479.00	479.00	478.00	482.00	484.00	487.00	494.00	517.00	528.00	528.00	530.00	528.00	517.00	514.00	507.00	484.00	472.00	471.00
724.00	725.00	728.00	723.00	727.00	726.00	728.00	729.00	724.00	724.00	721.00	719.00	724.00	728.00	728.00	722.00	720.00	721.00	720.00	719.00	722.00	720.00	716.00	708.00	699.00	699.00	701.00	699.00	695.00	697.00	692.00	688.00	687.00	688.00	688.00	687.00	680.00	676.00	670.00	694.00	688.00	686.00	681.00	663.00	650.00	651.00	667.00	673.00	683.00	682.00	687.00	690.00	696.00	698.00	697.00	696.00	692.00	694.00	695.00	697.00	696.00	695.00	696.00	695.00	697.00	699.00	697.00	699.00	702.00	707.00	702.00	705.00	702.00	701.00	696.00	687.00	684.00	679.00	676.00	672.00	670.00	674.00	673.00	670.00	655.00	651.00	642.00	631.00	625.00	622.00	617.00	614.00	620.00	632.00	638.00	642.00	639.00	644.00	643.00	645.00	646.00	645.00	642.00	637.00	629.00	623.00	617.00	617.00	619.00	622.00	629.00	630.00	624.00	621.00	622.00	619.00	630.00	629.00	627.00	627.00	630.00	629.00	627.00	638.00	631.00	630.00	627.00	624.00	621.00	624.00	624.00	623.00	614.00	635.00	630.00	632.00	633.00	637.00	643.00	644.00	646.00	650.00	651.00	652.00	657.00	658.00	656.00	658.00	659.00	659.00	662.00	660.00	659.00	659.00	659.00	650.00	650.00	650.00	648.00	651.00	656.00	659.00	658.00	658.00	665.00	668.00	671.00	671.00	669.00	672.00	668.00	672.00	678.00	681.00	673.00	678.00	679.00	680.00	676.00	672.00	671.00	668.00	663.00	658.00	652.00	649.00	645.00	641.00	637.00	631.00	628.00	625.00	623.00	620.00	619.00	617.00	611.00	609.00	606.00	606.00	602.00	600.00	597.00	595.00	594.00	590.00	588.00	583.00	582.00	578.00	577.00	576.00	574.00	568.00	566.00	568.00	568.00	568.00	564.00	562.00	561.00	557.00	560.00	557.00	542.00	520.00	517.00	533.00	544.00	541.00	536.00	550.00	540.00	533.00	516.00	503.00	495.00	498.00	496.00	499.00	503.00	500.00	504.00	510.00	527.00	536.00	538.00	535.00	532.00	527.00	525.00	522.00	511.00	501.00	478.00	473.00
719.00	720.00	722.00	715.00	719.00	721.00	722.00	724.00	728.00	729.00	723.00	722.00	731.00	736.00	732.00	726.00	728.00	725.00	724.00	722.00	721.00	723.00	720.00	713.00	705.00	705.00	704.00	701.00	698.00	695.00	695.00	691.00	684.00	683.00	681.00	678.00	679.00	681.00	678.00	697.00	702.00	693.00	676.00	672.00	658.00	650.00	667.00	677.00	685.00	687.00	687.00	690.00	696.00	697.00	697.00	695.00	694.00	695.00	696.00	698.00	695.00	697.00	696.00	698.00	699.00	700.00	698.00	698.00	701.00	705.00	702.00	700.00	698.00	697.00	693.00	688.00	687.00	683.00	676.00	672.00	673.00	673.00	670.00	666.00	655.00	646.00	641.00	629.00	643.00	636.00	624.00	617.00	613.00	622.00	631.00	638.00	640.00	642.00	643.00	645.00	647.00	645.00	629.00	624.00	616.00	614.00	618.00	622.00	627.00	634.00	640.00	643.00	628.00	628.00	625.00	629.00	632.00	629.00	628.00	626.00	623.00	620.00	622.00	631.00	631.00	628.00	627.00	627.00	620.00	619.00	616.00	619.00	622.00	644.00	642.00	636.00	630.00	631.00	640.00	648.00	647.00	647.00	652.00	655.00	649.00	649.00	653.00	660.00	663.00	660.00	659.00	660.00	656.00	660.00	661.00	655.00	649.00	641.00	641.00	644.00	653.00	654.00	654.00	657.00	666.00	667.00	669.00	665.00	661.00	661.00	662.00	668.00	673.00	672.00	668.00	677.00	677.00	677.00	677.00	676.00	673.00	668.00	662.00	660.00	656.00	654.00	649.00	645.00	643.00	640.00	635.00	627.00	624.00	623.00	622.00	619.00	614.00	612.00	610.00	609.00	606.00	603.00	601.00	599.00	597.00	593.00	590.00	585.00	584.00	581.00	578.00	576.00	573.00	573.00	571.00	568.00	566.00	566.00	564.00	563.00	563.00	562.00	561.00	543.00	523.00	527.00	545.00	553.00	554.00	551.00	552.00	551.00	543.00	534.00	522.00	518.00	521.00	528.00	531.00	527.00	532.00	528.00	532.00	534.00	536.00	536.00	534.00	532.00	531.00	528.00	522.00	521.00	522.00	519.00	494.00	479.00
717.00	713.00	712.00	713.00	715.00	715.00	717.00	723.00	733.00	731.00	729.00	729.00	737.00	743.00	739.00	733.00	737.00	735.00	721.00	724.00	722.00	722.00	719.00	717.00	711.00	706.00	705.00	701.00	699.00	697.00	696.00	692.00	691.00	690.00	686.00	692.00	695.00	696.00	694.00	697.00	697.00	694.00	691.00	673.00	652.00	655.00	677.00	682.00	681.00	692.00	691.00	693.00	695.00	695.00	697.00	695.00	695.00	696.00	696.00	696.00	697.00	698.00	698.00	699.00	699.00	702.00	700.00	699.00	702.00	705.00	698.00	699.00	696.00	693.00	692.00	688.00	685.00	685.00	682.00	678.00	678.00	673.00	665.00	658.00	650.00	645.00	637.00	641.00	650.00	644.00	640.00	623.00	613.00	616.00	624.00	629.00	634.00	640.00	645.00	646.00	640.00	638.00	614.00	614.00	613.00	616.00	625.00	633.00	638.00	642.00	643.00	646.00	639.00	633.00	636.00	637.00	641.00	639.00	637.00	633.00	637.00	638.00	633.00	632.00	628.00	629.00	629.00	622.00	632.00	632.00	636.00	635.00	632.00	643.00	639.00	640.00	641.00	648.00	654.00	657.00	656.00	657.00	658.00	660.00	654.00	657.00	659.00	662.00	660.00	659.00	657.00	657.00	658.00	658.00	664.00	648.00	641.00	641.00	640.00	650.00	655.00	656.00	655.00	662.00	664.00	661.00	667.00	662.00	660.00	658.00	662.00	667.00	665.00	671.00	673.00	677.00	674.00	677.00	676.00	677.00	673.00	674.00	670.00	666.00	664.00	661.00	654.00	648.00	647.00	643.00	639.00	630.00	628.00	626.00	624.00	621.00	616.00	615.00	614.00	611.00	608.00	607.00	605.00	603.00	601.00	596.00	593.00	589.00	587.00	582.00	577.00	579.00	579.00	577.00	573.00	569.00	567.00	566.00	566.00	566.00	565.00	563.00	557.00	527.00	537.00	551.00	555.00	556.00	555.00	555.00	553.00	553.00	551.00	545.00	539.00	537.00	540.00	543.00	541.00	537.00	537.00	538.00	536.00	534.00	532.00	533.00	532.00	531.00	526.00	523.00	517.00	514.00	521.00	523.00	507.00	489.00
711.00	714.00	716.00	713.00	714.00	717.00	720.00	725.00	730.00	734.00	738.00	736.00	742.00	748.00	743.00	737.00	740.00	740.00	716.00	719.00	719.00	713.00	718.00	721.00	713.00	711.00	712.00	708.00	704.00	699.00	698.00	697.00	696.00	695.00	691.00	693.00	695.00	695.00	695.00	694.00	698.00	699.00	694.00	662.00	650.00	660.00	667.00	676.00	668.00	694.00	692.00	690.00	693.00	693.00	696.00	694.00	694.00	695.00	695.00	696.00	699.00	700.00	701.00	702.00	705.00	707.00	701.00	703.00	702.00	703.00	698.00	697.00	695.00	694.00	691.00	687.00	686.00	683.00	682.00	681.00	680.00	669.00	660.00	652.00	646.00	644.00	652.00	655.00	649.00	639.00	633.00	627.00	614.00	613.00	623.00	628.00	633.00	640.00	639.00	634.00	627.00	621.00	614.00	615.00	621.00	628.00	633.00	640.00	646.00	648.00	646.00	647.00	644.00	643.00	644.00	645.00	649.00	650.00	644.00	640.00	645.00	645.00	645.00	636.00	640.00	635.00	633.00	633.00	639.00	643.00	641.00	641.00	642.00	639.00	639.00	646.00	646.00	646.00	658.00	659.00	662.00	662.00	659.00	660.00	652.00	654.00	656.00	657.00	652.00	653.00	652.00	655.00	653.00	654.00	661.00	643.00	641.00	646.00	644.00	647.00	660.00	655.00	653.00	654.00	660.00	658.00	660.00	658.00	655.00	663.00	664.00	667.00	663.00	671.00	672.00	672.00	675.00	674.00	672.00	677.00	679.00	672.00	671.00	673.00	672.00	670.00	662.00	650.00	649.00	647.00	645.00	635.00	632.00	630.00	627.00	624.00	620.00	617.00	615.00	613.00	611.00	610.00	609.00	606.00	604.00	599.00	597.00	592.00	590.00	582.00	583.00	582.00	580.00	580.00	575.00	573.00	572.00	571.00	561.00	558.00	558.00	549.00	537.00	553.00	561.00	561.00	560.00	558.00	557.00	557.00	556.00	555.00	554.00	552.00	550.00	545.00	548.00	545.00	543.00	542.00	539.00	534.00	534.00	532.00	533.00	528.00	525.00	523.00	523.00	513.00	510.00	510.00	508.00	504.00	519.00	500.00
712.00	712.00	712.00	713.00	715.00	718.00	723.00	724.00	730.00	734.00	740.00	744.00	742.00	747.00	741.00	731.00	732.00	726.00	711.00	715.00	713.00	709.00	705.00	706.00	707.00	718.00	720.00	716.00	710.00	704.00	705.00	705.00	701.00	702.00	700.00	700.00	698.00	697.00	697.00	697.00	696.00	698.00	698.00	679.00	658.00	650.00	650.00	651.00	669.00	693.00	686.00	688.00	692.00	694.00	694.00	695.00	696.00	696.00	696.00	697.00	698.00	701.00	704.00	704.00	705.00	707.00	704.00	704.00	705.00	704.00	701.00	696.00	695.00	693.00	692.00	687.00	687.00	687.00	686.00	683.00	682.00	669.00	659.00	654.00	660.00	663.00	662.00	656.00	649.00	650.00	642.00	645.00	625.00	611.00	614.00	623.00	629.00	637.00	632.00	628.00	613.00	609.00	622.00	631.00	636.00	639.00	642.00	644.00	647.00	647.00	647.00	645.00	648.00	647.00	648.00	645.00	646.00	649.00	645.00	641.00	640.00	641.00	643.00	639.00	642.00	644.00	646.00	644.00	647.00	647.00	649.00	650.00	648.00	644.00	643.00	646.00	650.00	649.00	657.00	658.00	658.00	659.00	663.00	658.00	652.00	653.00	650.00	649.00	652.00	648.00	641.00	648.00	649.00	653.00	656.00	645.00	648.00	648.00	643.00	643.00	656.00	657.00	655.00	656.00	654.00	662.00	664.00	656.00	651.00	659.00	664.00	663.00	661.00	667.00	670.00	672.00	670.00	670.00	671.00	672.00	675.00	672.00	674.00	675.00	676.00	677.00	667.00	658.00	654.00	645.00	648.00	640.00	636.00	633.00	630.00	628.00	621.00	619.00	619.00	616.00	613.00	612.00	610.00	608.00	606.00	603.00	600.00	595.00	588.00	589.00	587.00	584.00	583.00	581.00	575.00	572.00	571.00	571.00	548.00	554.00	547.00	546.00	549.00	564.00	563.00	562.00	561.00	560.00	558.00	559.00	557.00	554.00	553.00	553.00	551.00	550.00	548.00	546.00	546.00	545.00	541.00	536.00	536.00	535.00	537.00	534.00	533.00	530.00	531.00	528.00	524.00	526.00	521.00	512.00	499.00	505.00
712.00	712.00	712.00	713.00	715.00	718.00	723.00	724.00	730.00	734.00	740.00	744.00	742.00	747.00	741.00	731.00	732.00	726.00	711.00	715.00	713.00	709.00	705.00	706.00	707.00	718.00	720.00	716.00	710.00	704.00	705.00	705.00	701.00	702.00	700.00	700.00	698.00	697.00	697.00	697.00	696.00	698.00	698.00	679.00	658.00	650.00	650.00	651.00	669.00	693.00	686.00	688.00	692.00	694.00	694.00	695.00	696.00	696.00	696.00	697.00	698.00	701.00	704.00	704.00	705.00	707.00	704.00	704.00	705.00	704.00	701.00	696.00	695.00	693.00	692.00	687.00	687.00	687.00	686.00	683.00	682.00	669.00	659.00	654.00	660.00	663.00	662.00	656.00	649.00	650.00	642.00	645.00	625.00	611.00	614.00	623.00	629.00	637.00	632.00	628.00	613.00	609.00	622.00	631.00	636.00	639.00	642.00	644.00	647.00	647.00	647.00	645.00	648.00	647.00	648.00	645.00	646.00	649.00	645.00	641.00	640.00	641.00	643.00	639.00	642.00	644.00	646.00	644.00	647.00	647.00	649.00	650.00	648.00	644.00	643.00	646.00	650.00	649.00	657.00	658.00	658.00	659.00	663.00	658.00	652.00	653.00	650.00	649.00	652.00	648.00	641.00	648.00	649.00	653.00	656.00	645.00	648.00	648.00	643.00	643.00	656.00	657.00	655.00	656.00	654.00	662.00	664.00	656.00	651.00	659.00	664.00	663.00	661.00	667.00	670.00	672.00	670.00	670.00	671.00	672.00	675.00	672.00	674.00	675.00	676.00	677.00	667.00	658.00	654.00	645.00	648.00	640.00	636.00	633.00	630.00	628.00	621.00	619.00	619.00	616.00	613.00	612.00	610.00	608.00	606.00	603.00	600.00	595.00	588.00	589.00	587.00	584.00	583.00	581.00	575.00	572.00	571.00	571.00	548.00	554.00	547.00	546.00	549.00	564.00	563.00	562.00	561.00	560.00	558.00	559.00	557.00	554.00	553.00	553.00	551.00	550.00	548.00	546.00	546.00	545.00	541.00	536.00	536.00	535.00	537.00	534.00	533.00	530.00	531.00	528.00	524.00	526.00	521.00	512.00	499.00	505.00
714.00	720.00	720.00	718.00	714.00	715.00	722.00	726.00	739.00	745.00	746.00	747.00	741.00	739.00	735.00	724.00	702.00	703.00	711.00	700.00	701.00	716.00	705.00	698.00	713.00	725.00	729.00	733.00	730.00	712.00	715.00	711.00	707.00	704.00	711.00	712.00	706.00	702.00	699.00	700.00	702.00	703.00	702.00	697.00	694.00	690.00	687.00	675.00	649.00	683.00	696.00	685.00	692.00	698.00	697.00	697.00	697.00	696.00	696.00	697.00	701.00	707.00	709.00	708.00	707.00	706.00	706.00	706.00	706.00	705.00	703.00	698.00	695.00	692.00	690.00	686.00	686.00	687.00	687.00	688.00	680.00	663.00	662.00	668.00	671.00	670.00	666.00	663.00	658.00	654.00	648.00	644.00	637.00	613.00	611.00	610.00	615.00	630.00	630.00	612.00	606.00	610.00	640.00	643.00	645.00	646.00	649.00	649.00	649.00	647.00	647.00	642.00	640.00	640.00	640.00	642.00	643.00	643.00	643.00	644.00	643.00	640.00	637.00	640.00	642.00	639.00	636.00	643.00	649.00	647.00	652.00	653.00	653.00	651.00	649.00	644.00	645.00	648.00	656.00	657.00	654.00	654.00	650.00	647.00	654.00	654.00	649.00	640.00	639.00	645.00	645.00	651.00	655.00	652.00	652.00	652.00	655.00	645.00	642.00	653.00	653.00	653.00	648.00	647.00	653.00	658.00	653.00	656.00	658.00	657.00	657.00	659.00	660.00	665.00	668.00	672.00	672.00	666.00	669.00	670.00	675.00	675.00	683.00	682.00	681.00	683.00	675.00	667.00	664.00	663.00	662.00	651.00	646.00	644.00	641.00	638.00	632.00	627.00	623.00	621.00	616.00	616.00	614.00	612.00	610.00	607.00	604.00	601.00	598.00	594.00	592.00	589.00	587.00	585.00	583.00	580.00	576.00	571.00	572.00	571.00	569.00	564.00	561.00	566.00	565.00	565.00	563.00	560.00	559.00	558.00	558.00	557.00	556.00	555.00	554.00	553.00	549.00	549.00	546.00	542.00	540.00	540.00	540.00	539.00	538.00	536.00	534.00	533.00	532.00	507.00	509.00	507.00	515.00	513.00	512.00	502.00
714.00	720.00	720.00	718.00	714.00	715.00	722.00	726.00	739.00	745.00	746.00	747.00	741.00	739.00	735.00	724.00	702.00	703.00	711.00	700.00	701.00	716.00	705.00	698.00	713.00	725.00	729.00	733.00	730.00	712.00	715.00	711.00	707.00	704.00	711.00	712.00	706.00	702.00	699.00	700.00	702.00	703.00	702.00	697.00	694.00	690.00	687.00	675.00	649.00	683.00	696.00	685.00	692.00	698.00	697.00	697.00	697.00	696.00	696.00	697.00	701.00	707.00	709.00	708.00	707.00	706.00	706.00	706.00	706.00	705.00	703.00	698.00	695.00	692.00	690.00	686.00	686.00	687.00	687.00	688.00	680.00	663.00	662.00	668.00	671.00	670.00	666.00	663.00	658.00	654.00	648.00	644.00	637.00	613.00	611.00	610.00	615.00	630.00	630.00	612.00	606.00	610.00	640.00	643.00	645.00	646.00	649.00	649.00	649.00	647.00	647.00	642.00	640.00	640.00	640.00	642.00	643.00	643.00	643.00	644.00	643.00	640.00	637.00	640.00	642.00	639.00	636.00	643.00	649.00	647.00	652.00	653.00	653.00	651.00	649.00	644.00	645.00	648.00	656.00	657.00	654.00	654.00	650.00	647.00	654.00	654.00	649.00	640.00	639.00	645.00	645.00	651.00	655.00	652.00	652.00	652.00	655.00	645.00	642.00	653.00	653.00	653.00	648.00	647.00	653.00	658.00	653.00	656.00	658.00	657.00	657.00	659.00	660.00	665.00	668.00	672.00	672.00	666.00	669.00	670.00	675.00	675.00	683.00	682.00	681.00	683.00	675.00	667.00	664.00	663.00	662.00	651.00	646.00	644.00	641.00	638.00	632.00	627.00	623.00	621.00	616.00	616.00	614.00	612.00	610.00	607.00	604.00	601.00	598.00	594.00	592.00	589.00	587.00	585.00	583.00	580.00	576.00	571.00	572.00	571.00	569.00	564.00	561.00	566.00	565.00	565.00	563.00	560.00	559.00	558.00	558.00	557.00	556.00	555.00	554.00	553.00	549.00	549.00	546.00	542.00	540.00	540.00	540.00	539.00	538.00	536.00	534.00	533.00	532.00	507.00	509.00	507.00	515.00	513.00	512.00	502.00
714.00	719.00	728.00	726.00	719.00	716.00	718.00	725.00	741.00	743.00	742.00	732.00	734.00	735.00	725.00	717.00	714.00	701.00	704.00	699.00	697.00	716.00	704.00	695.00	701.00	718.00	723.00	733.00	738.00	722.00	712.00	713.00	710.00	707.00	711.00	712.00	709.00	704.00	702.00	700.00	702.00	703.00	707.00	701.00	694.00	697.00	686.00	676.00	652.00	676.00	681.00	668.00	700.00	703.00	704.00	702.00	699.00	697.00	698.00	696.00	700.00	706.00	708.00	709.00	706.00	707.00	705.00	707.00	705.00	706.00	705.00	701.00	697.00	694.00	693.00	687.00	687.00	688.00	688.00	681.00	678.00	665.00	670.00	669.00	674.00	674.00	670.00	665.00	657.00	653.00	653.00	650.00	633.00	623.00	616.00	610.00	610.00	631.00	628.00	611.00	606.00	614.00	643.00	645.00	645.00	647.00	647.00	647.00	647.00	647.00	645.00	641.00	643.00	643.00	645.00	642.00	640.00	640.00	642.00	644.00	642.00	645.00	645.00	637.00	632.00	634.00	639.00	640.00	641.00	649.00	650.00	648.00	646.00	650.00	647.00	644.00	644.00	647.00	652.00	654.00	653.00	655.00	649.00	648.00	650.00	647.00	644.00	639.00	642.00	647.00	645.00	654.00	657.00	655.00	656.00	651.00	650.00	644.00	641.00	645.00	651.00	650.00	650.00	651.00	651.00	662.00	659.00	670.00	672.00	659.00	661.00	662.00	663.00	669.00	680.00	679.00	677.00	668.00	674.00	669.00	673.00	674.00	681.00	681.00	681.00	682.00	676.00	672.00	670.00	669.00	666.00	658.00	655.00	650.00	646.00	648.00	637.00	632.00	628.00	625.00	620.00	618.00	617.00	615.00	614.00	611.00	609.00	603.00	600.00	596.00	595.00	593.00	591.00	589.00	581.00	577.00	576.00	578.00	575.00	574.00	571.00	569.00	568.00	567.00	566.00	565.00	564.00	560.00	559.00	558.00	559.00	558.00	556.00	555.00	553.00	553.00	549.00	549.00	546.00	543.00	541.00	542.00	541.00	539.00	538.00	527.00	520.00	519.00	520.00	523.00	519.00	512.00	504.00	507.00	522.00	520.00
714.00	719.00	728.00	726.00	719.00	716.00	718.00	725.00	741.00	743.00	742.00	732.00	734.00	735.00	725.00	717.00	714.00	701.00	704.00	699.00	697.00	716.00	704.00	695.00	701.00	718.00	723.00	733.00	738.00	722.00	712.00	713.00	710.00	707.00	711.00	712.00	709.00	704.00	702.00	700.00	702.00	703.00	707.00	701.00	694.00	697.00	686.00	676.00	652.00	676.00	681.00	668.00	700.00	703.00	704.00	702.00	699.00	697.00	698.00	696.00	700.00	706.00	708.00	709.00	706.00	707.00	705.00	707.00	705.00	706.00	705.00	701.00	697.00	694.00	693.00	687.00	687.00	688.00	688.00	681.00	678.00	665.00	670.00	669.00	674.00	674.00	670.00	665.00	657.00	653.00	653.00	650.00	633.00	623.00	616.00	610.00	610.00	631.00	628.00	611.00	606.00	614.00	643.00	645.00	645.00	647.00	647.00	647.00	647.00	647.00	645.00	641.00	643.00	643.00	645.00	642.00	640.00	640.00	642.00	644.00	642.00	645.00	645.00	637.00	632.00	634.00	639.00	640.00	641.00	649.00	650.00	648.00	646.00	650.00	647.00	644.00	644.00	647.00	652.00	654.00	653.00	655.00	649.00	648.00	650.00	647.00	644.00	639.00	642.00	647.00	645.00	654.00	657.00	655.00	656.00	651.00	650.00	644.00	641.00	645.00	651.00	650.00	650.00	651.00	651.00	662.00	659.00	670.00	672.00	659.00	661.00	662.00	663.00	669.00	680.00	679.00	677.00	668.00	674.00	669.00	673.00	674.00	681.00	681.00	681.00	682.00	676.00	672.00	670.00	669.00	666.00	658.00	655.00	650.00	646.00	648.00	637.00	632.00	628.00	625.00	620.00	618.00	617.00	615.00	614.00	611.00	609.00	603.00	600.00	596.00	595.00	593.00	591.00	589.00	581.00	577.00	576.00	578.00	575.00	574.00	571.00	569.00	568.00	567.00	566.00	565.00	564.00	560.00	559.00	558.00	559.00	558.00	556.00	555.00	553.00	553.00	549.00	549.00	546.00	543.00	541.00	542.00	541.00	539.00	538.00	527.00	520.00	519.00	520.00	523.00	519.00	512.00	504.00	507.00	522.00	520.00
717.00	711.00	704.00	726.00	729.00	729.00	729.00	725.00	728.00	721.00	712.00	706.00	707.00	705.00	702.00	705.00	726.00	723.00	718.00	707.00	703.00	703.00	697.00	696.00	697.00	708.00	719.00	724.00	729.00	736.00	724.00	718.00	716.00	715.00	714.00	711.00	709.00	711.00	710.00	712.00	710.00	709.00	708.00	705.00	705.00	698.00	687.00	675.00	650.00	669.00	683.00	687.00	697.00	702.00	705.00	704.00	704.00	702.00	700.00	699.00	703.00	707.00	708.00	708.00	708.00	707.00	707.00	710.00	710.00	710.00	713.00	709.00	703.00	699.00	697.00	689.00	688.00	687.00	683.00	674.00	672.00	670.00	674.00	675.00	674.00	668.00	666.00	665.00	660.00	652.00	649.00	650.00	648.00	641.00	628.00	627.00	614.00	609.00	607.00	606.00	606.00	611.00	635.00	638.00	639.00	644.00	646.00	645.00	643.00	641.00	639.00	645.00	645.00	646.00	646.00	643.00	644.00	644.00	645.00	644.00	647.00	647.00	652.00	650.00	647.00	640.00	641.00	637.00	637.00	635.00	643.00	646.00	645.00	652.00	653.00	649.00	647.00	647.00	655.00	651.00	648.00	645.00	651.00	649.00	655.00	651.00	647.00	632.00	645.00	651.00	651.00	646.00	652.00	653.00	649.00	654.00	645.00	636.00	653.00	653.00	651.00	648.00	654.00	655.00	653.00	652.00	658.00	659.00	660.00	659.00	661.00	661.00	663.00	666.00	666.00	682.00	685.00	685.00	686.00	687.00	681.00	678.00	679.00	679.00	679.00	677.00	679.00	677.00	678.00	671.00	667.00	664.00	663.00	659.00	658.00	653.00	646.00	642.00	637.00	632.00	627.00	624.00	623.00	621.00	618.00	615.00	614.00	610.00	605.00	603.00	599.00	597.00	595.00	594.00	591.00	589.00	587.00	585.00	581.00	579.00	576.00	574.00	571.00	570.00	568.00	567.00	566.00	563.00	560.00	560.00	559.00	558.00	558.00	557.00	556.00	554.00	550.00	550.00	542.00	543.00	544.00	532.00	532.00	534.00	534.00	537.00	539.00	541.00	539.00	536.00	531.00	530.00	530.00	529.00	501.00	506.00
717.00	711.00	704.00	726.00	729.00	729.00	729.00	725.00	728.00	721.00	712.00	706.00	707.00	705.00	702.00	705.00	726.00	723.00	718.00	707.00	703.00	703.00	697.00	696.00	697.00	708.00	719.00	724.00	729.00	736.00	724.00	718.00	716.00	715.00	714.00	711.00	709.00	711.00	710.00	712.00	710.00	709.00	708.00	705.00	705.00	698.00	687.00	675.00	650.00	669.00	683.00	687.00	697.00	702.00	705.00	704.00	704.00	702.00	700.00	699.00	703.00	707.00	708.00	708.00	708.00	707.00	707.00	710.00	710.00	710.00	713.00	709.00	703.00	699.00	697.00	689.00	688.00	687.00	683.00	674.00	672.00	670.00	674.00	675.00	674.00	668.00	666.00	665.00	660.00	652.00	649.00	650.00	648.00	641.00	628.00	627.00	614.00	609.00	607.00	606.00	606.00	611.00	635.00	638.00	639.00	644.00	646.00	645.00	643.00	641.00	639.00	645.00	645.00	646.00	646.00	643.00	644.00	644.00	645.00	644.00	647.00	647.00	652.00	650.00	647.00	640.00	641.00	637.00	637.00	635.00	643.00	646.00	645.00	652.00	653.00	649.00	647.00	647.00	655.00	651.00	648.00	645.00	651.00	649.00	655.00	651.00	647.00	632.00	645.00	651.00	651.00	646.00	652.00	653.00	649.00	654.00	645.00	636.00	653.00	653.00	651.00	648.00	654.00	655.00	653.00	652.00	658.00	659.00	660.00	659.00	661.00	661.00	663.00	666.00	666.00	682.00	685.00	685.00	686.00	687.00	681.00	678.00	679.00	679.00	679.00	677.00	679.00	677.00	678.00	671.00	667.00	664.00	663.00	659.00	658.00	653.00	646.00	642.00	637.00	632.00	627.00	624.00	623.00	621.00	618.00	615.00	614.00	610.00	605.00	603.00	599.00	597.00	595.00	594.00	591.00	589.00	587.00	585.00	581.00	579.00	576.00	574.00	571.00	570.00	568.00	567.00	566.00	563.00	560.00	560.00	559.00	558.00	558.00	557.00	556.00	554.00	550.00	550.00	542.00	543.00	544.00	532.00	532.00	534.00	534.00	537.00	539.00	541.00	539.00	536.00	531.00	530.00	530.00	529.00	501.00	506.00
726.00	729.00	716.00	702.00	712.00	720.00	719.00	717.00	733.00	723.00	715.00	706.00	716.00	723.00	721.00	718.00	728.00	733.00	721.00	722.00	728.00	717.00	715.00	703.00	692.00	705.00	719.00	721.00	726.00	734.00	726.00	721.00	716.00	714.00	713.00	712.00	714.00	714.00	711.00	718.00	716.00	712.00	708.00	706.00	711.00	706.00	693.00	666.00	651.00	671.00	684.00	694.00	698.00	703.00	706.00	706.00	706.00	705.00	703.00	702.00	707.00	707.00	709.00	707.00	708.00	706.00	706.00	707.00	709.00	710.00	712.00	709.00	704.00	701.00	698.00	692.00	686.00	683.00	681.00	671.00	673.00	673.00	675.00	677.00	669.00	666.00	664.00	662.00	661.00	654.00	654.00	656.00	656.00	643.00	639.00	631.00	620.00	607.00	606.00	606.00	607.00	612.00	638.00	642.00	644.00	644.00	643.00	641.00	640.00	637.00	638.00	646.00	647.00	647.00	646.00	644.00	642.00	645.00	645.00	645.00	644.00	649.00	648.00	652.00	647.00	643.00	643.00	645.00	642.00	638.00	639.00	643.00	640.00	646.00	648.00	647.00	648.00	647.00	646.00	644.00	644.00	646.00	648.00	646.00	646.00	646.00	646.00	639.00	645.00	652.00	649.00	652.00	647.00	645.00	650.00	654.00	648.00	632.00	645.00	653.00	652.00	653.00	651.00	653.00	653.00	659.00	665.00	667.00	663.00	670.00	664.00	659.00	671.00	678.00	674.00	682.00	686.00	687.00	678.00	676.00	676.00	676.00	673.00	675.00	675.00	676.00	679.00	678.00	678.00	673.00	669.00	667.00	665.00	661.00	659.00	657.00	647.00	644.00	641.00	639.00	632.00	629.00	626.00	623.00	622.00	618.00	616.00	612.00	602.00	603.00	602.00	601.00	598.00	595.00	594.00	592.00	591.00	588.00	584.00	582.00	578.00	576.00	575.00	573.00	571.00	569.00	568.00	565.00	562.00	562.00	561.00	561.00	557.00	556.00	555.00	555.00	551.00	547.00	545.00	544.00	541.00	540.00	536.00	540.00	541.00	538.00	538.00	538.00	538.00	536.00	534.00	529.00	513.00	507.00	511.00	527.00
737.00	734.00	732.00	720.00	716.00	711.00	712.00	717.00	724.00	720.00	709.00	708.00	723.00	728.00	727.00	732.00	733.00	734.00	728.00	723.00	720.00	710.00	706.00	698.00	695.00	693.00	698.00	711.00	713.00	730.00	728.00	722.00	716.00	716.00	717.00	720.00	716.00	719.00	720.00	720.00	719.00	717.00	711.00	707.00	712.00	707.00	684.00	672.00	653.00	651.00	667.00	672.00	696.00	703.00	707.00	708.00	706.00	704.00	704.00	704.00	705.00	708.00	709.00	710.00	707.00	706.00	705.00	706.00	709.00	711.00	710.00	707.00	707.00	705.00	699.00	694.00	687.00	680.00	677.00	675.00	673.00	674.00	676.00	678.00	673.00	668.00	665.00	665.00	657.00	655.00	655.00	661.00	655.00	648.00	642.00	628.00	632.00	615.00	610.00	609.00	609.00	610.00	637.00	641.00	643.00	642.00	634.00	633.00	635.00	637.00	640.00	644.00	649.00	646.00	641.00	646.00	648.00	646.00	650.00	648.00	650.00	649.00	645.00	649.00	648.00	646.00	645.00	646.00	642.00	644.00	640.00	641.00	643.00	646.00	646.00	645.00	645.00	649.00	645.00	642.00	640.00	644.00	644.00	645.00	647.00	647.00	646.00	644.00	643.00	647.00	639.00	649.00	648.00	646.00	649.00	650.00	650.00	638.00	634.00	649.00	655.00	655.00	653.00	652.00	655.00	660.00	660.00	659.00	659.00	670.00	666.00	662.00	664.00	681.00	674.00	680.00	677.00	674.00	674.00	676.00	675.00	674.00	674.00	672.00	674.00	674.00	679.00	679.00	676.00	673.00	670.00	667.00	666.00	666.00	664.00	663.00	652.00	649.00	646.00	643.00	637.00	633.00	631.00	628.00	626.00	618.00	613.00	607.00	609.00	609.00	605.00	604.00	602.00	600.00	596.00	594.00	591.00	590.00	587.00	585.00	582.00	580.00	578.00	574.00	573.00	572.00	570.00	566.00	565.00	563.00	562.00	561.00	559.00	557.00	551.00	550.00	548.00	548.00	549.00	548.00	547.00	541.00	542.00	544.00	544.00	542.00	543.00	542.00	542.00	530.00	514.00	509.00	523.00	525.00	524.00	531.00
730.00	734.00	730.00	722.00	727.00	730.00	729.00	731.00	709.00	709.00	713.00	723.00	736.00	740.00	739.00	738.00	734.00	730.00	724.00	721.00	721.00	726.00	715.00	715.00	720.00	696.00	689.00	693.00	702.00	715.00	729.00	723.00	723.00	723.00	722.00	717.00	718.00	721.00	725.00	722.00	721.00	714.00	712.00	706.00	708.00	699.00	665.00	655.00	652.00	648.00	652.00	664.00	697.00	706.00	709.00	707.00	704.00	705.00	703.00	705.00	706.00	707.00	707.00	706.00	708.00	705.00	703.00	706.00	710.00	714.00	711.00	709.00	704.00	702.00	702.00	692.00	686.00	682.00	679.00	675.00	675.00	673.00	675.00	677.00	673.00	671.00	669.00	665.00	660.00	657.00	655.00	658.00	651.00	643.00	638.00	645.00	633.00	630.00	619.00	610.00	609.00	608.00	626.00	631.00	633.00	631.00	636.00	638.00	640.00	640.00	641.00	640.00	645.00	643.00	646.00	645.00	648.00	647.00	646.00	648.00	649.00	647.00	652.00	654.00	658.00	653.00	648.00	646.00	649.00	648.00	643.00	645.00	646.00	651.00	646.00	644.00	641.00	642.00	643.00	643.00	640.00	644.00	645.00	646.00	647.00	645.00	646.00	638.00	640.00	651.00	650.00	649.00	648.00	650.00	647.00	650.00	650.00	637.00	643.00	655.00	657.00	655.00	654.00	653.00	649.00	655.00	652.00	650.00	653.00	657.00	655.00	654.00	661.00	680.00	676.00	666.00	668.00	668.00	671.00	671.00	672.00	668.00	665.00	668.00	677.00	676.00	678.00	680.00	676.00	677.00	674.00	671.00	669.00	668.00	665.00	664.00	656.00	654.00	652.00	647.00	642.00	640.00	633.00	628.00	624.00	621.00	621.00	617.00	615.00	610.00	609.00	607.00	604.00	602.00	598.00	597.00	594.00	594.00	588.00	587.00	585.00	583.00	582.00	578.00	577.00	575.00	572.00	567.00	567.00	565.00	563.00	560.00	556.00	552.00	552.00	554.00	556.00	553.00	551.00	550.00	548.00	547.00	548.00	547.00	544.00	543.00	542.00	542.00	539.00	519.00	535.00	531.00	534.00	535.00	533.00	532.00
724.00	727.00	726.00	722.00	722.00	721.00	718.00	718.00	711.00	717.00	721.00	726.00	746.00	744.00	741.00	742.00	734.00	731.00	735.00	732.00	728.00	735.00	733.00	732.00	723.00	706.00	687.00	703.00	719.00	730.00	726.00	729.00	727.00	729.00	726.00	720.00	718.00	722.00	725.00	720.00	712.00	704.00	694.00	702.00	703.00	668.00	648.00	648.00	647.00	648.00	651.00	661.00	691.00	697.00	705.00	705.00	700.00	703.00	703.00	707.00	709.00	704.00	705.00	704.00	703.00	702.00	704.00	706.00	709.00	712.00	710.00	711.00	709.00	705.00	700.00	690.00	685.00	685.00	684.00	674.00	673.00	673.00	675.00	675.00	675.00	671.00	667.00	665.00	660.00	659.00	659.00	658.00	655.00	652.00	648.00	648.00	641.00	631.00	618.00	615.00	609.00	608.00	621.00	630.00	634.00	638.00	642.00	644.00	644.00	636.00	634.00	636.00	646.00	643.00	643.00	644.00	646.00	647.00	647.00	649.00	650.00	647.00	648.00	651.00	653.00	657.00	658.00	657.00	654.00	651.00	646.00	646.00	640.00	645.00	643.00	641.00	641.00	641.00	640.00	641.00	639.00	639.00	644.00	642.00	644.00	644.00	640.00	646.00	651.00	657.00	652.00	648.00	653.00	653.00	650.00	644.00	645.00	635.00	641.00	659.00	664.00	661.00	656.00	655.00	650.00	652.00	651.00	649.00	651.00	653.00	651.00	648.00	648.00	664.00	665.00	665.00	664.00	665.00	667.00	668.00	668.00	669.00	666.00	671.00	677.00	673.00	674.00	675.00	678.00	677.00	676.00	675.00	671.00	671.00	671.00	667.00	657.00	659.00	654.00	649.00	648.00	643.00	636.00	636.00	635.00	629.00	624.00	621.00	617.00	615.00	612.00	610.00	606.00	605.00	600.00	598.00	598.00	596.00	589.00	587.00	586.00	585.00	582.00	579.00	578.00	574.00	571.00	566.00	564.00	562.00	561.00	562.00	559.00	558.00	559.00	557.00	555.00	554.00	552.00	551.00	550.00	548.00	547.00	546.00	545.00	544.00	542.00	541.00	529.00	538.00	543.00	541.00	535.00	536.00	536.00	534.00
720.00	727.00	732.00	725.00	718.00	714.00	713.00	709.00	717.00	725.00	731.00	734.00	733.00	735.00	738.00	742.00	738.00	735.00	738.00	738.00	737.00	726.00	711.00	705.00	708.00	693.00	686.00	703.00	717.00	723.00	721.00	727.00	736.00	734.00	728.00	721.00	716.00	720.00	723.00	723.00	712.00	707.00	687.00	671.00	660.00	650.00	649.00	653.00	647.00	648.00	650.00	652.00	674.00	692.00	698.00	696.00	695.00	703.00	708.00	709.00	709.00	704.00	703.00	704.00	704.00	701.00	703.00	705.00	709.00	710.00	714.00	710.00	712.00	708.00	702.00	687.00	685.00	682.00	681.00	677.00	675.00	672.00	673.00	674.00	674.00	670.00	666.00	665.00	662.00	660.00	659.00	657.00	659.00	659.00	656.00	655.00	651.00	626.00	618.00	615.00	612.00	609.00	610.00	615.00	621.00	633.00	635.00	632.00	634.00	633.00	642.00	641.00	648.00	644.00	638.00	644.00	645.00	641.00	647.00	650.00	647.00	649.00	646.00	648.00	651.00	652.00	656.00	655.00	656.00	653.00	648.00	642.00	637.00	635.00	644.00	642.00	640.00	643.00	638.00	638.00	644.00	643.00	646.00	649.00	656.00	657.00	652.00	651.00	652.00	655.00	649.00	648.00	651.00	651.00	647.00	641.00	642.00	633.00	638.00	653.00	660.00	658.00	656.00	657.00	650.00	655.00	656.00	651.00	649.00	647.00	646.00	643.00	641.00	662.00	664.00	660.00	659.00	661.00	664.00	663.00	669.00	668.00	663.00	668.00	670.00	671.00	675.00	678.00	678.00	680.00	677.00	677.00	675.00	673.00	669.00	663.00	657.00	655.00	654.00	652.00	647.00	649.00	648.00	641.00	640.00	633.00	630.00	622.00	620.00	617.00	615.00	612.00	608.00	609.00	604.00	603.00	600.00	597.00	592.00	591.00	589.00	587.00	585.00	582.00	579.00	575.00	571.00	571.00	569.00	567.00	567.00	565.00	562.00	561.00	560.00	559.00	555.00	554.00	553.00	552.00	551.00	549.00	547.00	546.00	545.00	543.00	539.00	530.00	528.00	542.00	543.00	543.00	540.00	539.00	537.00	535.00
713.00	719.00	724.00	728.00	720.00	715.00	716.00	710.00	711.00	716.00	728.00	734.00	734.00	737.00	743.00	745.00	742.00	739.00	736.00	741.00	727.00	711.00	722.00	707.00	689.00	685.00	701.00	715.00	726.00	709.00	702.00	715.00	733.00	738.00	727.00	725.00	716.00	701.00	698.00	710.00	690.00	659.00	650.00	649.00	648.00	650.00	662.00	683.00	668.00	663.00	664.00	657.00	681.00	689.00	687.00	696.00	701.00	709.00	712.00	711.00	709.00	703.00	702.00	701.00	703.00	704.00	702.00	703.00	705.00	708.00	720.00	716.00	710.00	706.00	697.00	690.00	689.00	687.00	681.00	674.00	674.00	673.00	672.00	671.00	670.00	670.00	669.00	668.00	665.00	663.00	661.00	662.00	663.00	659.00	653.00	650.00	642.00	637.00	632.00	623.00	619.00	609.00	611.00	612.00	620.00	629.00	635.00	640.00	643.00	644.00	643.00	647.00	649.00	651.00	651.00	646.00	641.00	643.00	645.00	645.00	650.00	648.00	645.00	642.00	642.00	646.00	655.00	654.00	653.00	647.00	646.00	644.00	641.00	639.00	640.00	643.00	647.00	644.00	635.00	639.00	648.00	644.00	649.00	650.00	653.00	652.00	656.00	654.00	651.00	647.00	647.00	646.00	647.00	648.00	644.00	642.00	639.00	626.00	636.00	643.00	651.00	649.00	648.00	649.00	644.00	655.00	650.00	651.00	651.00	648.00	644.00	648.00	645.00	662.00	662.00	664.00	660.00	659.00	659.00	658.00	657.00	664.00	664.00	668.00	672.00	671.00	676.00	678.00	683.00	683.00	680.00	677.00	675.00	671.00	669.00	666.00	656.00	659.00	658.00	655.00	654.00	653.00	653.00	650.00	646.00	639.00	637.00	629.00	624.00	619.00	617.00	615.00	611.00	611.00	607.00	605.00	604.00	601.00	595.00	593.00	590.00	589.00	588.00	584.00	579.00	579.00	579.00	573.00	572.00	570.00	569.00	567.00	563.00	561.00	558.00	556.00	554.00	555.00	551.00	553.00	551.00	545.00	544.00	545.00	542.00	533.00	534.00	539.00	541.00	542.00	540.00	541.00	539.00	537.00	535.00	534.00
712.00	719.00	718.00	722.00	723.00	719.00	718.00	721.00	702.00	708.00	719.00	724.00	734.00	741.00	747.00	749.00	748.00	744.00	741.00	733.00	739.00	725.00	729.00	721.00	694.00	676.00	679.00	683.00	687.00	665.00	665.00	676.00	712.00	739.00	732.00	733.00	733.00	719.00	693.00	684.00	684.00	647.00	647.00	668.00	668.00	678.00	691.00	699.00	697.00	691.00	668.00	663.00	675.00	680.00	688.00	696.00	705.00	712.00	712.00	711.00	709.00	702.00	701.00	701.00	704.00	706.00	703.00	703.00	703.00	705.00	713.00	711.00	704.00	698.00	693.00	687.00	688.00	688.00	682.00	675.00	673.00	677.00	676.00	670.00	669.00	670.00	669.00	668.00	665.00	664.00	663.00	663.00	659.00	657.00	658.00	656.00	655.00	649.00	642.00	634.00	628.00	613.00	610.00	611.00	616.00	617.00	633.00	638.00	636.00	638.00	641.00	643.00	649.00	649.00	650.00	647.00	648.00	648.00	646.00	647.00	648.00	644.00	643.00	646.00	641.00	645.00	645.00	648.00	649.00	645.00	646.00	642.00	643.00	630.00	638.00	640.00	642.00	641.00	641.00	644.00	646.00	640.00	644.00	646.00	646.00	646.00	647.00	649.00	647.00	645.00	643.00	644.00	643.00	642.00	639.00	641.00	638.00	624.00	636.00	641.00	645.00	646.00	645.00	641.00	643.00	647.00	647.00	644.00	646.00	646.00	644.00	641.00	650.00	653.00	659.00	662.00	652.00	656.00	655.00	654.00	656.00	658.00	663.00	668.00	673.00	673.00	672.00	676.00	675.00	674.00	676.00	675.00	675.00	670.00	668.00	667.00	663.00	662.00	658.00	652.00	658.00	658.00	656.00	652.00	648.00	644.00	640.00	637.00	636.00	625.00	622.00	619.00	616.00	612.00	610.00	609.00	607.00	604.00	598.00	595.00	594.00	592.00	591.00	587.00	585.00	582.00	581.00	577.00	574.00	573.00	571.00	568.00	564.00	560.00	559.00	559.00	554.00	551.00	549.00	548.00	546.00	542.00	542.00	540.00	540.00	546.00	544.00	544.00	544.00	541.00	539.00	539.00	540.00	539.00	535.00	533.00
705.00	713.00	714.00	713.00	709.00	712.00	713.00	718.00	700.00	699.00	705.00	710.00	729.00	741.00	754.00	756.00	750.00	747.00	742.00	741.00	745.00	735.00	739.00	736.00	731.00	709.00	689.00	689.00	675.00	684.00	664.00	696.00	726.00	737.00	729.00	732.00	718.00	715.00	713.00	663.00	664.00	649.00	645.00	661.00	686.00	687.00	701.00	699.00	690.00	677.00	666.00	686.00	682.00	691.00	695.00	698.00	703.00	711.00	711.00	710.00	708.00	702.00	702.00	702.00	703.00	704.00	706.00	704.00	705.00	707.00	707.00	704.00	695.00	691.00	689.00	681.00	678.00	678.00	679.00	677.00	678.00	672.00	670.00	671.00	664.00	667.00	669.00	667.00	666.00	665.00	663.00	660.00	660.00	662.00	664.00	662.00	660.00	646.00	639.00	639.00	634.00	618.00	606.00	609.00	614.00	618.00	631.00	636.00	639.00	639.00	641.00	645.00	651.00	654.00	654.00	649.00	647.00	646.00	646.00	649.00	644.00	644.00	644.00	648.00	642.00	642.00	641.00	637.00	644.00	642.00	644.00	640.00	640.00	631.00	640.00	640.00	636.00	639.00	644.00	646.00	644.00	640.00	647.00	649.00	647.00	647.00	647.00	644.00	643.00	641.00	639.00	644.00	643.00	644.00	644.00	637.00	630.00	637.00	640.00	639.00	639.00	642.00	647.00	644.00	645.00	641.00	640.00	640.00	642.00	645.00	645.00	644.00	649.00	650.00	649.00	654.00	647.00	645.00	656.00	654.00	653.00	654.00	663.00	667.00	671.00	672.00	670.00	672.00	676.00	678.00	679.00	678.00	675.00	670.00	667.00	667.00	663.00	661.00	655.00	660.00	659.00	660.00	655.00	653.00	649.00	644.00	644.00	643.00	640.00	633.00	629.00	625.00	619.00	617.00	615.00	614.00	612.00	609.00	603.00	600.00	596.00	593.00	592.00	589.00	588.00	586.00	585.00	580.00	578.00	575.00	570.00	567.00	562.00	563.00	562.00	561.00	556.00	556.00	554.00	554.00	552.00	550.00	550.00	549.00	548.00	546.00	546.00	544.00	544.00	542.00	540.00	539.00	539.00	539.00	535.00	532.00
705.00	713.00	714.00	713.00	709.00	712.00	713.00	718.00	700.00	699.00	705.00	710.00	729.00	741.00	754.00	756.00	750.00	747.00	742.00	741.00	745.00	735.00	739.00	736.00	731.00	709.00	689.00	689.00	675.00	684.00	664.00	696.00	726.00	737.00	729.00	732.00	718.00	715.00	713.00	663.00	664.00	649.00	645.00	661.00	686.00	687.00	701.00	699.00	690.00	677.00	666.00	686.00	682.00	691.00	695.00	698.00	703.00	711.00	711.00	710.00	708.00	702.00	702.00	702.00	703.00	704.00	706.00	704.00	705.00	707.00	707.00	704.00	695.00	691.00	689.00	681.00	678.00	678.00	679.00	677.00	678.00	672.00	670.00	671.00	664.00	667.00	669.00	667.00	666.00	665.00	663.00	660.00	660.00	662.00	664.00	662.00	660.00	646.00	639.00	639.00	634.00	618.00	606.00	609.00	614.00	618.00	631.00	636.00	639.00	639.00	641.00	645.00	651.00	654.00	654.00	649.00	647.00	646.00	646.00	649.00	644.00	644.00	644.00	648.00	642.00	642.00	641.00	637.00	644.00	642.00	644.00	640.00	640.00	631.00	640.00	640.00	636.00	639.00	644.00	646.00	644.00	640.00	647.00	649.00	647.00	647.00	647.00	644.00	643.00	641.00	639.00	644.00	643.00	644.00	644.00	637.00	630.00	637.00	640.00	639.00	639.00	642.00	647.00	644.00	645.00	641.00	640.00	640.00	642.00	645.00	645.00	644.00	649.00	650.00	649.00	654.00	647.00	645.00	656.00	654.00	653.00	654.00	663.00	667.00	671.00	672.00	670.00	672.00	676.00	678.00	679.00	678.00	675.00	670.00	667.00	667.00	663.00	661.00	655.00	660.00	659.00	660.00	655.00	653.00	649.00	644.00	644.00	643.00	640.00	633.00	629.00	625.00	619.00	617.00	615.00	614.00	612.00	609.00	603.00	600.00	596.00	593.00	592.00	589.00	588.00	586.00	585.00	580.00	578.00	575.00	570.00	567.00	562.00	563.00	562.00	561.00	556.00	556.00	554.00	554.00	552.00	550.00	550.00	549.00	548.00	546.00	546.00	544.00	544.00	542.00	540.00	539.00	539.00	539.00	535.00	532.00
697.00	702.00	706.00	704.00	705.00	705.00	703.00	705.00	697.00	694.00	699.00	706.00	731.00	747.00	752.00	757.00	756.00	753.00	746.00	747.00	748.00	739.00	722.00	723.00	744.00	733.00	740.00	731.00	683.00	652.00	675.00	719.00	694.00	720.00	712.00	707.00	678.00	676.00	687.00	688.00	669.00	651.00	646.00	647.00	661.00	676.00	695.00	706.00	699.00	677.00	679.00	686.00	687.00	687.00	690.00	692.00	695.00	708.00	710.00	709.00	704.00	700.00	702.00	702.00	705.00	705.00	710.00	708.00	711.00	717.00	696.00	695.00	692.00	689.00	687.00	683.00	683.00	675.00	673.00	678.00	675.00	674.00	674.00	669.00	667.00	664.00	664.00	666.00	667.00	663.00	661.00	659.00	657.00	663.00	663.00	662.00	657.00	642.00	631.00	631.00	627.00	627.00	604.00	609.00	613.00	618.00	635.00	642.00	642.00	641.00	645.00	650.00	654.00	655.00	656.00	654.00	650.00	645.00	645.00	649.00	645.00	646.00	645.00	648.00	639.00	640.00	640.00	641.00	643.00	641.00	640.00	639.00	641.00	640.00	639.00	639.00	637.00	637.00	646.00	649.00	648.00	645.00	648.00	649.00	643.00	642.00	647.00	642.00	643.00	639.00	642.00	643.00	641.00	639.00	641.00	634.00	639.00	638.00	637.00	638.00	638.00	645.00	647.00	647.00	647.00	646.00	641.00	641.00	639.00	648.00	648.00	643.00	634.00	642.00	643.00	643.00	642.00	642.00	649.00	656.00	659.00	653.00	659.00	662.00	664.00	666.00	669.00	673.00	673.00	674.00	676.00	675.00	669.00	667.00	669.00	668.00	661.00	652.00	654.00	662.00	658.00	657.00	653.00	653.00	650.00	650.00	649.00	645.00	642.00	638.00	638.00	631.00	622.00	623.00	618.00	617.00	615.00	613.00	604.00	602.00	598.00	597.00	595.00	592.00	591.00	589.00	589.00	579.00	576.00	574.00	574.00	573.00	569.00	565.00	563.00	561.00	560.00	559.00	555.00	554.00	552.00	553.00	552.00	551.00	549.00	548.00	547.00	547.00	546.00	543.00	542.00	540.00	539.00	539.00	537.00	534.00
690.00	692.00	694.00	689.00	688.00	690.00	694.00	696.00	694.00	702.00	709.00	717.00	724.00	722.00	737.00	748.00	747.00	739.00	752.00	755.00	752.00	721.00	705.00	682.00	674.00	672.00	672.00	668.00	643.00	695.00	691.00	651.00	642.00	641.00	635.00	636.00	637.00	639.00	640.00	644.00	643.00	643.00	650.00	677.00	664.00	663.00	682.00	704.00	702.00	689.00	694.00	701.00	710.00	702.00	699.00	702.00	694.00	702.00	703.00	701.00	697.00	702.00	703.00	704.00	702.00	703.00	708.00	712.00	716.00	715.00	692.00	689.00	688.00	683.00	681.00	679.00	678.00	675.00	676.00	670.00	672.00	669.00	670.00	672.00	664.00	659.00	666.00	665.00	668.00	666.00	662.00	662.00	659.00	641.00	642.00	644.00	644.00	626.00	624.00	626.00	617.00	616.00	602.00	609.00	615.00	618.00	635.00	640.00	645.00	648.00	650.00	653.00	656.00	657.00	657.00	664.00	658.00	649.00	649.00	648.00	645.00	645.00	643.00	639.00	639.00	639.00	638.00	638.00	638.00	638.00	638.00	639.00	637.00	641.00	645.00	644.00	640.00	643.00	644.00	644.00	645.00	645.00	647.00	648.00	645.00	641.00	640.00	635.00	636.00	640.00	639.00	636.00	633.00	630.00	632.00	634.00	629.00	632.00	633.00	634.00	637.00	637.00	639.00	641.00	641.00	642.00	640.00	640.00	635.00	641.00	638.00	640.00	643.00	654.00	654.00	650.00	642.00	642.00	657.00	655.00	652.00	651.00	661.00	664.00	662.00	664.00	666.00	670.00	672.00	671.00	667.00	676.00	669.00	668.00	671.00	663.00	642.00	650.00	658.00	657.00	661.00	653.00	657.00	656.00	653.00	654.00	652.00	648.00	647.00	639.00	639.00	641.00	641.00	635.00	629.00	625.00	620.00	618.00	610.00	607.00	604.00	600.00	595.00	595.00	594.00	592.00	590.00	588.00	585.00	583.00	579.00	576.00	575.00	573.00	570.00	569.00	565.00	564.00	561.00	559.00	556.00	553.00	554.00	553.00	551.00	548.00	547.00	546.00	546.00	545.00	542.00	541.00	540.00	539.00	538.00	537.00
690.00	692.00	694.00	689.00	688.00	690.00	694.00	696.00	694.00	702.00	709.00	717.00	724.00	722.00	737.00	748.00	747.00	739.00	752.00	755.00	752.00	721.00	705.00	682.00	674.00	672.00	672.00	668.00	643.00	695.00	691.00	651.00	642.00	641.00	635.00	636.00	637.00	639.00	640.00	644.00	643.00	643.00	650.00	677.00	664.00	663.00	682.00	704.00	702.00	689.00	694.00	701.00	710.00	702.00	699.00	702.00	694.00	702.00	703.00	701.00	697.00	702.00	703.00	704.00	702.00	703.00	708.00	712.00	716.00	715.00	692.00	689.00	688.00	683.00	681.00	679.00	678.00	675.00	676.00	670.00	672.00	669.00	670.00	672.00	664.00	659.00	666.00	665.00	668.00	666.00	662.00	662.00	659.00	641.00	642.00	644.00	644.00	626.00	624.00	626.00	617.00	616.00	602.00	609.00	615.00	618.00	635.00	640.00	645.00	648.00	650.00	653.00	656.00	657.00	657.00	664.00	658.00	649.00	649.00	648.00	645.00	645.00	643.00	639.00	639.00	639.00	638.00	638.00	638.00	638.00	638.00	639.00	637.00	641.00	645.00	644.00	640.00	643.00	644.00	644.00	645.00	645.00	647.00	648.00	645.00	641.00	640.00	635.00	636.00	640.00	639.00	636.00	633.00	630.00	632.00	634.00	629.00	632.00	633.00	634.00	637.00	637.00	639.00	641.00	641.00	642.00	640.00	640.00	635.00	641.00	638.00	640.00	643.00	654.00	654.00	650.00	642.00	642.00	657.00	655.00	652.00	651.00	661.00	664.00	662.00	664.00	666.00	670.00	672.00	671.00	667.00	676.00	669.00	668.00	671.00	663.00	642.00	650.00	658.00	657.00	661.00	653.00	657.00	656.00	653.00	654.00	652.00	648.00	647.00	639.00	639.00	641.00	641.00	635.00	629.00	625.00	620.00	618.00	610.00	607.00	604.00	600.00	595.00	595.00	594.00	592.00	590.00	588.00	585.00	583.00	579.00	576.00	575.00	573.00	570.00	569.00	565.00	564.00	561.00	559.00	556.00	553.00	554.00	553.00	551.00	548.00	547.00	546.00	546.00	545.00	542.00	541.00	540.00	539.00	538.00	537.00
689.00	689.00	687.00	687.00	684.00	690.00	694.00	691.00	686.00	691.00	698.00	701.00	704.00	707.00	730.00	741.00	715.00	707.00	751.00	758.00	756.00	719.00	726.00	734.00	711.00	675.00	674.00	645.00	634.00	676.00	689.00	642.00	633.00	636.00	648.00	649.00	656.00	660.00	657.00	643.00	645.00	664.00	681.00	684.00	690.00	672.00	678.00	681.00	699.00	695.00	700.00	703.00	710.00	710.00	705.00	701.00	698.00	699.00	696.00	693.00	696.00	701.00	701.00	705.00	707.00	706.00	706.00	707.00	706.00	701.00	689.00	690.00	686.00	684.00	682.00	682.00	681.00	678.00	679.00	675.00	670.00	667.00	665.00	664.00	664.00	660.00	657.00	656.00	660.00	659.00	661.00	656.00	650.00	651.00	646.00	643.00	633.00	635.00	641.00	638.00	619.00	617.00	605.00	610.00	619.00	626.00	642.00	646.00	648.00	648.00	649.00	651.00	651.00	654.00	656.00	653.00	650.00	648.00	647.00	646.00	641.00	641.00	642.00	638.00	642.00	643.00	641.00	642.00	640.00	643.00	642.00	639.00	641.00	649.00	647.00	649.00	644.00	645.00	643.00	645.00	643.00	645.00	648.00	647.00	643.00	642.00	641.00	638.00	641.00	640.00	636.00	631.00	629.00	628.00	630.00	629.00	628.00	628.00	632.00	631.00	635.00	634.00	635.00	638.00	640.00	640.00	639.00	639.00	639.00	639.00	643.00	644.00	643.00	640.00	643.00	647.00	640.00	645.00	656.00	655.00	654.00	654.00	657.00	661.00	663.00	666.00	663.00	665.00	664.00	668.00	672.00	668.00	666.00	665.00	663.00	659.00	641.00	658.00	663.00	666.00	659.00	656.00	657.00	664.00	657.00	655.00	653.00	649.00	644.00	637.00	641.00	641.00	643.00	640.00	635.00	632.00	627.00	623.00	612.00	608.00	602.00	600.00	599.00	594.00	594.00	594.00	592.00	589.00	586.00	584.00	583.00	582.00	579.00	576.00	575.00	573.00	570.00	568.00	564.00	562.00	561.00	557.00	555.00	555.00	554.00	551.00	550.00	549.00	548.00	545.00	542.00	539.00	537.00	536.00	528.00	526.00
682.00	684.00	685.00	682.00	679.00	683.00	685.00	684.00	683.00	681.00	688.00	692.00	694.00	702.00	702.00	709.00	717.00	687.00	742.00	751.00	759.00	754.00	732.00	718.00	724.00	706.00	685.00	662.00	631.00	671.00	654.00	634.00	637.00	662.00	691.00	670.00	688.00	695.00	684.00	658.00	659.00	652.00	661.00	673.00	691.00	694.00	699.00	692.00	699.00	701.00	706.00	710.00	711.00	715.00	714.00	710.00	704.00	693.00	688.00	689.00	696.00	700.00	700.00	702.00	706.00	708.00	706.00	698.00	692.00	687.00	689.00	687.00	684.00	681.00	681.00	679.00	678.00	678.00	679.00	674.00	673.00	663.00	662.00	661.00	664.00	662.00	660.00	657.00	656.00	656.00	654.00	653.00	654.00	657.00	653.00	648.00	636.00	645.00	641.00	632.00	614.00	604.00	607.00	613.00	624.00	634.00	645.00	648.00	647.00	645.00	645.00	647.00	647.00	650.00	650.00	648.00	643.00	643.00	641.00	639.00	638.00	638.00	640.00	641.00	642.00	642.00	643.00	642.00	643.00	645.00	644.00	644.00	644.00	649.00	646.00	644.00	642.00	642.00	643.00	643.00	642.00	648.00	644.00	646.00	648.00	645.00	642.00	638.00	636.00	638.00	634.00	629.00	628.00	627.00	632.00	631.00	632.00	635.00	632.00	634.00	638.00	634.00	633.00	635.00	636.00	643.00	642.00	636.00	641.00	636.00	637.00	642.00	647.00	646.00	645.00	642.00	641.00	643.00	660.00	666.00	668.00	666.00	667.00	658.00	655.00	659.00	668.00	661.00	660.00	666.00	666.00	662.00	659.00	664.00	663.00	657.00	645.00	661.00	660.00	662.00	658.00	663.00	669.00	679.00	667.00	659.00	660.00	649.00	648.00	640.00	637.00	637.00	638.00	639.00	637.00	634.00	632.00	626.00	616.00	607.00	608.00	604.00	603.00	596.00	592.00	592.00	588.00	585.00	587.00	586.00	584.00	584.00	581.00	579.00	578.00	577.00	572.00	571.00	567.00	564.00	562.00	559.00	557.00	553.00	552.00	552.00	550.00	547.00	544.00	544.00	534.00	538.00	534.00	531.00	536.00	537.00
673.00	684.00	687.00	686.00	677.00	674.00	675.00	679.00	683.00	676.00	683.00	686.00	688.00	694.00	681.00	678.00	679.00	681.00	739.00	752.00	758.00	692.00	688.00	663.00	648.00	636.00	635.00	634.00	626.00	634.00	630.00	632.00	641.00	649.00	696.00	705.00	700.00	720.00	706.00	682.00	680.00	657.00	661.00	696.00	690.00	696.00	705.00	703.00	707.00	705.00	710.00	715.00	719.00	716.00	712.00	710.00	708.00	696.00	688.00	687.00	694.00	696.00	697.00	703.00	704.00	702.00	701.00	694.00	686.00	691.00	689.00	687.00	685.00	685.00	681.00	678.00	678.00	676.00	675.00	678.00	671.00	664.00	665.00	664.00	660.00	660.00	658.00	661.00	666.00	663.00	658.00	656.00	661.00	653.00	645.00	640.00	637.00	638.00	639.00	621.00	606.00	603.00	615.00	623.00	629.00	637.00	643.00	644.00	644.00	644.00	647.00	645.00	647.00	646.00	644.00	640.00	636.00	634.00	635.00	636.00	638.00	641.00	643.00	643.00	642.00	644.00	646.00	645.00	645.00	647.00	646.00	646.00	646.00	645.00	642.00	641.00	641.00	639.00	643.00	646.00	650.00	649.00	644.00	647.00	644.00	647.00	644.00	639.00	636.00	637.00	633.00	630.00	630.00	630.00	633.00	633.00	633.00	636.00	635.00	629.00	646.00	635.00	635.00	639.00	635.00	636.00	636.00	636.00	636.00	633.00	634.00	642.00	649.00	654.00	655.00	640.00	645.00	653.00	657.00	664.00	668.00	666.00	665.00	662.00	656.00	656.00	657.00	659.00	662.00	661.00	661.00	660.00	657.00	656.00	659.00	658.00	663.00	668.00	652.00	655.00	657.00	661.00	661.00	670.00	669.00	668.00	667.00	648.00	648.00	644.00	641.00	634.00	634.00	632.00	633.00	631.00	629.00	624.00	614.00	611.00	614.00	610.00	609.00	604.00	601.00	599.00	596.00	584.00	585.00	581.00	582.00	580.00	583.00	583.00	580.00	578.00	575.00	571.00	565.00	561.00	559.00	557.00	555.00	553.00	551.00	547.00	545.00	542.00	544.00	537.00	543.00	542.00	541.00	541.00	541.00	541.00
