325.00	328.00	330.00	348.00	354.00	363.00	376.00	386.00	437.00	450.00	453.00	451.00	377.00	281.00	329.00	358.00	373.00	409.00	413.00	410.00	416.00	426.00	426.00	424.00	417.00	414.00	409.00	402.00	401.00	409.00	383.00	325.00	254.00	191.00	292.00	373.00	382.00	380.00	379.00	376.00	370.00	365.00	359.00	346.00	298.00	265.00	225.00	219.00	236.00	209.00	178.00	155.00	138.00	73.00	42.00	23.00	23.00	21.00	19.00	16.00	39.00	105.00	208.00	240.00	246.00	244.00	236.00	229.00	215.00	202.00	185.00	142.00	126.00	109.00	92.00	70.00	64.00	61.00	54.00	45.00	37.00	28.00	28.00	29.00	27.00	26.00	25.00	29.00	35.00	47.00	64.00	66.00	71.00	98.00	113.00	127.00	129.00	122.00	116.00	117.00	116.00	118.00	110.00	102.00	99.00	101.00	101.00	93.00	89.00	98.00	111.00	156.00	137.00	102.00	87.00	87.00	61.00	47.00	36.00	61.00	78.00	76.00	77.00	79.00	71.00	67.00	66.00	72.00	74.00	119.00	162.00	186.00	194.00	192.00	189.00	188.00	174.00	160.00	106.00	46.00	40.00	42.00	61.00	83.00	120.00	148.00	169.00	187.00	187.00	183.00	169.00	156.00	149.00	137.00	130.00	131.00	153.00	149.00	148.00	118.00	151.00	155.00	146.00	122.00	147.00	147.00	146.00	142.00	139.00	113.00	138.00	140.00	133.00	125.00	110.00	128.00	127.00	130.00	117.00	110.00	73.00	67.00	54.00	61.00	72.00	75.00	87.00	117.00	119.00	121.00	123.00	123.00	118.00	116.00	114.00	114.00	111.00	113.00	113.00	112.00	108.00	108.00	112.00	115.00	117.00	115.00	114.00	114.00	113.00	112.00	112.00	112.00	112.00	111.00	110.00	110.00	110.00	109.00	108.00	106.00	105.00	104.00	103.00	102.00	102.00	102.00	101.00	100.00	97.00	96.00	96.00	96.00	95.00	93.00	93.00	93.00	92.00	91.00	91.00	90.00	90.00	89.00	88.00	88.00	87.00	86.00	85.00	85.00	85.00	85.00	84.00	84.00	83.00	82.00	82.00	82.00
325.00	328.00	330.00	348.00	354.00	363.00	376.00	386.00	437.00	450.00	453.00	451.00	377.00	281.00	329.00	358.00	373.00	409.00	413.00	410.00	416.00	426.00	426.00	424.00	417.00	414.00	409.00	402.00	401.00	409.00	383.00	325.00	254.00	191.00	292.00	373.00	382.00	380.00	379.00	376.00	370.00	365.00	359.00	346.00	298.00	265.00	225.00	219.00	236.00	209.00	178.00	155.00	138.00	73.00	42.00	23.00	23.00	21.00	19.00	16.00	39.00	105.00	208.00	240.00	246.00	244.00	236.00	229.00	215.00	202.00	185.00	142.00	126.00	109.00	92.00	70.00	64.00	61.00	54.00	45.00	37.00	28.00	28.00	29.00	27.00	26.00	25.00	29.00	35.00	47.00	64.00	66.00	71.00	98.00	113.00	127.00	129.00	122.00	116.00	117.00	116.00	118.00	110.00	102.00	99.00	101.00	101.00	93.00	89.00	98.00	111.00	156.00	137.00	102.00	87.00	87.00	61.00	47.00	36.00	61.00	78.00	76.00	77.00	79.00	71.00	67.00	66.00	72.00	74.00	119.00	162.00	186.00	194.00	192.00	189.00	188.00	174.00	160.00	106.00	46.00	40.00	42.00	61.00	83.00	120.00	148.00	169.00	187.00	187.00	183.00	169.00	156.00	149.00	137.00	130.00	131.00	153.00	149.00	148.00	118.00	151.00	155.00	146.00	122.00	147.00	147.00	146.00	142.00	139.00	113.00	138.00	140.00	133.00	125.00	110.00	128.00	127.00	130.00	117.00	110.00	73.00	67.00	54.00	61.00	72.00	75.00	87.00	117.00	119.00	121.00	123.00	123.00	118.00	116.00	114.00	114.00	111.00	113.00	113.00	112.00	108.00	108.00	112.00	115.00	117.00	115.00	114.00	114.00	113.00	112.00	112.00	112.00	112.00	111.00	110.00	110.00	110.00	109.00	108.00	106.00	105.00	104.00	103.00	102.00	102.00	102.00	101.00	100.00	97.00	96.00	96.00	96.00	95.00	93.00	93.00	93.00	92.00	91.00	91.00	90.00	90.00	89.00	88.00	88.00	87.00	86.00	85.00	85.00	85.00	85.00	84.00	84.00	83.00	82.00	82.00	82.00
344.00	352.00	360.00	386.00	397.00	411.00	425.00	440.00	450.00	437.00	426.00	422.00	373.00	294.00	351.00	377.00	391.00	408.00	413.00	426.00	435.00	446.00	448.00	449.00	439.00	435.00	424.00	416.00	407.00	394.00	306.00	258.00	237.00	277.00	312.00	375.00	384.00	378.00	373.00	330.00	339.00	345.00	350.00	348.00	284.00	242.00	215.00	173.00	141.00	166.00	168.00	158.00	167.00	117.00	65.00	27.00	27.00	23.00	21.00	20.00	20.00	30.00	161.00	208.00	208.00	205.00	221.00	235.00	247.00	250.00	245.00	228.00	218.00	198.00	171.00	105.00	69.00	55.00	43.00	32.00	23.00	26.00	28.00	32.00	26.00	23.00	26.00	21.00	22.00	24.00	23.00	21.00	21.00	26.00	51.00	90.00	126.00	136.00	134.00	131.00	130.00	137.00	135.00	121.00	113.00	110.00	110.00	84.00	78.00	86.00	97.00	113.00	100.00	98.00	100.00	93.00	65.00	53.00	37.00	69.00	79.00	70.00	70.00	68.00	59.00	57.00	50.00	45.00	48.00	71.00	97.00	127.00	160.00	190.00	161.00	117.00	83.00	63.00	46.00	78.00	87.00	64.00	145.00	153.00	166.00	176.00	182.00	185.00	182.00	178.00	168.00	160.00	161.00	153.00	149.00	155.00	158.00	158.00	151.00	134.00	151.00	152.00	144.00	139.00	151.00	153.00	152.00	151.00	149.00	133.00	141.00	133.00	140.00	139.00	141.00	141.00	138.00	134.00	121.00	82.00	109.00	126.00	121.00	89.00	72.00	53.00	56.00	93.00	101.00	112.00	119.00	119.00	112.00	111.00	109.00	109.00	107.00	107.00	104.00	103.00	108.00	112.00	110.00	106.00	111.00	116.00	115.00	114.00	114.00	113.00	113.00	112.00	112.00	112.00	112.00	111.00	111.00	110.00	109.00	107.00	106.00	105.00	104.00	103.00	103.00	102.00	101.00	100.00	100.00	99.00	99.00	98.00	97.00	95.00	95.00	95.00	93.00	93.00	92.00	92.00	91.00	90.00	90.00	90.00	88.00	87.00	87.00	86.00	86.00	86.00	85.00	84.00	84.00	84.00	83.00	82.00
387.00	406.00	421.00	448.00	455.00	455.00	448.00	443.00	434.00	421.00	404.00	379.00	344.00	380.00	393.00	409.00	424.00	453.00	456.00	455.00	457.00	460.00	461.00	460.00	447.00	426.00	375.00	351.00	330.00	321.00	278.00	286.00	312.00	358.00	393.00	394.00	393.00	389.00	385.00	337.00	309.00	263.00	244.00	266.00	202.00	179.00	140.00	117.00	112.00	103.00	90.00	85.00	76.00	59.00	46.00	28.00	26.00	23.00	21.00	19.00	19.00	19.00	35.00	90.00	91.00	100.00	172.00	196.00	220.00	233.00	232.00	212.00	231.00	223.00	197.00	130.00	67.00	45.00	27.00	22.00	24.00	25.00	26.00	26.00	30.00	30.00	29.00	25.00	22.00	17.00	17.00	20.00	21.00	22.00	22.00	22.00	29.00	120.00	137.00	139.00	136.00	134.00	147.00	137.00	116.00	115.00	107.00	77.00	61.00	57.00	60.00	66.00	72.00	75.00	80.00	69.00	46.00	39.00	24.00	32.00	34.00	29.00	25.00	24.00	25.00	26.00	26.00	25.00	26.00	38.00	48.00	59.00	79.00	99.00	64.00	47.00	53.00	89.00	141.00	161.00	157.00	122.00	127.00	141.00	136.00	153.00	167.00	170.00	170.00	168.00	164.00	161.00	160.00	158.00	161.00	162.00	155.00	147.00	154.00	159.00	156.00	154.00	148.00	148.00	153.00	153.00	153.00	153.00	148.00	147.00	146.00	147.00	146.00	144.00	141.00	139.00	134.00	128.00	110.00	84.00	124.00	133.00	132.00	128.00	120.00	113.00	80.00	50.00	68.00	99.00	100.00	102.00	113.00	112.00	110.00	105.00	101.00	102.00	108.00	112.00	114.00	116.00	115.00	115.00	116.00	117.00	116.00	115.00	114.00	114.00	114.00	114.00	114.00	113.00	111.00	111.00	110.00	110.00	110.00	108.00	108.00	107.00	105.00	105.00	104.00	103.00	102.00	102.00	101.00	101.00	100.00	100.00	99.00	98.00	97.00	96.00	95.00	94.00	94.00	93.00	93.00	91.00	91.00	91.00	90.00	89.00	88.00	88.00	87.00	87.00	86.00	85.00	85.00	85.00	84.00	83.00
387.00	406.00	421.00	448.00	455.00	455.00	448.00	443.00	434.00	421.00	404.00	379.00	344.00	380.00	393.00	409.00	424.00	453.00	456.00	455.00	457.00	460.00	461.00	460.00	447.00	426.00	375.00	351.00	330.00	321.00	278.00	286.00	312.00	358.00	393.00	394.00	393.00	389.00	385.00	337.00	309.00	263.00	244.00	266.00	202.00	179.00	140.00	117.00	112.00	103.00	90.00	85.00	76.00	59.00	46.00	28.00	26.00	23.00	21.00	19.00	19.00	19.00	35.00	90.00	91.00	100.00	172.00	196.00	220.00	233.00	232.00	212.00	231.00	223.00	197.00	130.00	67.00	45.00	27.00	22.00	24.00	25.00	26.00	26.00	30.00	30.00	29.00	25.00	22.00	17.00	17.00	20.00	21.00	22.00	22.00	22.00	29.00	120.00	137.00	139.00	136.00	134.00	147.00	137.00	116.00	115.00	107.00	77.00	61.00	57.00	60.00	66.00	72.00	75.00	80.00	69.00	46.00	39.00	24.00	32.00	34.00	29.00	25.00	24.00	25.00	26.00	26.00	25.00	26.00	38.00	48.00	59.00	79.00	99.00	64.00	47.00	53.00	89.00	141.00	161.00	157.00	122.00	127.00	141.00	136.00	153.00	167.00	170.00	170.00	168.00	164.00	161.00	160.00	158.00	161.00	162.00	155.00	147.00	154.00	159.00	156.00	154.00	148.00	148.00	153.00	153.00	153.00	153.00	148.00	147.00	146.00	147.00	146.00	144.00	141.00	139.00	134.00	128.00	110.00	84.00	124.00	133.00	132.00	128.00	120.00	113.00	80.00	50.00	68.00	99.00	100.00	102.00	113.00	112.00	110.00	105.00	101.00	102.00	108.00	112.00	114.00	116.00	115.00	115.00	116.00	117.00	116.00	115.00	114.00	114.00	114.00	114.00	114.00	113.00	111.00	111.00	110.00	110.00	110.00	108.00	108.00	107.00	105.00	105.00	104.00	103.00	102.00	102.00	101.00	101.00	100.00	100.00	99.00	98.00	97.00	96.00	95.00	94.00	94.00	93.00	93.00	91.00	91.00	91.00	90.00	89.00	88.00	88.00	87.00	87.00	86.00	85.00	85.00	85.00	84.00	83.00
462.00	474.00	475.00	455.00	449.00	443.00	434.00	416.00	396.00	390.00	374.00	399.00	435.00	439.00	456.00	458.00	464.00	469.00	464.00	460.00	455.00	451.00	448.00	444.00	423.00	407.00	399.00	410.00	407.00	398.00	405.00	415.00	418.00	426.00	427.00	409.00	400.00	394.00	390.00	377.00	360.00	316.00	269.00	241.00	190.00	200.00	217.00	222.00	225.00	226.00	199.00	180.00	158.00	98.00	54.00	35.00	30.00	25.00	23.00	20.00	18.00	19.00	18.00	16.00	24.00	69.00	187.00	209.00	225.00	219.00	191.00	106.00	128.00	121.00	110.00	85.00	33.00	19.00	16.00	16.00	18.00	19.00	20.00	22.00	23.00	23.00	21.00	19.00	18.00	16.00	15.00	21.00	21.00	21.00	21.00	21.00	22.00	31.00	60.00	99.00	123.00	127.00	139.00	126.00	102.00	110.00	116.00	80.00	65.00	34.00	25.00	21.00	21.00	23.00	27.00	23.00	23.00	30.00	49.00	52.00	58.00	57.00	59.00	63.00	67.00	73.00	74.00	70.00	70.00	27.00	29.00	30.00	32.00	39.00	64.00	97.00	135.00	167.00	175.00	174.00	170.00	161.00	167.00	165.00	161.00	158.00	162.00	164.00	165.00	166.00	165.00	164.00	164.00	163.00	163.00	161.00	158.00	154.00	158.00	162.00	161.00	160.00	156.00	155.00	154.00	155.00	153.00	152.00	152.00	153.00	153.00	153.00	152.00	151.00	147.00	145.00	143.00	138.00	116.00	101.00	132.00	137.00	135.00	120.00	102.00	91.00	92.00	54.00	64.00	104.00	111.00	111.00	114.00	115.00	112.00	108.00	100.00	106.00	110.00	112.00	113.00	114.00	115.00	115.00	118.00	116.00	116.00	115.00	114.00	114.00	115.00	115.00	114.00	113.00	113.00	112.00	111.00	111.00	110.00	110.00	109.00	107.00	106.00	106.00	105.00	103.00	103.00	103.00	101.00	101.00	101.00	101.00	100.00	100.00	99.00	98.00	96.00	96.00	95.00	94.00	94.00	92.00	92.00	92.00	91.00	90.00	89.00	89.00	88.00	88.00	87.00	86.00	86.00	86.00	84.00	84.00
462.00	474.00	475.00	455.00	449.00	443.00	434.00	416.00	396.00	390.00	374.00	399.00	435.00	439.00	456.00	458.00	464.00	469.00	464.00	460.00	455.00	451.00	448.00	444.00	423.00	407.00	399.00	410.00	407.00	398.00	405.00	415.00	418.00	426.00	427.00	409.00	400.00	394.00	390.00	377.00	360.00	316.00	269.00	241.00	190.00	200.00	217.00	222.00	225.00	226.00	199.00	180.00	158.00	98.00	54.00	35.00	30.00	25.00	23.00	20.00	18.00	19.00	18.00	16.00	24.00	69.00	187.00	209.00	225.00	219.00	191.00	106.00	128.00	121.00	110.00	85.00	33.00	19.00	16.00	16.00	18.00	19.00	20.00	22.00	23.00	23.00	21.00	19.00	18.00	16.00	15.00	21.00	21.00	21.00	21.00	21.00	22.00	31.00	60.00	99.00	123.00	127.00	139.00	126.00	102.00	110.00	116.00	80.00	65.00	34.00	25.00	21.00	21.00	23.00	27.00	23.00	23.00	30.00	49.00	52.00	58.00	57.00	59.00	63.00	67.00	73.00	74.00	70.00	70.00	27.00	29.00	30.00	32.00	39.00	64.00	97.00	135.00	167.00	175.00	174.00	170.00	161.00	167.00	165.00	161.00	158.00	162.00	164.00	165.00	166.00	165.00	164.00	164.00	163.00	163.00	161.00	158.00	154.00	158.00	162.00	161.00	160.00	156.00	155.00	154.00	155.00	153.00	152.00	152.00	153.00	153.00	153.00	152.00	151.00	147.00	145.00	143.00	138.00	116.00	101.00	132.00	137.00	135.00	120.00	102.00	91.00	92.00	54.00	64.00	104.00	111.00	111.00	114.00	115.00	112.00	108.00	100.00	106.00	110.00	112.00	113.00	114.00	115.00	115.00	118.00	116.00	116.00	115.00	114.00	114.00	115.00	115.00	114.00	113.00	113.00	112.00	111.00	111.00	110.00	110.00	109.00	107.00	106.00	106.00	105.00	103.00	103.00	103.00	101.00	101.00	101.00	101.00	100.00	100.00	99.00	98.00	96.00	96.00	95.00	94.00	94.00	92.00	92.00	92.00	91.00	90.00	89.00	89.00	88.00	88.00	87.00	86.00	86.00	86.00	84.00	84.00
469.00	465.00	461.00	449.00	439.00	432.00	430.00	438.00	454.00	448.00	441.00	443.00	473.00	482.00	480.00	475.00	470.00	464.00	461.00	461.00	460.00	465.00	464.00	464.00	466.00	460.00	460.00	463.00	463.00	457.00	451.00	452.00	451.00	446.00	431.00	415.00	408.00	399.00	391.00	373.00	361.00	350.00	335.00	327.00	289.00	277.00	273.00	277.00	281.00	276.00	271.00	262.00	219.00	133.00	112.00	46.00	38.00	29.00	26.00	22.00	18.00	18.00	19.00	19.00	18.00	17.00	45.00	57.00	64.00	59.00	49.00	31.00	29.00	27.00	25.00	20.00	17.00	18.00	18.00	19.00	17.00	16.00	17.00	17.00	19.00	18.00	16.00	15.00	15.00	15.00	15.00	21.00	21.00	22.00	22.00	22.00	22.00	21.00	22.00	23.00	25.00	28.00	53.00	56.00	94.00	111.00	117.00	40.00	23.00	21.00	20.00	23.00	20.00	20.00	21.00	25.00	37.00	55.00	72.00	75.00	79.00	81.00	81.00	81.00	82.00	78.00	68.00	63.00	60.00	25.00	26.00	30.00	35.00	53.00	80.00	127.00	174.00	186.00	183.00	179.00	177.00	175.00	173.00	172.00	171.00	170.00	170.00	169.00	170.00	170.00	169.00	168.00	167.00	166.00	164.00	162.00	162.00	162.00	161.00	162.00	162.00	161.00	160.00	160.00	161.00	160.00	160.00	160.00	160.00	160.00	158.00	157.00	156.00	154.00	149.00	149.00	150.00	147.00	106.00	131.00	140.00	143.00	139.00	86.00	102.00	131.00	134.00	97.00	72.00	58.00	65.00	82.00	116.00	116.00	110.00	103.00	101.00	106.00	110.00	111.00	111.00	113.00	115.00	116.00	116.00	116.00	115.00	115.00	114.00	114.00	114.00	114.00	114.00	113.00	112.00	113.00	113.00	112.00	112.00	110.00	109.00	108.00	107.00	106.00	105.00	104.00	104.00	103.00	102.00	102.00	102.00	102.00	101.00	101.00	100.00	99.00	98.00	97.00	96.00	96.00	95.00	94.00	93.00	93.00	92.00	90.00	90.00	90.00	89.00	89.00	88.00	87.00	87.00	86.00	85.00	85.00
469.00	465.00	461.00	449.00	439.00	432.00	430.00	438.00	454.00	448.00	441.00	443.00	473.00	482.00	480.00	475.00	470.00	464.00	461.00	461.00	460.00	465.00	464.00	464.00	466.00	460.00	460.00	463.00	463.00	457.00	451.00	452.00	451.00	446.00	431.00	415.00	408.00	399.00	391.00	373.00	361.00	350.00	335.00	327.00	289.00	277.00	273.00	277.00	281.00	276.00	271.00	262.00	219.00	133.00	112.00	46.00	38.00	29.00	26.00	22.00	18.00	18.00	19.00	19.00	18.00	17.00	45.00	57.00	64.00	59.00	49.00	31.00	29.00	27.00	25.00	20.00	17.00	18.00	18.00	19.00	17.00	16.00	17.00	17.00	19.00	18.00	16.00	15.00	15.00	15.00	15.00	21.00	21.00	22.00	22.00	22.00	22.00	21.00	22.00	23.00	25.00	28.00	53.00	56.00	94.00	111.00	117.00	40.00	23.00	21.00	20.00	23.00	20.00	20.00	21.00	25.00	37.00	55.00	72.00	75.00	79.00	81.00	81.00	81.00	82.00	78.00	68.00	63.00	60.00	25.00	26.00	30.00	35.00	53.00	80.00	127.00	174.00	186.00	183.00	179.00	177.00	175.00	173.00	172.00	171.00	170.00	170.00	169.00	170.00	170.00	169.00	168.00	167.00	166.00	164.00	162.00	162.00	162.00	161.00	162.00	162.00	161.00	160.00	160.00	161.00	160.00	160.00	160.00	160.00	160.00	158.00	157.00	156.00	154.00	149.00	149.00	150.00	147.00	106.00	131.00	140.00	143.00	139.00	86.00	102.00	131.00	134.00	97.00	72.00	58.00	65.00	82.00	116.00	116.00	110.00	103.00	101.00	106.00	110.00	111.00	111.00	113.00	115.00	116.00	116.00	116.00	115.00	115.00	114.00	114.00	114.00	114.00	114.00	113.00	112.00	113.00	113.00	112.00	112.00	110.00	109.00	108.00	107.00	106.00	105.00	104.00	104.00	103.00	102.00	102.00	102.00	102.00	101.00	101.00	100.00	99.00	98.00	97.00	96.00	96.00	95.00	94.00	93.00	93.00	92.00	90.00	90.00	90.00	89.00	89.00	88.00	87.00	87.00	86.00	85.00	85.00
473.00	473.00	475.00	478.00	474.00	471.00	470.00	475.00	485.00	476.00	476.00	479.00	465.00	460.00	462.00	468.00	471.00	474.00	475.00	469.00	468.00	464.00	463.00	463.00	468.00	466.00	475.00	478.00	471.00	462.00	447.00	441.00	439.00	436.00	427.00	417.00	412.00	405.00	395.00	377.00	367.00	355.00	343.00	327.00	287.00	271.00	247.00	213.00	170.00	171.00	184.00	203.00	231.00	188.00	156.00	114.00	89.00	34.00	30.00	26.00	22.00	18.00	17.00	18.00	20.00	19.00	21.00	22.00	22.00	22.00	21.00	23.00	21.00	19.00	19.00	23.00	24.00	23.00	24.00	28.00	29.00	41.00	52.00	56.00	65.00	67.00	68.00	81.00	70.00	40.00	25.00	26.00	26.00	25.00	27.00	26.00	26.00	23.00	23.00	27.00	27.00	24.00	21.00	21.00	21.00	30.00	68.00	24.00	22.00	24.00	44.00	95.00	53.00	28.00	25.00	28.00	28.00	28.00	55.00	64.00	74.00	79.00	82.00	86.00	80.00	71.00	61.00	57.00	53.00	36.00	47.00	62.00	74.00	50.00	50.00	68.00	102.00	146.00	183.00	182.00	180.00	178.00	176.00	175.00	174.00	174.00	174.00	173.00	173.00	172.00	171.00	170.00	169.00	168.00	167.00	167.00	166.00	165.00	164.00	165.00	164.00	164.00	163.00	162.00	163.00	162.00	162.00	163.00	163.00	162.00	161.00	160.00	159.00	158.00	150.00	146.00	149.00	142.00	130.00	148.00	150.00	147.00	113.00	135.00	140.00	138.00	138.00	126.00	128.00	121.00	93.00	63.00	109.00	111.00	104.00	100.00	105.00	101.00	108.00	113.00	113.00	113.00	115.00	115.00	115.00	114.00	114.00	113.00	114.00	114.00	112.00	113.00	114.00	116.00	112.00	112.00	111.00	112.00	112.00	110.00	110.00	109.00	108.00	106.00	106.00	105.00	105.00	104.00	103.00	103.00	103.00	103.00	102.00	101.00	101.00	100.00	99.00	98.00	97.00	96.00	96.00	95.00	94.00	93.00	92.00	91.00	91.00	91.00	90.00	90.00	89.00	88.00	87.00	87.00	86.00	85.00
473.00	473.00	475.00	478.00	474.00	471.00	470.00	475.00	485.00	476.00	476.00	479.00	465.00	460.00	462.00	468.00	471.00	474.00	475.00	469.00	468.00	464.00	463.00	463.00	468.00	466.00	475.00	478.00	471.00	462.00	447.00	441.00	439.00	436.00	427.00	417.00	412.00	405.00	395.00	377.00	367.00	355.00	343.00	327.00	287.00	271.00	247.00	213.00	170.00	171.00	184.00	203.00	231.00	188.00	156.00	114.00	89.00	34.00	30.00	26.00	22.00	18.00	17.00	18.00	20.00	19.00	21.00	22.00	22.00	22.00	21.00	23.00	21.00	19.00	19.00	23.00	24.00	23.00	24.00	28.00	29.00	41.00	52.00	56.00	65.00	67.00	68.00	81.00	70.00	40.00	25.00	26.00	26.00	25.00	27.00	26.00	26.00	23.00	23.00	27.00	27.00	24.00	21.00	21.00	21.00	30.00	68.00	24.00	22.00	24.00	44.00	95.00	53.00	28.00	25.00	28.00	28.00	28.00	55.00	64.00	74.00	79.00	82.00	86.00	80.00	71.00	61.00	57.00	53.00	36.00	47.00	62.00	74.00	50.00	50.00	68.00	102.00	146.00	183.00	182.00	180.00	178.00	176.00	175.00	174.00	174.00	174.00	173.00	173.00	172.00	171.00	170.00	169.00	168.00	167.00	167.00	166.00	165.00	164.00	165.00	164.00	164.00	163.00	162.00	163.00	162.00	162.00	163.00	163.00	162.00	161.00	160.00	159.00	158.00	150.00	146.00	149.00	142.00	130.00	148.00	150.00	147.00	113.00	135.00	140.00	138.00	138.00	126.00	128.00	121.00	93.00	63.00	109.00	111.00	104.00	100.00	105.00	101.00	108.00	113.00	113.00	113.00	115.00	115.00	115.00	114.00	114.00	113.00	114.00	114.00	112.00	113.00	114.00	116.00	112.00	112.00	111.00	112.00	112.00	110.00	110.00	109.00	108.00	106.00	106.00	105.00	105.00	104.00	103.00	103.00	103.00	103.00	102.00	101.00	101.00	100.00	99.00	98.00	97.00	96.00	96.00	95.00	94.00	93.00	92.00	91.00	91.00	91.00	90.00	90.00	89.00	88.00	87.00	87.00	86.00	85.00
490.00	487.00	488.00	486.00	473.00	468.00	468.00	466.00	482.00	477.00	468.00	458.00	443.00	454.00	446.00	443.00	440.00	438.00	454.00	436.00	416.00	434.00	432.00	433.00	441.00	437.00	440.00	452.00	458.00	457.00	453.00	450.00	448.00	443.00	430.00	417.00	412.00	405.00	393.00	363.00	342.00	333.00	330.00	320.00	274.00	256.00	233.00	212.00	177.00	169.00	145.00	118.00	112.00	124.00	95.00	73.00	68.00	54.00	90.00	86.00	64.00	43.00	17.00	16.00	18.00	20.00	24.00	24.00	23.00	22.00	23.00	26.00	34.00	44.00	57.00	104.00	96.00	52.00	40.00	91.00	82.00	89.00	108.00	121.00	145.00	172.00	192.00	216.00	208.00	137.00	111.00	74.00	51.00	33.00	32.00	31.00	29.00	22.00	23.00	23.00	23.00	23.00	21.00	21.00	21.00	21.00	22.00	28.00	73.00	98.00	95.00	115.00	105.00	86.00	78.00	66.00	42.00	33.00	36.00	48.00	64.00	75.00	87.00	98.00	96.00	88.00	81.00	72.00	59.00	41.00	52.00	59.00	72.00	75.00	72.00	53.00	73.00	125.00	184.00	190.00	189.00	187.00	183.00	180.00	178.00	177.00	177.00	175.00	174.00	174.00	172.00	172.00	171.00	171.00	171.00	171.00	169.00	169.00	168.00	168.00	167.00	166.00	165.00	166.00	165.00	165.00	165.00	165.00	165.00	163.00	161.00	160.00	160.00	161.00	159.00	141.00	143.00	139.00	147.00	151.00	147.00	130.00	138.00	151.00	150.00	149.00	147.00	140.00	133.00	124.00	110.00	100.00	64.00	69.00	77.00	87.00	88.00	94.00	99.00	111.00	112.00	115.00	115.00	113.00	112.00	112.00	112.00	112.00	113.00	113.00	112.00	112.00	113.00	113.00	115.00	116.00	113.00	111.00	111.00	111.00	110.00	109.00	108.00	107.00	107.00	106.00	105.00	103.00	104.00	104.00	104.00	103.00	102.00	102.00	101.00	101.00	100.00	99.00	98.00	97.00	97.00	96.00	95.00	94.00	93.00	92.00	91.00	91.00	91.00	90.00	89.00	89.00	88.00	88.00	87.00	86.00
490.00	487.00	488.00	486.00	473.00	468.00	468.00	466.00	482.00	477.00	468.00	458.00	443.00	454.00	446.00	443.00	440.00	438.00	454.00	436.00	416.00	434.00	432.00	433.00	441.00	437.00	440.00	452.00	458.00	457.00	453.00	450.00	448.00	443.00	430.00	417.00	412.00	405.00	393.00	363.00	342.00	333.00	330.00	320.00	274.00	256.00	233.00	212.00	177.00	169.00	145.00	118.00	112.00	124.00	95.00	73.00	68.00	54.00	90.00	86.00	64.00	43.00	17.00	16.00	18.00	20.00	24.00	24.00	23.00	22.00	23.00	26.00	34.00	44.00	57.00	104.00	96.00	52.00	40.00	91.00	82.00	89.00	108.00	121.00	145.00	172.00	192.00	216.00	208.00	137.00	111.00	74.00	51.00	33.00	32.00	31.00	29.00	22.00	23.00	23.00	23.00	23.00	21.00	21.00	21.00	21.00	22.00	28.00	73.00	98.00	95.00	115.00	105.00	86.00	78.00	66.00	42.00	33.00	36.00	48.00	64.00	75.00	87.00	98.00	96.00	88.00	81.00	72.00	59.00	41.00	52.00	59.00	72.00	75.00	72.00	53.00	73.00	125.00	184.00	190.00	189.00	187.00	183.00	180.00	178.00	177.00	177.00	175.00	174.00	174.00	172.00	172.00	171.00	171.00	171.00	171.00	169.00	169.00	168.00	168.00	167.00	166.00	165.00	166.00	165.00	165.00	165.00	165.00	165.00	163.00	161.00	160.00	160.00	161.00	159.00	141.00	143.00	139.00	147.00	151.00	147.00	130.00	138.00	151.00	150.00	149.00	147.00	140.00	133.00	124.00	110.00	100.00	64.00	69.00	77.00	87.00	88.00	94.00	99.00	111.00	112.00	115.00	115.00	113.00	112.00	112.00	112.00	112.00	113.00	113.00	112.00	112.00	113.00	113.00	115.00	116.00	113.00	111.00	111.00	111.00	110.00	109.00	108.00	107.00	107.00	106.00	105.00	103.00	104.00	104.00	104.00	103.00	102.00	102.00	101.00	101.00	100.00	99.00	98.00	97.00	97.00	96.00	95.00	94.00	93.00	92.00	91.00	91.00	91.00	90.00	89.00	89.00	88.00	88.00	87.00	86.00
490.00	487.00	488.00	486.00	473.00	468.00	468.00	466.00	482.00	477.00	468.00	458.00	443.00	454.00	446.00	443.00	440.00	438.00	454.00	436.00	416.00	434.00	432.00	433.00	441.00	437.00	440.00	452.00	458.00	457.00	453.00	450.00	448.00	443.00	430.00	417.00	412.00	405.00	393.00	363.00	342.00	333.00	330.00	320.00	274.00	256.00	233.00	212.00	177.00	169.00	145.00	118.00	112.00	124.00	95.00	73.00	68.00	54.00	90.00	86.00	64.00	43.00	17.00	16.00	18.00	20.00	24.00	24.00	23.00	22.00	23.00	26.00	34.00	44.00	57.00	104.00	96.00	52.00	40.00	91.00	82.00	89.00	108.00	121.00	145.00	172.00	192.00	216.00	208.00	137.00	111.00	74.00	51.00	33.00	32.00	31.00	29.00	22.00	23.00	23.00	23.00	23.00	21.00	21.00	21.00	21.00	22.00	28.00	73.00	98.00	95.00	115.00	105.00	86.00	78.00	66.00	42.00	33.00	36.00	48.00	64.00	75.00	87.00	98.00	96.00	88.00	81.00	72.00	59.00	41.00	52.00	59.00	72.00	75.00	72.00	53.00	73.00	125.00	184.00	190.00	189.00	187.00	183.00	180.00	178.00	177.00	177.00	175.00	174.00	174.00	172.00	172.00	171.00	171.00	171.00	171.00	169.00	169.00	168.00	168.00	167.00	166.00	165.00	166.00	165.00	165.00	165.00	165.00	165.00	163.00	161.00	160.00	160.00	161.00	159.00	141.00	143.00	139.00	147.00	151.00	147.00	130.00	138.00	151.00	150.00	149.00	147.00	140.00	133.00	124.00	110.00	100.00	64.00	69.00	77.00	87.00	88.00	94.00	99.00	111.00	112.00	115.00	115.00	113.00	112.00	112.00	112.00	112.00	113.00	113.00	112.00	112.00	113.00	113.00	115.00	116.00	113.00	111.00	111.00	111.00	110.00	109.00	108.00	107.00	107.00	106.00	105.00	103.00	104.00	104.00	104.00	103.00	102.00	102.00	101.00	101.00	100.00	99.00	98.00	97.00	97.00	96.00	95.00	94.00	93.00	92.00	91.00	91.00	91.00	90.00	89.00	89.00	88.00	88.00	87.00	86.00
488.00	477.00	461.00	471.00	463.00	447.00	429.00	423.00	444.00	448.00	448.00	443.00	419.00	433.00	429.00	418.00	403.00	407.00	426.00	428.00	404.00	376.00	383.00	391.00	406.00	398.00	417.00	429.00	441.00	446.00	443.00	436.00	435.00	436.00	430.00	414.00	404.00	395.00	384.00	359.00	343.00	320.00	290.00	267.00	208.00	190.00	173.00	167.00	128.00	121.00	118.00	112.00	107.00	84.00	128.00	158.00	126.00	106.00	151.00	192.00	190.00	165.00	32.00	16.00	20.00	24.00	30.00	31.00	35.00	47.00	82.00	95.00	148.00	172.00	180.00	187.00	173.00	115.00	70.00	50.00	137.00	169.00	191.00	196.00	189.00	186.00	216.00	267.00	270.00	249.00	216.00	190.00	136.00	69.00	51.00	46.00	40.00	29.00	29.00	28.00	27.00	25.00	22.00	22.00	22.00	22.00	22.00	28.00	87.00	126.00	130.00	115.00	119.00	122.00	125.00	117.00	83.00	57.00	67.00	69.00	91.00	109.00	121.00	112.00	96.00	81.00	63.00	55.00	49.00	43.00	47.00	52.00	64.00	90.00	86.00	70.00	62.00	95.00	179.00	197.00	203.00	203.00	193.00	185.00	180.00	178.00	176.00	173.00	172.00	172.00	173.00	174.00	174.00	174.00	173.00	173.00	172.00	171.00	171.00	171.00	169.00	168.00	168.00	168.00	167.00	167.00	167.00	167.00	166.00	164.00	162.00	160.00	159.00	160.00	151.00	151.00	160.00	158.00	155.00	153.00	144.00	152.00	150.00	153.00	154.00	154.00	153.00	151.00	150.00	147.00	143.00	140.00	103.00	80.00	91.00	91.00	64.00	59.00	62.00	87.00	90.00	105.00	109.00	107.00	108.00	111.00	111.00	112.00	112.00	111.00	110.00	111.00	112.00	112.00	112.00	112.00	113.00	113.00	112.00	110.00	110.00	109.00	108.00	107.00	106.00	106.00	104.00	105.00	104.00	104.00	104.00	104.00	103.00	102.00	101.00	101.00	100.00	100.00	99.00	99.00	98.00	96.00	96.00	95.00	94.00	93.00	92.00	92.00	91.00	91.00	90.00	90.00	89.00	88.00	87.00	87.00
451.00	447.00	439.00	422.00	423.00	415.00	397.00	370.00	351.00	345.00	341.00	338.00	346.00	391.00	382.00	376.00	368.00	321.00	356.00	377.00	381.00	345.00	301.00	338.00	368.00	332.00	385.00	403.00	414.00	421.00	415.00	406.00	398.00	391.00	410.00	398.00	394.00	386.00	374.00	334.00	296.00	260.00	275.00	298.00	296.00	285.00	267.00	239.00	251.00	229.00	195.00	178.00	145.00	115.00	165.00	224.00	174.00	193.00	220.00	209.00	171.00	130.00	18.00	23.00	26.00	29.00	48.00	61.00	85.00	114.00	149.00	126.00	139.00	182.00	220.00	245.00	212.00	178.00	145.00	91.00	76.00	130.00	179.00	215.00	241.00	241.00	242.00	267.00	276.00	294.00	294.00	261.00	208.00	142.00	117.00	102.00	74.00	41.00	40.00	36.00	34.00	30.00	26.00	25.00	25.00	24.00	26.00	22.00	21.00	41.00	97.00	130.00	127.00	123.00	107.00	89.00	80.00	96.00	98.00	88.00	82.00	95.00	121.00	126.00	92.00	74.00	64.00	59.00	56.00	47.00	48.00	56.00	68.00	93.00	92.00	90.00	72.00	75.00	172.00	207.00	210.00	206.00	191.00	183.00	177.00	175.00	173.00	170.00	170.00	170.00	173.00	175.00	176.00	176.00	176.00	176.00	175.00	174.00	174.00	173.00	171.00	171.00	171.00	170.00	170.00	170.00	169.00	168.00	167.00	165.00	162.00	161.00	161.00	161.00	160.00	156.00	159.00	161.00	162.00	159.00	150.00	147.00	153.00	157.00	158.00	158.00	157.00	155.00	153.00	150.00	143.00	138.00	135.00	124.00	127.00	115.00	112.00	107.00	86.00	72.00	64.00	72.00	100.00	98.00	102.00	105.00	106.00	107.00	108.00	107.00	110.00	111.00	112.00	112.00	111.00	111.00	111.00	110.00	111.00	110.00	109.00	109.00	108.00	107.00	106.00	105.00	104.00	105.00	104.00	104.00	104.00	104.00	103.00	102.00	101.00	101.00	100.00	100.00	100.00	99.00	99.00	97.00	97.00	96.00	95.00	94.00	93.00	92.00	92.00	92.00	91.00	90.00	90.00	89.00	88.00	88.00
451.00	447.00	439.00	422.00	423.00	415.00	397.00	370.00	351.00	345.00	341.00	338.00	346.00	391.00	382.00	376.00	368.00	321.00	356.00	377.00	381.00	345.00	301.00	338.00	368.00	332.00	385.00	403.00	414.00	421.00	415.00	406.00	398.00	391.00	410.00	398.00	394.00	386.00	374.00	334.00	296.00	260.00	275.00	298.00	296.00	285.00	267.00	239.00	251.00	229.00	195.00	178.00	145.00	115.00	165.00	224.00	174.00	193.00	220.00	209.00	171.00	130.00	18.00	23.00	26.00	29.00	48.00	61.00	85.00	114.00	149.00	126.00	139.00	182.00	220.00	245.00	212.00	178.00	145.00	91.00	76.00	130.00	179.00	215.00	241.00	241.00	242.00	267.00	276.00	294.00	294.00	261.00	208.00	142.00	117.00	102.00	74.00	41.00	40.00	36.00	34.00	30.00	26.00	25.00	25.00	24.00	26.00	22.00	21.00	41.00	97.00	130.00	127.00	123.00	107.00	89.00	80.00	96.00	98.00	88.00	82.00	95.00	121.00	126.00	92.00	74.00	64.00	59.00	56.00	47.00	48.00	56.00	68.00	93.00	92.00	90.00	72.00	75.00	172.00	207.00	210.00	206.00	191.00	183.00	177.00	175.00	173.00	170.00	170.00	170.00	173.00	175.00	176.00	176.00	176.00	176.00	175.00	174.00	174.00	173.00	171.00	171.00	171.00	170.00	170.00	170.00	169.00	168.00	167.00	165.00	162.00	161.00	161.00	161.00	160.00	156.00	159.00	161.00	162.00	159.00	150.00	147.00	153.00	157.00	158.00	158.00	157.00	155.00	153.00	150.00	143.00	138.00	135.00	124.00	127.00	115.00	112.00	107.00	86.00	72.00	64.00	72.00	100.00	98.00	102.00	105.00	106.00	107.00	108.00	107.00	110.00	111.00	112.00	112.00	111.00	111.00	111.00	110.00	111.00	110.00	109.00	109.00	108.00	107.00	106.00	105.00	104.00	105.00	104.00	104.00	104.00	104.00	103.00	102.00	101.00	101.00	100.00	100.00	100.00	99.00	99.00	97.00	97.00	96.00	95.00	94.00	93.00	92.00	92.00	92.00	91.00	90.00	90.00	89.00	88.00	88.00
451.00	447.00	439.00	422.00	423.00	415.00	397.00	370.00	351.00	345.00	341.00	338.00	346.00	391.00	382.00	376.00	368.00	321.00	356.00	377.00	381.00	345.00	301.00	338.00	368.00	332.00	385.00	403.00	414.00	421.00	415.00	406.00	398.00	391.00	410.00	398.00	394.00	386.00	374.00	334.00	296.00	260.00	275.00	298.00	296.00	285.00	267.00	239.00	251.00	229.00	195.00	178.00	145.00	115.00	165.00	224.00	174.00	193.00	220.00	209.00	171.00	130.00	18.00	23.00	26.00	29.00	48.00	61.00	85.00	114.00	149.00	126.00	139.00	182.00	220.00	245.00	212.00	178.00	145.00	91.00	76.00	130.00	179.00	215.00	241.00	241.00	242.00	267.00	276.00	294.00	294.00	261.00	208.00	142.00	117.00	102.00	74.00	41.00	40.00	36.00	34.00	30.00	26.00	25.00	25.00	24.00	26.00	22.00	21.00	41.00	97.00	130.00	127.00	123.00	107.00	89.00	80.00	96.00	98.00	88.00	82.00	95.00	121.00	126.00	92.00	74.00	64.00	59.00	56.00	47.00	48.00	56.00	68.00	93.00	92.00	90.00	72.00	75.00	172.00	207.00	210.00	206.00	191.00	183.00	177.00	175.00	173.00	170.00	170.00	170.00	173.00	175.00	176.00	176.00	176.00	176.00	175.00	174.00	174.00	173.00	171.00	171.00	171.00	170.00	170.00	170.00	169.00	168.00	167.00	165.00	162.00	161.00	161.00	161.00	160.00	156.00	159.00	161.00	162.00	159.00	150.00	147.00	153.00	157.00	158.00	158.00	157.00	155.00	153.00	150.00	143.00	138.00	135.00	124.00	127.00	115.00	112.00	107.00	86.00	72.00	64.00	72.00	100.00	98.00	102.00	105.00	106.00	107.00	108.00	107.00	110.00	111.00	112.00	112.00	111.00	111.00	111.00	110.00	111.00	110.00	109.00	109.00	108.00	107.00	106.00	105.00	104.00	105.00	104.00	104.00	104.00	104.00	103.00	102.00	101.00	101.00	100.00	100.00	100.00	99.00	99.00	97.00	97.00	96.00	95.00	94.00	93.00	92.00	92.00	92.00	91.00	90.00	90.00	89.00	88.00	88.00
444.00	433.00	425.00	401.00	395.00	386.00	380.00	392.00	406.00	392.00	390.00	381.00	306.00	300.00	289.00	284.00	276.00	256.00	258.00	267.00	275.00	298.00	270.00	246.00	268.00	305.00	358.00	373.00	393.00	403.00	395.00	372.00	339.00	349.00	388.00	385.00	381.00	376.00	365.00	327.00	289.00	255.00	207.00	191.00	275.00	282.00	277.00	269.00	243.00	217.00	199.00	183.00	159.00	215.00	234.00	244.00	232.00	227.00	217.00	179.00	127.00	63.00	22.00	30.00	34.00	41.00	135.00	136.00	170.00	203.00	228.00	218.00	187.00	210.00	241.00	252.00	243.00	227.00	198.00	168.00	68.00	73.00	104.00	113.00	154.00	162.00	183.00	239.00	263.00	293.00	303.00	305.00	291.00	211.00	229.00	189.00	158.00	68.00	56.00	48.00	43.00	38.00	29.00	29.00	29.00	28.00	29.00	26.00	25.00	21.00	21.00	86.00	128.00	130.00	125.00	98.00	99.00	103.00	113.00	113.00	99.00	92.00	108.00	129.00	110.00	90.00	80.00	71.00	71.00	65.00	69.00	79.00	85.00	98.00	98.00	96.00	91.00	76.00	126.00	178.00	176.00	177.00	154.00	154.00	160.00	168.00	173.00	169.00	169.00	170.00	174.00	177.00	178.00	179.00	179.00	179.00	178.00	177.00	176.00	175.00	174.00	174.00	173.00	173.00	173.00	171.00	170.00	169.00	168.00	166.00	164.00	163.00	163.00	162.00	161.00	161.00	160.00	160.00	160.00	161.00	162.00	156.00	151.00	161.00	161.00	161.00	160.00	159.00	157.00	154.00	152.00	152.00	145.00	142.00	141.00	139.00	128.00	107.00	91.00	105.00	100.00	71.00	64.00	72.00	88.00	99.00	101.00	102.00	100.00	100.00	106.00	109.00	112.00	112.00	111.00	110.00	110.00	110.00	110.00	110.00	109.00	108.00	108.00	107.00	106.00	105.00	105.00	104.00	103.00	103.00	103.00	102.00	102.00	102.00	101.00	101.00	100.00	100.00	100.00	100.00	99.00	98.00	97.00	97.00	95.00	94.00	93.00	92.00	92.00	92.00	91.00	91.00	90.00	90.00	89.00	89.00
492.00	486.00	482.00	465.00	462.00	459.00	456.00	460.00	448.00	438.00	445.00	439.00	384.00	371.00	371.00	376.00	383.00	365.00	351.00	325.00	311.00	267.00	242.00	212.00	229.00	272.00	284.00	328.00	350.00	370.00	362.00	323.00	275.00	310.00	362.00	371.00	369.00	364.00	350.00	305.00	288.00	264.00	227.00	177.00	185.00	231.00	268.00	273.00	260.00	259.00	261.00	261.00	252.00	257.00	261.00	246.00	212.00	122.00	112.00	95.00	62.00	39.00	23.00	24.00	30.00	87.00	232.00	228.00	238.00	248.00	250.00	251.00	246.00	250.00	250.00	250.00	200.00	180.00	178.00	143.00	74.00	113.00	160.00	164.00	124.00	116.00	138.00	185.00	207.00	271.00	295.00	305.00	311.00	317.00	310.00	291.00	242.00	162.00	123.00	106.00	74.00	54.00	40.00	36.00	34.00	34.00	27.00	28.00	26.00	26.00	23.00	21.00	34.00	87.00	128.00	124.00	120.00	128.00	134.00	124.00	111.00	107.00	116.00	120.00	128.00	122.00	123.00	117.00	121.00	125.00	118.00	110.00	105.00	103.00	100.00	97.00	91.00	87.00	85.00	121.00	133.00	136.00	152.00	157.00	158.00	164.00	169.00	172.00	173.00	174.00	177.00	180.00	180.00	181.00	181.00	181.00	180.00	179.00	178.00	177.00	177.00	176.00	176.00	175.00	174.00	172.00	171.00	171.00	170.00	169.00	168.00	167.00	166.00	165.00	164.00	163.00	162.00	161.00	161.00	161.00	161.00	161.00	159.00	164.00	163.00	162.00	162.00	160.00	159.00	158.00	157.00	155.00	144.00	137.00	132.00	133.00	121.00	101.00	129.00	128.00	124.00	118.00	84.00	84.00	85.00	72.00	77.00	91.00	99.00	96.00	99.00	101.00	109.00	112.00	111.00	111.00	110.00	110.00	110.00	110.00	109.00	108.00	107.00	106.00	105.00	104.00	104.00	104.00	102.00	102.00	103.00	102.00	102.00	101.00	101.00	100.00	100.00	100.00	100.00	100.00	100.00	97.00	97.00	96.00	95.00	94.00	93.00	92.00	92.00	92.00	92.00	91.00	91.00	90.00	90.00	90.00
492.00	486.00	482.00	465.00	462.00	459.00	456.00	460.00	448.00	438.00	445.00	439.00	384.00	371.00	371.00	376.00	383.00	365.00	351.00	325.00	311.00	267.00	242.00	212.00	229.00	272.00	284.00	328.00	350.00	370.00	362.00	323.00	275.00	310.00	362.00	371.00	369.00	364.00	350.00	305.00	288.00	264.00	227.00	177.00	185.00	231.00	268.00	273.00	260.00	259.00	261.00	261.00	252.00	257.00	261.00	246.00	212.00	122.00	112.00	95.00	62.00	39.00	23.00	24.00	30.00	87.00	232.00	228.00	238.00	248.00	250.00	251.00	246.00	250.00	250.00	250.00	200.00	180.00	178.00	143.00	74.00	113.00	160.00	164.00	124.00	116.00	138.00	185.00	207.00	271.00	295.00	305.00	311.00	317.00	310.00	291.00	242.00	162.00	123.00	106.00	74.00	54.00	40.00	36.00	34.00	34.00	27.00	28.00	26.00	26.00	23.00	21.00	34.00	87.00	128.00	124.00	120.00	128.00	134.00	124.00	111.00	107.00	116.00	120.00	128.00	122.00	123.00	117.00	121.00	125.00	118.00	110.00	105.00	103.00	100.00	97.00	91.00	87.00	85.00	121.00	133.00	136.00	152.00	157.00	158.00	164.00	169.00	172.00	173.00	174.00	177.00	180.00	180.00	181.00	181.00	181.00	180.00	179.00	178.00	177.00	177.00	176.00	176.00	175.00	174.00	172.00	171.00	171.00	170.00	169.00	168.00	167.00	166.00	165.00	164.00	163.00	162.00	161.00	161.00	161.00	161.00	161.00	159.00	164.00	163.00	162.00	162.00	160.00	159.00	158.00	157.00	155.00	144.00	137.00	132.00	133.00	121.00	101.00	129.00	128.00	124.00	118.00	84.00	84.00	85.00	72.00	77.00	91.00	99.00	96.00	99.00	101.00	109.00	112.00	111.00	111.00	110.00	110.00	110.00	110.00	109.00	108.00	107.00	106.00	105.00	104.00	104.00	104.00	102.00	102.00	103.00	102.00	102.00	101.00	101.00	100.00	100.00	100.00	100.00	100.00	100.00	97.00	97.00	96.00	95.00	94.00	93.00	92.00	92.00	92.00	92.00	91.00	91.00	90.00	90.00	90.00
485.00	484.00	489.00	489.00	485.00	479.00	479.00	472.00	446.00	439.00	451.00	456.00	452.00	467.00	461.00	446.00	431.00	387.00	371.00	351.00	320.00	265.00	261.00	276.00	242.00	218.00	198.00	212.00	245.00	288.00	303.00	241.00	233.00	296.00	320.00	354.00	360.00	358.00	345.00	309.00	285.00	259.00	234.00	219.00	138.00	149.00	219.00	264.00	261.00	243.00	225.00	212.00	229.00	265.00	264.00	257.00	241.00	161.00	117.00	63.00	38.00	31.00	27.00	31.00	80.00	161.00	189.00	166.00	187.00	214.00	232.00	249.00	252.00	251.00	250.00	245.00	176.00	143.00	97.00	99.00	97.00	114.00	168.00	211.00	226.00	193.00	152.00	177.00	216.00	264.00	279.00	302.00	314.00	330.00	335.00	331.00	292.00	263.00	217.00	169.00	134.00	106.00	81.00	60.00	46.00	40.00	27.00	31.00	30.00	27.00	24.00	21.00	21.00	22.00	55.00	134.00	132.00	134.00	130.00	129.00	123.00	122.00	120.00	114.00	121.00	132.00	141.00	144.00	140.00	124.00	123.00	122.00	120.00	106.00	100.00	97.00	91.00	93.00	96.00	162.00	176.00	178.00	181.00	180.00	180.00	178.00	179.00	180.00	181.00	181.00	181.00	181.00	182.00	182.00	183.00	183.00	181.00	181.00	180.00	180.00	179.00	178.00	177.00	176.00	175.00	174.00	173.00	172.00	172.00	171.00	171.00	170.00	169.00	168.00	166.00	165.00	164.00	163.00	163.00	163.00	163.00	162.00	161.00	162.00	162.00	162.00	162.00	161.00	161.00	161.00	161.00	158.00	144.00	142.00	141.00	136.00	129.00	136.00	140.00	134.00	129.00	117.00	102.00	110.00	116.00	108.00	88.00	86.00	81.00	84.00	90.00	88.00	99.00	105.00	106.00	105.00	105.00	105.00	105.00	107.00	107.00	106.00	106.00	106.00	105.00	104.00	104.00	103.00	102.00	102.00	102.00	101.00	101.00	101.00	101.00	101.00	100.00	99.00	100.00	100.00	100.00	98.00	98.00	97.00	96.00	94.00	93.00	92.00	92.00	92.00	92.00	91.00	91.00	90.00	90.00	90.00
485.00	484.00	489.00	489.00	485.00	479.00	479.00	472.00	446.00	439.00	451.00	456.00	452.00	467.00	461.00	446.00	431.00	387.00	371.00	351.00	320.00	265.00	261.00	276.00	242.00	218.00	198.00	212.00	245.00	288.00	303.00	241.00	233.00	296.00	320.00	354.00	360.00	358.00	345.00	309.00	285.00	259.00	234.00	219.00	138.00	149.00	219.00	264.00	261.00	243.00	225.00	212.00	229.00	265.00	264.00	257.00	241.00	161.00	117.00	63.00	38.00	31.00	27.00	31.00	80.00	161.00	189.00	166.00	187.00	214.00	232.00	249.00	252.00	251.00	250.00	245.00	176.00	143.00	97.00	99.00	97.00	114.00	168.00	211.00	226.00	193.00	152.00	177.00	216.00	264.00	279.00	302.00	314.00	330.00	335.00	331.00	292.00	263.00	217.00	169.00	134.00	106.00	81.00	60.00	46.00	40.00	27.00	31.00	30.00	27.00	24.00	21.00	21.00	22.00	55.00	134.00	132.00	134.00	130.00	129.00	123.00	122.00	120.00	114.00	121.00	132.00	141.00	144.00	140.00	124.00	123.00	122.00	120.00	106.00	100.00	97.00	91.00	93.00	96.00	162.00	176.00	178.00	181.00	180.00	180.00	178.00	179.00	180.00	181.00	181.00	181.00	181.00	182.00	182.00	183.00	183.00	181.00	181.00	180.00	180.00	179.00	178.00	177.00	176.00	175.00	174.00	173.00	172.00	172.00	171.00	171.00	170.00	169.00	168.00	166.00	165.00	164.00	163.00	163.00	163.00	163.00	162.00	161.00	162.00	162.00	162.00	162.00	161.00	161.00	161.00	161.00	158.00	144.00	142.00	141.00	136.00	129.00	136.00	140.00	134.00	129.00	117.00	102.00	110.00	116.00	108.00	88.00	86.00	81.00	84.00	90.00	88.00	99.00	105.00	106.00	105.00	105.00	105.00	105.00	107.00	107.00	106.00	106.00	106.00	105.00	104.00	104.00	103.00	102.00	102.00	102.00	101.00	101.00	101.00	101.00	101.00	100.00	99.00	100.00	100.00	100.00	98.00	98.00	97.00	96.00	94.00	93.00	92.00	92.00	92.00	92.00	91.00	91.00	90.00	90.00	90.00
444.00	454.00	455.00	469.00	463.00	455.00	453.00	468.00	447.00	431.00	457.00	477.00	466.00	450.00	435.00	424.00	415.00	396.00	370.00	349.00	367.00	362.00	382.00	397.00	380.00	347.00	258.00	221.00	191.00	182.00	198.00	168.00	196.00	219.00	256.00	316.00	339.00	342.00	333.00	306.00	297.00	283.00	257.00	216.00	138.00	108.00	162.00	220.00	249.00	249.00	242.00	183.00	167.00	248.00	264.00	238.00	189.00	109.00	76.00	36.00	28.00	28.00	42.00	51.00	78.00	106.00	102.00	109.00	121.00	134.00	149.00	211.00	234.00	246.00	250.00	247.00	182.00	139.00	95.00	138.00	174.00	129.00	118.00	147.00	222.00	244.00	245.00	212.00	198.00	201.00	235.00	260.00	290.00	329.00	337.00	342.00	345.00	343.00	302.00	251.00	200.00	170.00	124.00	98.00	83.00	68.00	38.00	28.00	29.00	25.00	23.00	21.00	21.00	21.00	21.00	90.00	121.00	141.00	133.00	136.00	120.00	120.00	119.00	109.00	99.00	112.00	129.00	141.00	138.00	118.00	118.00	117.00	117.00	110.00	108.00	106.00	100.00	99.00	103.00	129.00	142.00	153.00	161.00	167.00	170.00	174.00	176.00	177.00	180.00	181.00	181.00	182.00	183.00	184.00	185.00	185.00	183.00	183.00	183.00	182.00	180.00	180.00	179.00	178.00	177.00	175.00	174.00	174.00	174.00	174.00	172.00	172.00	171.00	170.00	169.00	168.00	167.00	166.00	166.00	166.00	166.00	165.00	164.00	163.00	162.00	161.00	160.00	159.00	161.00	157.00	152.00	155.00	160.00	158.00	154.00	152.00	147.00	145.00	143.00	140.00	136.00	125.00	116.00	121.00	120.00	113.00	99.00	117.00	117.00	110.00	78.00	78.00	105.00	105.00	103.00	103.00	102.00	102.00	102.00	104.00	105.00	106.00	106.00	106.00	105.00	104.00	103.00	103.00	102.00	102.00	101.00	101.00	100.00	101.00	101.00	100.00	100.00	100.00	101.00	100.00	99.00	99.00	99.00	98.00	96.00	93.00	92.00	92.00	93.00	93.00	93.00	92.00	91.00	91.00	90.00	90.00
444.00	454.00	455.00	469.00	463.00	455.00	453.00	468.00	447.00	431.00	457.00	477.00	466.00	450.00	435.00	424.00	415.00	396.00	370.00	349.00	367.00	362.00	382.00	397.00	380.00	347.00	258.00	221.00	191.00	182.00	198.00	168.00	196.00	219.00	256.00	316.00	339.00	342.00	333.00	306.00	297.00	283.00	257.00	216.00	138.00	108.00	162.00	220.00	249.00	249.00	242.00	183.00	167.00	248.00	264.00	238.00	189.00	109.00	76.00	36.00	28.00	28.00	42.00	51.00	78.00	106.00	102.00	109.00	121.00	134.00	149.00	211.00	234.00	246.00	250.00	247.00	182.00	139.00	95.00	138.00	174.00	129.00	118.00	147.00	222.00	244.00	245.00	212.00	198.00	201.00	235.00	260.00	290.00	329.00	337.00	342.00	345.00	343.00	302.00	251.00	200.00	170.00	124.00	98.00	83.00	68.00	38.00	28.00	29.00	25.00	23.00	21.00	21.00	21.00	21.00	90.00	121.00	141.00	133.00	136.00	120.00	120.00	119.00	109.00	99.00	112.00	129.00	141.00	138.00	118.00	118.00	117.00	117.00	110.00	108.00	106.00	100.00	99.00	103.00	129.00	142.00	153.00	161.00	167.00	170.00	174.00	176.00	177.00	180.00	181.00	181.00	182.00	183.00	184.00	185.00	185.00	183.00	183.00	183.00	182.00	180.00	180.00	179.00	178.00	177.00	175.00	174.00	174.00	174.00	174.00	172.00	172.00	171.00	170.00	169.00	168.00	167.00	166.00	166.00	166.00	166.00	165.00	164.00	163.00	162.00	161.00	160.00	159.00	161.00	157.00	152.00	155.00	160.00	158.00	154.00	152.00	147.00	145.00	143.00	140.00	136.00	125.00	116.00	121.00	120.00	113.00	99.00	117.00	117.00	110.00	78.00	78.00	105.00	105.00	103.00	103.00	102.00	102.00	102.00	104.00	105.00	106.00	106.00	106.00	105.00	104.00	103.00	103.00	102.00	102.00	101.00	101.00	100.00	101.00	101.00	100.00	100.00	100.00	101.00	100.00	99.00	99.00	99.00	98.00	96.00	93.00	92.00	92.00	93.00	93.00	93.00	92.00	91.00	91.00	90.00	90.00
414.00	420.00	415.00	428.00	426.00	419.00	422.00	438.00	422.00	417.00	432.00	454.00	474.00	464.00	459.00	456.00	457.00	450.00	432.00	428.00	445.00	447.00	442.00	435.00	411.00	385.00	302.00	263.00	217.00	199.00	237.00	222.00	202.00	169.00	158.00	241.00	293.00	320.00	313.00	298.00	285.00	277.00	249.00	226.00	132.00	95.00	102.00	117.00	134.00	133.00	151.00	171.00	141.00	178.00	225.00	158.00	133.00	47.00	34.00	30.00	33.00	32.00	116.00	139.00	121.00	122.00	181.00	204.00	217.00	223.00	214.00	187.00	195.00	209.00	228.00	251.00	212.00	176.00	141.00	118.00	155.00	170.00	177.00	171.00	149.00	160.00	187.00	239.00	237.00	246.00	254.00	267.00	277.00	314.00	330.00	337.00	342.00	363.00	364.00	336.00	277.00	225.00	163.00	212.00	193.00	149.00	91.00	37.00	24.00	21.00	20.00	23.00	23.00	21.00	21.00	22.00	27.00	53.00	102.00	98.00	98.00	107.00	117.00	112.00	85.00	94.00	109.00	121.00	134.00	123.00	119.00	117.00	116.00	119.00	120.00	124.00	115.00	108.00	113.00	138.00	158.00	169.00	180.00	179.00	183.00	184.00	186.00	186.00	184.00	183.00	184.00	186.00	186.00	186.00	187.00	186.00	185.00	185.00	185.00	184.00	182.00	181.00	180.00	180.00	179.00	177.00	177.00	177.00	177.00	176.00	175.00	174.00	173.00	173.00	171.00	171.00	170.00	169.00	170.00	170.00	169.00	168.00	167.00	165.00	163.00	162.00	160.00	158.00	159.00	159.00	160.00	158.00	160.00	160.00	160.00	157.00	151.00	149.00	148.00	146.00	144.00	137.00	128.00	124.00	122.00	116.00	108.00	115.00	122.00	119.00	106.00	87.00	88.00	104.00	109.00	111.00	111.00	112.00	110.00	108.00	107.00	107.00	107.00	105.00	104.00	103.00	103.00	102.00	102.00	102.00	102.00	101.00	100.00	99.00	99.00	99.00	98.00	99.00	99.00	98.00	97.00	100.00	100.00	98.00	95.00	92.00	92.00	93.00	92.00	92.00	92.00	91.00	91.00	91.00	90.00	90.00
414.00	420.00	415.00	428.00	426.00	419.00	422.00	438.00	422.00	417.00	432.00	454.00	474.00	464.00	459.00	456.00	457.00	450.00	432.00	428.00	445.00	447.00	442.00	435.00	411.00	385.00	302.00	263.00	217.00	199.00	237.00	222.00	202.00	169.00	158.00	241.00	293.00	320.00	313.00	298.00	285.00	277.00	249.00	226.00	132.00	95.00	102.00	117.00	134.00	133.00	151.00	171.00	141.00	178.00	225.00	158.00	133.00	47.00	34.00	30.00	33.00	32.00	116.00	139.00	121.00	122.00	181.00	204.00	217.00	223.00	214.00	187.00	195.00	209.00	228.00	251.00	212.00	176.00	141.00	118.00	155.00	170.00	177.00	171.00	149.00	160.00	187.00	239.00	237.00	246.00	254.00	267.00	277.00	314.00	330.00	337.00	342.00	363.00	364.00	336.00	277.00	225.00	163.00	212.00	193.00	149.00	91.00	37.00	24.00	21.00	20.00	23.00	23.00	21.00	21.00	22.00	27.00	53.00	102.00	98.00	98.00	107.00	117.00	112.00	85.00	94.00	109.00	121.00	134.00	123.00	119.00	117.00	116.00	119.00	120.00	124.00	115.00	108.00	113.00	138.00	158.00	169.00	180.00	179.00	183.00	184.00	186.00	186.00	184.00	183.00	184.00	186.00	186.00	186.00	187.00	186.00	185.00	185.00	185.00	184.00	182.00	181.00	180.00	180.00	179.00	177.00	177.00	177.00	177.00	176.00	175.00	174.00	173.00	173.00	171.00	171.00	170.00	169.00	170.00	170.00	169.00	168.00	167.00	165.00	163.00	162.00	160.00	158.00	159.00	159.00	160.00	158.00	160.00	160.00	160.00	157.00	151.00	149.00	148.00	146.00	144.00	137.00	128.00	124.00	122.00	116.00	108.00	115.00	122.00	119.00	106.00	87.00	88.00	104.00	109.00	111.00	111.00	112.00	110.00	108.00	107.00	107.00	107.00	105.00	104.00	103.00	103.00	102.00	102.00	102.00	102.00	101.00	100.00	99.00	99.00	99.00	98.00	99.00	99.00	98.00	97.00	100.00	100.00	98.00	95.00	92.00	92.00	93.00	92.00	92.00	92.00	91.00	91.00	91.00	90.00	90.00
394.00	395.00	394.00	399.00	402.00	400.00	404.00	414.00	404.00	411.00	422.00	437.00	453.00	442.00	436.00	436.00	440.00	443.00	450.00	457.00	462.00	453.00	443.00	432.00	393.00	371.00	299.00	282.00	313.00	319.00	350.00	346.00	315.00	294.00	203.00	145.00	165.00	190.00	205.00	268.00	225.00	189.00	174.00	150.00	93.00	92.00	105.00	114.00	93.00	89.00	81.00	75.00	92.00	87.00	122.00	82.00	53.00	36.00	31.00	33.00	41.00	62.00	178.00	220.00	226.00	233.00	245.00	252.00	253.00	252.00	250.00	245.00	240.00	237.00	237.00	251.00	253.00	240.00	211.00	198.00	198.00	178.00	153.00	154.00	199.00	216.00	218.00	212.00	202.00	257.00	277.00	287.00	304.00	325.00	334.00	342.00	351.00	366.00	366.00	360.00	310.00	264.00	322.00	312.00	249.00	193.00	120.00	98.00	60.00	39.00	23.00	21.00	22.00	22.00	20.00	21.00	23.00	23.00	24.00	35.00	58.00	69.00	90.00	115.00	107.00	87.00	104.00	119.00	131.00	123.00	121.00	128.00	137.00	127.00	117.00	116.00	113.00	109.00	115.00	133.00	159.00	180.00	186.00	188.00	191.00	193.00	194.00	191.00	191.00	191.00	191.00	190.00	189.00	189.00	189.00	188.00	188.00	187.00	187.00	186.00	183.00	182.00	182.00	181.00	180.00	180.00	179.00	179.00	179.00	178.00	177.00	176.00	175.00	175.00	173.00	172.00	171.00	171.00	172.00	172.00	171.00	170.00	169.00	166.00	165.00	164.00	162.00	159.00	159.00	158.00	158.00	157.00	160.00	160.00	161.00	160.00	157.00	155.00	152.00	150.00	147.00	146.00	142.00	139.00	133.00	121.00	121.00	119.00	119.00	118.00	119.00	115.00	82.00	74.00	103.00	110.00	110.00	112.00	115.00	112.00	111.00	110.00	109.00	106.00	105.00	105.00	104.00	103.00	102.00	101.00	101.00	101.00	101.00	101.00	101.00	100.00	98.00	98.00	97.00	97.00	96.00	95.00	97.00	96.00	94.00	92.00	91.00	91.00	91.00	91.00	91.00	91.00	91.00	91.00	90.00	90.00
394.00	395.00	394.00	399.00	402.00	400.00	404.00	414.00	404.00	411.00	422.00	437.00	453.00	442.00	436.00	436.00	440.00	443.00	450.00	457.00	462.00	453.00	443.00	432.00	393.00	371.00	299.00	282.00	313.00	319.00	350.00	346.00	315.00	294.00	203.00	145.00	165.00	190.00	205.00	268.00	225.00	189.00	174.00	150.00	93.00	92.00	105.00	114.00	93.00	89.00	81.00	75.00	92.00	87.00	122.00	82.00	53.00	36.00	31.00	33.00	41.00	62.00	178.00	220.00	226.00	233.00	245.00	252.00	253.00	252.00	250.00	245.00	240.00	237.00	237.00	251.00	253.00	240.00	211.00	198.00	198.00	178.00	153.00	154.00	199.00	216.00	218.00	212.00	202.00	257.00	277.00	287.00	304.00	325.00	334.00	342.00	351.00	366.00	366.00	360.00	310.00	264.00	322.00	312.00	249.00	193.00	120.00	98.00	60.00	39.00	23.00	21.00	22.00	22.00	20.00	21.00	23.00	23.00	24.00	35.00	58.00	69.00	90.00	115.00	107.00	87.00	104.00	119.00	131.00	123.00	121.00	128.00	137.00	127.00	117.00	116.00	113.00	109.00	115.00	133.00	159.00	180.00	186.00	188.00	191.00	193.00	194.00	191.00	191.00	191.00	191.00	190.00	189.00	189.00	189.00	188.00	188.00	187.00	187.00	186.00	183.00	182.00	182.00	181.00	180.00	180.00	179.00	179.00	179.00	178.00	177.00	176.00	175.00	175.00	173.00	172.00	171.00	171.00	172.00	172.00	171.00	170.00	169.00	166.00	165.00	164.00	162.00	159.00	159.00	158.00	158.00	157.00	160.00	160.00	161.00	160.00	157.00	155.00	152.00	150.00	147.00	146.00	142.00	139.00	133.00	121.00	121.00	119.00	119.00	118.00	119.00	115.00	82.00	74.00	103.00	110.00	110.00	112.00	115.00	112.00	111.00	110.00	109.00	106.00	105.00	105.00	104.00	103.00	102.00	101.00	101.00	101.00	101.00	101.00	101.00	100.00	98.00	98.00	97.00	97.00	96.00	95.00	97.00	96.00	94.00	92.00	91.00	91.00	91.00	91.00	91.00	91.00	91.00	91.00	90.00	90.00
387.00	387.00	386.00	390.00	393.00	395.00	399.00	401.00	392.00	392.00	402.00	411.00	422.00	414.00	407.00	402.00	402.00	411.00	425.00	438.00	449.00	456.00	450.00	447.00	429.00	420.00	403.00	387.00	392.00	391.00	373.00	365.00	353.00	342.00	297.00	215.00	199.00	175.00	147.00	134.00	134.00	119.00	109.00	118.00	187.00	173.00	179.00	222.00	218.00	208.00	181.00	141.00	111.00	88.00	61.00	41.00	39.00	35.00	34.00	54.00	124.00	172.00	213.00	232.00	246.00	247.00	191.00	201.00	189.00	174.00	173.00	187.00	192.00	209.00	225.00	239.00	236.00	244.00	254.00	262.00	273.00	258.00	223.00	232.00	178.00	172.00	207.00	277.00	293.00	283.00	295.00	308.00	321.00	340.00	347.00	353.00	359.00	368.00	367.00	377.00	376.00	362.00	282.00	247.00	200.00	165.00	187.00	184.00	154.00	102.00	56.00	21.00	20.00	20.00	20.00	20.00	20.00	21.00	21.00	21.00	24.00	37.00	63.00	104.00	118.00	90.00	53.00	59.00	60.00	60.00	64.00	70.00	85.00	107.00	98.00	94.00	93.00	93.00	105.00	127.00	155.00	183.00	197.00	199.00	198.00	199.00	199.00	196.00	197.00	197.00	195.00	194.00	193.00	192.00	191.00	191.00	190.00	189.00	188.00	187.00	185.00	184.00	184.00	183.00	183.00	183.00	182.00	182.00	181.00	180.00	179.00	178.00	177.00	176.00	175.00	174.00	174.00	174.00	174.00	174.00	173.00	171.00	170.00	168.00	166.00	165.00	163.00	162.00	161.00	161.00	161.00	161.00	162.00	162.00	162.00	161.00	160.00	158.00	155.00	153.00	153.00	150.00	146.00	144.00	141.00	135.00	131.00	128.00	124.00	119.00	113.00	105.00	101.00	89.00	76.00	78.00	85.00	92.00	107.00	113.00	112.00	111.00	110.00	108.00	107.00	106.00	106.00	105.00	103.00	102.00	101.00	100.00	100.00	101.00	101.00	100.00	100.00	100.00	100.00	99.00	98.00	96.00	95.00	94.00	93.00	91.00	91.00	91.00	91.00	91.00	91.00	91.00	91.00	91.00	90.00	90.00
387.00	387.00	386.00	390.00	393.00	395.00	399.00	401.00	392.00	392.00	402.00	411.00	422.00	414.00	407.00	402.00	402.00	411.00	425.00	438.00	449.00	456.00	450.00	447.00	429.00	420.00	403.00	387.00	392.00	391.00	373.00	365.00	353.00	342.00	297.00	215.00	199.00	175.00	147.00	134.00	134.00	119.00	109.00	118.00	187.00	173.00	179.00	222.00	218.00	208.00	181.00	141.00	111.00	88.00	61.00	41.00	39.00	35.00	34.00	54.00	124.00	172.00	213.00	232.00	246.00	247.00	191.00	201.00	189.00	174.00	173.00	187.00	192.00	209.00	225.00	239.00	236.00	244.00	254.00	262.00	273.00	258.00	223.00	232.00	178.00	172.00	207.00	277.00	293.00	283.00	295.00	308.00	321.00	340.00	347.00	353.00	359.00	368.00	367.00	377.00	376.00	362.00	282.00	247.00	200.00	165.00	187.00	184.00	154.00	102.00	56.00	21.00	20.00	20.00	20.00	20.00	20.00	21.00	21.00	21.00	24.00	37.00	63.00	104.00	118.00	90.00	53.00	59.00	60.00	60.00	64.00	70.00	85.00	107.00	98.00	94.00	93.00	93.00	105.00	127.00	155.00	183.00	197.00	199.00	198.00	199.00	199.00	196.00	197.00	197.00	195.00	194.00	193.00	192.00	191.00	191.00	190.00	189.00	188.00	187.00	185.00	184.00	184.00	183.00	183.00	183.00	182.00	182.00	181.00	180.00	179.00	178.00	177.00	176.00	175.00	174.00	174.00	174.00	174.00	174.00	173.00	171.00	170.00	168.00	166.00	165.00	163.00	162.00	161.00	161.00	161.00	161.00	162.00	162.00	162.00	161.00	160.00	158.00	155.00	153.00	153.00	150.00	146.00	144.00	141.00	135.00	131.00	128.00	124.00	119.00	113.00	105.00	101.00	89.00	76.00	78.00	85.00	92.00	107.00	113.00	112.00	111.00	110.00	108.00	107.00	106.00	106.00	105.00	103.00	102.00	101.00	100.00	100.00	101.00	101.00	100.00	100.00	100.00	100.00	99.00	98.00	96.00	95.00	94.00	93.00	91.00	91.00	91.00	91.00	91.00	91.00	91.00	91.00	91.00	90.00	90.00
382.00	382.00	380.00	382.00	385.00	387.00	390.00	392.00	389.00	386.00	390.00	392.00	397.00	404.00	403.00	398.00	397.00	407.00	412.00	420.00	429.00	432.00	436.00	439.00	435.00	423.00	414.00	409.00	397.00	383.00	358.00	345.00	335.00	326.00	314.00	304.00	302.00	284.00	250.00	218.00	216.00	193.00	194.00	219.00	264.00	248.00	262.00	271.00	261.00	228.00	199.00	171.00	139.00	70.00	49.00	43.00	40.00	43.00	62.00	49.00	71.00	104.00	147.00	148.00	172.00	167.00	93.00	95.00	99.00	99.00	106.00	109.00	111.00	123.00	139.00	153.00	175.00	194.00	207.00	225.00	273.00	283.00	282.00	287.00	222.00	212.00	215.00	218.00	261.00	314.00	324.00	329.00	335.00	351.00	359.00	368.00	370.00	373.00	375.00	384.00	385.00	368.00	321.00	261.00	288.00	292.00	243.00	129.00	110.00	105.00	143.00	71.00	40.00	22.00	20.00	20.00	20.00	21.00	22.00	22.00	23.00	22.00	22.00	22.00	36.00	38.00	39.00	69.00	96.00	85.00	61.00	63.00	74.00	108.00	117.00	120.00	135.00	125.00	103.00	117.00	136.00	166.00	197.00	201.00	201.00	201.00	201.00	199.00	200.00	200.00	199.00	196.00	194.00	194.00	194.00	194.00	193.00	191.00	190.00	189.00	188.00	187.00	187.00	187.00	187.00	186.00	185.00	184.00	184.00	182.00	180.00	180.00	179.00	179.00	178.00	177.00	177.00	177.00	175.00	174.00	173.00	171.00	170.00	169.00	166.00	165.00	165.00	164.00	164.00	164.00	164.00	164.00	164.00	164.00	163.00	162.00	161.00	160.00	159.00	158.00	155.00	150.00	148.00	147.00	146.00	141.00	137.00	134.00	132.00	132.00	121.00	118.00	116.00	108.00	110.00	96.00	75.00	82.00	77.00	99.00	105.00	106.00	109.00	110.00	108.00	106.00	104.00	103.00	103.00	102.00	101.00	100.00	100.00	101.00	101.00	101.00	101.00	101.00	101.00	100.00	100.00	99.00	98.00	97.00	95.00	92.00	91.00	90.00	90.00	90.00	91.00	91.00	90.00	90.00	90.00	90.00
376.00	373.00	370.00	372.00	374.00	376.00	377.00	377.00	376.00	378.00	379.00	380.00	384.00	387.00	387.00	388.00	394.00	402.00	408.00	413.00	412.00	407.00	408.00	409.00	411.00	405.00	396.00	390.00	373.00	361.00	340.00	332.00	324.00	317.00	295.00	264.00	285.00	293.00	290.00	289.00	286.00	284.00	282.00	282.00	277.00	266.00	250.00	242.00	243.00	241.00	210.00	150.00	94.00	47.00	45.00	44.00	47.00	146.00	177.00	134.00	103.00	79.00	67.00	66.00	69.00	79.00	138.00	170.00	197.00	180.00	188.00	206.00	170.00	129.00	124.00	192.00	176.00	204.00	232.00	255.00	274.00	284.00	293.00	299.00	280.00	275.00	298.00	261.00	242.00	253.00	264.00	281.00	299.00	303.00	337.00	357.00	368.00	389.00	392.00	397.00	402.00	400.00	389.00	370.00	343.00	290.00	176.00	174.00	191.00	228.00	218.00	140.00	132.00	100.00	61.00	21.00	21.00	22.00	24.00	24.00	24.00	25.00	23.00	22.00	22.00	26.00	57.00	59.00	81.00	93.00	79.00	79.00	92.00	168.00	202.00	170.00	174.00	187.00	124.00	115.00	125.00	140.00	190.00	200.00	202.00	202.00	201.00	200.00	199.00	199.00	200.00	198.00	198.00	198.00	199.00	198.00	195.00	194.00	193.00	192.00	191.00	190.00	190.00	190.00	190.00	188.00	187.00	186.00	185.00	184.00	183.00	182.00	182.00	181.00	180.00	180.00	179.00	178.00	174.00	173.00	172.00	170.00	169.00	170.00	170.00	169.00	168.00	167.00	167.00	166.00	166.00	166.00	165.00	164.00	163.00	163.00	162.00	161.00	160.00	159.00	157.00	153.00	152.00	151.00	150.00	145.00	144.00	142.00	140.00	138.00	132.00	129.00	121.00	120.00	117.00	92.00	93.00	111.00	105.00	87.00	84.00	87.00	99.00	108.00	108.00	105.00	102.00	100.00	101.00	101.00	100.00	99.00	98.00	100.00	101.00	101.00	102.00	102.00	102.00	101.00	101.00	100.00	100.00	100.00	98.00	94.00	93.00	91.00	90.00	89.00	90.00	91.00	90.00	91.00	90.00	90.00
376.00	373.00	370.00	372.00	374.00	376.00	377.00	377.00	376.00	378.00	379.00	380.00	384.00	387.00	387.00	388.00	394.00	402.00	408.00	413.00	412.00	407.00	408.00	409.00	411.00	405.00	396.00	390.00	373.00	361.00	340.00	332.00	324.00	317.00	295.00	264.00	285.00	293.00	290.00	289.00	286.00	284.00	282.00	282.00	277.00	266.00	250.00	242.00	243.00	241.00	210.00	150.00	94.00	47.00	45.00	44.00	47.00	146.00	177.00	134.00	103.00	79.00	67.00	66.00	69.00	79.00	138.00	170.00	197.00	180.00	188.00	206.00	170.00	129.00	124.00	192.00	176.00	204.00	232.00	255.00	274.00	284.00	293.00	299.00	280.00	275.00	298.00	261.00	242.00	253.00	264.00	281.00	299.00	303.00	337.00	357.00	368.00	389.00	392.00	397.00	402.00	400.00	389.00	370.00	343.00	290.00	176.00	174.00	191.00	228.00	218.00	140.00	132.00	100.00	61.00	21.00	21.00	22.00	24.00	24.00	24.00	25.00	23.00	22.00	22.00	26.00	57.00	59.00	81.00	93.00	79.00	79.00	92.00	168.00	202.00	170.00	174.00	187.00	124.00	115.00	125.00	140.00	190.00	200.00	202.00	202.00	201.00	200.00	199.00	199.00	200.00	198.00	198.00	198.00	199.00	198.00	195.00	194.00	193.00	192.00	191.00	190.00	190.00	190.00	190.00	188.00	187.00	186.00	185.00	184.00	183.00	182.00	182.00	181.00	180.00	180.00	179.00	178.00	174.00	173.00	172.00	170.00	169.00	170.00	170.00	169.00	168.00	167.00	167.00	166.00	166.00	166.00	165.00	164.00	163.00	163.00	162.00	161.00	160.00	159.00	157.00	153.00	152.00	151.00	150.00	145.00	144.00	142.00	140.00	138.00	132.00	129.00	121.00	120.00	117.00	92.00	93.00	111.00	105.00	87.00	84.00	87.00	99.00	108.00	108.00	105.00	102.00	100.00	101.00	101.00	100.00	99.00	98.00	100.00	101.00	101.00	102.00	102.00	102.00	101.00	101.00	100.00	100.00	100.00	98.00	94.00	93.00	91.00	90.00	89.00	90.00	91.00	90.00	91.00	90.00	90.00
376.00	373.00	370.00	372.00	374.00	376.00	377.00	377.00	376.00	378.00	379.00	380.00	384.00	387.00	387.00	388.00	394.00	402.00	408.00	413.00	412.00	407.00	408.00	409.00	411.00	405.00	396.00	390.00	373.00	361.00	340.00	332.00	324.00	317.00	295.00	264.00	285.00	293.00	290.00	289.00	286.00	284.00	282.00	282.00	277.00	266.00	250.00	242.00	243.00	241.00	210.00	150.00	94.00	47.00	45.00	44.00	47.00	146.00	177.00	134.00	103.00	79.00	67.00	66.00	69.00	79.00	138.00	170.00	197.00	180.00	188.00	206.00	170.00	129.00	124.00	192.00	176.00	204.00	232.00	255.00	274.00	284.00	293.00	299.00	280.00	275.00	298.00	261.00	242.00	253.00	264.00	281.00	299.00	303.00	337.00	357.00	368.00	389.00	392.00	397.00	402.00	400.00	389.00	370.00	343.00	290.00	176.00	174.00	191.00	228.00	218.00	140.00	132.00	100.00	61.00	21.00	21.00	22.00	24.00	24.00	24.00	25.00	23.00	22.00	22.00	26.00	57.00	59.00	81.00	93.00	79.00	79.00	92.00	168.00	202.00	170.00	174.00	187.00	124.00	115.00	125.00	140.00	190.00	200.00	202.00	202.00	201.00	200.00	199.00	199.00	200.00	198.00	198.00	198.00	199.00	198.00	195.00	194.00	193.00	192.00	191.00	190.00	190.00	190.00	190.00	188.00	187.00	186.00	185.00	184.00	183.00	182.00	182.00	181.00	180.00	180.00	179.00	178.00	174.00	173.00	172.00	170.00	169.00	170.00	170.00	169.00	168.00	167.00	167.00	166.00	166.00	166.00	165.00	164.00	163.00	163.00	162.00	161.00	160.00	159.00	157.00	153.00	152.00	151.00	150.00	145.00	144.00	142.00	140.00	138.00	132.00	129.00	121.00	120.00	117.00	92.00	93.00	111.00	105.00	87.00	84.00	87.00	99.00	108.00	108.00	105.00	102.00	100.00	101.00	101.00	100.00	99.00	98.00	100.00	101.00	101.00	102.00	102.00	102.00	101.00	101.00	100.00	100.00	100.00	98.00	94.00	93.00	91.00	90.00	89.00	90.00	91.00	90.00	91.00	90.00	90.00
369.00	368.00	365.00	369.00	369.00	368.00	366.00	365.00	360.00	362.00	364.00	367.00	373.00	371.00	367.00	371.00	375.00	381.00	387.00	390.00	392.00	387.00	384.00	379.00	357.00	353.00	348.00	349.00	338.00	332.00	325.00	319.00	317.00	310.00	278.00	232.00	215.00	247.00	270.00	229.00	259.00	273.00	284.00	287.00	279.00	271.00	248.00	210.00	139.00	122.00	80.00	49.00	49.00	50.00	50.00	56.00	86.00	187.00	219.00	222.00	209.00	200.00	180.00	148.00	102.00	84.00	181.00	204.00	223.00	234.00	241.00	251.00	228.00	193.00	147.00	164.00	234.00	230.00	217.00	240.00	292.00	299.00	303.00	307.00	317.00	321.00	320.00	332.00	335.00	337.00	342.00	361.00	373.00	352.00	355.00	384.00	390.00	401.00	403.00	406.00	412.00	411.00	412.00	395.00	350.00	320.00	229.00	303.00	346.00	363.00	312.00	232.00	191.00	143.00	101.00	99.00	55.00	39.00	39.00	38.00	32.00	31.00	28.00	23.00	22.00	22.00	45.00	95.00	93.00	67.00	64.00	70.00	83.00	154.00	206.00	202.00	186.00	191.00	169.00	123.00	124.00	134.00	165.00	187.00	196.00	200.00	201.00	201.00	201.00	201.00	200.00	198.00	198.00	199.00	200.00	199.00	198.00	196.00	195.00	194.00	193.00	192.00	192.00	192.00	191.00	190.00	189.00	188.00	187.00	186.00	185.00	184.00	184.00	183.00	182.00	181.00	180.00	179.00	176.00	174.00	172.00	171.00	172.00	173.00	172.00	171.00	170.00	169.00	169.00	168.00	167.00	167.00	165.00	164.00	164.00	163.00	162.00	161.00	161.00	160.00	160.00	158.00	155.00	153.00	151.00	148.00	146.00	145.00	144.00	143.00	139.00	137.00	130.00	127.00	115.00	94.00	94.00	113.00	110.00	111.00	111.00	100.00	87.00	94.00	92.00	93.00	96.00	98.00	99.00	101.00	103.00	100.00	95.00	98.00	100.00	101.00	102.00	102.00	102.00	102.00	101.00	100.00	100.00	100.00	99.00	97.00	98.00	96.00	92.00	90.00	89.00	89.00	89.00	89.00	90.00	90.00
359.00	357.00	357.00	361.00	360.00	359.00	356.00	358.00	353.00	342.00	325.00	340.00	352.00	350.00	344.00	346.00	349.00	352.00	351.00	352.00	351.00	340.00	341.00	328.00	311.00	313.00	326.00	322.00	316.00	313.00	308.00	305.00	302.00	302.00	301.00	267.00	231.00	219.00	206.00	185.00	166.00	193.00	232.00	270.00	279.00	277.00	271.00	252.00	120.00	56.00	49.00	53.00	53.00	62.00	82.00	121.00	90.00	102.00	114.00	131.00	144.00	150.00	205.00	218.00	187.00	156.00	110.00	110.00	125.00	145.00	181.00	237.00	247.00	239.00	218.00	141.00	198.00	241.00	266.00	272.00	298.00	304.00	310.00	316.00	328.00	334.00	340.00	349.00	355.00	365.00	373.00	383.00	394.00	397.00	384.00	391.00	393.00	401.00	406.00	409.00	416.00	421.00	429.00	439.00	443.00	439.00	363.00	334.00	399.00	376.00	295.00	199.00	168.00	182.00	224.00	196.00	143.00	99.00	43.00	41.00	42.00	41.00	40.00	34.00	22.00	23.00	26.00	88.00	147.00	122.00	86.00	68.00	75.00	135.00	178.00	202.00	188.00	188.00	193.00	162.00	145.00	138.00	150.00	166.00	183.00	194.00	199.00	201.00	201.00	201.00	199.00	194.00	194.00	198.00	200.00	199.00	197.00	197.00	197.00	196.00	194.00	194.00	194.00	193.00	193.00	192.00	191.00	190.00	189.00	188.00	187.00	187.00	186.00	186.00	184.00	183.00	182.00	181.00	179.00	177.00	176.00	174.00	175.00	175.00	174.00	173.00	171.00	170.00	169.00	169.00	168.00	168.00	166.00	165.00	164.00	164.00	162.00	162.00	162.00	161.00	161.00	159.00	157.00	155.00	152.00	149.00	146.00	144.00	142.00	141.00	140.00	140.00	133.00	129.00	119.00	106.00	106.00	100.00	113.00	110.00	109.00	113.00	94.00	110.00	110.00	107.00	101.00	97.00	89.00	91.00	94.00	98.00	93.00	96.00	98.00	100.00	102.00	102.00	101.00	101.00	101.00	100.00	100.00	100.00	101.00	101.00	101.00	99.00	95.00	93.00	89.00	89.00	89.00	89.00	90.00	90.00
359.00	357.00	357.00	361.00	360.00	359.00	356.00	358.00	353.00	342.00	325.00	340.00	352.00	350.00	344.00	346.00	349.00	352.00	351.00	352.00	351.00	340.00	341.00	328.00	311.00	313.00	326.00	322.00	316.00	313.00	308.00	305.00	302.00	302.00	301.00	267.00	231.00	219.00	206.00	185.00	166.00	193.00	232.00	270.00	279.00	277.00	271.00	252.00	120.00	56.00	49.00	53.00	53.00	62.00	82.00	121.00	90.00	102.00	114.00	131.00	144.00	150.00	205.00	218.00	187.00	156.00	110.00	110.00	125.00	145.00	181.00	237.00	247.00	239.00	218.00	141.00	198.00	241.00	266.00	272.00	298.00	304.00	310.00	316.00	328.00	334.00	340.00	349.00	355.00	365.00	373.00	383.00	394.00	397.00	384.00	391.00	393.00	401.00	406.00	409.00	416.00	421.00	429.00	439.00	443.00	439.00	363.00	334.00	399.00	376.00	295.00	199.00	168.00	182.00	224.00	196.00	143.00	99.00	43.00	41.00	42.00	41.00	40.00	34.00	22.00	23.00	26.00	88.00	147.00	122.00	86.00	68.00	75.00	135.00	178.00	202.00	188.00	188.00	193.00	162.00	145.00	138.00	150.00	166.00	183.00	194.00	199.00	201.00	201.00	201.00	199.00	194.00	194.00	198.00	200.00	199.00	197.00	197.00	197.00	196.00	194.00	194.00	194.00	193.00	193.00	192.00	191.00	190.00	189.00	188.00	187.00	187.00	186.00	186.00	184.00	183.00	182.00	181.00	179.00	177.00	176.00	174.00	175.00	175.00	174.00	173.00	171.00	170.00	169.00	169.00	168.00	168.00	166.00	165.00	164.00	164.00	162.00	162.00	162.00	161.00	161.00	159.00	157.00	155.00	152.00	149.00	146.00	144.00	142.00	141.00	140.00	140.00	133.00	129.00	119.00	106.00	106.00	100.00	113.00	110.00	109.00	113.00	94.00	110.00	110.00	107.00	101.00	97.00	89.00	91.00	94.00	98.00	93.00	96.00	98.00	100.00	102.00	102.00	101.00	101.00	101.00	100.00	100.00	100.00	101.00	101.00	101.00	99.00	95.00	93.00	89.00	89.00	89.00	89.00	90.00	90.00
340.00	351.00	358.00	358.00	354.00	352.00	347.00	334.00	335.00	329.00	300.00	285.00	321.00	315.00	312.00	322.00	322.00	324.00	316.00	310.00	313.00	287.00	294.00	307.00	243.00	280.00	312.00	310.00	302.00	288.00	304.00	303.00	295.00	288.00	293.00	295.00	292.00	292.00	287.00	246.00	186.00	132.00	156.00	217.00	198.00	178.00	164.00	143.00	57.00	50.00	53.00	57.00	59.00	92.00	138.00	174.00	120.00	99.00	137.00	151.00	132.00	115.00	144.00	165.00	191.00	215.00	205.00	202.00	170.00	125.00	122.00	165.00	198.00	243.00	276.00	210.00	155.00	156.00	185.00	229.00	293.00	306.00	314.00	319.00	330.00	335.00	342.00	353.00	361.00	377.00	381.00	383.00	386.00	391.00	397.00	402.00	402.00	401.00	413.00	418.00	423.00	426.00	433.00	440.00	448.00	457.00	428.00	407.00	412.00	376.00	333.00	347.00	331.00	347.00	335.00	247.00	211.00	190.00	109.00	66.00	47.00	45.00	43.00	38.00	22.00	24.00	24.00	45.00	109.00	141.00	100.00	76.00	80.00	133.00	160.00	189.00	191.00	183.00	195.00	195.00	172.00	159.00	151.00	156.00	167.00	178.00	186.00	196.00	198.00	197.00	195.00	190.00	188.00	192.00	196.00	197.00	196.00	196.00	196.00	196.00	196.00	196.00	195.00	195.00	195.00	193.00	193.00	192.00	192.00	191.00	190.00	189.00	189.00	188.00	186.00	185.00	184.00	183.00	181.00	180.00	179.00	177.00	178.00	176.00	174.00	174.00	173.00	172.00	170.00	169.00	169.00	168.00	165.00	165.00	164.00	164.00	164.00	163.00	162.00	162.00	161.00	161.00	158.00	156.00	154.00	151.00	147.00	143.00	140.00	138.00	135.00	133.00	131.00	125.00	121.00	130.00	125.00	103.00	122.00	120.00	118.00	115.00	112.00	103.00	115.00	113.00	110.00	109.00	104.00	100.00	97.00	94.00	90.00	91.00	93.00	96.00	100.00	101.00	100.00	99.00	99.00	102.00	102.00	102.00	101.00	102.00	101.00	100.00	99.00	98.00	93.00	91.00	90.00	89.00	88.00	88.00
340.00	351.00	358.00	358.00	354.00	352.00	347.00	334.00	335.00	329.00	300.00	285.00	321.00	315.00	312.00	322.00	322.00	324.00	316.00	310.00	313.00	287.00	294.00	307.00	243.00	280.00	312.00	310.00	302.00	288.00	304.00	303.00	295.00	288.00	293.00	295.00	292.00	292.00	287.00	246.00	186.00	132.00	156.00	217.00	198.00	178.00	164.00	143.00	57.00	50.00	53.00	57.00	59.00	92.00	138.00	174.00	120.00	99.00	137.00	151.00	132.00	115.00	144.00	165.00	191.00	215.00	205.00	202.00	170.00	125.00	122.00	165.00	198.00	243.00	276.00	210.00	155.00	156.00	185.00	229.00	293.00	306.00	314.00	319.00	330.00	335.00	342.00	353.00	361.00	377.00	381.00	383.00	386.00	391.00	397.00	402.00	402.00	401.00	413.00	418.00	423.00	426.00	433.00	440.00	448.00	457.00	428.00	407.00	412.00	376.00	333.00	347.00	331.00	347.00	335.00	247.00	211.00	190.00	109.00	66.00	47.00	45.00	43.00	38.00	22.00	24.00	24.00	45.00	109.00	141.00	100.00	76.00	80.00	133.00	160.00	189.00	191.00	183.00	195.00	195.00	172.00	159.00	151.00	156.00	167.00	178.00	186.00	196.00	198.00	197.00	195.00	190.00	188.00	192.00	196.00	197.00	196.00	196.00	196.00	196.00	196.00	196.00	195.00	195.00	195.00	193.00	193.00	192.00	192.00	191.00	190.00	189.00	189.00	188.00	186.00	185.00	184.00	183.00	181.00	180.00	179.00	177.00	178.00	176.00	174.00	174.00	173.00	172.00	170.00	169.00	169.00	168.00	165.00	165.00	164.00	164.00	164.00	163.00	162.00	162.00	161.00	161.00	158.00	156.00	154.00	151.00	147.00	143.00	140.00	138.00	135.00	133.00	131.00	125.00	121.00	130.00	125.00	103.00	122.00	120.00	118.00	115.00	112.00	103.00	115.00	113.00	110.00	109.00	104.00	100.00	97.00	94.00	90.00	91.00	93.00	96.00	100.00	101.00	100.00	99.00	99.00	102.00	102.00	102.00	101.00	102.00	101.00	100.00	99.00	98.00	93.00	91.00	90.00	89.00	88.00	88.00
335.00	350.00	353.00	351.00	347.00	342.00	341.00	331.00	304.00	304.00	300.00	282.00	256.00	302.00	312.00	317.00	317.00	318.00	316.00	305.00	293.00	257.00	244.00	232.00	196.00	218.00	266.00	253.00	244.00	241.00	287.00	305.00	302.00	296.00	244.00	259.00	261.00	265.00	277.00	240.00	202.00	158.00	116.00	114.00	77.00	66.00	59.00	58.00	61.00	60.00	61.00	63.00	68.00	107.00	155.00	135.00	86.00	164.00	209.00	236.00	220.00	179.00	153.00	189.00	189.00	185.00	245.00	250.00	214.00	185.00	213.00	151.00	142.00	191.00	244.00	293.00	249.00	201.00	161.00	168.00	237.00	249.00	255.00	261.00	249.00	248.00	255.00	288.00	320.00	361.00	361.00	362.00	356.00	383.00	399.00	411.00	417.00	419.00	422.00	427.00	427.00	427.00	434.00	446.00	453.00	457.00	432.00	412.00	392.00	370.00	376.00	408.00	406.00	381.00	324.00	226.00	176.00	139.00	116.00	99.00	62.00	49.00	43.00	40.00	30.00	22.00	23.00	23.00	49.00	146.00	107.00	83.00	87.00	149.00	152.00	159.00	172.00	178.00	198.00	196.00	190.00	183.00	168.00	161.00	159.00	160.00	159.00	175.00	182.00	186.00	181.00	187.00	185.00	188.00	192.00	193.00	192.00	193.00	194.00	195.00	198.00	198.00	197.00	197.00	196.00	195.00	195.00	195.00	195.00	194.00	193.00	193.00	192.00	190.00	188.00	188.00	187.00	187.00	185.00	184.00	183.00	180.00	179.00	178.00	178.00	178.00	175.00	171.00	170.00	169.00	168.00	167.00	166.00	166.00	166.00	166.00	164.00	163.00	162.00	161.00	161.00	159.00	156.00	154.00	153.00	152.00	147.00	139.00	143.00	140.00	139.00	141.00	138.00	136.00	133.00	131.00	128.00	117.00	114.00	123.00	122.00	119.00	115.00	98.00	97.00	106.00	112.00	112.00	111.00	109.00	108.00	107.00	108.00	98.00	92.00	89.00	94.00	98.00	101.00	101.00	100.00	102.00	103.00	103.00	102.00	103.00	103.00	102.00	101.00	100.00	98.00	97.00	95.00	92.00	90.00	90.00
335.00	350.00	353.00	351.00	347.00	342.00	341.00	331.00	304.00	304.00	300.00	282.00	256.00	302.00	312.00	317.00	317.00	318.00	316.00	305.00	293.00	257.00	244.00	232.00	196.00	218.00	266.00	253.00	244.00	241.00	287.00	305.00	302.00	296.00	244.00	259.00	261.00	265.00	277.00	240.00	202.00	158.00	116.00	114.00	77.00	66.00	59.00	58.00	61.00	60.00	61.00	63.00	68.00	107.00	155.00	135.00	86.00	164.00	209.00	236.00	220.00	179.00	153.00	189.00	189.00	185.00	245.00	250.00	214.00	185.00	213.00	151.00	142.00	191.00	244.00	293.00	249.00	201.00	161.00	168.00	237.00	249.00	255.00	261.00	249.00	248.00	255.00	288.00	320.00	361.00	361.00	362.00	356.00	383.00	399.00	411.00	417.00	419.00	422.00	427.00	427.00	427.00	434.00	446.00	453.00	457.00	432.00	412.00	392.00	370.00	376.00	408.00	406.00	381.00	324.00	226.00	176.00	139.00	116.00	99.00	62.00	49.00	43.00	40.00	30.00	22.00	23.00	23.00	49.00	146.00	107.00	83.00	87.00	149.00	152.00	159.00	172.00	178.00	198.00	196.00	190.00	183.00	168.00	161.00	159.00	160.00	159.00	175.00	182.00	186.00	181.00	187.00	185.00	188.00	192.00	193.00	192.00	193.00	194.00	195.00	198.00	198.00	197.00	197.00	196.00	195.00	195.00	195.00	195.00	194.00	193.00	193.00	192.00	190.00	188.00	188.00	187.00	187.00	185.00	184.00	183.00	180.00	179.00	178.00	178.00	178.00	175.00	171.00	170.00	169.00	168.00	167.00	166.00	166.00	166.00	166.00	164.00	163.00	162.00	161.00	161.00	159.00	156.00	154.00	153.00	152.00	147.00	139.00	143.00	140.00	139.00	141.00	138.00	136.00	133.00	131.00	128.00	117.00	114.00	123.00	122.00	119.00	115.00	98.00	97.00	106.00	112.00	112.00	111.00	109.00	108.00	107.00	108.00	98.00	92.00	89.00	94.00	98.00	101.00	101.00	100.00	102.00	103.00	103.00	102.00	103.00	103.00	102.00	101.00	100.00	98.00	97.00	95.00	92.00	90.00	90.00
330.00	340.00	347.00	336.00	331.00	329.00	329.00	328.00	329.00	336.00	331.00	323.00	288.00	245.00	274.00	298.00	312.00	313.00	310.00	304.00	305.00	310.00	300.00	280.00	231.00	199.00	176.00	168.00	159.00	162.00	268.00	292.00	289.00	291.00	261.00	208.00	189.00	179.00	186.00	165.00	135.00	109.00	97.00	77.00	61.00	62.00	65.00	68.00	67.00	69.00	71.00	78.00	108.00	101.00	121.00	175.00	119.00	159.00	203.00	234.00	250.00	243.00	196.00	192.00	216.00	239.00	235.00	263.00	270.00	270.00	275.00	262.00	207.00	152.00	155.00	269.00	305.00	284.00	251.00	200.00	202.00	217.00	224.00	223.00	257.00	260.00	251.00	225.00	243.00	270.00	272.00	295.00	280.00	297.00	314.00	330.00	343.00	380.00	400.00	401.00	422.00	429.00	429.00	433.00	430.00	439.00	408.00	406.00	394.00	325.00	258.00	357.00	365.00	350.00	372.00	316.00	285.00	242.00	199.00	170.00	82.00	53.00	49.00	44.00	30.00	23.00	24.00	23.00	23.00	137.00	111.00	89.00	93.00	135.00	146.00	136.00	144.00	166.00	192.00	200.00	198.00	196.00	185.00	171.00	146.00	125.00	102.00	145.00	168.00	158.00	180.00	189.00	189.00	187.00	189.00	191.00	184.00	191.00	192.00	194.00	200.00	200.00	199.00	199.00	199.00	199.00	199.00	198.00	198.00	198.00	198.00	199.00	198.00	195.00	194.00	194.00	193.00	193.00	190.00	189.00	188.00	184.00	183.00	183.00	182.00	180.00	177.00	170.00	169.00	169.00	168.00	168.00	168.00	168.00	167.00	166.00	164.00	163.00	163.00	162.00	161.00	158.00	154.00	152.00	150.00	151.00	148.00	145.00	150.00	148.00	145.00	144.00	142.00	140.00	137.00	135.00	132.00	131.00	125.00	123.00	126.00	124.00	121.00	114.00	109.00	97.00	95.00	105.00	111.00	112.00	111.00	110.00	109.00	110.00	110.00	104.00	89.00	89.00	91.00	95.00	99.00	104.00	104.00	103.00	102.00	104.00	104.00	103.00	101.00	100.00	100.00	100.00	99.00	94.00	93.00	92.00
305.00	322.00	332.00	333.00	330.00	330.00	331.00	331.00	329.00	331.00	328.00	319.00	299.00	247.00	219.00	246.00	283.00	301.00	300.00	295.00	286.00	289.00	301.00	302.00	282.00	269.00	249.00	233.00	186.00	130.00	206.00	213.00	209.00	209.00	240.00	264.00	253.00	230.00	201.00	132.00	97.00	75.00	69.00	68.00	94.00	111.00	97.00	81.00	73.00	80.00	90.00	105.00	117.00	132.00	147.00	190.00	199.00	120.00	130.00	162.00	196.00	228.00	256.00	255.00	256.00	255.00	278.00	278.00	285.00	294.00	300.00	310.00	269.00	195.00	146.00	247.00	323.00	310.00	264.00	209.00	237.00	270.00	306.00	330.00	343.00	348.00	338.00	254.00	234.00	316.00	314.00	280.00	292.00	368.00	369.00	378.00	377.00	435.00	447.00	440.00	430.00	429.00	430.00	425.00	382.00	335.00	335.00	313.00	344.00	331.00	263.00	206.00	227.00	209.00	281.00	250.00	197.00	181.00	95.00	86.00	108.00	107.00	79.00	56.00	20.00	22.00	26.00	24.00	22.00	46.00	114.00	106.00	109.00	134.00	140.00	132.00	119.00	126.00	174.00	190.00	195.00	185.00	161.00	138.00	111.00	82.00	60.00	109.00	131.00	106.00	182.00	188.00	184.00	175.00	163.00	162.00	175.00	191.00	192.00	193.00	199.00	199.00	200.00	200.00	202.00	202.00	203.00	203.00	203.00	200.00	199.00	199.00	200.00	201.00	201.00	200.00	200.00	200.00	197.00	198.00	197.00	195.00	192.00	187.00	184.00	182.00	179.00	174.00	172.00	171.00	171.00	171.00	169.00	169.00	168.00	167.00	164.00	163.00	162.00	162.00	161.00	160.00	160.00	158.00	155.00	153.00	153.00	152.00	151.00	149.00	147.00	146.00	143.00	142.00	139.00	137.00	135.00	133.00	131.00	126.00	131.00	128.00	126.00	119.00	116.00	114.00	106.00	95.00	101.00	110.00	111.00	110.00	109.00	108.00	106.00	104.00	99.00	97.00	94.00	91.00	89.00	92.00	96.00	98.00	101.00	103.00	102.00	101.00	101.00	101.00	101.00	98.00	95.00	95.00	95.00	94.00
305.00	322.00	332.00	333.00	330.00	330.00	331.00	331.00	329.00	331.00	328.00	319.00	299.00	247.00	219.00	246.00	283.00	301.00	300.00	295.00	286.00	289.00	301.00	302.00	282.00	269.00	249.00	233.00	186.00	130.00	206.00	213.00	209.00	209.00	240.00	264.00	253.00	230.00	201.00	132.00	97.00	75.00	69.00	68.00	94.00	111.00	97.00	81.00	73.00	80.00	90.00	105.00	117.00	132.00	147.00	190.00	199.00	120.00	130.00	162.00	196.00	228.00	256.00	255.00	256.00	255.00	278.00	278.00	285.00	294.00	300.00	310.00	269.00	195.00	146.00	247.00	323.00	310.00	264.00	209.00	237.00	270.00	306.00	330.00	343.00	348.00	338.00	254.00	234.00	316.00	314.00	280.00	292.00	368.00	369.00	378.00	377.00	435.00	447.00	440.00	430.00	429.00	430.00	425.00	382.00	335.00	335.00	313.00	344.00	331.00	263.00	206.00	227.00	209.00	281.00	250.00	197.00	181.00	95.00	86.00	108.00	107.00	79.00	56.00	20.00	22.00	26.00	24.00	22.00	46.00	114.00	106.00	109.00	134.00	140.00	132.00	119.00	126.00	174.00	190.00	195.00	185.00	161.00	138.00	111.00	82.00	60.00	109.00	131.00	106.00	182.00	188.00	184.00	175.00	163.00	162.00	175.00	191.00	192.00	193.00	199.00	199.00	200.00	200.00	202.00	202.00	203.00	203.00	203.00	200.00	199.00	199.00	200.00	201.00	201.00	200.00	200.00	200.00	197.00	198.00	197.00	195.00	192.00	187.00	184.00	182.00	179.00	174.00	172.00	171.00	171.00	171.00	169.00	169.00	168.00	167.00	164.00	163.00	162.00	162.00	161.00	160.00	160.00	158.00	155.00	153.00	153.00	152.00	151.00	149.00	147.00	146.00	143.00	142.00	139.00	137.00	135.00	133.00	131.00	126.00	131.00	128.00	126.00	119.00	116.00	114.00	106.00	95.00	101.00	110.00	111.00	110.00	109.00	108.00	106.00	104.00	99.00	97.00	94.00	91.00	89.00	92.00	96.00	98.00	101.00	103.00	102.00	101.00	101.00	101.00	101.00	98.00	95.00	95.00	95.00	94.00
305.00	322.00	332.00	333.00	330.00	330.00	331.00	331.00	329.00	331.00	328.00	319.00	299.00	247.00	219.00	246.00	283.00	301.00	300.00	295.00	286.00	289.00	301.00	302.00	282.00	269.00	249.00	233.00	186.00	130.00	206.00	213.00	209.00	209.00	240.00	264.00	253.00	230.00	201.00	132.00	97.00	75.00	69.00	68.00	94.00	111.00	97.00	81.00	73.00	80.00	90.00	105.00	117.00	132.00	147.00	190.00	199.00	120.00	130.00	162.00	196.00	228.00	256.00	255.00	256.00	255.00	278.00	278.00	285.00	294.00	300.00	310.00	269.00	195.00	146.00	247.00	323.00	310.00	264.00	209.00	237.00	270.00	306.00	330.00	343.00	348.00	338.00	254.00	234.00	316.00	314.00	280.00	292.00	368.00	369.00	378.00	377.00	435.00	447.00	440.00	430.00	429.00	430.00	425.00	382.00	335.00	335.00	313.00	344.00	331.00	263.00	206.00	227.00	209.00	281.00	250.00	197.00	181.00	95.00	86.00	108.00	107.00	79.00	56.00	20.00	22.00	26.00	24.00	22.00	46.00	114.00	106.00	109.00	134.00	140.00	132.00	119.00	126.00	174.00	190.00	195.00	185.00	161.00	138.00	111.00	82.00	60.00	109.00	131.00	106.00	182.00	188.00	184.00	175.00	163.00	162.00	175.00	191.00	192.00	193.00	199.00	199.00	200.00	200.00	202.00	202.00	203.00	203.00	203.00	200.00	199.00	199.00	200.00	201.00	201.00	200.00	200.00	200.00	197.00	198.00	197.00	195.00	192.00	187.00	184.00	182.00	179.00	174.00	172.00	171.00	171.00	171.00	169.00	169.00	168.00	167.00	164.00	163.00	162.00	162.00	161.00	160.00	160.00	158.00	155.00	153.00	153.00	152.00	151.00	149.00	147.00	146.00	143.00	142.00	139.00	137.00	135.00	133.00	131.00	126.00	131.00	128.00	126.00	119.00	116.00	114.00	106.00	95.00	101.00	110.00	111.00	110.00	109.00	108.00	106.00	104.00	99.00	97.00	94.00	91.00	89.00	92.00	96.00	98.00	101.00	103.00	102.00	101.00	101.00	101.00	101.00	98.00	95.00	95.00	95.00	94.00
291.00	307.00	313.00	325.00	329.00	333.00	335.00	333.00	328.00	329.00	332.00	328.00	308.00	280.00	239.00	200.00	237.00	258.00	246.00	234.00	221.00	226.00	250.00	247.00	198.00	178.00	163.00	158.00	146.00	131.00	130.00	126.00	123.00	118.00	130.00	187.00	176.00	135.00	107.00	74.00	71.00	71.00	73.00	82.00	224.00	213.00	172.00	115.00	81.00	117.00	147.00	175.00	201.00	215.00	239.00	245.00	251.00	219.00	201.00	168.00	133.00	151.00	198.00	227.00	247.00	271.00	293.00	297.00	302.00	307.00	311.00	324.00	304.00	236.00	178.00	234.00	312.00	318.00	285.00	242.00	224.00	264.00	301.00	331.00	355.00	340.00	298.00	276.00	310.00	365.00	378.00	376.00	365.00	393.00	414.00	434.00	442.00	445.00	443.00	436.00	430.00	422.00	417.00	378.00	317.00	278.00	211.00	181.00	188.00	191.00	208.00	147.00	124.00	126.00	148.00	141.00	119.00	104.00	129.00	164.00	248.00	195.00	137.00	97.00	29.00	21.00	25.00	25.00	23.00	26.00	33.00	83.00	137.00	145.00	145.00	136.00	126.00	113.00	129.00	175.00	157.00	106.00	59.00	67.00	87.00	112.00	103.00	57.00	58.00	82.00	167.00	177.00	143.00	135.00	148.00	166.00	188.00	189.00	184.00	184.00	183.00	185.00	191.00	194.00	195.00	199.00	200.00	200.00	200.00	200.00	191.00	191.00	194.00	196.00	194.00	191.00	194.00	197.00	198.00	200.00	201.00	201.00	199.00	195.00	192.00	188.00	185.00	180.00	177.00	178.00	177.00	177.00	170.00	169.00	168.00	167.00	165.00	164.00	163.00	163.00	162.00	161.00	160.00	160.00	159.00	156.00	154.00	152.00	151.00	150.00	147.00	146.00	143.00	142.00	141.00	140.00	138.00	135.00	132.00	125.00	132.00	130.00	128.00	122.00	121.00	118.00	114.00	113.00	103.00	99.00	101.00	105.00	112.00	112.00	110.00	109.00	105.00	104.00	103.00	101.00	98.00	92.00	90.00	89.00	94.00	97.00	97.00	97.00	98.00	100.00	100.00	100.00	99.00	99.00	96.00	94.00
303.00	311.00	321.00	336.00	344.00	346.00	337.00	334.00	327.00	324.00	325.00	321.00	303.00	269.00	256.00	240.00	217.00	208.00	214.00	220.00	218.00	169.00	181.00	177.00	184.00	198.00	211.00	197.00	205.00	239.00	244.00	235.00	223.00	209.00	140.00	79.00	73.00	73.00	76.00	88.00	99.00	124.00	164.00	201.00	178.00	144.00	111.00	99.00	103.00	110.00	135.00	158.00	182.00	234.00	248.00	274.00	277.00	277.00	269.00	217.00	162.00	156.00	209.00	225.00	232.00	254.00	306.00	312.00	319.00	326.00	331.00	347.00	349.00	306.00	263.00	182.00	241.00	266.00	296.00	312.00	284.00	263.00	245.00	256.00	353.00	358.00	326.00	297.00	324.00	360.00	376.00	397.00	406.00	426.00	437.00	450.00	459.00	453.00	444.00	414.00	381.00	354.00	313.00	275.00	247.00	239.00	267.00	270.00	232.00	210.00	157.00	178.00	188.00	185.00	196.00	148.00	203.00	234.00	261.00	302.00	302.00	249.00	207.00	152.00	66.00	46.00	34.00	32.00	27.00	25.00	26.00	27.00	52.00	134.00	151.00	140.00	131.00	110.00	84.00	118.00	71.00	48.00	116.00	177.00	197.00	191.00	167.00	127.00	93.00	69.00	85.00	115.00	93.00	99.00	141.00	139.00	132.00	126.00	121.00	123.00	142.00	158.00	167.00	165.00	170.00	169.00	140.00	142.00	152.00	165.00	172.00	176.00	182.00	183.00	185.00	190.00	200.00	203.00	208.00	208.00	207.00	205.00	204.00	203.00	201.00	199.00	196.00	191.00	187.00	183.00	180.00	178.00	171.00	170.00	169.00	169.00	166.00	165.00	163.00	162.00	161.00	160.00	160.00	159.00	158.00	155.00	153.00	151.00	150.00	149.00	147.00	146.00	144.00	142.00	140.00	141.00	141.00	139.00	133.00	131.00	132.00	131.00	130.00	124.00	123.00	122.00	121.00	120.00	113.00	110.00	102.00	97.00	111.00	113.00	113.00	112.00	110.00	109.00	108.00	105.00	102.00	96.00	95.00	95.00	91.00	90.00	90.00	91.00	93.00	95.00	98.00	99.00	100.00	100.00	97.00	96.00
303.00	311.00	321.00	336.00	344.00	346.00	337.00	334.00	327.00	324.00	325.00	321.00	303.00	269.00	256.00	240.00	217.00	208.00	214.00	220.00	218.00	169.00	181.00	177.00	184.00	198.00	211.00	197.00	205.00	239.00	244.00	235.00	223.00	209.00	140.00	79.00	73.00	73.00	76.00	88.00	99.00	124.00	164.00	201.00	178.00	144.00	111.00	99.00	103.00	110.00	135.00	158.00	182.00	234.00	248.00	274.00	277.00	277.00	269.00	217.00	162.00	156.00	209.00	225.00	232.00	254.00	306.00	312.00	319.00	326.00	331.00	347.00	349.00	306.00	263.00	182.00	241.00	266.00	296.00	312.00	284.00	263.00	245.00	256.00	353.00	358.00	326.00	297.00	324.00	360.00	376.00	397.00	406.00	426.00	437.00	450.00	459.00	453.00	444.00	414.00	381.00	354.00	313.00	275.00	247.00	239.00	267.00	270.00	232.00	210.00	157.00	178.00	188.00	185.00	196.00	148.00	203.00	234.00	261.00	302.00	302.00	249.00	207.00	152.00	66.00	46.00	34.00	32.00	27.00	25.00	26.00	27.00	52.00	134.00	151.00	140.00	131.00	110.00	84.00	118.00	71.00	48.00	116.00	177.00	197.00	191.00	167.00	127.00	93.00	69.00	85.00	115.00	93.00	99.00	141.00	139.00	132.00	126.00	121.00	123.00	142.00	158.00	167.00	165.00	170.00	169.00	140.00	142.00	152.00	165.00	172.00	176.00	182.00	183.00	185.00	190.00	200.00	203.00	208.00	208.00	207.00	205.00	204.00	203.00	201.00	199.00	196.00	191.00	187.00	183.00	180.00	178.00	171.00	170.00	169.00	169.00	166.00	165.00	163.00	162.00	161.00	160.00	160.00	159.00	158.00	155.00	153.00	151.00	150.00	149.00	147.00	146.00	144.00	142.00	140.00	141.00	141.00	139.00	133.00	131.00	132.00	131.00	130.00	124.00	123.00	122.00	121.00	120.00	113.00	110.00	102.00	97.00	111.00	113.00	113.00	112.00	110.00	109.00	108.00	105.00	102.00	96.00	95.00	95.00	91.00	90.00	90.00	91.00	93.00	95.00	98.00	99.00	100.00	100.00	97.00	96.00
335.00	350.00	359.00	346.00	350.00	349.00	344.00	341.00	335.00	329.00	324.00	320.00	314.00	309.00	305.00	298.00	293.00	284.00	282.00	276.00	249.00	248.00	272.00	270.00	272.00	281.00	286.00	277.00	281.00	268.00	213.00	192.00	170.00	139.00	79.00	77.00	80.00	89.00	109.00	175.00	215.00	244.00	262.00	227.00	136.00	96.00	100.00	150.00	170.00	155.00	154.00	148.00	141.00	136.00	138.00	205.00	251.00	275.00	286.00	267.00	253.00	229.00	189.00	249.00	292.00	300.00	322.00	332.00	342.00	354.00	365.00	383.00	379.00	356.00	314.00	269.00	208.00	268.00	292.00	317.00	348.00	347.00	323.00	281.00	318.00	350.00	360.00	357.00	351.00	329.00	365.00	387.00	398.00	415.00	427.00	439.00	456.00	457.00	452.00	446.00	435.00	391.00	293.00	327.00	341.00	376.00	377.00	340.00	295.00	238.00	173.00	220.00	299.00	320.00	296.00	227.00	263.00	328.00	348.00	289.00	185.00	162.00	130.00	130.00	159.00	121.00	59.00	42.00	28.00	20.00	21.00	24.00	24.00	29.00	59.00	94.00	109.00	106.00	46.00	42.00	62.00	101.00	171.00	188.00	205.00	212.00	197.00	158.00	146.00	152.00	90.00	89.00	77.00	73.00	70.00	78.00	93.00	90.00	97.00	90.00	75.00	91.00	101.00	101.00	116.00	107.00	123.00	149.00	158.00	170.00	171.00	169.00	173.00	176.00	184.00	189.00	196.00	203.00	208.00	209.00	209.00	209.00	208.00	207.00	206.00	204.00	203.00	199.00	195.00	190.00	187.00	185.00	176.00	175.00	173.00	172.00	168.00	166.00	165.00	163.00	162.00	160.00	160.00	160.00	159.00	156.00	155.00	153.00	152.00	151.00	150.00	149.00	147.00	145.00	139.00	138.00	138.00	135.00	132.00	133.00	134.00	134.00	131.00	127.00	125.00	124.00	122.00	120.00	113.00	111.00	110.00	109.00	103.00	114.00	114.00	113.00	112.00	111.00	110.00	108.00	105.00	102.00	101.00	99.00	95.00	92.00	91.00	90.00	90.00	90.00	92.00	94.00	96.00	97.00	91.00	94.00
335.00	350.00	359.00	346.00	350.00	349.00	344.00	341.00	335.00	329.00	324.00	320.00	314.00	309.00	305.00	298.00	293.00	284.00	282.00	276.00	249.00	248.00	272.00	270.00	272.00	281.00	286.00	277.00	281.00	268.00	213.00	192.00	170.00	139.00	79.00	77.00	80.00	89.00	109.00	175.00	215.00	244.00	262.00	227.00	136.00	96.00	100.00	150.00	170.00	155.00	154.00	148.00	141.00	136.00	138.00	205.00	251.00	275.00	286.00	267.00	253.00	229.00	189.00	249.00	292.00	300.00	322.00	332.00	342.00	354.00	365.00	383.00	379.00	356.00	314.00	269.00	208.00	268.00	292.00	317.00	348.00	347.00	323.00	281.00	318.00	350.00	360.00	357.00	351.00	329.00	365.00	387.00	398.00	415.00	427.00	439.00	456.00	457.00	452.00	446.00	435.00	391.00	293.00	327.00	341.00	376.00	377.00	340.00	295.00	238.00	173.00	220.00	299.00	320.00	296.00	227.00	263.00	328.00	348.00	289.00	185.00	162.00	130.00	130.00	159.00	121.00	59.00	42.00	28.00	20.00	21.00	24.00	24.00	29.00	59.00	94.00	109.00	106.00	46.00	42.00	62.00	101.00	171.00	188.00	205.00	212.00	197.00	158.00	146.00	152.00	90.00	89.00	77.00	73.00	70.00	78.00	93.00	90.00	97.00	90.00	75.00	91.00	101.00	101.00	116.00	107.00	123.00	149.00	158.00	170.00	171.00	169.00	173.00	176.00	184.00	189.00	196.00	203.00	208.00	209.00	209.00	209.00	208.00	207.00	206.00	204.00	203.00	199.00	195.00	190.00	187.00	185.00	176.00	175.00	173.00	172.00	168.00	166.00	165.00	163.00	162.00	160.00	160.00	160.00	159.00	156.00	155.00	153.00	152.00	151.00	150.00	149.00	147.00	145.00	139.00	138.00	138.00	135.00	132.00	133.00	134.00	134.00	131.00	127.00	125.00	124.00	122.00	120.00	113.00	111.00	110.00	109.00	103.00	114.00	114.00	113.00	112.00	111.00	110.00	108.00	105.00	102.00	101.00	99.00	95.00	92.00	91.00	90.00	90.00	90.00	92.00	94.00	96.00	97.00	91.00	94.00
326.00	345.00	348.00	341.00	347.00	345.00	340.00	335.00	330.00	328.00	324.00	321.00	319.00	311.00	308.00	308.00	304.00	298.00	293.00	287.00	269.00	297.00	302.00	303.00	302.00	300.00	288.00	276.00	247.00	224.00	139.00	101.00	89.00	81.00	83.00	114.00	158.00	201.00	217.00	271.00	282.00	282.00	280.00	267.00	172.00	106.00	119.00	180.00	182.00	197.00	233.00	228.00	228.00	213.00	197.00	145.00	141.00	212.00	261.00	294.00	299.00	269.00	188.00	221.00	261.00	285.00	341.00	349.00	359.00	372.00	378.00	376.00	370.00	351.00	322.00	256.00	228.00	285.00	327.00	351.00	363.00	368.00	368.00	352.00	298.00	337.00	359.00	375.00	383.00	381.00	373.00	389.00	404.00	432.00	449.00	458.00	463.00	459.00	454.00	452.00	444.00	395.00	405.00	432.00	436.00	431.00	369.00	241.00	236.00	264.00	252.00	194.00	247.00	292.00	324.00	352.00	359.00	376.00	327.00	282.00	316.00	258.00	225.00	291.00	248.00	172.00	120.00	73.00	36.00	20.00	20.00	21.00	25.00	24.00	25.00	27.00	59.00	58.00	43.00	69.00	87.00	105.00	159.00	177.00	191.00	206.00	216.00	194.00	190.00	191.00	167.00	175.00	167.00	155.00	137.00	127.00	148.00	152.00	158.00	160.00	142.00	124.00	111.00	90.00	94.00	91.00	88.00	115.00	135.00	160.00	153.00	157.00	161.00	167.00	178.00	182.00	190.00	200.00	211.00	212.00	212.00	212.00	211.00	211.00	210.00	210.00	209.00	207.00	204.00	200.00	197.00	194.00	185.00	182.00	180.00	176.00	170.00	169.00	168.00	167.00	166.00	165.00	163.00	162.00	160.00	157.00	156.00	155.00	154.00	153.00	151.00	150.00	148.00	145.00	141.00	139.00	138.00	138.00	138.00	138.00	137.00	135.00	133.00	127.00	126.00	124.00	123.00	121.00	114.00	114.00	116.00	115.00	107.00	109.00	112.00	112.00	112.00	111.00	110.00	108.00	107.00	103.00	101.00	100.00	98.00	97.00	96.00	94.00	93.00	91.00	90.00	90.00	91.00	91.00	93.00	97.00
326.00	345.00	348.00	341.00	347.00	345.00	340.00	335.00	330.00	328.00	324.00	321.00	319.00	311.00	308.00	308.00	304.00	298.00	293.00	287.00	269.00	297.00	302.00	303.00	302.00	300.00	288.00	276.00	247.00	224.00	139.00	101.00	89.00	81.00	83.00	114.00	158.00	201.00	217.00	271.00	282.00	282.00	280.00	267.00	172.00	106.00	119.00	180.00	182.00	197.00	233.00	228.00	228.00	213.00	197.00	145.00	141.00	212.00	261.00	294.00	299.00	269.00	188.00	221.00	261.00	285.00	341.00	349.00	359.00	372.00	378.00	376.00	370.00	351.00	322.00	256.00	228.00	285.00	327.00	351.00	363.00	368.00	368.00	352.00	298.00	337.00	359.00	375.00	383.00	381.00	373.00	389.00	404.00	432.00	449.00	458.00	463.00	459.00	454.00	452.00	444.00	395.00	405.00	432.00	436.00	431.00	369.00	241.00	236.00	264.00	252.00	194.00	247.00	292.00	324.00	352.00	359.00	376.00	327.00	282.00	316.00	258.00	225.00	291.00	248.00	172.00	120.00	73.00	36.00	20.00	20.00	21.00	25.00	24.00	25.00	27.00	59.00	58.00	43.00	69.00	87.00	105.00	159.00	177.00	191.00	206.00	216.00	194.00	190.00	191.00	167.00	175.00	167.00	155.00	137.00	127.00	148.00	152.00	158.00	160.00	142.00	124.00	111.00	90.00	94.00	91.00	88.00	115.00	135.00	160.00	153.00	157.00	161.00	167.00	178.00	182.00	190.00	200.00	211.00	212.00	212.00	212.00	211.00	211.00	210.00	210.00	209.00	207.00	204.00	200.00	197.00	194.00	185.00	182.00	180.00	176.00	170.00	169.00	168.00	167.00	166.00	165.00	163.00	162.00	160.00	157.00	156.00	155.00	154.00	153.00	151.00	150.00	148.00	145.00	141.00	139.00	138.00	138.00	138.00	138.00	137.00	135.00	133.00	127.00	126.00	124.00	123.00	121.00	114.00	114.00	116.00	115.00	107.00	109.00	112.00	112.00	112.00	111.00	110.00	108.00	107.00	103.00	101.00	100.00	98.00	97.00	96.00	94.00	93.00	91.00	90.00	90.00	91.00	91.00	93.00	97.00
326.00	345.00	348.00	341.00	347.00	345.00	340.00	335.00	330.00	328.00	324.00	321.00	319.00	311.00	308.00	308.00	304.00	298.00	293.00	287.00	269.00	297.00	302.00	303.00	302.00	300.00	288.00	276.00	247.00	224.00	139.00	101.00	89.00	81.00	83.00	114.00	158.00	201.00	217.00	271.00	282.00	282.00	280.00	267.00	172.00	106.00	119.00	180.00	182.00	197.00	233.00	228.00	228.00	213.00	197.00	145.00	141.00	212.00	261.00	294.00	299.00	269.00	188.00	221.00	261.00	285.00	341.00	349.00	359.00	372.00	378.00	376.00	370.00	351.00	322.00	256.00	228.00	285.00	327.00	351.00	363.00	368.00	368.00	352.00	298.00	337.00	359.00	375.00	383.00	381.00	373.00	389.00	404.00	432.00	449.00	458.00	463.00	459.00	454.00	452.00	444.00	395.00	405.00	432.00	436.00	431.00	369.00	241.00	236.00	264.00	252.00	194.00	247.00	292.00	324.00	352.00	359.00	376.00	327.00	282.00	316.00	258.00	225.00	291.00	248.00	172.00	120.00	73.00	36.00	20.00	20.00	21.00	25.00	24.00	25.00	27.00	59.00	58.00	43.00	69.00	87.00	105.00	159.00	177.00	191.00	206.00	216.00	194.00	190.00	191.00	167.00	175.00	167.00	155.00	137.00	127.00	148.00	152.00	158.00	160.00	142.00	124.00	111.00	90.00	94.00	91.00	88.00	115.00	135.00	160.00	153.00	157.00	161.00	167.00	178.00	182.00	190.00	200.00	211.00	212.00	212.00	212.00	211.00	211.00	210.00	210.00	209.00	207.00	204.00	200.00	197.00	194.00	185.00	182.00	180.00	176.00	170.00	169.00	168.00	167.00	166.00	165.00	163.00	162.00	160.00	157.00	156.00	155.00	154.00	153.00	151.00	150.00	148.00	145.00	141.00	139.00	138.00	138.00	138.00	138.00	137.00	135.00	133.00	127.00	126.00	124.00	123.00	121.00	114.00	114.00	116.00	115.00	107.00	109.00	112.00	112.00	112.00	111.00	110.00	108.00	107.00	103.00	101.00	100.00	98.00	97.00	96.00	94.00	93.00	91.00	90.00	90.00	91.00	91.00	93.00	97.00
253.00	265.00	285.00	332.00	336.00	337.00	332.00	328.00	321.00	320.00	315.00	312.00	316.00	291.00	283.00	293.00	307.00	306.00	299.00	295.00	293.00	310.00	315.00	317.00	297.00	271.00	196.00	161.00	121.00	94.00	75.00	78.00	83.00	94.00	149.00	217.00	234.00	275.00	286.00	284.00	281.00	281.00	282.00	281.00	197.00	135.00	122.00	184.00	256.00	246.00	273.00	285.00	287.00	233.00	270.00	260.00	211.00	151.00	181.00	237.00	288.00	312.00	275.00	256.00	247.00	237.00	297.00	339.00	362.00	369.00	370.00	387.00	393.00	376.00	364.00	275.00	265.00	308.00	336.00	356.00	379.00	385.00	383.00	359.00	346.00	361.00	382.00	392.00	398.00	423.00	411.00	404.00	408.00	431.00	445.00	457.00	460.00	458.00	451.00	448.00	445.00	434.00	448.00	442.00	434.00	418.00	358.00	316.00	364.00	376.00	322.00	196.00	254.00	311.00	354.00	386.00	393.00	394.00	377.00	378.00	384.00	373.00	360.00	368.00	271.00	226.00	180.00	136.00	94.00	22.00	21.00	22.00	25.00	25.00	25.00	26.00	57.00	123.00	125.00	66.00	58.00	64.00	100.00	138.00	173.00	190.00	205.00	214.00	206.00	196.00	199.00	198.00	192.00	182.00	172.00	170.00	170.00	173.00	176.00	179.00	190.00	182.00	167.00	150.00	150.00	162.00	153.00	130.00	105.00	113.00	129.00	153.00	155.00	160.00	166.00	170.00	175.00	181.00	198.00	208.00	214.00	214.00	214.00	213.00	213.00	212.00	211.00	209.00	206.00	204.00	202.00	202.00	192.00	190.00	187.00	183.00	178.00	175.00	173.00	171.00	169.00	167.00	164.00	162.00	160.00	159.00	158.00	157.00	156.00	155.00	152.00	151.00	150.00	148.00	145.00	144.00	143.00	142.00	140.00	138.00	137.00	135.00	133.00	130.00	128.00	126.00	124.00	122.00	120.00	122.00	120.00	119.00	114.00	108.00	110.00	111.00	111.00	111.00	110.00	109.00	107.00	104.00	102.00	100.00	101.00	101.00	101.00	100.00	98.00	96.00	93.00	92.00	91.00	91.00	95.00	97.00
