193.00	190.00	190.00	189.00	189.00	189.00	190.00	190.00	190.00	190.00	197.00	190.00	193.00	194.00	191.00	194.00	194.00	192.00	193.00	193.00	195.00	193.00	195.00	196.00	194.00	196.00	194.00	195.00	197.00	198.00	195.00	197.00	199.00	199.00	198.00	198.00	196.00	197.00	196.00	195.00	196.00	201.00	203.00	203.00	199.00	201.00	202.00	200.00	205.00	200.00	201.00	202.00	202.00	200.00	200.00	200.00	200.00	201.00	201.00	200.00	200.00	202.00	202.00	201.00	201.00	202.00	203.00	205.00	204.00	206.00	205.00	204.00	204.00	204.00	203.00	207.00	208.00	209.00	209.00	212.00	209.00	210.00	211.00	211.00	213.00	215.00	214.00	215.00	214.00	218.00	216.00	216.00	219.00	218.00	219.00	220.00	221.00	222.00	220.00	221.00	223.00	224.00	224.00	223.00	229.00	225.00	225.00	227.00	231.00	231.00	227.00	228.00	229.00	230.00	230.00	230.00	233.00	234.00	232.00	234.00	237.00	238.00	238.00	238.00	238.00	240.00	240.00	241.00	240.00	242.00	243.00	245.00	245.00	247.00	246.00	247.00	248.00	249.00	253.00	254.00	256.00	256.00	260.00	261.00	258.00	258.00	258.00	261.00	261.00	263.00	266.00	271.00	275.00	278.00	282.00	286.00	278.00	268.00	267.00	268.00	266.00	267.00	267.00	269.00	270.00	272.00	274.00	271.00	274.00	276.00	276.00	276.00	277.00	278.00	279.00	280.00	282.00	286.00	289.00	284.00	279.00	282.00	281.00	281.00	282.00	282.00	286.00	289.00	292.00	301.00	303.00	315.00	318.00	322.00	316.00	319.00	347.00	353.00	356.00	356.00	350.00	345.00	342.00	339.00	340.00	345.00	347.00	352.00	356.00	355.00	350.00	347.00	345.00	346.00	347.00	346.00	347.00	347.00	360.00	365.00	385.00	399.00	409.00	423.00	433.00	433.00	438.00	436.00	437.00	437.00	460.00	452.00	469.00	474.00	463.00	460.00	492.00	497.00	483.00	490.00	496.00	485.00	468.00	450.00	433.00	465.00	476.00	466.00	450.00	443.00	464.00	461.00	449.00	438.00	447.00	450.00
191.00	192.00	195.00	190.00	190.00	190.00	191.00	190.00	190.00	191.00	191.00	190.00	191.00	192.00	191.00	191.00	192.00	191.00	193.00	192.00	194.00	193.00	193.00	194.00	198.00	198.00	199.00	198.00	197.00	197.00	196.00	196.00	196.00	196.00	198.00	196.00	196.00	196.00	196.00	197.00	198.00	198.00	199.00	205.00	205.00	204.00	200.00	198.00	201.00	201.00	200.00	200.00	205.00	203.00	205.00	203.00	201.00	202.00	200.00	202.00	202.00	202.00	202.00	203.00	204.00	203.00	203.00	204.00	203.00	203.00	206.00	206.00	205.00	204.00	203.00	204.00	206.00	208.00	209.00	211.00	209.00	211.00	211.00	212.00	215.00	215.00	216.00	216.00	215.00	216.00	217.00	221.00	221.00	220.00	221.00	222.00	225.00	221.00	225.00	225.00	227.00	224.00	223.00	223.00	224.00	225.00	226.00	226.00	227.00	228.00	228.00	228.00	229.00	230.00	229.00	235.00	235.00	233.00	233.00	234.00	234.00	237.00	237.00	241.00	238.00	238.00	239.00	239.00	239.00	243.00	244.00	245.00	246.00	250.00	250.00	248.00	249.00	250.00	253.00	255.00	258.00	259.00	258.00	259.00	260.00	261.00	262.00	263.00	264.00	265.00	267.00	276.00	286.00	293.00	297.00	301.00	281.00	272.00	269.00	269.00	270.00	271.00	270.00	270.00	270.00	271.00	271.00	274.00	273.00	274.00	275.00	277.00	277.00	279.00	280.00	281.00	283.00	286.00	291.00	289.00	287.00	287.00	287.00	284.00	282.00	285.00	288.00	287.00	291.00	294.00	301.00	305.00	304.00	306.00	312.00	316.00	330.00	332.00	339.00	344.00	337.00	341.00	337.00	338.00	336.00	346.00	355.00	357.00	362.00	349.00	345.00	342.00	342.00	342.00	343.00	344.00	345.00	351.00	378.00	380.00	385.00	389.00	383.00	410.00	405.00	414.00	421.00	425.00	423.00	421.00	435.00	458.00	447.00	450.00	445.00	463.00	487.00	482.00	476.00	491.00	489.00	455.00	450.00	450.00	426.00	442.00	455.00	452.00	441.00	429.00	454.00	459.00	444.00	433.00	411.00	400.00
189.00	190.00	190.00	190.00	190.00	189.00	189.00	190.00	192.00	192.00	191.00	191.00	193.00	192.00	193.00	192.00	191.00	193.00	194.00	195.00	195.00	193.00	195.00	198.00	199.00	197.00	198.00	199.00	198.00	198.00	197.00	196.00	197.00	198.00	197.00	198.00	197.00	196.00	196.00	197.00	198.00	198.00	199.00	204.00	206.00	206.00	209.00	203.00	200.00	198.00	199.00	199.00	203.00	202.00	203.00	204.00	202.00	203.00	202.00	201.00	202.00	201.00	202.00	204.00	203.00	204.00	205.00	204.00	203.00	204.00	206.00	206.00	205.00	205.00	206.00	207.00	208.00	208.00	211.00	210.00	210.00	209.00	211.00	214.00	218.00	217.00	217.00	215.00	215.00	215.00	216.00	219.00	221.00	218.00	218.00	219.00	221.00	220.00	225.00	225.00	226.00	226.00	223.00	225.00	225.00	225.00	225.00	226.00	227.00	228.00	228.00	229.00	229.00	231.00	233.00	237.00	237.00	235.00	235.00	236.00	235.00	236.00	238.00	240.00	240.00	240.00	239.00	239.00	240.00	242.00	246.00	251.00	250.00	251.00	252.00	251.00	250.00	252.00	255.00	255.00	257.00	258.00	259.00	261.00	260.00	261.00	263.00	266.00	267.00	268.00	271.00	280.00	291.00	300.00	304.00	306.00	285.00	274.00	271.00	269.00	271.00	269.00	272.00	272.00	271.00	273.00	273.00	274.00	274.00	276.00	275.00	275.00	276.00	277.00	280.00	281.00	284.00	287.00	295.00	293.00	289.00	287.00	287.00	283.00	286.00	289.00	289.00	289.00	290.00	297.00	294.00	296.00	302.00	307.00	312.00	317.00	324.00	329.00	337.00	331.00	334.00	334.00	342.00	342.00	336.00	343.00	349.00	358.00	364.00	353.00	351.00	343.00	341.00	340.00	342.00	343.00	350.00	367.00	370.00	368.00	372.00	372.00	374.00	389.00	394.00	405.00	407.00	415.00	414.00	421.00	435.00	442.00	431.00	437.00	445.00	460.00	482.00	475.00	470.00	484.00	492.00	461.00	442.00	433.00	421.00	443.00	461.00	446.00	425.00	427.00	447.00	454.00	437.00	419.00	414.00	389.00
190.00	190.00	189.00	192.00	190.00	189.00	190.00	190.00	191.00	192.00	193.00	193.00	192.00	192.00	193.00	193.00	194.00	194.00	195.00	195.00	195.00	194.00	194.00	195.00	197.00	196.00	197.00	199.00	198.00	199.00	200.00	196.00	197.00	199.00	196.00	199.00	199.00	197.00	196.00	197.00	197.00	198.00	198.00	199.00	200.00	202.00	207.00	205.00	198.00	199.00	200.00	200.00	202.00	202.00	202.00	202.00	204.00	204.00	206.00	204.00	203.00	202.00	202.00	202.00	203.00	204.00	206.00	206.00	205.00	206.00	205.00	205.00	205.00	206.00	208.00	207.00	209.00	210.00	210.00	210.00	209.00	211.00	210.00	212.00	219.00	218.00	216.00	217.00	215.00	215.00	216.00	218.00	219.00	221.00	221.00	218.00	219.00	219.00	225.00	226.00	227.00	226.00	222.00	223.00	224.00	224.00	228.00	227.00	229.00	227.00	227.00	229.00	229.00	234.00	231.00	237.00	234.00	234.00	234.00	240.00	236.00	236.00	237.00	239.00	240.00	240.00	240.00	241.00	240.00	243.00	248.00	260.00	259.00	255.00	253.00	251.00	251.00	252.00	256.00	257.00	257.00	258.00	261.00	262.00	263.00	263.00	263.00	269.00	270.00	271.00	275.00	283.00	292.00	303.00	306.00	308.00	290.00	276.00	272.00	271.00	274.00	271.00	273.00	273.00	273.00	273.00	273.00	274.00	276.00	275.00	277.00	276.00	276.00	276.00	278.00	279.00	283.00	286.00	296.00	298.00	294.00	288.00	285.00	284.00	290.00	289.00	290.00	289.00	290.00	292.00	296.00	298.00	303.00	311.00	318.00	328.00	320.00	325.00	342.00	324.00	325.00	327.00	333.00	338.00	336.00	340.00	345.00	350.00	355.00	347.00	352.00	348.00	341.00	339.00	340.00	341.00	346.00	353.00	356.00	362.00	367.00	372.00	388.00	396.00	401.00	418.00	424.00	421.00	408.00	415.00	421.00	435.00	436.00	450.00	452.00	466.00	470.00	461.00	470.00	486.00	480.00	458.00	442.00	429.00	418.00	441.00	442.00	426.00	418.00	430.00	438.00	449.00	436.00	427.00	411.00	407.00
190.00	190.00	191.00	192.00	194.00	190.00	191.00	191.00	192.00	191.00	192.00	192.00	191.00	191.00	192.00	193.00	194.00	195.00	193.00	193.00	193.00	194.00	194.00	194.00	195.00	195.00	198.00	198.00	198.00	199.00	202.00	196.00	195.00	197.00	198.00	201.00	199.00	200.00	198.00	197.00	198.00	197.00	198.00	198.00	198.00	198.00	199.00	201.00	198.00	199.00	200.00	200.00	201.00	201.00	200.00	203.00	203.00	203.00	204.00	206.00	205.00	204.00	204.00	205.00	204.00	204.00	205.00	204.00	206.00	208.00	205.00	206.00	209.00	207.00	207.00	206.00	210.00	211.00	209.00	210.00	210.00	213.00	214.00	215.00	214.00	218.00	215.00	214.00	216.00	216.00	216.00	218.00	217.00	221.00	220.00	219.00	219.00	222.00	225.00	225.00	228.00	226.00	223.00	223.00	224.00	224.00	224.00	225.00	227.00	226.00	229.00	230.00	230.00	231.00	231.00	235.00	233.00	233.00	233.00	233.00	236.00	236.00	237.00	238.00	239.00	239.00	239.00	240.00	240.00	241.00	246.00	252.00	253.00	255.00	258.00	253.00	255.00	254.00	256.00	257.00	259.00	260.00	262.00	264.00	263.00	265.00	266.00	270.00	271.00	272.00	274.00	284.00	291.00	298.00	299.00	299.00	295.00	279.00	274.00	272.00	272.00	272.00	272.00	272.00	273.00	272.00	274.00	275.00	276.00	276.00	277.00	279.00	278.00	279.00	278.00	279.00	280.00	285.00	297.00	298.00	293.00	288.00	285.00	289.00	289.00	287.00	288.00	290.00	291.00	291.00	291.00	293.00	301.00	308.00	316.00	324.00	317.00	318.00	332.00	320.00	322.00	327.00	332.00	337.00	331.00	340.00	346.00	348.00	347.00	345.00	341.00	341.00	338.00	339.00	338.00	338.00	340.00	344.00	349.00	347.00	355.00	366.00	373.00	379.00	390.00	399.00	412.00	410.00	398.00	403.00	405.00	420.00	429.00	438.00	445.00	459.00	461.00	458.00	477.00	478.00	461.00	442.00	430.00	434.00	429.00	418.00	416.00	412.00	428.00	430.00	428.00	434.00	440.00	429.00	422.00	420.00
190.00	191.00	190.00	190.00	192.00	192.00	190.00	192.00	190.00	190.00	192.00	192.00	192.00	192.00	192.00	192.00	195.00	194.00	193.00	193.00	195.00	194.00	194.00	194.00	194.00	194.00	199.00	200.00	199.00	200.00	200.00	196.00	196.00	199.00	200.00	197.00	198.00	202.00	199.00	197.00	197.00	198.00	198.00	198.00	198.00	199.00	199.00	198.00	199.00	199.00	199.00	200.00	199.00	200.00	201.00	202.00	202.00	203.00	204.00	204.00	203.00	202.00	203.00	205.00	203.00	204.00	205.00	205.00	206.00	208.00	206.00	208.00	206.00	210.00	211.00	206.00	208.00	208.00	209.00	211.00	211.00	215.00	216.00	216.00	212.00	214.00	214.00	214.00	215.00	216.00	216.00	216.00	217.00	220.00	218.00	220.00	222.00	225.00	225.00	226.00	228.00	223.00	223.00	223.00	224.00	224.00	225.00	225.00	229.00	229.00	229.00	229.00	230.00	231.00	231.00	233.00	232.00	232.00	232.00	233.00	235.00	237.00	237.00	237.00	237.00	238.00	239.00	240.00	240.00	241.00	246.00	249.00	250.00	251.00	253.00	254.00	256.00	256.00	256.00	257.00	259.00	261.00	264.00	265.00	265.00	266.00	266.00	269.00	272.00	273.00	275.00	284.00	292.00	297.00	295.00	291.00	294.00	279.00	275.00	274.00	272.00	273.00	272.00	276.00	276.00	274.00	275.00	275.00	277.00	277.00	277.00	277.00	278.00	279.00	280.00	283.00	284.00	284.00	298.00	297.00	293.00	288.00	287.00	286.00	286.00	285.00	286.00	287.00	289.00	291.00	292.00	292.00	299.00	306.00	307.00	314.00	307.00	311.00	322.00	316.00	325.00	333.00	341.00	340.00	332.00	335.00	338.00	339.00	343.00	353.00	343.00	339.00	338.00	336.00	337.00	337.00	336.00	338.00	341.00	347.00	357.00	359.00	362.00	366.00	372.00	380.00	392.00	395.00	395.00	402.00	413.00	418.00	437.00	446.00	452.00	456.00	449.00	451.00	467.00	460.00	448.00	442.00	440.00	439.00	434.00	414.00	404.00	409.00	415.00	415.00	423.00	431.00	441.00	439.00	419.00	415.00
190.00	190.00	190.00	190.00	191.00	194.00	191.00	190.00	190.00	191.00	192.00	192.00	192.00	192.00	192.00	192.00	192.00	193.00	193.00	194.00	196.00	194.00	196.00	195.00	194.00	196.00	201.00	201.00	200.00	198.00	196.00	197.00	196.00	198.00	197.00	199.00	198.00	202.00	201.00	198.00	198.00	198.00	198.00	198.00	199.00	199.00	199.00	199.00	199.00	199.00	199.00	199.00	200.00	201.00	201.00	202.00	203.00	202.00	204.00	206.00	205.00	203.00	206.00	205.00	205.00	205.00	205.00	207.00	207.00	205.00	205.00	206.00	208.00	206.00	206.00	207.00	208.00	208.00	209.00	210.00	210.00	213.00	214.00	215.00	213.00	214.00	214.00	214.00	216.00	216.00	217.00	217.00	216.00	218.00	219.00	219.00	220.00	223.00	222.00	226.00	228.00	223.00	222.00	224.00	224.00	224.00	225.00	226.00	230.00	230.00	231.00	229.00	231.00	230.00	231.00	233.00	233.00	233.00	233.00	233.00	235.00	236.00	237.00	237.00	238.00	238.00	239.00	239.00	239.00	241.00	245.00	247.00	249.00	250.00	252.00	254.00	256.00	257.00	259.00	259.00	259.00	261.00	264.00	265.00	266.00	269.00	269.00	271.00	273.00	276.00	278.00	291.00	296.00	302.00	297.00	289.00	290.00	280.00	277.00	275.00	274.00	274.00	275.00	275.00	276.00	276.00	276.00	277.00	277.00	277.00	280.00	281.00	278.00	280.00	280.00	280.00	280.00	281.00	296.00	298.00	297.00	291.00	287.00	284.00	285.00	284.00	285.00	287.00	288.00	290.00	291.00	292.00	293.00	297.00	304.00	307.00	304.00	306.00	309.00	320.00	327.00	333.00	345.00	344.00	334.00	330.00	335.00	342.00	347.00	351.00	348.00	348.00	344.00	339.00	335.00	334.00	333.00	336.00	340.00	348.00	372.00	373.00	375.00	383.00	378.00	377.00	375.00	389.00	402.00	412.00	419.00	426.00	444.00	451.00	463.00	465.00	452.00	446.00	439.00	437.00	437.00	433.00	438.00	430.00	427.00	421.00	406.00	411.00	419.00	428.00	430.00	436.00	433.00	433.00	426.00	418.00
189.00	189.00	189.00	191.00	191.00	191.00	192.00	193.00	191.00	192.00	190.00	192.00	193.00	192.00	193.00	192.00	192.00	192.00	193.00	194.00	196.00	194.00	195.00	194.00	195.00	196.00	201.00	203.00	201.00	199.00	198.00	197.00	199.00	197.00	197.00	199.00	200.00	205.00	203.00	199.00	198.00	198.00	198.00	199.00	198.00	199.00	199.00	199.00	200.00	199.00	199.00	199.00	200.00	200.00	201.00	202.00	206.00	202.00	203.00	205.00	205.00	207.00	212.00	206.00	208.00	207.00	206.00	207.00	207.00	207.00	206.00	206.00	208.00	206.00	206.00	206.00	207.00	208.00	209.00	211.00	210.00	211.00	213.00	215.00	218.00	216.00	213.00	214.00	218.00	217.00	217.00	215.00	217.00	220.00	220.00	225.00	225.00	226.00	226.00	227.00	227.00	222.00	223.00	223.00	226.00	223.00	226.00	227.00	228.00	228.00	228.00	230.00	230.00	231.00	229.00	231.00	231.00	232.00	231.00	233.00	235.00	236.00	235.00	236.00	237.00	237.00	238.00	239.00	239.00	242.00	243.00	246.00	248.00	249.00	251.00	252.00	259.00	259.00	260.00	260.00	263.00	264.00	266.00	267.00	269.00	269.00	270.00	276.00	276.00	279.00	282.00	294.00	301.00	304.00	299.00	292.00	285.00	281.00	278.00	277.00	276.00	276.00	276.00	277.00	278.00	278.00	278.00	279.00	278.00	279.00	278.00	279.00	282.00	283.00	282.00	281.00	281.00	282.00	287.00	294.00	296.00	295.00	290.00	285.00	287.00	294.00	292.00	287.00	287.00	297.00	292.00	292.00	292.00	294.00	302.00	307.00	309.00	316.00	316.00	322.00	336.00	338.00	347.00	343.00	333.00	328.00	336.00	338.00	347.00	362.00	360.00	356.00	356.00	351.00	345.00	336.00	333.00	334.00	341.00	353.00	382.00	386.00	380.00	398.00	392.00	393.00	378.00	398.00	409.00	412.00	421.00	433.00	451.00	452.00	451.00	456.00	469.00	465.00	447.00	433.00	429.00	423.00	429.00	422.00	417.00	412.00	402.00	423.00	438.00	442.00	444.00	442.00	428.00	424.00	413.00	411.00
192.00	190.00	190.00	190.00	191.00	191.00	191.00	191.00	192.00	191.00	190.00	192.00	192.00	192.00	193.00	194.00	192.00	193.00	197.00	200.00	198.00	194.00	194.00	196.00	195.00	197.00	203.00	204.00	203.00	199.00	197.00	197.00	198.00	197.00	197.00	198.00	201.00	203.00	200.00	201.00	200.00	200.00	199.00	199.00	199.00	199.00	199.00	199.00	202.00	200.00	200.00	200.00	200.00	200.00	201.00	202.00	206.00	205.00	208.00	212.00	207.00	213.00	211.00	205.00	204.00	206.00	206.00	206.00	206.00	208.00	207.00	208.00	208.00	206.00	206.00	206.00	207.00	208.00	209.00	209.00	210.00	210.00	211.00	213.00	217.00	216.00	215.00	214.00	214.00	215.00	217.00	216.00	215.00	219.00	218.00	225.00	225.00	225.00	228.00	227.00	228.00	224.00	223.00	225.00	231.00	223.00	225.00	226.00	225.00	226.00	227.00	229.00	229.00	228.00	229.00	233.00	231.00	232.00	232.00	233.00	234.00	235.00	235.00	236.00	238.00	238.00	238.00	239.00	239.00	241.00	243.00	245.00	245.00	249.00	249.00	252.00	265.00	265.00	263.00	264.00	266.00	266.00	270.00	272.00	274.00	271.00	271.00	278.00	281.00	283.00	285.00	299.00	304.00	308.00	303.00	296.00	288.00	282.00	280.00	278.00	277.00	278.00	278.00	278.00	278.00	279.00	280.00	283.00	279.00	279.00	280.00	279.00	279.00	280.00	286.00	285.00	281.00	281.00	286.00	290.00	292.00	296.00	294.00	291.00	290.00	292.00	290.00	289.00	288.00	294.00	293.00	292.00	292.00	293.00	296.00	298.00	314.00	326.00	320.00	334.00	329.00	333.00	339.00	336.00	331.00	325.00	329.00	334.00	341.00	373.00	372.00	364.00	368.00	358.00	356.00	339.00	332.00	331.00	340.00	351.00	388.00	396.00	388.00	405.00	404.00	405.00	394.00	402.00	411.00	413.00	423.00	435.00	438.00	438.00	447.00	455.00	477.00	471.00	456.00	443.00	430.00	410.00	419.00	420.00	408.00	403.00	398.00	435.00	454.00	437.00	446.00	444.00	426.00	421.00	427.00	415.00
192.00	191.00	190.00	191.00	191.00	195.00	191.00	191.00	191.00	191.00	191.00	191.00	193.00	192.00	192.00	193.00	192.00	195.00	194.00	194.00	196.00	196.00	201.00	200.00	196.00	195.00	198.00	199.00	201.00	200.00	198.00	199.00	198.00	198.00	198.00	199.00	201.00	200.00	202.00	199.00	200.00	198.00	200.00	199.00	199.00	199.00	200.00	200.00	200.00	199.00	199.00	201.00	201.00	201.00	201.00	203.00	204.00	206.00	204.00	206.00	207.00	207.00	208.00	207.00	206.00	206.00	206.00	208.00	210.00	210.00	205.00	204.00	206.00	207.00	208.00	207.00	211.00	212.00	214.00	211.00	213.00	212.00	211.00	211.00	214.00	216.00	215.00	213.00	214.00	213.00	214.00	214.00	215.00	216.00	218.00	219.00	223.00	224.00	225.00	230.00	228.00	223.00	222.00	222.00	223.00	225.00	225.00	225.00	225.00	226.00	227.00	228.00	228.00	229.00	229.00	231.00	231.00	232.00	233.00	232.00	234.00	235.00	236.00	236.00	237.00	238.00	238.00	239.00	240.00	242.00	243.00	243.00	246.00	248.00	249.00	253.00	260.00	264.00	271.00	270.00	271.00	273.00	272.00	272.00	273.00	273.00	273.00	277.00	282.00	288.00	294.00	308.00	307.00	302.00	306.00	299.00	288.00	287.00	287.00	285.00	281.00	280.00	281.00	283.00	282.00	283.00	283.00	282.00	282.00	281.00	282.00	282.00	282.00	282.00	282.00	285.00	284.00	284.00	286.00	286.00	287.00	291.00	296.00	300.00	299.00	300.00	298.00	294.00	293.00	290.00	293.00	295.00	296.00	297.00	295.00	296.00	301.00	312.00	311.00	322.00	330.00	323.00	320.00	324.00	327.00	325.00	335.00	337.00	336.00	365.00	378.00	374.00	367.00	360.00	347.00	330.00	330.00	331.00	341.00	360.00	378.00	389.00	402.00	412.00	418.00	414.00	410.00	409.00	421.00	419.00	416.00	421.00	444.00	457.00	468.00	478.00	472.00	462.00	451.00	440.00	428.00	407.00	401.00	401.00	408.00	390.00	418.00	413.00	414.00	416.00	427.00	437.00	438.00	439.00	445.00	422.00
192.00	190.00	190.00	191.00	191.00	191.00	191.00	191.00	191.00	191.00	191.00	192.00	193.00	192.00	192.00	193.00	193.00	194.00	194.00	193.00	193.00	199.00	196.00	199.00	198.00	195.00	197.00	199.00	201.00	202.00	200.00	199.00	200.00	199.00	199.00	199.00	199.00	199.00	200.00	199.00	199.00	200.00	201.00	203.00	200.00	200.00	205.00	201.00	200.00	200.00	200.00	200.00	200.00	201.00	201.00	202.00	202.00	205.00	204.00	204.00	205.00	206.00	206.00	209.00	208.00	207.00	207.00	207.00	209.00	208.00	205.00	205.00	206.00	209.00	206.00	207.00	212.00	212.00	212.00	210.00	214.00	216.00	216.00	215.00	216.00	214.00	214.00	213.00	214.00	214.00	214.00	214.00	215.00	215.00	218.00	217.00	218.00	220.00	220.00	220.00	221.00	221.00	222.00	221.00	222.00	224.00	225.00	224.00	225.00	226.00	226.00	228.00	228.00	229.00	228.00	231.00	231.00	232.00	231.00	233.00	235.00	237.00	236.00	235.00	236.00	238.00	238.00	239.00	241.00	244.00	244.00	245.00	246.00	249.00	250.00	255.00	258.00	260.00	266.00	268.00	271.00	270.00	271.00	268.00	272.00	273.00	274.00	277.00	285.00	286.00	296.00	294.00	294.00	295.00	302.00	300.00	294.00	290.00	291.00	287.00	284.00	284.00	283.00	285.00	283.00	285.00	285.00	283.00	284.00	284.00	283.00	283.00	284.00	283.00	284.00	284.00	287.00	284.00	289.00	290.00	287.00	287.00	290.00	296.00	298.00	300.00	301.00	300.00	302.00	294.00	294.00	295.00	296.00	298.00	297.00	296.00	298.00	299.00	304.00	322.00	326.00	316.00	318.00	324.00	327.00	322.00	328.00	329.00	336.00	374.00	380.00	372.00	366.00	352.00	348.00	331.00	329.00	328.00	339.00	352.00	378.00	397.00	403.00	400.00	399.00	412.00	415.00	403.00	409.00	409.00	418.00	428.00	450.00	465.00	473.00	475.00	470.00	462.00	453.00	442.00	431.00	418.00	410.00	398.00	392.00	387.00	407.00	399.00	404.00	416.00	430.00	428.00	437.00	430.00	440.00	419.00
190.00	190.00	190.00	191.00	191.00	191.00	191.00	191.00	191.00	192.00	191.00	192.00	193.00	193.00	193.00	193.00	193.00	193.00	193.00	193.00	193.00	195.00	196.00	198.00	199.00	195.00	197.00	202.00	204.00	204.00	200.00	199.00	199.00	199.00	199.00	199.00	198.00	198.00	199.00	198.00	198.00	198.00	200.00	206.00	201.00	202.00	206.00	201.00	200.00	200.00	199.00	201.00	202.00	201.00	202.00	202.00	201.00	204.00	204.00	204.00	204.00	207.00	209.00	209.00	207.00	207.00	207.00	208.00	208.00	209.00	207.00	205.00	206.00	207.00	208.00	208.00	211.00	208.00	209.00	209.00	211.00	211.00	213.00	213.00	214.00	213.00	214.00	213.00	213.00	215.00	213.00	214.00	215.00	216.00	217.00	218.00	219.00	219.00	219.00	221.00	221.00	221.00	221.00	222.00	222.00	224.00	225.00	226.00	226.00	226.00	226.00	228.00	229.00	228.00	229.00	231.00	230.00	231.00	231.00	232.00	234.00	234.00	236.00	236.00	237.00	238.00	240.00	241.00	242.00	245.00	246.00	246.00	247.00	248.00	249.00	252.00	255.00	256.00	260.00	262.00	264.00	265.00	268.00	268.00	268.00	271.00	277.00	276.00	278.00	281.00	288.00	288.00	297.00	302.00	300.00	301.00	304.00	293.00	291.00	290.00	288.00	288.00	287.00	285.00	286.00	286.00	285.00	285.00	285.00	285.00	285.00	285.00	286.00	286.00	285.00	285.00	285.00	284.00	288.00	290.00	286.00	287.00	287.00	292.00	294.00	298.00	300.00	301.00	303.00	296.00	295.00	296.00	298.00	299.00	297.00	295.00	298.00	299.00	300.00	310.00	310.00	313.00	321.00	331.00	328.00	321.00	325.00	330.00	340.00	359.00	364.00	367.00	365.00	361.00	333.00	328.00	326.00	329.00	335.00	347.00	373.00	392.00	394.00	383.00	389.00	400.00	417.00	406.00	405.00	411.00	417.00	436.00	451.00	460.00	458.00	459.00	461.00	468.00	457.00	448.00	443.00	420.00	410.00	401.00	393.00	381.00	391.00	398.00	409.00	423.00	427.00	421.00	418.00	426.00	422.00	404.00
191.00	191.00	191.00	192.00	191.00	192.00	192.00	192.00	192.00	191.00	192.00	192.00	193.00	193.00	193.00	193.00	193.00	193.00	192.00	194.00	194.00	195.00	195.00	195.00	196.00	198.00	196.00	200.00	202.00	205.00	202.00	199.00	200.00	200.00	200.00	199.00	199.00	199.00	199.00	199.00	198.00	199.00	202.00	204.00	207.00	206.00	202.00	203.00	200.00	200.00	200.00	200.00	200.00	201.00	202.00	201.00	201.00	204.00	205.00	204.00	204.00	204.00	208.00	206.00	205.00	206.00	208.00	208.00	206.00	209.00	209.00	208.00	208.00	209.00	208.00	208.00	208.00	212.00	212.00	210.00	213.00	213.00	213.00	214.00	212.00	211.00	212.00	212.00	214.00	213.00	215.00	213.00	216.00	216.00	217.00	217.00	222.00	218.00	220.00	220.00	220.00	221.00	223.00	221.00	223.00	224.00	225.00	224.00	227.00	226.00	226.00	227.00	227.00	228.00	228.00	230.00	231.00	231.00	231.00	232.00	233.00	234.00	235.00	236.00	237.00	238.00	239.00	241.00	243.00	245.00	245.00	246.00	248.00	248.00	249.00	251.00	255.00	255.00	258.00	260.00	266.00	265.00	266.00	268.00	268.00	269.00	272.00	275.00	276.00	277.00	281.00	285.00	293.00	298.00	300.00	305.00	302.00	296.00	297.00	296.00	294.00	292.00	290.00	288.00	287.00	287.00	286.00	287.00	286.00	287.00	287.00	287.00	287.00	287.00	286.00	285.00	285.00	286.00	288.00	291.00	287.00	287.00	287.00	289.00	291.00	293.00	295.00	301.00	305.00	303.00	301.00	302.00	302.00	300.00	298.00	294.00	299.00	299.00	299.00	306.00	308.00	318.00	327.00	336.00	329.00	320.00	328.00	336.00	344.00	352.00	346.00	348.00	353.00	361.00	338.00	326.00	326.00	326.00	335.00	349.00	377.00	374.00	368.00	387.00	405.00	403.00	405.00	419.00	423.00	426.00	431.00	437.00	451.00	452.00	449.00	441.00	458.00	470.00	463.00	458.00	450.00	423.00	417.00	410.00	412.00	381.00	377.00	396.00	412.00	426.00	425.00	413.00	423.00	429.00	409.00	392.00
192.00	192.00	193.00	192.00	191.00	192.00	192.00	192.00	192.00	193.00	193.00	192.00	193.00	193.00	193.00	193.00	194.00	194.00	194.00	194.00	194.00	197.00	195.00	196.00	197.00	198.00	196.00	198.00	201.00	202.00	203.00	201.00	200.00	200.00	199.00	199.00	199.00	199.00	199.00	200.00	201.00	200.00	200.00	200.00	201.00	200.00	201.00	203.00	202.00	202.00	202.00	203.00	202.00	203.00	201.00	202.00	202.00	204.00	203.00	203.00	203.00	205.00	206.00	206.00	208.00	205.00	207.00	208.00	210.00	211.00	212.00	210.00	209.00	210.00	210.00	213.00	210.00	210.00	210.00	211.00	211.00	212.00	213.00	213.00	212.00	212.00	211.00	212.00	214.00	215.00	215.00	215.00	216.00	216.00	217.00	217.00	219.00	218.00	220.00	220.00	221.00	221.00	221.00	223.00	223.00	224.00	224.00	225.00	225.00	225.00	225.00	227.00	227.00	228.00	227.00	230.00	230.00	230.00	230.00	232.00	234.00	235.00	235.00	237.00	238.00	239.00	241.00	243.00	245.00	246.00	245.00	246.00	247.00	249.00	252.00	252.00	255.00	256.00	259.00	260.00	262.00	262.00	266.00	268.00	269.00	274.00	274.00	275.00	282.00	285.00	288.00	285.00	285.00	290.00	293.00	301.00	301.00	309.00	309.00	316.00	310.00	301.00	297.00	296.00	291.00	290.00	290.00	290.00	291.00	294.00	294.00	292.00	292.00	292.00	291.00	289.00	288.00	287.00	288.00	287.00	293.00	289.00	291.00	292.00	293.00	295.00	295.00	301.00	302.00	306.00	309.00	308.00	310.00	311.00	307.00	301.00	300.00	304.00	301.00	304.00	319.00	318.00	328.00	331.00	323.00	315.00	323.00	335.00	345.00	346.00	345.00	333.00	333.00	330.00	322.00	323.00	324.00	325.00	333.00	339.00	357.00	367.00	378.00	398.00	401.00	409.00	415.00	439.00	444.00	445.00	443.00	434.00	431.00	443.00	434.00	425.00	448.00	452.00	448.00	435.00	433.00	420.00	422.00	416.00	399.00	368.00	364.00	372.00	381.00	395.00	409.00	395.00	386.00	384.00	377.00	374.00
192.00	193.00	193.00	192.00	193.00	192.00	191.00	191.00	193.00	194.00	193.00	193.00	193.00	193.00	193.00	193.00	193.00	194.00	195.00	197.00	195.00	195.00	198.00	199.00	197.00	197.00	198.00	197.00	201.00	202.00	203.00	202.00	200.00	200.00	199.00	200.00	200.00	199.00	199.00	199.00	200.00	199.00	200.00	201.00	201.00	201.00	201.00	201.00	201.00	203.00	202.00	200.00	203.00	202.00	202.00	203.00	202.00	203.00	203.00	204.00	203.00	205.00	206.00	208.00	210.00	207.00	207.00	209.00	211.00	212.00	209.00	207.00	209.00	209.00	207.00	209.00	210.00	209.00	211.00	214.00	212.00	210.00	210.00	212.00	210.00	209.00	211.00	211.00	213.00	214.00	215.00	215.00	217.00	216.00	217.00	218.00	219.00	219.00	220.00	220.00	221.00	221.00	221.00	222.00	223.00	223.00	224.00	225.00	225.00	225.00	225.00	227.00	227.00	227.00	228.00	230.00	230.00	231.00	232.00	233.00	234.00	235.00	236.00	237.00	239.00	238.00	240.00	242.00	245.00	246.00	246.00	246.00	247.00	251.00	252.00	251.00	253.00	255.00	258.00	258.00	259.00	260.00	263.00	265.00	266.00	268.00	275.00	283.00	286.00	287.00	291.00	291.00	290.00	287.00	292.00	298.00	299.00	309.00	314.00	320.00	311.00	308.00	301.00	296.00	294.00	292.00	292.00	293.00	294.00	298.00	299.00	297.00	295.00	295.00	293.00	292.00	289.00	288.00	289.00	290.00	292.00	289.00	291.00	294.00	294.00	295.00	297.00	301.00	304.00	309.00	313.00	314.00	315.00	316.00	312.00	308.00	297.00	300.00	301.00	299.00	313.00	320.00	320.00	325.00	323.00	313.00	319.00	330.00	338.00	332.00	332.00	325.00	320.00	319.00	323.00	322.00	323.00	325.00	338.00	347.00	373.00	379.00	388.00	404.00	413.00	417.00	412.00	443.00	447.00	447.00	440.00	430.00	433.00	438.00	436.00	418.00	431.00	438.00	448.00	440.00	423.00	408.00	416.00	403.00	387.00	360.00	360.00	368.00	376.00	385.00	378.00	378.00	380.00	379.00	367.00	364.00
192.00	193.00	193.00	192.00	193.00	192.00	191.00	191.00	193.00	194.00	193.00	193.00	193.00	193.00	193.00	193.00	193.00	194.00	195.00	197.00	195.00	195.00	198.00	199.00	197.00	197.00	198.00	197.00	201.00	202.00	203.00	202.00	200.00	200.00	199.00	200.00	200.00	199.00	199.00	199.00	200.00	199.00	200.00	201.00	201.00	201.00	201.00	201.00	201.00	203.00	202.00	200.00	203.00	202.00	202.00	203.00	202.00	203.00	203.00	204.00	203.00	205.00	206.00	208.00	210.00	207.00	207.00	209.00	211.00	212.00	209.00	207.00	209.00	209.00	207.00	209.00	210.00	209.00	211.00	214.00	212.00	210.00	210.00	212.00	210.00	209.00	211.00	211.00	213.00	214.00	215.00	215.00	217.00	216.00	217.00	218.00	219.00	219.00	220.00	220.00	221.00	221.00	221.00	222.00	223.00	223.00	224.00	225.00	225.00	225.00	225.00	227.00	227.00	227.00	228.00	230.00	230.00	231.00	232.00	233.00	234.00	235.00	236.00	237.00	239.00	238.00	240.00	242.00	245.00	246.00	246.00	246.00	247.00	251.00	252.00	251.00	253.00	255.00	258.00	258.00	259.00	260.00	263.00	265.00	266.00	268.00	275.00	283.00	286.00	287.00	291.00	291.00	290.00	287.00	292.00	298.00	299.00	309.00	314.00	320.00	311.00	308.00	301.00	296.00	294.00	292.00	292.00	293.00	294.00	298.00	299.00	297.00	295.00	295.00	293.00	292.00	289.00	288.00	289.00	290.00	292.00	289.00	291.00	294.00	294.00	295.00	297.00	301.00	304.00	309.00	313.00	314.00	315.00	316.00	312.00	308.00	297.00	300.00	301.00	299.00	313.00	320.00	320.00	325.00	323.00	313.00	319.00	330.00	338.00	332.00	332.00	325.00	320.00	319.00	323.00	322.00	323.00	325.00	338.00	347.00	373.00	379.00	388.00	404.00	413.00	417.00	412.00	443.00	447.00	447.00	440.00	430.00	433.00	438.00	436.00	418.00	431.00	438.00	448.00	440.00	423.00	408.00	416.00	403.00	387.00	360.00	360.00	368.00	376.00	385.00	378.00	378.00	380.00	379.00	367.00	364.00
192.00	194.00	194.00	192.00	192.00	192.00	192.00	192.00	193.00	193.00	193.00	193.00	194.00	194.00	194.00	194.00	194.00	194.00	194.00	195.00	195.00	194.00	195.00	196.00	197.00	196.00	200.00	198.00	201.00	203.00	205.00	201.00	199.00	199.00	200.00	199.00	200.00	200.00	200.00	201.00	200.00	200.00	200.00	200.00	207.00	202.00	200.00	201.00	202.00	203.00	202.00	201.00	201.00	203.00	202.00	203.00	203.00	203.00	203.00	202.00	203.00	204.00	206.00	207.00	206.00	206.00	206.00	207.00	210.00	211.00	210.00	209.00	209.00	212.00	207.00	207.00	208.00	209.00	209.00	212.00	213.00	212.00	211.00	210.00	209.00	209.00	212.00	212.00	215.00	216.00	214.00	215.00	216.00	217.00	217.00	219.00	218.00	220.00	221.00	221.00	221.00	222.00	221.00	221.00	223.00	224.00	224.00	225.00	225.00	226.00	225.00	226.00	226.00	227.00	228.00	230.00	230.00	231.00	232.00	232.00	234.00	235.00	235.00	236.00	238.00	240.00	241.00	241.00	244.00	246.00	246.00	245.00	248.00	251.00	250.00	251.00	254.00	254.00	257.00	256.00	258.00	259.00	263.00	264.00	266.00	268.00	273.00	284.00	292.00	295.00	295.00	294.00	296.00	293.00	293.00	304.00	308.00	309.00	313.00	318.00	319.00	313.00	305.00	300.00	297.00	292.00	295.00	294.00	298.00	303.00	302.00	302.00	298.00	298.00	295.00	293.00	291.00	289.00	291.00	293.00	291.00	292.00	292.00	294.00	295.00	296.00	297.00	301.00	303.00	309.00	311.00	313.00	313.00	311.00	310.00	302.00	299.00	300.00	301.00	298.00	311.00	310.00	315.00	325.00	328.00	314.00	315.00	324.00	335.00	332.00	320.00	320.00	318.00	319.00	324.00	319.00	322.00	331.00	350.00	359.00	385.00	394.00	397.00	399.00	410.00	415.00	405.00	427.00	434.00	438.00	434.00	422.00	419.00	426.00	434.00	424.00	420.00	440.00	443.00	446.00	428.00	399.00	403.00	395.00	377.00	359.00	359.00	378.00	389.00	384.00	367.00	370.00	373.00	373.00	366.00	358.00
193.00	194.00	193.00	193.00	192.00	196.00	194.00	193.00	194.00	193.00	195.00	196.00	194.00	193.00	194.00	194.00	195.00	194.00	194.00	194.00	194.00	195.00	195.00	194.00	195.00	196.00	198.00	198.00	200.00	201.00	202.00	201.00	200.00	200.00	201.00	200.00	201.00	201.00	200.00	201.00	204.00	202.00	201.00	202.00	208.00	208.00	203.00	201.00	201.00	202.00	203.00	203.00	203.00	206.00	205.00	203.00	203.00	205.00	207.00	203.00	202.00	203.00	203.00	206.00	207.00	206.00	208.00	209.00	209.00	212.00	211.00	212.00	208.00	209.00	208.00	207.00	209.00	211.00	210.00	211.00	211.00	213.00	214.00	211.00	211.00	212.00	215.00	217.00	213.00	213.00	214.00	217.00	220.00	216.00	218.00	217.00	218.00	218.00	220.00	220.00	220.00	221.00	221.00	222.00	221.00	223.00	225.00	224.00	225.00	226.00	225.00	226.00	226.00	228.00	228.00	231.00	231.00	235.00	236.00	236.00	236.00	234.00	235.00	237.00	238.00	239.00	241.00	242.00	243.00	244.00	247.00	249.00	249.00	252.00	251.00	251.00	254.00	257.00	258.00	257.00	259.00	261.00	265.00	265.00	267.00	269.00	271.00	282.00	287.00	291.00	290.00	302.00	311.00	307.00	300.00	295.00	311.00	325.00	326.00	321.00	324.00	323.00	312.00	306.00	301.00	299.00	299.00	300.00	307.00	321.00	316.00	317.00	308.00	305.00	301.00	298.00	295.00	292.00	296.00	295.00	294.00	296.00	295.00	297.00	297.00	298.00	301.00	305.00	307.00	309.00	310.00	313.00	307.00	307.00	309.00	308.00	308.00	304.00	302.00	299.00	303.00	307.00	310.00	323.00	329.00	311.00	308.00	313.00	322.00	315.00	315.00	316.00	315.00	318.00	335.00	340.00	342.00	349.00	377.00	382.00	386.00	380.00	375.00	402.00	405.00	403.00	409.00	389.00	395.00	401.00	411.00	399.00	402.00	386.00	389.00	390.00	407.00	408.00	417.00	430.00	429.00	403.00	392.00	378.00	383.00	351.00	351.00	365.00	365.00	376.00	369.00	361.00	354.00	369.00	357.00	351.00
195.00	193.00	193.00	192.00	193.00	193.00	195.00	195.00	193.00	194.00	193.00	199.00	193.00	194.00	195.00	195.00	194.00	194.00	194.00	194.00	195.00	195.00	196.00	196.00	195.00	196.00	197.00	198.00	199.00	200.00	203.00	203.00	201.00	200.00	199.00	201.00	201.00	203.00	203.00	201.00	202.00	202.00	201.00	201.00	202.00	206.00	203.00	202.00	205.00	207.00	203.00	202.00	205.00	210.00	204.00	203.00	203.00	203.00	204.00	204.00	203.00	203.00	203.00	205.00	206.00	206.00	208.00	208.00	207.00	209.00	209.00	207.00	209.00	209.00	208.00	210.00	211.00	211.00	210.00	210.00	210.00	211.00	212.00	212.00	212.00	215.00	214.00	214.00	212.00	214.00	214.00	218.00	220.00	217.00	220.00	219.00	218.00	219.00	219.00	219.00	218.00	220.00	221.00	221.00	222.00	223.00	225.00	225.00	224.00	225.00	225.00	226.00	226.00	227.00	228.00	231.00	230.00	231.00	233.00	233.00	238.00	234.00	236.00	236.00	238.00	240.00	243.00	244.00	244.00	245.00	248.00	247.00	248.00	252.00	251.00	252.00	254.00	257.00	258.00	260.00	260.00	261.00	265.00	267.00	270.00	273.00	270.00	279.00	279.00	285.00	291.00	307.00	314.00	309.00	299.00	296.00	307.00	315.00	320.00	318.00	338.00	325.00	316.00	309.00	304.00	301.00	300.00	300.00	308.00	324.00	324.00	317.00	308.00	311.00	305.00	300.00	296.00	293.00	293.00	295.00	294.00	296.00	299.00	299.00	299.00	301.00	301.00	306.00	307.00	314.00	314.00	315.00	318.00	320.00	316.00	315.00	311.00	312.00	307.00	299.00	303.00	305.00	311.00	323.00	333.00	309.00	308.00	311.00	313.00	313.00	315.00	316.00	317.00	321.00	350.00	351.00	356.00	359.00	377.00	372.00	371.00	375.00	375.00	380.00	387.00	383.00	384.00	405.00	393.00	387.00	401.00	402.00	395.00	377.00	377.00	381.00	390.00	397.00	406.00	419.00	419.00	395.00	383.00	377.00	378.00	353.00	347.00	349.00	358.00	368.00	367.00	360.00	345.00	361.00	349.00	357.00
194.00	197.00	194.00	193.00	193.00	194.00	193.00	195.00	194.00	194.00	194.00	194.00	194.00	195.00	194.00	195.00	195.00	195.00	195.00	195.00	195.00	195.00	196.00	196.00	196.00	196.00	198.00	199.00	199.00	201.00	205.00	204.00	202.00	201.00	200.00	201.00	202.00	203.00	204.00	201.00	201.00	201.00	201.00	201.00	202.00	202.00	203.00	205.00	202.00	203.00	203.00	204.00	203.00	205.00	207.00	203.00	203.00	205.00	204.00	203.00	202.00	203.00	204.00	205.00	206.00	208.00	207.00	208.00	207.00	208.00	208.00	208.00	209.00	209.00	209.00	210.00	210.00	211.00	210.00	209.00	210.00	211.00	211.00	212.00	216.00	216.00	213.00	213.00	213.00	213.00	214.00	219.00	216.00	215.00	220.00	218.00	218.00	221.00	220.00	220.00	220.00	220.00	221.00	221.00	221.00	223.00	224.00	224.00	224.00	224.00	224.00	226.00	226.00	226.00	228.00	229.00	230.00	231.00	233.00	235.00	233.00	235.00	236.00	238.00	241.00	240.00	243.00	245.00	246.00	248.00	250.00	249.00	250.00	253.00	253.00	253.00	256.00	258.00	260.00	263.00	261.00	262.00	266.00	264.00	267.00	271.00	272.00	281.00	285.00	291.00	296.00	312.00	316.00	310.00	301.00	298.00	305.00	317.00	318.00	320.00	336.00	327.00	318.00	310.00	306.00	304.00	303.00	304.00	307.00	322.00	319.00	313.00	311.00	317.00	305.00	301.00	299.00	296.00	294.00	295.00	294.00	296.00	296.00	301.00	300.00	302.00	304.00	306.00	309.00	316.00	318.00	316.00	321.00	324.00	318.00	317.00	318.00	321.00	315.00	300.00	301.00	302.00	308.00	317.00	325.00	308.00	307.00	310.00	310.00	313.00	314.00	316.00	320.00	329.00	351.00	363.00	363.00	369.00	375.00	365.00	369.00	367.00	363.00	364.00	368.00	373.00	382.00	396.00	385.00	383.00	402.00	392.00	380.00	369.00	383.00	399.00	394.00	398.00	401.00	401.00	410.00	382.00	372.00	371.00	382.00	355.00	346.00	345.00	358.00	363.00	349.00	344.00	338.00	345.00	340.00	347.00
194.00	195.00	195.00	194.00	193.00	194.00	193.00	195.00	195.00	194.00	194.00	195.00	196.00	195.00	195.00	195.00	196.00	195.00	196.00	195.00	195.00	196.00	196.00	197.00	196.00	197.00	200.00	201.00	200.00	200.00	205.00	203.00	200.00	200.00	201.00	202.00	202.00	201.00	203.00	202.00	201.00	201.00	201.00	202.00	202.00	201.00	202.00	204.00	202.00	202.00	203.00	204.00	204.00	206.00	208.00	206.00	204.00	208.00	206.00	203.00	203.00	203.00	204.00	206.00	206.00	207.00	209.00	209.00	210.00	210.00	208.00	208.00	208.00	208.00	209.00	208.00	210.00	212.00	210.00	210.00	209.00	211.00	212.00	213.00	216.00	212.00	212.00	214.00	214.00	214.00	214.00	216.00	214.00	216.00	218.00	217.00	218.00	219.00	220.00	220.00	219.00	219.00	220.00	220.00	221.00	222.00	223.00	223.00	224.00	224.00	224.00	225.00	227.00	227.00	229.00	232.00	233.00	232.00	232.00	233.00	235.00	236.00	237.00	239.00	244.00	243.00	245.00	247.00	248.00	255.00	256.00	256.00	254.00	257.00	256.00	257.00	259.00	260.00	261.00	260.00	262.00	264.00	265.00	265.00	268.00	272.00	274.00	283.00	293.00	297.00	297.00	308.00	311.00	309.00	300.00	297.00	305.00	315.00	316.00	316.00	327.00	334.00	328.00	317.00	309.00	309.00	311.00	311.00	308.00	317.00	320.00	316.00	317.00	321.00	307.00	304.00	301.00	299.00	294.00	295.00	298.00	299.00	299.00	301.00	302.00	302.00	305.00	308.00	311.00	318.00	325.00	321.00	320.00	318.00	312.00	317.00	326.00	326.00	320.00	301.00	302.00	303.00	305.00	309.00	312.00	309.00	307.00	310.00	309.00	313.00	313.00	318.00	323.00	329.00	353.00	367.00	379.00	368.00	358.00	354.00	368.00	353.00	350.00	360.00	368.00	380.00	390.00	383.00	377.00	378.00	396.00	392.00	363.00	372.00	389.00	403.00	422.00	423.00	412.00	395.00	392.00	370.00	365.00	363.00	372.00	358.00	343.00	342.00	355.00	355.00	337.00	337.00	337.00	337.00	339.00	340.00
195.00	194.00	194.00	196.00	195.00	194.00	194.00	195.00	195.00	196.00	196.00	196.00	195.00	195.00	195.00	197.00	198.00	196.00	196.00	195.00	196.00	196.00	197.00	198.00	197.00	197.00	200.00	202.00	201.00	200.00	204.00	203.00	200.00	203.00	202.00	203.00	201.00	201.00	202.00	206.00	202.00	200.00	201.00	202.00	203.00	202.00	202.00	203.00	202.00	202.00	203.00	203.00	204.00	203.00	204.00	204.00	204.00	203.00	205.00	206.00	206.00	204.00	204.00	206.00	206.00	206.00	211.00	214.00	214.00	212.00	213.00	209.00	212.00	211.00	209.00	209.00	211.00	212.00	212.00	213.00	211.00	211.00	211.00	212.00	218.00	213.00	216.00	217.00	214.00	213.00	215.00	216.00	215.00	217.00	217.00	218.00	217.00	218.00	217.00	218.00	219.00	218.00	219.00	219.00	220.00	221.00	221.00	222.00	223.00	223.00	224.00	224.00	225.00	225.00	226.00	231.00	232.00	233.00	235.00	236.00	237.00	239.00	241.00	245.00	249.00	246.00	255.00	256.00	258.00	265.00	260.00	257.00	255.00	258.00	258.00	258.00	260.00	260.00	261.00	262.00	264.00	264.00	267.00	269.00	267.00	270.00	276.00	285.00	284.00	284.00	289.00	300.00	299.00	295.00	290.00	293.00	300.00	314.00	326.00	326.00	327.00	336.00	334.00	323.00	313.00	332.00	333.00	335.00	317.00	320.00	326.00	328.00	317.00	314.00	304.00	301.00	299.00	298.00	297.00	297.00	298.00	299.00	300.00	302.00	303.00	305.00	308.00	307.00	311.00	322.00	322.00	318.00	317.00	316.00	316.00	322.00	329.00	330.00	323.00	304.00	302.00	302.00	303.00	305.00	305.00	306.00	308.00	308.00	310.00	316.00	320.00	323.00	333.00	343.00	352.00	365.00	367.00	353.00	345.00	360.00	347.00	337.00	348.00	360.00	371.00	378.00	366.00	358.00	360.00	372.00	383.00	395.00	362.00	352.00	365.00	380.00	405.00	395.00	386.00	393.00	397.00	369.00	363.00	359.00	353.00	348.00	344.00	341.00	339.00	336.00	338.00	340.00	345.00	347.00	347.00	346.00
196.00	195.00	194.00	196.00	196.00	195.00	195.00	198.00	196.00	195.00	196.00	196.00	195.00	195.00	196.00	198.00	199.00	197.00	197.00	196.00	197.00	197.00	197.00	197.00	198.00	198.00	204.00	203.00	203.00	203.00	203.00	203.00	202.00	202.00	203.00	201.00	199.00	201.00	201.00	201.00	201.00	202.00	201.00	202.00	203.00	203.00	202.00	202.00	203.00	203.00	203.00	203.00	203.00	202.00	203.00	203.00	204.00	203.00	204.00	205.00	207.00	204.00	204.00	205.00	209.00	213.00	212.00	212.00	215.00	211.00	212.00	210.00	210.00	209.00	212.00	210.00	211.00	214.00	213.00	212.00	214.00	212.00	212.00	212.00	216.00	217.00	214.00	213.00	214.00	213.00	216.00	217.00	215.00	217.00	217.00	217.00	218.00	218.00	218.00	218.00	218.00	219.00	219.00	220.00	220.00	221.00	221.00	222.00	221.00	223.00	223.00	223.00	224.00	225.00	227.00	230.00	231.00	233.00	233.00	236.00	237.00	240.00	242.00	245.00	248.00	246.00	254.00	255.00	261.00	267.00	260.00	257.00	255.00	255.00	257.00	258.00	260.00	261.00	261.00	263.00	264.00	266.00	270.00	267.00	268.00	271.00	277.00	291.00	290.00	288.00	291.00	300.00	295.00	293.00	291.00	293.00	301.00	314.00	326.00	322.00	329.00	331.00	331.00	325.00	319.00	330.00	335.00	336.00	323.00	324.00	327.00	321.00	315.00	311.00	304.00	303.00	303.00	299.00	298.00	299.00	300.00	300.00	301.00	302.00	303.00	304.00	306.00	310.00	310.00	322.00	323.00	319.00	319.00	321.00	323.00	328.00	324.00	323.00	323.00	312.00	304.00	306.00	303.00	303.00	305.00	307.00	307.00	308.00	313.00	324.00	328.00	330.00	342.00	344.00	349.00	365.00	367.00	352.00	343.00	350.00	345.00	332.00	334.00	350.00	354.00	355.00	355.00	350.00	358.00	371.00	386.00	402.00	357.00	346.00	358.00	376.00	395.00	384.00	370.00	379.00	397.00	367.00	361.00	351.00	348.00	347.00	346.00	340.00	338.00	336.00	340.00	344.00	357.00	357.00	367.00	365.00
196.00	196.00	196.00	195.00	196.00	196.00	195.00	199.00	196.00	196.00	195.00	196.00	196.00	197.00	197.00	197.00	197.00	198.00	197.00	196.00	197.00	197.00	197.00	197.00	198.00	197.00	199.00	201.00	202.00	201.00	200.00	202.00	201.00	202.00	202.00	202.00	201.00	200.00	201.00	201.00	202.00	200.00	201.00	201.00	202.00	203.00	202.00	202.00	204.00	203.00	202.00	202.00	203.00	203.00	202.00	204.00	204.00	205.00	204.00	206.00	205.00	204.00	205.00	209.00	210.00	212.00	213.00	213.00	210.00	211.00	213.00	211.00	211.00	209.00	211.00	210.00	210.00	214.00	214.00	212.00	212.00	211.00	212.00	212.00	212.00	212.00	213.00	213.00	215.00	213.00	217.00	213.00	216.00	215.00	217.00	217.00	216.00	217.00	217.00	220.00	224.00	220.00	219.00	219.00	220.00	220.00	220.00	221.00	222.00	222.00	224.00	223.00	225.00	225.00	227.00	231.00	233.00	233.00	234.00	237.00	239.00	241.00	242.00	244.00	249.00	248.00	254.00	257.00	259.00	261.00	258.00	256.00	256.00	255.00	256.00	257.00	259.00	262.00	262.00	264.00	265.00	266.00	268.00	268.00	270.00	271.00	276.00	291.00	295.00	294.00	299.00	294.00	287.00	288.00	291.00	292.00	300.00	310.00	319.00	324.00	328.00	326.00	325.00	326.00	326.00	325.00	334.00	336.00	336.00	326.00	321.00	323.00	320.00	319.00	306.00	304.00	302.00	299.00	301.00	301.00	304.00	303.00	304.00	306.00	307.00	306.00	308.00	313.00	312.00	315.00	319.00	320.00	329.00	330.00	326.00	324.00	319.00	317.00	315.00	310.00	309.00	308.00	308.00	304.00	304.00	304.00	305.00	307.00	313.00	331.00	338.00	341.00	343.00	348.00	341.00	358.00	352.00	345.00	345.00	351.00	331.00	326.00	322.00	339.00	341.00	336.00	338.00	345.00	359.00	370.00	387.00	402.00	362.00	342.00	343.00	355.00	384.00	375.00	360.00	363.00	375.00	368.00	358.00	348.00	344.00	343.00	341.00	337.00	336.00	335.00	348.00	349.00	363.00	369.00	379.00	378.00
195.00	195.00	195.00	197.00	195.00	196.00	197.00	197.00	197.00	197.00	197.00	196.00	196.00	196.00	196.00	197.00	196.00	198.00	197.00	197.00	197.00	197.00	198.00	197.00	198.00	197.00	198.00	198.00	199.00	200.00	200.00	201.00	203.00	202.00	200.00	200.00	202.00	201.00	200.00	201.00	201.00	202.00	201.00	202.00	202.00	203.00	203.00	202.00	204.00	204.00	204.00	204.00	203.00	203.00	204.00	206.00	208.00	206.00	206.00	208.00	206.00	205.00	205.00	209.00	209.00	209.00	208.00	208.00	206.00	210.00	214.00	216.00	213.00	209.00	209.00	211.00	214.00	215.00	214.00	213.00	214.00	211.00	213.00	212.00	213.00	213.00	213.00	213.00	216.00	214.00	213.00	212.00	213.00	214.00	216.00	215.00	215.00	217.00	219.00	220.00	218.00	221.00	218.00	219.00	219.00	221.00	221.00	222.00	221.00	222.00	222.00	223.00	225.00	225.00	226.00	230.00	233.00	234.00	236.00	239.00	243.00	242.00	244.00	245.00	250.00	253.00	256.00	256.00	258.00	258.00	255.00	253.00	254.00	253.00	256.00	258.00	262.00	265.00	265.00	265.00	266.00	266.00	268.00	270.00	271.00	272.00	274.00	280.00	286.00	293.00	296.00	287.00	289.00	293.00	293.00	293.00	296.00	310.00	316.00	321.00	323.00	325.00	326.00	326.00	326.00	326.00	335.00	340.00	345.00	326.00	318.00	317.00	314.00	311.00	305.00	304.00	301.00	299.00	303.00	305.00	310.00	308.00	306.00	311.00	311.00	309.00	313.00	317.00	311.00	318.00	321.00	323.00	331.00	328.00	324.00	321.00	317.00	318.00	318.00	315.00	310.00	311.00	308.00	303.00	306.00	305.00	304.00	305.00	311.00	330.00	347.00	340.00	337.00	344.00	331.00	342.00	341.00	332.00	335.00	328.00	319.00	321.00	319.00	327.00	327.00	324.00	326.00	335.00	359.00	380.00	384.00	381.00	359.00	341.00	337.00	352.00	369.00	366.00	351.00	347.00	360.00	376.00	362.00	350.00	343.00	339.00	337.00	336.00	334.00	342.00	360.00	357.00	364.00	376.00	385.00	376.00
196.00	195.00	195.00	197.00	196.00	196.00	196.00	195.00	196.00	197.00	197.00	197.00	197.00	198.00	197.00	196.00	196.00	199.00	198.00	197.00	197.00	198.00	197.00	197.00	198.00	198.00	200.00	199.00	199.00	199.00	200.00	201.00	203.00	201.00	200.00	200.00	201.00	201.00	201.00	201.00	202.00	202.00	202.00	202.00	202.00	203.00	202.00	203.00	203.00	203.00	204.00	203.00	203.00	203.00	204.00	205.00	205.00	206.00	204.00	206.00	207.00	205.00	205.00	207.00	207.00	208.00	207.00	206.00	207.00	207.00	211.00	214.00	214.00	212.00	212.00	211.00	214.00	215.00	212.00	213.00	212.00	212.00	213.00	212.00	212.00	213.00	212.00	212.00	213.00	216.00	213.00	213.00	215.00	213.00	215.00	215.00	215.00	217.00	218.00	219.00	219.00	218.00	218.00	219.00	220.00	220.00	221.00	221.00	222.00	223.00	222.00	223.00	224.00	225.00	227.00	230.00	233.00	234.00	237.00	238.00	244.00	244.00	245.00	247.00	254.00	256.00	259.00	256.00	255.00	256.00	254.00	253.00	253.00	252.00	255.00	257.00	261.00	263.00	265.00	266.00	266.00	267.00	269.00	269.00	271.00	273.00	273.00	279.00	281.00	280.00	282.00	288.00	295.00	298.00	301.00	297.00	296.00	305.00	305.00	308.00	314.00	319.00	328.00	334.00	334.00	329.00	329.00	338.00	339.00	326.00	317.00	313.00	313.00	309.00	305.00	303.00	301.00	301.00	302.00	304.00	306.00	307.00	306.00	308.00	313.00	311.00	317.00	315.00	312.00	321.00	320.00	325.00	329.00	329.00	326.00	322.00	321.00	324.00	324.00	314.00	315.00	316.00	314.00	306.00	305.00	304.00	307.00	307.00	307.00	316.00	327.00	320.00	318.00	321.00	328.00	328.00	333.00	319.00	317.00	315.00	317.00	318.00	316.00	318.00	318.00	321.00	322.00	328.00	348.00	366.00	368.00	382.00	353.00	341.00	331.00	337.00	339.00	342.00	334.00	338.00	346.00	372.00	366.00	352.00	342.00	336.00	335.00	335.00	335.00	345.00	356.00	365.00	366.00	375.00	395.00	377.00
196.00	197.00	194.00	195.00	196.00	196.00	198.00	196.00	196.00	196.00	197.00	196.00	198.00	197.00	197.00	197.00	197.00	197.00	198.00	199.00	197.00	198.00	198.00	198.00	199.00	198.00	201.00	199.00	199.00	200.00	201.00	201.00	202.00	203.00	203.00	200.00	201.00	201.00	201.00	202.00	202.00	202.00	202.00	202.00	202.00	203.00	203.00	202.00	203.00	202.00	203.00	202.00	203.00	204.00	205.00	203.00	204.00	203.00	205.00	205.00	205.00	209.00	208.00	206.00	205.00	207.00	206.00	206.00	206.00	207.00	209.00	212.00	212.00	213.00	214.00	213.00	212.00	217.00	211.00	215.00	213.00	212.00	212.00	212.00	213.00	213.00	213.00	213.00	213.00	214.00	216.00	215.00	215.00	213.00	216.00	215.00	217.00	217.00	218.00	218.00	217.00	218.00	218.00	219.00	219.00	220.00	220.00	221.00	222.00	222.00	222.00	224.00	224.00	225.00	226.00	230.00	232.00	235.00	238.00	241.00	245.00	245.00	246.00	247.00	258.00	262.00	261.00	255.00	252.00	255.00	254.00	251.00	251.00	254.00	256.00	259.00	260.00	261.00	262.00	264.00	265.00	268.00	271.00	271.00	273.00	273.00	275.00	284.00	284.00	283.00	284.00	295.00	308.00	309.00	313.00	305.00	296.00	302.00	306.00	309.00	314.00	314.00	319.00	325.00	331.00	335.00	332.00	330.00	341.00	326.00	318.00	316.00	318.00	314.00	307.00	302.00	302.00	302.00	304.00	304.00	306.00	308.00	308.00	309.00	309.00	312.00	317.00	316.00	314.00	328.00	330.00	328.00	328.00	329.00	326.00	323.00	326.00	328.00	323.00	317.00	325.00	323.00	315.00	310.00	315.00	306.00	305.00	307.00	308.00	309.00	309.00	308.00	309.00	311.00	317.00	316.00	319.00	311.00	311.00	312.00	311.00	312.00	313.00	313.00	313.00	314.00	316.00	320.00	329.00	345.00	357.00	374.00	351.00	337.00	325.00	328.00	328.00	326.00	328.00	330.00	339.00	374.00	375.00	361.00	343.00	334.00	335.00	334.00	344.00	352.00	357.00	367.00	372.00	379.00	392.00	375.00
194.00	195.00	195.00	194.00	196.00	196.00	197.00	195.00	196.00	196.00	196.00	198.00	198.00	198.00	197.00	197.00	197.00	197.00	198.00	199.00	198.00	199.00	198.00	199.00	199.00	199.00	199.00	201.00	199.00	199.00	200.00	201.00	205.00	205.00	204.00	200.00	201.00	201.00	203.00	201.00	202.00	201.00	204.00	203.00	203.00	202.00	202.00	202.00	203.00	203.00	202.00	202.00	203.00	204.00	203.00	202.00	202.00	204.00	204.00	205.00	207.00	209.00	206.00	206.00	206.00	206.00	205.00	206.00	207.00	207.00	211.00	211.00	213.00	213.00	212.00	213.00	213.00	215.00	213.00	213.00	211.00	211.00	211.00	212.00	214.00	213.00	213.00	214.00	213.00	215.00	214.00	217.00	215.00	216.00	215.00	216.00	216.00	216.00	217.00	218.00	217.00	218.00	218.00	218.00	219.00	219.00	220.00	219.00	220.00	221.00	222.00	225.00	225.00	226.00	226.00	230.00	232.00	234.00	237.00	240.00	243.00	245.00	245.00	248.00	258.00	263.00	258.00	253.00	249.00	253.00	253.00	249.00	252.00	253.00	253.00	256.00	260.00	262.00	262.00	264.00	266.00	268.00	268.00	268.00	272.00	274.00	277.00	293.00	292.00	289.00	286.00	304.00	316.00	318.00	323.00	311.00	301.00	304.00	308.00	314.00	319.00	324.00	319.00	319.00	326.00	334.00	332.00	329.00	335.00	334.00	321.00	315.00	315.00	315.00	308.00	304.00	303.00	302.00	305.00	305.00	306.00	310.00	313.00	311.00	312.00	314.00	318.00	320.00	315.00	329.00	337.00	337.00	330.00	327.00	325.00	323.00	328.00	330.00	323.00	322.00	331.00	333.00	322.00	317.00	320.00	311.00	307.00	306.00	306.00	310.00	308.00	307.00	307.00	308.00	309.00	308.00	309.00	309.00	312.00	313.00	316.00	316.00	313.00	314.00	313.00	314.00	313.00	318.00	320.00	325.00	340.00	354.00	343.00	324.00	323.00	322.00	324.00	324.00	325.00	329.00	331.00	363.00	367.00	355.00	338.00	333.00	341.00	352.00	347.00	354.00	364.00	373.00	380.00	380.00	378.00	371.00
194.00	196.00	196.00	195.00	195.00	196.00	196.00	197.00	196.00	196.00	197.00	197.00	196.00	197.00	198.00	199.00	200.00	197.00	199.00	199.00	199.00	198.00	200.00	200.00	200.00	199.00	199.00	199.00	201.00	202.00	200.00	202.00	205.00	206.00	204.00	202.00	201.00	204.00	203.00	203.00	202.00	202.00	203.00	202.00	202.00	202.00	203.00	203.00	203.00	203.00	202.00	203.00	203.00	204.00	203.00	204.00	204.00	204.00	204.00	205.00	206.00	206.00	207.00	206.00	208.00	207.00	205.00	206.00	207.00	207.00	210.00	209.00	209.00	214.00	213.00	213.00	213.00	212.00	214.00	213.00	211.00	212.00	213.00	212.00	213.00	214.00	215.00	220.00	215.00	214.00	216.00	215.00	217.00	214.00	216.00	216.00	216.00	217.00	217.00	217.00	217.00	219.00	219.00	219.00	218.00	219.00	219.00	220.00	221.00	223.00	222.00	224.00	224.00	225.00	226.00	230.00	232.00	234.00	237.00	238.00	240.00	244.00	245.00	252.00	254.00	258.00	252.00	250.00	249.00	251.00	249.00	249.00	252.00	253.00	254.00	257.00	259.00	260.00	263.00	265.00	264.00	267.00	268.00	271.00	273.00	276.00	279.00	299.00	304.00	301.00	293.00	297.00	304.00	305.00	316.00	317.00	309.00	306.00	312.00	318.00	327.00	329.00	325.00	325.00	333.00	337.00	331.00	327.00	323.00	327.00	320.00	314.00	311.00	312.00	307.00	303.00	304.00	305.00	306.00	306.00	308.00	313.00	316.00	315.00	316.00	318.00	321.00	324.00	321.00	327.00	332.00	337.00	331.00	330.00	329.00	329.00	332.00	333.00	328.00	332.00	339.00	331.00	327.00	322.00	316.00	311.00	311.00	310.00	308.00	308.00	309.00	310.00	307.00	309.00	310.00	309.00	311.00	310.00	312.00	313.00	319.00	321.00	319.00	316.00	317.00	315.00	315.00	319.00	321.00	323.00	323.00	343.00	347.00	322.00	324.00	330.00	324.00	324.00	324.00	331.00	333.00	348.00	349.00	343.00	336.00	336.00	342.00	351.00	347.00	349.00	368.00	379.00	389.00	386.00	381.00	377.00
196.00	195.00	194.00	195.00	196.00	196.00	196.00	197.00	200.00	197.00	197.00	198.00	197.00	197.00	198.00	199.00	201.00	198.00	198.00	198.00	199.00	198.00	199.00	200.00	200.00	200.00	200.00	200.00	200.00	200.00	200.00	204.00	204.00	203.00	203.00	204.00	204.00	202.00	201.00	202.00	202.00	203.00	202.00	203.00	201.00	200.00	201.00	201.00	203.00	203.00	203.00	203.00	203.00	203.00	204.00	205.00	205.00	205.00	206.00	206.00	207.00	206.00	211.00	209.00	209.00	207.00	208.00	207.00	207.00	207.00	209.00	208.00	209.00	209.00	209.00	212.00	212.00	214.00	213.00	212.00	212.00	211.00	213.00	212.00	213.00	213.00	215.00	214.00	215.00	215.00	215.00	218.00	218.00	216.00	217.00	215.00	216.00	216.00	216.00	217.00	215.00	216.00	215.00	218.00	218.00	219.00	220.00	221.00	222.00	224.00	226.00	231.00	228.00	227.00	227.00	229.00	229.00	232.00	233.00	234.00	238.00	243.00	250.00	255.00	250.00	250.00	248.00	246.00	247.00	254.00	251.00	252.00	250.00	254.00	254.00	256.00	258.00	259.00	262.00	262.00	263.00	265.00	269.00	272.00	275.00	279.00	286.00	314.00	315.00	314.00	303.00	311.00	304.00	315.00	319.00	317.00	330.00	310.00	314.00	328.00	337.00	335.00	337.00	333.00	335.00	337.00	333.00	331.00	324.00	314.00	312.00	311.00	309.00	309.00	309.00	311.00	311.00	313.00	313.00	310.00	309.00	311.00	319.00	324.00	325.00	327.00	331.00	335.00	331.00	333.00	334.00	336.00	340.00	346.00	350.00	341.00	341.00	336.00	335.00	353.00	353.00	354.00	347.00	339.00	329.00	319.00	323.00	326.00	319.00	315.00	316.00	315.00	314.00	314.00	312.00	314.00	312.00	313.00	319.00	322.00	332.00	340.00	351.00	331.00	329.00	326.00	325.00	317.00	321.00	319.00	317.00	319.00	328.00	325.00	326.00	335.00	340.00	350.00	341.00	338.00	334.00	333.00	335.00	338.00	335.00	335.00	335.00	337.00	341.00	344.00	364.00	373.00	388.00	399.00	386.00	379.00
196.00	195.00	194.00	195.00	196.00	196.00	196.00	197.00	200.00	197.00	197.00	198.00	197.00	197.00	198.00	199.00	201.00	198.00	198.00	198.00	199.00	198.00	199.00	200.00	200.00	200.00	200.00	200.00	200.00	200.00	200.00	204.00	204.00	203.00	203.00	204.00	204.00	202.00	201.00	202.00	202.00	203.00	202.00	203.00	201.00	200.00	201.00	201.00	203.00	203.00	203.00	203.00	203.00	203.00	204.00	205.00	205.00	205.00	206.00	206.00	207.00	206.00	211.00	209.00	209.00	207.00	208.00	207.00	207.00	207.00	209.00	208.00	209.00	209.00	209.00	212.00	212.00	214.00	213.00	212.00	212.00	211.00	213.00	212.00	213.00	213.00	215.00	214.00	215.00	215.00	215.00	218.00	218.00	216.00	217.00	215.00	216.00	216.00	216.00	217.00	215.00	216.00	215.00	218.00	218.00	219.00	220.00	221.00	222.00	224.00	226.00	231.00	228.00	227.00	227.00	229.00	229.00	232.00	233.00	234.00	238.00	243.00	250.00	255.00	250.00	250.00	248.00	246.00	247.00	254.00	251.00	252.00	250.00	254.00	254.00	256.00	258.00	259.00	262.00	262.00	263.00	265.00	269.00	272.00	275.00	279.00	286.00	314.00	315.00	314.00	303.00	311.00	304.00	315.00	319.00	317.00	330.00	310.00	314.00	328.00	337.00	335.00	337.00	333.00	335.00	337.00	333.00	331.00	324.00	314.00	312.00	311.00	309.00	309.00	309.00	311.00	311.00	313.00	313.00	310.00	309.00	311.00	319.00	324.00	325.00	327.00	331.00	335.00	331.00	333.00	334.00	336.00	340.00	346.00	350.00	341.00	341.00	336.00	335.00	353.00	353.00	354.00	347.00	339.00	329.00	319.00	323.00	326.00	319.00	315.00	316.00	315.00	314.00	314.00	312.00	314.00	312.00	313.00	319.00	322.00	332.00	340.00	351.00	331.00	329.00	326.00	325.00	317.00	321.00	319.00	317.00	319.00	328.00	325.00	326.00	335.00	340.00	350.00	341.00	338.00	334.00	333.00	335.00	338.00	335.00	335.00	335.00	337.00	341.00	344.00	364.00	373.00	388.00	399.00	386.00	379.00
198.00	196.00	195.00	195.00	196.00	199.00	196.00	197.00	198.00	198.00	197.00	198.00	198.00	198.00	199.00	198.00	198.00	200.00	199.00	198.00	199.00	199.00	199.00	200.00	200.00	200.00	201.00	200.00	200.00	200.00	200.00	203.00	205.00	203.00	203.00	202.00	203.00	202.00	202.00	202.00	202.00	202.00	203.00	203.00	204.00	201.00	201.00	202.00	204.00	204.00	204.00	204.00	204.00	204.00	204.00	205.00	205.00	205.00	205.00	207.00	206.00	206.00	209.00	209.00	210.00	211.00	210.00	208.00	207.00	208.00	209.00	209.00	210.00	209.00	209.00	211.00	212.00	212.00	211.00	212.00	212.00	212.00	212.00	213.00	213.00	214.00	214.00	214.00	215.00	215.00	214.00	216.00	217.00	218.00	223.00	219.00	216.00	216.00	215.00	214.00	214.00	216.00	218.00	219.00	219.00	219.00	221.00	222.00	223.00	225.00	226.00	229.00	229.00	227.00	228.00	229.00	230.00	231.00	233.00	233.00	239.00	243.00	250.00	255.00	243.00	243.00	245.00	245.00	245.00	248.00	249.00	252.00	255.00	254.00	256.00	258.00	257.00	257.00	260.00	261.00	264.00	265.00	269.00	272.00	277.00	280.00	289.00	311.00	312.00	312.00	312.00	316.00	315.00	324.00	322.00	323.00	320.00	308.00	309.00	323.00	328.00	332.00	338.00	335.00	339.00	343.00	342.00	338.00	328.00	317.00	314.00	312.00	309.00	310.00	312.00	318.00	316.00	316.00	315.00	311.00	311.00	311.00	322.00	329.00	331.00	333.00	332.00	341.00	338.00	334.00	336.00	339.00	349.00	352.00	360.00	353.00	353.00	341.00	338.00	359.00	362.00	361.00	351.00	340.00	333.00	333.00	337.00	331.00	323.00	322.00	320.00	321.00	323.00	324.00	313.00	311.00	312.00	313.00	322.00	325.00	336.00	337.00	346.00	342.00	339.00	336.00	333.00	324.00	320.00	318.00	319.00	317.00	324.00	322.00	321.00	330.00	345.00	349.00	352.00	354.00	344.00	330.00	332.00	337.00	335.00	331.00	333.00	337.00	342.00	348.00	360.00	365.00	381.00	392.00	383.00	382.00
198.00	197.00	196.00	196.00	197.00	198.00	198.00	197.00	200.00	199.00	199.00	198.00	198.00	199.00	200.00	201.00	197.00	199.00	200.00	199.00	199.00	199.00	200.00	201.00	201.00	200.00	201.00	201.00	201.00	201.00	200.00	203.00	203.00	204.00	203.00	204.00	204.00	203.00	202.00	202.00	201.00	202.00	203.00	203.00	203.00	201.00	203.00	203.00	204.00	204.00	203.00	204.00	205.00	205.00	204.00	204.00	205.00	205.00	205.00	206.00	207.00	212.00	210.00	210.00	212.00	210.00	210.00	210.00	210.00	210.00	210.00	209.00	209.00	209.00	209.00	211.00	211.00	211.00	213.00	214.00	212.00	212.00	213.00	212.00	214.00	214.00	215.00	217.00	214.00	216.00	216.00	215.00	214.00	216.00	223.00	222.00	217.00	216.00	215.00	217.00	217.00	217.00	218.00	219.00	218.00	220.00	222.00	222.00	223.00	225.00	226.00	227.00	231.00	229.00	229.00	229.00	230.00	232.00	235.00	234.00	237.00	241.00	248.00	250.00	240.00	242.00	243.00	246.00	246.00	248.00	249.00	250.00	251.00	253.00	255.00	257.00	257.00	258.00	261.00	263.00	264.00	266.00	268.00	273.00	276.00	281.00	288.00	308.00	305.00	305.00	305.00	314.00	320.00	327.00	317.00	313.00	317.00	303.00	303.00	308.00	313.00	323.00	326.00	326.00	334.00	336.00	340.00	337.00	323.00	314.00	312.00	311.00	310.00	315.00	316.00	321.00	323.00	321.00	318.00	315.00	312.00	312.00	318.00	329.00	336.00	339.00	337.00	343.00	339.00	331.00	333.00	338.00	353.00	353.00	359.00	361.00	362.00	345.00	341.00	363.00	373.00	359.00	349.00	343.00	336.00	341.00	344.00	335.00	329.00	336.00	332.00	331.00	335.00	335.00	320.00	314.00	315.00	313.00	322.00	333.00	338.00	344.00	348.00	357.00	350.00	349.00	347.00	328.00	325.00	325.00	323.00	319.00	319.00	319.00	321.00	323.00	343.00	343.00	344.00	350.00	354.00	332.00	330.00	335.00	338.00	331.00	334.00	337.00	345.00	352.00	365.00	369.00	382.00	387.00	389.00	391.00
196.00	196.00	197.00	197.00	197.00	197.00	197.00	198.00	200.00	200.00	198.00	199.00	199.00	199.00	199.00	198.00	198.00	200.00	198.00	199.00	198.00	199.00	201.00	200.00	200.00	201.00	202.00	202.00	202.00	202.00	201.00	199.00	201.00	202.00	202.00	203.00	202.00	202.00	203.00	203.00	202.00	202.00	203.00	203.00	203.00	204.00	202.00	203.00	204.00	204.00	205.00	205.00	205.00	205.00	205.00	204.00	205.00	205.00	206.00	206.00	207.00	215.00	210.00	208.00	208.00	211.00	207.00	208.00	207.00	209.00	209.00	210.00	209.00	209.00	211.00	212.00	212.00	212.00	214.00	212.00	213.00	212.00	214.00	213.00	214.00	215.00	214.00	214.00	215.00	216.00	218.00	216.00	215.00	216.00	218.00	217.00	218.00	218.00	218.00	216.00	216.00	216.00	218.00	218.00	219.00	220.00	222.00	223.00	223.00	224.00	226.00	232.00	230.00	230.00	231.00	232.00	233.00	234.00	235.00	235.00	237.00	236.00	238.00	240.00	240.00	241.00	244.00	243.00	245.00	250.00	250.00	250.00	251.00	254.00	255.00	257.00	256.00	259.00	264.00	269.00	276.00	275.00	269.00	273.00	274.00	276.00	282.00	295.00	295.00	298.00	300.00	306.00	312.00	313.00	302.00	294.00	293.00	297.00	305.00	307.00	305.00	306.00	306.00	309.00	313.00	318.00	322.00	326.00	321.00	316.00	316.00	313.00	313.00	315.00	318.00	324.00	328.00	327.00	327.00	326.00	318.00	315.00	318.00	327.00	333.00	335.00	335.00	339.00	340.00	339.00	338.00	338.00	342.00	352.00	360.00	358.00	359.00	351.00	347.00	356.00	368.00	367.00	364.00	356.00	349.00	349.00	352.00	341.00	342.00	349.00	350.00	349.00	344.00	337.00	324.00	317.00	317.00	319.00	324.00	331.00	354.00	364.00	365.00	370.00	375.00	370.00	359.00	341.00	338.00	343.00	349.00	339.00	325.00	324.00	323.00	323.00	329.00	330.00	335.00	334.00	341.00	353.00	348.00	343.00	339.00	338.00	348.00	355.00	354.00	354.00	361.00	365.00	375.00	382.00	398.00	404.00
198.00	198.00	198.00	197.00	197.00	197.00	198.00	197.00	199.00	198.00	198.00	198.00	200.00	200.00	199.00	198.00	199.00	201.00	200.00	201.00	199.00	199.00	200.00	200.00	200.00	200.00	202.00	202.00	202.00	202.00	202.00	201.00	201.00	202.00	203.00	202.00	203.00	203.00	203.00	202.00	202.00	202.00	203.00	203.00	204.00	204.00	203.00	203.00	204.00	205.00	204.00	204.00	205.00	205.00	205.00	204.00	205.00	206.00	206.00	206.00	207.00	213.00	208.00	209.00	207.00	207.00	208.00	209.00	210.00	210.00	210.00	210.00	210.00	212.00	214.00	214.00	213.00	211.00	212.00	213.00	213.00	214.00	213.00	214.00	215.00	215.00	214.00	214.00	215.00	219.00	216.00	216.00	215.00	216.00	218.00	218.00	218.00	223.00	220.00	216.00	216.00	216.00	216.00	216.00	218.00	219.00	222.00	222.00	223.00	224.00	225.00	228.00	231.00	231.00	231.00	231.00	233.00	234.00	235.00	236.00	235.00	238.00	237.00	237.00	240.00	242.00	242.00	244.00	245.00	250.00	249.00	249.00	250.00	252.00	254.00	255.00	255.00	259.00	262.00	266.00	272.00	273.00	269.00	272.00	275.00	277.00	281.00	293.00	298.00	301.00	295.00	302.00	300.00	296.00	290.00	291.00	297.00	300.00	300.00	307.00	310.00	308.00	308.00	310.00	313.00	316.00	317.00	321.00	324.00	320.00	319.00	316.00	315.00	317.00	317.00	322.00	327.00	331.00	331.00	324.00	319.00	317.00	318.00	322.00	329.00	332.00	328.00	332.00	334.00	338.00	337.00	339.00	343.00	347.00	351.00	355.00	369.00	359.00	355.00	355.00	368.00	377.00	374.00	361.00	353.00	355.00	359.00	352.00	353.00	346.00	349.00	339.00	334.00	332.00	327.00	322.00	320.00	319.00	327.00	337.00	357.00	367.00	369.00	381.00	379.00	364.00	360.00	342.00	343.00	353.00	359.00	348.00	329.00	325.00	325.00	328.00	334.00	333.00	335.00	335.00	339.00	353.00	353.00	353.00	349.00	345.00	347.00	358.00	364.00	365.00	367.00	371.00	383.00	393.00	414.00	412.00
198.00	198.00	198.00	197.00	197.00	197.00	198.00	197.00	199.00	198.00	198.00	198.00	200.00	200.00	199.00	198.00	199.00	201.00	200.00	201.00	199.00	199.00	200.00	200.00	200.00	200.00	202.00	202.00	202.00	202.00	202.00	201.00	201.00	202.00	203.00	202.00	203.00	203.00	203.00	202.00	202.00	202.00	203.00	203.00	204.00	204.00	203.00	203.00	204.00	205.00	204.00	204.00	205.00	205.00	205.00	204.00	205.00	206.00	206.00	206.00	207.00	213.00	208.00	209.00	207.00	207.00	208.00	209.00	210.00	210.00	210.00	210.00	210.00	212.00	214.00	214.00	213.00	211.00	212.00	213.00	213.00	214.00	213.00	214.00	215.00	215.00	214.00	214.00	215.00	219.00	216.00	216.00	215.00	216.00	218.00	218.00	218.00	223.00	220.00	216.00	216.00	216.00	216.00	216.00	218.00	219.00	222.00	222.00	223.00	224.00	225.00	228.00	231.00	231.00	231.00	231.00	233.00	234.00	235.00	236.00	235.00	238.00	237.00	237.00	240.00	242.00	242.00	244.00	245.00	250.00	249.00	249.00	250.00	252.00	254.00	255.00	255.00	259.00	262.00	266.00	272.00	273.00	269.00	272.00	275.00	277.00	281.00	293.00	298.00	301.00	295.00	302.00	300.00	296.00	290.00	291.00	297.00	300.00	300.00	307.00	310.00	308.00	308.00	310.00	313.00	316.00	317.00	321.00	324.00	320.00	319.00	316.00	315.00	317.00	317.00	322.00	327.00	331.00	331.00	324.00	319.00	317.00	318.00	322.00	329.00	332.00	328.00	332.00	334.00	338.00	337.00	339.00	343.00	347.00	351.00	355.00	369.00	359.00	355.00	355.00	368.00	377.00	374.00	361.00	353.00	355.00	359.00	352.00	353.00	346.00	349.00	339.00	334.00	332.00	327.00	322.00	320.00	319.00	327.00	337.00	357.00	367.00	369.00	381.00	379.00	364.00	360.00	342.00	343.00	353.00	359.00	348.00	329.00	325.00	325.00	328.00	334.00	333.00	335.00	335.00	339.00	353.00	353.00	353.00	349.00	345.00	347.00	358.00	364.00	365.00	367.00	371.00	383.00	393.00	414.00	412.00
200.00	201.00	198.00	198.00	197.00	197.00	199.00	199.00	198.00	198.00	198.00	199.00	199.00	201.00	201.00	200.00	201.00	200.00	199.00	201.00	201.00	199.00	200.00	201.00	201.00	200.00	202.00	202.00	201.00	202.00	202.00	201.00	201.00	202.00	202.00	202.00	202.00	202.00	202.00	203.00	203.00	203.00	203.00	203.00	204.00	204.00	204.00	203.00	204.00	205.00	204.00	204.00	206.00	206.00	206.00	206.00	206.00	206.00	206.00	206.00	206.00	210.00	213.00	209.00	208.00	209.00	211.00	209.00	208.00	210.00	209.00	209.00	211.00	211.00	214.00	214.00	212.00	211.00	212.00	214.00	214.00	214.00	213.00	213.00	212.00	214.00	215.00	214.00	215.00	216.00	216.00	217.00	217.00	216.00	219.00	221.00	224.00	220.00	219.00	217.00	216.00	216.00	217.00	217.00	218.00	219.00	221.00	222.00	222.00	225.00	225.00	229.00	230.00	231.00	232.00	231.00	234.00	234.00	233.00	237.00	241.00	239.00	236.00	236.00	240.00	242.00	244.00	244.00	245.00	249.00	248.00	248.00	248.00	250.00	252.00	252.00	254.00	258.00	262.00	265.00	271.00	274.00	274.00	273.00	275.00	278.00	284.00	297.00	299.00	295.00	291.00	296.00	288.00	288.00	289.00	296.00	305.00	311.00	304.00	304.00	325.00	317.00	314.00	315.00	324.00	328.00	322.00	323.00	327.00	321.00	320.00	317.00	318.00	317.00	318.00	322.00	328.00	332.00	333.00	324.00	321.00	323.00	318.00	328.00	328.00	328.00	328.00	332.00	332.00	333.00	334.00	338.00	344.00	345.00	348.00	352.00	363.00	363.00	369.00	363.00	368.00	382.00	376.00	363.00	360.00	368.00	367.00	356.00	347.00	338.00	334.00	327.00	323.00	324.00	318.00	317.00	320.00	324.00	332.00	339.00	361.00	374.00	378.00	388.00	376.00	368.00	368.00	346.00	349.00	359.00	368.00	359.00	331.00	327.00	328.00	339.00	344.00	341.00	335.00	337.00	339.00	355.00	362.00	361.00	361.00	355.00	355.00	361.00	371.00	374.00	376.00	383.00	397.00	399.00	422.00	418.00
200.00	200.00	203.00	198.00	198.00	198.00	198.00	198.00	199.00	198.00	200.00	199.00	200.00	202.00	203.00	202.00	202.00	201.00	201.00	201.00	201.00	200.00	200.00	200.00	200.00	201.00	202.00	203.00	202.00	202.00	203.00	203.00	202.00	202.00	202.00	203.00	203.00	202.00	202.00	204.00	203.00	204.00	204.00	204.00	204.00	204.00	205.00	205.00	205.00	205.00	205.00	203.00	205.00	205.00	205.00	207.00	206.00	206.00	207.00	207.00	207.00	208.00	208.00	208.00	210.00	211.00	211.00	212.00	216.00	210.00	209.00	210.00	213.00	211.00	210.00	211.00	211.00	211.00	212.00	212.00	213.00	214.00	214.00	215.00	218.00	215.00	216.00	214.00	215.00	214.00	217.00	218.00	217.00	218.00	221.00	222.00	222.00	217.00	217.00	218.00	217.00	217.00	217.00	219.00	220.00	221.00	221.00	222.00	224.00	228.00	226.00	227.00	227.00	227.00	228.00	231.00	231.00	232.00	233.00	234.00	236.00	239.00	238.00	239.00	240.00	241.00	244.00	244.00	245.00	246.00	247.00	250.00	249.00	253.00	253.00	254.00	255.00	257.00	261.00	266.00	267.00	270.00	276.00	279.00	281.00	280.00	283.00	284.00	280.00	280.00	284.00	285.00	288.00	292.00	292.00	301.00	313.00	315.00	309.00	307.00	317.00	322.00	325.00	331.00	338.00	344.00	343.00	339.00	331.00	325.00	323.00	326.00	323.00	320.00	320.00	323.00	327.00	329.00	338.00	331.00	330.00	328.00	325.00	323.00	335.00	338.00	340.00	340.00	340.00	338.00	339.00	336.00	335.00	335.00	338.00	342.00	349.00	353.00	357.00	366.00	365.00	367.00	368.00	372.00	370.00	354.00	350.00	346.00	342.00	321.00	319.00	319.00	320.00	321.00	319.00	320.00	323.00	330.00	339.00	344.00	357.00	363.00	369.00	385.00	380.00	373.00	361.00	355.00	356.00	362.00	370.00	353.00	334.00	334.00	340.00	342.00	354.00	345.00	336.00	340.00	340.00	356.00	361.00	365.00	371.00	367.00	369.00	373.00	380.00	390.00	387.00	393.00	402.00	414.00	429.00	435.00
201.00	202.00	199.00	198.00	198.00	198.00	198.00	199.00	199.00	199.00	199.00	199.00	200.00	200.00	200.00	201.00	201.00	201.00	200.00	200.00	200.00	201.00	202.00	201.00	201.00	201.00	202.00	202.00	203.00	202.00	203.00	203.00	202.00	203.00	203.00	203.00	203.00	202.00	203.00	207.00	206.00	204.00	203.00	203.00	202.00	204.00	206.00	206.00	205.00	205.00	205.00	206.00	205.00	206.00	206.00	206.00	207.00	206.00	207.00	207.00	207.00	208.00	207.00	210.00	208.00	209.00	210.00	212.00	213.00	209.00	213.00	214.00	212.00	210.00	212.00	211.00	212.00	211.00	212.00	212.00	213.00	214.00	214.00	215.00	222.00	219.00	214.00	216.00	215.00	215.00	216.00	215.00	217.00	222.00	219.00	220.00	221.00	219.00	218.00	216.00	217.00	218.00	219.00	218.00	219.00	220.00	221.00	222.00	224.00	225.00	227.00	225.00	226.00	226.00	229.00	229.00	232.00	233.00	233.00	234.00	235.00	237.00	238.00	238.00	239.00	241.00	243.00	244.00	245.00	248.00	249.00	251.00	251.00	253.00	255.00	254.00	257.00	258.00	261.00	265.00	266.00	267.00	272.00	273.00	275.00	277.00	278.00	279.00	281.00	281.00	281.00	290.00	294.00	301.00	297.00	304.00	319.00	319.00	312.00	308.00	314.00	317.00	322.00	327.00	333.00	349.00	350.00	342.00	334.00	331.00	326.00	328.00	326.00	323.00	319.00	321.00	324.00	330.00	337.00	335.00	331.00	325.00	324.00	325.00	332.00	340.00	342.00	344.00	342.00	347.00	347.00	342.00	335.00	334.00	335.00	338.00	342.00	344.00	346.00	358.00	358.00	359.00	367.00	373.00	369.00	352.00	344.00	340.00	337.00	322.00	319.00	322.00	322.00	320.00	322.00	324.00	327.00	334.00	342.00	348.00	361.00	368.00	373.00	384.00	373.00	368.00	360.00	367.00	363.00	362.00	366.00	352.00	340.00	343.00	348.00	355.00	354.00	346.00	340.00	340.00	342.00	357.00	361.00	362.00	370.00	387.00	384.00	383.00	387.00	395.00	392.00	394.00	401.00	406.00	419.00	427.00
202.00	203.00	201.00	200.00	199.00	199.00	199.00	199.00	199.00	199.00	199.00	199.00	200.00	202.00	201.00	202.00	200.00	200.00	201.00	200.00	200.00	202.00	203.00	203.00	201.00	201.00	203.00	203.00	202.00	203.00	203.00	202.00	202.00	203.00	203.00	203.00	202.00	203.00	203.00	204.00	206.00	207.00	203.00	203.00	204.00	206.00	205.00	205.00	205.00	204.00	204.00	207.00	205.00	207.00	207.00	207.00	207.00	207.00	208.00	207.00	207.00	211.00	213.00	210.00	209.00	209.00	212.00	213.00	211.00	209.00	213.00	216.00	215.00	210.00	212.00	214.00	214.00	214.00	213.00	212.00	214.00	215.00	216.00	215.00	215.00	217.00	216.00	215.00	216.00	216.00	216.00	216.00	216.00	220.00	222.00	221.00	219.00	217.00	217.00	217.00	217.00	217.00	218.00	220.00	218.00	221.00	220.00	223.00	224.00	224.00	223.00	227.00	227.00	228.00	228.00	230.00	231.00	232.00	232.00	233.00	234.00	234.00	239.00	237.00	239.00	241.00	244.00	243.00	245.00	247.00	249.00	251.00	251.00	255.00	254.00	256.00	258.00	259.00	262.00	264.00	264.00	267.00	269.00	270.00	271.00	275.00	277.00	280.00	281.00	286.00	289.00	301.00	301.00	306.00	307.00	304.00	315.00	323.00	315.00	310.00	318.00	323.00	325.00	329.00	336.00	347.00	348.00	341.00	341.00	331.00	327.00	328.00	327.00	325.00	322.00	322.00	325.00	328.00	333.00	332.00	328.00	326.00	331.00	323.00	328.00	336.00	338.00	343.00	344.00	350.00	349.00	345.00	339.00	337.00	335.00	338.00	342.00	343.00	342.00	352.00	354.00	354.00	359.00	362.00	359.00	347.00	341.00	337.00	336.00	320.00	322.00	321.00	325.00	323.00	328.00	328.00	331.00	337.00	343.00	350.00	364.00	372.00	382.00	387.00	378.00	371.00	364.00	376.00	368.00	365.00	370.00	349.00	343.00	351.00	356.00	364.00	355.00	347.00	338.00	339.00	341.00	349.00	352.00	356.00	370.00	388.00	390.00	395.00	394.00	392.00	389.00	396.00	412.00	412.00	422.00	430.00
199.00	202.00	200.00	199.00	200.00	201.00	200.00	199.00	199.00	199.00	199.00	199.00	202.00	203.00	201.00	201.00	200.00	201.00	200.00	200.00	201.00	202.00	203.00	203.00	204.00	203.00	203.00	204.00	203.00	202.00	203.00	201.00	203.00	203.00	202.00	203.00	203.00	203.00	203.00	203.00	203.00	204.00	205.00	204.00	204.00	206.00	204.00	205.00	205.00	205.00	205.00	206.00	206.00	207.00	208.00	207.00	208.00	212.00	207.00	207.00	207.00	214.00	214.00	212.00	210.00	216.00	217.00	215.00	215.00	215.00	211.00	215.00	213.00	211.00	212.00	214.00	217.00	215.00	213.00	213.00	214.00	214.00	213.00	217.00	216.00	215.00	215.00	216.00	216.00	217.00	217.00	217.00	219.00	226.00	219.00	221.00	220.00	219.00	218.00	218.00	218.00	217.00	217.00	219.00	221.00	223.00	223.00	221.00	221.00	222.00	223.00	224.00	225.00	226.00	226.00	229.00	230.00	231.00	231.00	234.00	234.00	235.00	236.00	237.00	238.00	241.00	241.00	244.00	246.00	248.00	251.00	250.00	253.00	253.00	255.00	256.00	258.00	259.00	264.00	265.00	265.00	267.00	268.00	272.00	273.00	275.00	275.00	286.00	291.00	293.00	294.00	304.00	306.00	310.00	314.00	315.00	325.00	324.00	316.00	314.00	317.00	320.00	324.00	333.00	340.00	338.00	345.00	347.00	340.00	332.00	333.00	332.00	328.00	328.00	322.00	319.00	321.00	324.00	335.00	339.00	335.00	329.00	334.00	324.00	329.00	338.00	341.00	341.00	344.00	350.00	347.00	343.00	342.00	342.00	342.00	342.00	342.00	340.00	340.00	351.00	351.00	349.00	349.00	354.00	350.00	342.00	338.00	335.00	332.00	322.00	322.00	320.00	325.00	327.00	334.00	336.00	338.00	340.00	347.00	351.00	365.00	374.00	383.00	389.00	380.00	375.00	371.00	375.00	370.00	363.00	366.00	350.00	345.00	357.00	366.00	373.00	356.00	348.00	341.00	340.00	341.00	345.00	351.00	356.00	367.00	380.00	386.00	391.00	389.00	382.00	389.00	395.00	415.00	412.00	418.00	427.00
198.00	198.00	199.00	200.00	201.00	200.00	199.00	201.00	199.00	199.00	200.00	199.00	201.00	205.00	204.00	202.00	200.00	200.00	201.00	201.00	202.00	202.00	202.00	202.00	203.00	203.00	204.00	204.00	204.00	205.00	203.00	202.00	203.00	204.00	203.00	204.00	205.00	204.00	204.00	205.00	204.00	204.00	205.00	204.00	204.00	205.00	205.00	205.00	206.00	205.00	206.00	207.00	208.00	208.00	208.00	208.00	208.00	208.00	208.00	208.00	207.00	208.00	208.00	208.00	208.00	209.00	210.00	211.00	212.00	212.00	216.00	215.00	215.00	212.00	211.00	212.00	212.00	215.00	214.00	214.00	214.00	212.00	214.00	216.00	216.00	216.00	218.00	216.00	216.00	218.00	221.00	226.00	224.00	221.00	223.00	223.00	221.00	219.00	219.00	219.00	220.00	219.00	219.00	221.00	221.00	225.00	221.00	221.00	227.00	225.00	223.00	224.00	224.00	227.00	227.00	228.00	230.00	230.00	231.00	232.00	233.00	235.00	235.00	238.00	238.00	240.00	244.00	248.00	246.00	247.00	250.00	249.00	250.00	254.00	255.00	256.00	260.00	261.00	262.00	262.00	263.00	263.00	267.00	271.00	272.00	275.00	280.00	290.00	285.00	291.00	296.00	305.00	310.00	311.00	312.00	318.00	332.00	323.00	318.00	313.00	314.00	312.00	314.00	318.00	322.00	328.00	331.00	334.00	335.00	328.00	329.00	322.00	318.00	320.00	324.00	323.00	321.00	320.00	326.00	330.00	334.00	336.00	331.00	334.00	335.00	338.00	338.00	339.00	341.00	343.00	344.00	342.00	341.00	342.00	342.00	345.00	350.00	345.00	339.00	344.00	344.00	344.00	342.00	335.00	333.00	329.00	326.00	324.00	325.00	325.00	325.00	324.00	329.00	331.00	338.00	340.00	343.00	347.00	355.00	360.00	375.00	384.00	394.00	396.00	397.00	394.00	384.00	366.00	362.00	358.00	358.00	353.00	346.00	351.00	359.00	369.00	359.00	355.00	349.00	345.00	342.00	347.00	349.00	350.00	358.00	371.00	369.00	369.00	371.00	379.00	393.00	394.00	388.00	388.00	400.00	405.00
198.00	198.00	199.00	199.00	199.00	200.00	201.00	202.00	199.00	200.00	203.00	199.00	200.00	201.00	203.00	202.00	200.00	201.00	201.00	201.00	201.00	202.00	202.00	202.00	203.00	203.00	204.00	204.00	204.00	204.00	203.00	203.00	203.00	204.00	204.00	205.00	205.00	205.00	204.00	205.00	205.00	205.00	205.00	205.00	205.00	205.00	206.00	206.00	207.00	206.00	206.00	207.00	208.00	208.00	208.00	208.00	207.00	210.00	208.00	208.00	208.00	207.00	208.00	209.00	209.00	209.00	210.00	210.00	212.00	212.00	214.00	215.00	215.00	216.00	213.00	213.00	213.00	214.00	214.00	216.00	214.00	214.00	216.00	216.00	215.00	216.00	217.00	216.00	217.00	217.00	221.00	222.00	222.00	223.00	225.00	222.00	219.00	219.00	219.00	218.00	218.00	218.00	221.00	221.00	222.00	224.00	221.00	221.00	222.00	227.00	226.00	225.00	227.00	227.00	229.00	231.00	230.00	231.00	231.00	232.00	234.00	235.00	236.00	237.00	239.00	240.00	244.00	246.00	246.00	247.00	250.00	249.00	251.00	254.00	254.00	256.00	259.00	260.00	261.00	263.00	263.00	266.00	267.00	269.00	269.00	273.00	279.00	288.00	291.00	294.00	298.00	306.00	305.00	304.00	306.00	317.00	332.00	331.00	320.00	315.00	320.00	316.00	315.00	316.00	318.00	321.00	323.00	326.00	326.00	322.00	324.00	321.00	317.00	317.00	322.00	322.00	320.00	315.00	324.00	329.00	330.00	332.00	331.00	333.00	336.00	342.00	340.00	341.00	343.00	342.00	343.00	341.00	339.00	339.00	338.00	339.00	339.00	338.00	337.00	337.00	337.00	336.00	336.00	334.00	332.00	327.00	326.00	326.00	329.00	334.00	331.00	327.00	329.00	330.00	338.00	341.00	344.00	346.00	351.00	355.00	371.00	376.00	379.00	394.00	406.00	400.00	385.00	366.00	362.00	363.00	364.00	355.00	350.00	355.00	361.00	370.00	362.00	355.00	349.00	345.00	344.00	346.00	350.00	354.00	358.00	364.00	366.00	369.00	370.00	374.00	379.00	382.00	386.00	389.00	394.00	396.00
198.00	198.00	198.00	200.00	202.00	201.00	199.00	200.00	200.00	201.00	203.00	200.00	200.00	200.00	201.00	201.00	201.00	201.00	201.00	201.00	201.00	205.00	204.00	203.00	203.00	203.00	204.00	204.00	204.00	204.00	203.00	203.00	203.00	205.00	205.00	205.00	205.00	204.00	206.00	206.00	206.00	204.00	206.00	205.00	205.00	205.00	206.00	206.00	209.00	209.00	208.00	206.00	206.00	208.00	208.00	208.00	208.00	209.00	209.00	208.00	207.00	208.00	209.00	209.00	209.00	209.00	210.00	209.00	212.00	211.00	213.00	211.00	211.00	212.00	215.00	215.00	215.00	215.00	216.00	217.00	217.00	216.00	216.00	215.00	216.00	216.00	216.00	216.00	217.00	217.00	217.00	218.00	220.00	220.00	224.00	222.00	220.00	220.00	218.00	219.00	219.00	218.00	223.00	222.00	222.00	224.00	222.00	220.00	222.00	224.00	225.00	226.00	226.00	226.00	227.00	230.00	231.00	231.00	232.00	233.00	234.00	235.00	236.00	237.00	239.00	240.00	243.00	243.00	246.00	247.00	248.00	248.00	250.00	253.00	254.00	255.00	257.00	259.00	263.00	263.00	266.00	268.00	271.00	272.00	273.00	276.00	277.00	282.00	285.00	288.00	291.00	299.00	299.00	302.00	310.00	311.00	318.00	331.00	321.00	319.00	328.00	322.00	322.00	323.00	321.00	324.00	324.00	326.00	323.00	319.00	319.00	318.00	317.00	316.00	321.00	318.00	316.00	316.00	330.00	331.00	332.00	334.00	337.00	339.00	341.00	340.00	339.00	340.00	339.00	338.00	338.00	339.00	336.00	338.00	337.00	342.00	342.00	338.00	339.00	333.00	335.00	335.00	335.00	331.00	332.00	327.00	327.00	329.00	332.00	337.00	334.00	328.00	330.00	333.00	338.00	342.00	344.00	348.00	352.00	355.00	364.00	370.00	377.00	397.00	406.00	397.00	386.00	368.00	370.00	369.00	364.00	354.00	352.00	360.00	368.00	374.00	362.00	357.00	351.00	349.00	349.00	350.00	350.00	354.00	361.00	366.00	370.00	376.00	380.00	381.00	388.00	387.00	395.00	395.00	397.00	397.00
198.00	198.00	198.00	200.00	202.00	201.00	199.00	200.00	200.00	201.00	203.00	200.00	200.00	200.00	201.00	201.00	201.00	201.00	201.00	201.00	201.00	205.00	204.00	203.00	203.00	203.00	204.00	204.00	204.00	204.00	203.00	203.00	203.00	205.00	205.00	205.00	205.00	204.00	206.00	206.00	206.00	204.00	206.00	205.00	205.00	205.00	206.00	206.00	209.00	209.00	208.00	206.00	206.00	208.00	208.00	208.00	208.00	209.00	209.00	208.00	207.00	208.00	209.00	209.00	209.00	209.00	210.00	209.00	212.00	211.00	213.00	211.00	211.00	212.00	215.00	215.00	215.00	215.00	216.00	217.00	217.00	216.00	216.00	215.00	216.00	216.00	216.00	216.00	217.00	217.00	217.00	218.00	220.00	220.00	224.00	222.00	220.00	220.00	218.00	219.00	219.00	218.00	223.00	222.00	222.00	224.00	222.00	220.00	222.00	224.00	225.00	226.00	226.00	226.00	227.00	230.00	231.00	231.00	232.00	233.00	234.00	235.00	236.00	237.00	239.00	240.00	243.00	243.00	246.00	247.00	248.00	248.00	250.00	253.00	254.00	255.00	257.00	259.00	263.00	263.00	266.00	268.00	271.00	272.00	273.00	276.00	277.00	282.00	285.00	288.00	291.00	299.00	299.00	302.00	310.00	311.00	318.00	331.00	321.00	319.00	328.00	322.00	322.00	323.00	321.00	324.00	324.00	326.00	323.00	319.00	319.00	318.00	317.00	316.00	321.00	318.00	316.00	316.00	330.00	331.00	332.00	334.00	337.00	339.00	341.00	340.00	339.00	340.00	339.00	338.00	338.00	339.00	336.00	338.00	337.00	342.00	342.00	338.00	339.00	333.00	335.00	335.00	335.00	331.00	332.00	327.00	327.00	329.00	332.00	337.00	334.00	328.00	330.00	333.00	338.00	342.00	344.00	348.00	352.00	355.00	364.00	370.00	377.00	397.00	406.00	397.00	386.00	368.00	370.00	369.00	364.00	354.00	352.00	360.00	368.00	374.00	362.00	357.00	351.00	349.00	349.00	350.00	350.00	354.00	361.00	366.00	370.00	376.00	380.00	381.00	388.00	387.00	395.00	395.00	397.00	397.00
198.00	199.00	199.00	199.00	200.00	200.00	201.00	202.00	202.00	200.00	201.00	201.00	201.00	200.00	201.00	201.00	200.00	201.00	201.00	201.00	201.00	203.00	203.00	205.00	206.00	205.00	204.00	203.00	204.00	204.00	205.00	205.00	205.00	205.00	206.00	206.00	206.00	205.00	206.00	206.00	206.00	205.00	206.00	205.00	206.00	206.00	206.00	206.00	207.00	207.00	207.00	208.00	207.00	208.00	210.00	209.00	209.00	209.00	210.00	208.00	208.00	208.00	209.00	209.00	210.00	210.00	210.00	211.00	210.00	210.00	211.00	211.00	211.00	212.00	212.00	213.00	215.00	217.00	215.00	214.00	215.00	215.00	215.00	215.00	217.00	216.00	217.00	218.00	218.00	218.00	218.00	218.00	218.00	220.00	224.00	219.00	218.00	218.00	220.00	219.00	221.00	221.00	221.00	220.00	223.00	221.00	231.00	227.00	224.00	224.00	223.00	224.00	226.00	229.00	227.00	229.00	228.00	229.00	231.00	232.00	234.00	235.00	235.00	238.00	241.00	242.00	242.00	244.00	244.00	246.00	245.00	248.00	252.00	254.00	253.00	252.00	254.00	258.00	262.00	263.00	266.00	266.00	271.00	274.00	278.00	284.00	290.00	292.00	291.00	289.00	292.00	303.00	299.00	304.00	309.00	314.00	325.00	324.00	320.00	315.00	325.00	335.00	338.00	339.00	337.00	343.00	333.00	329.00	334.00	331.00	332.00	323.00	318.00	314.00	310.00	312.00	313.00	313.00	326.00	333.00	337.00	339.00	339.00	338.00	342.00	339.00	340.00	337.00	336.00	333.00	333.00	333.00	332.00	334.00	340.00	343.00	343.00	342.00	337.00	335.00	333.00	331.00	331.00	330.00	330.00	331.00	332.00	336.00	337.00	338.00	331.00	329.00	335.00	333.00	344.00	348.00	355.00	362.00	361.00	366.00	369.00	384.00	396.00	400.00	399.00	388.00	382.00	365.00	362.00	358.00	355.00	356.00	356.00	363.00	368.00	368.00	358.00	355.00	355.00	356.00	356.00	355.00	356.00	362.00	366.00	384.00	384.00	388.00	396.00	403.00	409.00	414.00	418.00	413.00	409.00	409.00
199.00	198.00	199.00	199.00	199.00	199.00	199.00	200.00	206.00	202.00	201.00	203.00	201.00	201.00	201.00	201.00	200.00	203.00	202.00	202.00	202.00	203.00	204.00	205.00	205.00	204.00	205.00	204.00	205.00	203.00	204.00	206.00	206.00	207.00	207.00	208.00	207.00	205.00	206.00	206.00	206.00	206.00	205.00	206.00	206.00	206.00	206.00	207.00	207.00	208.00	208.00	208.00	208.00	209.00	209.00	210.00	211.00	212.00	210.00	209.00	208.00	208.00	209.00	211.00	210.00	209.00	210.00	210.00	211.00	210.00	211.00	214.00	214.00	214.00	213.00	214.00	216.00	215.00	214.00	213.00	214.00	214.00	214.00	216.00	217.00	216.00	217.00	218.00	219.00	218.00	218.00	218.00	218.00	218.00	222.00	220.00	219.00	219.00	220.00	221.00	221.00	219.00	221.00	222.00	227.00	224.00	223.00	224.00	224.00	224.00	225.00	226.00	226.00	228.00	230.00	231.00	231.00	229.00	230.00	231.00	234.00	233.00	234.00	238.00	241.00	241.00	241.00	242.00	245.00	245.00	245.00	247.00	248.00	252.00	251.00	253.00	254.00	256.00	260.00	264.00	266.00	266.00	269.00	272.00	276.00	282.00	286.00	299.00	296.00	294.00	294.00	305.00	305.00	307.00	309.00	321.00	330.00	314.00	314.00	312.00	325.00	329.00	333.00	336.00	339.00	337.00	328.00	325.00	325.00	324.00	328.00	327.00	320.00	317.00	312.00	313.00	310.00	311.00	327.00	329.00	332.00	334.00	328.00	334.00	340.00	337.00	338.00	339.00	340.00	334.00	333.00	331.00	329.00	330.00	338.00	342.00	340.00	338.00	338.00	336.00	338.00	334.00	331.00	331.00	331.00	335.00	335.00	338.00	340.00	334.00	332.00	335.00	336.00	338.00	341.00	346.00	351.00	358.00	364.00	373.00	377.00	376.00	384.00	398.00	397.00	387.00	379.00	365.00	361.00	357.00	359.00	363.00	365.00	377.00	374.00	369.00	357.00	355.00	357.00	359.00	360.00	363.00	365.00	367.00	368.00	382.00	392.00	394.00	397.00	400.00	409.00	413.00	421.00	418.00	420.00	419.00
199.00	199.00	199.00	199.00	199.00	199.00	199.00	200.00	201.00	205.00	204.00	204.00	201.00	202.00	201.00	201.00	201.00	201.00	201.00	202.00	202.00	203.00	203.00	204.00	204.00	204.00	204.00	204.00	204.00	204.00	205.00	207.00	206.00	207.00	207.00	206.00	207.00	206.00	209.00	207.00	207.00	206.00	206.00	206.00	206.00	207.00	207.00	207.00	207.00	207.00	208.00	209.00	209.00	209.00	210.00	210.00	211.00	213.00	211.00	210.00	211.00	209.00	210.00	210.00	209.00	210.00	211.00	210.00	210.00	211.00	211.00	213.00	213.00	213.00	215.00	214.00	216.00	214.00	215.00	214.00	214.00	214.00	215.00	216.00	216.00	218.00	220.00	222.00	219.00	219.00	219.00	218.00	218.00	220.00	222.00	222.00	219.00	221.00	221.00	220.00	221.00	220.00	223.00	222.00	223.00	222.00	223.00	224.00	224.00	224.00	224.00	227.00	227.00	228.00	227.00	230.00	231.00	232.00	232.00	231.00	232.00	232.00	233.00	237.00	241.00	241.00	242.00	244.00	246.00	246.00	246.00	248.00	248.00	250.00	250.00	251.00	254.00	255.00	259.00	264.00	263.00	265.00	272.00	276.00	276.00	278.00	281.00	296.00	300.00	302.00	299.00	305.00	304.00	309.00	313.00	314.00	323.00	306.00	306.00	314.00	323.00	320.00	319.00	326.00	331.00	336.00	327.00	321.00	322.00	319.00	323.00	319.00	317.00	315.00	311.00	311.00	309.00	311.00	329.00	331.00	327.00	325.00	328.00	335.00	336.00	334.00	334.00	338.00	339.00	335.00	333.00	329.00	327.00	327.00	328.00	333.00	333.00	332.00	333.00	330.00	331.00	337.00	334.00	333.00	332.00	335.00	338.00	340.00	344.00	334.00	331.00	336.00	337.00	337.00	342.00	344.00	348.00	353.00	365.00	375.00	391.00	383.00	382.00	392.00	394.00	387.00	379.00	367.00	363.00	358.00	362.00	369.00	371.00	382.00	384.00	376.00	361.00	358.00	361.00	365.00	364.00	366.00	367.00	368.00	371.00	377.00	381.00	384.00	388.00	392.00	398.00	407.00	413.00	419.00	433.00	431.00
200.00	200.00	200.00	199.00	199.00	199.00	200.00	201.00	201.00	201.00	201.00	202.00	202.00	202.00	204.00	203.00	202.00	201.00	201.00	201.00	203.00	203.00	204.00	204.00	204.00	203.00	205.00	204.00	204.00	205.00	204.00	207.00	208.00	207.00	206.00	206.00	207.00	207.00	208.00	208.00	208.00	208.00	206.00	206.00	207.00	208.00	208.00	209.00	209.00	209.00	208.00	209.00	209.00	210.00	210.00	210.00	212.00	211.00	212.00	211.00	210.00	210.00	210.00	209.00	209.00	209.00	211.00	211.00	210.00	210.00	212.00	212.00	214.00	214.00	213.00	214.00	215.00	215.00	215.00	217.00	217.00	216.00	216.00	217.00	220.00	221.00	222.00	222.00	220.00	220.00	218.00	219.00	218.00	219.00	222.00	221.00	222.00	222.00	219.00	220.00	221.00	221.00	221.00	222.00	222.00	223.00	224.00	226.00	225.00	225.00	225.00	227.00	228.00	228.00	229.00	230.00	230.00	229.00	231.00	235.00	233.00	235.00	234.00	234.00	242.00	240.00	245.00	246.00	248.00	247.00	247.00	247.00	249.00	251.00	252.00	254.00	255.00	257.00	259.00	260.00	262.00	264.00	271.00	275.00	278.00	278.00	282.00	295.00	299.00	301.00	301.00	303.00	297.00	299.00	302.00	309.00	308.00	301.00	309.00	314.00	314.00	313.00	316.00	321.00	327.00	333.00	328.00	325.00	321.00	315.00	313.00	311.00	311.00	311.00	309.00	313.00	306.00	309.00	321.00	322.00	322.00	328.00	334.00	335.00	331.00	331.00	328.00	336.00	338.00	338.00	334.00	331.00	327.00	327.00	328.00	325.00	328.00	330.00	333.00	329.00	329.00	337.00	336.00	334.00	334.00	339.00	345.00	347.00	347.00	336.00	335.00	336.00	338.00	340.00	343.00	344.00	347.00	352.00	367.00	379.00	393.00	391.00	390.00	393.00	395.00	387.00	378.00	367.00	362.00	362.00	368.00	375.00	374.00	387.00	391.00	381.00	362.00	361.00	367.00	369.00	368.00	365.00	368.00	373.00	377.00	379.00	381.00	386.00	391.00	394.00	400.00	402.00	412.00	420.00	439.00	444.00
201.00	200.00	200.00	200.00	200.00	200.00	200.00	200.00	201.00	201.00	201.00	202.00	205.00	204.00	204.00	205.00	203.00	202.00	202.00	202.00	204.00	203.00	202.00	202.00	203.00	204.00	204.00	204.00	204.00	204.00	205.00	205.00	206.00	206.00	206.00	208.00	211.00	209.00	209.00	209.00	208.00	207.00	208.00	206.00	209.00	210.00	208.00	210.00	208.00	208.00	210.00	212.00	209.00	209.00	209.00	210.00	212.00	212.00	211.00	213.00	211.00	211.00	210.00	210.00	210.00	210.00	211.00	211.00	210.00	211.00	216.00	219.00	221.00	220.00	220.00	221.00	220.00	219.00	218.00	221.00	222.00	221.00	221.00	220.00	217.00	218.00	218.00	223.00	226.00	220.00	219.00	219.00	220.00	219.00	222.00	221.00	224.00	221.00	223.00	222.00	221.00	220.00	220.00	220.00	222.00	221.00	222.00	224.00	224.00	225.00	226.00	227.00	228.00	227.00	228.00	231.00	230.00	232.00	232.00	232.00	233.00	233.00	234.00	236.00	239.00	239.00	245.00	247.00	248.00	251.00	250.00	250.00	248.00	251.00	252.00	254.00	256.00	257.00	259.00	261.00	262.00	264.00	268.00	271.00	275.00	276.00	281.00	289.00	287.00	286.00	284.00	287.00	288.00	288.00	289.00	291.00	293.00	297.00	300.00	300.00	306.00	306.00	309.00	313.00	316.00	321.00	321.00	316.00	314.00	309.00	309.00	307.00	305.00	305.00	307.00	308.00	304.00	306.00	316.00	321.00	327.00	334.00	336.00	338.00	330.00	323.00	323.00	332.00	338.00	339.00	337.00	335.00	326.00	324.00	324.00	324.00	328.00	329.00	333.00	331.00	335.00	334.00	338.00	338.00	337.00	349.00	357.00	363.00	356.00	341.00	337.00	340.00	342.00	343.00	346.00	348.00	349.00	353.00	368.00	373.00	379.00	382.00	379.00	391.00	393.00	389.00	381.00	369.00	367.00	369.00	379.00	389.00	387.00	394.00	390.00	376.00	367.00	364.00	372.00	375.00	374.00	370.00	371.00	373.00	375.00	384.00	392.00	396.00	411.00	415.00	412.00	413.00	423.00	430.00	439.00	441.00
201.00	201.00	200.00	200.00	201.00	201.00	201.00	201.00	201.00	201.00	202.00	203.00	205.00	203.00	205.00	203.00	203.00	202.00	202.00	202.00	202.00	203.00	203.00	202.00	203.00	206.00	203.00	203.00	204.00	203.00	205.00	207.00	206.00	206.00	206.00	207.00	208.00	209.00	209.00	208.00	209.00	207.00	208.00	207.00	207.00	208.00	208.00	210.00	208.00	210.00	212.00	213.00	209.00	209.00	210.00	211.00	211.00	210.00	210.00	214.00	212.00	212.00	211.00	211.00	211.00	210.00	210.00	211.00	211.00	214.00	220.00	222.00	224.00	223.00	222.00	224.00	224.00	221.00	221.00	226.00	227.00	224.00	224.00	221.00	218.00	219.00	219.00	220.00	223.00	221.00	220.00	219.00	220.00	220.00	221.00	224.00	223.00	221.00	223.00	224.00	222.00	219.00	220.00	220.00	219.00	222.00	224.00	224.00	224.00	225.00	225.00	227.00	226.00	229.00	228.00	231.00	230.00	231.00	232.00	232.00	236.00	233.00	235.00	236.00	237.00	240.00	238.00	245.00	252.00	256.00	256.00	251.00	249.00	250.00	252.00	251.00	257.00	258.00	258.00	261.00	262.00	263.00	267.00	271.00	277.00	277.00	278.00	280.00	280.00	280.00	281.00	285.00	288.00	292.00	295.00	291.00	302.00	304.00	308.00	308.00	307.00	305.00	308.00	313.00	314.00	313.00	316.00	314.00	312.00	310.00	309.00	307.00	305.00	303.00	305.00	305.00	304.00	308.00	314.00	320.00	326.00	329.00	328.00	334.00	324.00	319.00	322.00	329.00	338.00	341.00	337.00	333.00	329.00	325.00	322.00	322.00	327.00	329.00	330.00	330.00	332.00	332.00	335.00	336.00	338.00	349.00	355.00	356.00	354.00	343.00	341.00	342.00	344.00	342.00	348.00	349.00	351.00	353.00	364.00	364.00	373.00	372.00	374.00	388.00	386.00	388.00	385.00	376.00	371.00	371.00	378.00	391.00	397.00	396.00	384.00	378.00	377.00	366.00	370.00	378.00	381.00	375.00	373.00	377.00	378.00	382.00	388.00	396.00	404.00	406.00	403.00	406.00	414.00	423.00	446.00	455.00
201.00	201.00	200.00	199.00	200.00	201.00	201.00	202.00	201.00	201.00	201.00	202.00	204.00	204.00	204.00	205.00	202.00	202.00	202.00	203.00	202.00	202.00	204.00	203.00	203.00	204.00	203.00	204.00	204.00	205.00	204.00	205.00	207.00	206.00	206.00	206.00	207.00	208.00	209.00	208.00	207.00	207.00	208.00	208.00	209.00	208.00	209.00	209.00	210.00	211.00	210.00	209.00	211.00	209.00	210.00	211.00	213.00	212.00	211.00	211.00	212.00	214.00	216.00	212.00	212.00	211.00	210.00	211.00	213.00	216.00	225.00	225.00	227.00	226.00	229.00	226.00	225.00	223.00	225.00	229.00	228.00	227.00	224.00	222.00	218.00	219.00	219.00	220.00	226.00	221.00	220.00	220.00	220.00	220.00	222.00	222.00	222.00	221.00	222.00	222.00	221.00	220.00	220.00	220.00	220.00	224.00	224.00	227.00	226.00	226.00	229.00	229.00	229.00	232.00	229.00	231.00	231.00	231.00	231.00	233.00	238.00	234.00	241.00	244.00	238.00	238.00	240.00	237.00	247.00	253.00	254.00	250.00	248.00	249.00	250.00	252.00	258.00	262.00	262.00	264.00	264.00	266.00	267.00	269.00	273.00	272.00	272.00	276.00	279.00	282.00	284.00	287.00	289.00	299.00	310.00	298.00	304.00	311.00	314.00	319.00	311.00	310.00	315.00	317.00	313.00	311.00	314.00	314.00	307.00	316.00	310.00	311.00	310.00	305.00	302.00	302.00	304.00	308.00	312.00	316.00	321.00	321.00	327.00	322.00	316.00	316.00	320.00	327.00	335.00	341.00	337.00	336.00	333.00	328.00	323.00	323.00	325.00	327.00	326.00	325.00	330.00	332.00	334.00	334.00	335.00	344.00	349.00	352.00	351.00	345.00	342.00	344.00	345.00	345.00	349.00	351.00	353.00	354.00	359.00	360.00	366.00	367.00	369.00	377.00	381.00	388.00	394.00	381.00	376.00	375.00	382.00	394.00	401.00	392.00	385.00	390.00	372.00	367.00	374.00	381.00	393.00	379.00	378.00	383.00	389.00	381.00	384.00	389.00	400.00	396.00	408.00	419.00	422.00	420.00	437.00	449.00
201.00	201.00	201.00	200.00	200.00	201.00	201.00	202.00	201.00	201.00	202.00	202.00	203.00	205.00	205.00	206.00	202.00	202.00	202.00	202.00	202.00	203.00	204.00	204.00	204.00	204.00	204.00	204.00	204.00	205.00	205.00	205.00	205.00	207.00	206.00	207.00	206.00	207.00	209.00	209.00	207.00	208.00	208.00	209.00	209.00	208.00	209.00	208.00	210.00	209.00	210.00	210.00	209.00	211.00	214.00	211.00	215.00	214.00	213.00	212.00	212.00	213.00	213.00	212.00	210.00	212.00	211.00	212.00	215.00	219.00	227.00	230.00	231.00	232.00	232.00	228.00	226.00	225.00	225.00	227.00	228.00	227.00	224.00	221.00	218.00	219.00	219.00	219.00	224.00	220.00	222.00	221.00	224.00	224.00	221.00	222.00	222.00	224.00	223.00	222.00	223.00	223.00	221.00	222.00	221.00	222.00	224.00	226.00	225.00	224.00	226.00	227.00	228.00	228.00	228.00	230.00	231.00	231.00	231.00	233.00	233.00	236.00	239.00	243.00	244.00	247.00	243.00	238.00	238.00	244.00	249.00	245.00	245.00	246.00	250.00	252.00	255.00	259.00	266.00	266.00	265.00	267.00	269.00	270.00	271.00	272.00	273.00	281.00	283.00	288.00	293.00	294.00	294.00	301.00	307.00	301.00	303.00	313.00	315.00	324.00	325.00	317.00	315.00	318.00	316.00	309.00	306.00	310.00	304.00	312.00	306.00	308.00	307.00	306.00	299.00	303.00	304.00	308.00	309.00	313.00	317.00	315.00	319.00	313.00	315.00	322.00	326.00	327.00	334.00	338.00	335.00	338.00	336.00	337.00	330.00	323.00	320.00	320.00	321.00	326.00	328.00	330.00	333.00	335.00	337.00	342.00	345.00	350.00	351.00	345.00	339.00	340.00	345.00	347.00	349.00	351.00	354.00	359.00	362.00	365.00	372.00	371.00	371.00	377.00	386.00	397.00	403.00	389.00	383.00	380.00	387.00	399.00	400.00	393.00	388.00	384.00	370.00	372.00	375.00	386.00	399.00	381.00	382.00	386.00	393.00	385.00	386.00	388.00	390.00	395.00	421.00	426.00	433.00	425.00	429.00	434.00
