125.00	114.00	113.00	122.00	134.00	131.00	120.00	122.00	127.00	128.00	122.00	116.00	124.00	123.00	117.00	113.00	115.00	118.00	112.00	111.00	113.00	113.00	111.00	112.00	111.00	111.00	111.00	111.00	133.00	144.00	161.00	146.00	138.00	134.00	134.00	135.00	135.00	136.00	135.00	136.00	149.00	171.00	150.00	157.00	162.00	186.00	192.00	180.00	286.00	378.00	417.00	345.00	326.00	326.00	340.00	370.00	442.00	520.00	591.00	559.00	409.00	261.00	163.00	146.00	144.00	145.00	146.00	147.00	148.00	146.00	149.00	148.00	146.00	147.00	150.00	150.00	154.00	170.00	152.00	150.00	151.00	153.00	156.00	149.00	152.00	164.00	172.00	165.00	169.00	164.00	167.00	256.00	276.00	260.00	261.00	272.00	339.00	445.00	582.00	691.00	985.00	870.00	797.00	752.00	822.00	1095.00	849.00	671.00	545.00	454.00	462.00	549.00	664.00	790.00	975.00	788.00	807.00	922.00	1108.00	997.00	892.00	790.00	743.00	1002.00	1053.00	1097.00	1034.00	990.00	972.00	896.00	835.00	716.00	842.00	841.00	855.00	812.00	772.00	715.00	741.00	778.00	702.00	738.00	753.00	903.00	969.00	940.00	1000.00	1065.00	1180.00	1244.00	1302.00	1376.00	1387.00	1336.00	1279.00	1299.00	1377.00	1481.00	1604.00	1592.00	1586.00	1506.00	1481.00	1463.00	1443.00	1439.00	1422.00	1392.00	1402.00	1400.00	1364.00	1371.00	1491.00	1487.00	1528.00	1637.00	1545.00	1370.00	1117.00	992.00	949.00	908.00	872.00	869.00	942.00	1017.00	951.00	854.00	769.00	770.00	767.00	801.00	840.00	912.00	990.00	904.00	887.00	833.00	742.00	508.00	480.00	468.00	437.00	543.00	600.00	618.00	569.00	572.00	563.00	545.00	545.00	546.00	557.00	533.00	499.00	475.00	379.00	545.00	642.00	543.00	638.00	463.00	363.00	351.00	365.00	361.00	359.00	359.00	357.00	344.00	343.00	340.00	339.00	347.00	352.00	341.00	330.00	324.00	345.00	349.00	383.00	370.00	355.00	359.00	359.00	340.00	331.00	335.00	336.00	333.00	336.00	338.00	336.00	337.00	340.00	345.00
125.00	112.00	114.00	121.00	134.00	133.00	116.00	113.00	115.00	122.00	118.00	112.00	123.00	122.00	114.00	121.00	124.00	120.00	115.00	109.00	111.00	111.00	110.00	112.00	112.00	111.00	112.00	113.00	133.00	148.00	169.00	148.00	147.00	129.00	134.00	135.00	135.00	135.00	136.00	138.00	143.00	146.00	152.00	155.00	166.00	159.00	163.00	178.00	280.00	339.00	409.00	268.00	273.00	294.00	365.00	397.00	471.00	524.00	613.00	574.00	423.00	256.00	156.00	146.00	145.00	145.00	144.00	149.00	148.00	147.00	145.00	144.00	146.00	150.00	151.00	148.00	152.00	179.00	149.00	152.00	154.00	152.00	154.00	151.00	149.00	180.00	151.00	163.00	165.00	164.00	168.00	233.00	260.00	249.00	265.00	269.00	350.00	522.00	647.00	755.00	959.00	772.00	687.00	812.00	945.00	1085.00	879.00	704.00	547.00	438.00	453.00	631.00	687.00	735.00	977.00	744.00	832.00	969.00	1032.00	918.00	793.00	705.00	759.00	949.00	954.00	945.00	907.00	810.00	798.00	730.00	714.00	695.00	852.00	898.00	857.00	789.00	702.00	705.00	742.00	758.00	698.00	710.00	765.00	835.00	865.00	914.00	1054.00	1139.00	1298.00	1360.00	1326.00	1360.00	1394.00	1420.00	1287.00	1324.00	1372.00	1451.00	1550.00	1541.00	1507.00	1440.00	1429.00	1430.00	1408.00	1418.00	1387.00	1345.00	1341.00	1341.00	1390.00	1452.00	1446.00	1455.00	1518.00	1603.00	1543.00	1374.00	1121.00	1050.00	1004.00	939.00	908.00	922.00	1061.00	1195.00	1033.00	902.00	781.00	786.00	782.00	797.00	835.00	887.00	1005.00	962.00	882.00	839.00	780.00	496.00	473.00	486.00	445.00	515.00	588.00	608.00	584.00	565.00	569.00	552.00	551.00	554.00	562.00	528.00	514.00	474.00	379.00	643.00	697.00	561.00	584.00	457.00	369.00	367.00	372.00	364.00	360.00	359.00	357.00	348.00	348.00	339.00	348.00	352.00	346.00	339.00	321.00	334.00	338.00	354.00	408.00	384.00	359.00	364.00	340.00	336.00	336.00	338.00	347.00	335.00	341.00	344.00	339.00	342.00	341.00	340.00
124.00	115.00	112.00	124.00	130.00	127.00	111.00	111.00	111.00	121.00	118.00	114.00	124.00	120.00	116.00	117.00	120.00	125.00	119.00	111.00	110.00	111.00	112.00	118.00	111.00	112.00	111.00	114.00	133.00	152.00	181.00	162.00	149.00	132.00	129.00	137.00	138.00	134.00	136.00	138.00	141.00	142.00	145.00	151.00	156.00	154.00	164.00	182.00	220.00	247.00	259.00	242.00	202.00	254.00	275.00	421.00	486.00	498.00	621.00	600.00	386.00	254.00	177.00	147.00	145.00	145.00	145.00	149.00	149.00	147.00	147.00	143.00	148.00	147.00	150.00	153.00	158.00	186.00	151.00	152.00	153.00	155.00	151.00	151.00	168.00	161.00	155.00	161.00	162.00	165.00	170.00	220.00	241.00	248.00	257.00	273.00	372.00	535.00	649.00	724.00	826.00	805.00	658.00	775.00	929.00	1043.00	903.00	688.00	546.00	459.00	421.00	609.00	581.00	647.00	964.00	720.00	838.00	1003.00	942.00	840.00	743.00	645.00	767.00	834.00	868.00	838.00	802.00	680.00	643.00	617.00	651.00	723.00	931.00	969.00	832.00	753.00	673.00	677.00	705.00	674.00	669.00	760.00	728.00	773.00	851.00	936.00	1107.00	1200.00	1309.00	1440.00	1411.00	1419.00	1400.00	1412.00	1322.00	1307.00	1383.00	1422.00	1504.00	1461.00	1432.00	1447.00	1413.00	1399.00	1411.00	1429.00	1387.00	1313.00	1335.00	1410.00	1450.00	1448.00	1433.00	1472.00	1600.00	1619.00	1586.00	1464.00	1267.00	1116.00	1068.00	983.00	980.00	999.00	1103.00	1157.00	967.00	860.00	828.00	802.00	812.00	810.00	845.00	880.00	960.00	965.00	931.00	947.00	836.00	496.00	515.00	539.00	527.00	504.00	574.00	612.00	617.00	571.00	565.00	548.00	553.00	545.00	552.00	535.00	498.00	457.00	383.00	663.00	699.00	574.00	600.00	499.00	392.00	370.00	365.00	361.00	351.00	345.00	355.00	360.00	349.00	352.00	350.00	352.00	344.00	333.00	318.00	329.00	336.00	366.00	435.00	374.00	355.00	344.00	340.00	337.00	343.00	344.00	341.00	337.00	340.00	344.00	343.00	342.00	342.00	341.00
127.00	116.00	115.00	117.00	121.00	122.00	113.00	119.00	118.00	122.00	117.00	121.00	115.00	112.00	112.00	119.00	121.00	133.00	141.00	139.00	123.00	119.00	119.00	113.00	116.00	112.00	112.00	111.00	128.00	152.00	209.00	181.00	150.00	138.00	140.00	144.00	141.00	138.00	145.00	145.00	144.00	138.00	151.00	149.00	157.00	161.00	165.00	164.00	167.00	159.00	159.00	160.00	161.00	177.00	242.00	359.00	369.00	456.00	576.00	497.00	438.00	318.00	231.00	146.00	146.00	144.00	148.00	146.00	144.00	151.00	150.00	150.00	148.00	147.00	150.00	152.00	153.00	153.00	158.00	155.00	154.00	155.00	156.00	155.00	157.00	160.00	157.00	159.00	161.00	167.00	182.00	240.00	265.00	275.00	269.00	268.00	314.00	355.00	470.00	600.00	741.00	643.00	537.00	509.00	593.00	698.00	798.00	772.00	631.00	472.00	427.00	405.00	464.00	540.00	755.00	664.00	845.00	918.00	802.00	707.00	600.00	640.00	707.00	762.00	700.00	560.00	523.00	552.00	611.00	745.00	1016.00	989.00	1027.00	897.00	732.00	671.00	579.00	637.00	674.00	700.00	715.00	749.00	795.00	825.00	907.00	1022.00	1191.00	1304.00	1441.00	1470.00	1431.00	1400.00	1380.00	1343.00	1347.00	1289.00	1314.00	1329.00	1393.00	1356.00	1431.00	1469.00	1382.00	1382.00	1380.00	1384.00	1365.00	1375.00	1393.00	1431.00	1433.00	1388.00	1431.00	1527.00	1558.00	1586.00	1671.00	1696.00	1411.00	1296.00	1277.00	1261.00	1327.00	1274.00	1263.00	1011.00	940.00	941.00	1154.00	1090.00	847.00	850.00	876.00	927.00	1050.00	1138.00	1142.00	1001.00	882.00	600.00	593.00	550.00	617.00	516.00	574.00	563.00	607.00	589.00	562.00	563.00	557.00	513.00	477.00	485.00	434.00	403.00	548.00	684.00	637.00	581.00	633.00	535.00	433.00	369.00	364.00	350.00	360.00	361.00	353.00	356.00	355.00	356.00	351.00	349.00	338.00	312.00	329.00	338.00	341.00	518.00	421.00	358.00	363.00	356.00	349.00	348.00	356.00	361.00	356.00	339.00	338.00	365.00	377.00	351.00	363.00	360.00
130.00	121.00	119.00	121.00	117.00	121.00	118.00	118.00	120.00	122.00	121.00	117.00	114.00	112.00	116.00	112.00	117.00	139.00	149.00	144.00	133.00	141.00	139.00	123.00	112.00	113.00	112.00	111.00	123.00	139.00	165.00	174.00	145.00	142.00	141.00	139.00	137.00	137.00	148.00	169.00	154.00	146.00	153.00	150.00	154.00	158.00	169.00	178.00	170.00	159.00	160.00	165.00	180.00	222.00	253.00	346.00	476.00	584.00	477.00	321.00	299.00	280.00	213.00	146.00	147.00	149.00	149.00	147.00	146.00	149.00	151.00	149.00	152.00	146.00	150.00	149.00	151.00	153.00	154.00	154.00	155.00	154.00	154.00	150.00	161.00	156.00	155.00	159.00	161.00	176.00	191.00	272.00	340.00	288.00	349.00	288.00	273.00	390.00	553.00	738.00	790.00	675.00	566.00	443.00	495.00	632.00	769.00	835.00	742.00	485.00	427.00	386.00	419.00	473.00	548.00	697.00	867.00	832.00	691.00	629.00	555.00	649.00	628.00	671.00	613.00	500.00	496.00	614.00	693.00	875.00	1194.00	1142.00	941.00	789.00	676.00	588.00	603.00	662.00	691.00	720.00	726.00	772.00	838.00	931.00	1014.00	1122.00	1186.00	1311.00	1440.00	1461.00	1421.00	1401.00	1363.00	1358.00	1317.00	1258.00	1249.00	1257.00	1314.00	1366.00	1467.00	1473.00	1394.00	1330.00	1315.00	1349.00	1314.00	1342.00	1379.00	1407.00	1387.00	1384.00	1500.00	1581.00	1633.00	1603.00	1657.00	1674.00	1541.00	1484.00	1423.00	1351.00	1328.00	1346.00	1235.00	997.00	974.00	967.00	1272.00	1248.00	927.00	888.00	919.00	972.00	1220.00	1314.00	1124.00	977.00	868.00	639.00	619.00	577.00	582.00	525.00	590.00	555.00	609.00	604.00	534.00	545.00	549.00	503.00	417.00	428.00	393.00	454.00	591.00	672.00	637.00	603.00	599.00	542.00	494.00	379.00	362.00	358.00	361.00	360.00	349.00	338.00	349.00	348.00	352.00	346.00	335.00	326.00	335.00	341.00	342.00	472.00	391.00	372.00	370.00	359.00	361.00	366.00	397.00	381.00	385.00	359.00	343.00	365.00	372.00	349.00	372.00	376.00
137.00	130.00	119.00	118.00	111.00	115.00	128.00	121.00	125.00	115.00	120.00	129.00	127.00	117.00	129.00	122.00	127.00	132.00	151.00	154.00	146.00	148.00	150.00	135.00	114.00	113.00	112.00	113.00	126.00	133.00	144.00	156.00	141.00	146.00	140.00	134.00	133.00	137.00	146.00	168.00	151.00	144.00	150.00	152.00	151.00	158.00	164.00	175.00	168.00	160.00	156.00	162.00	259.00	293.00	326.00	391.00	568.00	579.00	378.00	227.00	191.00	232.00	161.00	147.00	145.00	147.00	148.00	150.00	150.00	145.00	147.00	152.00	152.00	148.00	149.00	147.00	150.00	153.00	153.00	155.00	154.00	155.00	158.00	154.00	154.00	155.00	156.00	158.00	161.00	205.00	257.00	386.00	420.00	325.00	367.00	271.00	277.00	404.00	582.00	702.00	697.00	631.00	520.00	416.00	409.00	693.00	797.00	913.00	836.00	530.00	472.00	417.00	377.00	409.00	473.00	731.00	806.00	704.00	625.00	546.00	560.00	614.00	543.00	525.00	533.00	488.00	528.00	726.00	817.00	1063.00	1157.00	1078.00	868.00	723.00	633.00	563.00	598.00	619.00	636.00	674.00	737.00	850.00	920.00	1043.00	1107.00	1218.00	1184.00	1280.00	1396.00	1468.00	1439.00	1457.00	1421.00	1383.00	1271.00	1212.00	1204.00	1177.00	1329.00	1387.00	1423.00	1383.00	1348.00	1306.00	1280.00	1314.00	1266.00	1337.00	1370.00	1374.00	1385.00	1414.00	1512.00	1571.00	1586.00	1570.00	1646.00	1611.00	1717.00	1740.00	1589.00	1381.00	1353.00	1370.00	1331.00	1105.00	1049.00	1068.00	1228.00	1325.00	1015.00	988.00	985.00	1058.00	1339.00	1292.00	1059.00	936.00	867.00	663.00	647.00	620.00	588.00	532.00	540.00	554.00	596.00	614.00	538.00	535.00	558.00	502.00	410.00	399.00	385.00	422.00	535.00	640.00	657.00	590.00	579.00	618.00	592.00	405.00	355.00	357.00	367.00	361.00	343.00	353.00	340.00	339.00	336.00	337.00	336.00	321.00	340.00	347.00	347.00	400.00	377.00	398.00	376.00	368.00	372.00	375.00	362.00	378.00	439.00	415.00	360.00	372.00	401.00	355.00	360.00	368.00
129.00	131.00	124.00	116.00	110.00	111.00	131.00	137.00	131.00	123.00	124.00	128.00	133.00	127.00	129.00	129.00	137.00	134.00	138.00	164.00	155.00	156.00	155.00	153.00	114.00	116.00	113.00	122.00	131.00	135.00	134.00	139.00	136.00	147.00	144.00	141.00	137.00	136.00	138.00	144.00	144.00	144.00	143.00	146.00	153.00	161.00	159.00	168.00	161.00	156.00	159.00	160.00	330.00	359.00	358.00	458.00	477.00	448.00	315.00	195.00	161.00	175.00	151.00	149.00	146.00	145.00	149.00	149.00	151.00	146.00	147.00	151.00	155.00	154.00	154.00	153.00	152.00	154.00	145.00	154.00	155.00	157.00	156.00	154.00	155.00	157.00	155.00	158.00	165.00	241.00	352.00	541.00	474.00	372.00	330.00	235.00	303.00	451.00	543.00	546.00	504.00	509.00	423.00	350.00	361.00	754.00	878.00	976.00	872.00	566.00	492.00	445.00	394.00	384.00	501.00	733.00	706.00	621.00	530.00	492.00	523.00	549.00	498.00	446.00	437.00	506.00	587.00	899.00	1073.00	1128.00	1126.00	1001.00	777.00	680.00	594.00	517.00	594.00	581.00	608.00	700.00	765.00	959.00	1048.00	1148.00	1228.00	1324.00	1286.00	1337.00	1392.00	1481.00	1468.00	1475.00	1457.00	1406.00	1274.00	1152.00	1156.00	1145.00	1210.00	1283.00	1377.00	1351.00	1288.00	1303.00	1253.00	1282.00	1295.00	1299.00	1350.00	1378.00	1425.00	1504.00	1497.00	1522.00	1518.00	1558.00	1596.00	1563.00	1685.00	1653.00	1604.00	1432.00	1366.00	1366.00	1363.00	1302.00	1214.00	1226.00	1289.00	1390.00	1146.00	1121.00	1123.00	1203.00	1314.00	1158.00	1029.00	977.00	888.00	659.00	652.00	632.00	598.00	522.00	534.00	573.00	599.00	627.00	542.00	527.00	515.00	473.00	503.00	412.00	393.00	414.00	482.00	588.00	617.00	592.00	581.00	611.00	586.00	410.00	364.00	366.00	366.00	357.00	346.00	352.00	330.00	336.00	338.00	335.00	339.00	325.00	344.00	343.00	349.00	342.00	346.00	381.00	377.00	378.00	357.00	357.00	370.00	365.00	391.00	390.00	401.00	358.00	362.00	376.00	365.00	386.00
111.00	110.00	110.00	115.00	121.00	112.00	134.00	156.00	130.00	136.00	151.00	133.00	130.00	141.00	151.00	137.00	132.00	133.00	137.00	171.00	167.00	181.00	183.00	153.00	142.00	131.00	128.00	131.00	129.00	132.00	135.00	134.00	143.00	144.00	144.00	144.00	135.00	137.00	140.00	141.00	143.00	141.00	140.00	140.00	142.00	145.00	156.00	155.00	153.00	162.00	165.00	163.00	175.00	236.00	247.00	205.00	175.00	169.00	144.00	142.00	145.00	146.00	144.00	142.00	145.00	147.00	150.00	150.00	137.00	136.00	142.00	154.00	147.00	154.00	149.00	153.00	151.00	154.00	158.00	156.00	156.00	158.00	150.00	152.00	156.00	159.00	159.00	160.00	190.00	346.00	522.00	495.00	518.00	510.00	322.00	207.00	292.00	457.00	440.00	382.00	271.00	276.00	278.00	299.00	395.00	907.00	1085.00	1132.00	936.00	698.00	548.00	475.00	432.00	383.00	450.00	476.00	614.00	576.00	434.00	430.00	414.00	422.00	407.00	457.00	468.00	558.00	663.00	909.00	983.00	1035.00	925.00	809.00	621.00	577.00	515.00	492.00	558.00	571.00	598.00	699.00	817.00	1062.00	1249.00	1404.00	1492.00	1523.00	1472.00	1446.00	1411.00	1343.00	1412.00	1414.00	1416.00	1419.00	1304.00	1203.00	1155.00	1125.00	1235.00	1278.00	1251.00	1217.00	1175.00	1173.00	1083.00	1146.00	1225.00	1443.00	1474.00	1524.00	1546.00	1514.00	1484.00	1509.00	1555.00	1556.00	1531.00	1525.00	1513.00	1506.00	1529.00	1487.00	1496.00	1401.00	1416.00	1498.00	1501.00	1513.00	1424.00	1329.00	1152.00	1053.00	1104.00	1140.00	1317.00	1329.00	1118.00	939.00	841.00	655.00	627.00	610.00	578.00	547.00	538.00	556.00	602.00	634.00	506.00	508.00	493.00	535.00	445.00	383.00	393.00	445.00	445.00	597.00	655.00	708.00	588.00	590.00	464.00	387.00	364.00	367.00	361.00	360.00	346.00	358.00	345.00	350.00	352.00	350.00	340.00	335.00	324.00	330.00	336.00	356.00	358.00	360.00	372.00	358.00	390.00	376.00	398.00	389.00	359.00	352.00	346.00	366.00	405.00	372.00	373.00	413.00
111.00	110.00	110.00	115.00	121.00	112.00	134.00	156.00	130.00	136.00	151.00	133.00	130.00	141.00	151.00	137.00	132.00	133.00	137.00	171.00	167.00	181.00	183.00	153.00	142.00	131.00	128.00	131.00	129.00	132.00	135.00	134.00	143.00	144.00	144.00	144.00	135.00	137.00	140.00	141.00	143.00	141.00	140.00	140.00	142.00	145.00	156.00	155.00	153.00	162.00	165.00	163.00	175.00	236.00	247.00	205.00	175.00	169.00	144.00	142.00	145.00	146.00	144.00	142.00	145.00	147.00	150.00	150.00	137.00	136.00	142.00	154.00	147.00	154.00	149.00	153.00	151.00	154.00	158.00	156.00	156.00	158.00	150.00	152.00	156.00	159.00	159.00	160.00	190.00	346.00	522.00	495.00	518.00	510.00	322.00	207.00	292.00	457.00	440.00	382.00	271.00	276.00	278.00	299.00	395.00	907.00	1085.00	1132.00	936.00	698.00	548.00	475.00	432.00	383.00	450.00	476.00	614.00	576.00	434.00	430.00	414.00	422.00	407.00	457.00	468.00	558.00	663.00	909.00	983.00	1035.00	925.00	809.00	621.00	577.00	515.00	492.00	558.00	571.00	598.00	699.00	817.00	1062.00	1249.00	1404.00	1492.00	1523.00	1472.00	1446.00	1411.00	1343.00	1412.00	1414.00	1416.00	1419.00	1304.00	1203.00	1155.00	1125.00	1235.00	1278.00	1251.00	1217.00	1175.00	1173.00	1083.00	1146.00	1225.00	1443.00	1474.00	1524.00	1546.00	1514.00	1484.00	1509.00	1555.00	1556.00	1531.00	1525.00	1513.00	1506.00	1529.00	1487.00	1496.00	1401.00	1416.00	1498.00	1501.00	1513.00	1424.00	1329.00	1152.00	1053.00	1104.00	1140.00	1317.00	1329.00	1118.00	939.00	841.00	655.00	627.00	610.00	578.00	547.00	538.00	556.00	602.00	634.00	506.00	508.00	493.00	535.00	445.00	383.00	393.00	445.00	445.00	597.00	655.00	708.00	588.00	590.00	464.00	387.00	364.00	367.00	361.00	360.00	346.00	358.00	345.00	350.00	352.00	350.00	340.00	335.00	324.00	330.00	336.00	356.00	358.00	360.00	372.00	358.00	390.00	376.00	398.00	389.00	359.00	352.00	346.00	366.00	405.00	372.00	373.00	413.00
115.00	118.00	111.00	109.00	119.00	117.00	143.00	150.00	132.00	134.00	151.00	151.00	138.00	160.00	165.00	148.00	141.00	133.00	135.00	152.00	181.00	166.00	160.00	148.00	138.00	140.00	142.00	133.00	133.00	133.00	134.00	132.00	139.00	147.00	145.00	139.00	133.00	140.00	146.00	148.00	148.00	140.00	143.00	143.00	146.00	146.00	149.00	150.00	154.00	168.00	180.00	178.00	168.00	182.00	171.00	151.00	146.00	143.00	143.00	144.00	145.00	146.00	145.00	143.00	147.00	149.00	147.00	152.00	143.00	174.00	165.00	164.00	150.00	156.00	157.00	153.00	152.00	152.00	154.00	153.00	154.00	155.00	152.00	152.00	157.00	157.00	159.00	160.00	222.00	371.00	564.00	467.00	451.00	378.00	245.00	199.00	243.00	374.00	359.00	280.00	249.00	259.00	275.00	302.00	395.00	910.00	934.00	950.00	927.00	743.00	569.00	487.00	404.00	373.00	383.00	507.00	559.00	496.00	396.00	385.00	405.00	414.00	382.00	430.00	461.00	601.00	706.00	873.00	980.00	976.00	786.00	642.00	536.00	519.00	479.00	495.00	549.00	541.00	618.00	725.00	805.00	1063.00	1229.00	1455.00	1503.00	1497.00	1369.00	1379.00	1320.00	1272.00	1359.00	1315.00	1356.00	1402.00	1402.00	1334.00	1258.00	1145.00	1183.00	1277.00	1287.00	1214.00	1093.00	1033.00	1055.00	1220.00	1338.00	1455.00	1468.00	1506.00	1540.00	1497.00	1510.00	1557.00	1553.00	1572.00	1484.00	1459.00	1429.00	1423.00	1440.00	1434.00	1491.00	1445.00	1414.00	1487.00	1519.00	1549.00	1370.00	1298.00	1067.00	1021.00	1059.00	1186.00	1369.00	1262.00	1025.00	907.00	821.00	644.00	634.00	610.00	563.00	538.00	557.00	593.00	618.00	608.00	560.00	497.00	503.00	560.00	472.00	386.00	423.00	424.00	439.00	597.00	695.00	737.00	604.00	565.00	450.00	382.00	371.00	357.00	357.00	356.00	351.00	363.00	351.00	352.00	349.00	349.00	343.00	341.00	326.00	332.00	345.00	350.00	370.00	374.00	363.00	363.00	437.00	419.00	386.00	377.00	353.00	380.00	358.00	354.00	396.00	485.00	475.00	476.00
121.00	127.00	115.00	112.00	118.00	115.00	140.00	135.00	126.00	133.00	141.00	155.00	144.00	149.00	161.00	151.00	137.00	135.00	141.00	148.00	163.00	162.00	152.00	150.00	138.00	137.00	137.00	140.00	132.00	132.00	135.00	134.00	135.00	147.00	148.00	145.00	138.00	146.00	151.00	155.00	150.00	140.00	141.00	143.00	148.00	149.00	151.00	150.00	154.00	164.00	171.00	169.00	177.00	185.00	158.00	146.00	141.00	137.00	144.00	142.00	144.00	146.00	145.00	147.00	151.00	150.00	149.00	166.00	179.00	268.00	253.00	239.00	183.00	155.00	156.00	159.00	160.00	154.00	155.00	153.00	151.00	148.00	158.00	158.00	160.00	154.00	158.00	162.00	223.00	336.00	508.00	439.00	376.00	394.00	207.00	196.00	212.00	272.00	298.00	267.00	250.00	249.00	279.00	316.00	371.00	821.00	835.00	843.00	887.00	741.00	569.00	456.00	406.00	357.00	370.00	414.00	412.00	378.00	379.00	366.00	389.00	370.00	394.00	431.00	468.00	703.00	813.00	966.00	958.00	841.00	689.00	565.00	490.00	448.00	443.00	540.00	534.00	572.00	632.00	734.00	822.00	996.00	1236.00	1472.00	1465.00	1428.00	1300.00	1329.00	1254.00	1275.00	1242.00	1223.00	1289.00	1363.00	1422.00	1415.00	1327.00	1175.00	1176.00	1262.00	1335.00	1232.00	1070.00	999.00	1179.00	1308.00	1419.00	1469.00	1481.00	1498.00	1492.00	1462.00	1551.00	1586.00	1536.00	1541.00	1446.00	1433.00	1392.00	1373.00	1385.00	1460.00	1525.00	1500.00	1428.00	1477.00	1542.00	1586.00	1307.00	1263.00	1017.00	987.00	1025.00	1128.00	1273.00	1140.00	938.00	858.00	785.00	638.00	604.00	585.00	551.00	571.00	592.00	630.00	626.00	617.00	573.00	508.00	525.00	571.00	424.00	378.00	389.00	398.00	402.00	577.00	718.00	753.00	666.00	512.00	437.00	369.00	362.00	363.00	367.00	357.00	361.00	355.00	354.00	354.00	357.00	354.00	343.00	338.00	328.00	341.00	344.00	354.00	379.00	352.00	362.00	374.00	414.00	429.00	377.00	356.00	366.00	383.00	370.00	343.00	367.00	540.00	518.00	521.00
142.00	145.00	195.00	153.00	125.00	120.00	110.00	111.00	124.00	131.00	154.00	139.00	135.00	145.00	146.00	161.00	154.00	146.00	147.00	141.00	148.00	149.00	158.00	164.00	153.00	144.00	142.00	135.00	133.00	133.00	136.00	132.00	138.00	145.00	150.00	144.00	135.00	136.00	139.00	142.00	150.00	153.00	140.00	144.00	144.00	143.00	146.00	143.00	138.00	144.00	146.00	151.00	149.00	144.00	142.00	139.00	143.00	144.00	142.00	143.00	142.00	143.00	143.00	153.00	168.00	240.00	286.00	419.00	572.00	805.00	791.00	613.00	474.00	334.00	189.00	149.00	155.00	158.00	160.00	158.00	154.00	153.00	154.00	158.00	161.00	162.00	158.00	187.00	250.00	377.00	437.00	211.00	194.00	194.00	282.00	249.00	184.00	197.00	205.00	216.00	227.00	226.00	222.00	260.00	422.00	691.00	752.00	633.00	601.00	602.00	419.00	321.00	284.00	293.00	385.00	344.00	317.00	310.00	342.00	334.00	348.00	400.00	485.00	575.00	597.00	767.00	735.00	610.00	549.00	461.00	420.00	383.00	417.00	455.00	467.00	468.00	445.00	506.00	563.00	629.00	710.00	955.00	1134.00	1153.00	1111.00	1126.00	1189.00	1115.00	1127.00	1172.00	1148.00	1205.00	1205.00	1229.00	1240.00	1291.00	1306.00	1136.00	1129.00	1169.00	1261.00	1132.00	970.00	908.00	913.00	1051.00	1116.00	1281.00	1250.00	1229.00	1294.00	1302.00	1287.00	1302.00	1421.00	1451.00	1379.00	1330.00	1341.00	1307.00	1372.00	1449.00	1493.00	1556.00	1544.00	1491.00	1484.00	1461.00	1309.00	1183.00	1020.00	973.00	876.00	898.00	962.00	847.00	769.00	741.00	735.00	628.00	593.00	593.00	573.00	620.00	637.00	636.00	626.00	613.00	572.00	476.00	480.00	462.00	424.00	421.00	424.00	408.00	433.00	651.00	722.00	754.00	712.00	561.00	428.00	378.00	364.00	368.00	359.00	352.00	369.00	366.00	348.00	350.00	355.00	352.00	342.00	331.00	341.00	338.00	333.00	373.00	355.00	343.00	357.00	353.00	454.00	460.00	451.00	440.00	386.00	364.00	358.00	337.00	356.00	466.00	577.00	715.00
138.00	139.00	173.00	152.00	131.00	120.00	110.00	110.00	113.00	130.00	152.00	130.00	132.00	141.00	143.00	154.00	161.00	154.00	152.00	141.00	144.00	147.00	160.00	162.00	155.00	144.00	147.00	140.00	135.00	134.00	135.00	134.00	133.00	144.00	149.00	144.00	133.00	133.00	139.00	140.00	145.00	149.00	139.00	143.00	143.00	141.00	145.00	138.00	137.00	140.00	144.00	142.00	140.00	142.00	143.00	141.00	142.00	142.00	141.00	141.00	143.00	142.00	141.00	154.00	215.00	305.00	406.00	549.00	655.00	716.00	632.00	497.00	411.00	236.00	159.00	152.00	156.00	156.00	161.00	159.00	163.00	161.00	158.00	159.00	162.00	166.00	164.00	206.00	221.00	296.00	354.00	212.00	190.00	173.00	246.00	212.00	187.00	200.00	218.00	238.00	215.00	211.00	214.00	261.00	369.00	636.00	663.00	480.00	483.00	495.00	366.00	290.00	253.00	275.00	327.00	332.00	314.00	304.00	338.00	330.00	396.00	497.00	612.00	726.00	756.00	826.00	756.00	509.00	429.00	385.00	379.00	415.00	437.00	478.00	474.00	454.00	422.00	467.00	526.00	593.00	690.00	961.00	1070.00	1058.00	1026.00	1023.00	1188.00	1102.00	1076.00	1125.00	1114.00	1155.00	1157.00	1174.00	1223.00	1271.00	1269.00	1148.00	1143.00	1196.00	1254.00	1129.00	983.00	908.00	887.00	938.00	966.00	1145.00	1117.00	1120.00	1225.00	1248.00	1197.00	1291.00	1347.00	1336.00	1329.00	1314.00	1233.00	1261.00	1299.00	1437.00	1479.00	1525.00	1505.00	1495.00	1492.00	1447.00	1315.00	1161.00	996.00	909.00	871.00	826.00	795.00	783.00	727.00	705.00	709.00	617.00	595.00	608.00	633.00	626.00	642.00	637.00	628.00	595.00	566.00	447.00	443.00	410.00	428.00	443.00	444.00	421.00	430.00	650.00	713.00	764.00	716.00	512.00	398.00	366.00	358.00	363.00	366.00	369.00	368.00	368.00	350.00	353.00	350.00	347.00	344.00	330.00	344.00	343.00	339.00	365.00	363.00	373.00	359.00	354.00	443.00	431.00	461.00	498.00	409.00	412.00	410.00	338.00	356.00	431.00	507.00	590.00
140.00	143.00	140.00	140.00	127.00	124.00	113.00	110.00	110.00	114.00	134.00	127.00	128.00	136.00	135.00	147.00	155.00	163.00	158.00	146.00	147.00	154.00	165.00	158.00	157.00	147.00	143.00	142.00	138.00	134.00	136.00	144.00	134.00	137.00	142.00	141.00	139.00	133.00	135.00	137.00	139.00	144.00	139.00	143.00	142.00	139.00	144.00	142.00	138.00	137.00	139.00	139.00	140.00	142.00	139.00	142.00	143.00	143.00	140.00	139.00	142.00	143.00	146.00	158.00	278.00	391.00	495.00	645.00	828.00	664.00	537.00	419.00	354.00	182.00	150.00	154.00	153.00	156.00	155.00	154.00	157.00	160.00	160.00	152.00	161.00	167.00	164.00	183.00	219.00	300.00	263.00	174.00	173.00	185.00	225.00	209.00	187.00	205.00	249.00	243.00	204.00	240.00	267.00	308.00	284.00	483.00	531.00	413.00	379.00	505.00	456.00	318.00	264.00	279.00	265.00	320.00	326.00	307.00	319.00	359.00	459.00	600.00	728.00	802.00	824.00	720.00	626.00	429.00	370.00	383.00	417.00	411.00	438.00	505.00	495.00	459.00	427.00	445.00	503.00	568.00	697.00	823.00	858.00	894.00	967.00	955.00	1051.00	1065.00	1068.00	1097.00	1151.00	1179.00	1176.00	1211.00	1259.00	1270.00	1287.00	1188.00	1094.00	1090.00	1175.00	1113.00	975.00	909.00	896.00	908.00	888.00	1008.00	986.00	1019.00	1119.00	1126.00	1242.00	1307.00	1222.00	1226.00	1285.00	1300.00	1204.00	1243.00	1279.00	1431.00	1490.00	1499.00	1450.00	1510.00	1529.00	1386.00	1194.00	1036.00	1058.00	905.00	857.00	816.00	742.00	735.00	686.00	645.00	667.00	594.00	605.00	656.00	664.00	646.00	647.00	608.00	618.00	587.00	512.00	442.00	433.00	456.00	439.00	439.00	422.00	424.00	430.00	664.00	707.00	764.00	678.00	460.00	382.00	369.00	362.00	366.00	367.00	372.00	370.00	370.00	354.00	357.00	341.00	343.00	342.00	338.00	343.00	346.00	348.00	377.00	372.00	396.00	386.00	397.00	423.00	449.00	476.00	507.00	462.00	528.00	494.00	364.00	351.00	428.00	472.00	510.00
135.00	135.00	123.00	124.00	119.00	114.00	121.00	116.00	112.00	116.00	119.00	132.00	134.00	129.00	130.00	143.00	150.00	155.00	152.00	144.00	145.00	153.00	158.00	158.00	149.00	146.00	145.00	142.00	143.00	138.00	137.00	145.00	143.00	135.00	138.00	142.00	141.00	134.00	133.00	132.00	137.00	139.00	138.00	142.00	139.00	138.00	141.00	138.00	138.00	140.00	138.00	138.00	142.00	141.00	139.00	143.00	143.00	143.00	138.00	139.00	148.00	148.00	150.00	171.00	355.00	547.00	689.00	794.00	909.00	645.00	466.00	380.00	307.00	155.00	151.00	152.00	153.00	154.00	153.00	152.00	155.00	160.00	164.00	157.00	154.00	164.00	163.00	264.00	288.00	238.00	214.00	167.00	170.00	200.00	213.00	223.00	177.00	197.00	221.00	219.00	236.00	367.00	361.00	284.00	275.00	298.00	352.00	313.00	303.00	463.00	374.00	254.00	256.00	244.00	258.00	316.00	311.00	301.00	327.00	414.00	546.00	626.00	729.00	664.00	655.00	569.00	467.00	354.00	385.00	416.00	417.00	403.00	447.00	469.00	465.00	411.00	384.00	411.00	443.00	465.00	547.00	670.00	726.00	794.00	852.00	885.00	1039.00	1139.00	1160.00	1153.00	1208.00	1220.00	1238.00	1246.00	1302.00	1317.00	1373.00	1345.00	1021.00	1002.00	1020.00	1072.00	993.00	930.00	915.00	881.00	866.00	903.00	901.00	931.00	1001.00	983.00	1203.00	1230.00	1155.00	1191.00	1265.00	1321.00	1175.00	1215.00	1254.00	1414.00	1477.00	1467.00	1440.00	1531.00	1554.00	1337.00	1026.00	946.00	990.00	941.00	857.00	766.00	721.00	698.00	628.00	607.00	622.00	597.00	626.00	674.00	662.00	632.00	619.00	583.00	570.00	606.00	457.00	459.00	466.00	480.00	450.00	444.00	449.00	438.00	449.00	685.00	749.00	733.00	570.00	391.00	373.00	366.00	362.00	370.00	366.00	370.00	371.00	372.00	356.00	353.00	342.00	334.00	332.00	342.00	344.00	346.00	372.00	371.00	389.00	384.00	395.00	406.00	413.00	439.00	472.00	487.00	539.00	588.00	464.00	396.00	370.00	475.00	485.00	508.00
120.00	117.00	116.00	111.00	111.00	112.00	118.00	121.00	117.00	113.00	119.00	140.00	143.00	141.00	133.00	138.00	142.00	145.00	151.00	152.00	154.00	156.00	153.00	155.00	183.00	152.00	147.00	146.00	157.00	150.00	144.00	160.00	154.00	135.00	134.00	140.00	146.00	143.00	139.00	133.00	139.00	134.00	138.00	138.00	136.00	138.00	139.00	137.00	138.00	138.00	137.00	139.00	137.00	139.00	141.00	141.00	141.00	137.00	136.00	141.00	152.00	157.00	160.00	269.00	506.00	706.00	883.00	832.00	700.00	444.00	349.00	262.00	198.00	150.00	150.00	148.00	153.00	155.00	158.00	159.00	158.00	172.00	157.00	168.00	162.00	157.00	155.00	234.00	201.00	173.00	167.00	165.00	163.00	173.00	174.00	178.00	170.00	178.00	195.00	211.00	233.00	343.00	303.00	319.00	303.00	212.00	208.00	216.00	215.00	238.00	231.00	230.00	228.00	239.00	291.00	271.00	276.00	312.00	439.00	483.00	608.00	681.00	613.00	422.00	371.00	358.00	304.00	357.00	381.00	386.00	393.00	444.00	486.00	445.00	358.00	285.00	285.00	314.00	302.00	353.00	439.00	569.00	605.00	637.00	684.00	927.00	1297.00	1445.00	1401.00	1288.00	1331.00	1310.00	1312.00	1383.00	1442.00	1465.00	1478.00	1278.00	1089.00	1188.00	1101.00	1036.00	973.00	973.00	938.00	893.00	888.00	857.00	860.00	897.00	942.00	943.00	1069.00	1181.00	1218.00	1288.00	1196.00	1203.00	1130.00	1125.00	1232.00	1408.00	1377.00	1410.00	1530.00	1493.00	1472.00	1392.00	976.00	894.00	853.00	897.00	794.00	725.00	651.00	592.00	575.00	577.00	605.00	627.00	664.00	763.00	683.00	607.00	600.00	617.00	607.00	535.00	480.00	492.00	496.00	505.00	467.00	465.00	462.00	569.00	670.00	759.00	742.00	676.00	482.00	369.00	367.00	389.00	440.00	381.00	390.00	375.00	365.00	368.00	355.00	343.00	344.00	341.00	331.00	340.00	339.00	343.00	388.00	386.00	401.00	395.00	412.00	426.00	527.00	565.00	529.00	567.00	514.00	428.00	404.00	408.00	393.00	470.00	499.00	521.00
120.00	119.00	123.00	115.00	117.00	119.00	114.00	120.00	119.00	117.00	135.00	133.00	135.00	143.00	146.00	145.00	147.00	149.00	154.00	153.00	152.00	152.00	151.00	150.00	155.00	143.00	146.00	156.00	172.00	158.00	148.00	177.00	167.00	140.00	133.00	138.00	146.00	142.00	136.00	127.00	136.00	135.00	136.00	135.00	137.00	138.00	136.00	138.00	138.00	138.00	138.00	141.00	138.00	139.00	140.00	138.00	137.00	138.00	140.00	150.00	171.00	206.00	208.00	279.00	615.00	827.00	939.00	785.00	627.00	396.00	288.00	215.00	165.00	147.00	146.00	149.00	149.00	154.00	159.00	174.00	173.00	198.00	160.00	166.00	164.00	163.00	146.00	156.00	161.00	145.00	159.00	165.00	176.00	177.00	188.00	177.00	167.00	174.00	200.00	200.00	283.00	361.00	340.00	371.00	331.00	203.00	226.00	225.00	229.00	218.00	220.00	225.00	230.00	259.00	280.00	278.00	300.00	343.00	537.00	580.00	600.00	537.00	502.00	368.00	333.00	315.00	300.00	357.00	362.00	369.00	404.00	442.00	463.00	363.00	307.00	283.00	285.00	268.00	298.00	338.00	425.00	584.00	618.00	629.00	674.00	924.00	1173.00	1323.00	1289.00	1174.00	1246.00	1218.00	1237.00	1333.00	1450.00	1464.00	1470.00	1370.00	1171.00	1282.00	1340.00	1162.00	1021.00	940.00	915.00	901.00	925.00	905.00	866.00	889.00	912.00	920.00	1083.00	1103.00	1091.00	1182.00	1140.00	1155.00	1108.00	1146.00	1299.00	1344.00	1363.00	1461.00	1587.00	1544.00	1445.00	1377.00	961.00	878.00	798.00	827.00	764.00	702.00	646.00	620.00	592.00	571.00	583.00	652.00	673.00	674.00	673.00	610.00	614.00	616.00	610.00	569.00	467.00	492.00	510.00	491.00	477.00	465.00	489.00	632.00	686.00	762.00	706.00	644.00	412.00	371.00	380.00	471.00	453.00	434.00	404.00	403.00	363.00	361.00	357.00	347.00	347.00	343.00	331.00	343.00	338.00	351.00	371.00	361.00	367.00	393.00	428.00	429.00	521.00	504.00	529.00	575.00	424.00	406.00	405.00	413.00	412.00	473.00	533.00	589.00
123.00	123.00	127.00	122.00	124.00	120.00	121.00	123.00	122.00	123.00	140.00	136.00	139.00	144.00	148.00	154.00	157.00	154.00	161.00	158.00	146.00	152.00	153.00	146.00	148.00	139.00	146.00	160.00	174.00	161.00	150.00	174.00	174.00	143.00	136.00	133.00	141.00	143.00	131.00	132.00	136.00	133.00	135.00	136.00	137.00	137.00	137.00	139.00	139.00	137.00	137.00	138.00	137.00	139.00	141.00	137.00	137.00	139.00	141.00	152.00	185.00	261.00	277.00	319.00	635.00	745.00	853.00	750.00	543.00	340.00	255.00	201.00	162.00	148.00	145.00	149.00	149.00	150.00	156.00	169.00	167.00	180.00	158.00	160.00	165.00	166.00	162.00	161.00	161.00	142.00	156.00	183.00	177.00	169.00	168.00	170.00	173.00	174.00	203.00	208.00	329.00	305.00	312.00	344.00	265.00	211.00	225.00	218.00	214.00	223.00	229.00	226.00	233.00	250.00	267.00	307.00	319.00	334.00	509.00	597.00	551.00	480.00	419.00	342.00	347.00	293.00	319.00	376.00	359.00	363.00	419.00	393.00	364.00	329.00	377.00	311.00	272.00	263.00	269.00	346.00	428.00	592.00	610.00	615.00	668.00	854.00	1069.00	1128.00	1103.00	1062.00	1153.00	1143.00	1197.00	1279.00	1428.00	1441.00	1471.00	1364.00	1226.00	1327.00	1385.00	1254.00	1084.00	971.00	947.00	944.00	945.00	914.00	877.00	834.00	864.00	896.00	1032.00	1019.00	1048.00	1126.00	1078.00	1083.00	1086.00	1157.00	1288.00	1336.00	1389.00	1397.00	1534.00	1493.00	1364.00	1288.00	921.00	848.00	770.00	754.00	721.00	694.00	596.00	595.00	598.00	588.00	572.00	659.00	662.00	680.00	658.00	615.00	621.00	607.00	600.00	511.00	453.00	493.00	515.00	494.00	489.00	478.00	503.00	606.00	693.00	768.00	691.00	607.00	402.00	361.00	409.00	496.00	466.00	482.00	463.00	434.00	378.00	368.00	351.00	348.00	344.00	345.00	333.00	343.00	344.00	358.00	356.00	359.00	375.00	353.00	379.00	383.00	413.00	443.00	479.00	541.00	407.00	415.00	436.00	474.00	461.00	597.00	674.00	713.00
124.00	124.00	127.00	124.00	125.00	117.00	128.00	124.00	125.00	130.00	142.00	139.00	145.00	150.00	143.00	149.00	157.00	158.00	167.00	187.00	148.00	150.00	145.00	144.00	144.00	140.00	141.00	149.00	160.00	162.00	155.00	156.00	162.00	144.00	143.00	140.00	135.00	139.00	139.00	138.00	133.00	132.00	134.00	135.00	138.00	138.00	138.00	138.00	138.00	138.00	141.00	135.00	141.00	140.00	141.00	136.00	135.00	137.00	142.00	147.00	232.00	282.00	308.00	372.00	583.00	702.00	789.00	625.00	480.00	284.00	239.00	175.00	161.00	148.00	151.00	152.00	151.00	149.00	154.00	170.00	171.00	164.00	158.00	163.00	162.00	165.00	160.00	166.00	163.00	152.00	147.00	161.00	165.00	164.00	163.00	167.00	179.00	183.00	186.00	183.00	274.00	256.00	286.00	346.00	263.00	210.00	229.00	209.00	207.00	232.00	238.00	240.00	264.00	274.00	288.00	301.00	309.00	303.00	434.00	517.00	445.00	406.00	329.00	305.00	309.00	279.00	309.00	383.00	373.00	380.00	423.00	426.00	287.00	394.00	402.00	303.00	250.00	259.00	298.00	378.00	456.00	561.00	523.00	556.00	625.00	802.00	963.00	963.00	971.00	940.00	1037.00	1056.00	1124.00	1290.00	1422.00	1464.00	1498.00	1420.00	1304.00	1384.00	1462.00	1354.00	1141.00	1025.00	991.00	934.00	904.00	867.00	847.00	834.00	835.00	856.00	935.00	954.00	954.00	1036.00	1019.00	1041.00	1086.00	1128.00	1141.00	1321.00	1273.00	1323.00	1422.00	1385.00	1273.00	1168.00	855.00	811.00	771.00	738.00	711.00	672.00	581.00	583.00	577.00	571.00	592.00	656.00	671.00	664.00	642.00	629.00	633.00	580.00	550.00	555.00	461.00	512.00	515.00	498.00	488.00	507.00	508.00	610.00	694.00	751.00	701.00	613.00	411.00	377.00	444.00	480.00	491.00	501.00	448.00	441.00	407.00	371.00	341.00	347.00	343.00	341.00	331.00	347.00	344.00	350.00	356.00	376.00	364.00	353.00	358.00	351.00	458.00	491.00	562.00	639.00	453.00	464.00	482.00	484.00	501.00	742.00	821.00	906.00
123.00	121.00	124.00	123.00	122.00	120.00	124.00	122.00	128.00	136.00	131.00	137.00	141.00	143.00	137.00	140.00	150.00	151.00	152.00	166.00	146.00	138.00	145.00	159.00	148.00	144.00	135.00	137.00	162.00	175.00	163.00	146.00	151.00	142.00	148.00	145.00	135.00	141.00	145.00	146.00	145.00	136.00	135.00	136.00	136.00	136.00	138.00	144.00	144.00	142.00	139.00	137.00	139.00	139.00	139.00	142.00	138.00	137.00	139.00	149.00	198.00	193.00	240.00	469.00	816.00	896.00	734.00	575.00	409.00	210.00	170.00	167.00	159.00	147.00	147.00	148.00	150.00	150.00	169.00	173.00	164.00	154.00	181.00	155.00	158.00	161.00	161.00	159.00	168.00	195.00	170.00	158.00	171.00	170.00	167.00	168.00	165.00	169.00	175.00	222.00	257.00	280.00	308.00	236.00	204.00	211.00	192.00	204.00	202.00	234.00	250.00	259.00	218.00	232.00	293.00	292.00	296.00	305.00	353.00	374.00	283.00	269.00	285.00	277.00	375.00	272.00	291.00	406.00	424.00	450.00	451.00	346.00	279.00	323.00	292.00	263.00	269.00	302.00	312.00	292.00	284.00	425.00	432.00	486.00	507.00	624.00	729.00	726.00	737.00	791.00	951.00	1086.00	1168.00	1264.00	1429.00	1450.00	1478.00	1404.00	1494.00	1504.00	1470.00	1312.00	1291.00	1424.00	1302.00	1084.00	970.00	872.00	916.00	964.00	920.00	907.00	858.00	810.00	884.00	957.00	991.00	1040.00	1044.00	1043.00	1170.00	1079.00	1114.00	1245.00	1379.00	1274.00	1116.00	961.00	777.00	767.00	730.00	712.00	673.00	625.00	576.00	590.00	568.00	567.00	574.00	595.00	586.00	597.00	582.00	610.00	609.00	579.00	560.00	473.00	474.00	514.00	529.00	505.00	529.00	539.00	519.00	538.00	582.00	687.00	652.00	540.00	367.00	468.00	466.00	423.00	434.00	479.00	429.00	413.00	409.00	365.00	352.00	345.00	339.00	334.00	334.00	343.00	355.00	360.00	344.00	355.00	396.00	346.00	354.00	356.00	445.00	598.00	642.00	595.00	651.00	607.00	578.00	597.00	558.00	629.00	692.00	788.00
120.00	122.00	121.00	122.00	116.00	112.00	118.00	116.00	119.00	127.00	127.00	126.00	134.00	135.00	132.00	146.00	149.00	149.00	142.00	149.00	136.00	137.00	147.00	151.00	147.00	146.00	139.00	138.00	161.00	167.00	156.00	146.00	169.00	138.00	146.00	148.00	142.00	134.00	136.00	141.00	143.00	135.00	135.00	135.00	136.00	137.00	140.00	141.00	138.00	137.00	138.00	139.00	138.00	137.00	139.00	141.00	137.00	137.00	138.00	145.00	153.00	158.00	175.00	514.00	769.00	801.00	624.00	484.00	376.00	192.00	167.00	163.00	161.00	147.00	151.00	151.00	150.00	147.00	170.00	177.00	165.00	159.00	182.00	157.00	157.00	158.00	178.00	159.00	189.00	203.00	180.00	160.00	165.00	154.00	160.00	170.00	170.00	171.00	174.00	179.00	196.00	193.00	220.00	196.00	193.00	187.00	200.00	213.00	207.00	220.00	213.00	210.00	243.00	260.00	282.00	308.00	302.00	302.00	276.00	328.00	245.00	259.00	272.00	303.00	379.00	281.00	263.00	358.00	337.00	424.00	397.00	287.00	270.00	276.00	259.00	263.00	288.00	288.00	291.00	274.00	297.00	377.00	427.00	478.00	502.00	576.00	660.00	649.00	670.00	731.00	885.00	974.00	1118.00	1244.00	1363.00	1407.00	1436.00	1408.00	1540.00	1545.00	1486.00	1394.00	1495.00	1535.00	1460.00	1240.00	1038.00	888.00	896.00	953.00	1001.00	1011.00	898.00	784.00	842.00	876.00	928.00	965.00	994.00	1002.00	1072.00	1003.00	1016.00	1096.00	1135.00	1181.00	1006.00	910.00	775.00	738.00	722.00	704.00	667.00	611.00	603.00	602.00	574.00	585.00	611.00	554.00	558.00	552.00	542.00	575.00	562.00	566.00	515.00	464.00	475.00	521.00	500.00	497.00	527.00	536.00	547.00	515.00	521.00	655.00	568.00	442.00	372.00	520.00	476.00	415.00	430.00	461.00	385.00	369.00	369.00	358.00	347.00	341.00	337.00	348.00	344.00	340.00	353.00	354.00	344.00	352.00	360.00	364.00	370.00	363.00	506.00	653.00	603.00	622.00	779.00	729.00	637.00	704.00	634.00	635.00	657.00	673.00
125.00	126.00	123.00	122.00	121.00	122.00	116.00	111.00	113.00	116.00	126.00	139.00	145.00	149.00	154.00	160.00	160.00	160.00	153.00	142.00	140.00	148.00	153.00	147.00	143.00	141.00	140.00	135.00	141.00	145.00	139.00	145.00	146.00	154.00	173.00	163.00	154.00	145.00	140.00	133.00	135.00	134.00	135.00	141.00	141.00	144.00	138.00	136.00	137.00	137.00	137.00	137.00	138.00	139.00	141.00	138.00	136.00	136.00	137.00	141.00	150.00	152.00	159.00	439.00	765.00	617.00	477.00	400.00	331.00	196.00	161.00	156.00	152.00	137.00	144.00	143.00	138.00	146.00	179.00	164.00	156.00	171.00	180.00	160.00	159.00	161.00	160.00	261.00	298.00	289.00	215.00	170.00	164.00	167.00	173.00	175.00	164.00	172.00	174.00	169.00	181.00	198.00	188.00	171.00	191.00	176.00	185.00	188.00	187.00	213.00	215.00	270.00	271.00	282.00	294.00	325.00	338.00	316.00	246.00	226.00	224.00	227.00	219.00	307.00	271.00	246.00	251.00	239.00	257.00	275.00	298.00	250.00	256.00	256.00	263.00	246.00	269.00	268.00	258.00	264.00	272.00	339.00	444.00	505.00	514.00	535.00	537.00	559.00	604.00	650.00	876.00	955.00	1061.00	1125.00	1184.00	1300.00	1419.00	1585.00	1663.00	1613.00	1559.00	1603.00	1665.00	1594.00	1456.00	1282.00	1297.00	1234.00	1131.00	999.00	977.00	980.00	843.00	764.00	757.00	825.00	857.00	878.00	961.00	933.00	911.00	976.00	982.00	906.00	848.00	930.00	882.00	770.00	674.00	680.00	661.00	677.00	628.00	613.00	603.00	616.00	618.00	610.00	588.00	563.00	558.00	564.00	555.00	564.00	611.00	524.00	467.00	489.00	525.00	505.00	487.00	493.00	513.00	549.00	543.00	501.00	487.00	593.00	525.00	408.00	372.00	492.00	474.00	422.00	385.00	436.00	367.00	378.00	388.00	368.00	354.00	347.00	347.00	349.00	346.00	331.00	344.00	332.00	339.00	367.00	350.00	506.00	450.00	375.00	549.00	534.00	588.00	682.00	818.00	1040.00	993.00	1008.00	938.00	738.00	615.00	522.00
126.00	123.00	124.00	123.00	121.00	119.00	112.00	113.00	120.00	129.00	131.00	144.00	150.00	158.00	154.00	160.00	161.00	163.00	153.00	143.00	139.00	148.00	155.00	150.00	136.00	136.00	135.00	133.00	157.00	154.00	138.00	136.00	135.00	158.00	187.00	169.00	156.00	149.00	144.00	135.00	133.00	135.00	133.00	133.00	136.00	148.00	136.00	137.00	137.00	137.00	137.00	138.00	137.00	141.00	140.00	138.00	136.00	135.00	137.00	141.00	148.00	151.00	160.00	445.00	729.00	558.00	425.00	348.00	302.00	174.00	162.00	159.00	155.00	145.00	151.00	148.00	144.00	151.00	202.00	179.00	173.00	197.00	179.00	160.00	161.00	166.00	174.00	359.00	445.00	362.00	262.00	168.00	176.00	183.00	166.00	170.00	161.00	169.00	170.00	174.00	187.00	188.00	179.00	182.00	169.00	173.00	180.00	179.00	175.00	176.00	246.00	279.00	282.00	287.00	329.00	352.00	369.00	308.00	258.00	207.00	210.00	203.00	229.00	284.00	262.00	240.00	240.00	223.00	258.00	262.00	252.00	239.00	240.00	240.00	248.00	243.00	277.00	259.00	257.00	267.00	274.00	331.00	404.00	479.00	515.00	497.00	547.00	558.00	594.00	651.00	811.00	907.00	989.00	1025.00	1139.00	1268.00	1454.00	1600.00	1643.00	1606.00	1651.00	1735.00	1728.00	1572.00	1558.00	1543.00	1371.00	1322.00	1266.00	1182.00	1106.00	1007.00	881.00	810.00	733.00	788.00	824.00	860.00	925.00	903.00	928.00	983.00	953.00	797.00	785.00	847.00	784.00	718.00	664.00	682.00	630.00	624.00	610.00	640.00	602.00	607.00	610.00	607.00	610.00	567.00	580.00	605.00	591.00	572.00	583.00	519.00	490.00	537.00	507.00	493.00	483.00	487.00	498.00	507.00	533.00	516.00	493.00	576.00	482.00	400.00	374.00	451.00	448.00	413.00	380.00	384.00	405.00	399.00	377.00	373.00	356.00	345.00	351.00	351.00	342.00	331.00	338.00	341.00	342.00	385.00	384.00	484.00	456.00	380.00	469.00	579.00	616.00	718.00	888.00	1086.00	1147.00	1163.00	1110.00	804.00	657.00	500.00
135.00	121.00	116.00	117.00	116.00	117.00	119.00	126.00	126.00	131.00	133.00	140.00	143.00	150.00	152.00	147.00	144.00	141.00	138.00	138.00	137.00	141.00	145.00	145.00	144.00	137.00	135.00	133.00	154.00	143.00	149.00	134.00	138.00	149.00	139.00	145.00	149.00	144.00	139.00	133.00	134.00	132.00	133.00	135.00	134.00	136.00	137.00	137.00	141.00	138.00	138.00	137.00	140.00	141.00	141.00	141.00	137.00	134.00	135.00	136.00	144.00	151.00	160.00	357.00	431.00	379.00	351.00	289.00	236.00	166.00	180.00	182.00	157.00	155.00	157.00	159.00	173.00	208.00	247.00	200.00	204.00	206.00	174.00	161.00	173.00	204.00	290.00	291.00	257.00	217.00	197.00	199.00	205.00	209.00	204.00	178.00	175.00	171.00	169.00	168.00	176.00	197.00	177.00	172.00	180.00	178.00	178.00	202.00	195.00	194.00	177.00	190.00	206.00	209.00	209.00	213.00	209.00	209.00	209.00	213.00	224.00	225.00	213.00	230.00	222.00	240.00	231.00	248.00	262.00	254.00	255.00	259.00	251.00	244.00	249.00	265.00	254.00	263.00	277.00	358.00	376.00	407.00	393.00	433.00	440.00	444.00	587.00	557.00	553.00	627.00	754.00	807.00	893.00	1018.00	1255.00	1378.00	1455.00	1639.00	1618.00	1655.00	1766.00	1720.00	1706.00	1693.00	1633.00	1534.00	1537.00	1201.00	1182.00	1278.00	1254.00	1192.00	1036.00	921.00	843.00	759.00	782.00	871.00	834.00	782.00	787.00	886.00	786.00	723.00	738.00	841.00	833.00	752.00	649.00	649.00	597.00	593.00	600.00	614.00	607.00	609.00	603.00	609.00	616.00	642.00	628.00	614.00	566.00	554.00	527.00	512.00	505.00	509.00	487.00	459.00	476.00	464.00	479.00	498.00	491.00	477.00	477.00	488.00	457.00	425.00	390.00	415.00	417.00	416.00	377.00	386.00	400.00	392.00	391.00	371.00	364.00	354.00	350.00	346.00	346.00	333.00	342.00	375.00	367.00	402.00	435.00	435.00	456.00	430.00	582.00	600.00	619.00	705.00	935.00	1049.00	959.00	824.00	821.00	646.00	559.00	429.00
136.00	118.00	118.00	119.00	120.00	121.00	124.00	127.00	126.00	129.00	138.00	143.00	147.00	152.00	150.00	150.00	149.00	147.00	142.00	135.00	133.00	133.00	136.00	142.00	138.00	130.00	127.00	133.00	162.00	139.00	139.00	144.00	144.00	138.00	134.00	136.00	149.00	134.00	133.00	133.00	132.00	132.00	134.00	133.00	133.00	135.00	135.00	136.00	140.00	137.00	135.00	138.00	138.00	140.00	139.00	141.00	139.00	139.00	135.00	141.00	147.00	153.00	164.00	387.00	296.00	311.00	286.00	237.00	183.00	166.00	192.00	187.00	152.00	156.00	158.00	160.00	180.00	197.00	275.00	202.00	206.00	207.00	175.00	164.00	191.00	250.00	254.00	235.00	227.00	223.00	225.00	233.00	221.00	204.00	213.00	183.00	175.00	183.00	179.00	182.00	186.00	185.00	178.00	175.00	180.00	185.00	198.00	191.00	203.00	199.00	180.00	222.00	269.00	265.00	280.00	259.00	244.00	210.00	239.00	256.00	245.00	232.00	236.00	217.00	247.00	234.00	228.00	246.00	248.00	253.00	256.00	257.00	263.00	256.00	240.00	259.00	262.00	272.00	291.00	344.00	346.00	340.00	402.00	428.00	408.00	414.00	546.00	487.00	530.00	647.00	802.00	862.00	921.00	1026.00	1265.00	1460.00	1542.00	1685.00	1581.00	1605.00	1708.00	1724.00	1711.00	1669.00	1616.00	1591.00	1558.00	1212.00	1165.00	1179.00	1248.00	1253.00	1170.00	1039.00	897.00	768.00	771.00	821.00	805.00	709.00	779.00	805.00	725.00	707.00	730.00	851.00	894.00	786.00	676.00	679.00	610.00	597.00	602.00	609.00	608.00	615.00	617.00	604.00	610.00	670.00	639.00	595.00	568.00	545.00	527.00	486.00	482.00	461.00	473.00	476.00	468.00	452.00	488.00	502.00	481.00	452.00	473.00	504.00	576.00	507.00	428.00	417.00	440.00	443.00	393.00	360.00	412.00	416.00	382.00	370.00	371.00	358.00	352.00	354.00	349.00	331.00	341.00	380.00	378.00	399.00	421.00	419.00	462.00	463.00	535.00	596.00	656.00	747.00	1037.00	1056.00	870.00	705.00	691.00	515.00	442.00	395.00
120.00	120.00	121.00	125.00	124.00	122.00	121.00	120.00	125.00	121.00	144.00	145.00	153.00	149.00	139.00	150.00	153.00	158.00	154.00	144.00	135.00	132.00	132.00	134.00	134.00	129.00	127.00	130.00	151.00	147.00	132.00	136.00	155.00	135.00	132.00	139.00	135.00	133.00	133.00	133.00	133.00	133.00	133.00	134.00	133.00	135.00	135.00	135.00	136.00	137.00	141.00	137.00	141.00	138.00	137.00	138.00	140.00	144.00	142.00	147.00	151.00	157.00	170.00	317.00	221.00	231.00	214.00	202.00	166.00	161.00	221.00	213.00	161.00	165.00	185.00	185.00	194.00	199.00	232.00	201.00	209.00	204.00	178.00	172.00	235.00	243.00	248.00	229.00	229.00	231.00	242.00	238.00	221.00	210.00	198.00	184.00	178.00	176.00	183.00	195.00	191.00	176.00	185.00	183.00	191.00	216.00	204.00	192.00	207.00	202.00	197.00	184.00	238.00	268.00	294.00	249.00	226.00	223.00	258.00	267.00	248.00	255.00	260.00	258.00	303.00	225.00	220.00	254.00	261.00	254.00	251.00	261.00	276.00	255.00	250.00	241.00	272.00	280.00	323.00	329.00	314.00	341.00	401.00	385.00	417.00	402.00	452.00	460.00	551.00	691.00	889.00	924.00	988.00	1058.00	1357.00	1513.00	1577.00	1567.00	1552.00	1585.00	1681.00	1701.00	1718.00	1610.00	1622.00	1607.00	1614.00	1225.00	1169.00	1134.00	1143.00	1221.00	1214.00	1084.00	881.00	772.00	780.00	820.00	772.00	702.00	718.00	810.00	710.00	686.00	696.00	989.00	933.00	802.00	715.00	708.00	600.00	590.00	594.00	604.00	623.00	627.00	630.00	608.00	608.00	646.00	636.00	580.00	571.00	555.00	528.00	492.00	466.00	474.00	476.00	474.00	469.00	471.00	480.00	484.00	469.00	464.00	477.00	567.00	555.00	494.00	425.00	426.00	458.00	433.00	381.00	349.00	393.00	394.00	386.00	375.00	373.00	360.00	354.00	363.00	349.00	332.00	343.00	357.00	372.00	374.00	369.00	390.00	481.00	489.00	530.00	581.00	670.00	788.00	1087.00	1015.00	844.00	630.00	599.00	477.00	406.00	395.00
124.00	124.00	124.00	113.00	115.00	114.00	112.00	111.00	118.00	114.00	138.00	148.00	151.00	146.00	138.00	146.00	157.00	160.00	155.00	138.00	134.00	130.00	128.00	133.00	131.00	130.00	129.00	128.00	137.00	137.00	129.00	132.00	144.00	134.00	131.00	136.00	133.00	133.00	132.00	133.00	133.00	135.00	132.00	133.00	133.00	133.00	134.00	135.00	135.00	138.00	144.00	135.00	139.00	137.00	137.00	137.00	140.00	142.00	144.00	142.00	155.00	162.00	192.00	262.00	197.00	191.00	192.00	173.00	158.00	164.00	201.00	223.00	180.00	180.00	210.00	211.00	208.00	214.00	229.00	205.00	208.00	210.00	184.00	213.00	252.00	252.00	237.00	218.00	221.00	221.00	228.00	247.00	239.00	234.00	202.00	191.00	187.00	190.00	195.00	204.00	189.00	190.00	224.00	211.00	202.00	216.00	196.00	219.00	203.00	193.00	180.00	181.00	190.00	194.00	217.00	226.00	219.00	222.00	263.00	260.00	253.00	251.00	257.00	314.00	377.00	239.00	227.00	244.00	246.00	244.00	253.00	261.00	299.00	295.00	282.00	255.00	241.00	264.00	318.00	324.00	333.00	359.00	365.00	375.00	385.00	407.00	479.00	522.00	590.00	705.00	906.00	975.00	1046.00	1128.00	1422.00	1508.00	1483.00	1521.00	1575.00	1630.00	1677.00	1650.00	1607.00	1639.00	1665.00	1647.00	1617.00	1262.00	1201.00	1146.00	1119.00	1193.00	1214.00	1073.00	900.00	820.00	722.00	778.00	746.00	705.00	688.00	725.00	680.00	655.00	689.00	951.00	858.00	761.00	706.00	699.00	591.00	598.00	601.00	604.00	605.00	619.00	620.00	615.00	598.00	646.00	584.00	555.00	567.00	521.00	501.00	491.00	483.00	498.00	482.00	489.00	484.00	465.00	474.00	471.00	461.00	483.00	482.00	546.00	540.00	500.00	424.00	421.00	435.00	412.00	372.00	349.00	388.00	438.00	410.00	366.00	367.00	360.00	357.00	354.00	347.00	326.00	344.00	343.00	359.00	366.00	346.00	454.00	508.00	535.00	534.00	617.00	757.00	908.00	1063.00	992.00	920.00	604.00	503.00	438.00	382.00	394.00
124.00	120.00	119.00	113.00	111.00	111.00	122.00	129.00	126.00	121.00	129.00	139.00	134.00	136.00	144.00	143.00	142.00	145.00	142.00	135.00	131.00	131.00	129.00	127.00	128.00	129.00	130.00	130.00	130.00	129.00	130.00	131.00	132.00	131.00	132.00	133.00	134.00	136.00	135.00	135.00	140.00	139.00	133.00	134.00	133.00	133.00	134.00	133.00	134.00	137.00	136.00	136.00	137.00	137.00	137.00	140.00	143.00	151.00	144.00	147.00	170.00	240.00	325.00	201.00	186.00	183.00	181.00	164.00	156.00	172.00	192.00	330.00	296.00	250.00	375.00	442.00	306.00	266.00	330.00	233.00	215.00	201.00	205.00	244.00	238.00	232.00	232.00	200.00	209.00	220.00	232.00	227.00	222.00	219.00	202.00	209.00	219.00	205.00	211.00	206.00	235.00	246.00	215.00	224.00	218.00	223.00	237.00	238.00	206.00	189.00	209.00	265.00	253.00	195.00	284.00	308.00	236.00	218.00	286.00	280.00	270.00	304.00	274.00	394.00	527.00	354.00	294.00	235.00	235.00	244.00	246.00	250.00	303.00	348.00	319.00	301.00	281.00	264.00	255.00	272.00	289.00	304.00	306.00	324.00	370.00	465.00	516.00	605.00	735.00	799.00	998.00	1052.00	1075.00	1198.00	1471.00	1509.00	1557.00	1626.00	1624.00	1592.00	1511.00	1488.00	1560.00	1628.00	1622.00	1606.00	1584.00	1427.00	1314.00	1174.00	1112.00	1096.00	921.00	953.00	870.00	780.00	760.00	797.00	750.00	692.00	675.00	660.00	639.00	638.00	657.00	681.00	682.00	675.00	635.00	622.00	589.00	626.00	619.00	599.00	594.00	624.00	609.00	593.00	636.00	592.00	553.00	519.00	546.00	526.00	504.00	512.00	535.00	511.00	487.00	478.00	462.00	478.00	437.00	488.00	452.00	434.00	447.00	483.00	497.00	488.00	468.00	392.00	385.00	365.00	356.00	356.00	348.00	399.00	388.00	351.00	393.00	356.00	347.00	350.00	339.00	330.00	322.00	327.00	338.00	357.00	350.00	511.00	539.00	536.00	614.00	658.00	682.00	769.00	862.00	709.00	686.00	514.00	426.00	384.00	382.00	371.00
124.00	125.00	128.00	131.00	128.00	124.00	127.00	127.00	125.00	122.00	128.00	131.00	136.00	139.00	145.00	145.00	137.00	140.00	139.00	134.00	131.00	132.00	129.00	129.00	126.00	129.00	129.00	131.00	154.00	130.00	139.00	131.00	134.00	132.00	131.00	134.00	136.00	136.00	141.00	140.00	138.00	141.00	138.00	141.00	135.00	133.00	134.00	133.00	134.00	135.00	134.00	136.00	136.00	136.00	138.00	140.00	142.00	149.00	151.00	146.00	169.00	247.00	262.00	195.00	190.00	183.00	172.00	159.00	157.00	183.00	195.00	342.00	423.00	363.00	513.00	507.00	394.00	428.00	394.00	278.00	219.00	214.00	205.00	239.00	223.00	218.00	215.00	202.00	202.00	214.00	213.00	215.00	216.00	205.00	217.00	220.00	215.00	220.00	228.00	212.00	220.00	234.00	224.00	230.00	224.00	235.00	242.00	221.00	199.00	192.00	217.00	284.00	275.00	229.00	283.00	269.00	233.00	223.00	318.00	305.00	285.00	292.00	277.00	394.00	486.00	434.00	367.00	283.00	236.00	246.00	256.00	303.00	323.00	290.00	273.00	303.00	266.00	256.00	282.00	313.00	320.00	294.00	309.00	341.00	382.00	482.00	606.00	724.00	817.00	903.00	1047.00	1050.00	1111.00	1219.00	1467.00	1551.00	1602.00	1656.00	1557.00	1581.00	1481.00	1433.00	1521.00	1627.00	1592.00	1578.00	1614.00	1355.00	1238.00	1170.00	1133.00	1105.00	947.00	837.00	825.00	787.00	791.00	770.00	775.00	707.00	646.00	642.00	625.00	647.00	674.00	648.00	646.00	638.00	625.00	627.00	589.00	632.00	627.00	601.00	579.00	634.00	616.00	609.00	643.00	556.00	538.00	530.00	545.00	528.00	533.00	520.00	514.00	512.00	492.00	469.00	469.00	493.00	456.00	504.00	436.00	428.00	449.00	481.00	483.00	466.00	456.00	366.00	354.00	361.00	348.00	348.00	335.00	357.00	389.00	352.00	364.00	361.00	340.00	334.00	330.00	345.00	329.00	329.00	342.00	381.00	357.00	500.00	565.00	561.00	601.00	529.00	549.00	621.00	745.00	610.00	563.00	438.00	378.00	353.00	350.00	357.00
120.00	124.00	127.00	136.00	134.00	129.00	128.00	129.00	131.00	121.00	130.00	129.00	137.00	142.00	146.00	141.00	144.00	140.00	138.00	141.00	127.00	129.00	131.00	128.00	129.00	131.00	130.00	133.00	140.00	134.00	133.00	135.00	142.00	132.00	131.00	131.00	132.00	132.00	145.00	139.00	135.00	136.00	138.00	150.00	142.00	134.00	134.00	133.00	135.00	134.00	134.00	136.00	136.00	136.00	137.00	140.00	135.00	138.00	144.00	148.00	159.00	184.00	188.00	193.00	195.00	177.00	168.00	158.00	155.00	182.00	211.00	300.00	495.00	439.00	613.00	564.00	572.00	546.00	395.00	242.00	214.00	217.00	212.00	227.00	212.00	198.00	203.00	197.00	200.00	204.00	201.00	222.00	228.00	223.00	209.00	214.00	232.00	223.00	218.00	225.00	220.00	242.00	236.00	234.00	239.00	248.00	239.00	207.00	217.00	193.00	234.00	285.00	306.00	285.00	288.00	300.00	258.00	266.00	312.00	286.00	284.00	297.00	288.00	325.00	396.00	532.00	451.00	369.00	264.00	232.00	253.00	346.00	331.00	289.00	258.00	296.00	285.00	271.00	302.00	292.00	274.00	304.00	351.00	371.00	414.00	543.00	687.00	778.00	877.00	1046.00	1019.00	1067.00	1162.00	1246.00	1453.00	1554.00	1630.00	1622.00	1510.00	1528.00	1418.00	1403.00	1533.00	1595.00	1589.00	1575.00	1600.00	1360.00	1352.00	1285.00	1164.00	1108.00	969.00	833.00	809.00	796.00	793.00	788.00	795.00	768.00	671.00	659.00	624.00	653.00	647.00	614.00	624.00	637.00	597.00	625.00	586.00	625.00	613.00	596.00	571.00	623.00	597.00	586.00	562.00	559.00	531.00	544.00	553.00	541.00	544.00	518.00	522.00	492.00	466.00	496.00	487.00	488.00	460.00	450.00	417.00	377.00	422.00	432.00	452.00	436.00	443.00	365.00	353.00	351.00	343.00	336.00	336.00	334.00	340.00	342.00	339.00	346.00	329.00	336.00	337.00	346.00	325.00	333.00	344.00	401.00	368.00	426.00	508.00	496.00	488.00	474.00	499.00	555.00	648.00	517.00	465.00	369.00	351.00	361.00	336.00	329.00
120.00	124.00	128.00	134.00	128.00	129.00	127.00	123.00	125.00	121.00	131.00	130.00	129.00	133.00	144.00	147.00	152.00	140.00	137.00	126.00	128.00	129.00	132.00	131.00	130.00	130.00	130.00	137.00	138.00	136.00	141.00	133.00	133.00	137.00	131.00	134.00	134.00	134.00	137.00	138.00	148.00	142.00	137.00	142.00	141.00	132.00	134.00	134.00	134.00	133.00	132.00	136.00	136.00	137.00	139.00	142.00	141.00	143.00	143.00	147.00	157.00	166.00	172.00	187.00	180.00	171.00	166.00	161.00	156.00	180.00	206.00	288.00	466.00	519.00	726.00	685.00	624.00	567.00	259.00	209.00	206.00	225.00	230.00	209.00	192.00	191.00	201.00	195.00	194.00	198.00	209.00	245.00	250.00	229.00	275.00	275.00	225.00	225.00	231.00	240.00	252.00	235.00	227.00	241.00	245.00	253.00	241.00	215.00	242.00	205.00	277.00	295.00	312.00	315.00	280.00	302.00	236.00	252.00	310.00	281.00	288.00	299.00	286.00	323.00	415.00	548.00	510.00	417.00	303.00	229.00	241.00	336.00	278.00	259.00	253.00	268.00	332.00	297.00	286.00	289.00	286.00	351.00	373.00	411.00	457.00	606.00	846.00	892.00	1011.00	1120.00	1012.00	1032.00	1137.00	1219.00	1386.00	1469.00	1544.00	1588.00	1481.00	1488.00	1366.00	1408.00	1512.00	1565.00	1532.00	1509.00	1568.00	1525.00	1434.00	1307.00	1202.00	1144.00	898.00	835.00	854.00	823.00	765.00	780.00	810.00	810.00	703.00	625.00	628.00	629.00	627.00	650.00	629.00	618.00	605.00	595.00	592.00	620.00	618.00	591.00	565.00	596.00	592.00	557.00	600.00	545.00	534.00	549.00	584.00	573.00	548.00	518.00	504.00	470.00	491.00	476.00	480.00	428.00	439.00	407.00	395.00	379.00	379.00	384.00	413.00	413.00	443.00	361.00	352.00	350.00	336.00	344.00	345.00	338.00	341.00	337.00	331.00	330.00	335.00	338.00	347.00	352.00	333.00	333.00	347.00	397.00	378.00	385.00	431.00	460.00	431.00	438.00	466.00	579.00	523.00	421.00	382.00	356.00	361.00	354.00	349.00	344.00
123.00	121.00	127.00	126.00	128.00	128.00	126.00	128.00	128.00	129.00	131.00	130.00	130.00	133.00	135.00	140.00	145.00	140.00	129.00	128.00	128.00	129.00	131.00	132.00	128.00	130.00	129.00	130.00	139.00	139.00	141.00	139.00	137.00	138.00	141.00	136.00	135.00	142.00	146.00	138.00	138.00	141.00	137.00	140.00	139.00	139.00	134.00	133.00	134.00	133.00	136.00	135.00	136.00	137.00	137.00	136.00	141.00	148.00	146.00	146.00	172.00	207.00	205.00	171.00	158.00	158.00	158.00	157.00	160.00	177.00	191.00	237.00	328.00	676.00	668.00	577.00	420.00	300.00	198.00	203.00	210.00	221.00	235.00	185.00	184.00	188.00	215.00	201.00	194.00	221.00	224.00	232.00	260.00	242.00	275.00	262.00	252.00	249.00	257.00	260.00	246.00	247.00	238.00	241.00	254.00	237.00	239.00	267.00	255.00	254.00	278.00	293.00	299.00	310.00	312.00	267.00	229.00	253.00	270.00	271.00	297.00	297.00	292.00	308.00	332.00	481.00	539.00	344.00	244.00	236.00	240.00	298.00	249.00	252.00	261.00	300.00	348.00	338.00	292.00	296.00	330.00	356.00	437.00	525.00	576.00	771.00	1051.00	1176.00	1233.00	1060.00	963.00	1008.00	1036.00	1108.00	1294.00	1386.00	1480.00	1596.00	1410.00	1302.00	1330.00	1431.00	1427.00	1552.00	1618.00	1561.00	1476.00	1371.00	1326.00	1335.00	1290.00	1178.00	955.00	896.00	1069.00	1055.00	814.00	789.00	773.00	737.00	704.00	677.00	652.00	686.00	686.00	683.00	670.00	667.00	584.00	571.00	575.00	606.00	593.00	586.00	578.00	585.00	627.00	641.00	600.00	535.00	564.00	572.00	581.00	560.00	535.00	494.00	477.00	505.00	558.00	529.00	454.00	487.00	387.00	355.00	357.00	368.00	351.00	372.00	374.00	399.00	353.00	342.00	341.00	351.00	349.00	355.00	379.00	388.00	381.00	361.00	335.00	338.00	339.00	346.00	348.00	345.00	334.00	326.00	342.00	380.00	360.00	392.00	417.00	434.00	408.00	417.00	453.00	511.00	461.00	407.00	403.00	409.00	552.00	527.00	478.00	512.00
124.00	122.00	124.00	122.00	123.00	124.00	124.00	122.00	127.00	127.00	130.00	130.00	129.00	129.00	131.00	133.00	136.00	137.00	123.00	123.00	124.00	127.00	135.00	148.00	141.00	143.00	132.00	132.00	150.00	157.00	151.00	151.00	148.00	145.00	141.00	139.00	137.00	147.00	148.00	142.00	141.00	138.00	140.00	140.00	141.00	139.00	134.00	134.00	134.00	135.00	133.00	139.00	136.00	138.00	138.00	134.00	137.00	141.00	140.00	146.00	188.00	251.00	198.00	165.00	155.00	157.00	156.00	155.00	159.00	172.00	185.00	191.00	232.00	393.00	360.00	271.00	216.00	193.00	191.00	191.00	193.00	250.00	276.00	198.00	186.00	190.00	209.00	187.00	198.00	221.00	218.00	218.00	227.00	235.00	240.00	239.00	246.00	254.00	257.00	246.00	257.00	241.00	258.00	255.00	255.00	255.00	240.00	264.00	272.00	292.00	299.00	308.00	309.00	300.00	299.00	295.00	258.00	292.00	286.00	290.00	304.00	300.00	301.00	300.00	305.00	508.00	431.00	266.00	241.00	245.00	236.00	241.00	284.00	289.00	303.00	355.00	398.00	347.00	300.00	310.00	394.00	565.00	559.00	635.00	716.00	845.00	1188.00	1149.00	1034.00	958.00	935.00	1001.00	1122.00	1203.00	1362.00	1395.00	1459.00	1476.00	1281.00	1221.00	1228.00	1307.00	1414.00	1466.00	1501.00	1560.00	1569.00	1322.00	1244.00	1247.00	1167.00	1182.00	1081.00	1070.00	1093.00	1063.00	938.00	852.00	876.00	751.00	733.00	845.00	875.00	764.00	727.00	649.00	616.00	619.00	603.00	569.00	568.00	577.00	573.00	570.00	668.00	661.00	660.00	633.00	555.00	583.00	621.00	592.00	581.00	566.00	573.00	528.00	539.00	599.00	574.00	512.00	465.00	380.00	370.00	356.00	356.00	344.00	356.00	350.00	357.00	350.00	355.00	388.00	364.00	387.00	370.00	385.00	388.00	373.00	389.00	367.00	345.00	356.00	352.00	349.00	341.00	350.00	349.00	338.00	347.00	349.00	402.00	388.00	397.00	447.00	464.00	462.00	437.00	447.00	596.00	670.00	583.00	437.00	539.00	540.00	530.00	543.00
123.00	119.00	123.00	122.00	125.00	124.00	121.00	121.00	124.00	126.00	129.00	129.00	129.00	130.00	130.00	132.00	135.00	135.00	122.00	121.00	122.00	130.00	137.00	150.00	143.00	146.00	135.00	136.00	143.00	152.00	161.00	149.00	151.00	152.00	146.00	145.00	143.00	149.00	148.00	148.00	146.00	143.00	140.00	143.00	139.00	139.00	137.00	135.00	134.00	135.00	132.00	137.00	137.00	137.00	137.00	133.00	136.00	141.00	138.00	155.00	256.00	298.00	200.00	154.00	157.00	160.00	156.00	153.00	156.00	170.00	180.00	194.00	251.00	246.00	229.00	193.00	196.00	182.00	180.00	177.00	204.00	247.00	227.00	201.00	183.00	187.00	191.00	188.00	198.00	207.00	206.00	227.00	232.00	252.00	258.00	246.00	246.00	247.00	248.00	248.00	250.00	258.00	255.00	261.00	272.00	249.00	266.00	273.00	283.00	303.00	309.00	310.00	297.00	302.00	297.00	296.00	287.00	281.00	289.00	297.00	301.00	300.00	295.00	301.00	310.00	546.00	467.00	252.00	242.00	248.00	236.00	230.00	320.00	290.00	292.00	317.00	375.00	408.00	337.00	387.00	510.00	648.00	623.00	696.00	778.00	886.00	1144.00	1063.00	1000.00	937.00	961.00	1032.00	1088.00	1137.00	1315.00	1404.00	1498.00	1388.00	1313.00	1194.00	1218.00	1320.00	1400.00	1380.00	1408.00	1484.00	1497.00	1288.00	1207.00	1164.00	1139.00	1143.00	1123.00	1093.00	1094.00	1102.00	974.00	880.00	817.00	779.00	767.00	911.00	889.00	817.00	740.00	695.00	641.00	628.00	585.00	572.00	569.00	566.00	576.00	614.00	674.00	669.00	673.00	667.00	551.00	590.00	643.00	633.00	594.00	599.00	601.00	574.00	570.00	589.00	506.00	485.00	447.00	462.00	403.00	369.00	350.00	342.00	352.00	351.00	345.00	367.00	374.00	413.00	431.00	450.00	418.00	428.00	395.00	393.00	400.00	360.00	352.00	353.00	348.00	345.00	332.00	353.00	352.00	339.00	343.00	384.00	420.00	382.00	417.00	505.00	458.00	440.00	448.00	485.00	625.00	695.00	693.00	461.00	506.00	528.00	521.00	518.00
124.00	122.00	124.00	124.00	123.00	123.00	117.00	119.00	126.00	126.00	131.00	129.00	129.00	130.00	130.00	128.00	129.00	130.00	128.00	120.00	121.00	129.00	135.00	144.00	147.00	148.00	142.00	141.00	151.00	153.00	154.00	156.00	162.00	157.00	148.00	151.00	147.00	153.00	148.00	148.00	143.00	141.00	140.00	139.00	145.00	141.00	136.00	137.00	135.00	134.00	132.00	137.00	136.00	137.00	137.00	135.00	135.00	136.00	139.00	149.00	273.00	265.00	185.00	154.00	159.00	157.00	155.00	151.00	157.00	170.00	179.00	189.00	293.00	208.00	196.00	180.00	187.00	176.00	183.00	186.00	210.00	220.00	217.00	209.00	181.00	180.00	182.00	195.00	195.00	207.00	218.00	225.00	220.00	239.00	255.00	258.00	252.00	253.00	256.00	236.00	236.00	255.00	263.00	258.00	262.00	245.00	268.00	273.00	285.00	307.00	303.00	301.00	301.00	306.00	308.00	295.00	287.00	287.00	306.00	297.00	298.00	295.00	290.00	304.00	310.00	525.00	408.00	249.00	243.00	257.00	242.00	230.00	293.00	269.00	285.00	293.00	369.00	404.00	401.00	478.00	614.00	724.00	713.00	729.00	778.00	885.00	1072.00	976.00	929.00	878.00	971.00	995.00	1060.00	1154.00	1285.00	1394.00	1502.00	1440.00	1343.00	1168.00	1166.00	1249.00	1327.00	1309.00	1321.00	1378.00	1413.00	1246.00	1172.00	1157.00	1149.00	1104.00	1062.00	1064.00	1057.00	1072.00	919.00	834.00	784.00	815.00	811.00	992.00	995.00	955.00	875.00	727.00	657.00	650.00	584.00	590.00	577.00	566.00	609.00	624.00	679.00	683.00	666.00	658.00	593.00	604.00	647.00	648.00	627.00	597.00	586.00	570.00	577.00	576.00	528.00	487.00	510.00	534.00	400.00	358.00	349.00	343.00	352.00	349.00	370.00	410.00	393.00	467.00	486.00	449.00	423.00	443.00	417.00	401.00	393.00	361.00	353.00	354.00	350.00	337.00	343.00	354.00	353.00	343.00	345.00	362.00	363.00	388.00	446.00	457.00	438.00	450.00	481.00	538.00	673.00	823.00	801.00	578.00	535.00	535.00	510.00	485.00
119.00	122.00	121.00	121.00	120.00	118.00	122.00	123.00	125.00	127.00	131.00	134.00	130.00	131.00	129.00	128.00	127.00	122.00	124.00	129.00	126.00	128.00	139.00	139.00	165.00	143.00	137.00	138.00	144.00	142.00	156.00	149.00	156.00	157.00	157.00	158.00	147.00	143.00	143.00	141.00	139.00	141.00	134.00	135.00	135.00	138.00	136.00	132.00	134.00	135.00	135.00	137.00	137.00	137.00	138.00	136.00	142.00	147.00	151.00	151.00	195.00	167.00	153.00	164.00	170.00	163.00	158.00	151.00	166.00	183.00	191.00	214.00	197.00	203.00	190.00	176.00	168.00	173.00	178.00	179.00	208.00	205.00	210.00	191.00	175.00	179.00	190.00	206.00	210.00	225.00	213.00	225.00	210.00	225.00	250.00	253.00	248.00	241.00	257.00	246.00	247.00	253.00	253.00	242.00	241.00	249.00	259.00	266.00	278.00	303.00	303.00	294.00	298.00	304.00	307.00	295.00	294.00	302.00	295.00	291.00	284.00	293.00	294.00	316.00	342.00	518.00	352.00	290.00	246.00	254.00	242.00	236.00	262.00	270.00	282.00	370.00	413.00	476.00	524.00	555.00	598.00	735.00	626.00	679.00	710.00	791.00	885.00	847.00	826.00	832.00	1144.00	1205.00	1313.00	1365.00	1325.00	1320.00	1391.00	1392.00	1255.00	1162.00	1106.00	1144.00	1169.00	1300.00	1255.00	1264.00	1311.00	1304.00	1287.00	1369.00	1247.00	1154.00	955.00	949.00	911.00	863.00	827.00	803.00	813.00	908.00	916.00	967.00	1095.00	1095.00	893.00	731.00	741.00	669.00	644.00	605.00	582.00	610.00	669.00	655.00	756.00	666.00	671.00	638.00	537.00	637.00	651.00	679.00	686.00	648.00	563.00	556.00	532.00	519.00	544.00	600.00	565.00	524.00	400.00	385.00	353.00	346.00	343.00	366.00	417.00	421.00	459.00	489.00	486.00	494.00	456.00	457.00	415.00	384.00	372.00	356.00	348.00	345.00	340.00	349.00	348.00	354.00	357.00	344.00	343.00	352.00	379.00	431.00	434.00	450.00	486.00	489.00	498.00	504.00	750.00	846.00	690.00	497.00	507.00	539.00	532.00	488.00
126.00	124.00	122.00	123.00	122.00	121.00	124.00	125.00	126.00	129.00	136.00	140.00	134.00	133.00	132.00	127.00	124.00	123.00	128.00	128.00	129.00	128.00	128.00	133.00	138.00	135.00	136.00	134.00	141.00	141.00	147.00	141.00	146.00	157.00	160.00	157.00	146.00	134.00	136.00	140.00	137.00	137.00	133.00	134.00	139.00	146.00	136.00	134.00	137.00	136.00	135.00	137.00	138.00	139.00	136.00	139.00	151.00	189.00	155.00	179.00	163.00	151.00	151.00	165.00	167.00	154.00	150.00	156.00	170.00	188.00	208.00	211.00	189.00	195.00	189.00	163.00	162.00	175.00	180.00	174.00	186.00	204.00	192.00	184.00	177.00	196.00	202.00	203.00	215.00	204.00	213.00	208.00	210.00	226.00	244.00	251.00	240.00	242.00	243.00	235.00	260.00	259.00	237.00	243.00	254.00	237.00	251.00	266.00	274.00	300.00	301.00	295.00	292.00	297.00	303.00	289.00	295.00	299.00	295.00	285.00	301.00	304.00	301.00	383.00	428.00	427.00	327.00	297.00	254.00	252.00	243.00	243.00	245.00	254.00	277.00	408.00	424.00	495.00	511.00	502.00	558.00	667.00	575.00	621.00	671.00	788.00	812.00	793.00	774.00	909.00	1137.00	1270.00	1452.00	1445.00	1293.00	1331.00	1421.00	1274.00	1209.00	1120.00	1078.00	1084.00	1147.00	1249.00	1267.00	1244.00	1303.00	1396.00	1373.00	1404.00	1348.00	1151.00	983.00	928.00	963.00	932.00	834.00	816.00	828.00	924.00	939.00	958.00	1075.00	1011.00	916.00	771.00	742.00	692.00	602.00	584.00	590.00	634.00	700.00	687.00	780.00	662.00	647.00	598.00	537.00	606.00	632.00	659.00	684.00	606.00	563.00	528.00	523.00	534.00	598.00	544.00	481.00	445.00	422.00	381.00	352.00	348.00	352.00	385.00	430.00	438.00	431.00	487.00	496.00	488.00	457.00	435.00	382.00	374.00	356.00	356.00	366.00	342.00	351.00	351.00	352.00	353.00	355.00	347.00	341.00	353.00	362.00	433.00	450.00	473.00	515.00	479.00	482.00	510.00	705.00	707.00	590.00	481.00	472.00	530.00	525.00	491.00
123.00	125.00	123.00	124.00	123.00	120.00	124.00	124.00	127.00	129.00	135.00	151.00	138.00	134.00	132.00	122.00	123.00	126.00	127.00	128.00	128.00	130.00	131.00	142.00	138.00	139.00	141.00	145.00	145.00	149.00	143.00	140.00	146.00	154.00	153.00	157.00	149.00	133.00	136.00	140.00	139.00	136.00	134.00	137.00	139.00	142.00	134.00	136.00	137.00	137.00	137.00	138.00	139.00	137.00	137.00	137.00	144.00	152.00	143.00	160.00	148.00	153.00	169.00	177.00	158.00	147.00	151.00	164.00	184.00	200.00	199.00	186.00	185.00	188.00	175.00	160.00	165.00	171.00	172.00	168.00	177.00	201.00	195.00	173.00	178.00	202.00	199.00	190.00	202.00	191.00	208.00	200.00	208.00	220.00	252.00	250.00	233.00	232.00	233.00	242.00	252.00	235.00	231.00	240.00	239.00	238.00	252.00	263.00	260.00	303.00	298.00	301.00	290.00	297.00	301.00	293.00	290.00	297.00	290.00	289.00	307.00	305.00	312.00	524.00	454.00	407.00	321.00	263.00	253.00	250.00	238.00	241.00	259.00	272.00	268.00	396.00	449.00	522.00	507.00	441.00	487.00	536.00	517.00	603.00	648.00	870.00	727.00	707.00	748.00	907.00	1207.00	1302.00	1411.00	1356.00	1244.00	1290.00	1380.00	1250.00	1150.00	1109.00	1047.00	1067.00	1154.00	1285.00	1267.00	1237.00	1246.00	1361.00	1372.00	1393.00	1291.00	1193.00	1036.00	1030.00	1035.00	987.00	916.00	813.00	848.00	888.00	991.00	991.00	993.00	944.00	864.00	764.00	741.00	720.00	602.00	581.00	637.00	636.00	754.00	761.00	728.00	647.00	631.00	564.00	519.00	615.00	622.00	627.00	661.00	638.00	572.00	541.00	532.00	545.00	585.00	460.00	420.00	414.00	382.00	353.00	342.00	348.00	358.00	431.00	440.00	436.00	443.00	498.00	481.00	481.00	437.00	414.00	376.00	363.00	357.00	373.00	354.00	344.00	355.00	351.00	351.00	349.00	348.00	349.00	339.00	349.00	355.00	429.00	445.00	465.00	509.00	452.00	475.00	519.00	631.00	597.00	509.00	455.00	473.00	524.00	531.00	497.00
127.00	128.00	119.00	120.00	120.00	121.00	124.00	125.00	128.00	129.00	132.00	155.00	148.00	147.00	133.00	123.00	126.00	126.00	127.00	128.00	128.00	128.00	131.00	135.00	143.00	140.00	142.00	150.00	147.00	150.00	146.00	137.00	143.00	156.00	154.00	145.00	141.00	134.00	134.00	135.00	136.00	134.00	136.00	138.00	140.00	140.00	133.00	136.00	136.00	136.00	139.00	138.00	138.00	136.00	136.00	139.00	139.00	142.00	143.00	145.00	152.00	171.00	189.00	182.00	150.00	146.00	150.00	168.00	190.00	206.00	188.00	179.00	186.00	180.00	158.00	152.00	152.00	157.00	170.00	165.00	191.00	194.00	198.00	174.00	194.00	199.00	193.00	189.00	190.00	183.00	184.00	198.00	205.00	200.00	221.00	220.00	220.00	226.00	236.00	235.00	230.00	229.00	235.00	249.00	242.00	238.00	239.00	240.00	264.00	295.00	291.00	295.00	294.00	288.00	301.00	292.00	288.00	293.00	284.00	288.00	296.00	309.00	334.00	477.00	387.00	369.00	371.00	301.00	276.00	259.00	249.00	233.00	261.00	277.00	270.00	370.00	470.00	575.00	507.00	457.00	466.00	460.00	523.00	618.00	697.00	794.00	667.00	674.00	773.00	904.00	1243.00	1192.00	1270.00	1210.00	1238.00	1287.00	1306.00	1313.00	1099.00	1066.00	1023.00	1091.00	1184.00	1234.00	1256.00	1226.00	1192.00	1351.00	1381.00	1295.00	1175.00	1084.00	1101.00	1113.00	1049.00	989.00	898.00	842.00	855.00	894.00	1053.00	963.00	905.00	861.00	797.00	794.00	727.00	683.00	584.00	584.00	654.00	692.00	794.00	775.00	675.00	641.00	646.00	559.00	518.00	584.00	590.00	624.00	622.00	564.00	568.00	562.00	576.00	590.00	485.00	416.00	400.00	405.00	351.00	356.00	351.00	349.00	360.00	444.00	448.00	421.00	452.00	449.00	435.00	420.00	385.00	357.00	357.00	360.00	362.00	363.00	352.00	342.00	360.00	356.00	359.00	348.00	344.00	350.00	348.00	353.00	358.00	439.00	424.00	427.00	459.00	430.00	446.00	492.00	549.00	531.00	470.00	450.00	464.00	505.00	513.00	517.00
125.00	121.00	123.00	118.00	127.00	125.00	126.00	127.00	128.00	129.00	129.00	135.00	133.00	131.00	130.00	128.00	129.00	125.00	128.00	128.00	130.00	135.00	131.00	130.00	129.00	128.00	132.00	140.00	145.00	150.00	142.00	140.00	145.00	149.00	152.00	141.00	137.00	131.00	133.00	134.00	134.00	135.00	135.00	135.00	138.00	130.00	141.00	140.00	136.00	137.00	136.00	141.00	137.00	140.00	139.00	136.00	136.00	136.00	137.00	137.00	151.00	169.00	164.00	159.00	146.00	148.00	162.00	166.00	183.00	167.00	169.00	177.00	170.00	161.00	150.00	146.00	146.00	144.00	158.00	170.00	162.00	164.00	167.00	178.00	190.00	186.00	187.00	198.00	210.00	209.00	207.00	207.00	192.00	192.00	199.00	204.00	230.00	221.00	214.00	222.00	230.00	231.00	245.00	246.00	244.00	270.00	272.00	261.00	254.00	286.00	288.00	295.00	291.00	301.00	292.00	293.00	285.00	290.00	286.00	301.00	304.00	299.00	349.00	302.00	304.00	295.00	290.00	298.00	292.00	274.00	266.00	276.00	254.00	270.00	287.00	300.00	412.00	509.00	500.00	455.00	429.00	505.00	531.00	567.00	584.00	578.00	672.00	762.00	815.00	800.00	871.00	928.00	1033.00	1105.00	1290.00	1302.00	1360.00	1276.00	1067.00	998.00	1005.00	1049.00	1156.00	1118.00	1114.00	1157.00	1206.00	1276.00	1176.00	1162.00	1057.00	962.00	1189.00	1119.00	1043.00	1043.00	929.00	968.00	979.00	962.00	1120.00	948.00	879.00	840.00	832.00	746.00	724.00	681.00	597.00	612.00	676.00	744.00	779.00	688.00	627.00	645.00	579.00	523.00	523.00	545.00	541.00	568.00	585.00	628.00	669.00	690.00	670.00	608.00	478.00	408.00	381.00	359.00	379.00	352.00	350.00	347.00	394.00	391.00	409.00	388.00	410.00	418.00	373.00	368.00	363.00	356.00	358.00	355.00	355.00	350.00	341.00	352.00	353.00	356.00	357.00	350.00	349.00	350.00	352.00	341.00	346.00	413.00	394.00	374.00	372.00	397.00	417.00	466.00	454.00	452.00	447.00	509.00	469.00	580.00	536.00	479.00
125.00	120.00	125.00	125.00	122.00	124.00	125.00	127.00	129.00	128.00	130.00	129.00	130.00	129.00	129.00	129.00	128.00	128.00	130.00	127.00	128.00	128.00	132.00	133.00	129.00	128.00	131.00	135.00	143.00	145.00	136.00	146.00	145.00	131.00	129.00	132.00	134.00	129.00	132.00	136.00	134.00	135.00	135.00	136.00	130.00	133.00	145.00	140.00	139.00	135.00	137.00	139.00	141.00	137.00	137.00	136.00	136.00	134.00	135.00	137.00	145.00	151.00	151.00	148.00	144.00	143.00	164.00	165.00	165.00	168.00	170.00	168.00	160.00	157.00	149.00	145.00	145.00	145.00	165.00	156.00	148.00	162.00	162.00	183.00	187.00	184.00	202.00	217.00	223.00	213.00	224.00	218.00	208.00	209.00	208.00	212.00	218.00	223.00	228.00	223.00	238.00	240.00	237.00	247.00	250.00	274.00	296.00	296.00	286.00	320.00	292.00	298.00	290.00	287.00	286.00	298.00	297.00	284.00	287.00	292.00	295.00	292.00	309.00	325.00	324.00	295.00	295.00	290.00	289.00	273.00	272.00	274.00	359.00	311.00	298.00	323.00	376.00	413.00	434.00	413.00	435.00	507.00	513.00	516.00	561.00	660.00	647.00	695.00	701.00	685.00	821.00	934.00	1055.00	1188.00	1303.00	1329.00	1342.00	1266.00	1009.00	978.00	1013.00	1028.00	1120.00	1032.00	1079.00	1130.00	1197.00	1126.00	1038.00	1116.00	1066.00	954.00	1219.00	1122.00	998.00	971.00	946.00	958.00	1013.00	1021.00	1111.00	928.00	836.00	809.00	798.00	751.00	729.00	657.00	618.00	610.00	648.00	716.00	709.00	635.00	586.00	573.00	556.00	525.00	518.00	568.00	566.00	585.00	636.00	652.00	657.00	668.00	659.00	646.00	536.00	372.00	374.00	416.00	346.00	345.00	348.00	366.00	401.00	402.00	375.00	366.00	370.00	360.00	355.00	366.00	364.00	358.00	361.00	360.00	357.00	353.00	341.00	348.00	352.00	352.00	359.00	353.00	351.00	353.00	359.00	352.00	347.00	347.00	366.00	351.00	396.00	395.00	428.00	440.00	484.00	462.00	472.00	584.00	516.00	574.00	550.00	517.00
119.00	121.00	127.00	124.00	124.00	121.00	123.00	123.00	128.00	129.00	129.00	130.00	131.00	131.00	131.00	126.00	126.00	130.00	131.00	128.00	129.00	130.00	130.00	132.00	128.00	129.00	131.00	131.00	134.00	135.00	142.00	174.00	146.00	128.00	128.00	130.00	133.00	126.00	129.00	133.00	134.00	134.00	130.00	130.00	129.00	137.00	144.00	136.00	137.00	136.00	136.00	138.00	136.00	136.00	137.00	138.00	137.00	136.00	136.00	137.00	140.00	144.00	145.00	145.00	144.00	145.00	160.00	154.00	152.00	164.00	158.00	162.00	151.00	145.00	145.00	147.00	144.00	143.00	146.00	142.00	144.00	143.00	165.00	182.00	180.00	191.00	197.00	205.00	219.00	239.00	255.00	271.00	230.00	224.00	206.00	233.00	221.00	235.00	232.00	232.00	247.00	263.00	243.00	237.00	251.00	305.00	281.00	281.00	292.00	370.00	300.00	309.00	313.00	299.00	286.00	294.00	295.00	284.00	298.00	292.00	297.00	292.00	291.00	325.00	337.00	298.00	295.00	290.00	311.00	272.00	289.00	296.00	460.00	352.00	299.00	347.00	376.00	390.00	410.00	426.00	467.00	476.00	475.00	538.00	549.00	635.00	611.00	614.00	592.00	637.00	773.00	877.00	1026.00	1189.00	1297.00	1361.00	1394.00	1299.00	980.00	990.00	983.00	960.00	1049.00	1011.00	1104.00	1218.00	1275.00	1034.00	952.00	983.00	1002.00	953.00	1192.00	1080.00	1001.00	1007.00	986.00	992.00	1000.00	1028.00	1133.00	920.00	849.00	842.00	822.00	734.00	714.00	625.00	636.00	624.00	669.00	681.00	636.00	601.00	608.00	595.00	601.00	548.00	514.00	599.00	605.00	614.00	623.00	625.00	613.00	618.00	629.00	641.00	577.00	376.00	387.00	373.00	337.00	377.00	380.00	377.00	378.00	381.00	374.00	370.00	362.00	367.00	369.00	390.00	378.00	369.00	363.00	358.00	357.00	349.00	341.00	347.00	355.00	355.00	356.00	351.00	354.00	356.00	354.00	354.00	357.00	386.00	366.00	376.00	396.00	427.00	448.00	427.00	479.00	485.00	487.00	670.00	606.00	601.00	565.00	492.00
116.00	116.00	121.00	123.00	126.00	121.00	120.00	125.00	124.00	128.00	128.00	129.00	126.00	128.00	126.00	128.00	129.00	127.00	129.00	130.00	131.00	132.00	130.00	130.00	129.00	131.00	132.00	130.00	129.00	132.00	150.00	153.00	138.00	127.00	127.00	127.00	132.00	127.00	128.00	131.00	134.00	131.00	128.00	127.00	128.00	128.00	138.00	139.00	140.00	138.00	136.00	138.00	138.00	138.00	140.00	141.00	138.00	143.00	139.00	135.00	136.00	136.00	138.00	143.00	143.00	143.00	144.00	145.00	143.00	147.00	150.00	157.00	144.00	142.00	145.00	146.00	155.00	146.00	144.00	143.00	142.00	144.00	159.00	178.00	177.00	210.00	206.00	222.00	221.00	252.00	257.00	284.00	246.00	222.00	218.00	231.00	229.00	237.00	243.00	236.00	247.00	247.00	238.00	239.00	257.00	259.00	250.00	267.00	366.00	374.00	304.00	309.00	300.00	295.00	315.00	287.00	303.00	289.00	295.00	303.00	302.00	288.00	292.00	298.00	305.00	300.00	295.00	296.00	349.00	292.00	312.00	321.00	481.00	414.00	338.00	323.00	398.00	432.00	399.00	424.00	459.00	459.00	509.00	582.00	523.00	502.00	521.00	550.00	626.00	666.00	729.00	809.00	897.00	1109.00	1237.00	1255.00	1321.00	1237.00	958.00	957.00	927.00	986.00	1062.00	965.00	1075.00	1225.00	1277.00	949.00	896.00	915.00	937.00	959.00	1087.00	1059.00	1038.00	1009.00	973.00	959.00	981.00	1049.00	1133.00	949.00	878.00	871.00	826.00	722.00	670.00	626.00	604.00	632.00	672.00	641.00	624.00	628.00	591.00	605.00	589.00	538.00	513.00	578.00	604.00	619.00	646.00	596.00	591.00	568.00	575.00	576.00	530.00	436.00	382.00	339.00	357.00	400.00	383.00	371.00	373.00	366.00	365.00	410.00	378.00	394.00	381.00	390.00	382.00	368.00	360.00	356.00	355.00	344.00	335.00	341.00	349.00	354.00	355.00	356.00	356.00	357.00	361.00	353.00	358.00	420.00	386.00	380.00	414.00	436.00	475.00	484.00	469.00	477.00	490.00	708.00	659.00	663.00	570.00	468.00
120.00	120.00	122.00	125.00	124.00	122.00	120.00	123.00	125.00	127.00	128.00	129.00	129.00	134.00	133.00	126.00	128.00	129.00	128.00	128.00	132.00	133.00	131.00	132.00	131.00	134.00	134.00	135.00	132.00	130.00	128.00	132.00	130.00	132.00	133.00	129.00	131.00	127.00	126.00	129.00	133.00	131.00	136.00	141.00	140.00	137.00	134.00	137.00	135.00	136.00	127.00	134.00	138.00	139.00	140.00	136.00	138.00	138.00	139.00	140.00	138.00	141.00	141.00	138.00	140.00	141.00	132.00	133.00	133.00	139.00	136.00	136.00	137.00	136.00	139.00	141.00	139.00	141.00	131.00	135.00	140.00	164.00	181.00	185.00	195.00	197.00	203.00	199.00	196.00	220.00	217.00	228.00	262.00	261.00	237.00	248.00	219.00	227.00	225.00	237.00	224.00	226.00	234.00	233.00	228.00	242.00	268.00	272.00	331.00	304.00	300.00	297.00	292.00	288.00	282.00	272.00	280.00	275.00	300.00	298.00	287.00	301.00	308.00	297.00	301.00	295.00	288.00	300.00	320.00	408.00	351.00	313.00	368.00	423.00	512.00	452.00	390.00	332.00	341.00	383.00	381.00	392.00	397.00	416.00	420.00	440.00	476.00	506.00	529.00	578.00	607.00	645.00	726.00	780.00	941.00	960.00	1017.00	1019.00	874.00	905.00	906.00	958.00	980.00	887.00	924.00	886.00	844.00	1022.00	936.00	877.00	877.00	898.00	964.00	1010.00	889.00	864.00	857.00	890.00	938.00	991.00	1013.00	996.00	860.00	789.00	746.00	696.00	652.00	648.00	641.00	644.00	728.00	758.00	753.00	739.00	535.00	599.00	558.00	537.00	529.00	478.00	533.00	576.00	548.00	420.00	423.00	435.00	448.00	406.00	356.00	386.00	429.00	436.00	424.00	394.00	398.00	461.00	492.00	370.00	408.00	459.00	419.00	428.00	429.00	421.00	390.00	365.00	344.00	346.00	356.00	355.00	354.00	354.00	356.00	344.00	341.00	351.00	355.00	357.00	356.00	358.00	360.00	484.00	531.00	524.00	414.00	445.00	453.00	484.00	549.00	590.00	593.00	700.00	668.00	585.00	476.00	408.00
127.00	125.00	126.00	125.00	123.00	123.00	122.00	124.00	124.00	128.00	129.00	130.00	130.00	132.00	131.00	131.00	132.00	133.00	130.00	134.00	130.00	131.00	133.00	132.00	133.00	132.00	133.00	135.00	128.00	130.00	129.00	127.00	127.00	132.00	129.00	133.00	130.00	133.00	132.00	137.00	136.00	133.00	137.00	139.00	139.00	137.00	135.00	136.00	137.00	137.00	129.00	132.00	135.00	137.00	139.00	138.00	140.00	139.00	137.00	140.00	139.00	138.00	139.00	137.00	141.00	138.00	134.00	139.00	141.00	132.00	133.00	135.00	137.00	137.00	138.00	139.00	142.00	144.00	136.00	137.00	147.00	162.00	169.00	194.00	199.00	198.00	196.00	196.00	201.00	205.00	210.00	221.00	237.00	239.00	229.00	236.00	220.00	223.00	224.00	218.00	224.00	228.00	223.00	230.00	250.00	260.00	257.00	291.00	316.00	302.00	286.00	297.00	295.00	288.00	285.00	282.00	272.00	277.00	296.00	299.00	289.00	291.00	297.00	300.00	297.00	292.00	287.00	303.00	331.00	450.00	437.00	325.00	341.00	428.00	513.00	441.00	431.00	368.00	386.00	379.00	389.00	429.00	465.00	438.00	425.00	463.00	590.00	609.00	563.00	636.00	652.00	641.00	654.00	708.00	803.00	854.00	859.00	890.00	854.00	868.00	865.00	952.00	931.00	812.00	794.00	819.00	923.00	1052.00	960.00	966.00	877.00	867.00	902.00	918.00	872.00	854.00	878.00	882.00	921.00	966.00	999.00	885.00	795.00	768.00	739.00	662.00	656.00	665.00	658.00	659.00	738.00	754.00	717.00	718.00	502.00	576.00	521.00	569.00	540.00	449.00	466.00	483.00	506.00	450.00	445.00	408.00	402.00	364.00	391.00	432.00	459.00	462.00	385.00	424.00	442.00	489.00	468.00	370.00	391.00	488.00	469.00	449.00	419.00	422.00	431.00	387.00	359.00	359.00	359.00	361.00	361.00	358.00	358.00	351.00	340.00	341.00	348.00	354.00	357.00	366.00	411.00	516.00	532.00	490.00	431.00	452.00	481.00	484.00	614.00	634.00	588.00	669.00	647.00	615.00	479.00	434.00
119.00	127.00	125.00	126.00	123.00	120.00	118.00	124.00	123.00	126.00	129.00	129.00	130.00	131.00	129.00	132.00	131.00	133.00	131.00	136.00	127.00	132.00	133.00	133.00	131.00	132.00	133.00	131.00	128.00	129.00	129.00	132.00	130.00	132.00	132.00	133.00	135.00	130.00	134.00	137.00	133.00	134.00	135.00	136.00	135.00	135.00	136.00	136.00	137.00	136.00	136.00	129.00	136.00	137.00	137.00	131.00	134.00	139.00	135.00	138.00	125.00	130.00	134.00	139.00	141.00	137.00	135.00	138.00	137.00	140.00	136.00	132.00	132.00	132.00	136.00	132.00	134.00	133.00	130.00	132.00	134.00	154.00	162.00	174.00	177.00	182.00	179.00	186.00	194.00	205.00	209.00	215.00	231.00	226.00	222.00	225.00	219.00	212.00	217.00	218.00	222.00	222.00	230.00	244.00	256.00	248.00	280.00	258.00	300.00	301.00	286.00	293.00	286.00	278.00	291.00	296.00	275.00	281.00	299.00	291.00	279.00	290.00	293.00	297.00	295.00	288.00	286.00	299.00	322.00	420.00	453.00	381.00	364.00	407.00	484.00	408.00	475.00	400.00	395.00	396.00	405.00	563.00	587.00	570.00	553.00	461.00	607.00	679.00	633.00	712.00	673.00	680.00	681.00	744.00	890.00	820.00	815.00	857.00	829.00	815.00	787.00	840.00	807.00	823.00	943.00	1056.00	1113.00	1171.00	1146.00	1149.00	1002.00	873.00	853.00	861.00	859.00	857.00	889.00	847.00	891.00	952.00	975.00	798.00	773.00	755.00	698.00	711.00	758.00	784.00	769.00	698.00	659.00	654.00	653.00	628.00	480.00	538.00	484.00	536.00	527.00	414.00	433.00	499.00	488.00	448.00	387.00	367.00	364.00	375.00	415.00	457.00	477.00	460.00	451.00	506.00	523.00	522.00	477.00	396.00	395.00	489.00	459.00	477.00	459.00	447.00	463.00	427.00	359.00	360.00	374.00	371.00	363.00	359.00	354.00	349.00	342.00	341.00	355.00	357.00	363.00	373.00	417.00	499.00	518.00	535.00	439.00	470.00	489.00	493.00	599.00	589.00	587.00	643.00	593.00	604.00	509.00	484.00
113.00	123.00	129.00	129.00	123.00	122.00	116.00	125.00	126.00	127.00	127.00	129.00	128.00	129.00	131.00	132.00	130.00	133.00	131.00	132.00	128.00	128.00	131.00	133.00	130.00	130.00	132.00	126.00	128.00	130.00	133.00	132.00	131.00	134.00	133.00	135.00	132.00	131.00	136.00	134.00	132.00	132.00	133.00	134.00	134.00	136.00	135.00	137.00	135.00	133.00	136.00	134.00	134.00	133.00	127.00	135.00	130.00	135.00	136.00	133.00	134.00	133.00	132.00	135.00	139.00	134.00	138.00	137.00	133.00	140.00	140.00	139.00	141.00	133.00	138.00	143.00	144.00	157.00	143.00	137.00	133.00	140.00	138.00	148.00	137.00	153.00	165.00	180.00	195.00	200.00	201.00	204.00	210.00	217.00	212.00	221.00	214.00	217.00	238.00	237.00	232.00	232.00	232.00	232.00	234.00	264.00	258.00	329.00	415.00	314.00	293.00	282.00	271.00	271.00	280.00	288.00	271.00	281.00	290.00	283.00	279.00	285.00	291.00	297.00	296.00	286.00	283.00	296.00	306.00	321.00	408.00	489.00	399.00	375.00	402.00	441.00	512.00	463.00	437.00	409.00	424.00	624.00	657.00	664.00	583.00	513.00	521.00	563.00	594.00	645.00	757.00	735.00	722.00	803.00	878.00	785.00	793.00	769.00	827.00	799.00	772.00	749.00	759.00	870.00	981.00	1078.00	1201.00	1229.00	1339.00	1157.00	1092.00	974.00	850.00	858.00	860.00	849.00	877.00	841.00	866.00	906.00	870.00	767.00	748.00	707.00	686.00	990.00	1019.00	1009.00	929.00	824.00	620.00	602.00	572.00	526.00	467.00	478.00	512.00	506.00	472.00	396.00	495.00	557.00	506.00	377.00	359.00	387.00	427.00	457.00	424.00	463.00	470.00	490.00	500.00	532.00	550.00	547.00	464.00	403.00	441.00	498.00	454.00	480.00	470.00	440.00	416.00	411.00	375.00	386.00	384.00	372.00	364.00	358.00	344.00	345.00	348.00	342.00	351.00	358.00	362.00	402.00	434.00	503.00	532.00	519.00	445.00	492.00	501.00	503.00	583.00	587.00	574.00	636.00	582.00	538.00	453.00	461.00
124.00	116.00	127.00	127.00	131.00	120.00	120.00	119.00	119.00	120.00	125.00	129.00	130.00	132.00	133.00	132.00	130.00	134.00	133.00	137.00	152.00	132.00	129.00	132.00	126.00	126.00	132.00	132.00	129.00	129.00	129.00	134.00	139.00	134.00	131.00	138.00	135.00	125.00	123.00	129.00	133.00	131.00	134.00	133.00	132.00	133.00	135.00	131.00	133.00	136.00	134.00	136.00	137.00	137.00	137.00	139.00	133.00	129.00	128.00	134.00	129.00	125.00	123.00	128.00	130.00	137.00	138.00	131.00	130.00	137.00	138.00	141.00	142.00	144.00	149.00	146.00	154.00	163.00	154.00	160.00	173.00	168.00	124.00	125.00	152.00	196.00	193.00	202.00	205.00	188.00	191.00	192.00	201.00	201.00	206.00	209.00	212.00	216.00	216.00	221.00	241.00	239.00	248.00	251.00	252.00	244.00	258.00	322.00	354.00	292.00	282.00	259.00	250.00	258.00	255.00	271.00	279.00	280.00	275.00	282.00	286.00	292.00	292.00	290.00	291.00	284.00	292.00	292.00	309.00	332.00	444.00	493.00	441.00	447.00	444.00	435.00	449.00	535.00	583.00	665.00	627.00	567.00	686.00	668.00	668.00	637.00	687.00	624.00	631.00	673.00	915.00	871.00	852.00	853.00	769.00	774.00	767.00	798.00	818.00	829.00	822.00	705.00	682.00	790.00	838.00	870.00	861.00	1169.00	1182.00	1046.00	996.00	925.00	857.00	845.00	851.00	847.00	872.00	865.00	752.00	735.00	737.00	731.00	752.00	767.00	855.00	1190.00	1185.00	1054.00	916.00	863.00	699.00	608.00	533.00	548.00	430.00	453.00	470.00	426.00	368.00	365.00	372.00	383.00	412.00	411.00	430.00	491.00	548.00	536.00	522.00	468.00	502.00	543.00	545.00	493.00	479.00	471.00	471.00	463.00	481.00	473.00	463.00	465.00	442.00	456.00	437.00	457.00	387.00	387.00	392.00	363.00	373.00	377.00	358.00	355.00	346.00	345.00	350.00	356.00	366.00	416.00	461.00	487.00	488.00	490.00	480.00	498.00	513.00	547.00	537.00	531.00	529.00	489.00	468.00	467.00	485.00	486.00
124.00	116.00	127.00	127.00	131.00	120.00	120.00	119.00	119.00	120.00	125.00	129.00	130.00	132.00	133.00	132.00	130.00	134.00	133.00	137.00	152.00	132.00	129.00	132.00	126.00	126.00	132.00	132.00	129.00	129.00	129.00	134.00	139.00	134.00	131.00	138.00	135.00	125.00	123.00	129.00	133.00	131.00	134.00	133.00	132.00	133.00	135.00	131.00	133.00	136.00	134.00	136.00	137.00	137.00	137.00	139.00	133.00	129.00	128.00	134.00	129.00	125.00	123.00	128.00	130.00	137.00	138.00	131.00	130.00	137.00	138.00	141.00	142.00	144.00	149.00	146.00	154.00	163.00	154.00	160.00	173.00	168.00	124.00	125.00	152.00	196.00	193.00	202.00	205.00	188.00	191.00	192.00	201.00	201.00	206.00	209.00	212.00	216.00	216.00	221.00	241.00	239.00	248.00	251.00	252.00	244.00	258.00	322.00	354.00	292.00	282.00	259.00	250.00	258.00	255.00	271.00	279.00	280.00	275.00	282.00	286.00	292.00	292.00	290.00	291.00	284.00	292.00	292.00	309.00	332.00	444.00	493.00	441.00	447.00	444.00	435.00	449.00	535.00	583.00	665.00	627.00	567.00	686.00	668.00	668.00	637.00	687.00	624.00	631.00	673.00	915.00	871.00	852.00	853.00	769.00	774.00	767.00	798.00	818.00	829.00	822.00	705.00	682.00	790.00	838.00	870.00	861.00	1169.00	1182.00	1046.00	996.00	925.00	857.00	845.00	851.00	847.00	872.00	865.00	752.00	735.00	737.00	731.00	752.00	767.00	855.00	1190.00	1185.00	1054.00	916.00	863.00	699.00	608.00	533.00	548.00	430.00	453.00	470.00	426.00	368.00	365.00	372.00	383.00	412.00	411.00	430.00	491.00	548.00	536.00	522.00	468.00	502.00	543.00	545.00	493.00	479.00	471.00	471.00	463.00	481.00	473.00	463.00	465.00	442.00	456.00	437.00	457.00	387.00	387.00	392.00	363.00	373.00	377.00	358.00	355.00	346.00	345.00	350.00	356.00	366.00	416.00	461.00	487.00	488.00	490.00	480.00	498.00	513.00	547.00	537.00	531.00	529.00	489.00	468.00	467.00	485.00	486.00
122.00	128.00	133.00	136.00	127.00	117.00	122.00	124.00	120.00	120.00	123.00	128.00	128.00	130.00	131.00	135.00	132.00	134.00	136.00	142.00	147.00	136.00	130.00	134.00	123.00	128.00	131.00	132.00	124.00	126.00	128.00	132.00	138.00	138.00	142.00	141.00	133.00	129.00	129.00	129.00	132.00	133.00	135.00	136.00	134.00	133.00	134.00	131.00	135.00	134.00	132.00	134.00	136.00	135.00	137.00	135.00	138.00	135.00	135.00	139.00	131.00	131.00	130.00	131.00	136.00	133.00	129.00	134.00	136.00	135.00	139.00	139.00	141.00	147.00	152.00	155.00	182.00	194.00	178.00	175.00	177.00	149.00	137.00	129.00	140.00	178.00	198.00	205.00	216.00	210.00	188.00	194.00	197.00	202.00	211.00	217.00	223.00	223.00	220.00	224.00	249.00	234.00	235.00	254.00	259.00	278.00	276.00	316.00	341.00	283.00	258.00	256.00	248.00	246.00	257.00	274.00	268.00	272.00	279.00	294.00	289.00	290.00	291.00	291.00	288.00	285.00	289.00	290.00	305.00	351.00	336.00	342.00	390.00	484.00	465.00	487.00	445.00	483.00	529.00	631.00	704.00	606.00	637.00	676.00	700.00	744.00	766.00	704.00	720.00	813.00	861.00	849.00	815.00	831.00	744.00	742.00	744.00	769.00	802.00	813.00	788.00	701.00	659.00	732.00	767.00	786.00	839.00	1136.00	1064.00	954.00	908.00	884.00	850.00	854.00	856.00	855.00	815.00	795.00	730.00	724.00	758.00	797.00	784.00	831.00	946.00	1203.00	1111.00	1014.00	864.00	878.00	729.00	643.00	566.00	549.00	401.00	391.00	387.00	373.00	379.00	431.00	432.00	456.00	427.00	431.00	458.00	501.00	541.00	576.00	616.00	483.00	527.00	551.00	482.00	473.00	463.00	461.00	464.00	460.00	465.00	449.00	480.00	492.00	464.00	476.00	490.00	467.00	433.00	388.00	409.00	360.00	361.00	364.00	362.00	365.00	360.00	345.00	349.00	358.00	375.00	399.00	446.00	451.00	488.00	471.00	474.00	498.00	530.00	536.00	541.00	541.00	545.00	558.00	572.00	541.00	527.00	518.00
125.00	129.00	136.00	138.00	132.00	123.00	122.00	129.00	125.00	119.00	120.00	123.00	126.00	129.00	131.00	133.00	133.00	136.00	137.00	142.00	143.00	134.00	129.00	134.00	132.00	134.00	134.00	133.00	128.00	125.00	129.00	127.00	137.00	134.00	140.00	136.00	129.00	130.00	132.00	134.00	135.00	135.00	134.00	136.00	134.00	133.00	133.00	135.00	136.00	134.00	132.00	134.00	135.00	134.00	135.00	135.00	136.00	138.00	140.00	136.00	137.00	135.00	137.00	136.00	137.00	137.00	136.00	132.00	138.00	134.00	140.00	141.00	142.00	145.00	152.00	173.00	202.00	203.00	209.00	198.00	178.00	170.00	142.00	175.00	138.00	145.00	191.00	200.00	211.00	205.00	193.00	200.00	192.00	207.00	214.00	215.00	226.00	225.00	225.00	239.00	248.00	257.00	245.00	265.00	267.00	288.00	325.00	307.00	285.00	266.00	242.00	244.00	245.00	262.00	276.00	272.00	272.00	274.00	282.00	288.00	299.00	292.00	290.00	284.00	287.00	280.00	284.00	294.00	294.00	314.00	299.00	308.00	386.00	524.00	596.00	619.00	430.00	469.00	503.00	573.00	731.00	732.00	622.00	671.00	761.00	869.00	898.00	807.00	824.00	908.00	867.00	857.00	812.00	782.00	731.00	726.00	751.00	795.00	738.00	732.00	685.00	667.00	686.00	709.00	728.00	809.00	837.00	1055.00	951.00	883.00	870.00	862.00	868.00	874.00	864.00	810.00	729.00	732.00	760.00	740.00	804.00	843.00	949.00	953.00	917.00	1169.00	1061.00	974.00	804.00	818.00	733.00	640.00	588.00	527.00	408.00	424.00	397.00	397.00	423.00	486.00	495.00	509.00	480.00	482.00	529.00	521.00	551.00	581.00	636.00	526.00	530.00	535.00	472.00	475.00	462.00	459.00	461.00	462.00	487.00	482.00	484.00	475.00	472.00	473.00	500.00	504.00	460.00	408.00	398.00	363.00	361.00	361.00	354.00	353.00	359.00	339.00	344.00	356.00	362.00	435.00	449.00	465.00	458.00	466.00	500.00	502.00	543.00	586.00	614.00	634.00	617.00	526.00	514.00	580.00	537.00	501.00
