1167.00	1166.00	1167.00	1159.00	1156.00	1155.00	1161.00	1172.00	1194.00	1167.00	1139.00	1149.00	1180.00	1225.00	1305.00	1326.00	1298.00	1269.00	1229.00	1216.00	1212.00	1186.00	1144.00	1247.00	1320.00	1393.00	1444.00	1476.00	1457.00	1406.00	1328.00	1233.00	1216.00	1236.00	1291.00	1356.00	1510.00	1567.00	1530.00	1450.00	1360.00	1130.00	1077.00	1038.00	1009.00	969.00	943.00	919.00	896.00	876.00	897.00	961.00	956.00	958.00	911.00	856.00	804.00	762.00	733.00	781.00	814.00	855.00	903.00	877.00	832.00	785.00	754.00	722.00	807.00	871.00	935.00	978.00	885.00	840.00	836.00	852.00	850.00	776.00	738.00	717.00	680.00	631.00	627.00	603.00	581.00	561.00	536.00	521.00	514.00	510.00	513.00	544.00	583.00	628.00	707.00	672.00	661.00	679.00	665.00	628.00	615.00	634.00	707.00	764.00	787.00	786.00	785.00	784.00	804.00	837.00	863.00	894.00	896.00	868.00	905.00	941.00	932.00	939.00	959.00	975.00	978.00	953.00	882.00	838.00	806.00	769.00	767.00	754.00	736.00	713.00	627.00	608.00	668.00	703.00	690.00	586.00	538.00	502.00	487.00	514.00	513.00	509.00	508.00	501.00	471.00	455.00	426.00	460.00	524.00	540.00	552.00	562.00	574.00	601.00	617.00	635.00	667.00	712.00	636.00	568.00	495.00	380.00	319.00	322.00	327.00	332.00	347.00	352.00	380.00	414.00	420.00	458.00	483.00	513.00	544.00	603.00	635.00	706.00	754.00	813.00	878.00	840.00	782.00	718.00	617.00	588.00	603.00	630.00	652.00	659.00	666.00	675.00	695.00	736.00	747.00	758.00	769.00	809.00	981.00	1013.00	1015.00	992.00	885.00	863.00	912.00	977.00	1027.00	1035.00	1003.00	1072.00	1117.00	1125.00	1123.00	1080.00	1022.00	957.00	843.00	842.00	874.00	871.00	930.00	878.00	809.00	738.00	696.00	789.00	847.00	889.00	912.00	854.00	815.00	777.00	744.00	716.00	655.00	625.00	595.00	570.00	503.00	562.00	688.00	742.00	765.00	732.00	697.00	663.00	704.00	700.00	658.00	620.00	659.00	650.00	594.00	631.00	646.00	657.00
1262.00	1268.00	1273.00	1242.00	1191.00	1096.00	1084.00	1130.00	1178.00	1266.00	1256.00	1241.00	1235.00	1250.00	1292.00	1286.00	1244.00	1200.00	1118.00	1096.00	1116.00	1098.00	1039.00	1140.00	1212.00	1276.00	1321.00	1318.00	1320.00	1309.00	1283.00	1201.00	1231.00	1280.00	1360.00	1375.00	1364.00	1450.00	1492.00	1431.00	1341.00	1148.00	1110.00	1078.00	1041.00	976.00	955.00	938.00	924.00	907.00	842.00	851.00	845.00	833.00	807.00	776.00	751.00	768.00	796.00	869.00	915.00	945.00	960.00	859.00	797.00	810.00	841.00	806.00	791.00	855.00	921.00	971.00	957.00	941.00	921.00	889.00	838.00	735.00	699.00	672.00	676.00	735.00	738.00	670.00	630.00	597.00	552.00	538.00	522.00	512.00	576.00	605.00	618.00	628.00	662.00	639.00	621.00	607.00	600.00	598.00	604.00	652.00	678.00	681.00	698.00	699.00	708.00	721.00	790.00	832.00	869.00	895.00	881.00	782.00	868.00	854.00	825.00	887.00	932.00	954.00	982.00	987.00	921.00	890.00	871.00	851.00	810.00	776.00	742.00	707.00	630.00	672.00	722.00	751.00	730.00	666.00	612.00	566.00	525.00	468.00	472.00	469.00	459.00	468.00	503.00	508.00	482.00	508.00	553.00	566.00	579.00	591.00	603.00	620.00	629.00	642.00	661.00	572.00	522.00	485.00	454.00	366.00	321.00	323.00	328.00	333.00	359.00	398.00	444.00	452.00	449.00	490.00	517.00	539.00	552.00	576.00	588.00	653.00	709.00	770.00	796.00	737.00	675.00	613.00	558.00	649.00	747.00	793.00	808.00	809.00	804.00	809.00	796.00	771.00	811.00	838.00	866.00	880.00	997.00	1032.00	1023.00	970.00	847.00	807.00	854.00	902.00	939.00	891.00	895.00	987.00	985.00	1045.00	1088.00	1114.00	1080.00	1019.00	981.00	990.00	1006.00	1011.00	966.00	903.00	863.00	858.00	808.00	829.00	895.00	944.00	973.00	852.00	795.00	746.00	707.00	688.00	655.00	630.00	604.00	579.00	506.00	550.00	670.00	732.00	784.00	826.00	818.00	802.00	803.00	782.00	746.00	732.00	741.00	678.00	686.00	727.00	758.00	755.00
1262.00	1268.00	1273.00	1242.00	1191.00	1096.00	1084.00	1130.00	1178.00	1266.00	1256.00	1241.00	1235.00	1250.00	1292.00	1286.00	1244.00	1200.00	1118.00	1096.00	1116.00	1098.00	1039.00	1140.00	1212.00	1276.00	1321.00	1318.00	1320.00	1309.00	1283.00	1201.00	1231.00	1280.00	1360.00	1375.00	1364.00	1450.00	1492.00	1431.00	1341.00	1148.00	1110.00	1078.00	1041.00	976.00	955.00	938.00	924.00	907.00	842.00	851.00	845.00	833.00	807.00	776.00	751.00	768.00	796.00	869.00	915.00	945.00	960.00	859.00	797.00	810.00	841.00	806.00	791.00	855.00	921.00	971.00	957.00	941.00	921.00	889.00	838.00	735.00	699.00	672.00	676.00	735.00	738.00	670.00	630.00	597.00	552.00	538.00	522.00	512.00	576.00	605.00	618.00	628.00	662.00	639.00	621.00	607.00	600.00	598.00	604.00	652.00	678.00	681.00	698.00	699.00	708.00	721.00	790.00	832.00	869.00	895.00	881.00	782.00	868.00	854.00	825.00	887.00	932.00	954.00	982.00	987.00	921.00	890.00	871.00	851.00	810.00	776.00	742.00	707.00	630.00	672.00	722.00	751.00	730.00	666.00	612.00	566.00	525.00	468.00	472.00	469.00	459.00	468.00	503.00	508.00	482.00	508.00	553.00	566.00	579.00	591.00	603.00	620.00	629.00	642.00	661.00	572.00	522.00	485.00	454.00	366.00	321.00	323.00	328.00	333.00	359.00	398.00	444.00	452.00	449.00	490.00	517.00	539.00	552.00	576.00	588.00	653.00	709.00	770.00	796.00	737.00	675.00	613.00	558.00	649.00	747.00	793.00	808.00	809.00	804.00	809.00	796.00	771.00	811.00	838.00	866.00	880.00	997.00	1032.00	1023.00	970.00	847.00	807.00	854.00	902.00	939.00	891.00	895.00	987.00	985.00	1045.00	1088.00	1114.00	1080.00	1019.00	981.00	990.00	1006.00	1011.00	966.00	903.00	863.00	858.00	808.00	829.00	895.00	944.00	973.00	852.00	795.00	746.00	707.00	688.00	655.00	630.00	604.00	579.00	506.00	550.00	670.00	732.00	784.00	826.00	818.00	802.00	803.00	782.00	746.00	732.00	741.00	678.00	686.00	727.00	758.00	755.00
1165.00	1175.00	1197.00	1185.00	1134.00	1005.00	1052.00	1125.00	1193.00	1231.00	1267.00	1295.00	1322.00	1357.00	1403.00	1370.00	1311.00	1244.00	1117.00	1066.00	998.00	976.00	954.00	1083.00	1134.00	1191.00	1222.00	1203.00	1171.00	1168.00	1165.00	1073.00	1171.00	1221.00	1254.00	1274.00	1188.00	1252.00	1253.00	1209.00	1166.00	1103.00	1100.00	1093.00	1070.00	985.00	947.00	910.00	878.00	858.00	827.00	826.00	837.00	840.00	818.00	789.00	789.00	866.00	908.00	917.00	966.00	1002.00	981.00	882.00	844.00	885.00	889.00	839.00	824.00	897.00	964.00	1016.00	976.00	934.00	894.00	855.00	810.00	711.00	705.00	740.00	787.00	828.00	810.00	715.00	666.00	624.00	569.00	542.00	518.00	523.00	605.00	622.00	611.00	603.00	604.00	594.00	587.00	597.00	627.00	666.00	667.00	643.00	653.00	683.00	693.00	737.00	783.00	806.00	862.00	883.00	873.00	845.00	823.00	735.00	755.00	750.00	756.00	817.00	839.00	861.00	907.00	949.00	921.00	866.00	824.00	771.00	738.00	720.00	700.00	683.00	698.00	737.00	751.00	723.00	696.00	613.00	587.00	556.00	517.00	544.00	568.00	561.00	524.00	533.00	575.00	579.00	562.00	556.00	579.00	585.00	594.00	601.00	604.00	599.00	590.00	582.00	583.00	487.00	466.00	449.00	421.00	337.00	320.00	322.00	326.00	329.00	426.00	450.00	467.00	477.00	495.00	547.00	568.00	589.00	619.00	691.00	726.00	759.00	769.00	760.00	696.00	646.00	591.00	533.00	623.00	712.00	781.00	815.00	820.00	857.00	881.00	903.00	916.00	896.00	912.00	938.00	966.00	996.00	1062.00	1064.00	1059.00	996.00	862.00	783.00	771.00	827.00	831.00	802.00	829.00	860.00	891.00	984.00	1046.00	1096.00	1127.00	1105.00	1034.00	1009.00	996.00	993.00	976.00	983.00	980.00	973.00	953.00	942.00	963.00	989.00	1007.00	911.00	878.00	849.00	829.00	806.00	730.00	686.00	645.00	611.00	538.00	524.00	662.00	732.00	790.00	855.00	873.00	889.00	906.00	907.00	890.00	868.00	830.00	730.00	773.00	808.00	820.00	797.00
1043.00	1047.00	1068.00	1085.00	1068.00	958.00	1015.00	1072.00	1113.00	1144.00	1214.00	1272.00	1345.00	1408.00	1476.00	1466.00	1421.00	1350.00	1192.00	1152.00	1043.00	981.00	914.00	1001.00	1051.00	1107.00	1142.00	1140.00	1102.00	1042.00	1027.00	982.00	1048.00	1081.00	1118.00	1195.00	1179.00	1127.00	1101.00	1072.00	1060.00	998.00	991.00	988.00	994.00	962.00	929.00	892.00	861.00	861.00	891.00	980.00	992.00	964.00	863.00	804.00	828.00	910.00	971.00	1026.00	1045.00	1070.00	1006.00	905.00	928.00	944.00	900.00	841.00	847.00	915.00	979.00	1022.00	938.00	893.00	844.00	795.00	754.00	770.00	806.00	836.00	853.00	823.00	777.00	678.00	646.00	625.00	582.00	558.00	538.00	523.00	548.00	558.00	570.00	570.00	575.00	578.00	622.00	683.00	726.00	785.00	769.00	733.00	720.00	752.00	779.00	809.00	834.00	855.00	885.00	863.00	809.00	754.00	737.00	701.00	743.00	785.00	829.00	891.00	904.00	908.00	923.00	942.00	954.00	926.00	893.00	839.00	764.00	718.00	719.00	763.00	797.00	793.00	773.00	746.00	717.00	617.00	589.00	553.00	542.00	574.00	606.00	605.00	594.00	583.00	599.00	599.00	589.00	585.00	586.00	588.00	589.00	586.00	582.00	564.00	551.00	539.00	527.00	475.00	456.00	439.00	384.00	321.00	319.00	320.00	322.00	326.00	404.00	421.00	444.00	425.00	454.00	588.00	621.00	648.00	687.00	739.00	754.00	786.00	765.00	726.00	618.00	588.00	545.00	491.00	621.00	642.00	647.00	654.00	728.00	824.00	865.00	915.00	959.00	999.00	1009.00	1023.00	1037.00	1052.00	1042.00	1012.00	985.00	956.00	849.00	798.00	731.00	733.00	765.00	854.00	875.00	916.00	947.00	1039.00	1077.00	1077.00	1035.00	987.00	926.00	907.00	883.00	880.00	856.00	873.00	883.00	896.00	916.00	927.00	898.00	896.00	908.00	899.00	852.00	825.00	794.00	752.00	686.00	659.00	630.00	607.00	564.00	524.00	611.00	652.00	692.00	778.00	826.00	864.00	900.00	959.00	976.00	957.00	912.00	795.00	863.00	888.00	880.00	854.00
1043.00	1047.00	1068.00	1085.00	1068.00	958.00	1015.00	1072.00	1113.00	1144.00	1214.00	1272.00	1345.00	1408.00	1476.00	1466.00	1421.00	1350.00	1192.00	1152.00	1043.00	981.00	914.00	1001.00	1051.00	1107.00	1142.00	1140.00	1102.00	1042.00	1027.00	982.00	1048.00	1081.00	1118.00	1195.00	1179.00	1127.00	1101.00	1072.00	1060.00	998.00	991.00	988.00	994.00	962.00	929.00	892.00	861.00	861.00	891.00	980.00	992.00	964.00	863.00	804.00	828.00	910.00	971.00	1026.00	1045.00	1070.00	1006.00	905.00	928.00	944.00	900.00	841.00	847.00	915.00	979.00	1022.00	938.00	893.00	844.00	795.00	754.00	770.00	806.00	836.00	853.00	823.00	777.00	678.00	646.00	625.00	582.00	558.00	538.00	523.00	548.00	558.00	570.00	570.00	575.00	578.00	622.00	683.00	726.00	785.00	769.00	733.00	720.00	752.00	779.00	809.00	834.00	855.00	885.00	863.00	809.00	754.00	737.00	701.00	743.00	785.00	829.00	891.00	904.00	908.00	923.00	942.00	954.00	926.00	893.00	839.00	764.00	718.00	719.00	763.00	797.00	793.00	773.00	746.00	717.00	617.00	589.00	553.00	542.00	574.00	606.00	605.00	594.00	583.00	599.00	599.00	589.00	585.00	586.00	588.00	589.00	586.00	582.00	564.00	551.00	539.00	527.00	475.00	456.00	439.00	384.00	321.00	319.00	320.00	322.00	326.00	404.00	421.00	444.00	425.00	454.00	588.00	621.00	648.00	687.00	739.00	754.00	786.00	765.00	726.00	618.00	588.00	545.00	491.00	621.00	642.00	647.00	654.00	728.00	824.00	865.00	915.00	959.00	999.00	1009.00	1023.00	1037.00	1052.00	1042.00	1012.00	985.00	956.00	849.00	798.00	731.00	733.00	765.00	854.00	875.00	916.00	947.00	1039.00	1077.00	1077.00	1035.00	987.00	926.00	907.00	883.00	880.00	856.00	873.00	883.00	896.00	916.00	927.00	898.00	896.00	908.00	899.00	852.00	825.00	794.00	752.00	686.00	659.00	630.00	607.00	564.00	524.00	611.00	652.00	692.00	778.00	826.00	864.00	900.00	959.00	976.00	957.00	912.00	795.00	863.00	888.00	880.00	854.00
1105.00	1034.00	978.00	959.00	971.00	928.00	933.00	985.00	980.00	1118.00	1176.00	1213.00	1246.00	1248.00	1393.00	1420.00	1376.00	1302.00	1167.00	1101.00	991.00	936.00	886.00	965.00	1011.00	1053.00	1053.00	1041.00	1018.00	979.00	932.00	927.00	1020.00	1051.00	1132.00	1226.00	1338.00	1274.00	1182.00	1173.00	1198.00	1050.00	1002.00	955.00	919.00	915.00	900.00	883.00	933.00	982.00	1038.00	1064.00	1064.00	1015.00	901.00	850.00	841.00	919.00	978.00	1082.00	1120.00	1124.00	1028.00	1010.00	1012.00	976.00	906.00	842.00	940.00	986.00	1019.00	1037.00	960.00	932.00	871.00	802.00	761.00	860.00	897.00	914.00	881.00	790.00	747.00	714.00	729.00	709.00	617.00	584.00	555.00	528.00	535.00	589.00	643.00	658.00	631.00	607.00	617.00	653.00	682.00	737.00	782.00	824.00	838.00	819.00	883.00	878.00	836.00	798.00	772.00	746.00	730.00	706.00	687.00	720.00	760.00	805.00	864.00	910.00	878.00	844.00	834.00	861.00	961.00	981.00	956.00	863.00	781.00	783.00	819.00	844.00	813.00	782.00	762.00	735.00	709.00	630.00	595.00	606.00	633.00	635.00	643.00	641.00	633.00	625.00	612.00	606.00	588.00	583.00	578.00	576.00	570.00	559.00	550.00	534.00	525.00	515.00	507.00	479.00	458.00	414.00	337.00	319.00	321.00	320.00	319.00	325.00	429.00	409.00	400.00	388.00	372.00	448.00	486.00	519.00	563.00	618.00	589.00	645.00	626.00	593.00	515.00	477.00	479.00	508.00	571.00	606.00	644.00	683.00	760.00	843.00	888.00	921.00	928.00	980.00	972.00	952.00	959.00	992.00	922.00	874.00	832.00	814.00	766.00	725.00	711.00	768.00	816.00	881.00	938.00	1025.00	1052.00	1092.00	1091.00	1054.00	997.00	932.00	855.00	826.00	804.00	774.00	746.00	760.00	763.00	787.00	807.00	821.00	807.00	781.00	794.00	790.00	747.00	714.00	684.00	651.00	595.00	581.00	572.00	577.00	584.00	580.00	540.00	593.00	647.00	748.00	787.00	791.00	802.00	880.00	924.00	963.00	972.00	923.00	977.00	988.00	968.00	926.00
1105.00	1034.00	978.00	959.00	971.00	928.00	933.00	985.00	980.00	1118.00	1176.00	1213.00	1246.00	1248.00	1393.00	1420.00	1376.00	1302.00	1167.00	1101.00	991.00	936.00	886.00	965.00	1011.00	1053.00	1053.00	1041.00	1018.00	979.00	932.00	927.00	1020.00	1051.00	1132.00	1226.00	1338.00	1274.00	1182.00	1173.00	1198.00	1050.00	1002.00	955.00	919.00	915.00	900.00	883.00	933.00	982.00	1038.00	1064.00	1064.00	1015.00	901.00	850.00	841.00	919.00	978.00	1082.00	1120.00	1124.00	1028.00	1010.00	1012.00	976.00	906.00	842.00	940.00	986.00	1019.00	1037.00	960.00	932.00	871.00	802.00	761.00	860.00	897.00	914.00	881.00	790.00	747.00	714.00	729.00	709.00	617.00	584.00	555.00	528.00	535.00	589.00	643.00	658.00	631.00	607.00	617.00	653.00	682.00	737.00	782.00	824.00	838.00	819.00	883.00	878.00	836.00	798.00	772.00	746.00	730.00	706.00	687.00	720.00	760.00	805.00	864.00	910.00	878.00	844.00	834.00	861.00	961.00	981.00	956.00	863.00	781.00	783.00	819.00	844.00	813.00	782.00	762.00	735.00	709.00	630.00	595.00	606.00	633.00	635.00	643.00	641.00	633.00	625.00	612.00	606.00	588.00	583.00	578.00	576.00	570.00	559.00	550.00	534.00	525.00	515.00	507.00	479.00	458.00	414.00	337.00	319.00	321.00	320.00	319.00	325.00	429.00	409.00	400.00	388.00	372.00	448.00	486.00	519.00	563.00	618.00	589.00	645.00	626.00	593.00	515.00	477.00	479.00	508.00	571.00	606.00	644.00	683.00	760.00	843.00	888.00	921.00	928.00	980.00	972.00	952.00	959.00	992.00	922.00	874.00	832.00	814.00	766.00	725.00	711.00	768.00	816.00	881.00	938.00	1025.00	1052.00	1092.00	1091.00	1054.00	997.00	932.00	855.00	826.00	804.00	774.00	746.00	760.00	763.00	787.00	807.00	821.00	807.00	781.00	794.00	790.00	747.00	714.00	684.00	651.00	595.00	581.00	572.00	577.00	584.00	580.00	540.00	593.00	647.00	748.00	787.00	791.00	802.00	880.00	924.00	963.00	972.00	923.00	977.00	988.00	968.00	926.00
1144.00	1150.00	1118.00	1041.00	961.00	869.00	881.00	897.00	924.00	1118.00	1145.00	1138.00	1088.00	1116.00	1262.00	1288.00	1260.00	1217.00	1085.00	1031.00	948.00	910.00	865.00	887.00	956.00	987.00	961.00	902.00	894.00	878.00	894.00	951.00	1082.00	1162.00	1209.00	1268.00	1385.00	1363.00	1307.00	1282.00	1225.00	1045.00	1000.00	984.00	1016.00	1008.00	988.00	967.00	991.00	1056.00	1130.00	1092.00	1050.00	995.00	906.00	883.00	865.00	900.00	933.00	1046.00	1099.00	1126.00	1116.00	1074.00	1028.00	954.00	889.00	905.00	1014.00	1065.00	1067.00	1038.00	893.00	851.00	826.00	810.00	842.00	923.00	953.00	947.00	906.00	810.00	791.00	811.00	784.00	742.00	644.00	596.00	565.00	536.00	525.00	574.00	632.00	674.00	669.00	670.00	667.00	662.00	665.00	733.00	776.00	809.00	792.00	745.00	845.00	840.00	807.00	743.00	672.00	664.00	668.00	675.00	679.00	750.00	848.00	888.00	895.00	841.00	795.00	784.00	827.00	859.00	934.00	971.00	980.00	917.00	886.00	884.00	889.00	886.00	827.00	791.00	755.00	709.00	678.00	629.00	650.00	699.00	717.00	699.00	685.00	667.00	651.00	636.00	610.00	599.00	576.00	566.00	551.00	548.00	543.00	535.00	528.00	514.00	506.00	498.00	492.00	435.00	379.00	333.00	319.00	319.00	321.00	321.00	326.00	390.00	538.00	538.00	519.00	494.00	453.00	410.00	388.00	398.00	401.00	424.00	430.00	489.00	507.00	497.00	469.00	522.00	576.00	614.00	632.00	642.00	652.00	655.00	680.00	725.00	764.00	798.00	803.00	885.00	895.00	829.00	848.00	900.00	778.00	726.00	690.00	674.00	733.00	763.00	758.00	766.00	822.00	959.00	1002.00	1086.00	1080.00	1004.00	992.00	1004.00	1014.00	1006.00	926.00	875.00	830.00	831.00	786.00	745.00	712.00	702.00	702.00	696.00	708.00	691.00	693.00	684.00	661.00	642.00	612.00	598.00	670.00	705.00	721.00	719.00	666.00	630.00	580.00	549.00	574.00	646.00	670.00	700.00	751.00	838.00	848.00	872.00	911.00	981.00	1011.00	1021.00	1008.00	968.00
1052.00	1123.00	1161.00	1108.00	1039.00	896.00	831.00	886.00	942.00	1058.00	1061.00	1024.00	978.00	1026.00	1139.00	1170.00	1174.00	1165.00	1103.00	1060.00	977.00	927.00	876.00	815.00	856.00	881.00	844.00	849.00	889.00	941.00	1006.00	1115.00	1204.00	1245.00	1291.00	1239.00	1210.00	1235.00	1205.00	1167.00	1169.00	1089.00	1115.00	1146.00	1146.00	1136.00	1124.00	1104.00	1106.00	1130.00	1152.00	1058.00	1020.00	1006.00	976.00	950.00	938.00	955.00	984.00	989.00	1055.00	1111.00	1142.00	1048.00	979.00	950.00	973.00	1004.00	1076.00	1092.00	1069.00	1017.00	890.00	903.00	922.00	913.00	947.00	970.00	971.00	969.00	953.00	893.00	884.00	873.00	833.00	772.00	651.00	605.00	570.00	548.00	513.00	535.00	570.00	612.00	636.00	685.00	707.00	722.00	738.00	757.00	763.00	757.00	720.00	682.00	737.00	717.00	704.00	674.00	650.00	696.00	749.00	782.00	767.00	773.00	838.00	861.00	858.00	780.00	750.00	771.00	829.00	870.00	897.00	896.00	916.00	977.00	934.00	901.00	863.00	831.00	777.00	750.00	737.00	740.00	745.00	694.00	729.00	762.00	776.00	769.00	740.00	702.00	670.00	650.00	619.00	604.00	564.00	550.00	532.00	524.00	521.00	519.00	513.00	497.00	490.00	482.00	483.00	376.00	323.00	319.00	319.00	319.00	320.00	320.00	347.00	467.00	639.00	656.00	644.00	620.00	587.00	515.00	480.00	503.00	506.00	450.00	420.00	431.00	423.00	428.00	458.00	466.00	489.00	496.00	521.00	532.00	534.00	555.00	573.00	642.00	669.00	667.00	698.00	779.00	813.00	753.00	692.00	737.00	643.00	656.00	696.00	751.00	853.00	893.00	901.00	888.00	859.00	919.00	980.00	1058.00	1036.00	949.00	891.00	898.00	946.00	993.00	981.00	950.00	946.00	934.00	820.00	772.00	729.00	719.00	734.00	702.00	695.00	690.00	664.00	648.00	660.00	657.00	635.00	669.00	781.00	822.00	824.00	790.00	735.00	715.00	657.00	611.00	562.00	596.00	630.00	657.00	692.00	736.00	770.00	823.00	864.00	876.00	888.00	923.00	968.00	1006.00
1052.00	1123.00	1161.00	1108.00	1039.00	896.00	831.00	886.00	942.00	1058.00	1061.00	1024.00	978.00	1026.00	1139.00	1170.00	1174.00	1165.00	1103.00	1060.00	977.00	927.00	876.00	815.00	856.00	881.00	844.00	849.00	889.00	941.00	1006.00	1115.00	1204.00	1245.00	1291.00	1239.00	1210.00	1235.00	1205.00	1167.00	1169.00	1089.00	1115.00	1146.00	1146.00	1136.00	1124.00	1104.00	1106.00	1130.00	1152.00	1058.00	1020.00	1006.00	976.00	950.00	938.00	955.00	984.00	989.00	1055.00	1111.00	1142.00	1048.00	979.00	950.00	973.00	1004.00	1076.00	1092.00	1069.00	1017.00	890.00	903.00	922.00	913.00	947.00	970.00	971.00	969.00	953.00	893.00	884.00	873.00	833.00	772.00	651.00	605.00	570.00	548.00	513.00	535.00	570.00	612.00	636.00	685.00	707.00	722.00	738.00	757.00	763.00	757.00	720.00	682.00	737.00	717.00	704.00	674.00	650.00	696.00	749.00	782.00	767.00	773.00	838.00	861.00	858.00	780.00	750.00	771.00	829.00	870.00	897.00	896.00	916.00	977.00	934.00	901.00	863.00	831.00	777.00	750.00	737.00	740.00	745.00	694.00	729.00	762.00	776.00	769.00	740.00	702.00	670.00	650.00	619.00	604.00	564.00	550.00	532.00	524.00	521.00	519.00	513.00	497.00	490.00	482.00	483.00	376.00	323.00	319.00	319.00	319.00	320.00	320.00	347.00	467.00	639.00	656.00	644.00	620.00	587.00	515.00	480.00	503.00	506.00	450.00	420.00	431.00	423.00	428.00	458.00	466.00	489.00	496.00	521.00	532.00	534.00	555.00	573.00	642.00	669.00	667.00	698.00	779.00	813.00	753.00	692.00	737.00	643.00	656.00	696.00	751.00	853.00	893.00	901.00	888.00	859.00	919.00	980.00	1058.00	1036.00	949.00	891.00	898.00	946.00	993.00	981.00	950.00	946.00	934.00	820.00	772.00	729.00	719.00	734.00	702.00	695.00	690.00	664.00	648.00	660.00	657.00	635.00	669.00	781.00	822.00	824.00	790.00	735.00	715.00	657.00	611.00	562.00	596.00	630.00	657.00	692.00	736.00	770.00	823.00	864.00	876.00	888.00	923.00	968.00	1006.00
1052.00	1123.00	1161.00	1108.00	1039.00	896.00	831.00	886.00	942.00	1058.00	1061.00	1024.00	978.00	1026.00	1139.00	1170.00	1174.00	1165.00	1103.00	1060.00	977.00	927.00	876.00	815.00	856.00	881.00	844.00	849.00	889.00	941.00	1006.00	1115.00	1204.00	1245.00	1291.00	1239.00	1210.00	1235.00	1205.00	1167.00	1169.00	1089.00	1115.00	1146.00	1146.00	1136.00	1124.00	1104.00	1106.00	1130.00	1152.00	1058.00	1020.00	1006.00	976.00	950.00	938.00	955.00	984.00	989.00	1055.00	1111.00	1142.00	1048.00	979.00	950.00	973.00	1004.00	1076.00	1092.00	1069.00	1017.00	890.00	903.00	922.00	913.00	947.00	970.00	971.00	969.00	953.00	893.00	884.00	873.00	833.00	772.00	651.00	605.00	570.00	548.00	513.00	535.00	570.00	612.00	636.00	685.00	707.00	722.00	738.00	757.00	763.00	757.00	720.00	682.00	737.00	717.00	704.00	674.00	650.00	696.00	749.00	782.00	767.00	773.00	838.00	861.00	858.00	780.00	750.00	771.00	829.00	870.00	897.00	896.00	916.00	977.00	934.00	901.00	863.00	831.00	777.00	750.00	737.00	740.00	745.00	694.00	729.00	762.00	776.00	769.00	740.00	702.00	670.00	650.00	619.00	604.00	564.00	550.00	532.00	524.00	521.00	519.00	513.00	497.00	490.00	482.00	483.00	376.00	323.00	319.00	319.00	319.00	320.00	320.00	347.00	467.00	639.00	656.00	644.00	620.00	587.00	515.00	480.00	503.00	506.00	450.00	420.00	431.00	423.00	428.00	458.00	466.00	489.00	496.00	521.00	532.00	534.00	555.00	573.00	642.00	669.00	667.00	698.00	779.00	813.00	753.00	692.00	737.00	643.00	656.00	696.00	751.00	853.00	893.00	901.00	888.00	859.00	919.00	980.00	1058.00	1036.00	949.00	891.00	898.00	946.00	993.00	981.00	950.00	946.00	934.00	820.00	772.00	729.00	719.00	734.00	702.00	695.00	690.00	664.00	648.00	660.00	657.00	635.00	669.00	781.00	822.00	824.00	790.00	735.00	715.00	657.00	611.00	562.00	596.00	630.00	657.00	692.00	736.00	770.00	823.00	864.00	876.00	888.00	923.00	968.00	1006.00
971.00	1040.00	1097.00	1100.00	1045.00	918.00	853.00	816.00	859.00	987.00	968.00	923.00	919.00	992.00	1081.00	1087.00	1078.00	1084.00	1072.00	1030.00	949.00	920.00	890.00	823.00	781.00	774.00	834.00	1002.00	1029.00	1061.00	1136.00	1179.00	1146.00	1135.00	1165.00	1159.00	1030.00	1031.00	1042.00	1087.00	1149.00	1170.00	1174.00	1193.00	1198.00	1185.00	1177.00	1147.00	1114.00	1093.00	1122.00	1139.00	1131.00	1118.00	1077.00	1064.00	1035.00	1021.00	1061.00	1058.00	1097.00	1136.00	1139.00	1055.00	1051.00	1061.00	1076.00	1092.00	1124.00	1124.00	1100.00	1064.00	997.00	1014.00	1044.00	1025.00	994.00	920.00	889.00	908.00	948.00	896.00	855.00	854.00	854.00	820.00	714.00	652.00	594.00	554.00	511.00	521.00	543.00	568.00	650.00	685.00	687.00	717.00	743.00	769.00	762.00	734.00	706.00	666.00	647.00	640.00	635.00	642.00	714.00	755.00	792.00	813.00	835.00	837.00	811.00	780.00	756.00	730.00	729.00	758.00	783.00	797.00	844.00	878.00	917.00	969.00	938.00	894.00	848.00	831.00	834.00	842.00	843.00	827.00	799.00	792.00	777.00	739.00	697.00	714.00	725.00	699.00	659.00	631.00	611.00	599.00	553.00	538.00	517.00	509.00	501.00	498.00	497.00	489.00	490.00	487.00	463.00	338.00	325.00	320.00	319.00	319.00	320.00	320.00	323.00	383.00	572.00	629.00	668.00	692.00	687.00	650.00	625.00	612.00	586.00	495.00	503.00	474.00	499.00	554.00	495.00	497.00	532.00	521.00	502.00	523.00	514.00	497.00	505.00	557.00	559.00	586.00	622.00	678.00	687.00	668.00	622.00	580.00	728.00	781.00	836.00	877.00	945.00	986.00	1020.00	1020.00	999.00	970.00	1002.00	1007.00	967.00	873.00	835.00	841.00	889.00	939.00	1023.00	1006.00	952.00	896.00	779.00	751.00	783.00	847.00	872.00	814.00	792.00	772.00	731.00	725.00	785.00	794.00	750.00	687.00	800.00	860.00	889.00	861.00	773.00	731.00	654.00	611.00	606.00	589.00	579.00	600.00	633.00	709.00	743.00	750.00	755.00	746.00	773.00	806.00	860.00	922.00
887.00	948.00	998.00	1020.00	1041.00	1016.00	953.00	857.00	792.00	875.00	858.00	870.00	938.00	1004.00	1076.00	1037.00	986.00	974.00	1021.00	1023.00	960.00	914.00	871.00	803.00	761.00	757.00	824.00	960.00	1022.00	1077.00	1109.00	1093.00	989.00	1000.00	1049.00	1073.00	981.00	947.00	1011.00	1045.00	1085.00	1059.00	1042.00	1089.00	1120.00	1042.00	1029.00	1047.00	1004.00	947.00	1048.00	1123.00	1137.00	1146.00	1157.00	1169.00	1157.00	1143.00	1144.00	1128.00	1129.00	1139.00	1132.00	1109.00	1124.00	1123.00	1102.00	1078.00	1049.00	1070.00	1094.00	1120.00	1085.00	1079.00	1082.00	1038.00	986.00	895.00	848.00	810.00	813.00	816.00	795.00	731.00	748.00	747.00	716.00	674.00	612.00	537.00	514.00	518.00	540.00	561.00	623.00	617.00	637.00	651.00	663.00	670.00	679.00	673.00	649.00	630.00	644.00	666.00	694.00	710.00	733.00	730.00	728.00	756.00	799.00	804.00	746.00	719.00	703.00	755.00	798.00	819.00	839.00	858.00	907.00	923.00	903.00	872.00	952.00	957.00	948.00	941.00	934.00	928.00	920.00	907.00	888.00	819.00	769.00	713.00	665.00	606.00	597.00	589.00	589.00	583.00	573.00	562.00	536.00	525.00	501.00	492.00	486.00	481.00	485.00	490.00	492.00	490.00	474.00	320.00	319.00	319.00	319.00	320.00	324.00	321.00	320.00	347.00	459.00	526.00	577.00	616.00	650.00	695.00	693.00	662.00	624.00	541.00	569.00	560.00	515.00	591.00	600.00	557.00	625.00	641.00	571.00	650.00	638.00	570.00	600.00	535.00	532.00	526.00	527.00	564.00	559.00	563.00	578.00	585.00	694.00	734.00	769.00	823.00	954.00	1000.00	1043.00	1074.00	1092.00	1030.00	1010.00	919.00	888.00	842.00	792.00	829.00	880.00	917.00	987.00	1011.00	984.00	935.00	804.00	825.00	884.00	929.00	934.00	838.00	795.00	763.00	745.00	771.00	831.00	868.00	834.00	784.00	868.00	891.00	881.00	834.00	731.00	698.00	638.00	692.00	733.00	691.00	655.00	611.00	591.00	643.00	656.00	660.00	678.00	755.00	817.00	857.00	902.00	944.00
887.00	948.00	998.00	1020.00	1041.00	1016.00	953.00	857.00	792.00	875.00	858.00	870.00	938.00	1004.00	1076.00	1037.00	986.00	974.00	1021.00	1023.00	960.00	914.00	871.00	803.00	761.00	757.00	824.00	960.00	1022.00	1077.00	1109.00	1093.00	989.00	1000.00	1049.00	1073.00	981.00	947.00	1011.00	1045.00	1085.00	1059.00	1042.00	1089.00	1120.00	1042.00	1029.00	1047.00	1004.00	947.00	1048.00	1123.00	1137.00	1146.00	1157.00	1169.00	1157.00	1143.00	1144.00	1128.00	1129.00	1139.00	1132.00	1109.00	1124.00	1123.00	1102.00	1078.00	1049.00	1070.00	1094.00	1120.00	1085.00	1079.00	1082.00	1038.00	986.00	895.00	848.00	810.00	813.00	816.00	795.00	731.00	748.00	747.00	716.00	674.00	612.00	537.00	514.00	518.00	540.00	561.00	623.00	617.00	637.00	651.00	663.00	670.00	679.00	673.00	649.00	630.00	644.00	666.00	694.00	710.00	733.00	730.00	728.00	756.00	799.00	804.00	746.00	719.00	703.00	755.00	798.00	819.00	839.00	858.00	907.00	923.00	903.00	872.00	952.00	957.00	948.00	941.00	934.00	928.00	920.00	907.00	888.00	819.00	769.00	713.00	665.00	606.00	597.00	589.00	589.00	583.00	573.00	562.00	536.00	525.00	501.00	492.00	486.00	481.00	485.00	490.00	492.00	490.00	474.00	320.00	319.00	319.00	319.00	320.00	324.00	321.00	320.00	347.00	459.00	526.00	577.00	616.00	650.00	695.00	693.00	662.00	624.00	541.00	569.00	560.00	515.00	591.00	600.00	557.00	625.00	641.00	571.00	650.00	638.00	570.00	600.00	535.00	532.00	526.00	527.00	564.00	559.00	563.00	578.00	585.00	694.00	734.00	769.00	823.00	954.00	1000.00	1043.00	1074.00	1092.00	1030.00	1010.00	919.00	888.00	842.00	792.00	829.00	880.00	917.00	987.00	1011.00	984.00	935.00	804.00	825.00	884.00	929.00	934.00	838.00	795.00	763.00	745.00	771.00	831.00	868.00	834.00	784.00	868.00	891.00	881.00	834.00	731.00	698.00	638.00	692.00	733.00	691.00	655.00	611.00	591.00	643.00	656.00	660.00	678.00	755.00	817.00	857.00	902.00	944.00
888.00	850.00	860.00	885.00	904.00	922.00	918.00	882.00	810.00	834.00	894.00	948.00	997.00	1015.00	1069.00	1050.00	997.00	931.00	903.00	909.00	905.00	888.00	887.00	803.00	746.00	754.00	835.00	941.00	978.00	983.00	1000.00	994.00	918.00	934.00	993.00	1001.00	926.00	902.00	963.00	1013.00	1044.00	968.00	966.00	1038.00	1079.00	999.00	933.00	910.00	911.00	870.00	939.00	968.00	992.00	1031.00	1102.00	1155.00	1190.00	1179.00	1134.00	1043.00	1024.00	1021.00	1018.00	1011.00	1054.00	1064.00	1051.00	1027.00	935.00	956.00	1002.00	1042.00	1048.00	1018.00	993.00	968.00	942.00	868.00	835.00	802.00	771.00	728.00	715.00	682.00	667.00	651.00	613.00	597.00	576.00	546.00	512.00	507.00	516.00	542.00	576.00	575.00	574.00	589.00	586.00	576.00	587.00	596.00	601.00	596.00	656.00	665.00	673.00	681.00	680.00	667.00	687.00	717.00	724.00	702.00	686.00	674.00	674.00	773.00	825.00	874.00	910.00	950.00	945.00	892.00	831.00	794.00	909.00	929.00	969.00	973.00	891.00	847.00	832.00	847.00	877.00	788.00	757.00	738.00	727.00	642.00	594.00	557.00	529.00	522.00	538.00	539.00	523.00	512.00	500.00	493.00	485.00	471.00	463.00	493.00	491.00	480.00	458.00	320.00	319.00	319.00	319.00	319.00	321.00	321.00	319.00	331.00	524.00	478.00	470.00	502.00	555.00	636.00	656.00	669.00	675.00	664.00	625.00	666.00	567.00	620.00	726.00	691.00	733.00	736.00	683.00	710.00	657.00	635.00	719.00	714.00	730.00	661.00	646.00	600.00	556.00	568.00	643.00	698.00	687.00	687.00	728.00	802.00	944.00	997.00	1038.00	1066.00	1040.00	933.00	912.00	892.00	850.00	756.00	756.00	792.00	829.00	867.00	950.00	985.00	997.00	993.00	941.00	943.00	953.00	958.00	945.00	893.00	878.00	856.00	827.00	787.00	844.00	897.00	939.00	947.00	956.00	926.00	864.00	794.00	698.00	663.00	741.00	791.00	818.00	777.00	741.00	700.00	662.00	607.00	645.00	688.00	733.00	836.00	889.00	903.00	905.00	893.00
982.00	940.00	895.00	858.00	829.00	802.00	796.00	787.00	762.00	882.00	927.00	919.00	899.00	922.00	1037.00	1062.00	1024.00	986.00	932.00	897.00	815.00	808.00	798.00	770.00	733.00	733.00	813.00	871.00	888.00	906.00	925.00	911.00	876.00	849.00	901.00	901.00	872.00	920.00	982.00	990.00	995.00	933.00	893.00	957.00	1020.00	1006.00	948.00	889.00	838.00	809.00	925.00	1008.00	1052.00	1098.00	1146.00	1164.00	1169.00	1147.00	1113.00	1031.00	984.00	935.00	916.00	925.00	968.00	980.00	960.00	937.00	921.00	872.00	873.00	919.00	939.00	950.00	933.00	916.00	902.00	850.00	810.00	781.00	759.00	731.00	719.00	694.00	687.00	682.00	657.00	622.00	566.00	539.00	514.00	504.00	494.00	503.00	554.00	546.00	553.00	577.00	599.00	650.00	631.00	632.00	615.00	591.00	596.00	609.00	618.00	623.00	628.00	632.00	645.00	652.00	651.00	651.00	642.00	683.00	731.00	754.00	773.00	808.00	862.00	916.00	889.00	870.00	809.00	740.00	810.00	828.00	885.00	944.00	893.00	836.00	788.00	758.00	793.00	825.00	780.00	738.00	696.00	619.00	584.00	581.00	588.00	573.00	508.00	494.00	489.00	491.00	476.00	485.00	488.00	479.00	449.00	492.00	487.00	468.00	449.00	319.00	319.00	319.00	319.00	319.00	323.00	320.00	319.00	327.00	631.00	623.00	586.00	519.00	530.00	627.00	667.00	706.00	742.00	788.00	764.00	772.00	669.00	684.00	810.00	835.00	847.00	850.00	833.00	813.00	765.00	749.00	827.00	849.00	834.00	800.00	789.00	699.00	646.00	567.00	598.00	669.00	846.00	838.00	822.00	834.00	886.00	941.00	967.00	960.00	930.00	832.00	794.00	831.00	812.00	687.00	737.00	791.00	849.00	899.00	923.00	904.00	891.00	923.00	1026.00	1019.00	974.00	916.00	865.00	800.00	839.00	872.00	897.00	903.00	919.00	943.00	977.00	1006.00	949.00	899.00	842.00	787.00	794.00	768.00	758.00	816.00	866.00	860.00	822.00	782.00	731.00	633.00	610.00	646.00	695.00	789.00	794.00	794.00	784.00	757.00
982.00	940.00	895.00	858.00	829.00	802.00	796.00	787.00	762.00	882.00	927.00	919.00	899.00	922.00	1037.00	1062.00	1024.00	986.00	932.00	897.00	815.00	808.00	798.00	770.00	733.00	733.00	813.00	871.00	888.00	906.00	925.00	911.00	876.00	849.00	901.00	901.00	872.00	920.00	982.00	990.00	995.00	933.00	893.00	957.00	1020.00	1006.00	948.00	889.00	838.00	809.00	925.00	1008.00	1052.00	1098.00	1146.00	1164.00	1169.00	1147.00	1113.00	1031.00	984.00	935.00	916.00	925.00	968.00	980.00	960.00	937.00	921.00	872.00	873.00	919.00	939.00	950.00	933.00	916.00	902.00	850.00	810.00	781.00	759.00	731.00	719.00	694.00	687.00	682.00	657.00	622.00	566.00	539.00	514.00	504.00	494.00	503.00	554.00	546.00	553.00	577.00	599.00	650.00	631.00	632.00	615.00	591.00	596.00	609.00	618.00	623.00	628.00	632.00	645.00	652.00	651.00	651.00	642.00	683.00	731.00	754.00	773.00	808.00	862.00	916.00	889.00	870.00	809.00	740.00	810.00	828.00	885.00	944.00	893.00	836.00	788.00	758.00	793.00	825.00	780.00	738.00	696.00	619.00	584.00	581.00	588.00	573.00	508.00	494.00	489.00	491.00	476.00	485.00	488.00	479.00	449.00	492.00	487.00	468.00	449.00	319.00	319.00	319.00	319.00	319.00	323.00	320.00	319.00	327.00	631.00	623.00	586.00	519.00	530.00	627.00	667.00	706.00	742.00	788.00	764.00	772.00	669.00	684.00	810.00	835.00	847.00	850.00	833.00	813.00	765.00	749.00	827.00	849.00	834.00	800.00	789.00	699.00	646.00	567.00	598.00	669.00	846.00	838.00	822.00	834.00	886.00	941.00	967.00	960.00	930.00	832.00	794.00	831.00	812.00	687.00	737.00	791.00	849.00	899.00	923.00	904.00	891.00	923.00	1026.00	1019.00	974.00	916.00	865.00	800.00	839.00	872.00	897.00	903.00	919.00	943.00	977.00	1006.00	949.00	899.00	842.00	787.00	794.00	768.00	758.00	816.00	866.00	860.00	822.00	782.00	731.00	633.00	610.00	646.00	695.00	789.00	794.00	794.00	784.00	757.00
945.00	982.00	989.00	976.00	948.00	894.00	880.00	855.00	806.00	772.00	785.00	816.00	876.00	938.00	1028.00	1033.00	991.00	959.00	991.00	991.00	950.00	935.00	906.00	835.00	772.00	714.00	731.00	804.00	827.00	860.00	840.00	844.00	812.00	803.00	834.00	859.00	939.00	948.00	922.00	909.00	923.00	898.00	847.00	897.00	968.00	957.00	900.00	845.00	793.00	816.00	916.00	1022.00	1072.00	1091.00	1089.00	1117.00	1110.00	1068.00	1042.00	1055.00	1057.00	1028.00	917.00	829.00	839.00	874.00	893.00	865.00	882.00	873.00	818.00	784.00	893.00	911.00	880.00	836.00	807.00	760.00	728.00	698.00	674.00	643.00	631.00	617.00	610.00	600.00	588.00	592.00	567.00	541.00	506.00	494.00	493.00	511.00	532.00	651.00	677.00	694.00	696.00	747.00	748.00	742.00	692.00	665.00	639.00	641.00	684.00	679.00	638.00	621.00	622.00	620.00	644.00	706.00	687.00	683.00	711.00	781.00	812.00	844.00	885.00	908.00	840.00	790.00	753.00	685.00	763.00	810.00	864.00	926.00	903.00	837.00	779.00	723.00	739.00	840.00	787.00	737.00	685.00	623.00	622.00	632.00	616.00	586.00	524.00	494.00	493.00	495.00	458.00	441.00	431.00	429.00	415.00	473.00	472.00	458.00	451.00	320.00	319.00	319.00	319.00	319.00	321.00	319.00	320.00	339.00	617.00	669.00	685.00	641.00	581.00	567.00	628.00	688.00	737.00	815.00	850.00	852.00	813.00	757.00	841.00	892.00	934.00	965.00	950.00	912.00	861.00	838.00	918.00	970.00	937.00	888.00	841.00	741.00	685.00	628.00	594.00	633.00	755.00	755.00	747.00	752.00	876.00	921.00	903.00	854.00	803.00	743.00	722.00	719.00	727.00	657.00	715.00	771.00	823.00	829.00	810.00	836.00	879.00	921.00	924.00	943.00	919.00	869.00	825.00	723.00	749.00	795.00	842.00	948.00	929.00	902.00	907.00	943.00	963.00	925.00	882.00	892.00	884.00	833.00	791.00	806.00	869.00	890.00	832.00	762.00	717.00	724.00	690.00	647.00	638.00	693.00	692.00	700.00	698.00	715.00
945.00	982.00	989.00	976.00	948.00	894.00	880.00	855.00	806.00	772.00	785.00	816.00	876.00	938.00	1028.00	1033.00	991.00	959.00	991.00	991.00	950.00	935.00	906.00	835.00	772.00	714.00	731.00	804.00	827.00	860.00	840.00	844.00	812.00	803.00	834.00	859.00	939.00	948.00	922.00	909.00	923.00	898.00	847.00	897.00	968.00	957.00	900.00	845.00	793.00	816.00	916.00	1022.00	1072.00	1091.00	1089.00	1117.00	1110.00	1068.00	1042.00	1055.00	1057.00	1028.00	917.00	829.00	839.00	874.00	893.00	865.00	882.00	873.00	818.00	784.00	893.00	911.00	880.00	836.00	807.00	760.00	728.00	698.00	674.00	643.00	631.00	617.00	610.00	600.00	588.00	592.00	567.00	541.00	506.00	494.00	493.00	511.00	532.00	651.00	677.00	694.00	696.00	747.00	748.00	742.00	692.00	665.00	639.00	641.00	684.00	679.00	638.00	621.00	622.00	620.00	644.00	706.00	687.00	683.00	711.00	781.00	812.00	844.00	885.00	908.00	840.00	790.00	753.00	685.00	763.00	810.00	864.00	926.00	903.00	837.00	779.00	723.00	739.00	840.00	787.00	737.00	685.00	623.00	622.00	632.00	616.00	586.00	524.00	494.00	493.00	495.00	458.00	441.00	431.00	429.00	415.00	473.00	472.00	458.00	451.00	320.00	319.00	319.00	319.00	319.00	321.00	319.00	320.00	339.00	617.00	669.00	685.00	641.00	581.00	567.00	628.00	688.00	737.00	815.00	850.00	852.00	813.00	757.00	841.00	892.00	934.00	965.00	950.00	912.00	861.00	838.00	918.00	970.00	937.00	888.00	841.00	741.00	685.00	628.00	594.00	633.00	755.00	755.00	747.00	752.00	876.00	921.00	903.00	854.00	803.00	743.00	722.00	719.00	727.00	657.00	715.00	771.00	823.00	829.00	810.00	836.00	879.00	921.00	924.00	943.00	919.00	869.00	825.00	723.00	749.00	795.00	842.00	948.00	929.00	902.00	907.00	943.00	963.00	925.00	882.00	892.00	884.00	833.00	791.00	806.00	869.00	890.00	832.00	762.00	717.00	724.00	690.00	647.00	638.00	693.00	692.00	700.00	698.00	715.00
838.00	856.00	862.00	889.00	911.00	988.00	973.00	925.00	862.00	708.00	730.00	787.00	838.00	881.00	909.00	921.00	891.00	832.00	951.00	986.00	995.00	991.00	952.00	866.00	819.00	761.00	703.00	745.00	767.00	774.00	763.00	769.00	833.00	874.00	923.00	927.00	890.00	859.00	848.00	871.00	915.00	846.00	807.00	870.00	934.00	920.00	852.00	785.00	772.00	849.00	976.00	1051.00	1055.00	1019.00	996.00	1024.00	1005.00	995.00	976.00	956.00	992.00	1028.00	1016.00	896.00	836.00	795.00	783.00	775.00	765.00	801.00	795.00	758.00	848.00	844.00	840.00	834.00	816.00	767.00	746.00	715.00	682.00	665.00	639.00	653.00	647.00	623.00	571.00	547.00	535.00	526.00	499.00	488.00	494.00	507.00	585.00	665.00	701.00	733.00	754.00	777.00	793.00	775.00	746.00	763.00	701.00	711.00	755.00	756.00	696.00	704.00	687.00	677.00	690.00	694.00	767.00	759.00	740.00	797.00	819.00	827.00	821.00	834.00	849.00	799.00	750.00	666.00	767.00	828.00	894.00	910.00	829.00	785.00	734.00	693.00	717.00	835.00	791.00	750.00	719.00	681.00	663.00	657.00	633.00	601.00	534.00	530.00	602.00	617.00	551.00	510.00	488.00	485.00	472.00	401.00	429.00	444.00	447.00	326.00	322.00	320.00	319.00	319.00	320.00	319.00	319.00	339.00	558.00	633.00	689.00	708.00	690.00	649.00	598.00	604.00	643.00	746.00	795.00	876.00	863.00	840.00	830.00	867.00	919.00	980.00	996.00	952.00	910.00	898.00	963.00	1025.00	970.00	905.00	847.00	737.00	694.00	713.00	719.00	700.00	645.00	698.00	755.00	810.00	913.00	945.00	909.00	855.00	799.00	701.00	680.00	662.00	644.00	633.00	676.00	714.00	705.00	697.00	778.00	832.00	886.00	925.00	851.00	857.00	881.00	845.00	785.00	685.00	687.00	722.00	764.00	855.00	816.00	775.00	809.00	856.00	911.00	959.00	994.00	995.00	935.00	920.00	932.00	922.00	928.00	928.00	883.00	830.00	828.00	836.00	797.00	752.00	709.00	652.00	738.00	763.00	785.00	800.00
700.00	701.00	711.00	735.00	807.00	963.00	999.00	988.00	941.00	772.00	715.00	694.00	721.00	765.00	803.00	828.00	794.00	751.00	887.00	862.00	893.00	961.00	990.00	929.00	882.00	821.00	741.00	706.00	748.00	793.00	836.00	867.00	935.00	959.00	943.00	899.00	821.00	804.00	851.00	908.00	920.00	786.00	800.00	876.00	912.00	841.00	779.00	746.00	808.00	873.00	970.00	941.00	941.00	910.00	969.00	964.00	924.00	896.00	915.00	873.00	896.00	950.00	1021.00	989.00	951.00	912.00	862.00	815.00	709.00	691.00	711.00	709.00	745.00	750.00	749.00	753.00	758.00	753.00	743.00	732.00	721.00	686.00	686.00	700.00	686.00	652.00	603.00	560.00	532.00	512.00	489.00	495.00	529.00	563.00	611.00	651.00	670.00	688.00	719.00	792.00	813.00	827.00	848.00	868.00	822.00	816.00	825.00	815.00	790.00	795.00	773.00	759.00	790.00	741.00	782.00	829.00	819.00	799.00	795.00	775.00	743.00	765.00	788.00	756.00	715.00	652.00	704.00	744.00	766.00	802.00	792.00	730.00	685.00	658.00	687.00	746.00	754.00	776.00	789.00	765.00	749.00	718.00	676.00	630.00	582.00	629.00	656.00	666.00	585.00	547.00	516.00	491.00	473.00	469.00	426.00	391.00	397.00	338.00	330.00	325.00	322.00	321.00	319.00	319.00	319.00	357.00	631.00	653.00	682.00	720.00	749.00	709.00	661.00	624.00	636.00	669.00	686.00	765.00	804.00	846.00	919.00	943.00	961.00	991.00	1038.00	1017.00	994.00	996.00	1028.00	1058.00	1029.00	991.00	946.00	821.00	828.00	861.00	859.00	829.00	693.00	679.00	713.00	758.00	872.00	944.00	959.00	917.00	851.00	805.00	800.00	731.00	688.00	592.00	594.00	617.00	666.00	719.00	819.00	859.00	895.00	928.00	819.00	779.00	770.00	787.00	759.00	668.00	651.00	706.00	762.00	776.00	728.00	709.00	738.00	760.00	853.00	919.00	977.00	970.00	885.00	875.00	906.00	925.00	928.00	921.00	938.00	943.00	940.00	887.00	839.00	786.00	736.00	659.00	740.00	778.00	797.00	814.00
700.00	701.00	711.00	735.00	807.00	963.00	999.00	988.00	941.00	772.00	715.00	694.00	721.00	765.00	803.00	828.00	794.00	751.00	887.00	862.00	893.00	961.00	990.00	929.00	882.00	821.00	741.00	706.00	748.00	793.00	836.00	867.00	935.00	959.00	943.00	899.00	821.00	804.00	851.00	908.00	920.00	786.00	800.00	876.00	912.00	841.00	779.00	746.00	808.00	873.00	970.00	941.00	941.00	910.00	969.00	964.00	924.00	896.00	915.00	873.00	896.00	950.00	1021.00	989.00	951.00	912.00	862.00	815.00	709.00	691.00	711.00	709.00	745.00	750.00	749.00	753.00	758.00	753.00	743.00	732.00	721.00	686.00	686.00	700.00	686.00	652.00	603.00	560.00	532.00	512.00	489.00	495.00	529.00	563.00	611.00	651.00	670.00	688.00	719.00	792.00	813.00	827.00	848.00	868.00	822.00	816.00	825.00	815.00	790.00	795.00	773.00	759.00	790.00	741.00	782.00	829.00	819.00	799.00	795.00	775.00	743.00	765.00	788.00	756.00	715.00	652.00	704.00	744.00	766.00	802.00	792.00	730.00	685.00	658.00	687.00	746.00	754.00	776.00	789.00	765.00	749.00	718.00	676.00	630.00	582.00	629.00	656.00	666.00	585.00	547.00	516.00	491.00	473.00	469.00	426.00	391.00	397.00	338.00	330.00	325.00	322.00	321.00	319.00	319.00	319.00	357.00	631.00	653.00	682.00	720.00	749.00	709.00	661.00	624.00	636.00	669.00	686.00	765.00	804.00	846.00	919.00	943.00	961.00	991.00	1038.00	1017.00	994.00	996.00	1028.00	1058.00	1029.00	991.00	946.00	821.00	828.00	861.00	859.00	829.00	693.00	679.00	713.00	758.00	872.00	944.00	959.00	917.00	851.00	805.00	800.00	731.00	688.00	592.00	594.00	617.00	666.00	719.00	819.00	859.00	895.00	928.00	819.00	779.00	770.00	787.00	759.00	668.00	651.00	706.00	762.00	776.00	728.00	709.00	738.00	760.00	853.00	919.00	977.00	970.00	885.00	875.00	906.00	925.00	928.00	921.00	938.00	943.00	940.00	887.00	839.00	786.00	736.00	659.00	740.00	778.00	797.00	814.00
743.00	730.00	714.00	693.00	684.00	751.00	806.00	850.00	834.00	828.00	783.00	738.00	688.00	681.00	751.00	757.00	721.00	690.00	734.00	712.00	830.00	907.00	969.00	952.00	874.00	794.00	714.00	738.00	808.00	869.00	922.00	972.00	948.00	954.00	940.00	882.00	782.00	796.00	855.00	907.00	917.00	752.00	778.00	860.00	866.00	770.00	715.00	770.00	845.00	879.00	866.00	826.00	865.00	909.00	949.00	916.00	867.00	828.00	851.00	858.00	819.00	869.00	919.00	959.00	966.00	940.00	894.00	846.00	745.00	713.00	677.00	651.00	660.00	680.00	685.00	685.00	701.00	767.00	794.00	793.00	783.00	734.00	740.00	705.00	652.00	604.00	531.00	503.00	486.00	480.00	501.00	540.00	564.00	585.00	670.00	754.00	761.00	761.00	769.00	778.00	763.00	780.00	827.00	837.00	863.00	823.00	805.00	834.00	812.00	805.00	824.00	847.00	873.00	834.00	834.00	873.00	865.00	813.00	779.00	741.00	702.00	716.00	786.00	755.00	723.00	666.00	628.00	640.00	692.00	725.00	737.00	694.00	655.00	631.00	634.00	690.00	730.00	767.00	802.00	836.00	805.00	753.00	694.00	643.00	664.00	723.00	746.00	711.00	621.00	572.00	536.00	513.00	511.00	461.00	441.00	433.00	433.00	350.00	332.00	328.00	325.00	322.00	319.00	320.00	323.00	377.00	578.00	605.00	635.00	661.00	669.00	717.00	708.00	690.00	696.00	723.00	743.00	768.00	805.00	856.00	956.00	998.00	1016.00	1022.00	1019.00	984.00	957.00	984.00	1010.00	1041.00	1048.00	1051.00	1025.00	937.00	956.00	979.00	985.00	957.00	740.00	720.00	717.00	741.00	876.00	952.00	1002.00	984.00	928.00	805.00	751.00	674.00	638.00	598.00	564.00	576.00	621.00	674.00	751.00	793.00	849.00	891.00	827.00	783.00	736.00	694.00	666.00	622.00	648.00	714.00	753.00	705.00	667.00	693.00	736.00	773.00	854.00	894.00	936.00	955.00	864.00	817.00	807.00	815.00	815.00	838.00	887.00	943.00	970.00	879.00	840.00	823.00	815.00	734.00	687.00	711.00	725.00	748.00
767.00	755.00	745.00	738.00	724.00	694.00	681.00	672.00	667.00	757.00	788.00	769.00	709.00	658.00	656.00	651.00	649.00	642.00	635.00	634.00	650.00	686.00	739.00	854.00	801.00	736.00	667.00	779.00	859.00	935.00	981.00	941.00	861.00	825.00	815.00	780.00	789.00	846.00	890.00	926.00	923.00	780.00	739.00	736.00	766.00	719.00	688.00	723.00	753.00	766.00	787.00	885.00	931.00	966.00	913.00	867.00	828.00	784.00	795.00	809.00	777.00	800.00	859.00	919.00	910.00	869.00	839.00	829.00	750.00	718.00	701.00	685.00	615.00	628.00	642.00	684.00	729.00	755.00	756.00	757.00	753.00	701.00	687.00	657.00	614.00	574.00	504.00	481.00	477.00	477.00	515.00	548.00	562.00	577.00	627.00	670.00	688.00	678.00	673.00	677.00	693.00	736.00	768.00	750.00	761.00	742.00	725.00	738.00	735.00	748.00	780.00	807.00	839.00	913.00	891.00	852.00	819.00	803.00	800.00	778.00	724.00	671.00	720.00	720.00	742.00	716.00	632.00	605.00	622.00	657.00	690.00	680.00	637.00	604.00	611.00	744.00	778.00	789.00	776.00	796.00	805.00	784.00	755.00	749.00	782.00	805.00	766.00	703.00	620.00	600.00	595.00	595.00	580.00	495.00	474.00	460.00	451.00	345.00	324.00	323.00	323.00	321.00	320.00	322.00	364.00	462.00	550.00	553.00	559.00	560.00	587.00	654.00	672.00	713.00	760.00	736.00	727.00	802.00	841.00	879.00	922.00	896.00	901.00	919.00	902.00	881.00	853.00	845.00	885.00	937.00	980.00	1028.00	1064.00	1076.00	1068.00	1044.00	1001.00	947.00	844.00	851.00	843.00	803.00	870.00	936.00	962.00	928.00	880.00	825.00	798.00	763.00	739.00	667.00	617.00	565.00	542.00	593.00	705.00	749.00	790.00	804.00	840.00	830.00	786.00	730.00	674.00	605.00	607.00	635.00	635.00	645.00	655.00	673.00	690.00	709.00	774.00	826.00	881.00	933.00	908.00	855.00	754.00	739.00	742.00	775.00	816.00	866.00	925.00	985.00	966.00	925.00	871.00	757.00	740.00	758.00	739.00	721.00
767.00	755.00	745.00	738.00	724.00	694.00	681.00	672.00	667.00	757.00	788.00	769.00	709.00	658.00	656.00	651.00	649.00	642.00	635.00	634.00	650.00	686.00	739.00	854.00	801.00	736.00	667.00	779.00	859.00	935.00	981.00	941.00	861.00	825.00	815.00	780.00	789.00	846.00	890.00	926.00	923.00	780.00	739.00	736.00	766.00	719.00	688.00	723.00	753.00	766.00	787.00	885.00	931.00	966.00	913.00	867.00	828.00	784.00	795.00	809.00	777.00	800.00	859.00	919.00	910.00	869.00	839.00	829.00	750.00	718.00	701.00	685.00	615.00	628.00	642.00	684.00	729.00	755.00	756.00	757.00	753.00	701.00	687.00	657.00	614.00	574.00	504.00	481.00	477.00	477.00	515.00	548.00	562.00	577.00	627.00	670.00	688.00	678.00	673.00	677.00	693.00	736.00	768.00	750.00	761.00	742.00	725.00	738.00	735.00	748.00	780.00	807.00	839.00	913.00	891.00	852.00	819.00	803.00	800.00	778.00	724.00	671.00	720.00	720.00	742.00	716.00	632.00	605.00	622.00	657.00	690.00	680.00	637.00	604.00	611.00	744.00	778.00	789.00	776.00	796.00	805.00	784.00	755.00	749.00	782.00	805.00	766.00	703.00	620.00	600.00	595.00	595.00	580.00	495.00	474.00	460.00	451.00	345.00	324.00	323.00	323.00	321.00	320.00	322.00	364.00	462.00	550.00	553.00	559.00	560.00	587.00	654.00	672.00	713.00	760.00	736.00	727.00	802.00	841.00	879.00	922.00	896.00	901.00	919.00	902.00	881.00	853.00	845.00	885.00	937.00	980.00	1028.00	1064.00	1076.00	1068.00	1044.00	1001.00	947.00	844.00	851.00	843.00	803.00	870.00	936.00	962.00	928.00	880.00	825.00	798.00	763.00	739.00	667.00	617.00	565.00	542.00	593.00	705.00	749.00	790.00	804.00	840.00	830.00	786.00	730.00	674.00	605.00	607.00	635.00	635.00	645.00	655.00	673.00	690.00	709.00	774.00	826.00	881.00	933.00	908.00	855.00	754.00	739.00	742.00	775.00	816.00	866.00	925.00	985.00	966.00	925.00	871.00	757.00	740.00	758.00	739.00	721.00
813.00	795.00	777.00	763.00	752.00	731.00	716.00	704.00	688.00	671.00	663.00	667.00	669.00	674.00	682.00	683.00	684.00	682.00	658.00	646.00	640.00	631.00	620.00	762.00	764.00	684.00	639.00	793.00	880.00	931.00	958.00	869.00	768.00	731.00	703.00	738.00	827.00	881.00	938.00	961.00	954.00	849.00	802.00	746.00	694.00	732.00	772.00	773.00	825.00	868.00	868.00	958.00	991.00	985.00	923.00	877.00	827.00	781.00	744.00	770.00	808.00	837.00	872.00	899.00	895.00	854.00	799.00	746.00	713.00	694.00	663.00	647.00	604.00	594.00	661.00	707.00	730.00	715.00	719.00	730.00	729.00	686.00	641.00	613.00	576.00	518.00	491.00	480.00	477.00	477.00	545.00	546.00	556.00	576.00	573.00	580.00	592.00	601.00	605.00	624.00	636.00	646.00	665.00	672.00	670.00	681.00	691.00	728.00	790.00	793.00	785.00	788.00	806.00	880.00	864.00	816.00	771.00	712.00	695.00	681.00	671.00	657.00	630.00	621.00	628.00	661.00	646.00	599.00	602.00	666.00	648.00	610.00	585.00	582.00	627.00	756.00	766.00	741.00	699.00	709.00	721.00	758.00	788.00	786.00	754.00	774.00	787.00	740.00	698.00	695.00	691.00	682.00	641.00	509.00	485.00	468.00	447.00	321.00	319.00	320.00	320.00	320.00	321.00	322.00	406.00	483.00	431.00	471.00	516.00	523.00	525.00	577.00	599.00	621.00	643.00	642.00	661.00	773.00	813.00	838.00	844.00	793.00	783.00	803.00	764.00	759.00	778.00	803.00	897.00	985.00	1017.00	1042.00	1063.00	1109.00	1101.00	1078.00	1047.00	1027.00	990.00	974.00	938.00	880.00	908.00	889.00	851.00	825.00	793.00	716.00	697.00	687.00	660.00	623.00	600.00	570.00	531.00	533.00	611.00	648.00	689.00	692.00	774.00	785.00	747.00	694.00	639.00	572.00	583.00	628.00	656.00	751.00	760.00	750.00	737.00	723.00	809.00	859.00	903.00	945.00	886.00	851.00	785.00	730.00	693.00	761.00	797.00	837.00	876.00	967.00	1000.00	979.00	931.00	812.00	830.00	849.00	835.00	810.00
813.00	795.00	777.00	763.00	752.00	731.00	716.00	704.00	688.00	671.00	663.00	667.00	669.00	674.00	682.00	683.00	684.00	682.00	658.00	646.00	640.00	631.00	620.00	762.00	764.00	684.00	639.00	793.00	880.00	931.00	958.00	869.00	768.00	731.00	703.00	738.00	827.00	881.00	938.00	961.00	954.00	849.00	802.00	746.00	694.00	732.00	772.00	773.00	825.00	868.00	868.00	958.00	991.00	985.00	923.00	877.00	827.00	781.00	744.00	770.00	808.00	837.00	872.00	899.00	895.00	854.00	799.00	746.00	713.00	694.00	663.00	647.00	604.00	594.00	661.00	707.00	730.00	715.00	719.00	730.00	729.00	686.00	641.00	613.00	576.00	518.00	491.00	480.00	477.00	477.00	545.00	546.00	556.00	576.00	573.00	580.00	592.00	601.00	605.00	624.00	636.00	646.00	665.00	672.00	670.00	681.00	691.00	728.00	790.00	793.00	785.00	788.00	806.00	880.00	864.00	816.00	771.00	712.00	695.00	681.00	671.00	657.00	630.00	621.00	628.00	661.00	646.00	599.00	602.00	666.00	648.00	610.00	585.00	582.00	627.00	756.00	766.00	741.00	699.00	709.00	721.00	758.00	788.00	786.00	754.00	774.00	787.00	740.00	698.00	695.00	691.00	682.00	641.00	509.00	485.00	468.00	447.00	321.00	319.00	320.00	320.00	320.00	321.00	322.00	406.00	483.00	431.00	471.00	516.00	523.00	525.00	577.00	599.00	621.00	643.00	642.00	661.00	773.00	813.00	838.00	844.00	793.00	783.00	803.00	764.00	759.00	778.00	803.00	897.00	985.00	1017.00	1042.00	1063.00	1109.00	1101.00	1078.00	1047.00	1027.00	990.00	974.00	938.00	880.00	908.00	889.00	851.00	825.00	793.00	716.00	697.00	687.00	660.00	623.00	600.00	570.00	531.00	533.00	611.00	648.00	689.00	692.00	774.00	785.00	747.00	694.00	639.00	572.00	583.00	628.00	656.00	751.00	760.00	750.00	737.00	723.00	809.00	859.00	903.00	945.00	886.00	851.00	785.00	730.00	693.00	761.00	797.00	837.00	876.00	967.00	1000.00	979.00	931.00	812.00	830.00	849.00	835.00	810.00
829.00	809.00	786.00	762.00	743.00	738.00	732.00	724.00	716.00	701.00	703.00	710.00	712.00	712.00	706.00	704.00	695.00	675.00	681.00	684.00	673.00	658.00	633.00	621.00	657.00	643.00	636.00	774.00	828.00	874.00	885.00	780.00	683.00	672.00	748.00	816.00	902.00	924.00	948.00	932.00	887.00	799.00	752.00	697.00	654.00	822.00	864.00	863.00	888.00	926.00	988.00	1017.00	1009.00	963.00	855.00	831.00	802.00	763.00	723.00	784.00	788.00	785.00	798.00	862.00	894.00	884.00	854.00	845.00	766.00	736.00	708.00	708.00	628.00	592.00	581.00	620.00	661.00	682.00	704.00	728.00	728.00	697.00	653.00	517.00	492.00	481.00	475.00	475.00	481.00	498.00	523.00	559.00	621.00	672.00	684.00	667.00	648.00	622.00	595.00	614.00	620.00	621.00	617.00	620.00	708.00	757.00	783.00	786.00	881.00	922.00	924.00	899.00	889.00	910.00	887.00	861.00	843.00	802.00	774.00	755.00	762.00	747.00	721.00	691.00	645.00	596.00	597.00	576.00	567.00	604.00	629.00	582.00	553.00	609.00	648.00	663.00	664.00	648.00	623.00	634.00	665.00	694.00	714.00	724.00	682.00	666.00	698.00	683.00	685.00	708.00	721.00	716.00	650.00	543.00	496.00	457.00	427.00	323.00	320.00	320.00	321.00	320.00	321.00	326.00	373.00	381.00	436.00	429.00	444.00	445.00	486.00	531.00	546.00	573.00	586.00	594.00	632.00	696.00	709.00	742.00	754.00	701.00	663.00	692.00	770.00	818.00	867.00	904.00	952.00	991.00	976.00	960.00	977.00	1053.00	1055.00	1040.00	1027.00	1010.00	987.00	1015.00	1025.00	1011.00	930.00	857.00	792.00	743.00	700.00	681.00	682.00	653.00	661.00	580.00	600.00	622.00	621.00	575.00	521.00	546.00	565.00	581.00	681.00	647.00	614.00	577.00	558.00	598.00	642.00	691.00	733.00	846.00	865.00	864.00	851.00	835.00	886.00	910.00	907.00	882.00	825.00	788.00	752.00	722.00	684.00	720.00	748.00	778.00	812.00	881.00	921.00	951.00	958.00	916.00	900.00	877.00	843.00	806.00
829.00	809.00	786.00	762.00	743.00	738.00	732.00	724.00	716.00	701.00	703.00	710.00	712.00	712.00	706.00	704.00	695.00	675.00	681.00	684.00	673.00	658.00	633.00	621.00	657.00	643.00	636.00	774.00	828.00	874.00	885.00	780.00	683.00	672.00	748.00	816.00	902.00	924.00	948.00	932.00	887.00	799.00	752.00	697.00	654.00	822.00	864.00	863.00	888.00	926.00	988.00	1017.00	1009.00	963.00	855.00	831.00	802.00	763.00	723.00	784.00	788.00	785.00	798.00	862.00	894.00	884.00	854.00	845.00	766.00	736.00	708.00	708.00	628.00	592.00	581.00	620.00	661.00	682.00	704.00	728.00	728.00	697.00	653.00	517.00	492.00	481.00	475.00	475.00	481.00	498.00	523.00	559.00	621.00	672.00	684.00	667.00	648.00	622.00	595.00	614.00	620.00	621.00	617.00	620.00	708.00	757.00	783.00	786.00	881.00	922.00	924.00	899.00	889.00	910.00	887.00	861.00	843.00	802.00	774.00	755.00	762.00	747.00	721.00	691.00	645.00	596.00	597.00	576.00	567.00	604.00	629.00	582.00	553.00	609.00	648.00	663.00	664.00	648.00	623.00	634.00	665.00	694.00	714.00	724.00	682.00	666.00	698.00	683.00	685.00	708.00	721.00	716.00	650.00	543.00	496.00	457.00	427.00	323.00	320.00	320.00	321.00	320.00	321.00	326.00	373.00	381.00	436.00	429.00	444.00	445.00	486.00	531.00	546.00	573.00	586.00	594.00	632.00	696.00	709.00	742.00	754.00	701.00	663.00	692.00	770.00	818.00	867.00	904.00	952.00	991.00	976.00	960.00	977.00	1053.00	1055.00	1040.00	1027.00	1010.00	987.00	1015.00	1025.00	1011.00	930.00	857.00	792.00	743.00	700.00	681.00	682.00	653.00	661.00	580.00	600.00	622.00	621.00	575.00	521.00	546.00	565.00	581.00	681.00	647.00	614.00	577.00	558.00	598.00	642.00	691.00	733.00	846.00	865.00	864.00	851.00	835.00	886.00	910.00	907.00	882.00	825.00	788.00	752.00	722.00	684.00	720.00	748.00	778.00	812.00	881.00	921.00	951.00	958.00	916.00	900.00	877.00	843.00	806.00
829.00	809.00	786.00	762.00	743.00	738.00	732.00	724.00	716.00	701.00	703.00	710.00	712.00	712.00	706.00	704.00	695.00	675.00	681.00	684.00	673.00	658.00	633.00	621.00	657.00	643.00	636.00	774.00	828.00	874.00	885.00	780.00	683.00	672.00	748.00	816.00	902.00	924.00	948.00	932.00	887.00	799.00	752.00	697.00	654.00	822.00	864.00	863.00	888.00	926.00	988.00	1017.00	1009.00	963.00	855.00	831.00	802.00	763.00	723.00	784.00	788.00	785.00	798.00	862.00	894.00	884.00	854.00	845.00	766.00	736.00	708.00	708.00	628.00	592.00	581.00	620.00	661.00	682.00	704.00	728.00	728.00	697.00	653.00	517.00	492.00	481.00	475.00	475.00	481.00	498.00	523.00	559.00	621.00	672.00	684.00	667.00	648.00	622.00	595.00	614.00	620.00	621.00	617.00	620.00	708.00	757.00	783.00	786.00	881.00	922.00	924.00	899.00	889.00	910.00	887.00	861.00	843.00	802.00	774.00	755.00	762.00	747.00	721.00	691.00	645.00	596.00	597.00	576.00	567.00	604.00	629.00	582.00	553.00	609.00	648.00	663.00	664.00	648.00	623.00	634.00	665.00	694.00	714.00	724.00	682.00	666.00	698.00	683.00	685.00	708.00	721.00	716.00	650.00	543.00	496.00	457.00	427.00	323.00	320.00	320.00	321.00	320.00	321.00	326.00	373.00	381.00	436.00	429.00	444.00	445.00	486.00	531.00	546.00	573.00	586.00	594.00	632.00	696.00	709.00	742.00	754.00	701.00	663.00	692.00	770.00	818.00	867.00	904.00	952.00	991.00	976.00	960.00	977.00	1053.00	1055.00	1040.00	1027.00	1010.00	987.00	1015.00	1025.00	1011.00	930.00	857.00	792.00	743.00	700.00	681.00	682.00	653.00	661.00	580.00	600.00	622.00	621.00	575.00	521.00	546.00	565.00	581.00	681.00	647.00	614.00	577.00	558.00	598.00	642.00	691.00	733.00	846.00	865.00	864.00	851.00	835.00	886.00	910.00	907.00	882.00	825.00	788.00	752.00	722.00	684.00	720.00	748.00	778.00	812.00	881.00	921.00	951.00	958.00	916.00	900.00	877.00	843.00	806.00
781.00	786.00	790.00	793.00	817.00	806.00	785.00	769.00	750.00	733.00	734.00	732.00	731.00	727.00	707.00	701.00	698.00	711.00	722.00	714.00	693.00	679.00	666.00	634.00	626.00	618.00	611.00	642.00	683.00	712.00	721.00	670.00	627.00	685.00	721.00	743.00	760.00	788.00	858.00	892.00	866.00	740.00	698.00	652.00	665.00	804.00	793.00	808.00	854.00	891.00	935.00	941.00	926.00	940.00	872.00	828.00	789.00	755.00	726.00	698.00	741.00	778.00	845.00	862.00	896.00	913.00	879.00	831.00	778.00	759.00	747.00	746.00	638.00	607.00	579.00	582.00	646.00	698.00	697.00	700.00	706.00	658.00	600.00	482.00	479.00	474.00	485.00	490.00	502.00	512.00	567.00	616.00	645.00	664.00	765.00	772.00	736.00	694.00	649.00	705.00	733.00	726.00	708.00	675.00	696.00	752.00	812.00	858.00	905.00	907.00	902.00	883.00	858.00	911.00	858.00	818.00	817.00	816.00	808.00	803.00	801.00	814.00	794.00	769.00	736.00	694.00	692.00	655.00	623.00	584.00	550.00	530.00	527.00	562.00	590.00	588.00	582.00	571.00	584.00	628.00	649.00	670.00	689.00	704.00	685.00	675.00	638.00	609.00	607.00	622.00	635.00	677.00	704.00	611.00	526.00	478.00	453.00	324.00	320.00	319.00	319.00	320.00	321.00	321.00	379.00	461.00	478.00	486.00	489.00	464.00	436.00	520.00	536.00	551.00	542.00	558.00	592.00	617.00	641.00	690.00	631.00	627.00	694.00	741.00	833.00	853.00	840.00	843.00	922.00	908.00	873.00	886.00	929.00	993.00	967.00	924.00	901.00	888.00	871.00	935.00	999.00	1033.00	939.00	868.00	827.00	808.00	769.00	831.00	860.00	786.00	724.00	676.00	724.00	748.00	709.00	641.00	546.00	515.00	498.00	519.00	554.00	531.00	533.00	574.00	619.00	681.00	700.00	722.00	758.00	857.00	841.00	815.00	837.00	868.00	927.00	909.00	865.00	824.00	760.00	736.00	700.00	686.00	666.00	685.00	709.00	738.00	760.00	794.00	818.00	846.00	892.00	964.00	916.00	873.00	827.00	784.00
895.00	911.00	896.00	880.00	864.00	807.00	785.00	773.00	758.00	782.00	774.00	761.00	740.00	724.00	718.00	731.00	753.00	776.00	757.00	727.00	709.00	696.00	686.00	665.00	655.00	647.00	639.00	621.00	616.00	612.00	609.00	605.00	601.00	602.00	603.00	602.00	590.00	597.00	625.00	693.00	777.00	719.00	679.00	635.00	638.00	701.00	721.00	767.00	791.00	809.00	898.00	866.00	816.00	825.00	861.00	818.00	780.00	746.00	717.00	677.00	725.00	761.00	856.00	824.00	833.00	837.00	815.00	757.00	763.00	742.00	704.00	676.00	651.00	623.00	595.00	566.00	556.00	616.00	621.00	626.00	638.00	590.00	533.00	476.00	474.00	481.00	508.00	524.00	532.00	539.00	603.00	657.00	710.00	748.00	790.00	833.00	790.00	738.00	702.00	704.00	747.00	769.00	752.00	708.00	668.00	687.00	716.00	751.00	779.00	782.00	773.00	783.00	797.00	881.00	854.00	812.00	776.00	737.00	715.00	697.00	706.00	735.00	720.00	762.00	778.00	769.00	760.00	716.00	675.00	652.00	623.00	586.00	543.00	509.00	524.00	530.00	551.00	577.00	605.00	664.00	693.00	719.00	735.00	749.00	742.00	722.00	691.00	659.00	555.00	523.00	592.00	623.00	645.00	638.00	548.00	486.00	456.00	322.00	319.00	319.00	319.00	321.00	319.00	322.00	367.00	479.00	531.00	531.00	529.00	511.00	484.00	469.00	479.00	506.00	534.00	573.00	583.00	568.00	591.00	594.00	595.00	630.00	649.00	662.00	730.00	746.00	797.00	851.00	913.00	821.00	847.00	895.00	937.00	986.00	953.00	894.00	833.00	792.00	799.00	836.00	910.00	971.00	938.00	902.00	882.00	889.00	871.00	899.00	928.00	847.00	793.00	823.00	807.00	762.00	717.00	699.00	660.00	608.00	555.00	503.00	496.00	545.00	598.00	649.00	695.00	737.00	752.00	783.00	799.00	765.00	717.00	704.00	747.00	795.00	899.00	926.00	909.00	876.00	800.00	757.00	679.00	656.00	642.00	670.00	684.00	689.00	700.00	733.00	766.00	820.00	880.00	928.00	840.00	816.00	797.00	776.00
895.00	911.00	896.00	880.00	864.00	807.00	785.00	773.00	758.00	782.00	774.00	761.00	740.00	724.00	718.00	731.00	753.00	776.00	757.00	727.00	709.00	696.00	686.00	665.00	655.00	647.00	639.00	621.00	616.00	612.00	609.00	605.00	601.00	602.00	603.00	602.00	590.00	597.00	625.00	693.00	777.00	719.00	679.00	635.00	638.00	701.00	721.00	767.00	791.00	809.00	898.00	866.00	816.00	825.00	861.00	818.00	780.00	746.00	717.00	677.00	725.00	761.00	856.00	824.00	833.00	837.00	815.00	757.00	763.00	742.00	704.00	676.00	651.00	623.00	595.00	566.00	556.00	616.00	621.00	626.00	638.00	590.00	533.00	476.00	474.00	481.00	508.00	524.00	532.00	539.00	603.00	657.00	710.00	748.00	790.00	833.00	790.00	738.00	702.00	704.00	747.00	769.00	752.00	708.00	668.00	687.00	716.00	751.00	779.00	782.00	773.00	783.00	797.00	881.00	854.00	812.00	776.00	737.00	715.00	697.00	706.00	735.00	720.00	762.00	778.00	769.00	760.00	716.00	675.00	652.00	623.00	586.00	543.00	509.00	524.00	530.00	551.00	577.00	605.00	664.00	693.00	719.00	735.00	749.00	742.00	722.00	691.00	659.00	555.00	523.00	592.00	623.00	645.00	638.00	548.00	486.00	456.00	322.00	319.00	319.00	319.00	321.00	319.00	322.00	367.00	479.00	531.00	531.00	529.00	511.00	484.00	469.00	479.00	506.00	534.00	573.00	583.00	568.00	591.00	594.00	595.00	630.00	649.00	662.00	730.00	746.00	797.00	851.00	913.00	821.00	847.00	895.00	937.00	986.00	953.00	894.00	833.00	792.00	799.00	836.00	910.00	971.00	938.00	902.00	882.00	889.00	871.00	899.00	928.00	847.00	793.00	823.00	807.00	762.00	717.00	699.00	660.00	608.00	555.00	503.00	496.00	545.00	598.00	649.00	695.00	737.00	752.00	783.00	799.00	765.00	717.00	704.00	747.00	795.00	899.00	926.00	909.00	876.00	800.00	757.00	679.00	656.00	642.00	670.00	684.00	689.00	700.00	733.00	766.00	820.00	880.00	928.00	840.00	816.00	797.00	776.00
962.00	970.00	940.00	903.00	864.00	823.00	836.00	838.00	815.00	844.00	815.00	766.00	739.00	741.00	779.00	783.00	785.00	814.00	808.00	783.00	748.00	728.00	724.00	703.00	691.00	679.00	667.00	655.00	661.00	658.00	653.00	642.00	652.00	654.00	654.00	650.00	621.00	603.00	588.00	578.00	587.00	678.00	628.00	641.00	698.00	732.00	715.00	757.00	801.00	845.00	889.00	820.00	771.00	745.00	774.00	739.00	711.00	689.00	670.00	713.00	779.00	827.00	855.00	802.00	765.00	738.00	736.00	696.00	766.00	763.00	731.00	696.00	631.00	626.00	611.00	596.00	580.00	537.00	549.00	564.00	565.00	533.00	502.00	472.00	479.00	483.00	532.00	554.00	574.00	598.00	661.00	690.00	720.00	757.00	840.00	876.00	831.00	818.00	801.00	771.00	767.00	773.00	767.00	726.00	770.00	718.00	683.00	686.00	755.00	768.00	769.00	782.00	802.00	864.00	918.00	918.00	887.00	795.00	754.00	718.00	699.00	675.00	634.00	644.00	663.00	689.00	740.00	737.00	719.00	725.00	671.00	629.00	591.00	558.00	529.00	528.00	574.00	609.00	646.00	729.00	734.00	719.00	682.00	681.00	741.00	726.00	630.00	609.00	552.00	510.00	496.00	522.00	537.00	562.00	550.00	501.00	461.00	339.00	319.00	319.00	319.00	319.00	321.00	327.00	360.00	437.00	499.00	518.00	539.00	556.00	569.00	525.00	503.00	484.00	495.00	514.00	519.00	545.00	575.00	607.00	678.00	695.00	703.00	714.00	770.00	784.00	818.00	869.00	864.00	768.00	817.00	849.00	877.00	884.00	924.00	896.00	838.00	774.00	756.00	826.00	883.00	892.00	812.00	794.00	761.00	809.00	798.00	795.00	812.00	891.00	894.00	841.00	840.00	837.00	807.00	761.00	666.00	623.00	590.00	564.00	482.00	533.00	590.00	642.00	680.00	635.00	657.00	690.00	688.00	632.00	633.00	669.00	718.00	773.00	884.00	925.00	910.00	870.00	800.00	754.00	662.00	636.00	630.00	724.00	769.00	788.00	762.00	729.00	761.00	802.00	857.00	910.00	814.00	768.00	737.00	719.00
962.00	970.00	940.00	903.00	864.00	823.00	836.00	838.00	815.00	844.00	815.00	766.00	739.00	741.00	779.00	783.00	785.00	814.00	808.00	783.00	748.00	728.00	724.00	703.00	691.00	679.00	667.00	655.00	661.00	658.00	653.00	642.00	652.00	654.00	654.00	650.00	621.00	603.00	588.00	578.00	587.00	678.00	628.00	641.00	698.00	732.00	715.00	757.00	801.00	845.00	889.00	820.00	771.00	745.00	774.00	739.00	711.00	689.00	670.00	713.00	779.00	827.00	855.00	802.00	765.00	738.00	736.00	696.00	766.00	763.00	731.00	696.00	631.00	626.00	611.00	596.00	580.00	537.00	549.00	564.00	565.00	533.00	502.00	472.00	479.00	483.00	532.00	554.00	574.00	598.00	661.00	690.00	720.00	757.00	840.00	876.00	831.00	818.00	801.00	771.00	767.00	773.00	767.00	726.00	770.00	718.00	683.00	686.00	755.00	768.00	769.00	782.00	802.00	864.00	918.00	918.00	887.00	795.00	754.00	718.00	699.00	675.00	634.00	644.00	663.00	689.00	740.00	737.00	719.00	725.00	671.00	629.00	591.00	558.00	529.00	528.00	574.00	609.00	646.00	729.00	734.00	719.00	682.00	681.00	741.00	726.00	630.00	609.00	552.00	510.00	496.00	522.00	537.00	562.00	550.00	501.00	461.00	339.00	319.00	319.00	319.00	319.00	321.00	327.00	360.00	437.00	499.00	518.00	539.00	556.00	569.00	525.00	503.00	484.00	495.00	514.00	519.00	545.00	575.00	607.00	678.00	695.00	703.00	714.00	770.00	784.00	818.00	869.00	864.00	768.00	817.00	849.00	877.00	884.00	924.00	896.00	838.00	774.00	756.00	826.00	883.00	892.00	812.00	794.00	761.00	809.00	798.00	795.00	812.00	891.00	894.00	841.00	840.00	837.00	807.00	761.00	666.00	623.00	590.00	564.00	482.00	533.00	590.00	642.00	680.00	635.00	657.00	690.00	688.00	632.00	633.00	669.00	718.00	773.00	884.00	925.00	910.00	870.00	800.00	754.00	662.00	636.00	630.00	724.00	769.00	788.00	762.00	729.00	761.00	802.00	857.00	910.00	814.00	768.00	737.00	719.00
989.00	993.00	956.00	927.00	896.00	902.00	916.00	902.00	897.00	820.00	772.00	757.00	770.00	793.00	843.00	826.00	850.00	884.00	895.00	857.00	807.00	807.00	785.00	730.00	714.00	717.00	717.00	724.00	737.00	722.00	704.00	674.00	683.00	679.00	667.00	651.00	630.00	617.00	609.00	598.00	592.00	604.00	671.00	722.00	762.00	829.00	814.00	812.00	855.00	897.00	859.00	798.00	770.00	736.00	686.00	667.00	649.00	661.00	683.00	736.00	787.00	828.00	830.00	752.00	729.00	697.00	657.00	660.00	741.00	748.00	750.00	737.00	708.00	693.00	668.00	641.00	613.00	569.00	540.00	525.00	525.00	514.00	492.00	477.00	486.00	491.00	544.00	558.00	579.00	605.00	671.00	662.00	684.00	727.00	801.00	867.00	890.00	897.00	896.00	907.00	884.00	859.00	821.00	807.00	814.00	783.00	741.00	706.00	787.00	839.00	865.00	872.00	877.00	851.00	873.00	883.00	870.00	847.00	829.00	812.00	795.00	767.00	698.00	656.00	620.00	592.00	676.00	685.00	659.00	649.00	644.00	644.00	629.00	610.00	572.00	470.00	529.00	566.00	607.00	726.00	734.00	693.00	640.00	608.00	678.00	705.00	640.00	606.00	575.00	563.00	540.00	505.00	474.00	447.00	457.00	479.00	453.00	336.00	319.00	319.00	319.00	320.00	320.00	324.00	354.00	442.00	474.00	517.00	546.00	576.00	600.00	618.00	593.00	548.00	516.00	582.00	580.00	528.00	547.00	568.00	609.00	621.00	642.00	663.00	711.00	736.00	769.00	797.00	769.00	733.00	774.00	751.00	757.00	850.00	870.00	827.00	778.00	710.00	759.00	834.00	843.00	796.00	695.00	680.00	711.00	741.00	719.00	709.00	766.00	789.00	770.00	771.00	727.00	750.00	788.00	769.00	717.00	705.00	675.00	612.00	453.00	501.00	566.00	593.00	584.00	529.00	552.00	567.00	572.00	640.00	688.00	736.00	771.00	803.00	845.00	854.00	832.00	794.00	723.00	680.00	618.00	604.00	649.00	728.00	767.00	802.00	816.00	776.00	803.00	855.00	906.00	949.00	872.00	829.00	801.00	791.00
1002.00	1034.00	1022.00	1000.00	988.00	983.00	948.00	909.00	873.00	793.00	778.00	794.00	842.00	881.00	915.00	894.00	927.00	965.00	961.00	927.00	867.00	825.00	785.00	757.00	792.00	799.00	788.00	798.00	787.00	765.00	741.00	726.00	705.00	678.00	670.00	692.00	668.00	653.00	646.00	635.00	609.00	565.00	600.00	695.00	789.00	882.00	862.00	861.00	876.00	899.00	907.00	869.00	832.00	792.00	708.00	649.00	627.00	703.00	757.00	791.00	833.00	871.00	840.00	759.00	717.00	677.00	647.00	618.00	662.00	641.00	688.00	727.00	707.00	671.00	640.00	616.00	599.00	556.00	551.00	548.00	522.00	483.00	475.00	483.00	495.00	521.00	603.00	624.00	608.00	586.00	586.00	615.00	655.00	680.00	744.00	798.00	822.00	800.00	831.00	904.00	927.00	935.00	919.00	918.00	828.00	787.00	777.00	755.00	799.00	834.00	872.00	898.00	897.00	825.00	785.00	795.00	766.00	791.00	806.00	786.00	768.00	766.00	733.00	706.00	677.00	588.00	580.00	587.00	584.00	573.00	563.00	559.00	549.00	539.00	529.00	485.00	459.00	483.00	517.00	606.00	635.00	647.00	595.00	566.00	645.00	709.00	685.00	659.00	652.00	638.00	612.00	588.00	569.00	510.00	471.00	432.00	415.00	323.00	319.00	319.00	321.00	321.00	322.00	330.00	408.00	487.00	481.00	505.00	538.00	584.00	629.00	638.00	636.00	628.00	592.00	606.00	625.00	588.00	602.00	561.00	633.00	677.00	719.00	726.00	727.00	764.00	775.00	760.00	712.00	718.00	708.00	680.00	730.00	827.00	820.00	774.00	713.00	642.00	737.00	791.00	797.00	746.00	642.00	615.00	652.00	633.00	648.00	747.00	782.00	717.00	666.00	679.00	692.00	662.00	653.00	641.00	615.00	598.00	584.00	557.00	458.00	453.00	481.00	495.00	508.00	560.00	595.00	628.00	658.00	741.00	754.00	788.00	826.00	843.00	771.00	745.00	723.00	709.00	649.00	619.00	603.00	643.00	651.00	696.00	732.00	775.00	816.00	885.00	900.00	919.00	922.00	889.00	829.00	800.00	777.00	761.00
1002.00	1034.00	1022.00	1000.00	988.00	983.00	948.00	909.00	873.00	793.00	778.00	794.00	842.00	881.00	915.00	894.00	927.00	965.00	961.00	927.00	867.00	825.00	785.00	757.00	792.00	799.00	788.00	798.00	787.00	765.00	741.00	726.00	705.00	678.00	670.00	692.00	668.00	653.00	646.00	635.00	609.00	565.00	600.00	695.00	789.00	882.00	862.00	861.00	876.00	899.00	907.00	869.00	832.00	792.00	708.00	649.00	627.00	703.00	757.00	791.00	833.00	871.00	840.00	759.00	717.00	677.00	647.00	618.00	662.00	641.00	688.00	727.00	707.00	671.00	640.00	616.00	599.00	556.00	551.00	548.00	522.00	483.00	475.00	483.00	495.00	521.00	603.00	624.00	608.00	586.00	586.00	615.00	655.00	680.00	744.00	798.00	822.00	800.00	831.00	904.00	927.00	935.00	919.00	918.00	828.00	787.00	777.00	755.00	799.00	834.00	872.00	898.00	897.00	825.00	785.00	795.00	766.00	791.00	806.00	786.00	768.00	766.00	733.00	706.00	677.00	588.00	580.00	587.00	584.00	573.00	563.00	559.00	549.00	539.00	529.00	485.00	459.00	483.00	517.00	606.00	635.00	647.00	595.00	566.00	645.00	709.00	685.00	659.00	652.00	638.00	612.00	588.00	569.00	510.00	471.00	432.00	415.00	323.00	319.00	319.00	321.00	321.00	322.00	330.00	408.00	487.00	481.00	505.00	538.00	584.00	629.00	638.00	636.00	628.00	592.00	606.00	625.00	588.00	602.00	561.00	633.00	677.00	719.00	726.00	727.00	764.00	775.00	760.00	712.00	718.00	708.00	680.00	730.00	827.00	820.00	774.00	713.00	642.00	737.00	791.00	797.00	746.00	642.00	615.00	652.00	633.00	648.00	747.00	782.00	717.00	666.00	679.00	692.00	662.00	653.00	641.00	615.00	598.00	584.00	557.00	458.00	453.00	481.00	495.00	508.00	560.00	595.00	628.00	658.00	741.00	754.00	788.00	826.00	843.00	771.00	745.00	723.00	709.00	649.00	619.00	603.00	643.00	651.00	696.00	732.00	775.00	816.00	885.00	900.00	919.00	922.00	889.00	829.00	800.00	777.00	761.00
1040.00	1082.00	1109.00	1095.00	1056.00	958.00	911.00	881.00	856.00	806.00	839.00	855.00	896.00	950.00	1013.00	1008.00	1009.00	1029.00	989.00	931.00	835.00	815.00	818.00	822.00	850.00	865.00	862.00	844.00	828.00	813.00	803.00	753.00	702.00	720.00	743.00	737.00	695.00	669.00	651.00	637.00	620.00	580.00	563.00	563.00	605.00	763.00	738.00	754.00	798.00	856.00	892.00	808.00	772.00	736.00	667.00	623.00	628.00	706.00	777.00	810.00	812.00	835.00	854.00	780.00	748.00	718.00	689.00	666.00	594.00	616.00	670.00	700.00	685.00	661.00	627.00	596.00	583.00	532.00	518.00	508.00	495.00	471.00	481.00	519.00	533.00	557.00	615.00	657.00	690.00	699.00	618.00	599.00	600.00	627.00	679.00	691.00	719.00	746.00	780.00	825.00	848.00	879.00	941.00	1003.00	856.00	861.00	866.00	803.00	843.00	879.00	888.00	883.00	846.00	765.00	720.00	708.00	695.00	688.00	702.00	694.00	693.00	670.00	648.00	624.00	605.00	572.00	574.00	574.00	556.00	556.00	545.00	524.00	514.00	508.00	509.00	471.00	462.00	448.00	444.00	483.00	519.00	545.00	525.00	524.00	621.00	673.00	701.00	668.00	653.00	668.00	671.00	657.00	640.00	592.00	541.00	482.00	452.00	319.00	319.00	320.00	322.00	322.00	321.00	350.00	462.00	564.00	518.00	507.00	507.00	523.00	541.00	572.00	578.00	601.00	630.00	652.00	663.00	668.00	686.00	646.00	584.00	618.00	652.00	673.00	740.00	763.00	792.00	796.00	763.00	677.00	628.00	659.00	725.00	833.00	838.00	798.00	745.00	683.00	625.00	708.00	768.00	750.00	661.00	605.00	563.00	598.00	660.00	766.00	757.00	656.00	614.00	569.00	620.00	651.00	655.00	636.00	587.00	564.00	546.00	539.00	457.00	442.00	502.00	553.00	586.00	613.00	629.00	654.00	690.00	766.00	784.00	821.00	854.00	854.00	783.00	741.00	698.00	655.00	592.00	568.00	650.00	701.00	731.00	722.00	754.00	806.00	860.00	950.00	978.00	967.00	923.00	846.00	774.00	758.00	736.00	714.00
1127.00	1134.00	1128.00	1089.00	1030.00	929.00	901.00	874.00	845.00	870.00	875.00	904.00	940.00	986.00	1086.00	1107.00	1104.00	1073.00	950.00	898.00	904.00	918.00	909.00	910.00	932.00	939.00	931.00	894.00	852.00	802.00	759.00	755.00	801.00	803.00	789.00	771.00	743.00	724.00	700.00	673.00	652.00	609.00	593.00	575.00	559.00	574.00	628.00	709.00	790.00	866.00	873.00	830.00	790.00	753.00	677.00	638.00	601.00	646.00	726.00	706.00	731.00	778.00	821.00	744.00	707.00	693.00	683.00	684.00	616.00	578.00	607.00	625.00	709.00	686.00	655.00	627.00	599.00	539.00	523.00	504.00	473.00	532.00	542.00	599.00	625.00	646.00	647.00	658.00	691.00	724.00	738.00	727.00	680.00	633.00	641.00	688.00	724.00	762.00	813.00	921.00	939.00	931.00	972.00	1064.00	944.00	915.00	901.00	881.00	917.00	903.00	885.00	852.00	820.00	741.00	717.00	737.00	736.00	664.00	635.00	633.00	627.00	618.00	629.00	616.00	633.00	659.00	679.00	670.00	659.00	660.00	638.00	625.00	614.00	601.00	587.00	536.00	527.00	518.00	498.00	446.00	438.00	461.00	460.00	488.00	548.00	575.00	621.00	589.00	586.00	593.00	612.00	623.00	584.00	593.00	542.00	472.00	428.00	319.00	319.00	319.00	320.00	320.00	324.00	410.00	513.00	598.00	617.00	594.00	577.00	560.00	557.00	561.00	565.00	586.00	625.00	637.00	653.00	711.00	745.00	744.00	642.00	612.00	626.00	666.00	779.00	816.00	813.00	790.00	764.00	724.00	648.00	601.00	687.00	812.00	825.00	824.00	775.00	715.00	531.00	605.00	696.00	749.00	657.00	595.00	533.00	571.00	649.00	757.00	732.00	622.00	575.00	509.00	533.00	574.00	617.00	640.00	659.00	655.00	633.00	585.00	469.00	437.00	488.00	510.00	517.00	527.00	533.00	552.00	584.00	718.00	764.00	813.00	859.00	882.00	809.00	762.00	715.00	666.00	565.00	549.00	658.00	700.00	743.00	813.00	822.00	832.00	865.00	956.00	996.00	997.00	958.00	883.00	875.00	855.00	823.00	783.00
1127.00	1134.00	1128.00	1089.00	1030.00	929.00	901.00	874.00	845.00	870.00	875.00	904.00	940.00	986.00	1086.00	1107.00	1104.00	1073.00	950.00	898.00	904.00	918.00	909.00	910.00	932.00	939.00	931.00	894.00	852.00	802.00	759.00	755.00	801.00	803.00	789.00	771.00	743.00	724.00	700.00	673.00	652.00	609.00	593.00	575.00	559.00	574.00	628.00	709.00	790.00	866.00	873.00	830.00	790.00	753.00	677.00	638.00	601.00	646.00	726.00	706.00	731.00	778.00	821.00	744.00	707.00	693.00	683.00	684.00	616.00	578.00	607.00	625.00	709.00	686.00	655.00	627.00	599.00	539.00	523.00	504.00	473.00	532.00	542.00	599.00	625.00	646.00	647.00	658.00	691.00	724.00	738.00	727.00	680.00	633.00	641.00	688.00	724.00	762.00	813.00	921.00	939.00	931.00	972.00	1064.00	944.00	915.00	901.00	881.00	917.00	903.00	885.00	852.00	820.00	741.00	717.00	737.00	736.00	664.00	635.00	633.00	627.00	618.00	629.00	616.00	633.00	659.00	679.00	670.00	659.00	660.00	638.00	625.00	614.00	601.00	587.00	536.00	527.00	518.00	498.00	446.00	438.00	461.00	460.00	488.00	548.00	575.00	621.00	589.00	586.00	593.00	612.00	623.00	584.00	593.00	542.00	472.00	428.00	319.00	319.00	319.00	320.00	320.00	324.00	410.00	513.00	598.00	617.00	594.00	577.00	560.00	557.00	561.00	565.00	586.00	625.00	637.00	653.00	711.00	745.00	744.00	642.00	612.00	626.00	666.00	779.00	816.00	813.00	790.00	764.00	724.00	648.00	601.00	687.00	812.00	825.00	824.00	775.00	715.00	531.00	605.00	696.00	749.00	657.00	595.00	533.00	571.00	649.00	757.00	732.00	622.00	575.00	509.00	533.00	574.00	617.00	640.00	659.00	655.00	633.00	585.00	469.00	437.00	488.00	510.00	517.00	527.00	533.00	552.00	584.00	718.00	764.00	813.00	859.00	882.00	809.00	762.00	715.00	666.00	565.00	549.00	658.00	700.00	743.00	813.00	822.00	832.00	865.00	956.00	996.00	997.00	958.00	883.00	875.00	855.00	823.00	783.00
1155.00	1120.00	1071.00	1029.00	987.00	899.00	868.00	871.00	883.00	972.00	969.00	961.00	964.00	989.00	1102.00	1151.00	1139.00	1083.00	971.00	992.00	1033.00	1022.00	973.00	1001.00	999.00	975.00	927.00	812.00	776.00	787.00	820.00	885.00	908.00	900.00	892.00	879.00	830.00	791.00	749.00	711.00	678.00	634.00	629.00	620.00	606.00	556.00	540.00	549.00	616.00	727.00	823.00	770.00	786.00	785.00	713.00	671.00	632.00	595.00	603.00	693.00	746.00	794.00	842.00	764.00	719.00	677.00	640.00	615.00	582.00	563.00	546.00	595.00	716.00	696.00	675.00	637.00	576.00	521.00	485.00	489.00	510.00	609.00	644.00	691.00	710.00	722.00	733.00	750.00	767.00	797.00	839.00	826.00	789.00	739.00	738.00	707.00	722.00	760.00	777.00	820.00	882.00	939.00	1008.00	1105.00	1046.00	1010.00	980.00	968.00	989.00	930.00	873.00	828.00	788.00	768.00	793.00	791.00	762.00	668.00	681.00	712.00	683.00	643.00	738.00	741.00	740.00	733.00	728.00	723.00	707.00	694.00	667.00	654.00	646.00	640.00	630.00	587.00	580.00	571.00	562.00	549.00	538.00	495.00	448.00	432.00	437.00	458.00	510.00	500.00	526.00	525.00	531.00	553.00	519.00	472.00	459.00	440.00	386.00	320.00	322.00	325.00	326.00	324.00	323.00	382.00	521.00	587.00	670.00	670.00	646.00	624.00	633.00	625.00	621.00	607.00	604.00	616.00	643.00	727.00	775.00	811.00	716.00	661.00	686.00	689.00	800.00	851.00	843.00	800.00	694.00	663.00	624.00	567.00	593.00	655.00	704.00	754.00	780.00	753.00	551.00	506.00	572.00	649.00	589.00	528.00	525.00	593.00	656.00	664.00	665.00	640.00	598.00	507.00	479.00	498.00	542.00	573.00	573.00	560.00	583.00	563.00	445.00	423.00	463.00	507.00	542.00	594.00	601.00	604.00	614.00	753.00	800.00	849.00	874.00	860.00	783.00	731.00	674.00	625.00	542.00	539.00	648.00	688.00	721.00	780.00	809.00	832.00	866.00	955.00	990.00	1011.00	1003.00	967.00	904.00	862.00	825.00	797.00
1155.00	1120.00	1071.00	1029.00	987.00	899.00	868.00	871.00	883.00	972.00	969.00	961.00	964.00	989.00	1102.00	1151.00	1139.00	1083.00	971.00	992.00	1033.00	1022.00	973.00	1001.00	999.00	975.00	927.00	812.00	776.00	787.00	820.00	885.00	908.00	900.00	892.00	879.00	830.00	791.00	749.00	711.00	678.00	634.00	629.00	620.00	606.00	556.00	540.00	549.00	616.00	727.00	823.00	770.00	786.00	785.00	713.00	671.00	632.00	595.00	603.00	693.00	746.00	794.00	842.00	764.00	719.00	677.00	640.00	615.00	582.00	563.00	546.00	595.00	716.00	696.00	675.00	637.00	576.00	521.00	485.00	489.00	510.00	609.00	644.00	691.00	710.00	722.00	733.00	750.00	767.00	797.00	839.00	826.00	789.00	739.00	738.00	707.00	722.00	760.00	777.00	820.00	882.00	939.00	1008.00	1105.00	1046.00	1010.00	980.00	968.00	989.00	930.00	873.00	828.00	788.00	768.00	793.00	791.00	762.00	668.00	681.00	712.00	683.00	643.00	738.00	741.00	740.00	733.00	728.00	723.00	707.00	694.00	667.00	654.00	646.00	640.00	630.00	587.00	580.00	571.00	562.00	549.00	538.00	495.00	448.00	432.00	437.00	458.00	510.00	500.00	526.00	525.00	531.00	553.00	519.00	472.00	459.00	440.00	386.00	320.00	322.00	325.00	326.00	324.00	323.00	382.00	521.00	587.00	670.00	670.00	646.00	624.00	633.00	625.00	621.00	607.00	604.00	616.00	643.00	727.00	775.00	811.00	716.00	661.00	686.00	689.00	800.00	851.00	843.00	800.00	694.00	663.00	624.00	567.00	593.00	655.00	704.00	754.00	780.00	753.00	551.00	506.00	572.00	649.00	589.00	528.00	525.00	593.00	656.00	664.00	665.00	640.00	598.00	507.00	479.00	498.00	542.00	573.00	573.00	560.00	583.00	563.00	445.00	423.00	463.00	507.00	542.00	594.00	601.00	604.00	614.00	753.00	800.00	849.00	874.00	860.00	783.00	731.00	674.00	625.00	542.00	539.00	648.00	688.00	721.00	780.00	809.00	832.00	866.00	955.00	990.00	1011.00	1003.00	967.00	904.00	862.00	825.00	797.00
1122.00	1082.00	1032.00	988.00	939.00	894.00	938.00	965.00	948.00	1033.00	1066.00	1080.00	1078.00	1059.00	1156.00	1200.00	1192.00	1149.00	1122.00	1143.00	1128.00	1100.00	1066.00	987.00	926.00	867.00	822.00	833.00	872.00	916.00	949.00	1010.00	1017.00	988.00	948.00	916.00	841.00	809.00	776.00	739.00	701.00	647.00	636.00	623.00	614.00	596.00	578.00	555.00	542.00	549.00	733.00	704.00	744.00	786.00	758.00	704.00	648.00	599.00	581.00	721.00	765.00	777.00	786.00	742.00	719.00	700.00	667.00	633.00	583.00	562.00	530.00	559.00	679.00	674.00	626.00	578.00	542.00	502.00	478.00	483.00	491.00	532.00	562.00	600.00	623.00	642.00	674.00	696.00	718.00	736.00	800.00	850.00	856.00	849.00	818.00	814.00	813.00	830.00	861.00	910.00	944.00	986.00	1056.00	1138.00	1060.00	1043.00	1025.00	980.00	928.00	891.00	853.00	823.00	813.00	837.00	785.00	762.00	728.00	719.00	760.00	766.00	743.00	709.00	781.00	801.00	788.00	716.00	672.00	669.00	664.00	649.00	619.00	612.00	605.00	601.00	597.00	577.00	578.00	583.00	587.00	609.00	633.00	633.00	597.00	550.00	439.00	410.00	420.00	434.00	470.00	451.00	457.00	458.00	462.00	457.00	450.00	431.00	367.00	322.00	327.00	331.00	332.00	327.00	327.00	359.00	485.00	576.00	596.00	602.00	595.00	593.00	618.00	680.00	661.00	630.00	615.00	640.00	665.00	744.00	788.00	824.00	794.00	788.00	797.00	814.00	835.00	879.00	850.00	806.00	794.00	740.00	685.00	625.00	577.00	540.00	565.00	601.00	649.00	691.00	604.00	533.00	487.00	507.00	508.00	480.00	550.00	610.00	665.00	589.00	552.00	531.00	510.00	481.00	468.00	453.00	486.00	487.00	482.00	475.00	501.00	510.00	432.00	422.00	476.00	532.00	583.00	681.00	722.00	741.00	743.00	755.00	793.00	821.00	808.00	762.00	696.00	648.00	609.00	582.00	528.00	577.00	602.00	616.00	640.00	716.00	742.00	783.00	828.00	913.00	908.00	900.00	927.00	972.00	895.00	851.00	812.00	779.00
1122.00	1082.00	1032.00	988.00	939.00	894.00	938.00	965.00	948.00	1033.00	1066.00	1080.00	1078.00	1059.00	1156.00	1200.00	1192.00	1149.00	1122.00	1143.00	1128.00	1100.00	1066.00	987.00	926.00	867.00	822.00	833.00	872.00	916.00	949.00	1010.00	1017.00	988.00	948.00	916.00	841.00	809.00	776.00	739.00	701.00	647.00	636.00	623.00	614.00	596.00	578.00	555.00	542.00	549.00	733.00	704.00	744.00	786.00	758.00	704.00	648.00	599.00	581.00	721.00	765.00	777.00	786.00	742.00	719.00	700.00	667.00	633.00	583.00	562.00	530.00	559.00	679.00	674.00	626.00	578.00	542.00	502.00	478.00	483.00	491.00	532.00	562.00	600.00	623.00	642.00	674.00	696.00	718.00	736.00	800.00	850.00	856.00	849.00	818.00	814.00	813.00	830.00	861.00	910.00	944.00	986.00	1056.00	1138.00	1060.00	1043.00	1025.00	980.00	928.00	891.00	853.00	823.00	813.00	837.00	785.00	762.00	728.00	719.00	760.00	766.00	743.00	709.00	781.00	801.00	788.00	716.00	672.00	669.00	664.00	649.00	619.00	612.00	605.00	601.00	597.00	577.00	578.00	583.00	587.00	609.00	633.00	633.00	597.00	550.00	439.00	410.00	420.00	434.00	470.00	451.00	457.00	458.00	462.00	457.00	450.00	431.00	367.00	322.00	327.00	331.00	332.00	327.00	327.00	359.00	485.00	576.00	596.00	602.00	595.00	593.00	618.00	680.00	661.00	630.00	615.00	640.00	665.00	744.00	788.00	824.00	794.00	788.00	797.00	814.00	835.00	879.00	850.00	806.00	794.00	740.00	685.00	625.00	577.00	540.00	565.00	601.00	649.00	691.00	604.00	533.00	487.00	507.00	508.00	480.00	550.00	610.00	665.00	589.00	552.00	531.00	510.00	481.00	468.00	453.00	486.00	487.00	482.00	475.00	501.00	510.00	432.00	422.00	476.00	532.00	583.00	681.00	722.00	741.00	743.00	755.00	793.00	821.00	808.00	762.00	696.00	648.00	609.00	582.00	528.00	577.00	602.00	616.00	640.00	716.00	742.00	783.00	828.00	913.00	908.00	900.00	927.00	972.00	895.00	851.00	812.00	779.00
1088.00	1038.00	984.00	943.00	920.00	991.00	1021.00	1035.00	1026.00	1039.00	1085.00	1125.00	1163.00	1193.00	1251.00	1289.00	1293.00	1263.00	1189.00	1163.00	1082.00	1041.00	987.00	888.00	862.00	859.00	878.00	961.00	1007.00	1053.00	1087.00	1111.00	1048.00	1002.00	955.00	909.00	823.00	780.00	743.00	705.00	680.00	658.00	645.00	625.00	611.00	591.00	584.00	581.00	571.00	551.00	552.00	637.00	682.00	708.00	747.00	712.00	660.00	603.00	559.00	686.00	714.00	678.00	654.00	650.00	638.00	665.00	656.00	620.00	550.00	540.00	536.00	514.00	606.00	633.00	618.00	551.00	507.00	485.00	479.00	468.00	459.00	489.00	539.00	610.00	642.00	674.00	731.00	750.00	770.00	789.00	783.00	779.00	781.00	777.00	770.00	811.00	833.00	853.00	833.00	886.00	920.00	987.00	1046.00	1018.00	944.00	969.00	999.00	1000.00	934.00	889.00	871.00	879.00	869.00	814.00	748.00	733.00	737.00	800.00	830.00	838.00	823.00	807.00	819.00	816.00	786.00	702.00	649.00	633.00	621.00	611.00	592.00	586.00	578.00	574.00	569.00	551.00	545.00	547.00	556.00	579.00	599.00	629.00	654.00	624.00	538.00	501.00	438.00	404.00	392.00	375.00	365.00	369.00	381.00	409.00	420.00	418.00	347.00	320.00	321.00	322.00	321.00	321.00	323.00	337.00	408.00	454.00	490.00	489.00	478.00	505.00	533.00	584.00	579.00	547.00	513.00	553.00	581.00	697.00	754.00	786.00	865.00	902.00	925.00	934.00	912.00	901.00	887.00	870.00	852.00	803.00	773.00	758.00	731.00	622.00	550.00	499.00	491.00	532.00	643.00	585.00	554.00	519.00	445.00	525.00	581.00	635.00	648.00	529.00	491.00	472.00	455.00	452.00	433.00	445.00	453.00	440.00	419.00	415.00	441.00	470.00	420.00	432.00	479.00	524.00	577.00	658.00	716.00	761.00	740.00	708.00	769.00	763.00	716.00	678.00	624.00	584.00	547.00	516.00	581.00	646.00	712.00	725.00	730.00	781.00	812.00	839.00	862.00	871.00	827.00	809.00	863.00	951.00	926.00	882.00	844.00	817.00
1088.00	1038.00	984.00	943.00	920.00	991.00	1021.00	1035.00	1026.00	1039.00	1085.00	1125.00	1163.00	1193.00	1251.00	1289.00	1293.00	1263.00	1189.00	1163.00	1082.00	1041.00	987.00	888.00	862.00	859.00	878.00	961.00	1007.00	1053.00	1087.00	1111.00	1048.00	1002.00	955.00	909.00	823.00	780.00	743.00	705.00	680.00	658.00	645.00	625.00	611.00	591.00	584.00	581.00	571.00	551.00	552.00	637.00	682.00	708.00	747.00	712.00	660.00	603.00	559.00	686.00	714.00	678.00	654.00	650.00	638.00	665.00	656.00	620.00	550.00	540.00	536.00	514.00	606.00	633.00	618.00	551.00	507.00	485.00	479.00	468.00	459.00	489.00	539.00	610.00	642.00	674.00	731.00	750.00	770.00	789.00	783.00	779.00	781.00	777.00	770.00	811.00	833.00	853.00	833.00	886.00	920.00	987.00	1046.00	1018.00	944.00	969.00	999.00	1000.00	934.00	889.00	871.00	879.00	869.00	814.00	748.00	733.00	737.00	800.00	830.00	838.00	823.00	807.00	819.00	816.00	786.00	702.00	649.00	633.00	621.00	611.00	592.00	586.00	578.00	574.00	569.00	551.00	545.00	547.00	556.00	579.00	599.00	629.00	654.00	624.00	538.00	501.00	438.00	404.00	392.00	375.00	365.00	369.00	381.00	409.00	420.00	418.00	347.00	320.00	321.00	322.00	321.00	321.00	323.00	337.00	408.00	454.00	490.00	489.00	478.00	505.00	533.00	584.00	579.00	547.00	513.00	553.00	581.00	697.00	754.00	786.00	865.00	902.00	925.00	934.00	912.00	901.00	887.00	870.00	852.00	803.00	773.00	758.00	731.00	622.00	550.00	499.00	491.00	532.00	643.00	585.00	554.00	519.00	445.00	525.00	581.00	635.00	648.00	529.00	491.00	472.00	455.00	452.00	433.00	445.00	453.00	440.00	419.00	415.00	441.00	470.00	420.00	432.00	479.00	524.00	577.00	658.00	716.00	761.00	740.00	708.00	769.00	763.00	716.00	678.00	624.00	584.00	547.00	516.00	581.00	646.00	712.00	725.00	730.00	781.00	812.00	839.00	862.00	871.00	827.00	809.00	863.00	951.00	926.00	882.00	844.00	817.00
1016.00	969.00	952.00	972.00	1003.00	1071.00	1085.00	1101.00	1109.00	1077.00	1104.00	1153.00	1205.00	1258.00	1351.00	1375.00	1332.00	1274.00	1152.00	1091.00	981.00	946.00	920.00	928.00	960.00	986.00	1010.00	1089.00	1137.00	1174.00	1178.00	1134.00	1052.00	1000.00	949.00	895.00	792.00	743.00	715.00	734.00	776.00	742.00	708.00	682.00	661.00	630.00	616.00	601.00	591.00	580.00	555.00	542.00	558.00	586.00	638.00	620.00	616.00	589.00	562.00	610.00	614.00	574.00	558.00	554.00	530.00	523.00	516.00	499.00	479.00	478.00	478.00	479.00	509.00	523.00	516.00	485.00	466.00	460.00	458.00	458.00	475.00	540.00	595.00	668.00	690.00	717.00	757.00	772.00	769.00	725.00	685.00	684.00	678.00	683.00	694.00	739.00	760.00	760.00	754.00	866.00	882.00	900.00	923.00	912.00	876.00	916.00	947.00	950.00	922.00	924.00	920.00	888.00	842.00	790.00	820.00	835.00	823.00	824.00	843.00	842.00	825.00	808.00	779.00	746.00	723.00	672.00	636.00	625.00	616.00	599.00	591.00	586.00	586.00	577.00	566.00	520.00	508.00	510.00	518.00	534.00	544.00	556.00	566.00	567.00	517.00	498.00	487.00	467.00	433.00	432.00	421.00	406.00	402.00	364.00	346.00	346.00	325.00	329.00	328.00	327.00	326.00	325.00	329.00	333.00	348.00	391.00	448.00	427.00	432.00	457.00	491.00	509.00	469.00	485.00	543.00	631.00	661.00	715.00	753.00	794.00	819.00	845.00	876.00	888.00	903.00	837.00	762.00	702.00	672.00	684.00	706.00	707.00	767.00	732.00	681.00	633.00	559.00	480.00	555.00	605.00	570.00	513.00	431.00	525.00	588.00	587.00	547.00	461.00	448.00	412.00	399.00	397.00	413.00	442.00	413.00	395.00	408.00	406.00	405.00	429.00	402.00	406.00	426.00	467.00	518.00	623.00	666.00	652.00	604.00	700.00	744.00	728.00	679.00	632.00	557.00	527.00	510.00	496.00	623.00	685.00	779.00	813.00	831.00	850.00	836.00	805.00	788.00	780.00	733.00	759.00	813.00	878.00	949.00	949.00	928.00	906.00
983.00	992.00	1012.00	1054.00	1091.00	1137.00	1157.00	1178.00	1204.00	1182.00	1158.00	1225.00	1283.00	1334.00	1421.00	1388.00	1327.00	1259.00	1081.00	1026.00	998.00	999.00	1007.00	1045.00	1076.00	1111.00	1146.00	1201.00	1190.00	1149.00	1089.00	1013.00	946.00	909.00	873.00	831.00	763.00	785.00	832.00	873.00	900.00	822.00	786.00	741.00	703.00	660.00	642.00	624.00	608.00	597.00	578.00	569.00	562.00	553.00	530.00	530.00	522.00	523.00	524.00	517.00	530.00	532.00	512.00	514.00	512.00	507.00	504.00	503.00	495.00	495.00	493.00	490.00	492.00	499.00	503.00	503.00	503.00	491.00	485.00	477.00	457.00	599.00	643.00	691.00	706.00	700.00	685.00	669.00	656.00	642.00	627.00	624.00	624.00	638.00	649.00	689.00	693.00	692.00	740.00	819.00	802.00	781.00	803.00	804.00	802.00	830.00	851.00	858.00	890.00	940.00	986.00	982.00	932.00	876.00	848.00	818.00	795.00	772.00	768.00	760.00	741.00	725.00	700.00	686.00	675.00	648.00	635.00	637.00	624.00	659.00	674.00	665.00	661.00	643.00	620.00	550.00	533.00	513.00	491.00	478.00	479.00	479.00	477.00	471.00	468.00	459.00	449.00	434.00	502.00	513.00	488.00	475.00	459.00	431.00	418.00	410.00	377.00	335.00	335.00	333.00	332.00	331.00	332.00	335.00	339.00	345.00	399.00	397.00	426.00	453.00	472.00	440.00	489.00	545.00	592.00	680.00	701.00	764.00	799.00	817.00	727.00	677.00	714.00	784.00	871.00	833.00	768.00	706.00	592.00	500.00	497.00	565.00	619.00	702.00	709.00	678.00	636.00	601.00	419.00	460.00	522.00	504.00	420.00	425.00	456.00	454.00	445.00	386.00	393.00	389.00	389.00	424.00	410.00	428.00	448.00	460.00	459.00	458.00	447.00	419.00	423.00	424.00	420.00	400.00	448.00	598.00	581.00	524.00	550.00	715.00	726.00	690.00	642.00	589.00	523.00	492.00	490.00	537.00	600.00	638.00	749.00	801.00	849.00	822.00	779.00	730.00	668.00	666.00	707.00	746.00	785.00	859.00	920.00	926.00	936.00	944.00
983.00	992.00	1012.00	1054.00	1091.00	1137.00	1157.00	1178.00	1204.00	1182.00	1158.00	1225.00	1283.00	1334.00	1421.00	1388.00	1327.00	1259.00	1081.00	1026.00	998.00	999.00	1007.00	1045.00	1076.00	1111.00	1146.00	1201.00	1190.00	1149.00	1089.00	1013.00	946.00	909.00	873.00	831.00	763.00	785.00	832.00	873.00	900.00	822.00	786.00	741.00	703.00	660.00	642.00	624.00	608.00	597.00	578.00	569.00	562.00	553.00	530.00	530.00	522.00	523.00	524.00	517.00	530.00	532.00	512.00	514.00	512.00	507.00	504.00	503.00	495.00	495.00	493.00	490.00	492.00	499.00	503.00	503.00	503.00	491.00	485.00	477.00	457.00	599.00	643.00	691.00	706.00	700.00	685.00	669.00	656.00	642.00	627.00	624.00	624.00	638.00	649.00	689.00	693.00	692.00	740.00	819.00	802.00	781.00	803.00	804.00	802.00	830.00	851.00	858.00	890.00	940.00	986.00	982.00	932.00	876.00	848.00	818.00	795.00	772.00	768.00	760.00	741.00	725.00	700.00	686.00	675.00	648.00	635.00	637.00	624.00	659.00	674.00	665.00	661.00	643.00	620.00	550.00	533.00	513.00	491.00	478.00	479.00	479.00	477.00	471.00	468.00	459.00	449.00	434.00	502.00	513.00	488.00	475.00	459.00	431.00	418.00	410.00	377.00	335.00	335.00	333.00	332.00	331.00	332.00	335.00	339.00	345.00	399.00	397.00	426.00	453.00	472.00	440.00	489.00	545.00	592.00	680.00	701.00	764.00	799.00	817.00	727.00	677.00	714.00	784.00	871.00	833.00	768.00	706.00	592.00	500.00	497.00	565.00	619.00	702.00	709.00	678.00	636.00	601.00	419.00	460.00	522.00	504.00	420.00	425.00	456.00	454.00	445.00	386.00	393.00	389.00	389.00	424.00	410.00	428.00	448.00	460.00	459.00	458.00	447.00	419.00	423.00	424.00	420.00	400.00	448.00	598.00	581.00	524.00	550.00	715.00	726.00	690.00	642.00	589.00	523.00	492.00	490.00	537.00	600.00	638.00	749.00	801.00	849.00	822.00	779.00	730.00	668.00	666.00	707.00	746.00	785.00	859.00	920.00	926.00	936.00	944.00
1040.00	1090.00	1124.00	1110.00	1164.00	1217.00	1242.00	1269.00	1303.00	1325.00	1307.00	1380.00	1429.00	1462.00	1432.00	1355.00	1265.00	1167.00	1085.00	1089.00	1089.00	1107.00	1128.00	1178.00	1218.00	1263.00	1301.00	1273.00	1228.00	1173.00	1116.00	1035.00	936.00	866.00	809.00	808.00	892.00	937.00	970.00	993.00	1000.00	895.00	851.00	806.00	763.00	709.00	682.00	658.00	643.00	629.00	608.00	601.00	596.00	590.00	578.00	569.00	552.00	571.00	578.00	585.00	590.00	581.00	568.00	563.00	550.00	540.00	540.00	544.00	528.00	533.00	550.00	548.00	552.00	552.00	552.00	547.00	538.00	516.00	489.00	458.00	466.00	568.00	566.00	582.00	593.00	580.00	580.00	585.00	589.00	592.00	590.00	582.00	596.00	605.00	615.00	629.00	647.00	680.00	705.00	743.00	726.00	701.00	703.00	720.00	851.00	883.00	905.00	896.00	933.00	960.00	1009.00	1058.00	1024.00	897.00	830.00	814.00	787.00	762.00	748.00	752.00	758.00	732.00	791.00	793.00	760.00	714.00	723.00	734.00	706.00	721.00	739.00	707.00	677.00	653.00	628.00	565.00	548.00	531.00	511.00	515.00	509.00	499.00	494.00	495.00	555.00	575.00	574.00	560.00	523.00	569.00	555.00	509.00	481.00	449.00	439.00	431.00	414.00	331.00	332.00	332.00	332.00	332.00	334.00	335.00	333.00	333.00	363.00	410.00	441.00	454.00	448.00	426.00	489.00	529.00	570.00	571.00	566.00	699.00	736.00	773.00	682.00	592.00	638.00	715.00	786.00	723.00	656.00	633.00	656.00	517.00	422.00	391.00	439.00	463.00	476.00	478.00	478.00	455.00	405.00	397.00	397.00	436.00	435.00	378.00	371.00	385.00	387.00	417.00	449.00	447.00	438.00	473.00	464.00	503.00	524.00	536.00	532.00	519.00	503.00	489.00	454.00	451.00	440.00	412.00	403.00	471.00	468.00	499.00	560.00	722.00	689.00	631.00	583.00	540.00	474.00	479.00	551.00	617.00	683.00	699.00	735.00	762.00	761.00	725.00	666.00	610.00	579.00	682.00	727.00	777.00	817.00	868.00	825.00	819.00	829.00	845.00
