179.00	183.00	184.00	184.00	185.00	188.00	190.00	192.00	193.00	195.00	199.00	201.00	202.00	203.00	204.00	204.00	205.00	206.00	205.00	205.00	203.00	206.00	207.00	209.00	209.00	209.00	210.00	211.00	215.00	216.00	218.00	219.00	224.00	224.00	226.00	229.00	231.00	234.00	236.00	239.00	240.00	242.00	242.00	243.00	243.00	240.00	243.00	243.00	240.00	241.00	240.00	238.00	236.00	234.00	234.00	236.00	233.00	231.00	229.00	225.00	225.00	227.00	226.00	226.00	223.00	223.00	222.00	221.00	220.00	220.00	219.00	219.00	215.00	209.00	211.00	213.00	211.00	205.00	196.00	199.00	209.00	213.00	210.00	212.00	212.00	213.00	212.00	209.00	210.00	211.00	213.00	213.00	212.00	213.00	212.00	209.00	206.00	204.00	201.00	202.00	199.00	190.00	180.00	173.00	174.00	181.00	196.00	201.00	200.00	200.00	201.00	200.00	197.00	203.00	204.00	205.00	205.00	203.00	201.00	206.00	206.00	206.00	203.00	208.00	211.00	213.00	218.00	220.00	221.00	222.00	221.00	226.00	226.00	227.00	227.00	228.00	229.00	227.00	213.00	205.00	194.00	197.00	199.00	207.00	207.00	209.00	215.00	225.00	230.00	220.00	222.00	227.00	235.00	239.00	240.00	240.00	242.00	243.00	243.00	244.00	245.00	245.00	246.00	245.00	248.00	249.00	240.00	224.00	226.00	240.00	245.00	256.00	255.00	256.00	257.00	257.00	259.00	260.00	260.00	261.00	263.00	265.00	267.00	270.00	272.00	273.00	274.00	274.00	274.00	274.00	275.00	277.00	279.00	280.00	282.00	283.00	284.00	285.00	288.00	286.00	285.00	286.00	287.00	291.00	293.00	294.00	295.00	297.00	298.00	302.00	308.00	321.00	320.00	317.00	315.00	316.00	306.00	307.00	310.00	310.00	312.00	320.00	323.00	326.00	330.00	339.00	345.00	354.00	358.00	372.00	380.00	389.00	423.00	461.00	540.00	636.00	714.00	764.00	855.00	945.00	939.00	797.00	723.00	580.00	532.00	523.00	506.00	448.00	432.00	421.00	420.00	407.00	396.00	396.00	379.00	396.00
179.00	183.00	183.00	184.00	186.00	186.00	186.00	187.00	191.00	194.00	197.00	200.00	201.00	202.00	205.00	205.00	205.00	205.00	204.00	192.00	193.00	198.00	205.00	201.00	203.00	207.00	210.00	212.00	214.00	215.00	217.00	219.00	224.00	225.00	227.00	228.00	229.00	232.00	233.00	235.00	237.00	242.00	243.00	246.00	245.00	246.00	247.00	246.00	245.00	245.00	242.00	241.00	240.00	240.00	238.00	238.00	236.00	233.00	232.00	229.00	229.00	229.00	228.00	227.00	222.00	221.00	222.00	221.00	220.00	220.00	219.00	218.00	216.00	214.00	211.00	202.00	201.00	197.00	192.00	189.00	197.00	206.00	202.00	206.00	207.00	208.00	210.00	208.00	203.00	205.00	208.00	209.00	210.00	210.00	210.00	209.00	207.00	207.00	204.00	192.00	187.00	191.00	187.00	173.00	182.00	191.00	200.00	199.00	199.00	198.00	199.00	198.00	194.00	201.00	201.00	202.00	202.00	197.00	203.00	204.00	204.00	203.00	200.00	200.00	205.00	208.00	213.00	215.00	216.00	217.00	217.00	221.00	221.00	223.00	224.00	225.00	225.00	217.00	197.00	192.00	194.00	199.00	202.00	211.00	223.00	222.00	217.00	213.00	214.00	226.00	230.00	234.00	235.00	238.00	239.00	239.00	239.00	240.00	242.00	242.00	244.00	243.00	245.00	245.00	242.00	225.00	219.00	237.00	247.00	250.00	252.00	252.00	251.00	253.00	253.00	254.00	257.00	258.00	260.00	260.00	264.00	264.00	265.00	266.00	268.00	269.00	270.00	270.00	270.00	271.00	274.00	275.00	278.00	278.00	281.00	281.00	281.00	281.00	283.00	284.00	282.00	282.00	282.00	285.00	286.00	287.00	288.00	290.00	290.00	292.00	295.00	304.00	305.00	302.00	297.00	297.00	300.00	302.00	303.00	304.00	310.00	317.00	318.00	322.00	326.00	335.00	343.00	351.00	359.00	377.00	395.00	419.00	469.00	525.00	608.00	684.00	726.00	723.00	749.00	829.00	914.00	970.00	917.00	836.00	750.00	722.00	689.00	654.00	552.00	517.00	460.00	423.00	401.00	374.00	364.00	364.00
178.00	182.00	183.00	184.00	186.00	187.00	187.00	190.00	192.00	193.00	197.00	199.00	201.00	202.00	204.00	204.00	205.00	205.00	203.00	190.00	193.00	199.00	206.00	205.00	208.00	210.00	211.00	213.00	216.00	216.00	216.00	218.00	223.00	224.00	225.00	227.00	228.00	233.00	234.00	235.00	237.00	241.00	243.00	246.00	244.00	246.00	247.00	246.00	246.00	245.00	244.00	243.00	241.00	240.00	238.00	237.00	237.00	234.00	233.00	231.00	230.00	229.00	228.00	227.00	224.00	223.00	223.00	221.00	221.00	220.00	218.00	217.00	216.00	215.00	212.00	207.00	203.00	193.00	188.00	186.00	190.00	202.00	198.00	203.00	204.00	204.00	206.00	207.00	202.00	201.00	205.00	207.00	207.00	208.00	209.00	208.00	207.00	206.00	205.00	197.00	190.00	181.00	178.00	171.00	182.00	192.00	200.00	199.00	198.00	198.00	198.00	198.00	194.00	199.00	200.00	201.00	201.00	197.00	203.00	203.00	202.00	200.00	200.00	198.00	201.00	204.00	210.00	213.00	214.00	214.00	216.00	219.00	220.00	221.00	222.00	222.00	222.00	211.00	192.00	191.00	196.00	198.00	205.00	219.00	220.00	211.00	213.00	216.00	221.00	231.00	233.00	233.00	234.00	236.00	237.00	239.00	238.00	240.00	241.00	242.00	243.00	243.00	243.00	236.00	221.00	217.00	221.00	240.00	248.00	250.00	250.00	250.00	250.00	251.00	252.00	253.00	255.00	256.00	259.00	261.00	262.00	263.00	264.00	264.00	265.00	267.00	268.00	269.00	265.00	270.00	274.00	276.00	276.00	277.00	279.00	280.00	283.00	282.00	281.00	281.00	280.00	279.00	280.00	282.00	283.00	284.00	286.00	289.00	290.00	292.00	293.00	298.00	299.00	295.00	294.00	295.00	298.00	299.00	301.00	303.00	308.00	312.00	316.00	319.00	324.00	337.00	345.00	352.00	361.00	380.00	392.00	405.00	453.00	524.00	556.00	540.00	535.00	531.00	727.00	828.00	916.00	1051.00	1115.00	950.00	886.00	847.00	865.00	797.00	679.00	542.00	466.00	428.00	392.00	389.00	381.00	365.00
178.00	182.00	183.00	184.00	186.00	187.00	187.00	190.00	192.00	193.00	197.00	199.00	201.00	202.00	204.00	204.00	205.00	205.00	203.00	190.00	193.00	199.00	206.00	205.00	208.00	210.00	211.00	213.00	216.00	216.00	216.00	218.00	223.00	224.00	225.00	227.00	228.00	233.00	234.00	235.00	237.00	241.00	243.00	246.00	244.00	246.00	247.00	246.00	246.00	245.00	244.00	243.00	241.00	240.00	238.00	237.00	237.00	234.00	233.00	231.00	230.00	229.00	228.00	227.00	224.00	223.00	223.00	221.00	221.00	220.00	218.00	217.00	216.00	215.00	212.00	207.00	203.00	193.00	188.00	186.00	190.00	202.00	198.00	203.00	204.00	204.00	206.00	207.00	202.00	201.00	205.00	207.00	207.00	208.00	209.00	208.00	207.00	206.00	205.00	197.00	190.00	181.00	178.00	171.00	182.00	192.00	200.00	199.00	198.00	198.00	198.00	198.00	194.00	199.00	200.00	201.00	201.00	197.00	203.00	203.00	202.00	200.00	200.00	198.00	201.00	204.00	210.00	213.00	214.00	214.00	216.00	219.00	220.00	221.00	222.00	222.00	222.00	211.00	192.00	191.00	196.00	198.00	205.00	219.00	220.00	211.00	213.00	216.00	221.00	231.00	233.00	233.00	234.00	236.00	237.00	239.00	238.00	240.00	241.00	242.00	243.00	243.00	243.00	236.00	221.00	217.00	221.00	240.00	248.00	250.00	250.00	250.00	250.00	251.00	252.00	253.00	255.00	256.00	259.00	261.00	262.00	263.00	264.00	264.00	265.00	267.00	268.00	269.00	265.00	270.00	274.00	276.00	276.00	277.00	279.00	280.00	283.00	282.00	281.00	281.00	280.00	279.00	280.00	282.00	283.00	284.00	286.00	289.00	290.00	292.00	293.00	298.00	299.00	295.00	294.00	295.00	298.00	299.00	301.00	303.00	308.00	312.00	316.00	319.00	324.00	337.00	345.00	352.00	361.00	380.00	392.00	405.00	453.00	524.00	556.00	540.00	535.00	531.00	727.00	828.00	916.00	1051.00	1115.00	950.00	886.00	847.00	865.00	797.00	679.00	542.00	466.00	428.00	392.00	389.00	381.00	365.00
175.00	182.00	183.00	184.00	185.00	188.00	189.00	190.00	192.00	193.00	196.00	199.00	200.00	202.00	203.00	204.00	204.00	204.00	203.00	192.00	196.00	202.00	207.00	204.00	206.00	209.00	212.00	213.00	215.00	216.00	217.00	217.00	222.00	224.00	226.00	227.00	228.00	233.00	235.00	236.00	237.00	240.00	241.00	245.00	244.00	248.00	249.00	247.00	246.00	245.00	244.00	243.00	242.00	240.00	238.00	238.00	237.00	235.00	233.00	232.00	232.00	230.00	229.00	228.00	224.00	223.00	223.00	222.00	221.00	220.00	218.00	218.00	214.00	213.00	211.00	209.00	207.00	200.00	195.00	188.00	183.00	197.00	195.00	196.00	200.00	201.00	203.00	205.00	201.00	199.00	205.00	205.00	205.00	206.00	207.00	206.00	207.00	205.00	204.00	200.00	194.00	187.00	186.00	174.00	180.00	191.00	198.00	198.00	198.00	197.00	197.00	197.00	192.00	198.00	198.00	200.00	200.00	194.00	200.00	200.00	200.00	197.00	197.00	196.00	202.00	204.00	206.00	210.00	211.00	213.00	214.00	216.00	217.00	219.00	221.00	220.00	211.00	202.00	189.00	191.00	195.00	198.00	203.00	214.00	209.00	211.00	220.00	225.00	229.00	232.00	232.00	233.00	234.00	236.00	236.00	237.00	237.00	238.00	240.00	241.00	242.00	241.00	231.00	215.00	215.00	219.00	225.00	246.00	248.00	248.00	248.00	248.00	251.00	251.00	252.00	253.00	254.00	256.00	256.00	259.00	261.00	262.00	262.00	262.00	263.00	265.00	266.00	267.00	267.00	270.00	274.00	275.00	275.00	273.00	278.00	279.00	281.00	282.00	277.00	279.00	278.00	277.00	278.00	280.00	282.00	284.00	286.00	288.00	289.00	290.00	292.00	295.00	295.00	291.00	291.00	293.00	296.00	297.00	299.00	301.00	306.00	313.00	315.00	319.00	325.00	337.00	344.00	351.00	362.00	406.00	419.00	432.00	530.00	530.00	449.00	458.00	469.00	514.00	711.00	807.00	891.00	1006.00	1138.00	851.00	831.00	769.00	786.00	826.00	708.00	604.00	494.00	444.00	397.00	369.00	364.00	360.00
176.00	181.00	182.00	184.00	185.00	187.00	189.00	190.00	192.00	193.00	195.00	196.00	200.00	201.00	202.00	204.00	202.00	203.00	204.00	205.00	205.00	205.00	204.00	208.00	210.00	211.00	213.00	213.00	214.00	215.00	216.00	216.00	221.00	223.00	225.00	225.00	227.00	231.00	232.00	232.00	234.00	240.00	241.00	245.00	246.00	247.00	248.00	247.00	245.00	244.00	243.00	243.00	240.00	240.00	240.00	237.00	236.00	235.00	234.00	232.00	231.00	230.00	229.00	228.00	224.00	223.00	223.00	222.00	219.00	217.00	217.00	215.00	213.00	212.00	210.00	207.00	205.00	200.00	196.00	198.00	192.00	183.00	189.00	190.00	197.00	191.00	197.00	195.00	191.00	200.00	201.00	201.00	201.00	201.00	202.00	201.00	201.00	201.00	200.00	197.00	195.00	189.00	179.00	168.00	179.00	186.00	196.00	197.00	197.00	197.00	193.00	192.00	190.00	194.00	195.00	199.00	198.00	198.00	196.00	186.00	189.00	198.00	189.00	192.00	194.00	197.00	201.00	205.00	208.00	208.00	210.00	214.00	215.00	217.00	215.00	194.00	189.00	187.00	192.00	195.00	200.00	206.00	210.00	213.00	222.00	225.00	226.00	227.00	228.00	230.00	231.00	231.00	233.00	233.00	235.00	235.00	235.00	236.00	238.00	239.00	239.00	223.00	215.00	225.00	236.00	242.00	244.00	244.00	245.00	245.00	246.00	248.00	249.00	250.00	250.00	251.00	251.00	252.00	253.00	256.00	258.00	259.00	260.00	259.00	258.00	262.00	263.00	265.00	267.00	270.00	271.00	271.00	271.00	272.00	274.00	276.00	276.00	277.00	276.00	275.00	276.00	276.00	277.00	278.00	279.00	282.00	284.00	287.00	288.00	289.00	289.00	287.00	286.00	287.00	288.00	289.00	293.00	296.00	301.00	306.00	308.00	306.00	310.00	314.00	315.00	325.00	331.00	340.00	351.00	372.00	399.00	399.00	392.00	396.00	420.00	426.00	465.00	484.00	634.00	749.00	809.00	871.00	952.00	753.00	695.00	655.00	599.00	544.00	518.00	475.00	491.00	443.00	395.00	399.00	385.00	374.00
176.00	181.00	183.00	184.00	186.00	188.00	189.00	190.00	193.00	194.00	195.00	196.00	198.00	199.00	202.00	203.00	203.00	204.00	204.00	205.00	204.00	203.00	198.00	207.00	210.00	211.00	212.00	214.00	216.00	214.00	215.00	217.00	219.00	221.00	223.00	224.00	226.00	230.00	232.00	232.00	234.00	239.00	241.00	244.00	242.00	243.00	246.00	246.00	242.00	241.00	240.00	240.00	239.00	239.00	237.00	237.00	235.00	234.00	233.00	231.00	229.00	229.00	228.00	227.00	222.00	222.00	221.00	221.00	218.00	216.00	215.00	215.00	212.00	211.00	210.00	206.00	203.00	197.00	194.00	191.00	190.00	178.00	181.00	192.00	196.00	191.00	194.00	189.00	192.00	199.00	199.00	199.00	199.00	199.00	199.00	199.00	199.00	198.00	198.00	193.00	192.00	192.00	184.00	168.00	176.00	183.00	196.00	196.00	196.00	196.00	194.00	189.00	188.00	194.00	193.00	197.00	196.00	198.00	196.00	187.00	189.00	198.00	188.00	182.00	188.00	199.00	197.00	206.00	207.00	206.00	208.00	211.00	214.00	210.00	200.00	185.00	184.00	186.00	193.00	198.00	211.00	215.00	219.00	222.00	224.00	226.00	226.00	227.00	226.00	229.00	230.00	231.00	231.00	232.00	233.00	233.00	234.00	236.00	237.00	237.00	230.00	211.00	222.00	235.00	241.00	243.00	244.00	244.00	244.00	244.00	245.00	248.00	248.00	249.00	252.00	249.00	251.00	251.00	252.00	254.00	257.00	258.00	258.00	258.00	259.00	261.00	262.00	264.00	266.00	268.00	269.00	268.00	270.00	270.00	273.00	273.00	274.00	275.00	275.00	274.00	276.00	276.00	275.00	273.00	275.00	277.00	281.00	286.00	285.00	286.00	288.00	284.00	284.00	285.00	287.00	288.00	294.00	298.00	304.00	307.00	304.00	303.00	306.00	307.00	311.00	319.00	324.00	331.00	339.00	352.00	359.00	365.00	381.00	393.00	409.00	440.00	485.00	560.00	660.00	632.00	728.00	791.00	820.00	798.00	737.00	785.00	669.00	587.00	572.00	519.00	459.00	446.00	429.00	401.00	388.00	388.00
175.00	181.00	182.00	183.00	185.00	187.00	189.00	189.00	192.00	192.00	194.00	196.00	196.00	197.00	203.00	203.00	202.00	204.00	205.00	205.00	204.00	205.00	204.00	209.00	208.00	211.00	213.00	213.00	215.00	214.00	216.00	217.00	218.00	221.00	223.00	224.00	225.00	229.00	230.00	231.00	233.00	237.00	239.00	242.00	239.00	239.00	243.00	243.00	239.00	238.00	239.00	238.00	237.00	237.00	236.00	234.00	234.00	233.00	232.00	229.00	228.00	227.00	226.00	225.00	222.00	221.00	220.00	220.00	217.00	216.00	215.00	214.00	212.00	210.00	208.00	205.00	203.00	199.00	197.00	194.00	191.00	181.00	176.00	183.00	192.00	192.00	191.00	185.00	193.00	195.00	197.00	196.00	196.00	196.00	196.00	195.00	196.00	195.00	195.00	190.00	185.00	188.00	183.00	167.00	172.00	180.00	194.00	195.00	195.00	195.00	194.00	186.00	188.00	194.00	191.00	195.00	196.00	195.00	188.00	181.00	191.00	196.00	185.00	179.00	184.00	191.00	203.00	204.00	204.00	206.00	206.00	210.00	199.00	191.00	186.00	183.00	185.00	187.00	195.00	201.00	215.00	218.00	220.00	219.00	223.00	224.00	224.00	226.00	227.00	230.00	229.00	230.00	231.00	232.00	233.00	233.00	234.00	234.00	236.00	233.00	212.00	208.00	230.00	238.00	241.00	240.00	242.00	242.00	242.00	244.00	245.00	246.00	247.00	248.00	248.00	248.00	249.00	250.00	252.00	254.00	256.00	257.00	257.00	258.00	258.00	260.00	261.00	264.00	265.00	266.00	266.00	268.00	269.00	270.00	271.00	269.00	272.00	273.00	275.00	274.00	275.00	276.00	274.00	272.00	273.00	275.00	279.00	282.00	282.00	285.00	281.00	281.00	282.00	284.00	285.00	287.00	296.00	300.00	302.00	301.00	302.00	300.00	303.00	306.00	308.00	318.00	322.00	328.00	334.00	349.00	356.00	364.00	381.00	388.00	415.00	451.00	490.00	519.00	542.00	533.00	621.00	667.00	748.00	928.00	901.00	920.00	762.00	712.00	659.00	574.00	508.00	521.00	444.00	402.00	398.00	391.00
175.00	178.00	181.00	182.00	183.00	186.00	187.00	189.00	190.00	190.00	193.00	194.00	195.00	196.00	201.00	202.00	203.00	203.00	204.00	205.00	205.00	207.00	206.00	208.00	208.00	210.00	211.00	214.00	215.00	216.00	216.00	217.00	219.00	220.00	222.00	223.00	225.00	228.00	230.00	230.00	232.00	235.00	238.00	238.00	234.00	237.00	241.00	239.00	237.00	235.00	238.00	236.00	234.00	233.00	234.00	233.00	231.00	232.00	230.00	227.00	225.00	225.00	225.00	224.00	221.00	221.00	220.00	219.00	216.00	215.00	214.00	213.00	211.00	209.00	208.00	205.00	203.00	199.00	198.00	196.00	197.00	189.00	181.00	174.00	182.00	189.00	186.00	182.00	187.00	192.00	194.00	194.00	194.00	193.00	194.00	192.00	191.00	188.00	190.00	187.00	179.00	185.00	176.00	162.00	175.00	183.00	192.00	194.00	194.00	192.00	186.00	186.00	193.00	192.00	189.00	194.00	195.00	195.00	186.00	180.00	194.00	194.00	178.00	181.00	187.00	197.00	203.00	204.00	205.00	205.00	205.00	196.00	185.00	181.00	181.00	185.00	189.00	193.00	199.00	206.00	218.00	218.00	220.00	220.00	224.00	224.00	224.00	224.00	225.00	227.00	228.00	229.00	230.00	231.00	232.00	232.00	232.00	233.00	232.00	222.00	207.00	210.00	231.00	237.00	240.00	241.00	241.00	242.00	241.00	243.00	245.00	246.00	246.00	247.00	247.00	247.00	240.00	244.00	251.00	253.00	255.00	256.00	256.00	257.00	258.00	260.00	262.00	263.00	264.00	264.00	265.00	266.00	268.00	268.00	271.00	271.00	272.00	273.00	274.00	274.00	272.00	275.00	272.00	271.00	272.00	274.00	279.00	277.00	276.00	276.00	274.00	279.00	280.00	282.00	285.00	290.00	295.00	293.00	292.00	293.00	294.00	299.00	302.00	304.00	306.00	315.00	322.00	327.00	333.00	346.00	355.00	364.00	381.00	404.00	441.00	469.00	442.00	426.00	476.00	487.00	512.00	596.00	671.00	839.00	966.00	1010.00	932.00	686.00	648.00	649.00	682.00	579.00	442.00	395.00	386.00	374.00
170.00	178.00	179.00	179.00	178.00	182.00	185.00	187.00	188.00	189.00	192.00	193.00	195.00	196.00	199.00	200.00	201.00	202.00	203.00	205.00	207.00	208.00	209.00	210.00	210.00	211.00	212.00	213.00	215.00	216.00	217.00	217.00	219.00	222.00	222.00	222.00	223.00	227.00	228.00	229.00	230.00	233.00	235.00	237.00	230.00	233.00	238.00	235.00	235.00	236.00	237.00	235.00	233.00	232.00	231.00	233.00	231.00	230.00	228.00	226.00	225.00	225.00	224.00	223.00	220.00	220.00	219.00	218.00	216.00	214.00	213.00	212.00	210.00	209.00	207.00	204.00	203.00	199.00	197.00	195.00	192.00	195.00	188.00	179.00	173.00	181.00	181.00	180.00	180.00	185.00	193.00	191.00	191.00	190.00	191.00	188.00	187.00	185.00	184.00	186.00	182.00	173.00	170.00	161.00	179.00	189.00	191.00	192.00	194.00	191.00	182.00	191.00	194.00	189.00	188.00	194.00	194.00	194.00	183.00	176.00	192.00	185.00	179.00	190.00	198.00	199.00	203.00	203.00	200.00	200.00	196.00	180.00	180.00	182.00	186.00	199.00	200.00	199.00	205.00	210.00	217.00	220.00	221.00	221.00	223.00	223.00	224.00	224.00	224.00	226.00	227.00	228.00	228.00	230.00	231.00	230.00	231.00	232.00	213.00	205.00	207.00	212.00	231.00	237.00	239.00	239.00	241.00	241.00	240.00	241.00	242.00	244.00	245.00	246.00	245.00	242.00	236.00	238.00	249.00	251.00	254.00	255.00	256.00	254.00	258.00	260.00	262.00	262.00	261.00	262.00	263.00	265.00	266.00	267.00	270.00	270.00	271.00	272.00	272.00	271.00	270.00	273.00	271.00	271.00	269.00	270.00	276.00	274.00	271.00	271.00	273.00	277.00	279.00	281.00	286.00	292.00	288.00	285.00	286.00	288.00	293.00	299.00	302.00	304.00	307.00	316.00	322.00	329.00	333.00	346.00	353.00	361.00	379.00	416.00	400.00	396.00	395.00	416.00	437.00	429.00	515.00	600.00	644.00	716.00	805.00	936.00	954.00	856.00	793.00	743.00	667.00	580.00	430.00	394.00	380.00	370.00
167.00	178.00	178.00	174.00	175.00	181.00	184.00	186.00	187.00	189.00	190.00	192.00	194.00	195.00	198.00	200.00	200.00	202.00	203.00	205.00	206.00	207.00	208.00	209.00	210.00	210.00	212.00	214.00	214.00	215.00	218.00	217.00	221.00	221.00	221.00	220.00	221.00	226.00	227.00	228.00	230.00	231.00	233.00	234.00	227.00	232.00	235.00	232.00	232.00	234.00	234.00	233.00	233.00	232.00	229.00	230.00	228.00	227.00	225.00	224.00	224.00	223.00	223.00	222.00	219.00	218.00	217.00	216.00	214.00	213.00	213.00	211.00	208.00	208.00	206.00	203.00	201.00	199.00	196.00	194.00	193.00	190.00	193.00	187.00	178.00	171.00	176.00	178.00	179.00	189.00	192.00	191.00	188.00	186.00	189.00	181.00	182.00	180.00	176.00	177.00	177.00	169.00	158.00	168.00	187.00	191.00	189.00	191.00	193.00	186.00	182.00	193.00	194.00	186.00	187.00	193.00	194.00	192.00	182.00	172.00	176.00	173.00	190.00	198.00	199.00	200.00	201.00	190.00	185.00	182.00	178.00	180.00	184.00	189.00	196.00	211.00	210.00	210.00	213.00	213.00	218.00	219.00	220.00	222.00	223.00	222.00	222.00	222.00	223.00	225.00	226.00	227.00	227.00	229.00	230.00	230.00	231.00	231.00	202.00	207.00	213.00	221.00	236.00	237.00	239.00	239.00	239.00	240.00	240.00	241.00	243.00	244.00	245.00	245.00	244.00	244.00	241.00	238.00	243.00	250.00	253.00	254.00	254.00	254.00	257.00	259.00	259.00	260.00	259.00	261.00	262.00	264.00	265.00	265.00	269.00	270.00	271.00	271.00	269.00	270.00	271.00	273.00	273.00	268.00	266.00	265.00	270.00	271.00	270.00	269.00	271.00	276.00	278.00	285.00	286.00	287.00	282.00	283.00	285.00	287.00	294.00	303.00	308.00	311.00	314.00	320.00	322.00	326.00	331.00	343.00	349.00	355.00	365.00	374.00	372.00	376.00	380.00	400.00	402.00	403.00	469.00	518.00	475.00	609.00	696.00	856.00	945.00	756.00	716.00	664.00	599.00	556.00	455.00	420.00	382.00	362.00
166.00	176.00	176.00	177.00	182.00	183.00	183.00	185.00	187.00	188.00	190.00	192.00	194.00	195.00	197.00	198.00	198.00	199.00	202.00	204.00	205.00	207.00	208.00	210.00	208.00	210.00	212.00	213.00	214.00	214.00	216.00	216.00	220.00	221.00	221.00	217.00	219.00	225.00	224.00	225.00	227.00	230.00	231.00	233.00	225.00	225.00	230.00	228.00	229.00	233.00	231.00	231.00	233.00	231.00	229.00	227.00	227.00	226.00	223.00	224.00	222.00	221.00	220.00	219.00	217.00	216.00	216.00	215.00	214.00	212.00	212.00	211.00	208.00	206.00	206.00	203.00	202.00	195.00	192.00	193.00	188.00	186.00	184.00	191.00	186.00	175.00	168.00	172.00	177.00	189.00	190.00	188.00	188.00	185.00	183.00	179.00	175.00	172.00	170.00	164.00	161.00	157.00	161.00	173.00	190.00	190.00	191.00	191.00	187.00	180.00	184.00	192.00	192.00	187.00	191.00	193.00	194.00	185.00	175.00	168.00	168.00	178.00	197.00	197.00	191.00	198.00	182.00	174.00	175.00	176.00	179.00	195.00	200.00	205.00	207.00	208.00	211.00	212.00	214.00	216.00	218.00	219.00	219.00	220.00	221.00	221.00	221.00	222.00	222.00	224.00	224.00	226.00	226.00	228.00	229.00	229.00	229.00	228.00	206.00	216.00	223.00	231.00	235.00	236.00	237.00	238.00	238.00	240.00	238.00	242.00	242.00	244.00	244.00	244.00	243.00	243.00	248.00	247.00	247.00	246.00	251.00	253.00	254.00	255.00	258.00	258.00	259.00	258.00	257.00	258.00	262.00	263.00	265.00	266.00	267.00	269.00	269.00	269.00	269.00	270.00	271.00	271.00	271.00	265.00	264.00	264.00	266.00	269.00	268.00	267.00	269.00	274.00	279.00	280.00	278.00	278.00	281.00	283.00	286.00	289.00	298.00	313.00	320.00	324.00	324.00	332.00	332.00	333.00	335.00	339.00	342.00	345.00	349.00	352.00	360.00	362.00	365.00	369.00	371.00	394.00	407.00	418.00	459.00	558.00	685.00	744.00	854.00	793.00	704.00	606.00	565.00	545.00	436.00	404.00	381.00	370.00
171.00	175.00	179.00	180.00	181.00	183.00	180.00	182.00	185.00	188.00	190.00	191.00	194.00	196.00	196.00	197.00	197.00	199.00	200.00	203.00	204.00	206.00	207.00	209.00	209.00	210.00	211.00	213.00	214.00	213.00	214.00	216.00	220.00	222.00	221.00	222.00	221.00	222.00	223.00	224.00	225.00	228.00	229.00	231.00	223.00	225.00	229.00	224.00	228.00	231.00	228.00	230.00	231.00	230.00	227.00	223.00	224.00	223.00	221.00	222.00	222.00	220.00	219.00	218.00	216.00	215.00	214.00	213.00	213.00	212.00	211.00	211.00	208.00	208.00	207.00	204.00	202.00	197.00	193.00	187.00	183.00	182.00	177.00	180.00	183.00	183.00	161.00	164.00	178.00	184.00	188.00	187.00	187.00	186.00	181.00	185.00	184.00	181.00	178.00	172.00	161.00	155.00	164.00	178.00	187.00	189.00	190.00	190.00	185.00	176.00	188.00	192.00	191.00	187.00	190.00	193.00	194.00	176.00	170.00	166.00	166.00	177.00	186.00	182.00	180.00	178.00	171.00	177.00	184.00	186.00	195.00	207.00	207.00	207.00	208.00	208.00	212.00	213.00	215.00	216.00	216.00	216.00	218.00	219.00	220.00	220.00	219.00	218.00	222.00	223.00	224.00	225.00	226.00	227.00	228.00	228.00	225.00	209.00	211.00	224.00	232.00	233.00	234.00	235.00	235.00	237.00	237.00	237.00	237.00	240.00	241.00	242.00	243.00	243.00	243.00	243.00	245.00	247.00	248.00	243.00	251.00	252.00	253.00	255.00	256.00	255.00	257.00	257.00	257.00	256.00	263.00	263.00	264.00	265.00	266.00	268.00	268.00	267.00	269.00	269.00	269.00	271.00	271.00	264.00	265.00	268.00	270.00	272.00	268.00	266.00	267.00	274.00	274.00	273.00	274.00	279.00	283.00	289.00	294.00	294.00	304.00	319.00	331.00	346.00	340.00	342.00	346.00	346.00	346.00	341.00	337.00	335.00	337.00	341.00	349.00	348.00	349.00	352.00	369.00	378.00	391.00	416.00	456.00	571.00	575.00	657.00	757.00	825.00	783.00	713.00	646.00	566.00	431.00	415.00	419.00	405.00
172.00	172.00	177.00	180.00	181.00	183.00	178.00	178.00	182.00	185.00	189.00	190.00	192.00	194.00	194.00	195.00	195.00	196.00	198.00	201.00	202.00	204.00	206.00	207.00	210.00	210.00	210.00	212.00	212.00	211.00	214.00	215.00	218.00	219.00	220.00	221.00	220.00	221.00	222.00	221.00	223.00	225.00	227.00	227.00	219.00	221.00	225.00	220.00	226.00	227.00	226.00	227.00	228.00	228.00	224.00	223.00	223.00	221.00	219.00	220.00	220.00	219.00	218.00	216.00	214.00	212.00	212.00	211.00	211.00	211.00	211.00	210.00	209.00	208.00	206.00	205.00	204.00	200.00	196.00	191.00	187.00	180.00	178.00	174.00	172.00	171.00	159.00	161.00	170.00	179.00	186.00	185.00	185.00	185.00	185.00	183.00	185.00	182.00	177.00	165.00	155.00	158.00	167.00	175.00	186.00	188.00	188.00	188.00	183.00	176.00	188.00	188.00	188.00	187.00	192.00	193.00	192.00	171.00	166.00	163.00	167.00	171.00	171.00	168.00	169.00	169.00	176.00	192.00	200.00	203.00	204.00	204.00	204.00	204.00	208.00	209.00	211.00	212.00	214.00	215.00	214.00	215.00	217.00	217.00	219.00	219.00	220.00	222.00	222.00	223.00	224.00	225.00	224.00	226.00	225.00	222.00	214.00	198.00	218.00	228.00	232.00	232.00	233.00	234.00	233.00	235.00	235.00	236.00	238.00	239.00	240.00	240.00	237.00	239.00	243.00	244.00	246.00	246.00	245.00	240.00	251.00	251.00	253.00	254.00	254.00	256.00	256.00	257.00	257.00	260.00	262.00	261.00	262.00	264.00	265.00	266.00	266.00	266.00	267.00	268.00	268.00	269.00	269.00	267.00	269.00	273.00	278.00	283.00	278.00	270.00	266.00	267.00	270.00	270.00	272.00	278.00	288.00	292.00	295.00	297.00	306.00	321.00	332.00	349.00	360.00	359.00	363.00	365.00	361.00	350.00	342.00	337.00	331.00	334.00	339.00	339.00	341.00	346.00	360.00	370.00	371.00	384.00	408.00	464.00	525.00	620.00	630.00	669.00	733.00	704.00	645.00	592.00	485.00	436.00	457.00	403.00
172.00	173.00	178.00	179.00	181.00	182.00	177.00	179.00	184.00	184.00	187.00	188.00	191.00	192.00	192.00	193.00	194.00	195.00	198.00	200.00	200.00	203.00	204.00	208.00	209.00	208.00	209.00	210.00	212.00	212.00	212.00	214.00	217.00	217.00	218.00	219.00	220.00	221.00	220.00	220.00	221.00	223.00	223.00	223.00	215.00	216.00	221.00	217.00	224.00	226.00	224.00	225.00	225.00	226.00	225.00	223.00	222.00	221.00	221.00	213.00	214.00	217.00	216.00	215.00	212.00	211.00	211.00	210.00	210.00	210.00	210.00	209.00	208.00	207.00	206.00	205.00	204.00	200.00	196.00	193.00	190.00	188.00	186.00	187.00	182.00	175.00	159.00	157.00	165.00	181.00	187.00	186.00	186.00	182.00	183.00	181.00	184.00	181.00	176.00	159.00	152.00	163.00	177.00	177.00	186.00	187.00	187.00	188.00	184.00	173.00	183.00	180.00	178.00	190.00	190.00	189.00	186.00	164.00	162.00	162.00	162.00	164.00	168.00	170.00	175.00	183.00	193.00	202.00	202.00	203.00	203.00	200.00	203.00	207.00	209.00	210.00	210.00	211.00	213.00	213.00	216.00	215.00	217.00	216.00	217.00	218.00	220.00	221.00	221.00	223.00	223.00	222.00	224.00	225.00	226.00	215.00	196.00	197.00	223.00	229.00	232.00	232.00	231.00	230.00	227.00	230.00	231.00	236.00	238.00	240.00	241.00	241.00	240.00	242.00	244.00	246.00	245.00	245.00	239.00	242.00	251.00	252.00	252.00	251.00	254.00	256.00	256.00	257.00	258.00	259.00	261.00	261.00	263.00	264.00	265.00	264.00	265.00	265.00	267.00	268.00	266.00	268.00	269.00	270.00	273.00	279.00	286.00	304.00	302.00	287.00	268.00	266.00	267.00	269.00	272.00	277.00	284.00	291.00	297.00	301.00	311.00	323.00	331.00	344.00	360.00	386.00	384.00	384.00	379.00	362.00	353.00	345.00	331.00	327.00	330.00	331.00	335.00	339.00	356.00	362.00	363.00	370.00	376.00	435.00	444.00	521.00	525.00	520.00	611.00	635.00	573.00	519.00	442.00	372.00	391.00	367.00
175.00	178.00	178.00	180.00	182.00	183.00	184.00	185.00	187.00	186.00	186.00	188.00	189.00	190.00	192.00	193.00	194.00	195.00	197.00	198.00	199.00	201.00	203.00	206.00	207.00	209.00	209.00	208.00	211.00	211.00	211.00	213.00	216.00	217.00	217.00	218.00	219.00	220.00	220.00	218.00	219.00	220.00	220.00	220.00	213.00	212.00	214.00	218.00	224.00	223.00	222.00	224.00	224.00	224.00	224.00	223.00	222.00	221.00	219.00	218.00	213.00	209.00	210.00	212.00	212.00	210.00	207.00	205.00	208.00	207.00	207.00	207.00	207.00	206.00	205.00	204.00	204.00	202.00	200.00	198.00	195.00	191.00	192.00	189.00	182.00	177.00	163.00	159.00	156.00	166.00	185.00	186.00	186.00	183.00	178.00	175.00	183.00	184.00	181.00	154.00	154.00	168.00	182.00	186.00	187.00	188.00	184.00	186.00	179.00	171.00	170.00	174.00	185.00	190.00	187.00	180.00	176.00	160.00	162.00	163.00	169.00	179.00	189.00	186.00	181.00	184.00	196.00	202.00	203.00	203.00	203.00	204.00	206.00	206.00	208.00	209.00	209.00	210.00	212.00	213.00	214.00	215.00	215.00	216.00	217.00	218.00	218.00	219.00	219.00	221.00	221.00	222.00	224.00	224.00	220.00	206.00	195.00	201.00	225.00	229.00	231.00	231.00	226.00	224.00	226.00	231.00	235.00	237.00	239.00	240.00	241.00	242.00	242.00	244.00	244.00	244.00	240.00	237.00	240.00	245.00	250.00	250.00	249.00	250.00	253.00	254.00	256.00	257.00	258.00	259.00	261.00	262.00	262.00	261.00	263.00	264.00	264.00	264.00	265.00	266.00	266.00	268.00	268.00	270.00	274.00	282.00	294.00	324.00	355.00	310.00	275.00	266.00	267.00	270.00	273.00	277.00	286.00	289.00	297.00	302.00	313.00	327.00	335.00	346.00	360.00	450.00	419.00	407.00	400.00	375.00	363.00	354.00	335.00	327.00	324.00	326.00	332.00	343.00	358.00	379.00	424.00	409.00	390.00	399.00	408.00	427.00	439.00	470.00	508.00	511.00	535.00	491.00	392.00	353.00	349.00	353.00
174.00	177.00	179.00	181.00	182.00	182.00	184.00	184.00	185.00	186.00	187.00	187.00	186.00	188.00	191.00	192.00	194.00	195.00	195.00	197.00	197.00	199.00	201.00	204.00	205.00	206.00	207.00	208.00	209.00	210.00	211.00	212.00	214.00	216.00	217.00	217.00	217.00	218.00	219.00	218.00	218.00	218.00	216.00	218.00	209.00	211.00	213.00	221.00	222.00	220.00	220.00	219.00	222.00	223.00	224.00	221.00	221.00	220.00	220.00	215.00	214.00	214.00	210.00	206.00	211.00	209.00	208.00	207.00	203.00	203.00	203.00	206.00	206.00	205.00	206.00	206.00	204.00	203.00	202.00	199.00	196.00	190.00	185.00	184.00	185.00	183.00	171.00	164.00	157.00	156.00	178.00	183.00	184.00	185.00	183.00	173.00	183.00	183.00	177.00	149.00	160.00	171.00	181.00	187.00	187.00	187.00	187.00	188.00	180.00	169.00	167.00	182.00	184.00	183.00	178.00	170.00	164.00	163.00	170.00	173.00	174.00	183.00	195.00	196.00	192.00	196.00	198.00	201.00	202.00	203.00	203.00	205.00	205.00	206.00	208.00	208.00	209.00	210.00	211.00	212.00	213.00	214.00	214.00	215.00	216.00	217.00	217.00	218.00	218.00	220.00	221.00	222.00	223.00	224.00	210.00	192.00	196.00	206.00	225.00	229.00	230.00	230.00	225.00	225.00	227.00	231.00	234.00	237.00	237.00	239.00	240.00	242.00	242.00	243.00	243.00	241.00	234.00	242.00	245.00	246.00	247.00	248.00	249.00	252.00	252.00	254.00	256.00	255.00	256.00	258.00	259.00	261.00	261.00	261.00	261.00	262.00	263.00	261.00	265.00	266.00	266.00	267.00	268.00	269.00	274.00	282.00	296.00	362.00	352.00	308.00	269.00	283.00	275.00	278.00	277.00	278.00	286.00	291.00	296.00	300.00	311.00	328.00	338.00	349.00	364.00	447.00	515.00	494.00	444.00	386.00	375.00	364.00	339.00	327.00	319.00	323.00	330.00	344.00	392.00	417.00	498.00	496.00	448.00	430.00	437.00	428.00	428.00	455.00	500.00	482.00	469.00	449.00	389.00	353.00	345.00	336.00
171.00	175.00	177.00	179.00	181.00	183.00	183.00	184.00	184.00	184.00	184.00	184.00	186.00	188.00	189.00	190.00	191.00	192.00	192.00	194.00	195.00	195.00	196.00	197.00	199.00	200.00	202.00	203.00	205.00	207.00	209.00	211.00	213.00	212.00	213.00	214.00	214.00	215.00	215.00	215.00	215.00	212.00	208.00	212.00	210.00	200.00	211.00	211.00	214.00	213.00	215.00	218.00	220.00	220.00	219.00	218.00	218.00	218.00	216.00	214.00	213.00	211.00	210.00	208.00	201.00	207.00	207.00	206.00	203.00	197.00	198.00	199.00	203.00	204.00	204.00	204.00	204.00	204.00	203.00	201.00	200.00	198.00	197.00	196.00	195.00	193.00	180.00	172.00	164.00	154.00	162.00	178.00	178.00	181.00	180.00	157.00	170.00	169.00	154.00	152.00	163.00	172.00	181.00	185.00	185.00	184.00	185.00	185.00	169.00	161.00	178.00	179.00	172.00	167.00	165.00	158.00	157.00	176.00	189.00	194.00	195.00	196.00	197.00	198.00	199.00	199.00	200.00	202.00	201.00	202.00	202.00	204.00	204.00	205.00	205.00	207.00	207.00	208.00	210.00	211.00	211.00	210.00	209.00	213.00	214.00	214.00	215.00	214.00	216.00	218.00	218.00	220.00	221.00	206.00	190.00	195.00	201.00	208.00	226.00	228.00	228.00	229.00	226.00	232.00	233.00	234.00	235.00	236.00	235.00	237.00	239.00	235.00	232.00	230.00	229.00	233.00	237.00	235.00	234.00	238.00	249.00	249.00	250.00	252.00	253.00	254.00	254.00	255.00	255.00	257.00	257.00	259.00	259.00	260.00	260.00	260.00	261.00	262.00	263.00	263.00	264.00	265.00	265.00	266.00	263.00	266.00	270.00	254.00	250.00	253.00	258.00	277.00	276.00	279.00	282.00	282.00	288.00	292.00	295.00	298.00	308.00	320.00	326.00	335.00	345.00	368.00	378.00	397.00	439.00	504.00	474.00	402.00	352.00	337.00	312.00	307.00	318.00	327.00	353.00	391.00	355.00	371.00	371.00	405.00	442.00	472.00	511.00	498.00	554.00	678.00	628.00	531.00	421.00	376.00	372.00	355.00
167.00	173.00	175.00	177.00	179.00	182.00	183.00	183.00	184.00	182.00	182.00	177.00	185.00	186.00	188.00	189.00	190.00	190.00	191.00	193.00	193.00	193.00	194.00	195.00	196.00	198.00	199.00	201.00	203.00	204.00	206.00	209.00	212.00	212.00	212.00	213.00	212.00	213.00	214.00	213.00	212.00	208.00	205.00	209.00	207.00	198.00	206.00	208.00	212.00	205.00	210.00	215.00	219.00	217.00	216.00	217.00	216.00	217.00	216.00	213.00	212.00	210.00	207.00	206.00	197.00	201.00	206.00	206.00	204.00	200.00	193.00	190.00	202.00	202.00	202.00	203.00	202.00	202.00	203.00	202.00	202.00	199.00	198.00	197.00	193.00	188.00	177.00	173.00	168.00	164.00	151.00	169.00	170.00	175.00	179.00	155.00	152.00	156.00	146.00	157.00	165.00	177.00	183.00	184.00	184.00	182.00	185.00	182.00	162.00	159.00	173.00	168.00	167.00	155.00	156.00	156.00	163.00	181.00	192.00	194.00	194.00	194.00	196.00	198.00	198.00	199.00	199.00	201.00	201.00	202.00	202.00	203.00	204.00	205.00	206.00	207.00	207.00	208.00	208.00	210.00	208.00	210.00	211.00	212.00	212.00	213.00	212.00	214.00	217.00	217.00	218.00	219.00	218.00	188.00	190.00	196.00	201.00	207.00	226.00	227.00	227.00	227.00	228.00	232.00	233.00	233.00	234.00	235.00	233.00	235.00	234.00	226.00	226.00	231.00	237.00	243.00	245.00	244.00	240.00	243.00	249.00	250.00	250.00	251.00	252.00	253.00	254.00	255.00	255.00	256.00	257.00	258.00	259.00	260.00	258.00	259.00	260.00	260.00	263.00	261.00	262.00	264.00	265.00	264.00	264.00	256.00	256.00	248.00	251.00	259.00	263.00	271.00	277.00	280.00	280.00	282.00	288.00	291.00	294.00	299.00	308.00	321.00	327.00	333.00	342.00	362.00	374.00	407.00	411.00	490.00	556.00	486.00	362.00	337.00	310.00	303.00	309.00	318.00	329.00	335.00	332.00	336.00	353.00	432.00	388.00	393.00	438.00	611.00	672.00	745.00	657.00	558.00	442.00	397.00	379.00	357.00
167.00	173.00	175.00	177.00	179.00	182.00	183.00	183.00	184.00	182.00	182.00	177.00	185.00	186.00	188.00	189.00	190.00	190.00	191.00	193.00	193.00	193.00	194.00	195.00	196.00	198.00	199.00	201.00	203.00	204.00	206.00	209.00	212.00	212.00	212.00	213.00	212.00	213.00	214.00	213.00	212.00	208.00	205.00	209.00	207.00	198.00	206.00	208.00	212.00	205.00	210.00	215.00	219.00	217.00	216.00	217.00	216.00	217.00	216.00	213.00	212.00	210.00	207.00	206.00	197.00	201.00	206.00	206.00	204.00	200.00	193.00	190.00	202.00	202.00	202.00	203.00	202.00	202.00	203.00	202.00	202.00	199.00	198.00	197.00	193.00	188.00	177.00	173.00	168.00	164.00	151.00	169.00	170.00	175.00	179.00	155.00	152.00	156.00	146.00	157.00	165.00	177.00	183.00	184.00	184.00	182.00	185.00	182.00	162.00	159.00	173.00	168.00	167.00	155.00	156.00	156.00	163.00	181.00	192.00	194.00	194.00	194.00	196.00	198.00	198.00	199.00	199.00	201.00	201.00	202.00	202.00	203.00	204.00	205.00	206.00	207.00	207.00	208.00	208.00	210.00	208.00	210.00	211.00	212.00	212.00	213.00	212.00	214.00	217.00	217.00	218.00	219.00	218.00	188.00	190.00	196.00	201.00	207.00	226.00	227.00	227.00	227.00	228.00	232.00	233.00	233.00	234.00	235.00	233.00	235.00	234.00	226.00	226.00	231.00	237.00	243.00	245.00	244.00	240.00	243.00	249.00	250.00	250.00	251.00	252.00	253.00	254.00	255.00	255.00	256.00	257.00	258.00	259.00	260.00	258.00	259.00	260.00	260.00	263.00	261.00	262.00	264.00	265.00	264.00	264.00	256.00	256.00	248.00	251.00	259.00	263.00	271.00	277.00	280.00	280.00	282.00	288.00	291.00	294.00	299.00	308.00	321.00	327.00	333.00	342.00	362.00	374.00	407.00	411.00	490.00	556.00	486.00	362.00	337.00	310.00	303.00	309.00	318.00	329.00	335.00	332.00	336.00	353.00	432.00	388.00	393.00	438.00	611.00	672.00	745.00	657.00	558.00	442.00	397.00	379.00	357.00
167.00	170.00	173.00	175.00	178.00	181.00	181.00	182.00	183.00	182.00	175.00	173.00	182.00	185.00	187.00	187.00	188.00	189.00	190.00	191.00	192.00	192.00	191.00	193.00	196.00	197.00	197.00	198.00	201.00	202.00	204.00	207.00	211.00	211.00	211.00	211.00	211.00	210.00	211.00	211.00	209.00	201.00	207.00	205.00	208.00	199.00	200.00	209.00	204.00	204.00	206.00	212.00	214.00	215.00	215.00	215.00	214.00	214.00	215.00	213.00	212.00	210.00	210.00	208.00	197.00	192.00	202.00	205.00	204.00	202.00	200.00	194.00	199.00	201.00	200.00	201.00	201.00	201.00	202.00	202.00	201.00	197.00	198.00	198.00	195.00	189.00	186.00	182.00	176.00	169.00	149.00	152.00	159.00	168.00	175.00	156.00	146.00	142.00	144.00	165.00	178.00	180.00	183.00	183.00	182.00	175.00	181.00	177.00	159.00	153.00	156.00	154.00	153.00	155.00	158.00	166.00	179.00	192.00	192.00	194.00	195.00	195.00	196.00	197.00	198.00	198.00	199.00	200.00	201.00	202.00	201.00	203.00	204.00	205.00	205.00	206.00	206.00	207.00	208.00	208.00	209.00	211.00	212.00	212.00	213.00	211.00	211.00	214.00	215.00	215.00	217.00	216.00	210.00	187.00	194.00	198.00	203.00	210.00	225.00	226.00	225.00	219.00	228.00	231.00	230.00	231.00	231.00	233.00	231.00	223.00	223.00	226.00	229.00	240.00	242.00	245.00	246.00	245.00	245.00	245.00	250.00	251.00	251.00	250.00	251.00	253.00	254.00	254.00	255.00	256.00	257.00	259.00	259.00	260.00	260.00	259.00	260.00	259.00	261.00	261.00	261.00	262.00	263.00	265.00	261.00	252.00	247.00	248.00	257.00	262.00	260.00	271.00	275.00	277.00	278.00	279.00	286.00	289.00	293.00	298.00	306.00	318.00	324.00	332.00	345.00	378.00	402.00	434.00	504.00	505.00	535.00	446.00	351.00	334.00	310.00	299.00	302.00	308.00	314.00	317.00	324.00	339.00	366.00	371.00	355.00	368.00	395.00	474.00	565.00	734.00	698.00	565.00	445.00	389.00	377.00	371.00
166.00	168.00	173.00	174.00	175.00	178.00	180.00	180.00	180.00	181.00	168.00	167.00	181.00	185.00	185.00	184.00	185.00	185.00	185.00	187.00	188.00	188.00	189.00	192.00	190.00	193.00	195.00	196.00	197.00	200.00	200.00	201.00	206.00	207.00	208.00	207.00	206.00	206.00	206.00	206.00	204.00	196.00	204.00	202.00	202.00	200.00	199.00	201.00	196.00	205.00	198.00	208.00	211.00	211.00	214.00	211.00	212.00	211.00	211.00	210.00	210.00	211.00	210.00	208.00	203.00	199.00	194.00	186.00	200.00	200.00	201.00	200.00	186.00	184.00	192.00	197.00	197.00	200.00	201.00	201.00	201.00	197.00	194.00	197.00	195.00	193.00	178.00	177.00	171.00	167.00	155.00	151.00	147.00	145.00	153.00	148.00	140.00	145.00	154.00	179.00	180.00	180.00	180.00	181.00	180.00	177.00	161.00	170.00	149.00	148.00	151.00	157.00	165.00	184.00	187.00	189.00	190.00	192.00	193.00	192.00	193.00	194.00	195.00	196.00	196.00	197.00	198.00	198.00	198.00	200.00	201.00	203.00	203.00	201.00	202.00	203.00	205.00	205.00	207.00	208.00	207.00	209.00	209.00	210.00	211.00	207.00	209.00	213.00	210.00	216.00	209.00	191.00	182.00	192.00	197.00	203.00	212.00	220.00	208.00	213.00	218.00	219.00	222.00	221.00	222.00	223.00	221.00	227.00	231.00	235.00	237.00	241.00	242.00	244.00	243.00	244.00	245.00	245.00	243.00	245.00	249.00	250.00	250.00	252.00	252.00	249.00	252.00	253.00	253.00	256.00	256.00	258.00	258.00	259.00	259.00	257.00	256.00	258.00	259.00	258.00	259.00	261.00	261.00	262.00	256.00	252.00	243.00	252.00	261.00	255.00	253.00	265.00	267.00	269.00	272.00	276.00	282.00	285.00	289.00	293.00	299.00	306.00	311.00	323.00	335.00	387.00	409.00	440.00	428.00	430.00	456.00	489.00	385.00	321.00	296.00	292.00	292.00	298.00	303.00	308.00	312.00	317.00	323.00	340.00	363.00	423.00	486.00	439.00	462.00	535.00	699.00	769.00	622.00	464.00	394.00	370.00
165.00	165.00	172.00	173.00	174.00	177.00	178.00	179.00	180.00	180.00	168.00	168.00	180.00	182.00	181.00	179.00	182.00	183.00	184.00	186.00	184.00	184.00	183.00	191.00	190.00	191.00	194.00	194.00	196.00	197.00	198.00	200.00	204.00	205.00	205.00	204.00	205.00	203.00	203.00	203.00	202.00	194.00	201.00	200.00	200.00	195.00	196.00	197.00	194.00	201.00	196.00	208.00	210.00	209.00	212.00	212.00	212.00	212.00	212.00	210.00	210.00	210.00	210.00	211.00	205.00	202.00	198.00	192.00	183.00	187.00	187.00	195.00	188.00	176.00	186.00	192.00	195.00	198.00	200.00	200.00	199.00	197.00	196.00	195.00	195.00	192.00	179.00	178.00	176.00	175.00	170.00	169.00	162.00	149.00	141.00	142.00	142.00	149.00	159.00	179.00	179.00	180.00	180.00	176.00	177.00	171.00	153.00	153.00	147.00	150.00	157.00	164.00	171.00	187.00	188.00	188.00	190.00	193.00	192.00	193.00	192.00	193.00	194.00	195.00	195.00	195.00	197.00	195.00	196.00	199.00	200.00	201.00	202.00	203.00	203.00	204.00	205.00	204.00	206.00	206.00	208.00	208.00	209.00	209.00	207.00	205.00	210.00	211.00	205.00	207.00	187.00	180.00	183.00	196.00	201.00	211.00	218.00	218.00	218.00	225.00	227.00	228.00	229.00	229.00	229.00	231.00	232.00	236.00	239.00	240.00	241.00	245.00	245.00	246.00	246.00	244.00	245.00	246.00	246.00	247.00	247.00	249.00	250.00	250.00	251.00	251.00	251.00	252.00	253.00	254.00	255.00	256.00	257.00	258.00	259.00	257.00	254.00	256.00	257.00	257.00	258.00	259.00	259.00	259.00	249.00	246.00	237.00	251.00	261.00	257.00	251.00	263.00	264.00	268.00	270.00	273.00	280.00	283.00	286.00	288.00	294.00	299.00	303.00	312.00	320.00	334.00	338.00	346.00	344.00	349.00	349.00	349.00	320.00	300.00	290.00	288.00	289.00	291.00	297.00	301.00	306.00	312.00	316.00	336.00	355.00	382.00	423.00	406.00	425.00	529.00	578.00	671.00	567.00	455.00	416.00	391.00
167.00	169.00	172.00	171.00	171.00	176.00	178.00	178.00	179.00	179.00	173.00	176.00	180.00	180.00	178.00	175.00	178.00	179.00	180.00	184.00	179.00	183.00	188.00	191.00	189.00	189.00	192.00	193.00	194.00	194.00	196.00	197.00	202.00	202.00	203.00	204.00	203.00	201.00	201.00	201.00	199.00	190.00	199.00	194.00	198.00	191.00	195.00	192.00	193.00	198.00	197.00	208.00	208.00	207.00	209.00	210.00	210.00	212.00	211.00	210.00	210.00	210.00	210.00	208.00	205.00	205.00	203.00	199.00	190.00	183.00	178.00	179.00	187.00	180.00	176.00	192.00	186.00	197.00	198.00	197.00	197.00	195.00	195.00	193.00	193.00	192.00	187.00	185.00	184.00	184.00	180.00	176.00	167.00	154.00	141.00	143.00	151.00	155.00	167.00	179.00	179.00	178.00	177.00	171.00	167.00	163.00	146.00	145.00	152.00	161.00	170.00	176.00	182.00	186.00	187.00	188.00	189.00	192.00	192.00	192.00	193.00	193.00	194.00	194.00	194.00	195.00	196.00	197.00	197.00	198.00	199.00	201.00	202.00	201.00	202.00	203.00	203.00	204.00	206.00	206.00	207.00	207.00	208.00	207.00	201.00	208.00	209.00	210.00	201.00	185.00	180.00	183.00	186.00	194.00	196.00	203.00	205.00	201.00	223.00	223.00	224.00	228.00	230.00	230.00	230.00	230.00	234.00	237.00	238.00	241.00	243.00	245.00	247.00	247.00	247.00	247.00	245.00	246.00	246.00	246.00	247.00	248.00	249.00	250.00	251.00	251.00	252.00	252.00	253.00	253.00	256.00	256.00	256.00	258.00	260.00	257.00	254.00	252.00	256.00	256.00	257.00	257.00	259.00	257.00	248.00	238.00	234.00	253.00	262.00	258.00	252.00	260.00	262.00	266.00	268.00	271.00	276.00	278.00	281.00	284.00	289.00	292.00	296.00	303.00	310.00	316.00	317.00	318.00	319.00	324.00	320.00	314.00	298.00	289.00	285.00	285.00	286.00	290.00	298.00	302.00	303.00	308.00	312.00	332.00	342.00	351.00	361.00	407.00	398.00	421.00	456.00	556.00	640.00	464.00	430.00	386.00
167.00	169.00	172.00	171.00	171.00	176.00	178.00	178.00	179.00	179.00	173.00	176.00	180.00	180.00	178.00	175.00	178.00	179.00	180.00	184.00	179.00	183.00	188.00	191.00	189.00	189.00	192.00	193.00	194.00	194.00	196.00	197.00	202.00	202.00	203.00	204.00	203.00	201.00	201.00	201.00	199.00	190.00	199.00	194.00	198.00	191.00	195.00	192.00	193.00	198.00	197.00	208.00	208.00	207.00	209.00	210.00	210.00	212.00	211.00	210.00	210.00	210.00	210.00	208.00	205.00	205.00	203.00	199.00	190.00	183.00	178.00	179.00	187.00	180.00	176.00	192.00	186.00	197.00	198.00	197.00	197.00	195.00	195.00	193.00	193.00	192.00	187.00	185.00	184.00	184.00	180.00	176.00	167.00	154.00	141.00	143.00	151.00	155.00	167.00	179.00	179.00	178.00	177.00	171.00	167.00	163.00	146.00	145.00	152.00	161.00	170.00	176.00	182.00	186.00	187.00	188.00	189.00	192.00	192.00	192.00	193.00	193.00	194.00	194.00	194.00	195.00	196.00	197.00	197.00	198.00	199.00	201.00	202.00	201.00	202.00	203.00	203.00	204.00	206.00	206.00	207.00	207.00	208.00	207.00	201.00	208.00	209.00	210.00	201.00	185.00	180.00	183.00	186.00	194.00	196.00	203.00	205.00	201.00	223.00	223.00	224.00	228.00	230.00	230.00	230.00	230.00	234.00	237.00	238.00	241.00	243.00	245.00	247.00	247.00	247.00	247.00	245.00	246.00	246.00	246.00	247.00	248.00	249.00	250.00	251.00	251.00	252.00	252.00	253.00	253.00	256.00	256.00	256.00	258.00	260.00	257.00	254.00	252.00	256.00	256.00	257.00	257.00	259.00	257.00	248.00	238.00	234.00	253.00	262.00	258.00	252.00	260.00	262.00	266.00	268.00	271.00	276.00	278.00	281.00	284.00	289.00	292.00	296.00	303.00	310.00	316.00	317.00	318.00	319.00	324.00	320.00	314.00	298.00	289.00	285.00	285.00	286.00	290.00	298.00	302.00	303.00	308.00	312.00	332.00	342.00	351.00	361.00	407.00	398.00	421.00	456.00	556.00	640.00	464.00	430.00	386.00
170.00	175.00	174.00	175.00	176.00	175.00	175.00	175.00	175.00	176.00	176.00	176.00	177.00	177.00	175.00	169.00	167.00	170.00	173.00	174.00	178.00	183.00	185.00	188.00	189.00	189.00	189.00	190.00	188.00	187.00	191.00	189.00	196.00	197.00	199.00	199.00	199.00	197.00	197.00	196.00	196.00	190.00	186.00	188.00	194.00	189.00	190.00	185.00	183.00	183.00	199.00	201.00	200.00	203.00	207.00	207.00	208.00	208.00	208.00	209.00	208.00	209.00	209.00	207.00	204.00	204.00	204.00	203.00	199.00	195.00	195.00	189.00	181.00	177.00	169.00	187.00	187.00	186.00	194.00	194.00	193.00	192.00	191.00	190.00	188.00	188.00	186.00	184.00	181.00	176.00	169.00	173.00	167.00	158.00	149.00	147.00	161.00	176.00	175.00	177.00	177.00	178.00	174.00	168.00	155.00	145.00	147.00	152.00	159.00	163.00	167.00	171.00	174.00	185.00	186.00	187.00	187.00	190.00	190.00	190.00	191.00	191.00	191.00	192.00	192.00	193.00	195.00	196.00	197.00	197.00	198.00	199.00	199.00	200.00	200.00	202.00	201.00	203.00	204.00	205.00	203.00	203.00	201.00	195.00	206.00	204.00	205.00	192.00	197.00	179.00	186.00	190.00	195.00	212.00	214.00	213.00	211.00	209.00	219.00	223.00	222.00	226.00	231.00	231.00	232.00	233.00	235.00	237.00	239.00	241.00	243.00	246.00	247.00	249.00	249.00	248.00	246.00	246.00	245.00	245.00	245.00	246.00	248.00	249.00	249.00	250.00	251.00	251.00	251.00	254.00	254.00	256.00	258.00	258.00	259.00	256.00	252.00	248.00	254.00	254.00	255.00	251.00	250.00	250.00	236.00	230.00	232.00	251.00	253.00	254.00	250.00	255.00	255.00	258.00	260.00	262.00	267.00	270.00	272.00	275.00	279.00	289.00	303.00	324.00	348.00	345.00	304.00	294.00	294.00	294.00	293.00	289.00	281.00	278.00	280.00	292.00	304.00	324.00	342.00	337.00	337.00	334.00	328.00	327.00	334.00	340.00	346.00	362.00	390.00	452.00	548.00	579.00	469.00	626.00	621.00	544.00
169.00	173.00	174.00	175.00	176.00	174.00	174.00	174.00	174.00	175.00	176.00	175.00	175.00	176.00	175.00	170.00	165.00	166.00	168.00	179.00	181.00	183.00	183.00	186.00	187.00	187.00	188.00	188.00	187.00	185.00	185.00	187.00	194.00	195.00	197.00	196.00	198.00	196.00	196.00	195.00	193.00	192.00	182.00	189.00	192.00	186.00	183.00	178.00	179.00	189.00	197.00	196.00	198.00	202.00	205.00	206.00	205.00	205.00	207.00	206.00	206.00	206.00	207.00	207.00	205.00	205.00	204.00	201.00	200.00	201.00	200.00	197.00	189.00	183.00	173.00	170.00	182.00	183.00	191.00	191.00	191.00	188.00	187.00	187.00	186.00	179.00	184.00	183.00	181.00	172.00	164.00	158.00	165.00	155.00	147.00	152.00	165.00	177.00	178.00	176.00	176.00	176.00	172.00	160.00	147.00	141.00	157.00	165.00	172.00	175.00	179.00	183.00	180.00	184.00	185.00	186.00	186.00	189.00	190.00	190.00	191.00	191.00	191.00	192.00	192.00	192.00	195.00	196.00	197.00	196.00	198.00	198.00	200.00	200.00	200.00	201.00	201.00	202.00	203.00	203.00	202.00	194.00	192.00	200.00	198.00	202.00	197.00	182.00	187.00	183.00	189.00	196.00	204.00	218.00	219.00	220.00	222.00	222.00	224.00	225.00	225.00	226.00	231.00	231.00	231.00	233.00	234.00	236.00	238.00	241.00	243.00	245.00	246.00	248.00	248.00	248.00	246.00	245.00	246.00	246.00	247.00	248.00	248.00	246.00	248.00	250.00	249.00	250.00	252.00	255.00	256.00	256.00	257.00	257.00	258.00	255.00	250.00	246.00	253.00	250.00	252.00	252.00	242.00	243.00	230.00	228.00	232.00	246.00	253.00	250.00	249.00	251.00	253.00	254.00	256.00	258.00	263.00	266.00	268.00	271.00	275.00	290.00	302.00	323.00	351.00	328.00	303.00	288.00	285.00	284.00	284.00	282.00	275.00	275.00	288.00	301.00	312.00	327.00	403.00	375.00	367.00	360.00	349.00	327.00	330.00	334.00	338.00	350.00	370.00	445.00	554.00	500.00	469.00	595.00	560.00	605.00
167.00	171.00	172.00	174.00	175.00	173.00	173.00	171.00	171.00	173.00	174.00	175.00	175.00	176.00	175.00	171.00	164.00	164.00	166.00	176.00	178.00	181.00	180.00	184.00	186.00	187.00	187.00	186.00	186.00	184.00	185.00	190.00	191.00	192.00	194.00	194.00	194.00	193.00	194.00	193.00	191.00	189.00	184.00	189.00	193.00	185.00	172.00	174.00	186.00	192.00	193.00	191.00	199.00	202.00	203.00	202.00	203.00	204.00	204.00	205.00	202.00	204.00	204.00	205.00	203.00	204.00	203.00	202.00	200.00	201.00	199.00	198.00	194.00	189.00	182.00	162.00	161.00	186.00	191.00	189.00	189.00	181.00	183.00	181.00	184.00	175.00	182.00	180.00	174.00	170.00	165.00	159.00	146.00	138.00	136.00	154.00	169.00	177.00	178.00	176.00	175.00	175.00	168.00	159.00	140.00	144.00	165.00	176.00	182.00	183.00	184.00	184.00	184.00	184.00	185.00	185.00	186.00	189.00	189.00	189.00	189.00	190.00	191.00	192.00	192.00	193.00	195.00	194.00	196.00	196.00	197.00	198.00	199.00	200.00	199.00	200.00	200.00	201.00	202.00	203.00	201.00	189.00	198.00	201.00	190.00	197.00	185.00	175.00	171.00	187.00	194.00	205.00	213.00	217.00	218.00	219.00	220.00	221.00	224.00	225.00	226.00	227.00	231.00	231.00	230.00	233.00	234.00	235.00	237.00	241.00	242.00	244.00	246.00	247.00	247.00	248.00	245.00	243.00	246.00	245.00	247.00	245.00	248.00	248.00	248.00	249.00	249.00	250.00	251.00	256.00	254.00	256.00	257.00	258.00	258.00	257.00	252.00	246.00	251.00	249.00	245.00	252.00	243.00	229.00	226.00	227.00	236.00	252.00	252.00	247.00	246.00	249.00	249.00	250.00	252.00	254.00	259.00	261.00	264.00	266.00	272.00	286.00	297.00	309.00	326.00	320.00	296.00	284.00	278.00	274.00	273.00	275.00	271.00	272.00	292.00	306.00	322.00	338.00	366.00	378.00	429.00	383.00	369.00	336.00	327.00	327.00	329.00	340.00	357.00	428.00	503.00	414.00	411.00	510.00	462.00	476.00
167.00	170.00	170.00	172.00	172.00	172.00	172.00	168.00	169.00	169.00	172.00	173.00	174.00	175.00	174.00	170.00	163.00	162.00	162.00	171.00	174.00	174.00	180.00	184.00	185.00	186.00	185.00	186.00	185.00	184.00	186.00	187.00	188.00	190.00	191.00	191.00	191.00	190.00	191.00	190.00	189.00	188.00	187.00	181.00	190.00	185.00	167.00	180.00	185.00	184.00	191.00	192.00	197.00	199.00	200.00	200.00	201.00	202.00	202.00	202.00	202.00	203.00	202.00	202.00	201.00	200.00	200.00	202.00	200.00	200.00	198.00	198.00	188.00	185.00	179.00	169.00	156.00	177.00	182.00	179.00	187.00	180.00	175.00	181.00	172.00	172.00	180.00	178.00	173.00	173.00	153.00	159.00	149.00	137.00	131.00	162.00	170.00	178.00	176.00	174.00	175.00	170.00	159.00	145.00	141.00	148.00	172.00	179.00	181.00	181.00	182.00	183.00	183.00	186.00	185.00	185.00	186.00	188.00	188.00	189.00	188.00	189.00	190.00	191.00	192.00	192.00	193.00	194.00	194.00	195.00	196.00	195.00	197.00	198.00	198.00	199.00	199.00	200.00	202.00	202.00	200.00	185.00	196.00	196.00	192.00	183.00	171.00	169.00	172.00	195.00	201.00	211.00	212.00	215.00	217.00	219.00	221.00	220.00	224.00	225.00	226.00	228.00	231.00	231.00	232.00	233.00	234.00	236.00	236.00	239.00	240.00	244.00	245.00	246.00	246.00	246.00	246.00	243.00	244.00	246.00	246.00	246.00	247.00	247.00	248.00	248.00	248.00	249.00	250.00	254.00	254.00	256.00	256.00	256.00	257.00	256.00	253.00	250.00	241.00	248.00	248.00	245.00	243.00	223.00	225.00	231.00	242.00	249.00	250.00	247.00	243.00	249.00	247.00	247.00	248.00	250.00	255.00	258.00	260.00	263.00	267.00	280.00	291.00	314.00	317.00	289.00	281.00	273.00	271.00	266.00	268.00	268.00	268.00	269.00	293.00	307.00	324.00	356.00	359.00	344.00	371.00	358.00	345.00	338.00	322.00	319.00	320.00	330.00	344.00	388.00	397.00	375.00	383.00	411.00	401.00	472.00
167.00	168.00	168.00	169.00	170.00	170.00	171.00	167.00	163.00	164.00	168.00	170.00	173.00	174.00	173.00	169.00	162.00	160.00	160.00	166.00	170.00	175.00	177.00	183.00	185.00	185.00	185.00	185.00	183.00	182.00	181.00	182.00	187.00	186.00	188.00	188.00	187.00	187.00	189.00	189.00	186.00	186.00	183.00	176.00	186.00	180.00	163.00	174.00	183.00	186.00	185.00	193.00	194.00	194.00	195.00	197.00	198.00	201.00	198.00	200.00	200.00	201.00	202.00	201.00	198.00	198.00	198.00	200.00	198.00	198.00	198.00	196.00	193.00	192.00	189.00	177.00	167.00	157.00	167.00	165.00	181.00	180.00	170.00	173.00	173.00	161.00	178.00	177.00	172.00	166.00	157.00	143.00	135.00	129.00	134.00	166.00	173.00	176.00	175.00	173.00	172.00	161.00	150.00	140.00	153.00	152.00	175.00	178.00	179.00	179.00	180.00	181.00	182.00	183.00	184.00	184.00	185.00	187.00	188.00	187.00	186.00	187.00	190.00	190.00	191.00	192.00	192.00	193.00	194.00	195.00	195.00	196.00	196.00	198.00	197.00	198.00	197.00	200.00	200.00	201.00	197.00	182.00	186.00	198.00	172.00	168.00	167.00	173.00	181.00	195.00	202.00	206.00	208.00	215.00	216.00	219.00	220.00	219.00	223.00	225.00	226.00	228.00	230.00	230.00	231.00	233.00	234.00	236.00	236.00	237.00	239.00	242.00	244.00	245.00	246.00	246.00	246.00	245.00	244.00	246.00	246.00	246.00	248.00	247.00	247.00	248.00	248.00	249.00	248.00	253.00	253.00	255.00	254.00	254.00	254.00	254.00	253.00	247.00	235.00	241.00	245.00	240.00	234.00	221.00	229.00	242.00	253.00	247.00	248.00	245.00	241.00	247.00	246.00	244.00	245.00	248.00	253.00	255.00	256.00	259.00	263.00	272.00	282.00	289.00	287.00	279.00	275.00	270.00	265.00	262.00	263.00	264.00	265.00	267.00	290.00	304.00	327.00	358.00	339.00	327.00	334.00	340.00	330.00	328.00	314.00	312.00	312.00	323.00	331.00	348.00	362.00	349.00	369.00	370.00	409.00	405.00
168.00	166.00	166.00	166.00	166.00	166.00	168.00	167.00	160.00	158.00	162.00	167.00	171.00	173.00	173.00	168.00	160.00	158.00	159.00	163.00	167.00	172.00	178.00	183.00	185.00	185.00	185.00	184.00	181.00	182.00	178.00	178.00	185.00	185.00	186.00	185.00	186.00	184.00	186.00	187.00	185.00	184.00	184.00	170.00	185.00	179.00	163.00	178.00	182.00	183.00	182.00	190.00	191.00	191.00	194.00	195.00	197.00	196.00	197.00	196.00	198.00	198.00	199.00	199.00	199.00	197.00	198.00	198.00	196.00	195.00	196.00	196.00	194.00	192.00	191.00	177.00	173.00	157.00	149.00	159.00	179.00	182.00	178.00	167.00	161.00	159.00	170.00	172.00	166.00	166.00	153.00	150.00	142.00	128.00	136.00	169.00	172.00	173.00	174.00	167.00	168.00	155.00	141.00	138.00	160.00	159.00	176.00	175.00	175.00	178.00	180.00	181.00	179.00	182.00	183.00	183.00	185.00	187.00	188.00	187.00	187.00	187.00	188.00	190.00	190.00	190.00	192.00	193.00	193.00	195.00	195.00	195.00	196.00	195.00	196.00	197.00	198.00	197.00	200.00	199.00	186.00	177.00	182.00	188.00	164.00	166.00	170.00	180.00	190.00	203.00	206.00	207.00	213.00	212.00	216.00	217.00	217.00	219.00	223.00	225.00	227.00	228.00	229.00	230.00	230.00	231.00	232.00	235.00	234.00	236.00	236.00	240.00	242.00	244.00	245.00	246.00	246.00	246.00	245.00	245.00	245.00	247.00	246.00	246.00	247.00	248.00	248.00	249.00	249.00	251.00	253.00	254.00	254.00	254.00	253.00	252.00	252.00	248.00	243.00	234.00	230.00	229.00	229.00	222.00	239.00	248.00	250.00	247.00	246.00	245.00	239.00	248.00	245.00	242.00	243.00	245.00	249.00	252.00	253.00	255.00	259.00	262.00	263.00	265.00	269.00	293.00	295.00	279.00	268.00	259.00	259.00	261.00	262.00	265.00	283.00	296.00	319.00	342.00	320.00	317.00	321.00	326.00	319.00	309.00	304.00	304.00	305.00	317.00	323.00	328.00	334.00	339.00	348.00	356.00	371.00	366.00
167.00	165.00	162.00	161.00	165.00	167.00	167.00	167.00	162.00	155.00	160.00	162.00	169.00	171.00	171.00	163.00	158.00	157.00	159.00	168.00	168.00	173.00	180.00	184.00	183.00	182.00	183.00	183.00	181.00	180.00	177.00	175.00	183.00	184.00	184.00	184.00	184.00	182.00	183.00	185.00	184.00	179.00	182.00	165.00	179.00	178.00	158.00	168.00	176.00	175.00	186.00	189.00	187.00	188.00	190.00	194.00	194.00	195.00	195.00	196.00	196.00	196.00	196.00	195.00	196.00	195.00	194.00	195.00	193.00	193.00	194.00	194.00	192.00	191.00	191.00	186.00	183.00	168.00	157.00	147.00	160.00	172.00	178.00	177.00	170.00	159.00	167.00	160.00	163.00	156.00	151.00	142.00	131.00	128.00	141.00	167.00	170.00	172.00	172.00	157.00	157.00	143.00	135.00	141.00	165.00	162.00	169.00	168.00	179.00	180.00	181.00	181.00	180.00	182.00	183.00	183.00	184.00	186.00	187.00	185.00	187.00	187.00	188.00	188.00	188.00	190.00	190.00	192.00	193.00	193.00	193.00	195.00	194.00	196.00	197.00	197.00	196.00	196.00	197.00	198.00	188.00	177.00	169.00	168.00	165.00	171.00	176.00	178.00	190.00	200.00	201.00	205.00	212.00	213.00	214.00	216.00	219.00	220.00	224.00	225.00	227.00	227.00	228.00	229.00	230.00	231.00	232.00	232.00	233.00	236.00	238.00	240.00	241.00	243.00	245.00	246.00	246.00	245.00	246.00	243.00	239.00	243.00	245.00	246.00	246.00	246.00	247.00	247.00	248.00	251.00	252.00	253.00	253.00	253.00	252.00	252.00	252.00	251.00	248.00	242.00	234.00	219.00	217.00	226.00	242.00	246.00	247.00	244.00	244.00	243.00	240.00	245.00	247.00	241.00	240.00	242.00	247.00	249.00	250.00	252.00	255.00	254.00	254.00	257.00	261.00	298.00	308.00	291.00	270.00	258.00	256.00	259.00	259.00	261.00	274.00	284.00	295.00	309.00	306.00	307.00	309.00	312.00	312.00	295.00	298.00	296.00	302.00	312.00	318.00	323.00	326.00	330.00	341.00	347.00	347.00	350.00
167.00	168.00	167.00	167.00	169.00	168.00	168.00	168.00	164.00	157.00	164.00	159.00	166.00	169.00	164.00	157.00	157.00	158.00	165.00	173.00	173.00	174.00	179.00	183.00	182.00	182.00	182.00	182.00	179.00	179.00	175.00	172.00	180.00	180.00	180.00	181.00	181.00	179.00	180.00	180.00	181.00	176.00	179.00	167.00	165.00	173.00	156.00	172.00	174.00	174.00	182.00	184.00	185.00	186.00	188.00	191.00	192.00	193.00	192.00	194.00	195.00	195.00	194.00	194.00	193.00	192.00	193.00	192.00	191.00	191.00	192.00	192.00	190.00	189.00	188.00	188.00	184.00	177.00	167.00	153.00	145.00	164.00	163.00	163.00	168.00	170.00	168.00	163.00	155.00	147.00	139.00	138.00	128.00	128.00	144.00	171.00	170.00	170.00	168.00	151.00	137.00	134.00	141.00	149.00	157.00	159.00	165.00	176.00	179.00	179.00	180.00	180.00	180.00	181.00	181.00	182.00	183.00	185.00	185.00	185.00	185.00	186.00	187.00	187.00	188.00	189.00	189.00	192.00	192.00	192.00	193.00	195.00	196.00	196.00	196.00	196.00	196.00	195.00	197.00	196.00	178.00	169.00	162.00	160.00	171.00	177.00	181.00	185.00	187.00	201.00	208.00	207.00	208.00	212.00	214.00	216.00	218.00	220.00	224.00	224.00	226.00	226.00	228.00	229.00	230.00	231.00	231.00	230.00	232.00	235.00	236.00	239.00	240.00	242.00	243.00	243.00	245.00	246.00	246.00	240.00	235.00	244.00	244.00	245.00	245.00	239.00	243.00	245.00	244.00	250.00	251.00	251.00	252.00	251.00	252.00	251.00	250.00	250.00	247.00	240.00	234.00	217.00	213.00	227.00	240.00	244.00	246.00	242.00	241.00	241.00	241.00	245.00	247.00	245.00	239.00	238.00	244.00	246.00	247.00	250.00	251.00	249.00	249.00	251.00	254.00	270.00	280.00	277.00	263.00	255.00	254.00	256.00	256.00	257.00	265.00	272.00	279.00	288.00	295.00	297.00	299.00	300.00	300.00	287.00	288.00	294.00	299.00	311.00	315.00	321.00	328.00	334.00	338.00	340.00	339.00	339.00
165.00	169.00	169.00	169.00	168.00	168.00	168.00	167.00	166.00	163.00	162.00	155.00	162.00	167.00	169.00	168.00	166.00	170.00	174.00	174.00	175.00	176.00	178.00	181.00	181.00	180.00	180.00	178.00	175.00	176.00	176.00	176.00	172.00	176.00	176.00	176.00	175.00	172.00	175.00	175.00	175.00	174.00	170.00	173.00	168.00	159.00	152.00	160.00	168.00	174.00	180.00	180.00	179.00	181.00	185.00	185.00	186.00	186.00	189.00	190.00	191.00	191.00	191.00	190.00	191.00	190.00	190.00	189.00	186.00	184.00	187.00	187.00	186.00	186.00	186.00	185.00	185.00	179.00	178.00	177.00	170.00	143.00	138.00	141.00	147.00	140.00	142.00	153.00	148.00	140.00	124.00	122.00	129.00	140.00	155.00	170.00	170.00	170.00	170.00	145.00	132.00	141.00	156.00	159.00	147.00	152.00	165.00	173.00	179.00	179.00	180.00	179.00	177.00	175.00	178.00	179.00	177.00	183.00	183.00	184.00	185.00	184.00	186.00	185.00	186.00	188.00	189.00	190.00	190.00	190.00	191.00	192.00	192.00	191.00	186.00	190.00	181.00	190.00	178.00	183.00	157.00	158.00	160.00	162.00	173.00	179.00	187.00	195.00	202.00	209.00	210.00	208.00	207.00	210.00	213.00	216.00	217.00	219.00	223.00	223.00	226.00	227.00	227.00	228.00	229.00	229.00	230.00	233.00	233.00	234.00	236.00	238.00	240.00	241.00	243.00	244.00	244.00	244.00	245.00	246.00	247.00	245.00	245.00	247.00	245.00	242.00	245.00	246.00	246.00	253.00	253.00	251.00	251.00	250.00	249.00	249.00	248.00	245.00	245.00	243.00	228.00	209.00	210.00	237.00	238.00	242.00	241.00	240.00	238.00	238.00	239.00	236.00	245.00	242.00	235.00	235.00	239.00	240.00	242.00	243.00	244.00	245.00	245.00	244.00	246.00	248.00	251.00	251.00	251.00	252.00	249.00	250.00	249.00	251.00	255.00	260.00	264.00	270.00	276.00	278.00	277.00	273.00	272.00	293.00	298.00	305.00	313.00	338.00	349.00	358.00	366.00	368.00	359.00	343.00	331.00	324.00
165.00	169.00	169.00	169.00	168.00	168.00	168.00	167.00	166.00	163.00	162.00	155.00	162.00	167.00	169.00	168.00	166.00	170.00	174.00	174.00	175.00	176.00	178.00	181.00	181.00	180.00	180.00	178.00	175.00	176.00	176.00	176.00	172.00	176.00	176.00	176.00	175.00	172.00	175.00	175.00	175.00	174.00	170.00	173.00	168.00	159.00	152.00	160.00	168.00	174.00	180.00	180.00	179.00	181.00	185.00	185.00	186.00	186.00	189.00	190.00	191.00	191.00	191.00	190.00	191.00	190.00	190.00	189.00	186.00	184.00	187.00	187.00	186.00	186.00	186.00	185.00	185.00	179.00	178.00	177.00	170.00	143.00	138.00	141.00	147.00	140.00	142.00	153.00	148.00	140.00	124.00	122.00	129.00	140.00	155.00	170.00	170.00	170.00	170.00	145.00	132.00	141.00	156.00	159.00	147.00	152.00	165.00	173.00	179.00	179.00	180.00	179.00	177.00	175.00	178.00	179.00	177.00	183.00	183.00	184.00	185.00	184.00	186.00	185.00	186.00	188.00	189.00	190.00	190.00	190.00	191.00	192.00	192.00	191.00	186.00	190.00	181.00	190.00	178.00	183.00	157.00	158.00	160.00	162.00	173.00	179.00	187.00	195.00	202.00	209.00	210.00	208.00	207.00	210.00	213.00	216.00	217.00	219.00	223.00	223.00	226.00	227.00	227.00	228.00	229.00	229.00	230.00	233.00	233.00	234.00	236.00	238.00	240.00	241.00	243.00	244.00	244.00	244.00	245.00	246.00	247.00	245.00	245.00	247.00	245.00	242.00	245.00	246.00	246.00	253.00	253.00	251.00	251.00	250.00	249.00	249.00	248.00	245.00	245.00	243.00	228.00	209.00	210.00	237.00	238.00	242.00	241.00	240.00	238.00	238.00	239.00	236.00	245.00	242.00	235.00	235.00	239.00	240.00	242.00	243.00	244.00	245.00	245.00	244.00	246.00	248.00	251.00	251.00	251.00	252.00	249.00	250.00	249.00	251.00	255.00	260.00	264.00	270.00	276.00	278.00	277.00	273.00	272.00	293.00	298.00	305.00	313.00	338.00	349.00	358.00	366.00	368.00	359.00	343.00	331.00	324.00
167.00	169.00	168.00	167.00	168.00	167.00	167.00	167.00	166.00	164.00	160.00	154.00	162.00	164.00	167.00	169.00	169.00	172.00	174.00	174.00	174.00	175.00	176.00	180.00	180.00	178.00	177.00	175.00	174.00	175.00	176.00	175.00	168.00	172.00	174.00	174.00	174.00	170.00	174.00	174.00	174.00	173.00	172.00	172.00	168.00	161.00	152.00	162.00	168.00	173.00	176.00	180.00	179.00	179.00	182.00	183.00	184.00	184.00	185.00	187.00	188.00	189.00	189.00	189.00	188.00	189.00	189.00	187.00	182.00	179.00	185.00	185.00	185.00	183.00	183.00	185.00	185.00	183.00	180.00	171.00	164.00	153.00	148.00	140.00	135.00	132.00	131.00	147.00	139.00	140.00	120.00	127.00	140.00	152.00	158.00	169.00	169.00	169.00	161.00	137.00	130.00	135.00	143.00	143.00	144.00	151.00	169.00	177.00	179.00	178.00	178.00	177.00	173.00	169.00	171.00	173.00	174.00	182.00	183.00	184.00	184.00	183.00	184.00	185.00	185.00	186.00	188.00	189.00	189.00	190.00	191.00	183.00	186.00	185.00	180.00	179.00	175.00	187.00	178.00	163.00	157.00	160.00	162.00	164.00	174.00	181.00	189.00	197.00	202.00	208.00	207.00	203.00	204.00	211.00	214.00	215.00	218.00	220.00	221.00	223.00	224.00	226.00	227.00	229.00	230.00	230.00	231.00	233.00	234.00	235.00	235.00	238.00	239.00	241.00	242.00	243.00	244.00	244.00	244.00	245.00	247.00	246.00	245.00	244.00	245.00	245.00	244.00	244.00	241.00	252.00	255.00	252.00	249.00	250.00	249.00	249.00	247.00	247.00	235.00	235.00	229.00	207.00	210.00	228.00	235.00	239.00	240.00	240.00	238.00	239.00	238.00	235.00	242.00	237.00	233.00	235.00	236.00	238.00	239.00	239.00	241.00	243.00	243.00	243.00	242.00	245.00	246.00	248.00	250.00	252.00	247.00	246.00	247.00	249.00	251.00	254.00	257.00	261.00	268.00	268.00	268.00	273.00	274.00	293.00	300.00	309.00	319.00	348.00	372.00	388.00	414.00	397.00	377.00	357.00	341.00	328.00
165.00	168.00	168.00	167.00	167.00	167.00	166.00	165.00	165.00	164.00	159.00	152.00	159.00	158.00	165.00	167.00	169.00	170.00	170.00	173.00	172.00	173.00	174.00	176.00	176.00	176.00	176.00	174.00	172.00	171.00	173.00	173.00	168.00	171.00	173.00	171.00	170.00	170.00	173.00	173.00	171.00	172.00	173.00	168.00	168.00	160.00	155.00	167.00	171.00	172.00	169.00	176.00	175.00	174.00	180.00	181.00	182.00	181.00	182.00	186.00	186.00	186.00	187.00	187.00	186.00	188.00	187.00	185.00	183.00	178.00	179.00	183.00	182.00	182.00	181.00	183.00	182.00	181.00	180.00	179.00	176.00	170.00	163.00	158.00	152.00	147.00	126.00	124.00	124.00	127.00	126.00	133.00	138.00	142.00	151.00	168.00	169.00	170.00	157.00	129.00	132.00	141.00	143.00	141.00	146.00	152.00	173.00	176.00	178.00	177.00	173.00	171.00	167.00	165.00	167.00	170.00	175.00	182.00	182.00	183.00	182.00	182.00	183.00	184.00	185.00	185.00	187.00	186.00	188.00	187.00	183.00	178.00	175.00	178.00	173.00	173.00	165.00	174.00	156.00	153.00	158.00	164.00	166.00	169.00	176.00	183.00	194.00	201.00	205.00	207.00	208.00	207.00	208.00	213.00	214.00	217.00	218.00	217.00	220.00	224.00	227.00	227.00	228.00	229.00	229.00	231.00	231.00	233.00	234.00	236.00	235.00	238.00	239.00	239.00	241.00	243.00	243.00	244.00	244.00	245.00	248.00	247.00	246.00	244.00	246.00	232.00	228.00	229.00	235.00	251.00	253.00	252.00	250.00	248.00	248.00	247.00	248.00	245.00	235.00	228.00	221.00	206.00	207.00	225.00	233.00	235.00	239.00	237.00	236.00	236.00	236.00	237.00	238.00	234.00	232.00	234.00	236.00	235.00	236.00	236.00	239.00	241.00	241.00	241.00	241.00	243.00	244.00	247.00	248.00	251.00	247.00	243.00	245.00	246.00	248.00	250.00	252.00	255.00	260.00	264.00	275.00	286.00	277.00	291.00	299.00	309.00	321.00	370.00	446.00	463.00	523.00	483.00	397.00	375.00	358.00	348.00
158.00	163.00	165.00	164.00	166.00	165.00	164.00	163.00	163.00	162.00	160.00	153.00	145.00	153.00	157.00	165.00	166.00	166.00	166.00	168.00	169.00	168.00	170.00	171.00	171.00	171.00	171.00	170.00	170.00	168.00	169.00	170.00	171.00	170.00	170.00	171.00	169.00	168.00	168.00	169.00	167.00	167.00	166.00	157.00	161.00	159.00	152.00	162.00	159.00	161.00	159.00	170.00	172.00	172.00	174.00	176.00	177.00	179.00	180.00	181.00	180.00	180.00	181.00	181.00	182.00	182.00	182.00	183.00	181.00	181.00	177.00	169.00	180.00	180.00	179.00	178.00	177.00	178.00	176.00	175.00	175.00	175.00	171.00	165.00	159.00	155.00	152.00	141.00	128.00	116.00	133.00	143.00	155.00	163.00	167.00	153.00	160.00	147.00	137.00	130.00	144.00	153.00	150.00	157.00	170.00	173.00	168.00	169.00	173.00	176.00	177.00	178.00	178.00	177.00	177.00	179.00	181.00	180.00	180.00	180.00	180.00	181.00	182.00	181.00	179.00	183.00	174.00	166.00	180.00	175.00	163.00	164.00	153.00	152.00	149.00	147.00	148.00	150.00	155.00	161.00	170.00	178.00	186.00	187.00	188.00	192.00	202.00	204.00	204.00	203.00	205.00	207.00	209.00	213.00	214.00	214.00	216.00	218.00	224.00	224.00	227.00	227.00	229.00	229.00	229.00	230.00	232.00	234.00	233.00	234.00	236.00	237.00	238.00	239.00	240.00	241.00	241.00	243.00	243.00	244.00	247.00	247.00	246.00	242.00	245.00	226.00	223.00	231.00	241.00	249.00	249.00	251.00	250.00	249.00	248.00	245.00	245.00	244.00	239.00	238.00	230.00	204.00	201.00	216.00	228.00	233.00	234.00	232.00	232.00	228.00	235.00	237.00	237.00	230.00	229.00	232.00	232.00	233.00	232.00	233.00	234.00	236.00	236.00	237.00	238.00	240.00	241.00	241.00	242.00	245.00	240.00	239.00	241.00	243.00	245.00	247.00	248.00	251.00	253.00	257.00	260.00	264.00	266.00	285.00	294.00	304.00	316.00	340.00	371.00	452.00	492.00	395.00	354.00	339.00	331.00	322.00
158.00	163.00	165.00	164.00	166.00	165.00	164.00	163.00	163.00	162.00	160.00	153.00	145.00	153.00	157.00	165.00	166.00	166.00	166.00	168.00	169.00	168.00	170.00	171.00	171.00	171.00	171.00	170.00	170.00	168.00	169.00	170.00	171.00	170.00	170.00	171.00	169.00	168.00	168.00	169.00	167.00	167.00	166.00	157.00	161.00	159.00	152.00	162.00	159.00	161.00	159.00	170.00	172.00	172.00	174.00	176.00	177.00	179.00	180.00	181.00	180.00	180.00	181.00	181.00	182.00	182.00	182.00	183.00	181.00	181.00	177.00	169.00	180.00	180.00	179.00	178.00	177.00	178.00	176.00	175.00	175.00	175.00	171.00	165.00	159.00	155.00	152.00	141.00	128.00	116.00	133.00	143.00	155.00	163.00	167.00	153.00	160.00	147.00	137.00	130.00	144.00	153.00	150.00	157.00	170.00	173.00	168.00	169.00	173.00	176.00	177.00	178.00	178.00	177.00	177.00	179.00	181.00	180.00	180.00	180.00	180.00	181.00	182.00	181.00	179.00	183.00	174.00	166.00	180.00	175.00	163.00	164.00	153.00	152.00	149.00	147.00	148.00	150.00	155.00	161.00	170.00	178.00	186.00	187.00	188.00	192.00	202.00	204.00	204.00	203.00	205.00	207.00	209.00	213.00	214.00	214.00	216.00	218.00	224.00	224.00	227.00	227.00	229.00	229.00	229.00	230.00	232.00	234.00	233.00	234.00	236.00	237.00	238.00	239.00	240.00	241.00	241.00	243.00	243.00	244.00	247.00	247.00	246.00	242.00	245.00	226.00	223.00	231.00	241.00	249.00	249.00	251.00	250.00	249.00	248.00	245.00	245.00	244.00	239.00	238.00	230.00	204.00	201.00	216.00	228.00	233.00	234.00	232.00	232.00	228.00	235.00	237.00	237.00	230.00	229.00	232.00	232.00	233.00	232.00	233.00	234.00	236.00	236.00	237.00	238.00	240.00	241.00	241.00	242.00	245.00	240.00	239.00	241.00	243.00	245.00	247.00	248.00	251.00	253.00	257.00	260.00	264.00	266.00	285.00	294.00	304.00	316.00	340.00	371.00	452.00	492.00	395.00	354.00	339.00	331.00	322.00
161.00	162.00	162.00	164.00	163.00	163.00	163.00	161.00	161.00	161.00	157.00	152.00	138.00	147.00	156.00	162.00	165.00	165.00	165.00	166.00	168.00	168.00	169.00	171.00	171.00	170.00	169.00	169.00	169.00	167.00	166.00	170.00	169.00	169.00	168.00	167.00	168.00	162.00	163.00	166.00	166.00	165.00	164.00	161.00	153.00	156.00	148.00	160.00	152.00	153.00	166.00	169.00	168.00	170.00	172.00	176.00	178.00	178.00	178.00	179.00	179.00	179.00	179.00	178.00	180.00	180.00	181.00	180.00	179.00	178.00	176.00	170.00	176.00	178.00	178.00	176.00	178.00	177.00	176.00	175.00	176.00	175.00	168.00	162.00	153.00	146.00	142.00	137.00	128.00	116.00	143.00	155.00	157.00	166.00	166.00	142.00	147.00	137.00	125.00	131.00	138.00	142.00	153.00	165.00	172.00	173.00	175.00	176.00	178.00	178.00	179.00	178.00	178.00	181.00	179.00	180.00	179.00	180.00	177.00	178.00	179.00	181.00	177.00	172.00	180.00	177.00	167.00	157.00	160.00	158.00	153.00	145.00	143.00	143.00	145.00	153.00	155.00	159.00	165.00	169.00	175.00	180.00	191.00	198.00	198.00	199.00	203.00	204.00	204.00	200.00	204.00	207.00	208.00	214.00	214.00	215.00	216.00	217.00	223.00	224.00	226.00	227.00	229.00	229.00	229.00	230.00	232.00	233.00	233.00	235.00	236.00	235.00	237.00	238.00	239.00	240.00	241.00	242.00	242.00	244.00	247.00	246.00	247.00	244.00	243.00	235.00	230.00	239.00	246.00	250.00	252.00	251.00	251.00	249.00	249.00	245.00	240.00	244.00	234.00	226.00	221.00	206.00	199.00	211.00	221.00	231.00	231.00	228.00	222.00	230.00	230.00	235.00	235.00	230.00	226.00	230.00	231.00	231.00	230.00	231.00	233.00	234.00	234.00	236.00	236.00	240.00	240.00	239.00	241.00	241.00	237.00	237.00	239.00	240.00	244.00	245.00	246.00	247.00	252.00	256.00	259.00	259.00	262.00	282.00	291.00	302.00	310.00	333.00	361.00	417.00	462.00	395.00	372.00	355.00	344.00	330.00
160.00	162.00	163.00	162.00	161.00	160.00	161.00	160.00	159.00	158.00	152.00	145.00	133.00	142.00	153.00	158.00	164.00	163.00	163.00	165.00	167.00	167.00	167.00	170.00	170.00	168.00	167.00	168.00	169.00	166.00	163.00	166.00	164.00	166.00	166.00	166.00	166.00	156.00	157.00	164.00	164.00	161.00	162.00	162.00	150.00	149.00	144.00	152.00	150.00	160.00	165.00	167.00	166.00	168.00	171.00	175.00	175.00	176.00	176.00	176.00	176.00	176.00	176.00	179.00	178.00	178.00	177.00	177.00	176.00	176.00	175.00	166.00	170.00	175.00	176.00	175.00	176.00	175.00	173.00	173.00	173.00	170.00	163.00	155.00	150.00	139.00	125.00	126.00	119.00	115.00	139.00	150.00	163.00	165.00	166.00	135.00	129.00	123.00	125.00	136.00	144.00	152.00	156.00	168.00	172.00	173.00	174.00	176.00	177.00	177.00	177.00	177.00	178.00	180.00	181.00	179.00	178.00	179.00	179.00	179.00	178.00	180.00	169.00	171.00	179.00	172.00	154.00	147.00	144.00	141.00	140.00	141.00	143.00	148.00	154.00	164.00	168.00	171.00	173.00	179.00	182.00	188.00	191.00	199.00	203.00	203.00	201.00	201.00	201.00	205.00	206.00	207.00	210.00	211.00	213.00	214.00	215.00	217.00	222.00	223.00	226.00	226.00	229.00	230.00	227.00	228.00	230.00	232.00	234.00	234.00	235.00	234.00	236.00	238.00	239.00	239.00	240.00	241.00	241.00	243.00	247.00	247.00	246.00	243.00	238.00	234.00	231.00	237.00	244.00	249.00	254.00	251.00	248.00	249.00	249.00	247.00	239.00	243.00	239.00	234.00	224.00	207.00	199.00	205.00	215.00	225.00	225.00	215.00	222.00	232.00	227.00	234.00	231.00	228.00	224.00	228.00	229.00	229.00	230.00	227.00	231.00	231.00	234.00	235.00	235.00	237.00	237.00	237.00	239.00	237.00	237.00	236.00	236.00	238.00	241.00	241.00	244.00	247.00	251.00	252.00	254.00	254.00	259.00	279.00	288.00	296.00	304.00	326.00	347.00	406.00	491.00	442.00	418.00	379.00	353.00	334.00
157.00	161.00	161.00	161.00	160.00	158.00	157.00	157.00	155.00	152.00	149.00	142.00	130.00	137.00	154.00	161.00	162.00	162.00	161.00	163.00	164.00	166.00	165.00	169.00	169.00	168.00	167.00	167.00	167.00	166.00	161.00	164.00	161.00	164.00	164.00	164.00	165.00	163.00	153.00	161.00	164.00	162.00	163.00	162.00	157.00	150.00	136.00	145.00	155.00	158.00	163.00	166.00	166.00	168.00	169.00	171.00	173.00	174.00	172.00	172.00	173.00	174.00	173.00	176.00	176.00	176.00	176.00	175.00	175.00	174.00	175.00	167.00	166.00	169.00	172.00	175.00	177.00	173.00	172.00	173.00	171.00	172.00	167.00	159.00	151.00	150.00	134.00	123.00	112.00	118.00	140.00	157.00	165.00	160.00	165.00	132.00	122.00	121.00	130.00	144.00	150.00	162.00	166.00	166.00	172.00	172.00	175.00	175.00	177.00	177.00	177.00	176.00	176.00	177.00	179.00	178.00	177.00	178.00	177.00	178.00	178.00	179.00	165.00	164.00	167.00	174.00	150.00	138.00	137.00	139.00	142.00	151.00	155.00	161.00	169.00	180.00	185.00	187.00	184.00	184.00	189.00	192.00	197.00	199.00	202.00	200.00	200.00	203.00	203.00	204.00	205.00	207.00	208.00	210.00	211.00	213.00	215.00	217.00	223.00	223.00	224.00	227.00	226.00	229.00	230.00	230.00	231.00	233.00	234.00	235.00	235.00	230.00	234.00	237.00	238.00	239.00	239.00	240.00	240.00	239.00	245.00	246.00	246.00	244.00	241.00	230.00	230.00	238.00	249.00	249.00	252.00	250.00	248.00	243.00	247.00	246.00	246.00	246.00	238.00	240.00	234.00	215.00	208.00	197.00	204.00	210.00	212.00	214.00	224.00	231.00	228.00	233.00	230.00	228.00	223.00	224.00	227.00	228.00	229.00	227.00	226.00	231.00	233.00	233.00	234.00	236.00	235.00	236.00	236.00	234.00	234.00	233.00	234.00	234.00	237.00	241.00	246.00	246.00	247.00	247.00	250.00	253.00	257.00	276.00	283.00	290.00	297.00	316.00	334.00	369.00	387.00	480.00	514.00	442.00	366.00	335.00
146.00	160.00	159.00	160.00	160.00	156.00	155.00	152.00	149.00	151.00	145.00	142.00	131.00	140.00	153.00	161.00	162.00	162.00	161.00	161.00	162.00	163.00	164.00	166.00	167.00	168.00	168.00	167.00	166.00	166.00	164.00	162.00	160.00	164.00	163.00	161.00	162.00	164.00	159.00	151.00	162.00	163.00	162.00	163.00	160.00	151.00	134.00	143.00	150.00	155.00	160.00	163.00	164.00	167.00	167.00	169.00	170.00	170.00	167.00	169.00	169.00	170.00	169.00	173.00	174.00	174.00	174.00	173.00	174.00	173.00	173.00	170.00	159.00	161.00	166.00	172.00	174.00	169.00	168.00	170.00	170.00	172.00	170.00	167.00	165.00	161.00	131.00	118.00	115.00	126.00	153.00	164.00	162.00	155.00	157.00	124.00	118.00	124.00	135.00	156.00	157.00	162.00	168.00	169.00	172.00	172.00	174.00	175.00	175.00	177.00	177.00	177.00	177.00	173.00	176.00	175.00	176.00	175.00	175.00	177.00	177.00	178.00	163.00	151.00	153.00	157.00	138.00	137.00	143.00	150.00	155.00	166.00	166.00	182.00	184.00	190.00	192.00	194.00	194.00	194.00	196.00	196.00	198.00	199.00	198.00	197.00	199.00	202.00	203.00	200.00	204.00	206.00	207.00	210.00	212.00	213.00	215.00	218.00	223.00	224.00	223.00	226.00	222.00	228.00	230.00	228.00	230.00	234.00	232.00	235.00	234.00	229.00	235.00	237.00	238.00	238.00	237.00	238.00	237.00	236.00	243.00	246.00	246.00	245.00	244.00	239.00	235.00	245.00	251.00	251.00	251.00	250.00	249.00	245.00	247.00	245.00	243.00	246.00	241.00	238.00	234.00	227.00	223.00	195.00	194.00	198.00	199.00	215.00	226.00	230.00	222.00	232.00	227.00	227.00	225.00	221.00	226.00	227.00	227.00	227.00	224.00	231.00	232.00	232.00	231.00	234.00	234.00	234.00	232.00	232.00	232.00	230.00	235.00	238.00	245.00	247.00	248.00	247.00	245.00	247.00	253.00	258.00	261.00	270.00	276.00	282.00	290.00	306.00	327.00	372.00	433.00	531.00	392.00	385.00	387.00	338.00
134.00	158.00	159.00	160.00	159.00	157.00	153.00	153.00	144.00	143.00	137.00	137.00	131.00	141.00	154.00	160.00	161.00	160.00	162.00	158.00	161.00	162.00	163.00	165.00	166.00	167.00	168.00	167.00	166.00	164.00	163.00	162.00	164.00	164.00	163.00	160.00	160.00	162.00	163.00	153.00	152.00	160.00	159.00	161.00	160.00	152.00	133.00	147.00	158.00	163.00	158.00	162.00	165.00	166.00	166.00	165.00	165.00	164.00	162.00	166.00	166.00	164.00	169.00	169.00	172.00	171.00	172.00	171.00	172.00	171.00	170.00	170.00	152.00	162.00	170.00	168.00	171.00	161.00	159.00	168.00	167.00	169.00	167.00	162.00	161.00	160.00	124.00	112.00	119.00	135.00	160.00	163.00	152.00	148.00	154.00	117.00	121.00	131.00	143.00	162.00	166.00	167.00	167.00	169.00	171.00	172.00	173.00	175.00	175.00	176.00	177.00	178.00	178.00	174.00	174.00	174.00	175.00	174.00	175.00	175.00	176.00	176.00	160.00	150.00	140.00	138.00	134.00	144.00	153.00	165.00	175.00	185.00	181.00	186.00	187.00	190.00	192.00	194.00	196.00	197.00	198.00	197.00	197.00	198.00	196.00	196.00	199.00	200.00	201.00	202.00	203.00	205.00	207.00	211.00	211.00	213.00	215.00	217.00	223.00	223.00	222.00	226.00	224.00	226.00	229.00	230.00	230.00	234.00	233.00	235.00	234.00	232.00	234.00	236.00	236.00	236.00	232.00	234.00	231.00	230.00	240.00	243.00	244.00	245.00	243.00	242.00	237.00	242.00	249.00	253.00	250.00	250.00	249.00	248.00	245.00	245.00	243.00	242.00	241.00	236.00	230.00	227.00	225.00	213.00	197.00	191.00	194.00	211.00	222.00	224.00	216.00	229.00	226.00	225.00	224.00	218.00	225.00	225.00	226.00	225.00	222.00	228.00	229.00	230.00	229.00	239.00	233.00	232.00	232.00	231.00	230.00	227.00	252.00	252.00	262.00	264.00	262.00	254.00	244.00	252.00	265.00	275.00	278.00	266.00	269.00	275.00	282.00	296.00	307.00	325.00	362.00	421.00	371.00	323.00	323.00	336.00
131.00	148.00	154.00	158.00	159.00	157.00	153.00	152.00	147.00	137.00	132.00	127.00	130.00	141.00	157.00	160.00	159.00	160.00	160.00	157.00	159.00	160.00	161.00	164.00	166.00	167.00	167.00	167.00	165.00	163.00	161.00	160.00	164.00	163.00	161.00	157.00	158.00	160.00	160.00	159.00	145.00	160.00	154.00	159.00	159.00	150.00	133.00	151.00	161.00	162.00	162.00	162.00	163.00	163.00	164.00	161.00	160.00	159.00	159.00	163.00	161.00	163.00	166.00	167.00	169.00	169.00	169.00	167.00	171.00	170.00	168.00	169.00	158.00	152.00	169.00	162.00	166.00	160.00	151.00	158.00	158.00	158.00	160.00	159.00	150.00	150.00	116.00	110.00	123.00	141.00	160.00	159.00	143.00	144.00	142.00	116.00	123.00	131.00	137.00	153.00	156.00	166.00	168.00	168.00	171.00	172.00	174.00	174.00	176.00	177.00	177.00	177.00	177.00	173.00	174.00	174.00	175.00	174.00	175.00	175.00	175.00	175.00	167.00	148.00	135.00	131.00	138.00	156.00	166.00	180.00	185.00	186.00	186.00	184.00	186.00	188.00	191.00	194.00	194.00	195.00	195.00	196.00	197.00	196.00	193.00	195.00	199.00	202.00	203.00	201.00	202.00	204.00	207.00	210.00	212.00	213.00	216.00	217.00	222.00	224.00	223.00	224.00	225.00	225.00	229.00	232.00	230.00	232.00	230.00	232.00	234.00	232.00	232.00	233.00	233.00	233.00	233.00	225.00	223.00	227.00	236.00	239.00	241.00	243.00	243.00	236.00	234.00	241.00	245.00	254.00	252.00	251.00	249.00	245.00	243.00	244.00	243.00	238.00	240.00	236.00	230.00	222.00	216.00	225.00	217.00	198.00	189.00	203.00	209.00	209.00	207.00	228.00	226.00	223.00	223.00	216.00	224.00	224.00	224.00	224.00	219.00	225.00	228.00	227.00	226.00	232.00	229.00	231.00	232.00	230.00	228.00	224.00	263.00	263.00	272.00	282.00	274.00	259.00	243.00	259.00	282.00	326.00	313.00	265.00	263.00	268.00	274.00	284.00	291.00	300.00	314.00	321.00	354.00	306.00	304.00	333.00
127.00	140.00	140.00	153.00	158.00	157.00	154.00	147.00	143.00	137.00	130.00	124.00	131.00	141.00	151.00	157.00	159.00	160.00	160.00	156.00	159.00	160.00	160.00	163.00	164.00	165.00	166.00	167.00	164.00	163.00	162.00	161.00	163.00	162.00	161.00	157.00	157.00	158.00	155.00	152.00	146.00	156.00	150.00	154.00	154.00	146.00	139.00	154.00	161.00	160.00	160.00	161.00	162.00	162.00	161.00	159.00	158.00	155.00	155.00	160.00	157.00	160.00	164.00	164.00	167.00	166.00	167.00	165.00	167.00	166.00	165.00	166.00	155.00	146.00	161.00	160.00	158.00	161.00	152.00	148.00	144.00	155.00	151.00	155.00	145.00	144.00	113.00	109.00	121.00	129.00	153.00	151.00	134.00	133.00	134.00	122.00	135.00	141.00	147.00	156.00	165.00	168.00	167.00	168.00	169.00	171.00	172.00	173.00	175.00	176.00	175.00	175.00	174.00	172.00	172.00	173.00	174.00	174.00	174.00	173.00	174.00	174.00	157.00	139.00	130.00	131.00	145.00	171.00	178.00	181.00	184.00	186.00	186.00	184.00	186.00	186.00	188.00	191.00	194.00	194.00	192.00	192.00	193.00	192.00	196.00	199.00	199.00	200.00	201.00	199.00	203.00	206.00	207.00	211.00	212.00	214.00	215.00	217.00	221.00	224.00	220.00	224.00	227.00	224.00	224.00	228.00	229.00	231.00	231.00	234.00	233.00	230.00	230.00	230.00	230.00	230.00	232.00	224.00	220.00	229.00	231.00	235.00	237.00	239.00	239.00	229.00	230.00	237.00	244.00	253.00	250.00	251.00	249.00	248.00	246.00	243.00	239.00	238.00	233.00	228.00	224.00	219.00	212.00	223.00	213.00	206.00	187.00	195.00	200.00	206.00	217.00	226.00	225.00	221.00	222.00	217.00	222.00	222.00	223.00	222.00	217.00	222.00	223.00	224.00	224.00	227.00	228.00	229.00	227.00	227.00	228.00	221.00	232.00	236.00	244.00	250.00	247.00	240.00	242.00	257.00	277.00	320.00	333.00	265.00	258.00	261.00	266.00	273.00	278.00	281.00	286.00	296.00	335.00	294.00	293.00	313.00
118.00	128.00	135.00	149.00	158.00	156.00	155.00	151.00	147.00	140.00	125.00	120.00	127.00	135.00	144.00	154.00	156.00	158.00	159.00	158.00	157.00	157.00	159.00	162.00	163.00	164.00	165.00	166.00	162.00	162.00	162.00	161.00	159.00	160.00	160.00	157.00	155.00	157.00	152.00	147.00	140.00	148.00	148.00	150.00	147.00	137.00	140.00	152.00	157.00	157.00	158.00	160.00	159.00	160.00	159.00	158.00	157.00	155.00	151.00	159.00	154.00	158.00	163.00	162.00	163.00	164.00	163.00	163.00	164.00	162.00	162.00	162.00	156.00	142.00	161.00	158.00	149.00	160.00	154.00	142.00	137.00	153.00	143.00	146.00	136.00	135.00	112.00	106.00	117.00	127.00	152.00	143.00	126.00	120.00	117.00	127.00	136.00	143.00	145.00	158.00	166.00	167.00	165.00	166.00	168.00	169.00	171.00	172.00	173.00	174.00	175.00	174.00	175.00	173.00	172.00	171.00	172.00	174.00	175.00	173.00	173.00	173.00	148.00	131.00	128.00	134.00	154.00	167.00	173.00	177.00	181.00	182.00	185.00	186.00	187.00	191.00	191.00	193.00	193.00	193.00	190.00	194.00	195.00	196.00	198.00	199.00	201.00	198.00	196.00	197.00	203.00	205.00	207.00	211.00	212.00	215.00	215.00	217.00	220.00	222.00	222.00	223.00	225.00	218.00	218.00	224.00	227.00	230.00	230.00	233.00	233.00	229.00	228.00	228.00	228.00	229.00	230.00	226.00	217.00	223.00	230.00	230.00	234.00	233.00	232.00	224.00	233.00	237.00	244.00	251.00	252.00	251.00	247.00	248.00	245.00	243.00	238.00	231.00	237.00	236.00	231.00	218.00	210.00	216.00	208.00	200.00	186.00	199.00	209.00	219.00	223.00	223.00	224.00	220.00	219.00	219.00	219.00	221.00	220.00	218.00	220.00	220.00	222.00	222.00	224.00	225.00	225.00	226.00	224.00	226.00	225.00	223.00	219.00	223.00	230.00	231.00	230.00	231.00	242.00	252.00	264.00	281.00	329.00	267.00	255.00	254.00	257.00	261.00	265.00	268.00	275.00	287.00	338.00	283.00	284.00	308.00
118.00	125.00	134.00	151.00	156.00	155.00	154.00	153.00	147.00	139.00	125.00	118.00	122.00	131.00	147.00	151.00	153.00	155.00	156.00	157.00	156.00	155.00	159.00	161.00	162.00	163.00	164.00	166.00	164.00	161.00	162.00	161.00	156.00	160.00	159.00	156.00	157.00	157.00	155.00	153.00	146.00	142.00	152.00	145.00	141.00	129.00	149.00	157.00	155.00	153.00	156.00	159.00	159.00	159.00	159.00	157.00	156.00	155.00	156.00	150.00	153.00	160.00	160.00	160.00	159.00	159.00	160.00	157.00	161.00	159.00	158.00	159.00	155.00	140.00	154.00	156.00	145.00	158.00	153.00	152.00	134.00	151.00	141.00	132.00	131.00	129.00	108.00	106.00	121.00	133.00	127.00	119.00	113.00	111.00	112.00	128.00	130.00	142.00	148.00	162.00	167.00	166.00	164.00	164.00	165.00	169.00	168.00	171.00	173.00	172.00	173.00	175.00	174.00	172.00	170.00	172.00	174.00	174.00	173.00	173.00	172.00	172.00	144.00	128.00	128.00	137.00	159.00	174.00	175.00	176.00	176.00	179.00	185.00	187.00	189.00	190.00	192.00	189.00	191.00	188.00	193.00	195.00	195.00	197.00	199.00	199.00	200.00	194.00	189.00	194.00	200.00	204.00	206.00	210.00	212.00	214.00	215.00	215.00	220.00	222.00	222.00	223.00	224.00	219.00	221.00	226.00	228.00	229.00	229.00	231.00	228.00	229.00	228.00	228.00	224.00	226.00	227.00	224.00	216.00	218.00	226.00	224.00	230.00	229.00	222.00	224.00	230.00	237.00	241.00	249.00	252.00	251.00	250.00	247.00	244.00	240.00	240.00	231.00	234.00	235.00	234.00	223.00	215.00	207.00	210.00	191.00	184.00	199.00	207.00	213.00	221.00	222.00	223.00	221.00	220.00	219.00	211.00	218.00	217.00	211.00	220.00	219.00	219.00	222.00	224.00	223.00	223.00	222.00	222.00	223.00	223.00	223.00	220.00	218.00	223.00	224.00	226.00	229.00	237.00	244.00	251.00	259.00	270.00	262.00	250.00	246.00	248.00	253.00	256.00	259.00	265.00	275.00	281.00	273.00	274.00	279.00
108.00	133.00	131.00	141.00	151.00	154.00	153.00	151.00	144.00	140.00	128.00	117.00	119.00	126.00	139.00	141.00	148.00	153.00	152.00	155.00	154.00	152.00	157.00	161.00	161.00	163.00	163.00	164.00	163.00	162.00	161.00	160.00	158.00	159.00	158.00	156.00	156.00	156.00	153.00	151.00	147.00	137.00	148.00	133.00	130.00	124.00	154.00	156.00	154.00	150.00	155.00	157.00	157.00	157.00	157.00	155.00	155.00	156.00	157.00	146.00	152.00	157.00	156.00	158.00	153.00	156.00	156.00	151.00	158.00	157.00	155.00	157.00	150.00	143.00	141.00	146.00	140.00	150.00	151.00	148.00	145.00	141.00	137.00	138.00	124.00	121.00	107.00	106.00	116.00	115.00	109.00	111.00	115.00	119.00	118.00	136.00	137.00	139.00	146.00	165.00	164.00	162.00	161.00	160.00	165.00	168.00	169.00	170.00	173.00	172.00	172.00	172.00	172.00	170.00	172.00	173.00	171.00	171.00	170.00	171.00	170.00	170.00	139.00	126.00	128.00	136.00	155.00	167.00	162.00	165.00	169.00	182.00	186.00	188.00	187.00	189.00	189.00	184.00	188.00	190.00	195.00	195.00	196.00	195.00	199.00	200.00	199.00	198.00	196.00	195.00	199.00	203.00	206.00	211.00	212.00	214.00	215.00	216.00	219.00	220.00	218.00	219.00	224.00	223.00	225.00	226.00	226.00	228.00	226.00	231.00	229.00	228.00	226.00	226.00	221.00	219.00	225.00	220.00	215.00	209.00	223.00	219.00	225.00	224.00	216.00	229.00	233.00	236.00	234.00	239.00	251.00	249.00	250.00	249.00	245.00	242.00	237.00	233.00	221.00	228.00	222.00	222.00	214.00	193.00	196.00	186.00	184.00	199.00	207.00	216.00	220.00	224.00	222.00	220.00	218.00	218.00	208.00	211.00	212.00	210.00	218.00	218.00	218.00	221.00	222.00	221.00	221.00	221.00	220.00	221.00	221.00	221.00	221.00	220.00	218.00	222.00	222.00	222.00	230.00	233.00	238.00	243.00	247.00	251.00	242.00	240.00	241.00	245.00	248.00	251.00	254.00	257.00	260.00	264.00	265.00	265.00
97.00	118.00	111.00	119.00	132.00	150.00	149.00	146.00	144.00	132.00	118.00	109.00	115.00	121.00	131.00	136.00	143.00	150.00	148.00	147.00	146.00	150.00	155.00	157.00	158.00	159.00	161.00	161.00	161.00	160.00	159.00	157.00	155.00	154.00	155.00	153.00	153.00	152.00	148.00	144.00	138.00	126.00	123.00	120.00	131.00	147.00	145.00	149.00	147.00	146.00	154.00	155.00	154.00	152.00	152.00	152.00	152.00	154.00	153.00	151.00	149.00	143.00	144.00	146.00	142.00	146.00	147.00	155.00	152.00	149.00	153.00	153.00	149.00	139.00	127.00	143.00	132.00	142.00	137.00	132.00	143.00	121.00	108.00	106.00	113.00	115.00	106.00	110.00	114.00	118.00	136.00	141.00	149.00	149.00	150.00	151.00	154.00	156.00	160.00	160.00	159.00	159.00	159.00	160.00	167.00	168.00	166.00	166.00	167.00	166.00	166.00	167.00	167.00	167.00	168.00	169.00	166.00	167.00	169.00	168.00	165.00	160.00	124.00	127.00	138.00	148.00	162.00	176.00	176.00	174.00	175.00	182.00	184.00	185.00	185.00	185.00	181.00	185.00	190.00	189.00	193.00	194.00	195.00	196.00	199.00	200.00	200.00	200.00	201.00	203.00	203.00	205.00	208.00	211.00	213.00	213.00	214.00	215.00	218.00	218.00	219.00	219.00	221.00	222.00	222.00	224.00	222.00	225.00	224.00	226.00	226.00	224.00	222.00	222.00	221.00	218.00	217.00	217.00	210.00	201.00	216.00	210.00	215.00	209.00	218.00	226.00	226.00	220.00	219.00	232.00	248.00	249.00	248.00	247.00	245.00	242.00	238.00	238.00	232.00	229.00	226.00	207.00	197.00	189.00	182.00	178.00	184.00	199.00	210.00	215.00	220.00	220.00	218.00	216.00	216.00	214.00	213.00	205.00	200.00	211.00	212.00	214.00	215.00	217.00	216.00	217.00	217.00	216.00	217.00	218.00	218.00	218.00	217.00	217.00	215.00	211.00	211.00	212.00	218.00	219.00	222.00	221.00	223.00	225.00	228.00	227.00	228.00	232.00	234.00	235.00	236.00	237.00	243.00	247.00	250.00	261.00
87.00	100.00	106.00	115.00	124.00	143.00	148.00	139.00	137.00	134.00	113.00	103.00	119.00	126.00	141.00	141.00	144.00	149.00	148.00	143.00	143.00	148.00	154.00	155.00	157.00	157.00	159.00	161.00	161.00	159.00	157.00	157.00	154.00	154.00	153.00	153.00	153.00	148.00	145.00	142.00	136.00	124.00	118.00	128.00	140.00	144.00	139.00	141.00	145.00	150.00	151.00	152.00	151.00	151.00	151.00	148.00	151.00	153.00	152.00	147.00	148.00	149.00	139.00	143.00	146.00	141.00	151.00	154.00	151.00	147.00	152.00	152.00	147.00	141.00	128.00	145.00	139.00	135.00	134.00	123.00	129.00	121.00	108.00	100.00	100.00	100.00	116.00	121.00	130.00	134.00	139.00	146.00	151.00	151.00	149.00	153.00	155.00	158.00	160.00	157.00	156.00	157.00	158.00	161.00	166.00	166.00	164.00	165.00	164.00	164.00	164.00	164.00	165.00	165.00	167.00	167.00	167.00	167.00	168.00	167.00	155.00	145.00	122.00	132.00	143.00	157.00	171.00	178.00	178.00	180.00	180.00	182.00	183.00	184.00	181.00	179.00	180.00	184.00	189.00	190.00	190.00	192.00	194.00	193.00	199.00	201.00	200.00	201.00	201.00	204.00	206.00	207.00	209.00	212.00	212.00	212.00	213.00	214.00	217.00	216.00	218.00	217.00	219.00	221.00	220.00	221.00	221.00	223.00	224.00	222.00	221.00	218.00	220.00	216.00	218.00	215.00	208.00	216.00	212.00	203.00	215.00	206.00	211.00	208.00	217.00	224.00	217.00	215.00	223.00	235.00	245.00	248.00	247.00	246.00	243.00	242.00	240.00	239.00	234.00	231.00	225.00	212.00	208.00	200.00	186.00	177.00	182.00	200.00	212.00	221.00	221.00	219.00	216.00	215.00	215.00	214.00	211.00	205.00	199.00	211.00	210.00	212.00	213.00	215.00	215.00	216.00	214.00	215.00	215.00	216.00	216.00	216.00	217.00	216.00	214.00	213.00	211.00	207.00	213.00	214.00	215.00	216.00	217.00	221.00	222.00	223.00	223.00	226.00	228.00	229.00	228.00	230.00	236.00	239.00	248.00	265.00
87.00	100.00	106.00	115.00	124.00	143.00	148.00	139.00	137.00	134.00	113.00	103.00	119.00	126.00	141.00	141.00	144.00	149.00	148.00	143.00	143.00	148.00	154.00	155.00	157.00	157.00	159.00	161.00	161.00	159.00	157.00	157.00	154.00	154.00	153.00	153.00	153.00	148.00	145.00	142.00	136.00	124.00	118.00	128.00	140.00	144.00	139.00	141.00	145.00	150.00	151.00	152.00	151.00	151.00	151.00	148.00	151.00	153.00	152.00	147.00	148.00	149.00	139.00	143.00	146.00	141.00	151.00	154.00	151.00	147.00	152.00	152.00	147.00	141.00	128.00	145.00	139.00	135.00	134.00	123.00	129.00	121.00	108.00	100.00	100.00	100.00	116.00	121.00	130.00	134.00	139.00	146.00	151.00	151.00	149.00	153.00	155.00	158.00	160.00	157.00	156.00	157.00	158.00	161.00	166.00	166.00	164.00	165.00	164.00	164.00	164.00	164.00	165.00	165.00	167.00	167.00	167.00	167.00	168.00	167.00	155.00	145.00	122.00	132.00	143.00	157.00	171.00	178.00	178.00	180.00	180.00	182.00	183.00	184.00	181.00	179.00	180.00	184.00	189.00	190.00	190.00	192.00	194.00	193.00	199.00	201.00	200.00	201.00	201.00	204.00	206.00	207.00	209.00	212.00	212.00	212.00	213.00	214.00	217.00	216.00	218.00	217.00	219.00	221.00	220.00	221.00	221.00	223.00	224.00	222.00	221.00	218.00	220.00	216.00	218.00	215.00	208.00	216.00	212.00	203.00	215.00	206.00	211.00	208.00	217.00	224.00	217.00	215.00	223.00	235.00	245.00	248.00	247.00	246.00	243.00	242.00	240.00	239.00	234.00	231.00	225.00	212.00	208.00	200.00	186.00	177.00	182.00	200.00	212.00	221.00	221.00	219.00	216.00	215.00	215.00	214.00	211.00	205.00	199.00	211.00	210.00	212.00	213.00	215.00	215.00	216.00	214.00	215.00	215.00	216.00	216.00	216.00	217.00	216.00	214.00	213.00	211.00	207.00	213.00	214.00	215.00	216.00	217.00	221.00	222.00	223.00	223.00	226.00	228.00	229.00	228.00	230.00	236.00	239.00	248.00	265.00
81.00	100.00	116.00	109.00	113.00	138.00	147.00	143.00	131.00	128.00	113.00	98.00	119.00	130.00	141.00	141.00	141.00	146.00	145.00	140.00	138.00	145.00	151.00	152.00	155.00	156.00	158.00	159.00	161.00	158.00	157.00	156.00	153.00	152.00	151.00	153.00	151.00	149.00	147.00	144.00	138.00	124.00	115.00	137.00	141.00	139.00	134.00	146.00	150.00	150.00	149.00	150.00	149.00	151.00	150.00	150.00	151.00	151.00	151.00	148.00	143.00	143.00	138.00	138.00	142.00	142.00	146.00	149.00	149.00	144.00	152.00	152.00	149.00	139.00	127.00	143.00	133.00	118.00	131.00	121.00	114.00	112.00	100.00	96.00	100.00	107.00	130.00	132.00	141.00	145.00	140.00	149.00	150.00	150.00	151.00	154.00	156.00	158.00	159.00	156.00	156.00	158.00	161.00	162.00	164.00	162.00	162.00	163.00	162.00	163.00	163.00	163.00	163.00	166.00	167.00	165.00	165.00	167.00	168.00	164.00	163.00	150.00	123.00	134.00	145.00	157.00	173.00	177.00	179.00	179.00	180.00	183.00	183.00	181.00	175.00	187.00	187.00	188.00	189.00	190.00	189.00	190.00	192.00	194.00	199.00	201.00	201.00	201.00	202.00	207.00	208.00	208.00	209.00	212.00	212.00	214.00	215.00	214.00	216.00	218.00	218.00	218.00	218.00	219.00	218.00	218.00	219.00	217.00	218.00	218.00	216.00	214.00	218.00	217.00	212.00	213.00	202.00	207.00	206.00	201.00	208.00	200.00	201.00	209.00	212.00	216.00	209.00	217.00	223.00	229.00	244.00	246.00	245.00	246.00	242.00	241.00	237.00	235.00	232.00	228.00	227.00	224.00	216.00	202.00	183.00	176.00	183.00	200.00	210.00	214.00	217.00	218.00	216.00	215.00	214.00	213.00	209.00	203.00	197.00	210.00	209.00	209.00	209.00	212.00	214.00	216.00	213.00	214.00	215.00	214.00	214.00	214.00	216.00	214.00	213.00	212.00	210.00	205.00	210.00	209.00	212.00	212.00	212.00	216.00	217.00	217.00	218.00	220.00	221.00	222.00	222.00	225.00	229.00	233.00	239.00	253.00
