845.00	744.00	604.00	584.00	600.00	704.00	751.00	798.00	957.00	924.00	946.00	963.00	962.00	986.00	999.00	1015.00	1035.00	1111.00	1191.00	1283.00	1382.00	1469.00	1420.00	1358.00	1314.00	1337.00	1272.00	1263.00	1278.00	1238.00	1146.00	1136.00	1153.00	1097.00	1063.00	980.00	1005.00	1000.00	954.00	912.00	890.00	840.00	831.00	764.00	694.00	665.00	644.00	653.00	623.00	573.00	546.00	542.00	546.00	596.00	602.00	603.00	624.00	654.00	741.00	805.00	786.00	783.00	781.00	748.00	769.00	755.00	711.00	762.00	751.00	753.00	744.00	721.00	706.00	691.00	673.00	622.00	599.00	618.00	635.00	634.00	634.00	661.00	666.00	688.00	738.00	569.00	503.00	468.00	476.00	395.00	428.00	548.00	657.00	715.00	689.00	654.00	597.00	567.00	566.00	549.00	517.00	527.00	528.00	541.00	563.00	580.00	600.00	612.00	611.00	608.00	595.00	596.00	600.00	606.00	612.00	618.00	638.00	643.00	651.00	662.00	695.00	717.00	723.00	746.00	749.00	772.00	792.00	805.00	805.00	847.00	841.00	836.00	839.00	851.00	876.00	899.00	913.00	898.00	873.00	828.00	802.00	789.00	747.00	662.00	636.00	615.00	622.00	605.00	592.00	582.00	550.00	529.00	510.00	510.00	523.00	501.00	470.00	455.00	469.00	456.00	470.00	472.00	474.00	466.00	454.00	441.00	448.00	455.00	447.00	456.00	451.00	477.00	481.00	503.00	473.00	474.00	402.00	427.00	476.00	303.00	206.00	153.00	153.00	147.00	153.00	205.00	317.00	352.00	491.00	568.00	658.00	669.00	652.00	637.00	618.00	591.00	594.00	627.00	630.00	630.00	622.00	575.00	566.00	553.00	540.00	529.00	545.00	568.00	580.00	580.00	581.00	591.00	597.00	598.00	596.00	600.00	627.00	648.00	663.00	673.00	686.00	707.00	711.00	716.00	722.00	730.00	734.00	740.00	743.00	744.00	699.00	657.00	666.00	647.00	624.00	658.00	666.00	656.00	657.00	656.00	657.00	666.00	689.00	693.00	691.00	701.00	676.00	676.00	693.00	709.00	748.00	754.00	735.00	693.00	654.00	604.00
845.00	744.00	604.00	584.00	600.00	704.00	751.00	798.00	957.00	924.00	946.00	963.00	962.00	986.00	999.00	1015.00	1035.00	1111.00	1191.00	1283.00	1382.00	1469.00	1420.00	1358.00	1314.00	1337.00	1272.00	1263.00	1278.00	1238.00	1146.00	1136.00	1153.00	1097.00	1063.00	980.00	1005.00	1000.00	954.00	912.00	890.00	840.00	831.00	764.00	694.00	665.00	644.00	653.00	623.00	573.00	546.00	542.00	546.00	596.00	602.00	603.00	624.00	654.00	741.00	805.00	786.00	783.00	781.00	748.00	769.00	755.00	711.00	762.00	751.00	753.00	744.00	721.00	706.00	691.00	673.00	622.00	599.00	618.00	635.00	634.00	634.00	661.00	666.00	688.00	738.00	569.00	503.00	468.00	476.00	395.00	428.00	548.00	657.00	715.00	689.00	654.00	597.00	567.00	566.00	549.00	517.00	527.00	528.00	541.00	563.00	580.00	600.00	612.00	611.00	608.00	595.00	596.00	600.00	606.00	612.00	618.00	638.00	643.00	651.00	662.00	695.00	717.00	723.00	746.00	749.00	772.00	792.00	805.00	805.00	847.00	841.00	836.00	839.00	851.00	876.00	899.00	913.00	898.00	873.00	828.00	802.00	789.00	747.00	662.00	636.00	615.00	622.00	605.00	592.00	582.00	550.00	529.00	510.00	510.00	523.00	501.00	470.00	455.00	469.00	456.00	470.00	472.00	474.00	466.00	454.00	441.00	448.00	455.00	447.00	456.00	451.00	477.00	481.00	503.00	473.00	474.00	402.00	427.00	476.00	303.00	206.00	153.00	153.00	147.00	153.00	205.00	317.00	352.00	491.00	568.00	658.00	669.00	652.00	637.00	618.00	591.00	594.00	627.00	630.00	630.00	622.00	575.00	566.00	553.00	540.00	529.00	545.00	568.00	580.00	580.00	581.00	591.00	597.00	598.00	596.00	600.00	627.00	648.00	663.00	673.00	686.00	707.00	711.00	716.00	722.00	730.00	734.00	740.00	743.00	744.00	699.00	657.00	666.00	647.00	624.00	658.00	666.00	656.00	657.00	656.00	657.00	666.00	689.00	693.00	691.00	701.00	676.00	676.00	693.00	709.00	748.00	754.00	735.00	693.00	654.00	604.00
908.00	781.00	700.00	657.00	605.00	590.00	581.00	571.00	566.00	574.00	590.00	654.00	776.00	804.00	857.00	899.00	923.00	985.00	1022.00	1059.00	1115.00	1203.00	1472.00	1442.00	1476.00	1416.00	1376.00	1372.00	1317.00	1306.00	1290.00	1278.00	1237.00	1163.00	1201.00	1108.00	1068.00	1081.00	1055.00	1031.00	934.00	900.00	920.00	885.00	825.00	806.00	771.00	739.00	704.00	646.00	600.00	547.00	521.00	559.00	590.00	636.00	670.00	669.00	737.00	721.00	675.00	669.00	670.00	676.00	702.00	730.00	706.00	684.00	681.00	689.00	696.00	716.00	701.00	687.00	677.00	646.00	638.00	604.00	591.00	558.00	540.00	540.00	556.00	592.00	537.00	439.00	395.00	472.00	555.00	596.00	695.00	830.00	918.00	882.00	829.00	773.00	681.00	697.00	627.00	639.00	597.00	640.00	625.00	571.00	590.00	559.00	564.00	578.00	568.00	566.00	566.00	581.00	585.00	590.00	597.00	602.00	631.00	641.00	643.00	654.00	677.00	699.00	729.00	744.00	747.00	772.00	789.00	808.00	801.00	838.00	851.00	860.00	859.00	868.00	882.00	889.00	867.00	862.00	883.00	897.00	893.00	905.00	883.00	774.00	705.00	671.00	703.00	651.00	609.00	576.00	528.00	511.00	485.00	466.00	461.00	449.00	435.00	428.00	410.00	402.00	410.00	418.00	409.00	402.00	398.00	417.00	402.00	389.00	390.00	394.00	386.00	423.00	406.00	423.00	432.00	420.00	418.00	391.00	307.00	174.00	161.00	151.00	152.00	147.00	198.00	385.00	503.00	597.00	631.00	622.00	586.00	584.00	577.00	544.00	549.00	589.00	623.00	648.00	649.00	646.00	657.00	601.00	588.00	574.00	560.00	551.00	521.00	519.00	563.00	605.00	670.00	684.00	679.00	677.00	678.00	672.00	660.00	649.00	646.00	650.00	654.00	670.00	682.00	653.00	632.00	659.00	654.00	633.00	602.00	582.00	543.00	521.00	524.00	505.00	501.00	511.00	513.00	521.00	518.00	513.00	532.00	530.00	530.00	545.00	522.00	543.00	526.00	539.00	555.00	553.00	564.00	569.00	563.00	579.00	567.00	590.00
908.00	781.00	700.00	657.00	605.00	590.00	581.00	571.00	566.00	574.00	590.00	654.00	776.00	804.00	857.00	899.00	923.00	985.00	1022.00	1059.00	1115.00	1203.00	1472.00	1442.00	1476.00	1416.00	1376.00	1372.00	1317.00	1306.00	1290.00	1278.00	1237.00	1163.00	1201.00	1108.00	1068.00	1081.00	1055.00	1031.00	934.00	900.00	920.00	885.00	825.00	806.00	771.00	739.00	704.00	646.00	600.00	547.00	521.00	559.00	590.00	636.00	670.00	669.00	737.00	721.00	675.00	669.00	670.00	676.00	702.00	730.00	706.00	684.00	681.00	689.00	696.00	716.00	701.00	687.00	677.00	646.00	638.00	604.00	591.00	558.00	540.00	540.00	556.00	592.00	537.00	439.00	395.00	472.00	555.00	596.00	695.00	830.00	918.00	882.00	829.00	773.00	681.00	697.00	627.00	639.00	597.00	640.00	625.00	571.00	590.00	559.00	564.00	578.00	568.00	566.00	566.00	581.00	585.00	590.00	597.00	602.00	631.00	641.00	643.00	654.00	677.00	699.00	729.00	744.00	747.00	772.00	789.00	808.00	801.00	838.00	851.00	860.00	859.00	868.00	882.00	889.00	867.00	862.00	883.00	897.00	893.00	905.00	883.00	774.00	705.00	671.00	703.00	651.00	609.00	576.00	528.00	511.00	485.00	466.00	461.00	449.00	435.00	428.00	410.00	402.00	410.00	418.00	409.00	402.00	398.00	417.00	402.00	389.00	390.00	394.00	386.00	423.00	406.00	423.00	432.00	420.00	418.00	391.00	307.00	174.00	161.00	151.00	152.00	147.00	198.00	385.00	503.00	597.00	631.00	622.00	586.00	584.00	577.00	544.00	549.00	589.00	623.00	648.00	649.00	646.00	657.00	601.00	588.00	574.00	560.00	551.00	521.00	519.00	563.00	605.00	670.00	684.00	679.00	677.00	678.00	672.00	660.00	649.00	646.00	650.00	654.00	670.00	682.00	653.00	632.00	659.00	654.00	633.00	602.00	582.00	543.00	521.00	524.00	505.00	501.00	511.00	513.00	521.00	518.00	513.00	532.00	530.00	530.00	545.00	522.00	543.00	526.00	539.00	555.00	553.00	564.00	569.00	563.00	579.00	567.00	590.00
935.00	836.00	762.00	746.00	813.00	726.00	673.00	658.00	616.00	602.00	581.00	562.00	674.00	730.00	804.00	861.00	885.00	944.00	975.00	1014.00	1062.00	1121.00	1433.00	1487.00	1490.00	1464.00	1439.00	1394.00	1388.00	1397.00	1385.00	1326.00	1324.00	1264.00	1240.00	1155.00	1096.00	1032.00	1021.00	975.00	975.00	996.00	983.00	981.00	923.00	903.00	858.00	815.00	758.00	685.00	660.00	582.00	518.00	530.00	557.00	581.00	630.00	649.00	724.00	697.00	650.00	653.00	629.00	631.00	669.00	682.00	691.00	633.00	644.00	659.00	691.00	715.00	712.00	693.00	681.00	654.00	622.00	595.00	576.00	571.00	515.00	503.00	516.00	537.00	511.00	473.00	398.00	394.00	480.00	583.00	663.00	771.00	813.00	817.00	810.00	782.00	754.00	713.00	681.00	650.00	634.00	669.00	598.00	620.00	625.00	585.00	581.00	570.00	579.00	580.00	591.00	573.00	570.00	571.00	588.00	590.00	621.00	636.00	642.00	640.00	665.00	675.00	691.00	714.00	725.00	747.00	751.00	773.00	803.00	829.00	811.00	822.00	824.00	851.00	862.00	868.00	843.00	851.00	846.00	860.00	867.00	877.00	875.00	818.00	779.00	764.00	762.00	726.00	681.00	609.00	597.00	574.00	552.00	528.00	512.00	488.00	466.00	436.00	392.00	374.00	378.00	399.00	395.00	384.00	376.00	397.00	393.00	388.00	369.00	358.00	354.00	373.00	365.00	366.00	382.00	389.00	352.00	324.00	264.00	163.00	157.00	151.00	151.00	147.00	208.00	370.00	458.00	556.00	583.00	575.00	546.00	558.00	542.00	508.00	560.00	629.00	660.00	676.00	678.00	679.00	679.00	643.00	626.00	608.00	593.00	564.00	508.00	506.00	556.00	604.00	655.00	647.00	655.00	662.00	653.00	646.00	633.00	624.00	611.00	614.00	618.00	620.00	621.00	605.00	525.00	536.00	535.00	501.00	495.00	492.00	491.00	473.00	459.00	465.00	464.00	470.00	469.00	464.00	465.00	467.00	463.00	468.00	478.00	483.00	473.00	473.00	474.00	486.00	489.00	495.00	502.00	513.00	519.00	515.00	513.00	522.00
935.00	836.00	762.00	746.00	813.00	726.00	673.00	658.00	616.00	602.00	581.00	562.00	674.00	730.00	804.00	861.00	885.00	944.00	975.00	1014.00	1062.00	1121.00	1433.00	1487.00	1490.00	1464.00	1439.00	1394.00	1388.00	1397.00	1385.00	1326.00	1324.00	1264.00	1240.00	1155.00	1096.00	1032.00	1021.00	975.00	975.00	996.00	983.00	981.00	923.00	903.00	858.00	815.00	758.00	685.00	660.00	582.00	518.00	530.00	557.00	581.00	630.00	649.00	724.00	697.00	650.00	653.00	629.00	631.00	669.00	682.00	691.00	633.00	644.00	659.00	691.00	715.00	712.00	693.00	681.00	654.00	622.00	595.00	576.00	571.00	515.00	503.00	516.00	537.00	511.00	473.00	398.00	394.00	480.00	583.00	663.00	771.00	813.00	817.00	810.00	782.00	754.00	713.00	681.00	650.00	634.00	669.00	598.00	620.00	625.00	585.00	581.00	570.00	579.00	580.00	591.00	573.00	570.00	571.00	588.00	590.00	621.00	636.00	642.00	640.00	665.00	675.00	691.00	714.00	725.00	747.00	751.00	773.00	803.00	829.00	811.00	822.00	824.00	851.00	862.00	868.00	843.00	851.00	846.00	860.00	867.00	877.00	875.00	818.00	779.00	764.00	762.00	726.00	681.00	609.00	597.00	574.00	552.00	528.00	512.00	488.00	466.00	436.00	392.00	374.00	378.00	399.00	395.00	384.00	376.00	397.00	393.00	388.00	369.00	358.00	354.00	373.00	365.00	366.00	382.00	389.00	352.00	324.00	264.00	163.00	157.00	151.00	151.00	147.00	208.00	370.00	458.00	556.00	583.00	575.00	546.00	558.00	542.00	508.00	560.00	629.00	660.00	676.00	678.00	679.00	679.00	643.00	626.00	608.00	593.00	564.00	508.00	506.00	556.00	604.00	655.00	647.00	655.00	662.00	653.00	646.00	633.00	624.00	611.00	614.00	618.00	620.00	621.00	605.00	525.00	536.00	535.00	501.00	495.00	492.00	491.00	473.00	459.00	465.00	464.00	470.00	469.00	464.00	465.00	467.00	463.00	468.00	478.00	483.00	473.00	473.00	474.00	486.00	489.00	495.00	502.00	513.00	519.00	515.00	513.00	522.00
1111.00	1005.00	991.00	998.00	959.00	952.00	972.00	909.00	742.00	768.00	766.00	708.00	548.00	597.00	627.00	703.00	788.00	868.00	898.00	920.00	947.00	973.00	1112.00	1221.00	1280.00	1410.00	1410.00	1434.00	1381.00	1383.00	1420.00	1375.00	1323.00	1199.00	1237.00	1211.00	1160.00	1225.00	1197.00	1182.00	1202.00	1197.00	1182.00	1060.00	960.00	906.00	859.00	802.00	752.00	652.00	616.00	579.00	549.00	497.00	499.00	545.00	603.00	589.00	651.00	626.00	604.00	642.00	594.00	637.00	648.00	651.00	612.00	579.00	609.00	630.00	643.00	649.00	667.00	700.00	710.00	684.00	665.00	652.00	626.00	606.00	584.00	547.00	532.00	513.00	483.00	405.00	392.00	388.00	386.00	509.00	546.00	583.00	597.00	626.00	645.00	663.00	789.00	755.00	706.00	713.00	698.00	669.00	666.00	635.00	637.00	640.00	631.00	615.00	598.00	612.00	607.00	598.00	604.00	598.00	584.00	581.00	593.00	601.00	610.00	619.00	644.00	656.00	663.00	673.00	702.00	743.00	744.00	771.00	774.00	770.00	794.00	818.00	828.00	811.00	802.00	823.00	827.00	817.00	805.00	813.00	819.00	832.00	848.00	813.00	791.00	775.00	751.00	713.00	737.00	732.00	706.00	676.00	622.00	604.00	580.00	555.00	528.00	515.00	436.00	436.00	423.00	374.00	350.00	327.00	349.00	351.00	334.00	322.00	342.00	342.00	319.00	297.00	295.00	295.00	302.00	299.00	283.00	256.00	206.00	154.00	154.00	149.00	147.00	150.00	182.00	241.00	380.00	460.00	490.00	503.00	491.00	516.00	478.00	463.00	519.00	529.00	548.00	561.00	575.00	592.00	601.00	605.00	596.00	586.00	579.00	575.00	478.00	464.00	497.00	548.00	577.00	579.00	569.00	548.00	512.00	530.00	515.00	500.00	493.00	482.00	472.00	466.00	444.00	445.00	425.00	414.00	405.00	394.00	393.00	386.00	388.00	396.00	397.00	404.00	403.00	400.00	401.00	398.00	398.00	400.00	398.00	397.00	395.00	395.00	399.00	394.00	401.00	399.00	400.00	404.00	408.00	412.00	416.00	410.00	409.00	409.00
1138.00	1075.00	1083.00	1110.00	1023.00	991.00	966.00	959.00	827.00	930.00	957.00	820.00	580.00	572.00	592.00	668.00	752.00	811.00	846.00	873.00	898.00	925.00	1046.00	1128.00	1217.00	1345.00	1376.00	1312.00	1269.00	1285.00	1395.00	1379.00	1363.00	1296.00	1308.00	1304.00	1275.00	1288.00	1309.00	1310.00	1232.00	1196.00	1117.00	1014.00	879.00	844.00	795.00	746.00	705.00	647.00	622.00	600.00	575.00	492.00	492.00	502.00	538.00	567.00	592.00	599.00	580.00	604.00	611.00	672.00	607.00	644.00	610.00	556.00	572.00	581.00	608.00	682.00	701.00	712.00	731.00	742.00	706.00	686.00	661.00	650.00	615.00	595.00	582.00	578.00	498.00	411.00	388.00	378.00	405.00	459.00	489.00	513.00	534.00	592.00	627.00	679.00	766.00	770.00	734.00	719.00	696.00	679.00	665.00	664.00	685.00	678.00	636.00	625.00	608.00	615.00	615.00	615.00	609.00	606.00	596.00	595.00	583.00	596.00	605.00	615.00	633.00	640.00	644.00	657.00	672.00	704.00	712.00	730.00	738.00	787.00	812.00	819.00	823.00	816.00	794.00	827.00	798.00	804.00	805.00	802.00	806.00	819.00	835.00	834.00	820.00	798.00	774.00	731.00	689.00	715.00	687.00	688.00	668.00	651.00	608.00	583.00	527.00	488.00	467.00	489.00	481.00	377.00	346.00	324.00	313.00	323.00	335.00	324.00	300.00	326.00	319.00	309.00	297.00	275.00	264.00	263.00	249.00	208.00	159.00	155.00	153.00	147.00	147.00	153.00	160.00	235.00	343.00	381.00	442.00	442.00	461.00	467.00	417.00	473.00	489.00	496.00	502.00	516.00	525.00	533.00	544.00	569.00	557.00	544.00	530.00	535.00	476.00	447.00	490.00	523.00	517.00	508.00	496.00	486.00	475.00	465.00	448.00	435.00	433.00	421.00	417.00	400.00	393.00	395.00	385.00	375.00	368.00	361.00	354.00	358.00	360.00	368.00	373.00	377.00	375.00	370.00	372.00	368.00	369.00	370.00	369.00	368.00	366.00	367.00	368.00	365.00	371.00	370.00	371.00	373.00	376.00	379.00	384.00	378.00	378.00	377.00
1138.00	1075.00	1083.00	1110.00	1023.00	991.00	966.00	959.00	827.00	930.00	957.00	820.00	580.00	572.00	592.00	668.00	752.00	811.00	846.00	873.00	898.00	925.00	1046.00	1128.00	1217.00	1345.00	1376.00	1312.00	1269.00	1285.00	1395.00	1379.00	1363.00	1296.00	1308.00	1304.00	1275.00	1288.00	1309.00	1310.00	1232.00	1196.00	1117.00	1014.00	879.00	844.00	795.00	746.00	705.00	647.00	622.00	600.00	575.00	492.00	492.00	502.00	538.00	567.00	592.00	599.00	580.00	604.00	611.00	672.00	607.00	644.00	610.00	556.00	572.00	581.00	608.00	682.00	701.00	712.00	731.00	742.00	706.00	686.00	661.00	650.00	615.00	595.00	582.00	578.00	498.00	411.00	388.00	378.00	405.00	459.00	489.00	513.00	534.00	592.00	627.00	679.00	766.00	770.00	734.00	719.00	696.00	679.00	665.00	664.00	685.00	678.00	636.00	625.00	608.00	615.00	615.00	615.00	609.00	606.00	596.00	595.00	583.00	596.00	605.00	615.00	633.00	640.00	644.00	657.00	672.00	704.00	712.00	730.00	738.00	787.00	812.00	819.00	823.00	816.00	794.00	827.00	798.00	804.00	805.00	802.00	806.00	819.00	835.00	834.00	820.00	798.00	774.00	731.00	689.00	715.00	687.00	688.00	668.00	651.00	608.00	583.00	527.00	488.00	467.00	489.00	481.00	377.00	346.00	324.00	313.00	323.00	335.00	324.00	300.00	326.00	319.00	309.00	297.00	275.00	264.00	263.00	249.00	208.00	159.00	155.00	153.00	147.00	147.00	153.00	160.00	235.00	343.00	381.00	442.00	442.00	461.00	467.00	417.00	473.00	489.00	496.00	502.00	516.00	525.00	533.00	544.00	569.00	557.00	544.00	530.00	535.00	476.00	447.00	490.00	523.00	517.00	508.00	496.00	486.00	475.00	465.00	448.00	435.00	433.00	421.00	417.00	400.00	393.00	395.00	385.00	375.00	368.00	361.00	354.00	358.00	360.00	368.00	373.00	377.00	375.00	370.00	372.00	368.00	369.00	370.00	369.00	368.00	366.00	367.00	368.00	365.00	371.00	370.00	371.00	373.00	376.00	379.00	384.00	378.00	378.00	377.00
1194.00	1234.00	1220.00	1189.00	1107.00	1058.00	1020.00	978.00	916.00	934.00	938.00	945.00	699.00	546.00	549.00	599.00	646.00	756.00	747.00	779.00	820.00	857.00	1050.00	1039.00	1169.00	1194.00	1331.00	1299.00	1165.00	1240.00	1314.00	1366.00	1304.00	1353.00	1365.00	1308.00	1311.00	1332.00	1295.00	1265.00	1157.00	1111.00	1056.00	942.00	825.00	783.00	765.00	752.00	713.00	643.00	606.00	587.00	567.00	489.00	485.00	484.00	497.00	527.00	541.00	557.00	559.00	566.00	586.00	622.00	591.00	618.00	577.00	548.00	542.00	571.00	612.00	669.00	697.00	725.00	742.00	806.00	778.00	751.00	721.00	702.00	666.00	640.00	642.00	627.00	523.00	433.00	408.00	385.00	380.00	440.00	472.00	472.00	500.00	568.00	601.00	623.00	744.00	755.00	728.00	720.00	707.00	714.00	679.00	703.00	713.00	692.00	652.00	639.00	628.00	624.00	628.00	624.00	616.00	604.00	602.00	603.00	584.00	589.00	601.00	608.00	622.00	628.00	638.00	652.00	666.00	699.00	712.00	741.00	748.00	781.00	792.00	784.00	806.00	794.00	778.00	776.00	789.00	820.00	815.00	800.00	800.00	811.00	820.00	813.00	804.00	784.00	770.00	755.00	667.00	652.00	630.00	624.00	612.00	600.00	597.00	574.00	570.00	515.00	428.00	418.00	412.00	361.00	349.00	361.00	359.00	317.00	301.00	288.00	279.00	283.00	304.00	281.00	267.00	273.00	226.00	235.00	228.00	169.00	153.00	154.00	148.00	147.00	148.00	155.00	161.00	217.00	278.00	355.00	379.00	396.00	409.00	413.00	406.00	429.00	428.00	429.00	438.00	470.00	471.00	472.00	465.00	499.00	506.00	502.00	493.00	490.00	465.00	429.00	454.00	479.00	466.00	443.00	437.00	427.00	419.00	409.00	399.00	387.00	383.00	379.00	383.00	368.00	361.00	354.00	344.00	345.00	339.00	335.00	328.00	331.00	337.00	343.00	349.00	351.00	349.00	345.00	345.00	342.00	343.00	343.00	344.00	343.00	340.00	341.00	340.00	339.00	343.00	342.00	344.00	344.00	347.00	350.00	353.00	350.00	349.00	350.00
1326.00	1288.00	1260.00	1283.00	1248.00	1260.00	1256.00	1220.00	1156.00	1100.00	1045.00	1022.00	990.00	830.00	770.00	661.00	571.00	578.00	596.00	630.00	660.00	781.00	857.00	991.00	958.00	1039.00	992.00	1031.00	987.00	1043.00	1085.00	1163.00	1271.00	1051.00	1104.00	1193.00	1191.00	1086.00	990.00	1054.00	966.00	933.00	890.00	841.00	779.00	755.00	734.00	726.00	703.00	618.00	591.00	575.00	559.00	489.00	476.00	474.00	472.00	470.00	490.00	502.00	520.00	518.00	520.00	529.00	571.00	553.00	534.00	544.00	540.00	525.00	510.00	569.00	612.00	651.00	685.00	757.00	826.00	849.00	846.00	841.00	842.00	822.00	804.00	756.00	679.00	609.00	516.00	410.00	381.00	415.00	430.00	434.00	434.00	481.00	509.00	535.00	597.00	614.00	710.00	695.00	724.00	724.00	732.00	737.00	738.00	721.00	708.00	671.00	661.00	655.00	650.00	641.00	628.00	631.00	620.00	612.00	605.00	602.00	596.00	596.00	606.00	616.00	629.00	642.00	653.00	678.00	680.00	706.00	722.00	743.00	745.00	739.00	732.00	735.00	759.00	772.00	787.00	809.00	787.00	799.00	805.00	799.00	793.00	794.00	791.00	788.00	782.00	751.00	705.00	679.00	659.00	633.00	587.00	562.00	555.00	549.00	509.00	487.00	493.00	468.00	443.00	437.00	403.00	379.00	365.00	335.00	328.00	326.00	320.00	322.00	297.00	288.00	267.00	243.00	200.00	181.00	167.00	151.00	149.00	147.00	149.00	153.00	156.00	156.00	165.00	187.00	230.00	265.00	311.00	325.00	343.00	342.00	350.00	352.00	355.00	357.00	358.00	361.00	357.00	361.00	366.00	384.00	390.00	402.00	412.00	404.00	396.00	387.00	370.00	375.00	373.00	364.00	359.00	356.00	349.00	338.00	331.00	327.00	322.00	317.00	313.00	305.00	302.00	300.00	292.00	292.00	291.00	290.00	291.00	293.00	296.00	298.00	307.00	304.00	303.00	303.00	302.00	300.00	298.00	299.00	299.00	299.00	297.00	295.00	293.00	295.00	295.00	295.00	297.00	298.00	299.00	301.00	301.00	302.00	301.00	304.00
1326.00	1288.00	1260.00	1283.00	1248.00	1260.00	1256.00	1220.00	1156.00	1100.00	1045.00	1022.00	990.00	830.00	770.00	661.00	571.00	578.00	596.00	630.00	660.00	781.00	857.00	991.00	958.00	1039.00	992.00	1031.00	987.00	1043.00	1085.00	1163.00	1271.00	1051.00	1104.00	1193.00	1191.00	1086.00	990.00	1054.00	966.00	933.00	890.00	841.00	779.00	755.00	734.00	726.00	703.00	618.00	591.00	575.00	559.00	489.00	476.00	474.00	472.00	470.00	490.00	502.00	520.00	518.00	520.00	529.00	571.00	553.00	534.00	544.00	540.00	525.00	510.00	569.00	612.00	651.00	685.00	757.00	826.00	849.00	846.00	841.00	842.00	822.00	804.00	756.00	679.00	609.00	516.00	410.00	381.00	415.00	430.00	434.00	434.00	481.00	509.00	535.00	597.00	614.00	710.00	695.00	724.00	724.00	732.00	737.00	738.00	721.00	708.00	671.00	661.00	655.00	650.00	641.00	628.00	631.00	620.00	612.00	605.00	602.00	596.00	596.00	606.00	616.00	629.00	642.00	653.00	678.00	680.00	706.00	722.00	743.00	745.00	739.00	732.00	735.00	759.00	772.00	787.00	809.00	787.00	799.00	805.00	799.00	793.00	794.00	791.00	788.00	782.00	751.00	705.00	679.00	659.00	633.00	587.00	562.00	555.00	549.00	509.00	487.00	493.00	468.00	443.00	437.00	403.00	379.00	365.00	335.00	328.00	326.00	320.00	322.00	297.00	288.00	267.00	243.00	200.00	181.00	167.00	151.00	149.00	147.00	149.00	153.00	156.00	156.00	165.00	187.00	230.00	265.00	311.00	325.00	343.00	342.00	350.00	352.00	355.00	357.00	358.00	361.00	357.00	361.00	366.00	384.00	390.00	402.00	412.00	404.00	396.00	387.00	370.00	375.00	373.00	364.00	359.00	356.00	349.00	338.00	331.00	327.00	322.00	317.00	313.00	305.00	302.00	300.00	292.00	292.00	291.00	290.00	291.00	293.00	296.00	298.00	307.00	304.00	303.00	303.00	302.00	300.00	298.00	299.00	299.00	299.00	297.00	295.00	293.00	295.00	295.00	295.00	297.00	298.00	299.00	301.00	301.00	302.00	301.00	304.00
1353.00	1312.00	1264.00	1236.00	1239.00	1206.00	1205.00	1231.00	1138.00	1100.00	1061.00	1023.00	951.00	957.00	926.00	817.00	770.00	718.00	660.00	558.00	550.00	641.00	842.00	850.00	936.00	1018.00	863.00	877.00	920.00	990.00	901.00	1073.00	1132.00	989.00	898.00	998.00	1007.00	1016.00	918.00	852.00	890.00	909.00	858.00	802.00	750.00	724.00	700.00	678.00	659.00	615.00	582.00	554.00	545.00	497.00	474.00	471.00	468.00	465.00	475.00	485.00	495.00	510.00	504.00	530.00	550.00	538.00	513.00	534.00	529.00	521.00	506.00	511.00	544.00	583.00	622.00	701.00	777.00	793.00	788.00	821.00	896.00	919.00	899.00	845.00	797.00	576.00	438.00	376.00	438.00	492.00	493.00	486.00	472.00	467.00	470.00	496.00	569.00	620.00	652.00	664.00	697.00	674.00	690.00	707.00	731.00	740.00	701.00	689.00	672.00	668.00	667.00	647.00	639.00	636.00	628.00	626.00	613.00	610.00	606.00	606.00	603.00	609.00	618.00	630.00	641.00	658.00	675.00	695.00	701.00	715.00	711.00	710.00	723.00	746.00	781.00	785.00	791.00	798.00	779.00	781.00	792.00	791.00	780.00	789.00	786.00	797.00	788.00	756.00	707.00	708.00	682.00	648.00	591.00	564.00	542.00	537.00	543.00	544.00	527.00	504.00	492.00	458.00	425.00	403.00	381.00	336.00	321.00	309.00	300.00	289.00	297.00	276.00	255.00	239.00	200.00	174.00	161.00	149.00	147.00	149.00	153.00	156.00	157.00	155.00	169.00	186.00	220.00	249.00	294.00	312.00	317.00	314.00	330.00	329.00	332.00	332.00	332.00	331.00	328.00	328.00	334.00	341.00	347.00	353.00	353.00	350.00	352.00	350.00	339.00	341.00	341.00	334.00	330.00	324.00	321.00	311.00	305.00	297.00	296.00	291.00	289.00	281.00	280.00	278.00	274.00	274.00	275.00	275.00	277.00	278.00	280.00	281.00	288.00	287.00	283.00	284.00	284.00	282.00	280.00	280.00	279.00	279.00	280.00	275.00	275.00	277.00	277.00	276.00	277.00	278.00	279.00	282.00	281.00	281.00	281.00	283.00
1355.00	1307.00	1263.00	1203.00	1224.00	1192.00	1151.00	1157.00	1184.00	1129.00	1073.00	1036.00	1006.00	873.00	845.00	800.00	742.00	710.00	628.00	544.00	530.00	580.00	737.00	803.00	846.00	849.00	790.00	904.00	1003.00	978.00	848.00	894.00	936.00	946.00	851.00	822.00	808.00	816.00	771.00	743.00	860.00	836.00	818.00	758.00	713.00	690.00	670.00	649.00	631.00	588.00	569.00	549.00	534.00	493.00	479.00	471.00	465.00	461.00	464.00	476.00	485.00	490.00	491.00	499.00	512.00	513.00	498.00	535.00	531.00	508.00	502.00	481.00	496.00	527.00	567.00	641.00	702.00	736.00	766.00	798.00	864.00	906.00	944.00	937.00	771.00	497.00	432.00	381.00	436.00	571.00	554.00	561.00	536.00	521.00	504.00	493.00	524.00	555.00	629.00	662.00	651.00	631.00	647.00	685.00	730.00	741.00	715.00	704.00	693.00	684.00	677.00	663.00	655.00	649.00	654.00	645.00	627.00	621.00	618.00	616.00	612.00	611.00	612.00	616.00	626.00	655.00	661.00	675.00	684.00	696.00	691.00	719.00	732.00	746.00	755.00	757.00	765.00	776.00	759.00	774.00	783.00	770.00	780.00	783.00	777.00	785.00	780.00	747.00	745.00	721.00	689.00	655.00	589.00	574.00	557.00	538.00	501.00	497.00	526.00	547.00	516.00	488.00	494.00	447.00	427.00	350.00	330.00	314.00	302.00	278.00	264.00	252.00	243.00	233.00	187.00	164.00	148.00	147.00	149.00	151.00	155.00	156.00	157.00	157.00	168.00	179.00	219.00	238.00	281.00	292.00	297.00	312.00	313.00	311.00	311.00	310.00	310.00	306.00	304.00	303.00	308.00	314.00	316.00	321.00	322.00	319.00	328.00	323.00	318.00	319.00	316.00	309.00	307.00	300.00	295.00	288.00	284.00	280.00	276.00	271.00	269.00	264.00	262.00	260.00	259.00	261.00	261.00	262.00	265.00	265.00	266.00	267.00	270.00	268.00	265.00	266.00	267.00	265.00	263.00	263.00	263.00	262.00	261.00	258.00	257.00	260.00	260.00	258.00	260.00	261.00	261.00	264.00	263.00	263.00	263.00	265.00
1316.00	1280.00	1269.00	1201.00	1205.00	1178.00	1137.00	1098.00	1191.00	1148.00	1105.00	1051.00	962.00	873.00	832.00	834.00	846.00	852.00	758.00	656.00	539.00	525.00	744.00	728.00	733.00	698.00	781.00	828.00	829.00	797.00	771.00	756.00	738.00	713.00	686.00	640.00	658.00	677.00	675.00	722.00	785.00	772.00	750.00	708.00	689.00	669.00	647.00	626.00	606.00	582.00	565.00	552.00	537.00	487.00	475.00	467.00	462.00	457.00	454.00	463.00	468.00	477.00	481.00	478.00	486.00	493.00	485.00	515.00	525.00	501.00	494.00	468.00	468.00	487.00	523.00	588.00	656.00	688.00	736.00	779.00	828.00	846.00	880.00	897.00	735.00	428.00	391.00	406.00	469.00	632.00	646.00	645.00	646.00	586.00	565.00	545.00	525.00	526.00	566.00	583.00	601.00	629.00	668.00	696.00	711.00	730.00	743.00	734.00	714.00	702.00	695.00	684.00	676.00	672.00	669.00	654.00	645.00	636.00	630.00	627.00	624.00	622.00	621.00	622.00	624.00	628.00	635.00	654.00	665.00	678.00	698.00	706.00	713.00	734.00	730.00	730.00	738.00	746.00	750.00	768.00	763.00	764.00	776.00	774.00	770.00	781.00	768.00	727.00	720.00	719.00	730.00	701.00	623.00	583.00	553.00	536.00	512.00	495.00	470.00	517.00	510.00	439.00	462.00	419.00	406.00	369.00	370.00	326.00	304.00	273.00	251.00	236.00	230.00	220.00	176.00	154.00	147.00	148.00	154.00	150.00	155.00	156.00	153.00	160.00	169.00	180.00	205.00	229.00	260.00	270.00	295.00	298.00	297.00	296.00	295.00	291.00	291.00	286.00	285.00	283.00	286.00	290.00	292.00	294.00	295.00	295.00	302.00	303.00	300.00	301.00	301.00	290.00	286.00	282.00	277.00	269.00	268.00	266.00	263.00	258.00	255.00	251.00	250.00	248.00	249.00	251.00	251.00	251.00	253.00	255.00	254.00	254.00	253.00	252.00	250.00	251.00	252.00	249.00	249.00	247.00	248.00	246.00	246.00	243.00	241.00	244.00	243.00	244.00	243.00	244.00	244.00	245.00	248.00	248.00	247.00	249.00
1176.00	1214.00	1212.00	1171.00	1144.00	1152.00	1119.00	1043.00	1114.00	1146.00	1127.00	1090.00	1008.00	936.00	935.00	942.00	976.00	944.00	870.00	742.00	607.00	533.00	582.00	586.00	590.00	582.00	615.00	584.00	575.00	560.00	558.00	556.00	538.00	541.00	569.00	584.00	593.00	609.00	612.00	661.00	658.00	668.00	711.00	683.00	660.00	648.00	637.00	622.00	607.00	564.00	550.00	536.00	527.00	494.00	495.00	473.00	459.00	454.00	449.00	450.00	454.00	462.00	470.00	471.00	470.00	479.00	474.00	496.00	520.00	500.00	480.00	462.00	453.00	471.00	499.00	544.00	605.00	646.00	685.00	713.00	766.00	798.00	846.00	828.00	559.00	377.00	395.00	426.00	494.00	727.00	757.00	751.00	720.00	675.00	675.00	669.00	585.00	564.00	542.00	577.00	613.00	653.00	688.00	721.00	764.00	781.00	775.00	757.00	746.00	727.00	723.00	705.00	703.00	694.00	678.00	666.00	663.00	652.00	644.00	644.00	637.00	634.00	630.00	631.00	636.00	643.00	647.00	646.00	649.00	673.00	691.00	685.00	702.00	712.00	709.00	722.00	735.00	736.00	743.00	749.00	759.00	769.00	767.00	767.00	765.00	778.00	777.00	733.00	731.00	698.00	677.00	656.00	599.00	594.00	603.00	570.00	512.00	500.00	463.00	448.00	431.00	407.00	394.00	372.00	354.00	327.00	319.00	333.00	322.00	260.00	241.00	231.00	223.00	207.00	168.00	148.00	147.00	153.00	158.00	149.00	154.00	153.00	153.00	161.00	167.00	179.00	202.00	225.00	240.00	247.00	281.00	284.00	283.00	283.00	281.00	276.00	275.00	270.00	269.00	268.00	269.00	270.00	270.00	272.00	274.00	275.00	277.00	283.00	286.00	287.00	293.00	279.00	273.00	269.00	265.00	258.00	256.00	254.00	253.00	249.00	246.00	242.00	242.00	243.00	240.00	245.00	243.00	240.00	242.00	244.00	243.00	242.00	240.00	239.00	237.00	238.00	239.00	236.00	236.00	234.00	235.00	232.00	231.00	230.00	228.00	226.00	229.00	230.00	229.00	231.00	229.00	231.00	233.00	235.00	234.00	236.00
1073.00	1090.00	1126.00	1144.00	1024.00	1088.00	1101.00	1051.00	1001.00	1079.00	1054.00	1051.00	1057.00	1041.00	1031.00	1001.00	957.00	902.00	914.00	844.00	739.00	664.00	509.00	511.00	509.00	498.00	489.00	488.00	486.00	485.00	484.00	485.00	481.00	490.00	508.00	551.00	547.00	556.00	561.00	572.00	578.00	581.00	634.00	597.00	638.00	622.00	614.00	602.00	592.00	537.00	530.00	521.00	513.00	524.00	496.00	498.00	470.00	457.00	445.00	442.00	443.00	454.00	460.00	465.00	461.00	464.00	461.00	473.00	483.00	480.00	467.00	453.00	442.00	453.00	471.00	514.00	562.00	595.00	633.00	665.00	744.00	799.00	798.00	786.00	508.00	393.00	402.00	445.00	509.00	704.00	779.00	847.00	808.00	766.00	765.00	739.00	652.00	617.00	567.00	567.00	594.00	620.00	661.00	701.00	743.00	786.00	816.00	789.00	769.00	767.00	760.00	730.00	731.00	714.00	707.00	694.00	679.00	665.00	662.00	664.00	656.00	649.00	643.00	643.00	648.00	657.00	669.00	663.00	672.00	666.00	669.00	673.00	680.00	682.00	706.00	723.00	711.00	715.00	749.00	751.00	748.00	751.00	754.00	757.00	760.00	761.00	751.00	743.00	730.00	734.00	723.00	713.00	669.00	652.00	617.00	592.00	555.00	526.00	523.00	493.00	450.00	506.00	466.00	438.00	400.00	343.00	310.00	294.00	286.00	274.00	245.00	223.00	211.00	197.00	160.00	147.00	148.00	158.00	160.00	151.00	151.00	152.00	155.00	163.00	170.00	178.00	198.00	222.00	234.00	240.00	259.00	268.00	269.00	266.00	264.00	262.00	261.00	259.00	258.00	257.00	255.00	256.00	256.00	257.00	258.00	260.00	265.00	269.00	273.00	276.00	283.00	273.00	268.00	262.00	258.00	250.00	248.00	246.00	246.00	242.00	241.00	236.00	234.00	237.00	232.00	234.00	234.00	230.00	232.00	234.00	233.00	232.00	228.00	228.00	227.00	226.00	228.00	226.00	224.00	223.00	223.00	222.00	220.00	219.00	218.00	216.00	216.00	218.00	218.00	218.00	218.00	219.00	221.00	221.00	221.00	221.00
1073.00	1090.00	1126.00	1144.00	1024.00	1088.00	1101.00	1051.00	1001.00	1079.00	1054.00	1051.00	1057.00	1041.00	1031.00	1001.00	957.00	902.00	914.00	844.00	739.00	664.00	509.00	511.00	509.00	498.00	489.00	488.00	486.00	485.00	484.00	485.00	481.00	490.00	508.00	551.00	547.00	556.00	561.00	572.00	578.00	581.00	634.00	597.00	638.00	622.00	614.00	602.00	592.00	537.00	530.00	521.00	513.00	524.00	496.00	498.00	470.00	457.00	445.00	442.00	443.00	454.00	460.00	465.00	461.00	464.00	461.00	473.00	483.00	480.00	467.00	453.00	442.00	453.00	471.00	514.00	562.00	595.00	633.00	665.00	744.00	799.00	798.00	786.00	508.00	393.00	402.00	445.00	509.00	704.00	779.00	847.00	808.00	766.00	765.00	739.00	652.00	617.00	567.00	567.00	594.00	620.00	661.00	701.00	743.00	786.00	816.00	789.00	769.00	767.00	760.00	730.00	731.00	714.00	707.00	694.00	679.00	665.00	662.00	664.00	656.00	649.00	643.00	643.00	648.00	657.00	669.00	663.00	672.00	666.00	669.00	673.00	680.00	682.00	706.00	723.00	711.00	715.00	749.00	751.00	748.00	751.00	754.00	757.00	760.00	761.00	751.00	743.00	730.00	734.00	723.00	713.00	669.00	652.00	617.00	592.00	555.00	526.00	523.00	493.00	450.00	506.00	466.00	438.00	400.00	343.00	310.00	294.00	286.00	274.00	245.00	223.00	211.00	197.00	160.00	147.00	148.00	158.00	160.00	151.00	151.00	152.00	155.00	163.00	170.00	178.00	198.00	222.00	234.00	240.00	259.00	268.00	269.00	266.00	264.00	262.00	261.00	259.00	258.00	257.00	255.00	256.00	256.00	257.00	258.00	260.00	265.00	269.00	273.00	276.00	283.00	273.00	268.00	262.00	258.00	250.00	248.00	246.00	246.00	242.00	241.00	236.00	234.00	237.00	232.00	234.00	234.00	230.00	232.00	234.00	233.00	232.00	228.00	228.00	227.00	226.00	228.00	226.00	224.00	223.00	223.00	222.00	220.00	219.00	218.00	216.00	216.00	218.00	218.00	218.00	218.00	219.00	221.00	221.00	221.00	221.00
1058.00	945.00	945.00	928.00	897.00	940.00	1000.00	978.00	904.00	847.00	895.00	887.00	870.00	891.00	872.00	867.00	879.00	823.00	812.00	787.00	753.00	730.00	715.00	695.00	651.00	620.00	501.00	533.00	638.00	640.00	636.00	603.00	554.00	490.00	467.00	465.00	466.00	469.00	472.00	468.00	475.00	477.00	485.00	512.00	555.00	577.00	573.00	580.00	581.00	567.00	561.00	561.00	575.00	544.00	534.00	506.00	527.00	491.00	459.00	441.00	434.00	432.00	436.00	439.00	443.00	441.00	442.00	440.00	439.00	440.00	439.00	438.00	424.00	426.00	435.00	462.00	500.00	521.00	528.00	539.00	621.00	645.00	675.00	720.00	729.00	652.00	629.00	543.00	425.00	535.00	690.00	855.00	895.00	852.00	809.00	765.00	744.00	738.00	681.00	634.00	596.00	594.00	617.00	641.00	669.00	689.00	724.00	817.00	840.00	819.00	802.00	806.00	793.00	792.00	796.00	775.00	733.00	721.00	712.00	703.00	691.00	686.00	675.00	671.00	679.00	683.00	682.00	698.00	691.00	700.00	707.00	706.00	714.00	708.00	702.00	705.00	705.00	708.00	727.00	736.00	739.00	740.00	743.00	746.00	748.00	728.00	711.00	702.00	710.00	700.00	731.00	730.00	671.00	634.00	587.00	577.00	597.00	581.00	554.00	569.00	559.00	554.00	525.00	482.00	442.00	410.00	382.00	359.00	341.00	319.00	287.00	239.00	208.00	192.00	151.00	147.00	150.00	151.00	148.00	153.00	153.00	154.00	156.00	164.00	171.00	179.00	195.00	218.00	232.00	235.00	241.00	245.00	250.00	251.00	253.00	253.00	252.00	253.00	254.00	254.00	255.00	255.00	255.00	254.00	254.00	254.00	245.00	244.00	247.00	250.00	256.00	252.00	248.00	245.00	243.00	238.00	237.00	237.00	235.00	234.00	233.00	228.00	227.00	224.00	219.00	218.00	216.00	214.00	213.00	215.00	215.00	216.00	213.00	211.00	207.00	208.00	209.00	207.00	205.00	204.00	205.00	202.00	201.00	202.00	201.00	201.00	201.00	200.00	201.00	202.00	202.00	201.00	201.00	201.00	201.00	199.00
992.00	901.00	887.00	880.00	845.00	826.00	866.00	900.00	911.00	884.00	792.00	837.00	866.00	801.00	819.00	796.00	769.00	775.00	737.00	757.00	763.00	707.00	676.00	699.00	671.00	589.00	507.00	605.00	654.00	637.00	620.00	624.00	607.00	591.00	545.00	480.00	464.00	459.00	460.00	459.00	458.00	456.00	458.00	462.00	481.00	507.00	514.00	555.00	588.00	589.00	588.00	577.00	599.00	551.00	550.00	527.00	547.00	500.00	478.00	467.00	439.00	429.00	425.00	428.00	433.00	429.00	433.00	429.00	427.00	427.00	426.00	431.00	425.00	413.00	417.00	438.00	470.00	484.00	492.00	505.00	560.00	592.00	637.00	668.00	731.00	791.00	630.00	460.00	384.00	633.00	721.00	824.00	893.00	876.00	849.00	819.00	767.00	745.00	703.00	677.00	639.00	613.00	646.00	637.00	641.00	657.00	705.00	758.00	765.00	753.00	773.00	811.00	826.00	832.00	832.00	813.00	781.00	764.00	742.00	736.00	714.00	708.00	707.00	695.00	704.00	698.00	695.00	707.00	704.00	706.00	713.00	721.00	726.00	719.00	715.00	717.00	722.00	718.00	724.00	728.00	730.00	732.00	730.00	725.00	727.00	722.00	706.00	671.00	673.00	668.00	680.00	719.00	676.00	646.00	603.00	548.00	594.00	620.00	561.00	565.00	546.00	503.00	465.00	491.00	461.00	432.00	415.00	403.00	374.00	296.00	257.00	268.00	239.00	197.00	148.00	147.00	147.00	149.00	152.00	156.00	156.00	156.00	157.00	166.00	171.00	178.00	191.00	214.00	231.00	234.00	238.00	241.00	249.00	251.00	252.00	251.00	251.00	252.00	254.00	256.00	258.00	258.00	257.00	256.00	256.00	255.00	253.00	248.00	243.00	241.00	240.00	237.00	235.00	235.00	234.00	232.00	232.00	231.00	228.00	227.00	226.00	224.00	222.00	220.00	214.00	212.00	211.00	209.00	206.00	206.00	207.00	208.00	205.00	202.00	200.00	201.00	201.00	199.00	199.00	198.00	198.00	197.00	198.00	198.00	198.00	198.00	198.00	199.00	198.00	198.00	198.00	197.00	197.00	197.00	197.00	196.00
992.00	901.00	887.00	880.00	845.00	826.00	866.00	900.00	911.00	884.00	792.00	837.00	866.00	801.00	819.00	796.00	769.00	775.00	737.00	757.00	763.00	707.00	676.00	699.00	671.00	589.00	507.00	605.00	654.00	637.00	620.00	624.00	607.00	591.00	545.00	480.00	464.00	459.00	460.00	459.00	458.00	456.00	458.00	462.00	481.00	507.00	514.00	555.00	588.00	589.00	588.00	577.00	599.00	551.00	550.00	527.00	547.00	500.00	478.00	467.00	439.00	429.00	425.00	428.00	433.00	429.00	433.00	429.00	427.00	427.00	426.00	431.00	425.00	413.00	417.00	438.00	470.00	484.00	492.00	505.00	560.00	592.00	637.00	668.00	731.00	791.00	630.00	460.00	384.00	633.00	721.00	824.00	893.00	876.00	849.00	819.00	767.00	745.00	703.00	677.00	639.00	613.00	646.00	637.00	641.00	657.00	705.00	758.00	765.00	753.00	773.00	811.00	826.00	832.00	832.00	813.00	781.00	764.00	742.00	736.00	714.00	708.00	707.00	695.00	704.00	698.00	695.00	707.00	704.00	706.00	713.00	721.00	726.00	719.00	715.00	717.00	722.00	718.00	724.00	728.00	730.00	732.00	730.00	725.00	727.00	722.00	706.00	671.00	673.00	668.00	680.00	719.00	676.00	646.00	603.00	548.00	594.00	620.00	561.00	565.00	546.00	503.00	465.00	491.00	461.00	432.00	415.00	403.00	374.00	296.00	257.00	268.00	239.00	197.00	148.00	147.00	147.00	149.00	152.00	156.00	156.00	156.00	157.00	166.00	171.00	178.00	191.00	214.00	231.00	234.00	238.00	241.00	249.00	251.00	252.00	251.00	251.00	252.00	254.00	256.00	258.00	258.00	257.00	256.00	256.00	255.00	253.00	248.00	243.00	241.00	240.00	237.00	235.00	235.00	234.00	232.00	232.00	231.00	228.00	227.00	226.00	224.00	222.00	220.00	214.00	212.00	211.00	209.00	206.00	206.00	207.00	208.00	205.00	202.00	200.00	201.00	201.00	199.00	199.00	198.00	198.00	197.00	198.00	198.00	198.00	198.00	198.00	199.00	198.00	198.00	198.00	197.00	197.00	197.00	197.00	196.00
938.00	989.00	1018.00	1013.00	979.00	887.00	830.00	802.00	775.00	763.00	738.00	730.00	727.00	690.00	712.00	704.00	692.00	664.00	634.00	662.00	696.00	693.00	566.00	539.00	525.00	522.00	617.00	673.00	665.00	637.00	620.00	616.00	612.00	598.00	598.00	593.00	571.00	540.00	507.00	472.00	452.00	450.00	449.00	447.00	449.00	454.00	461.00	494.00	528.00	605.00	616.00	600.00	615.00	579.00	552.00	559.00	554.00	526.00	502.00	490.00	493.00	450.00	421.00	419.00	419.00	420.00	425.00	421.00	420.00	418.00	416.00	416.00	416.00	409.00	403.00	423.00	445.00	465.00	494.00	517.00	521.00	534.00	568.00	611.00	690.00	743.00	621.00	444.00	404.00	628.00	686.00	810.00	830.00	837.00	832.00	816.00	770.00	741.00	699.00	679.00	665.00	684.00	629.00	682.00	693.00	687.00	682.00	708.00	713.00	718.00	734.00	763.00	787.00	820.00	848.00	857.00	824.00	796.00	778.00	778.00	752.00	747.00	736.00	721.00	725.00	718.00	713.00	720.00	720.00	717.00	723.00	730.00	738.00	735.00	731.00	735.00	736.00	728.00	730.00	730.00	728.00	724.00	710.00	708.00	704.00	713.00	711.00	687.00	649.00	621.00	658.00	691.00	677.00	641.00	577.00	530.00	559.00	558.00	518.00	499.00	531.00	453.00	417.00	428.00	414.00	363.00	363.00	339.00	336.00	266.00	341.00	347.00	314.00	256.00	147.00	147.00	147.00	150.00	153.00	155.00	156.00	155.00	157.00	166.00	173.00	180.00	189.00	209.00	229.00	233.00	237.00	239.00	245.00	248.00	250.00	251.00	251.00	254.00	255.00	256.00	256.00	258.00	258.00	257.00	255.00	255.00	253.00	252.00	250.00	247.00	239.00	236.00	235.00	232.00	231.00	227.00	225.00	224.00	222.00	219.00	218.00	215.00	215.00	216.00	215.00	213.00	210.00	207.00	203.00	201.00	201.00	201.00	199.00	196.00	196.00	195.00	196.00	195.00	195.00	195.00	195.00	197.00	197.00	197.00	194.00	188.00	189.00	195.00	195.00	196.00	194.00	192.00	195.00	194.00	194.00	192.00
1092.00	1040.00	1033.00	1023.00	1010.00	994.00	981.00	970.00	945.00	920.00	908.00	885.00	846.00	805.00	788.00	729.00	636.00	624.00	671.00	609.00	611.00	625.00	584.00	683.00	691.00	704.00	694.00	679.00	655.00	636.00	628.00	606.00	605.00	601.00	600.00	593.00	595.00	598.00	593.00	589.00	555.00	475.00	447.00	442.00	439.00	437.00	437.00	438.00	440.00	507.00	538.00	588.00	638.00	625.00	583.00	616.00	584.00	581.00	556.00	542.00	516.00	519.00	458.00	459.00	409.00	406.00	403.00	398.00	398.00	399.00	397.00	392.00	392.00	391.00	388.00	393.00	410.00	428.00	437.00	448.00	453.00	462.00	476.00	499.00	548.00	608.00	486.00	396.00	388.00	666.00	716.00	718.00	710.00	719.00	702.00	693.00	671.00	658.00	664.00	683.00	701.00	692.00	697.00	715.00	710.00	689.00	739.00	676.00	664.00	668.00	674.00	703.00	719.00	737.00	761.00	802.00	850.00	884.00	872.00	841.00	851.00	850.00	820.00	788.00	790.00	777.00	766.00	767.00	763.00	751.00	757.00	758.00	767.00	761.00	752.00	754.00	752.00	752.00	746.00	738.00	736.00	724.00	718.00	694.00	673.00	646.00	654.00	656.00	682.00	663.00	663.00	640.00	550.00	523.00	497.00	508.00	453.00	443.00	462.00	462.00	441.00	418.00	390.00	359.00	348.00	346.00	365.00	367.00	388.00	370.00	317.00	305.00	279.00	259.00	156.00	147.00	147.00	148.00	150.00	154.00	155.00	153.00	158.00	167.00	174.00	179.00	189.00	202.00	223.00	227.00	236.00	238.00	238.00	239.00	242.00	245.00	248.00	252.00	253.00	254.00	254.00	254.00	255.00	256.00	256.00	257.00	255.00	255.00	254.00	253.00	250.00	249.00	249.00	246.00	247.00	239.00	237.00	237.00	237.00	229.00	222.00	214.00	213.00	212.00	211.00	210.00	208.00	205.00	199.00	198.00	197.00	197.00	194.00	192.00	192.00	189.00	186.00	191.00	187.00	191.00	192.00	191.00	166.00	138.00	133.00	132.00	132.00	130.00	131.00	130.00	126.00	128.00	127.00	126.00	129.00	120.00
1092.00	1040.00	1033.00	1023.00	1010.00	994.00	981.00	970.00	945.00	920.00	908.00	885.00	846.00	805.00	788.00	729.00	636.00	624.00	671.00	609.00	611.00	625.00	584.00	683.00	691.00	704.00	694.00	679.00	655.00	636.00	628.00	606.00	605.00	601.00	600.00	593.00	595.00	598.00	593.00	589.00	555.00	475.00	447.00	442.00	439.00	437.00	437.00	438.00	440.00	507.00	538.00	588.00	638.00	625.00	583.00	616.00	584.00	581.00	556.00	542.00	516.00	519.00	458.00	459.00	409.00	406.00	403.00	398.00	398.00	399.00	397.00	392.00	392.00	391.00	388.00	393.00	410.00	428.00	437.00	448.00	453.00	462.00	476.00	499.00	548.00	608.00	486.00	396.00	388.00	666.00	716.00	718.00	710.00	719.00	702.00	693.00	671.00	658.00	664.00	683.00	701.00	692.00	697.00	715.00	710.00	689.00	739.00	676.00	664.00	668.00	674.00	703.00	719.00	737.00	761.00	802.00	850.00	884.00	872.00	841.00	851.00	850.00	820.00	788.00	790.00	777.00	766.00	767.00	763.00	751.00	757.00	758.00	767.00	761.00	752.00	754.00	752.00	752.00	746.00	738.00	736.00	724.00	718.00	694.00	673.00	646.00	654.00	656.00	682.00	663.00	663.00	640.00	550.00	523.00	497.00	508.00	453.00	443.00	462.00	462.00	441.00	418.00	390.00	359.00	348.00	346.00	365.00	367.00	388.00	370.00	317.00	305.00	279.00	259.00	156.00	147.00	147.00	148.00	150.00	154.00	155.00	153.00	158.00	167.00	174.00	179.00	189.00	202.00	223.00	227.00	236.00	238.00	238.00	239.00	242.00	245.00	248.00	252.00	253.00	254.00	254.00	254.00	255.00	256.00	256.00	257.00	255.00	255.00	254.00	253.00	250.00	249.00	249.00	246.00	247.00	239.00	237.00	237.00	237.00	229.00	222.00	214.00	213.00	212.00	211.00	210.00	208.00	205.00	199.00	198.00	197.00	197.00	194.00	192.00	192.00	189.00	186.00	191.00	187.00	191.00	192.00	191.00	166.00	138.00	133.00	132.00	132.00	130.00	131.00	130.00	126.00	128.00	127.00	126.00	129.00	120.00
1054.00	988.00	995.00	966.00	940.00	910.00	903.00	883.00	886.00	834.00	850.00	832.00	744.00	632.00	653.00	594.00	568.00	592.00	575.00	561.00	578.00	545.00	676.00	699.00	711.00	728.00	707.00	673.00	648.00	628.00	618.00	603.00	598.00	593.00	594.00	595.00	592.00	595.00	596.00	592.00	578.00	546.00	462.00	444.00	436.00	434.00	433.00	434.00	433.00	449.00	479.00	540.00	602.00	651.00	623.00	652.00	610.00	602.00	586.00	597.00	547.00	562.00	510.00	479.00	465.00	425.00	407.00	395.00	393.00	390.00	388.00	384.00	384.00	384.00	382.00	382.00	391.00	402.00	406.00	410.00	449.00	454.00	436.00	460.00	478.00	491.00	389.00	405.00	541.00	646.00	652.00	655.00	650.00	655.00	653.00	665.00	648.00	647.00	637.00	638.00	662.00	688.00	676.00	681.00	682.00	690.00	744.00	683.00	661.00	651.00	655.00	675.00	691.00	715.00	744.00	766.00	794.00	846.00	841.00	864.00	891.00	866.00	842.00	840.00	840.00	803.00	812.00	805.00	792.00	782.00	773.00	779.00	782.00	786.00	771.00	774.00	765.00	766.00	746.00	731.00	725.00	713.00	702.00	701.00	683.00	655.00	625.00	627.00	664.00	633.00	612.00	645.00	569.00	544.00	504.00	471.00	549.00	586.00	552.00	578.00	534.00	534.00	508.00	472.00	453.00	419.00	439.00	418.00	399.00	358.00	357.00	349.00	333.00	309.00	191.00	147.00	147.00	147.00	149.00	152.00	153.00	152.00	156.00	168.00	174.00	179.00	188.00	200.00	220.00	225.00	233.00	237.00	238.00	238.00	240.00	241.00	245.00	252.00	253.00	253.00	254.00	254.00	254.00	254.00	255.00	256.00	256.00	255.00	254.00	252.00	252.00	251.00	252.00	251.00	251.00	251.00	246.00	245.00	246.00	239.00	228.00	219.00	216.00	215.00	212.00	211.00	211.00	209.00	201.00	198.00	196.00	195.00	194.00	193.00	193.00	193.00	191.00	185.00	181.00	175.00	184.00	184.00	139.00	130.00	128.00	128.00	127.00	129.00	126.00	123.00	123.00	124.00	124.00	123.00	123.00	117.00
1014.00	959.00	941.00	910.00	864.00	836.00	797.00	782.00	833.00	723.00	680.00	702.00	611.00	626.00	607.00	602.00	665.00	760.00	751.00	740.00	735.00	686.00	732.00	722.00	684.00	683.00	676.00	657.00	642.00	624.00	615.00	603.00	598.00	587.00	591.00	594.00	592.00	595.00	594.00	595.00	587.00	565.00	478.00	447.00	436.00	433.00	430.00	428.00	429.00	432.00	439.00	478.00	578.00	682.00	664.00	674.00	650.00	652.00	632.00	633.00	611.00	613.00	595.00	530.00	540.00	545.00	544.00	433.00	409.00	392.00	387.00	381.00	378.00	376.00	374.00	374.00	376.00	382.00	391.00	407.00	451.00	446.00	414.00	428.00	429.00	372.00	410.00	499.00	548.00	582.00	586.00	594.00	591.00	597.00	612.00	626.00	632.00	638.00	638.00	623.00	629.00	633.00	641.00	639.00	640.00	668.00	709.00	679.00	675.00	655.00	641.00	652.00	658.00	672.00	695.00	708.00	747.00	776.00	784.00	828.00	886.00	907.00	904.00	909.00	895.00	841.00	866.00	835.00	827.00	815.00	803.00	808.00	808.00	817.00	798.00	800.00	791.00	786.00	743.00	719.00	712.00	700.00	684.00	659.00	650.00	634.00	623.00	595.00	576.00	580.00	566.00	568.00	511.00	522.00	507.00	556.00	641.00	617.00	607.00	592.00	571.00	532.00	512.00	485.00	466.00	446.00	416.00	390.00	367.00	372.00	351.00	343.00	330.00	317.00	223.00	155.00	147.00	147.00	148.00	150.00	150.00	152.00	156.00	168.00	174.00	180.00	188.00	199.00	217.00	222.00	230.00	234.00	236.00	236.00	238.00	239.00	241.00	249.00	251.00	252.00	252.00	253.00	254.00	254.00	254.00	255.00	255.00	255.00	255.00	255.00	254.00	254.00	254.00	254.00	254.00	254.00	252.00	252.00	250.00	241.00	227.00	219.00	217.00	215.00	214.00	212.00	210.00	207.00	199.00	197.00	196.00	194.00	192.00	192.00	192.00	192.00	191.00	190.00	189.00	185.00	173.00	174.00	136.00	131.00	130.00	129.00	127.00	127.00	124.00	124.00	126.00	128.00	126.00	120.00	120.00	113.00
1041.00	1005.00	969.00	930.00	869.00	806.00	759.00	710.00	731.00	624.00	602.00	606.00	685.00	811.00	807.00	807.00	824.00	812.00	797.00	780.00	763.00	752.00	689.00	682.00	691.00	695.00	652.00	645.00	637.00	632.00	616.00	603.00	597.00	586.00	583.00	594.00	586.00	583.00	592.00	593.00	591.00	574.00	544.00	444.00	441.00	435.00	428.00	429.00	426.00	426.00	426.00	439.00	482.00	635.00	626.00	643.00	657.00	662.00	654.00	640.00	656.00	642.00	595.00	608.00	563.00	596.00	591.00	547.00	509.00	463.00	435.00	410.00	402.00	388.00	376.00	370.00	364.00	367.00	376.00	387.00	425.00	408.00	391.00	397.00	364.00	363.00	417.00	456.00	486.00	524.00	527.00	543.00	540.00	568.00	585.00	609.00	632.00	623.00	614.00	615.00	617.00	620.00	621.00	621.00	626.00	644.00	683.00	655.00	660.00	656.00	644.00	635.00	643.00	654.00	664.00	673.00	712.00	726.00	760.00	779.00	844.00	888.00	919.00	942.00	939.00	886.00	915.00	869.00	869.00	828.00	840.00	838.00	848.00	842.00	829.00	835.00	826.00	810.00	770.00	738.00	728.00	712.00	708.00	683.00	667.00	655.00	666.00	618.00	611.00	569.00	530.00	535.00	610.00	611.00	601.00	610.00	636.00	606.00	574.00	561.00	558.00	514.00	491.00	471.00	446.00	422.00	393.00	367.00	325.00	305.00	306.00	271.00	248.00	263.00	193.00	167.00	147.00	147.00	147.00	149.00	150.00	152.00	156.00	168.00	174.00	179.00	188.00	197.00	214.00	220.00	228.00	231.00	236.00	236.00	237.00	237.00	239.00	244.00	247.00	250.00	251.00	253.00	253.00	253.00	253.00	253.00	254.00	255.00	255.00	255.00	256.00	257.00	256.00	256.00	255.00	256.00	256.00	255.00	254.00	245.00	225.00	220.00	216.00	215.00	214.00	213.00	208.00	204.00	197.00	196.00	194.00	194.00	191.00	190.00	188.00	186.00	185.00	180.00	178.00	178.00	175.00	154.00	136.00	133.00	130.00	129.00	127.00	127.00	125.00	126.00	127.00	129.00	129.00	126.00	125.00	114.00
1028.00	945.00	910.00	867.00	833.00	858.00	825.00	716.00	604.00	605.00	677.00	789.00	862.00	855.00	820.00	790.00	775.00	749.00	740.00	734.00	721.00	707.00	713.00	749.00	747.00	734.00	693.00	688.00	672.00	654.00	625.00	598.00	594.00	584.00	577.00	576.00	575.00	575.00	584.00	589.00	591.00	591.00	579.00	487.00	439.00	438.00	435.00	425.00	423.00	421.00	420.00	426.00	448.00	579.00	578.00	596.00	625.00	617.00	584.00	598.00	598.00	591.00	537.00	576.00	509.00	507.00	548.00	531.00	536.00	494.00	489.00	435.00	420.00	416.00	406.00	401.00	377.00	368.00	361.00	369.00	395.00	388.00	374.00	357.00	357.00	385.00	382.00	394.00	419.00	475.00	495.00	495.00	508.00	547.00	555.00	573.00	571.00	585.00	607.00	612.00	613.00	615.00	612.00	610.00	616.00	618.00	637.00	658.00	654.00	654.00	669.00	624.00	627.00	634.00	643.00	648.00	684.00	700.00	716.00	734.00	790.00	817.00	835.00	854.00	880.00	881.00	913.00	918.00	894.00	867.00	886.00	873.00	867.00	864.00	868.00	868.00	843.00	836.00	788.00	784.00	758.00	758.00	721.00	721.00	696.00	685.00	662.00	650.00	623.00	582.00	578.00	642.00	659.00	645.00	616.00	617.00	625.00	598.00	518.00	504.00	489.00	475.00	459.00	432.00	409.00	377.00	367.00	368.00	345.00	348.00	291.00	305.00	318.00	261.00	223.00	231.00	156.00	147.00	147.00	148.00	150.00	153.00	158.00	168.00	173.00	179.00	188.00	195.00	210.00	217.00	226.00	228.00	234.00	234.00	235.00	235.00	235.00	240.00	242.00	246.00	248.00	253.00	253.00	254.00	254.00	254.00	254.00	255.00	255.00	256.00	256.00	258.00	257.00	257.00	258.00	258.00	258.00	258.00	259.00	249.00	228.00	218.00	215.00	208.00	205.00	204.00	199.00	195.00	194.00	194.00	193.00	193.00	191.00	191.00	192.00	185.00	179.00	164.00	157.00	152.00	150.00	147.00	142.00	133.00	131.00	129.00	130.00	129.00	127.00	125.00	127.00	129.00	129.00	120.00	114.00	117.00
947.00	907.00	909.00	909.00	910.00	871.00	716.00	611.00	648.00	707.00	803.00	897.00	891.00	802.00	804.00	820.00	826.00	806.00	798.00	781.00	750.00	718.00	760.00	764.00	747.00	723.00	686.00	668.00	651.00	638.00	629.00	597.00	592.00	581.00	578.00	568.00	572.00	580.00	588.00	588.00	588.00	591.00	593.00	580.00	461.00	435.00	433.00	429.00	422.00	418.00	416.00	419.00	448.00	533.00	539.00	560.00	573.00	568.00	569.00	549.00	538.00	542.00	509.00	515.00	490.00	478.00	487.00	475.00	509.00	527.00	489.00	458.00	430.00	411.00	400.00	388.00	379.00	380.00	381.00	361.00	384.00	361.00	350.00	363.00	385.00	422.00	445.00	439.00	408.00	420.00	445.00	443.00	475.00	506.00	530.00	521.00	564.00	581.00	604.00	610.00	615.00	615.00	612.00	606.00	606.00	606.00	617.00	646.00	655.00	638.00	642.00	621.00	620.00	622.00	625.00	632.00	667.00	677.00	683.00	702.00	740.00	757.00	771.00	792.00	801.00	813.00	856.00	919.00	928.00	928.00	946.00	908.00	897.00	888.00	893.00	884.00	878.00	860.00	822.00	805.00	825.00	784.00	771.00	737.00	722.00	700.00	706.00	679.00	624.00	590.00	645.00	673.00	652.00	633.00	605.00	585.00	564.00	557.00	515.00	492.00	492.00	463.00	450.00	427.00	424.00	433.00	414.00	373.00	372.00	388.00	365.00	347.00	323.00	288.00	262.00	258.00	202.00	147.00	147.00	147.00	147.00	151.00	159.00	166.00	172.00	178.00	185.00	192.00	206.00	215.00	224.00	227.00	231.00	232.00	234.00	234.00	234.00	236.00	238.00	241.00	243.00	250.00	252.00	253.00	253.00	254.00	255.00	256.00	256.00	256.00	257.00	259.00	260.00	260.00	259.00	260.00	261.00	261.00	259.00	254.00	228.00	210.00	204.00	199.00	199.00	195.00	193.00	193.00	193.00	193.00	194.00	192.00	189.00	190.00	181.00	165.00	157.00	149.00	147.00	148.00	149.00	149.00	145.00	135.00	132.00	132.00	133.00	132.00	133.00	127.00	127.00	127.00	123.00	113.00	115.00	127.00
989.00	903.00	785.00	715.00	779.00	791.00	716.00	621.00	772.00	868.00	913.00	907.00	854.00	835.00	866.00	849.00	828.00	796.00	775.00	752.00	740.00	737.00	787.00	770.00	746.00	729.00	690.00	685.00	674.00	658.00	640.00	601.00	591.00	578.00	574.00	568.00	566.00	582.00	588.00	588.00	585.00	585.00	584.00	592.00	544.00	466.00	433.00	429.00	425.00	415.00	415.00	415.00	440.00	506.00	506.00	511.00	524.00	540.00	567.00	551.00	533.00	516.00	488.00	478.00	463.00	451.00	447.00	450.00	445.00	455.00	440.00	442.00	433.00	435.00	427.00	410.00	390.00	408.00	406.00	387.00	359.00	348.00	364.00	371.00	385.00	405.00	425.00	435.00	442.00	445.00	465.00	440.00	451.00	440.00	470.00	472.00	492.00	538.00	552.00	573.00	577.00	590.00	611.00	616.00	611.00	601.00	616.00	632.00	643.00	633.00	626.00	619.00	620.00	622.00	623.00	625.00	643.00	652.00	662.00	677.00	700.00	711.00	720.00	733.00	751.00	793.00	817.00	926.00	939.00	975.00	959.00	942.00	939.00	932.00	926.00	930.00	918.00	915.00	876.00	868.00	863.00	816.00	808.00	783.00	751.00	739.00	725.00	681.00	658.00	631.00	677.00	685.00	644.00	623.00	630.00	615.00	623.00	578.00	542.00	558.00	557.00	506.00	472.00	459.00	475.00	434.00	395.00	388.00	424.00	388.00	346.00	330.00	313.00	303.00	277.00	250.00	235.00	168.00	147.00	147.00	147.00	149.00	157.00	166.00	170.00	176.00	182.00	189.00	200.00	209.00	220.00	225.00	230.00	230.00	231.00	232.00	232.00	233.00	234.00	237.00	239.00	249.00	250.00	251.00	252.00	253.00	255.00	256.00	256.00	257.00	258.00	259.00	259.00	260.00	260.00	262.00	261.00	262.00	261.00	259.00	232.00	204.00	200.00	197.00	196.00	193.00	193.00	194.00	195.00	194.00	195.00	191.00	180.00	160.00	150.00	149.00	148.00	144.00	145.00	148.00	149.00	147.00	138.00	135.00	133.00	134.00	133.00	132.00	129.00	125.00	125.00	120.00	114.00	125.00	137.00	135.00
871.00	799.00	663.00	693.00	658.00	645.00	642.00	694.00	882.00	921.00	890.00	872.00	824.00	873.00	882.00	859.00	837.00	795.00	776.00	764.00	773.00	771.00	791.00	767.00	745.00	729.00	705.00	694.00	675.00	667.00	649.00	608.00	593.00	581.00	575.00	564.00	560.00	563.00	581.00	583.00	575.00	580.00	574.00	592.00	589.00	568.00	510.00	447.00	427.00	416.00	412.00	410.00	429.00	479.00	493.00	507.00	534.00	527.00	527.00	535.00	531.00	522.00	500.00	494.00	478.00	467.00	456.00	424.00	416.00	417.00	416.00	420.00	422.00	435.00	447.00	421.00	406.00	405.00	394.00	391.00	362.00	346.00	363.00	371.00	379.00	389.00	399.00	411.00	425.00	451.00	465.00	482.00	503.00	490.00	463.00	522.00	558.00	500.00	524.00	540.00	582.00	578.00	567.00	574.00	576.00	585.00	622.00	626.00	625.00	617.00	616.00	625.00	631.00	661.00	665.00	647.00	630.00	633.00	642.00	654.00	673.00	680.00	691.00	704.00	714.00	757.00	794.00	862.00	925.00	902.00	895.00	927.00	943.00	957.00	987.00	996.00	983.00	951.00	942.00	923.00	883.00	870.00	847.00	820.00	802.00	774.00	750.00	708.00	656.00	693.00	699.00	684.00	659.00	658.00	671.00	652.00	618.00	593.00	577.00	582.00	551.00	510.00	494.00	490.00	471.00	421.00	401.00	426.00	429.00	381.00	366.00	350.00	328.00	294.00	260.00	233.00	210.00	185.00	148.00	146.00	146.00	147.00	154.00	164.00	168.00	174.00	181.00	187.00	197.00	203.00	217.00	222.00	228.00	230.00	229.00	230.00	231.00	229.00	230.00	233.00	236.00	244.00	246.00	248.00	250.00	251.00	254.00	256.00	256.00	257.00	258.00	260.00	260.00	261.00	261.00	263.00	263.00	262.00	262.00	261.00	240.00	204.00	201.00	199.00	196.00	193.00	192.00	193.00	194.00	192.00	193.00	190.00	150.00	146.00	145.00	145.00	144.00	145.00	145.00	147.00	148.00	150.00	138.00	135.00	132.00	132.00	127.00	126.00	126.00	125.00	116.00	114.00	117.00	142.00	141.00	141.00
725.00	667.00	665.00	757.00	767.00	737.00	759.00	820.00	920.00	909.00	909.00	907.00	848.00	886.00	891.00	867.00	843.00	801.00	790.00	800.00	816.00	827.00	788.00	765.00	744.00	723.00	686.00	670.00	654.00	636.00	628.00	617.00	598.00	577.00	570.00	568.00	561.00	550.00	552.00	559.00	577.00	572.00	569.00	585.00	589.00	578.00	559.00	534.00	479.00	418.00	410.00	406.00	417.00	474.00	486.00	496.00	513.00	485.00	481.00	491.00	506.00	521.00	514.00	497.00	472.00	461.00	453.00	436.00	429.00	416.00	401.00	393.00	399.00	426.00	426.00	407.00	403.00	395.00	389.00	384.00	359.00	345.00	357.00	369.00	376.00	386.00	395.00	405.00	419.00	444.00	455.00	475.00	509.00	516.00	527.00	522.00	546.00	565.00	588.00	604.00	619.00	623.00	620.00	624.00	607.00	595.00	590.00	639.00	648.00	621.00	626.00	652.00	647.00	659.00	689.00	697.00	644.00	635.00	635.00	638.00	649.00	656.00	666.00	681.00	695.00	727.00	757.00	813.00	844.00	843.00	892.00	898.00	907.00	903.00	965.00	980.00	1005.00	999.00	984.00	947.00	946.00	942.00	913.00	870.00	834.00	813.00	791.00	710.00	711.00	735.00	719.00	708.00	685.00	697.00	687.00	665.00	622.00	608.00	599.00	569.00	569.00	531.00	512.00	490.00	461.00	439.00	442.00	438.00	420.00	389.00	363.00	337.00	315.00	300.00	250.00	235.00	224.00	203.00	166.00	146.00	146.00	146.00	150.00	162.00	167.00	172.00	179.00	184.00	194.00	198.00	211.00	218.00	225.00	227.00	228.00	228.00	229.00	229.00	228.00	227.00	230.00	238.00	241.00	244.00	246.00	248.00	252.00	253.00	255.00	256.00	257.00	259.00	259.00	260.00	261.00	263.00	263.00	263.00	263.00	263.00	254.00	210.00	205.00	202.00	201.00	195.00	190.00	190.00	191.00	189.00	191.00	177.00	144.00	145.00	148.00	151.00	151.00	153.00	151.00	149.00	152.00	153.00	138.00	135.00	132.00	128.00	130.00	130.00	125.00	122.00	113.00	122.00	139.00	141.00	139.00	139.00
725.00	667.00	665.00	757.00	767.00	737.00	759.00	820.00	920.00	909.00	909.00	907.00	848.00	886.00	891.00	867.00	843.00	801.00	790.00	800.00	816.00	827.00	788.00	765.00	744.00	723.00	686.00	670.00	654.00	636.00	628.00	617.00	598.00	577.00	570.00	568.00	561.00	550.00	552.00	559.00	577.00	572.00	569.00	585.00	589.00	578.00	559.00	534.00	479.00	418.00	410.00	406.00	417.00	474.00	486.00	496.00	513.00	485.00	481.00	491.00	506.00	521.00	514.00	497.00	472.00	461.00	453.00	436.00	429.00	416.00	401.00	393.00	399.00	426.00	426.00	407.00	403.00	395.00	389.00	384.00	359.00	345.00	357.00	369.00	376.00	386.00	395.00	405.00	419.00	444.00	455.00	475.00	509.00	516.00	527.00	522.00	546.00	565.00	588.00	604.00	619.00	623.00	620.00	624.00	607.00	595.00	590.00	639.00	648.00	621.00	626.00	652.00	647.00	659.00	689.00	697.00	644.00	635.00	635.00	638.00	649.00	656.00	666.00	681.00	695.00	727.00	757.00	813.00	844.00	843.00	892.00	898.00	907.00	903.00	965.00	980.00	1005.00	999.00	984.00	947.00	946.00	942.00	913.00	870.00	834.00	813.00	791.00	710.00	711.00	735.00	719.00	708.00	685.00	697.00	687.00	665.00	622.00	608.00	599.00	569.00	569.00	531.00	512.00	490.00	461.00	439.00	442.00	438.00	420.00	389.00	363.00	337.00	315.00	300.00	250.00	235.00	224.00	203.00	166.00	146.00	146.00	146.00	150.00	162.00	167.00	172.00	179.00	184.00	194.00	198.00	211.00	218.00	225.00	227.00	228.00	228.00	229.00	229.00	228.00	227.00	230.00	238.00	241.00	244.00	246.00	248.00	252.00	253.00	255.00	256.00	257.00	259.00	259.00	260.00	261.00	263.00	263.00	263.00	263.00	263.00	254.00	210.00	205.00	202.00	201.00	195.00	190.00	190.00	191.00	189.00	191.00	177.00	144.00	145.00	148.00	151.00	151.00	153.00	151.00	149.00	152.00	153.00	138.00	135.00	132.00	128.00	130.00	130.00	125.00	122.00	113.00	122.00	139.00	141.00	139.00	139.00
678.00	771.00	815.00	905.00	871.00	898.00	922.00	948.00	943.00	927.00	911.00	882.00	881.00	907.00	897.00	871.00	848.00	820.00	837.00	854.00	872.00	853.00	776.00	752.00	732.00	716.00	682.00	669.00	660.00	654.00	639.00	612.00	615.00	590.00	576.00	560.00	554.00	546.00	541.00	545.00	551.00	557.00	575.00	568.00	584.00	586.00	570.00	543.00	524.00	416.00	409.00	405.00	404.00	455.00	457.00	464.00	468.00	454.00	451.00	464.00	484.00	504.00	518.00	501.00	482.00	476.00	460.00	438.00	424.00	415.00	411.00	391.00	385.00	388.00	392.00	391.00	389.00	386.00	379.00	371.00	354.00	343.00	353.00	367.00	376.00	384.00	391.00	401.00	413.00	434.00	446.00	463.00	479.00	510.00	523.00	536.00	553.00	553.00	585.00	596.00	606.00	621.00	619.00	621.00	624.00	611.00	608.00	595.00	619.00	611.00	624.00	670.00	670.00	682.00	697.00	699.00	710.00	685.00	670.00	650.00	642.00	645.00	651.00	661.00	673.00	707.00	723.00	766.00	787.00	833.00	847.00	844.00	880.00	859.00	909.00	922.00	944.00	987.00	999.00	980.00	1005.00	996.00	978.00	919.00	868.00	818.00	770.00	758.00	766.00	769.00	750.00	739.00	727.00	721.00	701.00	685.00	648.00	640.00	597.00	599.00	587.00	539.00	512.00	488.00	480.00	466.00	460.00	435.00	424.00	391.00	368.00	348.00	312.00	287.00	290.00	272.00	252.00	223.00	193.00	146.00	146.00	146.00	147.00	161.00	165.00	170.00	174.00	181.00	195.00	193.00	203.00	211.00	221.00	223.00	226.00	227.00	227.00	228.00	228.00	227.00	226.00	233.00	236.00	239.00	241.00	244.00	248.00	249.00	251.00	253.00	255.00	257.00	257.00	258.00	260.00	261.00	263.00	262.00	262.00	263.00	262.00	228.00	216.00	211.00	205.00	202.00	194.00	189.00	190.00	184.00	166.00	146.00	149.00	154.00	157.00	159.00	160.00	160.00	161.00	160.00	154.00	152.00	140.00	135.00	130.00	126.00	128.00	122.00	122.00	117.00	123.00	140.00	142.00	140.00	141.00	137.00
964.00	1150.00	1147.00	1109.00	1062.00	1036.00	1020.00	989.00	939.00	943.00	975.00	961.00	932.00	951.00	920.00	892.00	869.00	861.00	912.00	900.00	858.00	847.00	818.00	787.00	757.00	731.00	694.00	679.00	666.00	663.00	670.00	655.00	657.00	635.00	622.00	584.00	567.00	557.00	549.00	538.00	528.00	525.00	519.00	524.00	575.00	579.00	578.00	566.00	547.00	524.00	477.00	416.00	402.00	402.00	409.00	413.00	417.00	419.00	421.00	431.00	445.00	462.00	448.00	449.00	496.00	492.00	472.00	447.00	458.00	443.00	427.00	412.00	402.00	389.00	378.00	367.00	365.00	356.00	348.00	343.00	340.00	340.00	344.00	356.00	372.00	380.00	385.00	391.00	400.00	421.00	433.00	445.00	455.00	489.00	503.00	518.00	545.00	559.00	587.00	591.00	604.00	607.00	622.00	627.00	643.00	629.00	619.00	619.00	619.00	614.00	621.00	636.00	676.00	713.00	739.00	734.00	724.00	732.00	727.00	730.00	722.00	728.00	691.00	673.00	657.00	665.00	680.00	708.00	720.00	750.00	764.00	784.00	783.00	800.00	826.00	850.00	888.00	925.00	1036.00	1063.00	1066.00	1057.00	1049.00	939.00	894.00	882.00	886.00	874.00	847.00	873.00	858.00	853.00	834.00	804.00	782.00	765.00	719.00	696.00	647.00	623.00	601.00	562.00	556.00	543.00	530.00	499.00	481.00	458.00	443.00	409.00	363.00	351.00	339.00	312.00	258.00	234.00	219.00	215.00	210.00	146.00	146.00	146.00	146.00	146.00	155.00	165.00	170.00	174.00	181.00	188.00	192.00	196.00	211.00	216.00	220.00	223.00	225.00	229.00	229.00	229.00	228.00	223.00	227.00	231.00	234.00	235.00	238.00	240.00	242.00	243.00	245.00	248.00	250.00	251.00	252.00	255.00	256.00	257.00	258.00	261.00	262.00	264.00	264.00	260.00	234.00	224.00	219.00	213.00	174.00	153.00	152.00	152.00	159.00	158.00	159.00	160.00	160.00	160.00	160.00	160.00	157.00	140.00	133.00	126.00	125.00	123.00	126.00	115.00	113.00	126.00	138.00	139.00	140.00	142.00	141.00	135.00
964.00	1150.00	1147.00	1109.00	1062.00	1036.00	1020.00	989.00	939.00	943.00	975.00	961.00	932.00	951.00	920.00	892.00	869.00	861.00	912.00	900.00	858.00	847.00	818.00	787.00	757.00	731.00	694.00	679.00	666.00	663.00	670.00	655.00	657.00	635.00	622.00	584.00	567.00	557.00	549.00	538.00	528.00	525.00	519.00	524.00	575.00	579.00	578.00	566.00	547.00	524.00	477.00	416.00	402.00	402.00	409.00	413.00	417.00	419.00	421.00	431.00	445.00	462.00	448.00	449.00	496.00	492.00	472.00	447.00	458.00	443.00	427.00	412.00	402.00	389.00	378.00	367.00	365.00	356.00	348.00	343.00	340.00	340.00	344.00	356.00	372.00	380.00	385.00	391.00	400.00	421.00	433.00	445.00	455.00	489.00	503.00	518.00	545.00	559.00	587.00	591.00	604.00	607.00	622.00	627.00	643.00	629.00	619.00	619.00	619.00	614.00	621.00	636.00	676.00	713.00	739.00	734.00	724.00	732.00	727.00	730.00	722.00	728.00	691.00	673.00	657.00	665.00	680.00	708.00	720.00	750.00	764.00	784.00	783.00	800.00	826.00	850.00	888.00	925.00	1036.00	1063.00	1066.00	1057.00	1049.00	939.00	894.00	882.00	886.00	874.00	847.00	873.00	858.00	853.00	834.00	804.00	782.00	765.00	719.00	696.00	647.00	623.00	601.00	562.00	556.00	543.00	530.00	499.00	481.00	458.00	443.00	409.00	363.00	351.00	339.00	312.00	258.00	234.00	219.00	215.00	210.00	146.00	146.00	146.00	146.00	146.00	155.00	165.00	170.00	174.00	181.00	188.00	192.00	196.00	211.00	216.00	220.00	223.00	225.00	229.00	229.00	229.00	228.00	223.00	227.00	231.00	234.00	235.00	238.00	240.00	242.00	243.00	245.00	248.00	250.00	251.00	252.00	255.00	256.00	257.00	258.00	261.00	262.00	264.00	264.00	260.00	234.00	224.00	219.00	213.00	174.00	153.00	152.00	152.00	159.00	158.00	159.00	160.00	160.00	160.00	160.00	160.00	157.00	140.00	133.00	126.00	125.00	123.00	126.00	115.00	113.00	126.00	138.00	139.00	140.00	142.00	141.00	135.00
964.00	1150.00	1147.00	1109.00	1062.00	1036.00	1020.00	989.00	939.00	943.00	975.00	961.00	932.00	951.00	920.00	892.00	869.00	861.00	912.00	900.00	858.00	847.00	818.00	787.00	757.00	731.00	694.00	679.00	666.00	663.00	670.00	655.00	657.00	635.00	622.00	584.00	567.00	557.00	549.00	538.00	528.00	525.00	519.00	524.00	575.00	579.00	578.00	566.00	547.00	524.00	477.00	416.00	402.00	402.00	409.00	413.00	417.00	419.00	421.00	431.00	445.00	462.00	448.00	449.00	496.00	492.00	472.00	447.00	458.00	443.00	427.00	412.00	402.00	389.00	378.00	367.00	365.00	356.00	348.00	343.00	340.00	340.00	344.00	356.00	372.00	380.00	385.00	391.00	400.00	421.00	433.00	445.00	455.00	489.00	503.00	518.00	545.00	559.00	587.00	591.00	604.00	607.00	622.00	627.00	643.00	629.00	619.00	619.00	619.00	614.00	621.00	636.00	676.00	713.00	739.00	734.00	724.00	732.00	727.00	730.00	722.00	728.00	691.00	673.00	657.00	665.00	680.00	708.00	720.00	750.00	764.00	784.00	783.00	800.00	826.00	850.00	888.00	925.00	1036.00	1063.00	1066.00	1057.00	1049.00	939.00	894.00	882.00	886.00	874.00	847.00	873.00	858.00	853.00	834.00	804.00	782.00	765.00	719.00	696.00	647.00	623.00	601.00	562.00	556.00	543.00	530.00	499.00	481.00	458.00	443.00	409.00	363.00	351.00	339.00	312.00	258.00	234.00	219.00	215.00	210.00	146.00	146.00	146.00	146.00	146.00	155.00	165.00	170.00	174.00	181.00	188.00	192.00	196.00	211.00	216.00	220.00	223.00	225.00	229.00	229.00	229.00	228.00	223.00	227.00	231.00	234.00	235.00	238.00	240.00	242.00	243.00	245.00	248.00	250.00	251.00	252.00	255.00	256.00	257.00	258.00	261.00	262.00	264.00	264.00	260.00	234.00	224.00	219.00	213.00	174.00	153.00	152.00	152.00	159.00	158.00	159.00	160.00	160.00	160.00	160.00	160.00	157.00	140.00	133.00	126.00	125.00	123.00	126.00	115.00	113.00	126.00	138.00	139.00	140.00	142.00	141.00	135.00
1144.00	1208.00	1175.00	1143.00	1086.00	1063.00	1021.00	1003.00	967.00	986.00	990.00	996.00	972.00	989.00	946.00	899.00	845.00	833.00	893.00	883.00	813.00	836.00	809.00	776.00	759.00	727.00	691.00	686.00	682.00	680.00	672.00	678.00	672.00	655.00	645.00	611.00	587.00	563.00	550.00	540.00	533.00	530.00	524.00	513.00	559.00	575.00	573.00	575.00	561.00	537.00	514.00	486.00	414.00	397.00	396.00	398.00	400.00	398.00	410.00	418.00	424.00	431.00	423.00	422.00	471.00	468.00	460.00	446.00	491.00	491.00	477.00	423.00	406.00	391.00	379.00	363.00	352.00	342.00	339.00	337.00	342.00	340.00	340.00	343.00	381.00	393.00	398.00	403.00	406.00	426.00	435.00	446.00	463.00	482.00	495.00	519.00	549.00	564.00	598.00	607.00	611.00	615.00	625.00	630.00	634.00	631.00	633.00	632.00	625.00	626.00	630.00	635.00	640.00	664.00	689.00	705.00	698.00	707.00	722.00	734.00	738.00	732.00	722.00	749.00	739.00	665.00	668.00	692.00	706.00	728.00	738.00	752.00	776.00	790.00	804.00	823.00	867.00	913.00	1058.00	1131.00	1148.00	1116.00	1112.00	969.00	978.00	988.00	981.00	956.00	935.00	967.00	954.00	939.00	893.00	877.00	849.00	844.00	759.00	726.00	665.00	654.00	636.00	600.00	586.00	569.00	550.00	502.00	475.00	451.00	432.00	405.00	363.00	326.00	301.00	285.00	280.00	285.00	263.00	269.00	242.00	146.00	146.00	146.00	146.00	146.00	146.00	153.00	162.00	168.00	174.00	181.00	192.00	193.00	203.00	207.00	211.00	215.00	220.00	226.00	227.00	229.00	230.00	221.00	223.00	226.00	228.00	231.00	232.00	234.00	237.00	239.00	242.00	243.00	245.00	246.00	247.00	250.00	251.00	253.00	254.00	257.00	259.00	262.00	263.00	263.00	260.00	252.00	239.00	229.00	162.00	154.00	154.00	151.00	158.00	159.00	159.00	159.00	160.00	157.00	154.00	149.00	144.00	138.00	126.00	125.00	124.00	124.00	117.00	114.00	127.00	139.00	139.00	139.00	141.00	140.00	137.00	130.00
1297.00	1219.00	1168.00	1120.00	1091.00	1080.00	1049.00	1009.00	1041.00	1033.00	1023.00	1004.00	980.00	912.00	860.00	818.00	841.00	763.00	697.00	699.00	689.00	685.00	658.00	651.00	652.00	643.00	625.00	625.00	626.00	634.00	625.00	621.00	612.00	591.00	588.00	581.00	576.00	567.00	554.00	545.00	535.00	531.00	526.00	509.00	533.00	539.00	562.00	566.00	564.00	533.00	526.00	508.00	498.00	392.00	387.00	388.00	388.00	387.00	387.00	387.00	388.00	389.00	405.00	414.00	448.00	453.00	459.00	434.00	417.00	405.00	410.00	426.00	407.00	382.00	364.00	341.00	336.00	335.00	336.00	334.00	334.00	337.00	337.00	339.00	366.00	396.00	410.00	436.00	444.00	462.00	473.00	490.00	503.00	513.00	547.00	552.00	615.00	609.00	638.00	645.00	650.00	657.00	660.00	663.00	664.00	673.00	673.00	662.00	663.00	661.00	658.00	659.00	658.00	659.00	655.00	655.00	703.00	723.00	733.00	728.00	711.00	714.00	718.00	721.00	725.00	772.00	766.00	686.00	684.00	705.00	709.00	729.00	744.00	739.00	763.00	785.00	806.00	831.00	937.00	982.00	1005.00	996.00	965.00	982.00	987.00	1022.00	1082.00	1141.00	1164.00	1225.00	1233.00	1191.00	1091.00	1031.00	986.00	986.00	837.00	787.00	798.00	842.00	776.00	698.00	675.00	617.00	561.00	520.00	501.00	475.00	474.00	430.00	399.00	381.00	370.00	364.00	332.00	331.00	319.00	286.00	286.00	165.00	146.00	146.00	146.00	146.00	146.00	146.00	146.00	147.00	165.00	169.00	179.00	182.00	192.00	196.00	199.00	201.00	203.00	209.00	213.00	218.00	221.00	225.00	222.00	219.00	220.00	222.00	224.00	225.00	227.00	228.00	232.00	235.00	236.00	237.00	238.00	240.00	241.00	240.00	241.00	246.00	248.00	252.00	254.00	254.00	255.00	242.00	197.00	165.00	159.00	157.00	154.00	154.00	156.00	156.00	155.00	152.00	149.00	143.00	142.00	139.00	136.00	126.00	125.00	122.00	116.00	113.00	128.00	135.00	137.00	138.00	137.00	134.00	133.00	137.00	139.00	142.00
1297.00	1219.00	1168.00	1120.00	1091.00	1080.00	1049.00	1009.00	1041.00	1033.00	1023.00	1004.00	980.00	912.00	860.00	818.00	841.00	763.00	697.00	699.00	689.00	685.00	658.00	651.00	652.00	643.00	625.00	625.00	626.00	634.00	625.00	621.00	612.00	591.00	588.00	581.00	576.00	567.00	554.00	545.00	535.00	531.00	526.00	509.00	533.00	539.00	562.00	566.00	564.00	533.00	526.00	508.00	498.00	392.00	387.00	388.00	388.00	387.00	387.00	387.00	388.00	389.00	405.00	414.00	448.00	453.00	459.00	434.00	417.00	405.00	410.00	426.00	407.00	382.00	364.00	341.00	336.00	335.00	336.00	334.00	334.00	337.00	337.00	339.00	366.00	396.00	410.00	436.00	444.00	462.00	473.00	490.00	503.00	513.00	547.00	552.00	615.00	609.00	638.00	645.00	650.00	657.00	660.00	663.00	664.00	673.00	673.00	662.00	663.00	661.00	658.00	659.00	658.00	659.00	655.00	655.00	703.00	723.00	733.00	728.00	711.00	714.00	718.00	721.00	725.00	772.00	766.00	686.00	684.00	705.00	709.00	729.00	744.00	739.00	763.00	785.00	806.00	831.00	937.00	982.00	1005.00	996.00	965.00	982.00	987.00	1022.00	1082.00	1141.00	1164.00	1225.00	1233.00	1191.00	1091.00	1031.00	986.00	986.00	837.00	787.00	798.00	842.00	776.00	698.00	675.00	617.00	561.00	520.00	501.00	475.00	474.00	430.00	399.00	381.00	370.00	364.00	332.00	331.00	319.00	286.00	286.00	165.00	146.00	146.00	146.00	146.00	146.00	146.00	146.00	147.00	165.00	169.00	179.00	182.00	192.00	196.00	199.00	201.00	203.00	209.00	213.00	218.00	221.00	225.00	222.00	219.00	220.00	222.00	224.00	225.00	227.00	228.00	232.00	235.00	236.00	237.00	238.00	240.00	241.00	240.00	241.00	246.00	248.00	252.00	254.00	254.00	255.00	242.00	197.00	165.00	159.00	157.00	154.00	154.00	156.00	156.00	155.00	152.00	149.00	143.00	142.00	139.00	136.00	126.00	125.00	122.00	116.00	113.00	128.00	135.00	137.00	138.00	137.00	134.00	133.00	137.00	139.00	142.00
1217.00	1176.00	1176.00	1172.00	1122.00	1090.00	1040.00	1053.00	1050.00	1039.00	1028.00	1020.00	899.00	865.00	879.00	909.00	852.00	703.00	763.00	831.00	805.00	769.00	754.00	716.00	684.00	689.00	675.00	659.00	636.00	621.00	599.00	581.00	583.00	574.00	568.00	561.00	558.00	553.00	547.00	543.00	532.00	528.00	524.00	513.00	507.00	519.00	544.00	553.00	561.00	551.00	536.00	526.00	502.00	409.00	388.00	386.00	385.00	384.00	383.00	381.00	381.00	383.00	387.00	400.00	416.00	436.00	471.00	463.00	456.00	434.00	405.00	375.00	372.00	374.00	352.00	336.00	334.00	335.00	334.00	332.00	335.00	336.00	340.00	345.00	368.00	401.00	437.00	456.00	470.00	503.00	517.00	533.00	560.00	547.00	589.00	610.00	643.00	643.00	668.00	667.00	675.00	679.00	687.00	690.00	690.00	697.00	697.00	682.00	683.00	677.00	676.00	674.00	669.00	668.00	670.00	663.00	685.00	699.00	719.00	735.00	748.00	737.00	723.00	722.00	723.00	754.00	760.00	732.00	705.00	687.00	694.00	707.00	717.00	721.00	747.00	761.00	777.00	791.00	869.00	891.00	901.00	898.00	897.00	937.00	932.00	955.00	983.00	1038.00	1065.00	1114.00	1128.00	1147.00	1160.00	1116.00	1124.00	1052.00	876.00	853.00	860.00	835.00	793.00	764.00	714.00	640.00	623.00	552.00	538.00	527.00	523.00	474.00	436.00	416.00	411.00	394.00	363.00	356.00	341.00	323.00	305.00	206.00	154.00	146.00	146.00	146.00	146.00	147.00	148.00	146.00	155.00	162.00	171.00	177.00	184.00	188.00	194.00	196.00	198.00	201.00	202.00	204.00	208.00	217.00	219.00	219.00	218.00	217.00	219.00	220.00	221.00	223.00	225.00	230.00	231.00	232.00	234.00	237.00	238.00	238.00	238.00	240.00	241.00	244.00	243.00	246.00	201.00	171.00	164.00	162.00	157.00	155.00	154.00	154.00	153.00	152.00	149.00	147.00	144.00	139.00	136.00	132.00	129.00	126.00	119.00	114.00	115.00	124.00	137.00	138.00	137.00	136.00	136.00	140.00	144.00	146.00	145.00	142.00
1286.00	1253.00	1226.00	1181.00	1103.00	1067.00	1078.00	1084.00	1050.00	1042.00	1026.00	998.00	986.00	943.00	914.00	880.00	787.00	748.00	862.00	914.00	837.00	821.00	806.00	776.00	744.00	732.00	701.00	683.00	665.00	648.00	635.00	595.00	584.00	570.00	555.00	543.00	539.00	536.00	534.00	534.00	531.00	527.00	521.00	509.00	504.00	521.00	536.00	547.00	557.00	546.00	545.00	532.00	514.00	466.00	436.00	396.00	382.00	381.00	378.00	378.00	377.00	377.00	379.00	380.00	416.00	452.00	458.00	452.00	442.00	429.00	408.00	381.00	366.00	353.00	343.00	335.00	333.00	332.00	332.00	331.00	335.00	336.00	343.00	349.00	379.00	423.00	437.00	434.00	465.00	515.00	536.00	555.00	577.00	593.00	606.00	642.00	664.00	674.00	694.00	696.00	707.00	709.00	716.00	736.00	736.00	734.00	725.00	715.00	708.00	699.00	694.00	691.00	690.00	686.00	682.00	676.00	678.00	684.00	688.00	704.00	743.00	760.00	774.00	760.00	746.00	730.00	739.00	732.00	720.00	687.00	688.00	696.00	702.00	707.00	730.00	747.00	756.00	761.00	812.00	827.00	834.00	844.00	852.00	881.00	888.00	911.00	931.00	987.00	1001.00	1023.00	1051.00	1096.00	1091.00	1084.00	1124.00	1112.00	934.00	914.00	910.00	878.00	844.00	748.00	690.00	662.00	677.00	633.00	661.00	612.00	588.00	547.00	494.00	475.00	475.00	442.00	415.00	402.00	381.00	356.00	319.00	213.00	178.00	154.00	146.00	146.00	146.00	146.00	146.00	146.00	146.00	151.00	162.00	167.00	176.00	179.00	182.00	187.00	190.00	190.00	188.00	190.00	192.00	199.00	202.00	207.00	210.00	213.00	215.00	215.00	216.00	218.00	221.00	223.00	227.00	229.00	230.00	231.00	234.00	234.00	235.00	236.00	236.00	234.00	219.00	194.00	166.00	163.00	161.00	159.00	156.00	155.00	154.00	153.00	149.00	146.00	144.00	141.00	138.00	133.00	131.00	129.00	127.00	120.00	113.00	116.00	125.00	134.00	140.00	141.00	142.00	143.00	146.00	147.00	150.00	149.00	149.00	145.00
1285.00	1238.00	1218.00	1187.00	1097.00	1125.00	1111.00	1083.00	1037.00	1018.00	993.00	968.00	984.00	916.00	886.00	809.00	742.00	770.00	863.00	899.00	873.00	900.00	800.00	775.00	750.00	731.00	700.00	686.00	668.00	653.00	628.00	631.00	606.00	610.00	589.00	561.00	547.00	537.00	527.00	520.00	515.00	514.00	513.00	508.00	497.00	494.00	512.00	523.00	544.00	536.00	533.00	531.00	538.00	488.00	480.00	460.00	402.00	379.00	376.00	374.00	372.00	372.00	374.00	375.00	395.00	424.00	441.00	448.00	443.00	436.00	442.00	413.00	375.00	348.00	339.00	334.00	332.00	332.00	330.00	333.00	334.00	339.00	346.00	372.00	391.00	421.00	456.00	463.00	481.00	512.00	536.00	561.00	588.00	636.00	682.00	706.00	690.00	715.00	733.00	728.00	748.00	754.00	772.00	780.00	812.00	797.00	791.00	775.00	764.00	742.00	727.00	726.00	726.00	714.00	705.00	694.00	696.00	699.00	699.00	695.00	717.00	741.00	762.00	765.00	764.00	739.00	729.00	712.00	705.00	694.00	695.00	693.00	695.00	700.00	715.00	732.00	737.00	736.00	773.00	786.00	798.00	809.00	820.00	844.00	862.00	881.00	893.00	945.00	963.00	1010.00	1016.00	1035.00	1039.00	1061.00	1075.00	1064.00	1029.00	970.00	1025.00	976.00	877.00	758.00	752.00	729.00	709.00	721.00	741.00	697.00	706.00	645.00	575.00	558.00	559.00	504.00	478.00	453.00	426.00	393.00	353.00	241.00	203.00	168.00	148.00	146.00	146.00	146.00	146.00	146.00	146.00	143.00	152.00	158.00	165.00	170.00	172.00	172.00	174.00	179.00	180.00	182.00	183.00	185.00	187.00	189.00	192.00	196.00	202.00	206.00	205.00	205.00	203.00	211.00	215.00	220.00	223.00	229.00	227.00	227.00	228.00	218.00	203.00	162.00	147.00	141.00	137.00	137.00	139.00	141.00	145.00	147.00	147.00	147.00	142.00	140.00	137.00	136.00	133.00	130.00	126.00	121.00	118.00	114.00	123.00	131.00	138.00	139.00	141.00	142.00	143.00	145.00	146.00	146.00	146.00	147.00	145.00	148.00
1280.00	1224.00	1184.00	1148.00	1149.00	1130.00	1100.00	1074.00	1020.00	1001.00	986.00	998.00	923.00	888.00	852.00	792.00	735.00	845.00	930.00	943.00	941.00	920.00	826.00	794.00	763.00	743.00	708.00	691.00	674.00	658.00	643.00	628.00	620.00	617.00	609.00	606.00	581.00	590.00	566.00	544.00	515.00	508.00	501.00	492.00	486.00	480.00	481.00	502.00	520.00	519.00	524.00	532.00	531.00	509.00	500.00	480.00	426.00	379.00	374.00	373.00	371.00	371.00	368.00	370.00	374.00	417.00	431.00	454.00	448.00	443.00	434.00	402.00	391.00	339.00	334.00	332.00	332.00	332.00	332.00	336.00	385.00	399.00	402.00	402.00	424.00	435.00	459.00	493.00	525.00	575.00	593.00	624.00	632.00	656.00	701.00	746.00	742.00	773.00	774.00	796.00	805.00	810.00	829.00	819.00	850.00	828.00	841.00	847.00	823.00	795.00	770.00	787.00	778.00	755.00	740.00	725.00	748.00	739.00	727.00	715.00	710.00	723.00	732.00	736.00	749.00	748.00	739.00	737.00	728.00	715.00	705.00	700.00	698.00	700.00	704.00	709.00	716.00	721.00	753.00	763.00	775.00	787.00	798.00	821.00	837.00	851.00	863.00	907.00	934.00	967.00	969.00	975.00	1022.00	1024.00	1011.00	1011.00	1013.00	997.00	1033.00	1026.00	922.00	834.00	819.00	835.00	787.00	829.00	844.00	821.00	830.00	769.00	628.00	646.00	617.00	572.00	558.00	529.00	505.00	463.00	433.00	292.00	261.00	206.00	167.00	146.00	146.00	146.00	146.00	146.00	140.00	140.00	139.00	144.00	156.00	157.00	160.00	162.00	164.00	166.00	168.00	170.00	173.00	180.00	178.00	179.00	182.00	185.00	181.00	174.00	159.00	149.00	144.00	146.00	149.00	157.00	163.00	170.00	167.00	161.00	149.00	130.00	124.00	117.00	116.00	117.00	118.00	118.00	117.00	116.00	117.00	121.00	126.00	129.00	131.00	130.00	128.00	126.00	125.00	117.00	116.00	115.00	114.00	125.00	141.00	143.00	146.00	146.00	149.00	150.00	150.00	150.00	151.00	151.00	151.00	151.00	151.00	152.00
1240.00	1194.00	1164.00	1165.00	1142.00	1115.00	1095.00	1064.00	1023.00	1003.00	1009.00	976.00	887.00	830.00	774.00	744.00	786.00	862.00	925.00	959.00	962.00	928.00	831.00	797.00	769.00	747.00	718.00	700.00	684.00	664.00	670.00	644.00	649.00	656.00	649.00	631.00	618.00	619.00	604.00	588.00	554.00	535.00	515.00	493.00	482.00	478.00	472.00	472.00	485.00	488.00	505.00	527.00	528.00	522.00	502.00	480.00	437.00	385.00	371.00	371.00	369.00	368.00	365.00	363.00	368.00	385.00	424.00	451.00	454.00	437.00	431.00	393.00	371.00	346.00	335.00	331.00	337.00	366.00	398.00	441.00	496.00	516.00	502.00	513.00	515.00	527.00	540.00	558.00	580.00	631.00	656.00	651.00	674.00	704.00	718.00	747.00	814.00	846.00	839.00	842.00	874.00	876.00	862.00	862.00	870.00	853.00	871.00	829.00	840.00	825.00	847.00	878.00	864.00	834.00	828.00	786.00	759.00	758.00	751.00	747.00	731.00	732.00	733.00	743.00	749.00	775.00	759.00	762.00	747.00	722.00	713.00	709.00	708.00	709.00	706.00	707.00	709.00	714.00	741.00	752.00	763.00	773.00	784.00	802.00	816.00	827.00	849.00	877.00	901.00	920.00	930.00	940.00	980.00	977.00	965.00	957.00	966.00	964.00	986.00	1002.00	991.00	937.00	946.00	951.00	907.00	951.00	962.00	961.00	961.00	853.00	754.00	744.00	705.00	693.00	662.00	646.00	598.00	567.00	528.00	425.00	347.00	295.00	238.00	151.00	146.00	146.00	144.00	133.00	136.00	138.00	137.00	136.00	143.00	147.00	150.00	151.00	153.00	155.00	156.00	157.00	157.00	161.00	163.00	164.00	165.00	163.00	147.00	145.00	143.00	143.00	142.00	140.00	139.00	135.00	134.00	133.00	130.00	128.00	126.00	118.00	118.00	127.00	130.00	131.00	130.00	128.00	126.00	125.00	120.00	117.00	116.00	116.00	119.00	119.00	118.00	116.00	114.00	114.00	116.00	121.00	128.00	141.00	148.00	150.00	152.00	154.00	156.00	156.00	157.00	158.00	158.00	157.00	157.00	156.00	155.00	152.00
1223.00	1212.00	1206.00	1189.00	1151.00	1125.00	1089.00	1063.00	1028.00	1019.00	1007.00	957.00	847.00	754.00	767.00	778.00	814.00	863.00	864.00	896.00	938.00	938.00	832.00	811.00	793.00	766.00	725.00	705.00	689.00	687.00	685.00	672.00	688.00	705.00	709.00	686.00	670.00	660.00	638.00	623.00	586.00	576.00	550.00	519.00	489.00	481.00	473.00	467.00	463.00	478.00	487.00	505.00	528.00	523.00	505.00	484.00	473.00	436.00	374.00	370.00	369.00	365.00	362.00	362.00	363.00	380.00	441.00	462.00	462.00	452.00	429.00	410.00	401.00	392.00	374.00	335.00	437.00	502.00	525.00	555.00	569.00	570.00	559.00	571.00	576.00	585.00	605.00	614.00	626.00	670.00	687.00	677.00	672.00	703.00	737.00	766.00	835.00	871.00	850.00	858.00	883.00	860.00	833.00	824.00	850.00	829.00	835.00	795.00	829.00	829.00	852.00	957.00	958.00	935.00	893.00	857.00	772.00	771.00	763.00	758.00	763.00	764.00	779.00	769.00	777.00	779.00	778.00	766.00	751.00	738.00	732.00	729.00	726.00	724.00	715.00	714.00	713.00	713.00	736.00	743.00	751.00	759.00	766.00	788.00	799.00	817.00	834.00	851.00	892.00	887.00	902.00	919.00	952.00	955.00	921.00	938.00	946.00	969.00	953.00	977.00	988.00	956.00	989.00	984.00	953.00	981.00	931.00	929.00	941.00	940.00	900.00	880.00	866.00	850.00	823.00	803.00	747.00	691.00	622.00	498.00	458.00	463.00	376.00	212.00	163.00	144.00	141.00	130.00	127.00	133.00	136.00	136.00	135.00	136.00	139.00	141.00	142.00	144.00	144.00	144.00	144.00	143.00	142.00	142.00	141.00	140.00	140.00	141.00	140.00	141.00	141.00	139.00	134.00	131.00	130.00	125.00	123.00	120.00	118.00	126.00	132.00	135.00	136.00	138.00	136.00	136.00	134.00	131.00	130.00	128.00	124.00	121.00	114.00	115.00	117.00	120.00	124.00	134.00	137.00	140.00	143.00	149.00	153.00	154.00	155.00	157.00	160.00	160.00	161.00	160.00	160.00	160.00	159.00	158.00	157.00	155.00
1244.00	1226.00	1211.00	1190.00	1114.00	1091.00	1057.00	1059.00	1057.00	1010.00	944.00	898.00	790.00	795.00	837.00	827.00	795.00	830.00	830.00	856.00	906.00	937.00	863.00	842.00	804.00	773.00	737.00	735.00	732.00	726.00	721.00	714.00	736.00	764.00	764.00	752.00	733.00	712.00	695.00	668.00	625.00	601.00	578.00	548.00	522.00	503.00	492.00	477.00	463.00	464.00	487.00	497.00	518.00	527.00	515.00	493.00	489.00	461.00	441.00	443.00	420.00	384.00	359.00	359.00	367.00	420.00	444.00	477.00	477.00	465.00	467.00	493.00	483.00	451.00	443.00	338.00	474.00	500.00	535.00	533.00	545.00	593.00	601.00	610.00	606.00	624.00	669.00	665.00	620.00	666.00	678.00	692.00	662.00	652.00	659.00	717.00	851.00	813.00	761.00	776.00	817.00	785.00	791.00	788.00	857.00	819.00	795.00	749.00	778.00	832.00	862.00	919.00	941.00	949.00	944.00	905.00	805.00	812.00	805.00	799.00	796.00	790.00	799.00	797.00	814.00	807.00	803.00	787.00	781.00	775.00	767.00	759.00	753.00	743.00	728.00	726.00	723.00	721.00	730.00	735.00	741.00	748.00	756.00	777.00	788.00	801.00	813.00	847.00	855.00	873.00	891.00	890.00	912.00	910.00	913.00	938.00	928.00	958.00	932.00	942.00	955.00	938.00	948.00	947.00	932.00	978.00	924.00	901.00	921.00	899.00	869.00	861.00	858.00	858.00	843.00	851.00	853.00	814.00	744.00	624.00	563.00	509.00	448.00	350.00	286.00	232.00	183.00	147.00	124.00	126.00	133.00	135.00	134.00	134.00	136.00	137.00	138.00	137.00	137.00	139.00	139.00	139.00	138.00	137.00	137.00	136.00	136.00	136.00	135.00	133.00	128.00	120.00	119.00	119.00	120.00	120.00	119.00	122.00	126.00	134.00	134.00	135.00	136.00	138.00	136.00	135.00	134.00	133.00	130.00	131.00	130.00	127.00	128.00	131.00	133.00	134.00	137.00	142.00	143.00	146.00	149.00	153.00	156.00	157.00	158.00	160.00	162.00	162.00	162.00	162.00	162.00	161.00	160.00	159.00	158.00	156.00
1209.00	1184.00	1198.00	1158.00	1040.00	997.00	992.00	1014.00	1004.00	959.00	909.00	861.00	781.00	830.00	836.00	857.00	825.00	805.00	819.00	838.00	883.00	923.00	855.00	832.00	818.00	798.00	801.00	805.00	790.00	768.00	753.00	755.00	785.00	836.00	830.00	821.00	799.00	783.00	762.00	717.00	664.00	640.00	609.00	572.00	555.00	541.00	538.00	526.00	512.00	464.00	480.00	501.00	516.00	523.00	525.00	511.00	503.00	484.00	476.00	471.00	458.00	437.00	390.00	384.00	355.00	365.00	403.00	477.00	496.00	495.00	508.00	491.00	507.00	517.00	508.00	353.00	350.00	356.00	370.00	367.00	467.00	554.00	541.00	519.00	532.00	569.00	594.00	591.00	547.00	544.00	545.00	573.00	596.00	573.00	627.00	687.00	802.00	773.00	713.00	776.00	833.00	757.00	735.00	773.00	851.00	847.00	722.00	783.00	855.00	851.00	863.00	900.00	903.00	919.00	934.00	944.00	890.00	892.00	900.00	893.00	882.00	870.00	857.00	869.00	870.00	858.00	862.00	844.00	837.00	824.00	815.00	801.00	785.00	783.00	745.00	742.00	739.00	735.00	731.00	733.00	737.00	743.00	751.00	772.00	782.00	791.00	802.00	826.00	846.00	864.00	863.00	875.00	877.00	898.00	911.00	896.00	921.00	931.00	915.00	936.00	934.00	913.00	902.00	919.00	908.00	939.00	917.00	871.00	897.00	845.00	834.00	845.00	819.00	827.00	805.00	830.00	843.00	831.00	826.00	734.00	665.00	613.00	522.00	470.00	443.00	409.00	316.00	278.00	154.00	132.00	124.00	124.00	127.00	129.00	132.00	133.00	135.00	136.00	136.00	133.00	132.00	131.00	131.00	130.00	130.00	127.00	122.00	121.00	120.00	121.00	124.00	125.00	125.00	125.00	125.00	125.00	128.00	132.00	135.00	136.00	137.00	137.00	135.00	134.00	136.00	134.00	135.00	134.00	131.00	131.00	131.00	130.00	137.00	139.00	140.00	142.00	145.00	146.00	147.00	149.00	151.00	152.00	152.00	155.00	157.00	158.00	162.00	163.00	163.00	163.00	162.00	162.00	160.00	159.00	158.00	158.00
1128.00	1109.00	1154.00	1172.00	1066.00	1030.00	963.00	930.00	980.00	949.00	887.00	824.00	843.00	836.00	844.00	853.00	829.00	809.00	813.00	823.00	848.00	874.00	881.00	878.00	856.00	848.00	868.00	851.00	823.00	806.00	790.00	753.00	757.00	791.00	825.00	886.00	871.00	862.00	817.00	797.00	726.00	682.00	653.00	607.00	580.00	566.00	551.00	538.00	532.00	506.00	481.00	471.00	485.00	509.00	512.00	515.00	496.00	484.00	481.00	476.00	470.00	461.00	447.00	440.00	364.00	353.00	350.00	365.00	385.00	385.00	405.00	421.00	400.00	409.00	392.00	340.00	329.00	328.00	327.00	325.00	394.00	430.00	435.00	430.00	444.00	479.00	497.00	523.00	525.00	473.00	531.00	584.00	574.00	552.00	626.00	648.00	683.00	648.00	690.00	702.00	738.00	689.00	689.00	702.00	755.00	793.00	697.00	771.00	828.00	855.00	884.00	878.00	873.00	884.00	884.00	902.00	924.00	945.00	956.00	944.00	971.00	961.00	954.00	955.00	954.00	932.00	940.00	927.00	921.00	902.00	881.00	868.00	842.00	831.00	781.00	766.00	760.00	750.00	738.00	740.00	742.00	744.00	749.00	762.00	771.00	777.00	787.00	805.00	827.00	833.00	839.00	851.00	877.00	891.00	872.00	893.00	906.00	918.00	914.00	918.00	912.00	887.00	877.00	891.00	887.00	887.00	882.00	854.00	851.00	823.00	828.00	797.00	808.00	782.00	787.00	810.00	811.00	808.00	796.00	836.00	782.00	774.00	703.00	638.00	623.00	558.00	483.00	400.00	361.00	270.00	274.00	220.00	139.00	125.00	123.00	123.00	123.00	125.00	124.00	123.00	123.00	121.00	120.00	121.00	121.00	123.00	126.00	128.00	130.00	131.00	132.00	128.00	126.00	125.00	126.00	133.00	136.00	138.00	138.00	138.00	136.00	138.00	138.00	134.00	134.00	132.00	131.00	132.00	132.00	134.00	136.00	138.00	142.00	144.00	146.00	148.00	147.00	147.00	149.00	151.00	152.00	154.00	154.00	152.00	149.00	150.00	151.00	153.00	158.00	160.00	161.00	161.00	161.00	160.00	160.00	157.00
1128.00	1109.00	1154.00	1172.00	1066.00	1030.00	963.00	930.00	980.00	949.00	887.00	824.00	843.00	836.00	844.00	853.00	829.00	809.00	813.00	823.00	848.00	874.00	881.00	878.00	856.00	848.00	868.00	851.00	823.00	806.00	790.00	753.00	757.00	791.00	825.00	886.00	871.00	862.00	817.00	797.00	726.00	682.00	653.00	607.00	580.00	566.00	551.00	538.00	532.00	506.00	481.00	471.00	485.00	509.00	512.00	515.00	496.00	484.00	481.00	476.00	470.00	461.00	447.00	440.00	364.00	353.00	350.00	365.00	385.00	385.00	405.00	421.00	400.00	409.00	392.00	340.00	329.00	328.00	327.00	325.00	394.00	430.00	435.00	430.00	444.00	479.00	497.00	523.00	525.00	473.00	531.00	584.00	574.00	552.00	626.00	648.00	683.00	648.00	690.00	702.00	738.00	689.00	689.00	702.00	755.00	793.00	697.00	771.00	828.00	855.00	884.00	878.00	873.00	884.00	884.00	902.00	924.00	945.00	956.00	944.00	971.00	961.00	954.00	955.00	954.00	932.00	940.00	927.00	921.00	902.00	881.00	868.00	842.00	831.00	781.00	766.00	760.00	750.00	738.00	740.00	742.00	744.00	749.00	762.00	771.00	777.00	787.00	805.00	827.00	833.00	839.00	851.00	877.00	891.00	872.00	893.00	906.00	918.00	914.00	918.00	912.00	887.00	877.00	891.00	887.00	887.00	882.00	854.00	851.00	823.00	828.00	797.00	808.00	782.00	787.00	810.00	811.00	808.00	796.00	836.00	782.00	774.00	703.00	638.00	623.00	558.00	483.00	400.00	361.00	270.00	274.00	220.00	139.00	125.00	123.00	123.00	123.00	125.00	124.00	123.00	123.00	121.00	120.00	121.00	121.00	123.00	126.00	128.00	130.00	131.00	132.00	128.00	126.00	125.00	126.00	133.00	136.00	138.00	138.00	138.00	136.00	138.00	138.00	134.00	134.00	132.00	131.00	132.00	132.00	134.00	136.00	138.00	142.00	144.00	146.00	148.00	147.00	147.00	149.00	151.00	152.00	154.00	154.00	152.00	149.00	150.00	151.00	153.00	158.00	160.00	161.00	161.00	161.00	160.00	160.00	157.00
961.00	942.00	949.00	953.00	908.00	883.00	891.00	916.00	846.00	813.00	824.00	852.00	860.00	860.00	860.00	856.00	854.00	868.00	885.00	899.00	912.00	947.00	959.00	929.00	874.00	889.00	934.00	883.00	819.00	759.00	717.00	673.00	655.00	659.00	677.00	690.00	690.00	681.00	676.00	678.00	656.00	677.00	712.00	662.00	588.00	557.00	533.00	517.00	501.00	529.00	531.00	529.00	523.00	494.00	479.00	449.00	460.00	478.00	453.00	429.00	420.00	415.00	383.00	384.00	402.00	419.00	410.00	373.00	348.00	345.00	344.00	340.00	339.00	337.00	336.00	332.00	331.00	330.00	326.00	325.00	320.00	319.00	319.00	321.00	332.00	362.00	371.00	380.00	392.00	413.00	417.00	418.00	433.00	474.00	486.00	500.00	541.00	557.00	541.00	571.00	581.00	585.00	597.00	602.00	607.00	612.00	616.00	659.00	674.00	691.00	718.00	798.00	827.00	858.00	866.00	855.00	799.00	807.00	817.00	865.00	857.00	900.00	925.00	968.00	1012.00	1089.00	1151.00	1172.00	1164.00	1115.00	1062.00	1056.00	1009.00	1012.00	878.00	844.00	819.00	813.00	789.00	793.00	792.00	789.00	795.00	793.00	802.00	800.00	802.00	805.00	810.00	816.00	826.00	834.00	841.00	846.00	851.00	859.00	879.00	883.00	895.00	899.00	887.00	862.00	840.00	827.00	831.00	806.00	819.00	797.00	788.00	769.00	785.00	784.00	744.00	730.00	745.00	754.00	759.00	725.00	762.00	776.00	737.00	744.00	789.00	704.00	758.00	752.00	725.00	746.00	710.00	656.00	635.00	610.00	474.00	475.00	456.00	379.00	395.00	443.00	435.00	418.00	431.00	355.00	331.00	284.00	260.00	252.00	253.00	238.00	203.00	204.00	161.00	139.00	138.00	140.00	139.00	137.00	136.00	137.00	137.00	136.00	137.00	136.00	137.00	137.00	137.00	138.00	140.00	142.00	145.00	146.00	147.00	147.00	145.00	147.00	151.00	154.00	157.00	160.00	161.00	161.00	162.00	161.00	161.00	160.00	159.00	158.00	155.00	152.00	150.00	149.00	151.00	149.00	155.00	162.00	165.00	154.00
1055.00	1027.00	978.00	948.00	933.00	930.00	925.00	898.00	849.00	875.00	872.00	854.00	877.00	893.00	896.00	901.00	903.00	929.00	920.00	909.00	927.00	967.00	902.00	868.00	852.00	811.00	885.00	841.00	783.00	751.00	722.00	663.00	627.00	615.00	625.00	626.00	622.00	613.00	611.00	608.00	597.00	600.00	614.00	597.00	551.00	527.00	514.00	505.00	491.00	483.00	491.00	495.00	504.00	527.00	518.00	513.00	512.00	500.00	482.00	481.00	477.00	476.00	420.00	419.00	437.00	443.00	436.00	388.00	353.00	345.00	343.00	341.00	339.00	337.00	337.00	332.00	330.00	329.00	327.00	326.00	322.00	319.00	317.00	317.00	315.00	329.00	342.00	350.00	361.00	382.00	392.00	393.00	407.00	445.00	465.00	481.00	498.00	490.00	526.00	546.00	547.00	537.00	556.00	572.00	564.00	583.00	590.00	613.00	620.00	634.00	655.00	713.00	752.00	775.00	792.00	835.00	741.00	748.00	764.00	793.00	816.00	857.00	881.00	908.00	932.00	987.00	1049.00	1063.00	1044.00	1096.00	1141.00	1136.00	1099.00	1052.00	956.00	902.00	876.00	879.00	852.00	842.00	841.00	841.00	841.00	832.00	840.00	853.00	848.00	835.00	842.00	843.00	848.00	857.00	871.00	873.00	872.00	883.00	892.00	900.00	913.00	925.00	904.00	861.00	847.00	835.00	829.00	788.00	776.00	762.00	763.00	740.00	746.00	754.00	731.00	704.00	724.00	718.00	743.00	697.00	724.00	749.00	707.00	709.00	751.00	669.00	714.00	697.00	736.00	729.00	730.00	685.00	672.00	662.00	621.00	591.00	532.00	490.00	459.00	501.00	533.00	598.00	620.00	528.00	466.00	433.00	397.00	418.00	398.00	384.00	366.00	379.00	315.00	187.00	208.00	245.00	280.00	217.00	190.00	170.00	152.00	140.00	139.00	138.00	139.00	141.00	144.00	146.00	148.00	149.00	152.00	152.00	153.00	154.00	162.00	171.00	171.00	168.00	171.00	173.00	170.00	166.00	164.00	163.00	161.00	161.00	161.00	161.00	158.00	156.00	154.00	150.00	148.00	147.00	144.00	136.00	133.00	131.00
