1390.00	1344.00	1267.00	1186.00	1133.00	1116.00	1150.00	1214.00	1246.00	1303.00	1356.00	1500.00	1524.00	1513.00	1509.00	1432.00	1259.00	1314.00	1353.00	1357.00	1235.00	1305.00	1384.00	1453.00	1559.00	1569.00	1472.00	1276.00	1192.00	1028.00	946.00	913.00	906.00	912.00	928.00	949.00	972.00	999.00	1220.00	1192.00	1156.00	1173.00	1344.00	1442.00	1529.00	1585.00	1511.00	1336.00	1178.00	1120.00	1086.00	1059.00	1060.00	1095.00	1183.00	1276.00	1444.00	1420.00	1344.00	1405.00	1501.00	1499.00	1465.00	1467.00	1431.00	1236.00	1197.00	1282.00	1376.00	1334.00	1250.00	1164.00	1093.00	1083.00	1220.00	1317.00	1367.00	1279.00	1253.00	1282.00	1367.00	1414.00	1378.00	1210.00	1157.00	1193.00	1238.00	1107.00	1145.00	1219.00	1363.00	1422.00	1446.00	1519.00	1498.00	1418.00	1303.00	1286.00	1315.00	1347.00	1389.00	1251.00	1167.00	1104.00	1045.00	961.00	1020.00	1078.00	1065.00	1002.00	925.00	880.00	878.00	870.00	858.00	855.00	855.00	856.00	857.00	849.00	848.00	849.00	851.00	847.00	847.00	847.00	847.00	850.00	918.00	1009.00	1092.00	1170.00	1296.00	1208.00	1122.00	1143.00	1216.00	1347.00	1429.00	1539.00	1516.00	1399.00	1495.00	1550.00	1527.00	1430.00	1303.00	1270.00	1238.00	1206.00	1171.00	1144.00	1112.00	1085.00	1100.00	1104.00	1176.00	1281.00	1370.00	1305.00	1244.00	1223.00	1241.00	1338.00	1334.00	1372.00	1422.00	1472.00	1383.00	1335.00	1330.00	1283.00	1171.00	1125.00	1058.00	1129.00	1107.00	1025.00	1032.00	1072.00	1135.00	1202.00	1247.00	1316.00	1389.00	1342.00	1236.00	1175.00	1107.00	1103.00	1023.00	978.00	982.00	998.00	1002.00	780.00	746.00	733.00	725.00	715.00	709.00	704.00	703.00	699.00	694.00	682.00	674.00	672.00	672.00	673.00	673.00	674.00	679.00	694.00	698.00	703.00	710.00	726.00	743.00	758.00	790.00	873.00	989.00	1030.00	1084.00	1126.00	1243.00	1244.00	1182.00	1098.00	1033.00	960.00	934.00	919.00	919.00	933.00	1021.00	1074.00	1107.00	1175.00	1136.00	1130.00	1140.00	1178.00	1252.00	1230.00	1153.00	1187.00	1231.00	1335.00	1391.00	1448.00	1500.00	1576.00	1575.00	1557.00
1390.00	1344.00	1267.00	1186.00	1133.00	1116.00	1150.00	1214.00	1246.00	1303.00	1356.00	1500.00	1524.00	1513.00	1509.00	1432.00	1259.00	1314.00	1353.00	1357.00	1235.00	1305.00	1384.00	1453.00	1559.00	1569.00	1472.00	1276.00	1192.00	1028.00	946.00	913.00	906.00	912.00	928.00	949.00	972.00	999.00	1220.00	1192.00	1156.00	1173.00	1344.00	1442.00	1529.00	1585.00	1511.00	1336.00	1178.00	1120.00	1086.00	1059.00	1060.00	1095.00	1183.00	1276.00	1444.00	1420.00	1344.00	1405.00	1501.00	1499.00	1465.00	1467.00	1431.00	1236.00	1197.00	1282.00	1376.00	1334.00	1250.00	1164.00	1093.00	1083.00	1220.00	1317.00	1367.00	1279.00	1253.00	1282.00	1367.00	1414.00	1378.00	1210.00	1157.00	1193.00	1238.00	1107.00	1145.00	1219.00	1363.00	1422.00	1446.00	1519.00	1498.00	1418.00	1303.00	1286.00	1315.00	1347.00	1389.00	1251.00	1167.00	1104.00	1045.00	961.00	1020.00	1078.00	1065.00	1002.00	925.00	880.00	878.00	870.00	858.00	855.00	855.00	856.00	857.00	849.00	848.00	849.00	851.00	847.00	847.00	847.00	847.00	850.00	918.00	1009.00	1092.00	1170.00	1296.00	1208.00	1122.00	1143.00	1216.00	1347.00	1429.00	1539.00	1516.00	1399.00	1495.00	1550.00	1527.00	1430.00	1303.00	1270.00	1238.00	1206.00	1171.00	1144.00	1112.00	1085.00	1100.00	1104.00	1176.00	1281.00	1370.00	1305.00	1244.00	1223.00	1241.00	1338.00	1334.00	1372.00	1422.00	1472.00	1383.00	1335.00	1330.00	1283.00	1171.00	1125.00	1058.00	1129.00	1107.00	1025.00	1032.00	1072.00	1135.00	1202.00	1247.00	1316.00	1389.00	1342.00	1236.00	1175.00	1107.00	1103.00	1023.00	978.00	982.00	998.00	1002.00	780.00	746.00	733.00	725.00	715.00	709.00	704.00	703.00	699.00	694.00	682.00	674.00	672.00	672.00	673.00	673.00	674.00	679.00	694.00	698.00	703.00	710.00	726.00	743.00	758.00	790.00	873.00	989.00	1030.00	1084.00	1126.00	1243.00	1244.00	1182.00	1098.00	1033.00	960.00	934.00	919.00	919.00	933.00	1021.00	1074.00	1107.00	1175.00	1136.00	1130.00	1140.00	1178.00	1252.00	1230.00	1153.00	1187.00	1231.00	1335.00	1391.00	1448.00	1500.00	1576.00	1575.00	1557.00
1276.00	1252.00	1215.00	1184.00	1168.00	1135.00	1101.00	1135.00	1156.00	1181.00	1212.00	1291.00	1300.00	1330.00	1405.00	1453.00	1353.00	1300.00	1260.00	1229.00	1207.00	1249.00	1289.00	1346.00	1507.00	1575.00	1492.00	1288.00	1199.00	1030.00	955.00	908.00	898.00	907.00	914.00	919.00	929.00	942.00	1083.00	1086.00	1191.00	1295.00	1439.00	1436.00	1402.00	1458.00	1429.00	1228.00	1103.00	1068.00	1049.00	1066.00	1113.00	1194.00	1275.00	1340.00	1397.00	1322.00	1237.00	1285.00	1407.00	1378.00	1312.00	1262.00	1307.00	1239.00	1149.00	1218.00	1320.00	1283.00	1187.00	1094.00	1066.00	1136.00	1307.00	1387.00	1398.00	1336.00	1168.00	1208.00	1252.00	1308.00	1338.00	1232.00	1168.00	1092.00	1064.00	1101.00	1161.00	1208.00	1308.00	1398.00	1498.00	1440.00	1443.00	1416.00	1248.00	1170.00	1161.00	1251.00	1286.00	1280.00	1207.00	1145.00	1089.00	962.00	959.00	1017.00	1098.00	1091.00	984.00	916.00	893.00	873.00	847.00	845.00	844.00	844.00	843.00	840.00	840.00	838.00	837.00	835.00	837.00	842.00	845.00	870.00	1034.00	1132.00	1219.00	1303.00	1135.00	1077.00	1109.00	1198.00	1273.00	1448.00	1522.00	1549.00	1530.00	1386.00	1342.00	1432.00	1538.00	1539.00	1453.00	1435.00	1410.00	1378.00	1365.00	1294.00	1227.00	1112.00	1070.00	1069.00	1096.00	1150.00	1177.00	1168.00	1230.00	1294.00	1366.00	1379.00	1381.00	1429.00	1499.00	1466.00	1314.00	1273.00	1258.00	1205.00	1128.00	1090.00	1026.00	1020.00	1019.00	1062.00	1086.00	1135.00	1197.00	1278.00	1260.00	1240.00	1291.00	1252.00	1138.00	1111.00	1078.00	1065.00	1064.00	1074.00	1099.00	1132.00	1137.00	814.00	749.00	729.00	723.00	713.00	707.00	703.00	701.00	698.00	686.00	674.00	669.00	668.00	670.00	670.00	672.00	679.00	695.00	699.00	697.00	697.00	707.00	748.00	781.00	807.00	861.00	934.00	1015.00	1090.00	1163.00	1241.00	1395.00	1321.00	1242.00	1175.00	1102.00	1114.00	1074.00	1033.00	996.00	987.00	984.00	980.00	987.00	1011.00	1029.00	1031.00	1044.00	1050.00	1077.00	1092.00	1114.00	1177.00	1224.00	1303.00	1343.00	1391.00	1451.00	1570.00	1631.00	1651.00
1276.00	1252.00	1215.00	1184.00	1168.00	1135.00	1101.00	1135.00	1156.00	1181.00	1212.00	1291.00	1300.00	1330.00	1405.00	1453.00	1353.00	1300.00	1260.00	1229.00	1207.00	1249.00	1289.00	1346.00	1507.00	1575.00	1492.00	1288.00	1199.00	1030.00	955.00	908.00	898.00	907.00	914.00	919.00	929.00	942.00	1083.00	1086.00	1191.00	1295.00	1439.00	1436.00	1402.00	1458.00	1429.00	1228.00	1103.00	1068.00	1049.00	1066.00	1113.00	1194.00	1275.00	1340.00	1397.00	1322.00	1237.00	1285.00	1407.00	1378.00	1312.00	1262.00	1307.00	1239.00	1149.00	1218.00	1320.00	1283.00	1187.00	1094.00	1066.00	1136.00	1307.00	1387.00	1398.00	1336.00	1168.00	1208.00	1252.00	1308.00	1338.00	1232.00	1168.00	1092.00	1064.00	1101.00	1161.00	1208.00	1308.00	1398.00	1498.00	1440.00	1443.00	1416.00	1248.00	1170.00	1161.00	1251.00	1286.00	1280.00	1207.00	1145.00	1089.00	962.00	959.00	1017.00	1098.00	1091.00	984.00	916.00	893.00	873.00	847.00	845.00	844.00	844.00	843.00	840.00	840.00	838.00	837.00	835.00	837.00	842.00	845.00	870.00	1034.00	1132.00	1219.00	1303.00	1135.00	1077.00	1109.00	1198.00	1273.00	1448.00	1522.00	1549.00	1530.00	1386.00	1342.00	1432.00	1538.00	1539.00	1453.00	1435.00	1410.00	1378.00	1365.00	1294.00	1227.00	1112.00	1070.00	1069.00	1096.00	1150.00	1177.00	1168.00	1230.00	1294.00	1366.00	1379.00	1381.00	1429.00	1499.00	1466.00	1314.00	1273.00	1258.00	1205.00	1128.00	1090.00	1026.00	1020.00	1019.00	1062.00	1086.00	1135.00	1197.00	1278.00	1260.00	1240.00	1291.00	1252.00	1138.00	1111.00	1078.00	1065.00	1064.00	1074.00	1099.00	1132.00	1137.00	814.00	749.00	729.00	723.00	713.00	707.00	703.00	701.00	698.00	686.00	674.00	669.00	668.00	670.00	670.00	672.00	679.00	695.00	699.00	697.00	697.00	707.00	748.00	781.00	807.00	861.00	934.00	1015.00	1090.00	1163.00	1241.00	1395.00	1321.00	1242.00	1175.00	1102.00	1114.00	1074.00	1033.00	996.00	987.00	984.00	980.00	987.00	1011.00	1029.00	1031.00	1044.00	1050.00	1077.00	1092.00	1114.00	1177.00	1224.00	1303.00	1343.00	1391.00	1451.00	1570.00	1631.00	1651.00
1262.00	1218.00	1285.00	1258.00	1192.00	1178.00	1151.00	1084.00	1079.00	1085.00	1103.00	1173.00	1170.00	1204.00	1250.00	1287.00	1406.00	1419.00	1426.00	1393.00	1226.00	1163.00	1191.00	1259.00	1423.00	1485.00	1454.00	1378.00	1284.00	1122.00	1021.00	934.00	894.00	887.00	891.00	891.00	893.00	909.00	991.00	1069.00	1149.00	1219.00	1313.00	1263.00	1236.00	1228.00	1211.00	1143.00	1098.00	1077.00	1038.00	1083.00	1092.00	1102.00	1139.00	1202.00	1279.00	1224.00	1184.00	1270.00	1338.00	1282.00	1238.00	1195.00	1156.00	1134.00	1100.00	1127.00	1194.00	1150.00	1082.00	1045.00	1084.00	1169.00	1318.00	1337.00	1294.00	1243.00	1148.00	1078.00	1121.00	1163.00	1200.00	1172.00	1086.00	1036.00	1022.00	1132.00	1195.00	1273.00	1397.00	1381.00	1330.00	1263.00	1270.00	1354.00	1244.00	1177.00	1096.00	1108.00	1166.00	1167.00	1125.00	1159.00	1157.00	1033.00	965.00	926.00	942.00	967.00	977.00	930.00	894.00	859.00	843.00	839.00	838.00	836.00	834.00	831.00	832.00	825.00	824.00	824.00	833.00	855.00	895.00	962.00	1035.00	1049.00	1087.00	1120.00	1044.00	1102.00	1162.00	1212.00	1265.00	1434.00	1464.00	1384.00	1353.00	1310.00	1279.00	1364.00	1424.00	1386.00	1323.00	1397.00	1411.00	1331.00	1395.00	1410.00	1345.00	1196.00	1130.00	1052.00	1060.00	1071.00	1097.00	1265.00	1303.00	1293.00	1304.00	1272.00	1331.00	1405.00	1498.00	1555.00	1496.00	1461.00	1422.00	1366.00	1242.00	1167.00	1006.00	1016.00	1097.00	1206.00	1215.00	1234.00	1274.00	1251.00	1225.00	1184.00	1118.00	1104.00	1069.00	1072.00	1081.00	1100.00	1118.00	1134.00	1181.00	1185.00	1099.00	813.00	745.00	722.00	715.00	711.00	707.00	705.00	704.00	700.00	678.00	670.00	668.00	665.00	667.00	669.00	672.00	679.00	688.00	699.00	699.00	699.00	724.00	833.00	914.00	945.00	937.00	1031.00	1138.00	1179.00	1227.00	1231.00	1372.00	1319.00	1273.00	1250.00	1230.00	1316.00	1279.00	1208.00	1129.00	1058.00	1060.00	1056.00	1056.00	1044.00	1075.00	1095.00	1117.00	1139.00	1147.00	1119.00	1107.00	1138.00	1173.00	1263.00	1318.00	1388.00	1462.00	1610.00	1666.00	1688.00
1262.00	1218.00	1285.00	1258.00	1192.00	1178.00	1151.00	1084.00	1079.00	1085.00	1103.00	1173.00	1170.00	1204.00	1250.00	1287.00	1406.00	1419.00	1426.00	1393.00	1226.00	1163.00	1191.00	1259.00	1423.00	1485.00	1454.00	1378.00	1284.00	1122.00	1021.00	934.00	894.00	887.00	891.00	891.00	893.00	909.00	991.00	1069.00	1149.00	1219.00	1313.00	1263.00	1236.00	1228.00	1211.00	1143.00	1098.00	1077.00	1038.00	1083.00	1092.00	1102.00	1139.00	1202.00	1279.00	1224.00	1184.00	1270.00	1338.00	1282.00	1238.00	1195.00	1156.00	1134.00	1100.00	1127.00	1194.00	1150.00	1082.00	1045.00	1084.00	1169.00	1318.00	1337.00	1294.00	1243.00	1148.00	1078.00	1121.00	1163.00	1200.00	1172.00	1086.00	1036.00	1022.00	1132.00	1195.00	1273.00	1397.00	1381.00	1330.00	1263.00	1270.00	1354.00	1244.00	1177.00	1096.00	1108.00	1166.00	1167.00	1125.00	1159.00	1157.00	1033.00	965.00	926.00	942.00	967.00	977.00	930.00	894.00	859.00	843.00	839.00	838.00	836.00	834.00	831.00	832.00	825.00	824.00	824.00	833.00	855.00	895.00	962.00	1035.00	1049.00	1087.00	1120.00	1044.00	1102.00	1162.00	1212.00	1265.00	1434.00	1464.00	1384.00	1353.00	1310.00	1279.00	1364.00	1424.00	1386.00	1323.00	1397.00	1411.00	1331.00	1395.00	1410.00	1345.00	1196.00	1130.00	1052.00	1060.00	1071.00	1097.00	1265.00	1303.00	1293.00	1304.00	1272.00	1331.00	1405.00	1498.00	1555.00	1496.00	1461.00	1422.00	1366.00	1242.00	1167.00	1006.00	1016.00	1097.00	1206.00	1215.00	1234.00	1274.00	1251.00	1225.00	1184.00	1118.00	1104.00	1069.00	1072.00	1081.00	1100.00	1118.00	1134.00	1181.00	1185.00	1099.00	813.00	745.00	722.00	715.00	711.00	707.00	705.00	704.00	700.00	678.00	670.00	668.00	665.00	667.00	669.00	672.00	679.00	688.00	699.00	699.00	699.00	724.00	833.00	914.00	945.00	937.00	1031.00	1138.00	1179.00	1227.00	1231.00	1372.00	1319.00	1273.00	1250.00	1230.00	1316.00	1279.00	1208.00	1129.00	1058.00	1060.00	1056.00	1056.00	1044.00	1075.00	1095.00	1117.00	1139.00	1147.00	1119.00	1107.00	1138.00	1173.00	1263.00	1318.00	1388.00	1462.00	1610.00	1666.00	1688.00
1442.00	1342.00	1448.00	1361.00	1305.00	1368.00	1340.00	1213.00	1157.00	1106.00	1082.00	1074.00	1080.00	1095.00	1113.00	1138.00	1214.00	1264.00	1287.00	1298.00	1249.00	1196.00	1130.00	1160.00	1265.00	1263.00	1231.00	1256.00	1252.00	1218.00	1109.00	996.00	911.00	880.00	878.00	881.00	878.00	884.00	923.00	957.00	1031.00	1115.00	1194.00	1171.00	1159.00	1104.00	1049.00	1069.00	1066.00	1060.00	1046.00	1036.00	1039.00	1054.00	1061.00	1058.00	1097.00	1094.00	1156.00	1206.00	1213.00	1177.00	1139.00	1117.00	1119.00	1165.00	1113.00	1087.00	1083.00	1060.00	1031.00	1043.00	1110.00	1174.00	1288.00	1356.00	1342.00	1271.00	1172.00	1177.00	1116.00	1060.00	1042.00	1055.00	1008.00	1001.00	1073.00	1186.00	1241.00	1291.00	1323.00	1242.00	1147.00	1170.00	1244.00	1327.00	1224.00	1141.00	1069.00	1053.00	1128.00	1163.00	1130.00	1104.00	1158.00	1057.00	1065.00	1033.00	973.00	941.00	899.00	885.00	871.00	854.00	835.00	832.00	830.00	827.00	824.00	822.00	825.00	819.00	818.00	838.00	897.00	970.00	1047.00	1139.00	1111.00	1014.00	961.00	1003.00	1180.00	1236.00	1278.00	1328.00	1374.00	1483.00	1514.00	1497.00	1463.00	1351.00	1275.00	1238.00	1208.00	1187.00	1242.00	1278.00	1240.00	1211.00	1348.00	1409.00	1398.00	1302.00	1204.00	1045.00	1039.00	1052.00	1083.00	1148.00	1153.00	1150.00	1159.00	1228.00	1258.00	1302.00	1357.00	1399.00	1470.00	1466.00	1395.00	1329.00	1194.00	1116.00	993.00	1035.00	1072.00	1160.00	1189.00	1225.00	1241.00	1138.00	1125.00	1109.00	1056.00	1042.00	1052.00	1077.00	1105.00	1133.00	1184.00	1181.00	1125.00	1062.00	974.00	746.00	722.00	707.00	702.00	705.00	702.00	698.00	697.00	695.00	669.00	666.00	666.00	667.00	673.00	678.00	679.00	679.00	681.00	685.00	692.00	699.00	743.00	901.00	1017.00	1125.00	1124.00	1114.00	1249.00	1254.00	1250.00	1231.00	1244.00	1286.00	1346.00	1398.00	1387.00	1312.00	1278.00	1228.00	1158.00	1074.00	1096.00	1116.00	1135.00	1133.00	1143.00	1154.00	1174.00	1197.00	1236.00	1241.00	1211.00	1156.00	1142.00	1182.00	1235.00	1298.00	1354.00	1429.00	1484.00	1521.00
1442.00	1342.00	1448.00	1361.00	1305.00	1368.00	1340.00	1213.00	1157.00	1106.00	1082.00	1074.00	1080.00	1095.00	1113.00	1138.00	1214.00	1264.00	1287.00	1298.00	1249.00	1196.00	1130.00	1160.00	1265.00	1263.00	1231.00	1256.00	1252.00	1218.00	1109.00	996.00	911.00	880.00	878.00	881.00	878.00	884.00	923.00	957.00	1031.00	1115.00	1194.00	1171.00	1159.00	1104.00	1049.00	1069.00	1066.00	1060.00	1046.00	1036.00	1039.00	1054.00	1061.00	1058.00	1097.00	1094.00	1156.00	1206.00	1213.00	1177.00	1139.00	1117.00	1119.00	1165.00	1113.00	1087.00	1083.00	1060.00	1031.00	1043.00	1110.00	1174.00	1288.00	1356.00	1342.00	1271.00	1172.00	1177.00	1116.00	1060.00	1042.00	1055.00	1008.00	1001.00	1073.00	1186.00	1241.00	1291.00	1323.00	1242.00	1147.00	1170.00	1244.00	1327.00	1224.00	1141.00	1069.00	1053.00	1128.00	1163.00	1130.00	1104.00	1158.00	1057.00	1065.00	1033.00	973.00	941.00	899.00	885.00	871.00	854.00	835.00	832.00	830.00	827.00	824.00	822.00	825.00	819.00	818.00	838.00	897.00	970.00	1047.00	1139.00	1111.00	1014.00	961.00	1003.00	1180.00	1236.00	1278.00	1328.00	1374.00	1483.00	1514.00	1497.00	1463.00	1351.00	1275.00	1238.00	1208.00	1187.00	1242.00	1278.00	1240.00	1211.00	1348.00	1409.00	1398.00	1302.00	1204.00	1045.00	1039.00	1052.00	1083.00	1148.00	1153.00	1150.00	1159.00	1228.00	1258.00	1302.00	1357.00	1399.00	1470.00	1466.00	1395.00	1329.00	1194.00	1116.00	993.00	1035.00	1072.00	1160.00	1189.00	1225.00	1241.00	1138.00	1125.00	1109.00	1056.00	1042.00	1052.00	1077.00	1105.00	1133.00	1184.00	1181.00	1125.00	1062.00	974.00	746.00	722.00	707.00	702.00	705.00	702.00	698.00	697.00	695.00	669.00	666.00	666.00	667.00	673.00	678.00	679.00	679.00	681.00	685.00	692.00	699.00	743.00	901.00	1017.00	1125.00	1124.00	1114.00	1249.00	1254.00	1250.00	1231.00	1244.00	1286.00	1346.00	1398.00	1387.00	1312.00	1278.00	1228.00	1158.00	1074.00	1096.00	1116.00	1135.00	1133.00	1143.00	1154.00	1174.00	1197.00	1236.00	1241.00	1211.00	1156.00	1142.00	1182.00	1235.00	1298.00	1354.00	1429.00	1484.00	1521.00
1442.00	1342.00	1448.00	1361.00	1305.00	1368.00	1340.00	1213.00	1157.00	1106.00	1082.00	1074.00	1080.00	1095.00	1113.00	1138.00	1214.00	1264.00	1287.00	1298.00	1249.00	1196.00	1130.00	1160.00	1265.00	1263.00	1231.00	1256.00	1252.00	1218.00	1109.00	996.00	911.00	880.00	878.00	881.00	878.00	884.00	923.00	957.00	1031.00	1115.00	1194.00	1171.00	1159.00	1104.00	1049.00	1069.00	1066.00	1060.00	1046.00	1036.00	1039.00	1054.00	1061.00	1058.00	1097.00	1094.00	1156.00	1206.00	1213.00	1177.00	1139.00	1117.00	1119.00	1165.00	1113.00	1087.00	1083.00	1060.00	1031.00	1043.00	1110.00	1174.00	1288.00	1356.00	1342.00	1271.00	1172.00	1177.00	1116.00	1060.00	1042.00	1055.00	1008.00	1001.00	1073.00	1186.00	1241.00	1291.00	1323.00	1242.00	1147.00	1170.00	1244.00	1327.00	1224.00	1141.00	1069.00	1053.00	1128.00	1163.00	1130.00	1104.00	1158.00	1057.00	1065.00	1033.00	973.00	941.00	899.00	885.00	871.00	854.00	835.00	832.00	830.00	827.00	824.00	822.00	825.00	819.00	818.00	838.00	897.00	970.00	1047.00	1139.00	1111.00	1014.00	961.00	1003.00	1180.00	1236.00	1278.00	1328.00	1374.00	1483.00	1514.00	1497.00	1463.00	1351.00	1275.00	1238.00	1208.00	1187.00	1242.00	1278.00	1240.00	1211.00	1348.00	1409.00	1398.00	1302.00	1204.00	1045.00	1039.00	1052.00	1083.00	1148.00	1153.00	1150.00	1159.00	1228.00	1258.00	1302.00	1357.00	1399.00	1470.00	1466.00	1395.00	1329.00	1194.00	1116.00	993.00	1035.00	1072.00	1160.00	1189.00	1225.00	1241.00	1138.00	1125.00	1109.00	1056.00	1042.00	1052.00	1077.00	1105.00	1133.00	1184.00	1181.00	1125.00	1062.00	974.00	746.00	722.00	707.00	702.00	705.00	702.00	698.00	697.00	695.00	669.00	666.00	666.00	667.00	673.00	678.00	679.00	679.00	681.00	685.00	692.00	699.00	743.00	901.00	1017.00	1125.00	1124.00	1114.00	1249.00	1254.00	1250.00	1231.00	1244.00	1286.00	1346.00	1398.00	1387.00	1312.00	1278.00	1228.00	1158.00	1074.00	1096.00	1116.00	1135.00	1133.00	1143.00	1154.00	1174.00	1197.00	1236.00	1241.00	1211.00	1156.00	1142.00	1182.00	1235.00	1298.00	1354.00	1429.00	1484.00	1521.00
1576.00	1525.00	1515.00	1466.00	1462.00	1472.00	1388.00	1305.00	1258.00	1209.00	1156.00	1076.00	1052.00	1040.00	1046.00	1055.00	1128.00	1163.00	1173.00	1207.00	1191.00	1181.00	1153.00	1115.00	1111.00	1125.00	1161.00	1195.00	1204.00	1186.00	1113.00	1036.00	958.00	890.00	881.00	876.00	870.00	865.00	879.00	883.00	902.00	959.00	1077.00	1073.00	1024.00	979.00	990.00	1063.00	1059.00	1076.00	1060.00	1022.00	1015.00	1013.00	1015.00	1023.00	1026.00	1032.00	1066.00	1059.00	1059.00	1071.00	1089.00	1124.00	1178.00	1270.00	1242.00	1179.00	1105.00	1011.00	1011.00	1057.00	1121.00	1178.00	1302.00	1362.00	1365.00	1316.00	1227.00	1189.00	1177.00	1134.00	1071.00	965.00	969.00	1015.00	1080.00	1149.00	1178.00	1209.00	1344.00	1263.00	1101.00	1082.00	1135.00	1210.00	1262.00	1232.00	1144.00	1056.00	1012.00	1045.00	1032.00	1003.00	1004.00	977.00	980.00	971.00	959.00	967.00	955.00	880.00	866.00	851.00	824.00	820.00	818.00	814.00	810.00	810.00	813.00	810.00	812.00	866.00	945.00	1052.00	1152.00	1191.00	1030.00	956.00	958.00	1006.00	1240.00	1217.00	1255.00	1318.00	1338.00	1321.00	1367.00	1455.00	1523.00	1436.00	1432.00	1360.00	1281.00	1228.00	1194.00	1183.00	1151.00	1131.00	1183.00	1198.00	1222.00	1250.00	1172.00	1046.00	1030.00	1029.00	1049.00	1131.00	1192.00	1232.00	1284.00	1294.00	1256.00	1209.00	1180.00	1197.00	1277.00	1279.00	1280.00	1225.00	1154.00	1103.00	982.00	1002.00	1039.00	1126.00	1165.00	1214.00	1211.00	1103.00	1058.00	1027.00	1046.00	1075.00	1152.00	1212.00	1275.00	1286.00	1191.00	1148.00	1092.00	994.00	896.00	722.00	703.00	697.00	694.00	696.00	694.00	694.00	694.00	691.00	665.00	664.00	664.00	665.00	691.00	696.00	689.00	679.00	678.00	679.00	689.00	703.00	771.00	911.00	1012.00	1100.00	1169.00	1229.00	1297.00	1278.00	1222.00	1158.00	1305.00	1339.00	1395.00	1460.00	1404.00	1297.00	1237.00	1163.00	1100.00	1088.00	1142.00	1189.00	1228.00	1254.00	1226.00	1236.00	1255.00	1259.00	1295.00	1305.00	1314.00	1287.00	1228.00	1178.00	1196.00	1222.00	1239.00	1266.00	1286.00	1311.00
1576.00	1525.00	1515.00	1466.00	1462.00	1472.00	1388.00	1305.00	1258.00	1209.00	1156.00	1076.00	1052.00	1040.00	1046.00	1055.00	1128.00	1163.00	1173.00	1207.00	1191.00	1181.00	1153.00	1115.00	1111.00	1125.00	1161.00	1195.00	1204.00	1186.00	1113.00	1036.00	958.00	890.00	881.00	876.00	870.00	865.00	879.00	883.00	902.00	959.00	1077.00	1073.00	1024.00	979.00	990.00	1063.00	1059.00	1076.00	1060.00	1022.00	1015.00	1013.00	1015.00	1023.00	1026.00	1032.00	1066.00	1059.00	1059.00	1071.00	1089.00	1124.00	1178.00	1270.00	1242.00	1179.00	1105.00	1011.00	1011.00	1057.00	1121.00	1178.00	1302.00	1362.00	1365.00	1316.00	1227.00	1189.00	1177.00	1134.00	1071.00	965.00	969.00	1015.00	1080.00	1149.00	1178.00	1209.00	1344.00	1263.00	1101.00	1082.00	1135.00	1210.00	1262.00	1232.00	1144.00	1056.00	1012.00	1045.00	1032.00	1003.00	1004.00	977.00	980.00	971.00	959.00	967.00	955.00	880.00	866.00	851.00	824.00	820.00	818.00	814.00	810.00	810.00	813.00	810.00	812.00	866.00	945.00	1052.00	1152.00	1191.00	1030.00	956.00	958.00	1006.00	1240.00	1217.00	1255.00	1318.00	1338.00	1321.00	1367.00	1455.00	1523.00	1436.00	1432.00	1360.00	1281.00	1228.00	1194.00	1183.00	1151.00	1131.00	1183.00	1198.00	1222.00	1250.00	1172.00	1046.00	1030.00	1029.00	1049.00	1131.00	1192.00	1232.00	1284.00	1294.00	1256.00	1209.00	1180.00	1197.00	1277.00	1279.00	1280.00	1225.00	1154.00	1103.00	982.00	1002.00	1039.00	1126.00	1165.00	1214.00	1211.00	1103.00	1058.00	1027.00	1046.00	1075.00	1152.00	1212.00	1275.00	1286.00	1191.00	1148.00	1092.00	994.00	896.00	722.00	703.00	697.00	694.00	696.00	694.00	694.00	694.00	691.00	665.00	664.00	664.00	665.00	691.00	696.00	689.00	679.00	678.00	679.00	689.00	703.00	771.00	911.00	1012.00	1100.00	1169.00	1229.00	1297.00	1278.00	1222.00	1158.00	1305.00	1339.00	1395.00	1460.00	1404.00	1297.00	1237.00	1163.00	1100.00	1088.00	1142.00	1189.00	1228.00	1254.00	1226.00	1236.00	1255.00	1259.00	1295.00	1305.00	1314.00	1287.00	1228.00	1178.00	1196.00	1222.00	1239.00	1266.00	1286.00	1311.00
1633.00	1561.00	1416.00	1345.00	1306.00	1344.00	1266.00	1161.00	1179.00	1210.00	1184.00	1201.00	1143.00	1097.00	1071.00	1055.00	1039.00	1063.00	1112.00	1185.00	1353.00	1368.00	1300.00	1224.00	1079.00	1114.00	1199.00	1307.00	1318.00	1228.00	1161.00	1085.00	1016.00	917.00	892.00	882.00	873.00	863.00	848.00	852.00	857.00	863.00	899.00	911.00	936.00	989.00	1051.00	1195.00	1188.00	1166.00	1144.00	1088.00	1064.00	1045.00	1029.00	1016.00	1010.00	1007.00	1000.00	996.00	980.00	986.00	996.00	1034.00	1081.00	1201.00	1257.00	1226.00	1148.00	994.00	989.00	1030.00	1096.00	1169.00	1264.00	1277.00	1282.00	1262.00	1155.00	1134.00	1131.00	1115.00	1077.00	984.00	950.00	966.00	1001.00	1074.00	1117.00	1172.00	1324.00	1312.00	1160.00	1096.00	1045.00	1051.00	1202.00	1221.00	1131.00	1056.00	978.00	957.00	965.00	962.00	962.00	980.00	999.00	1030.00	1073.00	1112.00	1050.00	1006.00	929.00	867.00	810.00	803.00	800.00	798.00	797.00	796.00	796.00	799.00	806.00	850.00	910.00	997.00	1073.00	1039.00	930.00	966.00	1018.00	1072.00	1182.00	1232.00	1277.00	1263.00	1244.00	1185.00	1206.00	1260.00	1283.00	1384.00	1434.00	1342.00	1286.00	1344.00	1391.00	1380.00	1325.00	1262.00	1151.00	1143.00	1099.00	1094.00	1073.00	1047.00	1036.00	1016.00	1014.00	1128.00	1180.00	1255.00	1269.00	1287.00	1247.00	1188.00	1130.00	1087.00	1141.00	1176.00	1185.00	1145.00	1053.00	1035.00	982.00	961.00	993.00	1074.00	1103.00	1128.00	1111.00	1029.00	1002.00	995.00	1113.00	1168.00	1245.00	1289.00	1306.00	1268.00	1106.00	1019.00	1014.00	921.00	816.00	702.00	693.00	689.00	688.00	688.00	692.00	700.00	704.00	704.00	663.00	663.00	662.00	666.00	690.00	691.00	687.00	679.00	677.00	679.00	686.00	699.00	791.00	1000.00	1077.00	1132.00	1151.00	1143.00	1109.00	1081.00	1079.00	1107.00	1242.00	1297.00	1380.00	1404.00	1347.00	1219.00	1143.00	1082.00	1077.00	1136.00	1202.00	1255.00	1320.00	1387.00	1372.00	1311.00	1331.00	1346.00	1357.00	1368.00	1379.00	1390.00	1345.00	1222.00	1233.00	1305.00	1393.00	1421.00	1389.00	1382.00
1633.00	1561.00	1416.00	1345.00	1306.00	1344.00	1266.00	1161.00	1179.00	1210.00	1184.00	1201.00	1143.00	1097.00	1071.00	1055.00	1039.00	1063.00	1112.00	1185.00	1353.00	1368.00	1300.00	1224.00	1079.00	1114.00	1199.00	1307.00	1318.00	1228.00	1161.00	1085.00	1016.00	917.00	892.00	882.00	873.00	863.00	848.00	852.00	857.00	863.00	899.00	911.00	936.00	989.00	1051.00	1195.00	1188.00	1166.00	1144.00	1088.00	1064.00	1045.00	1029.00	1016.00	1010.00	1007.00	1000.00	996.00	980.00	986.00	996.00	1034.00	1081.00	1201.00	1257.00	1226.00	1148.00	994.00	989.00	1030.00	1096.00	1169.00	1264.00	1277.00	1282.00	1262.00	1155.00	1134.00	1131.00	1115.00	1077.00	984.00	950.00	966.00	1001.00	1074.00	1117.00	1172.00	1324.00	1312.00	1160.00	1096.00	1045.00	1051.00	1202.00	1221.00	1131.00	1056.00	978.00	957.00	965.00	962.00	962.00	980.00	999.00	1030.00	1073.00	1112.00	1050.00	1006.00	929.00	867.00	810.00	803.00	800.00	798.00	797.00	796.00	796.00	799.00	806.00	850.00	910.00	997.00	1073.00	1039.00	930.00	966.00	1018.00	1072.00	1182.00	1232.00	1277.00	1263.00	1244.00	1185.00	1206.00	1260.00	1283.00	1384.00	1434.00	1342.00	1286.00	1344.00	1391.00	1380.00	1325.00	1262.00	1151.00	1143.00	1099.00	1094.00	1073.00	1047.00	1036.00	1016.00	1014.00	1128.00	1180.00	1255.00	1269.00	1287.00	1247.00	1188.00	1130.00	1087.00	1141.00	1176.00	1185.00	1145.00	1053.00	1035.00	982.00	961.00	993.00	1074.00	1103.00	1128.00	1111.00	1029.00	1002.00	995.00	1113.00	1168.00	1245.00	1289.00	1306.00	1268.00	1106.00	1019.00	1014.00	921.00	816.00	702.00	693.00	689.00	688.00	688.00	692.00	700.00	704.00	704.00	663.00	663.00	662.00	666.00	690.00	691.00	687.00	679.00	677.00	679.00	686.00	699.00	791.00	1000.00	1077.00	1132.00	1151.00	1143.00	1109.00	1081.00	1079.00	1107.00	1242.00	1297.00	1380.00	1404.00	1347.00	1219.00	1143.00	1082.00	1077.00	1136.00	1202.00	1255.00	1320.00	1387.00	1372.00	1311.00	1331.00	1346.00	1357.00	1368.00	1379.00	1390.00	1345.00	1222.00	1233.00	1305.00	1393.00	1421.00	1389.00	1382.00
1633.00	1561.00	1416.00	1345.00	1306.00	1344.00	1266.00	1161.00	1179.00	1210.00	1184.00	1201.00	1143.00	1097.00	1071.00	1055.00	1039.00	1063.00	1112.00	1185.00	1353.00	1368.00	1300.00	1224.00	1079.00	1114.00	1199.00	1307.00	1318.00	1228.00	1161.00	1085.00	1016.00	917.00	892.00	882.00	873.00	863.00	848.00	852.00	857.00	863.00	899.00	911.00	936.00	989.00	1051.00	1195.00	1188.00	1166.00	1144.00	1088.00	1064.00	1045.00	1029.00	1016.00	1010.00	1007.00	1000.00	996.00	980.00	986.00	996.00	1034.00	1081.00	1201.00	1257.00	1226.00	1148.00	994.00	989.00	1030.00	1096.00	1169.00	1264.00	1277.00	1282.00	1262.00	1155.00	1134.00	1131.00	1115.00	1077.00	984.00	950.00	966.00	1001.00	1074.00	1117.00	1172.00	1324.00	1312.00	1160.00	1096.00	1045.00	1051.00	1202.00	1221.00	1131.00	1056.00	978.00	957.00	965.00	962.00	962.00	980.00	999.00	1030.00	1073.00	1112.00	1050.00	1006.00	929.00	867.00	810.00	803.00	800.00	798.00	797.00	796.00	796.00	799.00	806.00	850.00	910.00	997.00	1073.00	1039.00	930.00	966.00	1018.00	1072.00	1182.00	1232.00	1277.00	1263.00	1244.00	1185.00	1206.00	1260.00	1283.00	1384.00	1434.00	1342.00	1286.00	1344.00	1391.00	1380.00	1325.00	1262.00	1151.00	1143.00	1099.00	1094.00	1073.00	1047.00	1036.00	1016.00	1014.00	1128.00	1180.00	1255.00	1269.00	1287.00	1247.00	1188.00	1130.00	1087.00	1141.00	1176.00	1185.00	1145.00	1053.00	1035.00	982.00	961.00	993.00	1074.00	1103.00	1128.00	1111.00	1029.00	1002.00	995.00	1113.00	1168.00	1245.00	1289.00	1306.00	1268.00	1106.00	1019.00	1014.00	921.00	816.00	702.00	693.00	689.00	688.00	688.00	692.00	700.00	704.00	704.00	663.00	663.00	662.00	666.00	690.00	691.00	687.00	679.00	677.00	679.00	686.00	699.00	791.00	1000.00	1077.00	1132.00	1151.00	1143.00	1109.00	1081.00	1079.00	1107.00	1242.00	1297.00	1380.00	1404.00	1347.00	1219.00	1143.00	1082.00	1077.00	1136.00	1202.00	1255.00	1320.00	1387.00	1372.00	1311.00	1331.00	1346.00	1357.00	1368.00	1379.00	1390.00	1345.00	1222.00	1233.00	1305.00	1393.00	1421.00	1389.00	1382.00
1563.00	1578.00	1435.00	1370.00	1315.00	1256.00	1143.00	1145.00	1242.00	1331.00	1323.00	1322.00	1251.00	1247.00	1233.00	1171.00	1025.00	1014.00	1024.00	1095.00	1286.00	1357.00	1329.00	1272.00	1106.00	1052.00	1122.00	1214.00	1215.00	1196.00	1181.00	1147.00	1122.00	999.00	935.00	900.00	888.00	874.00	842.00	841.00	840.00	841.00	848.00	856.00	880.00	939.00	1028.00	1233.00	1291.00	1339.00	1344.00	1284.00	1267.00	1245.00	1173.00	1112.00	1145.00	1141.00	1088.00	1061.00	996.00	966.00	960.00	970.00	996.00	1145.00	1232.00	1232.00	1168.00	987.00	966.00	989.00	1053.00	1149.00	1224.00	1152.00	1100.00	1078.00	1210.00	1292.00	1231.00	1170.00	1102.00	1010.00	967.00	929.00	955.00	1070.00	1134.00	1192.00	1354.00	1348.00	1251.00	1175.00	1100.00	1030.00	1061.00	1083.00	1055.00	978.00	925.00	1003.00	1004.00	996.00	1018.00	1091.00	1120.00	1143.00	1144.00	1135.00	1157.00	1143.00	1039.00	932.00	799.00	793.00	792.00	791.00	791.00	791.00	791.00	793.00	797.00	835.00	857.00	887.00	892.00	907.00	991.00	1046.00	1086.00	1135.00	1252.00	1305.00	1350.00	1364.00	1378.00	1276.00	1193.00	1121.00	1144.00	1303.00	1411.00	1429.00	1386.00	1444.00	1410.00	1344.00	1319.00	1298.00	1272.00	1220.00	1159.00	1098.00	1066.00	1041.00	1040.00	1031.00	1007.00	1022.00	1087.00	1162.00	1163.00	1152.00	1133.00	1145.00	1103.00	1037.00	1088.00	1084.00	1055.00	1030.00	1002.00	989.00	954.00	929.00	947.00	992.00	1000.00	1015.00	1015.00	972.00	949.00	981.00	1062.00	1080.00	1092.00	1087.00	1104.00	1105.00	1043.00	961.00	871.00	814.00	760.00	695.00	687.00	683.00	679.00	679.00	685.00	695.00	705.00	703.00	665.00	664.00	668.00	671.00	681.00	680.00	678.00	676.00	675.00	680.00	688.00	695.00	760.00	959.00	1034.00	1041.00	1026.00	1016.00	982.00	1002.00	1068.00	1152.00	1247.00	1232.00	1198.00	1159.00	1122.00	1068.00	1063.00	1094.00	1135.00	1191.00	1237.00	1271.00	1348.00	1447.00	1481.00	1396.00	1385.00	1424.00	1434.00	1419.00	1456.00	1508.00	1440.00	1283.00	1277.00	1345.00	1448.00	1621.00	1623.00	1603.00
1580.00	1529.00	1367.00	1310.00	1249.00	1201.00	1082.00	1155.00	1236.00	1315.00	1400.00	1433.00	1413.00	1446.00	1376.00	1286.00	1065.00	1023.00	1004.00	1011.00	1178.00	1230.00	1237.00	1206.00	1079.00	1038.00	1071.00	1116.00	1118.00	1128.00	1130.00	1123.00	1107.00	1033.00	989.00	973.00	957.00	933.00	849.00	838.00	836.00	835.00	835.00	835.00	836.00	857.00	906.00	1030.00	1204.00	1272.00	1350.00	1363.00	1333.00	1284.00	1198.00	1114.00	1246.00	1339.00	1251.00	1226.00	1091.00	1002.00	960.00	949.00	953.00	1071.00	1156.00	1205.00	1161.00	977.00	963.00	960.00	976.00	1052.00	1195.00	1120.00	1035.00	1039.00	1176.00	1324.00	1325.00	1263.00	1227.00	1095.00	1016.00	933.00	917.00	1082.00	1177.00	1248.00	1278.00	1205.00	1192.00	1176.00	1139.00	1091.00	963.00	977.00	1017.00	955.00	902.00	947.00	956.00	1009.00	1043.00	1032.00	1038.00	1056.00	1086.00	1108.00	1228.00	1195.00	1093.00	982.00	805.00	792.00	791.00	790.00	789.00	788.00	788.00	791.00	793.00	818.00	831.00	859.00	900.00	939.00	1056.00	1115.00	1156.00	1138.00	1104.00	1120.00	1143.00	1173.00	1240.00	1249.00	1167.00	1091.00	1119.00	1247.00	1386.00	1415.00	1423.00	1427.00	1380.00	1339.00	1356.00	1396.00	1355.00	1304.00	1252.00	1176.00	1112.00	1040.00	1035.00	1022.00	1009.00	990.00	1031.00	1048.00	1042.00	1014.00	1009.00	1011.00	1004.00	1002.00	1005.00	1006.00	1007.00	1008.00	1017.00	1013.00	979.00	955.00	954.00	919.00	916.00	942.00	961.00	918.00	902.00	966.00	1007.00	1021.00	997.00	958.00	928.00	926.00	879.00	843.00	802.00	762.00	732.00	694.00	687.00	680.00	673.00	674.00	673.00	674.00	679.00	670.00	664.00	668.00	670.00	672.00	675.00	674.00	674.00	673.00	672.00	675.00	683.00	691.00	714.00	799.00	835.00	863.00	881.00	892.00	922.00	995.00	1055.00	1069.00	1022.00	1004.00	1002.00	1013.00	1039.00	1078.00	1122.00	1178.00	1244.00	1289.00	1345.00	1326.00	1322.00	1361.00	1506.00	1474.00	1445.00	1472.00	1575.00	1526.00	1525.00	1609.00	1529.00	1381.00	1349.00	1351.00	1413.00	1524.00	1539.00	1558.00
1580.00	1529.00	1367.00	1310.00	1249.00	1201.00	1082.00	1155.00	1236.00	1315.00	1400.00	1433.00	1413.00	1446.00	1376.00	1286.00	1065.00	1023.00	1004.00	1011.00	1178.00	1230.00	1237.00	1206.00	1079.00	1038.00	1071.00	1116.00	1118.00	1128.00	1130.00	1123.00	1107.00	1033.00	989.00	973.00	957.00	933.00	849.00	838.00	836.00	835.00	835.00	835.00	836.00	857.00	906.00	1030.00	1204.00	1272.00	1350.00	1363.00	1333.00	1284.00	1198.00	1114.00	1246.00	1339.00	1251.00	1226.00	1091.00	1002.00	960.00	949.00	953.00	1071.00	1156.00	1205.00	1161.00	977.00	963.00	960.00	976.00	1052.00	1195.00	1120.00	1035.00	1039.00	1176.00	1324.00	1325.00	1263.00	1227.00	1095.00	1016.00	933.00	917.00	1082.00	1177.00	1248.00	1278.00	1205.00	1192.00	1176.00	1139.00	1091.00	963.00	977.00	1017.00	955.00	902.00	947.00	956.00	1009.00	1043.00	1032.00	1038.00	1056.00	1086.00	1108.00	1228.00	1195.00	1093.00	982.00	805.00	792.00	791.00	790.00	789.00	788.00	788.00	791.00	793.00	818.00	831.00	859.00	900.00	939.00	1056.00	1115.00	1156.00	1138.00	1104.00	1120.00	1143.00	1173.00	1240.00	1249.00	1167.00	1091.00	1119.00	1247.00	1386.00	1415.00	1423.00	1427.00	1380.00	1339.00	1356.00	1396.00	1355.00	1304.00	1252.00	1176.00	1112.00	1040.00	1035.00	1022.00	1009.00	990.00	1031.00	1048.00	1042.00	1014.00	1009.00	1011.00	1004.00	1002.00	1005.00	1006.00	1007.00	1008.00	1017.00	1013.00	979.00	955.00	954.00	919.00	916.00	942.00	961.00	918.00	902.00	966.00	1007.00	1021.00	997.00	958.00	928.00	926.00	879.00	843.00	802.00	762.00	732.00	694.00	687.00	680.00	673.00	674.00	673.00	674.00	679.00	670.00	664.00	668.00	670.00	672.00	675.00	674.00	674.00	673.00	672.00	675.00	683.00	691.00	714.00	799.00	835.00	863.00	881.00	892.00	922.00	995.00	1055.00	1069.00	1022.00	1004.00	1002.00	1013.00	1039.00	1078.00	1122.00	1178.00	1244.00	1289.00	1345.00	1326.00	1322.00	1361.00	1506.00	1474.00	1445.00	1472.00	1575.00	1526.00	1525.00	1609.00	1529.00	1381.00	1349.00	1351.00	1413.00	1524.00	1539.00	1558.00
1580.00	1529.00	1367.00	1310.00	1249.00	1201.00	1082.00	1155.00	1236.00	1315.00	1400.00	1433.00	1413.00	1446.00	1376.00	1286.00	1065.00	1023.00	1004.00	1011.00	1178.00	1230.00	1237.00	1206.00	1079.00	1038.00	1071.00	1116.00	1118.00	1128.00	1130.00	1123.00	1107.00	1033.00	989.00	973.00	957.00	933.00	849.00	838.00	836.00	835.00	835.00	835.00	836.00	857.00	906.00	1030.00	1204.00	1272.00	1350.00	1363.00	1333.00	1284.00	1198.00	1114.00	1246.00	1339.00	1251.00	1226.00	1091.00	1002.00	960.00	949.00	953.00	1071.00	1156.00	1205.00	1161.00	977.00	963.00	960.00	976.00	1052.00	1195.00	1120.00	1035.00	1039.00	1176.00	1324.00	1325.00	1263.00	1227.00	1095.00	1016.00	933.00	917.00	1082.00	1177.00	1248.00	1278.00	1205.00	1192.00	1176.00	1139.00	1091.00	963.00	977.00	1017.00	955.00	902.00	947.00	956.00	1009.00	1043.00	1032.00	1038.00	1056.00	1086.00	1108.00	1228.00	1195.00	1093.00	982.00	805.00	792.00	791.00	790.00	789.00	788.00	788.00	791.00	793.00	818.00	831.00	859.00	900.00	939.00	1056.00	1115.00	1156.00	1138.00	1104.00	1120.00	1143.00	1173.00	1240.00	1249.00	1167.00	1091.00	1119.00	1247.00	1386.00	1415.00	1423.00	1427.00	1380.00	1339.00	1356.00	1396.00	1355.00	1304.00	1252.00	1176.00	1112.00	1040.00	1035.00	1022.00	1009.00	990.00	1031.00	1048.00	1042.00	1014.00	1009.00	1011.00	1004.00	1002.00	1005.00	1006.00	1007.00	1008.00	1017.00	1013.00	979.00	955.00	954.00	919.00	916.00	942.00	961.00	918.00	902.00	966.00	1007.00	1021.00	997.00	958.00	928.00	926.00	879.00	843.00	802.00	762.00	732.00	694.00	687.00	680.00	673.00	674.00	673.00	674.00	679.00	670.00	664.00	668.00	670.00	672.00	675.00	674.00	674.00	673.00	672.00	675.00	683.00	691.00	714.00	799.00	835.00	863.00	881.00	892.00	922.00	995.00	1055.00	1069.00	1022.00	1004.00	1002.00	1013.00	1039.00	1078.00	1122.00	1178.00	1244.00	1289.00	1345.00	1326.00	1322.00	1361.00	1506.00	1474.00	1445.00	1472.00	1575.00	1526.00	1525.00	1609.00	1529.00	1381.00	1349.00	1351.00	1413.00	1524.00	1539.00	1558.00
1481.00	1521.00	1453.00	1367.00	1293.00	1202.00	1044.00	1109.00	1185.00	1272.00	1354.00	1496.00	1557.00	1509.00	1424.00	1337.00	1164.00	1093.00	1003.00	983.00	1114.00	1163.00	1166.00	1161.00	1034.00	1062.00	1123.00	1147.00	1141.00	1138.00	1136.00	1113.00	1119.00	1144.00	1142.00	1138.00	1114.00	1059.00	915.00	870.00	843.00	835.00	833.00	832.00	831.00	836.00	839.00	866.00	1002.00	1064.00	1144.00	1341.00	1349.00	1248.00	1141.00	1087.00	1282.00	1327.00	1221.00	1141.00	1140.00	1046.00	976.00	951.00	938.00	984.00	1011.00	1021.00	1032.00	977.00	957.00	946.00	939.00	955.00	1044.00	997.00	1001.00	1092.00	1203.00	1196.00	1241.00	1295.00	1269.00	1149.00	1052.00	954.00	900.00	986.00	1031.00	1084.00	1145.00	1130.00	1031.00	1023.00	1019.00	995.00	943.00	915.00	926.00	911.00	887.00	919.00	939.00	970.00	995.00	1025.00	1063.00	1114.00	1184.00	1256.00	1319.00	1187.00	1102.00	1023.00	828.00	792.00	790.00	788.00	785.00	784.00	784.00	788.00	791.00	804.00	829.00	878.00	935.00	998.00	1140.00	1191.00	1228.00	1271.00	1214.00	1138.00	1062.00	1030.00	1082.00	1078.00	1074.00	1112.00	1171.00	1261.00	1281.00	1269.00	1321.00	1295.00	1227.00	1196.00	1244.00	1319.00	1246.00	1192.00	1155.00	1142.00	1110.00	1035.00	1026.00	1027.00	1010.00	979.00	986.00	979.00	986.00	1101.00	1060.00	1090.00	1096.00	1096.00	1077.00	1075.00	1068.00	1075.00	1113.00	1134.00	1047.00	1028.00	1013.00	1029.00	984.00	925.00	898.00	881.00	872.00	873.00	860.00	876.00	846.00	823.00	812.00	796.00	785.00	792.00	782.00	749.00	726.00	690.00	685.00	681.00	675.00	670.00	669.00	669.00	666.00	663.00	665.00	671.00	671.00	671.00	672.00	672.00	671.00	671.00	671.00	674.00	679.00	684.00	703.00	731.00	751.00	772.00	790.00	813.00	864.00	885.00	897.00	917.00	999.00	1032.00	1070.00	1118.00	1168.00	1182.00	1156.00	1201.00	1284.00	1394.00	1506.00	1473.00	1416.00	1389.00	1513.00	1566.00	1532.00	1545.00	1651.00	1654.00	1663.00	1665.00	1603.00	1486.00	1433.00	1412.00	1421.00	1546.00	1613.00	1669.00
1264.00	1297.00	1391.00	1363.00	1271.00	1173.00	1015.00	1117.00	1171.00	1180.00	1237.00	1399.00	1457.00	1467.00	1458.00	1437.00	1235.00	1129.00	1019.00	976.00	1066.00	1087.00	1067.00	1064.00	1065.00	1114.00	1136.00	1170.00	1177.00	1201.00	1212.00	1221.00	1222.00	1290.00	1326.00	1339.00	1305.00	1282.00	1063.00	1011.00	943.00	885.00	840.00	835.00	830.00	829.00	825.00	814.00	846.00	894.00	972.00	1165.00	1203.00	1189.00	1132.00	1071.00	1094.00	1092.00	1077.00	1040.00	1044.00	1014.00	990.00	961.00	938.00	935.00	944.00	952.00	978.00	979.00	973.00	959.00	944.00	938.00	935.00	937.00	968.00	1009.00	1031.00	1012.00	1030.00	1037.00	1029.00	1010.00	987.00	944.00	890.00	957.00	1017.00	1056.00	1045.00	1033.00	1007.00	1032.00	1056.00	1018.00	1042.00	982.00	920.00	892.00	876.00	958.00	1019.00	1084.00	1155.00	1179.00	1211.00	1216.00	1263.00	1350.00	1390.00	1201.00	1110.00	1031.00	864.00	798.00	786.00	782.00	780.00	778.00	779.00	780.00	782.00	789.00	813.00	881.00	961.00	1054.00	1221.00	1309.00	1397.00	1410.00	1242.00	1176.00	1083.00	1010.00	1011.00	1092.00	1123.00	1142.00	1139.00	1116.00	1153.00	1179.00	1222.00	1246.00	1175.00	1140.00	1137.00	1167.00	1167.00	1123.00	1090.00	1122.00	1094.00	1017.00	1000.00	988.00	982.00	989.00	1017.00	1066.00	1110.00	1179.00	1174.00	1203.00	1234.00	1222.00	1180.00	1184.00	1193.00	1235.00	1226.00	1183.00	1128.00	1089.00	1058.00	1015.00	990.00	979.00	992.00	1050.00	1044.00	1000.00	900.00	855.00	830.00	831.00	856.00	910.00	849.00	783.00	756.00	751.00	725.00	690.00	686.00	681.00	677.00	670.00	668.00	666.00	664.00	663.00	667.00	671.00	670.00	670.00	671.00	671.00	671.00	670.00	669.00	671.00	674.00	677.00	699.00	783.00	849.00	911.00	922.00	923.00	972.00	1006.00	1033.00	1051.00	1076.00	1142.00	1190.00	1184.00	1218.00	1316.00	1319.00	1288.00	1275.00	1327.00	1481.00	1547.00	1539.00	1508.00	1491.00	1578.00	1648.00	1621.00	1691.00	1740.00	1795.00	1657.00	1567.00	1525.00	1508.00	1526.00	1551.00	1633.00	1675.00	1679.00
1264.00	1297.00	1391.00	1363.00	1271.00	1173.00	1015.00	1117.00	1171.00	1180.00	1237.00	1399.00	1457.00	1467.00	1458.00	1437.00	1235.00	1129.00	1019.00	976.00	1066.00	1087.00	1067.00	1064.00	1065.00	1114.00	1136.00	1170.00	1177.00	1201.00	1212.00	1221.00	1222.00	1290.00	1326.00	1339.00	1305.00	1282.00	1063.00	1011.00	943.00	885.00	840.00	835.00	830.00	829.00	825.00	814.00	846.00	894.00	972.00	1165.00	1203.00	1189.00	1132.00	1071.00	1094.00	1092.00	1077.00	1040.00	1044.00	1014.00	990.00	961.00	938.00	935.00	944.00	952.00	978.00	979.00	973.00	959.00	944.00	938.00	935.00	937.00	968.00	1009.00	1031.00	1012.00	1030.00	1037.00	1029.00	1010.00	987.00	944.00	890.00	957.00	1017.00	1056.00	1045.00	1033.00	1007.00	1032.00	1056.00	1018.00	1042.00	982.00	920.00	892.00	876.00	958.00	1019.00	1084.00	1155.00	1179.00	1211.00	1216.00	1263.00	1350.00	1390.00	1201.00	1110.00	1031.00	864.00	798.00	786.00	782.00	780.00	778.00	779.00	780.00	782.00	789.00	813.00	881.00	961.00	1054.00	1221.00	1309.00	1397.00	1410.00	1242.00	1176.00	1083.00	1010.00	1011.00	1092.00	1123.00	1142.00	1139.00	1116.00	1153.00	1179.00	1222.00	1246.00	1175.00	1140.00	1137.00	1167.00	1167.00	1123.00	1090.00	1122.00	1094.00	1017.00	1000.00	988.00	982.00	989.00	1017.00	1066.00	1110.00	1179.00	1174.00	1203.00	1234.00	1222.00	1180.00	1184.00	1193.00	1235.00	1226.00	1183.00	1128.00	1089.00	1058.00	1015.00	990.00	979.00	992.00	1050.00	1044.00	1000.00	900.00	855.00	830.00	831.00	856.00	910.00	849.00	783.00	756.00	751.00	725.00	690.00	686.00	681.00	677.00	670.00	668.00	666.00	664.00	663.00	667.00	671.00	670.00	670.00	671.00	671.00	671.00	670.00	669.00	671.00	674.00	677.00	699.00	783.00	849.00	911.00	922.00	923.00	972.00	1006.00	1033.00	1051.00	1076.00	1142.00	1190.00	1184.00	1218.00	1316.00	1319.00	1288.00	1275.00	1327.00	1481.00	1547.00	1539.00	1508.00	1491.00	1578.00	1648.00	1621.00	1691.00	1740.00	1795.00	1657.00	1567.00	1525.00	1508.00	1526.00	1551.00	1633.00	1675.00	1679.00
1264.00	1297.00	1391.00	1363.00	1271.00	1173.00	1015.00	1117.00	1171.00	1180.00	1237.00	1399.00	1457.00	1467.00	1458.00	1437.00	1235.00	1129.00	1019.00	976.00	1066.00	1087.00	1067.00	1064.00	1065.00	1114.00	1136.00	1170.00	1177.00	1201.00	1212.00	1221.00	1222.00	1290.00	1326.00	1339.00	1305.00	1282.00	1063.00	1011.00	943.00	885.00	840.00	835.00	830.00	829.00	825.00	814.00	846.00	894.00	972.00	1165.00	1203.00	1189.00	1132.00	1071.00	1094.00	1092.00	1077.00	1040.00	1044.00	1014.00	990.00	961.00	938.00	935.00	944.00	952.00	978.00	979.00	973.00	959.00	944.00	938.00	935.00	937.00	968.00	1009.00	1031.00	1012.00	1030.00	1037.00	1029.00	1010.00	987.00	944.00	890.00	957.00	1017.00	1056.00	1045.00	1033.00	1007.00	1032.00	1056.00	1018.00	1042.00	982.00	920.00	892.00	876.00	958.00	1019.00	1084.00	1155.00	1179.00	1211.00	1216.00	1263.00	1350.00	1390.00	1201.00	1110.00	1031.00	864.00	798.00	786.00	782.00	780.00	778.00	779.00	780.00	782.00	789.00	813.00	881.00	961.00	1054.00	1221.00	1309.00	1397.00	1410.00	1242.00	1176.00	1083.00	1010.00	1011.00	1092.00	1123.00	1142.00	1139.00	1116.00	1153.00	1179.00	1222.00	1246.00	1175.00	1140.00	1137.00	1167.00	1167.00	1123.00	1090.00	1122.00	1094.00	1017.00	1000.00	988.00	982.00	989.00	1017.00	1066.00	1110.00	1179.00	1174.00	1203.00	1234.00	1222.00	1180.00	1184.00	1193.00	1235.00	1226.00	1183.00	1128.00	1089.00	1058.00	1015.00	990.00	979.00	992.00	1050.00	1044.00	1000.00	900.00	855.00	830.00	831.00	856.00	910.00	849.00	783.00	756.00	751.00	725.00	690.00	686.00	681.00	677.00	670.00	668.00	666.00	664.00	663.00	667.00	671.00	670.00	670.00	671.00	671.00	671.00	670.00	669.00	671.00	674.00	677.00	699.00	783.00	849.00	911.00	922.00	923.00	972.00	1006.00	1033.00	1051.00	1076.00	1142.00	1190.00	1184.00	1218.00	1316.00	1319.00	1288.00	1275.00	1327.00	1481.00	1547.00	1539.00	1508.00	1491.00	1578.00	1648.00	1621.00	1691.00	1740.00	1795.00	1657.00	1567.00	1525.00	1508.00	1526.00	1551.00	1633.00	1675.00	1679.00
1072.00	1078.00	1118.00	1162.00	1125.00	1062.00	1052.00	1250.00	1313.00	1346.00	1341.00	1428.00	1387.00	1312.00	1250.00	1220.00	1181.00	1096.00	1011.00	971.00	1038.00	1019.00	1003.00	1037.00	1095.00	1119.00	1147.00	1195.00	1198.00	1231.00	1308.00	1363.00	1401.00	1371.00	1334.00	1318.00	1301.00	1312.00	1288.00	1197.00	1088.00	1008.00	893.00	855.00	836.00	827.00	822.00	809.00	808.00	812.00	833.00	947.00	1041.00	1121.00	1153.00	1101.00	1132.00	1094.00	1062.00	1062.00	1000.00	991.00	1006.00	1012.00	995.00	950.00	940.00	937.00	928.00	919.00	916.00	917.00	919.00	917.00	910.00	907.00	909.00	919.00	958.00	937.00	929.00	936.00	931.00	920.00	913.00	894.00	873.00	902.00	990.00	1062.00	1089.00	1077.00	1122.00	1148.00	1183.00	1197.00	1204.00	1121.00	1031.00	941.00	882.00	936.00	1032.00	1122.00	1197.00	1187.00	1131.00	1098.00	1140.00	1184.00	1235.00	1273.00	1201.00	1107.00	894.00	801.00	777.00	776.00	776.00	773.00	775.00	775.00	775.00	777.00	790.00	855.00	979.00	1084.00	1285.00	1380.00	1380.00	1312.00	1145.00	1080.00	1026.00	985.00	1022.00	1132.00	1149.00	1150.00	1136.00	1080.00	1096.00	1121.00	1144.00	1170.00	1161.00	1167.00	1137.00	1125.00	1072.00	1079.00	1064.00	1041.00	1024.00	987.00	972.00	953.00	984.00	1129.00	1186.00	1191.00	1141.00	1181.00	1211.00	1175.00	1125.00	1100.00	1105.00	1145.00	1182.00	1173.00	1144.00	1139.00	1177.00	1164.00	1112.00	1046.00	1055.00	1064.00	1046.00	1034.00	1015.00	979.00	913.00	907.00	949.00	1003.00	974.00	1017.00	1026.00	922.00	818.00	750.00	734.00	697.00	687.00	680.00	674.00	667.00	664.00	663.00	663.00	663.00	670.00	670.00	669.00	668.00	669.00	669.00	669.00	669.00	669.00	670.00	675.00	695.00	764.00	927.00	1009.00	1094.00	1155.00	1133.00	1143.00	1186.00	1175.00	1148.00	1184.00	1225.00	1266.00	1280.00	1317.00	1402.00	1407.00	1412.00	1444.00	1402.00	1444.00	1498.00	1560.00	1643.00	1677.00	1682.00	1749.00	1805.00	1895.00	1907.00	1886.00	1726.00	1658.00	1691.00	1691.00	1721.00	1735.00	1656.00	1608.00	1565.00
1197.00	1129.00	1094.00	1054.00	1015.00	976.00	1111.00	1271.00	1319.00	1348.00	1310.00	1252.00	1273.00	1250.00	1208.00	1144.00	1022.00	990.00	965.00	966.00	1011.00	1055.00	1097.00	1117.00	1151.00	1219.00	1287.00	1292.00	1229.00	1244.00	1292.00	1322.00	1349.00	1478.00	1474.00	1411.00	1339.00	1278.00	1359.00	1334.00	1272.00	1186.00	998.00	928.00	887.00	858.00	832.00	807.00	807.00	807.00	810.00	838.00	877.00	933.00	1015.00	1063.00	1068.00	1060.00	1047.00	1027.00	1018.00	988.00	985.00	981.00	984.00	966.00	961.00	950.00	946.00	923.00	914.00	909.00	907.00	907.00	895.00	893.00	891.00	892.00	890.00	891.00	890.00	889.00	886.00	859.00	857.00	854.00	851.00	843.00	856.00	879.00	939.00	1005.00	1160.00	1231.00	1283.00	1315.00	1266.00	1163.00	1062.00	954.00	872.00	892.00	945.00	974.00	986.00	1007.00	1040.00	1069.00	1084.00	1137.00	1303.00	1250.00	1199.00	1113.00	925.00	823.00	776.00	772.00	772.00	771.00	771.00	771.00	771.00	773.00	774.00	796.00	880.00	1006.00	1228.00	1249.00	1197.00	1144.00	1058.00	1041.00	975.00	990.00	1069.00	1174.00	1193.00	1218.00	1215.00	1109.00	1086.00	1135.00	1160.00	1171.00	1141.00	1156.00	1172.00	1164.00	1180.00	1194.00	1204.00	1117.00	1064.00	958.00	943.00	954.00	1002.00	1093.00	1089.00	1062.00	1027.00	1049.00	1046.00	1037.00	1055.00	1062.00	1126.00	1123.00	1124.00	1149.00	1139.00	1145.00	1180.00	1143.00	1116.00	1159.00	1203.00	1186.00	1157.00	1057.00	1039.00	1027.00	1011.00	1019.00	1100.00	1136.00	1133.00	1112.00	987.00	891.00	806.00	748.00	734.00	693.00	685.00	675.00	669.00	663.00	663.00	664.00	665.00	668.00	672.00	670.00	668.00	668.00	669.00	669.00	669.00	669.00	669.00	671.00	686.00	716.00	767.00	951.00	1057.00	1139.00	1176.00	1194.00	1133.00	1093.00	1120.00	1182.00	1272.00	1353.00	1402.00	1445.00	1437.00	1505.00	1569.00	1584.00	1556.00	1574.00	1516.00	1532.00	1607.00	1699.00	1830.00	1797.00	1799.00	1823.00	1896.00	1922.00	1930.00	1867.00	1841.00	1814.00	1776.00	1723.00	1667.00	1569.00	1534.00	1498.00
1197.00	1129.00	1094.00	1054.00	1015.00	976.00	1111.00	1271.00	1319.00	1348.00	1310.00	1252.00	1273.00	1250.00	1208.00	1144.00	1022.00	990.00	965.00	966.00	1011.00	1055.00	1097.00	1117.00	1151.00	1219.00	1287.00	1292.00	1229.00	1244.00	1292.00	1322.00	1349.00	1478.00	1474.00	1411.00	1339.00	1278.00	1359.00	1334.00	1272.00	1186.00	998.00	928.00	887.00	858.00	832.00	807.00	807.00	807.00	810.00	838.00	877.00	933.00	1015.00	1063.00	1068.00	1060.00	1047.00	1027.00	1018.00	988.00	985.00	981.00	984.00	966.00	961.00	950.00	946.00	923.00	914.00	909.00	907.00	907.00	895.00	893.00	891.00	892.00	890.00	891.00	890.00	889.00	886.00	859.00	857.00	854.00	851.00	843.00	856.00	879.00	939.00	1005.00	1160.00	1231.00	1283.00	1315.00	1266.00	1163.00	1062.00	954.00	872.00	892.00	945.00	974.00	986.00	1007.00	1040.00	1069.00	1084.00	1137.00	1303.00	1250.00	1199.00	1113.00	925.00	823.00	776.00	772.00	772.00	771.00	771.00	771.00	771.00	773.00	774.00	796.00	880.00	1006.00	1228.00	1249.00	1197.00	1144.00	1058.00	1041.00	975.00	990.00	1069.00	1174.00	1193.00	1218.00	1215.00	1109.00	1086.00	1135.00	1160.00	1171.00	1141.00	1156.00	1172.00	1164.00	1180.00	1194.00	1204.00	1117.00	1064.00	958.00	943.00	954.00	1002.00	1093.00	1089.00	1062.00	1027.00	1049.00	1046.00	1037.00	1055.00	1062.00	1126.00	1123.00	1124.00	1149.00	1139.00	1145.00	1180.00	1143.00	1116.00	1159.00	1203.00	1186.00	1157.00	1057.00	1039.00	1027.00	1011.00	1019.00	1100.00	1136.00	1133.00	1112.00	987.00	891.00	806.00	748.00	734.00	693.00	685.00	675.00	669.00	663.00	663.00	664.00	665.00	668.00	672.00	670.00	668.00	668.00	669.00	669.00	669.00	669.00	669.00	671.00	686.00	716.00	767.00	951.00	1057.00	1139.00	1176.00	1194.00	1133.00	1093.00	1120.00	1182.00	1272.00	1353.00	1402.00	1445.00	1437.00	1505.00	1569.00	1584.00	1556.00	1574.00	1516.00	1532.00	1607.00	1699.00	1830.00	1797.00	1799.00	1823.00	1896.00	1922.00	1930.00	1867.00	1841.00	1814.00	1776.00	1723.00	1667.00	1569.00	1534.00	1498.00
1197.00	1129.00	1094.00	1054.00	1015.00	976.00	1111.00	1271.00	1319.00	1348.00	1310.00	1252.00	1273.00	1250.00	1208.00	1144.00	1022.00	990.00	965.00	966.00	1011.00	1055.00	1097.00	1117.00	1151.00	1219.00	1287.00	1292.00	1229.00	1244.00	1292.00	1322.00	1349.00	1478.00	1474.00	1411.00	1339.00	1278.00	1359.00	1334.00	1272.00	1186.00	998.00	928.00	887.00	858.00	832.00	807.00	807.00	807.00	810.00	838.00	877.00	933.00	1015.00	1063.00	1068.00	1060.00	1047.00	1027.00	1018.00	988.00	985.00	981.00	984.00	966.00	961.00	950.00	946.00	923.00	914.00	909.00	907.00	907.00	895.00	893.00	891.00	892.00	890.00	891.00	890.00	889.00	886.00	859.00	857.00	854.00	851.00	843.00	856.00	879.00	939.00	1005.00	1160.00	1231.00	1283.00	1315.00	1266.00	1163.00	1062.00	954.00	872.00	892.00	945.00	974.00	986.00	1007.00	1040.00	1069.00	1084.00	1137.00	1303.00	1250.00	1199.00	1113.00	925.00	823.00	776.00	772.00	772.00	771.00	771.00	771.00	771.00	773.00	774.00	796.00	880.00	1006.00	1228.00	1249.00	1197.00	1144.00	1058.00	1041.00	975.00	990.00	1069.00	1174.00	1193.00	1218.00	1215.00	1109.00	1086.00	1135.00	1160.00	1171.00	1141.00	1156.00	1172.00	1164.00	1180.00	1194.00	1204.00	1117.00	1064.00	958.00	943.00	954.00	1002.00	1093.00	1089.00	1062.00	1027.00	1049.00	1046.00	1037.00	1055.00	1062.00	1126.00	1123.00	1124.00	1149.00	1139.00	1145.00	1180.00	1143.00	1116.00	1159.00	1203.00	1186.00	1157.00	1057.00	1039.00	1027.00	1011.00	1019.00	1100.00	1136.00	1133.00	1112.00	987.00	891.00	806.00	748.00	734.00	693.00	685.00	675.00	669.00	663.00	663.00	664.00	665.00	668.00	672.00	670.00	668.00	668.00	669.00	669.00	669.00	669.00	669.00	671.00	686.00	716.00	767.00	951.00	1057.00	1139.00	1176.00	1194.00	1133.00	1093.00	1120.00	1182.00	1272.00	1353.00	1402.00	1445.00	1437.00	1505.00	1569.00	1584.00	1556.00	1574.00	1516.00	1532.00	1607.00	1699.00	1830.00	1797.00	1799.00	1823.00	1896.00	1922.00	1930.00	1867.00	1841.00	1814.00	1776.00	1723.00	1667.00	1569.00	1534.00	1498.00
1294.00	1267.00	1204.00	1149.00	1077.00	988.00	1040.00	1142.00	1234.00	1283.00	1256.00	1109.00	1081.00	1076.00	1047.00	1007.00	946.00	953.00	977.00	999.00	1071.00	1063.00	1073.00	1096.00	1160.00	1230.00	1255.00	1182.00	1133.00	1249.00	1324.00	1418.00	1486.00	1556.00	1532.00	1449.00	1382.00	1312.00	1283.00	1344.00	1315.00	1235.00	1109.00	1066.00	1004.00	942.00	888.00	825.00	812.00	808.00	807.00	812.00	830.00	864.00	925.00	995.00	1029.00	1023.00	1005.00	988.00	1012.00	1022.00	1035.00	1034.00	1034.00	1019.00	1017.00	1005.00	1006.00	1009.00	1004.00	1003.00	975.00	973.00	990.00	959.00	920.00	926.00	907.00	908.00	910.00	929.00	937.00	946.00	945.00	941.00	938.00	862.00	842.00	838.00	835.00	840.00	918.00	970.00	1010.00	1039.00	1076.00	1031.00	953.00	889.00	844.00	955.00	1016.00	1046.00	1081.00	1168.00	1227.00	1279.00	1306.00	1300.00	1315.00	1148.00	1100.00	1055.00	949.00	840.00	784.00	771.00	769.00	769.00	768.00	767.00	766.00	769.00	771.00	776.00	790.00	846.00	1038.00	1073.00	1056.00	1030.00	1002.00	960.00	977.00	1074.00	1138.00	1161.00	1179.00	1194.00	1162.00	1054.00	1035.00	1059.00	1086.00	1108.00	1137.00	1130.00	1143.00	1171.00	1226.00	1216.00	1232.00	1200.00	1120.00	977.00	943.00	944.00	966.00	988.00	1006.00	1022.00	1030.00	1104.00	1159.00	1134.00	1133.00	1187.00	1163.00	1174.00	1214.00	1247.00	1242.00	1286.00	1235.00	1208.00	1232.00	1253.00	1224.00	1170.00	1141.00	1111.00	1117.00	1095.00	1146.00	1133.00	1039.00	1009.00	985.00	960.00	859.00	808.00	776.00	752.00	729.00	700.00	691.00	678.00	666.00	662.00	662.00	662.00	670.00	699.00	687.00	672.00	668.00	666.00	666.00	666.00	665.00	666.00	667.00	669.00	672.00	685.00	721.00	825.00	874.00	912.00	945.00	985.00	1084.00	1131.00	1162.00	1203.00	1381.00	1351.00	1375.00	1466.00	1551.00	1686.00	1725.00	1747.00	1738.00	1721.00	1738.00	1727.00	1739.00	1736.00	1638.00	1641.00	1696.00	1741.00	1803.00	1823.00	1829.00	1776.00	1725.00	1739.00	1737.00	1739.00	1728.00	1587.00	1527.00	1488.00
1297.00	1225.00	1146.00	1097.00	1035.00	981.00	949.00	1087.00	1142.00	1136.00	1109.00	989.00	962.00	939.00	927.00	930.00	975.00	1005.00	1024.00	1029.00	1063.00	1073.00	1109.00	1140.00	1137.00	1130.00	1132.00	1114.00	1089.00	1179.00	1247.00	1313.00	1377.00	1426.00	1459.00	1466.00	1439.00	1380.00	1220.00	1308.00	1370.00	1394.00	1304.00	1240.00	1169.00	1086.00	993.00	879.00	824.00	811.00	804.00	806.00	821.00	846.00	885.00	932.00	994.00	1011.00	1053.00	1089.00	1140.00	1163.00	1187.00	1145.00	1192.00	1163.00	1112.00	1182.00	1203.00	1124.00	1124.00	1143.00	1085.00	1061.00	1136.00	1068.00	1036.00	1098.00	1003.00	1022.00	1005.00	1061.00	1070.00	1044.00	1019.00	989.00	968.00	920.00	889.00	874.00	857.00	843.00	805.00	811.00	827.00	855.00	905.00	909.00	895.00	863.00	827.00	1030.00	1136.00	1230.00	1297.00	1258.00	1204.00	1258.00	1349.00	1378.00	1311.00	1178.00	1087.00	992.00	928.00	851.00	803.00	777.00	769.00	766.00	764.00	764.00	762.00	765.00	769.00	775.00	784.00	801.00	865.00	921.00	972.00	1003.00	992.00	928.00	981.00	1055.00	1081.00	1077.00	1092.00	1082.00	1038.00	1004.00	1136.00	1148.00	1171.00	1195.00	1254.00	1204.00	1154.00	1127.00	1126.00	1101.00	1088.00	1075.00	1078.00	1019.00	964.00	936.00	952.00	1060.00	1139.00	1196.00	1190.00	1178.00	1233.00	1260.00	1241.00	1225.00	1281.00	1298.00	1318.00	1328.00	1318.00	1321.00	1321.00	1310.00	1284.00	1240.00	1208.00	1193.00	1177.00	1176.00	1190.00	1180.00	1232.00	1240.00	1126.00	1037.00	1006.00	957.00	874.00	856.00	820.00	788.00	748.00	735.00	741.00	710.00	686.00	667.00	664.00	663.00	665.00	679.00	679.00	670.00	666.00	664.00	666.00	666.00	666.00	666.00	667.00	669.00	669.00	670.00	694.00	785.00	847.00	921.00	1011.00	1089.00	1256.00	1340.00	1368.00	1339.00	1497.00	1565.00	1578.00	1591.00	1617.00	1632.00	1630.00	1634.00	1644.00	1642.00	1695.00	1683.00	1632.00	1539.00	1582.00	1612.00	1613.00	1644.00	1760.00	1774.00	1780.00	1680.00	1617.00	1619.00	1620.00	1619.00	1632.00	1611.00	1584.00	1547.00
1297.00	1225.00	1146.00	1097.00	1035.00	981.00	949.00	1087.00	1142.00	1136.00	1109.00	989.00	962.00	939.00	927.00	930.00	975.00	1005.00	1024.00	1029.00	1063.00	1073.00	1109.00	1140.00	1137.00	1130.00	1132.00	1114.00	1089.00	1179.00	1247.00	1313.00	1377.00	1426.00	1459.00	1466.00	1439.00	1380.00	1220.00	1308.00	1370.00	1394.00	1304.00	1240.00	1169.00	1086.00	993.00	879.00	824.00	811.00	804.00	806.00	821.00	846.00	885.00	932.00	994.00	1011.00	1053.00	1089.00	1140.00	1163.00	1187.00	1145.00	1192.00	1163.00	1112.00	1182.00	1203.00	1124.00	1124.00	1143.00	1085.00	1061.00	1136.00	1068.00	1036.00	1098.00	1003.00	1022.00	1005.00	1061.00	1070.00	1044.00	1019.00	989.00	968.00	920.00	889.00	874.00	857.00	843.00	805.00	811.00	827.00	855.00	905.00	909.00	895.00	863.00	827.00	1030.00	1136.00	1230.00	1297.00	1258.00	1204.00	1258.00	1349.00	1378.00	1311.00	1178.00	1087.00	992.00	928.00	851.00	803.00	777.00	769.00	766.00	764.00	764.00	762.00	765.00	769.00	775.00	784.00	801.00	865.00	921.00	972.00	1003.00	992.00	928.00	981.00	1055.00	1081.00	1077.00	1092.00	1082.00	1038.00	1004.00	1136.00	1148.00	1171.00	1195.00	1254.00	1204.00	1154.00	1127.00	1126.00	1101.00	1088.00	1075.00	1078.00	1019.00	964.00	936.00	952.00	1060.00	1139.00	1196.00	1190.00	1178.00	1233.00	1260.00	1241.00	1225.00	1281.00	1298.00	1318.00	1328.00	1318.00	1321.00	1321.00	1310.00	1284.00	1240.00	1208.00	1193.00	1177.00	1176.00	1190.00	1180.00	1232.00	1240.00	1126.00	1037.00	1006.00	957.00	874.00	856.00	820.00	788.00	748.00	735.00	741.00	710.00	686.00	667.00	664.00	663.00	665.00	679.00	679.00	670.00	666.00	664.00	666.00	666.00	666.00	666.00	667.00	669.00	669.00	670.00	694.00	785.00	847.00	921.00	1011.00	1089.00	1256.00	1340.00	1368.00	1339.00	1497.00	1565.00	1578.00	1591.00	1617.00	1632.00	1630.00	1634.00	1644.00	1642.00	1695.00	1683.00	1632.00	1539.00	1582.00	1612.00	1613.00	1644.00	1760.00	1774.00	1780.00	1680.00	1617.00	1619.00	1620.00	1619.00	1632.00	1611.00	1584.00	1547.00
1297.00	1225.00	1146.00	1097.00	1035.00	981.00	949.00	1087.00	1142.00	1136.00	1109.00	989.00	962.00	939.00	927.00	930.00	975.00	1005.00	1024.00	1029.00	1063.00	1073.00	1109.00	1140.00	1137.00	1130.00	1132.00	1114.00	1089.00	1179.00	1247.00	1313.00	1377.00	1426.00	1459.00	1466.00	1439.00	1380.00	1220.00	1308.00	1370.00	1394.00	1304.00	1240.00	1169.00	1086.00	993.00	879.00	824.00	811.00	804.00	806.00	821.00	846.00	885.00	932.00	994.00	1011.00	1053.00	1089.00	1140.00	1163.00	1187.00	1145.00	1192.00	1163.00	1112.00	1182.00	1203.00	1124.00	1124.00	1143.00	1085.00	1061.00	1136.00	1068.00	1036.00	1098.00	1003.00	1022.00	1005.00	1061.00	1070.00	1044.00	1019.00	989.00	968.00	920.00	889.00	874.00	857.00	843.00	805.00	811.00	827.00	855.00	905.00	909.00	895.00	863.00	827.00	1030.00	1136.00	1230.00	1297.00	1258.00	1204.00	1258.00	1349.00	1378.00	1311.00	1178.00	1087.00	992.00	928.00	851.00	803.00	777.00	769.00	766.00	764.00	764.00	762.00	765.00	769.00	775.00	784.00	801.00	865.00	921.00	972.00	1003.00	992.00	928.00	981.00	1055.00	1081.00	1077.00	1092.00	1082.00	1038.00	1004.00	1136.00	1148.00	1171.00	1195.00	1254.00	1204.00	1154.00	1127.00	1126.00	1101.00	1088.00	1075.00	1078.00	1019.00	964.00	936.00	952.00	1060.00	1139.00	1196.00	1190.00	1178.00	1233.00	1260.00	1241.00	1225.00	1281.00	1298.00	1318.00	1328.00	1318.00	1321.00	1321.00	1310.00	1284.00	1240.00	1208.00	1193.00	1177.00	1176.00	1190.00	1180.00	1232.00	1240.00	1126.00	1037.00	1006.00	957.00	874.00	856.00	820.00	788.00	748.00	735.00	741.00	710.00	686.00	667.00	664.00	663.00	665.00	679.00	679.00	670.00	666.00	664.00	666.00	666.00	666.00	666.00	667.00	669.00	669.00	670.00	694.00	785.00	847.00	921.00	1011.00	1089.00	1256.00	1340.00	1368.00	1339.00	1497.00	1565.00	1578.00	1591.00	1617.00	1632.00	1630.00	1634.00	1644.00	1642.00	1695.00	1683.00	1632.00	1539.00	1582.00	1612.00	1613.00	1644.00	1760.00	1774.00	1780.00	1680.00	1617.00	1619.00	1620.00	1619.00	1632.00	1611.00	1584.00	1547.00
1184.00	1180.00	1129.00	1095.00	1063.00	1027.00	912.00	1017.00	1005.00	969.00	942.00	929.00	941.00	936.00	942.00	967.00	1071.00	1085.00	1083.00	1086.00	1205.00	1206.00	1165.00	1178.00	1265.00	1253.00	1230.00	1200.00	1139.00	1065.00	1083.00	1130.00	1177.00	1233.00	1250.00	1269.00	1281.00	1272.00	1147.00	1217.00	1281.00	1328.00	1335.00	1253.00	1172.00	1104.00	1052.00	915.00	830.00	815.00	799.00	795.00	807.00	832.00	862.00	904.00	1057.00	1135.00	1138.00	1183.00	1320.00	1363.00	1361.00	1309.00	1351.00	1294.00	1253.00	1272.00	1357.00	1252.00	1293.00	1293.00	1212.00	1209.00	1236.00	1161.00	1180.00	1225.00	1155.00	1146.00	1138.00	1136.00	1081.00	1067.00	1003.00	1065.00	1080.00	963.00	986.00	1053.00	1021.00	992.00	920.00	871.00	832.00	807.00	819.00	827.00	826.00	823.00	832.00	1014.00	1091.00	1154.00	1183.00	1130.00	1063.00	1138.00	1214.00	1186.00	1183.00	1076.00	1009.00	955.00	969.00	862.00	808.00	785.00	767.00	760.00	760.00	760.00	759.00	761.00	764.00	774.00	779.00	789.00	822.00	860.00	908.00	959.00	929.00	915.00	960.00	984.00	993.00	992.00	998.00	994.00	974.00	1028.00	1146.00	1168.00	1185.00	1231.00	1270.00	1248.00	1183.00	1150.00	1204.00	1207.00	1167.00	1084.00	1032.00	985.00	960.00	935.00	948.00	1037.00	1087.00	1137.00	1180.00	1178.00	1163.00	1153.00	1181.00	1220.00	1199.00	1214.00	1229.00	1247.00	1293.00	1329.00	1386.00	1406.00	1427.00	1379.00	1341.00	1319.00	1264.00	1177.00	1201.00	1239.00	1237.00	1262.00	1225.00	1198.00	1195.00	1156.00	1096.00	1067.00	997.00	906.00	791.00	714.00	722.00	706.00	692.00	672.00	666.00	662.00	662.00	666.00	667.00	664.00	661.00	660.00	662.00	662.00	663.00	663.00	664.00	666.00	666.00	665.00	679.00	818.00	921.00	1020.00	1124.00	1228.00	1368.00	1433.00	1477.00	1467.00	1485.00	1529.00	1563.00	1573.00	1560.00	1449.00	1426.00	1495.00	1519.00	1501.00	1555.00	1555.00	1487.00	1431.00	1520.00	1539.00	1534.00	1584.00	1723.00	1770.00	1756.00	1629.00	1587.00	1512.00	1504.00	1494.00	1480.00	1455.00	1434.00	1408.00
1183.00	1116.00	1004.00	999.00	982.00	943.00	910.00	962.00	992.00	1034.00	1058.00	1061.00	1062.00	1051.00	999.00	986.00	1210.00	1257.00	1268.00	1221.00	1317.00	1345.00	1294.00	1278.00	1374.00	1394.00	1346.00	1217.00	1171.00	1099.00	1065.00	1050.00	1057.00	1105.00	1123.00	1137.00	1145.00	1136.00	1159.00	1239.00	1295.00	1324.00	1306.00	1253.00	1171.00	1098.00	1039.00	893.00	834.00	818.00	802.00	792.00	806.00	831.00	854.00	888.00	1074.00	1180.00	1288.00	1293.00	1423.00	1469.00	1493.00	1503.00	1528.00	1486.00	1455.00	1483.00	1506.00	1479.00	1414.00	1351.00	1329.00	1366.00	1406.00	1393.00	1408.00	1421.00	1396.00	1371.00	1344.00	1273.00	1195.00	1153.00	1089.00	1209.00	1252.00	1085.00	1044.00	1134.00	1265.00	1224.00	1108.00	1039.00	962.00	887.00	814.00	803.00	803.00	810.00	818.00	999.00	1055.00	1081.00	1072.00	1013.00	949.00	953.00	952.00	937.00	929.00	919.00	929.00	973.00	882.00	809.00	779.00	765.00	758.00	755.00	755.00	755.00	755.00	758.00	761.00	768.00	795.00	827.00	850.00	848.00	865.00	888.00	877.00	914.00	934.00	942.00	939.00	939.00	945.00	955.00	977.00	1006.00	1052.00	1084.00	1116.00	1148.00	1222.00	1207.00	1139.00	1087.00	1129.00	1147.00	1139.00	1073.00	1042.00	953.00	934.00	932.00	946.00	1008.00	1030.00	1044.00	1053.00	1059.00	1072.00	1113.00	1134.00	1135.00	1148.00	1195.00	1244.00	1274.00	1306.00	1352.00	1454.00	1437.00	1392.00	1313.00	1271.00	1254.00	1226.00	1179.00	1154.00	1139.00	1173.00	1204.00	1259.00	1217.00	1137.00	1080.00	1057.00	955.00	866.00	788.00	727.00	680.00	676.00	673.00	675.00	672.00	668.00	663.00	662.00	664.00	663.00	661.00	658.00	660.00	662.00	663.00	663.00	662.00	664.00	666.00	665.00	664.00	691.00	830.00	909.00	984.00	1052.00	1118.00	1274.00	1339.00	1357.00	1322.00	1291.00	1296.00	1293.00	1300.00	1325.00	1301.00	1320.00	1337.00	1323.00	1335.00	1368.00	1372.00	1369.00	1372.00	1436.00	1466.00	1512.00	1590.00	1724.00	1771.00	1787.00	1758.00	1706.00	1597.00	1567.00	1544.00	1516.00	1445.00	1436.00	1447.00
1183.00	1116.00	1004.00	999.00	982.00	943.00	910.00	962.00	992.00	1034.00	1058.00	1061.00	1062.00	1051.00	999.00	986.00	1210.00	1257.00	1268.00	1221.00	1317.00	1345.00	1294.00	1278.00	1374.00	1394.00	1346.00	1217.00	1171.00	1099.00	1065.00	1050.00	1057.00	1105.00	1123.00	1137.00	1145.00	1136.00	1159.00	1239.00	1295.00	1324.00	1306.00	1253.00	1171.00	1098.00	1039.00	893.00	834.00	818.00	802.00	792.00	806.00	831.00	854.00	888.00	1074.00	1180.00	1288.00	1293.00	1423.00	1469.00	1493.00	1503.00	1528.00	1486.00	1455.00	1483.00	1506.00	1479.00	1414.00	1351.00	1329.00	1366.00	1406.00	1393.00	1408.00	1421.00	1396.00	1371.00	1344.00	1273.00	1195.00	1153.00	1089.00	1209.00	1252.00	1085.00	1044.00	1134.00	1265.00	1224.00	1108.00	1039.00	962.00	887.00	814.00	803.00	803.00	810.00	818.00	999.00	1055.00	1081.00	1072.00	1013.00	949.00	953.00	952.00	937.00	929.00	919.00	929.00	973.00	882.00	809.00	779.00	765.00	758.00	755.00	755.00	755.00	755.00	758.00	761.00	768.00	795.00	827.00	850.00	848.00	865.00	888.00	877.00	914.00	934.00	942.00	939.00	939.00	945.00	955.00	977.00	1006.00	1052.00	1084.00	1116.00	1148.00	1222.00	1207.00	1139.00	1087.00	1129.00	1147.00	1139.00	1073.00	1042.00	953.00	934.00	932.00	946.00	1008.00	1030.00	1044.00	1053.00	1059.00	1072.00	1113.00	1134.00	1135.00	1148.00	1195.00	1244.00	1274.00	1306.00	1352.00	1454.00	1437.00	1392.00	1313.00	1271.00	1254.00	1226.00	1179.00	1154.00	1139.00	1173.00	1204.00	1259.00	1217.00	1137.00	1080.00	1057.00	955.00	866.00	788.00	727.00	680.00	676.00	673.00	675.00	672.00	668.00	663.00	662.00	664.00	663.00	661.00	658.00	660.00	662.00	663.00	663.00	662.00	664.00	666.00	665.00	664.00	691.00	830.00	909.00	984.00	1052.00	1118.00	1274.00	1339.00	1357.00	1322.00	1291.00	1296.00	1293.00	1300.00	1325.00	1301.00	1320.00	1337.00	1323.00	1335.00	1368.00	1372.00	1369.00	1372.00	1436.00	1466.00	1512.00	1590.00	1724.00	1771.00	1787.00	1758.00	1706.00	1597.00	1567.00	1544.00	1516.00	1445.00	1436.00	1447.00
1183.00	1116.00	1004.00	999.00	982.00	943.00	910.00	962.00	992.00	1034.00	1058.00	1061.00	1062.00	1051.00	999.00	986.00	1210.00	1257.00	1268.00	1221.00	1317.00	1345.00	1294.00	1278.00	1374.00	1394.00	1346.00	1217.00	1171.00	1099.00	1065.00	1050.00	1057.00	1105.00	1123.00	1137.00	1145.00	1136.00	1159.00	1239.00	1295.00	1324.00	1306.00	1253.00	1171.00	1098.00	1039.00	893.00	834.00	818.00	802.00	792.00	806.00	831.00	854.00	888.00	1074.00	1180.00	1288.00	1293.00	1423.00	1469.00	1493.00	1503.00	1528.00	1486.00	1455.00	1483.00	1506.00	1479.00	1414.00	1351.00	1329.00	1366.00	1406.00	1393.00	1408.00	1421.00	1396.00	1371.00	1344.00	1273.00	1195.00	1153.00	1089.00	1209.00	1252.00	1085.00	1044.00	1134.00	1265.00	1224.00	1108.00	1039.00	962.00	887.00	814.00	803.00	803.00	810.00	818.00	999.00	1055.00	1081.00	1072.00	1013.00	949.00	953.00	952.00	937.00	929.00	919.00	929.00	973.00	882.00	809.00	779.00	765.00	758.00	755.00	755.00	755.00	755.00	758.00	761.00	768.00	795.00	827.00	850.00	848.00	865.00	888.00	877.00	914.00	934.00	942.00	939.00	939.00	945.00	955.00	977.00	1006.00	1052.00	1084.00	1116.00	1148.00	1222.00	1207.00	1139.00	1087.00	1129.00	1147.00	1139.00	1073.00	1042.00	953.00	934.00	932.00	946.00	1008.00	1030.00	1044.00	1053.00	1059.00	1072.00	1113.00	1134.00	1135.00	1148.00	1195.00	1244.00	1274.00	1306.00	1352.00	1454.00	1437.00	1392.00	1313.00	1271.00	1254.00	1226.00	1179.00	1154.00	1139.00	1173.00	1204.00	1259.00	1217.00	1137.00	1080.00	1057.00	955.00	866.00	788.00	727.00	680.00	676.00	673.00	675.00	672.00	668.00	663.00	662.00	664.00	663.00	661.00	658.00	660.00	662.00	663.00	663.00	662.00	664.00	666.00	665.00	664.00	691.00	830.00	909.00	984.00	1052.00	1118.00	1274.00	1339.00	1357.00	1322.00	1291.00	1296.00	1293.00	1300.00	1325.00	1301.00	1320.00	1337.00	1323.00	1335.00	1368.00	1372.00	1369.00	1372.00	1436.00	1466.00	1512.00	1590.00	1724.00	1771.00	1787.00	1758.00	1706.00	1597.00	1567.00	1544.00	1516.00	1445.00	1436.00	1447.00
1129.00	1049.00	927.00	903.00	937.00	966.00	1047.00	1135.00	1116.00	1174.00	1228.00	1212.00	1172.00	1133.00	1089.00	1033.00	1125.00	1180.00	1214.00	1220.00	1321.00	1369.00	1346.00	1283.00	1299.00	1321.00	1356.00	1352.00	1333.00	1268.00	1217.00	1161.00	1118.00	1070.00	1056.00	1054.00	1052.00	1032.00	1070.00	1102.00	1130.00	1153.00	1152.00	1100.00	1100.00	1158.00	1118.00	935.00	840.00	822.00	810.00	793.00	800.00	817.00	836.00	873.00	1038.00	1138.00	1329.00	1412.00	1492.00	1414.00	1333.00	1352.00	1403.00	1350.00	1325.00	1372.00	1412.00	1511.00	1437.00	1365.00	1310.00	1276.00	1291.00	1311.00	1311.00	1312.00	1344.00	1415.00	1433.00	1409.00	1378.00	1274.00	1228.00	1262.00	1318.00	1189.00	1166.00	1169.00	1208.00	1165.00	1071.00	1025.00	992.00	965.00	842.00	808.00	790.00	790.00	801.00	881.00	891.00	890.00	878.00	873.00	881.00	889.00	907.00	940.00	1004.00	1009.00	960.00	914.00	804.00	770.00	756.00	754.00	753.00	751.00	751.00	752.00	752.00	762.00	767.00	780.00	796.00	803.00	826.00	827.00	838.00	863.00	910.00	924.00	931.00	937.00	947.00	927.00	933.00	940.00	940.00	962.00	980.00	998.00	1022.00	1045.00	1122.00	1178.00	1170.00	1132.00	1016.00	1056.00	1077.00	1016.00	975.00	919.00	934.00	945.00	956.00	963.00	973.00	985.00	993.00	1011.00	1022.00	1038.00	1055.00	1078.00	1205.00	1268.00	1322.00	1370.00	1370.00	1406.00	1450.00	1395.00	1342.00	1266.00	1231.00	1193.00	1157.00	1100.00	1090.00	1071.00	1073.00	1086.00	1053.00	1007.00	957.00	904.00	831.00	768.00	720.00	699.00	688.00	668.00	667.00	667.00	667.00	667.00	663.00	659.00	658.00	658.00	658.00	657.00	657.00	657.00	662.00	663.00	663.00	663.00	662.00	662.00	663.00	664.00	686.00	796.00	879.00	993.00	1107.00	1198.00	1278.00	1281.00	1251.00	1205.00	1126.00	1121.00	1118.00	1127.00	1141.00	1167.00	1179.00	1190.00	1212.00	1262.00	1309.00	1330.00	1339.00	1389.00	1541.00	1601.00	1603.00	1623.00	1695.00	1672.00	1655.00	1636.00	1622.00	1577.00	1526.00	1482.00	1477.00	1446.00	1382.00	1343.00
1005.00	930.00	922.00	991.00	1057.00	1109.00	1237.00	1239.00	1246.00	1291.00	1356.00	1315.00	1245.00	1182.00	1133.00	1097.00	1048.00	1099.00	1163.00	1244.00	1355.00	1403.00	1416.00	1336.00	1223.00	1212.00	1195.00	1197.00	1236.00	1277.00	1264.00	1258.00	1257.00	1224.00	1208.00	1207.00	1181.00	1132.00	999.00	990.00	992.00	1009.00	1020.00	994.00	991.00	1001.00	968.00	900.00	838.00	822.00	811.00	792.00	791.00	796.00	813.00	844.00	1003.00	1099.00	1239.00	1241.00	1339.00	1360.00	1270.00	1203.00	1226.00	1204.00	1264.00	1366.00	1412.00	1473.00	1474.00	1443.00	1403.00	1374.00	1259.00	1201.00	1234.00	1313.00	1472.00	1516.00	1549.00	1537.00	1461.00	1423.00	1446.00	1480.00	1468.00	1393.00	1376.00	1365.00	1327.00	1312.00	1263.00	1210.00	1136.00	1041.00	880.00	834.00	799.00	785.00	790.00	842.00	872.00	904.00	930.00	981.00	1027.00	1043.00	1050.00	1101.00	1164.00	1036.00	963.00	868.00	774.00	755.00	748.00	748.00	747.00	747.00	748.00	748.00	749.00	768.00	776.00	786.00	803.00	831.00	851.00	866.00	921.00	983.00	1085.00	1053.00	1045.00	1028.00	1010.00	994.00	978.00	960.00	946.00	929.00	922.00	923.00	928.00	938.00	989.00	1023.00	1036.00	1055.00	974.00	1012.00	968.00	924.00	915.00	951.00	980.00	1006.00	1032.00	1043.00	1027.00	1028.00	1053.00	1097.00	1083.00	1056.00	1051.00	1089.00	1152.00	1206.00	1250.00	1289.00	1421.00	1503.00	1601.00	1530.00	1463.00	1328.00	1308.00	1278.00	1240.00	1201.00	1184.00	1132.00	992.00	980.00	961.00	932.00	886.00	839.00	725.00	698.00	683.00	672.00	671.00	666.00	665.00	664.00	664.00	665.00	663.00	660.00	659.00	659.00	657.00	657.00	657.00	658.00	661.00	664.00	666.00	664.00	663.00	666.00	667.00	668.00	707.00	879.00	976.00	1055.00	1100.00	1102.00	1073.00	1062.00	1048.00	1029.00	1021.00	1035.00	1064.00	1101.00	1137.00	1224.00	1280.00	1325.00	1347.00	1463.00	1525.00	1485.00	1422.00	1447.00	1523.00	1613.00	1708.00	1761.00	1673.00	1610.00	1579.00	1557.00	1539.00	1570.00	1577.00	1555.00	1497.00	1410.00	1373.00	1314.00
1005.00	930.00	922.00	991.00	1057.00	1109.00	1237.00	1239.00	1246.00	1291.00	1356.00	1315.00	1245.00	1182.00	1133.00	1097.00	1048.00	1099.00	1163.00	1244.00	1355.00	1403.00	1416.00	1336.00	1223.00	1212.00	1195.00	1197.00	1236.00	1277.00	1264.00	1258.00	1257.00	1224.00	1208.00	1207.00	1181.00	1132.00	999.00	990.00	992.00	1009.00	1020.00	994.00	991.00	1001.00	968.00	900.00	838.00	822.00	811.00	792.00	791.00	796.00	813.00	844.00	1003.00	1099.00	1239.00	1241.00	1339.00	1360.00	1270.00	1203.00	1226.00	1204.00	1264.00	1366.00	1412.00	1473.00	1474.00	1443.00	1403.00	1374.00	1259.00	1201.00	1234.00	1313.00	1472.00	1516.00	1549.00	1537.00	1461.00	1423.00	1446.00	1480.00	1468.00	1393.00	1376.00	1365.00	1327.00	1312.00	1263.00	1210.00	1136.00	1041.00	880.00	834.00	799.00	785.00	790.00	842.00	872.00	904.00	930.00	981.00	1027.00	1043.00	1050.00	1101.00	1164.00	1036.00	963.00	868.00	774.00	755.00	748.00	748.00	747.00	747.00	748.00	748.00	749.00	768.00	776.00	786.00	803.00	831.00	851.00	866.00	921.00	983.00	1085.00	1053.00	1045.00	1028.00	1010.00	994.00	978.00	960.00	946.00	929.00	922.00	923.00	928.00	938.00	989.00	1023.00	1036.00	1055.00	974.00	1012.00	968.00	924.00	915.00	951.00	980.00	1006.00	1032.00	1043.00	1027.00	1028.00	1053.00	1097.00	1083.00	1056.00	1051.00	1089.00	1152.00	1206.00	1250.00	1289.00	1421.00	1503.00	1601.00	1530.00	1463.00	1328.00	1308.00	1278.00	1240.00	1201.00	1184.00	1132.00	992.00	980.00	961.00	932.00	886.00	839.00	725.00	698.00	683.00	672.00	671.00	666.00	665.00	664.00	664.00	665.00	663.00	660.00	659.00	659.00	657.00	657.00	657.00	658.00	661.00	664.00	666.00	664.00	663.00	666.00	667.00	668.00	707.00	879.00	976.00	1055.00	1100.00	1102.00	1073.00	1062.00	1048.00	1029.00	1021.00	1035.00	1064.00	1101.00	1137.00	1224.00	1280.00	1325.00	1347.00	1463.00	1525.00	1485.00	1422.00	1447.00	1523.00	1613.00	1708.00	1761.00	1673.00	1610.00	1579.00	1557.00	1539.00	1570.00	1577.00	1555.00	1497.00	1410.00	1373.00	1314.00
1005.00	930.00	922.00	991.00	1057.00	1109.00	1237.00	1239.00	1246.00	1291.00	1356.00	1315.00	1245.00	1182.00	1133.00	1097.00	1048.00	1099.00	1163.00	1244.00	1355.00	1403.00	1416.00	1336.00	1223.00	1212.00	1195.00	1197.00	1236.00	1277.00	1264.00	1258.00	1257.00	1224.00	1208.00	1207.00	1181.00	1132.00	999.00	990.00	992.00	1009.00	1020.00	994.00	991.00	1001.00	968.00	900.00	838.00	822.00	811.00	792.00	791.00	796.00	813.00	844.00	1003.00	1099.00	1239.00	1241.00	1339.00	1360.00	1270.00	1203.00	1226.00	1204.00	1264.00	1366.00	1412.00	1473.00	1474.00	1443.00	1403.00	1374.00	1259.00	1201.00	1234.00	1313.00	1472.00	1516.00	1549.00	1537.00	1461.00	1423.00	1446.00	1480.00	1468.00	1393.00	1376.00	1365.00	1327.00	1312.00	1263.00	1210.00	1136.00	1041.00	880.00	834.00	799.00	785.00	790.00	842.00	872.00	904.00	930.00	981.00	1027.00	1043.00	1050.00	1101.00	1164.00	1036.00	963.00	868.00	774.00	755.00	748.00	748.00	747.00	747.00	748.00	748.00	749.00	768.00	776.00	786.00	803.00	831.00	851.00	866.00	921.00	983.00	1085.00	1053.00	1045.00	1028.00	1010.00	994.00	978.00	960.00	946.00	929.00	922.00	923.00	928.00	938.00	989.00	1023.00	1036.00	1055.00	974.00	1012.00	968.00	924.00	915.00	951.00	980.00	1006.00	1032.00	1043.00	1027.00	1028.00	1053.00	1097.00	1083.00	1056.00	1051.00	1089.00	1152.00	1206.00	1250.00	1289.00	1421.00	1503.00	1601.00	1530.00	1463.00	1328.00	1308.00	1278.00	1240.00	1201.00	1184.00	1132.00	992.00	980.00	961.00	932.00	886.00	839.00	725.00	698.00	683.00	672.00	671.00	666.00	665.00	664.00	664.00	665.00	663.00	660.00	659.00	659.00	657.00	657.00	657.00	658.00	661.00	664.00	666.00	664.00	663.00	666.00	667.00	668.00	707.00	879.00	976.00	1055.00	1100.00	1102.00	1073.00	1062.00	1048.00	1029.00	1021.00	1035.00	1064.00	1101.00	1137.00	1224.00	1280.00	1325.00	1347.00	1463.00	1525.00	1485.00	1422.00	1447.00	1523.00	1613.00	1708.00	1761.00	1673.00	1610.00	1579.00	1557.00	1539.00	1570.00	1577.00	1555.00	1497.00	1410.00	1373.00	1314.00
952.00	875.00	1005.00	1102.00	1175.00	1214.00	1286.00	1385.00	1416.00	1449.00	1463.00	1315.00	1239.00	1183.00	1140.00	1105.00	1070.00	1085.00	1118.00	1161.00	1302.00	1377.00	1442.00	1455.00	1356.00	1309.00	1256.00	1191.00	1157.00	1104.00	1077.00	1073.00	1094.00	1072.00	1059.00	1070.00	1087.00	1094.00	1100.00	1075.00	1039.00	996.00	951.00	957.00	926.00	904.00	878.00	864.00	837.00	820.00	812.00	789.00	783.00	785.00	793.00	823.00	990.00	1088.00	1099.00	1065.00	1219.00	1265.00	1199.00	1117.00	1058.00	1114.00	1167.00	1187.00	1187.00	1220.00	1247.00	1255.00	1259.00	1286.00	1225.00	1161.00	1211.00	1311.00	1466.00	1390.00	1400.00	1396.00	1325.00	1288.00	1343.00	1373.00	1374.00	1354.00	1341.00	1324.00	1295.00	1265.00	1211.00	1145.00	1072.00	999.00	896.00	860.00	829.00	790.00	779.00	856.00	895.00	947.00	1016.00	1145.00	1169.00	1138.00	1084.00	1082.00	1050.00	915.00	847.00	800.00	758.00	747.00	746.00	746.00	745.00	747.00	749.00	751.00	753.00	774.00	792.00	819.00	832.00	846.00	870.00	904.00	936.00	971.00	1021.00	1018.00	1043.00	1097.00	1153.00	1181.00	1152.00	1130.00	1110.00	1079.00	1038.00	1014.00	984.00	955.00	933.00	918.00	935.00	951.00	919.00	916.00	910.00	942.00	959.00	1001.00	1033.00	1070.00	1103.00	1178.00	1175.00	1131.00	1116.00	1241.00	1232.00	1170.00	1112.00	1090.00	1157.00	1224.00	1265.00	1288.00	1372.00	1442.00	1451.00	1396.00	1328.00	1190.00	1145.00	1118.00	1094.00	1063.00	1045.00	1016.00	940.00	888.00	863.00	839.00	817.00	785.00	701.00	686.00	677.00	672.00	670.00	664.00	662.00	661.00	662.00	662.00	661.00	660.00	661.00	660.00	659.00	656.00	656.00	658.00	660.00	660.00	662.00	665.00	668.00	670.00	675.00	684.00	725.00	834.00	874.00	889.00	888.00	883.00	905.00	937.00	967.00	1001.00	1134.00	1172.00	1176.00	1173.00	1199.00	1344.00	1423.00	1474.00	1516.00	1633.00	1613.00	1542.00	1557.00	1622.00	1671.00	1697.00	1697.00	1660.00	1583.00	1552.00	1514.00	1479.00	1467.00	1473.00	1503.00	1532.00	1528.00	1384.00	1330.00	1270.00
898.00	854.00	1023.00	1129.00	1229.00	1334.00	1451.00	1403.00	1390.00	1394.00	1381.00	1333.00	1287.00	1229.00	1177.00	1154.00	1188.00	1195.00	1172.00	1195.00	1218.00	1266.00	1337.00	1314.00	1243.00	1210.00	1165.00	1147.00	1116.00	1063.00	1075.00	1072.00	1057.00	1027.00	1036.00	1005.00	970.00	962.00	971.00	989.00	990.00	962.00	984.00	1001.00	968.00	912.00	884.00	827.00	822.00	816.00	809.00	782.00	772.00	771.00	778.00	810.00	948.00	1040.00	999.00	978.00	1080.00	1045.00	998.00	968.00	986.00	1031.00	1068.00	1093.00	1129.00	1146.00	1108.00	1066.00	1063.00	1088.00	1112.00	1092.00	1168.00	1241.00	1272.00	1253.00	1234.00	1195.00	1157.00	1172.00	1221.00	1243.00	1235.00	1212.00	1205.00	1180.00	1163.00	1118.00	1128.00	1090.00	1015.00	944.00	880.00	857.00	835.00	814.00	795.00	816.00	845.00	881.00	933.00	1050.00	1037.00	996.00	964.00	976.00	912.00	840.00	807.00	777.00	746.00	745.00	745.00	745.00	745.00	748.00	752.00	756.00	760.00	785.00	798.00	824.00	862.00	916.00	1003.00	982.00	972.00	996.00	1147.00	1175.00	1160.00	1142.00	1157.00	1245.00	1270.00	1269.00	1257.00	1226.00	1153.00	1115.00	1069.00	1028.00	941.00	915.00	906.00	907.00	917.00	940.00	961.00	1008.00	1049.00	1095.00	1114.00	1134.00	1146.00	1251.00	1321.00	1331.00	1294.00	1354.00	1354.00	1264.00	1198.00	1157.00	1184.00	1280.00	1343.00	1383.00	1380.00	1347.00	1258.00	1206.00	1153.00	1052.00	1021.00	998.00	979.00	948.00	925.00	903.00	859.00	836.00	788.00	770.00	751.00	736.00	699.00	683.00	676.00	672.00	669.00	660.00	659.00	660.00	660.00	659.00	658.00	657.00	659.00	661.00	658.00	656.00	655.00	658.00	659.00	661.00	661.00	662.00	665.00	670.00	680.00	695.00	745.00	816.00	851.00	888.00	936.00	982.00	970.00	1007.00	1069.00	1118.00	1306.00	1326.00	1357.00	1351.00	1327.00	1314.00	1347.00	1410.00	1495.00	1635.00	1632.00	1671.00	1723.00	1749.00	1695.00	1664.00	1633.00	1609.00	1522.00	1485.00	1463.00	1431.00	1417.00	1401.00	1415.00	1439.00	1459.00	1364.00	1309.00	1241.00
898.00	854.00	1023.00	1129.00	1229.00	1334.00	1451.00	1403.00	1390.00	1394.00	1381.00	1333.00	1287.00	1229.00	1177.00	1154.00	1188.00	1195.00	1172.00	1195.00	1218.00	1266.00	1337.00	1314.00	1243.00	1210.00	1165.00	1147.00	1116.00	1063.00	1075.00	1072.00	1057.00	1027.00	1036.00	1005.00	970.00	962.00	971.00	989.00	990.00	962.00	984.00	1001.00	968.00	912.00	884.00	827.00	822.00	816.00	809.00	782.00	772.00	771.00	778.00	810.00	948.00	1040.00	999.00	978.00	1080.00	1045.00	998.00	968.00	986.00	1031.00	1068.00	1093.00	1129.00	1146.00	1108.00	1066.00	1063.00	1088.00	1112.00	1092.00	1168.00	1241.00	1272.00	1253.00	1234.00	1195.00	1157.00	1172.00	1221.00	1243.00	1235.00	1212.00	1205.00	1180.00	1163.00	1118.00	1128.00	1090.00	1015.00	944.00	880.00	857.00	835.00	814.00	795.00	816.00	845.00	881.00	933.00	1050.00	1037.00	996.00	964.00	976.00	912.00	840.00	807.00	777.00	746.00	745.00	745.00	745.00	745.00	748.00	752.00	756.00	760.00	785.00	798.00	824.00	862.00	916.00	1003.00	982.00	972.00	996.00	1147.00	1175.00	1160.00	1142.00	1157.00	1245.00	1270.00	1269.00	1257.00	1226.00	1153.00	1115.00	1069.00	1028.00	941.00	915.00	906.00	907.00	917.00	940.00	961.00	1008.00	1049.00	1095.00	1114.00	1134.00	1146.00	1251.00	1321.00	1331.00	1294.00	1354.00	1354.00	1264.00	1198.00	1157.00	1184.00	1280.00	1343.00	1383.00	1380.00	1347.00	1258.00	1206.00	1153.00	1052.00	1021.00	998.00	979.00	948.00	925.00	903.00	859.00	836.00	788.00	770.00	751.00	736.00	699.00	683.00	676.00	672.00	669.00	660.00	659.00	660.00	660.00	659.00	658.00	657.00	659.00	661.00	658.00	656.00	655.00	658.00	659.00	661.00	661.00	662.00	665.00	670.00	680.00	695.00	745.00	816.00	851.00	888.00	936.00	982.00	970.00	1007.00	1069.00	1118.00	1306.00	1326.00	1357.00	1351.00	1327.00	1314.00	1347.00	1410.00	1495.00	1635.00	1632.00	1671.00	1723.00	1749.00	1695.00	1664.00	1633.00	1609.00	1522.00	1485.00	1463.00	1431.00	1417.00	1401.00	1415.00	1439.00	1459.00	1364.00	1309.00	1241.00
898.00	854.00	1023.00	1129.00	1229.00	1334.00	1451.00	1403.00	1390.00	1394.00	1381.00	1333.00	1287.00	1229.00	1177.00	1154.00	1188.00	1195.00	1172.00	1195.00	1218.00	1266.00	1337.00	1314.00	1243.00	1210.00	1165.00	1147.00	1116.00	1063.00	1075.00	1072.00	1057.00	1027.00	1036.00	1005.00	970.00	962.00	971.00	989.00	990.00	962.00	984.00	1001.00	968.00	912.00	884.00	827.00	822.00	816.00	809.00	782.00	772.00	771.00	778.00	810.00	948.00	1040.00	999.00	978.00	1080.00	1045.00	998.00	968.00	986.00	1031.00	1068.00	1093.00	1129.00	1146.00	1108.00	1066.00	1063.00	1088.00	1112.00	1092.00	1168.00	1241.00	1272.00	1253.00	1234.00	1195.00	1157.00	1172.00	1221.00	1243.00	1235.00	1212.00	1205.00	1180.00	1163.00	1118.00	1128.00	1090.00	1015.00	944.00	880.00	857.00	835.00	814.00	795.00	816.00	845.00	881.00	933.00	1050.00	1037.00	996.00	964.00	976.00	912.00	840.00	807.00	777.00	746.00	745.00	745.00	745.00	745.00	748.00	752.00	756.00	760.00	785.00	798.00	824.00	862.00	916.00	1003.00	982.00	972.00	996.00	1147.00	1175.00	1160.00	1142.00	1157.00	1245.00	1270.00	1269.00	1257.00	1226.00	1153.00	1115.00	1069.00	1028.00	941.00	915.00	906.00	907.00	917.00	940.00	961.00	1008.00	1049.00	1095.00	1114.00	1134.00	1146.00	1251.00	1321.00	1331.00	1294.00	1354.00	1354.00	1264.00	1198.00	1157.00	1184.00	1280.00	1343.00	1383.00	1380.00	1347.00	1258.00	1206.00	1153.00	1052.00	1021.00	998.00	979.00	948.00	925.00	903.00	859.00	836.00	788.00	770.00	751.00	736.00	699.00	683.00	676.00	672.00	669.00	660.00	659.00	660.00	660.00	659.00	658.00	657.00	659.00	661.00	658.00	656.00	655.00	658.00	659.00	661.00	661.00	662.00	665.00	670.00	680.00	695.00	745.00	816.00	851.00	888.00	936.00	982.00	970.00	1007.00	1069.00	1118.00	1306.00	1326.00	1357.00	1351.00	1327.00	1314.00	1347.00	1410.00	1495.00	1635.00	1632.00	1671.00	1723.00	1749.00	1695.00	1664.00	1633.00	1609.00	1522.00	1485.00	1463.00	1431.00	1417.00	1401.00	1415.00	1439.00	1459.00	1364.00	1309.00	1241.00
865.00	842.00	931.00	1019.00	1108.00	1177.00	1257.00	1218.00	1242.00	1263.00	1275.00	1336.00	1342.00	1309.00	1348.00	1362.00	1296.00	1313.00	1294.00	1307.00	1270.00	1247.00	1295.00	1317.00	1315.00	1289.00	1266.00	1214.00	1214.00	1147.00	1206.00	1190.00	1122.00	1172.00	1201.00	1123.00	1060.00	1090.00	986.00	953.00	926.00	912.00	884.00	880.00	865.00	844.00	836.00	809.00	794.00	789.00	790.00	768.00	761.00	761.00	774.00	795.00	840.00	871.00	902.00	890.00	906.00	900.00	913.00	933.00	979.00	1082.00	1117.00	1171.00	1221.00	1334.00	1214.00	1117.00	1043.00	993.00	993.00	1017.00	1048.00	1053.00	1044.00	1049.00	1045.00	1037.00	1020.00	1072.00	1111.00	1147.00	1163.00	1111.00	1078.00	1054.00	1015.00	993.00	937.00	910.00	880.00	851.00	811.00	799.00	792.00	788.00	785.00	776.00	789.00	805.00	823.00	840.00	837.00	834.00	829.00	822.00	794.00	799.00	789.00	769.00	744.00	741.00	740.00	741.00	742.00	749.00	755.00	760.00	764.00	800.00	835.00	895.00	965.00	1031.00	1179.00	1172.00	1129.00	1146.00	1270.00	1266.00	1256.00	1234.00	1212.00	1224.00	1241.00	1248.00	1239.00	1216.00	1207.00	1159.00	1102.00	1044.00	927.00	902.00	900.00	911.00	943.00	968.00	990.00	1034.00	1075.00	1236.00	1251.00	1266.00	1276.00	1374.00	1446.00	1517.00	1486.00	1478.00	1435.00	1380.00	1339.00	1235.00	1197.00	1284.00	1374.00	1453.00	1373.00	1280.00	1127.00	1080.00	1048.00	1022.00	1025.00	1010.00	992.00	961.00	930.00	915.00	907.00	899.00	882.00	877.00	867.00	792.00	715.00	683.00	672.00	668.00	665.00	657.00	656.00	656.00	657.00	656.00	656.00	656.00	656.00	658.00	659.00	655.00	654.00	654.00	660.00	659.00	661.00	661.00	662.00	670.00	687.00	710.00	796.00	919.00	975.00	1017.00	1085.00	1170.00	1116.00	1069.00	1098.00	1161.00	1340.00	1378.00	1394.00	1413.00	1437.00	1456.00	1451.00	1449.00	1474.00	1585.00	1669.00	1710.00	1722.00	1702.00	1632.00	1602.00	1567.00	1538.00	1482.00	1455.00	1435.00	1398.00	1381.00	1352.00	1341.00	1336.00	1339.00	1315.00	1293.00	1246.00
870.00	843.00	867.00	916.00	958.00	969.00	966.00	1000.00	1039.00	1112.00	1155.00	1194.00	1180.00	1232.00	1294.00	1335.00	1457.00	1446.00	1398.00	1308.00	1196.00	1237.00	1328.00	1419.00	1520.00	1493.00	1456.00	1393.00	1350.00	1304.00	1285.00	1257.00	1269.00	1271.00	1242.00	1209.00	1182.00	1124.00	1108.00	1072.00	1026.00	986.00	899.00	868.00	838.00	818.00	806.00	788.00	772.00	770.00	769.00	760.00	759.00	764.00	774.00	786.00	828.00	855.00	917.00	951.00	970.00	993.00	996.00	984.00	983.00	1095.00	1187.00	1255.00	1306.00	1310.00	1244.00	1136.00	1047.00	994.00	923.00	918.00	911.00	903.00	899.00	910.00	909.00	908.00	929.00	986.00	1012.00	1044.00	1071.00	1090.00	1076.00	1037.00	941.00	923.00	876.00	848.00	829.00	813.00	789.00	782.00	776.00	771.00	768.00	760.00	761.00	769.00	774.00	770.00	768.00	776.00	777.00	762.00	752.00	754.00	751.00	744.00	736.00	735.00	734.00	734.00	736.00	749.00	758.00	776.00	796.00	903.00	953.00	1027.00	1108.00	1168.00	1198.00	1163.00	1179.00	1247.00	1158.00	1171.00	1202.00	1246.00	1304.00	1345.00	1363.00	1430.00	1417.00	1415.00	1404.00	1327.00	1225.00	1118.00	928.00	891.00	893.00	911.00	956.00	988.00	1009.00	1025.00	1049.00	1125.00	1152.00	1172.00	1200.00	1307.00	1359.00	1396.00	1420.00	1404.00	1393.00	1363.00	1342.00	1293.00	1230.00	1266.00	1307.00	1313.00	1237.00	1178.00	1099.00	1109.00	1113.00	1110.00	1096.00	1081.00	1059.00	1031.00	1051.00	1070.00	1019.00	993.00	942.00	909.00	862.00	778.00	691.00	672.00	665.00	661.00	656.00	651.00	649.00	650.00	651.00	652.00	652.00	651.00	652.00	653.00	653.00	652.00	650.00	651.00	656.00	656.00	658.00	660.00	662.00	674.00	704.00	747.00	863.00	978.00	1035.00	1094.00	1147.00	1180.00	1187.00	1172.00	1169.00	1190.00	1308.00	1344.00	1379.00	1427.00	1476.00	1558.00	1579.00	1600.00	1632.00	1675.00	1688.00	1648.00	1616.00	1619.00	1636.00	1613.00	1585.00	1557.00	1514.00	1490.00	1463.00	1405.00	1379.00	1331.00	1310.00	1292.00	1280.00	1250.00	1232.00	1209.00
870.00	843.00	867.00	916.00	958.00	969.00	966.00	1000.00	1039.00	1112.00	1155.00	1194.00	1180.00	1232.00	1294.00	1335.00	1457.00	1446.00	1398.00	1308.00	1196.00	1237.00	1328.00	1419.00	1520.00	1493.00	1456.00	1393.00	1350.00	1304.00	1285.00	1257.00	1269.00	1271.00	1242.00	1209.00	1182.00	1124.00	1108.00	1072.00	1026.00	986.00	899.00	868.00	838.00	818.00	806.00	788.00	772.00	770.00	769.00	760.00	759.00	764.00	774.00	786.00	828.00	855.00	917.00	951.00	970.00	993.00	996.00	984.00	983.00	1095.00	1187.00	1255.00	1306.00	1310.00	1244.00	1136.00	1047.00	994.00	923.00	918.00	911.00	903.00	899.00	910.00	909.00	908.00	929.00	986.00	1012.00	1044.00	1071.00	1090.00	1076.00	1037.00	941.00	923.00	876.00	848.00	829.00	813.00	789.00	782.00	776.00	771.00	768.00	760.00	761.00	769.00	774.00	770.00	768.00	776.00	777.00	762.00	752.00	754.00	751.00	744.00	736.00	735.00	734.00	734.00	736.00	749.00	758.00	776.00	796.00	903.00	953.00	1027.00	1108.00	1168.00	1198.00	1163.00	1179.00	1247.00	1158.00	1171.00	1202.00	1246.00	1304.00	1345.00	1363.00	1430.00	1417.00	1415.00	1404.00	1327.00	1225.00	1118.00	928.00	891.00	893.00	911.00	956.00	988.00	1009.00	1025.00	1049.00	1125.00	1152.00	1172.00	1200.00	1307.00	1359.00	1396.00	1420.00	1404.00	1393.00	1363.00	1342.00	1293.00	1230.00	1266.00	1307.00	1313.00	1237.00	1178.00	1099.00	1109.00	1113.00	1110.00	1096.00	1081.00	1059.00	1031.00	1051.00	1070.00	1019.00	993.00	942.00	909.00	862.00	778.00	691.00	672.00	665.00	661.00	656.00	651.00	649.00	650.00	651.00	652.00	652.00	651.00	652.00	653.00	653.00	652.00	650.00	651.00	656.00	656.00	658.00	660.00	662.00	674.00	704.00	747.00	863.00	978.00	1035.00	1094.00	1147.00	1180.00	1187.00	1172.00	1169.00	1190.00	1308.00	1344.00	1379.00	1427.00	1476.00	1558.00	1579.00	1600.00	1632.00	1675.00	1688.00	1648.00	1616.00	1619.00	1636.00	1613.00	1585.00	1557.00	1514.00	1490.00	1463.00	1405.00	1379.00	1331.00	1310.00	1292.00	1280.00	1250.00	1232.00	1209.00
870.00	843.00	867.00	916.00	958.00	969.00	966.00	1000.00	1039.00	1112.00	1155.00	1194.00	1180.00	1232.00	1294.00	1335.00	1457.00	1446.00	1398.00	1308.00	1196.00	1237.00	1328.00	1419.00	1520.00	1493.00	1456.00	1393.00	1350.00	1304.00	1285.00	1257.00	1269.00	1271.00	1242.00	1209.00	1182.00	1124.00	1108.00	1072.00	1026.00	986.00	899.00	868.00	838.00	818.00	806.00	788.00	772.00	770.00	769.00	760.00	759.00	764.00	774.00	786.00	828.00	855.00	917.00	951.00	970.00	993.00	996.00	984.00	983.00	1095.00	1187.00	1255.00	1306.00	1310.00	1244.00	1136.00	1047.00	994.00	923.00	918.00	911.00	903.00	899.00	910.00	909.00	908.00	929.00	986.00	1012.00	1044.00	1071.00	1090.00	1076.00	1037.00	941.00	923.00	876.00	848.00	829.00	813.00	789.00	782.00	776.00	771.00	768.00	760.00	761.00	769.00	774.00	770.00	768.00	776.00	777.00	762.00	752.00	754.00	751.00	744.00	736.00	735.00	734.00	734.00	736.00	749.00	758.00	776.00	796.00	903.00	953.00	1027.00	1108.00	1168.00	1198.00	1163.00	1179.00	1247.00	1158.00	1171.00	1202.00	1246.00	1304.00	1345.00	1363.00	1430.00	1417.00	1415.00	1404.00	1327.00	1225.00	1118.00	928.00	891.00	893.00	911.00	956.00	988.00	1009.00	1025.00	1049.00	1125.00	1152.00	1172.00	1200.00	1307.00	1359.00	1396.00	1420.00	1404.00	1393.00	1363.00	1342.00	1293.00	1230.00	1266.00	1307.00	1313.00	1237.00	1178.00	1099.00	1109.00	1113.00	1110.00	1096.00	1081.00	1059.00	1031.00	1051.00	1070.00	1019.00	993.00	942.00	909.00	862.00	778.00	691.00	672.00	665.00	661.00	656.00	651.00	649.00	650.00	651.00	652.00	652.00	651.00	652.00	653.00	653.00	652.00	650.00	651.00	656.00	656.00	658.00	660.00	662.00	674.00	704.00	747.00	863.00	978.00	1035.00	1094.00	1147.00	1180.00	1187.00	1172.00	1169.00	1190.00	1308.00	1344.00	1379.00	1427.00	1476.00	1558.00	1579.00	1600.00	1632.00	1675.00	1688.00	1648.00	1616.00	1619.00	1636.00	1613.00	1585.00	1557.00	1514.00	1490.00	1463.00	1405.00	1379.00	1331.00	1310.00	1292.00	1280.00	1250.00	1232.00	1209.00
890.00	880.00	856.00	916.00	960.00	979.00	1053.00	927.00	921.00	982.00	992.00	976.00	1002.00	1044.00	1068.00	1125.00	1255.00	1275.00	1228.00	1184.00	1121.00	1216.00	1318.00	1406.00	1399.00	1440.00	1492.00	1488.00	1448.00	1360.00	1363.00	1359.00	1385.00	1387.00	1377.00	1354.00	1326.00	1300.00	1249.00	1205.00	1154.00	1082.00	935.00	882.00	845.00	817.00	795.00	779.00	763.00	759.00	762.00	761.00	759.00	763.00	771.00	790.00	918.00	1004.00	1107.00	1154.00	1146.00	1183.00	1213.00	1153.00	1122.00	1070.00	1132.00	1188.00	1228.00	1214.00	1172.00	1163.00	1160.00	1122.00	1063.00	1013.00	935.00	884.00	837.00	834.00	842.00	852.00	858.00	887.00	912.00	935.00	957.00	979.00	970.00	949.00	882.00	857.00	829.00	814.00	798.00	787.00	777.00	771.00	764.00	761.00	759.00	757.00	758.00	759.00	758.00	759.00	761.00	762.00	754.00	747.00	735.00	735.00	736.00	732.00	730.00	730.00	730.00	730.00	731.00	748.00	775.00	835.00	877.00	974.00	957.00	966.00	1017.00	1028.00	1018.00	1017.00	1051.00	1081.00	1106.00	1150.00	1195.00	1271.00	1361.00	1477.00	1489.00	1538.00	1559.00	1431.00	1268.00	1247.00	1237.00	1150.00	951.00	883.00	881.00	914.00	978.00	1017.00	1068.00	1136.00	1095.00	1129.00	1161.00	1193.00	1214.00	1233.00	1251.00	1273.00	1297.00	1350.00	1348.00	1352.00	1326.00	1302.00	1304.00	1289.00	1263.00	1246.00	1250.00	1235.00	1184.00	1216.00	1265.00	1182.00	1249.00	1242.00	1166.00	1136.00	1125.00	1097.00	1005.00	970.00	877.00	804.00	745.00	705.00	670.00	660.00	654.00	651.00	647.00	645.00	644.00	643.00	644.00	647.00	647.00	646.00	647.00	647.00	646.00	647.00	646.00	646.00	653.00	654.00	654.00	658.00	667.00	703.00	735.00	779.00	876.00	973.00	1023.00	1084.00	1146.00	1213.00	1270.00	1270.00	1257.00	1273.00	1332.00	1345.00	1380.00	1438.00	1522.00	1683.00	1713.00	1703.00	1691.00	1628.00	1553.00	1527.00	1522.00	1537.00	1657.00	1656.00	1631.00	1612.00	1625.00	1585.00	1529.00	1486.00	1437.00	1349.00	1322.00	1296.00	1273.00	1234.00	1213.00	1191.00
890.00	880.00	856.00	916.00	960.00	979.00	1053.00	927.00	921.00	982.00	992.00	976.00	1002.00	1044.00	1068.00	1125.00	1255.00	1275.00	1228.00	1184.00	1121.00	1216.00	1318.00	1406.00	1399.00	1440.00	1492.00	1488.00	1448.00	1360.00	1363.00	1359.00	1385.00	1387.00	1377.00	1354.00	1326.00	1300.00	1249.00	1205.00	1154.00	1082.00	935.00	882.00	845.00	817.00	795.00	779.00	763.00	759.00	762.00	761.00	759.00	763.00	771.00	790.00	918.00	1004.00	1107.00	1154.00	1146.00	1183.00	1213.00	1153.00	1122.00	1070.00	1132.00	1188.00	1228.00	1214.00	1172.00	1163.00	1160.00	1122.00	1063.00	1013.00	935.00	884.00	837.00	834.00	842.00	852.00	858.00	887.00	912.00	935.00	957.00	979.00	970.00	949.00	882.00	857.00	829.00	814.00	798.00	787.00	777.00	771.00	764.00	761.00	759.00	757.00	758.00	759.00	758.00	759.00	761.00	762.00	754.00	747.00	735.00	735.00	736.00	732.00	730.00	730.00	730.00	730.00	731.00	748.00	775.00	835.00	877.00	974.00	957.00	966.00	1017.00	1028.00	1018.00	1017.00	1051.00	1081.00	1106.00	1150.00	1195.00	1271.00	1361.00	1477.00	1489.00	1538.00	1559.00	1431.00	1268.00	1247.00	1237.00	1150.00	951.00	883.00	881.00	914.00	978.00	1017.00	1068.00	1136.00	1095.00	1129.00	1161.00	1193.00	1214.00	1233.00	1251.00	1273.00	1297.00	1350.00	1348.00	1352.00	1326.00	1302.00	1304.00	1289.00	1263.00	1246.00	1250.00	1235.00	1184.00	1216.00	1265.00	1182.00	1249.00	1242.00	1166.00	1136.00	1125.00	1097.00	1005.00	970.00	877.00	804.00	745.00	705.00	670.00	660.00	654.00	651.00	647.00	645.00	644.00	643.00	644.00	647.00	647.00	646.00	647.00	647.00	646.00	647.00	646.00	646.00	653.00	654.00	654.00	658.00	667.00	703.00	735.00	779.00	876.00	973.00	1023.00	1084.00	1146.00	1213.00	1270.00	1270.00	1257.00	1273.00	1332.00	1345.00	1380.00	1438.00	1522.00	1683.00	1713.00	1703.00	1691.00	1628.00	1553.00	1527.00	1522.00	1537.00	1657.00	1656.00	1631.00	1612.00	1625.00	1585.00	1529.00	1486.00	1437.00	1349.00	1322.00	1296.00	1273.00	1234.00	1213.00	1191.00
