3445.00	3434.00	3428.00	3413.00	3382.00	3325.00	3311.00	3276.00	3264.00	3244.00	3213.00	3214.00	3214.00	3204.00	3186.00	3164.00	3141.00	3119.00	3095.00	3070.00	3062.00	3056.00	3046.00	3035.00	3027.00	3019.00	3006.00	3024.00	3048.00	3057.00	3064.00	3066.00	3073.00	3079.00	3103.00	3120.00	3137.00	3168.00	3217.00	3379.00	3375.00	3377.00	3388.00	3401.00	3415.00	3443.00	3596.00	3660.00	3702.00	3737.00	3876.00	3926.00	4047.00	4146.00	4139.00	4212.00	4232.00	4276.00	4252.00	4175.00	4144.00	4057.00	4056.00	4168.00	4262.00	4151.00	3994.00	4109.00	4203.00	4164.00	3900.00	3858.00	3865.00	3870.00	3915.00	3976.00	3955.00	3961.00	3957.00	3971.00	3923.00	3851.00	3827.00	3779.00	3751.00	3713.00	3694.00	3690.00	3690.00	3690.00	3673.00	3700.00	3726.00	3773.00	3895.00	3888.00	3854.00	3823.00	3867.00	3686.00	3675.00	3458.00	3678.00	3771.00	3670.00	3856.00	3697.00	3759.00	3590.00	3476.00	3362.00	3088.00	2763.00	2564.00	2546.00	2399.00	2312.00	2390.00	2458.00	2550.00	2671.00	2499.00	2753.00	2917.00	2809.00	2649.00	2207.00	2203.00	2430.00	2608.00	2631.00	2211.00	1994.00	2248.00	2398.00	2673.00	2783.00	2682.00	2480.00	2324.00	2072.00	2000.00	1985.00	2073.00	2445.00	2542.00	2591.00	2636.00	2534.00	2272.00	2323.00	2248.00	2105.00	2314.00	2199.00	2146.00	2194.00	2078.00	2023.00	1836.00	1750.00	1793.00	1714.00	1603.00	1655.00	1644.00	1523.00	1391.00	1289.00	1224.00	1157.00	1090.00	1101.00	1140.00	1126.00	1140.00	1160.00	1159.00	1151.00	1132.00	1183.00	1192.00	1208.00	1158.00	1077.00	1156.00	1236.00	1208.00	1189.00	1189.00	1093.00	1086.00	1026.00	1150.00	1177.00	1130.00	926.00	991.00	1136.00	1107.00	1077.00	1074.00	1059.00	1077.00	1086.00	1070.00	1074.00	1076.00	1078.00	1063.00	1047.00	1036.00	948.00	926.00	913.00	917.00	987.00	968.00	939.00	917.00	939.00	950.00	1020.00	1017.00	949.00	861.00	822.00	676.00	664.00	644.00	631.00	621.00	613.00	614.00	631.00	627.00	620.00	614.00	593.00	592.00	561.00	525.00	499.00	471.00	463.00	455.00	454.00	447.00	432.00	423.00	409.00	402.00	395.00	361.00	335.00	335.00
3435.00	3436.00	3419.00	3416.00	3398.00	3318.00	3301.00	3286.00	3248.00	3230.00	3197.00	3188.00	3184.00	3185.00	3165.00	3147.00	3128.00	3107.00	3079.00	3060.00	3051.00	3044.00	3035.00	3025.00	3017.00	3011.00	2998.00	3017.00	3037.00	3044.00	3054.00	3052.00	3069.00	3087.00	3103.00	3117.00	3132.00	3176.00	3204.00	3300.00	3326.00	3357.00	3358.00	3385.00	3407.00	3449.00	3569.00	3583.00	3656.00	3659.00	3794.00	3879.00	3958.00	4039.00	4141.00	4174.00	4203.00	4161.00	4144.00	4096.00	4064.00	3993.00	4037.00	4207.00	4294.00	4168.00	3981.00	4033.00	4166.00	4171.00	3936.00	3885.00	3916.00	3959.00	4001.00	4040.00	4003.00	3969.00	4015.00	4022.00	3935.00	3933.00	3899.00	3827.00	3768.00	3732.00	3701.00	3696.00	3687.00	3677.00	3659.00	3669.00	3702.00	3799.00	3910.00	3935.00	3973.00	3993.00	3944.00	3739.00	3821.00	3550.00	3705.00	3850.00	3729.00	3828.00	3855.00	3776.00	3389.00	3315.00	3253.00	3030.00	2681.00	2780.00	2852.00	2667.00	2520.00	2302.00	2277.00	2269.00	2386.00	2327.00	2660.00	2702.00	2727.00	2584.00	2103.00	2214.00	2436.00	2477.00	2441.00	2205.00	1953.00	2091.00	2258.00	2553.00	2618.00	2516.00	2433.00	2295.00	2069.00	1980.00	1999.00	2151.00	2363.00	2512.00	2516.00	2559.00	2406.00	2117.00	2228.00	2222.00	2055.00	2179.00	2091.00	1986.00	1871.00	1947.00	1871.00	1651.00	1559.00	1631.00	1548.00	1435.00	1612.00	1486.00	1396.00	1355.00	1298.00	1180.00	1143.00	1086.00	1088.00	1122.00	1061.00	1122.00	1138.00	1133.00	1138.00	1122.00	1152.00	1166.00	1159.00	1148.00	1171.00	1071.00	1164.00	1207.00	1160.00	1076.00	1129.00	1145.00	993.00	1129.00	1157.00	1134.00	935.00	950.00	1121.00	1089.00	1071.00	1052.00	1002.00	1060.00	1068.00	1057.00	1051.00	1061.00	1055.00	1042.00	1037.00	1043.00	1032.00	1014.00	1007.00	945.00	956.00	942.00	916.00	917.00	953.00	994.00	1046.00	989.00	992.00	889.00	806.00	681.00	641.00	654.00	636.00	625.00	619.00	628.00	630.00	626.00	620.00	614.00	603.00	597.00	576.00	519.00	488.00	464.00	455.00	450.00	448.00	446.00	431.00	423.00	410.00	407.00	394.00	385.00	385.00	381.00
3426.00	3430.00	3428.00	3433.00	3450.00	3330.00	3342.00	3389.00	3286.00	3218.00	3190.00	3175.00	3166.00	3172.00	3158.00	3130.00	3111.00	3093.00	3066.00	3050.00	3038.00	3031.00	3026.00	3015.00	3009.00	3000.00	2998.00	3010.00	3031.00	3035.00	3039.00	3040.00	3069.00	3083.00	3095.00	3109.00	3124.00	3168.00	3215.00	3302.00	3329.00	3338.00	3370.00	3389.00	3416.00	3437.00	3542.00	3550.00	3609.00	3648.00	3765.00	3869.00	3873.00	3931.00	4036.00	4077.00	4090.00	4072.00	4051.00	4019.00	3990.00	3984.00	4075.00	4215.00	4298.00	4216.00	3999.00	3950.00	3959.00	3961.00	3906.00	3916.00	4002.00	4041.00	4060.00	4053.00	4062.00	3985.00	4070.00	4035.00	3975.00	3928.00	3922.00	3868.00	3773.00	3738.00	3700.00	3684.00	3677.00	3668.00	3650.00	3705.00	3739.00	3746.00	3806.00	4045.00	4095.00	4135.00	3974.00	3941.00	3870.00	3575.00	3873.00	4006.00	3821.00	3799.00	3891.00	3666.00	3225.00	3098.00	3040.00	2894.00	2869.00	3039.00	3072.00	2877.00	2673.00	2185.00	2162.00	2176.00	2129.00	2176.00	2372.00	2362.00	2431.00	2492.00	2022.00	2165.00	2323.00	2283.00	2267.00	2153.00	2033.00	1965.00	2198.00	2456.00	2483.00	2379.00	2294.00	2179.00	2056.00	1934.00	1965.00	2062.00	2292.00	2290.00	2368.00	2420.00	2296.00	2040.00	2158.00	2204.00	2012.00	2053.00	1809.00	1690.00	1757.00	1960.00	1760.00	1597.00	1440.00	1460.00	1373.00	1414.00	1665.00	1518.00	1404.00	1247.00	1187.00	1133.00	1112.00	1071.00	1084.00	1108.00	1038.00	1108.00	1103.00	1110.00	1117.00	1104.00	1131.00	1143.00	1150.00	1124.00	1159.00	996.00	1008.00	1059.00	1056.00	1082.00	1153.00	1110.00	972.00	1094.00	1136.00	1107.00	936.00	904.00	1080.00	1063.00	1053.00	1042.00	1007.00	1052.00	1051.00	1055.00	1037.00	1051.00	1042.00	1030.00	1020.00	1028.00	1024.00	1011.00	992.00	975.00	882.00	914.00	900.00	919.00	984.00	1035.00	1044.00	1061.00	1015.00	857.00	763.00	668.00	633.00	651.00	639.00	628.00	629.00	637.00	639.00	632.00	628.00	616.00	614.00	607.00	583.00	522.00	492.00	480.00	468.00	454.00	435.00	437.00	427.00	417.00	409.00	407.00	398.00	372.00	361.00	367.00
3415.00	3418.00	3433.00	3438.00	3446.00	3395.00	3354.00	3460.00	3333.00	3213.00	3184.00	3169.00	3158.00	3156.00	3164.00	3122.00	3096.00	3080.00	3053.00	3039.00	3028.00	3022.00	3018.00	3005.00	3000.00	2994.00	2989.00	3000.00	3024.00	3020.00	3027.00	3042.00	3069.00	3077.00	3093.00	3111.00	3131.00	3205.00	3242.00	3297.00	3305.00	3341.00	3345.00	3363.00	3396.00	3405.00	3481.00	3488.00	3521.00	3667.00	3729.00	3794.00	3807.00	3853.00	3937.00	3978.00	3995.00	4022.00	3990.00	3937.00	3949.00	3982.00	4070.00	4240.00	4290.00	4176.00	4047.00	3956.00	3922.00	3913.00	3921.00	3945.00	4096.00	4093.00	4146.00	4145.00	4085.00	4005.00	4116.00	4038.00	4022.00	3954.00	3959.00	3912.00	3809.00	3762.00	3718.00	3696.00	3673.00	3657.00	3641.00	3705.00	3725.00	3740.00	3745.00	3998.00	4118.00	4176.00	4011.00	4096.00	3853.00	3607.00	3943.00	4003.00	3920.00	3961.00	3882.00	3619.00	3122.00	3005.00	2917.00	2868.00	3130.00	3219.00	3031.00	2797.00	2566.00	2467.00	2449.00	2363.00	2096.00	1999.00	1975.00	2033.00	2130.00	2255.00	1966.00	2057.00	2087.00	2019.00	2095.00	2003.00	2008.00	1928.00	2157.00	2355.00	2376.00	2241.00	2152.00	2067.00	2023.00	1908.00	1927.00	1976.00	2143.00	2171.00	2362.00	2465.00	2247.00	1942.00	2027.00	2081.00	1953.00	1920.00	1685.00	1552.00	1620.00	1741.00	1593.00	1519.00	1345.00	1290.00	1315.00	1508.00	1640.00	1480.00	1404.00	1238.00	1176.00	1131.00	1102.00	1069.00	1068.00	1068.00	1005.00	1075.00	1079.00	1088.00	1096.00	1108.00	1114.00	1113.00	1112.00	1121.00	1092.00	1099.00	1012.00	1000.00	1007.00	1081.00	1092.00	1112.00	976.00	1052.00	1105.00	1048.00	940.00	864.00	1016.00	1053.00	1049.00	1041.00	1026.00	1034.00	1040.00	1043.00	1051.00	1031.00	1033.00	1026.00	1000.00	1006.00	1010.00	1004.00	995.00	968.00	866.00	906.00	897.00	924.00	1070.00	1063.00	1070.00	1040.00	959.00	793.00	700.00	588.00	564.00	612.00	618.00	632.00	642.00	644.00	631.00	632.00	628.00	623.00	603.00	605.00	575.00	515.00	493.00	479.00	466.00	451.00	441.00	426.00	424.00	415.00	404.00	405.00	393.00	369.00	352.00	346.00
3397.00	3422.00	3423.00	3444.00	3481.00	3549.00	3537.00	3434.00	3351.00	3210.00	3155.00	3152.00	3140.00	3128.00	3157.00	3106.00	3081.00	3056.00	3031.00	3014.00	3007.00	3002.00	2997.00	2994.00	2980.00	2972.00	2973.00	2990.00	3001.00	3013.00	3024.00	3032.00	3055.00	3070.00	3095.00	3116.00	3148.00	3184.00	3204.00	3249.00	3271.00	3354.00	3351.00	3365.00	3403.00	3439.00	3475.00	3506.00	3547.00	3623.00	3644.00	3708.00	3698.00	3761.00	3851.00	3811.00	3819.00	3841.00	3824.00	3862.00	3902.00	3947.00	4088.00	4263.00	4105.00	3996.00	3955.00	3934.00	3929.00	3938.00	3999.00	4040.00	4187.00	4236.00	4312.00	4288.00	4217.00	4141.00	4214.00	4121.00	4197.00	4177.00	4104.00	4002.00	3895.00	3808.00	3729.00	3716.00	3687.00	3645.00	3624.00	3730.00	3884.00	3925.00	3876.00	3972.00	3991.00	4019.00	4133.00	4125.00	3880.00	3806.00	4076.00	4151.00	4096.00	3983.00	3739.00	3485.00	3308.00	3461.00	3465.00	3321.00	3471.00	3335.00	3100.00	3043.00	3037.00	2740.00	2560.00	2520.00	2524.00	2304.00	2287.00	2314.00	2213.00	2063.00	1850.00	1796.00	1862.00	1879.00	1795.00	1700.00	1746.00	1873.00	2046.00	2319.00	2366.00	2259.00	2128.00	2045.00	1869.00	1889.00	1922.00	1968.00	2241.00	2308.00	2461.00	2412.00	2164.00	1881.00	1752.00	1724.00	1626.00	1600.00	1443.00	1472.00	1449.00	1494.00	1282.00	1238.00	1253.00	1230.00	1474.00	1595.00	1733.00	1662.00	1564.00	1235.00	1144.00	1104.00	1077.00	1049.00	1066.00	1036.00	963.00	1066.00	1063.00	1044.00	1082.00	1080.00	1090.00	1084.00	1063.00	1087.00	1078.00	1067.00	1068.00	1071.00	1025.00	1068.00	1049.00	1031.00	955.00	1031.00	1018.00	980.00	1002.00	1041.00	898.00	824.00	854.00	895.00	1020.00	1027.00	1025.00	1031.00	1025.00	985.00	1003.00	1004.00	972.00	959.00	975.00	983.00	979.00	986.00	914.00	846.00	905.00	950.00	1041.00	1040.00	1010.00	920.00	805.00	619.00	694.00	577.00	632.00	514.00	463.00	460.00	479.00	511.00	501.00	485.00	492.00	576.00	477.00	490.00	527.00	507.00	488.00	456.00	457.00	447.00	436.00	427.00	414.00	406.00	393.00	401.00	389.00	390.00	395.00	394.00
3377.00	3410.00	3479.00	3492.00	3488.00	3549.00	3549.00	3440.00	3321.00	3207.00	3113.00	3129.00	3125.00	3114.00	3124.00	3092.00	3068.00	3051.00	3008.00	2991.00	2989.00	2983.00	2979.00	2967.00	2963.00	2955.00	2967.00	2975.00	2992.00	2998.00	3005.00	3015.00	3048.00	3067.00	3094.00	3111.00	3127.00	3222.00	3239.00	3247.00	3261.00	3344.00	3373.00	3390.00	3415.00	3445.00	3489.00	3505.00	3528.00	3499.00	3582.00	3580.00	3619.00	3669.00	3725.00	3620.00	3648.00	3710.00	3766.00	3861.00	3964.00	4002.00	4006.00	4140.00	4154.00	4166.00	4110.00	3974.00	3971.00	4007.00	4155.00	4188.00	4104.00	4154.00	4248.00	4343.00	4450.00	4345.00	4222.00	4213.00	4099.00	4028.00	3976.00	3937.00	3911.00	3794.00	3689.00	3670.00	3657.00	3637.00	3597.00	3742.00	3775.00	3769.00	3877.00	4180.00	4180.00	4209.00	4267.00	4142.00	3976.00	3981.00	4115.00	4077.00	3988.00	3891.00	3696.00	3447.00	3649.00	3758.00	3656.00	3559.00	3683.00	3323.00	3330.00	3276.00	3091.00	2980.00	2915.00	2729.00	2520.00	2319.00	2676.00	2803.00	2670.00	2361.00	2126.00	2266.00	2351.00	2111.00	1855.00	1752.00	1844.00	2035.00	2076.00	2279.00	2257.00	2125.00	2038.00	1983.00	1804.00	1914.00	2047.00	2164.00	2282.00	2444.00	2448.00	2255.00	2101.00	1806.00	1725.00	1753.00	1788.00	1571.00	1640.00	1484.00	1365.00	1289.00	1272.00	1318.00	1246.00	1192.00	1162.00	1189.00	1422.00	1510.00	1503.00	1192.00	1128.00	1082.00	1051.00	984.00	1031.00	1004.00	956.00	1003.00	1029.00	1050.00	1042.00	1034.00	1014.00	1015.00	1004.00	988.00	990.00	1029.00	1043.00	1034.00	1014.00	1026.00	1037.00	1052.00	1037.00	986.00	955.00	972.00	1056.00	1035.00	997.00	898.00	828.00	964.00	1009.00	1011.00	1007.00	1006.00	1002.00	992.00	949.00	954.00	963.00	921.00	929.00	957.00	963.00	931.00	876.00	885.00	933.00	962.00	1015.00	995.00	876.00	794.00	714.00	739.00	768.00	708.00	668.00	591.00	528.00	481.00	464.00	443.00	448.00	428.00	448.00	522.00	431.00	482.00	506.00	503.00	471.00	436.00	426.00	403.00	401.00	417.00	413.00	406.00	402.00	401.00	398.00	402.00	393.00	384.00
3358.00	3386.00	3432.00	3487.00	3557.00	3510.00	3450.00	3312.00	3228.00	3138.00	3157.00	3103.00	3120.00	3112.00	3109.00	3097.00	3069.00	3043.00	3001.00	2982.00	2980.00	2978.00	2973.00	2960.00	2954.00	2950.00	2962.00	2971.00	2983.00	2990.00	3000.00	3011.00	3042.00	3058.00	3085.00	3103.00	3147.00	3216.00	3242.00	3285.00	3315.00	3355.00	3380.00	3389.00	3388.00	3418.00	3436.00	3382.00	3433.00	3556.00	3542.00	3525.00	3539.00	3627.00	3585.00	3607.00	3678.00	3702.00	3739.00	3905.00	3924.00	3935.00	4012.00	4113.00	4203.00	4186.00	4158.00	3996.00	4000.00	4049.00	4113.00	4105.00	4142.00	4130.00	4144.00	4299.00	4475.00	4329.00	4080.00	4096.00	4147.00	3965.00	3947.00	3975.00	3893.00	3782.00	3682.00	3649.00	3655.00	3637.00	3583.00	3681.00	3689.00	3794.00	3869.00	4060.00	4069.00	4165.00	4291.00	4243.00	4127.00	4049.00	4089.00	4114.00	3799.00	3745.00	3618.00	3471.00	3722.00	3853.00	3628.00	3716.00	3694.00	3448.00	3361.00	3256.00	3280.00	3073.00	2863.00	2663.00	2504.00	2460.00	2680.00	2861.00	2860.00	2608.00	2357.00	2453.00	2344.00	2089.00	1808.00	1782.00	1891.00	2038.00	2130.00	2240.00	2174.00	2079.00	1988.00	1912.00	1803.00	1874.00	1959.00	2065.00	2389.00	2512.00	2608.00	2456.00	2294.00	1978.00	1953.00	2029.00	1975.00	1755.00	1566.00	1431.00	1312.00	1274.00	1434.00	1431.00	1286.00	1248.00	1230.00	1118.00	1250.00	1416.00	1453.00	1133.00	1067.00	1062.00	1072.00	1005.00	970.00	971.00	970.00	930.00	954.00	997.00	1026.00	1019.00	1042.00	1062.00	1056.00	1037.00	1018.00	989.00	1011.00	1004.00	969.00	1031.00	1039.00	1044.00	1039.00	1028.00	1030.00	1039.00	1028.00	1017.00	1008.00	972.00	858.00	897.00	1005.00	999.00	1004.00	994.00	999.00	988.00	966.00	945.00	924.00	886.00	919.00	929.00	938.00	973.00	942.00	831.00	907.00	951.00	1003.00	978.00	842.00	675.00	755.00	836.00	813.00	715.00	710.00	633.00	588.00	511.00	476.00	438.00	434.00	427.00	427.00	446.00	436.00	423.00	470.00	496.00	454.00	410.00	410.00	388.00	398.00	416.00	408.00	405.00	401.00	396.00	398.00	397.00	390.00	378.00
3345.00	3393.00	3465.00	3558.00	3609.00	3421.00	3306.00	3212.00	3151.00	3129.00	3226.00	3100.00	3102.00	3116.00	3084.00	3087.00	3068.00	3036.00	2996.00	2973.00	2971.00	2968.00	2962.00	2950.00	2946.00	2945.00	2959.00	2964.00	2976.00	2988.00	2996.00	3007.00	3038.00	3061.00	3084.00	3128.00	3153.00	3216.00	3234.00	3270.00	3299.00	3340.00	3364.00	3354.00	3238.00	3249.00	3331.00	3400.00	3385.00	3487.00	3446.00	3479.00	3522.00	3516.00	3642.00	3752.00	3806.00	3844.00	3880.00	3830.00	3888.00	4016.00	4112.00	4184.00	4217.00	4118.00	4079.00	4026.00	4020.00	4029.00	4043.00	4052.00	4140.00	4217.00	4230.00	4334.00	4557.00	4287.00	4036.00	3998.00	4052.00	3927.00	3879.00	3880.00	3919.00	3812.00	3679.00	3638.00	3628.00	3609.00	3577.00	3673.00	3799.00	3921.00	3927.00	3958.00	4033.00	4116.00	4273.00	4267.00	4165.00	4226.00	4241.00	4260.00	3868.00	3668.00	3528.00	3643.00	3811.00	3913.00	3768.00	3846.00	3772.00	3534.00	3397.00	3456.00	3299.00	3051.00	2810.00	2770.00	2642.00	2618.00	2799.00	2948.00	2963.00	2833.00	2628.00	2555.00	2294.00	2040.00	1856.00	1610.00	1759.00	1954.00	2081.00	2166.00	2119.00	2015.00	1969.00	1865.00	1813.00	1940.00	1998.00	2029.00	2416.00	2588.00	2698.00	2584.00	2499.00	2195.00	2131.00	2058.00	1910.00	1747.00	1554.00	1402.00	1316.00	1360.00	1579.00	1480.00	1314.00	1296.00	1343.00	1200.00	1144.00	1331.00	1409.00	1088.00	1032.00	1039.00	1078.00	1073.00	1067.00	1062.00	1048.00	1025.00	912.00	951.00	987.00	987.00	1031.00	1098.00	1092.00	1034.00	1025.00	1014.00	977.00	950.00	999.00	1029.00	1036.00	1037.00	1029.00	1037.00	1040.00	1038.00	1020.00	1008.00	989.00	970.00	862.00	885.00	999.00	991.00	993.00	987.00	995.00	999.00	984.00	972.00	960.00	904.00	882.00	901.00	939.00	996.00	986.00	818.00	858.00	934.00	923.00	831.00	747.00	713.00	822.00	914.00	839.00	779.00	761.00	668.00	594.00	549.00	495.00	463.00	437.00	482.00	445.00	405.00	438.00	403.00	410.00	442.00	436.00	392.00	378.00	375.00	404.00	403.00	403.00	410.00	401.00	395.00	382.00	381.00	381.00	371.00
3268.00	3383.00	3519.00	3461.00	3388.00	3260.00	3159.00	3197.00	3164.00	3244.00	3257.00	3127.00	3072.00	3064.00	3097.00	3094.00	3061.00	3028.00	2993.00	2956.00	2955.00	2949.00	2943.00	2936.00	2937.00	2941.00	2946.00	2951.00	2969.00	2984.00	2990.00	3002.00	3042.00	3066.00	3098.00	3128.00	3170.00	3212.00	3229.00	3285.00	3302.00	3325.00	3247.00	3208.00	3284.00	3374.00	3452.00	3414.00	3529.00	3575.00	3557.00	3650.00	3697.00	3729.00	3634.00	3609.00	3611.00	3653.00	3693.00	3855.00	3906.00	3947.00	3973.00	4068.00	4182.00	4102.00	4045.00	4031.00	4014.00	4033.00	4093.00	4137.00	4205.00	4035.00	4093.00	4151.00	4186.00	3942.00	3986.00	4070.00	3944.00	3920.00	3912.00	3899.00	3847.00	3790.00	3693.00	3621.00	3599.00	3576.00	3567.00	3629.00	3776.00	3926.00	4009.00	4024.00	4084.00	4205.00	4254.00	4253.00	4350.00	4224.00	4267.00	3984.00	3875.00	3663.00	3759.00	3852.00	3750.00	3660.00	3721.00	3735.00	3575.00	3630.00	3620.00	3560.00	3489.00	3199.00	3207.00	3115.00	2928.00	2859.00	2930.00	3125.00	3098.00	2929.00	2435.00	2237.00	2117.00	1968.00	1800.00	1595.00	1702.00	1956.00	2012.00	1972.00	1917.00	1900.00	1842.00	1809.00	1907.00	2109.00	2216.00	2238.00	2605.00	2618.00	2654.00	2497.00	2302.00	1987.00	1909.00	1872.00	1870.00	1767.00	1503.00	1436.00	1401.00	1593.00	1709.00	1537.00	1456.00	1401.00	1615.00	1409.00	1063.00	1085.00	1057.00	989.00	978.00	1023.00	1067.00	1098.00	1090.00	1088.00	1080.00	1069.00	899.00	902.00	923.00	934.00	959.00	1020.00	1067.00	1031.00	1007.00	975.00	990.00	958.00	944.00	997.00	1000.00	997.00	1008.00	1006.00	990.00	984.00	979.00	962.00	947.00	933.00	817.00	835.00	980.00	987.00	972.00	978.00	984.00	983.00	974.00	972.00	973.00	951.00	926.00	881.00	857.00	911.00	946.00	808.00	920.00	1055.00	839.00	777.00	913.00	983.00	936.00	1024.00	984.00	899.00	806.00	688.00	650.00	577.00	495.00	468.00	510.00	480.00	488.00	512.00	458.00	421.00	370.00	398.00	415.00	377.00	360.00	356.00	364.00	343.00	378.00	397.00	397.00	384.00	365.00	373.00	354.00	346.00
3300.00	3300.00	3412.00	3339.00	3286.00	3225.00	3140.00	3199.00	3193.00	3236.00	3243.00	3104.00	3072.00	3041.00	3095.00	3083.00	3046.00	3012.00	2990.00	2953.00	2946.00	2941.00	2937.00	2932.00	2935.00	2940.00	2942.00	2944.00	2961.00	2972.00	2984.00	3008.00	3039.00	3060.00	3085.00	3117.00	3142.00	3198.00	3215.00	3275.00	3258.00	3185.00	3191.00	3246.00	3287.00	3335.00	3479.00	3518.00	3524.00	3611.00	3623.00	3672.00	3716.00	3710.00	3772.00	3776.00	3679.00	3659.00	3744.00	3887.00	3992.00	4038.00	4074.00	4104.00	4164.00	4097.00	4061.00	4047.00	4019.00	4010.00	4032.00	4097.00	4119.00	3992.00	4173.00	4042.00	4131.00	3983.00	3885.00	3970.00	3957.00	3953.00	3886.00	3872.00	3855.00	3815.00	3688.00	3613.00	3589.00	3577.00	3599.00	3634.00	3756.00	3934.00	3888.00	3952.00	4054.00	4165.00	4088.00	4242.00	4295.00	4095.00	4197.00	4082.00	3841.00	3789.00	3911.00	3819.00	3540.00	3597.00	3617.00	3494.00	3566.00	3746.00	3722.00	3627.00	3582.00	3328.00	3394.00	3317.00	3127.00	2867.00	3089.00	3146.00	2903.00	2812.00	2377.00	2119.00	1957.00	1818.00	1651.00	1677.00	1786.00	1994.00	1999.00	1870.00	1858.00	1792.00	1760.00	1779.00	1859.00	2023.00	2100.00	2035.00	2466.00	2477.00	2501.00	2569.00	2451.00	2183.00	2121.00	2023.00	1877.00	1715.00	1518.00	1451.00	1560.00	1738.00	1799.00	1631.00	1505.00	1533.00	1614.00	1392.00	1126.00	1064.00	1004.00	950.00	961.00	996.00	1024.00	1051.00	1054.00	1058.00	1060.00	1064.00	867.00	874.00	932.00	909.00	915.00	980.00	1062.00	1055.00	1045.00	928.00	950.00	917.00	955.00	964.00	971.00	972.00	982.00	969.00	966.00	965.00	958.00	956.00	936.00	941.00	912.00	781.00	968.00	985.00	967.00	971.00	981.00	969.00	969.00	966.00	964.00	939.00	918.00	911.00	871.00	872.00	883.00	776.00	862.00	965.00	807.00	756.00	856.00	978.00	1093.00	1162.00	1111.00	900.00	829.00	707.00	650.00	545.00	460.00	442.00	465.00	512.00	509.00	503.00	454.00	431.00	377.00	373.00	388.00	362.00	360.00	349.00	349.00	347.00	347.00	367.00	388.00	378.00	374.00	367.00	356.00	348.00
3392.00	3237.00	3288.00	3293.00	3270.00	3157.00	3178.00	3198.00	3221.00	3243.00	3184.00	3087.00	3071.00	3038.00	3094.00	3059.00	3018.00	2990.00	2981.00	2956.00	2941.00	2934.00	2929.00	2926.00	2931.00	2934.00	2934.00	2935.00	2949.00	2973.00	2980.00	3000.00	3031.00	3057.00	3104.00	3124.00	3150.00	3203.00	3232.00	3266.00	3188.00	3177.00	3255.00	3288.00	3291.00	3343.00	3404.00	3474.00	3538.00	3637.00	3708.00	3713.00	3660.00	3723.00	3787.00	3813.00	3812.00	3730.00	3712.00	3923.00	3997.00	4018.00	4058.00	4111.00	4097.00	4186.00	4098.00	4070.00	4050.00	3977.00	3997.00	4067.00	4014.00	3997.00	4082.00	3956.00	4130.00	4069.00	3937.00	3845.00	3828.00	3945.00	3862.00	3841.00	3827.00	3769.00	3648.00	3609.00	3571.00	3566.00	3617.00	3590.00	3642.00	3749.00	3733.00	3868.00	3980.00	4062.00	3930.00	4182.00	4137.00	3991.00	4035.00	3912.00	3954.00	3927.00	3863.00	3610.00	3331.00	3492.00	3409.00	3283.00	3569.00	3720.00	3668.00	3632.00	3513.00	3470.00	3506.00	3417.00	3193.00	2978.00	3203.00	3152.00	2934.00	2708.00	2226.00	1995.00	1868.00	1730.00	1619.00	1747.00	1850.00	2005.00	1974.00	1933.00	1830.00	1732.00	1730.00	1779.00	1774.00	1879.00	1907.00	1969.00	2239.00	2309.00	2464.00	2500.00	2371.00	2095.00	2018.00	1925.00	1847.00	1545.00	1468.00	1598.00	1786.00	1822.00	1710.00	1603.00	1557.00	1604.00	1709.00	1495.00	1222.00	1115.00	1019.00	918.00	920.00	953.00	980.00	1008.00	1008.00	1003.00	1015.00	1016.00	922.00	845.00	841.00	839.00	837.00	942.00	1029.00	1037.00	1022.00	926.00	925.00	918.00	908.00	939.00	951.00	956.00	967.00	966.00	950.00	942.00	930.00	937.00	935.00	796.00	784.00	839.00	953.00	963.00	959.00	974.00	977.00	968.00	953.00	949.00	944.00	891.00	883.00	877.00	883.00	839.00	808.00	836.00	792.00	786.00	767.00	851.00	980.00	1080.00	1140.00	1126.00	1020.00	1011.00	926.00	666.00	611.00	529.00	452.00	439.00	440.00	445.00	445.00	439.00	402.00	384.00	374.00	371.00	368.00	391.00	396.00	379.00	360.00	357.00	340.00	352.00	385.00	386.00	372.00	354.00	345.00	330.00
3463.00	3255.00	3222.00	3292.00	3271.00	3179.00	3244.00	3240.00	3217.00	3253.00	3116.00	3070.00	3061.00	3047.00	3065.00	3033.00	2987.00	2972.00	2970.00	2950.00	2937.00	2928.00	2922.00	2922.00	2924.00	2928.00	2928.00	2929.00	2947.00	2964.00	2980.00	2995.00	3030.00	3062.00	3113.00	3138.00	3170.00	3220.00	3241.00	3204.00	3133.00	3292.00	3290.00	3281.00	3338.00	3396.00	3482.00	3510.00	3562.00	3662.00	3637.00	3659.00	3620.00	3654.00	3694.00	3764.00	3809.00	3823.00	3831.00	3924.00	3953.00	4003.00	4066.00	3977.00	3989.00	4081.00	4058.00	4060.00	3969.00	3924.00	3966.00	4013.00	3934.00	4027.00	3962.00	3995.00	4092.00	3983.00	4046.00	3894.00	3778.00	3903.00	3832.00	3802.00	3755.00	3699.00	3632.00	3622.00	3569.00	3540.00	3586.00	3592.00	3606.00	3652.00	3697.00	3999.00	4006.00	3902.00	3853.00	4168.00	4059.00	3943.00	4034.00	3837.00	3721.00	3873.00	3796.00	3541.00	3240.00	3376.00	3215.00	3304.00	3569.00	3556.00	3459.00	3396.00	3301.00	3396.00	3408.00	3380.00	3253.00	3184.00	2962.00	2961.00	3011.00	2882.00	2293.00	2133.00	2020.00	1788.00	1555.00	1686.00	1775.00	1956.00	1922.00	1967.00	1847.00	1744.00	1711.00	1768.00	1785.00	1798.00	1845.00	1894.00	2101.00	2248.00	2439.00	2357.00	2182.00	1939.00	1805.00	1759.00	1714.00	1554.00	1575.00	1686.00	1899.00	1803.00	1549.00	1500.00	1471.00	1543.00	1701.00	1510.00	1263.00	1259.00	1142.00	934.00	893.00	920.00	937.00	988.00	985.00	975.00	976.00	951.00	925.00	872.00	882.00	890.00	835.00	891.00	1011.00	1015.00	994.00	892.00	911.00	927.00	866.00	915.00	941.00	933.00	946.00	948.00	945.00	931.00	917.00	930.00	882.00	788.00	853.00	892.00	935.00	946.00	968.00	972.00	987.00	968.00	952.00	935.00	919.00	913.00	923.00	920.00	877.00	868.00	892.00	932.00	915.00	865.00	904.00	940.00	1127.00	1215.00	1248.00	1234.00	1085.00	1033.00	923.00	633.00	563.00	520.00	453.00	448.00	407.00	397.00	394.00	383.00	371.00	369.00	384.00	394.00	374.00	381.00	384.00	377.00	372.00	372.00	344.00	343.00	381.00	387.00	379.00	365.00	367.00	350.00
3492.00	3274.00	3246.00	3241.00	3204.00	3235.00	3247.00	3298.00	3292.00	3205.00	3073.00	3043.00	3034.00	3039.00	3027.00	2975.00	2960.00	2969.00	2955.00	2932.00	2922.00	2915.00	2912.00	2910.00	2914.00	2914.00	2913.00	2918.00	2947.00	2957.00	2972.00	2998.00	3075.00	3093.00	3109.00	3129.00	3149.00	3205.00	3139.00	3100.00	3148.00	3263.00	3319.00	3381.00	3421.00	3445.00	3516.00	3530.00	3570.00	3584.00	3669.00	3658.00	3601.00	3593.00	3613.00	3629.00	3691.00	3737.00	3798.00	3930.00	3958.00	3945.00	3905.00	3900.00	3928.00	4003.00	3986.00	3977.00	3844.00	3794.00	3803.00	3848.00	3891.00	3888.00	3908.00	3925.00	3905.00	3925.00	3905.00	3864.00	3879.00	3757.00	3816.00	3753.00	3655.00	3604.00	3590.00	3602.00	3598.00	3546.00	3534.00	3613.00	3739.00	3747.00	3695.00	3794.00	3662.00	3847.00	3897.00	3937.00	3940.00	3814.00	3980.00	3790.00	3585.00	3679.00	3617.00	3523.00	3291.00	3048.00	3023.00	3264.00	3171.00	3166.00	3212.00	2936.00	2755.00	2968.00	3142.00	2956.00	2699.00	2637.00	2500.00	2558.00	2726.00	2830.00	2190.00	2081.00	1889.00	1726.00	1565.00	1568.00	1678.00	1878.00	1811.00	1867.00	1817.00	1754.00	1733.00	1651.00	1837.00	1887.00	2029.00	2025.00	2399.00	2485.00	2607.00	2549.00	2356.00	1935.00	1739.00	1667.00	1778.00	1910.00	1877.00	1891.00	1740.00	1618.00	1416.00	1361.00	1348.00	1434.00	1616.00	1671.00	1590.00	1392.00	1211.00	964.00	905.00	859.00	874.00	886.00	888.00	884.00	903.00	919.00	882.00	847.00	805.00	789.00	863.00	812.00	917.00	916.00	894.00	907.00	857.00	854.00	847.00	812.00	880.00	925.00	927.00	922.00	926.00	913.00	881.00	917.00	825.00	941.00	960.00	956.00	958.00	966.00	975.00	978.00	975.00	970.00	962.00	969.00	968.00	991.00	1024.00	1070.00	1094.00	1118.00	1163.00	1204.00	1176.00	1073.00	1340.00	1500.00	1533.00	1530.00	1477.00	1440.00	1324.00	986.00	833.00	601.00	544.00	481.00	458.00	453.00	432.00	411.00	383.00	382.00	439.00	414.00	420.00	415.00	417.00	391.00	381.00	385.00	405.00	352.00	336.00	336.00	380.00	374.00	374.00	373.00	356.00	346.00
3412.00	3335.00	3296.00	3276.00	3263.00	3256.00	3271.00	3270.00	3254.00	3141.00	3091.00	3034.00	3024.00	3034.00	3016.00	2953.00	2944.00	2956.00	2949.00	2928.00	2920.00	2911.00	2910.00	2904.00	2912.00	2910.00	2907.00	2910.00	2944.00	2961.00	2976.00	3011.00	3079.00	3117.00	3139.00	3150.00	3161.00	3129.00	3073.00	3150.00	3188.00	3293.00	3339.00	3382.00	3420.00	3451.00	3473.00	3430.00	3462.00	3553.00	3722.00	3707.00	3661.00	3647.00	3647.00	3650.00	3650.00	3689.00	3704.00	3786.00	3802.00	3807.00	3820.00	3880.00	3926.00	3995.00	3918.00	3946.00	3803.00	3764.00	3751.00	3779.00	3808.00	3843.00	3843.00	3824.00	3854.00	3902.00	3825.00	3763.00	3782.00	3721.00	3785.00	3743.00	3669.00	3559.00	3579.00	3590.00	3585.00	3564.00	3506.00	3576.00	3694.00	3630.00	3523.00	3641.00	3665.00	3877.00	3755.00	3684.00	3709.00	3650.00	3819.00	3664.00	3567.00	3458.00	3432.00	3398.00	3267.00	3013.00	2950.00	3171.00	2962.00	2960.00	3105.00	2969.00	2660.00	2877.00	2941.00	2731.00	2569.00	2390.00	2351.00	2440.00	2618.00	2794.00	2129.00	1968.00	1861.00	1744.00	1609.00	1532.00	1624.00	1835.00	1798.00	1843.00	1770.00	1739.00	1739.00	1691.00	1754.00	1768.00	1829.00	1899.00	2348.00	2459.00	2578.00	2641.00	2430.00	1971.00	1756.00	1773.00	1980.00	2074.00	1998.00	1792.00	1618.00	1463.00	1343.00	1336.00	1281.00	1371.00	1587.00	1604.00	1407.00	1373.00	1265.00	951.00	890.00	848.00	860.00	853.00	839.00	847.00	851.00	886.00	870.00	887.00	807.00	781.00	863.00	780.00	870.00	879.00	890.00	882.00	877.00	879.00	862.00	811.00	876.00	925.00	922.00	902.00	901.00	830.00	739.00	778.00	858.00	948.00	962.00	966.00	965.00	966.00	968.00	971.00	971.00	979.00	979.00	992.00	1011.00	1021.00	1085.00	1120.00	1156.00	1183.00	1234.00	1195.00	1146.00	1110.00	1482.00	1565.00	1601.00	1602.00	1413.00	1343.00	1264.00	978.00	803.00	592.00	526.00	492.00	466.00	464.00	436.00	440.00	389.00	405.00	438.00	413.00	422.00	420.00	414.00	394.00	391.00	386.00	395.00	350.00	337.00	346.00	379.00	360.00	354.00	365.00	351.00	341.00
3431.00	3396.00	3285.00	3284.00	3290.00	3274.00	3279.00	3286.00	3251.00	3123.00	3049.00	3025.00	3019.00	3026.00	2985.00	2940.00	2941.00	2933.00	2934.00	2920.00	2914.00	2906.00	2903.00	2896.00	2900.00	2904.00	2903.00	2907.00	2946.00	2969.00	2998.00	3038.00	3106.00	3119.00	3122.00	3111.00	3133.00	3061.00	3112.00	3216.00	3261.00	3275.00	3353.00	3397.00	3380.00	3354.00	3423.00	3446.00	3496.00	3604.00	3750.00	3762.00	3733.00	3712.00	3716.00	3681.00	3695.00	3714.00	3762.00	3774.00	3809.00	3839.00	3850.00	3911.00	3959.00	3958.00	3914.00	3830.00	3753.00	3743.00	3721.00	3713.00	3727.00	3729.00	3733.00	3739.00	3789.00	3801.00	3735.00	3700.00	3690.00	3715.00	3753.00	3725.00	3639.00	3555.00	3561.00	3580.00	3587.00	3569.00	3486.00	3644.00	3670.00	3493.00	3448.00	3680.00	3657.00	3857.00	3791.00	3433.00	3392.00	3404.00	3667.00	3422.00	3318.00	3310.00	3258.00	3306.00	3277.00	2990.00	2838.00	2975.00	2832.00	2797.00	2968.00	3036.00	2719.00	2649.00	2735.00	2531.00	2519.00	2401.00	2152.00	2309.00	2496.00	2692.00	2282.00	2111.00	2020.00	1844.00	1610.00	1477.00	1573.00	1772.00	1828.00	1804.00	1729.00	1724.00	1701.00	1641.00	1883.00	1943.00	1991.00	2189.00	2299.00	2402.00	2556.00	2524.00	2339.00	1909.00	1900.00	1902.00	2033.00	2146.00	1930.00	1758.00	1623.00	1466.00	1298.00	1255.00	1238.00	1245.00	1491.00	1521.00	1306.00	1199.00	1169.00	937.00	873.00	832.00	858.00	839.00	806.00	808.00	806.00	863.00	836.00	900.00	864.00	811.00	809.00	760.00	858.00	876.00	887.00	861.00	849.00	845.00	837.00	790.00	874.00	910.00	918.00	887.00	840.00	713.00	893.00	849.00	917.00	947.00	961.00	969.00	975.00	972.00	971.00	976.00	974.00	999.00	987.00	1009.00	1040.00	1082.00	1124.00	1146.00	1180.00	1201.00	1223.00	1186.00	1154.00	1219.00	1518.00	1615.00	1601.00	1431.00	1279.00	1139.00	1177.00	848.00	733.00	580.00	526.00	509.00	485.00	460.00	453.00	437.00	393.00	419.00	415.00	408.00	445.00	432.00	405.00	403.00	391.00	397.00	395.00	374.00	340.00	342.00	351.00	341.00	355.00	346.00	333.00	328.00
3541.00	3393.00	3308.00	3288.00	3301.00	3349.00	3304.00	3294.00	3270.00	3145.00	3041.00	3024.00	3007.00	3029.00	2945.00	2927.00	2933.00	2937.00	2916.00	2911.00	2906.00	2902.00	2896.00	2889.00	2894.00	2896.00	2897.00	2900.00	2953.00	2993.00	3029.00	3056.00	3081.00	3089.00	3067.00	3064.00	3099.00	3067.00	3107.00	3104.00	3102.00	3181.00	3216.00	3239.00	3281.00	3344.00	3490.00	3520.00	3543.00	3644.00	3779.00	3798.00	3781.00	3779.00	3755.00	3761.00	3711.00	3774.00	3858.00	3840.00	3855.00	3887.00	3890.00	3924.00	4006.00	3936.00	3856.00	3839.00	3750.00	3730.00	3693.00	3683.00	3685.00	3683.00	3681.00	3688.00	3717.00	3706.00	3673.00	3640.00	3622.00	3713.00	3715.00	3688.00	3610.00	3548.00	3515.00	3544.00	3573.00	3562.00	3472.00	3717.00	3602.00	3404.00	3469.00	3760.00	3542.00	3595.00	3605.00	3492.00	3262.00	3276.00	3682.00	3460.00	3081.00	3101.00	3114.00	3123.00	3173.00	3047.00	2771.00	2719.00	2692.00	2633.00	2810.00	2968.00	2740.00	2400.00	2587.00	2418.00	2287.00	2387.00	2081.00	2208.00	2392.00	2523.00	2445.00	2322.00	2207.00	1925.00	1650.00	1449.00	1460.00	1727.00	1777.00	1699.00	1676.00	1691.00	1640.00	1606.00	1784.00	2066.00	2247.00	2347.00	2556.00	2604.00	2523.00	2360.00	2206.00	2085.00	2024.00	2079.00	2211.00	2139.00	1821.00	1723.00	1609.00	1437.00	1315.00	1305.00	1244.00	1201.00	1366.00	1373.00	1338.00	1260.00	1156.00	931.00	854.00	817.00	838.00	822.00	785.00	777.00	783.00	841.00	833.00	897.00	866.00	818.00	768.00	809.00	844.00	845.00	861.00	847.00	819.00	820.00	830.00	839.00	867.00	883.00	895.00	887.00	848.00	723.00	917.00	929.00	938.00	948.00	954.00	963.00	973.00	974.00	976.00	980.00	976.00	1033.00	1018.00	1031.00	1041.00	1120.00	1095.00	1133.00	1160.00	1169.00	1191.00	1203.00	1272.00	1388.00	1491.00	1585.00	1565.00	1379.00	1238.00	1004.00	1012.00	803.00	685.00	573.00	531.00	512.00	487.00	470.00	439.00	414.00	392.00	412.00	419.00	415.00	420.00	439.00	413.00	393.00	377.00	383.00	400.00	366.00	334.00	332.00	335.00	341.00	333.00	335.00	331.00	327.00
3698.00	3578.00	3415.00	3363.00	3391.00	3429.00	3428.00	3225.00	3146.00	3078.00	3034.00	3037.00	2992.00	2946.00	2923.00	2919.00	2922.00	2918.00	2896.00	2887.00	2885.00	2880.00	2877.00	2876.00	2876.00	2881.00	2888.00	2891.00	2969.00	3018.00	3045.00	3003.00	2972.00	3042.00	3101.00	3125.00	3124.00	3156.00	3192.00	3251.00	3261.00	3321.00	3339.00	3374.00	3427.00	3490.00	3589.00	3632.00	3687.00	3769.00	3845.00	3854.00	3802.00	3815.00	3813.00	3851.00	3879.00	3816.00	3808.00	3869.00	3926.00	3959.00	4009.00	4034.00	3974.00	3921.00	3938.00	4008.00	3785.00	3709.00	3651.00	3638.00	3629.00	3628.00	3622.00	3619.00	3610.00	3583.00	3572.00	3556.00	3550.00	3588.00	3577.00	3550.00	3524.00	3508.00	3494.00	3482.00	3486.00	3477.00	3607.00	3406.00	3378.00	3283.00	3334.00	3582.00	3526.00	3392.00	3245.00	3616.00	3419.00	3175.00	3362.00	3329.00	3282.00	3177.00	2989.00	2843.00	2574.00	2600.00	2553.00	2402.00	2303.00	2318.00	2334.00	2442.00	2407.00	2339.00	2110.00	2220.00	2134.00	1909.00	1772.00	1822.00	1844.00	1872.00	2121.00	2134.00	2148.00	2009.00	1832.00	1708.00	1614.00	1472.00	1455.00	1492.00	1576.00	1526.00	1708.00	1787.00	1749.00	1845.00	2114.00	2322.00	2178.00	2265.00	2255.00	2036.00	2167.00	2010.00	2018.00	2039.00	2074.00	2011.00	1701.00	1685.00	1646.00	1648.00	1453.00	1412.00	1392.00	1316.00	1132.00	1107.00	1024.00	1068.00	1138.00	958.00	894.00	848.00	810.00	765.00	755.00	746.00	755.00	735.00	814.00	861.00	833.00	796.00	731.00	783.00	780.00	771.00	796.00	804.00	821.00	828.00	811.00	777.00	825.00	824.00	825.00	823.00	705.00	779.00	866.00	923.00	929.00	947.00	944.00	951.00	965.00	970.00	974.00	979.00	1004.00	1085.00	1091.00	1067.00	1034.00	1039.00	1040.00	1079.00	1072.00	1102.00	1063.00	1278.00	1330.00	1373.00	1653.00	1679.00	1580.00	1369.00	1268.00	1090.00	944.00	646.00	597.00	535.00	518.00	500.00	485.00	466.00	458.00	437.00	406.00	412.00	453.00	459.00	443.00	440.00	442.00	408.00	411.00	392.00	374.00	362.00	367.00	362.00	352.00	346.00	343.00	347.00	341.00	335.00
3698.00	3578.00	3415.00	3363.00	3391.00	3429.00	3428.00	3225.00	3146.00	3078.00	3034.00	3037.00	2992.00	2946.00	2923.00	2919.00	2922.00	2918.00	2896.00	2887.00	2885.00	2880.00	2877.00	2876.00	2876.00	2881.00	2888.00	2891.00	2969.00	3018.00	3045.00	3003.00	2972.00	3042.00	3101.00	3125.00	3124.00	3156.00	3192.00	3251.00	3261.00	3321.00	3339.00	3374.00	3427.00	3490.00	3589.00	3632.00	3687.00	3769.00	3845.00	3854.00	3802.00	3815.00	3813.00	3851.00	3879.00	3816.00	3808.00	3869.00	3926.00	3959.00	4009.00	4034.00	3974.00	3921.00	3938.00	4008.00	3785.00	3709.00	3651.00	3638.00	3629.00	3628.00	3622.00	3619.00	3610.00	3583.00	3572.00	3556.00	3550.00	3588.00	3577.00	3550.00	3524.00	3508.00	3494.00	3482.00	3486.00	3477.00	3607.00	3406.00	3378.00	3283.00	3334.00	3582.00	3526.00	3392.00	3245.00	3616.00	3419.00	3175.00	3362.00	3329.00	3282.00	3177.00	2989.00	2843.00	2574.00	2600.00	2553.00	2402.00	2303.00	2318.00	2334.00	2442.00	2407.00	2339.00	2110.00	2220.00	2134.00	1909.00	1772.00	1822.00	1844.00	1872.00	2121.00	2134.00	2148.00	2009.00	1832.00	1708.00	1614.00	1472.00	1455.00	1492.00	1576.00	1526.00	1708.00	1787.00	1749.00	1845.00	2114.00	2322.00	2178.00	2265.00	2255.00	2036.00	2167.00	2010.00	2018.00	2039.00	2074.00	2011.00	1701.00	1685.00	1646.00	1648.00	1453.00	1412.00	1392.00	1316.00	1132.00	1107.00	1024.00	1068.00	1138.00	958.00	894.00	848.00	810.00	765.00	755.00	746.00	755.00	735.00	814.00	861.00	833.00	796.00	731.00	783.00	780.00	771.00	796.00	804.00	821.00	828.00	811.00	777.00	825.00	824.00	825.00	823.00	705.00	779.00	866.00	923.00	929.00	947.00	944.00	951.00	965.00	970.00	974.00	979.00	1004.00	1085.00	1091.00	1067.00	1034.00	1039.00	1040.00	1079.00	1072.00	1102.00	1063.00	1278.00	1330.00	1373.00	1653.00	1679.00	1580.00	1369.00	1268.00	1090.00	944.00	646.00	597.00	535.00	518.00	500.00	485.00	466.00	458.00	437.00	406.00	412.00	453.00	459.00	443.00	440.00	442.00	408.00	411.00	392.00	374.00	362.00	367.00	362.00	352.00	346.00	343.00	347.00	341.00	335.00
3687.00	3562.00	3428.00	3425.00	3474.00	3502.00	3470.00	3245.00	3142.00	3083.00	3022.00	3023.00	2962.00	2931.00	2919.00	2915.00	2927.00	2926.00	2891.00	2883.00	2881.00	2873.00	2872.00	2870.00	2869.00	2877.00	2887.00	2921.00	2981.00	3003.00	2996.00	2947.00	3012.00	3063.00	3097.00	3107.00	3104.00	3169.00	3184.00	3226.00	3269.00	3312.00	3362.00	3411.00	3482.00	3525.00	3746.00	3765.00	3798.00	3853.00	3856.00	3872.00	3822.00	3809.00	3874.00	3861.00	3898.00	3846.00	3844.00	3868.00	3870.00	3899.00	3956.00	4054.00	4017.00	3886.00	3901.00	3969.00	3785.00	3698.00	3655.00	3642.00	3626.00	3618.00	3616.00	3609.00	3608.00	3594.00	3587.00	3578.00	3573.00	3542.00	3540.00	3532.00	3517.00	3527.00	3494.00	3501.00	3541.00	3563.00	3646.00	3495.00	3390.00	3275.00	3259.00	3489.00	3464.00	3246.00	3271.00	3588.00	3430.00	3163.00	3152.00	3175.00	3160.00	3017.00	2923.00	2722.00	2540.00	2458.00	2387.00	2360.00	2401.00	2199.00	2183.00	2198.00	2191.00	2300.00	2067.00	1972.00	1915.00	1867.00	1860.00	1747.00	1662.00	1790.00	1946.00	1952.00	2045.00	1994.00	1884.00	1823.00	1758.00	1651.00	1630.00	1418.00	1472.00	1539.00	1587.00	1633.00	1889.00	2070.00	2170.00	2284.00	2054.00	2169.00	2125.00	1973.00	2109.00	1874.00	1841.00	1947.00	1920.00	1832.00	1626.00	1531.00	1494.00	1633.00	1557.00	1468.00	1448.00	1452.00	1222.00	1256.00	1059.00	990.00	1008.00	914.00	893.00	842.00	826.00	752.00	740.00	730.00	740.00	729.00	764.00	800.00	830.00	788.00	745.00	767.00	767.00	767.00	786.00	795.00	803.00	817.00	797.00	775.00	791.00	800.00	781.00	770.00	673.00	799.00	892.00	907.00	928.00	925.00	935.00	956.00	964.00	969.00	976.00	987.00	1026.00	1082.00	1092.00	1064.00	1026.00	983.00	989.00	997.00	1020.00	1054.00	1163.00	1290.00	1370.00	1463.00	1646.00	1626.00	1517.00	1384.00	1200.00	982.00	848.00	622.00	565.00	528.00	507.00	496.00	475.00	463.00	458.00	436.00	410.00	412.00	471.00	481.00	447.00	437.00	421.00	389.00	386.00	386.00	374.00	373.00	377.00	366.00	358.00	348.00	361.00	356.00	350.00	351.00
3680.00	3561.00	3477.00	3454.00	3550.00	3552.00	3497.00	3295.00	3153.00	3182.00	3021.00	3003.00	2939.00	2925.00	2918.00	2928.00	2919.00	2919.00	2887.00	2876.00	2873.00	2867.00	2864.00	2866.00	2866.00	2873.00	2912.00	2909.00	2936.00	2933.00	2931.00	2962.00	3072.00	3080.00	3071.00	3087.00	3120.00	3152.00	3157.00	3226.00	3244.00	3335.00	3393.00	3456.00	3555.00	3596.00	3825.00	3888.00	3907.00	3912.00	3906.00	3876.00	3840.00	3834.00	3894.00	3927.00	3932.00	3883.00	3863.00	3863.00	3876.00	3886.00	3905.00	3981.00	3977.00	3911.00	3847.00	3920.00	3738.00	3697.00	3660.00	3656.00	3644.00	3637.00	3625.00	3619.00	3611.00	3596.00	3592.00	3588.00	3576.00	3526.00	3520.00	3515.00	3532.00	3584.00	3538.00	3546.00	3632.00	3628.00	3679.00	3602.00	3438.00	3287.00	3253.00	3372.00	3328.00	3148.00	3267.00	3492.00	3447.00	3245.00	2898.00	2977.00	3016.00	2853.00	2799.00	2633.00	2442.00	2427.00	2468.00	2505.00	2690.00	2395.00	2324.00	2146.00	2089.00	2151.00	1986.00	2005.00	2052.00	2066.00	2206.00	1940.00	1764.00	1624.00	1658.00	1752.00	1830.00	1784.00	1824.00	1848.00	1766.00	1775.00	1675.00	1422.00	1496.00	1666.00	1704.00	1789.00	2038.00	2088.00	2007.00	2172.00	1885.00	1998.00	1988.00	1932.00	2099.00	1726.00	1738.00	1850.00	1803.00	1716.00	1491.00	1384.00	1403.00	1531.00	1526.00	1544.00	1416.00	1473.00	1291.00	1401.00	1107.00	1003.00	958.00	870.00	872.00	842.00	812.00	809.00	761.00	723.00	712.00	728.00	773.00	792.00	797.00	759.00	735.00	729.00	781.00	759.00	752.00	792.00	789.00	802.00	822.00	695.00	694.00	671.00	660.00	695.00	770.00	838.00	909.00	910.00	928.00	946.00	951.00	952.00	972.00	968.00	982.00	1002.00	1039.00	1031.00	1068.00	1038.00	1003.00	987.00	1028.00	1061.00	1092.00	1105.00	1208.00	1264.00	1377.00	1436.00	1602.00	1440.00	1446.00	1290.00	1194.00	831.00	749.00	618.00	574.00	516.00	500.00	498.00	492.00	483.00	451.00	430.00	423.00	417.00	466.00	480.00	446.00	411.00	404.00	403.00	396.00	385.00	382.00	375.00	366.00	358.00	350.00	349.00	358.00	359.00	358.00	363.00
3674.00	3670.00	3572.00	3494.00	3575.00	3538.00	3413.00	3283.00	3251.00	3120.00	3031.00	2966.00	2937.00	2929.00	2919.00	2929.00	2921.00	2907.00	2878.00	2856.00	2857.00	2853.00	2852.00	2853.00	2868.00	2880.00	2880.00	2883.00	2960.00	2969.00	2984.00	3027.00	3039.00	3056.00	3064.00	3082.00	3084.00	3127.00	3125.00	3233.00	3290.00	3392.00	3466.00	3545.00	3647.00	3727.00	3803.00	3856.00	3920.00	4034.00	3953.00	3875.00	3836.00	3888.00	3944.00	3973.00	3960.00	3916.00	3915.00	3897.00	3924.00	3930.00	3933.00	3976.00	3927.00	3878.00	3811.00	3779.00	3761.00	3726.00	3698.00	3707.00	3892.00	3872.00	3782.00	3681.00	3665.00	3638.00	3620.00	3606.00	3598.00	3556.00	3549.00	3560.00	3569.00	3617.00	3597.00	3720.00	3832.00	3854.00	3735.00	3645.00	3604.00	3603.00	3478.00	3201.00	3071.00	3073.00	3084.00	3041.00	3088.00	3120.00	3077.00	2864.00	2753.00	2605.00	2530.00	2541.00	2711.00	2832.00	2881.00	2944.00	2924.00	2664.00	2405.00	2249.00	2257.00	2248.00	2331.00	2389.00	2516.00	2585.00	2556.00	2292.00	2050.00	1831.00	1708.00	1488.00	1524.00	1608.00	1861.00	1796.00	1846.00	1836.00	1665.00	1432.00	1440.00	1664.00	1817.00	1867.00	1813.00	1899.00	1752.00	1780.00	1733.00	1780.00	1896.00	2065.00	1992.00	1596.00	1551.00	1577.00	1614.00	1616.00	1400.00	1276.00	1256.00	1254.00	1381.00	1456.00	1344.00	1208.00	1505.00	1509.00	1208.00	1056.00	980.00	849.00	818.00	803.00	773.00	784.00	785.00	725.00	694.00	780.00	880.00	901.00	882.00	806.00	717.00	680.00	693.00	683.00	716.00	703.00	709.00	735.00	684.00	684.00	815.00	850.00	884.00	914.00	913.00	916.00	963.00	968.00	951.00	982.00	1021.00	1026.00	1055.00	1021.00	1045.00	1039.00	1025.00	983.00	959.00	979.00	1012.00	963.00	1027.00	1058.00	1014.00	1077.00	1176.00	1346.00	1432.00	1482.00	1583.00	1437.00	1193.00	1157.00	1002.00	742.00	660.00	577.00	545.00	506.00	490.00	476.00	473.00	472.00	451.00	438.00	434.00	451.00	428.00	396.00	394.00	392.00	395.00	385.00	398.00	391.00	387.00	367.00	360.00	353.00	363.00	364.00	383.00	371.00	380.00	346.00
3693.00	3749.00	3594.00	3544.00	3611.00	3561.00	3531.00	3326.00	3156.00	3067.00	3021.00	2969.00	2928.00	2921.00	2918.00	2928.00	2920.00	2905.00	2870.00	2849.00	2847.00	2847.00	2846.00	2852.00	2861.00	2860.00	2884.00	2926.00	2970.00	2981.00	2995.00	3013.00	3032.00	3039.00	3057.00	3060.00	3086.00	3110.00	3147.00	3239.00	3301.00	3432.00	3522.00	3608.00	3699.00	3764.00	3902.00	3939.00	3916.00	3979.00	4000.00	3898.00	3858.00	3922.00	3961.00	3980.00	3964.00	3944.00	3949.00	3918.00	3935.00	3957.00	3963.00	3995.00	3977.00	3923.00	3881.00	3851.00	3782.00	3736.00	3819.00	3804.00	3995.00	3893.00	3744.00	3710.00	3684.00	3656.00	3643.00	3630.00	3617.00	3578.00	3578.00	3641.00	3636.00	3626.00	3585.00	3602.00	3755.00	3820.00	3854.00	3729.00	3800.00	3749.00	3705.00	3456.00	3177.00	2975.00	2931.00	2890.00	2870.00	2860.00	2853.00	2841.00	2678.00	2561.00	2631.00	2686.00	2756.00	2821.00	2986.00	3088.00	3068.00	2556.00	2401.00	2316.00	2417.00	2401.00	2498.00	2601.00	2659.00	2691.00	2645.00	2346.00	2100.00	1895.00	1779.00	1486.00	1559.00	1657.00	1831.00	1788.00	1859.00	1877.00	1740.00	1424.00	1467.00	1603.00	1690.00	1739.00	1719.00	1796.00	1693.00	1681.00	1798.00	1931.00	1930.00	2037.00	1931.00	1579.00	1473.00	1429.00	1482.00	1467.00	1361.00	1249.00	1179.00	1249.00	1266.00	1377.00	1307.00	1148.00	1375.00	1439.00	1146.00	1086.00	983.00	855.00	841.00	814.00	805.00	737.00	766.00	726.00	683.00	798.00	885.00	880.00	859.00	846.00	739.00	712.00	704.00	699.00	669.00	662.00	633.00	638.00	617.00	801.00	865.00	892.00	903.00	916.00	911.00	913.00	947.00	953.00	1007.00	1046.00	1073.00	1076.00	1049.00	1079.00	1084.00	1048.00	998.00	998.00	949.00	983.00	987.00	946.00	995.00	1016.00	1006.00	1052.00	1147.00	1365.00	1420.00	1471.00	1522.00	1437.00	1239.00	1021.00	1025.00	719.00	655.00	569.00	542.00	511.00	502.00	493.00	489.00	475.00	443.00	437.00	444.00	454.00	387.00	397.00	386.00	391.00	388.00	377.00	381.00	377.00	372.00	360.00	367.00	363.00	364.00	366.00	356.00	357.00	336.00	321.00
3741.00	3818.00	3669.00	3593.00	3666.00	3531.00	3448.00	3247.00	3117.00	3105.00	3006.00	2988.00	2923.00	2910.00	2917.00	2927.00	2914.00	2899.00	2871.00	2847.00	2842.00	2843.00	2845.00	2849.00	2853.00	2856.00	2880.00	2942.00	2960.00	2953.00	2981.00	3000.00	3016.00	3033.00	3037.00	3061.00	3078.00	3134.00	3166.00	3255.00	3304.00	3448.00	3557.00	3647.00	3728.00	3799.00	3913.00	3991.00	4036.00	3968.00	4030.00	3904.00	3890.00	3982.00	3974.00	3989.00	3976.00	3981.00	3973.00	3934.00	3944.00	3962.00	3987.00	4017.00	4004.00	4014.00	3886.00	3794.00	3767.00	3793.00	3905.00	3921.00	3916.00	3784.00	3782.00	3800.00	3735.00	3700.00	3688.00	3690.00	3657.00	3618.00	3620.00	3667.00	3668.00	3704.00	3702.00	3622.00	3662.00	3777.00	3919.00	3837.00	3710.00	3617.00	3649.00	3369.00	3155.00	2966.00	3054.00	3019.00	3016.00	2932.00	2815.00	2745.00	2623.00	2656.00	2750.00	2766.00	2994.00	2929.00	2921.00	3077.00	3038.00	2528.00	2535.00	2438.00	2465.00	2677.00	2599.00	2678.00	2794.00	2821.00	2727.00	2473.00	2172.00	2041.00	1730.00	1458.00	1509.00	1537.00	1703.00	1755.00	1838.00	1885.00	1711.00	1409.00	1475.00	1572.00	1580.00	1631.00	1605.00	1668.00	1639.00	1679.00	1834.00	1947.00	2010.00	1895.00	1755.00	1619.00	1568.00	1434.00	1372.00	1327.00	1263.00	1188.00	1141.00	1238.00	1172.00	1348.00	1290.00	1105.00	1257.00	1330.00	1088.00	1026.00	959.00	809.00	820.00	833.00	816.00	719.00	749.00	710.00	674.00	795.00	827.00	816.00	820.00	826.00	823.00	810.00	787.00	753.00	743.00	696.00	772.00	758.00	623.00	822.00	898.00	931.00	930.00	920.00	914.00	927.00	970.00	995.00	1036.00	1065.00	1088.00	1090.00	1109.00	1144.00	1097.00	1034.00	1000.00	980.00	928.00	956.00	988.00	946.00	983.00	982.00	987.00	1021.00	1079.00	1364.00	1416.00	1465.00	1491.00	1263.00	1258.00	1048.00	867.00	690.00	642.00	575.00	552.00	519.00	503.00	492.00	477.00	467.00	442.00	451.00	450.00	456.00	381.00	385.00	384.00	383.00	390.00	384.00	382.00	374.00	374.00	365.00	373.00	372.00	356.00	361.00	354.00	338.00	320.00	327.00
3723.00	3837.00	3721.00	3644.00	3656.00	3424.00	3357.00	3182.00	3139.00	3153.00	2991.00	2991.00	2919.00	2903.00	2912.00	2919.00	2907.00	2895.00	2872.00	2846.00	2840.00	2839.00	2842.00	2849.00	2848.00	2852.00	2875.00	2949.00	2928.00	2958.00	2972.00	2982.00	3013.00	3015.00	3025.00	3044.00	3050.00	3159.00	3204.00	3295.00	3352.00	3487.00	3591.00	3670.00	3769.00	3815.00	3940.00	4007.00	4078.00	3998.00	4038.00	3926.00	3932.00	4014.00	3985.00	3998.00	3991.00	4003.00	3985.00	3974.00	3980.00	4007.00	4031.00	4041.00	4050.00	3959.00	3830.00	3823.00	3883.00	3917.00	3931.00	3948.00	3804.00	3795.00	3916.00	3950.00	3856.00	3772.00	3767.00	3784.00	3742.00	3715.00	3715.00	3713.00	3664.00	3773.00	3799.00	3736.00	3668.00	3780.00	3831.00	3733.00	3709.00	3536.00	3440.00	3280.00	3047.00	3107.00	3303.00	3183.00	3132.00	3090.00	2957.00	2904.00	2693.00	2775.00	2894.00	2928.00	2979.00	3116.00	3056.00	3079.00	2971.00	2770.00	2658.00	2515.00	2621.00	2886.00	2819.00	2718.00	2878.00	3003.00	2832.00	2569.00	2311.00	2186.00	1778.00	1527.00	1404.00	1435.00	1592.00	1719.00	1751.00	1725.00	1533.00	1381.00	1385.00	1488.00	1531.00	1561.00	1630.00	1627.00	1646.00	1773.00	2037.00	2068.00	2016.00	1992.00	1944.00	1705.00	1611.00	1527.00	1477.00	1306.00	1201.00	1160.00	1137.00	1121.00	1170.00	1354.00	1307.00	1113.00	1164.00	1228.00	1009.00	909.00	887.00	786.00	769.00	783.00	765.00	702.00	714.00	705.00	666.00	784.00	779.00	801.00	806.00	811.00	832.00	822.00	823.00	815.00	784.00	817.00	817.00	793.00	688.00	827.00	885.00	917.00	938.00	939.00	924.00	918.00	964.00	1012.00	1067.00	1068.00	1075.00	1065.00	1153.00	1154.00	1114.00	1052.00	997.00	954.00	913.00	933.00	968.00	921.00	965.00	953.00	978.00	1015.00	1170.00	1365.00	1427.00	1480.00	1493.00	1253.00	1080.00	1041.00	932.00	692.00	640.00	576.00	552.00	507.00	494.00	484.00	478.00	467.00	448.00	451.00	456.00	450.00	382.00	375.00	375.00	373.00	378.00	385.00	381.00	378.00	384.00	371.00	408.00	403.00	372.00	331.00	339.00	333.00	324.00	345.00
3738.00	3791.00	3721.00	3626.00	3525.00	3317.00	3285.00	3228.00	3206.00	3225.00	2972.00	2983.00	2929.00	2910.00	2898.00	2906.00	2898.00	2886.00	2873.00	2849.00	2837.00	2830.00	2829.00	2836.00	2837.00	2841.00	2843.00	2883.00	2953.00	2941.00	2958.00	2960.00	2971.00	2995.00	3026.00	3054.00	3084.00	3151.00	3195.00	3295.00	3355.00	3495.00	3579.00	3617.00	3698.00	3808.00	3809.00	3839.00	3877.00	3875.00	3946.00	4019.00	4043.00	4022.00	4019.00	4013.00	4014.00	4010.00	4008.00	4058.00	4047.00	4026.00	4031.00	4007.00	3948.00	3892.00	3921.00	4002.00	3936.00	3899.00	3928.00	3897.00	3861.00	3929.00	4038.00	4113.00	4049.00	4025.00	3953.00	3873.00	3918.00	3785.00	3864.00	3929.00	3898.00	3867.00	3927.00	3938.00	3816.00	3818.00	3602.00	3459.00	3478.00	3315.00	3289.00	3317.00	3285.00	3409.00	3597.00	3267.00	3412.00	3476.00	3367.00	3203.00	2908.00	2915.00	3131.00	3247.00	3371.00	3261.00	3311.00	3396.00	3086.00	2763.00	2725.00	2798.00	2870.00	3256.00	3267.00	3134.00	3108.00	2903.00	2474.00	2368.00	2271.00	2191.00	1880.00	1689.00	1471.00	1373.00	1434.00	1671.00	1649.00	1575.00	1392.00	1527.00	1502.00	1527.00	1686.00	1805.00	1905.00	1867.00	1950.00	2030.00	1966.00	1811.00	1836.00	2032.00	2072.00	1664.00	1536.00	1478.00	1480.00	1382.00	1236.00	1369.00	1357.00	1305.00	1083.00	1056.00	1015.00	964.00	895.00	999.00	836.00	792.00	776.00	758.00	710.00	671.00	661.00	653.00	669.00	668.00	650.00	729.00	736.00	756.00	786.00	821.00	803.00	811.00	803.00	805.00	826.00	829.00	799.00	783.00	677.00	800.00	833.00	888.00	899.00	918.00	908.00	925.00	971.00	977.00	1003.00	1025.00	1066.00	1094.00	1100.00	1121.00	1073.00	1013.00	964.00	901.00	927.00	974.00	941.00	923.00	908.00	945.00	1005.00	1058.00	1280.00	1412.00	1455.00	1459.00	1467.00	1324.00	1146.00	984.00	854.00	643.00	614.00	559.00	517.00	489.00	477.00	470.00	462.00	450.00	461.00	465.00	463.00	450.00	381.00	380.00	371.00	362.00	375.00	386.00	380.00	374.00	373.00	368.00	381.00	396.00	347.00	323.00	357.00	355.00	366.00	397.00
3778.00	3774.00	3732.00	3630.00	3521.00	3378.00	3352.00	3290.00	3197.00	3212.00	2983.00	2978.00	2927.00	2913.00	2896.00	2894.00	2891.00	2881.00	2883.00	2867.00	2835.00	2824.00	2822.00	2830.00	2831.00	2828.00	2834.00	2859.00	2937.00	2939.00	2947.00	2949.00	2956.00	2988.00	3018.00	3051.00	3079.00	3157.00	3204.00	3266.00	3307.00	3474.00	3574.00	3669.00	3749.00	3824.00	3933.00	3907.00	3877.00	3858.00	3941.00	4015.00	3989.00	3982.00	3991.00	3998.00	4019.00	4014.00	4003.00	4016.00	4013.00	4006.00	4003.00	4042.00	4022.00	3979.00	3992.00	4080.00	3947.00	3933.00	3902.00	3877.00	3884.00	3940.00	4053.00	4098.00	4009.00	4066.00	3988.00	3979.00	4041.00	3866.00	4003.00	3965.00	3985.00	3894.00	4033.00	3954.00	3866.00	3797.00	3715.00	3572.00	3513.00	3393.00	3483.00	3598.00	3515.00	3480.00	3667.00	3334.00	3539.00	3495.00	3462.00	3341.00	2980.00	2970.00	3173.00	3342.00	3457.00	3372.00	3439.00	3416.00	3054.00	2861.00	2922.00	3038.00	3067.00	3293.00	3074.00	2868.00	2834.00	2736.00	2253.00	2167.00	2034.00	2133.00	1815.00	1642.00	1425.00	1338.00	1423.00	1695.00	1681.00	1423.00	1353.00	1736.00	1631.00	1535.00	1561.00	1674.00	2070.00	2051.00	2108.00	2187.00	1875.00	1715.00	1798.00	1974.00	1963.00	1754.00	1642.00	1491.00	1355.00	1274.00	1166.00	1279.00	1389.00	1413.00	1139.00	1127.00	1069.00	984.00	913.00	1031.00	804.00	751.00	737.00	701.00	667.00	646.00	624.00	644.00	663.00	646.00	639.00	730.00	731.00	770.00	817.00	849.00	803.00	825.00	804.00	773.00	773.00	826.00	797.00	722.00	607.00	846.00	871.00	878.00	908.00	934.00	929.00	909.00	938.00	956.00	1020.00	1019.00	1035.00	1054.00	1062.00	1070.00	1038.00	984.00	924.00	876.00	914.00	944.00	905.00	887.00	911.00	954.00	992.00	1052.00	1257.00	1423.00	1444.00	1293.00	1380.00	1294.00	1134.00	979.00	826.00	641.00	591.00	552.00	520.00	449.00	461.00	451.00	411.00	405.00	422.00	461.00	437.00	389.00	385.00	376.00	364.00	363.00	365.00	378.00	371.00	369.00	387.00	361.00	341.00	351.00	335.00	334.00	403.00	404.00	386.00	375.00
3802.00	3819.00	3757.00	3631.00	3591.00	3445.00	3445.00	3318.00	3219.00	3241.00	3014.00	2999.00	2949.00	2911.00	2900.00	2887.00	2882.00	2888.00	2900.00	2864.00	2838.00	2820.00	2817.00	2825.00	2821.00	2821.00	2840.00	2844.00	2923.00	2936.00	2936.00	2939.00	2938.00	2972.00	3013.00	3049.00	3083.00	3155.00	3182.00	3263.00	3328.00	3514.00	3575.00	3686.00	3782.00	3830.00	3962.00	4002.00	3980.00	3897.00	3930.00	3946.00	3974.00	3968.00	3966.00	3965.00	3979.00	3993.00	3996.00	3978.00	3977.00	3982.00	3986.00	4044.00	4092.00	4150.00	4126.00	4105.00	3878.00	3853.00	3904.00	3891.00	3897.00	3922.00	3974.00	4002.00	4028.00	4138.00	4047.00	4008.00	4185.00	3955.00	4026.00	4058.00	4064.00	3993.00	4164.00	4026.00	3911.00	3824.00	3852.00	3825.00	3751.00	3517.00	3537.00	3719.00	3632.00	3552.00	3713.00	3482.00	3621.00	3535.00	3428.00	3317.00	2984.00	3103.00	3164.00	3242.00	3531.00	3503.00	3504.00	3375.00	3218.00	3032.00	3194.00	3262.00	3278.00	3246.00	2914.00	2650.00	2555.00	2546.00	2129.00	1932.00	1817.00	1901.00	1855.00	1652.00	1461.00	1389.00	1423.00	1693.00	1687.00	1386.00	1312.00	1720.00	1800.00	1701.00	1676.00	1687.00	1966.00	2056.00	2252.00	2311.00	1738.00	1635.00	1770.00	1795.00	1752.00	1695.00	1713.00	1585.00	1447.00	1310.00	1107.00	1177.00	1282.00	1301.00	1249.00	1294.00	1199.00	1034.00	898.00	1048.00	869.00	735.00	691.00	664.00	629.00	615.00	605.00	647.00	655.00	634.00	632.00	702.00	750.00	789.00	809.00	778.00	801.00	850.00	816.00	763.00	741.00	801.00	755.00	607.00	708.00	883.00	860.00	882.00	899.00	912.00	930.00	913.00	935.00	957.00	1011.00	1010.00	1026.00	1034.00	1040.00	1030.00	988.00	947.00	910.00	878.00	914.00	912.00	880.00	902.00	929.00	959.00	1001.00	1089.00	1324.00	1409.00	1317.00	1296.00	1244.00	1170.00	1019.00	933.00	765.00	632.00	584.00	479.00	446.00	479.00	429.00	414.00	434.00	422.00	425.00	454.00	420.00	383.00	378.00	377.00	365.00	363.00	353.00	358.00	363.00	358.00	362.00	353.00	343.00	336.00	343.00	339.00	416.00	406.00	362.00	353.00
3878.00	3892.00	3814.00	3774.00	3694.00	3560.00	3516.00	3387.00	3264.00	3186.00	3151.00	3016.00	2995.00	2974.00	2886.00	2880.00	2878.00	2886.00	2943.00	2870.00	2848.00	2806.00	2805.00	2816.00	2804.00	2817.00	2818.00	2831.00	2908.00	2911.00	2915.00	2911.00	2925.00	2960.00	2997.00	3025.00	3054.00	3124.00	3173.00	3285.00	3353.00	3510.00	3603.00	3708.00	3828.00	3934.00	4002.00	3998.00	4005.00	3824.00	3931.00	3857.00	3890.00	3947.00	3964.00	3959.00	3946.00	3956.00	3986.00	3967.00	3929.00	3926.00	3925.00	4010.00	3986.00	4019.00	3901.00	3929.00	3966.00	3828.00	3833.00	3891.00	3905.00	3900.00	3797.00	3963.00	3993.00	4124.00	4027.00	4077.00	4201.00	3968.00	3889.00	3848.00	3816.00	3825.00	4047.00	3971.00	3937.00	3984.00	4000.00	3859.00	3777.00	3833.00	3717.00	3849.00	3870.00	3769.00	3812.00	3828.00	3742.00	3587.00	3438.00	3253.00	3120.00	3240.00	3351.00	3538.00	3444.00	3517.00	3538.00	3472.00	3316.00	3146.00	3315.00	3289.00	3339.00	2890.00	2687.00	2555.00	2446.00	2325.00	2142.00	2131.00	1965.00	1659.00	1597.00	1525.00	1439.00	1335.00	1429.00	1764.00	1664.00	1323.00	1335.00	1643.00	1757.00	1962.00	2128.00	2131.00	1996.00	2085.00	2250.00	2124.00	1589.00	1514.00	1510.00	1458.00	1405.00	1629.00	1670.00	1552.00	1418.00	1232.00	1064.00	988.00	1015.00	1062.00	1136.00	1213.00	1125.00	951.00	930.00	1000.00	966.00	776.00	645.00	602.00	571.00	572.00	573.00	601.00	601.00	621.00	629.00	628.00	703.00	717.00	734.00	739.00	819.00	833.00	830.00	790.00	730.00	783.00	659.00	685.00	784.00	879.00	856.00	852.00	900.00	927.00	950.00	939.00	958.00	955.00	1008.00	997.00	1006.00	1018.00	1013.00	952.00	921.00	888.00	876.00	880.00	889.00	869.00	876.00	919.00	925.00	948.00	1054.00	1126.00	1312.00	1376.00	1247.00	1056.00	1021.00	1042.00	914.00	743.00	662.00	583.00	524.00	490.00	464.00	442.00	461.00	486.00	450.00	405.00	384.00	388.00	381.00	370.00	370.00	364.00	363.00	338.00	343.00	342.00	342.00	329.00	330.00	329.00	362.00	361.00	359.00	364.00	320.00	318.00	316.00	318.00
3864.00	3832.00	3778.00	3689.00	3681.00	3468.00	3451.00	3216.00	3124.00	3077.00	3013.00	2987.00	2980.00	2994.00	2885.00	2873.00	2872.00	2884.00	2884.00	2868.00	2834.00	2799.00	2799.00	2804.00	2797.00	2802.00	2804.00	2813.00	2898.00	2892.00	2899.00	2891.00	2922.00	2956.00	2995.00	3027.00	3056.00	3137.00	3170.00	3308.00	3382.00	3520.00	3591.00	3661.00	3736.00	3800.00	3901.00	3936.00	3953.00	3763.00	3923.00	3836.00	3805.00	3903.00	3969.00	3954.00	3934.00	3935.00	3945.00	4013.00	3968.00	3928.00	3865.00	3790.00	3913.00	3868.00	3755.00	3841.00	3746.00	3620.00	3673.00	3715.00	3773.00	3772.00	3689.00	3649.00	3643.00	3779.00	3845.00	3955.00	3944.00	3869.00	3829.00	3726.00	3656.00	3758.00	3826.00	3832.00	3735.00	3684.00	3969.00	3950.00	3889.00	3924.00	3808.00	3810.00	3803.00	3796.00	3789.00	3813.00	3685.00	3642.00	3677.00	3499.00	3205.00	3412.00	3499.00	3453.00	3623.00	3640.00	3586.00	3552.00	3451.00	3226.00	3318.00	3358.00	3279.00	3197.00	3022.00	2946.00	2882.00	2662.00	2490.00	2269.00	2101.00	1865.00	1430.00	1357.00	1325.00	1416.00	1548.00	1761.00	1581.00	1490.00	1400.00	1441.00	1742.00	1783.00	1830.00	2087.00	2187.00	2076.00	2046.00	2130.00	1850.00	1638.00	1478.00	1392.00	1357.00	1597.00	1504.00	1425.00	1432.00	1455.00	1354.00	1224.00	1068.00	943.00	895.00	938.00	926.00	805.00	795.00	802.00	845.00	760.00	720.00	614.00	565.00	557.00	560.00	579.00	593.00	600.00	605.00	605.00	666.00	662.00	684.00	722.00	798.00	819.00	813.00	833.00	805.00	689.00	626.00	750.00	807.00	864.00	824.00	853.00	861.00	900.00	926.00	937.00	929.00	908.00	991.00	955.00	1001.00	1046.00	931.00	890.00	874.00	864.00	867.00	865.00	878.00	892.00	879.00	900.00	934.00	987.00	1060.00	1138.00	1301.00	1386.00	1241.00	1069.00	851.00	721.00	689.00	647.00	610.00	522.00	497.00	463.00	445.00	425.00	407.00	402.00	410.00	392.00	382.00	354.00	352.00	375.00	369.00	349.00	340.00	357.00	363.00	366.00	366.00	360.00	361.00	376.00	335.00	336.00	326.00	318.00	311.00	309.00	313.00	316.00
3864.00	3735.00	3718.00	3600.00	3619.00	3446.00	3300.00	3226.00	3124.00	3052.00	2994.00	2975.00	2970.00	2989.00	2902.00	2872.00	2870.00	2882.00	2881.00	2869.00	2825.00	2796.00	2793.00	2801.00	2790.00	2794.00	2797.00	2813.00	2888.00	2884.00	2883.00	2875.00	2917.00	2946.00	2976.00	3011.00	3045.00	3134.00	3187.00	3306.00	3372.00	3548.00	3612.00	3652.00	3707.00	3784.00	3888.00	3888.00	3833.00	3726.00	3888.00	3808.00	3779.00	3863.00	3982.00	3961.00	3936.00	3925.00	3928.00	4020.00	4007.00	3972.00	3896.00	3691.00	3794.00	3875.00	3713.00	3718.00	3616.00	3518.00	3523.00	3624.00	3535.00	3617.00	3600.00	3486.00	3544.00	3593.00	3612.00	3632.00	3670.00	3736.00	3631.00	3571.00	3642.00	3696.00	3782.00	3788.00	3595.00	3719.00	3914.00	3794.00	3822.00	3904.00	3748.00	3779.00	3727.00	3789.00	3691.00	3807.00	3744.00	3683.00	3574.00	3371.00	3307.00	3430.00	3482.00	3518.00	3601.00	3528.00	3423.00	3462.00	3431.00	3336.00	3367.00	3207.00	2976.00	3055.00	2807.00	2737.00	2744.00	2744.00	2384.00	2080.00	1917.00	1783.00	1472.00	1431.00	1313.00	1340.00	1472.00	1753.00	1539.00	1508.00	1477.00	1310.00	1535.00	1536.00	1783.00	2019.00	2097.00	1924.00	1883.00	2013.00	1758.00	1663.00	1554.00	1432.00	1314.00	1419.00	1398.00	1348.00	1335.00	1386.00	1289.00	1235.00	1144.00	1020.00	833.00	833.00	867.00	875.00	741.00	682.00	710.00	684.00	662.00	628.00	567.00	550.00	550.00	576.00	593.00	595.00	596.00	611.00	663.00	658.00	676.00	706.00	769.00	761.00	745.00	773.00	775.00	618.00	681.00	763.00	823.00	853.00	813.00	850.00	858.00	887.00	905.00	928.00	967.00	910.00	960.00	949.00	992.00	999.00	925.00	890.00	858.00	865.00	864.00	862.00	871.00	880.00	884.00	904.00	942.00	972.00	1031.00	1109.00	1263.00	1331.00	1297.00	1142.00	819.00	704.00	638.00	606.00	590.00	503.00	494.00	462.00	450.00	423.00	406.00	392.00	403.00	397.00	377.00	348.00	377.00	389.00	386.00	376.00	363.00	368.00	369.00	370.00	376.00	363.00	367.00	362.00	316.00	318.00	317.00	313.00	306.00	309.00	313.00	307.00
3831.00	3676.00	3626.00	3522.00	3523.00	3449.00	3313.00	3152.00	3120.00	3041.00	2979.00	2968.00	2964.00	2978.00	2921.00	2870.00	2868.00	2884.00	2891.00	2836.00	2817.00	2792.00	2790.00	2792.00	2786.00	2789.00	2799.00	2820.00	2877.00	2866.00	2861.00	2863.00	2909.00	2940.00	2983.00	3019.00	3044.00	3145.00	3205.00	3317.00	3389.00	3548.00	3626.00	3686.00	3729.00	3776.00	3832.00	3799.00	3751.00	3711.00	3876.00	3808.00	3746.00	3811.00	3940.00	3967.00	3937.00	3912.00	3881.00	3971.00	3997.00	3995.00	3954.00	3717.00	3640.00	3761.00	3716.00	3604.00	3466.00	3439.00	3408.00	3403.00	3362.00	3372.00	3382.00	3427.00	3562.00	3560.00	3510.00	3483.00	3532.00	3582.00	3484.00	3640.00	3747.00	3622.00	3743.00	3684.00	3551.00	3744.00	3733.00	3801.00	3912.00	3817.00	3712.00	3661.00	3741.00	3809.00	3619.00	3801.00	3756.00	3665.00	3432.00	3355.00	3466.00	3494.00	3622.00	3674.00	3398.00	3327.00	3307.00	3372.00	3434.00	3270.00	3330.00	3104.00	2708.00	2864.00	2695.00	2532.00	2498.00	2564.00	2393.00	2169.00	1997.00	1840.00	1488.00	1413.00	1293.00	1320.00	1509.00	1635.00	1426.00	1421.00	1540.00	1208.00	1293.00	1473.00	1744.00	2047.00	2004.00	1831.00	1811.00	2022.00	1617.00	1523.00	1495.00	1371.00	1328.00	1294.00	1243.00	1239.00	1220.00	1309.00	1153.00	1136.00	1121.00	1013.00	841.00	783.00	846.00	936.00	796.00	674.00	660.00	644.00	620.00	576.00	562.00	554.00	558.00	578.00	590.00	595.00	589.00	606.00	663.00	672.00	661.00	675.00	715.00	718.00	726.00	741.00	748.00	613.00	724.00	803.00	832.00	851.00	807.00	821.00	868.00	913.00	911.00	916.00	965.00	954.00	919.00	961.00	950.00	933.00	922.00	883.00	854.00	864.00	863.00	869.00	882.00	894.00	920.00	947.00	917.00	952.00	997.00	1068.00	1199.00	1221.00	1153.00	1102.00	832.00	669.00	628.00	600.00	558.00	513.00	472.00	442.00	436.00	423.00	412.00	390.00	397.00	386.00	373.00	355.00	370.00	388.00	375.00	370.00	374.00	377.00	382.00	364.00	360.00	351.00	346.00	315.00	316.00	316.00	310.00	310.00	312.00	317.00	314.00	310.00
3746.00	3659.00	3519.00	3454.00	3423.00	3434.00	3302.00	3149.00	3043.00	3008.00	2967.00	2957.00	2953.00	2963.00	2933.00	2871.00	2864.00	2888.00	2901.00	2818.00	2797.00	2786.00	2784.00	2787.00	2782.00	2792.00	2797.00	2821.00	2856.00	2859.00	2869.00	2883.00	2912.00	2936.00	2969.00	3001.00	3034.00	3147.00	3212.00	3318.00	3381.00	3562.00	3651.00	3639.00	3621.00	3638.00	3732.00	3721.00	3710.00	3677.00	3757.00	3728.00	3744.00	3750.00	3823.00	3844.00	3868.00	3876.00	3835.00	3930.00	3956.00	3985.00	3983.00	3819.00	3628.00	3609.00	3586.00	3524.00	3460.00	3495.00	3456.00	3410.00	3479.00	3405.00	3337.00	3340.00	3508.00	3539.00	3455.00	3425.00	3435.00	3431.00	3541.00	3736.00	3805.00	3622.00	3621.00	3493.00	3535.00	3668.00	3568.00	3826.00	3748.00	3749.00	3660.00	3734.00	3813.00	3698.00	3547.00	3720.00	3778.00	3678.00	3525.00	3542.00	3565.00	3525.00	3580.00	3648.00	3388.00	3188.00	3175.00	3238.00	3331.00	3145.00	3115.00	3028.00	2714.00	2647.00	2611.00	2385.00	2277.00	2409.00	2337.00	2193.00	1978.00	1742.00	1438.00	1317.00	1227.00	1383.00	1605.00	1509.00	1330.00	1367.00	1346.00	1318.00	1491.00	1637.00	1905.00	2005.00	1899.00	1750.00	1758.00	1963.00	1803.00	1613.00	1512.00	1436.00	1341.00	1175.00	1136.00	1121.00	1101.00	1214.00	968.00	1021.00	993.00	906.00	775.00	757.00	830.00	844.00	747.00	681.00	622.00	611.00	602.00	593.00	566.00	547.00	558.00	572.00	588.00	587.00	583.00	589.00	649.00	678.00	669.00	653.00	676.00	699.00	710.00	735.00	720.00	642.00	761.00	831.00	841.00	858.00	830.00	812.00	870.00	904.00	906.00	918.00	944.00	946.00	903.00	961.00	964.00	935.00	883.00	883.00	854.00	854.00	846.00	863.00	899.00	938.00	937.00	947.00	939.00	912.00	951.00	1031.00	1143.00	1143.00	949.00	950.00	739.00	632.00	587.00	574.00	519.00	502.00	483.00	435.00	427.00	412.00	411.00	393.00	380.00	366.00	356.00	354.00	368.00	383.00	374.00	377.00	373.00	375.00	375.00	355.00	333.00	327.00	322.00	321.00	313.00	310.00	317.00	318.00	320.00	321.00	319.00	319.00
3705.00	3536.00	3439.00	3365.00	3300.00	3358.00	3256.00	3106.00	3024.00	2985.00	2956.00	2945.00	2940.00	2945.00	2947.00	2904.00	2869.00	2889.00	2870.00	2845.00	2814.00	2780.00	2773.00	2779.00	2783.00	2787.00	2787.00	2798.00	2878.00	2890.00	2909.00	2911.00	2919.00	2929.00	2964.00	3011.00	3058.00	3158.00	3193.00	3308.00	3409.00	3578.00	3444.00	3507.00	3657.00	3660.00	3585.00	3618.00	3671.00	3736.00	3795.00	3775.00	3802.00	3838.00	3859.00	3897.00	3858.00	3874.00	3788.00	3831.00	3828.00	3817.00	3809.00	3768.00	3779.00	3787.00	3682.00	3545.00	3676.00	3705.00	3648.00	3517.00	3596.00	3725.00	3625.00	3399.00	3314.00	3345.00	3244.00	3267.00	3202.00	3153.00	3268.00	3456.00	3555.00	3626.00	3447.00	3237.00	3316.00	3461.00	3592.00	3562.00	3627.00	3648.00	3452.00	3594.00	3459.00	3479.00	3663.00	3730.00	3676.00	3730.00	3822.00	3788.00	3737.00	3736.00	3721.00	3724.00	3577.00	3438.00	3302.00	3033.00	2966.00	2903.00	2631.00	2651.00	2481.00	2180.00	2206.00	2041.00	2001.00	1981.00	1917.00	1930.00	1987.00	1793.00	1554.00	1277.00	1202.00	1394.00	1647.00	1254.00	1239.00	1169.00	1306.00	1508.00	1600.00	1648.00	1763.00	1704.00	1596.00	1681.00	1731.00	1932.00	2018.00	1855.00	1851.00	1798.00	1673.00	1238.00	1336.00	1395.00	1321.00	1077.00	1164.00	1064.00	1004.00	873.00	717.00	717.00	732.00	758.00	793.00	762.00	681.00	653.00	632.00	583.00	552.00	539.00	545.00	551.00	557.00	562.00	574.00	611.00	677.00	694.00	689.00	691.00	649.00	649.00	659.00	673.00	696.00	720.00	801.00	832.00	853.00	865.00	840.00	814.00	841.00	869.00	889.00	924.00	950.00	952.00	903.00	879.00	903.00	925.00	891.00	861.00	850.00	848.00	880.00	914.00	911.00	910.00	910.00	907.00	876.00	862.00	895.00	939.00	984.00	1032.00	958.00	792.00	594.00	571.00	528.00	515.00	501.00	463.00	448.00	435.00	432.00	397.00	387.00	374.00	366.00	365.00	387.00	382.00	390.00	388.00	399.00	377.00	393.00	391.00	365.00	323.00	323.00	322.00	320.00	323.00	326.00	325.00	330.00	329.00	320.00	324.00	329.00	334.00
3812.00	3698.00	3598.00	3446.00	3412.00	3248.00	3286.00	3167.00	3045.00	2980.00	2950.00	2940.00	2944.00	2935.00	2942.00	2918.00	2873.00	2887.00	2867.00	2841.00	2836.00	2793.00	2772.00	2774.00	2778.00	2790.00	2799.00	2811.00	2876.00	2847.00	2869.00	2914.00	2924.00	2931.00	2960.00	3008.00	3069.00	3147.00	3191.00	3341.00	3434.00	3393.00	3407.00	3607.00	3741.00	3804.00	3776.00	3747.00	3720.00	3716.00	3909.00	3834.00	3801.00	3851.00	3891.00	3906.00	3945.00	3908.00	3827.00	3837.00	3830.00	3841.00	3841.00	3847.00	3874.00	3901.00	3690.00	3582.00	3759.00	3705.00	3614.00	3574.00	3740.00	3711.00	3754.00	3571.00	3453.00	3255.00	3272.00	3284.00	3196.00	3223.00	3153.00	3219.00	3416.00	3446.00	3337.00	3193.00	3375.00	3526.00	3489.00	3450.00	3416.00	3541.00	3377.00	3473.00	3377.00	3562.00	3702.00	3595.00	3650.00	3765.00	3711.00	3674.00	3696.00	3622.00	3647.00	3712.00	3488.00	3296.00	3170.00	3045.00	2862.00	2709.00	2567.00	2389.00	2278.00	2091.00	2015.00	1968.00	1891.00	1837.00	1656.00	1694.00	1808.00	1732.00	1563.00	1302.00	1211.00	1358.00	1538.00	1277.00	1150.00	1226.00	1302.00	1445.00	1497.00	1485.00	1554.00	1538.00	1710.00	1904.00	1773.00	1945.00	2090.00	1936.00	1715.00	1612.00	1538.00	1300.00	1387.00	1447.00	1348.00	1201.00	1160.00	1000.00	898.00	817.00	695.00	704.00	713.00	715.00	735.00	770.00	749.00	719.00	686.00	630.00	568.00	534.00	534.00	543.00	539.00	554.00	585.00	625.00	650.00	643.00	645.00	646.00	650.00	662.00	650.00	649.00	650.00	716.00	802.00	834.00	856.00	855.00	851.00	804.00	837.00	900.00	909.00	921.00	952.00	946.00	924.00	879.00	864.00	882.00	855.00	855.00	857.00	844.00	876.00	896.00	892.00	895.00	908.00	905.00	896.00	868.00	874.00	904.00	902.00	943.00	849.00	709.00	536.00	521.00	497.00	493.00	482.00	441.00	430.00	425.00	412.00	381.00	377.00	369.00	365.00	375.00	392.00	392.00	388.00	374.00	378.00	376.00	392.00	377.00	365.00	325.00	323.00	324.00	322.00	325.00	326.00	330.00	335.00	335.00	342.00	333.00	333.00	335.00
3802.00	3713.00	3613.00	3492.00	3461.00	3213.00	3185.00	3172.00	3070.00	2975.00	2943.00	2937.00	2940.00	2940.00	2933.00	2920.00	2878.00	2892.00	2892.00	2857.00	2823.00	2796.00	2770.00	2768.00	2776.00	2796.00	2805.00	2781.00	2917.00	2892.00	2854.00	2866.00	2903.00	2935.00	2963.00	3010.00	3060.00	3140.00	3198.00	3294.00	3263.00	3415.00	3561.00	3672.00	3738.00	3813.00	3935.00	3925.00	3845.00	3758.00	3975.00	3892.00	3852.00	3926.00	4013.00	3990.00	4017.00	3994.00	3946.00	3886.00	3900.00	3913.00	3889.00	3958.00	3991.00	3914.00	3693.00	3679.00	3792.00	3724.00	3618.00	3667.00	3840.00	3786.00	3834.00	3668.00	3527.00	3375.00	3401.00	3344.00	3327.00	3455.00	3359.00	3166.00	3139.00	3145.00	3089.00	3106.00	3332.00	3435.00	3425.00	3396.00	3257.00	3348.00	3256.00	3390.00	3267.00	3420.00	3518.00	3606.00	3681.00	3745.00	3543.00	3604.00	3515.00	3581.00	3639.00	3682.00	3646.00	3444.00	3208.00	3237.00	3103.00	2563.00	2479.00	2458.00	2410.00	2325.00	2189.00	2162.00	2133.00	2086.00	1807.00	1565.00	1599.00	1627.00	1701.00	1388.00	1169.00	1302.00	1376.00	1158.00	1355.00	1260.00	1401.00	1390.00	1413.00	1462.00	1483.00	1581.00	1959.00	2053.00	1837.00	2016.00	2183.00	1998.00	1772.00	1696.00	1556.00	1403.00	1473.00	1533.00	1456.00	1392.00	1195.00	1037.00	895.00	779.00	685.00	675.00	684.00	703.00	703.00	721.00	766.00	748.00	692.00	624.00	615.00	532.00	527.00	538.00	536.00	559.00	571.00	625.00	626.00	632.00	632.00	633.00	634.00	643.00	669.00	669.00	659.00	722.00	802.00	836.00	856.00	847.00	853.00	808.00	865.00	913.00	916.00	920.00	948.00	945.00	930.00	906.00	865.00	864.00	888.00	874.00	839.00	850.00	884.00	876.00	867.00	861.00	898.00	886.00	882.00	871.00	857.00	859.00	828.00	860.00	755.00	617.00	499.00	482.00	476.00	474.00	460.00	438.00	426.00	423.00	412.00	371.00	372.00	381.00	396.00	408.00	404.00	386.00	377.00	370.00	373.00	371.00	363.00	363.00	350.00	327.00	323.00	325.00	322.00	323.00	327.00	334.00	338.00	351.00	347.00	340.00	339.00	342.00
3725.00	3714.00	3589.00	3486.00	3352.00	3257.00	3134.00	3155.00	3067.00	2974.00	2941.00	2934.00	2927.00	2926.00	2934.00	2920.00	2878.00	2896.00	2883.00	2867.00	2851.00	2829.00	2790.00	2758.00	2770.00	2776.00	2778.00	2784.00	2898.00	2904.00	2885.00	2901.00	2885.00	2915.00	2940.00	2973.00	3014.00	3074.00	3114.00	3211.00	3352.00	3524.00	3602.00	3698.00	3785.00	3797.00	3918.00	3987.00	3929.00	3811.00	4003.00	3906.00	3923.00	3998.00	3998.00	3999.00	3970.00	3918.00	3912.00	3949.00	4003.00	4023.00	3936.00	4056.00	3985.00	3833.00	3756.00	3769.00	3816.00	3757.00	3614.00	3741.00	3868.00	3868.00	3911.00	3760.00	3576.00	3416.00	3398.00	3389.00	3402.00	3521.00	3488.00	3451.00	3219.00	3141.00	2979.00	2994.00	3061.00	3159.00	3223.00	3275.00	3154.00	3068.00	3042.00	3190.00	3232.00	3399.00	3516.00	3751.00	3720.00	3619.00	3380.00	3404.00	3669.00	3670.00	3688.00	3758.00	3533.00	3429.00	3369.00	3338.00	3277.00	2701.00	2744.00	2740.00	2705.00	2584.00	2415.00	2374.00	2298.00	2287.00	1871.00	1577.00	1487.00	1561.00	1763.00	1499.00	1261.00	1161.00	1289.00	1262.00	1433.00	1520.00	1637.00	1550.00	1545.00	1569.00	1589.00	1773.00	2139.00	2148.00	1916.00	2073.00	2202.00	2026.00	1974.00	1882.00	1764.00	1514.00	1491.00	1448.00	1464.00	1321.00	1167.00	1004.00	854.00	722.00	673.00	659.00	654.00	687.00	682.00	689.00	743.00	750.00	694.00	590.00	580.00	531.00	523.00	530.00	528.00	546.00	559.00	633.00	631.00	631.00	625.00	628.00	633.00	618.00	655.00	699.00	662.00	740.00	807.00	837.00	853.00	831.00	833.00	810.00	875.00	898.00	917.00	928.00	950.00	946.00	944.00	960.00	932.00	952.00	898.00	874.00	849.00	853.00	870.00	844.00	844.00	831.00	880.00	871.00	879.00	873.00	873.00	861.00	770.00	748.00	636.00	552.00	471.00	455.00	464.00	463.00	440.00	427.00	429.00	402.00	394.00	376.00	396.00	403.00	439.00	467.00	414.00	386.00	371.00	370.00	370.00	350.00	332.00	330.00	329.00	325.00	324.00	325.00	320.00	322.00	333.00	346.00	348.00	339.00	338.00	335.00	339.00	332.00
3605.00	3615.00	3594.00	3562.00	3451.00	3157.00	3106.00	3081.00	3038.00	2971.00	2938.00	2933.00	2930.00	2931.00	2952.00	2947.00	2887.00	2868.00	2910.00	2868.00	2841.00	2814.00	2789.00	2751.00	2748.00	2762.00	2792.00	2812.00	2884.00	2875.00	2873.00	2884.00	2892.00	2894.00	2935.00	2978.00	3024.00	3203.00	3281.00	3443.00	3511.00	3654.00	3653.00	3689.00	3744.00	3863.00	3918.00	3889.00	3915.00	3926.00	4059.00	4037.00	4064.00	4054.00	3954.00	3929.00	3946.00	3956.00	4035.00	4065.00	4060.00	4067.00	4081.00	3870.00	3849.00	3845.00	3844.00	3958.00	3862.00	3790.00	3648.00	3759.00	3900.00	3910.00	3791.00	3718.00	3687.00	3589.00	3533.00	3518.00	3506.00	3580.00	3580.00	3641.00	3644.00	3439.00	3210.00	3391.00	3221.00	2994.00	2848.00	2810.00	2764.00	2725.00	2723.00	2990.00	3024.00	3125.00	3263.00	3606.00	3592.00	3361.00	3420.00	3601.00	3754.00	3689.00	3669.00	3759.00	3608.00	3519.00	3473.00	3462.00	3265.00	3132.00	3114.00	2877.00	2651.00	2405.00	2313.00	2157.00	2185.00	2205.00	1694.00	1530.00	1436.00	1586.00	1385.00	1265.00	1257.00	1138.00	1275.00	1455.00	1656.00	1866.00	1610.00	1613.00	1869.00	1907.00	1876.00	2059.00	2382.00	2412.00	2202.00	2193.00	1915.00	1879.00	1940.00	1900.00	1737.00	1469.00	1438.00	1382.00	1268.00	1083.00	942.00	859.00	762.00	723.00	666.00	647.00	635.00	619.00	647.00	647.00	698.00	709.00	624.00	554.00	538.00	532.00	522.00	516.00	519.00	522.00	536.00	616.00	627.00	621.00	626.00	592.00	528.00	533.00	571.00	578.00	563.00	795.00	796.00	822.00	845.00	863.00	840.00	810.00	870.00	836.00	853.00	880.00	957.00	958.00	968.00	989.00	1003.00	966.00	884.00	867.00	859.00	864.00	838.00	883.00	876.00	836.00	777.00	860.00	850.00	834.00	833.00	840.00	731.00	664.00	585.00	509.00	414.00	424.00	437.00	433.00	425.00	397.00	384.00	384.00	412.00	434.00	462.00	424.00	396.00	399.00	365.00	368.00	354.00	346.00	328.00	331.00	328.00	327.00	328.00	317.00	320.00	324.00	325.00	345.00	351.00	349.00	345.00	339.00	354.00	349.00	346.00	352.00
3464.00	3441.00	3400.00	3491.00	3434.00	3196.00	3091.00	3018.00	3055.00	2974.00	2940.00	2935.00	2925.00	2928.00	2937.00	2942.00	2942.00	2904.00	2926.00	2904.00	2881.00	2856.00	2827.00	2741.00	2739.00	2768.00	2787.00	2812.00	2822.00	2827.00	2819.00	2826.00	2899.00	2950.00	3003.00	3133.00	3275.00	3209.00	3238.00	3416.00	3510.00	3670.00	3748.00	3838.00	3871.00	3783.00	3867.00	3916.00	3943.00	4088.00	4041.00	4025.00	4026.00	4019.00	4073.00	4096.00	4066.00	4047.00	4042.00	4053.00	4055.00	4052.00	4036.00	3909.00	3971.00	3981.00	3969.00	4016.00	3827.00	3798.00	3679.00	3715.00	3821.00	3831.00	3854.00	3896.00	3916.00	3753.00	3654.00	3625.00	3647.00	3758.00	3658.00	3497.00	3390.00	3253.00	3523.00	3639.00	3566.00	3538.00	3253.00	3238.00	3172.00	2969.00	2782.00	2663.00	2831.00	2981.00	3135.00	3448.00	3400.00	3135.00	3389.00	3477.00	3395.00	3381.00	3526.00	3652.00	3457.00	3351.00	3309.00	3281.00	3430.00	3410.00	3202.00	2973.00	2794.00	2520.00	2293.00	2116.00	1888.00	1789.00	1558.00	1499.00	1422.00	1355.00	1508.00	1456.00	1383.00	1214.00	1109.00	1467.00	1650.00	1638.00	1437.00	1617.00	1903.00	1966.00	1897.00	1947.00	2038.00	2046.00	2274.00	2243.00	1746.00	1609.00	1643.00	1742.00	1560.00	1468.00	1568.00	1464.00	1309.00	1103.00	898.00	816.00	790.00	751.00	664.00	650.00	627.00	603.00	621.00	636.00	617.00	672.00	660.00	533.00	534.00	523.00	525.00	516.00	511.00	553.00	642.00	647.00	628.00	624.00	594.00	516.00	573.00	606.00	638.00	673.00	707.00	777.00	782.00	815.00	844.00	881.00	881.00	815.00	733.00	850.00	883.00	886.00	923.00	948.00	958.00	969.00	923.00	884.00	848.00	842.00	845.00	863.00	824.00	897.00	901.00	861.00	808.00	783.00	794.00	785.00	795.00	833.00	893.00	729.00	644.00	548.00	430.00	426.00	425.00	426.00	419.00	440.00	447.00	447.00	460.00	439.00	442.00	411.00	436.00	393.00	402.00	355.00	328.00	331.00	332.00	330.00	324.00	320.00	324.00	334.00	331.00	335.00	347.00	361.00	376.00	369.00	362.00	366.00	382.00	374.00	375.00	380.00
3351.00	3415.00	3308.00	3414.00	3346.00	3167.00	3082.00	2995.00	2996.00	2954.00	2943.00	2932.00	2920.00	2917.00	2918.00	2923.00	2940.00	2919.00	2910.00	2897.00	2874.00	2849.00	2834.00	2736.00	2743.00	2763.00	2796.00	2812.00	2824.00	2857.00	2856.00	2853.00	2966.00	3114.00	3122.00	3105.00	3218.00	3281.00	3275.00	3404.00	3479.00	3670.00	3747.00	3817.00	3925.00	3939.00	3812.00	3840.00	3879.00	4072.00	4036.00	4015.00	4009.00	4011.00	4039.00	4099.00	4123.00	4107.00	4121.00	4054.00	4048.00	4046.00	4029.00	3937.00	4018.00	3992.00	3948.00	3908.00	3836.00	3790.00	3716.00	3739.00	3817.00	3821.00	3827.00	3829.00	3836.00	3834.00	3781.00	3757.00	3755.00	3781.00	3545.00	3440.00	3462.00	3457.00	3507.00	3644.00	3688.00	3687.00	3456.00	3463.00	3344.00	3154.00	3026.00	2612.00	2728.00	2860.00	3127.00	3382.00	3361.00	3127.00	3165.00	3192.00	3353.00	3421.00	3510.00	3610.00	3424.00	3349.00	3287.00	3210.00	3373.00	3221.00	3066.00	2917.00	2919.00	2740.00	2458.00	2152.00	1974.00	1972.00	1642.00	1534.00	1445.00	1395.00	1684.00	1693.00	1550.00	1326.00	1097.00	1229.00	1458.00	1471.00	1327.00	1596.00	1843.00	1856.00	1755.00	1754.00	1809.00	1924.00	2184.00	2119.00	1570.00	1447.00	1501.00	1535.00	1415.00	1391.00	1440.00	1410.00	1278.00	1006.00	839.00	774.00	791.00	740.00	685.00	660.00	636.00	604.00	614.00	641.00	608.00	658.00	685.00	536.00	525.00	521.00	526.00	514.00	517.00	593.00	647.00	665.00	647.00	637.00	610.00	531.00	590.00	633.00	679.00	735.00	766.00	783.00	774.00	799.00	838.00	868.00	877.00	845.00	723.00	863.00	888.00	897.00	956.00	942.00	947.00	934.00	883.00	856.00	816.00	814.00	815.00	815.00	800.00	874.00	854.00	808.00	785.00	745.00	775.00	778.00	798.00	836.00	888.00	706.00	597.00	511.00	447.00	438.00	446.00	428.00	434.00	432.00	395.00	463.00	442.00	422.00	418.00	403.00	402.00	399.00	402.00	340.00	328.00	335.00	334.00	332.00	323.00	325.00	337.00	334.00	338.00	343.00	355.00	370.00	398.00	401.00	388.00	387.00	383.00	381.00	400.00	390.00
3219.00	3305.00	3227.00	3350.00	3356.00	3140.00	3064.00	2987.00	2966.00	2950.00	2933.00	2918.00	2913.00	2902.00	2898.00	2887.00	2934.00	2918.00	2914.00	2904.00	2875.00	2833.00	2818.00	2728.00	2739.00	2763.00	2785.00	2793.00	2830.00	2845.00	2838.00	2845.00	3041.00	3292.00	3343.00	3279.00	3231.00	3304.00	3300.00	3437.00	3461.00	3611.00	3708.00	3792.00	3909.00	3977.00	3898.00	3911.00	3937.00	4122.00	4116.00	4070.00	4014.00	4006.00	4028.00	4045.00	4085.00	4087.00	4080.00	4051.00	4042.00	4037.00	4031.00	4004.00	4048.00	3965.00	3919.00	3882.00	3872.00	3797.00	3725.00	3737.00	3825.00	3805.00	3776.00	3777.00	3808.00	3918.00	3858.00	3815.00	3809.00	3688.00	3480.00	3554.00	3652.00	3677.00	3513.00	3582.00	3658.00	3678.00	3545.00	3399.00	3217.00	2977.00	2894.00	2569.00	2633.00	2903.00	3098.00	3148.00	3110.00	3085.00	3136.00	3253.00	3525.00	3578.00	3604.00	3598.00	3356.00	3366.00	3247.00	3182.00	3397.00	3005.00	2876.00	2743.00	2800.00	2687.00	2348.00	2265.00	2224.00	2096.00	1695.00	1609.00	1514.00	1539.00	1823.00	1585.00	1427.00	1280.00	1164.00	1064.00	1312.00	1365.00	1243.00	1604.00	1735.00	1751.00	1677.00	1558.00	1580.00	1731.00	1911.00	2068.00	1522.00	1376.00	1332.00	1340.00	1302.00	1248.00	1319.00	1375.00	1221.00	996.00	808.00	762.00	754.00	749.00	691.00	665.00	637.00	596.00	595.00	620.00	602.00	637.00	668.00	562.00	529.00	521.00	523.00	508.00	547.00	610.00	644.00	680.00	661.00	654.00	645.00	597.00	596.00	662.00	707.00	727.00	761.00	791.00	781.00	772.00	791.00	848.00	868.00	842.00	723.00	842.00	900.00	907.00	948.00	914.00	908.00	882.00	863.00	836.00	786.00	785.00	792.00	789.00	782.00	837.00	808.00	777.00	766.00	746.00	760.00	773.00	814.00	853.00	876.00	616.00	516.00	457.00	441.00	428.00	436.00	406.00	427.00	454.00	404.00	410.00	465.00	453.00	473.00	460.00	423.00	403.00	399.00	335.00	329.00	333.00	321.00	327.00	327.00	335.00	343.00	353.00	360.00	356.00	361.00	372.00	396.00	409.00	411.00	406.00	404.00	401.00	406.00	390.00
3360.00	3292.00	3138.00	3130.00	3143.00	3030.00	3011.00	2979.00	2962.00	2947.00	2921.00	2930.00	2936.00	2934.00	2934.00	2920.00	2909.00	2916.00	2868.00	2915.00	2885.00	2844.00	2806.00	2736.00	2715.00	2722.00	2743.00	2776.00	2813.00	2820.00	2834.00	2830.00	3156.00	3380.00	3386.00	3407.00	3316.00	3285.00	3326.00	3445.00	3521.00	3628.00	3692.00	3755.00	3822.00	3873.00	3959.00	4018.00	4022.00	4069.00	3999.00	4082.00	4086.00	4094.00	4023.00	4006.00	4029.00	4048.00	4048.00	4011.00	3998.00	3986.00	3961.00	4025.00	4072.00	4011.00	3941.00	3904.00	3835.00	3829.00	3756.00	3751.00	3827.00	3839.00	3800.00	3710.00	3758.00	3923.00	3841.00	3788.00	3744.00	3557.00	3585.00	3679.00	3705.00	3714.00	3685.00	3678.00	3592.00	3358.00	3038.00	2996.00	2792.00	2744.00	2857.00	2658.00	2514.00	2583.00	2635.00	2642.00	2794.00	2925.00	3088.00	3220.00	3457.00	3454.00	3435.00	3523.00	3258.00	3298.00	3133.00	3190.00	2945.00	2691.00	2476.00	2449.00	2625.00	2417.00	2360.00	2432.00	2403.00	2197.00	1742.00	1654.00	1610.00	1740.00	2040.00	1754.00	1602.00	1472.00	1326.00	1182.00	1174.00	1187.00	1149.00	1560.00	1479.00	1408.00	1336.00	1311.00	1732.00	1824.00	2045.00	2155.00	1679.00	1608.00	1561.00	1419.00	1255.00	1071.00	1169.00	1230.00	1171.00	1004.00	759.00	742.00	712.00	707.00	660.00	647.00	642.00	615.00	550.00	554.00	566.00	566.00	591.00	638.00	568.00	527.00	518.00	505.00	552.00	612.00	647.00	679.00	694.00	667.00	645.00	614.00	540.00	537.00	546.00	552.00	620.00	676.00	714.00	747.00	758.00	755.00	770.00	766.00	681.00	849.00	892.00	933.00	907.00	860.00	826.00	789.00	799.00	785.00	741.00	729.00	722.00	722.00	709.00	767.00	789.00	748.00	718.00	685.00	691.00	744.00	809.00	869.00	831.00	520.00	463.00	417.00	453.00	432.00	411.00	400.00	399.00	408.00	367.00	361.00	408.00	446.00	435.00	438.00	407.00	375.00	332.00	336.00	328.00	329.00	339.00	339.00	344.00	348.00	350.00	357.00	362.00	395.00	403.00	408.00	406.00	416.00	408.00	407.00	404.00	396.00	390.00	382.00
3398.00	3398.00	3208.00	3091.00	3047.00	3009.00	2995.00	2966.00	2951.00	2940.00	2922.00	2932.00	2936.00	2935.00	2929.00	2903.00	2886.00	2915.00	2867.00	2911.00	2878.00	2841.00	2810.00	2745.00	2718.00	2711.00	2728.00	2763.00	2809.00	2817.00	2817.00	2827.00	3176.00	3397.00	3268.00	3228.00	3247.00	3286.00	3355.00	3481.00	3546.00	3658.00	3725.00	3785.00	3866.00	3924.00	4022.00	4031.00	3964.00	4030.00	3950.00	4058.00	4065.00	4057.00	4067.00	4037.00	4007.00	4018.00	4025.00	3981.00	3958.00	3965.00	3955.00	4020.00	4090.00	4022.00	3929.00	3880.00	3841.00	3841.00	3778.00	3767.00	3837.00	3879.00	3824.00	3705.00	3704.00	3844.00	3862.00	3772.00	3703.00	3620.00	3682.00	3756.00	3678.00	3605.00	3553.00	3503.00	3393.00	3136.00	2892.00	2839.00	2889.00	2944.00	3085.00	2943.00	2646.00	2484.00	2431.00	2573.00	2745.00	2760.00	3100.00	3301.00	3335.00	3308.00	3378.00	3477.00	3198.00	3215.00	2998.00	2990.00	2664.00	2794.00	2574.00	2354.00	2499.00	2323.00	2206.00	2281.00	2315.00	2158.00	1727.00	1680.00	1682.00	1856.00	2040.00	1859.00	1665.00	1524.00	1311.00	1147.00	1050.00	1110.00	1091.00	1449.00	1353.00	1243.00	1257.00	1422.00	1929.00	2021.00	2093.00	1999.00	1784.00	1613.00	1583.00	1436.00	1282.00	1053.00	962.00	1093.00	1175.00	914.00	747.00	735.00	689.00	661.00	610.00	594.00	624.00	579.00	543.00	546.00	549.00	559.00	579.00	646.00	584.00	548.00	533.00	508.00	560.00	608.00	637.00	683.00	648.00	598.00	554.00	552.00	541.00	589.00	602.00	568.00	547.00	551.00	613.00	584.00	592.00	587.00	568.00	541.00	560.00	782.00	872.00	915.00	896.00	886.00	779.00	780.00	773.00	758.00	716.00	699.00	699.00	700.00	673.00	740.00	739.00	704.00	694.00	676.00	662.00	727.00	791.00	849.00	709.00	487.00	426.00	430.00	464.00	437.00	468.00	448.00	453.00	427.00	373.00	347.00	352.00	453.00	444.00	438.00	393.00	369.00	331.00	326.00	325.00	334.00	342.00	342.00	340.00	350.00	350.00	356.00	378.00	396.00	404.00	413.00	411.00	413.00	407.00	402.00	387.00	380.00	376.00	379.00
3410.00	3406.00	3261.00	3118.00	3073.00	3024.00	3005.00	2974.00	2956.00	2941.00	2930.00	2937.00	2944.00	2939.00	2931.00	2928.00	2904.00	2900.00	2862.00	2911.00	2892.00	2854.00	2800.00	2746.00	2722.00	2708.00	2718.00	2744.00	2811.00	2806.00	2800.00	2812.00	3046.00	3275.00	3190.00	3117.00	3143.00	3253.00	3326.00	3498.00	3554.00	3650.00	3721.00	3809.00	3919.00	3921.00	3979.00	3987.00	3901.00	4002.00	3919.00	4027.00	4051.00	4033.00	4018.00	4062.00	4065.00	4011.00	4003.00	3981.00	3926.00	3950.00	3960.00	3998.00	4042.00	3960.00	3907.00	3867.00	3850.00	3842.00	3776.00	3794.00	3855.00	3843.00	3790.00	3639.00	3621.00	3782.00	3880.00	3805.00	3734.00	3722.00	3734.00	3630.00	3547.00	3471.00	3362.00	3188.00	3106.00	2966.00	3113.00	3091.00	3150.00	3147.00	3268.00	3103.00	2864.00	2762.00	2529.00	2477.00	2517.00	2682.00	3025.00	3143.00	3221.00	3368.00	3362.00	3379.00	3170.00	3100.00	2857.00	2682.00	2641.00	2759.00	2635.00	2368.00	2256.00	2202.00	2057.00	2141.00	2306.00	2228.00	1777.00	1756.00	1750.00	1948.00	2158.00	1888.00	1793.00	1523.00	1396.00	1326.00	1241.00	1015.00	1040.00	1301.00	1219.00	1179.00	1381.00	1667.00	1967.00	1950.00	1970.00	1831.00	1721.00	1553.00	1489.00	1422.00	1326.00	1134.00	946.00	929.00	1040.00	922.00	759.00	722.00	709.00	689.00	647.00	633.00	622.00	607.00	536.00	537.00	539.00	547.00	559.00	586.00	559.00	537.00	531.00	505.00	557.00	615.00	650.00	648.00	593.00	532.00	535.00	555.00	609.00	673.00	673.00	616.00	609.00	616.00	562.00	598.00	620.00	636.00	682.00	651.00	575.00	685.00	799.00	873.00	893.00	872.00	770.00	744.00	733.00	725.00	689.00	678.00	679.00	671.00	604.00	714.00	714.00	713.00	679.00	635.00	652.00	721.00	772.00	774.00	560.00	436.00	408.00	441.00	451.00	421.00	430.00	456.00	414.00	389.00	356.00	377.00	348.00	411.00	424.00	395.00	342.00	335.00	335.00	336.00	335.00	336.00	349.00	340.00	346.00	354.00	356.00	365.00	397.00	410.00	423.00	408.00	410.00	409.00	408.00	407.00	396.00	394.00	389.00	384.00
3400.00	3281.00	3214.00	3120.00	3079.00	3018.00	2994.00	2976.00	2962.00	2948.00	2940.00	2947.00	2954.00	2948.00	2933.00	2925.00	2918.00	2867.00	2890.00	2859.00	2882.00	2891.00	2823.00	2770.00	2728.00	2708.00	2711.00	2714.00	2797.00	2794.00	2792.00	2800.00	2971.00	3079.00	3048.00	3052.00	3127.00	3230.00	3305.00	3487.00	3532.00	3621.00	3690.00	3768.00	3855.00	3879.00	3935.00	3927.00	3849.00	4041.00	3898.00	3898.00	4029.00	4096.00	3994.00	4012.00	4110.00	4066.00	4029.00	3949.00	3921.00	3936.00	3936.00	3945.00	3990.00	3926.00	3903.00	3878.00	3857.00	3849.00	3781.00	3772.00	3815.00	3753.00	3604.00	3497.00	3465.00	3714.00	3824.00	3874.00	3810.00	3662.00	3596.00	3530.00	3407.00	3251.00	3081.00	3000.00	3008.00	3020.00	3341.00	3451.00	3363.00	3347.00	3375.00	3312.00	3091.00	2935.00	2687.00	2334.00	2340.00	2419.00	2713.00	2858.00	3146.00	3170.00	3195.00	3167.00	3172.00	2927.00	2779.00	2639.00	2586.00	2497.00	2475.00	2280.00	2137.00	1973.00	1914.00	2046.00	2150.00	2206.00	1870.00	1810.00	1816.00	1933.00	2107.00	1789.00	1605.00	1466.00	1579.00	1557.00	1449.00	1085.00	1006.00	1170.00	1055.00	1119.00	1405.00	1706.00	1793.00	1764.00	1720.00	1694.00	1630.00	1452.00	1384.00	1341.00	1295.00	1144.00	991.00	856.00	900.00	865.00	748.00	733.00	737.00	680.00	663.00	646.00	624.00	594.00	535.00	530.00	536.00	538.00	536.00	542.00	542.00	534.00	538.00	502.00	555.00	600.00	607.00	587.00	525.00	547.00	616.00	653.00	685.00	715.00	707.00	697.00	709.00	734.00	721.00	744.00	768.00	804.00	815.00	805.00	765.00	548.00	671.00	814.00	863.00	810.00	728.00	703.00	686.00	670.00	665.00	645.00	650.00	639.00	593.00	686.00	650.00	668.00	665.00	625.00	637.00	675.00	710.00	686.00	474.00	410.00	397.00	414.00	432.00	407.00	395.00	437.00	437.00	398.00	357.00	419.00	364.00	391.00	401.00	340.00	334.00	343.00	338.00	337.00	339.00	338.00	352.00	346.00	359.00	367.00	370.00	391.00	405.00	421.00	433.00	417.00	416.00	414.00	400.00	411.00	408.00	405.00	393.00	389.00
3519.00	3225.00	3165.00	3190.00	3253.00	3089.00	2997.00	2964.00	2948.00	2945.00	2940.00	2955.00	2959.00	2957.00	2941.00	2923.00	2902.00	2887.00	2919.00	2938.00	2889.00	2812.00	2764.00	2765.00	2736.00	2714.00	2706.00	2702.00	2757.00	2766.00	2757.00	2752.00	2810.00	2855.00	2941.00	3011.00	3071.00	3169.00	3249.00	3441.00	3476.00	3544.00	3586.00	3643.00	3704.00	3765.00	3796.00	3783.00	3768.00	3895.00	3912.00	3805.00	3916.00	3963.00	3920.00	3998.00	4079.00	4038.00	4026.00	3885.00	3905.00	3879.00	3890.00	3987.00	3992.00	3953.00	3948.00	3946.00	3889.00	3853.00	3811.00	3714.00	3551.00	3501.00	3559.00	3565.00	3454.00	3319.00	3421.00	3554.00	3636.00	3299.00	3198.00	3164.00	3129.00	3140.00	3212.00	3407.00	3552.00	3413.00	3627.00	3659.00	3626.00	3581.00	3578.00	3349.00	3079.00	2749.00	2630.00	2694.00	2588.00	2324.00	2380.00	2595.00	2857.00	2822.00	2693.00	2920.00	3322.00	3308.00	3182.00	2978.00	2596.00	2302.00	2281.00	2311.00	2124.00	2086.00	1859.00	1769.00	1828.00	1886.00	1975.00	1932.00	1990.00	2163.00	2281.00	2037.00	1789.00	1700.00	1904.00	1635.00	1385.00	1523.00	1336.00	1070.00	994.00	1218.00	1444.00	1427.00	1383.00	1509.00	1749.00	1905.00	1477.00	1343.00	1303.00	1201.00	1100.00	940.00	876.00	880.00	821.00	736.00	863.00	823.00	772.00	755.00	742.00	754.00	778.00	780.00	620.00	552.00	517.00	518.00	511.00	512.00	507.00	509.00	508.00	500.00	524.00	548.00	549.00	545.00	616.00	649.00	670.00	693.00	727.00	734.00	752.00	759.00	743.00	785.00	803.00	822.00	840.00	859.00	860.00	872.00	860.00	580.00	510.00	692.00	726.00	735.00	656.00	628.00	621.00	599.00	584.00	591.00	580.00	590.00	572.00	607.00	609.00	577.00	568.00	582.00	525.00	566.00	623.00	536.00	426.00	380.00	390.00	381.00	432.00	390.00	367.00	361.00	356.00	406.00	452.00	411.00	364.00	339.00	338.00	335.00	336.00	343.00	343.00	347.00	344.00	344.00	347.00	345.00	352.00	371.00	386.00	423.00	428.00	425.00	442.00	454.00	432.00	427.00	412.00	408.00	409.00	404.00	393.00	394.00
3403.00	3315.00	3230.00	3311.00	3396.00	3121.00	3024.00	3005.00	2956.00	2936.00	2925.00	2927.00	2951.00	2960.00	2941.00	2909.00	2882.00	2890.00	2924.00	2969.00	2961.00	2900.00	2796.00	2737.00	2735.00	2714.00	2707.00	2693.00	2743.00	2749.00	2738.00	2748.00	2791.00	2836.00	2889.00	2954.00	3013.00	3168.00	3276.00	3423.00	3436.00	3515.00	3538.00	3595.00	3665.00	3720.00	3717.00	3725.00	3738.00	3761.00	3731.00	3773.00	3889.00	3901.00	3884.00	4012.00	4031.00	3998.00	4006.00	3873.00	3862.00	3868.00	3897.00	4012.00	4019.00	3995.00	3994.00	3958.00	3929.00	3869.00	3849.00	3796.00	3671.00	3596.00	3623.00	3676.00	3639.00	3307.00	3283.00	3304.00	3360.00	3254.00	3252.00	3235.00	3255.00	3360.00	3266.00	3484.00	3656.00	3539.00	3588.00	3639.00	3544.00	3577.00	3511.00	3159.00	2947.00	2722.00	2896.00	2908.00	2675.00	2455.00	2237.00	2363.00	2614.00	2596.00	2699.00	2955.00	3349.00	3178.00	3024.00	2765.00	2517.00	2566.00	2580.00	2542.00	2352.00	2188.00	1922.00	1764.00	1708.00	1782.00	1946.00	1987.00	2062.00	2125.00	2162.00	1945.00	1817.00	1975.00	2020.00	1601.00	1466.00	1650.00	1382.00	1108.00	1031.00	1159.00	1247.00	1280.00	1576.00	1740.00	1880.00	2032.00	1525.00	1416.00	1379.00	1250.00	1228.00	1002.00	982.00	931.00	775.00	721.00	790.00	767.00	667.00	646.00	697.00	716.00	767.00	794.00	661.00	572.00	556.00	567.00	530.00	520.00	513.00	506.00	504.00	530.00	598.00	634.00	633.00	558.00	634.00	660.00	671.00	685.00	724.00	723.00	736.00	732.00	727.00	767.00	792.00	821.00	842.00	862.00	862.00	857.00	855.00	773.00	579.00	536.00	622.00	669.00	605.00	587.00	580.00	573.00	551.00	552.00	553.00	557.00	549.00	565.00	580.00	560.00	541.00	570.00	499.00	548.00	517.00	477.00	433.00	389.00	391.00	375.00	375.00	363.00	362.00	360.00	366.00	438.00	438.00	403.00	381.00	339.00	334.00	333.00	340.00	343.00	345.00	342.00	353.00	352.00	362.00	366.00	359.00	359.00	389.00	412.00	421.00	416.00	435.00	472.00	465.00	446.00	423.00	425.00	416.00	399.00	400.00	400.00
3500.00	3356.00	3293.00	3413.00	3489.00	3242.00	3160.00	2994.00	2959.00	2938.00	2944.00	2920.00	2935.00	2947.00	2918.00	2903.00	2931.00	2909.00	2941.00	2970.00	3009.00	2969.00	2805.00	2712.00	2735.00	2715.00	2702.00	2691.00	2722.00	2740.00	2729.00	2747.00	2797.00	2830.00	2868.00	2942.00	2988.00	3138.00	3266.00	3345.00	3382.00	3480.00	3507.00	3558.00	3609.00	3635.00	3659.00	3682.00	3684.00	3653.00	3725.00	3816.00	3852.00	3849.00	3915.00	3954.00	3922.00	3910.00	3932.00	3808.00	3913.00	3885.00	3888.00	4018.00	4040.00	4040.00	4031.00	3994.00	3970.00	3899.00	3861.00	3808.00	3797.00	3701.00	3667.00	3766.00	3779.00	3505.00	3349.00	3288.00	3261.00	3297.00	3333.00	3403.00	3512.00	3559.00	3278.00	3517.00	3682.00	3746.00	3661.00	3530.00	3485.00	3535.00	3369.00	2938.00	2829.00	2919.00	3079.00	2953.00	2743.00	2558.00	2252.00	2255.00	2438.00	2596.00	2742.00	2895.00	3325.00	3202.00	2917.00	2824.00	2813.00	2726.00	2584.00	2532.00	2431.00	2088.00	1886.00	1720.00	1675.00	1770.00	1961.00	2061.00	2060.00	2149.00	2391.00	2160.00	2084.00	2172.00	1993.00	1564.00	1656.00	1557.00	1321.00	1215.00	1029.00	1032.00	1225.00	1475.00	1720.00	1788.00	1994.00	1949.00	1716.00	1570.00	1441.00	1331.00	1328.00	1122.00	1027.00	857.00	736.00	702.00	693.00	704.00	664.00	632.00	678.00	691.00	705.00	701.00	628.00	597.00	672.00	626.00	549.00	525.00	520.00	514.00	506.00	559.00	626.00	629.00	637.00	596.00	638.00	665.00	675.00	672.00	710.00	701.00	712.00	723.00	714.00	748.00	778.00	811.00	830.00	845.00	845.00	841.00	824.00	771.00	714.00	520.00	559.00	612.00	567.00	549.00	548.00	538.00	527.00	542.00	553.00	556.00	552.00	525.00	506.00	526.00	522.00	503.00	474.00	468.00	441.00	452.00	408.00	412.00	395.00	375.00	367.00	374.00	387.00	382.00	397.00	451.00	436.00	410.00	392.00	338.00	335.00	340.00	341.00	347.00	345.00	363.00	352.00	359.00	423.00	386.00	375.00	353.00	382.00	393.00	403.00	424.00	444.00	519.00	494.00	456.00	432.00	434.00	424.00	424.00	413.00	407.00
