190.00	196.00	200.00	226.00	285.00	303.00	324.00	360.00	345.00	322.00	309.00	315.00	283.00	262.00	265.00	259.00	211.00	192.00	182.00	181.00	175.00	166.00	164.00	161.00	164.00	191.00	188.00	176.00	164.00	150.00	127.00	122.00	115.00	112.00	107.00	109.00	104.00	103.00	103.00	107.00	108.00	108.00	105.00	98.00	98.00	98.00	98.00	98.00	98.00	98.00	98.00	96.00	93.00	95.00	96.00	96.00	96.00	96.00	96.00	97.00	98.00	98.00	98.00	98.00	97.00	94.00	94.00	96.00	102.00	116.00	181.00	218.00	254.00	284.00	310.00	337.00	345.00	362.00	346.00	306.00	284.00	262.00	247.00	248.00	252.00	246.00	237.00	229.00	206.00	198.00	189.00	182.00	174.00	161.00	154.00	152.00	146.00	137.00	129.00	125.00	122.00	121.00	114.00	110.00	109.00	107.00	105.00	106.00	104.00	103.00	104.00	105.00	105.00	105.00	106.00	106.00	106.00	106.00	108.00	109.00	109.00	111.00	114.00	115.00	118.00	120.00	122.00	124.00	150.00	159.00	176.00	182.00	187.00	200.00	209.00	210.00	204.00	201.00	210.00	216.00	229.00	261.00	310.00	336.00	363.00	386.00	380.00	349.00	351.00	393.00	426.00	461.00	464.00	450.00	474.00	552.00	569.00	548.00	501.00	473.00	455.00	404.00	387.00	382.00	414.00	431.00	450.00	469.00	489.00	526.00	552.00	585.00	636.00	686.00	727.00	775.00	809.00	822.00	833.00	864.00	878.00	901.00	917.00	927.00	938.00	919.00	880.00	793.00	754.00	730.00	720.00	714.00	701.00	664.00	644.00	623.00	586.00	573.00	562.00	550.00	585.00	595.00	604.00	608.00	580.00	587.00	619.00	642.00	659.00	677.00	667.00	654.00	646.00	632.00	619.00	646.00	658.00	657.00	630.00	604.00	580.00	558.00	539.00	498.00	475.00	501.00	529.00	535.00	528.00	535.00	527.00	504.00	451.00	442.00	491.00	529.00	507.00	480.00	500.00	540.00	565.00	564.00	544.00	511.00	472.00	439.00	448.00	447.00	441.00	409.00	429.00	442.00	448.00	458.00	477.00	460.00
190.00	196.00	200.00	226.00	285.00	303.00	324.00	360.00	345.00	322.00	309.00	315.00	283.00	262.00	265.00	259.00	211.00	192.00	182.00	181.00	175.00	166.00	164.00	161.00	164.00	191.00	188.00	176.00	164.00	150.00	127.00	122.00	115.00	112.00	107.00	109.00	104.00	103.00	103.00	107.00	108.00	108.00	105.00	98.00	98.00	98.00	98.00	98.00	98.00	98.00	98.00	96.00	93.00	95.00	96.00	96.00	96.00	96.00	96.00	97.00	98.00	98.00	98.00	98.00	97.00	94.00	94.00	96.00	102.00	116.00	181.00	218.00	254.00	284.00	310.00	337.00	345.00	362.00	346.00	306.00	284.00	262.00	247.00	248.00	252.00	246.00	237.00	229.00	206.00	198.00	189.00	182.00	174.00	161.00	154.00	152.00	146.00	137.00	129.00	125.00	122.00	121.00	114.00	110.00	109.00	107.00	105.00	106.00	104.00	103.00	104.00	105.00	105.00	105.00	106.00	106.00	106.00	106.00	108.00	109.00	109.00	111.00	114.00	115.00	118.00	120.00	122.00	124.00	150.00	159.00	176.00	182.00	187.00	200.00	209.00	210.00	204.00	201.00	210.00	216.00	229.00	261.00	310.00	336.00	363.00	386.00	380.00	349.00	351.00	393.00	426.00	461.00	464.00	450.00	474.00	552.00	569.00	548.00	501.00	473.00	455.00	404.00	387.00	382.00	414.00	431.00	450.00	469.00	489.00	526.00	552.00	585.00	636.00	686.00	727.00	775.00	809.00	822.00	833.00	864.00	878.00	901.00	917.00	927.00	938.00	919.00	880.00	793.00	754.00	730.00	720.00	714.00	701.00	664.00	644.00	623.00	586.00	573.00	562.00	550.00	585.00	595.00	604.00	608.00	580.00	587.00	619.00	642.00	659.00	677.00	667.00	654.00	646.00	632.00	619.00	646.00	658.00	657.00	630.00	604.00	580.00	558.00	539.00	498.00	475.00	501.00	529.00	535.00	528.00	535.00	527.00	504.00	451.00	442.00	491.00	529.00	507.00	480.00	500.00	540.00	565.00	564.00	544.00	511.00	472.00	439.00	448.00	447.00	441.00	409.00	429.00	442.00	448.00	458.00	477.00	460.00
227.00	220.00	241.00	294.00	337.00	335.00	339.00	325.00	300.00	273.00	251.00	242.00	214.00	207.00	208.00	178.00	155.00	145.00	139.00	139.00	139.00	138.00	136.00	135.00	135.00	137.00	133.00	126.00	119.00	113.00	105.00	102.00	101.00	100.00	99.00	98.00	98.00	98.00	98.00	98.00	99.00	99.00	98.00	98.00	98.00	98.00	98.00	98.00	98.00	98.00	98.00	98.00	94.00	93.00	94.00	94.00	94.00	94.00	94.00	95.00	98.00	98.00	98.00	98.00	98.00	96.00	95.00	98.00	104.00	127.00	185.00	215.00	239.00	262.00	287.00	318.00	330.00	338.00	340.00	312.00	300.00	288.00	276.00	253.00	219.00	215.00	211.00	208.00	196.00	190.00	184.00	178.00	172.00	159.00	151.00	146.00	141.00	131.00	124.00	120.00	117.00	112.00	112.00	109.00	106.00	105.00	104.00	103.00	102.00	104.00	103.00	104.00	105.00	105.00	105.00	106.00	107.00	108.00	109.00	109.00	111.00	115.00	118.00	119.00	125.00	130.00	134.00	140.00	155.00	167.00	184.00	187.00	191.00	211.00	220.00	228.00	235.00	241.00	261.00	270.00	276.00	267.00	256.00	269.00	285.00	298.00	300.00	308.00	337.00	358.00	368.00	385.00	381.00	392.00	419.00	455.00	484.00	500.00	489.00	464.00	426.00	429.00	428.00	431.00	467.00	473.00	470.00	483.00	493.00	526.00	555.00	592.00	628.00	629.00	642.00	666.00	677.00	689.00	730.00	764.00	801.00	843.00	945.00	943.00	924.00	901.00	871.00	798.00	760.00	723.00	687.00	650.00	644.00	629.00	619.00	606.00	578.00	566.00	559.00	560.00	625.00	650.00	662.00	663.00	635.00	593.00	600.00	619.00	642.00	679.00	693.00	698.00	694.00	683.00	668.00	669.00	661.00	642.00	591.00	559.00	529.00	496.00	470.00	438.00	442.00	484.00	501.00	454.00	449.00	463.00	457.00	440.00	410.00	417.00	435.00	450.00	467.00	496.00	525.00	518.00	504.00	502.00	512.00	504.00	481.00	407.00	401.00	406.00	410.00	388.00	400.00	413.00	428.00	442.00	448.00	437.00
251.00	258.00	267.00	274.00	264.00	258.00	263.00	239.00	219.00	207.00	196.00	182.00	161.00	156.00	151.00	133.00	122.00	120.00	119.00	120.00	122.00	121.00	120.00	118.00	115.00	105.00	102.00	100.00	99.00	98.00	98.00	98.00	98.00	98.00	98.00	98.00	98.00	98.00	98.00	98.00	98.00	98.00	98.00	98.00	98.00	98.00	98.00	98.00	98.00	98.00	98.00	98.00	97.00	95.00	94.00	94.00	93.00	93.00	93.00	95.00	98.00	98.00	97.00	97.00	96.00	94.00	94.00	98.00	106.00	133.00	222.00	260.00	294.00	307.00	300.00	296.00	289.00	283.00	331.00	335.00	326.00	311.00	290.00	267.00	224.00	208.00	199.00	195.00	185.00	181.00	175.00	170.00	163.00	161.00	178.00	181.00	164.00	133.00	128.00	135.00	141.00	135.00	132.00	123.00	111.00	106.00	102.00	103.00	102.00	104.00	104.00	104.00	104.00	105.00	105.00	106.00	107.00	109.00	111.00	111.00	114.00	117.00	120.00	123.00	134.00	141.00	145.00	149.00	157.00	172.00	180.00	180.00	184.00	206.00	213.00	224.00	239.00	266.00	288.00	312.00	335.00	383.00	368.00	337.00	326.00	333.00	298.00	296.00	293.00	308.00	314.00	342.00	358.00	383.00	395.00	433.00	469.00	497.00	495.00	473.00	495.00	499.00	495.00	497.00	494.00	480.00	460.00	448.00	457.00	485.00	504.00	525.00	515.00	521.00	533.00	555.00	576.00	599.00	644.00	676.00	716.00	756.00	906.00	893.00	862.00	846.00	829.00	786.00	765.00	741.00	711.00	657.00	635.00	606.00	597.00	587.00	571.00	570.00	578.00	597.00	655.00	686.00	705.00	706.00	677.00	630.00	642.00	652.00	658.00	683.00	685.00	681.00	673.00	661.00	641.00	622.00	599.00	577.00	529.00	504.00	484.00	461.00	431.00	390.00	443.00	460.00	456.00	422.00	400.00	397.00	394.00	404.00	443.00	472.00	492.00	524.00	536.00	523.00	500.00	469.00	442.00	448.00	479.00	496.00	496.00	443.00	413.00	390.00	376.00	369.00	388.00	397.00	402.00	405.00	406.00	404.00
251.00	258.00	267.00	274.00	264.00	258.00	263.00	239.00	219.00	207.00	196.00	182.00	161.00	156.00	151.00	133.00	122.00	120.00	119.00	120.00	122.00	121.00	120.00	118.00	115.00	105.00	102.00	100.00	99.00	98.00	98.00	98.00	98.00	98.00	98.00	98.00	98.00	98.00	98.00	98.00	98.00	98.00	98.00	98.00	98.00	98.00	98.00	98.00	98.00	98.00	98.00	98.00	97.00	95.00	94.00	94.00	93.00	93.00	93.00	95.00	98.00	98.00	97.00	97.00	96.00	94.00	94.00	98.00	106.00	133.00	222.00	260.00	294.00	307.00	300.00	296.00	289.00	283.00	331.00	335.00	326.00	311.00	290.00	267.00	224.00	208.00	199.00	195.00	185.00	181.00	175.00	170.00	163.00	161.00	178.00	181.00	164.00	133.00	128.00	135.00	141.00	135.00	132.00	123.00	111.00	106.00	102.00	103.00	102.00	104.00	104.00	104.00	104.00	105.00	105.00	106.00	107.00	109.00	111.00	111.00	114.00	117.00	120.00	123.00	134.00	141.00	145.00	149.00	157.00	172.00	180.00	180.00	184.00	206.00	213.00	224.00	239.00	266.00	288.00	312.00	335.00	383.00	368.00	337.00	326.00	333.00	298.00	296.00	293.00	308.00	314.00	342.00	358.00	383.00	395.00	433.00	469.00	497.00	495.00	473.00	495.00	499.00	495.00	497.00	494.00	480.00	460.00	448.00	457.00	485.00	504.00	525.00	515.00	521.00	533.00	555.00	576.00	599.00	644.00	676.00	716.00	756.00	906.00	893.00	862.00	846.00	829.00	786.00	765.00	741.00	711.00	657.00	635.00	606.00	597.00	587.00	571.00	570.00	578.00	597.00	655.00	686.00	705.00	706.00	677.00	630.00	642.00	652.00	658.00	683.00	685.00	681.00	673.00	661.00	641.00	622.00	599.00	577.00	529.00	504.00	484.00	461.00	431.00	390.00	443.00	460.00	456.00	422.00	400.00	397.00	394.00	404.00	443.00	472.00	492.00	524.00	536.00	523.00	500.00	469.00	442.00	448.00	479.00	496.00	496.00	443.00	413.00	390.00	376.00	369.00	388.00	397.00	402.00	405.00	406.00	404.00
206.00	207.00	195.00	186.00	187.00	183.00	180.00	156.00	149.00	144.00	143.00	139.00	127.00	125.00	122.00	113.00	108.00	106.00	106.00	106.00	112.00	107.00	106.00	104.00	103.00	95.00	95.00	95.00	96.00	97.00	97.00	97.00	98.00	98.00	98.00	98.00	98.00	98.00	98.00	98.00	98.00	98.00	98.00	98.00	98.00	97.00	94.00	94.00	95.00	95.00	95.00	95.00	94.00	94.00	94.00	94.00	93.00	96.00	95.00	93.00	94.00	93.00	93.00	94.00	94.00	95.00	98.00	99.00	112.00	145.00	231.00	253.00	260.00	252.00	245.00	244.00	242.00	259.00	300.00	301.00	292.00	279.00	264.00	250.00	227.00	215.00	204.00	193.00	180.00	177.00	178.00	186.00	198.00	208.00	193.00	178.00	164.00	143.00	161.00	166.00	174.00	174.00	161.00	143.00	125.00	110.00	101.00	101.00	103.00	102.00	105.00	105.00	104.00	104.00	105.00	106.00	107.00	109.00	111.00	114.00	116.00	119.00	121.00	129.00	144.00	153.00	159.00	164.00	184.00	194.00	205.00	210.00	214.00	242.00	237.00	223.00	223.00	252.00	273.00	295.00	317.00	380.00	441.00	439.00	447.00	454.00	432.00	432.00	401.00	370.00	339.00	372.00	404.00	438.00	468.00	481.00	509.00	536.00	535.00	523.00	504.00	481.00	475.00	473.00	474.00	461.00	441.00	418.00	413.00	429.00	436.00	466.00	494.00	541.00	577.00	616.00	627.00	655.00	709.00	711.00	720.00	743.00	823.00	818.00	796.00	778.00	763.00	733.00	720.00	706.00	690.00	652.00	635.00	603.00	593.00	583.00	580.00	599.00	628.00	655.00	702.00	723.00	741.00	739.00	711.00	687.00	681.00	672.00	664.00	643.00	625.00	611.00	597.00	578.00	579.00	561.00	530.00	500.00	456.00	431.00	413.00	404.00	395.00	363.00	403.00	406.00	402.00	383.00	372.00	384.00	435.00	480.00	532.00	535.00	529.00	513.00	497.00	478.00	455.00	434.00	408.00	426.00	459.00	482.00	491.00	443.00	419.00	396.00	369.00	362.00	366.00	367.00	368.00	372.00	395.00	404.00
206.00	207.00	195.00	186.00	187.00	183.00	180.00	156.00	149.00	144.00	143.00	139.00	127.00	125.00	122.00	113.00	108.00	106.00	106.00	106.00	112.00	107.00	106.00	104.00	103.00	95.00	95.00	95.00	96.00	97.00	97.00	97.00	98.00	98.00	98.00	98.00	98.00	98.00	98.00	98.00	98.00	98.00	98.00	98.00	98.00	97.00	94.00	94.00	95.00	95.00	95.00	95.00	94.00	94.00	94.00	94.00	93.00	96.00	95.00	93.00	94.00	93.00	93.00	94.00	94.00	95.00	98.00	99.00	112.00	145.00	231.00	253.00	260.00	252.00	245.00	244.00	242.00	259.00	300.00	301.00	292.00	279.00	264.00	250.00	227.00	215.00	204.00	193.00	180.00	177.00	178.00	186.00	198.00	208.00	193.00	178.00	164.00	143.00	161.00	166.00	174.00	174.00	161.00	143.00	125.00	110.00	101.00	101.00	103.00	102.00	105.00	105.00	104.00	104.00	105.00	106.00	107.00	109.00	111.00	114.00	116.00	119.00	121.00	129.00	144.00	153.00	159.00	164.00	184.00	194.00	205.00	210.00	214.00	242.00	237.00	223.00	223.00	252.00	273.00	295.00	317.00	380.00	441.00	439.00	447.00	454.00	432.00	432.00	401.00	370.00	339.00	372.00	404.00	438.00	468.00	481.00	509.00	536.00	535.00	523.00	504.00	481.00	475.00	473.00	474.00	461.00	441.00	418.00	413.00	429.00	436.00	466.00	494.00	541.00	577.00	616.00	627.00	655.00	709.00	711.00	720.00	743.00	823.00	818.00	796.00	778.00	763.00	733.00	720.00	706.00	690.00	652.00	635.00	603.00	593.00	583.00	580.00	599.00	628.00	655.00	702.00	723.00	741.00	739.00	711.00	687.00	681.00	672.00	664.00	643.00	625.00	611.00	597.00	578.00	579.00	561.00	530.00	500.00	456.00	431.00	413.00	404.00	395.00	363.00	403.00	406.00	402.00	383.00	372.00	384.00	435.00	480.00	532.00	535.00	529.00	513.00	497.00	478.00	455.00	434.00	408.00	426.00	459.00	482.00	491.00	443.00	419.00	396.00	369.00	362.00	366.00	367.00	368.00	372.00	395.00	404.00
145.00	140.00	136.00	134.00	132.00	128.00	121.00	114.00	113.00	114.00	114.00	113.00	110.00	108.00	106.00	100.00	96.00	96.00	95.00	96.00	96.00	97.00	97.00	96.00	96.00	94.00	95.00	96.00	96.00	95.00	95.00	96.00	97.00	98.00	98.00	98.00	98.00	98.00	98.00	98.00	98.00	98.00	98.00	98.00	97.00	94.00	93.00	93.00	93.00	93.00	93.00	93.00	93.00	93.00	93.00	94.00	95.00	98.00	98.00	95.00	94.00	94.00	96.00	97.00	97.00	98.00	98.00	103.00	125.00	154.00	197.00	197.00	199.00	206.00	211.00	224.00	245.00	269.00	285.00	271.00	261.00	249.00	238.00	231.00	217.00	211.00	201.00	199.00	224.00	233.00	233.00	225.00	214.00	191.00	178.00	168.00	161.00	166.00	183.00	191.00	196.00	187.00	145.00	127.00	112.00	103.00	101.00	103.00	102.00	103.00	105.00	106.00	106.00	106.00	105.00	107.00	109.00	111.00	113.00	117.00	118.00	121.00	129.00	142.00	154.00	163.00	173.00	179.00	203.00	216.00	244.00	256.00	265.00	288.00	296.00	300.00	292.00	295.00	298.00	279.00	283.00	330.00	389.00	411.00	433.00	457.00	490.00	477.00	449.00	409.00	371.00	388.00	416.00	449.00	485.00	536.00	539.00	532.00	518.00	495.00	453.00	418.00	414.00	424.00	434.00	425.00	409.00	391.00	390.00	428.00	463.00	487.00	515.00	545.00	560.00	571.00	589.00	608.00	655.00	674.00	686.00	704.00	756.00	761.00	756.00	740.00	725.00	691.00	678.00	667.00	655.00	631.00	617.00	611.00	617.00	622.00	617.00	637.00	665.00	693.00	742.00	761.00	752.00	728.00	687.00	648.00	630.00	615.00	601.00	568.00	552.00	539.00	526.00	506.00	539.00	557.00	551.00	535.00	499.00	495.00	481.00	472.00	451.00	390.00	367.00	370.00	368.00	360.00	384.00	427.00	471.00	503.00	480.00	455.00	446.00	434.00	430.00	422.00	411.00	394.00	370.00	418.00	449.00	466.00	463.00	420.00	398.00	374.00	357.00	359.00	373.00	393.00	411.00	430.00	475.00	493.00
105.00	106.00	101.00	99.00	100.00	100.00	98.00	97.00	97.00	98.00	98.00	99.00	99.00	97.00	95.00	96.00	98.00	98.00	97.00	94.00	94.00	96.00	96.00	96.00	97.00	94.00	96.00	98.00	98.00	96.00	97.00	97.00	97.00	97.00	98.00	98.00	98.00	98.00	98.00	98.00	98.00	98.00	98.00	97.00	95.00	93.00	96.00	97.00	97.00	96.00	96.00	95.00	95.00	95.00	96.00	97.00	98.00	98.00	96.00	94.00	94.00	98.00	98.00	98.00	98.00	98.00	100.00	115.00	127.00	143.00	157.00	167.00	171.00	177.00	189.00	225.00	239.00	246.00	255.00	260.00	253.00	244.00	235.00	235.00	232.00	242.00	249.00	261.00	276.00	248.00	221.00	204.00	194.00	184.00	178.00	177.00	171.00	176.00	181.00	175.00	166.00	155.00	114.00	103.00	99.00	98.00	99.00	101.00	104.00	103.00	105.00	105.00	106.00	107.00	107.00	110.00	112.00	114.00	116.00	119.00	122.00	129.00	140.00	151.00	171.00	180.00	192.00	204.00	224.00	238.00	268.00	276.00	291.00	316.00	334.00	345.00	355.00	349.00	385.00	385.00	364.00	318.00	338.00	366.00	391.00	421.00	475.00	478.00	466.00	441.00	427.00	463.00	482.00	501.00	517.00	505.00	485.00	467.00	451.00	434.00	406.00	376.00	370.00	382.00	383.00	376.00	366.00	369.00	385.00	421.00	437.00	446.00	457.00	468.00	480.00	497.00	518.00	540.00	583.00	607.00	634.00	662.00	734.00	750.00	752.00	743.00	728.00	697.00	677.00	660.00	643.00	630.00	639.00	674.00	685.00	686.00	667.00	670.00	684.00	692.00	727.00	715.00	692.00	664.00	608.00	571.00	556.00	541.00	527.00	495.00	486.00	471.00	454.00	438.00	521.00	568.00	586.00	586.00	569.00	550.00	525.00	498.00	477.00	422.00	359.00	354.00	354.00	379.00	419.00	461.00	492.00	514.00	486.00	453.00	421.00	377.00	374.00	370.00	362.00	359.00	372.00	430.00	443.00	444.00	425.00	371.00	357.00	346.00	341.00	375.00	398.00	425.00	453.00	477.00	535.00	557.00
105.00	106.00	101.00	99.00	100.00	100.00	98.00	97.00	97.00	98.00	98.00	99.00	99.00	97.00	95.00	96.00	98.00	98.00	97.00	94.00	94.00	96.00	96.00	96.00	97.00	94.00	96.00	98.00	98.00	96.00	97.00	97.00	97.00	97.00	98.00	98.00	98.00	98.00	98.00	98.00	98.00	98.00	98.00	97.00	95.00	93.00	96.00	97.00	97.00	96.00	96.00	95.00	95.00	95.00	96.00	97.00	98.00	98.00	96.00	94.00	94.00	98.00	98.00	98.00	98.00	98.00	100.00	115.00	127.00	143.00	157.00	167.00	171.00	177.00	189.00	225.00	239.00	246.00	255.00	260.00	253.00	244.00	235.00	235.00	232.00	242.00	249.00	261.00	276.00	248.00	221.00	204.00	194.00	184.00	178.00	177.00	171.00	176.00	181.00	175.00	166.00	155.00	114.00	103.00	99.00	98.00	99.00	101.00	104.00	103.00	105.00	105.00	106.00	107.00	107.00	110.00	112.00	114.00	116.00	119.00	122.00	129.00	140.00	151.00	171.00	180.00	192.00	204.00	224.00	238.00	268.00	276.00	291.00	316.00	334.00	345.00	355.00	349.00	385.00	385.00	364.00	318.00	338.00	366.00	391.00	421.00	475.00	478.00	466.00	441.00	427.00	463.00	482.00	501.00	517.00	505.00	485.00	467.00	451.00	434.00	406.00	376.00	370.00	382.00	383.00	376.00	366.00	369.00	385.00	421.00	437.00	446.00	457.00	468.00	480.00	497.00	518.00	540.00	583.00	607.00	634.00	662.00	734.00	750.00	752.00	743.00	728.00	697.00	677.00	660.00	643.00	630.00	639.00	674.00	685.00	686.00	667.00	670.00	684.00	692.00	727.00	715.00	692.00	664.00	608.00	571.00	556.00	541.00	527.00	495.00	486.00	471.00	454.00	438.00	521.00	568.00	586.00	586.00	569.00	550.00	525.00	498.00	477.00	422.00	359.00	354.00	354.00	379.00	419.00	461.00	492.00	514.00	486.00	453.00	421.00	377.00	374.00	370.00	362.00	359.00	372.00	430.00	443.00	444.00	425.00	371.00	357.00	346.00	341.00	375.00	398.00	425.00	453.00	477.00	535.00	557.00
105.00	106.00	101.00	99.00	100.00	100.00	98.00	97.00	97.00	98.00	98.00	99.00	99.00	97.00	95.00	96.00	98.00	98.00	97.00	94.00	94.00	96.00	96.00	96.00	97.00	94.00	96.00	98.00	98.00	96.00	97.00	97.00	97.00	97.00	98.00	98.00	98.00	98.00	98.00	98.00	98.00	98.00	98.00	97.00	95.00	93.00	96.00	97.00	97.00	96.00	96.00	95.00	95.00	95.00	96.00	97.00	98.00	98.00	96.00	94.00	94.00	98.00	98.00	98.00	98.00	98.00	100.00	115.00	127.00	143.00	157.00	167.00	171.00	177.00	189.00	225.00	239.00	246.00	255.00	260.00	253.00	244.00	235.00	235.00	232.00	242.00	249.00	261.00	276.00	248.00	221.00	204.00	194.00	184.00	178.00	177.00	171.00	176.00	181.00	175.00	166.00	155.00	114.00	103.00	99.00	98.00	99.00	101.00	104.00	103.00	105.00	105.00	106.00	107.00	107.00	110.00	112.00	114.00	116.00	119.00	122.00	129.00	140.00	151.00	171.00	180.00	192.00	204.00	224.00	238.00	268.00	276.00	291.00	316.00	334.00	345.00	355.00	349.00	385.00	385.00	364.00	318.00	338.00	366.00	391.00	421.00	475.00	478.00	466.00	441.00	427.00	463.00	482.00	501.00	517.00	505.00	485.00	467.00	451.00	434.00	406.00	376.00	370.00	382.00	383.00	376.00	366.00	369.00	385.00	421.00	437.00	446.00	457.00	468.00	480.00	497.00	518.00	540.00	583.00	607.00	634.00	662.00	734.00	750.00	752.00	743.00	728.00	697.00	677.00	660.00	643.00	630.00	639.00	674.00	685.00	686.00	667.00	670.00	684.00	692.00	727.00	715.00	692.00	664.00	608.00	571.00	556.00	541.00	527.00	495.00	486.00	471.00	454.00	438.00	521.00	568.00	586.00	586.00	569.00	550.00	525.00	498.00	477.00	422.00	359.00	354.00	354.00	379.00	419.00	461.00	492.00	514.00	486.00	453.00	421.00	377.00	374.00	370.00	362.00	359.00	372.00	430.00	443.00	444.00	425.00	371.00	357.00	346.00	341.00	375.00	398.00	425.00	453.00	477.00	535.00	557.00
94.00	95.00	93.00	92.00	92.00	93.00	93.00	94.00	94.00	94.00	94.00	94.00	95.00	97.00	98.00	97.00	96.00	95.00	95.00	95.00	95.00	97.00	97.00	98.00	98.00	96.00	97.00	98.00	98.00	98.00	95.00	94.00	94.00	94.00	98.00	98.00	98.00	98.00	98.00	98.00	98.00	98.00	98.00	95.00	93.00	94.00	98.00	98.00	98.00	98.00	98.00	98.00	98.00	98.00	98.00	98.00	98.00	94.00	94.00	95.00	97.00	98.00	98.00	98.00	98.00	100.00	121.00	151.00	165.00	158.00	162.00	163.00	166.00	181.00	189.00	204.00	214.00	226.00	256.00	269.00	269.00	264.00	260.00	260.00	269.00	285.00	300.00	299.00	262.00	243.00	230.00	221.00	214.00	193.00	179.00	169.00	159.00	149.00	135.00	126.00	114.00	108.00	99.00	99.00	99.00	99.00	99.00	100.00	102.00	104.00	105.00	105.00	106.00	107.00	108.00	112.00	115.00	118.00	118.00	122.00	131.00	141.00	148.00	158.00	182.00	187.00	193.00	203.00	221.00	228.00	242.00	254.00	275.00	313.00	329.00	346.00	372.00	435.00	456.00	470.00	468.00	420.00	374.00	359.00	375.00	391.00	461.00	495.00	515.00	524.00	521.00	535.00	524.00	505.00	483.00	441.00	424.00	410.00	398.00	385.00	356.00	344.00	342.00	342.00	341.00	342.00	349.00	362.00	370.00	385.00	396.00	405.00	408.00	459.00	493.00	521.00	547.00	578.00	633.00	672.00	698.00	710.00	763.00	771.00	766.00	762.00	747.00	707.00	691.00	677.00	673.00	690.00	695.00	687.00	689.00	688.00	658.00	630.00	598.00	594.00	665.00	658.00	636.00	605.00	526.00	492.00	480.00	471.00	461.00	427.00	414.00	407.00	397.00	409.00	533.00	569.00	583.00	576.00	515.00	477.00	447.00	435.00	426.00	392.00	355.00	340.00	348.00	401.00	439.00	467.00	483.00	494.00	475.00	453.00	428.00	376.00	343.00	339.00	353.00	377.00	401.00	433.00	423.00	407.00	382.00	339.00	335.00	340.00	355.00	395.00	417.00	441.00	466.00	491.00	543.00	565.00
94.00	94.00	95.00	94.00	94.00	95.00	95.00	96.00	95.00	94.00	94.00	94.00	98.00	98.00	98.00	94.00	97.00	98.00	98.00	98.00	98.00	96.00	96.00	98.00	96.00	95.00	97.00	98.00	98.00	98.00	97.00	95.00	95.00	95.00	97.00	98.00	98.00	98.00	98.00	98.00	98.00	97.00	95.00	93.00	94.00	96.00	98.00	97.00	98.00	98.00	98.00	98.00	98.00	98.00	98.00	98.00	97.00	94.00	97.00	98.00	98.00	98.00	99.00	101.00	107.00	119.00	158.00	200.00	218.00	231.00	251.00	234.00	209.00	233.00	234.00	240.00	251.00	257.00	265.00	264.00	264.00	249.00	237.00	232.00	225.00	237.00	238.00	226.00	255.00	246.00	235.00	225.00	213.00	188.00	175.00	161.00	149.00	128.00	114.00	108.00	103.00	101.00	98.00	98.00	99.00	100.00	99.00	100.00	102.00	104.00	105.00	106.00	108.00	109.00	111.00	116.00	117.00	119.00	121.00	133.00	145.00	155.00	162.00	176.00	193.00	203.00	202.00	201.00	216.00	215.00	242.00	261.00	283.00	326.00	350.00	375.00	404.00	460.00	493.00	519.00	529.00	505.00	481.00	461.00	466.00	453.00	471.00	510.00	540.00	553.00	548.00	507.00	481.00	455.00	431.00	393.00	380.00	369.00	356.00	345.00	323.00	314.00	323.00	336.00	375.00	401.00	417.00	430.00	436.00	439.00	472.00	497.00	490.00	460.00	471.00	496.00	530.00	566.00	638.00	671.00	704.00	735.00	792.00	778.00	760.00	753.00	740.00	710.00	703.00	699.00	700.00	681.00	655.00	604.00	593.00	595.00	567.00	531.00	489.00	526.00	589.00	585.00	574.00	562.00	511.00	448.00	425.00	409.00	401.00	386.00	372.00	376.00	414.00	453.00	538.00	556.00	567.00	544.00	470.00	437.00	409.00	385.00	376.00	361.00	343.00	333.00	343.00	397.00	408.00	418.00	429.00	437.00	431.00	416.00	396.00	358.00	333.00	348.00	370.00	386.00	396.00	385.00	367.00	350.00	335.00	337.00	350.00	364.00	376.00	406.00	421.00	434.00	446.00	462.00	498.00	523.00
94.00	94.00	95.00	94.00	94.00	95.00	95.00	96.00	95.00	94.00	94.00	94.00	98.00	98.00	98.00	94.00	97.00	98.00	98.00	98.00	98.00	96.00	96.00	98.00	96.00	95.00	97.00	98.00	98.00	98.00	97.00	95.00	95.00	95.00	97.00	98.00	98.00	98.00	98.00	98.00	98.00	97.00	95.00	93.00	94.00	96.00	98.00	97.00	98.00	98.00	98.00	98.00	98.00	98.00	98.00	98.00	97.00	94.00	97.00	98.00	98.00	98.00	99.00	101.00	107.00	119.00	158.00	200.00	218.00	231.00	251.00	234.00	209.00	233.00	234.00	240.00	251.00	257.00	265.00	264.00	264.00	249.00	237.00	232.00	225.00	237.00	238.00	226.00	255.00	246.00	235.00	225.00	213.00	188.00	175.00	161.00	149.00	128.00	114.00	108.00	103.00	101.00	98.00	98.00	99.00	100.00	99.00	100.00	102.00	104.00	105.00	106.00	108.00	109.00	111.00	116.00	117.00	119.00	121.00	133.00	145.00	155.00	162.00	176.00	193.00	203.00	202.00	201.00	216.00	215.00	242.00	261.00	283.00	326.00	350.00	375.00	404.00	460.00	493.00	519.00	529.00	505.00	481.00	461.00	466.00	453.00	471.00	510.00	540.00	553.00	548.00	507.00	481.00	455.00	431.00	393.00	380.00	369.00	356.00	345.00	323.00	314.00	323.00	336.00	375.00	401.00	417.00	430.00	436.00	439.00	472.00	497.00	490.00	460.00	471.00	496.00	530.00	566.00	638.00	671.00	704.00	735.00	792.00	778.00	760.00	753.00	740.00	710.00	703.00	699.00	700.00	681.00	655.00	604.00	593.00	595.00	567.00	531.00	489.00	526.00	589.00	585.00	574.00	562.00	511.00	448.00	425.00	409.00	401.00	386.00	372.00	376.00	414.00	453.00	538.00	556.00	567.00	544.00	470.00	437.00	409.00	385.00	376.00	361.00	343.00	333.00	343.00	397.00	408.00	418.00	429.00	437.00	431.00	416.00	396.00	358.00	333.00	348.00	370.00	386.00	396.00	385.00	367.00	350.00	335.00	337.00	350.00	364.00	376.00	406.00	421.00	434.00	446.00	462.00	498.00	523.00
95.00	93.00	94.00	94.00	95.00	95.00	95.00	95.00	94.00	94.00	95.00	96.00	98.00	98.00	98.00	94.00	98.00	98.00	98.00	98.00	98.00	98.00	98.00	97.00	95.00	98.00	98.00	98.00	96.00	96.00	95.00	94.00	94.00	94.00	94.00	94.00	95.00	95.00	95.00	96.00	95.00	94.00	93.00	96.00	97.00	98.00	95.00	93.00	96.00	98.00	98.00	98.00	98.00	98.00	97.00	96.00	94.00	96.00	98.00	98.00	98.00	105.00	113.00	124.00	138.00	151.00	179.00	223.00	246.00	268.00	295.00	288.00	282.00	282.00	281.00	269.00	259.00	248.00	232.00	222.00	217.00	211.00	206.00	202.00	193.00	194.00	189.00	179.00	198.00	188.00	183.00	179.00	176.00	172.00	168.00	161.00	148.00	121.00	105.00	102.00	99.00	98.00	98.00	98.00	98.00	100.00	99.00	100.00	102.00	103.00	105.00	107.00	109.00	112.00	115.00	119.00	120.00	121.00	123.00	145.00	155.00	165.00	177.00	190.00	221.00	241.00	245.00	247.00	263.00	264.00	261.00	262.00	264.00	294.00	320.00	343.00	372.00	430.00	467.00	504.00	539.00	584.00	593.00	577.00	565.00	552.00	536.00	536.00	526.00	508.00	487.00	434.00	415.00	395.00	379.00	352.00	340.00	330.00	318.00	314.00	303.00	323.00	357.00	388.00	449.00	473.00	498.00	521.00	533.00	526.00	532.00	565.00	597.00	559.00	544.00	525.00	503.00	535.00	619.00	655.00	690.00	725.00	742.00	716.00	688.00	665.00	658.00	662.00	661.00	654.00	643.00	613.00	594.00	521.00	482.00	483.00	470.00	447.00	453.00	510.00	542.00	521.00	500.00	488.00	491.00	488.00	473.00	449.00	416.00	359.00	354.00	387.00	420.00	439.00	499.00	530.00	555.00	550.00	489.00	447.00	408.00	377.00	360.00	340.00	332.00	328.00	337.00	368.00	364.00	367.00	374.00	379.00	381.00	378.00	369.00	340.00	333.00	346.00	357.00	359.00	356.00	341.00	326.00	321.00	327.00	354.00	363.00	370.00	375.00	398.00	410.00	425.00	437.00	448.00	470.00	487.00
93.00	93.00	94.00	94.00	95.00	97.00	97.00	95.00	95.00	95.00	95.00	95.00	98.00	98.00	98.00	96.00	98.00	98.00	98.00	98.00	96.00	95.00	95.00	94.00	95.00	98.00	97.00	95.00	93.00	93.00	94.00	94.00	94.00	95.00	93.00	93.00	93.00	93.00	93.00	93.00	93.00	93.00	93.00	97.00	96.00	96.00	94.00	95.00	95.00	95.00	95.00	95.00	95.00	95.00	94.00	94.00	96.00	99.00	101.00	102.00	106.00	128.00	141.00	158.00	175.00	189.00	219.00	251.00	274.00	295.00	331.00	340.00	325.00	306.00	291.00	262.00	248.00	234.00	206.00	197.00	192.00	186.00	183.00	183.00	187.00	179.00	168.00	163.00	162.00	159.00	154.00	152.00	148.00	144.00	142.00	140.00	134.00	111.00	101.00	98.00	98.00	98.00	98.00	98.00	99.00	100.00	101.00	103.00	104.00	105.00	107.00	110.00	112.00	115.00	118.00	124.00	127.00	130.00	133.00	150.00	157.00	170.00	182.00	193.00	221.00	235.00	247.00	260.00	290.00	307.00	336.00	345.00	345.00	313.00	347.00	363.00	362.00	439.00	464.00	490.00	530.00	612.00	633.00	611.00	595.00	572.00	517.00	491.00	468.00	448.00	426.00	378.00	362.00	347.00	329.00	306.00	296.00	287.00	281.00	286.00	303.00	339.00	368.00	396.00	455.00	484.00	510.00	525.00	534.00	555.00	574.00	598.00	643.00	638.00	617.00	581.00	532.00	537.00	618.00	651.00	682.00	707.00	684.00	650.00	609.00	561.00	530.00	575.00	584.00	572.00	555.00	534.00	521.00	478.00	447.00	419.00	407.00	441.00	491.00	522.00	513.00	483.00	450.00	421.00	413.00	433.00	438.00	431.00	407.00	348.00	339.00	364.00	391.00	420.00	522.00	544.00	547.00	536.00	487.00	451.00	414.00	385.00	363.00	338.00	326.00	329.00	351.00	352.00	343.00	340.00	342.00	344.00	344.00	342.00	339.00	327.00	324.00	331.00	333.00	330.00	327.00	324.00	321.00	328.00	337.00	369.00	377.00	389.00	402.00	435.00	452.00	471.00	492.00	510.00	546.00	549.00
93.00	93.00	94.00	94.00	95.00	97.00	97.00	95.00	95.00	95.00	95.00	95.00	98.00	98.00	98.00	96.00	98.00	98.00	98.00	98.00	96.00	95.00	95.00	94.00	95.00	98.00	97.00	95.00	93.00	93.00	94.00	94.00	94.00	95.00	93.00	93.00	93.00	93.00	93.00	93.00	93.00	93.00	93.00	97.00	96.00	96.00	94.00	95.00	95.00	95.00	95.00	95.00	95.00	95.00	94.00	94.00	96.00	99.00	101.00	102.00	106.00	128.00	141.00	158.00	175.00	189.00	219.00	251.00	274.00	295.00	331.00	340.00	325.00	306.00	291.00	262.00	248.00	234.00	206.00	197.00	192.00	186.00	183.00	183.00	187.00	179.00	168.00	163.00	162.00	159.00	154.00	152.00	148.00	144.00	142.00	140.00	134.00	111.00	101.00	98.00	98.00	98.00	98.00	98.00	99.00	100.00	101.00	103.00	104.00	105.00	107.00	110.00	112.00	115.00	118.00	124.00	127.00	130.00	133.00	150.00	157.00	170.00	182.00	193.00	221.00	235.00	247.00	260.00	290.00	307.00	336.00	345.00	345.00	313.00	347.00	363.00	362.00	439.00	464.00	490.00	530.00	612.00	633.00	611.00	595.00	572.00	517.00	491.00	468.00	448.00	426.00	378.00	362.00	347.00	329.00	306.00	296.00	287.00	281.00	286.00	303.00	339.00	368.00	396.00	455.00	484.00	510.00	525.00	534.00	555.00	574.00	598.00	643.00	638.00	617.00	581.00	532.00	537.00	618.00	651.00	682.00	707.00	684.00	650.00	609.00	561.00	530.00	575.00	584.00	572.00	555.00	534.00	521.00	478.00	447.00	419.00	407.00	441.00	491.00	522.00	513.00	483.00	450.00	421.00	413.00	433.00	438.00	431.00	407.00	348.00	339.00	364.00	391.00	420.00	522.00	544.00	547.00	536.00	487.00	451.00	414.00	385.00	363.00	338.00	326.00	329.00	351.00	352.00	343.00	340.00	342.00	344.00	344.00	342.00	339.00	327.00	324.00	331.00	333.00	330.00	327.00	324.00	321.00	328.00	337.00	369.00	377.00	389.00	402.00	435.00	452.00	471.00	492.00	510.00	546.00	549.00
95.00	97.00	96.00	95.00	97.00	98.00	98.00	98.00	97.00	96.00	96.00	96.00	98.00	98.00	98.00	98.00	98.00	97.00	96.00	96.00	94.00	95.00	96.00	97.00	98.00	97.00	95.00	93.00	93.00	94.00	95.00	95.00	95.00	97.00	94.00	96.00	96.00	96.00	96.00	95.00	95.00	94.00	94.00	94.00	93.00	93.00	93.00	94.00	95.00	95.00	95.00	95.00	95.00	95.00	96.00	98.00	100.00	106.00	109.00	113.00	120.00	151.00	169.00	182.00	197.00	217.00	260.00	298.00	320.00	342.00	369.00	371.00	362.00	349.00	333.00	295.00	279.00	262.00	223.00	185.00	177.00	169.00	169.00	185.00	198.00	183.00	168.00	159.00	148.00	145.00	139.00	135.00	133.00	130.00	128.00	124.00	118.00	104.00	98.00	98.00	98.00	98.00	98.00	99.00	100.00	101.00	102.00	105.00	107.00	110.00	111.00	114.00	116.00	118.00	121.00	134.00	138.00	141.00	145.00	164.00	171.00	182.00	186.00	189.00	208.00	217.00	230.00	247.00	289.00	312.00	360.00	390.00	411.00	422.00	441.00	472.00	482.00	547.00	582.00	600.00	597.00	582.00	570.00	551.00	526.00	499.00	448.00	426.00	406.00	388.00	368.00	329.00	321.00	313.00	299.00	277.00	272.00	269.00	275.00	294.00	319.00	322.00	345.00	367.00	412.00	430.00	444.00	455.00	467.00	491.00	520.00	544.00	599.00	641.00	638.00	625.00	594.00	580.00	638.00	657.00	664.00	658.00	612.00	599.00	578.00	539.00	497.00	486.00	500.00	497.00	475.00	451.00	442.00	413.00	397.00	378.00	435.00	471.00	479.00	473.00	501.00	506.00	496.00	475.00	403.00	369.00	367.00	364.00	359.00	333.00	338.00	370.00	401.00	434.00	505.00	502.00	488.00	473.00	436.00	410.00	389.00	370.00	353.00	330.00	311.00	312.00	324.00	329.00	326.00	325.00	325.00	325.00	323.00	322.00	320.00	316.00	314.00	314.00	313.00	314.00	320.00	325.00	332.00	340.00	346.00	368.00	371.00	378.00	392.00	412.00	427.00	446.00	471.00	499.00	565.00	593.00
95.00	97.00	96.00	95.00	97.00	98.00	98.00	98.00	97.00	96.00	96.00	96.00	98.00	98.00	98.00	98.00	98.00	97.00	96.00	96.00	94.00	95.00	96.00	97.00	98.00	97.00	95.00	93.00	93.00	94.00	95.00	95.00	95.00	97.00	94.00	96.00	96.00	96.00	96.00	95.00	95.00	94.00	94.00	94.00	93.00	93.00	93.00	94.00	95.00	95.00	95.00	95.00	95.00	95.00	96.00	98.00	100.00	106.00	109.00	113.00	120.00	151.00	169.00	182.00	197.00	217.00	260.00	298.00	320.00	342.00	369.00	371.00	362.00	349.00	333.00	295.00	279.00	262.00	223.00	185.00	177.00	169.00	169.00	185.00	198.00	183.00	168.00	159.00	148.00	145.00	139.00	135.00	133.00	130.00	128.00	124.00	118.00	104.00	98.00	98.00	98.00	98.00	98.00	99.00	100.00	101.00	102.00	105.00	107.00	110.00	111.00	114.00	116.00	118.00	121.00	134.00	138.00	141.00	145.00	164.00	171.00	182.00	186.00	189.00	208.00	217.00	230.00	247.00	289.00	312.00	360.00	390.00	411.00	422.00	441.00	472.00	482.00	547.00	582.00	600.00	597.00	582.00	570.00	551.00	526.00	499.00	448.00	426.00	406.00	388.00	368.00	329.00	321.00	313.00	299.00	277.00	272.00	269.00	275.00	294.00	319.00	322.00	345.00	367.00	412.00	430.00	444.00	455.00	467.00	491.00	520.00	544.00	599.00	641.00	638.00	625.00	594.00	580.00	638.00	657.00	664.00	658.00	612.00	599.00	578.00	539.00	497.00	486.00	500.00	497.00	475.00	451.00	442.00	413.00	397.00	378.00	435.00	471.00	479.00	473.00	501.00	506.00	496.00	475.00	403.00	369.00	367.00	364.00	359.00	333.00	338.00	370.00	401.00	434.00	505.00	502.00	488.00	473.00	436.00	410.00	389.00	370.00	353.00	330.00	311.00	312.00	324.00	329.00	326.00	325.00	325.00	325.00	323.00	322.00	320.00	316.00	314.00	314.00	313.00	314.00	320.00	325.00	332.00	340.00	346.00	368.00	371.00	378.00	392.00	412.00	427.00	446.00	471.00	499.00	565.00	593.00
97.00	99.00	98.00	97.00	97.00	96.00	98.00	100.00	98.00	96.00	96.00	96.00	98.00	98.00	98.00	98.00	95.00	95.00	96.00	98.00	98.00	98.00	98.00	98.00	98.00	94.00	93.00	94.00	93.00	93.00	93.00	93.00	93.00	95.00	94.00	94.00	94.00	94.00	94.00	94.00	94.00	94.00	95.00	97.00	96.00	97.00	99.00	100.00	105.00	106.00	111.00	105.00	105.00	106.00	107.00	108.00	108.00	114.00	117.00	123.00	133.00	166.00	182.00	197.00	216.00	239.00	295.00	342.00	360.00	368.00	380.00	381.00	378.00	367.00	354.00	323.00	307.00	287.00	233.00	186.00	173.00	163.00	158.00	168.00	187.00	179.00	167.00	157.00	140.00	139.00	134.00	130.00	127.00	120.00	116.00	111.00	106.00	99.00	98.00	98.00	98.00	98.00	99.00	101.00	101.00	102.00	102.00	103.00	106.00	110.00	120.00	120.00	119.00	121.00	125.00	138.00	144.00	151.00	156.00	180.00	191.00	201.00	216.00	227.00	249.00	246.00	242.00	249.00	276.00	303.00	350.00	380.00	411.00	476.00	505.00	534.00	564.00	619.00	631.00	611.00	585.00	519.00	481.00	468.00	448.00	428.00	388.00	368.00	353.00	341.00	327.00	299.00	290.00	283.00	274.00	265.00	270.00	288.00	318.00	356.00	399.00	357.00	342.00	345.00	372.00	379.00	388.00	399.00	406.00	435.00	450.00	474.00	529.00	607.00	638.00	663.00	670.00	669.00	676.00	671.00	651.00	618.00	518.00	516.00	519.00	509.00	491.00	438.00	427.00	423.00	415.00	392.00	384.00	379.00	381.00	370.00	376.00	388.00	388.00	392.00	457.00	479.00	486.00	490.00	467.00	419.00	391.00	362.00	340.00	325.00	332.00	354.00	381.00	410.00	462.00	440.00	422.00	406.00	380.00	367.00	354.00	343.00	333.00	321.00	308.00	298.00	302.00	311.00	312.00	312.00	311.00	311.00	311.00	310.00	308.00	305.00	317.00	324.00	335.00	350.00	345.00	330.00	332.00	336.00	342.00	374.00	386.00	400.00	418.00	450.00	461.00	472.00	484.00	494.00	546.00	588.00
97.00	99.00	98.00	97.00	97.00	96.00	98.00	100.00	98.00	96.00	96.00	96.00	98.00	98.00	98.00	98.00	95.00	95.00	96.00	98.00	98.00	98.00	98.00	98.00	98.00	94.00	93.00	94.00	93.00	93.00	93.00	93.00	93.00	95.00	94.00	94.00	94.00	94.00	94.00	94.00	94.00	94.00	95.00	97.00	96.00	97.00	99.00	100.00	105.00	106.00	111.00	105.00	105.00	106.00	107.00	108.00	108.00	114.00	117.00	123.00	133.00	166.00	182.00	197.00	216.00	239.00	295.00	342.00	360.00	368.00	380.00	381.00	378.00	367.00	354.00	323.00	307.00	287.00	233.00	186.00	173.00	163.00	158.00	168.00	187.00	179.00	167.00	157.00	140.00	139.00	134.00	130.00	127.00	120.00	116.00	111.00	106.00	99.00	98.00	98.00	98.00	98.00	99.00	101.00	101.00	102.00	102.00	103.00	106.00	110.00	120.00	120.00	119.00	121.00	125.00	138.00	144.00	151.00	156.00	180.00	191.00	201.00	216.00	227.00	249.00	246.00	242.00	249.00	276.00	303.00	350.00	380.00	411.00	476.00	505.00	534.00	564.00	619.00	631.00	611.00	585.00	519.00	481.00	468.00	448.00	428.00	388.00	368.00	353.00	341.00	327.00	299.00	290.00	283.00	274.00	265.00	270.00	288.00	318.00	356.00	399.00	357.00	342.00	345.00	372.00	379.00	388.00	399.00	406.00	435.00	450.00	474.00	529.00	607.00	638.00	663.00	670.00	669.00	676.00	671.00	651.00	618.00	518.00	516.00	519.00	509.00	491.00	438.00	427.00	423.00	415.00	392.00	384.00	379.00	381.00	370.00	376.00	388.00	388.00	392.00	457.00	479.00	486.00	490.00	467.00	419.00	391.00	362.00	340.00	325.00	332.00	354.00	381.00	410.00	462.00	440.00	422.00	406.00	380.00	367.00	354.00	343.00	333.00	321.00	308.00	298.00	302.00	311.00	312.00	312.00	311.00	311.00	311.00	310.00	308.00	305.00	317.00	324.00	335.00	350.00	345.00	330.00	332.00	336.00	342.00	374.00	386.00	400.00	418.00	450.00	461.00	472.00	484.00	494.00	546.00	588.00
95.00	96.00	97.00	96.00	95.00	95.00	96.00	95.00	96.00	95.00	95.00	95.00	98.00	98.00	98.00	98.00	97.00	98.00	98.00	98.00	98.00	98.00	98.00	98.00	97.00	93.00	95.00	94.00	93.00	93.00	95.00	96.00	98.00	97.00	96.00	96.00	96.00	97.00	97.00	98.00	98.00	98.00	98.00	104.00	106.00	107.00	115.00	116.00	119.00	118.00	120.00	117.00	112.00	112.00	113.00	114.00	116.00	124.00	132.00	140.00	148.00	172.00	189.00	208.00	228.00	250.00	302.00	329.00	333.00	328.00	317.00	309.00	300.00	294.00	290.00	281.00	271.00	256.00	218.00	181.00	169.00	156.00	149.00	149.00	156.00	166.00	163.00	153.00	132.00	131.00	128.00	125.00	121.00	109.00	104.00	101.00	99.00	98.00	98.00	98.00	98.00	98.00	99.00	101.00	101.00	101.00	103.00	105.00	108.00	115.00	122.00	125.00	127.00	131.00	134.00	144.00	149.00	153.00	162.00	191.00	203.00	215.00	232.00	251.00	293.00	304.00	315.00	324.00	293.00	303.00	343.00	356.00	370.00	427.00	470.00	510.00	556.00	625.00	589.00	554.00	523.00	465.00	407.00	393.00	385.00	372.00	345.00	332.00	318.00	307.00	297.00	276.00	266.00	255.00	251.00	268.00	286.00	306.00	326.00	341.00	365.00	387.00	393.00	400.00	422.00	433.00	444.00	469.00	495.00	525.00	525.00	522.00	538.00	603.00	637.00	651.00	646.00	631.00	605.00	602.00	624.00	633.00	543.00	500.00	482.00	472.00	449.00	423.00	418.00	420.00	429.00	443.00	456.00	496.00	476.00	441.00	362.00	341.00	336.00	342.00	387.00	402.00	409.00	434.00	459.00	414.00	385.00	358.00	338.00	317.00	345.00	382.00	416.00	442.00	437.00	409.00	384.00	362.00	337.00	329.00	323.00	319.00	314.00	307.00	300.00	293.00	294.00	297.00	297.00	297.00	297.00	297.00	305.00	315.00	329.00	347.00	364.00	386.00	404.00	418.00	420.00	373.00	341.00	336.00	345.00	372.00	381.00	393.00	412.00	459.00	486.00	518.00	552.00	577.00	620.00	642.00
95.00	96.00	97.00	96.00	95.00	95.00	96.00	95.00	96.00	95.00	95.00	95.00	98.00	98.00	98.00	98.00	97.00	98.00	98.00	98.00	98.00	98.00	98.00	98.00	97.00	93.00	95.00	94.00	93.00	93.00	95.00	96.00	98.00	97.00	96.00	96.00	96.00	97.00	97.00	98.00	98.00	98.00	98.00	104.00	106.00	107.00	115.00	116.00	119.00	118.00	120.00	117.00	112.00	112.00	113.00	114.00	116.00	124.00	132.00	140.00	148.00	172.00	189.00	208.00	228.00	250.00	302.00	329.00	333.00	328.00	317.00	309.00	300.00	294.00	290.00	281.00	271.00	256.00	218.00	181.00	169.00	156.00	149.00	149.00	156.00	166.00	163.00	153.00	132.00	131.00	128.00	125.00	121.00	109.00	104.00	101.00	99.00	98.00	98.00	98.00	98.00	98.00	99.00	101.00	101.00	101.00	103.00	105.00	108.00	115.00	122.00	125.00	127.00	131.00	134.00	144.00	149.00	153.00	162.00	191.00	203.00	215.00	232.00	251.00	293.00	304.00	315.00	324.00	293.00	303.00	343.00	356.00	370.00	427.00	470.00	510.00	556.00	625.00	589.00	554.00	523.00	465.00	407.00	393.00	385.00	372.00	345.00	332.00	318.00	307.00	297.00	276.00	266.00	255.00	251.00	268.00	286.00	306.00	326.00	341.00	365.00	387.00	393.00	400.00	422.00	433.00	444.00	469.00	495.00	525.00	525.00	522.00	538.00	603.00	637.00	651.00	646.00	631.00	605.00	602.00	624.00	633.00	543.00	500.00	482.00	472.00	449.00	423.00	418.00	420.00	429.00	443.00	456.00	496.00	476.00	441.00	362.00	341.00	336.00	342.00	387.00	402.00	409.00	434.00	459.00	414.00	385.00	358.00	338.00	317.00	345.00	382.00	416.00	442.00	437.00	409.00	384.00	362.00	337.00	329.00	323.00	319.00	314.00	307.00	300.00	293.00	294.00	297.00	297.00	297.00	297.00	297.00	305.00	315.00	329.00	347.00	364.00	386.00	404.00	418.00	420.00	373.00	341.00	336.00	345.00	372.00	381.00	393.00	412.00	459.00	486.00	518.00	552.00	577.00	620.00	642.00
96.00	98.00	96.00	95.00	95.00	95.00	95.00	95.00	95.00	95.00	95.00	97.00	98.00	98.00	98.00	98.00	98.00	98.00	98.00	98.00	98.00	98.00	98.00	97.00	95.00	96.00	95.00	93.00	94.00	94.00	97.00	97.00	96.00	96.00	96.00	98.00	98.00	100.00	105.00	107.00	104.00	106.00	111.00	121.00	119.00	119.00	133.00	132.00	123.00	123.00	124.00	121.00	118.00	118.00	119.00	121.00	124.00	151.00	160.00	166.00	173.00	202.00	214.00	228.00	242.00	259.00	282.00	284.00	280.00	274.00	262.00	253.00	245.00	240.00	236.00	225.00	216.00	208.00	186.00	165.00	158.00	151.00	145.00	142.00	143.00	150.00	154.00	149.00	123.00	122.00	122.00	119.00	112.00	101.00	98.00	97.00	97.00	98.00	98.00	98.00	98.00	98.00	101.00	104.00	105.00	105.00	109.00	111.00	117.00	123.00	129.00	133.00	137.00	141.00	147.00	152.00	156.00	159.00	167.00	198.00	214.00	223.00	240.00	254.00	287.00	305.00	329.00	352.00	380.00	383.00	431.00	457.00	467.00	436.00	462.00	500.00	548.00	610.00	570.00	528.00	477.00	415.00	357.00	341.00	330.00	330.00	314.00	303.00	291.00	277.00	270.00	244.00	242.00	269.00	299.00	274.00	274.00	281.00	287.00	294.00	311.00	338.00	356.00	376.00	420.00	442.00	467.00	490.00	515.00	549.00	550.00	557.00	614.00	631.00	621.00	601.00	576.00	548.00	510.00	550.00	588.00	601.00	564.00	553.00	548.00	541.00	522.00	479.00	510.00	531.00	542.00	555.00	557.00	540.00	511.00	478.00	409.00	392.00	376.00	354.00	324.00	330.00	349.00	378.00	420.00	394.00	365.00	346.00	328.00	314.00	357.00	398.00	426.00	431.00	390.00	373.00	356.00	339.00	312.00	304.00	301.00	299.00	296.00	290.00	285.00	282.00	282.00	292.00	292.00	294.00	295.00	302.00	345.00	366.00	382.00	409.00	431.00	446.00	466.00	477.00	473.00	424.00	385.00	353.00	348.00	366.00	370.00	377.00	397.00	455.00	493.00	535.00	578.00	618.00	675.00	685.00
101.00	102.00	100.00	98.00	97.00	96.00	95.00	95.00	96.00	96.00	97.00	100.00	98.00	98.00	98.00	98.00	98.00	98.00	98.00	98.00	98.00	97.00	96.00	94.00	93.00	95.00	95.00	97.00	94.00	94.00	93.00	93.00	93.00	94.00	96.00	102.00	105.00	111.00	115.00	116.00	120.00	125.00	130.00	132.00	129.00	127.00	141.00	139.00	127.00	127.00	124.00	121.00	123.00	125.00	127.00	132.00	139.00	171.00	183.00	193.00	205.00	234.00	240.00	244.00	248.00	254.00	257.00	251.00	246.00	240.00	232.00	224.00	217.00	211.00	203.00	189.00	182.00	176.00	165.00	153.00	150.00	143.00	138.00	136.00	136.00	141.00	146.00	140.00	119.00	114.00	110.00	108.00	104.00	98.00	97.00	97.00	97.00	98.00	98.00	99.00	100.00	101.00	105.00	107.00	109.00	110.00	116.00	121.00	123.00	132.00	137.00	138.00	139.00	143.00	153.00	172.00	177.00	181.00	184.00	201.00	211.00	216.00	222.00	237.00	263.00	285.00	305.00	330.00	385.00	415.00	486.00	532.00	561.00	570.00	597.00	610.00	610.00	568.00	536.00	509.00	475.00	408.00	345.00	315.00	287.00	284.00	278.00	271.00	263.00	251.00	240.00	241.00	265.00	300.00	326.00	349.00	351.00	355.00	350.00	344.00	339.00	315.00	313.00	320.00	352.00	372.00	394.00	415.00	436.00	452.00	463.00	500.00	541.00	547.00	536.00	517.00	495.00	472.00	530.00	558.00	560.00	541.00	491.00	494.00	499.00	503.00	500.00	534.00	544.00	529.00	517.00	498.00	493.00	479.00	484.00	497.00	484.00	460.00	426.00	395.00	345.00	324.00	311.00	314.00	357.00	386.00	367.00	344.00	324.00	304.00	341.00	375.00	386.00	380.00	346.00	334.00	322.00	311.00	295.00	290.00	287.00	284.00	281.00	275.00	271.00	287.00	313.00	336.00	341.00	338.00	323.00	316.00	328.00	344.00	359.00	394.00	442.00	471.00	492.00	495.00	492.00	445.00	411.00	375.00	355.00	388.00	407.00	429.00	451.00	503.00	537.00	575.00	613.00	644.00	693.00	702.00
101.00	102.00	100.00	98.00	97.00	96.00	95.00	95.00	96.00	96.00	97.00	100.00	98.00	98.00	98.00	98.00	98.00	98.00	98.00	98.00	98.00	97.00	96.00	94.00	93.00	95.00	95.00	97.00	94.00	94.00	93.00	93.00	93.00	94.00	96.00	102.00	105.00	111.00	115.00	116.00	120.00	125.00	130.00	132.00	129.00	127.00	141.00	139.00	127.00	127.00	124.00	121.00	123.00	125.00	127.00	132.00	139.00	171.00	183.00	193.00	205.00	234.00	240.00	244.00	248.00	254.00	257.00	251.00	246.00	240.00	232.00	224.00	217.00	211.00	203.00	189.00	182.00	176.00	165.00	153.00	150.00	143.00	138.00	136.00	136.00	141.00	146.00	140.00	119.00	114.00	110.00	108.00	104.00	98.00	97.00	97.00	97.00	98.00	98.00	99.00	100.00	101.00	105.00	107.00	109.00	110.00	116.00	121.00	123.00	132.00	137.00	138.00	139.00	143.00	153.00	172.00	177.00	181.00	184.00	201.00	211.00	216.00	222.00	237.00	263.00	285.00	305.00	330.00	385.00	415.00	486.00	532.00	561.00	570.00	597.00	610.00	610.00	568.00	536.00	509.00	475.00	408.00	345.00	315.00	287.00	284.00	278.00	271.00	263.00	251.00	240.00	241.00	265.00	300.00	326.00	349.00	351.00	355.00	350.00	344.00	339.00	315.00	313.00	320.00	352.00	372.00	394.00	415.00	436.00	452.00	463.00	500.00	541.00	547.00	536.00	517.00	495.00	472.00	530.00	558.00	560.00	541.00	491.00	494.00	499.00	503.00	500.00	534.00	544.00	529.00	517.00	498.00	493.00	479.00	484.00	497.00	484.00	460.00	426.00	395.00	345.00	324.00	311.00	314.00	357.00	386.00	367.00	344.00	324.00	304.00	341.00	375.00	386.00	380.00	346.00	334.00	322.00	311.00	295.00	290.00	287.00	284.00	281.00	275.00	271.00	287.00	313.00	336.00	341.00	338.00	323.00	316.00	328.00	344.00	359.00	394.00	442.00	471.00	492.00	495.00	492.00	445.00	411.00	375.00	355.00	388.00	407.00	429.00	451.00	503.00	537.00	575.00	613.00	644.00	693.00	702.00
101.00	102.00	100.00	98.00	97.00	96.00	95.00	95.00	96.00	96.00	97.00	100.00	98.00	98.00	98.00	98.00	98.00	98.00	98.00	98.00	98.00	97.00	96.00	94.00	93.00	95.00	95.00	97.00	94.00	94.00	93.00	93.00	93.00	94.00	96.00	102.00	105.00	111.00	115.00	116.00	120.00	125.00	130.00	132.00	129.00	127.00	141.00	139.00	127.00	127.00	124.00	121.00	123.00	125.00	127.00	132.00	139.00	171.00	183.00	193.00	205.00	234.00	240.00	244.00	248.00	254.00	257.00	251.00	246.00	240.00	232.00	224.00	217.00	211.00	203.00	189.00	182.00	176.00	165.00	153.00	150.00	143.00	138.00	136.00	136.00	141.00	146.00	140.00	119.00	114.00	110.00	108.00	104.00	98.00	97.00	97.00	97.00	98.00	98.00	99.00	100.00	101.00	105.00	107.00	109.00	110.00	116.00	121.00	123.00	132.00	137.00	138.00	139.00	143.00	153.00	172.00	177.00	181.00	184.00	201.00	211.00	216.00	222.00	237.00	263.00	285.00	305.00	330.00	385.00	415.00	486.00	532.00	561.00	570.00	597.00	610.00	610.00	568.00	536.00	509.00	475.00	408.00	345.00	315.00	287.00	284.00	278.00	271.00	263.00	251.00	240.00	241.00	265.00	300.00	326.00	349.00	351.00	355.00	350.00	344.00	339.00	315.00	313.00	320.00	352.00	372.00	394.00	415.00	436.00	452.00	463.00	500.00	541.00	547.00	536.00	517.00	495.00	472.00	530.00	558.00	560.00	541.00	491.00	494.00	499.00	503.00	500.00	534.00	544.00	529.00	517.00	498.00	493.00	479.00	484.00	497.00	484.00	460.00	426.00	395.00	345.00	324.00	311.00	314.00	357.00	386.00	367.00	344.00	324.00	304.00	341.00	375.00	386.00	380.00	346.00	334.00	322.00	311.00	295.00	290.00	287.00	284.00	281.00	275.00	271.00	287.00	313.00	336.00	341.00	338.00	323.00	316.00	328.00	344.00	359.00	394.00	442.00	471.00	492.00	495.00	492.00	445.00	411.00	375.00	355.00	388.00	407.00	429.00	451.00	503.00	537.00	575.00	613.00	644.00	693.00	702.00
97.00	97.00	96.00	95.00	95.00	95.00	95.00	96.00	96.00	96.00	97.00	97.00	95.00	95.00	94.00	95.00	97.00	96.00	96.00	95.00	95.00	94.00	93.00	93.00	95.00	96.00	95.00	93.00	95.00	100.00	102.00	104.00	106.00	114.00	117.00	133.00	137.00	138.00	134.00	128.00	136.00	138.00	141.00	142.00	139.00	142.00	146.00	139.00	134.00	124.00	123.00	123.00	128.00	131.00	136.00	148.00	162.00	200.00	210.00	220.00	230.00	243.00	242.00	241.00	242.00	246.00	241.00	232.00	229.00	225.00	212.00	203.00	194.00	187.00	180.00	168.00	163.00	159.00	154.00	151.00	152.00	146.00	137.00	134.00	132.00	135.00	136.00	132.00	113.00	106.00	104.00	103.00	100.00	97.00	97.00	97.00	97.00	97.00	101.00	102.00	104.00	106.00	110.00	113.00	117.00	121.00	122.00	124.00	130.00	137.00	139.00	145.00	151.00	155.00	160.00	177.00	184.00	191.00	197.00	229.00	241.00	254.00	271.00	284.00	303.00	305.00	299.00	308.00	367.00	402.00	483.00	532.00	576.00	649.00	649.00	611.00	562.00	490.00	457.00	425.00	398.00	349.00	308.00	290.00	270.00	257.00	247.00	241.00	235.00	231.00	232.00	298.00	288.00	290.00	298.00	333.00	365.00	400.00	430.00	450.00	464.00	436.00	404.00	356.00	354.00	350.00	344.00	352.00	369.00	384.00	408.00	424.00	438.00	445.00	443.00	439.00	442.00	473.00	540.00	541.00	520.00	487.00	443.00	432.00	420.00	416.00	438.00	525.00	526.00	491.00	445.00	403.00	397.00	389.00	421.00	446.00	478.00	472.00	450.00	420.00	364.00	341.00	324.00	310.00	305.00	360.00	362.00	343.00	325.00	300.00	304.00	320.00	331.00	333.00	312.00	304.00	298.00	292.00	278.00	272.00	272.00	272.00	271.00	292.00	346.00	375.00	398.00	418.00	408.00	385.00	362.00	339.00	330.00	339.00	351.00	373.00	425.00	467.00	492.00	495.00	490.00	445.00	417.00	384.00	360.00	384.00	408.00	435.00	465.00	522.00	554.00	586.00	619.00	645.00	668.00	662.00
96.00	97.00	96.00	94.00	95.00	95.00	94.00	93.00	93.00	93.00	92.00	93.00	93.00	93.00	93.00	94.00	93.00	93.00	93.00	93.00	93.00	95.00	95.00	96.00	97.00	103.00	105.00	113.00	123.00	129.00	130.00	128.00	130.00	141.00	153.00	156.00	155.00	155.00	148.00	147.00	147.00	149.00	149.00	151.00	154.00	155.00	152.00	145.00	139.00	136.00	129.00	128.00	132.00	134.00	143.00	157.00	172.00	215.00	214.00	223.00	231.00	240.00	236.00	233.00	237.00	243.00	244.00	243.00	244.00	245.00	244.00	241.00	234.00	217.00	197.00	163.00	152.00	150.00	147.00	146.00	147.00	144.00	140.00	136.00	127.00	128.00	129.00	126.00	108.00	103.00	100.00	99.00	98.00	97.00	97.00	97.00	97.00	98.00	102.00	105.00	107.00	110.00	117.00	120.00	122.00	125.00	129.00	131.00	134.00	138.00	144.00	149.00	153.00	160.00	167.00	178.00	183.00	190.00	204.00	248.00	267.00	285.00	309.00	336.00	393.00	411.00	411.00	385.00	392.00	441.00	530.00	574.00	602.00	595.00	581.00	552.00	507.00	417.00	388.00	363.00	338.00	300.00	276.00	262.00	248.00	239.00	228.00	222.00	219.00	242.00	266.00	344.00	376.00	398.00	409.00	389.00	370.00	356.00	381.00	425.00	512.00	493.00	448.00	420.00	468.00	450.00	420.00	385.00	372.00	408.00	409.00	414.00	425.00	446.00	461.00	479.00	488.00	490.00	464.00	484.00	516.00	532.00	541.00	515.00	460.00	395.00	394.00	504.00	523.00	517.00	485.00	403.00	370.00	343.00	361.00	380.00	423.00	439.00	442.00	429.00	377.00	355.00	335.00	320.00	297.00	313.00	333.00	332.00	320.00	296.00	289.00	285.00	292.00	299.00	291.00	286.00	283.00	280.00	271.00	269.00	283.00	311.00	331.00	318.00	363.00	394.00	425.00	458.00	444.00	414.00	386.00	363.00	333.00	354.00	379.00	420.00	469.00	491.00	495.00	495.00	489.00	442.00	416.00	390.00	368.00	390.00	408.00	425.00	442.00	487.00	521.00	556.00	591.00	619.00	626.00	607.00
96.00	97.00	96.00	94.00	95.00	95.00	94.00	93.00	93.00	93.00	92.00	93.00	93.00	93.00	93.00	94.00	93.00	93.00	93.00	93.00	93.00	95.00	95.00	96.00	97.00	103.00	105.00	113.00	123.00	129.00	130.00	128.00	130.00	141.00	153.00	156.00	155.00	155.00	148.00	147.00	147.00	149.00	149.00	151.00	154.00	155.00	152.00	145.00	139.00	136.00	129.00	128.00	132.00	134.00	143.00	157.00	172.00	215.00	214.00	223.00	231.00	240.00	236.00	233.00	237.00	243.00	244.00	243.00	244.00	245.00	244.00	241.00	234.00	217.00	197.00	163.00	152.00	150.00	147.00	146.00	147.00	144.00	140.00	136.00	127.00	128.00	129.00	126.00	108.00	103.00	100.00	99.00	98.00	97.00	97.00	97.00	97.00	98.00	102.00	105.00	107.00	110.00	117.00	120.00	122.00	125.00	129.00	131.00	134.00	138.00	144.00	149.00	153.00	160.00	167.00	178.00	183.00	190.00	204.00	248.00	267.00	285.00	309.00	336.00	393.00	411.00	411.00	385.00	392.00	441.00	530.00	574.00	602.00	595.00	581.00	552.00	507.00	417.00	388.00	363.00	338.00	300.00	276.00	262.00	248.00	239.00	228.00	222.00	219.00	242.00	266.00	344.00	376.00	398.00	409.00	389.00	370.00	356.00	381.00	425.00	512.00	493.00	448.00	420.00	468.00	450.00	420.00	385.00	372.00	408.00	409.00	414.00	425.00	446.00	461.00	479.00	488.00	490.00	464.00	484.00	516.00	532.00	541.00	515.00	460.00	395.00	394.00	504.00	523.00	517.00	485.00	403.00	370.00	343.00	361.00	380.00	423.00	439.00	442.00	429.00	377.00	355.00	335.00	320.00	297.00	313.00	333.00	332.00	320.00	296.00	289.00	285.00	292.00	299.00	291.00	286.00	283.00	280.00	271.00	269.00	283.00	311.00	331.00	318.00	363.00	394.00	425.00	458.00	444.00	414.00	386.00	363.00	333.00	354.00	379.00	420.00	469.00	491.00	495.00	495.00	489.00	442.00	416.00	390.00	368.00	390.00	408.00	425.00	442.00	487.00	521.00	556.00	591.00	619.00	626.00	607.00
98.00	99.00	96.00	95.00	94.00	95.00	94.00	93.00	92.00	92.00	92.00	93.00	94.00	94.00	94.00	95.00	96.00	96.00	96.00	95.00	93.00	94.00	98.00	98.00	99.00	115.00	118.00	125.00	137.00	142.00	146.00	152.00	154.00	159.00	166.00	165.00	165.00	165.00	161.00	158.00	157.00	160.00	163.00	163.00	158.00	154.00	154.00	153.00	141.00	136.00	134.00	134.00	138.00	146.00	157.00	168.00	185.00	204.00	201.00	204.00	209.00	212.00	213.00	221.00	232.00	243.00	250.00	254.00	252.00	247.00	234.00	227.00	216.00	201.00	187.00	158.00	152.00	149.00	140.00	140.00	140.00	139.00	139.00	135.00	122.00	124.00	125.00	121.00	104.00	99.00	98.00	98.00	97.00	97.00	97.00	97.00	97.00	98.00	104.00	107.00	109.00	115.00	121.00	123.00	127.00	134.00	137.00	138.00	138.00	142.00	148.00	152.00	159.00	167.00	174.00	188.00	195.00	205.00	217.00	248.00	269.00	292.00	320.00	353.00	423.00	459.00	488.00	486.00	495.00	513.00	557.00	562.00	553.00	491.00	463.00	447.00	414.00	355.00	335.00	317.00	297.00	269.00	245.00	236.00	227.00	219.00	214.00	213.00	243.00	286.00	314.00	397.00	432.00	467.00	497.00	518.00	504.00	457.00	395.00	409.00	528.00	581.00	567.00	557.00	531.00	494.00	453.00	435.00	465.00	528.00	537.00	539.00	549.00	541.00	521.00	492.00	460.00	427.00	405.00	463.00	518.00	569.00	586.00	541.00	483.00	428.00	376.00	409.00	451.00	484.00	493.00	446.00	410.00	347.00	325.00	319.00	344.00	357.00	371.00	378.00	374.00	361.00	344.00	327.00	298.00	279.00	286.00	300.00	307.00	292.00	282.00	273.00	272.00	276.00	275.00	272.00	270.00	268.00	271.00	295.00	333.00	360.00	385.00	390.00	358.00	372.00	409.00	472.00	470.00	450.00	422.00	394.00	348.00	347.00	361.00	403.00	438.00	462.00	483.00	493.00	486.00	441.00	418.00	396.00	380.00	431.00	459.00	484.00	504.00	533.00	549.00	570.00	594.00	613.00	602.00	577.00
98.00	98.00	96.00	93.00	92.00	92.00	92.00	93.00	95.00	96.00	97.00	97.00	97.00	97.00	97.00	98.00	98.00	98.00	97.00	97.00	98.00	103.00	107.00	112.00	117.00	141.00	145.00	147.00	151.00	154.00	160.00	163.00	166.00	175.00	184.00	174.00	171.00	172.00	170.00	170.00	173.00	170.00	173.00	168.00	155.00	154.00	159.00	155.00	142.00	139.00	142.00	146.00	165.00	173.00	179.00	183.00	188.00	186.00	183.00	184.00	186.00	188.00	200.00	214.00	224.00	229.00	231.00	223.00	220.00	215.00	199.00	193.00	186.00	177.00	167.00	152.00	148.00	147.00	142.00	137.00	135.00	135.00	133.00	128.00	121.00	120.00	121.00	113.00	102.00	97.00	97.00	97.00	97.00	97.00	97.00	97.00	97.00	101.00	107.00	112.00	117.00	119.00	132.00	137.00	138.00	138.00	139.00	140.00	142.00	147.00	153.00	156.00	166.00	174.00	180.00	200.00	211.00	226.00	247.00	318.00	321.00	312.00	323.00	368.00	454.00	486.00	523.00	549.00	594.00	598.00	549.00	512.00	466.00	402.00	377.00	359.00	345.00	310.00	293.00	280.00	264.00	242.00	219.00	210.00	206.00	204.00	213.00	233.00	261.00	279.00	292.00	372.00	399.00	432.00	465.00	523.00	533.00	509.00	471.00	475.00	556.00	563.00	546.00	538.00	530.00	529.00	530.00	542.00	569.00	615.00	627.00	628.00	595.00	518.00	480.00	446.00	411.00	370.00	428.00	480.00	527.00	566.00	559.00	520.00	475.00	427.00	381.00	338.00	380.00	425.00	463.00	458.00	441.00	392.00	365.00	337.00	297.00	297.00	303.00	311.00	340.00	343.00	334.00	321.00	295.00	275.00	267.00	270.00	284.00	283.00	276.00	268.00	265.00	265.00	262.00	260.00	260.00	261.00	285.00	308.00	336.00	356.00	386.00	445.00	445.00	433.00	428.00	486.00	496.00	485.00	461.00	430.00	385.00	379.00	376.00	381.00	409.00	428.00	452.00	471.00	472.00	436.00	419.00	401.00	392.00	447.00	479.00	508.00	531.00	557.00	564.00	565.00	569.00	573.00	563.00	547.00
98.00	98.00	96.00	93.00	92.00	92.00	92.00	93.00	95.00	96.00	97.00	97.00	97.00	97.00	97.00	98.00	98.00	98.00	97.00	97.00	98.00	103.00	107.00	112.00	117.00	141.00	145.00	147.00	151.00	154.00	160.00	163.00	166.00	175.00	184.00	174.00	171.00	172.00	170.00	170.00	173.00	170.00	173.00	168.00	155.00	154.00	159.00	155.00	142.00	139.00	142.00	146.00	165.00	173.00	179.00	183.00	188.00	186.00	183.00	184.00	186.00	188.00	200.00	214.00	224.00	229.00	231.00	223.00	220.00	215.00	199.00	193.00	186.00	177.00	167.00	152.00	148.00	147.00	142.00	137.00	135.00	135.00	133.00	128.00	121.00	120.00	121.00	113.00	102.00	97.00	97.00	97.00	97.00	97.00	97.00	97.00	97.00	101.00	107.00	112.00	117.00	119.00	132.00	137.00	138.00	138.00	139.00	140.00	142.00	147.00	153.00	156.00	166.00	174.00	180.00	200.00	211.00	226.00	247.00	318.00	321.00	312.00	323.00	368.00	454.00	486.00	523.00	549.00	594.00	598.00	549.00	512.00	466.00	402.00	377.00	359.00	345.00	310.00	293.00	280.00	264.00	242.00	219.00	210.00	206.00	204.00	213.00	233.00	261.00	279.00	292.00	372.00	399.00	432.00	465.00	523.00	533.00	509.00	471.00	475.00	556.00	563.00	546.00	538.00	530.00	529.00	530.00	542.00	569.00	615.00	627.00	628.00	595.00	518.00	480.00	446.00	411.00	370.00	428.00	480.00	527.00	566.00	559.00	520.00	475.00	427.00	381.00	338.00	380.00	425.00	463.00	458.00	441.00	392.00	365.00	337.00	297.00	297.00	303.00	311.00	340.00	343.00	334.00	321.00	295.00	275.00	267.00	270.00	284.00	283.00	276.00	268.00	265.00	265.00	262.00	260.00	260.00	261.00	285.00	308.00	336.00	356.00	386.00	445.00	445.00	433.00	428.00	486.00	496.00	485.00	461.00	430.00	385.00	379.00	376.00	381.00	409.00	428.00	452.00	471.00	472.00	436.00	419.00	401.00	392.00	447.00	479.00	508.00	531.00	557.00	564.00	565.00	569.00	573.00	563.00	547.00
98.00	98.00	96.00	93.00	92.00	92.00	92.00	93.00	95.00	96.00	97.00	97.00	97.00	97.00	97.00	98.00	98.00	98.00	97.00	97.00	98.00	103.00	107.00	112.00	117.00	141.00	145.00	147.00	151.00	154.00	160.00	163.00	166.00	175.00	184.00	174.00	171.00	172.00	170.00	170.00	173.00	170.00	173.00	168.00	155.00	154.00	159.00	155.00	142.00	139.00	142.00	146.00	165.00	173.00	179.00	183.00	188.00	186.00	183.00	184.00	186.00	188.00	200.00	214.00	224.00	229.00	231.00	223.00	220.00	215.00	199.00	193.00	186.00	177.00	167.00	152.00	148.00	147.00	142.00	137.00	135.00	135.00	133.00	128.00	121.00	120.00	121.00	113.00	102.00	97.00	97.00	97.00	97.00	97.00	97.00	97.00	97.00	101.00	107.00	112.00	117.00	119.00	132.00	137.00	138.00	138.00	139.00	140.00	142.00	147.00	153.00	156.00	166.00	174.00	180.00	200.00	211.00	226.00	247.00	318.00	321.00	312.00	323.00	368.00	454.00	486.00	523.00	549.00	594.00	598.00	549.00	512.00	466.00	402.00	377.00	359.00	345.00	310.00	293.00	280.00	264.00	242.00	219.00	210.00	206.00	204.00	213.00	233.00	261.00	279.00	292.00	372.00	399.00	432.00	465.00	523.00	533.00	509.00	471.00	475.00	556.00	563.00	546.00	538.00	530.00	529.00	530.00	542.00	569.00	615.00	627.00	628.00	595.00	518.00	480.00	446.00	411.00	370.00	428.00	480.00	527.00	566.00	559.00	520.00	475.00	427.00	381.00	338.00	380.00	425.00	463.00	458.00	441.00	392.00	365.00	337.00	297.00	297.00	303.00	311.00	340.00	343.00	334.00	321.00	295.00	275.00	267.00	270.00	284.00	283.00	276.00	268.00	265.00	265.00	262.00	260.00	260.00	261.00	285.00	308.00	336.00	356.00	386.00	445.00	445.00	433.00	428.00	486.00	496.00	485.00	461.00	430.00	385.00	379.00	376.00	381.00	409.00	428.00	452.00	471.00	472.00	436.00	419.00	401.00	392.00	447.00	479.00	508.00	531.00	557.00	564.00	565.00	569.00	573.00	563.00	547.00
93.00	92.00	92.00	93.00	95.00	96.00	97.00	99.00	99.00	98.00	98.00	98.00	99.00	100.00	101.00	105.00	116.00	119.00	121.00	123.00	125.00	134.00	140.00	147.00	150.00	156.00	169.00	170.00	176.00	179.00	184.00	187.00	192.00	201.00	198.00	193.00	191.00	189.00	187.00	184.00	185.00	184.00	185.00	170.00	168.00	167.00	167.00	160.00	150.00	155.00	165.00	174.00	183.00	178.00	173.00	170.00	172.00	168.00	163.00	163.00	161.00	176.00	192.00	201.00	204.00	207.00	208.00	201.00	200.00	197.00	187.00	181.00	173.00	164.00	155.00	156.00	157.00	158.00	162.00	155.00	147.00	144.00	144.00	137.00	121.00	114.00	112.00	108.00	97.00	97.00	97.00	97.00	97.00	97.00	97.00	99.00	100.00	105.00	115.00	119.00	123.00	128.00	140.00	138.00	136.00	137.00	137.00	137.00	140.00	151.00	161.00	167.00	174.00	181.00	190.00	214.00	233.00	265.00	291.00	370.00	401.00	403.00	354.00	387.00	461.00	502.00	544.00	578.00	590.00	556.00	459.00	424.00	390.00	338.00	318.00	304.00	290.00	278.00	267.00	253.00	238.00	218.00	198.00	193.00	195.00	220.00	254.00	255.00	251.00	263.00	281.00	348.00	364.00	377.00	412.00	508.00	546.00	567.00	580.00	586.00	579.00	495.00	450.00	417.00	433.00	456.00	480.00	520.00	563.00	621.00	630.00	608.00	516.00	446.00	413.00	386.00	360.00	328.00	395.00	430.00	466.00	499.00	503.00	464.00	425.00	389.00	358.00	307.00	345.00	390.00	423.00	424.00	400.00	375.00	375.00	366.00	320.00	298.00	280.00	276.00	307.00	314.00	311.00	304.00	283.00	269.00	263.00	257.00	263.00	269.00	264.00	258.00	255.00	256.00	253.00	254.00	259.00	275.00	325.00	340.00	352.00	373.00	407.00	469.00	494.00	500.00	503.00	518.00	520.00	509.00	488.00	466.00	434.00	431.00	425.00	407.00	410.00	418.00	426.00	441.00	453.00	440.00	429.00	410.00	402.00	425.00	449.00	473.00	489.00	493.00	481.00	470.00	474.00	481.00	474.00	468.00
93.00	92.00	92.00	93.00	95.00	96.00	97.00	99.00	99.00	98.00	98.00	98.00	99.00	100.00	101.00	105.00	116.00	119.00	121.00	123.00	125.00	134.00	140.00	147.00	150.00	156.00	169.00	170.00	176.00	179.00	184.00	187.00	192.00	201.00	198.00	193.00	191.00	189.00	187.00	184.00	185.00	184.00	185.00	170.00	168.00	167.00	167.00	160.00	150.00	155.00	165.00	174.00	183.00	178.00	173.00	170.00	172.00	168.00	163.00	163.00	161.00	176.00	192.00	201.00	204.00	207.00	208.00	201.00	200.00	197.00	187.00	181.00	173.00	164.00	155.00	156.00	157.00	158.00	162.00	155.00	147.00	144.00	144.00	137.00	121.00	114.00	112.00	108.00	97.00	97.00	97.00	97.00	97.00	97.00	97.00	99.00	100.00	105.00	115.00	119.00	123.00	128.00	140.00	138.00	136.00	137.00	137.00	137.00	140.00	151.00	161.00	167.00	174.00	181.00	190.00	214.00	233.00	265.00	291.00	370.00	401.00	403.00	354.00	387.00	461.00	502.00	544.00	578.00	590.00	556.00	459.00	424.00	390.00	338.00	318.00	304.00	290.00	278.00	267.00	253.00	238.00	218.00	198.00	193.00	195.00	220.00	254.00	255.00	251.00	263.00	281.00	348.00	364.00	377.00	412.00	508.00	546.00	567.00	580.00	586.00	579.00	495.00	450.00	417.00	433.00	456.00	480.00	520.00	563.00	621.00	630.00	608.00	516.00	446.00	413.00	386.00	360.00	328.00	395.00	430.00	466.00	499.00	503.00	464.00	425.00	389.00	358.00	307.00	345.00	390.00	423.00	424.00	400.00	375.00	375.00	366.00	320.00	298.00	280.00	276.00	307.00	314.00	311.00	304.00	283.00	269.00	263.00	257.00	263.00	269.00	264.00	258.00	255.00	256.00	253.00	254.00	259.00	275.00	325.00	340.00	352.00	373.00	407.00	469.00	494.00	500.00	503.00	518.00	520.00	509.00	488.00	466.00	434.00	431.00	425.00	407.00	410.00	418.00	426.00	441.00	453.00	440.00	429.00	410.00	402.00	425.00	449.00	473.00	489.00	493.00	481.00	470.00	474.00	481.00	474.00	468.00
92.00	95.00	99.00	98.00	99.00	98.00	98.00	99.00	99.00	99.00	102.00	108.00	119.00	123.00	127.00	134.00	146.00	154.00	160.00	165.00	167.00	174.00	178.00	179.00	182.00	192.00	202.00	214.00	223.00	229.00	241.00	241.00	245.00	248.00	230.00	221.00	214.00	210.00	208.00	202.00	198.00	188.00	183.00	179.00	178.00	173.00	167.00	161.00	165.00	171.00	174.00	170.00	161.00	157.00	149.00	145.00	147.00	155.00	146.00	142.00	141.00	166.00	175.00	178.00	180.00	184.00	180.00	189.00	192.00	187.00	175.00	169.00	169.00	170.00	171.00	178.00	185.00	191.00	191.00	176.00	163.00	148.00	138.00	130.00	119.00	111.00	107.00	105.00	97.00	97.00	97.00	97.00	97.00	97.00	98.00	101.00	107.00	111.00	117.00	120.00	123.00	126.00	128.00	126.00	130.00	133.00	135.00	137.00	143.00	153.00	170.00	176.00	184.00	194.00	206.00	261.00	297.00	308.00	317.00	433.00	472.00	491.00	454.00	452.00	528.00	557.00	582.00	597.00	534.00	489.00	408.00	377.00	352.00	314.00	296.00	279.00	265.00	239.00	235.00	236.00	221.00	191.00	183.00	188.00	220.00	262.00	320.00	332.00	331.00	314.00	312.00	450.00	483.00	490.00	486.00	567.00	600.00	620.00	616.00	592.00	550.00	519.00	480.00	425.00	350.00	375.00	414.00	452.00	485.00	544.00	572.00	578.00	511.00	440.00	406.00	369.00	331.00	305.00	350.00	377.00	407.00	438.00	471.00	444.00	414.00	378.00	345.00	299.00	312.00	353.00	389.00	402.00	374.00	318.00	324.00	331.00	309.00	294.00	281.00	268.00	270.00	274.00	274.00	272.00	262.00	259.00	257.00	255.00	256.00	254.00	253.00	252.00	252.00	252.00	253.00	262.00	272.00	287.00	325.00	341.00	354.00	376.00	408.00	448.00	456.00	452.00	454.00	471.00	472.00	465.00	456.00	446.00	424.00	410.00	394.00	367.00	355.00	355.00	369.00	390.00	408.00	400.00	385.00	369.00	351.00	367.00	388.00	410.00	431.00	414.00	389.00	367.00	372.00	381.00	372.00	397.00
92.00	95.00	99.00	98.00	99.00	98.00	98.00	99.00	99.00	99.00	102.00	108.00	119.00	123.00	127.00	134.00	146.00	154.00	160.00	165.00	167.00	174.00	178.00	179.00	182.00	192.00	202.00	214.00	223.00	229.00	241.00	241.00	245.00	248.00	230.00	221.00	214.00	210.00	208.00	202.00	198.00	188.00	183.00	179.00	178.00	173.00	167.00	161.00	165.00	171.00	174.00	170.00	161.00	157.00	149.00	145.00	147.00	155.00	146.00	142.00	141.00	166.00	175.00	178.00	180.00	184.00	180.00	189.00	192.00	187.00	175.00	169.00	169.00	170.00	171.00	178.00	185.00	191.00	191.00	176.00	163.00	148.00	138.00	130.00	119.00	111.00	107.00	105.00	97.00	97.00	97.00	97.00	97.00	97.00	98.00	101.00	107.00	111.00	117.00	120.00	123.00	126.00	128.00	126.00	130.00	133.00	135.00	137.00	143.00	153.00	170.00	176.00	184.00	194.00	206.00	261.00	297.00	308.00	317.00	433.00	472.00	491.00	454.00	452.00	528.00	557.00	582.00	597.00	534.00	489.00	408.00	377.00	352.00	314.00	296.00	279.00	265.00	239.00	235.00	236.00	221.00	191.00	183.00	188.00	220.00	262.00	320.00	332.00	331.00	314.00	312.00	450.00	483.00	490.00	486.00	567.00	600.00	620.00	616.00	592.00	550.00	519.00	480.00	425.00	350.00	375.00	414.00	452.00	485.00	544.00	572.00	578.00	511.00	440.00	406.00	369.00	331.00	305.00	350.00	377.00	407.00	438.00	471.00	444.00	414.00	378.00	345.00	299.00	312.00	353.00	389.00	402.00	374.00	318.00	324.00	331.00	309.00	294.00	281.00	268.00	270.00	274.00	274.00	272.00	262.00	259.00	257.00	255.00	256.00	254.00	253.00	252.00	252.00	252.00	253.00	262.00	272.00	287.00	325.00	341.00	354.00	376.00	408.00	448.00	456.00	452.00	454.00	471.00	472.00	465.00	456.00	446.00	424.00	410.00	394.00	367.00	355.00	355.00	369.00	390.00	408.00	400.00	385.00	369.00	351.00	367.00	388.00	410.00	431.00	414.00	389.00	367.00	372.00	381.00	372.00	397.00
98.00	102.00	101.00	99.00	99.00	98.00	99.00	99.00	103.00	113.00	125.00	136.00	157.00	166.00	173.00	178.00	182.00	191.00	200.00	208.00	215.00	221.00	221.00	217.00	214.00	226.00	240.00	252.00	263.00	272.00	290.00	295.00	296.00	290.00	282.00	264.00	250.00	239.00	232.00	221.00	213.00	206.00	198.00	183.00	180.00	174.00	163.00	154.00	152.00	148.00	144.00	139.00	132.00	130.00	126.00	124.00	127.00	142.00	130.00	130.00	136.00	153.00	158.00	160.00	161.00	161.00	175.00	190.00	196.00	195.00	180.00	179.00	182.00	187.00	192.00	200.00	203.00	202.00	186.00	163.00	149.00	131.00	120.00	115.00	111.00	108.00	106.00	100.00	97.00	97.00	97.00	97.00	97.00	99.00	100.00	104.00	107.00	116.00	121.00	122.00	122.00	122.00	126.00	129.00	132.00	135.00	140.00	145.00	152.00	162.00	179.00	188.00	201.00	216.00	235.00	303.00	351.00	404.00	429.00	485.00	529.00	552.00	549.00	550.00	593.00	605.00	598.00	562.00	465.00	424.00	362.00	340.00	320.00	283.00	266.00	265.00	267.00	238.00	216.00	204.00	190.00	182.00	193.00	218.00	242.00	261.00	323.00	357.00	393.00	414.00	424.00	495.00	555.00	607.00	638.00	666.00	647.00	621.00	576.00	524.00	418.00	402.00	388.00	359.00	311.00	337.00	362.00	385.00	417.00	520.00	566.00	591.00	521.00	429.00	396.00	360.00	327.00	302.00	313.00	336.00	362.00	392.00	435.00	413.00	390.00	365.00	338.00	287.00	282.00	321.00	360.00	366.00	341.00	297.00	279.00	277.00	269.00	265.00	263.00	259.00	254.00	254.00	253.00	252.00	249.00	248.00	248.00	248.00	251.00	254.00	259.00	267.00	273.00	287.00	267.00	265.00	272.00	283.00	306.00	318.00	334.00	346.00	356.00	381.00	391.00	390.00	397.00	411.00	409.00	403.00	394.00	385.00	363.00	349.00	331.00	297.00	283.00	304.00	341.00	362.00	362.00	338.00	321.00	306.00	286.00	311.00	336.00	356.00	367.00	350.00	330.00	308.00	304.00	311.00	346.00	377.00
103.00	103.00	102.00	99.00	99.00	99.00	99.00	104.00	115.00	130.00	145.00	161.00	196.00	215.00	229.00	235.00	229.00	235.00	244.00	255.00	265.00	274.00	268.00	259.00	249.00	242.00	252.00	261.00	269.00	275.00	290.00	297.00	299.00	301.00	307.00	305.00	291.00	275.00	255.00	226.00	219.00	212.00	206.00	194.00	185.00	177.00	154.00	140.00	123.00	120.00	116.00	113.00	111.00	109.00	109.00	108.00	110.00	120.00	116.00	118.00	124.00	132.00	137.00	140.00	151.00	166.00	190.00	201.00	202.00	202.00	188.00	196.00	200.00	202.00	203.00	194.00	185.00	176.00	148.00	124.00	116.00	111.00	106.00	104.00	103.00	101.00	99.00	97.00	97.00	97.00	97.00	99.00	100.00	105.00	108.00	110.00	115.00	123.00	130.00	130.00	130.00	131.00	137.00	142.00	146.00	151.00	153.00	155.00	163.00	177.00	197.00	211.00	230.00	256.00	289.00	375.00	394.00	425.00	463.00	529.00	532.00	542.00	556.00	559.00	554.00	545.00	522.00	495.00	423.00	388.00	331.00	313.00	302.00	271.00	252.00	236.00	221.00	211.00	199.00	188.00	182.00	185.00	231.00	243.00	261.00	285.00	352.00	396.00	446.00	487.00	518.00	574.00	592.00	612.00	617.00	612.00	605.00	575.00	532.00	485.00	391.00	317.00	298.00	295.00	372.00	413.00	445.00	457.00	458.00	476.00	498.00	530.00	509.00	437.00	412.00	386.00	350.00	307.00	279.00	305.00	338.00	374.00	404.00	375.00	352.00	335.00	317.00	280.00	264.00	271.00	298.00	297.00	286.00	268.00	262.00	257.00	253.00	250.00	248.00	249.00	248.00	246.00	245.00	246.00	249.00	253.00	257.00	265.00	272.00	306.00	331.00	359.00	373.00	367.00	297.00	278.00	272.00	276.00	291.00	297.00	306.00	315.00	324.00	338.00	346.00	352.00	358.00	367.00	364.00	358.00	346.00	329.00	293.00	279.00	267.00	246.00	293.00	320.00	330.00	321.00	301.00	268.00	257.00	248.00	241.00	278.00	290.00	301.00	306.00	289.00	274.00	267.00	281.00	323.00	405.00	439.00
103.00	103.00	102.00	99.00	99.00	99.00	99.00	104.00	115.00	130.00	145.00	161.00	196.00	215.00	229.00	235.00	229.00	235.00	244.00	255.00	265.00	274.00	268.00	259.00	249.00	242.00	252.00	261.00	269.00	275.00	290.00	297.00	299.00	301.00	307.00	305.00	291.00	275.00	255.00	226.00	219.00	212.00	206.00	194.00	185.00	177.00	154.00	140.00	123.00	120.00	116.00	113.00	111.00	109.00	109.00	108.00	110.00	120.00	116.00	118.00	124.00	132.00	137.00	140.00	151.00	166.00	190.00	201.00	202.00	202.00	188.00	196.00	200.00	202.00	203.00	194.00	185.00	176.00	148.00	124.00	116.00	111.00	106.00	104.00	103.00	101.00	99.00	97.00	97.00	97.00	97.00	99.00	100.00	105.00	108.00	110.00	115.00	123.00	130.00	130.00	130.00	131.00	137.00	142.00	146.00	151.00	153.00	155.00	163.00	177.00	197.00	211.00	230.00	256.00	289.00	375.00	394.00	425.00	463.00	529.00	532.00	542.00	556.00	559.00	554.00	545.00	522.00	495.00	423.00	388.00	331.00	313.00	302.00	271.00	252.00	236.00	221.00	211.00	199.00	188.00	182.00	185.00	231.00	243.00	261.00	285.00	352.00	396.00	446.00	487.00	518.00	574.00	592.00	612.00	617.00	612.00	605.00	575.00	532.00	485.00	391.00	317.00	298.00	295.00	372.00	413.00	445.00	457.00	458.00	476.00	498.00	530.00	509.00	437.00	412.00	386.00	350.00	307.00	279.00	305.00	338.00	374.00	404.00	375.00	352.00	335.00	317.00	280.00	264.00	271.00	298.00	297.00	286.00	268.00	262.00	257.00	253.00	250.00	248.00	249.00	248.00	246.00	245.00	246.00	249.00	253.00	257.00	265.00	272.00	306.00	331.00	359.00	373.00	367.00	297.00	278.00	272.00	276.00	291.00	297.00	306.00	315.00	324.00	338.00	346.00	352.00	358.00	367.00	364.00	358.00	346.00	329.00	293.00	279.00	267.00	246.00	293.00	320.00	330.00	321.00	301.00	268.00	257.00	248.00	241.00	278.00	290.00	301.00	306.00	289.00	274.00	267.00	281.00	323.00	405.00	439.00
105.00	106.00	102.00	99.00	99.00	99.00	101.00	115.00	126.00	139.00	156.00	175.00	219.00	249.00	278.00	297.00	283.00	276.00	275.00	285.00	285.00	265.00	252.00	239.00	229.00	221.00	227.00	237.00	248.00	253.00	260.00	263.00	267.00	272.00	282.00	296.00	284.00	260.00	241.00	217.00	211.00	208.00	207.00	205.00	201.00	192.00	166.00	150.00	122.00	114.00	108.00	106.00	106.00	105.00	103.00	104.00	104.00	106.00	107.00	108.00	109.00	124.00	135.00	149.00	165.00	179.00	194.00	200.00	199.00	195.00	188.00	184.00	180.00	176.00	180.00	159.00	142.00	137.00	115.00	105.00	101.00	99.00	98.00	98.00	97.00	97.00	97.00	97.00	98.00	98.00	99.00	102.00	106.00	113.00	118.00	122.00	127.00	135.00	143.00	146.00	148.00	150.00	156.00	158.00	162.00	166.00	170.00	174.00	181.00	200.00	242.00	274.00	304.00	323.00	344.00	417.00	450.00	465.00	474.00	451.00	444.00	469.00	484.00	487.00	467.00	441.00	415.00	398.00	361.00	338.00	297.00	274.00	258.00	237.00	224.00	217.00	207.00	183.00	180.00	176.00	172.00	180.00	239.00	258.00	290.00	330.00	423.00	453.00	479.00	486.00	488.00	473.00	469.00	474.00	465.00	453.00	471.00	476.00	476.00	461.00	379.00	292.00	270.00	313.00	411.00	427.00	424.00	404.00	374.00	350.00	394.00	409.00	395.00	355.00	340.00	335.00	326.00	301.00	254.00	279.00	304.00	327.00	331.00	311.00	297.00	289.00	280.00	266.00	258.00	251.00	252.00	254.00	252.00	248.00	245.00	244.00	245.00	245.00	243.00	244.00	246.00	259.00	274.00	280.00	268.00	303.00	321.00	332.00	342.00	398.00	420.00	419.00	398.00	371.00	307.00	289.00	281.00	296.00	318.00	314.00	310.00	307.00	308.00	319.00	328.00	332.00	336.00	342.00	341.00	329.00	312.00	298.00	278.00	259.00	240.00	228.00	267.00	277.00	275.00	262.00	247.00	227.00	221.00	217.00	220.00	248.00	252.00	254.00	254.00	246.00	254.00	277.00	314.00	357.00	420.00	425.00
105.00	106.00	102.00	99.00	99.00	99.00	101.00	115.00	126.00	139.00	156.00	175.00	219.00	249.00	278.00	297.00	283.00	276.00	275.00	285.00	285.00	265.00	252.00	239.00	229.00	221.00	227.00	237.00	248.00	253.00	260.00	263.00	267.00	272.00	282.00	296.00	284.00	260.00	241.00	217.00	211.00	208.00	207.00	205.00	201.00	192.00	166.00	150.00	122.00	114.00	108.00	106.00	106.00	105.00	103.00	104.00	104.00	106.00	107.00	108.00	109.00	124.00	135.00	149.00	165.00	179.00	194.00	200.00	199.00	195.00	188.00	184.00	180.00	176.00	180.00	159.00	142.00	137.00	115.00	105.00	101.00	99.00	98.00	98.00	97.00	97.00	97.00	97.00	98.00	98.00	99.00	102.00	106.00	113.00	118.00	122.00	127.00	135.00	143.00	146.00	148.00	150.00	156.00	158.00	162.00	166.00	170.00	174.00	181.00	200.00	242.00	274.00	304.00	323.00	344.00	417.00	450.00	465.00	474.00	451.00	444.00	469.00	484.00	487.00	467.00	441.00	415.00	398.00	361.00	338.00	297.00	274.00	258.00	237.00	224.00	217.00	207.00	183.00	180.00	176.00	172.00	180.00	239.00	258.00	290.00	330.00	423.00	453.00	479.00	486.00	488.00	473.00	469.00	474.00	465.00	453.00	471.00	476.00	476.00	461.00	379.00	292.00	270.00	313.00	411.00	427.00	424.00	404.00	374.00	350.00	394.00	409.00	395.00	355.00	340.00	335.00	326.00	301.00	254.00	279.00	304.00	327.00	331.00	311.00	297.00	289.00	280.00	266.00	258.00	251.00	252.00	254.00	252.00	248.00	245.00	244.00	245.00	245.00	243.00	244.00	246.00	259.00	274.00	280.00	268.00	303.00	321.00	332.00	342.00	398.00	420.00	419.00	398.00	371.00	307.00	289.00	281.00	296.00	318.00	314.00	310.00	307.00	308.00	319.00	328.00	332.00	336.00	342.00	341.00	329.00	312.00	298.00	278.00	259.00	240.00	228.00	267.00	277.00	275.00	262.00	247.00	227.00	221.00	217.00	220.00	248.00	252.00	254.00	254.00	246.00	254.00	277.00	314.00	357.00	420.00	425.00
104.00	106.00	102.00	99.00	106.00	115.00	131.00	160.00	167.00	176.00	187.00	197.00	227.00	247.00	266.00	277.00	269.00	263.00	256.00	253.00	245.00	225.00	216.00	208.00	201.00	200.00	209.00	216.00	221.00	225.00	220.00	215.00	216.00	221.00	233.00	252.00	254.00	233.00	212.00	184.00	179.00	189.00	203.00	220.00	217.00	208.00	174.00	159.00	133.00	123.00	111.00	104.00	101.00	98.00	98.00	97.00	99.00	103.00	104.00	104.00	108.00	128.00	140.00	152.00	163.00	170.00	177.00	180.00	184.00	188.00	183.00	166.00	145.00	137.00	137.00	126.00	111.00	103.00	102.00	99.00	97.00	97.00	97.00	97.00	97.00	97.00	97.00	97.00	102.00	104.00	105.00	109.00	113.00	122.00	125.00	130.00	135.00	146.00	155.00	159.00	162.00	165.00	172.00	175.00	180.00	184.00	195.00	204.00	220.00	257.00	306.00	335.00	361.00	385.00	399.00	423.00	421.00	412.00	412.00	386.00	387.00	407.00	421.00	438.00	449.00	428.00	391.00	344.00	291.00	281.00	253.00	234.00	213.00	185.00	177.00	177.00	187.00	173.00	171.00	170.00	170.00	171.00	205.00	236.00	260.00	265.00	288.00	307.00	325.00	333.00	333.00	309.00	300.00	303.00	315.00	318.00	325.00	331.00	338.00	344.00	325.00	264.00	249.00	300.00	348.00	339.00	329.00	322.00	307.00	286.00	291.00	283.00	271.00	254.00	248.00	249.00	254.00	253.00	240.00	249.00	256.00	260.00	249.00	242.00	235.00	235.00	235.00	235.00	234.00	235.00	234.00	238.00	237.00	237.00	238.00	239.00	248.00	258.00	258.00	250.00	285.00	311.00	335.00	345.00	323.00	328.00	366.00	399.00	429.00	461.00	448.00	419.00	389.00	362.00	304.00	297.00	303.00	328.00	376.00	383.00	370.00	348.00	342.00	340.00	340.00	336.00	331.00	330.00	334.00	338.00	342.00	341.00	311.00	292.00	269.00	224.00	217.00	220.00	219.00	216.00	212.00	206.00	203.00	201.00	205.00	219.00	221.00	225.00	234.00	260.00	283.00	318.00	349.00	362.00	356.00	351.00
104.00	106.00	102.00	99.00	106.00	115.00	131.00	160.00	167.00	176.00	187.00	197.00	227.00	247.00	266.00	277.00	269.00	263.00	256.00	253.00	245.00	225.00	216.00	208.00	201.00	200.00	209.00	216.00	221.00	225.00	220.00	215.00	216.00	221.00	233.00	252.00	254.00	233.00	212.00	184.00	179.00	189.00	203.00	220.00	217.00	208.00	174.00	159.00	133.00	123.00	111.00	104.00	101.00	98.00	98.00	97.00	99.00	103.00	104.00	104.00	108.00	128.00	140.00	152.00	163.00	170.00	177.00	180.00	184.00	188.00	183.00	166.00	145.00	137.00	137.00	126.00	111.00	103.00	102.00	99.00	97.00	97.00	97.00	97.00	97.00	97.00	97.00	97.00	102.00	104.00	105.00	109.00	113.00	122.00	125.00	130.00	135.00	146.00	155.00	159.00	162.00	165.00	172.00	175.00	180.00	184.00	195.00	204.00	220.00	257.00	306.00	335.00	361.00	385.00	399.00	423.00	421.00	412.00	412.00	386.00	387.00	407.00	421.00	438.00	449.00	428.00	391.00	344.00	291.00	281.00	253.00	234.00	213.00	185.00	177.00	177.00	187.00	173.00	171.00	170.00	170.00	171.00	205.00	236.00	260.00	265.00	288.00	307.00	325.00	333.00	333.00	309.00	300.00	303.00	315.00	318.00	325.00	331.00	338.00	344.00	325.00	264.00	249.00	300.00	348.00	339.00	329.00	322.00	307.00	286.00	291.00	283.00	271.00	254.00	248.00	249.00	254.00	253.00	240.00	249.00	256.00	260.00	249.00	242.00	235.00	235.00	235.00	235.00	234.00	235.00	234.00	238.00	237.00	237.00	238.00	239.00	248.00	258.00	258.00	250.00	285.00	311.00	335.00	345.00	323.00	328.00	366.00	399.00	429.00	461.00	448.00	419.00	389.00	362.00	304.00	297.00	303.00	328.00	376.00	383.00	370.00	348.00	342.00	340.00	340.00	336.00	331.00	330.00	334.00	338.00	342.00	341.00	311.00	292.00	269.00	224.00	217.00	220.00	219.00	216.00	212.00	206.00	203.00	201.00	205.00	219.00	221.00	225.00	234.00	260.00	283.00	318.00	349.00	362.00	356.00	351.00
102.00	106.00	102.00	111.00	156.00	173.00	180.00	205.00	209.00	212.00	219.00	221.00	226.00	238.00	255.00	240.00	221.00	216.00	211.00	206.00	201.00	189.00	183.00	178.00	173.00	182.00	191.00	195.00	196.00	195.00	188.00	183.00	184.00	185.00	184.00	202.00	218.00	212.00	186.00	153.00	175.00	206.00	222.00	228.00	229.00	231.00	214.00	200.00	164.00	140.00	121.00	103.00	98.00	100.00	101.00	101.00	99.00	101.00	104.00	106.00	111.00	120.00	124.00	128.00	134.00	144.00	149.00	165.00	172.00	175.00	165.00	144.00	127.00	115.00	107.00	102.00	98.00	97.00	98.00	97.00	97.00	97.00	97.00	97.00	97.00	97.00	98.00	99.00	107.00	110.00	111.00	115.00	119.00	127.00	132.00	137.00	142.00	156.00	167.00	171.00	176.00	180.00	192.00	200.00	210.00	221.00	249.00	264.00	282.00	315.00	356.00	370.00	376.00	377.00	364.00	378.00	381.00	349.00	331.00	339.00	362.00	385.00	399.00	394.00	354.00	328.00	308.00	287.00	239.00	225.00	199.00	179.00	170.00	168.00	168.00	168.00	170.00	170.00	170.00	170.00	170.00	172.00	175.00	178.00	182.00	184.00	184.00	183.00	184.00	191.00	197.00	195.00	201.00	199.00	202.00	211.00	205.00	206.00	209.00	210.00	222.00	230.00	227.00	249.00	254.00	242.00	234.00	233.00	230.00	230.00	222.00	219.00	218.00	216.00	219.00	221.00	222.00	223.00	229.00	229.00	229.00	230.00	229.00	233.00	234.00	235.00	234.00	230.00	229.00	229.00	229.00	230.00	229.00	242.00	253.00	278.00	322.00	327.00	314.00	289.00	302.00	332.00	367.00	398.00	412.00	368.00	397.00	439.00	464.00	456.00	430.00	401.00	373.00	351.00	304.00	319.00	338.00	361.00	417.00	433.00	432.00	423.00	422.00	407.00	380.00	369.00	356.00	350.00	348.00	343.00	339.00	335.00	320.00	309.00	298.00	255.00	210.00	200.00	199.00	199.00	198.00	197.00	195.00	196.00	199.00	218.00	228.00	241.00	259.00	313.00	338.00	335.00	312.00	295.00	316.00	362.00
102.00	106.00	102.00	111.00	156.00	173.00	180.00	205.00	209.00	212.00	219.00	221.00	226.00	238.00	255.00	240.00	221.00	216.00	211.00	206.00	201.00	189.00	183.00	178.00	173.00	182.00	191.00	195.00	196.00	195.00	188.00	183.00	184.00	185.00	184.00	202.00	218.00	212.00	186.00	153.00	175.00	206.00	222.00	228.00	229.00	231.00	214.00	200.00	164.00	140.00	121.00	103.00	98.00	100.00	101.00	101.00	99.00	101.00	104.00	106.00	111.00	120.00	124.00	128.00	134.00	144.00	149.00	165.00	172.00	175.00	165.00	144.00	127.00	115.00	107.00	102.00	98.00	97.00	98.00	97.00	97.00	97.00	97.00	97.00	97.00	97.00	98.00	99.00	107.00	110.00	111.00	115.00	119.00	127.00	132.00	137.00	142.00	156.00	167.00	171.00	176.00	180.00	192.00	200.00	210.00	221.00	249.00	264.00	282.00	315.00	356.00	370.00	376.00	377.00	364.00	378.00	381.00	349.00	331.00	339.00	362.00	385.00	399.00	394.00	354.00	328.00	308.00	287.00	239.00	225.00	199.00	179.00	170.00	168.00	168.00	168.00	170.00	170.00	170.00	170.00	170.00	172.00	175.00	178.00	182.00	184.00	184.00	183.00	184.00	191.00	197.00	195.00	201.00	199.00	202.00	211.00	205.00	206.00	209.00	210.00	222.00	230.00	227.00	249.00	254.00	242.00	234.00	233.00	230.00	230.00	222.00	219.00	218.00	216.00	219.00	221.00	222.00	223.00	229.00	229.00	229.00	230.00	229.00	233.00	234.00	235.00	234.00	230.00	229.00	229.00	229.00	230.00	229.00	242.00	253.00	278.00	322.00	327.00	314.00	289.00	302.00	332.00	367.00	398.00	412.00	368.00	397.00	439.00	464.00	456.00	430.00	401.00	373.00	351.00	304.00	319.00	338.00	361.00	417.00	433.00	432.00	423.00	422.00	407.00	380.00	369.00	356.00	350.00	348.00	343.00	339.00	335.00	320.00	309.00	298.00	255.00	210.00	200.00	199.00	199.00	198.00	197.00	195.00	196.00	199.00	218.00	228.00	241.00	259.00	313.00	338.00	335.00	312.00	295.00	316.00	362.00
104.00	113.00	113.00	133.00	159.00	171.00	173.00	167.00	169.00	174.00	180.00	183.00	176.00	182.00	191.00	197.00	181.00	174.00	170.00	166.00	163.00	157.00	155.00	153.00	151.00	165.00	173.00	179.00	182.00	181.00	177.00	170.00	162.00	158.00	152.00	161.00	166.00	161.00	140.00	150.00	187.00	197.00	185.00	182.00	196.00	221.00	231.00	209.00	153.00	118.00	100.00	99.00	103.00	101.00	101.00	101.00	101.00	98.00	102.00	105.00	106.00	106.00	106.00	109.00	118.00	126.00	124.00	136.00	132.00	131.00	124.00	114.00	107.00	101.00	98.00	97.00	97.00	97.00	97.00	97.00	98.00	98.00	98.00	98.00	99.00	100.00	101.00	104.00	113.00	116.00	117.00	120.00	124.00	133.00	138.00	143.00	149.00	165.00	180.00	186.00	194.00	202.00	221.00	233.00	250.00	270.00	301.00	318.00	333.00	361.00	364.00	364.00	361.00	337.00	309.00	344.00	344.00	323.00	292.00	342.00	353.00	350.00	345.00	315.00	245.00	229.00	217.00	212.00	194.00	182.00	170.00	168.00	168.00	169.00	179.00	193.00	189.00	216.00	206.00	197.00	199.00	226.00	257.00	258.00	259.00	256.00	216.00	227.00	217.00	213.00	222.00	218.00	218.00	216.00	213.00	216.00	220.00	222.00	218.00	215.00	211.00	205.00	209.00	213.00	217.00	218.00	217.00	217.00	217.00	217.00	219.00	226.00	234.00	235.00	235.00	233.00	231.00	229.00	231.00	230.00	229.00	230.00	248.00	261.00	265.00	264.00	259.00	263.00	264.00	262.00	258.00	249.00	277.00	335.00	368.00	397.00	410.00	385.00	350.00	319.00	314.00	348.00	390.00	434.00	488.00	485.00	487.00	490.00	476.00	421.00	392.00	366.00	347.00	331.00	321.00	334.00	354.00	376.00	423.00	447.00	471.00	486.00	489.00	457.00	399.00	370.00	342.00	308.00	315.00	310.00	301.00	289.00	267.00	259.00	254.00	239.00	210.00	199.00	193.00	190.00	188.00	190.00	194.00	201.00	207.00	240.00	253.00	269.00	299.00	344.00	322.00	287.00	254.00	255.00	318.00	361.00
107.00	104.00	105.00	114.00	131.00	141.00	146.00	137.00	133.00	132.00	131.00	134.00	139.00	145.00	156.00	172.00	149.00	141.00	138.00	137.00	136.00	133.00	132.00	131.00	134.00	178.00	194.00	205.00	210.00	215.00	206.00	193.00	186.00	191.00	186.00	158.00	135.00	123.00	118.00	120.00	119.00	119.00	119.00	122.00	126.00	138.00	141.00	127.00	104.00	98.00	100.00	104.00	104.00	102.00	102.00	101.00	101.00	97.00	100.00	103.00	104.00	104.00	105.00	106.00	108.00	108.00	110.00	108.00	106.00	105.00	101.00	99.00	98.00	98.00	98.00	98.00	98.00	98.00	98.00	98.00	98.00	98.00	98.00	99.00	102.00	104.00	106.00	108.00	121.00	121.00	121.00	124.00	128.00	136.00	143.00	149.00	156.00	175.00	194.00	203.00	211.00	221.00	249.00	265.00	282.00	296.00	329.00	337.00	338.00	342.00	329.00	316.00	336.00	336.00	307.00	286.00	283.00	277.00	287.00	320.00	285.00	256.00	259.00	218.00	164.00	169.00	167.00	163.00	154.00	160.00	180.00	182.00	182.00	212.00	242.00	257.00	231.00	250.00	271.00	280.00	284.00	307.00	343.00	347.00	339.00	310.00	253.00	284.00	299.00	311.00	319.00	293.00	272.00	253.00	238.00	275.00	284.00	277.00	261.00	244.00	238.00	231.00	228.00	234.00	240.00	244.00	250.00	252.00	243.00	247.00	242.00	249.00	271.00	269.00	256.00	254.00	270.00	276.00	276.00	281.00	269.00	254.00	320.00	335.00	341.00	329.00	303.00	335.00	351.00	341.00	319.00	273.00	292.00	354.00	400.00	436.00	435.00	413.00	387.00	367.00	374.00	392.00	406.00	440.00	520.00	553.00	545.00	516.00	480.00	411.00	380.00	358.00	343.00	344.00	368.00	362.00	357.00	362.00	398.00	426.00	465.00	492.00	495.00	450.00	374.00	337.00	300.00	262.00	268.00	262.00	252.00	241.00	223.00	218.00	214.00	208.00	195.00	191.00	187.00	184.00	182.00	188.00	197.00	204.00	213.00	256.00	273.00	303.00	337.00	340.00	305.00	266.00	227.00	234.00	283.00	311.00
107.00	104.00	105.00	114.00	131.00	141.00	146.00	137.00	133.00	132.00	131.00	134.00	139.00	145.00	156.00	172.00	149.00	141.00	138.00	137.00	136.00	133.00	132.00	131.00	134.00	178.00	194.00	205.00	210.00	215.00	206.00	193.00	186.00	191.00	186.00	158.00	135.00	123.00	118.00	120.00	119.00	119.00	119.00	122.00	126.00	138.00	141.00	127.00	104.00	98.00	100.00	104.00	104.00	102.00	102.00	101.00	101.00	97.00	100.00	103.00	104.00	104.00	105.00	106.00	108.00	108.00	110.00	108.00	106.00	105.00	101.00	99.00	98.00	98.00	98.00	98.00	98.00	98.00	98.00	98.00	98.00	98.00	98.00	99.00	102.00	104.00	106.00	108.00	121.00	121.00	121.00	124.00	128.00	136.00	143.00	149.00	156.00	175.00	194.00	203.00	211.00	221.00	249.00	265.00	282.00	296.00	329.00	337.00	338.00	342.00	329.00	316.00	336.00	336.00	307.00	286.00	283.00	277.00	287.00	320.00	285.00	256.00	259.00	218.00	164.00	169.00	167.00	163.00	154.00	160.00	180.00	182.00	182.00	212.00	242.00	257.00	231.00	250.00	271.00	280.00	284.00	307.00	343.00	347.00	339.00	310.00	253.00	284.00	299.00	311.00	319.00	293.00	272.00	253.00	238.00	275.00	284.00	277.00	261.00	244.00	238.00	231.00	228.00	234.00	240.00	244.00	250.00	252.00	243.00	247.00	242.00	249.00	271.00	269.00	256.00	254.00	270.00	276.00	276.00	281.00	269.00	254.00	320.00	335.00	341.00	329.00	303.00	335.00	351.00	341.00	319.00	273.00	292.00	354.00	400.00	436.00	435.00	413.00	387.00	367.00	374.00	392.00	406.00	440.00	520.00	553.00	545.00	516.00	480.00	411.00	380.00	358.00	343.00	344.00	368.00	362.00	357.00	362.00	398.00	426.00	465.00	492.00	495.00	450.00	374.00	337.00	300.00	262.00	268.00	262.00	252.00	241.00	223.00	218.00	214.00	208.00	195.00	191.00	187.00	184.00	182.00	188.00	197.00	204.00	213.00	256.00	273.00	303.00	337.00	340.00	305.00	266.00	227.00	234.00	283.00	311.00
99.00	97.00	97.00	99.00	120.00	127.00	124.00	113.00	110.00	108.00	111.00	115.00	122.00	130.00	140.00	148.00	122.00	113.00	110.00	111.00	114.00	115.00	121.00	126.00	142.00	250.00	278.00	294.00	302.00	329.00	342.00	314.00	305.00	298.00	271.00	228.00	196.00	155.00	121.00	107.00	106.00	102.00	100.00	99.00	99.00	101.00	101.00	101.00	98.00	101.00	104.00	104.00	103.00	102.00	102.00	102.00	101.00	97.00	98.00	102.00	103.00	103.00	104.00	103.00	103.00	102.00	101.00	98.00	98.00	98.00	100.00	100.00	101.00	101.00	100.00	99.00	99.00	98.00	98.00	98.00	99.00	99.00	100.00	103.00	106.00	107.00	108.00	110.00	123.00	124.00	125.00	126.00	130.00	140.00	147.00	154.00	163.00	184.00	208.00	219.00	230.00	241.00	268.00	279.00	289.00	298.00	306.00	310.00	300.00	300.00	296.00	270.00	296.00	309.00	298.00	248.00	271.00	303.00	325.00	295.00	265.00	225.00	192.00	158.00	152.00	155.00	154.00	161.00	179.00	196.00	231.00	239.00	245.00	288.00	307.00	312.00	292.00	246.00	256.00	288.00	319.00	369.00	403.00	401.00	380.00	343.00	282.00	328.00	373.00	395.00	409.00	340.00	295.00	266.00	287.00	345.00	346.00	320.00	289.00	267.00	295.00	276.00	254.00	275.00	327.00	338.00	334.00	312.00	284.00	285.00	264.00	254.00	300.00	298.00	277.00	288.00	318.00	341.00	358.00	360.00	340.00	305.00	367.00	402.00	420.00	418.00	394.00	405.00	427.00	414.00	382.00	346.00	356.00	380.00	418.00	427.00	411.00	403.00	409.00	426.00	468.00	490.00	501.00	509.00	552.00	565.00	551.00	525.00	497.00	437.00	409.00	389.00	387.00	397.00	423.00	413.00	401.00	397.00	427.00	451.00	473.00	489.00	483.00	415.00	350.00	316.00	283.00	239.00	231.00	221.00	214.00	210.00	202.00	199.00	195.00	188.00	182.00	182.00	181.00	180.00	180.00	186.00	195.00	204.00	214.00	272.00	306.00	338.00	349.00	324.00	285.00	248.00	211.00	208.00	231.00	240.00
98.00	97.00	97.00	97.00	99.00	99.00	98.00	97.00	97.00	98.00	100.00	101.00	106.00	114.00	122.00	130.00	101.00	95.00	95.00	98.00	107.00	120.00	119.00	119.00	131.00	255.00	283.00	301.00	322.00	335.00	306.00	253.00	207.00	186.00	189.00	177.00	163.00	147.00	127.00	106.00	105.00	102.00	100.00	97.00	96.00	97.00	100.00	101.00	101.00	103.00	103.00	102.00	102.00	101.00	100.00	100.00	100.00	98.00	96.00	98.00	98.00	98.00	97.00	97.00	97.00	97.00	98.00	98.00	98.00	98.00	101.00	101.00	101.00	100.00	100.00	99.00	100.00	100.00	99.00	100.00	101.00	102.00	103.00	105.00	108.00	108.00	109.00	112.00	121.00	122.00	123.00	125.00	130.00	141.00	149.00	156.00	166.00	194.00	223.00	237.00	250.00	263.00	280.00	281.00	280.00	273.00	279.00	279.00	268.00	257.00	265.00	240.00	241.00	248.00	239.00	266.00	271.00	275.00	273.00	207.00	175.00	154.00	151.00	148.00	148.00	157.00	179.00	198.00	195.00	215.00	247.00	265.00	283.00	320.00	337.00	349.00	356.00	341.00	332.00	308.00	305.00	390.00	451.00	459.00	442.00	409.00	343.00	394.00	443.00	470.00	477.00	345.00	297.00	317.00	364.00	409.00	381.00	338.00	298.00	305.00	365.00	327.00	285.00	298.00	380.00	394.00	389.00	359.00	347.00	332.00	296.00	276.00	303.00	332.00	308.00	320.00	360.00	397.00	437.00	437.00	412.00	367.00	427.00	468.00	497.00	505.00	502.00	480.00	460.00	445.00	422.00	396.00	405.00	422.00	412.00	391.00	353.00	364.00	393.00	425.00	487.00	516.00	539.00	550.00	536.00	510.00	491.00	468.00	457.00	433.00	423.00	419.00	411.00	405.00	368.00	358.00	347.00	351.00	399.00	421.00	449.00	463.00	451.00	384.00	320.00	288.00	265.00	236.00	226.00	216.00	207.00	200.00	189.00	186.00	182.00	180.00	178.00	177.00	177.00	177.00	177.00	182.00	191.00	203.00	215.00	286.00	311.00	323.00	310.00	256.00	227.00	206.00	189.00	181.00	179.00	179.00
98.00	97.00	97.00	97.00	99.00	99.00	98.00	97.00	97.00	98.00	100.00	101.00	106.00	114.00	122.00	130.00	101.00	95.00	95.00	98.00	107.00	120.00	119.00	119.00	131.00	255.00	283.00	301.00	322.00	335.00	306.00	253.00	207.00	186.00	189.00	177.00	163.00	147.00	127.00	106.00	105.00	102.00	100.00	97.00	96.00	97.00	100.00	101.00	101.00	103.00	103.00	102.00	102.00	101.00	100.00	100.00	100.00	98.00	96.00	98.00	98.00	98.00	97.00	97.00	97.00	97.00	98.00	98.00	98.00	98.00	101.00	101.00	101.00	100.00	100.00	99.00	100.00	100.00	99.00	100.00	101.00	102.00	103.00	105.00	108.00	108.00	109.00	112.00	121.00	122.00	123.00	125.00	130.00	141.00	149.00	156.00	166.00	194.00	223.00	237.00	250.00	263.00	280.00	281.00	280.00	273.00	279.00	279.00	268.00	257.00	265.00	240.00	241.00	248.00	239.00	266.00	271.00	275.00	273.00	207.00	175.00	154.00	151.00	148.00	148.00	157.00	179.00	198.00	195.00	215.00	247.00	265.00	283.00	320.00	337.00	349.00	356.00	341.00	332.00	308.00	305.00	390.00	451.00	459.00	442.00	409.00	343.00	394.00	443.00	470.00	477.00	345.00	297.00	317.00	364.00	409.00	381.00	338.00	298.00	305.00	365.00	327.00	285.00	298.00	380.00	394.00	389.00	359.00	347.00	332.00	296.00	276.00	303.00	332.00	308.00	320.00	360.00	397.00	437.00	437.00	412.00	367.00	427.00	468.00	497.00	505.00	502.00	480.00	460.00	445.00	422.00	396.00	405.00	422.00	412.00	391.00	353.00	364.00	393.00	425.00	487.00	516.00	539.00	550.00	536.00	510.00	491.00	468.00	457.00	433.00	423.00	419.00	411.00	405.00	368.00	358.00	347.00	351.00	399.00	421.00	449.00	463.00	451.00	384.00	320.00	288.00	265.00	236.00	226.00	216.00	207.00	200.00	189.00	186.00	182.00	180.00	178.00	177.00	177.00	177.00	177.00	182.00	191.00	203.00	215.00	286.00	311.00	323.00	310.00	256.00	227.00	206.00	189.00	181.00	179.00	179.00
