610.00	686.00	648.00	632.00	629.00	608.00	638.00	690.00	718.00	693.00	714.00	756.00	794.00	822.00	802.00	824.00	845.00	866.00	878.00	868.00	854.00	807.00	777.00	844.00	877.00	915.00	934.00	874.00	843.00	820.00	796.00	773.00	750.00	743.00	723.00	715.00	712.00	702.00	690.00	678.00	670.00	682.00	707.00	705.00	701.00	659.00	635.00	629.00	628.00	633.00	642.00	640.00	675.00	686.00	732.00	742.00	792.00	817.00	813.00	801.00	869.00	903.00	925.00	888.00	821.00	754.00	779.00	821.00	755.00	759.00	724.00	767.00	823.00	773.00	725.00	700.00	721.00	815.00	870.00	891.00	862.00	828.00	858.00	894.00	917.00	951.00	908.00	911.00	942.00	962.00	918.00	950.00	930.00	897.00	862.00	829.00	829.00	827.00	823.00	808.00	795.00	801.00	852.00	878.00	873.00	846.00	839.00	862.00	809.00	792.00	725.00	665.00	602.00	528.00	519.00	503.00	499.00	533.00	607.00	669.00	712.00	687.00	681.00	630.00	592.00	556.00	503.00	483.00	471.00	467.00	483.00	541.00	555.00	560.00	555.00	525.00	556.00	587.00	604.00	574.00	557.00	553.00	515.00	500.00	503.00	493.00	482.00	463.00	458.00	465.00	474.00	475.00	503.00	507.00	502.00	498.00	472.00	490.00	525.00	519.00	505.00	496.00	477.00	475.00	453.00	429.00	394.00	398.00	398.00	394.00	410.00	485.00	524.00	529.00	523.00	448.00	422.00	416.00	416.00	420.00	422.00	425.00	431.00	438.00	509.00	491.00	543.00	550.00	539.00	629.00	627.00	651.00	717.00	718.00	786.00	816.00	827.00	901.00	919.00	904.00	874.00	876.00	907.00	891.00	842.00	825.00	880.00	1027.00	1019.00	1021.00	1032.00	946.00	879.00	850.00	851.00	827.00	818.00	783.00	827.00	893.00	1076.00	1064.00	1004.00	901.00	821.00	760.00	727.00	715.00	753.00	645.00	609.00	584.00	566.00	551.00	548.00	555.00	557.00	552.00	583.00	579.00	572.00	565.00	553.00	517.00	503.00	511.00	529.00	561.00	583.00	586.00	559.00	539.00	541.00	565.00	552.00	526.00
624.00	574.00	579.00	595.00	630.00	670.00	701.00	702.00	689.00	682.00	688.00	697.00	723.00	768.00	749.00	748.00	789.00	802.00	768.00	759.00	717.00	726.00	766.00	870.00	925.00	943.00	911.00	860.00	827.00	804.00	795.00	815.00	805.00	800.00	819.00	807.00	779.00	775.00	773.00	763.00	734.00	703.00	706.00	696.00	702.00	644.00	670.00	733.00	771.00	801.00	764.00	703.00	748.00	797.00	854.00	869.00	877.00	895.00	915.00	920.00	934.00	905.00	886.00	872.00	846.00	803.00	757.00	788.00	861.00	829.00	804.00	756.00	831.00	800.00	764.00	771.00	814.00	855.00	855.00	881.00	928.00	925.00	917.00	919.00	942.00	971.00	945.00	914.00	880.00	831.00	823.00	829.00	860.00	871.00	879.00	935.00	948.00	920.00	900.00	863.00	884.00	890.00	855.00	822.00	803.00	763.00	744.00	717.00	692.00	642.00	618.00	600.00	553.00	507.00	510.00	521.00	558.00	665.00	706.00	736.00	771.00	811.00	790.00	703.00	645.00	594.00	526.00	504.00	486.00	481.00	506.00	584.00	598.00	606.00	663.00	663.00	680.00	628.00	595.00	600.00	558.00	523.00	521.00	552.00	487.00	511.00	538.00	554.00	559.00	607.00	595.00	600.00	606.00	572.00	527.00	510.00	496.00	481.00	473.00	479.00	490.00	508.00	556.00	534.00	539.00	471.00	401.00	402.00	403.00	417.00	429.00	422.00	414.00	412.00	412.00	416.00	448.00	497.00	549.00	578.00	597.00	554.00	500.00	478.00	439.00	437.00	441.00	450.00	460.00	483.00	484.00	497.00	512.00	541.00	552.00	575.00	589.00	613.00	649.00	660.00	674.00	691.00	739.00	765.00	792.00	840.00	884.00	1006.00	1054.00	1085.00	1064.00	1083.00	1081.00	1043.00	1025.00	1029.00	1017.00	970.00	935.00	921.00	950.00	1000.00	1035.00	1057.00	1027.00	933.00	923.00	863.00	769.00	631.00	624.00	659.00	681.00	654.00	608.00	600.00	605.00	596.00	592.00	577.00	564.00	557.00	559.00	530.00	567.00	596.00	602.00	649.00	654.00	629.00	614.00	606.00	570.00	545.00	524.00	503.00
624.00	574.00	579.00	595.00	630.00	670.00	701.00	702.00	689.00	682.00	688.00	697.00	723.00	768.00	749.00	748.00	789.00	802.00	768.00	759.00	717.00	726.00	766.00	870.00	925.00	943.00	911.00	860.00	827.00	804.00	795.00	815.00	805.00	800.00	819.00	807.00	779.00	775.00	773.00	763.00	734.00	703.00	706.00	696.00	702.00	644.00	670.00	733.00	771.00	801.00	764.00	703.00	748.00	797.00	854.00	869.00	877.00	895.00	915.00	920.00	934.00	905.00	886.00	872.00	846.00	803.00	757.00	788.00	861.00	829.00	804.00	756.00	831.00	800.00	764.00	771.00	814.00	855.00	855.00	881.00	928.00	925.00	917.00	919.00	942.00	971.00	945.00	914.00	880.00	831.00	823.00	829.00	860.00	871.00	879.00	935.00	948.00	920.00	900.00	863.00	884.00	890.00	855.00	822.00	803.00	763.00	744.00	717.00	692.00	642.00	618.00	600.00	553.00	507.00	510.00	521.00	558.00	665.00	706.00	736.00	771.00	811.00	790.00	703.00	645.00	594.00	526.00	504.00	486.00	481.00	506.00	584.00	598.00	606.00	663.00	663.00	680.00	628.00	595.00	600.00	558.00	523.00	521.00	552.00	487.00	511.00	538.00	554.00	559.00	607.00	595.00	600.00	606.00	572.00	527.00	510.00	496.00	481.00	473.00	479.00	490.00	508.00	556.00	534.00	539.00	471.00	401.00	402.00	403.00	417.00	429.00	422.00	414.00	412.00	412.00	416.00	448.00	497.00	549.00	578.00	597.00	554.00	500.00	478.00	439.00	437.00	441.00	450.00	460.00	483.00	484.00	497.00	512.00	541.00	552.00	575.00	589.00	613.00	649.00	660.00	674.00	691.00	739.00	765.00	792.00	840.00	884.00	1006.00	1054.00	1085.00	1064.00	1083.00	1081.00	1043.00	1025.00	1029.00	1017.00	970.00	935.00	921.00	950.00	1000.00	1035.00	1057.00	1027.00	933.00	923.00	863.00	769.00	631.00	624.00	659.00	681.00	654.00	608.00	600.00	605.00	596.00	592.00	577.00	564.00	557.00	559.00	530.00	567.00	596.00	602.00	649.00	654.00	629.00	614.00	606.00	570.00	545.00	524.00	503.00
566.00	593.00	631.00	651.00	671.00	722.00	678.00	654.00	643.00	664.00	701.00	738.00	773.00	776.00	722.00	763.00	795.00	787.00	717.00	709.00	702.00	745.00	797.00	899.00	945.00	951.00	939.00	877.00	846.00	844.00	846.00	855.00	860.00	864.00	860.00	849.00	861.00	862.00	862.00	844.00	819.00	793.00	786.00	760.00	726.00	658.00	702.00	764.00	817.00	865.00	795.00	732.00	758.00	825.00	888.00	904.00	924.00	934.00	939.00	916.00	900.00	887.00	872.00	860.00	837.00	783.00	776.00	803.00	860.00	829.00	809.00	756.00	813.00	824.00	806.00	798.00	804.00	876.00	899.00	910.00	879.00	929.00	938.00	923.00	911.00	922.00	947.00	918.00	874.00	816.00	816.00	751.00	781.00	791.00	810.00	863.00	847.00	827.00	801.00	764.00	788.00	795.00	811.00	766.00	697.00	671.00	661.00	645.00	588.00	550.00	526.00	515.00	513.00	533.00	543.00	578.00	628.00	727.00	778.00	811.00	847.00	844.00	783.00	686.00	640.00	605.00	536.00	513.00	495.00	487.00	501.00	534.00	568.00	597.00	686.00	748.00	684.00	623.00	590.00	574.00	555.00	540.00	579.00	614.00	508.00	559.00	602.00	646.00	632.00	622.00	624.00	631.00	585.00	531.00	504.00	479.00	464.00	466.00	457.00	444.00	462.00	473.00	522.00	562.00	536.00	404.00	401.00	404.00	427.00	481.00	519.00	473.00	450.00	449.00	451.00	424.00	431.00	471.00	507.00	538.00	588.00	578.00	573.00	572.00	511.00	489.00	457.00	448.00	445.00	451.00	453.00	462.00	470.00	475.00	484.00	493.00	498.00	516.00	541.00	561.00	572.00	585.00	641.00	643.00	697.00	732.00	758.00	866.00	907.00	925.00	916.00	976.00	1040.00	1105.00	1160.00	1167.00	1136.00	1065.00	1033.00	1020.00	999.00	1039.00	1053.00	1014.00	949.00	887.00	835.00	768.00	690.00	688.00	735.00	779.00	789.00	738.00	672.00	670.00	641.00	620.00	599.00	591.00	587.00	582.00	578.00	543.00	564.00	607.00	625.00	649.00	650.00	628.00	604.00	581.00	542.00	521.00	520.00	521.00
569.00	633.00	653.00	622.00	626.00	698.00	671.00	622.00	693.00	711.00	744.00	751.00	734.00	721.00	723.00	780.00	751.00	734.00	676.00	688.00	729.00	749.00	768.00	865.00	909.00	930.00	940.00	915.00	913.00	916.00	914.00	917.00	923.00	925.00	922.00	946.00	977.00	976.00	975.00	949.00	927.00	881.00	852.00	825.00	790.00	674.00	703.00	764.00	824.00	881.00	790.00	759.00	744.00	762.00	857.00	885.00	914.00	942.00	952.00	951.00	955.00	949.00	928.00	861.00	811.00	803.00	838.00	831.00	866.00	860.00	832.00	799.00	818.00	847.00	867.00	877.00	871.00	854.00	843.00	853.00	803.00	839.00	862.00	882.00	860.00	841.00	877.00	866.00	824.00	787.00	766.00	703.00	709.00	729.00	757.00	783.00	770.00	759.00	735.00	670.00	688.00	696.00	745.00	711.00	644.00	597.00	565.00	543.00	523.00	522.00	525.00	526.00	536.00	602.00	583.00	590.00	652.00	744.00	794.00	857.00	867.00	829.00	746.00	684.00	645.00	620.00	543.00	517.00	502.00	493.00	532.00	564.00	578.00	614.00	712.00	761.00	690.00	641.00	654.00	660.00	599.00	574.00	579.00	618.00	525.00	565.00	619.00	672.00	623.00	603.00	571.00	572.00	571.00	512.00	474.00	463.00	459.00	439.00	438.00	426.00	432.00	433.00	422.00	434.00	430.00	399.00	407.00	423.00	446.00	515.00	552.00	502.00	521.00	516.00	500.00	462.00	441.00	437.00	458.00	497.00	561.00	591.00	621.00	634.00	609.00	589.00	556.00	511.00	479.00	464.00	470.00	468.00	472.00	475.00	478.00	478.00	479.00	476.00	490.00	498.00	507.00	514.00	547.00	570.00	592.00	616.00	633.00	721.00	775.00	770.00	810.00	946.00	1002.00	1061.00	1095.00	1088.00	1163.00	1152.00	1132.00	1118.00	1071.00	1044.00	1002.00	972.00	937.00	831.00	779.00	729.00	811.00	755.00	772.00	850.00	824.00	750.00	759.00	731.00	692.00	654.00	628.00	620.00	608.00	595.00	581.00	562.00	565.00	595.00	619.00	626.00	623.00	613.00	585.00	561.00	555.00	560.00	569.00	583.00
600.00	607.00	594.00	589.00	606.00	638.00	599.00	618.00	689.00	702.00	687.00	708.00	689.00	671.00	706.00	725.00	679.00	667.00	684.00	722.00	787.00	843.00	849.00	864.00	877.00	882.00	912.00	957.00	965.00	981.00	983.00	987.00	1018.00	1026.00	1014.00	1039.00	1102.00	1099.00	1093.00	1047.00	1023.00	951.00	929.00	908.00	856.00	706.00	719.00	798.00	870.00	900.00	842.00	852.00	834.00	787.00	829.00	888.00	931.00	950.00	977.00	1016.00	1028.00	1028.00	1015.00	937.00	872.00	819.00	862.00	882.00	879.00	881.00	863.00	884.00	899.00	916.00	930.00	945.00	931.00	822.00	786.00	783.00	765.00	727.00	743.00	772.00	822.00	805.00	807.00	822.00	786.00	734.00	678.00	708.00	676.00	722.00	755.00	708.00	699.00	702.00	672.00	612.00	599.00	595.00	590.00	589.00	556.00	538.00	531.00	530.00	532.00	544.00	552.00	579.00	605.00	690.00	663.00	630.00	663.00	786.00	828.00	883.00	880.00	849.00	754.00	667.00	631.00	597.00	546.00	524.00	508.00	501.00	517.00	577.00	600.00	641.00	726.00	760.00	701.00	709.00	738.00	750.00	641.00	609.00	601.00	621.00	570.00	605.00	638.00	628.00	574.00	553.00	536.00	518.00	517.00	512.00	477.00	476.00	472.00	434.00	430.00	440.00	447.00	441.00	403.00	401.00	404.00	404.00	425.00	467.00	478.00	520.00	549.00	588.00	583.00	547.00	515.00	546.00	505.00	470.00	456.00	450.00	513.00	556.00	575.00	613.00	637.00	638.00	620.00	594.00	560.00	499.00	522.00	511.00	538.00	552.00	550.00	561.00	554.00	523.00	511.00	496.00	487.00	493.00	515.00	527.00	546.00	550.00	566.00	630.00	650.00	687.00	742.00	825.00	874.00	912.00	950.00	973.00	1037.00	1127.00	1157.00	1177.00	1091.00	1034.00	992.00	957.00	915.00	825.00	802.00	843.00	963.00	890.00	866.00	918.00	862.00	839.00	828.00	775.00	721.00	725.00	672.00	650.00	633.00	618.00	605.00	581.00	578.00	597.00	614.00	620.00	607.00	588.00	582.00	586.00	613.00	611.00	612.00	603.00
600.00	607.00	594.00	589.00	606.00	638.00	599.00	618.00	689.00	702.00	687.00	708.00	689.00	671.00	706.00	725.00	679.00	667.00	684.00	722.00	787.00	843.00	849.00	864.00	877.00	882.00	912.00	957.00	965.00	981.00	983.00	987.00	1018.00	1026.00	1014.00	1039.00	1102.00	1099.00	1093.00	1047.00	1023.00	951.00	929.00	908.00	856.00	706.00	719.00	798.00	870.00	900.00	842.00	852.00	834.00	787.00	829.00	888.00	931.00	950.00	977.00	1016.00	1028.00	1028.00	1015.00	937.00	872.00	819.00	862.00	882.00	879.00	881.00	863.00	884.00	899.00	916.00	930.00	945.00	931.00	822.00	786.00	783.00	765.00	727.00	743.00	772.00	822.00	805.00	807.00	822.00	786.00	734.00	678.00	708.00	676.00	722.00	755.00	708.00	699.00	702.00	672.00	612.00	599.00	595.00	590.00	589.00	556.00	538.00	531.00	530.00	532.00	544.00	552.00	579.00	605.00	690.00	663.00	630.00	663.00	786.00	828.00	883.00	880.00	849.00	754.00	667.00	631.00	597.00	546.00	524.00	508.00	501.00	517.00	577.00	600.00	641.00	726.00	760.00	701.00	709.00	738.00	750.00	641.00	609.00	601.00	621.00	570.00	605.00	638.00	628.00	574.00	553.00	536.00	518.00	517.00	512.00	477.00	476.00	472.00	434.00	430.00	440.00	447.00	441.00	403.00	401.00	404.00	404.00	425.00	467.00	478.00	520.00	549.00	588.00	583.00	547.00	515.00	546.00	505.00	470.00	456.00	450.00	513.00	556.00	575.00	613.00	637.00	638.00	620.00	594.00	560.00	499.00	522.00	511.00	538.00	552.00	550.00	561.00	554.00	523.00	511.00	496.00	487.00	493.00	515.00	527.00	546.00	550.00	566.00	630.00	650.00	687.00	742.00	825.00	874.00	912.00	950.00	973.00	1037.00	1127.00	1157.00	1177.00	1091.00	1034.00	992.00	957.00	915.00	825.00	802.00	843.00	963.00	890.00	866.00	918.00	862.00	839.00	828.00	775.00	721.00	725.00	672.00	650.00	633.00	618.00	605.00	581.00	578.00	597.00	614.00	620.00	607.00	588.00	582.00	586.00	613.00	611.00	612.00	603.00
621.00	561.00	561.00	568.00	581.00	582.00	603.00	658.00	681.00	651.00	693.00	679.00	642.00	651.00	670.00	639.00	654.00	664.00	750.00	773.00	814.00	872.00	897.00	879.00	828.00	834.00	877.00	953.00	1004.00	1033.00	1056.00	1068.00	1106.00	1113.00	1102.00	1107.00	1152.00	1154.00	1154.00	1102.00	1066.00	987.00	953.00	910.00	852.00	718.00	717.00	802.00	882.00	925.00	938.00	946.00	917.00	878.00	856.00	889.00	915.00	938.00	963.00	1016.00	1036.00	1062.00	1062.00	957.00	890.00	832.00	841.00	881.00	927.00	934.00	924.00	947.00	988.00	1001.00	1011.00	1014.00	976.00	867.00	841.00	834.00	816.00	703.00	689.00	681.00	750.00	741.00	748.00	746.00	720.00	693.00	648.00	717.00	654.00	709.00	769.00	698.00	652.00	672.00	686.00	587.00	552.00	549.00	547.00	545.00	548.00	551.00	557.00	566.00	598.00	610.00	580.00	606.00	662.00	777.00	758.00	724.00	691.00	806.00	863.00	860.00	826.00	785.00	718.00	686.00	666.00	622.00	553.00	532.00	518.00	508.00	525.00	554.00	576.00	617.00	716.00	779.00	758.00	785.00	799.00	781.00	694.00	663.00	670.00	674.00	643.00	665.00	698.00	650.00	595.00	574.00	558.00	545.00	526.00	502.00	467.00	463.00	457.00	462.00	461.00	451.00	428.00	410.00	405.00	402.00	405.00	433.00	440.00	495.00	531.00	530.00	543.00	635.00	622.00	576.00	525.00	587.00	573.00	558.00	540.00	511.00	468.00	475.00	498.00	527.00	572.00	564.00	601.00	609.00	573.00	543.00	567.00	561.00	563.00	610.00	630.00	634.00	623.00	613.00	629.00	609.00	545.00	502.00	498.00	504.00	511.00	519.00	528.00	598.00	582.00	615.00	610.00	683.00	738.00	790.00	839.00	868.00	926.00	1015.00	1033.00	1074.00	1125.00	1107.00	1079.00	1046.00	990.00	918.00	909.00	907.00	968.00	987.00	998.00	1027.00	980.00	966.00	862.00	795.00	768.00	804.00	763.00	707.00	671.00	646.00	626.00	599.00	600.00	623.00	630.00	628.00	623.00	611.00	615.00	618.00	604.00	598.00	604.00	581.00
544.00	543.00	544.00	554.00	579.00	573.00	616.00	637.00	637.00	674.00	674.00	625.00	631.00	680.00	613.00	638.00	709.00	757.00	842.00	878.00	890.00	891.00	894.00	834.00	775.00	790.00	842.00	919.00	1024.00	1075.00	1109.00	1121.00	1144.00	1148.00	1141.00	1139.00	1171.00	1175.00	1141.00	1046.00	1005.00	943.00	904.00	858.00	810.00	724.00	741.00	795.00	854.00	913.00	1022.00	1029.00	1010.00	985.00	944.00	959.00	975.00	982.00	987.00	981.00	982.00	1004.00	1004.00	896.00	854.00	828.00	828.00	853.00	918.00	951.00	959.00	982.00	1043.00	1074.00	1092.00	1069.00	1019.00	948.00	920.00	876.00	832.00	734.00	725.00	698.00	665.00	664.00	696.00	713.00	723.00	689.00	654.00	652.00	626.00	680.00	728.00	703.00	663.00	611.00	590.00	558.00	558.00	580.00	600.00	573.00	609.00	626.00	622.00	632.00	718.00	701.00	639.00	636.00	710.00	850.00	850.00	820.00	789.00	839.00	880.00	882.00	856.00	821.00	739.00	663.00	629.00	603.00	557.00	540.00	524.00	514.00	540.00	601.00	621.00	651.00	757.00	851.00	835.00	851.00	862.00	835.00	768.00	740.00	743.00	742.00	642.00	624.00	644.00	637.00	622.00	592.00	590.00	578.00	555.00	529.00	536.00	522.00	493.00	485.00	457.00	432.00	409.00	413.00	406.00	408.00	470.00	495.00	453.00	456.00	489.00	529.00	567.00	636.00	610.00	564.00	546.00	593.00	639.00	643.00	613.00	567.00	515.00	512.00	504.00	494.00	504.00	537.00	587.00	608.00	630.00	615.00	646.00	655.00	661.00	704.00	725.00	739.00	728.00	707.00	686.00	650.00	606.00	568.00	511.00	507.00	509.00	511.00	514.00	540.00	553.00	568.00	560.00	607.00	644.00	688.00	724.00	748.00	807.00	884.00	924.00	964.00	1046.00	1100.00	1129.00	1138.00	1117.00	1038.00	1020.00	1005.00	1009.00	1044.00	1078.00	1102.00	1083.00	1022.00	895.00	879.00	898.00	901.00	867.00	814.00	752.00	698.00	648.00	631.00	626.00	625.00	625.00	626.00	618.00	617.00	601.00	567.00	532.00	525.00	531.00	517.00
540.00	554.00	544.00	544.00	546.00	565.00	590.00	599.00	600.00	644.00	601.00	627.00	682.00	655.00	621.00	683.00	736.00	750.00	886.00	903.00	897.00	868.00	837.00	787.00	741.00	776.00	822.00	905.00	976.00	1008.00	1036.00	1058.00	1118.00	1149.00	1173.00	1186.00	1198.00	1159.00	1102.00	1015.00	982.00	924.00	901.00	891.00	866.00	753.00	775.00	838.00	892.00	939.00	1079.00	1098.00	1087.00	1073.00	1039.00	1043.00	1053.00	1057.00	1045.00	999.00	949.00	928.00	907.00	856.00	837.00	832.00	834.00	842.00	890.00	912.00	934.00	998.00	1063.00	1082.00	1078.00	1048.00	1014.00	958.00	924.00	920.00	870.00	709.00	687.00	678.00	677.00	653.00	642.00	660.00	673.00	715.00	707.00	620.00	593.00	604.00	603.00	597.00	585.00	573.00	575.00	607.00	582.00	584.00	661.00	596.00	644.00	713.00	721.00	724.00	787.00	756.00	716.00	705.00	684.00	859.00	909.00	896.00	869.00	879.00	911.00	937.00	905.00	865.00	804.00	717.00	658.00	608.00	555.00	538.00	526.00	526.00	581.00	631.00	653.00	695.00	778.00	819.00	802.00	832.00	870.00	883.00	816.00	767.00	717.00	692.00	636.00	597.00	553.00	554.00	535.00	511.00	547.00	559.00	578.00	549.00	577.00	550.00	518.00	490.00	451.00	427.00	411.00	412.00	404.00	439.00	586.00	555.00	490.00	475.00	466.00	508.00	549.00	626.00	647.00	625.00	600.00	591.00	647.00	684.00	646.00	613.00	580.00	611.00	592.00	566.00	511.00	504.00	559.00	610.00	649.00	713.00	741.00	759.00	762.00	784.00	814.00	809.00	777.00	682.00	648.00	634.00	591.00	555.00	520.00	536.00	550.00	538.00	532.00	526.00	531.00	537.00	545.00	600.00	632.00	655.00	659.00	685.00	697.00	754.00	799.00	854.00	934.00	970.00	1014.00	1072.00	1136.00	1166.00	1174.00	1138.00	1106.00	1098.00	1106.00	1122.00	1112.00	1062.00	1007.00	996.00	997.00	1014.00	888.00	852.00	799.00	745.00	722.00	683.00	655.00	629.00	605.00	575.00	571.00	539.00	526.00	515.00	508.00	504.00	502.00	504.00
566.00	623.00	583.00	543.00	545.00	547.00	551.00	556.00	572.00	582.00	605.00	658.00	642.00	594.00	654.00	699.00	678.00	715.00	814.00	812.00	813.00	821.00	784.00	713.00	728.00	767.00	797.00	856.00	913.00	955.00	994.00	1031.00	1124.00	1180.00	1230.00	1252.00	1201.00	1154.00	1109.00	1050.00	1044.00	978.00	944.00	914.00	874.00	789.00	790.00	845.00	906.00	957.00	1115.00	1149.00	1170.00	1178.00	1142.00	1139.00	1141.00	1147.00	1131.00	1053.00	982.00	950.00	921.00	861.00	851.00	871.00	871.00	877.00	921.00	950.00	972.00	1010.00	1065.00	1066.00	1033.00	983.00	944.00	847.00	805.00	859.00	880.00	776.00	760.00	733.00	741.00	725.00	638.00	605.00	606.00	623.00	627.00	590.00	611.00	619.00	607.00	594.00	588.00	592.00	621.00	676.00	620.00	586.00	680.00	618.00	654.00	686.00	719.00	737.00	810.00	824.00	821.00	807.00	764.00	888.00	899.00	870.00	840.00	841.00	884.00	924.00	895.00	848.00	751.00	682.00	635.00	596.00	547.00	536.00	535.00	543.00	604.00	627.00	627.00	670.00	727.00	726.00	746.00	806.00	851.00	853.00	789.00	750.00	700.00	649.00	570.00	543.00	519.00	534.00	530.00	517.00	504.00	489.00	477.00	467.00	475.00	462.00	451.00	432.00	424.00	414.00	410.00	407.00	409.00	476.00	589.00	562.00	576.00	546.00	488.00	492.00	567.00	582.00	611.00	641.00	666.00	589.00	656.00	715.00	705.00	687.00	651.00	667.00	657.00	632.00	529.00	536.00	537.00	552.00	588.00	683.00	709.00	721.00	747.00	786.00	810.00	785.00	732.00	644.00	597.00	598.00	587.00	555.00	566.00	569.00	583.00	585.00	576.00	563.00	550.00	545.00	544.00	569.00	586.00	588.00	598.00	614.00	630.00	710.00	731.00	754.00	811.00	845.00	890.00	945.00	990.00	1087.00	1138.00	1178.00	1207.00	1196.00	1194.00	1190.00	1171.00	1152.00	1083.00	1058.00	1044.00	1043.00	917.00	874.00	852.00	872.00	867.00	791.00	723.00	660.00	616.00	558.00	538.00	526.00	524.00	522.00	522.00	524.00	526.00	524.00
566.00	623.00	583.00	543.00	545.00	547.00	551.00	556.00	572.00	582.00	605.00	658.00	642.00	594.00	654.00	699.00	678.00	715.00	814.00	812.00	813.00	821.00	784.00	713.00	728.00	767.00	797.00	856.00	913.00	955.00	994.00	1031.00	1124.00	1180.00	1230.00	1252.00	1201.00	1154.00	1109.00	1050.00	1044.00	978.00	944.00	914.00	874.00	789.00	790.00	845.00	906.00	957.00	1115.00	1149.00	1170.00	1178.00	1142.00	1139.00	1141.00	1147.00	1131.00	1053.00	982.00	950.00	921.00	861.00	851.00	871.00	871.00	877.00	921.00	950.00	972.00	1010.00	1065.00	1066.00	1033.00	983.00	944.00	847.00	805.00	859.00	880.00	776.00	760.00	733.00	741.00	725.00	638.00	605.00	606.00	623.00	627.00	590.00	611.00	619.00	607.00	594.00	588.00	592.00	621.00	676.00	620.00	586.00	680.00	618.00	654.00	686.00	719.00	737.00	810.00	824.00	821.00	807.00	764.00	888.00	899.00	870.00	840.00	841.00	884.00	924.00	895.00	848.00	751.00	682.00	635.00	596.00	547.00	536.00	535.00	543.00	604.00	627.00	627.00	670.00	727.00	726.00	746.00	806.00	851.00	853.00	789.00	750.00	700.00	649.00	570.00	543.00	519.00	534.00	530.00	517.00	504.00	489.00	477.00	467.00	475.00	462.00	451.00	432.00	424.00	414.00	410.00	407.00	409.00	476.00	589.00	562.00	576.00	546.00	488.00	492.00	567.00	582.00	611.00	641.00	666.00	589.00	656.00	715.00	705.00	687.00	651.00	667.00	657.00	632.00	529.00	536.00	537.00	552.00	588.00	683.00	709.00	721.00	747.00	786.00	810.00	785.00	732.00	644.00	597.00	598.00	587.00	555.00	566.00	569.00	583.00	585.00	576.00	563.00	550.00	545.00	544.00	569.00	586.00	588.00	598.00	614.00	630.00	710.00	731.00	754.00	811.00	845.00	890.00	945.00	990.00	1087.00	1138.00	1178.00	1207.00	1196.00	1194.00	1190.00	1171.00	1152.00	1083.00	1058.00	1044.00	1043.00	917.00	874.00	852.00	872.00	867.00	791.00	723.00	660.00	616.00	558.00	538.00	526.00	524.00	522.00	522.00	524.00	526.00	524.00
585.00	634.00	608.00	559.00	548.00	548.00	550.00	551.00	552.00	566.00	609.00	635.00	588.00	606.00	689.00	652.00	644.00	689.00	765.00	751.00	774.00	791.00	722.00	721.00	775.00	817.00	845.00	841.00	900.00	939.00	982.00	1032.00	1143.00	1203.00	1280.00	1296.00	1240.00	1192.00	1149.00	1106.00	1104.00	1009.00	979.00	948.00	922.00	857.00	819.00	854.00	922.00	978.00	1154.00	1209.00	1271.00	1302.00	1255.00	1258.00	1262.00	1249.00	1231.00	1124.00	1042.00	1006.00	972.00	893.00	894.00	917.00	929.00	937.00	965.00	996.00	1016.00	1019.00	1043.00	1044.00	1000.00	923.00	852.00	749.00	707.00	731.00	773.00	748.00	756.00	738.00	698.00	645.00	614.00	633.00	650.00	653.00	627.00	626.00	669.00	699.00	685.00	623.00	613.00	644.00	664.00	703.00	632.00	597.00	714.00	661.00	590.00	615.00	658.00	686.00	790.00	842.00	882.00	887.00	878.00	917.00	878.00	841.00	791.00	800.00	852.00	847.00	832.00	830.00	730.00	637.00	603.00	573.00	548.00	563.00	571.00	562.00	555.00	573.00	585.00	618.00	647.00	691.00	746.00	798.00	840.00	822.00	729.00	709.00	676.00	624.00	535.00	549.00	589.00	616.00	585.00	564.00	540.00	516.00	492.00	505.00	499.00	486.00	461.00	452.00	441.00	424.00	409.00	411.00	437.00	570.00	628.00	605.00	643.00	586.00	525.00	492.00	502.00	580.00	591.00	621.00	674.00	609.00	675.00	738.00	782.00	758.00	670.00	630.00	602.00	573.00	576.00	613.00	622.00	596.00	597.00	623.00	644.00	673.00	698.00	770.00	791.00	770.00	720.00	709.00	671.00	640.00	609.00	563.00	635.00	622.00	636.00	638.00	602.00	605.00	576.00	590.00	582.00	572.00	570.00	577.00	581.00	590.00	589.00	682.00	689.00	706.00	766.00	800.00	825.00	850.00	881.00	948.00	978.00	1010.00	1064.00	1099.00	1119.00	1124.00	1129.00	1126.00	1054.00	1009.00	976.00	963.00	936.00	931.00	935.00	961.00	927.00	841.00	806.00	752.00	661.00	543.00	540.00	546.00	552.00	553.00	546.00	549.00	546.00	534.00
571.00	601.00	618.00	604.00	585.00	593.00	606.00	593.00	561.00	555.00	564.00	572.00	596.00	631.00	638.00	621.00	670.00	702.00	705.00	732.00	728.00	670.00	664.00	723.00	741.00	774.00	807.00	790.00	876.00	929.00	984.00	1038.00	1153.00	1217.00	1281.00	1326.00	1298.00	1238.00	1192.00	1155.00	1145.00	1070.00	1039.00	1019.00	990.00	895.00	871.00	919.00	991.00	1050.00	1196.00	1236.00	1300.00	1369.00	1410.00	1416.00	1396.00	1341.00	1290.00	1246.00	1124.00	1064.00	1010.00	936.00	947.00	983.00	1015.00	1020.00	1005.00	1006.00	1002.00	975.00	988.00	998.00	975.00	921.00	866.00	714.00	749.00	741.00	708.00	650.00	641.00	634.00	637.00	649.00	711.00	759.00	748.00	741.00	709.00	690.00	714.00	712.00	681.00	640.00	654.00	702.00	739.00	680.00	626.00	601.00	692.00	693.00	623.00	602.00	649.00	684.00	769.00	834.00	897.00	951.00	960.00	874.00	833.00	792.00	754.00	755.00	808.00	784.00	746.00	739.00	662.00	594.00	571.00	565.00	635.00	660.00	635.00	613.00	580.00	603.00	618.00	641.00	644.00	696.00	750.00	804.00	804.00	759.00	714.00	667.00	626.00	586.00	606.00	651.00	691.00	723.00	646.00	621.00	589.00	545.00	505.00	604.00	566.00	523.00	507.00	477.00	448.00	424.00	412.00	413.00	440.00	582.00	651.00	606.00	674.00	619.00	561.00	533.00	514.00	546.00	582.00	606.00	655.00	671.00	688.00	760.00	806.00	771.00	697.00	659.00	603.00	597.00	684.00	706.00	719.00	666.00	672.00	723.00	751.00	771.00	790.00	849.00	862.00	833.00	810.00	762.00	672.00	646.00	611.00	575.00	691.00	681.00	662.00	628.00	617.00	622.00	610.00	652.00	635.00	610.00	606.00	634.00	657.00	664.00	626.00	611.00	635.00	689.00	749.00	764.00	790.00	820.00	843.00	874.00	894.00	915.00	967.00	998.00	1002.00	1006.00	1001.00	1009.00	1028.00	1003.00	957.00	902.00	811.00	826.00	837.00	869.00	890.00	789.00	729.00	690.00	619.00	589.00	588.00	586.00	587.00	590.00	583.00	581.00	568.00	552.00
556.00	606.00	608.00	608.00	619.00	666.00	684.00	684.00	660.00	558.00	560.00	563.00	584.00	619.00	610.00	662.00	673.00	670.00	683.00	706.00	647.00	660.00	717.00	758.00	774.00	784.00	777.00	783.00	896.00	946.00	1003.00	1055.00	1171.00	1237.00	1293.00	1340.00	1270.00	1222.00	1172.00	1085.00	1068.00	1056.00	1058.00	1042.00	982.00	926.00	954.00	1005.00	1052.00	1093.00	1219.00	1241.00	1279.00	1337.00	1445.00	1502.00	1506.00	1426.00	1369.00	1330.00	1185.00	1114.00	1048.00	979.00	993.00	1026.00	1074.00	1100.00	1041.00	1013.00	990.00	952.00	919.00	933.00	941.00	901.00	854.00	750.00	759.00	851.00	842.00	716.00	678.00	680.00	711.00	729.00	808.00	855.00	849.00	833.00	802.00	779.00	784.00	745.00	711.00	710.00	727.00	725.00	749.00	662.00	626.00	613.00	669.00	703.00	651.00	618.00	647.00	673.00	780.00	835.00	889.00	930.00	955.00	845.00	800.00	757.00	721.00	697.00	728.00	711.00	669.00	644.00	599.00	588.00	584.00	583.00	693.00	718.00	690.00	651.00	608.00	621.00	664.00	711.00	711.00	697.00	752.00	779.00	742.00	707.00	665.00	638.00	594.00	567.00	700.00	743.00	789.00	802.00	714.00	676.00	609.00	555.00	536.00	611.00	533.00	512.00	499.00	462.00	467.00	419.00	416.00	413.00	419.00	518.00	535.00	580.00	676.00	664.00	624.00	570.00	578.00	569.00	606.00	614.00	645.00	752.00	744.00	788.00	838.00	814.00	708.00	651.00	634.00	640.00	741.00	790.00	807.00	764.00	746.00	832.00	845.00	872.00	885.00	923.00	931.00	911.00	885.00	813.00	731.00	699.00	675.00	614.00	695.00	720.00	685.00	674.00	648.00	667.00	619.00	673.00	695.00	674.00	662.00	675.00	716.00	723.00	670.00	657.00	620.00	627.00	688.00	745.00	801.00	822.00	804.00	839.00	873.00	911.00	958.00	939.00	926.00	914.00	908.00	908.00	915.00	936.00	952.00	949.00	801.00	742.00	721.00	747.00	785.00	735.00	639.00	597.00	661.00	731.00	729.00	687.00	649.00	638.00	619.00	608.00	595.00	580.00
556.00	606.00	608.00	608.00	619.00	666.00	684.00	684.00	660.00	558.00	560.00	563.00	584.00	619.00	610.00	662.00	673.00	670.00	683.00	706.00	647.00	660.00	717.00	758.00	774.00	784.00	777.00	783.00	896.00	946.00	1003.00	1055.00	1171.00	1237.00	1293.00	1340.00	1270.00	1222.00	1172.00	1085.00	1068.00	1056.00	1058.00	1042.00	982.00	926.00	954.00	1005.00	1052.00	1093.00	1219.00	1241.00	1279.00	1337.00	1445.00	1502.00	1506.00	1426.00	1369.00	1330.00	1185.00	1114.00	1048.00	979.00	993.00	1026.00	1074.00	1100.00	1041.00	1013.00	990.00	952.00	919.00	933.00	941.00	901.00	854.00	750.00	759.00	851.00	842.00	716.00	678.00	680.00	711.00	729.00	808.00	855.00	849.00	833.00	802.00	779.00	784.00	745.00	711.00	710.00	727.00	725.00	749.00	662.00	626.00	613.00	669.00	703.00	651.00	618.00	647.00	673.00	780.00	835.00	889.00	930.00	955.00	845.00	800.00	757.00	721.00	697.00	728.00	711.00	669.00	644.00	599.00	588.00	584.00	583.00	693.00	718.00	690.00	651.00	608.00	621.00	664.00	711.00	711.00	697.00	752.00	779.00	742.00	707.00	665.00	638.00	594.00	567.00	700.00	743.00	789.00	802.00	714.00	676.00	609.00	555.00	536.00	611.00	533.00	512.00	499.00	462.00	467.00	419.00	416.00	413.00	419.00	518.00	535.00	580.00	676.00	664.00	624.00	570.00	578.00	569.00	606.00	614.00	645.00	752.00	744.00	788.00	838.00	814.00	708.00	651.00	634.00	640.00	741.00	790.00	807.00	764.00	746.00	832.00	845.00	872.00	885.00	923.00	931.00	911.00	885.00	813.00	731.00	699.00	675.00	614.00	695.00	720.00	685.00	674.00	648.00	667.00	619.00	673.00	695.00	674.00	662.00	675.00	716.00	723.00	670.00	657.00	620.00	627.00	688.00	745.00	801.00	822.00	804.00	839.00	873.00	911.00	958.00	939.00	926.00	914.00	908.00	908.00	915.00	936.00	952.00	949.00	801.00	742.00	721.00	747.00	785.00	735.00	639.00	597.00	661.00	731.00	729.00	687.00	649.00	638.00	619.00	608.00	595.00	580.00
578.00	574.00	609.00	626.00	620.00	632.00	643.00	655.00	676.00	633.00	589.00	561.00	563.00	572.00	617.00	632.00	637.00	656.00	659.00	629.00	648.00	700.00	749.00	820.00	848.00	875.00	867.00	828.00	884.00	938.00	998.00	1053.00	1163.00	1212.00	1267.00	1308.00	1231.00	1188.00	1138.00	1060.00	1040.00	1014.00	1003.00	986.00	969.00	970.00	991.00	1014.00	1049.00	1084.00	1156.00	1188.00	1233.00	1291.00	1417.00	1497.00	1534.00	1498.00	1407.00	1305.00	1173.00	1120.00	1068.00	1018.00	1031.00	1058.00	1095.00	1122.00	1052.00	1011.00	981.00	939.00	887.00	921.00	912.00	893.00	885.00	801.00	746.00	808.00	881.00	768.00	701.00	725.00	786.00	822.00	907.00	927.00	920.00	895.00	868.00	803.00	759.00	720.00	696.00	758.00	796.00	750.00	687.00	673.00	690.00	678.00	730.00	721.00	641.00	641.00	707.00	737.00	800.00	862.00	909.00	947.00	935.00	794.00	765.00	735.00	695.00	649.00	643.00	637.00	637.00	648.00	675.00	663.00	627.00	606.00	689.00	725.00	711.00	665.00	632.00	631.00	681.00	737.00	773.00	709.00	719.00	718.00	702.00	656.00	604.00	597.00	601.00	640.00	705.00	763.00	821.00	821.00	706.00	656.00	610.00	577.00	569.00	597.00	581.00	568.00	533.00	503.00	531.00	444.00	416.00	414.00	418.00	466.00	550.00	592.00	692.00	719.00	678.00	626.00	617.00	605.00	586.00	586.00	614.00	729.00	750.00	756.00	804.00	825.00	761.00	715.00	721.00	744.00	759.00	804.00	894.00	879.00	852.00	897.00	890.00	852.00	828.00	857.00	884.00	913.00	928.00	909.00	820.00	769.00	713.00	669.00	637.00	717.00	746.00	722.00	690.00	692.00	642.00	701.00	758.00	762.00	738.00	745.00	778.00	766.00	719.00	745.00	733.00	689.00	639.00	661.00	719.00	742.00	746.00	871.00	889.00	898.00	943.00	949.00	921.00	889.00	859.00	830.00	805.00	810.00	823.00	833.00	873.00	830.00	757.00	693.00	667.00	601.00	611.00	678.00	770.00	877.00	873.00	799.00	779.00	765.00	679.00	649.00	633.00	618.00
606.00	568.00	610.00	671.00	661.00	641.00	638.00	640.00	656.00	661.00	604.00	562.00	564.00	569.00	645.00	630.00	622.00	644.00	612.00	638.00	675.00	715.00	753.00	825.00	868.00	908.00	899.00	884.00	922.00	957.00	1003.00	1059.00	1164.00	1211.00	1282.00	1315.00	1205.00	1161.00	1119.00	1073.00	1072.00	1043.00	1030.00	1023.00	1031.00	1041.00	1036.00	1024.00	1017.00	1039.00	1114.00	1150.00	1201.00	1257.00	1415.00	1502.00	1508.00	1481.00	1416.00	1263.00	1189.00	1146.00	1101.00	1046.00	1057.00	1083.00	1121.00	1124.00	1038.00	990.00	957.00	957.00	886.00	878.00	854.00	842.00	881.00	836.00	758.00	812.00	890.00	750.00	726.00	808.00	849.00	891.00	938.00	921.00	902.00	879.00	832.00	826.00	811.00	792.00	765.00	814.00	828.00	797.00	733.00	673.00	753.00	774.00	746.00	704.00	659.00	661.00	649.00	699.00	774.00	826.00	874.00	921.00	910.00	765.00	721.00	692.00	682.00	703.00	720.00	729.00	730.00	763.00	776.00	688.00	690.00	669.00	624.00	684.00	738.00	716.00	672.00	638.00	687.00	738.00	811.00	723.00	706.00	708.00	691.00	654.00	655.00	673.00	713.00	742.00	732.00	774.00	806.00	783.00	702.00	666.00	639.00	629.00	652.00	650.00	630.00	584.00	542.00	549.00	565.00	516.00	418.00	418.00	421.00	455.00	580.00	664.00	691.00	725.00	702.00	676.00	657.00	589.00	558.00	560.00	575.00	635.00	678.00	737.00	783.00	805.00	838.00	817.00	811.00	833.00	878.00	891.00	943.00	925.00	904.00	870.00	828.00	808.00	759.00	774.00	801.00	827.00	858.00	910.00	831.00	799.00	783.00	757.00	657.00	660.00	727.00	764.00	772.00	691.00	677.00	755.00	821.00	849.00	826.00	851.00	855.00	828.00	808.00	773.00	829.00	802.00	726.00	676.00	651.00	672.00	729.00	809.00	807.00	837.00	925.00	995.00	966.00	925.00	883.00	835.00	757.00	736.00	725.00	719.00	739.00	744.00	758.00	749.00	690.00	655.00	703.00	693.00	768.00	913.00	958.00	929.00	941.00	897.00	787.00	736.00	700.00	672.00
624.00	570.00	599.00	728.00	776.00	693.00	687.00	691.00	673.00	643.00	615.00	578.00	567.00	567.00	637.00	675.00	668.00	669.00	637.00	702.00	744.00	781.00	810.00	828.00	858.00	858.00	822.00	847.00	933.00	987.00	1041.00	1091.00	1183.00	1224.00	1265.00	1290.00	1203.00	1154.00	1124.00	1116.00	1133.00	1116.00	1098.00	1098.00	1113.00	1158.00	1128.00	1074.00	1037.00	1029.00	1099.00	1140.00	1193.00	1254.00	1416.00	1479.00	1477.00	1420.00	1344.00	1237.00	1195.00	1159.00	1109.00	1057.00	1068.00	1094.00	1117.00	1111.00	1035.00	986.00	942.00	887.00	856.00	870.00	868.00	832.00	820.00	830.00	773.00	813.00	893.00	755.00	776.00	850.00	910.00	956.00	964.00	966.00	943.00	913.00	877.00	924.00	907.00	881.00	840.00	761.00	737.00	731.00	704.00	695.00	726.00	767.00	796.00	757.00	710.00	710.00	707.00	682.00	734.00	799.00	867.00	916.00	883.00	744.00	713.00	722.00	774.00	793.00	813.00	835.00	838.00	852.00	808.00	764.00	782.00	752.00	663.00	653.00	728.00	749.00	717.00	668.00	690.00	748.00	797.00	707.00	695.00	696.00	681.00	648.00	716.00	747.00	778.00	788.00	804.00	823.00	822.00	801.00	742.00	709.00	683.00	688.00	734.00	694.00	651.00	611.00	594.00	544.00	553.00	523.00	419.00	418.00	423.00	473.00	561.00	709.00	731.00	713.00	673.00	649.00	616.00	591.00	560.00	539.00	563.00	607.00	653.00	702.00	707.00	712.00	814.00	846.00	873.00	892.00	898.00	892.00	907.00	877.00	829.00	800.00	762.00	743.00	717.00	737.00	747.00	753.00	785.00	886.00	897.00	888.00	863.00	837.00	738.00	672.00	724.00	779.00	830.00	704.00	705.00	771.00	845.00	948.00	949.00	958.00	949.00	948.00	849.00	806.00	855.00	876.00	814.00	747.00	723.00	671.00	683.00	732.00	779.00	844.00	961.00	1035.00	1033.00	988.00	945.00	897.00	803.00	783.00	763.00	732.00	656.00	644.00	644.00	647.00	639.00	710.00	809.00	793.00	785.00	889.00	953.00	1013.00	1036.00	993.00	883.00	838.00	809.00	756.00
624.00	570.00	599.00	728.00	776.00	693.00	687.00	691.00	673.00	643.00	615.00	578.00	567.00	567.00	637.00	675.00	668.00	669.00	637.00	702.00	744.00	781.00	810.00	828.00	858.00	858.00	822.00	847.00	933.00	987.00	1041.00	1091.00	1183.00	1224.00	1265.00	1290.00	1203.00	1154.00	1124.00	1116.00	1133.00	1116.00	1098.00	1098.00	1113.00	1158.00	1128.00	1074.00	1037.00	1029.00	1099.00	1140.00	1193.00	1254.00	1416.00	1479.00	1477.00	1420.00	1344.00	1237.00	1195.00	1159.00	1109.00	1057.00	1068.00	1094.00	1117.00	1111.00	1035.00	986.00	942.00	887.00	856.00	870.00	868.00	832.00	820.00	830.00	773.00	813.00	893.00	755.00	776.00	850.00	910.00	956.00	964.00	966.00	943.00	913.00	877.00	924.00	907.00	881.00	840.00	761.00	737.00	731.00	704.00	695.00	726.00	767.00	796.00	757.00	710.00	710.00	707.00	682.00	734.00	799.00	867.00	916.00	883.00	744.00	713.00	722.00	774.00	793.00	813.00	835.00	838.00	852.00	808.00	764.00	782.00	752.00	663.00	653.00	728.00	749.00	717.00	668.00	690.00	748.00	797.00	707.00	695.00	696.00	681.00	648.00	716.00	747.00	778.00	788.00	804.00	823.00	822.00	801.00	742.00	709.00	683.00	688.00	734.00	694.00	651.00	611.00	594.00	544.00	553.00	523.00	419.00	418.00	423.00	473.00	561.00	709.00	731.00	713.00	673.00	649.00	616.00	591.00	560.00	539.00	563.00	607.00	653.00	702.00	707.00	712.00	814.00	846.00	873.00	892.00	898.00	892.00	907.00	877.00	829.00	800.00	762.00	743.00	717.00	737.00	747.00	753.00	785.00	886.00	897.00	888.00	863.00	837.00	738.00	672.00	724.00	779.00	830.00	704.00	705.00	771.00	845.00	948.00	949.00	958.00	949.00	948.00	849.00	806.00	855.00	876.00	814.00	747.00	723.00	671.00	683.00	732.00	779.00	844.00	961.00	1035.00	1033.00	988.00	945.00	897.00	803.00	783.00	763.00	732.00	656.00	644.00	644.00	647.00	639.00	710.00	809.00	793.00	785.00	889.00	953.00	1013.00	1036.00	993.00	883.00	838.00	809.00	756.00
614.00	580.00	583.00	696.00	811.00	796.00	824.00	806.00	721.00	679.00	658.00	650.00	610.00	587.00	570.00	584.00	625.00	610.00	666.00	707.00	747.00	769.00	781.00	803.00	786.00	753.00	750.00	858.00	950.00	1002.00	1057.00	1111.00	1218.00	1263.00	1300.00	1314.00	1248.00	1205.00	1175.00	1170.00	1187.00	1203.00	1178.00	1176.00	1190.00	1255.00	1207.00	1128.00	1066.00	1048.00	1104.00	1142.00	1199.00	1271.00	1394.00	1402.00	1393.00	1362.00	1285.00	1203.00	1141.00	1113.00	1082.00	1044.00	1047.00	1068.00	1090.00	1091.00	1034.00	1002.00	963.00	907.00	834.00	814.00	865.00	860.00	816.00	775.00	779.00	844.00	882.00	800.00	819.00	830.00	859.00	894.00	980.00	999.00	980.00	942.00	908.00	977.00	925.00	865.00	823.00	804.00	788.00	762.00	701.00	786.00	816.00	824.00	857.00	825.00	785.00	785.00	787.00	776.00	695.00	740.00	826.00	878.00	855.00	760.00	786.00	781.00	804.00	880.00	901.00	926.00	939.00	927.00	867.00	852.00	858.00	815.00	698.00	659.00	728.00	762.00	770.00	744.00	719.00	774.00	787.00	695.00	735.00	749.00	739.00	694.00	755.00	807.00	856.00	847.00	875.00	889.00	887.00	870.00	799.00	757.00	730.00	713.00	701.00	664.00	619.00	564.00	516.00	481.00	465.00	450.00	416.00	423.00	426.00	493.00	568.00	721.00	761.00	720.00	670.00	612.00	582.00	563.00	542.00	526.00	569.00	567.00	594.00	622.00	614.00	664.00	729.00	757.00	788.00	830.00	869.00	824.00	804.00	812.00	793.00	704.00	676.00	684.00	703.00	682.00	674.00	692.00	734.00	838.00	822.00	810.00	829.00	869.00	774.00	703.00	751.00	820.00	859.00	777.00	731.00	763.00	843.00	984.00	1038.00	1056.00	1056.00	1028.00	881.00	918.00	918.00	931.00	877.00	839.00	836.00	766.00	681.00	745.00	789.00	807.00	921.00	1087.00	1114.00	1059.00	993.00	923.00	922.00	883.00	832.00	782.00	729.00	691.00	679.00	670.00	641.00	659.00	763.00	836.00	875.00	940.00	980.00	943.00	940.00	948.00	873.00	840.00	802.00	730.00
650.00	604.00	581.00	601.00	686.00	781.00	818.00	812.00	810.00	780.00	731.00	697.00	656.00	637.00	572.00	572.00	572.00	576.00	669.00	671.00	695.00	730.00	715.00	751.00	694.00	723.00	785.00	881.00	960.00	1007.00	1055.00	1114.00	1265.00	1348.00	1391.00	1382.00	1302.00	1273.00	1251.00	1242.00	1257.00	1267.00	1251.00	1246.00	1244.00	1236.00	1212.00	1178.00	1139.00	1104.00	1137.00	1160.00	1199.00	1251.00	1307.00	1307.00	1305.00	1295.00	1272.00	1195.00	1136.00	1103.00	1076.00	1060.00	1032.00	1019.00	1032.00	1011.00	981.00	963.00	938.00	950.00	862.00	803.00	789.00	798.00	812.00	793.00	787.00	852.00	889.00	870.00	905.00	924.00	910.00	935.00	1015.00	1015.00	987.00	969.00	974.00	923.00	876.00	881.00	897.00	898.00	864.00	808.00	735.00	819.00	880.00	914.00	922.00	919.00	879.00	879.00	886.00	882.00	757.00	716.00	805.00	875.00	872.00	832.00	865.00	859.00	865.00	950.00	989.00	1018.00	1020.00	1005.00	962.00	926.00	909.00	850.00	735.00	679.00	739.00	803.00	824.00	824.00	794.00	823.00	794.00	721.00	767.00	828.00	809.00	746.00	780.00	834.00	879.00	910.00	941.00	957.00	949.00	921.00	848.00	804.00	771.00	737.00	707.00	643.00	564.00	548.00	540.00	505.00	483.00	437.00	421.00	424.00	431.00	533.00	593.00	689.00	776.00	749.00	708.00	676.00	615.00	544.00	527.00	511.00	523.00	569.00	576.00	573.00	599.00	615.00	636.00	652.00	686.00	722.00	808.00	819.00	712.00	764.00	776.00	713.00	669.00	615.00	637.00	623.00	654.00	646.00	665.00	725.00	713.00	750.00	814.00	872.00	834.00	766.00	737.00	797.00	865.00	894.00	837.00	784.00	793.00	910.00	967.00	1029.00	1101.00	1099.00	981.00	1041.00	1027.00	1020.00	968.00	930.00	893.00	821.00	738.00	743.00	813.00	883.00	908.00	1054.00	1131.00	1144.00	1084.00	1047.00	967.00	918.00	900.00	876.00	770.00	772.00	758.00	731.00	686.00	623.00	657.00	747.00	837.00	982.00	1026.00	929.00	885.00	848.00	776.00	761.00	754.00	739.00
686.00	630.00	595.00	591.00	629.00	775.00	815.00	847.00	940.00	878.00	799.00	739.00	718.00	718.00	620.00	592.00	577.00	576.00	594.00	623.00	635.00	638.00	657.00	655.00	671.00	740.00	805.00	872.00	940.00	985.00	1033.00	1084.00	1237.00	1330.00	1416.00	1446.00	1361.00	1337.00	1329.00	1336.00	1357.00	1321.00	1306.00	1296.00	1285.00	1249.00	1230.00	1213.00	1187.00	1154.00	1193.00	1201.00	1209.00	1228.00	1260.00	1269.00	1276.00	1281.00	1277.00	1221.00	1169.00	1127.00	1107.00	1070.00	1022.00	965.00	937.00	928.00	899.00	877.00	841.00	862.00	817.00	839.00	862.00	895.00	918.00	800.00	827.00	908.00	905.00	901.00	934.00	966.00	993.00	1023.00	1063.00	1042.00	1029.00	1040.00	1018.00	908.00	894.00	964.00	982.00	905.00	846.00	798.00	753.00	828.00	887.00	941.00	1007.00	1014.00	990.00	978.00	970.00	934.00	803.00	726.00	790.00	865.00	897.00	887.00	913.00	929.00	936.00	1021.00	1065.00	1088.00	1091.00	1093.00	1056.00	956.00	915.00	869.00	766.00	697.00	728.00	799.00	850.00	901.00	896.00	887.00	799.00	765.00	774.00	823.00	835.00	793.00	814.00	840.00	877.00	927.00	1005.00	1019.00	1012.00	984.00	903.00	856.00	816.00	784.00	753.00	689.00	643.00	636.00	623.00	538.00	495.00	463.00	429.00	425.00	421.00	450.00	502.00	600.00	730.00	723.00	690.00	685.00	664.00	566.00	534.00	514.00	496.00	532.00	539.00	584.00	587.00	582.00	586.00	599.00	599.00	628.00	710.00	731.00	667.00	741.00	771.00	666.00	623.00	590.00	561.00	622.00	614.00	590.00	609.00	636.00	715.00	774.00	807.00	832.00	882.00	838.00	783.00	768.00	803.00	948.00	929.00	890.00	851.00	907.00	964.00	1019.00	1045.00	1049.00	1072.00	1123.00	1142.00	1132.00	1010.00	942.00	870.00	832.00	813.00	737.00	834.00	908.00	1010.00	1070.00	1138.00	1189.00	1194.00	1162.00	1070.00	1024.00	945.00	892.00	895.00	863.00	815.00	769.00	731.00	651.00	635.00	655.00	726.00	896.00	960.00	976.00	925.00	871.00	805.00	876.00	903.00	866.00
686.00	630.00	595.00	591.00	629.00	775.00	815.00	847.00	940.00	878.00	799.00	739.00	718.00	718.00	620.00	592.00	577.00	576.00	594.00	623.00	635.00	638.00	657.00	655.00	671.00	740.00	805.00	872.00	940.00	985.00	1033.00	1084.00	1237.00	1330.00	1416.00	1446.00	1361.00	1337.00	1329.00	1336.00	1357.00	1321.00	1306.00	1296.00	1285.00	1249.00	1230.00	1213.00	1187.00	1154.00	1193.00	1201.00	1209.00	1228.00	1260.00	1269.00	1276.00	1281.00	1277.00	1221.00	1169.00	1127.00	1107.00	1070.00	1022.00	965.00	937.00	928.00	899.00	877.00	841.00	862.00	817.00	839.00	862.00	895.00	918.00	800.00	827.00	908.00	905.00	901.00	934.00	966.00	993.00	1023.00	1063.00	1042.00	1029.00	1040.00	1018.00	908.00	894.00	964.00	982.00	905.00	846.00	798.00	753.00	828.00	887.00	941.00	1007.00	1014.00	990.00	978.00	970.00	934.00	803.00	726.00	790.00	865.00	897.00	887.00	913.00	929.00	936.00	1021.00	1065.00	1088.00	1091.00	1093.00	1056.00	956.00	915.00	869.00	766.00	697.00	728.00	799.00	850.00	901.00	896.00	887.00	799.00	765.00	774.00	823.00	835.00	793.00	814.00	840.00	877.00	927.00	1005.00	1019.00	1012.00	984.00	903.00	856.00	816.00	784.00	753.00	689.00	643.00	636.00	623.00	538.00	495.00	463.00	429.00	425.00	421.00	450.00	502.00	600.00	730.00	723.00	690.00	685.00	664.00	566.00	534.00	514.00	496.00	532.00	539.00	584.00	587.00	582.00	586.00	599.00	599.00	628.00	710.00	731.00	667.00	741.00	771.00	666.00	623.00	590.00	561.00	622.00	614.00	590.00	609.00	636.00	715.00	774.00	807.00	832.00	882.00	838.00	783.00	768.00	803.00	948.00	929.00	890.00	851.00	907.00	964.00	1019.00	1045.00	1049.00	1072.00	1123.00	1142.00	1132.00	1010.00	942.00	870.00	832.00	813.00	737.00	834.00	908.00	1010.00	1070.00	1138.00	1189.00	1194.00	1162.00	1070.00	1024.00	945.00	892.00	895.00	863.00	815.00	769.00	731.00	651.00	635.00	655.00	726.00	896.00	960.00	976.00	925.00	871.00	805.00	876.00	903.00	866.00
728.00	666.00	630.00	595.00	651.00	776.00	821.00	880.00	968.00	934.00	842.00	793.00	783.00	764.00	715.00	691.00	647.00	615.00	579.00	580.00	587.00	630.00	634.00	641.00	699.00	753.00	771.00	821.00	917.00	953.00	992.00	1035.00	1145.00	1235.00	1338.00	1434.00	1414.00	1405.00	1393.00	1448.00	1442.00	1368.00	1354.00	1344.00	1332.00	1314.00	1272.00	1229.00	1205.00	1182.00	1193.00	1210.00	1224.00	1238.00	1263.00	1273.00	1282.00	1289.00	1288.00	1280.00	1238.00	1179.00	1129.00	1025.00	978.00	933.00	894.00	871.00	854.00	879.00	907.00	827.00	884.00	923.00	947.00	957.00	963.00	828.00	802.00	876.00	871.00	880.00	919.00	964.00	1006.00	1049.00	1084.00	1066.00	1055.00	1058.00	984.00	911.00	940.00	1012.00	1017.00	899.00	818.00	800.00	815.00	842.00	916.00	980.00	1031.00	1043.00	1006.00	957.00	916.00	873.00	774.00	740.00	773.00	799.00	839.00	937.00	968.00	1002.00	1016.00	1062.00	1068.00	1074.00	1087.00	1086.00	1052.00	969.00	919.00	867.00	765.00	710.00	745.00	809.00	860.00	964.00	965.00	928.00	835.00	787.00	834.00	852.00	851.00	844.00	853.00	862.00	882.00	923.00	1029.00	1049.00	1068.00	1063.00	958.00	913.00	874.00	841.00	813.00	754.00	706.00	695.00	664.00	584.00	547.00	517.00	490.00	442.00	425.00	428.00	430.00	553.00	671.00	672.00	633.00	659.00	663.00	557.00	526.00	501.00	488.00	568.00	578.00	586.00	583.00	551.00	567.00	556.00	577.00	595.00	635.00	651.00	642.00	712.00	743.00	707.00	655.00	595.00	542.00	565.00	562.00	552.00	568.00	602.00	665.00	690.00	730.00	790.00	893.00	906.00	888.00	859.00	821.00	908.00	939.00	959.00	945.00	961.00	973.00	957.00	946.00	948.00	1004.00	1085.00	1128.00	1149.00	1024.00	965.00	898.00	844.00	783.00	728.00	802.00	874.00	972.00	1064.00	1069.00	1095.00	1139.00	1194.00	1121.00	1025.00	987.00	1030.00	980.00	930.00	861.00	809.00	755.00	682.00	665.00	647.00	685.00	810.00	882.00	992.00	996.00	945.00	846.00	898.00	945.00	932.00
752.00	698.00	677.00	623.00	629.00	721.00	774.00	841.00	904.00	906.00	881.00	870.00	873.00	863.00	790.00	752.00	708.00	675.00	616.00	597.00	589.00	586.00	588.00	647.00	656.00	670.00	713.00	826.00	876.00	909.00	948.00	991.00	1088.00	1165.00	1257.00	1343.00	1367.00	1341.00	1332.00	1388.00	1433.00	1410.00	1398.00	1390.00	1387.00	1403.00	1342.00	1280.00	1244.00	1217.00	1210.00	1230.00	1251.00	1271.00	1309.00	1316.00	1320.00	1328.00	1338.00	1334.00	1255.00	1200.00	1144.00	1005.00	950.00	918.00	901.00	910.00	929.00	944.00	896.00	860.00	958.00	979.00	981.00	955.00	919.00	834.00	809.00	820.00	830.00	926.00	925.00	956.00	1007.00	1061.00	1073.00	1046.00	1013.00	995.00	936.00	978.00	1010.00	1052.00	1048.00	909.00	828.00	882.00	927.00	821.00	894.00	983.00	996.00	1031.00	1035.00	1001.00	957.00	892.00	769.00	786.00	843.00	866.00	858.00	973.00	1012.00	1050.00	1077.00	1050.00	1026.00	1034.00	1032.00	1021.00	1015.00	981.00	969.00	936.00	797.00	734.00	754.00	824.00	877.00	979.00	969.00	930.00	846.00	851.00	882.00	910.00	909.00	905.00	879.00	852.00	858.00	881.00	993.00	1014.00	1034.00	1052.00	999.00	962.00	929.00	900.00	879.00	826.00	766.00	746.00	711.00	637.00	609.00	585.00	553.00	506.00	426.00	428.00	429.00	516.00	633.00	617.00	583.00	636.00	625.00	558.00	501.00	478.00	518.00	563.00	554.00	584.00	574.00	546.00	526.00	566.00	564.00	577.00	590.00	608.00	605.00	647.00	671.00	600.00	584.00	561.00	537.00	531.00	551.00	563.00	569.00	605.00	644.00	678.00	720.00	776.00	890.00	948.00	962.00	930.00	897.00	941.00	949.00	944.00	913.00	932.00	944.00	894.00	862.00	856.00	925.00	1024.00	1050.00	1074.00	971.00	916.00	852.00	796.00	809.00	765.00	746.00	785.00	919.00	984.00	966.00	1017.00	1079.00	1139.00	1180.00	1148.00	1141.00	1160.00	1020.00	946.00	870.00	805.00	777.00	725.00	693.00	674.00	667.00	781.00	817.00	905.00	950.00	975.00	955.00	927.00	922.00	950.00
744.00	688.00	667.00	632.00	616.00	760.00	786.00	785.00	837.00	901.00	925.00	946.00	974.00	984.00	886.00	834.00	782.00	762.00	691.00	659.00	628.00	608.00	593.00	633.00	665.00	686.00	710.00	753.00	833.00	885.00	916.00	944.00	1047.00	1109.00	1179.00	1242.00	1305.00	1268.00	1258.00	1298.00	1349.00	1423.00	1415.00	1408.00	1416.00	1442.00	1388.00	1343.00	1294.00	1254.00	1236.00	1255.00	1281.00	1307.00	1377.00	1390.00	1377.00	1374.00	1379.00	1338.00	1230.00	1179.00	1124.00	1006.00	967.00	948.00	951.00	943.00	910.00	882.00	862.00	922.00	1011.00	1008.00	981.00	952.00	933.00	874.00	824.00	823.00	868.00	975.00	988.00	1002.00	1036.00	1066.00	1053.00	1028.00	997.00	964.00	959.00	1023.00	1052.00	1086.00	1093.00	939.00	860.00	911.00	983.00	887.00	847.00	904.00	1017.00	1032.00	1028.00	978.00	925.00	874.00	814.00	858.00	843.00	890.00	923.00	1039.00	1081.00	1125.00	1139.00	1048.00	991.00	971.00	988.00	970.00	993.00	920.00	914.00	911.00	805.00	750.00	770.00	850.00	890.00	973.00	984.00	962.00	934.00	916.00	918.00	930.00	925.00	911.00	847.00	813.00	809.00	821.00	958.00	975.00	983.00	996.00	1019.00	1002.00	978.00	958.00	942.00	895.00	832.00	809.00	772.00	695.00	643.00	597.00	554.00	496.00	429.00	431.00	429.00	481.00	542.00	526.00	561.00	557.00	546.00	488.00	484.00	514.00	533.00	538.00	544.00	595.00	576.00	547.00	518.00	529.00	544.00	592.00	556.00	592.00	609.00	617.00	623.00	583.00	525.00	510.00	518.00	580.00	625.00	626.00	609.00	724.00	758.00	772.00	780.00	796.00	864.00	884.00	895.00	882.00	879.00	905.00	892.00	857.00	824.00	877.00	898.00	853.00	807.00	795.00	905.00	948.00	995.00	1022.00	964.00	903.00	836.00	846.00	904.00	867.00	812.00	769.00	866.00	872.00	909.00	969.00	1015.00	1070.00	1199.00	1260.00	1294.00	1259.00	991.00	929.00	898.00	875.00	822.00	762.00	751.00	715.00	681.00	729.00	760.00	804.00	841.00	901.00	1009.00	1027.00	1025.00	1018.00
708.00	646.00	636.00	617.00	618.00	810.00	888.00	905.00	912.00	941.00	964.00	994.00	1035.00	1091.00	973.00	924.00	876.00	841.00	758.00	722.00	684.00	650.00	622.00	604.00	664.00	666.00	648.00	731.00	786.00	795.00	827.00	884.00	995.00	1038.00	1091.00	1143.00	1174.00	1164.00	1183.00	1249.00	1288.00	1388.00	1412.00	1408.00	1416.00	1478.00	1445.00	1395.00	1341.00	1293.00	1277.00	1301.00	1322.00	1345.00	1399.00	1420.00	1424.00	1418.00	1405.00	1330.00	1233.00	1200.00	1156.00	1063.00	1032.00	1002.00	983.00	947.00	898.00	904.00	930.00	989.00	1021.00	985.00	949.00	915.00	896.00	832.00	830.00	849.00	871.00	967.00	1008.00	1043.00	1074.00	1086.00	1048.00	996.00	979.00	993.00	1012.00	1051.00	1090.00	1133.00	1117.00	938.00	897.00	953.00	1026.00	948.00	881.00	934.00	996.00	1026.00	1041.00	985.00	918.00	853.00	871.00	911.00	901.00	925.00	967.00	1115.00	1155.00	1169.00	1136.00	1028.00	970.00	925.00	920.00	926.00	999.00	930.00	884.00	849.00	794.00	774.00	770.00	809.00	844.00	925.00	977.00	1004.00	1001.00	966.00	942.00	919.00	896.00	879.00	834.00	815.00	781.00	759.00	919.00	924.00	926.00	941.00	971.00	986.00	997.00	1004.00	1001.00	958.00	891.00	853.00	813.00	714.00	663.00	609.00	557.00	503.00	429.00	432.00	432.00	432.00	474.00	508.00	478.00	462.00	486.00	562.00	549.00	570.00	561.00	535.00	517.00	550.00	548.00	529.00	500.00	535.00	558.00	579.00	525.00	555.00	546.00	548.00	536.00	524.00	534.00	557.00	581.00	630.00	686.00	713.00	686.00	752.00	820.00	836.00	824.00	807.00	795.00	809.00	831.00	799.00	803.00	801.00	796.00	801.00	751.00	819.00	856.00	830.00	772.00	770.00	819.00	932.00	991.00	993.00	906.00	871.00	886.00	919.00	960.00	922.00	870.00	833.00	803.00	893.00	938.00	972.00	1011.00	1054.00	1169.00	1245.00	1309.00	1272.00	1017.00	959.00	904.00	876.00	864.00	860.00	804.00	748.00	700.00	754.00	733.00	756.00	784.00	819.00	922.00	985.00	1047.00	1092.00
708.00	646.00	636.00	617.00	618.00	810.00	888.00	905.00	912.00	941.00	964.00	994.00	1035.00	1091.00	973.00	924.00	876.00	841.00	758.00	722.00	684.00	650.00	622.00	604.00	664.00	666.00	648.00	731.00	786.00	795.00	827.00	884.00	995.00	1038.00	1091.00	1143.00	1174.00	1164.00	1183.00	1249.00	1288.00	1388.00	1412.00	1408.00	1416.00	1478.00	1445.00	1395.00	1341.00	1293.00	1277.00	1301.00	1322.00	1345.00	1399.00	1420.00	1424.00	1418.00	1405.00	1330.00	1233.00	1200.00	1156.00	1063.00	1032.00	1002.00	983.00	947.00	898.00	904.00	930.00	989.00	1021.00	985.00	949.00	915.00	896.00	832.00	830.00	849.00	871.00	967.00	1008.00	1043.00	1074.00	1086.00	1048.00	996.00	979.00	993.00	1012.00	1051.00	1090.00	1133.00	1117.00	938.00	897.00	953.00	1026.00	948.00	881.00	934.00	996.00	1026.00	1041.00	985.00	918.00	853.00	871.00	911.00	901.00	925.00	967.00	1115.00	1155.00	1169.00	1136.00	1028.00	970.00	925.00	920.00	926.00	999.00	930.00	884.00	849.00	794.00	774.00	770.00	809.00	844.00	925.00	977.00	1004.00	1001.00	966.00	942.00	919.00	896.00	879.00	834.00	815.00	781.00	759.00	919.00	924.00	926.00	941.00	971.00	986.00	997.00	1004.00	1001.00	958.00	891.00	853.00	813.00	714.00	663.00	609.00	557.00	503.00	429.00	432.00	432.00	432.00	474.00	508.00	478.00	462.00	486.00	562.00	549.00	570.00	561.00	535.00	517.00	550.00	548.00	529.00	500.00	535.00	558.00	579.00	525.00	555.00	546.00	548.00	536.00	524.00	534.00	557.00	581.00	630.00	686.00	713.00	686.00	752.00	820.00	836.00	824.00	807.00	795.00	809.00	831.00	799.00	803.00	801.00	796.00	801.00	751.00	819.00	856.00	830.00	772.00	770.00	819.00	932.00	991.00	993.00	906.00	871.00	886.00	919.00	960.00	922.00	870.00	833.00	803.00	893.00	938.00	972.00	1011.00	1054.00	1169.00	1245.00	1309.00	1272.00	1017.00	959.00	904.00	876.00	864.00	860.00	804.00	748.00	700.00	754.00	733.00	756.00	784.00	819.00	922.00	985.00	1047.00	1092.00
712.00	687.00	677.00	633.00	619.00	797.00	911.00	971.00	992.00	1011.00	1017.00	1035.00	1059.00	1084.00	1033.00	999.00	953.00	910.00	816.00	786.00	751.00	710.00	661.00	611.00	600.00	612.00	672.00	663.00	697.00	740.00	781.00	827.00	937.00	981.00	1023.00	1053.00	1069.00	1103.00	1171.00	1259.00	1294.00	1315.00	1310.00	1305.00	1315.00	1421.00	1453.00	1445.00	1411.00	1355.00	1341.00	1376.00	1396.00	1411.00	1463.00	1491.00	1515.00	1523.00	1490.00	1345.00	1271.00	1263.00	1226.00	1116.00	1074.00	1034.00	995.00	982.00	958.00	973.00	992.00	1018.00	1008.00	980.00	954.00	928.00	897.00	833.00	875.00	920.00	928.00	1006.00	1042.00	1069.00	1083.00	1076.00	1019.00	993.00	1024.00	1047.00	1062.00	1097.00	1135.00	1172.00	1126.00	961.00	1003.00	1002.00	1025.00	1024.00	964.00	923.00	1010.00	1060.00	1023.00	971.00	907.00	855.00	929.00	932.00	956.00	981.00	1023.00	1154.00	1154.00	1120.00	1072.00	969.00	932.00	907.00	874.00	901.00	970.00	976.00	940.00	899.00	840.00	820.00	814.00	860.00	903.00	966.00	994.00	999.00	949.00	961.00	960.00	924.00	894.00	885.00	822.00	798.00	767.00	712.00	864.00	861.00	866.00	886.00	909.00	928.00	950.00	980.00	1014.00	1018.00	913.00	862.00	805.00	700.00	653.00	605.00	558.00	509.00	447.00	430.00	429.00	435.00	459.00	472.00	472.00	510.00	557.00	595.00	563.00	542.00	520.00	515.00	495.00	508.00	516.00	503.00	498.00	554.00	530.00	518.00	507.00	532.00	501.00	491.00	529.00	641.00	644.00	653.00	692.00	724.00	750.00	763.00	726.00	698.00	769.00	759.00	736.00	719.00	738.00	780.00	777.00	728.00	772.00	747.00	706.00	717.00	702.00	745.00	781.00	770.00	725.00	746.00	801.00	921.00	974.00	993.00	907.00	924.00	981.00	1013.00	1028.00	958.00	955.00	907.00	807.00	887.00	912.00	944.00	996.00	1057.00	1144.00	1192.00	1245.00	1281.00	1082.00	1052.00	1033.00	1015.00	995.00	917.00	846.00	775.00	721.00	833.00	852.00	778.00	767.00	792.00	862.00	911.00	957.00	1022.00
712.00	687.00	677.00	633.00	619.00	797.00	911.00	971.00	992.00	1011.00	1017.00	1035.00	1059.00	1084.00	1033.00	999.00	953.00	910.00	816.00	786.00	751.00	710.00	661.00	611.00	600.00	612.00	672.00	663.00	697.00	740.00	781.00	827.00	937.00	981.00	1023.00	1053.00	1069.00	1103.00	1171.00	1259.00	1294.00	1315.00	1310.00	1305.00	1315.00	1421.00	1453.00	1445.00	1411.00	1355.00	1341.00	1376.00	1396.00	1411.00	1463.00	1491.00	1515.00	1523.00	1490.00	1345.00	1271.00	1263.00	1226.00	1116.00	1074.00	1034.00	995.00	982.00	958.00	973.00	992.00	1018.00	1008.00	980.00	954.00	928.00	897.00	833.00	875.00	920.00	928.00	1006.00	1042.00	1069.00	1083.00	1076.00	1019.00	993.00	1024.00	1047.00	1062.00	1097.00	1135.00	1172.00	1126.00	961.00	1003.00	1002.00	1025.00	1024.00	964.00	923.00	1010.00	1060.00	1023.00	971.00	907.00	855.00	929.00	932.00	956.00	981.00	1023.00	1154.00	1154.00	1120.00	1072.00	969.00	932.00	907.00	874.00	901.00	970.00	976.00	940.00	899.00	840.00	820.00	814.00	860.00	903.00	966.00	994.00	999.00	949.00	961.00	960.00	924.00	894.00	885.00	822.00	798.00	767.00	712.00	864.00	861.00	866.00	886.00	909.00	928.00	950.00	980.00	1014.00	1018.00	913.00	862.00	805.00	700.00	653.00	605.00	558.00	509.00	447.00	430.00	429.00	435.00	459.00	472.00	472.00	510.00	557.00	595.00	563.00	542.00	520.00	515.00	495.00	508.00	516.00	503.00	498.00	554.00	530.00	518.00	507.00	532.00	501.00	491.00	529.00	641.00	644.00	653.00	692.00	724.00	750.00	763.00	726.00	698.00	769.00	759.00	736.00	719.00	738.00	780.00	777.00	728.00	772.00	747.00	706.00	717.00	702.00	745.00	781.00	770.00	725.00	746.00	801.00	921.00	974.00	993.00	907.00	924.00	981.00	1013.00	1028.00	958.00	955.00	907.00	807.00	887.00	912.00	944.00	996.00	1057.00	1144.00	1192.00	1245.00	1281.00	1082.00	1052.00	1033.00	1015.00	995.00	917.00	846.00	775.00	721.00	833.00	852.00	778.00	767.00	792.00	862.00	911.00	957.00	1022.00
763.00	699.00	664.00	634.00	624.00	699.00	771.00	838.00	913.00	933.00	944.00	959.00	980.00	1013.00	1025.00	1048.00	1027.00	991.00	891.00	853.00	817.00	775.00	723.00	651.00	629.00	608.00	601.00	667.00	715.00	746.00	775.00	794.00	881.00	923.00	935.00	944.00	1033.00	1100.00	1173.00	1254.00	1257.00	1245.00	1229.00	1226.00	1235.00	1309.00	1357.00	1412.00	1449.00	1415.00	1396.00	1448.00	1484.00	1516.00	1593.00	1604.00	1619.00	1605.00	1547.00	1410.00	1347.00	1336.00	1292.00	1159.00	1105.00	1064.00	1032.00	1012.00	1006.00	1028.00	1029.00	989.00	962.00	957.00	944.00	912.00	884.00	854.00	863.00	910.00	949.00	1062.00	1091.00	1102.00	1089.00	1061.00	1008.00	1011.00	1038.00	1065.00	1119.00	1154.00	1178.00	1173.00	1110.00	1067.00	1115.00	1102.00	1078.00	1091.00	1035.00	990.00	1017.00	1048.00	989.00	940.00	893.00	878.00	928.00	962.00	988.00	1021.00	1066.00	1149.00	1118.00	1080.00	1050.00	1012.00	966.00	915.00	871.00	845.00	929.00	1024.00	998.00	967.00	903.00	884.00	860.00	896.00	942.00	1019.00	1045.00	1023.00	918.00	862.00	899.00	878.00	863.00	846.00	801.00	775.00	728.00	685.00	825.00	804.00	801.00	839.00	838.00	859.00	887.00	919.00	959.00	954.00	870.00	829.00	771.00	669.00	627.00	577.00	531.00	489.00	477.00	436.00	432.00	437.00	451.00	503.00	524.00	528.00	569.00	532.00	492.00	501.00	479.00	515.00	493.00	494.00	493.00	496.00	550.00	561.00	522.00	479.00	479.00	481.00	487.00	522.00	602.00	696.00	706.00	680.00	680.00	690.00	717.00	696.00	657.00	707.00	724.00	696.00	653.00	653.00	767.00	796.00	739.00	685.00	745.00	666.00	642.00	652.00	669.00	673.00	684.00	685.00	706.00	750.00	822.00	868.00	918.00	964.00	948.00	971.00	1030.00	1086.00	1121.00	1083.00	1055.00	997.00	889.00	859.00	922.00	960.00	995.00	1030.00	1109.00	1169.00	1233.00	1302.00	1132.00	1091.00	1062.00	1020.00	987.00	874.00	815.00	780.00	750.00	826.00	879.00	904.00	853.00	811.00	843.00	870.00	901.00	946.00
806.00	731.00	690.00	665.00	648.00	638.00	650.00	671.00	763.00	814.00	833.00	853.00	869.00	897.00	938.00	963.00	998.00	1035.00	974.00	933.00	901.00	858.00	802.00	712.00	674.00	641.00	615.00	645.00	739.00	735.00	722.00	729.00	811.00	819.00	837.00	897.00	1016.00	1076.00	1129.00	1178.00	1187.00	1204.00	1180.00	1168.00	1186.00	1261.00	1318.00	1387.00	1417.00	1421.00	1401.00	1454.00	1486.00	1520.00	1656.00	1698.00	1663.00	1632.00	1585.00	1517.00	1440.00	1382.00	1318.00	1192.00	1141.00	1100.00	1066.00	1041.00	1045.00	1058.00	1039.00	983.00	919.00	911.00	896.00	879.00	885.00	920.00	880.00	895.00	949.00	1130.00	1145.00	1131.00	1098.00	1059.00	1045.00	1044.00	1057.00	1084.00	1171.00	1202.00	1189.00	1151.00	1121.00	1204.00	1210.00	1169.00	1141.00	1122.00	1080.00	1039.00	1000.00	1024.00	975.00	942.00	931.00	958.00	941.00	963.00	996.00	1033.00	1078.00	1154.00	1129.00	1120.00	1136.00	1099.00	1037.00	975.00	915.00	849.00	902.00	1012.00	982.00	944.00	951.00	925.00	900.00	911.00	930.00	975.00	993.00	1004.00	939.00	825.00	792.00	788.00	766.00	762.00	737.00	723.00	701.00	671.00	735.00	716.00	754.00	743.00	755.00	783.00	820.00	852.00	886.00	856.00	803.00	775.00	731.00	626.00	582.00	545.00	510.00	473.00	525.00	482.00	447.00	434.00	437.00	439.00	469.00	511.00	511.00	451.00	444.00	450.00	457.00	499.00	475.00	480.00	524.00	556.00	506.00	471.00	467.00	470.00	475.00	477.00	504.00	549.00	577.00	589.00	634.00	625.00	597.00	639.00	675.00	625.00	625.00	701.00	643.00	618.00	632.00	686.00	746.00	754.00	714.00	649.00	677.00	644.00	703.00	757.00	791.00	767.00	733.00	733.00	737.00	731.00	763.00	874.00	927.00	977.00	1016.00	1024.00	1067.00	1124.00	1173.00	1149.00	1096.00	1026.00	907.00	871.00	900.00	915.00	961.00	1034.00	1144.00	1196.00	1269.00	1319.00	1072.00	1002.00	964.00	934.00	909.00	879.00	877.00	847.00	788.00	892.00	919.00	983.00	956.00	921.00	866.00	866.00	880.00	908.00
862.00	749.00	719.00	682.00	675.00	686.00	675.00	646.00	669.00	743.00	766.00	787.00	806.00	826.00	871.00	893.00	925.00	958.00	1035.00	1020.00	999.00	960.00	883.00	771.00	719.00	677.00	645.00	609.00	651.00	662.00	670.00	700.00	729.00	755.00	823.00	886.00	963.00	1002.00	1034.00	1083.00	1106.00	1145.00	1128.00	1105.00	1122.00	1201.00	1247.00	1295.00	1311.00	1316.00	1306.00	1318.00	1349.00	1391.00	1534.00	1573.00	1541.00	1516.00	1504.00	1554.00	1498.00	1405.00	1340.00	1225.00	1176.00	1135.00	1102.00	1081.00	1072.00	1052.00	1022.00	945.00	911.00	901.00	897.00	916.00	946.00	957.00	906.00	906.00	965.00	1143.00	1150.00	1134.00	1112.00	1090.00	1096.00	1116.00	1128.00	1132.00	1179.00	1208.00	1200.00	1192.00	1203.00	1280.00	1241.00	1211.00	1193.00	1116.00	1082.00	1049.00	1017.00	1042.00	1020.00	1002.00	988.00	1023.00	1009.00	1032.00	1063.00	1089.00	1117.00	1192.00	1174.00	1168.00	1184.00	1143.00	1088.00	1022.00	950.00	874.00	847.00	960.00	956.00	905.00	907.00	897.00	866.00	865.00	900.00	907.00	935.00	970.00	907.00	840.00	843.00	840.00	840.00	827.00	768.00	766.00	764.00	771.00	638.00	640.00	659.00	643.00	682.00	733.00	766.00	799.00	801.00	785.00	724.00	727.00	702.00	593.00	539.00	502.00	489.00	525.00	600.00	552.00	511.00	438.00	438.00	437.00	439.00	442.00	443.00	443.00	442.00	442.00	446.00	470.00	505.00	531.00	546.00	507.00	458.00	461.00	467.00	478.00	492.00	497.00	499.00	498.00	497.00	507.00	516.00	521.00	525.00	556.00	579.00	561.00	562.00	589.00	584.00	622.00	653.00	682.00	676.00	661.00	632.00	602.00	603.00	690.00	735.00	770.00	799.00	851.00	842.00	851.00	865.00	830.00	764.00	872.00	932.00	993.00	1063.00	1066.00	1094.00	1140.00	1174.00	1157.00	1104.00	1044.00	967.00	955.00	979.00	1001.00	996.00	1021.00	1126.00	1183.00	1247.00	1308.00	1128.00	1103.00	1060.00	1030.00	1014.00	951.00	882.00	832.00	837.00	856.00	940.00	1038.00	1058.00	1030.00	949.00	924.00	906.00	907.00
866.00	763.00	743.00	725.00	712.00	683.00	661.00	688.00	661.00	683.00	708.00	733.00	755.00	776.00	818.00	842.00	866.00	892.00	987.00	1012.00	1030.00	1022.00	944.00	823.00	765.00	720.00	685.00	634.00	605.00	622.00	652.00	673.00	715.00	755.00	793.00	826.00	888.00	917.00	945.00	987.00	1021.00	1080.00	1062.00	1024.00	1046.00	1131.00	1155.00	1176.00	1191.00	1211.00	1216.00	1222.00	1245.00	1290.00	1391.00	1415.00	1391.00	1367.00	1385.00	1504.00	1439.00	1375.00	1327.00	1227.00	1185.00	1147.00	1115.00	1092.00	1054.00	1034.00	1009.00	961.00	967.00	953.00	953.00	973.00	996.00	949.00	912.00	941.00	981.00	1089.00	1117.00	1136.00	1145.00	1144.00	1162.00	1180.00	1201.00	1206.00	1192.00	1223.00	1235.00	1248.00	1260.00	1280.00	1248.00	1238.00	1197.00	1109.00	1088.00	1063.00	1040.00	1052.00	1076.00	1057.00	1048.00	1062.00	1087.00	1106.00	1125.00	1140.00	1154.00	1149.00	1133.00	1140.00	1159.00	1118.00	1071.00	1021.00	957.00	888.00	785.00	853.00	862.00	831.00	880.00	864.00	833.00	845.00	892.00	871.00	913.00	960.00	928.00	938.00	957.00	949.00	952.00	935.00	883.00	879.00	879.00	872.00	718.00	665.00	634.00	618.00	613.00	654.00	691.00	712.00	725.00	740.00	651.00	622.00	607.00	527.00	503.00	523.00	567.00	635.00	629.00	553.00	530.00	464.00	442.00	441.00	440.00	442.00	442.00	444.00	446.00	449.00	447.00	474.00	505.00	494.00	468.00	456.00	463.00	479.00	490.00	496.00	501.00	502.00	524.00	532.00	550.00	590.00	611.00	603.00	561.00	545.00	573.00	594.00	592.00	571.00	566.00	562.00	565.00	577.00	583.00	587.00	607.00	635.00	663.00	666.00	718.00	765.00	814.00	909.00	941.00	959.00	940.00	882.00	807.00	890.00	957.00	1014.00	1018.00	1024.00	1065.00	1121.00	1134.00	1141.00	1135.00	1098.00	1008.00	1026.00	1060.00	1084.00	1071.00	1073.00	1147.00	1195.00	1244.00	1300.00	1256.00	1185.00	1116.00	1063.00	993.00	898.00	887.00	894.00	971.00	908.00	911.00	1070.00	1136.00	1144.00	1023.00	982.00	954.00	938.00
866.00	763.00	743.00	725.00	712.00	683.00	661.00	688.00	661.00	683.00	708.00	733.00	755.00	776.00	818.00	842.00	866.00	892.00	987.00	1012.00	1030.00	1022.00	944.00	823.00	765.00	720.00	685.00	634.00	605.00	622.00	652.00	673.00	715.00	755.00	793.00	826.00	888.00	917.00	945.00	987.00	1021.00	1080.00	1062.00	1024.00	1046.00	1131.00	1155.00	1176.00	1191.00	1211.00	1216.00	1222.00	1245.00	1290.00	1391.00	1415.00	1391.00	1367.00	1385.00	1504.00	1439.00	1375.00	1327.00	1227.00	1185.00	1147.00	1115.00	1092.00	1054.00	1034.00	1009.00	961.00	967.00	953.00	953.00	973.00	996.00	949.00	912.00	941.00	981.00	1089.00	1117.00	1136.00	1145.00	1144.00	1162.00	1180.00	1201.00	1206.00	1192.00	1223.00	1235.00	1248.00	1260.00	1280.00	1248.00	1238.00	1197.00	1109.00	1088.00	1063.00	1040.00	1052.00	1076.00	1057.00	1048.00	1062.00	1087.00	1106.00	1125.00	1140.00	1154.00	1149.00	1133.00	1140.00	1159.00	1118.00	1071.00	1021.00	957.00	888.00	785.00	853.00	862.00	831.00	880.00	864.00	833.00	845.00	892.00	871.00	913.00	960.00	928.00	938.00	957.00	949.00	952.00	935.00	883.00	879.00	879.00	872.00	718.00	665.00	634.00	618.00	613.00	654.00	691.00	712.00	725.00	740.00	651.00	622.00	607.00	527.00	503.00	523.00	567.00	635.00	629.00	553.00	530.00	464.00	442.00	441.00	440.00	442.00	442.00	444.00	446.00	449.00	447.00	474.00	505.00	494.00	468.00	456.00	463.00	479.00	490.00	496.00	501.00	502.00	524.00	532.00	550.00	590.00	611.00	603.00	561.00	545.00	573.00	594.00	592.00	571.00	566.00	562.00	565.00	577.00	583.00	587.00	607.00	635.00	663.00	666.00	718.00	765.00	814.00	909.00	941.00	959.00	940.00	882.00	807.00	890.00	957.00	1014.00	1018.00	1024.00	1065.00	1121.00	1134.00	1141.00	1135.00	1098.00	1008.00	1026.00	1060.00	1084.00	1071.00	1073.00	1147.00	1195.00	1244.00	1300.00	1256.00	1185.00	1116.00	1063.00	993.00	898.00	887.00	894.00	971.00	908.00	911.00	1070.00	1136.00	1144.00	1023.00	982.00	954.00	938.00
892.00	786.00	754.00	727.00	701.00	671.00	685.00	703.00	693.00	695.00	689.00	690.00	714.00	736.00	772.00	793.00	816.00	838.00	913.00	942.00	970.00	1004.00	969.00	870.00	824.00	779.00	734.00	665.00	622.00	607.00	623.00	689.00	755.00	762.00	731.00	729.00	805.00	841.00	861.00	910.00	955.00	1011.00	953.00	937.00	984.00	1061.00	1071.00	1083.00	1095.00	1107.00	1122.00	1140.00	1184.00	1222.00	1304.00	1314.00	1281.00	1256.00	1303.00	1435.00	1356.00	1308.00	1269.00	1188.00	1148.00	1111.00	1085.00	1071.00	1071.00	1080.00	1073.00	1015.00	1003.00	1012.00	1021.00	1033.00	1044.00	978.00	940.00	944.00	976.00	1067.00	1116.00	1154.00	1182.00	1198.00	1218.00	1225.00	1225.00	1219.00	1219.00	1247.00	1248.00	1235.00	1229.00	1196.00	1209.00	1216.00	1151.00	1088.00	1086.00	1077.00	1066.00	1053.00	1024.00	1023.00	1053.00	1094.00	1112.00	1121.00	1100.00	1090.00	1100.00	1063.00	1070.00	1100.00	1134.00	1108.00	1057.00	998.00	932.00	872.00	819.00	761.00	774.00	765.00	892.00	880.00	826.00	830.00	860.00	860.00	912.00	936.00	905.00	917.00	950.00	951.00	970.00	1005.00	979.00	963.00	955.00	914.00	712.00	709.00	726.00	705.00	607.00	582.00	577.00	590.00	618.00	630.00	565.00	536.00	528.00	568.00	627.00	659.00	661.00	702.00	682.00	659.00	647.00	568.00	509.00	490.00	457.00	446.00	448.00	449.00	448.00	449.00	453.00	457.00	456.00	455.00	454.00	456.00	465.00	476.00	487.00	499.00	524.00	530.00	552.00	584.00	630.00	665.00	677.00	660.00	649.00	647.00	677.00	710.00	707.00	706.00	691.00	684.00	662.00	632.00	627.00	618.00	663.00	701.00	740.00	685.00	726.00	793.00	848.00	965.00	995.00	994.00	958.00	907.00	841.00	890.00	951.00	1003.00	969.00	974.00	1033.00	1086.00	1069.00	1068.00	1049.00	1021.00	944.00	976.00	999.00	1023.00	1050.00	1076.00	1130.00	1175.00	1227.00	1289.00	1208.00	1119.00	1074.00	1011.00	962.00	1014.00	999.00	967.00	1054.00	968.00	968.00	1137.00	1181.00	1184.00	1097.00	1037.00	1001.00	989.00
907.00	808.00	775.00	745.00	719.00	691.00	702.00	693.00	727.00	762.00	766.00	736.00	701.00	700.00	735.00	752.00	770.00	791.00	857.00	881.00	906.00	935.00	961.00	938.00	903.00	859.00	805.00	717.00	645.00	630.00	614.00	610.00	689.00	710.00	670.00	698.00	774.00	801.00	787.00	831.00	878.00	924.00	848.00	885.00	937.00	967.00	972.00	978.00	992.00	1004.00	1051.00	1091.00	1131.00	1166.00	1232.00	1234.00	1199.00	1196.00	1249.00	1340.00	1290.00	1254.00	1213.00	1121.00	1084.00	1054.00	1036.00	1034.00	1084.00	1120.00	1114.00	1057.00	1065.00	1081.00	1092.00	1096.00	1082.00	994.00	959.00	992.00	1046.00	1136.00	1163.00	1197.00	1224.00	1245.00	1229.00	1220.00	1207.00	1196.00	1233.00	1246.00	1217.00	1186.00	1161.00	1119.00	1165.00	1147.00	1091.00	1011.00	1016.00	1034.00	1039.00	1030.00	976.00	980.00	1035.00	1070.00	1073.00	1088.00	1053.00	1025.00	1053.00	1011.00	1054.00	1097.00	1136.00	1102.00	1042.00	980.00	935.00	914.00	926.00	815.00	754.00	728.00	857.00	839.00	797.00	785.00	807.00	897.00	906.00	888.00	830.00	897.00	897.00	873.00	906.00	950.00	968.00	914.00	871.00	831.00	790.00	840.00	844.00	795.00	701.00	659.00	619.00	589.00	563.00	540.00	544.00	589.00	633.00	696.00	721.00	753.00	769.00	761.00	738.00	756.00	766.00	691.00	657.00	629.00	550.00	456.00	446.00	452.00	455.00	457.00	458.00	457.00	460.00	456.00	456.00	457.00	460.00	482.00	503.00	520.00	588.00	603.00	555.00	595.00	617.00	588.00	590.00	584.00	588.00	609.00	638.00	657.00	647.00	679.00	740.00	744.00	743.00	719.00	682.00	658.00	698.00	740.00	786.00	741.00	726.00	779.00	835.00	919.00	949.00	975.00	972.00	926.00	901.00	966.00	985.00	985.00	916.00	962.00	1033.00	1019.00	976.00	981.00	964.00	915.00	913.00	1016.00	1056.00	1098.00	1134.00	1170.00	1216.00	1222.00	1248.00	1297.00	1302.00	1223.00	1140.00	1098.00	1040.00	1126.00	1108.00	1080.00	1133.00	1098.00	1076.00	1177.00	1197.00	1177.00	1115.00	1111.00	1124.00	1094.00
974.00	849.00	808.00	781.00	761.00	730.00	715.00	715.00	764.00	808.00	794.00	760.00	723.00	710.00	720.00	718.00	735.00	752.00	814.00	833.00	856.00	881.00	912.00	990.00	982.00	938.00	885.00	778.00	684.00	662.00	642.00	624.00	613.00	616.00	656.00	747.00	779.00	755.00	716.00	758.00	819.00	825.00	788.00	845.00	862.00	872.00	875.00	874.00	892.00	922.00	1032.00	1033.00	1059.00	1087.00	1137.00	1127.00	1112.00	1152.00	1209.00	1224.00	1191.00	1171.00	1155.00	1058.00	1022.00	995.00	982.00	993.00	1045.00	1081.00	1118.00	1120.00	1145.00	1158.00	1154.00	1118.00	1079.00	1007.00	1006.00	1038.00	1080.00	1202.00	1255.00	1276.00	1272.00	1263.00	1215.00	1183.00	1161.00	1190.00	1228.00	1247.00	1216.00	1179.00	1126.00	1093.00	1161.00	1126.00	1059.00	964.00	945.00	965.00	987.00	1016.00	954.00	941.00	1015.00	1021.00	1034.00	1056.00	1034.00	984.00	952.00	1043.00	1090.00	1133.00	1170.00	1125.00	1085.00	1047.00	1011.00	1002.00	1008.00	885.00	801.00	721.00	835.00	800.00	756.00	796.00	854.00	916.00	880.00	843.00	804.00	838.00	829.00	880.00	914.00	935.00	960.00	940.00	939.00	900.00	876.00	919.00	931.00	877.00	799.00	751.00	722.00	694.00	660.00	614.00	600.00	628.00	689.00	782.00	799.00	777.00	748.00	741.00	677.00	711.00	758.00	711.00	622.00	597.00	545.00	455.00	450.00	459.00	466.00	471.00	474.00	467.00	458.00	455.00	455.00	460.00	462.00	496.00	567.00	601.00	652.00	603.00	619.00	623.00	614.00	563.00	546.00	549.00	549.00	573.00	587.00	585.00	586.00	614.00	655.00	673.00	672.00	677.00	698.00	712.00	724.00	748.00	795.00	813.00	771.00	775.00	819.00	900.00	938.00	964.00	953.00	931.00	957.00	959.00	965.00	936.00	894.00	970.00	1019.00	983.00	923.00	908.00	859.00	869.00	926.00	1020.00	1084.00	1132.00	1176.00	1203.00	1240.00	1268.00	1302.00	1346.00	1376.00	1311.00	1280.00	1213.00	1128.00	1240.00	1237.00	1241.00	1268.00	1265.00	1238.00	1242.00	1207.00	1169.00	1113.00	1103.00	1110.00	1101.00
974.00	849.00	808.00	781.00	761.00	730.00	715.00	715.00	764.00	808.00	794.00	760.00	723.00	710.00	720.00	718.00	735.00	752.00	814.00	833.00	856.00	881.00	912.00	990.00	982.00	938.00	885.00	778.00	684.00	662.00	642.00	624.00	613.00	616.00	656.00	747.00	779.00	755.00	716.00	758.00	819.00	825.00	788.00	845.00	862.00	872.00	875.00	874.00	892.00	922.00	1032.00	1033.00	1059.00	1087.00	1137.00	1127.00	1112.00	1152.00	1209.00	1224.00	1191.00	1171.00	1155.00	1058.00	1022.00	995.00	982.00	993.00	1045.00	1081.00	1118.00	1120.00	1145.00	1158.00	1154.00	1118.00	1079.00	1007.00	1006.00	1038.00	1080.00	1202.00	1255.00	1276.00	1272.00	1263.00	1215.00	1183.00	1161.00	1190.00	1228.00	1247.00	1216.00	1179.00	1126.00	1093.00	1161.00	1126.00	1059.00	964.00	945.00	965.00	987.00	1016.00	954.00	941.00	1015.00	1021.00	1034.00	1056.00	1034.00	984.00	952.00	1043.00	1090.00	1133.00	1170.00	1125.00	1085.00	1047.00	1011.00	1002.00	1008.00	885.00	801.00	721.00	835.00	800.00	756.00	796.00	854.00	916.00	880.00	843.00	804.00	838.00	829.00	880.00	914.00	935.00	960.00	940.00	939.00	900.00	876.00	919.00	931.00	877.00	799.00	751.00	722.00	694.00	660.00	614.00	600.00	628.00	689.00	782.00	799.00	777.00	748.00	741.00	677.00	711.00	758.00	711.00	622.00	597.00	545.00	455.00	450.00	459.00	466.00	471.00	474.00	467.00	458.00	455.00	455.00	460.00	462.00	496.00	567.00	601.00	652.00	603.00	619.00	623.00	614.00	563.00	546.00	549.00	549.00	573.00	587.00	585.00	586.00	614.00	655.00	673.00	672.00	677.00	698.00	712.00	724.00	748.00	795.00	813.00	771.00	775.00	819.00	900.00	938.00	964.00	953.00	931.00	957.00	959.00	965.00	936.00	894.00	970.00	1019.00	983.00	923.00	908.00	859.00	869.00	926.00	1020.00	1084.00	1132.00	1176.00	1203.00	1240.00	1268.00	1302.00	1346.00	1376.00	1311.00	1280.00	1213.00	1128.00	1240.00	1237.00	1241.00	1268.00	1265.00	1238.00	1242.00	1207.00	1169.00	1113.00	1103.00	1110.00	1101.00
1048.00	929.00	872.00	828.00	807.00	755.00	740.00	770.00	812.00	783.00	751.00	736.00	737.00	754.00	746.00	722.00	733.00	746.00	791.00	808.00	827.00	845.00	867.00	928.00	971.00	967.00	928.00	809.00	730.00	701.00	675.00	649.00	623.00	619.00	617.00	641.00	760.00	693.00	717.00	718.00	771.00	749.00	791.00	799.00	779.00	810.00	799.00	798.00	840.00	911.00	985.00	965.00	978.00	1014.00	1066.00	1037.00	1052.00	1108.00	1139.00	1134.00	1085.00	1063.00	1041.00	992.00	970.00	946.00	931.00	953.00	1004.00	1052.00	1116.00	1175.00	1237.00	1206.00	1149.00	1109.00	1078.00	1046.00	1064.00	1097.00	1137.00	1214.00	1250.00	1275.00	1280.00	1268.00	1222.00	1184.00	1140.00	1151.00	1193.00	1237.00	1223.00	1181.00	1099.00	1114.00	1164.00	1146.00	1092.00	1011.00	953.00	907.00	962.00	996.00	930.00	907.00	968.00	935.00	1011.00	987.00	966.00	937.00	906.00	1091.00	1159.00	1233.00	1254.00	1168.00	1134.00	1099.00	1078.00	1083.00	1015.00	885.00	806.00	721.00	798.00	748.00	779.00	854.00	916.00	964.00	935.00	897.00	774.00	789.00	855.00	934.00	993.00	1015.00	1009.00	1017.00	994.00	935.00	930.00	945.00	922.00	883.00	806.00	807.00	824.00	814.00	778.00	699.00	669.00	652.00	706.00	776.00	765.00	727.00	677.00	669.00	620.00	666.00	707.00	714.00	625.00	556.00	475.00	448.00	452.00	463.00	484.00	500.00	505.00	505.00	517.00	519.00	461.00	462.00	467.00	503.00	574.00	648.00	585.00	583.00	593.00	580.00	567.00	559.00	538.00	527.00	530.00	544.00	548.00	549.00	559.00	576.00	602.00	617.00	624.00	635.00	689.00	727.00	767.00	799.00	825.00	895.00	852.00	818.00	866.00	943.00	971.00	962.00	925.00	891.00	906.00	892.00	917.00	882.00	877.00	935.00	948.00	970.00	955.00	843.00	842.00	938.00	1048.00	1005.00	1022.00	1050.00	1084.00	1121.00	1252.00	1275.00	1283.00	1300.00	1259.00	1288.00	1338.00	1365.00	1316.00	1344.00	1321.00	1289.00	1284.00	1234.00	1220.00	1142.00	1096.00	1055.00	985.00	956.00	966.00	982.00
1115.00	995.00	935.00	880.00	847.00	804.00	870.00	867.00	804.00	776.00	783.00	792.00	795.00	798.00	746.00	761.00	776.00	772.00	800.00	809.00	822.00	835.00	850.00	889.00	917.00	951.00	946.00	850.00	768.00	737.00	706.00	677.00	639.00	628.00	623.00	618.00	663.00	706.00	721.00	732.00	736.00	750.00	768.00	724.00	745.00	755.00	802.00	849.00	906.00	958.00	916.00	897.00	927.00	976.00	1018.00	971.00	991.00	1041.00	1080.00	1069.00	1017.00	998.00	977.00	941.00	926.00	908.00	893.00	909.00	986.00	1042.00	1097.00	1182.00	1184.00	1164.00	1127.00	1097.00	1071.00	1072.00	1096.00	1141.00	1145.00	1153.00	1211.00	1263.00	1281.00	1281.00	1256.00	1237.00	1174.00	1108.00	1135.00	1184.00	1153.00	1112.00	1055.00	1102.00	1167.00	1159.00	1099.00	1021.00	954.00	901.00	937.00	995.00	936.00	884.00	871.00	910.00	984.00	938.00	872.00	872.00	952.00	1195.00	1276.00	1318.00	1278.00	1133.00	1081.00	1049.00	1062.00	1094.00	988.00	875.00	805.00	717.00	748.00	727.00	809.00	885.00	921.00	918.00	904.00	884.00	764.00	791.00	861.00	902.00	935.00	969.00	1012.00	1022.00	997.00	987.00	951.00	886.00	842.00	801.00	745.00	741.00	790.00	832.00	837.00	800.00	779.00	755.00	753.00	737.00	695.00	662.00	632.00	604.00	573.00	592.00	640.00	650.00	637.00	569.00	481.00	451.00	453.00	489.00	540.00	574.00	592.00	579.00	578.00	489.00	463.00	465.00	471.00	523.00	595.00	625.00	535.00	514.00	532.00	519.00	513.00	513.00	513.00	514.00	524.00	538.00	549.00	559.00	571.00	587.00	600.00	639.00	663.00	673.00	704.00	750.00	802.00	837.00	870.00	938.00	911.00	887.00	918.00	1000.00	1013.00	979.00	935.00	891.00	833.00	842.00	823.00	823.00	921.00	900.00	865.00	909.00	893.00	812.00	878.00	969.00	1122.00	1125.00	1134.00	1134.00	1145.00	1177.00	1264.00	1225.00	1218.00	1236.00	1190.00	1258.00	1343.00	1417.00	1476.00	1384.00	1284.00	1208.00	1149.00	1067.00	1044.00	993.00	989.00	974.00	979.00	966.00	922.00	900.00
1142.00	1010.00	951.00	911.00	878.00	889.00	937.00	895.00	894.00	891.00	889.00	869.00	850.00	824.00	775.00	823.00	831.00	811.00	826.00	832.00	840.00	851.00	864.00	899.00	917.00	935.00	956.00	887.00	787.00	747.00	712.00	672.00	653.00	641.00	631.00	621.00	623.00	639.00	652.00	705.00	677.00	739.00	709.00	724.00	732.00	792.00	845.00	883.00	921.00	947.00	869.00	853.00	905.00	959.00	942.00	904.00	959.00	1032.00	1074.00	1024.00	974.00	954.00	935.00	902.00	893.00	885.00	861.00	884.00	976.00	1013.00	1046.00	1137.00	1122.00	1117.00	1100.00	1068.00	1036.00	1045.00	1081.00	1106.00	1088.00	1144.00	1212.00	1252.00	1262.00	1263.00	1226.00	1227.00	1200.00	1180.00	1092.00	1067.00	1048.00	1029.00	1000.00	1088.00	1167.00	1140.00	1088.00	978.00	933.00	903.00	869.00	927.00	932.00	876.00	841.00	903.00	926.00	892.00	828.00	882.00	977.00	1180.00	1223.00	1224.00	1206.00	1085.00	1027.00	971.00	989.00	1025.00	964.00	856.00	800.00	720.00	692.00	725.00	817.00	856.00	840.00	812.00	814.00	787.00	729.00	788.00	812.00	818.00	855.00	858.00	954.00	960.00	931.00	943.00	914.00	874.00	821.00	786.00	715.00	688.00	746.00	781.00	773.00	849.00	852.00	821.00	820.00	796.00	756.00	725.00	707.00	691.00	603.00	564.00	545.00	569.00	588.00	539.00	462.00	453.00	462.00	545.00	609.00	657.00	698.00	597.00	483.00	466.00	462.00	468.00	473.00	482.00	537.00	536.00	491.00	485.00	488.00	492.00	497.00	515.00	524.00	531.00	533.00	535.00	542.00	562.00	592.00	638.00	643.00	637.00	648.00	664.00	691.00	703.00	726.00	770.00	829.00	980.00	981.00	973.00	980.00	1001.00	988.00	982.00	994.00	971.00	869.00	775.00	818.00	877.00	915.00	864.00	798.00	791.00	790.00	868.00	887.00	930.00	1112.00	1177.00	1132.00	1105.00	1121.00	1162.00	1171.00	1134.00	1157.00	1199.00	1150.00	1225.00	1295.00	1371.00	1444.00	1440.00	1362.00	1306.00	1208.00	1082.00	1095.00	1053.00	1134.00	1134.00	1138.00	1094.00	1055.00	1023.00
1142.00	1010.00	951.00	911.00	878.00	889.00	937.00	895.00	894.00	891.00	889.00	869.00	850.00	824.00	775.00	823.00	831.00	811.00	826.00	832.00	840.00	851.00	864.00	899.00	917.00	935.00	956.00	887.00	787.00	747.00	712.00	672.00	653.00	641.00	631.00	621.00	623.00	639.00	652.00	705.00	677.00	739.00	709.00	724.00	732.00	792.00	845.00	883.00	921.00	947.00	869.00	853.00	905.00	959.00	942.00	904.00	959.00	1032.00	1074.00	1024.00	974.00	954.00	935.00	902.00	893.00	885.00	861.00	884.00	976.00	1013.00	1046.00	1137.00	1122.00	1117.00	1100.00	1068.00	1036.00	1045.00	1081.00	1106.00	1088.00	1144.00	1212.00	1252.00	1262.00	1263.00	1226.00	1227.00	1200.00	1180.00	1092.00	1067.00	1048.00	1029.00	1000.00	1088.00	1167.00	1140.00	1088.00	978.00	933.00	903.00	869.00	927.00	932.00	876.00	841.00	903.00	926.00	892.00	828.00	882.00	977.00	1180.00	1223.00	1224.00	1206.00	1085.00	1027.00	971.00	989.00	1025.00	964.00	856.00	800.00	720.00	692.00	725.00	817.00	856.00	840.00	812.00	814.00	787.00	729.00	788.00	812.00	818.00	855.00	858.00	954.00	960.00	931.00	943.00	914.00	874.00	821.00	786.00	715.00	688.00	746.00	781.00	773.00	849.00	852.00	821.00	820.00	796.00	756.00	725.00	707.00	691.00	603.00	564.00	545.00	569.00	588.00	539.00	462.00	453.00	462.00	545.00	609.00	657.00	698.00	597.00	483.00	466.00	462.00	468.00	473.00	482.00	537.00	536.00	491.00	485.00	488.00	492.00	497.00	515.00	524.00	531.00	533.00	535.00	542.00	562.00	592.00	638.00	643.00	637.00	648.00	664.00	691.00	703.00	726.00	770.00	829.00	980.00	981.00	973.00	980.00	1001.00	988.00	982.00	994.00	971.00	869.00	775.00	818.00	877.00	915.00	864.00	798.00	791.00	790.00	868.00	887.00	930.00	1112.00	1177.00	1132.00	1105.00	1121.00	1162.00	1171.00	1134.00	1157.00	1199.00	1150.00	1225.00	1295.00	1371.00	1444.00	1440.00	1362.00	1306.00	1208.00	1082.00	1095.00	1053.00	1134.00	1134.00	1138.00	1094.00	1055.00	1023.00
1166.00	1021.00	971.00	938.00	916.00	944.00	957.00	930.00	928.00	952.00	933.00	896.00	889.00	841.00	835.00	895.00	885.00	851.00	861.00	866.00	872.00	885.00	906.00	982.00	980.00	944.00	919.00	870.00	770.00	734.00	700.00	682.00	677.00	676.00	678.00	663.00	634.00	630.00	628.00	641.00	666.00	683.00	692.00	702.00	690.00	785.00	809.00	827.00	845.00	861.00	835.00	802.00	887.00	940.00	867.00	870.00	960.00	1018.00	1029.00	995.00	943.00	920.00	901.00	868.00	865.00	863.00	837.00	874.00	950.00	976.00	1001.00	1068.00	1074.00	1086.00	1075.00	1024.00	992.00	1004.00	1047.00	1053.00	1026.00	1126.00	1193.00	1220.00	1195.00	1176.00	1122.00	1148.00	1186.00	1205.00	1208.00	1108.00	1132.00	1113.00	1033.00	1035.00	1107.00	1111.00	1098.00	1001.00	967.00	932.00	842.00	869.00	921.00	854.00	826.00	889.00	871.00	889.00	830.00	827.00	913.00	1062.00	1090.00	1112.00	1112.00	1028.00	980.00	912.00	905.00	946.00	926.00	848.00	785.00	725.00	650.00	720.00	750.00	761.00	755.00	763.00	796.00	761.00	690.00	749.00	737.00	751.00	769.00	818.00	891.00	920.00	884.00	877.00	855.00	808.00	772.00	734.00	678.00	647.00	666.00	679.00	723.00	792.00	786.00	774.00	748.00	787.00	752.00	726.00	749.00	766.00	695.00	650.00	625.00	533.00	496.00	465.00	456.00	457.00	471.00	568.00	631.00	700.00	726.00	516.00	467.00	470.00	469.00	470.00	514.00	490.00	475.00	477.00	481.00	482.00	500.00	503.00	511.00	532.00	546.00	557.00	560.00	554.00	554.00	569.00	618.00	695.00	732.00	725.00	724.00	725.00	773.00	781.00	776.00	761.00	774.00	946.00	994.00	1017.00	986.00	947.00	924.00	932.00	976.00	949.00	844.00	766.00	852.00	884.00	792.00	757.00	774.00	817.00	861.00	984.00	1005.00	1003.00	1100.00	1091.00	1048.00	1020.00	1084.00	1091.00	1052.00	1089.00	1142.00	1151.00	1121.00	1176.00	1250.00	1345.00	1434.00	1515.00	1432.00	1331.00	1260.00	1159.00	1183.00	1147.00	1240.00	1288.00	1221.00	1163.00	1092.00	1020.00
1179.00	1047.00	1006.00	983.00	992.00	1021.00	1000.00	978.00	978.00	942.00	904.00	872.00	848.00	835.00	868.00	916.00	922.00	893.00	899.00	906.00	917.00	951.00	972.00	1074.00	1063.00	973.00	888.00	815.00	752.00	742.00	752.00	759.00	725.00	720.00	710.00	692.00	650.00	644.00	644.00	639.00	636.00	641.00	686.00	665.00	719.00	769.00	759.00	776.00	789.00	784.00	805.00	765.00	864.00	888.00	799.00	878.00	940.00	964.00	962.00	961.00	936.00	897.00	873.00	838.00	850.00	842.00	816.00	853.00	915.00	936.00	962.00	1029.00	1040.00	1066.00	1033.00	993.00	961.00	972.00	1031.00	1029.00	980.00	1120.00	1159.00	1171.00	1136.00	1078.00	1053.00	1116.00	1172.00	1192.00	1215.00	1172.00	1179.00	1138.00	1070.00	948.00	999.00	1049.00	1087.00	1031.00	997.00	947.00	842.00	819.00	876.00	816.00	831.00	885.00	832.00	894.00	883.00	792.00	828.00	985.00	1036.00	1073.00	1072.00	1000.00	959.00	914.00	862.00	831.00	868.00	791.00	747.00	700.00	634.00	653.00	698.00	725.00	715.00	736.00	790.00	826.00	715.00	694.00	727.00	781.00	801.00	809.00	784.00	812.00	826.00	870.00	892.00	879.00	845.00	812.00	740.00	684.00	631.00	622.00	660.00	686.00	726.00	747.00	680.00	724.00	680.00	640.00	692.00	725.00	684.00	695.00	685.00	630.00	498.00	460.00	459.00	460.00	477.00	600.00	644.00	693.00	676.00	512.00	475.00	471.00	471.00	469.00	543.00	512.00	496.00	502.00	512.00	500.00	515.00	525.00	517.00	543.00	560.00	563.00	591.00	588.00	578.00	589.00	634.00	696.00	708.00	729.00	755.00	777.00	848.00	877.00	860.00	844.00	819.00	927.00	986.00	1003.00	950.00	869.00	846.00	860.00	912.00	926.00	845.00	734.00	780.00	789.00	741.00	792.00	857.00	912.00	936.00	1012.00	1043.00	1067.00	1038.00	978.00	938.00	989.00	1036.00	985.00	1070.00	1125.00	1119.00	1075.00	1125.00	1193.00	1257.00	1330.00	1397.00	1489.00	1496.00	1447.00	1350.00	1248.00	1229.00	1284.00	1354.00	1345.00	1171.00	1131.00	1130.00	1151.00
1208.00	1085.00	1046.00	1026.00	1033.00	1086.00	1060.00	1029.00	1025.00	985.00	922.00	886.00	871.00	908.00	927.00	954.00	963.00	969.00	946.00	949.00	958.00	978.00	1004.00	1023.00	988.00	935.00	879.00	821.00	812.00	870.00	903.00	888.00	782.00	750.00	714.00	680.00	669.00	687.00	683.00	658.00	649.00	637.00	637.00	641.00	653.00	701.00	685.00	703.00	712.00	741.00	721.00	753.00	801.00	815.00	780.00	844.00	875.00	891.00	895.00	945.00	941.00	875.00	844.00	811.00	826.00	808.00	802.00	844.00	886.00	915.00	948.00	996.00	1003.00	1035.00	1012.00	974.00	937.00	936.00	978.00	1011.00	949.00	1135.00	1161.00	1149.00	1093.00	1025.00	1035.00	1108.00	1138.00	1155.00	1211.00	1207.00	1200.00	1141.00	1087.00	940.00	947.00	1030.00	1045.00	1033.00	1011.00	992.00	867.00	802.00	850.00	794.00	806.00	826.00	809.00	886.00	886.00	785.00	783.00	971.00	1036.00	1068.00	1056.00	1010.00	978.00	944.00	890.00	837.00	781.00	840.00	802.00	754.00	644.00	627.00	708.00	698.00	675.00	721.00	756.00	789.00	704.00	672.00	733.00	751.00	729.00	729.00	824.00	861.00	849.00	835.00	885.00	901.00	887.00	887.00	786.00	728.00	676.00	634.00	601.00	608.00	686.00	721.00	660.00	648.00	618.00	598.00	673.00	658.00	599.00	594.00	564.00	565.00	473.00	461.00	466.00	474.00	498.00	584.00	648.00	678.00	646.00	520.00	493.00	478.00	471.00	473.00	489.00	537.00	531.00	519.00	543.00	520.00	518.00	532.00	551.00	567.00	596.00	626.00	653.00	655.00	617.00	615.00	636.00	638.00	725.00	769.00	783.00	809.00	896.00	949.00	947.00	927.00	889.00	943.00	991.00	1012.00	998.00	895.00	823.00	794.00	830.00	892.00	872.00	743.00	706.00	706.00	778.00	837.00	892.00	945.00	966.00	946.00	973.00	1033.00	963.00	900.00	882.00	929.00	926.00	951.00	1092.00	1095.00	1031.00	983.00	1096.00	1136.00	1159.00	1199.00	1256.00	1442.00	1506.00	1479.00	1379.00	1307.00	1260.00	1437.00	1482.00	1435.00	1255.00	1283.00	1306.00	1290.00
1208.00	1085.00	1046.00	1026.00	1033.00	1086.00	1060.00	1029.00	1025.00	985.00	922.00	886.00	871.00	908.00	927.00	954.00	963.00	969.00	946.00	949.00	958.00	978.00	1004.00	1023.00	988.00	935.00	879.00	821.00	812.00	870.00	903.00	888.00	782.00	750.00	714.00	680.00	669.00	687.00	683.00	658.00	649.00	637.00	637.00	641.00	653.00	701.00	685.00	703.00	712.00	741.00	721.00	753.00	801.00	815.00	780.00	844.00	875.00	891.00	895.00	945.00	941.00	875.00	844.00	811.00	826.00	808.00	802.00	844.00	886.00	915.00	948.00	996.00	1003.00	1035.00	1012.00	974.00	937.00	936.00	978.00	1011.00	949.00	1135.00	1161.00	1149.00	1093.00	1025.00	1035.00	1108.00	1138.00	1155.00	1211.00	1207.00	1200.00	1141.00	1087.00	940.00	947.00	1030.00	1045.00	1033.00	1011.00	992.00	867.00	802.00	850.00	794.00	806.00	826.00	809.00	886.00	886.00	785.00	783.00	971.00	1036.00	1068.00	1056.00	1010.00	978.00	944.00	890.00	837.00	781.00	840.00	802.00	754.00	644.00	627.00	708.00	698.00	675.00	721.00	756.00	789.00	704.00	672.00	733.00	751.00	729.00	729.00	824.00	861.00	849.00	835.00	885.00	901.00	887.00	887.00	786.00	728.00	676.00	634.00	601.00	608.00	686.00	721.00	660.00	648.00	618.00	598.00	673.00	658.00	599.00	594.00	564.00	565.00	473.00	461.00	466.00	474.00	498.00	584.00	648.00	678.00	646.00	520.00	493.00	478.00	471.00	473.00	489.00	537.00	531.00	519.00	543.00	520.00	518.00	532.00	551.00	567.00	596.00	626.00	653.00	655.00	617.00	615.00	636.00	638.00	725.00	769.00	783.00	809.00	896.00	949.00	947.00	927.00	889.00	943.00	991.00	1012.00	998.00	895.00	823.00	794.00	830.00	892.00	872.00	743.00	706.00	706.00	778.00	837.00	892.00	945.00	966.00	946.00	973.00	1033.00	963.00	900.00	882.00	929.00	926.00	951.00	1092.00	1095.00	1031.00	983.00	1096.00	1136.00	1159.00	1199.00	1256.00	1442.00	1506.00	1479.00	1379.00	1307.00	1260.00	1437.00	1482.00	1435.00	1255.00	1283.00	1306.00	1290.00
