1808.00	1806.00	1841.00	1856.00	1871.00	1869.00	1843.00	1807.00	1791.00	1712.00	1669.00	1651.00	1671.00	1738.00	1841.00	1774.00	1843.00	1905.00	1877.00	1891.00	1689.00	1734.00	1691.00	1596.00	1630.00	1567.00	1472.00	1441.00	1423.00	1455.00	1387.00	1345.00	1320.00	1302.00	1276.00	1265.00	1256.00	1250.00	1241.00	1248.00	1227.00	1186.00	1177.00	1167.00	1163.00	1160.00	1157.00	1149.00	1142.00	1135.00	1129.00	1122.00	1099.00	1092.00	1085.00	1079.00	1065.00	1058.00	1052.00	1046.00	1036.00	1042.00	1007.00	988.00	977.00	964.00	958.00	952.00	946.00	939.00	929.00	922.00	916.00	906.00	897.00	895.00	893.00	892.00	892.00	890.00	890.00	888.00	886.00	883.00	886.00	889.00	893.00	896.00	900.00	902.00	905.00	909.00	923.00	949.00	959.00	972.00	993.00	1086.00	1172.00	1157.00	1071.00	949.00	981.00	1024.00	822.00	810.00	803.00	802.00	799.00	798.00	796.00	794.00	793.00	800.00	804.00	880.00	830.00	830.00	842.00	806.00	787.00	774.00	767.00	750.00	751.00	750.00	748.00	745.00	738.00	734.00	730.00	725.00	716.00	711.00	706.00	702.00	694.00	683.00	677.00	672.00	665.00	652.00	646.00	640.00	633.00	628.00	611.00	605.00	598.00	594.00	583.00	579.00	573.00	569.00	565.00	557.00	552.00	550.00	548.00	546.00	544.00	542.00	541.00	540.00	539.00	538.00	537.00	536.00	534.00	533.00	533.00	532.00	531.00	530.00	530.00	532.00	534.00	539.00	541.00	542.00	544.00	544.00	547.00	548.00	549.00	550.00	551.00	552.00	553.00	553.00	554.00	554.00	553.00	553.00	552.00	551.00	551.00	550.00	549.00	547.00	544.00	542.00	542.00	541.00	541.00	542.00	541.00	541.00	539.00	539.00	540.00	540.00	540.00	542.00	541.00	541.00	542.00	544.00	551.00	546.00	537.00	530.00	524.00	518.00	507.00	519.00	531.00	563.00	585.00	592.00	519.00	506.00	507.00	512.00	527.00	556.00	602.00	627.00	641.00	653.00	737.00	723.00	712.00	703.00	697.00	684.00	673.00	667.00	661.00	648.00	647.00	651.00	659.00	666.00	687.00	697.00
1797.00	1808.00	1899.00	1976.00	1973.00	1989.00	1954.00	1863.00	1740.00	1683.00	1653.00	1645.00	1680.00	1807.00	1722.00	1699.00	1723.00	1754.00	1748.00	1795.00	1729.00	1733.00	1747.00	1652.00	1555.00	1645.00	1547.00	1446.00	1417.00	1428.00	1422.00	1368.00	1333.00	1313.00	1285.00	1275.00	1267.00	1262.00	1260.00	1249.00	1238.00	1199.00	1187.00	1176.00	1172.00	1169.00	1165.00	1154.00	1148.00	1140.00	1133.00	1125.00	1102.00	1094.00	1087.00	1080.00	1066.00	1060.00	1052.00	1046.00	1045.00	1063.00	1006.00	988.00	976.00	960.00	956.00	951.00	945.00	938.00	927.00	921.00	916.00	906.00	899.00	899.00	898.00	897.00	896.00	895.00	894.00	892.00	891.00	887.00	889.00	893.00	897.00	901.00	907.00	908.00	911.00	914.00	927.00	946.00	957.00	970.00	985.00	1060.00	1167.00	1196.00	1135.00	967.00	1009.00	1061.00	836.00	820.00	812.00	811.00	809.00	807.00	805.00	804.00	805.00	819.00	821.00	867.00	841.00	842.00	861.00	819.00	796.00	786.00	787.00	760.00	761.00	760.00	758.00	756.00	748.00	744.00	739.00	733.00	724.00	719.00	714.00	710.00	700.00	689.00	682.00	676.00	670.00	657.00	651.00	644.00	638.00	632.00	613.00	606.00	601.00	594.00	583.00	578.00	573.00	569.00	565.00	557.00	551.00	549.00	547.00	544.00	543.00	541.00	539.00	539.00	537.00	536.00	536.00	535.00	534.00	533.00	532.00	531.00	532.00	530.00	530.00	530.00	531.00	536.00	538.00	539.00	541.00	542.00	544.00	545.00	546.00	547.00	548.00	549.00	550.00	550.00	551.00	550.00	550.00	549.00	549.00	548.00	547.00	546.00	545.00	544.00	543.00	540.00	538.00	538.00	537.00	538.00	537.00	537.00	537.00	537.00	537.00	539.00	538.00	538.00	540.00	539.00	541.00	543.00	548.00	531.00	521.00	516.00	513.00	506.00	515.00	528.00	545.00	572.00	586.00	589.00	522.00	504.00	506.00	513.00	535.00	563.00	620.00	639.00	640.00	654.00	729.00	722.00	717.00	709.00	706.00	691.00	681.00	676.00	667.00	655.00	651.00	653.00	657.00	666.00	687.00	696.00
1799.00	1822.00	1894.00	1948.00	2052.00	2063.00	1960.00	1749.00	1701.00	1679.00	1640.00	1620.00	1616.00	1628.00	1626.00	1622.00	1630.00	1644.00	1643.00	1641.00	1628.00	1624.00	1649.00	1647.00	1627.00	1494.00	1496.00	1520.00	1470.00	1375.00	1365.00	1355.00	1334.00	1317.00	1296.00	1290.00	1283.00	1278.00	1282.00	1264.00	1261.00	1222.00	1210.00	1196.00	1191.00	1185.00	1178.00	1161.00	1152.00	1144.00	1135.00	1128.00	1106.00	1100.00	1092.00	1085.00	1071.00	1066.00	1070.00	1076.00	1083.00	1078.00	998.00	985.00	982.00	948.00	946.00	943.00	940.00	935.00	925.00	921.00	916.00	909.00	908.00	908.00	907.00	908.00	907.00	906.00	904.00	902.00	900.00	895.00	897.00	901.00	905.00	909.00	919.00	921.00	925.00	926.00	937.00	954.00	964.00	974.00	986.00	1023.00	1128.00	1201.00	1164.00	1013.00	1064.00	1108.00	869.00	844.00	833.00	831.00	829.00	828.00	825.00	824.00	831.00	876.00	843.00	882.00	862.00	868.00	918.00	831.00	818.00	821.00	791.00	780.00	783.00	783.00	780.00	777.00	769.00	763.00	758.00	752.00	740.00	736.00	731.00	725.00	713.00	700.00	693.00	687.00	680.00	669.00	663.00	656.00	650.00	643.00	620.00	612.00	604.00	598.00	585.00	579.00	573.00	569.00	564.00	556.00	550.00	547.00	544.00	542.00	540.00	539.00	538.00	536.00	534.00	535.00	533.00	534.00	532.00	532.00	531.00	531.00	530.00	530.00	530.00	530.00	529.00	531.00	532.00	533.00	535.00	536.00	538.00	539.00	540.00	541.00	542.00	543.00	543.00	544.00	544.00	544.00	543.00	543.00	542.00	541.00	541.00	540.00	540.00	538.00	537.00	536.00	533.00	532.00	530.00	530.00	529.00	530.00	532.00	533.00	532.00	532.00	533.00	533.00	534.00	535.00	537.00	542.00	540.00	505.00	501.00	511.00	529.00	547.00	556.00	563.00	565.00	580.00	594.00	605.00	528.00	501.00	502.00	504.00	517.00	558.00	618.00	637.00	657.00	673.00	694.00	699.00	713.00	725.00	721.00	705.00	700.00	690.00	678.00	663.00	659.00	653.00	656.00	663.00	676.00	686.00
1802.00	1822.00	1864.00	1908.00	2034.00	2093.00	1984.00	1723.00	1685.00	1667.00	1651.00	1613.00	1606.00	1602.00	1611.00	1601.00	1609.00	1615.00	1613.00	1606.00	1577.00	1579.00	1589.00	1618.00	1634.00	1489.00	1466.00	1467.00	1483.00	1369.00	1365.00	1344.00	1336.00	1322.00	1305.00	1298.00	1291.00	1293.00	1272.00	1266.00	1276.00	1236.00	1221.00	1204.00	1197.00	1191.00	1174.00	1161.00	1152.00	1146.00	1140.00	1132.00	1110.00	1103.00	1095.00	1087.00	1075.00	1080.00	1087.00	1094.00	1118.00	1031.00	999.00	988.00	995.00	942.00	941.00	938.00	937.00	932.00	923.00	919.00	914.00	912.00	914.00	913.00	913.00	912.00	912.00	911.00	909.00	908.00	906.00	900.00	902.00	905.00	909.00	914.00	923.00	927.00	931.00	933.00	944.00	961.00	972.00	979.00	988.00	1040.00	1122.00	1230.00	1253.00	1049.00	1066.00	1115.00	887.00	856.00	843.00	841.00	841.00	839.00	835.00	836.00	851.00	886.00	855.00	888.00	874.00	880.00	911.00	842.00	833.00	833.00	798.00	791.00	794.00	794.00	791.00	788.00	779.00	773.00	768.00	762.00	749.00	745.00	739.00	733.00	720.00	707.00	700.00	695.00	690.00	678.00	672.00	665.00	657.00	649.00	623.00	615.00	608.00	600.00	585.00	580.00	574.00	569.00	564.00	556.00	549.00	546.00	543.00	540.00	539.00	538.00	537.00	535.00	533.00	533.00	534.00	532.00	533.00	531.00	531.00	531.00	530.00	530.00	530.00	528.00	528.00	528.00	529.00	531.00	532.00	533.00	535.00	536.00	537.00	538.00	539.00	539.00	540.00	540.00	540.00	540.00	540.00	540.00	540.00	538.00	538.00	537.00	536.00	536.00	534.00	534.00	531.00	529.00	528.00	527.00	527.00	529.00	533.00	531.00	530.00	531.00	531.00	532.00	533.00	535.00	538.00	542.00	536.00	500.00	506.00	524.00	544.00	546.00	549.00	554.00	559.00	578.00	593.00	605.00	536.00	502.00	502.00	503.00	512.00	558.00	628.00	652.00	669.00	684.00	688.00	698.00	712.00	725.00	727.00	713.00	706.00	694.00	683.00	668.00	663.00	659.00	657.00	660.00	677.00	684.00
1802.00	1822.00	1864.00	1908.00	2034.00	2093.00	1984.00	1723.00	1685.00	1667.00	1651.00	1613.00	1606.00	1602.00	1611.00	1601.00	1609.00	1615.00	1613.00	1606.00	1577.00	1579.00	1589.00	1618.00	1634.00	1489.00	1466.00	1467.00	1483.00	1369.00	1365.00	1344.00	1336.00	1322.00	1305.00	1298.00	1291.00	1293.00	1272.00	1266.00	1276.00	1236.00	1221.00	1204.00	1197.00	1191.00	1174.00	1161.00	1152.00	1146.00	1140.00	1132.00	1110.00	1103.00	1095.00	1087.00	1075.00	1080.00	1087.00	1094.00	1118.00	1031.00	999.00	988.00	995.00	942.00	941.00	938.00	937.00	932.00	923.00	919.00	914.00	912.00	914.00	913.00	913.00	912.00	912.00	911.00	909.00	908.00	906.00	900.00	902.00	905.00	909.00	914.00	923.00	927.00	931.00	933.00	944.00	961.00	972.00	979.00	988.00	1040.00	1122.00	1230.00	1253.00	1049.00	1066.00	1115.00	887.00	856.00	843.00	841.00	841.00	839.00	835.00	836.00	851.00	886.00	855.00	888.00	874.00	880.00	911.00	842.00	833.00	833.00	798.00	791.00	794.00	794.00	791.00	788.00	779.00	773.00	768.00	762.00	749.00	745.00	739.00	733.00	720.00	707.00	700.00	695.00	690.00	678.00	672.00	665.00	657.00	649.00	623.00	615.00	608.00	600.00	585.00	580.00	574.00	569.00	564.00	556.00	549.00	546.00	543.00	540.00	539.00	538.00	537.00	535.00	533.00	533.00	534.00	532.00	533.00	531.00	531.00	531.00	530.00	530.00	530.00	528.00	528.00	528.00	529.00	531.00	532.00	533.00	535.00	536.00	537.00	538.00	539.00	539.00	540.00	540.00	540.00	540.00	540.00	540.00	540.00	538.00	538.00	537.00	536.00	536.00	534.00	534.00	531.00	529.00	528.00	527.00	527.00	529.00	533.00	531.00	530.00	531.00	531.00	532.00	533.00	535.00	538.00	542.00	536.00	500.00	506.00	524.00	544.00	546.00	549.00	554.00	559.00	578.00	593.00	605.00	536.00	502.00	502.00	503.00	512.00	558.00	628.00	652.00	669.00	684.00	688.00	698.00	712.00	725.00	727.00	713.00	706.00	694.00	683.00	668.00	663.00	659.00	657.00	660.00	677.00	684.00
1800.00	1815.00	1856.00	1896.00	2002.00	2060.00	1917.00	1707.00	1675.00	1661.00	1639.00	1615.00	1605.00	1597.00	1594.00	1586.00	1587.00	1588.00	1587.00	1584.00	1557.00	1548.00	1545.00	1568.00	1576.00	1489.00	1463.00	1446.00	1443.00	1377.00	1365.00	1351.00	1342.00	1332.00	1314.00	1305.00	1297.00	1294.00	1282.00	1282.00	1273.00	1244.00	1229.00	1209.00	1204.00	1191.00	1178.00	1165.00	1158.00	1150.00	1143.00	1136.00	1113.00	1104.00	1097.00	1090.00	1088.00	1099.00	1105.00	1119.00	1144.00	1036.00	1001.00	996.00	1020.00	939.00	936.00	934.00	931.00	928.00	921.00	918.00	917.00	917.00	918.00	919.00	919.00	918.00	917.00	917.00	915.00	913.00	911.00	908.00	909.00	911.00	914.00	919.00	929.00	933.00	936.00	940.00	957.00	968.00	979.00	987.00	997.00	1054.00	1131.00	1245.00	1272.00	1102.00	1099.00	1150.00	905.00	870.00	854.00	854.00	852.00	849.00	847.00	850.00	876.00	894.00	869.00	891.00	885.00	889.00	913.00	855.00	848.00	826.00	813.00	802.00	805.00	805.00	802.00	798.00	788.00	783.00	777.00	771.00	759.00	753.00	747.00	740.00	727.00	716.00	710.00	705.00	700.00	688.00	681.00	673.00	665.00	655.00	629.00	621.00	614.00	605.00	589.00	583.00	576.00	570.00	565.00	556.00	548.00	546.00	543.00	539.00	537.00	536.00	536.00	535.00	534.00	533.00	533.00	533.00	530.00	530.00	530.00	530.00	530.00	530.00	529.00	528.00	528.00	527.00	527.00	528.00	529.00	531.00	532.00	533.00	534.00	535.00	536.00	537.00	537.00	537.00	537.00	537.00	537.00	537.00	537.00	536.00	535.00	534.00	534.00	532.00	532.00	530.00	528.00	528.00	525.00	524.00	525.00	529.00	532.00	531.00	530.00	529.00	530.00	531.00	532.00	534.00	538.00	542.00	535.00	501.00	502.00	517.00	529.00	537.00	549.00	556.00	562.00	577.00	589.00	602.00	542.00	502.00	502.00	501.00	511.00	548.00	632.00	655.00	675.00	690.00	708.00	707.00	716.00	727.00	731.00	719.00	710.00	700.00	687.00	673.00	671.00	664.00	662.00	660.00	670.00	677.00
1799.00	1808.00	1848.00	1947.00	2026.00	1921.00	1791.00	1734.00	1773.00	1749.00	1652.00	1614.00	1610.00	1605.00	1602.00	1651.00	1581.00	1569.00	1565.00	1557.00	1547.00	1544.00	1529.00	1522.00	1529.00	1541.00	1573.00	1602.00	1497.00	1415.00	1377.00	1366.00	1356.00	1345.00	1325.00	1314.00	1301.00	1290.00	1276.00	1292.00	1288.00	1245.00	1241.00	1219.00	1211.00	1193.00	1184.00	1169.00	1162.00	1154.00	1146.00	1139.00	1116.00	1108.00	1104.00	1107.00	1130.00	1150.00	1174.00	1159.00	1121.00	1140.00	1013.00	1051.00	1015.00	940.00	930.00	929.00	927.00	926.00	926.00	928.00	926.00	929.00	929.00	929.00	929.00	929.00	929.00	928.00	926.00	924.00	923.00	925.00	928.00	931.00	933.00	936.00	944.00	946.00	948.00	952.00	959.00	976.00	983.00	992.00	1003.00	1049.00	1140.00	1253.00	1272.00	1135.00	1134.00	1142.00	947.00	901.00	879.00	879.00	877.00	873.00	871.00	885.00	938.00	897.00	904.00	912.00	909.00	910.00	921.00	920.00	908.00	902.00	849.00	834.00	829.00	829.00	824.00	820.00	807.00	800.00	793.00	787.00	776.00	769.00	763.00	760.00	751.00	739.00	733.00	728.00	723.00	708.00	700.00	693.00	687.00	679.00	657.00	648.00	640.00	630.00	612.00	603.00	594.00	585.00	577.00	563.00	551.00	546.00	542.00	537.00	536.00	535.00	533.00	534.00	532.00	532.00	531.00	530.00	529.00	528.00	529.00	529.00	529.00	529.00	529.00	528.00	528.00	526.00	525.00	525.00	524.00	524.00	525.00	527.00	528.00	529.00	531.00	531.00	532.00	531.00	531.00	531.00	531.00	531.00	531.00	530.00	530.00	528.00	529.00	526.00	525.00	524.00	524.00	523.00	521.00	522.00	526.00	528.00	527.00	528.00	529.00	530.00	530.00	531.00	534.00	536.00	538.00	540.00	533.00	509.00	498.00	504.00	532.00	544.00	554.00	557.00	567.00	581.00	590.00	601.00	550.00	502.00	502.00	502.00	510.00	533.00	642.00	669.00	688.00	709.00	787.00	748.00	736.00	736.00	746.00	731.00	720.00	708.00	700.00	688.00	681.00	673.00	672.00	669.00	670.00	676.00
1804.00	1810.00	1839.00	1935.00	2022.00	1903.00	1789.00	1820.00	1802.00	1788.00	1722.00	1626.00	1620.00	1613.00	1607.00	1626.00	1748.00	1653.00	1597.00	1581.00	1588.00	1568.00	1544.00	1540.00	1542.00	1573.00	1586.00	1608.00	1585.00	1451.00	1386.00	1374.00	1360.00	1345.00	1326.00	1313.00	1301.00	1290.00	1270.00	1265.00	1273.00	1267.00	1255.00	1225.00	1212.00	1196.00	1184.00	1168.00	1160.00	1153.00	1146.00	1139.00	1117.00	1113.00	1117.00	1127.00	1157.00	1186.00	1214.00	1190.00	1165.00	1086.00	1016.00	1072.00	1008.00	940.00	932.00	932.00	931.00	930.00	932.00	931.00	932.00	933.00	934.00	935.00	935.00	935.00	935.00	933.00	932.00	931.00	931.00	936.00	939.00	941.00	944.00	948.00	955.00	957.00	959.00	959.00	965.00	981.00	991.00	1000.00	1008.00	1062.00	1151.00	1262.00	1269.00	1177.00	1169.00	1171.00	977.00	916.00	893.00	893.00	890.00	885.00	882.00	900.00	950.00	908.00	925.00	925.00	922.00	922.00	927.00	974.00	957.00	1028.00	893.00	851.00	842.00	840.00	836.00	830.00	816.00	809.00	802.00	796.00	784.00	781.00	778.00	773.00	763.00	752.00	746.00	741.00	735.00	721.00	716.00	711.00	706.00	699.00	674.00	666.00	656.00	646.00	625.00	614.00	605.00	594.00	586.00	570.00	556.00	549.00	545.00	538.00	536.00	535.00	533.00	532.00	531.00	530.00	530.00	529.00	528.00	526.00	528.00	528.00	528.00	528.00	527.00	528.00	527.00	529.00	524.00	524.00	524.00	524.00	523.00	523.00	524.00	525.00	527.00	527.00	528.00	528.00	528.00	528.00	529.00	528.00	528.00	528.00	527.00	528.00	525.00	524.00	523.00	523.00	522.00	521.00	519.00	520.00	523.00	523.00	525.00	527.00	528.00	530.00	529.00	531.00	534.00	536.00	538.00	538.00	533.00	512.00	502.00	499.00	527.00	535.00	549.00	559.00	570.00	590.00	599.00	612.00	572.00	504.00	503.00	505.00	513.00	537.00	634.00	664.00	686.00	708.00	804.00	783.00	751.00	744.00	750.00	735.00	725.00	714.00	706.00	692.00	687.00	678.00	674.00	668.00	668.00	673.00
1832.00	1832.00	1832.00	1858.00	1915.00	1951.00	1885.00	1788.00	1787.00	1805.00	1788.00	1638.00	1630.00	1621.00	1614.00	1619.00	1801.00	1794.00	1695.00	1647.00	1621.00	1596.00	1566.00	1560.00	1570.00	1592.00	1610.00	1634.00	1665.00	1513.00	1413.00	1410.00	1388.00	1354.00	1344.00	1320.00	1304.00	1290.00	1275.00	1304.00	1332.00	1293.00	1272.00	1235.00	1216.00	1194.00	1183.00	1167.00	1158.00	1151.00	1144.00	1138.00	1122.00	1123.00	1132.00	1145.00	1183.00	1225.00	1227.00	1112.00	1089.00	1039.00	1025.00	1093.00	1004.00	941.00	937.00	936.00	936.00	936.00	936.00	937.00	937.00	939.00	940.00	940.00	942.00	941.00	941.00	940.00	939.00	941.00	941.00	949.00	950.00	953.00	958.00	961.00	969.00	970.00	970.00	970.00	974.00	985.00	994.00	1005.00	1016.00	1072.00	1157.00	1266.00	1259.00	1209.00	1190.00	1209.00	1023.00	933.00	909.00	908.00	903.00	898.00	893.00	926.00	934.00	919.00	952.00	940.00	936.00	936.00	940.00	967.00	1031.00	1068.00	953.00	867.00	853.00	851.00	846.00	839.00	823.00	817.00	812.00	807.00	798.00	796.00	793.00	789.00	776.00	764.00	759.00	754.00	748.00	741.00	737.00	732.00	727.00	720.00	693.00	683.00	673.00	662.00	639.00	627.00	616.00	606.00	596.00	579.00	562.00	556.00	549.00	542.00	540.00	537.00	536.00	535.00	532.00	530.00	529.00	528.00	527.00	525.00	527.00	527.00	527.00	526.00	527.00	526.00	525.00	532.00	524.00	523.00	523.00	523.00	522.00	523.00	522.00	523.00	525.00	524.00	526.00	526.00	526.00	526.00	526.00	526.00	525.00	526.00	525.00	523.00	522.00	521.00	521.00	520.00	520.00	519.00	517.00	518.00	518.00	519.00	521.00	525.00	527.00	528.00	526.00	531.00	533.00	534.00	536.00	538.00	533.00	515.00	505.00	497.00	540.00	565.00	552.00	557.00	570.00	579.00	587.00	599.00	603.00	508.00	507.00	512.00	521.00	546.00	636.00	669.00	687.00	720.00	761.00	770.00	759.00	754.00	753.00	738.00	731.00	720.00	711.00	697.00	690.00	681.00	676.00	673.00	670.00	670.00
1840.00	1884.00	1852.00	1825.00	1814.00	1836.00	1874.00	1764.00	1750.00	1760.00	1746.00	1651.00	1638.00	1626.00	1624.00	1626.00	1672.00	1811.00	1884.00	1809.00	1646.00	1619.00	1590.00	1585.00	1599.00	1607.00	1628.00	1665.00	1684.00	1566.00	1487.00	1477.00	1442.00	1395.00	1351.00	1329.00	1312.00	1295.00	1311.00	1351.00	1371.00	1341.00	1307.00	1245.00	1224.00	1203.00	1192.00	1168.00	1157.00	1149.00	1144.00	1141.00	1131.00	1132.00	1143.00	1156.00	1204.00	1222.00	1120.00	1075.00	1057.00	1031.00	1041.00	1098.00	995.00	945.00	943.00	942.00	941.00	941.00	941.00	941.00	942.00	944.00	945.00	946.00	947.00	947.00	947.00	946.00	948.00	950.00	952.00	959.00	964.00	966.00	968.00	975.00	983.00	984.00	983.00	981.00	979.00	986.00	996.00	1010.00	1024.00	1067.00	1150.00	1286.00	1276.00	1224.00	1207.00	1233.00	1077.00	954.00	927.00	921.00	918.00	911.00	906.00	926.00	927.00	934.00	967.00	957.00	950.00	952.00	957.00	995.00	1070.00	1054.00	944.00	880.00	868.00	862.00	855.00	847.00	831.00	828.00	822.00	816.00	813.00	811.00	807.00	804.00	791.00	777.00	772.00	769.00	767.00	764.00	760.00	756.00	750.00	742.00	712.00	702.00	690.00	678.00	653.00	641.00	629.00	618.00	608.00	589.00	571.00	562.00	555.00	546.00	543.00	542.00	539.00	537.00	532.00	530.00	529.00	527.00	526.00	525.00	524.00	525.00	524.00	524.00	524.00	524.00	525.00	538.00	523.00	522.00	522.00	522.00	520.00	519.00	519.00	520.00	521.00	522.00	523.00	523.00	523.00	523.00	523.00	522.00	522.00	521.00	521.00	520.00	520.00	519.00	518.00	517.00	517.00	516.00	515.00	516.00	518.00	519.00	518.00	524.00	525.00	525.00	524.00	530.00	530.00	533.00	536.00	536.00	533.00	516.00	510.00	497.00	578.00	605.00	581.00	573.00	572.00	597.00	602.00	608.00	619.00	522.00	514.00	520.00	534.00	559.00	641.00	679.00	697.00	712.00	749.00	771.00	766.00	769.00	761.00	744.00	736.00	726.00	717.00	700.00	694.00	683.00	680.00	674.00	670.00	673.00
1850.00	1845.00	1867.00	1892.00	1852.00	1806.00	1775.00	1749.00	1764.00	1794.00	1713.00	1731.00	1745.00	1745.00	1789.00	1802.00	1656.00	1672.00	1737.00	1894.00	1719.00	1681.00	1643.00	1629.00	1643.00	1667.00	1665.00	1682.00	1680.00	1704.00	1844.00	1730.00	1632.00	1474.00	1375.00	1343.00	1326.00	1317.00	1316.00	1355.00	1368.00	1387.00	1422.00	1251.00	1234.00	1227.00	1210.00	1172.00	1170.00	1168.00	1164.00	1162.00	1156.00	1163.00	1161.00	1170.00	1189.00	1104.00	1084.00	1070.00	1063.00	1055.00	1061.00	1098.00	994.00	958.00	953.00	953.00	952.00	953.00	952.00	953.00	952.00	955.00	957.00	958.00	959.00	959.00	958.00	961.00	965.00	970.00	974.00	985.00	988.00	997.00	1004.00	1013.00	1019.00	1016.00	1013.00	1007.00	1000.00	996.00	1012.00	1034.00	1072.00	1069.00	1118.00	1300.00	1349.00	1297.00	1284.00	1281.00	1134.00	1001.00	959.00	953.00	947.00	941.00	945.00	973.00	967.00	972.00	986.00	991.00	984.00	989.00	999.00	1063.00	1210.00	1138.00	1034.00	919.00	892.00	888.00	865.00	858.00	856.00	851.00	844.00	844.00	847.00	844.00	841.00	834.00	819.00	805.00	807.00	812.00	813.00	814.00	811.00	806.00	799.00	789.00	753.00	740.00	726.00	712.00	683.00	670.00	657.00	645.00	633.00	610.00	587.00	578.00	570.00	557.00	553.00	550.00	547.00	544.00	540.00	538.00	533.00	526.00	525.00	524.00	523.00	522.00	522.00	521.00	521.00	521.00	521.00	522.00	519.00	515.00	516.00	513.00	513.00	513.00	514.00	516.00	516.00	517.00	517.00	516.00	517.00	517.00	516.00	516.00	517.00	516.00	516.00	516.00	515.00	515.00	514.00	513.00	512.00	512.00	512.00	513.00	513.00	513.00	514.00	518.00	519.00	520.00	521.00	525.00	527.00	530.00	532.00	534.00	527.00	516.00	505.00	507.00	538.00	544.00	556.00	577.00	590.00	598.00	621.00	636.00	636.00	560.00	532.00	537.00	553.00	575.00	628.00	651.00	678.00	722.00	771.00	767.00	760.00	766.00	776.00	751.00	739.00	731.00	720.00	706.00	701.00	689.00	684.00	683.00	682.00	676.00
1882.00	1904.00	1852.00	1858.00	1870.00	1877.00	1820.00	1766.00	1763.00	1769.00	1774.00	1728.00	1730.00	1749.00	1770.00	1734.00	1700.00	1663.00	1681.00	1743.00	1842.00	1749.00	1697.00	1691.00	1686.00	1818.00	1803.00	1754.00	1708.00	1653.00	1764.00	1688.00	1666.00	1513.00	1382.00	1360.00	1342.00	1328.00	1307.00	1325.00	1372.00	1400.00	1403.00	1258.00	1243.00	1251.00	1214.00	1184.00	1182.00	1179.00	1176.00	1173.00	1177.00	1188.00	1177.00	1178.00	1160.00	1105.00	1087.00	1075.00	1065.00	1069.00	1052.00	1037.00	995.00	964.00	959.00	959.00	959.00	958.00	959.00	959.00	959.00	960.00	962.00	964.00	964.00	964.00	964.00	970.00	976.00	980.00	985.00	1002.00	1004.00	1016.00	1027.00	1037.00	1043.00	1036.00	1027.00	1023.00	1011.00	1005.00	1009.00	1039.00	1069.00	1078.00	1112.00	1292.00	1401.00	1333.00	1322.00	1311.00	1162.00	1029.00	978.00	986.00	988.00	983.00	989.00	1039.00	1061.00	1065.00	1054.00	1013.00	1013.00	1018.00	1036.00	1198.00	1107.00	993.00	945.00	907.00	902.00	895.00	873.00	873.00	868.00	862.00	858.00	861.00	866.00	864.00	857.00	849.00	833.00	827.00	830.00	836.00	840.00	842.00	839.00	832.00	823.00	813.00	774.00	759.00	744.00	730.00	699.00	686.00	672.00	659.00	645.00	620.00	596.00	587.00	578.00	564.00	559.00	555.00	552.00	549.00	543.00	539.00	536.00	529.00	524.00	523.00	522.00	521.00	521.00	519.00	519.00	518.00	516.00	512.00	510.00	510.00	511.00	511.00	510.00	512.00	512.00	512.00	514.00	514.00	514.00	515.00	514.00	514.00	513.00	513.00	513.00	514.00	513.00	513.00	513.00	513.00	511.00	511.00	510.00	510.00	511.00	511.00	510.00	511.00	511.00	517.00	518.00	518.00	520.00	523.00	526.00	528.00	530.00	533.00	518.00	500.00	503.00	516.00	554.00	581.00	574.00	591.00	615.00	609.00	618.00	630.00	630.00	582.00	540.00	548.00	558.00	579.00	630.00	653.00	674.00	702.00	770.00	754.00	755.00	768.00	783.00	749.00	738.00	728.00	719.00	703.00	698.00	694.00	693.00	691.00	685.00	679.00
1857.00	1872.00	1913.00	1890.00	1846.00	1832.00	1817.00	1827.00	1791.00	1755.00	1746.00	1711.00	1708.00	1712.00	1711.00	1698.00	1725.00	1697.00	1667.00	1683.00	1880.00	1918.00	1823.00	1767.00	1746.00	1962.00	2060.00	2034.00	1830.00	1622.00	1619.00	1581.00	1572.00	1460.00	1405.00	1374.00	1358.00	1344.00	1316.00	1332.00	1365.00	1458.00	1393.00	1273.00	1259.00	1276.00	1228.00	1196.00	1195.00	1192.00	1188.00	1183.00	1195.00	1200.00	1185.00	1160.00	1125.00	1100.00	1085.00	1075.00	1072.00	1075.00	1069.00	1097.00	1005.00	967.00	965.00	965.00	966.00	965.00	965.00	965.00	965.00	965.00	968.00	970.00	970.00	970.00	969.00	978.00	984.00	992.00	996.00	1020.00	1022.00	1038.00	1057.00	1068.00	1063.00	1060.00	1050.00	1040.00	1022.00	1012.00	1015.00	1024.00	1055.00	1087.00	1113.00	1253.00	1420.00	1359.00	1374.00	1381.00	1218.00	1061.00	994.00	1004.00	1058.00	1104.00	1104.00	1139.00	1134.00	1150.00	1183.00	1150.00	1117.00	1139.00	1183.00	1082.00	982.00	940.00	928.00	918.00	918.00	907.00	898.00	893.00	882.00	873.00	875.00	879.00	885.00	882.00	873.00	865.00	845.00	847.00	858.00	860.00	866.00	872.00	867.00	859.00	849.00	836.00	795.00	779.00	764.00	748.00	716.00	703.00	687.00	672.00	658.00	631.00	607.00	596.00	586.00	570.00	565.00	561.00	557.00	553.00	545.00	542.00	538.00	531.00	528.00	526.00	523.00	524.00	519.00	518.00	517.00	516.00	513.00	511.00	511.00	510.00	511.00	509.00	509.00	510.00	510.00	510.00	510.00	511.00	511.00	511.00	512.00	512.00	511.00	511.00	511.00	512.00	511.00	510.00	510.00	510.00	510.00	509.00	508.00	508.00	508.00	508.00	508.00	508.00	507.00	514.00	515.00	517.00	519.00	523.00	526.00	526.00	527.00	531.00	515.00	501.00	516.00	533.00	558.00	577.00	600.00	610.00	613.00	618.00	627.00	629.00	625.00	601.00	549.00	558.00	569.00	585.00	641.00	658.00	676.00	695.00	758.00	746.00	751.00	765.00	777.00	746.00	733.00	724.00	715.00	703.00	699.00	694.00	693.00	690.00	685.00	681.00
1861.00	1867.00	1923.00	1913.00	1883.00	1865.00	1866.00	1855.00	1833.00	1794.00	1726.00	1712.00	1697.00	1690.00	1686.00	1683.00	1689.00	1742.00	1727.00	1684.00	1741.00	1816.00	1916.00	1796.00	1793.00	2041.00	2078.00	2136.00	2096.00	1619.00	1627.00	1546.00	1514.00	1448.00	1399.00	1385.00	1369.00	1353.00	1326.00	1328.00	1359.00	1465.00	1367.00	1292.00	1279.00	1303.00	1249.00	1210.00	1208.00	1205.00	1200.00	1197.00	1211.00	1222.00	1191.00	1167.00	1137.00	1109.00	1096.00	1084.00	1080.00	1081.00	1084.00	1116.00	1009.00	973.00	972.00	972.00	972.00	972.00	972.00	971.00	971.00	971.00	975.00	975.00	976.00	976.00	976.00	987.00	994.00	1000.00	1006.00	1036.00	1050.00	1061.00	1085.00	1100.00	1088.00	1093.00	1080.00	1061.00	1036.00	1022.00	1022.00	1028.00	1042.00	1083.00	1105.00	1188.00	1385.00	1419.00	1436.00	1439.00	1212.00	1093.00	1048.00	1053.00	1042.00	1070.00	1207.00	1301.00	1299.00	1265.00	1204.00	1167.00	1150.00	1114.00	1064.00	967.00	955.00	953.00	940.00	931.00	933.00	930.00	924.00	918.00	898.00	886.00	892.00	898.00	905.00	899.00	888.00	878.00	856.00	867.00	878.00	887.00	895.00	901.00	896.00	886.00	875.00	863.00	817.00	799.00	781.00	764.00	734.00	717.00	701.00	686.00	670.00	641.00	616.00	604.00	593.00	577.00	571.00	568.00	563.00	559.00	550.00	546.00	542.00	534.00	528.00	526.00	522.00	520.00	519.00	515.00	515.00	515.00	513.00	509.00	509.00	509.00	509.00	509.00	508.00	509.00	508.00	508.00	509.00	509.00	509.00	509.00	508.00	509.00	509.00	509.00	508.00	509.00	508.00	508.00	509.00	508.00	508.00	507.00	506.00	505.00	506.00	506.00	505.00	504.00	506.00	510.00	512.00	514.00	516.00	522.00	523.00	524.00	522.00	530.00	504.00	511.00	524.00	536.00	562.00	570.00	585.00	599.00	604.00	614.00	623.00	618.00	623.00	611.00	566.00	574.00	581.00	592.00	638.00	663.00	682.00	702.00	746.00	739.00	746.00	757.00	769.00	745.00	731.00	722.00	715.00	703.00	699.00	693.00	689.00	686.00	682.00	683.00
1869.00	1874.00	1886.00	1891.00	1907.00	1922.00	1911.00	1887.00	1829.00	1793.00	1733.00	1703.00	1693.00	1687.00	1679.00	1673.00	1677.00	1702.00	1731.00	1704.00	1693.00	1709.00	1760.00	1870.00	1924.00	2041.00	2087.00	2103.00	2112.00	1706.00	1554.00	1514.00	1485.00	1455.00	1408.00	1392.00	1383.00	1367.00	1352.00	1335.00	1361.00	1409.00	1356.00	1300.00	1325.00	1315.00	1266.00	1224.00	1221.00	1217.00	1210.00	1212.00	1242.00	1230.00	1201.00	1178.00	1161.00	1137.00	1114.00	1108.00	1091.00	1082.00	1093.00	1122.00	1016.00	980.00	980.00	979.00	979.00	978.00	979.00	978.00	978.00	978.00	980.00	981.00	982.00	981.00	983.00	994.00	1002.00	1010.00	1017.00	1052.00	1066.00	1087.00	1108.00	1132.00	1128.00	1120.00	1096.00	1084.00	1053.00	1031.00	1028.00	1031.00	1041.00	1082.00	1100.00	1149.00	1325.00	1452.00	1452.00	1475.00	1343.00	1152.00	1152.00	1181.00	1146.00	1283.00	1286.00	1210.00	1154.00	1112.00	1083.00	1042.00	1024.00	1011.00	991.00	973.00	981.00	977.00	955.00	950.00	949.00	942.00	940.00	935.00	929.00	924.00	917.00	919.00	926.00	914.00	901.00	889.00	874.00	888.00	901.00	914.00	925.00	931.00	926.00	915.00	902.00	887.00	836.00	817.00	800.00	783.00	749.00	731.00	714.00	698.00	680.00	652.00	625.00	613.00	601.00	585.00	580.00	576.00	571.00	565.00	555.00	551.00	546.00	536.00	528.00	524.00	521.00	518.00	517.00	514.00	513.00	512.00	512.00	509.00	508.00	508.00	507.00	507.00	507.00	507.00	507.00	507.00	506.00	506.00	506.00	506.00	507.00	506.00	507.00	507.00	507.00	506.00	507.00	506.00	507.00	507.00	506.00	505.00	504.00	503.00	504.00	504.00	503.00	502.00	504.00	509.00	511.00	512.00	512.00	515.00	517.00	516.00	517.00	529.00	506.00	513.00	522.00	533.00	559.00	566.00	580.00	585.00	603.00	625.00	629.00	624.00	613.00	616.00	589.00	598.00	596.00	613.00	640.00	667.00	682.00	700.00	739.00	733.00	742.00	757.00	769.00	748.00	730.00	721.00	714.00	705.00	700.00	692.00	687.00	685.00	683.00	686.00
1878.00	1881.00	1883.00	1887.00	1900.00	1908.00	1937.00	1933.00	1849.00	1811.00	1741.00	1700.00	1689.00	1681.00	1675.00	1669.00	1662.00	1667.00	1673.00	1663.00	1676.00	1681.00	1697.00	1758.00	1862.00	1969.00	1997.00	1999.00	1923.00	1799.00	1540.00	1521.00	1499.00	1486.00	1409.00	1394.00	1380.00	1394.00	1386.00	1353.00	1351.00	1456.00	1354.00	1360.00	1387.00	1322.00	1267.00	1241.00	1234.00	1230.00	1219.00	1221.00	1244.00	1228.00	1209.00	1181.00	1173.00	1171.00	1147.00	1123.00	1118.00	1085.00	1098.00	1122.00	1025.00	987.00	986.00	986.00	987.00	986.00	986.00	985.00	985.00	984.00	985.00	987.00	988.00	988.00	991.00	1003.00	1010.00	1018.00	1026.00	1069.00	1091.00	1109.00	1126.00	1153.00	1170.00	1123.00	1091.00	1124.00	1079.00	1041.00	1036.00	1039.00	1046.00	1086.00	1103.00	1120.00	1211.00	1465.00	1469.00	1492.00	1485.00	1258.00	1145.00	1230.00	1433.00	1343.00	1146.00	1124.00	1097.00	1071.00	1050.00	1010.00	1002.00	991.00	985.00	993.00	1007.00	997.00	979.00	975.00	969.00	971.00	990.00	1000.00	989.00	973.00	954.00	943.00	944.00	928.00	919.00	909.00	897.00	911.00	926.00	943.00	956.00	963.00	957.00	944.00	929.00	913.00	855.00	836.00	818.00	800.00	763.00	743.00	724.00	708.00	694.00	666.00	637.00	623.00	611.00	595.00	590.00	584.00	578.00	573.00	562.00	555.00	549.00	538.00	529.00	524.00	521.00	518.00	515.00	513.00	512.00	511.00	510.00	508.00	507.00	506.00	505.00	506.00	506.00	505.00	505.00	504.00	504.00	503.00	504.00	505.00	504.00	503.00	504.00	505.00	504.00	506.00	505.00	505.00	505.00	505.00	505.00	503.00	503.00	502.00	502.00	502.00	501.00	501.00	502.00	507.00	508.00	512.00	510.00	507.00	509.00	515.00	526.00	536.00	518.00	508.00	526.00	541.00	569.00	584.00	585.00	597.00	612.00	626.00	619.00	618.00	606.00	619.00	611.00	619.00	617.00	626.00	650.00	677.00	681.00	697.00	727.00	731.00	755.00	764.00	771.00	744.00	729.00	720.00	713.00	702.00	699.00	690.00	688.00	686.00	687.00	690.00
1888.00	1890.00	1893.00	1894.00	1915.00	1879.00	1852.00	1820.00	1785.00	1759.00	1717.00	1691.00	1683.00	1674.00	1670.00	1662.00	1655.00	1652.00	1649.00	1649.00	1695.00	1669.00	1679.00	1705.00	1738.00	1900.00	1928.00	1896.00	1856.00	1786.00	1581.00	1554.00	1537.00	1537.00	1423.00	1404.00	1404.00	1404.00	1426.00	1389.00	1354.00	1441.00	1365.00	1396.00	1392.00	1333.00	1301.00	1254.00	1253.00	1245.00	1235.00	1233.00	1245.00	1211.00	1198.00	1189.00	1183.00	1182.00	1175.00	1146.00	1130.00	1094.00	1102.00	1135.00	1036.00	994.00	994.00	993.00	994.00	994.00	992.00	993.00	992.00	991.00	990.00	992.00	993.00	994.00	998.00	1011.00	1018.00	1026.00	1035.00	1068.00	1088.00	1112.00	1141.00	1175.00	1216.00	1134.00	1099.00	1105.00	1109.00	1049.00	1045.00	1046.00	1052.00	1075.00	1090.00	1104.00	1141.00	1403.00	1453.00	1467.00	1538.00	1335.00	1120.00	1290.00	1364.00	1255.00	1144.00	1101.00	1077.00	1058.00	1040.00	1018.00	1012.00	1004.00	1000.00	1004.00	1031.00	1036.00	1029.00	1043.00	1069.00	1034.00	1031.00	1041.00	1092.00	1060.00	1028.00	1000.00	983.00	975.00	971.00	980.00	951.00	943.00	954.00	972.00	988.00	998.00	986.00	972.00	956.00	937.00	874.00	854.00	836.00	817.00	777.00	756.00	739.00	726.00	712.00	681.00	650.00	635.00	623.00	607.00	600.00	593.00	586.00	581.00	567.00	560.00	553.00	541.00	529.00	524.00	521.00	517.00	515.00	512.00	511.00	510.00	510.00	508.00	507.00	506.00	505.00	504.00	504.00	505.00	505.00	503.00	503.00	502.00	502.00	502.00	503.00	502.00	503.00	504.00	503.00	503.00	503.00	504.00	504.00	503.00	503.00	502.00	501.00	500.00	500.00	501.00	500.00	500.00	502.00	504.00	506.00	509.00	507.00	510.00	519.00	528.00	534.00	541.00	528.00	500.00	523.00	534.00	561.00	572.00	588.00	599.00	606.00	618.00	611.00	604.00	598.00	615.00	625.00	638.00	641.00	632.00	649.00	681.00	691.00	698.00	720.00	734.00	764.00	779.00	774.00	743.00	727.00	719.00	712.00	700.00	697.00	691.00	690.00	689.00	685.00	686.00
1897.00	1901.00	1905.00	1924.00	1959.00	1878.00	1817.00	1775.00	1758.00	1744.00	1713.00	1687.00	1677.00	1670.00	1663.00	1657.00	1648.00	1644.00	1642.00	1641.00	1668.00	1662.00	1669.00	1680.00	1699.00	1729.00	1788.00	1792.00	1786.00	1689.00	1734.00	1596.00	1585.00	1631.00	1448.00	1419.00	1430.00	1434.00	1477.00	1427.00	1376.00	1401.00	1383.00	1417.00	1413.00	1359.00	1314.00	1273.00	1263.00	1274.00	1254.00	1246.00	1251.00	1206.00	1197.00	1189.00	1187.00	1186.00	1182.00	1169.00	1142.00	1103.00	1110.00	1168.00	1044.00	1003.00	1000.00	1002.00	1001.00	1001.00	1000.00	999.00	998.00	998.00	997.00	997.00	998.00	1000.00	1004.00	1017.00	1026.00	1034.00	1043.00	1082.00	1100.00	1117.00	1126.00	1146.00	1238.00	1176.00	1096.00	1081.00	1080.00	1073.00	1063.00	1058.00	1056.00	1080.00	1095.00	1113.00	1137.00	1274.00	1373.00	1444.00	1590.00	1440.00	1141.00	1229.00	1244.00	1253.00	1167.00	1092.00	1065.00	1050.00	1045.00	1037.00	1029.00	1023.00	1019.00	1021.00	1041.00	1075.00	1101.00	1137.00	1111.00	1056.00	1042.00	1035.00	1092.00	1102.00	1102.00	1083.00	1026.00	1047.00	1047.00	1083.00	1094.00	1011.00	1022.00	1009.00	1020.00	1029.00	1018.00	1000.00	981.00	959.00	892.00	875.00	858.00	840.00	796.00	775.00	761.00	746.00	730.00	696.00	663.00	648.00	634.00	619.00	610.00	603.00	595.00	589.00	573.00	565.00	558.00	544.00	531.00	526.00	521.00	518.00	514.00	511.00	509.00	509.00	509.00	507.00	505.00	505.00	504.00	504.00	503.00	503.00	503.00	503.00	502.00	501.00	501.00	502.00	501.00	502.00	503.00	502.00	503.00	503.00	503.00	503.00	502.00	502.00	500.00	499.00	500.00	500.00	499.00	499.00	499.00	500.00	501.00	502.00	503.00	506.00	506.00	523.00	532.00	537.00	541.00	545.00	536.00	493.00	517.00	534.00	562.00	574.00	581.00	583.00	594.00	607.00	603.00	599.00	591.00	605.00	628.00	653.00	657.00	645.00	662.00	672.00	685.00	690.00	722.00	734.00	752.00	773.00	775.00	747.00	729.00	719.00	712.00	701.00	697.00	694.00	693.00	690.00	682.00	681.00
1923.00	1925.00	1924.00	1929.00	1943.00	1968.00	1881.00	1778.00	1750.00	1732.00	1708.00	1686.00	1677.00	1668.00	1661.00	1655.00	1647.00	1644.00	1640.00	1636.00	1645.00	1682.00	1725.00	1767.00	1812.00	1672.00	1615.00	1602.00	1610.00	1611.00	1671.00	1657.00	1630.00	1619.00	1503.00	1458.00	1480.00	1494.00	1522.00	1505.00	1410.00	1402.00	1431.00	1470.00	1449.00	1397.00	1362.00	1318.00	1305.00	1292.00	1292.00	1274.00	1268.00	1225.00	1206.00	1196.00	1191.00	1192.00	1191.00	1183.00	1178.00	1121.00	1118.00	1168.00	1068.00	1023.00	1017.00	1017.00	1017.00	1016.00	1015.00	1014.00	1014.00	1012.00	1010.00	1009.00	1009.00	1011.00	1016.00	1029.00	1034.00	1041.00	1051.00	1099.00	1111.00	1122.00	1142.00	1163.00	1235.00	1228.00	1103.00	1081.00	1084.00	1168.00	1118.00	1085.00	1074.00	1084.00	1097.00	1112.00	1128.00	1167.00	1198.00	1284.00	1481.00	1549.00	1321.00	1221.00	1168.00	1138.00	1108.00	1082.00	1067.00	1073.00	1075.00	1093.00	1114.00	1138.00	1211.00	1232.00	1215.00	1196.00	1159.00	1137.00	1112.00	1097.00	1125.00	1210.00	1168.00	1171.00	1217.00	1243.00	1191.00	1263.00	1285.00	1244.00	1208.00	1189.00	1140.00	1122.00	1117.00	1092.00	1073.00	1046.00	1021.00	997.00	953.00	939.00	917.00	893.00	840.00	821.00	803.00	785.00	765.00	724.00	686.00	670.00	660.00	641.00	632.00	625.00	616.00	607.00	588.00	578.00	570.00	552.00	538.00	531.00	525.00	521.00	516.00	512.00	510.00	507.00	507.00	506.00	504.00	503.00	502.00	501.00	501.00	501.00	500.00	501.00	501.00	501.00	500.00	500.00	501.00	501.00	501.00	501.00	501.00	501.00	501.00	501.00	501.00	500.00	499.00	499.00	499.00	499.00	498.00	498.00	498.00	498.00	497.00	501.00	510.00	525.00	536.00	552.00	551.00	552.00	552.00	551.00	546.00	488.00	506.00	519.00	544.00	565.00	574.00	582.00	587.00	585.00	596.00	591.00	574.00	586.00	598.00	620.00	649.00	666.00	680.00	695.00	705.00	715.00	737.00	736.00	751.00	784.00	771.00	752.00	743.00	724.00	715.00	709.00	706.00	702.00	703.00	701.00	677.00	675.00
1940.00	1940.00	1935.00	1943.00	1944.00	1970.00	1990.00	1794.00	1758.00	1730.00	1705.00	1685.00	1677.00	1670.00	1663.00	1660.00	1653.00	1648.00	1643.00	1638.00	1653.00	1711.00	1792.00	1825.00	1752.00	1671.00	1611.00	1589.00	1584.00	1582.00	1593.00	1645.00	1648.00	1638.00	1546.00	1476.00	1477.00	1499.00	1486.00	1483.00	1422.00	1407.00	1463.00	1478.00	1466.00	1405.00	1374.00	1335.00	1339.00	1313.00	1308.00	1291.00	1297.00	1232.00	1214.00	1201.00	1193.00	1194.00	1192.00	1185.00	1180.00	1125.00	1132.00	1166.00	1087.00	1030.00	1025.00	1025.00	1024.00	1024.00	1023.00	1023.00	1021.00	1020.00	1018.00	1016.00	1016.00	1017.00	1023.00	1035.00	1042.00	1048.00	1056.00	1102.00	1115.00	1139.00	1160.00	1169.00	1171.00	1179.00	1103.00	1089.00	1090.00	1132.00	1144.00	1103.00	1087.00	1087.00	1097.00	1109.00	1127.00	1164.00	1185.00	1214.00	1423.00	1519.00	1356.00	1233.00	1184.00	1160.00	1094.00	1079.00	1081.00	1088.00	1088.00	1123.00	1258.00	1401.00	1419.00	1337.00	1317.00	1234.00	1208.00	1147.00	1131.00	1167.00	1174.00	1244.00	1253.00	1292.00	1277.00	1238.00	1349.00	1400.00	1303.00	1317.00	1304.00	1248.00	1192.00	1173.00	1158.00	1120.00	1098.00	1075.00	1044.00	1011.00	994.00	975.00	949.00	918.00	861.00	843.00	822.00	801.00	779.00	735.00	695.00	682.00	673.00	654.00	646.00	636.00	626.00	616.00	597.00	587.00	578.00	561.00	545.00	537.00	529.00	524.00	520.00	514.00	512.00	509.00	508.00	504.00	503.00	502.00	502.00	501.00	500.00	501.00	501.00	500.00	500.00	499.00	500.00	499.00	500.00	500.00	500.00	501.00	501.00	500.00	501.00	500.00	500.00	501.00	499.00	499.00	500.00	499.00	499.00	497.00	497.00	496.00	498.00	510.00	526.00	538.00	550.00	560.00	562.00	559.00	558.00	557.00	552.00	485.00	498.00	516.00	550.00	570.00	577.00	567.00	568.00	574.00	585.00	581.00	566.00	574.00	588.00	616.00	625.00	639.00	671.00	700.00	713.00	725.00	752.00	740.00	744.00	756.00	754.00	748.00	743.00	729.00	719.00	714.00	712.00	708.00	708.00	703.00	674.00	675.00
1957.00	1955.00	1942.00	1942.00	1959.00	1975.00	2009.00	1819.00	1764.00	1741.00	1709.00	1687.00	1680.00	1673.00	1670.00	1667.00	1660.00	1654.00	1648.00	1641.00	1647.00	1705.00	1782.00	1812.00	1693.00	1631.00	1608.00	1594.00	1578.00	1574.00	1548.00	1540.00	1532.00	1523.00	1513.00	1499.00	1494.00	1478.00	1486.00	1490.00	1450.00	1404.00	1491.00	1471.00	1467.00	1428.00	1410.00	1360.00	1343.00	1326.00	1331.00	1317.00	1318.00	1243.00	1221.00	1208.00	1196.00	1196.00	1194.00	1189.00	1182.00	1133.00	1141.00	1177.00	1122.00	1040.00	1033.00	1032.00	1032.00	1033.00	1032.00	1030.00	1029.00	1027.00	1024.00	1024.00	1021.00	1022.00	1027.00	1041.00	1048.00	1055.00	1061.00	1096.00	1109.00	1129.00	1156.00	1183.00	1226.00	1177.00	1104.00	1095.00	1100.00	1113.00	1135.00	1157.00	1108.00	1095.00	1101.00	1112.00	1127.00	1160.00	1177.00	1194.00	1328.00	1461.00	1405.00	1240.00	1193.00	1173.00	1093.00	1086.00	1095.00	1102.00	1103.00	1221.00	1468.00	1631.00	1448.00	1512.00	1562.00	1489.00	1380.00	1229.00	1216.00	1232.00	1277.00	1266.00	1271.00	1294.00	1383.00	1437.00	1410.00	1410.00	1390.00	1480.00	1412.00	1311.00	1259.00	1221.00	1194.00	1141.00	1120.00	1122.00	1106.00	1058.00	1037.00	1012.00	975.00	937.00	885.00	863.00	838.00	813.00	789.00	742.00	706.00	696.00	689.00	667.00	658.00	648.00	636.00	626.00	609.00	600.00	592.00	573.00	554.00	544.00	537.00	531.00	525.00	519.00	515.00	512.00	509.00	503.00	503.00	503.00	503.00	501.00	500.00	500.00	500.00	500.00	498.00	498.00	498.00	499.00	499.00	499.00	500.00	500.00	500.00	501.00	500.00	500.00	500.00	500.00	499.00	500.00	500.00	499.00	496.00	496.00	496.00	495.00	493.00	523.00	535.00	545.00	553.00	559.00	559.00	559.00	558.00	558.00	555.00	500.00	486.00	502.00	551.00	561.00	563.00	550.00	553.00	562.00	582.00	575.00	557.00	563.00	579.00	598.00	603.00	618.00	649.00	694.00	715.00	727.00	753.00	744.00	737.00	741.00	744.00	744.00	741.00	735.00	725.00	717.00	718.00	710.00	706.00	704.00	688.00	682.00
1973.00	1966.00	1961.00	1954.00	1952.00	1964.00	1977.00	1821.00	1774.00	1751.00	1715.00	1694.00	1687.00	1681.00	1678.00	1676.00	1667.00	1662.00	1655.00	1648.00	1627.00	1678.00	1802.00	1881.00	1733.00	1620.00	1600.00	1582.00	1568.00	1554.00	1533.00	1521.00	1511.00	1514.00	1492.00	1508.00	1516.00	1473.00	1502.00	1468.00	1461.00	1406.00	1494.00	1472.00	1464.00	1457.00	1417.00	1377.00	1373.00	1350.00	1347.00	1345.00	1369.00	1269.00	1230.00	1217.00	1200.00	1198.00	1197.00	1194.00	1185.00	1145.00	1135.00	1166.00	1159.00	1050.00	1042.00	1041.00	1041.00	1041.00	1039.00	1038.00	1037.00	1034.00	1031.00	1031.00	1028.00	1027.00	1031.00	1045.00	1053.00	1060.00	1066.00	1097.00	1110.00	1124.00	1141.00	1164.00	1209.00	1172.00	1113.00	1104.00	1108.00	1120.00	1136.00	1201.00	1152.00	1107.00	1109.00	1115.00	1126.00	1155.00	1171.00	1187.00	1259.00	1409.00	1440.00	1243.00	1187.00	1158.00	1101.00	1094.00	1108.00	1115.00	1118.00	1306.00	1571.00	1765.00	1678.00	1655.00	1768.00	1806.00	1723.00	1367.00	1282.00	1286.00	1316.00	1318.00	1388.00	1365.00	1409.00	1474.00	1558.00	1572.00	1549.00	1581.00	1536.00	1376.00	1313.00	1258.00	1229.00	1187.00	1171.00	1185.00	1182.00	1175.00	1082.00	1044.00	998.00	952.00	905.00	876.00	847.00	819.00	792.00	747.00	723.00	715.00	704.00	680.00	670.00	660.00	650.00	642.00	625.00	616.00	606.00	587.00	565.00	555.00	546.00	539.00	533.00	524.00	521.00	515.00	511.00	505.00	504.00	504.00	503.00	503.00	501.00	501.00	500.00	498.00	499.00	498.00	497.00	497.00	498.00	498.00	499.00	500.00	500.00	501.00	500.00	499.00	499.00	499.00	503.00	504.00	501.00	499.00	487.00	487.00	489.00	486.00	486.00	517.00	535.00	546.00	550.00	553.00	555.00	557.00	556.00	556.00	552.00	523.00	490.00	487.00	541.00	549.00	545.00	542.00	535.00	550.00	558.00	568.00	561.00	552.00	563.00	572.00	584.00	601.00	642.00	682.00	719.00	728.00	752.00	739.00	734.00	739.00	742.00	743.00	741.00	740.00	735.00	723.00	721.00	711.00	708.00	702.00	694.00	689.00
2008.00	2002.00	1998.00	1992.00	2003.00	2019.00	1985.00	2001.00	1894.00	1797.00	1734.00	1718.00	1712.00	1702.00	1700.00	1697.00	1686.00	1679.00	1671.00	1662.00	1633.00	1623.00	1613.00	1649.00	1737.00	1649.00	1590.00	1568.00	1554.00	1536.00	1529.00	1533.00	1527.00	1521.00	1523.00	1526.00	1548.00	1501.00	1476.00	1506.00	1451.00	1414.00	1435.00	1498.00	1456.00	1448.00	1467.00	1425.00	1398.00	1405.00	1407.00	1385.00	1371.00	1288.00	1261.00	1242.00	1205.00	1205.00	1203.00	1203.00	1191.00	1150.00	1153.00	1173.00	1201.00	1070.00	1060.00	1058.00	1057.00	1058.00	1056.00	1054.00	1052.00	1048.00	1045.00	1044.00	1042.00	1038.00	1038.00	1050.00	1060.00	1071.00	1081.00	1101.00	1105.00	1111.00	1119.00	1128.00	1162.00	1178.00	1173.00	1166.00	1123.00	1133.00	1141.00	1154.00	1191.00	1153.00	1139.00	1133.00	1135.00	1150.00	1161.00	1175.00	1214.00	1313.00	1360.00	1217.00	1175.00	1155.00	1113.00	1117.00	1129.00	1138.00	1150.00	1284.00	1496.00	1697.00	1885.00	1687.00	1742.00	1856.00	1696.00	1444.00	1387.00	1393.00	1423.00	1509.00	1472.00	1461.00	1623.00	1731.00	1687.00	1602.00	1565.00	1530.00	1545.00	1590.00	1465.00	1377.00	1407.00	1501.00	1542.00	1536.00	1477.00	1388.00	1198.00	1110.00	1081.00	1073.00	1079.00	1022.00	979.00	948.00	841.00	779.00	758.00	742.00	729.00	712.00	704.00	695.00	688.00	680.00	661.00	651.00	639.00	617.00	591.00	579.00	568.00	559.00	551.00	539.00	533.00	527.00	521.00	509.00	505.00	505.00	505.00	504.00	504.00	504.00	503.00	501.00	500.00	498.00	499.00	501.00	498.00	491.00	491.00	496.00	502.00	500.00	499.00	499.00	498.00	495.00	577.00	609.00	619.00	594.00	528.00	497.00	486.00	483.00	479.00	516.00	524.00	540.00	546.00	543.00	548.00	550.00	550.00	551.00	551.00	544.00	511.00	488.00	515.00	516.00	508.00	511.00	502.00	517.00	523.00	547.00	568.00	526.00	516.00	526.00	554.00	557.00	621.00	673.00	707.00	720.00	723.00	741.00	751.00	757.00	758.00	754.00	750.00	747.00	744.00	734.00	727.00	718.00	722.00	724.00	702.00	693.00
2023.00	2009.00	2005.00	2010.00	2025.00	2021.00	2033.00	1974.00	1975.00	1887.00	1753.00	1734.00	1722.00	1712.00	1711.00	1708.00	1696.00	1688.00	1678.00	1668.00	1638.00	1628.00	1617.00	1606.00	1600.00	1669.00	1645.00	1573.00	1551.00	1541.00	1547.00	1560.00	1572.00	1583.00	1540.00	1538.00	1548.00	1524.00	1487.00	1533.00	1510.00	1428.00	1424.00	1515.00	1459.00	1441.00	1449.00	1454.00	1439.00	1417.00	1454.00	1398.00	1392.00	1349.00	1272.00	1255.00	1208.00	1207.00	1208.00	1207.00	1196.00	1162.00	1160.00	1176.00	1205.00	1080.00	1068.00	1068.00	1067.00	1066.00	1065.00	1062.00	1060.00	1056.00	1053.00	1050.00	1047.00	1045.00	1044.00	1057.00	1069.00	1082.00	1096.00	1131.00	1132.00	1130.00	1127.00	1128.00	1141.00	1154.00	1163.00	1174.00	1144.00	1138.00	1147.00	1156.00	1179.00	1216.00	1161.00	1151.00	1148.00	1155.00	1163.00	1173.00	1207.00	1283.00	1368.00	1216.00	1177.00	1175.00	1122.00	1128.00	1138.00	1150.00	1161.00	1272.00	1426.00	1630.00	1778.00	1614.00	1722.00	1707.00	1673.00	1465.00	1496.00	1462.00	1534.00	1609.00	1535.00	1516.00	1629.00	1783.00	1661.00	1664.00	1672.00	1730.00	1834.00	1619.00	1496.00	1538.00	1577.00	1668.00	1751.00	1822.00	1739.00	1599.00	1284.00	1223.00	1258.00	1126.00	1107.00	1079.00	1030.00	966.00	914.00	807.00	777.00	760.00	748.00	734.00	727.00	719.00	710.00	701.00	680.00	669.00	658.00	630.00	604.00	592.00	581.00	570.00	562.00	548.00	541.00	535.00	528.00	511.00	508.00	507.00	506.00	505.00	504.00	503.00	504.00	504.00	502.00	503.00	510.00	511.00	507.00	498.00	490.00	487.00	491.00	496.00	494.00	493.00	488.00	482.00	548.00	592.00	635.00	636.00	516.00	482.00	476.00	477.00	477.00	524.00	525.00	530.00	538.00	540.00	544.00	545.00	545.00	546.00	547.00	552.00	528.00	497.00	500.00	501.00	495.00	482.00	482.00	498.00	511.00	532.00	546.00	520.00	508.00	510.00	533.00	538.00	604.00	665.00	679.00	720.00	722.00	746.00	772.00	783.00	772.00	762.00	756.00	752.00	749.00	740.00	733.00	726.00	730.00	722.00	704.00	698.00
2023.00	2009.00	2005.00	2010.00	2025.00	2021.00	2033.00	1974.00	1975.00	1887.00	1753.00	1734.00	1722.00	1712.00	1711.00	1708.00	1696.00	1688.00	1678.00	1668.00	1638.00	1628.00	1617.00	1606.00	1600.00	1669.00	1645.00	1573.00	1551.00	1541.00	1547.00	1560.00	1572.00	1583.00	1540.00	1538.00	1548.00	1524.00	1487.00	1533.00	1510.00	1428.00	1424.00	1515.00	1459.00	1441.00	1449.00	1454.00	1439.00	1417.00	1454.00	1398.00	1392.00	1349.00	1272.00	1255.00	1208.00	1207.00	1208.00	1207.00	1196.00	1162.00	1160.00	1176.00	1205.00	1080.00	1068.00	1068.00	1067.00	1066.00	1065.00	1062.00	1060.00	1056.00	1053.00	1050.00	1047.00	1045.00	1044.00	1057.00	1069.00	1082.00	1096.00	1131.00	1132.00	1130.00	1127.00	1128.00	1141.00	1154.00	1163.00	1174.00	1144.00	1138.00	1147.00	1156.00	1179.00	1216.00	1161.00	1151.00	1148.00	1155.00	1163.00	1173.00	1207.00	1283.00	1368.00	1216.00	1177.00	1175.00	1122.00	1128.00	1138.00	1150.00	1161.00	1272.00	1426.00	1630.00	1778.00	1614.00	1722.00	1707.00	1673.00	1465.00	1496.00	1462.00	1534.00	1609.00	1535.00	1516.00	1629.00	1783.00	1661.00	1664.00	1672.00	1730.00	1834.00	1619.00	1496.00	1538.00	1577.00	1668.00	1751.00	1822.00	1739.00	1599.00	1284.00	1223.00	1258.00	1126.00	1107.00	1079.00	1030.00	966.00	914.00	807.00	777.00	760.00	748.00	734.00	727.00	719.00	710.00	701.00	680.00	669.00	658.00	630.00	604.00	592.00	581.00	570.00	562.00	548.00	541.00	535.00	528.00	511.00	508.00	507.00	506.00	505.00	504.00	503.00	504.00	504.00	502.00	503.00	510.00	511.00	507.00	498.00	490.00	487.00	491.00	496.00	494.00	493.00	488.00	482.00	548.00	592.00	635.00	636.00	516.00	482.00	476.00	477.00	477.00	524.00	525.00	530.00	538.00	540.00	544.00	545.00	545.00	546.00	547.00	552.00	528.00	497.00	500.00	501.00	495.00	482.00	482.00	498.00	511.00	532.00	546.00	520.00	508.00	510.00	533.00	538.00	604.00	665.00	679.00	720.00	722.00	746.00	772.00	783.00	772.00	762.00	756.00	752.00	749.00	740.00	733.00	726.00	730.00	722.00	704.00	698.00
2067.00	2031.00	2016.00	2028.00	2045.00	2044.00	1995.00	1948.00	1918.00	1921.00	1782.00	1742.00	1729.00	1723.00	1723.00	1720.00	1705.00	1695.00	1685.00	1674.00	1643.00	1632.00	1621.00	1610.00	1600.00	1580.00	1582.00	1579.00	1557.00	1551.00	1575.00	1622.00	1595.00	1585.00	1560.00	1554.00	1543.00	1529.00	1509.00	1520.00	1538.00	1443.00	1434.00	1446.00	1458.00	1433.00	1432.00	1472.00	1467.00	1446.00	1472.00	1444.00	1383.00	1294.00	1253.00	1246.00	1211.00	1210.00	1210.00	1210.00	1203.00	1179.00	1171.00	1180.00	1202.00	1089.00	1078.00	1076.00	1076.00	1076.00	1073.00	1071.00	1069.00	1064.00	1058.00	1057.00	1054.00	1050.00	1050.00	1064.00	1078.00	1096.00	1119.00	1198.00	1238.00	1180.00	1157.00	1148.00	1144.00	1149.00	1160.00	1171.00	1177.00	1142.00	1152.00	1164.00	1173.00	1248.00	1203.00	1173.00	1167.00	1166.00	1170.00	1178.00	1205.00	1258.00	1348.00	1223.00	1186.00	1170.00	1132.00	1138.00	1150.00	1163.00	1173.00	1220.00	1309.00	1492.00	1585.00	1550.00	1619.00	1659.00	1688.00	1574.00	1528.00	1564.00	1651.00	1617.00	1600.00	1598.00	1677.00	1825.00	1829.00	1992.00	1899.00	2017.00	1801.00	1657.00	1696.00	1726.00	1748.00	1831.00	1899.00	1931.00	1747.00	1675.00	1607.00	1464.00	1348.00	1259.00	1211.00	1182.00	1110.00	1044.00	928.00	847.00	794.00	778.00	769.00	758.00	750.00	742.00	734.00	723.00	700.00	688.00	675.00	645.00	618.00	604.00	591.00	581.00	573.00	559.00	551.00	543.00	535.00	514.00	512.00	508.00	507.00	506.00	505.00	505.00	503.00	503.00	507.00	511.00	530.00	533.00	525.00	508.00	514.00	530.00	521.00	484.00	482.00	481.00	479.00	479.00	501.00	524.00	568.00	568.00	498.00	478.00	474.00	475.00	475.00	524.00	527.00	526.00	530.00	533.00	540.00	540.00	541.00	541.00	543.00	551.00	551.00	534.00	483.00	486.00	477.00	486.00	489.00	475.00	485.00	508.00	526.00	511.00	508.00	512.00	521.00	530.00	577.00	614.00	652.00	682.00	721.00	753.00	815.00	803.00	786.00	770.00	763.00	757.00	753.00	747.00	739.00	736.00	725.00	715.00	704.00	698.00
2081.00	2117.00	2081.00	2054.00	2059.00	2047.00	1972.00	1914.00	1911.00	1896.00	1824.00	1845.00	1857.00	1777.00	1746.00	1739.00	1717.00	1705.00	1692.00	1680.00	1647.00	1636.00	1625.00	1615.00	1605.00	1586.00	1577.00	1569.00	1562.00	1579.00	1713.00	1778.00	1758.00	1688.00	1597.00	1598.00	1597.00	1614.00	1611.00	1576.00	1534.00	1485.00	1475.00	1450.00	1445.00	1442.00	1437.00	1440.00	1479.00	1515.00	1535.00	1509.00	1396.00	1267.00	1240.00	1229.00	1222.00	1220.00	1218.00	1217.00	1215.00	1199.00	1182.00	1182.00	1187.00	1143.00	1100.00	1095.00	1095.00	1094.00	1090.00	1088.00	1085.00	1078.00	1071.00	1068.00	1066.00	1062.00	1063.00	1092.00	1112.00	1167.00	1242.00	1288.00	1333.00	1401.00	1337.00	1191.00	1175.00	1182.00	1169.00	1169.00	1189.00	1187.00	1163.00	1172.00	1207.00	1207.00	1275.00	1332.00	1233.00	1195.00	1195.00	1197.00	1212.00	1233.00	1413.00	1244.00	1193.00	1167.00	1148.00	1156.00	1165.00	1172.00	1181.00	1216.00	1226.00	1229.00	1261.00	1483.00	1605.00	1798.00	1968.00	1701.00	1566.00	1622.00	1682.00	1803.00	1837.00	1758.00	1759.00	1866.00	1808.00	1880.00	2087.00	2265.00	2225.00	1967.00	2133.00	2275.00	2323.00	2258.00	2161.00	2059.00	2064.00	2149.00	1984.00	1886.00	1753.00	1566.00	1388.00	1305.00	1220.00	1083.00	1037.00	956.00	838.00	822.00	821.00	812.00	802.00	793.00	782.00	769.00	740.00	724.00	708.00	674.00	642.00	629.00	618.00	607.00	599.00	581.00	570.00	561.00	550.00	525.00	523.00	518.00	515.00	511.00	508.00	509.00	509.00	508.00	520.00	535.00	605.00	630.00	608.00	551.00	543.00	537.00	525.00	511.00	505.00	488.00	480.00	480.00	472.00	479.00	488.00	500.00	475.00	472.00	472.00	471.00	472.00	501.00	527.00	523.00	519.00	522.00	531.00	530.00	528.00	529.00	530.00	535.00	538.00	540.00	543.00	544.00	545.00	543.00	525.00	497.00	484.00	472.00	492.00	508.00	511.00	519.00	527.00	537.00	564.00	605.00	639.00	674.00	747.00	818.00	875.00	827.00	808.00	784.00	775.00	767.00	761.00	751.00	748.00	738.00	724.00	717.00	712.00	708.00
2081.00	2117.00	2081.00	2054.00	2059.00	2047.00	1972.00	1914.00	1911.00	1896.00	1824.00	1845.00	1857.00	1777.00	1746.00	1739.00	1717.00	1705.00	1692.00	1680.00	1647.00	1636.00	1625.00	1615.00	1605.00	1586.00	1577.00	1569.00	1562.00	1579.00	1713.00	1778.00	1758.00	1688.00	1597.00	1598.00	1597.00	1614.00	1611.00	1576.00	1534.00	1485.00	1475.00	1450.00	1445.00	1442.00	1437.00	1440.00	1479.00	1515.00	1535.00	1509.00	1396.00	1267.00	1240.00	1229.00	1222.00	1220.00	1218.00	1217.00	1215.00	1199.00	1182.00	1182.00	1187.00	1143.00	1100.00	1095.00	1095.00	1094.00	1090.00	1088.00	1085.00	1078.00	1071.00	1068.00	1066.00	1062.00	1063.00	1092.00	1112.00	1167.00	1242.00	1288.00	1333.00	1401.00	1337.00	1191.00	1175.00	1182.00	1169.00	1169.00	1189.00	1187.00	1163.00	1172.00	1207.00	1207.00	1275.00	1332.00	1233.00	1195.00	1195.00	1197.00	1212.00	1233.00	1413.00	1244.00	1193.00	1167.00	1148.00	1156.00	1165.00	1172.00	1181.00	1216.00	1226.00	1229.00	1261.00	1483.00	1605.00	1798.00	1968.00	1701.00	1566.00	1622.00	1682.00	1803.00	1837.00	1758.00	1759.00	1866.00	1808.00	1880.00	2087.00	2265.00	2225.00	1967.00	2133.00	2275.00	2323.00	2258.00	2161.00	2059.00	2064.00	2149.00	1984.00	1886.00	1753.00	1566.00	1388.00	1305.00	1220.00	1083.00	1037.00	956.00	838.00	822.00	821.00	812.00	802.00	793.00	782.00	769.00	740.00	724.00	708.00	674.00	642.00	629.00	618.00	607.00	599.00	581.00	570.00	561.00	550.00	525.00	523.00	518.00	515.00	511.00	508.00	509.00	509.00	508.00	520.00	535.00	605.00	630.00	608.00	551.00	543.00	537.00	525.00	511.00	505.00	488.00	480.00	480.00	472.00	479.00	488.00	500.00	475.00	472.00	472.00	471.00	472.00	501.00	527.00	523.00	519.00	522.00	531.00	530.00	528.00	529.00	530.00	535.00	538.00	540.00	543.00	544.00	545.00	543.00	525.00	497.00	484.00	472.00	492.00	508.00	511.00	519.00	527.00	537.00	564.00	605.00	639.00	674.00	747.00	818.00	875.00	827.00	808.00	784.00	775.00	767.00	761.00	751.00	748.00	738.00	724.00	717.00	712.00	708.00
2113.00	2101.00	2143.00	2115.00	2047.00	2022.00	2009.00	1935.00	1918.00	1880.00	1885.00	1811.00	1794.00	1790.00	1766.00	1759.00	1718.00	1705.00	1692.00	1680.00	1647.00	1637.00	1627.00	1617.00	1607.00	1588.00	1579.00	1570.00	1563.00	1576.00	1621.00	1660.00	1752.00	1807.00	1646.00	1622.00	1668.00	1651.00	1709.00	1630.00	1571.00	1507.00	1506.00	1462.00	1457.00	1451.00	1445.00	1441.00	1480.00	1538.00	1554.00	1534.00	1391.00	1265.00	1242.00	1232.00	1228.00	1225.00	1223.00	1220.00	1218.00	1208.00	1194.00	1185.00	1189.00	1186.00	1117.00	1104.00	1105.00	1103.00	1100.00	1097.00	1092.00	1085.00	1076.00	1074.00	1071.00	1068.00	1069.00	1102.00	1122.00	1159.00	1202.00	1286.00	1345.00	1398.00	1282.00	1202.00	1179.00	1194.00	1181.00	1181.00	1183.00	1196.00	1184.00	1170.00	1189.00	1214.00	1228.00	1318.00	1335.00	1216.00	1212.00	1213.00	1219.00	1232.00	1432.00	1252.00	1202.00	1180.00	1157.00	1164.00	1175.00	1184.00	1190.00	1217.00	1230.00	1253.00	1251.00	1336.00	1500.00	1682.00	1914.00	1813.00	1639.00	1627.00	1741.00	1904.00	2057.00	2050.00	1970.00	1976.00	1890.00	1908.00	1933.00	2051.00	2354.00	2100.00	2211.00	2433.00	2514.00	2439.00	2394.00	2400.00	2394.00	2304.00	2049.00	1942.00	1799.00	1623.00	1411.00	1386.00	1239.00	1111.00	1063.00	1058.00	859.00	848.00	850.00	839.00	830.00	819.00	805.00	791.00	758.00	740.00	723.00	686.00	655.00	642.00	630.00	619.00	612.00	591.00	580.00	569.00	558.00	533.00	529.00	525.00	520.00	517.00	513.00	515.00	516.00	517.00	531.00	549.00	579.00	624.00	656.00	598.00	579.00	562.00	545.00	523.00	516.00	508.00	497.00	481.00	474.00	471.00	482.00	472.00	470.00	471.00	471.00	470.00	470.00	495.00	521.00	519.00	519.00	527.00	528.00	525.00	523.00	523.00	524.00	529.00	530.00	531.00	533.00	534.00	539.00	546.00	551.00	510.00	501.00	484.00	483.00	512.00	523.00	531.00	539.00	548.00	571.00	600.00	636.00	674.00	775.00	858.00	870.00	835.00	814.00	788.00	779.00	771.00	765.00	756.00	752.00	741.00	734.00	725.00	712.00	702.00
2148.00	2128.00	2122.00	2146.00	2120.00	2079.00	2053.00	2023.00	1973.00	1915.00	1847.00	1825.00	1794.00	1773.00	1771.00	1783.00	1724.00	1703.00	1690.00	1679.00	1647.00	1641.00	1644.00	1630.00	1629.00	1589.00	1578.00	1570.00	1564.00	1577.00	1607.00	1630.00	1686.00	1788.00	1694.00	1652.00	1674.00	1720.00	1688.00	1708.00	1650.00	1535.00	1525.00	1478.00	1471.00	1462.00	1454.00	1459.00	1500.00	1577.00	1576.00	1562.00	1390.00	1269.00	1249.00	1240.00	1235.00	1231.00	1228.00	1224.00	1220.00	1211.00	1197.00	1185.00	1190.00	1176.00	1144.00	1114.00	1114.00	1112.00	1108.00	1104.00	1100.00	1091.00	1082.00	1079.00	1076.00	1071.00	1072.00	1104.00	1121.00	1135.00	1148.00	1265.00	1320.00	1280.00	1241.00	1219.00	1193.00	1187.00	1187.00	1199.00	1189.00	1201.00	1212.00	1197.00	1181.00	1251.00	1235.00	1246.00	1272.00	1303.00	1245.00	1236.00	1233.00	1238.00	1450.00	1276.00	1215.00	1195.00	1167.00	1174.00	1183.00	1193.00	1204.00	1228.00	1234.00	1252.00	1277.00	1289.00	1386.00	1542.00	1746.00	1962.00	1783.00	1686.00	1874.00	1875.00	1863.00	1929.00	1999.00	2097.00	2001.00	2057.00	2070.00	2064.00	2280.00	2336.00	2327.00	2508.00	2472.00	2425.00	2480.00	2475.00	2338.00	2219.00	2008.00	1872.00	1780.00	1703.00	1533.00	1468.00	1309.00	1204.00	1126.00	1150.00	912.00	878.00	880.00	867.00	858.00	844.00	828.00	811.00	774.00	755.00	735.00	700.00	671.00	667.00	649.00	634.00	624.00	608.00	597.00	579.00	567.00	543.00	538.00	534.00	530.00	525.00	523.00	524.00	524.00	527.00	533.00	554.00	570.00	598.00	630.00	654.00	649.00	621.00	574.00	539.00	527.00	524.00	513.00	493.00	479.00	470.00	484.00	472.00	469.00	469.00	469.00	469.00	469.00	499.00	513.00	514.00	518.00	527.00	523.00	520.00	518.00	518.00	520.00	523.00	523.00	523.00	522.00	526.00	537.00	547.00	557.00	534.00	520.00	503.00	471.00	506.00	532.00	545.00	551.00	559.00	578.00	598.00	619.00	651.00	775.00	850.00	892.00	840.00	816.00	791.00	782.00	773.00	767.00	759.00	754.00	744.00	740.00	731.00	712.00	705.00
2215.00	2194.00	2167.00	2176.00	2171.00	2185.00	2210.00	2044.00	2029.00	1985.00	1882.00	1821.00	1822.00	1825.00	1811.00	1826.00	1826.00	1839.00	1736.00	1684.00	1641.00	1633.00	1627.00	1644.00	1690.00	1601.00	1578.00	1574.00	1569.00	1574.00	1599.00	1618.00	1688.00	1914.00	1733.00	1686.00	1724.00	1860.00	1739.00	1736.00	1784.00	1600.00	1549.00	1512.00	1531.00	1534.00	1511.00	1419.00	1412.00	1427.00	1401.00	1360.00	1291.00	1274.00	1261.00	1255.00	1248.00	1242.00	1238.00	1232.00	1226.00	1216.00	1203.00	1228.00	1219.00	1178.00	1170.00	1158.00	1133.00	1131.00	1123.00	1117.00	1112.00	1100.00	1092.00	1088.00	1084.00	1080.00	1077.00	1096.00	1110.00	1123.00	1139.00	1197.00	1247.00	1323.00	1429.00	1519.00	1273.00	1211.00	1199.00	1204.00	1224.00	1212.00	1215.00	1214.00	1211.00	1206.00	1244.00	1256.00	1261.00	1344.00	1465.00	1423.00	1311.00	1289.00	1453.00	1323.00	1242.00	1214.00	1185.00	1196.00	1208.00	1218.00	1228.00	1256.00	1262.00	1271.00	1283.00	1310.00	1319.00	1350.00	1442.00	1868.00	1799.00	1815.00	1715.00	1712.00	1933.00	1873.00	1865.00	1931.00	2152.00	2255.00	2335.00	2340.00	2245.00	2260.00	2369.00	2573.00	2641.00	2502.00	2492.00	2304.00	2065.00	1936.00	1786.00	1771.00	1740.00	1765.00	1575.00	1590.00	1581.00	1486.00	1286.00	1284.00	1052.00	974.00	944.00	925.00	906.00	887.00	865.00	842.00	797.00	775.00	757.00	721.00	693.00	688.00	667.00	656.00	657.00	629.00	609.00	591.00	585.00	564.00	563.00	559.00	554.00	555.00	543.00	538.00	535.00	538.00	542.00	540.00	564.00	580.00	588.00	604.00	621.00	644.00	649.00	585.00	564.00	550.00	540.00	510.00	484.00	478.00	470.00	469.00	468.00	467.00	468.00	466.00	467.00	504.00	501.00	507.00	519.00	516.00	516.00	513.00	512.00	513.00	512.00	516.00	519.00	520.00	520.00	524.00	535.00	548.00	553.00	558.00	532.00	508.00	485.00	480.00	532.00	585.00	578.00	575.00	594.00	606.00	621.00	640.00	771.00	822.00	881.00	832.00	811.00	792.00	784.00	781.00	774.00	768.00	769.00	760.00	757.00	749.00	735.00	722.00
2252.00	2232.00	2207.00	2209.00	2188.00	2181.00	2214.00	2098.00	2008.00	1992.00	1904.00	1840.00	1825.00	1850.00	1860.00	1835.00	1816.00	1865.00	1855.00	1720.00	1637.00	1628.00	1620.00	1618.00	1628.00	1590.00	1584.00	1579.00	1574.00	1573.00	1600.00	1623.00	1675.00	1832.00	1732.00	1700.00	1743.00	1890.00	1760.00	1738.00	1772.00	1659.00	1574.00	1534.00	1599.00	1583.00	1543.00	1409.00	1391.00	1376.00	1330.00	1318.00	1283.00	1273.00	1266.00	1262.00	1254.00	1249.00	1242.00	1237.00	1231.00	1223.00	1210.00	1217.00	1223.00	1177.00	1169.00	1161.00	1143.00	1138.00	1127.00	1123.00	1117.00	1105.00	1097.00	1092.00	1088.00	1084.00	1080.00	1099.00	1111.00	1124.00	1138.00	1195.00	1247.00	1315.00	1409.00	1517.00	1344.00	1256.00	1217.00	1215.00	1232.00	1224.00	1222.00	1213.00	1209.00	1209.00	1222.00	1251.00	1269.00	1302.00	1349.00	1456.00	1451.00	1404.00	1477.00	1314.00	1248.00	1222.00	1195.00	1206.00	1219.00	1233.00	1247.00	1271.00	1281.00	1284.00	1294.00	1327.00	1327.00	1344.00	1399.00	1627.00	1770.00	1670.00	1700.00	1784.00	1954.00	1902.00	1884.00	1931.00	2056.00	2163.00	2280.00	2340.00	2171.00	2138.00	2237.00	2326.00	2435.00	2606.00	2569.00	2386.00	2197.00	2026.00	1765.00	1679.00	1634.00	1613.00	1498.00	1414.00	1420.00	1431.00	1354.00	1236.00	1060.00	1012.00	980.00	950.00	927.00	901.00	876.00	851.00	805.00	785.00	766.00	730.00	697.00	687.00	675.00	686.00	684.00	664.00	653.00	621.00	613.00	596.00	588.00	583.00	577.00	567.00	550.00	544.00	541.00	545.00	552.00	543.00	552.00	562.00	573.00	596.00	605.00	623.00	637.00	614.00	585.00	567.00	553.00	521.00	495.00	484.00	474.00	465.00	466.00	469.00	467.00	465.00	465.00	498.00	498.00	499.00	511.00	510.00	511.00	511.00	511.00	513.00	514.00	521.00	527.00	534.00	533.00	535.00	539.00	547.00	553.00	550.00	546.00	517.00	503.00	496.00	532.00	596.00	591.00	584.00	594.00	610.00	623.00	645.00	779.00	809.00	862.00	790.00	778.00	784.00	788.00	791.00	783.00	775.00	773.00	777.00	766.00	758.00	743.00	736.00
2350.00	2281.00	2259.00	2236.00	2210.00	2197.00	2207.00	2159.00	2079.00	1990.00	1940.00	1860.00	1852.00	1838.00	1884.00	1888.00	1830.00	1841.00	1879.00	1821.00	1642.00	1629.00	1619.00	1612.00	1606.00	1593.00	1586.00	1580.00	1577.00	1574.00	1598.00	1633.00	1736.00	1852.00	1754.00	1716.00	1732.00	1826.00	1745.00	1726.00	1750.00	1718.00	1617.00	1554.00	1595.00	1588.00	1573.00	1417.00	1373.00	1360.00	1331.00	1317.00	1285.00	1278.00	1274.00	1269.00	1260.00	1254.00	1248.00	1242.00	1235.00	1225.00	1216.00	1206.00	1225.00	1178.00	1167.00	1157.00	1150.00	1144.00	1133.00	1125.00	1121.00	1110.00	1101.00	1096.00	1092.00	1087.00	1084.00	1101.00	1113.00	1125.00	1138.00	1185.00	1216.00	1270.00	1320.00	1383.00	1351.00	1348.00	1273.00	1240.00	1233.00	1240.00	1228.00	1222.00	1220.00	1222.00	1223.00	1232.00	1250.00	1302.00	1325.00	1348.00	1467.00	1539.00	1526.00	1321.00	1255.00	1225.00	1206.00	1211.00	1230.00	1244.00	1262.00	1286.00	1292.00	1305.00	1315.00	1355.00	1367.00	1350.00	1403.00	1548.00	1604.00	1695.00	1789.00	1776.00	1992.00	1989.00	1929.00	1903.00	2006.00	2072.00	2137.00	2217.00	2290.00	2061.00	2118.00	2148.00	2153.00	2494.00	2609.00	2425.00	2279.00	2221.00	2010.00	1854.00	1739.00	1650.00	1507.00	1369.00	1327.00	1358.00	1440.00	1270.00	1102.00	1063.00	1017.00	968.00	940.00	911.00	884.00	858.00	814.00	794.00	774.00	738.00	709.00	702.00	712.00	723.00	706.00	685.00	686.00	676.00	656.00	621.00	608.00	598.00	584.00	571.00	555.00	550.00	546.00	549.00	555.00	547.00	549.00	555.00	560.00	579.00	592.00	606.00	621.00	633.00	612.00	594.00	573.00	533.00	503.00	483.00	470.00	464.00	466.00	469.00	465.00	464.00	465.00	492.00	494.00	493.00	498.00	505.00	506.00	507.00	510.00	514.00	521.00	519.00	527.00	547.00	545.00	546.00	543.00	542.00	544.00	540.00	539.00	531.00	518.00	470.00	503.00	595.00	608.00	592.00	598.00	608.00	620.00	638.00	806.00	790.00	793.00	754.00	749.00	792.00	798.00	795.00	789.00	783.00	780.00	781.00	775.00	762.00	749.00	744.00
2499.00	2411.00	2288.00	2282.00	2253.00	2214.00	2180.00	2192.00	2150.00	2057.00	1924.00	1889.00	1894.00	1859.00	1858.00	1914.00	1849.00	1836.00	1860.00	1885.00	1657.00	1636.00	1622.00	1613.00	1606.00	1592.00	1587.00	1582.00	1577.00	1575.00	1601.00	1635.00	1776.00	1942.00	1792.00	1746.00	1733.00	1747.00	1733.00	1719.00	1719.00	1781.00	1696.00	1527.00	1572.00	1584.00	1591.00	1468.00	1370.00	1351.00	1339.00	1322.00	1291.00	1285.00	1281.00	1276.00	1265.00	1259.00	1252.00	1245.00	1238.00	1224.00	1211.00	1205.00	1199.00	1175.00	1168.00	1164.00	1156.00	1150.00	1135.00	1128.00	1123.00	1114.00	1104.00	1099.00	1095.00	1091.00	1087.00	1103.00	1115.00	1127.00	1140.00	1186.00	1207.00	1238.00	1280.00	1308.00	1505.00	1533.00	1360.00	1280.00	1249.00	1240.00	1237.00	1236.00	1232.00	1238.00	1236.00	1237.00	1241.00	1271.00	1297.00	1315.00	1348.00	1397.00	1536.00	1330.00	1260.00	1234.00	1212.00	1225.00	1257.00	1264.00	1274.00	1313.00	1329.00	1343.00	1346.00	1412.00	1447.00	1502.00	1559.00	1578.00	1638.00	1761.00	1842.00	1915.00	1939.00	1949.00	2025.00	1950.00	1952.00	1996.00	2045.00	2104.00	2243.00	2140.00	2030.00	2014.00	2038.00	2237.00	2386.00	2529.00	2507.00	2478.00	2155.00	2019.00	1882.00	1694.00	1480.00	1490.00	1426.00	1308.00	1283.00	1173.00	1102.00	1064.00	1033.00	973.00	944.00	914.00	889.00	865.00	821.00	800.00	780.00	744.00	726.00	718.00	735.00	747.00	753.00	722.00	701.00	683.00	676.00	631.00	611.00	600.00	590.00	577.00	562.00	555.00	551.00	548.00	550.00	544.00	542.00	548.00	553.00	568.00	582.00	593.00	602.00	615.00	624.00	619.00	603.00	548.00	513.00	486.00	475.00	469.00	471.00	465.00	463.00	463.00	464.00	472.00	488.00	491.00	499.00	500.00	502.00	507.00	513.00	518.00	518.00	525.00	530.00	543.00	543.00	539.00	537.00	533.00	533.00	527.00	525.00	529.00	535.00	505.00	481.00	580.00	622.00	604.00	601.00	614.00	626.00	644.00	803.00	748.00	734.00	726.00	755.00	801.00	811.00	808.00	801.00	793.00	789.00	781.00	777.00	768.00	755.00	749.00
2507.00	2547.00	2363.00	2294.00	2255.00	2213.00	2165.00	2117.00	2153.00	2132.00	1958.00	1934.00	1881.00	1873.00	1864.00	1918.00	1869.00	1848.00	1890.00	1915.00	1673.00	1649.00	1633.00	1621.00	1612.00	1596.00	1589.00	1582.00	1580.00	1578.00	1605.00	1637.00	1732.00	1867.00	1871.00	1788.00	1754.00	1748.00	1744.00	1734.00	1721.00	1795.00	1705.00	1525.00	1545.00	1626.00	1629.00	1463.00	1373.00	1352.00	1339.00	1328.00	1299.00	1293.00	1288.00	1283.00	1271.00	1263.00	1255.00	1248.00	1240.00	1228.00	1216.00	1209.00	1202.00	1184.00	1177.00	1169.00	1161.00	1152.00	1138.00	1131.00	1127.00	1117.00	1107.00	1102.00	1097.00	1093.00	1090.00	1107.00	1118.00	1129.00	1142.00	1186.00	1203.00	1222.00	1252.00	1323.00	1519.00	1525.00	1416.00	1326.00	1266.00	1251.00	1246.00	1251.00	1256.00	1250.00	1254.00	1255.00	1256.00	1261.00	1268.00	1286.00	1313.00	1318.00	1348.00	1294.00	1252.00	1232.00	1226.00	1246.00	1288.00	1289.00	1291.00	1358.00	1410.00	1464.00	1466.00	1604.00	1686.00	1796.00	1785.00	1723.00	1702.00	1758.00	1837.00	1930.00	2050.00	2109.00	2109.00	2123.00	1980.00	1996.00	2029.00	2054.00	2145.00	2186.00	2153.00	1980.00	1945.00	2088.00	2207.00	2265.00	2360.00	2382.00	2285.00	2196.00	2021.00	1869.00	1805.00	1756.00	1612.00	1425.00	1305.00	1234.00	1117.00	1059.00	1023.00	969.00	945.00	920.00	894.00	871.00	824.00	803.00	784.00	753.00	761.00	768.00	777.00	769.00	757.00	728.00	704.00	692.00	677.00	628.00	616.00	606.00	594.00	582.00	568.00	560.00	553.00	549.00	546.00	545.00	536.00	540.00	545.00	559.00	570.00	579.00	585.00	595.00	603.00	605.00	606.00	559.00	514.00	500.00	488.00	477.00	463.00	462.00	464.00	464.00	463.00	470.00	489.00	489.00	496.00	492.00	495.00	505.00	513.00	517.00	531.00	534.00	536.00	536.00	533.00	531.00	531.00	526.00	522.00	515.00	512.00	514.00	523.00	516.00	489.00	532.00	625.00	613.00	602.00	612.00	626.00	645.00	801.00	717.00	703.00	716.00	744.00	816.00	834.00	861.00	827.00	804.00	798.00	783.00	777.00	770.00	758.00	753.00
2467.00	2503.00	2408.00	2389.00	2277.00	2233.00	2186.00	2088.00	2084.00	2142.00	1992.00	1902.00	1896.00	1909.00	1881.00	1910.00	1890.00	1855.00	1904.00	1962.00	1697.00	1666.00	1644.00	1631.00	1621.00	1601.00	1593.00	1588.00	1584.00	1580.00	1606.00	1631.00	1702.00	1776.00	1986.00	1846.00	1781.00	1769.00	1790.00	1787.00	1739.00	1739.00	1734.00	1543.00	1481.00	1493.00	1594.00	1421.00	1378.00	1361.00	1349.00	1337.00	1306.00	1299.00	1293.00	1290.00	1273.00	1265.00	1258.00	1251.00	1245.00	1232.00	1221.00	1214.00	1208.00	1189.00	1180.00	1172.00	1163.00	1154.00	1140.00	1135.00	1130.00	1121.00	1110.00	1105.00	1100.00	1096.00	1092.00	1108.00	1119.00	1131.00	1143.00	1185.00	1201.00	1221.00	1246.00	1282.00	1414.00	1534.00	1407.00	1362.00	1298.00	1268.00	1261.00	1260.00	1268.00	1269.00	1270.00	1269.00	1270.00	1280.00	1293.00	1281.00	1289.00	1286.00	1277.00	1270.00	1249.00	1232.00	1247.00	1283.00	1320.00	1313.00	1339.00	1403.00	1429.00	1476.00	1536.00	1668.00	1753.00	1760.00	1746.00	1689.00	1704.00	1733.00	1762.00	1829.00	2005.00	2076.00	2151.00	2173.00	2057.00	1985.00	2014.00	2054.00	2105.00	2083.00	2137.00	2118.00	1986.00	2010.00	2137.00	2090.00	2045.00	2079.00	2252.00	2272.00	2112.00	2037.00	2063.00	1964.00	1796.00	1637.00	1550.00	1372.00	1185.00	1075.00	1045.00	993.00	962.00	933.00	902.00	874.00	825.00	807.00	790.00	785.00	789.00	782.00	767.00	744.00	737.00	712.00	697.00	680.00	672.00	640.00	620.00	609.00	598.00	588.00	570.00	563.00	557.00	552.00	548.00	549.00	532.00	533.00	536.00	552.00	560.00	568.00	573.00	579.00	582.00	585.00	593.00	566.00	527.00	505.00	491.00	481.00	465.00	462.00	464.00	464.00	463.00	468.00	473.00	485.00	490.00	486.00	492.00	506.00	512.00	517.00	529.00	522.00	526.00	524.00	527.00	525.00	519.00	515.00	513.00	504.00	501.00	502.00	499.00	493.00	502.00	498.00	610.00	615.00	601.00	610.00	623.00	643.00	765.00	690.00	692.00	716.00	769.00	863.00	899.00	950.00	858.00	817.00	807.00	790.00	783.00	776.00	763.00	758.00
2499.00	2495.00	2506.00	2424.00	2301.00	2234.00	2180.00	2096.00	2073.00	2055.00	2099.00	1921.00	1912.00	1934.00	1899.00	1884.00	1931.00	1866.00	1886.00	1926.00	1719.00	1677.00	1656.00	1641.00	1630.00	1606.00	1598.00	1593.00	1591.00	1584.00	1602.00	1626.00	1655.00	1763.00	1979.00	1918.00	1818.00	1800.00	1831.00	1809.00	1776.00	1673.00	1718.00	1534.00	1488.00	1463.00	1456.00	1406.00	1384.00	1370.00	1356.00	1342.00	1310.00	1306.00	1302.00	1299.00	1280.00	1271.00	1264.00	1256.00	1249.00	1236.00	1223.00	1220.00	1214.00	1189.00	1176.00	1168.00	1161.00	1153.00	1143.00	1139.00	1134.00	1124.00	1112.00	1108.00	1102.00	1097.00	1097.00	1110.00	1120.00	1130.00	1142.00	1183.00	1199.00	1217.00	1240.00	1265.00	1369.00	1401.00	1386.00	1421.00	1352.00	1288.00	1278.00	1278.00	1284.00	1308.00	1300.00	1284.00	1284.00	1296.00	1318.00	1296.00	1279.00	1276.00	1264.00	1257.00	1252.00	1243.00	1259.00	1334.00	1464.00	1421.00	1438.00	1451.00	1453.00	1553.00	1758.00	1934.00	1882.00	1711.00	1668.00	1731.00	1717.00	1673.00	1740.00	1759.00	1872.00	1942.00	2027.00	2089.00	2096.00	2030.00	2001.00	2026.00	2097.00	2040.00	2033.00	2026.00	2058.00	1839.00	1941.00	2026.00	2008.00	1885.00	2058.00	2171.00	2225.00	2254.00	2220.00	2039.00	1900.00	1861.00	1805.00	1566.00	1215.00	1139.00	1081.00	1003.00	966.00	934.00	903.00	875.00	832.00	816.00	801.00	789.00	786.00	781.00	773.00	768.00	757.00	737.00	725.00	703.00	688.00	631.00	619.00	611.00	598.00	588.00	571.00	563.00	555.00	549.00	542.00	542.00	527.00	528.00	530.00	545.00	551.00	558.00	561.00	567.00	567.00	570.00	579.00	581.00	540.00	519.00	496.00	485.00	466.00	459.00	464.00	465.00	467.00	468.00	468.00	469.00	476.00	487.00	494.00	503.00	508.00	517.00	527.00	520.00	516.00	517.00	518.00	514.00	506.00	506.00	505.00	498.00	494.00	492.00	486.00	478.00	487.00	480.00	570.00	596.00	597.00	607.00	620.00	644.00	700.00	668.00	685.00	734.00	810.00	915.00	971.00	1027.00	880.00	831.00	817.00	798.00	790.00	782.00	769.00	762.00
2541.00	2501.00	2526.00	2476.00	2429.00	2357.00	2217.00	2103.00	2065.00	2039.00	2124.00	1950.00	1933.00	1937.00	1947.00	1916.00	1945.00	1901.00	1880.00	1938.00	1734.00	1689.00	1665.00	1650.00	1635.00	1614.00	1607.00	1601.00	1596.00	1588.00	1596.00	1610.00	1629.00	1667.00	1851.00	1923.00	1935.00	1908.00	1940.00	1921.00	1797.00	1676.00	1640.00	1516.00	1489.00	1464.00	1441.00	1404.00	1388.00	1372.00	1357.00	1344.00	1318.00	1312.00	1307.00	1302.00	1285.00	1276.00	1268.00	1260.00	1253.00	1238.00	1224.00	1223.00	1214.00	1188.00	1178.00	1169.00	1161.00	1158.00	1147.00	1142.00	1137.00	1126.00	1114.00	1109.00	1104.00	1099.00	1100.00	1113.00	1121.00	1131.00	1141.00	1179.00	1194.00	1212.00	1230.00	1246.00	1311.00	1365.00	1480.00	1598.00	1530.00	1330.00	1318.00	1299.00	1302.00	1303.00	1319.00	1308.00	1301.00	1330.00	1328.00	1296.00	1288.00	1292.00	1266.00	1260.00	1262.00	1253.00	1258.00	1307.00	1369.00	1364.00	1347.00	1497.00	1508.00	1570.00	1681.00	1716.00	1639.00	1573.00	1556.00	1733.00	1786.00	1576.00	1605.00	1714.00	1778.00	1825.00	1873.00	1922.00	2055.00	1983.00	2032.00	2115.00	2252.00	2097.00	2021.00	1976.00	1936.00	1825.00	1778.00	1849.00	1954.00	1853.00	1802.00	1916.00	2053.00	2163.00	2204.00	2169.00	2141.00	1997.00	1801.00	1532.00	1273.00	1190.00	1085.00	993.00	958.00	929.00	901.00	878.00	842.00	826.00	811.00	787.00	764.00	751.00	742.00	733.00	725.00	718.00	698.00	677.00	664.00	635.00	623.00	613.00	601.00	589.00	569.00	561.00	553.00	546.00	535.00	532.00	525.00	524.00	527.00	539.00	543.00	548.00	553.00	557.00	557.00	559.00	568.00	579.00	533.00	520.00	498.00	485.00	462.00	459.00	466.00	469.00	468.00	466.00	464.00	473.00	482.00	485.00	494.00	498.00	506.00	511.00	519.00	518.00	516.00	514.00	504.00	499.00	493.00	495.00	494.00	490.00	485.00	484.00	481.00	459.00	456.00	457.00	504.00	542.00	585.00	599.00	614.00	635.00	652.00	663.00	691.00	773.00	867.00	941.00	1085.00	1053.00	904.00	844.00	827.00	807.00	797.00	788.00	774.00	766.00
2422.00	2390.00	2345.00	2358.00	2464.00	2403.00	2298.00	2131.00	2091.00	2055.00	1998.00	1969.00	1955.00	1938.00	1926.00	1934.00	1930.00	1938.00	1918.00	1898.00	1780.00	1716.00	1688.00	1670.00	1656.00	1630.00	1621.00	1614.00	1607.00	1596.00	1591.00	1595.00	1603.00	1613.00	1661.00	1700.00	1770.00	1805.00	1834.00	1802.00	1783.00	1639.00	1616.00	1514.00	1484.00	1463.00	1437.00	1402.00	1385.00	1369.00	1355.00	1343.00	1335.00	1330.00	1312.00	1308.00	1286.00	1275.00	1266.00	1257.00	1250.00	1235.00	1223.00	1220.00	1218.00	1202.00	1188.00	1176.00	1174.00	1196.00	1154.00	1142.00	1134.00	1124.00	1113.00	1108.00	1103.00	1103.00	1108.00	1118.00	1125.00	1134.00	1142.00	1174.00	1186.00	1199.00	1212.00	1228.00	1272.00	1315.00	1375.00	1480.00	1576.00	1644.00	1710.00	1577.00	1418.00	1363.00	1348.00	1337.00	1335.00	1316.00	1308.00	1307.00	1330.00	1347.00	1281.00	1288.00	1284.00	1272.00	1273.00	1275.00	1291.00	1305.00	1325.00	1398.00	1411.00	1453.00	1535.00	1504.00	1483.00	1485.00	1526.00	1677.00	1764.00	1517.00	1519.00	1530.00	1712.00	1699.00	1634.00	1655.00	1704.00	1797.00	1914.00	1995.00	2168.00	2382.00	2440.00	2366.00	2294.00	2099.00	1918.00	1806.00	1707.00	1734.00	1648.00	1583.00	1646.00	1672.00	1856.00	1944.00	1936.00	1961.00	1814.00	1677.00	1469.00	1338.00	1121.00	985.00	958.00	937.00	918.00	897.00	858.00	841.00	823.00	792.00	765.00	753.00	736.00	724.00	716.00	705.00	679.00	671.00	660.00	642.00	623.00	611.00	602.00	590.00	568.00	559.00	550.00	543.00	531.00	528.00	523.00	522.00	523.00	531.00	534.00	539.00	544.00	539.00	541.00	543.00	546.00	547.00	552.00	547.00	523.00	510.00	473.00	460.00	454.00	455.00	456.00	458.00	469.00	473.00	491.00	489.00	482.00	484.00	509.00	510.00	502.00	492.00	489.00	487.00	478.00	475.00	477.00	474.00	474.00	468.00	466.00	467.00	476.00	451.00	453.00	470.00	483.00	492.00	540.00	548.00	566.00	587.00	652.00	675.00	714.00	786.00	901.00	968.00	1082.00	1237.00	1113.00	863.00	849.00	821.00	809.00	798.00	781.00	773.00
2388.00	2363.00	2371.00	2299.00	2321.00	2402.00	2333.00	2135.00	2096.00	2070.00	2021.00	1981.00	1990.00	1946.00	1929.00	1951.00	1979.00	1946.00	1939.00	1903.00	1813.00	1763.00	1702.00	1674.00	1659.00	1635.00	1628.00	1620.00	1613.00	1602.00	1592.00	1590.00	1593.00	1598.00	1618.00	1632.00	1701.00	1694.00	1792.00	1720.00	1683.00	1599.00	1582.00	1517.00	1489.00	1474.00	1437.00	1394.00	1377.00	1364.00	1356.00	1354.00	1337.00	1326.00	1333.00	1322.00	1283.00	1279.00	1275.00	1256.00	1246.00	1237.00	1227.00	1227.00	1212.00	1202.00	1192.00	1180.00	1186.00	1203.00	1165.00	1150.00	1139.00	1126.00	1111.00	1107.00	1103.00	1107.00	1111.00	1122.00	1127.00	1135.00	1144.00	1175.00	1187.00	1200.00	1214.00	1231.00	1275.00	1301.00	1346.00	1416.00	1526.00	1631.00	1791.00	1750.00	1530.00	1413.00	1391.00	1372.00	1348.00	1320.00	1317.00	1319.00	1357.00	1394.00	1314.00	1325.00	1311.00	1305.00	1291.00	1283.00	1295.00	1311.00	1318.00	1372.00	1377.00	1379.00	1403.00	1507.00	1576.00	1589.00	1610.00	1633.00	1598.00	1490.00	1495.00	1509.00	1547.00	1631.00	1627.00	1596.00	1596.00	1620.00	1668.00	1745.00	2085.00	2174.00	2197.00	2208.00	2200.00	2190.00	2121.00	1936.00	1752.00	1669.00	1611.00	1553.00	1522.00	1537.00	1630.00	1698.00	1697.00	1770.00	1622.00	1453.00	1389.00	1240.00	1103.00	988.00	968.00	944.00	923.00	902.00	861.00	842.00	824.00	791.00	765.00	750.00	735.00	716.00	711.00	682.00	679.00	667.00	654.00	640.00	626.00	614.00	602.00	590.00	567.00	557.00	548.00	540.00	532.00	533.00	526.00	524.00	525.00	534.00	536.00	539.00	539.00	531.00	533.00	534.00	535.00	538.00	542.00	542.00	535.00	515.00	491.00	472.00	462.00	453.00	453.00	463.00	465.00	466.00	476.00	489.00	480.00	477.00	496.00	502.00	493.00	482.00	477.00	473.00	468.00	465.00	468.00	467.00	464.00	460.00	458.00	455.00	466.00	450.00	455.00	467.00	479.00	489.00	527.00	549.00	570.00	592.00	658.00	681.00	713.00	765.00	867.00	907.00	950.00	1092.00	1126.00	887.00	869.00	829.00	815.00	805.00	786.00	777.00
2417.00	2361.00	2298.00	2309.00	2252.00	2274.00	2342.00	2206.00	2150.00	2104.00	2042.00	1983.00	2025.00	1972.00	1960.00	1937.00	2042.00	1987.00	1942.00	1919.00	1858.00	1828.00	1731.00	1692.00	1670.00	1645.00	1636.00	1628.00	1620.00	1606.00	1598.00	1594.00	1588.00	1585.00	1600.00	1608.00	1632.00	1649.00	1798.00	1671.00	1645.00	1586.00	1563.00	1519.00	1490.00	1478.00	1437.00	1391.00	1380.00	1375.00	1370.00	1380.00	1366.00	1390.00	1403.00	1351.00	1295.00	1279.00	1267.00	1260.00	1251.00	1243.00	1237.00	1225.00	1212.00	1213.00	1201.00	1188.00	1195.00	1212.00	1180.00	1161.00	1149.00	1140.00	1108.00	1106.00	1106.00	1108.00	1113.00	1124.00	1130.00	1137.00	1144.00	1176.00	1188.00	1202.00	1217.00	1232.00	1269.00	1290.00	1323.00	1381.00	1507.00	1702.00	1820.00	1860.00	1676.00	1447.00	1436.00	1410.00	1383.00	1333.00	1327.00	1333.00	1375.00	1434.00	1386.00	1352.00	1347.00	1349.00	1332.00	1312.00	1312.00	1319.00	1324.00	1349.00	1353.00	1366.00	1378.00	1405.00	1451.00	1458.00	1458.00	1469.00	1465.00	1467.00	1482.00	1557.00	1600.00	1567.00	1571.00	1590.00	1579.00	1555.00	1545.00	1588.00	1763.00	1874.00	1885.00	1893.00	1893.00	1957.00	2061.00	2030.00	1830.00	1676.00	1714.00	1687.00	1595.00	1528.00	1474.00	1471.00	1500.00	1551.00	1374.00	1263.00	1175.00	1165.00	1124.00	979.00	960.00	943.00	921.00	899.00	858.00	839.00	820.00	787.00	760.00	746.00	729.00	716.00	704.00	677.00	665.00	665.00	654.00	619.00	612.00	604.00	596.00	586.00	566.00	557.00	548.00	540.00	534.00	535.00	525.00	524.00	529.00	536.00	539.00	540.00	538.00	525.00	526.00	528.00	533.00	542.00	531.00	534.00	529.00	513.00	482.00	470.00	453.00	453.00	464.00	464.00	463.00	470.00	471.00	490.00	485.00	477.00	486.00	492.00	484.00	474.00	468.00	464.00	458.00	458.00	459.00	457.00	453.00	449.00	447.00	449.00	456.00	451.00	458.00	475.00	475.00	479.00	516.00	540.00	558.00	581.00	652.00	685.00	751.00	784.00	799.00	863.00	885.00	923.00	1006.00	931.00	868.00	831.00	821.00	810.00	786.00	776.00
2421.00	2347.00	2285.00	2256.00	2247.00	2212.00	2222.00	2296.00	2277.00	2155.00	2035.00	2007.00	2022.00	2036.00	1979.00	1948.00	2049.00	2063.00	1971.00	1943.00	1914.00	1888.00	1768.00	1710.00	1681.00	1658.00	1648.00	1638.00	1628.00	1614.00	1601.00	1595.00	1589.00	1582.00	1586.00	1598.00	1604.00	1642.00	1788.00	1623.00	1597.00	1576.00	1549.00	1505.00	1478.00	1456.00	1431.00	1396.00	1402.00	1394.00	1395.00	1418.00	1368.00	1372.00	1344.00	1328.00	1308.00	1306.00	1297.00	1278.00	1261.00	1249.00	1246.00	1222.00	1219.00	1221.00	1213.00	1194.00	1203.00	1220.00	1212.00	1173.00	1160.00	1143.00	1109.00	1107.00	1108.00	1109.00	1113.00	1126.00	1132.00	1141.00	1146.00	1176.00	1189.00	1201.00	1217.00	1233.00	1271.00	1292.00	1314.00	1342.00	1465.00	1657.00	1751.00	1821.00	1816.00	1521.00	1483.00	1441.00	1402.00	1354.00	1337.00	1339.00	1386.00	1475.00	1432.00	1463.00	1365.00	1343.00	1361.00	1342.00	1317.00	1331.00	1317.00	1345.00	1358.00	1366.00	1376.00	1380.00	1388.00	1399.00	1406.00	1440.00	1459.00	1490.00	1486.00	1522.00	1546.00	1559.00	1576.00	1577.00	1598.00	1605.00	1588.00	1536.00	1524.00	1591.00	1601.00	1617.00	1621.00	1652.00	1790.00	1973.00	1882.00	1721.00	1675.00	1687.00	1612.00	1579.00	1465.00	1401.00	1372.00	1351.00	1364.00	1443.00	1319.00	1327.00	1187.00	1001.00	945.00	931.00	912.00	891.00	852.00	833.00	814.00	781.00	752.00	740.00	723.00	710.00	695.00	673.00	664.00	652.00	638.00	613.00	607.00	596.00	587.00	578.00	561.00	554.00	545.00	537.00	533.00	534.00	527.00	520.00	527.00	534.00	537.00	536.00	537.00	525.00	523.00	528.00	536.00	534.00	528.00	517.00	507.00	501.00	488.00	480.00	457.00	453.00	464.00	461.00	458.00	462.00	464.00	478.00	484.00	480.00	478.00	480.00	477.00	464.00	461.00	456.00	449.00	450.00	450.00	447.00	443.00	440.00	438.00	442.00	451.00	456.00	455.00	471.00	490.00	476.00	507.00	531.00	553.00	575.00	653.00	688.00	790.00	852.00	842.00	830.00	842.00	858.00	906.00	967.00	871.00	839.00	826.00	812.00	788.00	777.00
2509.00	2504.00	2335.00	2280.00	2279.00	2262.00	2223.00	2134.00	2115.00	2164.00	2042.00	2057.00	2055.00	2104.00	2103.00	2006.00	1987.00	2040.00	2004.00	2000.00	1957.00	1903.00	1832.00	1752.00	1712.00	1682.00	1669.00	1655.00	1645.00	1620.00	1616.00	1611.00	1606.00	1593.00	1562.00	1553.00	1564.00	1571.00	1674.00	1637.00	1539.00	1517.00	1503.00	1471.00	1455.00	1444.00	1430.00	1431.00	1429.00	1425.00	1417.00	1406.00	1386.00	1382.00	1353.00	1336.00	1310.00	1300.00	1291.00	1282.00	1279.00	1272.00	1244.00	1239.00	1233.00	1226.00	1229.00	1213.00	1213.00	1227.00	1306.00	1198.00	1175.00	1150.00	1126.00	1116.00	1113.00	1117.00	1116.00	1121.00	1130.00	1147.00	1159.00	1178.00	1190.00	1201.00	1215.00	1230.00	1264.00	1284.00	1303.00	1320.00	1410.00	1529.00	1605.00	1690.00	1741.00	1834.00	1787.00	1636.00	1521.00	1404.00	1380.00	1364.00	1384.00	1449.00	1366.00	1348.00	1369.00	1320.00	1299.00	1278.00	1286.00	1298.00	1312.00	1369.00	1407.00	1441.00	1465.00	1465.00	1462.00	1467.00	1458.00	1477.00	1480.00	1520.00	1562.00	1646.00	1797.00	1814.00	1841.00	1866.00	1801.00	1661.00	1560.00	1585.00	1522.00	1437.00	1451.00	1504.00	1572.00	1463.00	1452.00	1462.00	1549.00	1640.00	1511.00	1474.00	1477.00	1417.00	1546.00	1512.00	1495.00	1413.00	1281.00	1196.00	1194.00	1178.00	1249.00	1033.00	932.00	895.00	881.00	865.00	830.00	812.00	794.00	760.00	731.00	722.00	712.00	699.00	687.00	653.00	643.00	632.00	621.00	599.00	597.00	585.00	576.00	569.00	551.00	543.00	537.00	529.00	518.00	520.00	523.00	518.00	513.00	523.00	528.00	527.00	531.00	522.00	518.00	512.00	506.00	502.00	486.00	482.00	477.00	478.00	469.00	460.00	453.00	449.00	448.00	449.00	449.00	447.00	450.00	468.00	476.00	472.00	467.00	461.00	458.00	452.00	445.00	448.00	441.00	436.00	435.00	436.00	437.00	438.00	439.00	442.00	444.00	444.00	443.00	446.00	456.00	469.00	500.00	517.00	537.00	559.00	646.00	688.00	778.00	843.00	932.00	790.00	798.00	840.00	878.00	1056.00	895.00	836.00	821.00	808.00	786.00	776.00
2523.00	2455.00	2324.00	2317.00	2275.00	2245.00	2232.00	2167.00	2128.00	2086.00	2085.00	2114.00	2097.00	2117.00	2173.00	2044.00	1980.00	2011.00	2048.00	2037.00	1939.00	1855.00	1868.00	1773.00	1727.00	1689.00	1672.00	1659.00	1646.00	1629.00	1621.00	1620.00	1612.00	1599.00	1565.00	1548.00	1547.00	1549.00	1591.00	1619.00	1544.00	1498.00	1488.00	1468.00	1453.00	1444.00	1436.00	1439.00	1444.00	1436.00	1424.00	1411.00	1396.00	1389.00	1364.00	1341.00	1319.00	1310.00	1303.00	1291.00	1288.00	1266.00	1251.00	1243.00	1239.00	1232.00	1237.00	1224.00	1217.00	1230.00	1318.00	1222.00	1179.00	1150.00	1133.00	1123.00	1118.00	1122.00	1120.00	1126.00	1131.00	1144.00	1167.00	1179.00	1190.00	1202.00	1215.00	1229.00	1260.00	1275.00	1291.00	1307.00	1367.00	1497.00	1570.00	1639.00	1697.00	1771.00	1836.00	1844.00	1633.00	1420.00	1414.00	1388.00	1362.00	1376.00	1347.00	1319.00	1325.00	1331.00	1290.00	1271.00	1281.00	1298.00	1318.00	1452.00	1599.00	1706.00	1727.00	1579.00	1548.00	1522.00	1496.00	1484.00	1500.00	1622.00	1735.00	1765.00	1751.00	1727.00	1717.00	1701.00	1795.00	1821.00	1610.00	1526.00	1581.00	1442.00	1400.00	1468.00	1557.00	1502.00	1438.00	1405.00	1413.00	1430.00	1542.00	1498.00	1391.00	1358.00	1415.00	1393.00	1399.00	1341.00	1238.00	1145.00	1076.00	1071.00	1111.00	1051.00	925.00	877.00	861.00	849.00	817.00	799.00	782.00	748.00	717.00	703.00	690.00	678.00	669.00	641.00	631.00	622.00	611.00	588.00	582.00	577.00	568.00	560.00	544.00	536.00	531.00	525.00	515.00	511.00	516.00	510.00	509.00	517.00	517.00	518.00	523.00	514.00	510.00	505.00	500.00	493.00	481.00	475.00	469.00	470.00	467.00	454.00	449.00	448.00	448.00	446.00	445.00	445.00	445.00	466.00	467.00	466.00	461.00	456.00	448.00	448.00	445.00	441.00	436.00	436.00	436.00	436.00	436.00	438.00	440.00	441.00	443.00	443.00	442.00	443.00	455.00	469.00	498.00	515.00	533.00	552.00	644.00	701.00	828.00	862.00	923.00	758.00	784.00	863.00	892.00	1048.00	923.00	831.00	816.00	804.00	782.00	772.00
2523.00	2455.00	2324.00	2317.00	2275.00	2245.00	2232.00	2167.00	2128.00	2086.00	2085.00	2114.00	2097.00	2117.00	2173.00	2044.00	1980.00	2011.00	2048.00	2037.00	1939.00	1855.00	1868.00	1773.00	1727.00	1689.00	1672.00	1659.00	1646.00	1629.00	1621.00	1620.00	1612.00	1599.00	1565.00	1548.00	1547.00	1549.00	1591.00	1619.00	1544.00	1498.00	1488.00	1468.00	1453.00	1444.00	1436.00	1439.00	1444.00	1436.00	1424.00	1411.00	1396.00	1389.00	1364.00	1341.00	1319.00	1310.00	1303.00	1291.00	1288.00	1266.00	1251.00	1243.00	1239.00	1232.00	1237.00	1224.00	1217.00	1230.00	1318.00	1222.00	1179.00	1150.00	1133.00	1123.00	1118.00	1122.00	1120.00	1126.00	1131.00	1144.00	1167.00	1179.00	1190.00	1202.00	1215.00	1229.00	1260.00	1275.00	1291.00	1307.00	1367.00	1497.00	1570.00	1639.00	1697.00	1771.00	1836.00	1844.00	1633.00	1420.00	1414.00	1388.00	1362.00	1376.00	1347.00	1319.00	1325.00	1331.00	1290.00	1271.00	1281.00	1298.00	1318.00	1452.00	1599.00	1706.00	1727.00	1579.00	1548.00	1522.00	1496.00	1484.00	1500.00	1622.00	1735.00	1765.00	1751.00	1727.00	1717.00	1701.00	1795.00	1821.00	1610.00	1526.00	1581.00	1442.00	1400.00	1468.00	1557.00	1502.00	1438.00	1405.00	1413.00	1430.00	1542.00	1498.00	1391.00	1358.00	1415.00	1393.00	1399.00	1341.00	1238.00	1145.00	1076.00	1071.00	1111.00	1051.00	925.00	877.00	861.00	849.00	817.00	799.00	782.00	748.00	717.00	703.00	690.00	678.00	669.00	641.00	631.00	622.00	611.00	588.00	582.00	577.00	568.00	560.00	544.00	536.00	531.00	525.00	515.00	511.00	516.00	510.00	509.00	517.00	517.00	518.00	523.00	514.00	510.00	505.00	500.00	493.00	481.00	475.00	469.00	470.00	467.00	454.00	449.00	448.00	448.00	446.00	445.00	445.00	445.00	466.00	467.00	466.00	461.00	456.00	448.00	448.00	445.00	441.00	436.00	436.00	436.00	436.00	436.00	438.00	440.00	441.00	443.00	443.00	442.00	443.00	455.00	469.00	498.00	515.00	533.00	552.00	644.00	701.00	828.00	862.00	923.00	758.00	784.00	863.00	892.00	1048.00	923.00	831.00	816.00	804.00	782.00	772.00
2497.00	2425.00	2370.00	2320.00	2282.00	2241.00	2196.00	2148.00	2120.00	2089.00	2091.00	2214.00	2131.00	2136.00	2210.00	2081.00	1998.00	1993.00	2046.00	2054.00	1950.00	1860.00	1800.00	1788.00	1733.00	1693.00	1678.00	1664.00	1649.00	1638.00	1630.00	1624.00	1610.00	1597.00	1570.00	1554.00	1536.00	1532.00	1547.00	1532.00	1556.00	1488.00	1481.00	1467.00	1454.00	1446.00	1446.00	1448.00	1447.00	1440.00	1430.00	1418.00	1398.00	1394.00	1372.00	1352.00	1332.00	1321.00	1310.00	1308.00	1292.00	1273.00	1255.00	1249.00	1245.00	1236.00	1236.00	1230.00	1222.00	1233.00	1297.00	1277.00	1184.00	1153.00	1133.00	1126.00	1121.00	1122.00	1124.00	1132.00	1137.00	1146.00	1159.00	1182.00	1190.00	1202.00	1214.00	1228.00	1256.00	1271.00	1287.00	1306.00	1345.00	1463.00	1534.00	1599.00	1611.00	1757.00	1797.00	1839.00	1725.00	1408.00	1383.00	1361.00	1341.00	1347.00	1356.00	1296.00	1301.00	1316.00	1260.00	1262.00	1276.00	1300.00	1331.00	1652.00	1810.00	1858.00	1792.00	1837.00	1813.00	1759.00	1652.00	1516.00	1561.00	1736.00	1665.00	1635.00	1626.00	1600.00	1561.00	1543.00	1710.00	1803.00	1667.00	1524.00	1541.00	1413.00	1388.00	1418.00	1488.00	1463.00	1456.00	1406.00	1370.00	1374.00	1515.00	1485.00	1400.00	1404.00	1281.00	1257.00	1285.00	1288.00	1262.00	1173.00	1080.00	1017.00	996.00	992.00	919.00	858.00	840.00	829.00	802.00	786.00	768.00	735.00	704.00	690.00	677.00	663.00	652.00	628.00	615.00	606.00	598.00	576.00	568.00	562.00	554.00	549.00	534.00	526.00	522.00	518.00	510.00	505.00	507.00	504.00	505.00	509.00	510.00	511.00	516.00	517.00	514.00	505.00	495.00	490.00	480.00	475.00	467.00	467.00	461.00	454.00	447.00	447.00	447.00	446.00	445.00	445.00	444.00	462.00	459.00	460.00	455.00	449.00	440.00	442.00	439.00	436.00	436.00	436.00	436.00	436.00	436.00	438.00	439.00	440.00	443.00	441.00	441.00	440.00	455.00	466.00	495.00	510.00	527.00	547.00	630.00	710.00	820.00	885.00	852.00	746.00	786.00	895.00	927.00	1118.00	912.00	819.00	807.00	795.00	775.00	765.00
2731.00	2658.00	2415.00	2361.00	2310.00	2303.00	2270.00	2172.00	2152.00	2137.00	2108.00	2172.00	2250.00	2140.00	2096.00	2126.00	2020.00	2011.00	2003.00	2027.00	1930.00	1874.00	1844.00	1806.00	1772.00	1708.00	1690.00	1687.00	1700.00	1663.00	1642.00	1634.00	1621.00	1605.00	1579.00	1567.00	1550.00	1535.00	1517.00	1512.00	1507.00	1484.00	1479.00	1468.00	1462.00	1467.00	1476.00	1489.00	1488.00	1483.00	1475.00	1462.00	1422.00	1412.00	1400.00	1382.00	1351.00	1333.00	1322.00	1315.00	1304.00	1288.00	1269.00	1262.00	1256.00	1243.00	1237.00	1239.00	1236.00	1239.00	1272.00	1357.00	1232.00	1166.00	1142.00	1132.00	1127.00	1125.00	1129.00	1136.00	1144.00	1151.00	1158.00	1205.00	1194.00	1202.00	1213.00	1224.00	1250.00	1264.00	1278.00	1292.00	1328.00	1399.00	1434.00	1484.00	1518.00	1636.00	1689.00	1763.00	1815.00	1450.00	1379.00	1349.00	1320.00	1312.00	1344.00	1292.00	1257.00	1253.00	1241.00	1241.00	1251.00	1271.00	1308.00	1532.00	1599.00	1548.00	1588.00	1624.00	1627.00	1628.00	1701.00	1679.00	1666.00	1484.00	1445.00	1418.00	1379.00	1391.00	1433.00	1619.00	1861.00	1695.00	1594.00	1509.00	1454.00	1364.00	1329.00	1341.00	1356.00	1369.00	1368.00	1343.00	1325.00	1367.00	1540.00	1624.00	1694.00	1571.00	1447.00	1384.00	1350.00	1297.00	1219.00	1187.00	1159.00	1052.00	1004.00	903.00	861.00	845.00	825.00	802.00	768.00	755.00	740.00	710.00	680.00	665.00	650.00	638.00	626.00	605.00	594.00	583.00	572.00	551.00	544.00	538.00	532.00	526.00	516.00	511.00	505.00	502.00	499.00	503.00	494.00	495.00	498.00	503.00	509.00	513.00	513.00	509.00	507.00	505.00	502.00	500.00	481.00	473.00	470.00	461.00	446.00	445.00	445.00	445.00	445.00	445.00	443.00	443.00	443.00	450.00	446.00	446.00	441.00	440.00	445.00	438.00	435.00	435.00	435.00	435.00	435.00	435.00	435.00	436.00	437.00	437.00	439.00	439.00	439.00	439.00	439.00	448.00	481.00	498.00	515.00	535.00	604.00	663.00	692.00	712.00	694.00	750.00	842.00	1143.00	1201.00	1152.00	919.00	808.00	795.00	784.00	766.00	758.00
2873.00	2852.00	2489.00	2413.00	2386.00	2334.00	2280.00	2185.00	2184.00	2173.00	2139.00	2135.00	2246.00	2197.00	2123.00	2085.00	2034.00	2016.00	2011.00	2016.00	2008.00	1905.00	1859.00	1830.00	1819.00	1711.00	1710.00	1703.00	1696.00	1670.00	1636.00	1619.00	1607.00	1592.00	1575.00	1562.00	1547.00	1538.00	1523.00	1519.00	1544.00	1489.00	1477.00	1470.00	1471.00	1482.00	1498.00	1530.00	1530.00	1527.00	1517.00	1497.00	1446.00	1436.00	1428.00	1402.00	1362.00	1352.00	1336.00	1330.00	1316.00	1293.00	1276.00	1269.00	1262.00	1247.00	1243.00	1243.00	1246.00	1243.00	1273.00	1337.00	1301.00	1174.00	1149.00	1139.00	1132.00	1130.00	1131.00	1139.00	1143.00	1153.00	1159.00	1197.00	1200.00	1204.00	1214.00	1225.00	1249.00	1261.00	1274.00	1290.00	1330.00	1374.00	1397.00	1427.00	1473.00	1599.00	1662.00	1720.00	1735.00	1591.00	1422.00	1360.00	1315.00	1304.00	1324.00	1277.00	1244.00	1237.00	1230.00	1232.00	1244.00	1264.00	1286.00	1408.00	1497.00	1436.00	1509.00	1507.00	1492.00	1510.00	1565.00	1569.00	1606.00	1396.00	1374.00	1360.00	1343.00	1357.00	1410.00	1688.00	1897.00	1652.00	1591.00	1474.00	1424.00	1330.00	1311.00	1322.00	1306.00	1325.00	1360.00	1318.00	1305.00	1322.00	1504.00	1654.00	1747.00	1709.00	1590.00	1446.00	1332.00	1271.00	1205.00	1110.00	1028.00	992.00	959.00	867.00	836.00	821.00	806.00	789.00	752.00	738.00	725.00	697.00	668.00	653.00	639.00	626.00	613.00	591.00	582.00	571.00	561.00	538.00	532.00	526.00	520.00	515.00	506.00	502.00	498.00	495.00	493.00	496.00	492.00	505.00	504.00	504.00	507.00	507.00	507.00	503.00	502.00	500.00	497.00	494.00	490.00	481.00	467.00	463.00	444.00	444.00	445.00	445.00	444.00	443.00	443.00	442.00	443.00	447.00	441.00	440.00	437.00	438.00	444.00	436.00	435.00	435.00	435.00	435.00	435.00	435.00	435.00	436.00	436.00	435.00	437.00	437.00	438.00	437.00	437.00	442.00	475.00	495.00	512.00	533.00	602.00	619.00	636.00	654.00	683.00	769.00	928.00	1206.00	1178.00	1143.00	900.00	800.00	787.00	777.00	760.00	753.00
3016.00	2998.00	2558.00	2468.00	2402.00	2345.00	2290.00	2208.00	2231.00	2211.00	2144.00	2142.00	2212.00	2249.00	2136.00	2091.00	2056.00	2027.00	2019.00	2008.00	2002.00	1929.00	1905.00	1881.00	1874.00	1737.00	1727.00	1713.00	1691.00	1651.00	1646.00	1631.00	1625.00	1604.00	1591.00	1584.00	1559.00	1550.00	1533.00	1529.00	1536.00	1511.00	1480.00	1479.00	1483.00	1500.00	1527.00	1606.00	1620.00	1600.00	1579.00	1550.00	1476.00	1460.00	1446.00	1408.00	1385.00	1369.00	1355.00	1342.00	1326.00	1303.00	1286.00	1279.00	1272.00	1256.00	1250.00	1248.00	1253.00	1247.00	1274.00	1311.00	1359.00	1182.00	1158.00	1147.00	1138.00	1135.00	1135.00	1139.00	1145.00	1150.00	1154.00	1191.00	1203.00	1205.00	1213.00	1223.00	1247.00	1260.00	1275.00	1290.00	1325.00	1359.00	1379.00	1396.00	1432.00	1554.00	1603.00	1663.00	1679.00	1719.00	1517.00	1390.00	1312.00	1296.00	1303.00	1273.00	1232.00	1227.00	1222.00	1223.00	1233.00	1247.00	1263.00	1319.00	1388.00	1348.00	1407.00	1418.00	1417.00	1416.00	1432.00	1464.00	1501.00	1352.00	1344.00	1338.00	1317.00	1331.00	1386.00	1622.00	1981.00	1768.00	1564.00	1419.00	1376.00	1293.00	1289.00	1281.00	1273.00	1276.00	1298.00	1309.00	1287.00	1295.00	1392.00	1443.00	1568.00	1744.00	1696.00	1555.00	1428.00	1302.00	1225.00	1102.00	1004.00	964.00	933.00	848.00	813.00	795.00	783.00	769.00	737.00	723.00	709.00	683.00	655.00	641.00	627.00	614.00	602.00	579.00	569.00	560.00	550.00	526.00	520.00	514.00	508.00	504.00	497.00	493.00	490.00	488.00	488.00	489.00	493.00	501.00	499.00	499.00	500.00	500.00	500.00	497.00	496.00	495.00	492.00	487.00	484.00	475.00	459.00	455.00	447.00	443.00	443.00	444.00	443.00	443.00	442.00	442.00	441.00	440.00	438.00	438.00	438.00	437.00	439.00	435.00	435.00	434.00	435.00	435.00	435.00	435.00	434.00	435.00	435.00	435.00	436.00	437.00	436.00	437.00	436.00	439.00	467.00	486.00	505.00	526.00	600.00	615.00	635.00	662.00	694.00	792.00	1050.00	1209.00	1089.00	1105.00	893.00	798.00	783.00	772.00	755.00	747.00
