592.00	592.00	590.00	587.00	579.00	579.00	580.00	581.00	583.00	584.00	577.00	579.00	578.00	577.00	576.00	572.00	569.00	564.00	557.00	555.00	550.00	548.00	545.00	549.00	549.00	551.00	547.00	544.00	542.00	540.00	537.00	533.00	529.00	526.00	534.00	534.00	530.00	527.00	527.00	528.00	522.00	517.00	514.00	512.00	512.00	515.00	503.00	491.00	492.00	512.00	487.00	500.00	497.00	480.00	504.00	507.00	498.00	481.00	476.00	505.00	502.00	482.00	458.00	468.00	478.00	481.00	454.00	475.00	479.00	475.00	459.00	477.00	461.00	446.00	475.00	482.00	450.00	473.00	477.00	453.00	459.00	459.00	462.00	460.00	452.00	457.00	447.00	451.00	447.00	450.00	445.00	445.00	442.00	444.00	437.00	442.00	441.00	437.00	432.00	436.00	433.00	427.00	425.00	433.00	432.00	431.00	432.00	433.00	433.00	433.00	430.00	424.00	426.00	422.00	425.00	419.00	420.00	419.00	420.00	415.00	416.00	415.00	415.00	418.00	420.00	415.00	415.00	412.00	412.00	412.00	414.00	409.00	408.00	408.00	406.00	408.00	409.00	405.00	410.00	402.00	405.00	405.00	407.00	403.00	406.00	407.00	407.00	409.00	410.00	407.00	406.00	405.00	408.00	408.00	404.00	401.00	401.00	402.00	402.00	402.00	398.00	398.00	395.00	394.00	391.00	391.00	396.00	402.00	404.00	407.00	398.00	402.00	399.00	394.00	394.00	396.00	394.00	391.00	391.00	395.00	391.00	390.00	392.00	389.00	390.00	391.00	391.00	392.00	389.00	388.00	387.00	391.00	390.00	388.00	388.00	394.00	393.00	394.00	391.00	390.00	389.00	392.00	385.00	388.00	386.00	388.00	393.00	394.00	387.00	388.00	391.00	392.00	396.00	397.00	389.00	395.00	386.00	396.00	395.00	391.00	392.00	389.00	382.00	396.00	394.00	398.00	391.00	393.00	392.00	386.00	390.00	396.00	395.00	391.00	387.00	383.00	390.00	393.00	390.00	392.00	387.00	390.00	389.00	390.00	392.00	390.00	389.00	390.00	390.00	391.00	392.00	391.00	390.00	392.00	388.00	389.00
588.00	588.00	584.00	582.00	579.00	580.00	580.00	575.00	576.00	576.00	577.00	578.00	577.00	572.00	568.00	562.00	558.00	558.00	553.00	549.00	549.00	548.00	553.00	551.00	550.00	548.00	544.00	531.00	529.00	530.00	528.00	530.00	531.00	524.00	522.00	523.00	524.00	518.00	510.00	507.00	505.00	508.00	505.00	498.00	494.00	525.00	497.00	482.00	489.00	527.00	505.00	479.00	482.00	473.00	481.00	505.00	490.00	475.00	462.00	458.00	497.00	508.00	459.00	451.00	451.00	501.00	481.00	486.00	470.00	470.00	479.00	459.00	484.00	472.00	449.00	464.00	447.00	448.00	455.00	460.00	460.00	461.00	462.00	464.00	457.00	452.00	453.00	448.00	452.00	443.00	446.00	445.00	442.00	440.00	440.00	441.00	436.00	429.00	432.00	430.00	430.00	430.00	428.00	428.00	432.00	433.00	429.00	433.00	432.00	429.00	426.00	431.00	420.00	419.00	418.00	422.00	415.00	420.00	419.00	420.00	417.00	417.00	414.00	420.00	416.00	416.00	415.00	415.00	411.00	412.00	412.00	412.00	407.00	406.00	410.00	406.00	405.00	406.00	406.00	401.00	398.00	396.00	396.00	400.00	401.00	404.00	406.00	405.00	407.00	403.00	403.00	403.00	406.00	405.00	404.00	401.00	398.00	401.00	400.00	400.00	398.00	397.00	397.00	396.00	390.00	386.00	392.00	397.00	404.00	406.00	399.00	399.00	393.00	392.00	393.00	392.00	392.00	394.00	393.00	389.00	387.00	389.00	392.00	389.00	389.00	390.00	391.00	387.00	389.00	389.00	390.00	386.00	389.00	388.00	386.00	387.00	385.00	385.00	387.00	387.00	390.00	392.00	393.00	390.00	392.00	388.00	391.00	384.00	389.00	388.00	393.00	391.00	386.00	385.00	390.00	388.00	386.00	389.00	398.00	391.00	394.00	388.00	392.00	391.00	391.00	390.00	389.00	391.00	393.00	388.00	390.00	394.00	391.00	385.00	386.00	387.00	387.00	388.00	389.00	388.00	388.00	391.00	388.00	390.00	389.00	388.00	390.00	392.00	391.00	390.00	391.00	393.00	390.00	386.00	389.00	391.00
584.00	583.00	579.00	581.00	577.00	575.00	570.00	565.00	570.00	573.00	573.00	574.00	567.00	566.00	561.00	558.00	556.00	552.00	548.00	546.00	549.00	549.00	556.00	554.00	553.00	551.00	544.00	530.00	526.00	525.00	525.00	526.00	527.00	524.00	517.00	520.00	518.00	510.00	500.00	499.00	504.00	518.00	512.00	493.00	491.00	521.00	499.00	480.00	485.00	528.00	512.00	484.00	468.00	468.00	475.00	472.00	495.00	502.00	480.00	463.00	470.00	493.00	486.00	472.00	460.00	474.00	481.00	472.00	479.00	455.00	470.00	444.00	470.00	478.00	467.00	452.00	458.00	446.00	446.00	454.00	466.00	465.00	464.00	460.00	457.00	452.00	456.00	449.00	448.00	443.00	443.00	444.00	440.00	440.00	438.00	441.00	437.00	433.00	428.00	427.00	432.00	432.00	428.00	427.00	435.00	431.00	434.00	431.00	431.00	432.00	424.00	423.00	424.00	418.00	418.00	424.00	419.00	418.00	421.00	419.00	418.00	418.00	417.00	418.00	413.00	415.00	414.00	411.00	410.00	410.00	408.00	412.00	410.00	405.00	407.00	407.00	403.00	402.00	403.00	402.00	398.00	396.00	394.00	400.00	402.00	403.00	404.00	403.00	404.00	405.00	406.00	403.00	401.00	404.00	403.00	399.00	398.00	398.00	398.00	398.00	397.00	396.00	397.00	396.00	388.00	386.00	387.00	394.00	403.00	405.00	396.00	396.00	397.00	394.00	396.00	392.00	393.00	391.00	391.00	389.00	387.00	390.00	388.00	387.00	386.00	385.00	392.00	390.00	389.00	389.00	386.00	384.00	385.00	387.00	386.00	384.00	386.00	386.00	385.00	385.00	386.00	391.00	393.00	392.00	390.00	393.00	390.00	386.00	385.00	392.00	389.00	390.00	384.00	388.00	390.00	390.00	385.00	389.00	391.00	393.00	392.00	387.00	389.00	389.00	394.00	392.00	395.00	393.00	389.00	388.00	390.00	390.00	393.00	391.00	383.00	384.00	389.00	387.00	389.00	391.00	390.00	390.00	389.00	386.00	384.00	388.00	390.00	389.00	389.00	393.00	389.00	390.00	389.00	389.00	388.00	393.00
579.00	578.00	576.00	579.00	575.00	567.00	570.00	565.00	564.00	566.00	565.00	566.00	568.00	558.00	556.00	553.00	551.00	549.00	547.00	547.00	548.00	549.00	556.00	553.00	554.00	547.00	543.00	534.00	531.00	529.00	529.00	530.00	526.00	523.00	512.00	513.00	507.00	502.00	500.00	496.00	503.00	525.00	518.00	496.00	489.00	505.00	486.00	479.00	491.00	519.00	506.00	481.00	473.00	467.00	488.00	467.00	467.00	498.00	505.00	487.00	464.00	460.00	499.00	493.00	489.00	477.00	465.00	465.00	478.00	454.00	460.00	462.00	456.00	470.00	473.00	465.00	453.00	448.00	448.00	452.00	460.00	463.00	462.00	460.00	454.00	451.00	454.00	451.00	448.00	444.00	441.00	443.00	439.00	439.00	438.00	437.00	434.00	433.00	428.00	430.00	431.00	431.00	430.00	429.00	435.00	435.00	432.00	429.00	431.00	427.00	427.00	425.00	418.00	418.00	418.00	421.00	418.00	420.00	419.00	420.00	418.00	420.00	416.00	412.00	414.00	413.00	410.00	409.00	410.00	411.00	410.00	408.00	407.00	405.00	408.00	406.00	402.00	401.00	406.00	404.00	400.00	396.00	394.00	396.00	400.00	400.00	401.00	400.00	402.00	404.00	403.00	402.00	402.00	401.00	402.00	402.00	399.00	394.00	396.00	395.00	393.00	397.00	398.00	395.00	388.00	386.00	386.00	391.00	397.00	402.00	396.00	394.00	394.00	393.00	394.00	389.00	391.00	388.00	389.00	389.00	387.00	387.00	387.00	387.00	387.00	389.00	388.00	388.00	382.00	389.00	386.00	388.00	388.00	386.00	386.00	386.00	388.00	385.00	383.00	382.00	386.00	392.00	390.00	394.00	394.00	395.00	387.00	389.00	386.00	387.00	389.00	386.00	388.00	391.00	387.00	388.00	385.00	384.00	391.00	390.00	386.00	389.00	388.00	391.00	390.00	384.00	391.00	395.00	386.00	389.00	387.00	386.00	392.00	389.00	384.00	385.00	389.00	390.00	391.00	391.00	390.00	388.00	390.00	387.00	386.00	387.00	392.00	390.00	388.00	390.00	392.00	385.00	386.00	391.00	388.00	389.00
576.00	575.00	575.00	577.00	566.00	564.00	565.00	566.00	561.00	562.00	559.00	565.00	566.00	554.00	554.00	551.00	549.00	548.00	548.00	548.00	549.00	552.00	553.00	543.00	544.00	539.00	538.00	540.00	536.00	534.00	534.00	536.00	527.00	522.00	512.00	508.00	502.00	516.00	513.00	500.00	497.00	522.00	524.00	504.00	487.00	493.00	477.00	474.00	491.00	505.00	490.00	486.00	487.00	476.00	497.00	493.00	479.00	465.00	507.00	496.00	467.00	466.00	482.00	491.00	483.00	484.00	481.00	460.00	486.00	470.00	454.00	476.00	463.00	465.00	465.00	462.00	453.00	452.00	450.00	447.00	452.00	458.00	461.00	457.00	457.00	451.00	450.00	452.00	448.00	441.00	442.00	442.00	439.00	439.00	436.00	435.00	429.00	433.00	429.00	428.00	430.00	432.00	430.00	436.00	437.00	433.00	437.00	429.00	430.00	429.00	427.00	427.00	423.00	419.00	421.00	422.00	422.00	417.00	419.00	414.00	418.00	419.00	418.00	418.00	412.00	413.00	411.00	410.00	409.00	411.00	410.00	407.00	408.00	407.00	406.00	404.00	402.00	400.00	401.00	406.00	404.00	399.00	397.00	392.00	396.00	396.00	395.00	394.00	399.00	403.00	403.00	402.00	402.00	400.00	400.00	404.00	401.00	392.00	393.00	394.00	393.00	394.00	395.00	396.00	389.00	383.00	384.00	388.00	395.00	398.00	399.00	397.00	394.00	391.00	393.00	391.00	390.00	390.00	386.00	390.00	386.00	386.00	385.00	387.00	387.00	386.00	388.00	383.00	384.00	386.00	388.00	391.00	390.00	388.00	385.00	391.00	391.00	388.00	381.00	385.00	387.00	390.00	391.00	390.00	389.00	394.00	382.00	384.00	392.00	385.00	391.00	384.00	388.00	387.00	382.00	386.00	387.00	386.00	389.00	390.00	386.00	389.00	385.00	392.00	390.00	391.00	390.00	389.00	384.00	389.00	387.00	389.00	390.00	388.00	388.00	390.00	393.00	390.00	393.00	389.00	387.00	385.00	392.00	389.00	389.00	389.00	385.00	387.00	393.00	391.00	387.00	389.00	387.00	387.00	385.00	390.00
579.00	577.00	570.00	567.00	564.00	560.00	562.00	559.00	557.00	554.00	560.00	557.00	560.00	552.00	549.00	549.00	547.00	550.00	551.00	555.00	557.00	558.00	550.00	551.00	549.00	547.00	548.00	545.00	537.00	540.00	545.00	522.00	524.00	532.00	507.00	527.00	508.00	523.00	514.00	533.00	498.00	504.00	524.00	508.00	491.00	526.00	516.00	488.00	483.00	503.00	480.00	477.00	484.00	498.00	467.00	504.00	511.00	487.00	480.00	504.00	496.00	465.00	471.00	481.00	490.00	459.00	461.00	479.00	461.00	467.00	470.00	464.00	462.00	459.00	459.00	458.00	456.00	452.00	449.00	448.00	445.00	452.00	455.00	458.00	458.00	451.00	447.00	444.00	443.00	445.00	439.00	441.00	442.00	439.00	435.00	434.00	431.00	435.00	436.00	436.00	433.00	434.00	436.00	436.00	433.00	435.00	436.00	429.00	427.00	426.00	425.00	427.00	423.00	422.00	421.00	418.00	418.00	416.00	416.00	417.00	422.00	413.00	414.00	412.00	414.00	411.00	410.00	413.00	411.00	408.00	406.00	408.00	409.00	407.00	404.00	400.00	401.00	400.00	401.00	401.00	398.00	399.00	405.00	402.00	400.00	398.00	396.00	392.00	394.00	396.00	399.00	402.00	398.00	397.00	395.00	397.00	396.00	390.00	391.00	392.00	392.00	392.00	391.00	393.00	394.00	389.00	385.00	383.00	385.00	388.00	395.00	395.00	393.00	391.00	391.00	390.00	390.00	384.00	386.00	385.00	387.00	385.00	384.00	387.00	386.00	384.00	384.00	384.00	387.00	388.00	389.00	385.00	387.00	390.00	381.00	387.00	388.00	382.00	383.00	381.00	386.00	388.00	381.00	387.00	379.00	388.00	382.00	384.00	381.00	382.00	389.00	393.00	395.00	383.00	379.00	385.00	388.00	388.00	392.00	390.00	387.00	381.00	387.00	388.00	390.00	391.00	392.00	389.00	385.00	392.00	392.00	391.00	388.00	390.00	388.00	387.00	387.00	389.00	389.00	387.00	386.00	387.00	388.00	386.00	385.00	385.00	386.00	387.00	386.00	388.00	386.00	388.00	385.00	386.00	388.00	393.00
582.00	576.00	571.00	568.00	563.00	561.00	555.00	563.00	561.00	559.00	557.00	557.00	553.00	552.00	551.00	550.00	554.00	554.00	558.00	562.00	561.00	556.00	555.00	562.00	552.00	546.00	548.00	546.00	533.00	536.00	536.00	524.00	518.00	536.00	514.00	533.00	514.00	503.00	505.00	524.00	498.00	498.00	531.00	527.00	503.00	508.00	524.00	506.00	485.00	498.00	496.00	487.00	468.00	483.00	464.00	486.00	518.00	497.00	458.00	482.00	507.00	476.00	478.00	460.00	472.00	483.00	462.00	480.00	480.00	472.00	465.00	460.00	457.00	459.00	459.00	459.00	453.00	451.00	449.00	449.00	445.00	450.00	454.00	456.00	455.00	449.00	448.00	444.00	441.00	442.00	442.00	440.00	438.00	439.00	433.00	433.00	432.00	435.00	434.00	434.00	435.00	438.00	438.00	434.00	434.00	434.00	434.00	430.00	423.00	425.00	428.00	428.00	420.00	423.00	422.00	421.00	416.00	416.00	416.00	413.00	419.00	415.00	416.00	417.00	413.00	411.00	412.00	409.00	412.00	408.00	404.00	407.00	407.00	406.00	406.00	402.00	399.00	400.00	400.00	401.00	399.00	397.00	401.00	402.00	402.00	404.00	404.00	400.00	389.00	397.00	396.00	399.00	395.00	397.00	397.00	395.00	395.00	392.00	390.00	388.00	392.00	390.00	391.00	392.00	397.00	392.00	386.00	385.00	383.00	383.00	391.00	393.00	393.00	390.00	389.00	388.00	387.00	385.00	385.00	386.00	388.00	383.00	382.00	384.00	387.00	384.00	386.00	387.00	388.00	387.00	387.00	382.00	386.00	388.00	385.00	376.00	388.00	379.00	382.00	381.00	381.00	389.00	382.00	390.00	386.00	389.00	383.00	381.00	392.00	379.00	393.00	392.00	395.00	386.00	373.00	387.00	387.00	387.00	388.00	387.00	385.00	385.00	385.00	389.00	391.00	393.00	387.00	389.00	387.00	391.00	390.00	390.00	388.00	389.00	388.00	389.00	387.00	387.00	388.00	388.00	386.00	391.00	391.00	386.00	387.00	384.00	388.00	385.00	384.00	387.00	385.00	386.00	386.00	383.00	391.00	393.00
588.00	580.00	572.00	568.00	570.00	569.00	564.00	565.00	562.00	560.00	558.00	559.00	558.00	556.00	556.00	557.00	559.00	560.00	566.00	566.00	562.00	560.00	563.00	557.00	549.00	542.00	547.00	553.00	535.00	537.00	543.00	529.00	523.00	548.00	518.00	518.00	525.00	499.00	508.00	530.00	497.00	491.00	531.00	531.00	506.00	481.00	515.00	525.00	501.00	481.00	496.00	501.00	480.00	472.00	474.00	475.00	503.00	498.00	463.00	470.00	498.00	475.00	493.00	479.00	463.00	490.00	484.00	465.00	469.00	471.00	467.00	460.00	457.00	460.00	458.00	454.00	451.00	450.00	450.00	451.00	448.00	449.00	452.00	454.00	453.00	447.00	447.00	447.00	440.00	441.00	439.00	439.00	434.00	437.00	431.00	433.00	431.00	434.00	435.00	434.00	435.00	436.00	435.00	437.00	436.00	433.00	431.00	432.00	425.00	425.00	422.00	426.00	421.00	420.00	420.00	419.00	412.00	414.00	415.00	413.00	414.00	419.00	417.00	415.00	415.00	412.00	412.00	411.00	411.00	404.00	405.00	405.00	403.00	404.00	408.00	404.00	400.00	399.00	401.00	400.00	398.00	395.00	397.00	401.00	403.00	400.00	403.00	401.00	388.00	397.00	397.00	398.00	394.00	397.00	394.00	394.00	392.00	395.00	390.00	388.00	390.00	388.00	389.00	389.00	393.00	396.00	385.00	385.00	385.00	384.00	388.00	389.00	388.00	387.00	386.00	388.00	387.00	386.00	386.00	384.00	388.00	384.00	382.00	382.00	385.00	387.00	385.00	384.00	386.00	388.00	387.00	383.00	386.00	383.00	387.00	379.00	386.00	379.00	383.00	381.00	382.00	385.00	386.00	381.00	383.00	386.00	377.00	373.00	383.00	378.00	394.00	388.00	388.00	390.00	376.00	383.00	384.00	385.00	385.00	386.00	385.00	382.00	387.00	395.00	388.00	389.00	386.00	390.00	385.00	386.00	387.00	388.00	385.00	385.00	386.00	387.00	386.00	385.00	386.00	387.00	384.00	393.00	389.00	386.00	384.00	388.00	389.00	388.00	385.00	388.00	387.00	384.00	390.00	388.00	386.00	390.00
602.00	592.00	587.00	584.00	579.00	572.00	571.00	571.00	568.00	564.00	562.00	563.00	564.00	563.00	559.00	564.00	568.00	575.00	571.00	575.00	571.00	566.00	563.00	553.00	546.00	542.00	546.00	554.00	536.00	529.00	541.00	534.00	519.00	530.00	528.00	504.00	523.00	505.00	504.00	526.00	505.00	490.00	515.00	533.00	520.00	470.00	483.00	523.00	524.00	475.00	478.00	506.00	502.00	477.00	487.00	484.00	484.00	474.00	468.00	465.00	489.00	487.00	475.00	491.00	482.00	473.00	480.00	468.00	465.00	466.00	466.00	460.00	457.00	457.00	457.00	455.00	451.00	453.00	451.00	451.00	452.00	452.00	452.00	449.00	447.00	449.00	446.00	444.00	442.00	440.00	436.00	437.00	435.00	436.00	432.00	430.00	432.00	432.00	434.00	438.00	434.00	436.00	436.00	435.00	434.00	433.00	429.00	433.00	428.00	424.00	422.00	426.00	421.00	419.00	418.00	420.00	416.00	414.00	413.00	414.00	410.00	414.00	416.00	418.00	408.00	410.00	409.00	410.00	410.00	408.00	401.00	401.00	402.00	401.00	403.00	403.00	399.00	400.00	402.00	402.00	400.00	397.00	396.00	400.00	399.00	401.00	402.00	399.00	387.00	394.00	395.00	398.00	395.00	397.00	393.00	391.00	391.00	393.00	391.00	388.00	386.00	387.00	387.00	390.00	393.00	393.00	392.00	388.00	386.00	384.00	387.00	386.00	388.00	383.00	383.00	384.00	387.00	385.00	385.00	383.00	387.00	383.00	382.00	385.00	385.00	386.00	386.00	383.00	382.00	384.00	386.00	379.00	380.00	384.00	383.00	385.00	381.00	380.00	380.00	381.00	387.00	380.00	384.00	378.00	383.00	384.00	382.00	379.00	378.00	380.00	391.00	388.00	385.00	387.00	381.00	383.00	387.00	389.00	390.00	384.00	385.00	384.00	386.00	389.00	389.00	382.00	380.00	390.00	383.00	382.00	388.00	387.00	386.00	387.00	387.00	383.00	384.00	387.00	388.00	386.00	386.00	390.00	387.00	386.00	386.00	384.00	387.00	383.00	386.00	387.00	392.00	388.00	385.00	384.00	391.00	394.00
622.00	621.00	600.00	592.00	585.00	585.00	588.00	581.00	581.00	582.00	577.00	583.00	579.00	582.00	580.00	585.00	596.00	588.00	576.00	578.00	562.00	560.00	551.00	562.00	565.00	553.00	535.00	552.00	551.00	533.00	516.00	555.00	536.00	511.00	532.00	527.00	528.00	532.00	506.00	496.00	525.00	510.00	496.00	487.00	501.00	485.00	475.00	477.00	502.00	492.00	469.00	476.00	502.00	493.00	487.00	476.00	501.00	487.00	488.00	488.00	474.00	473.00	483.00	470.00	471.00	474.00	473.00	464.00	466.00	463.00	462.00	458.00	457.00	457.00	456.00	454.00	452.00	455.00	453.00	452.00	451.00	449.00	446.00	445.00	444.00	446.00	442.00	438.00	439.00	435.00	433.00	435.00	437.00	440.00	437.00	433.00	434.00	433.00	437.00	437.00	438.00	436.00	436.00	439.00	435.00	432.00	432.00	428.00	428.00	431.00	424.00	427.00	423.00	419.00	420.00	418.00	417.00	413.00	412.00	413.00	408.00	406.00	412.00	411.00	408.00	407.00	410.00	407.00	405.00	405.00	403.00	400.00	398.00	403.00	397.00	401.00	401.00	401.00	402.00	396.00	396.00	397.00	397.00	399.00	394.00	394.00	397.00	398.00	395.00	388.00	389.00	391.00	390.00	391.00	390.00	389.00	389.00	391.00	389.00	388.00	385.00	387.00	385.00	383.00	384.00	389.00	389.00	391.00	391.00	389.00	385.00	386.00	386.00	383.00	384.00	385.00	385.00	385.00	383.00	381.00	383.00	381.00	378.00	381.00	383.00	386.00	385.00	382.00	380.00	386.00	386.00	382.00	382.00	382.00	381.00	388.00	390.00	382.00	382.00	382.00	384.00	378.00	392.00	385.00	387.00	380.00	388.00	381.00	380.00	386.00	385.00	385.00	387.00	383.00	387.00	387.00	389.00	393.00	390.00	388.00	382.00	384.00	382.00	386.00	384.00	390.00	387.00	385.00	385.00	383.00	379.00	383.00	388.00	386.00	383.00	382.00	382.00	389.00	389.00	386.00	385.00	383.00	383.00	384.00	384.00	385.00	385.00	385.00	386.00	384.00	383.00	386.00	384.00	385.00	386.00	386.00
623.00	616.00	601.00	599.00	592.00	595.00	592.00	594.00	593.00	593.00	586.00	586.00	579.00	590.00	592.00	593.00	595.00	585.00	576.00	570.00	564.00	568.00	565.00	555.00	568.00	571.00	552.00	534.00	558.00	550.00	524.00	547.00	549.00	527.00	521.00	527.00	509.00	536.00	517.00	497.00	521.00	497.00	510.00	501.00	482.00	489.00	483.00	481.00	477.00	503.00	482.00	470.00	499.00	496.00	498.00	483.00	491.00	498.00	472.00	484.00	486.00	478.00	482.00	481.00	472.00	471.00	469.00	463.00	464.00	462.00	463.00	458.00	455.00	455.00	457.00	455.00	451.00	453.00	453.00	452.00	450.00	448.00	448.00	445.00	445.00	442.00	441.00	439.00	438.00	435.00	435.00	437.00	436.00	439.00	439.00	441.00	439.00	434.00	437.00	437.00	438.00	434.00	436.00	436.00	432.00	432.00	431.00	430.00	429.00	429.00	426.00	426.00	424.00	422.00	419.00	419.00	418.00	414.00	413.00	412.00	411.00	407.00	409.00	411.00	407.00	407.00	405.00	403.00	403.00	402.00	400.00	403.00	400.00	400.00	399.00	397.00	397.00	400.00	399.00	395.00	395.00	395.00	395.00	396.00	396.00	394.00	396.00	391.00	399.00	387.00	385.00	386.00	388.00	388.00	390.00	390.00	387.00	389.00	388.00	389.00	386.00	388.00	386.00	383.00	385.00	386.00	387.00	389.00	388.00	388.00	385.00	385.00	386.00	382.00	380.00	385.00	386.00	385.00	384.00	383.00	385.00	382.00	377.00	378.00	384.00	382.00	383.00	382.00	379.00	385.00	385.00	383.00	387.00	384.00	376.00	387.00	380.00	383.00	383.00	380.00	380.00	385.00	389.00	381.00	386.00	385.00	381.00	378.00	376.00	387.00	388.00	376.00	378.00	383.00	384.00	382.00	382.00	384.00	388.00	388.00	385.00	377.00	382.00	387.00	384.00	389.00	391.00	390.00	387.00	382.00	379.00	384.00	383.00	383.00	384.00	384.00	382.00	387.00	385.00	384.00	383.00	386.00	383.00	382.00	381.00	383.00	385.00	385.00	383.00	385.00	383.00	387.00	380.00	384.00	384.00	383.00
620.00	616.00	615.00	611.00	605.00	602.00	603.00	601.00	598.00	596.00	589.00	585.00	585.00	595.00	597.00	597.00	594.00	583.00	575.00	576.00	578.00	575.00	573.00	567.00	564.00	585.00	567.00	538.00	551.00	562.00	537.00	520.00	551.00	543.00	510.00	533.00	510.00	513.00	516.00	503.00	520.00	493.00	504.00	514.00	491.00	495.00	501.00	497.00	479.00	499.00	498.00	486.00	476.00	490.00	482.00	489.00	477.00	490.00	486.00	474.00	480.00	483.00	475.00	472.00	472.00	473.00	468.00	466.00	462.00	461.00	461.00	458.00	459.00	457.00	455.00	453.00	451.00	452.00	451.00	450.00	448.00	445.00	445.00	446.00	445.00	444.00	438.00	437.00	437.00	433.00	432.00	433.00	436.00	437.00	442.00	438.00	438.00	437.00	437.00	439.00	436.00	436.00	435.00	436.00	432.00	433.00	431.00	427.00	427.00	428.00	430.00	426.00	423.00	420.00	420.00	416.00	416.00	415.00	412.00	409.00	411.00	407.00	403.00	406.00	406.00	407.00	401.00	401.00	406.00	398.00	400.00	402.00	400.00	397.00	397.00	396.00	396.00	397.00	397.00	393.00	392.00	395.00	397.00	396.00	392.00	393.00	393.00	392.00	394.00	394.00	385.00	382.00	387.00	387.00	389.00	389.00	387.00	387.00	388.00	388.00	388.00	387.00	385.00	384.00	383.00	385.00	384.00	386.00	387.00	387.00	382.00	383.00	385.00	383.00	381.00	382.00	385.00	383.00	383.00	385.00	383.00	382.00	378.00	379.00	382.00	382.00	382.00	380.00	379.00	386.00	380.00	382.00	383.00	381.00	381.00	388.00	383.00	384.00	382.00	384.00	379.00	390.00	390.00	382.00	384.00	383.00	381.00	378.00	383.00	382.00	392.00	378.00	386.00	380.00	383.00	378.00	382.00	384.00	393.00	383.00	387.00	382.00	388.00	387.00	384.00	385.00	385.00	382.00	384.00	379.00	379.00	384.00	383.00	383.00	381.00	384.00	385.00	383.00	382.00	383.00	381.00	382.00	384.00	383.00	384.00	385.00	383.00	386.00	385.00	386.00	383.00	384.00	384.00	386.00	380.00	384.00
627.00	625.00	615.00	609.00	604.00	610.00	611.00	605.00	605.00	609.00	604.00	594.00	594.00	600.00	597.00	594.00	592.00	590.00	579.00	580.00	589.00	586.00	576.00	571.00	566.00	570.00	572.00	536.00	546.00	573.00	552.00	513.00	540.00	545.00	501.00	525.00	525.00	501.00	503.00	512.00	518.00	499.00	493.00	512.00	505.00	499.00	499.00	510.00	497.00	480.00	497.00	498.00	495.00	477.00	482.00	486.00	483.00	477.00	493.00	486.00	470.00	474.00	478.00	475.00	471.00	472.00	467.00	466.00	462.00	461.00	458.00	458.00	459.00	457.00	454.00	455.00	451.00	451.00	451.00	452.00	447.00	446.00	446.00	445.00	445.00	440.00	438.00	440.00	439.00	436.00	435.00	433.00	432.00	436.00	438.00	438.00	438.00	441.00	436.00	434.00	433.00	435.00	437.00	434.00	435.00	434.00	431.00	429.00	428.00	430.00	427.00	428.00	421.00	421.00	422.00	418.00	415.00	413.00	411.00	408.00	407.00	406.00	402.00	403.00	402.00	405.00	402.00	401.00	401.00	402.00	400.00	399.00	402.00	398.00	398.00	396.00	397.00	397.00	397.00	393.00	392.00	394.00	395.00	394.00	393.00	393.00	392.00	392.00	391.00	392.00	389.00	384.00	382.00	384.00	387.00	387.00	389.00	387.00	386.00	387.00	388.00	383.00	383.00	384.00	382.00	384.00	384.00	384.00	385.00	387.00	380.00	383.00	384.00	383.00	383.00	379.00	382.00	381.00	378.00	379.00	381.00	382.00	378.00	378.00	383.00	381.00	386.00	375.00	370.00	395.00	376.00	378.00	381.00	385.00	382.00	380.00	384.00	385.00	379.00	383.00	378.00	389.00	390.00	384.00	382.00	376.00	388.00	384.00	389.00	380.00	394.00	387.00	381.00	380.00	385.00	382.00	381.00	382.00	390.00	381.00	387.00	386.00	382.00	389.00	382.00	383.00	381.00	380.00	382.00	379.00	379.00	384.00	382.00	381.00	380.00	380.00	378.00	385.00	385.00	383.00	379.00	383.00	385.00	381.00	383.00	384.00	384.00	386.00	385.00	383.00	383.00	387.00	386.00	386.00	382.00	386.00
636.00	637.00	624.00	619.00	632.00	635.00	628.00	628.00	628.00	621.00	614.00	611.00	608.00	602.00	600.00	598.00	597.00	595.00	592.00	586.00	600.00	595.00	567.00	556.00	557.00	552.00	560.00	549.00	550.00	553.00	553.00	534.00	512.00	529.00	522.00	496.00	534.00	516.00	497.00	517.00	518.00	500.00	505.00	506.00	518.00	485.00	491.00	502.00	498.00	505.00	502.00	483.00	481.00	504.00	487.00	482.00	490.00	491.00	478.00	481.00	479.00	478.00	473.00	473.00	472.00	468.00	464.00	463.00	462.00	462.00	460.00	457.00	456.00	456.00	455.00	455.00	449.00	448.00	450.00	449.00	448.00	443.00	444.00	441.00	440.00	439.00	435.00	434.00	436.00	435.00	436.00	434.00	436.00	436.00	435.00	438.00	436.00	440.00	433.00	431.00	429.00	430.00	435.00	429.00	433.00	433.00	433.00	427.00	425.00	424.00	424.00	427.00	425.00	425.00	422.00	417.00	415.00	411.00	410.00	409.00	405.00	405.00	404.00	399.00	401.00	398.00	399.00	400.00	399.00	401.00	395.00	396.00	394.00	394.00	397.00	395.00	392.00	392.00	394.00	396.00	394.00	391.00	392.00	392.00	391.00	391.00	391.00	390.00	390.00	389.00	387.00	388.00	381.00	378.00	379.00	382.00	382.00	385.00	386.00	385.00	385.00	384.00	383.00	386.00	385.00	386.00	381.00	382.00	381.00	381.00	383.00	378.00	380.00	386.00	382.00	380.00	378.00	375.00	382.00	378.00	381.00	384.00	383.00	381.00	378.00	380.00	376.00	380.00	377.00	376.00	379.00	382.00	380.00	380.00	374.00	379.00	379.00	388.00	387.00	379.00	379.00	387.00	383.00	377.00	386.00	376.00	381.00	382.00	381.00	377.00	374.00	382.00	379.00	378.00	386.00	385.00	383.00	382.00	385.00	386.00	387.00	379.00	381.00	379.00	378.00	377.00	377.00	382.00	381.00	379.00	380.00	376.00	378.00	376.00	379.00	380.00	378.00	381.00	380.00	383.00	381.00	376.00	378.00	379.00	383.00	383.00	383.00	383.00	383.00	382.00	386.00	387.00	387.00	381.00	378.00	384.00
656.00	654.00	639.00	641.00	648.00	645.00	642.00	638.00	635.00	626.00	618.00	619.00	618.00	611.00	609.00	606.00	603.00	600.00	596.00	592.00	589.00	588.00	573.00	551.00	546.00	545.00	559.00	548.00	548.00	547.00	545.00	545.00	522.00	514.00	542.00	515.00	533.00	528.00	511.00	492.00	527.00	504.00	490.00	505.00	517.00	493.00	482.00	494.00	514.00	488.00	506.00	505.00	484.00	491.00	489.00	481.00	476.00	481.00	486.00	478.00	476.00	475.00	474.00	471.00	471.00	467.00	463.00	463.00	462.00	460.00	458.00	459.00	457.00	455.00	456.00	453.00	447.00	446.00	447.00	447.00	444.00	442.00	442.00	440.00	441.00	440.00	437.00	434.00	436.00	436.00	436.00	435.00	434.00	435.00	434.00	435.00	435.00	438.00	432.00	429.00	431.00	430.00	434.00	428.00	432.00	432.00	434.00	430.00	428.00	424.00	424.00	426.00	422.00	421.00	419.00	415.00	415.00	415.00	409.00	405.00	404.00	402.00	403.00	397.00	397.00	400.00	399.00	399.00	395.00	398.00	398.00	396.00	397.00	394.00	393.00	394.00	392.00	393.00	391.00	393.00	395.00	392.00	391.00	392.00	390.00	389.00	390.00	390.00	388.00	387.00	388.00	386.00	383.00	379.00	376.00	377.00	382.00	383.00	387.00	384.00	384.00	379.00	383.00	386.00	384.00	383.00	383.00	382.00	382.00	381.00	380.00	381.00	379.00	379.00	381.00	379.00	383.00	377.00	382.00	378.00	383.00	382.00	380.00	381.00	376.00	380.00	372.00	379.00	381.00	379.00	376.00	381.00	380.00	379.00	377.00	372.00	381.00	384.00	382.00	383.00	383.00	383.00	386.00	382.00	381.00	378.00	374.00	382.00	380.00	381.00	381.00	382.00	383.00	370.00	387.00	376.00	380.00	382.00	383.00	383.00	382.00	380.00	383.00	383.00	376.00	378.00	379.00	381.00	377.00	383.00	380.00	378.00	375.00	379.00	378.00	378.00	378.00	378.00	380.00	380.00	378.00	380.00	382.00	378.00	379.00	380.00	380.00	380.00	383.00	383.00	385.00	386.00	383.00	378.00	380.00	382.00
659.00	656.00	653.00	651.00	647.00	644.00	642.00	639.00	636.00	626.00	624.00	624.00	621.00	616.00	613.00	611.00	608.00	606.00	603.00	597.00	589.00	582.00	574.00	551.00	546.00	546.00	542.00	561.00	557.00	540.00	526.00	548.00	536.00	511.00	546.00	533.00	518.00	542.00	530.00	500.00	528.00	518.00	491.00	487.00	508.00	491.00	496.00	483.00	504.00	502.00	497.00	496.00	494.00	489.00	491.00	490.00	485.00	478.00	479.00	478.00	477.00	476.00	471.00	470.00	469.00	467.00	466.00	462.00	461.00	459.00	460.00	457.00	456.00	455.00	452.00	451.00	450.00	446.00	444.00	444.00	444.00	442.00	444.00	441.00	437.00	438.00	436.00	438.00	436.00	436.00	435.00	434.00	435.00	434.00	434.00	433.00	434.00	436.00	431.00	428.00	431.00	432.00	431.00	429.00	430.00	430.00	429.00	431.00	427.00	426.00	425.00	425.00	423.00	420.00	419.00	415.00	416.00	412.00	408.00	405.00	403.00	401.00	400.00	401.00	398.00	395.00	395.00	399.00	391.00	392.00	396.00	395.00	393.00	394.00	392.00	394.00	392.00	393.00	391.00	393.00	395.00	393.00	389.00	391.00	390.00	390.00	388.00	390.00	386.00	387.00	390.00	386.00	386.00	380.00	374.00	374.00	378.00	384.00	384.00	382.00	384.00	381.00	381.00	382.00	381.00	380.00	383.00	382.00	381.00	381.00	379.00	381.00	380.00	378.00	382.00	376.00	381.00	378.00	378.00	379.00	381.00	380.00	382.00	380.00	376.00	377.00	376.00	374.00	381.00	380.00	382.00	376.00	376.00	376.00	378.00	371.00	375.00	385.00	372.00	388.00	381.00	379.00	381.00	383.00	385.00	377.00	377.00	382.00	385.00	381.00	383.00	376.00	392.00	377.00	377.00	369.00	375.00	381.00	385.00	387.00	382.00	380.00	384.00	382.00	379.00	381.00	380.00	374.00	377.00	380.00	384.00	379.00	374.00	378.00	375.00	377.00	378.00	378.00	380.00	381.00	380.00	379.00	382.00	379.00	377.00	378.00	383.00	382.00	383.00	382.00	383.00	383.00	380.00	377.00	382.00	386.00
659.00	658.00	656.00	652.00	645.00	644.00	640.00	638.00	635.00	630.00	627.00	624.00	622.00	614.00	611.00	610.00	608.00	607.00	605.00	602.00	591.00	581.00	569.00	558.00	548.00	548.00	546.00	545.00	563.00	555.00	528.00	549.00	538.00	520.00	535.00	531.00	508.00	532.00	536.00	517.00	508.00	525.00	507.00	489.00	491.00	507.00	493.00	488.00	483.00	506.00	507.00	500.00	484.00	486.00	485.00	488.00	486.00	483.00	475.00	477.00	477.00	474.00	472.00	470.00	466.00	465.00	465.00	461.00	460.00	462.00	458.00	455.00	454.00	454.00	451.00	451.00	444.00	446.00	447.00	441.00	440.00	442.00	443.00	442.00	440.00	438.00	436.00	437.00	437.00	435.00	435.00	434.00	433.00	431.00	431.00	432.00	433.00	433.00	429.00	429.00	432.00	432.00	432.00	431.00	429.00	431.00	431.00	433.00	427.00	428.00	426.00	424.00	421.00	417.00	417.00	415.00	412.00	406.00	408.00	404.00	402.00	402.00	401.00	398.00	397.00	393.00	393.00	397.00	393.00	393.00	395.00	393.00	391.00	393.00	391.00	392.00	395.00	394.00	392.00	393.00	394.00	392.00	390.00	390.00	391.00	389.00	389.00	389.00	388.00	385.00	387.00	387.00	389.00	383.00	373.00	371.00	374.00	382.00	384.00	382.00	383.00	380.00	380.00	382.00	380.00	378.00	380.00	383.00	381.00	378.00	380.00	380.00	382.00	381.00	381.00	375.00	376.00	377.00	376.00	376.00	378.00	381.00	381.00	380.00	375.00	373.00	374.00	376.00	378.00	381.00	381.00	375.00	373.00	376.00	376.00	377.00	379.00	385.00	377.00	377.00	379.00	380.00	381.00	384.00	386.00	380.00	379.00	377.00	383.00	379.00	379.00	381.00	381.00	373.00	376.00	375.00	381.00	379.00	378.00	381.00	379.00	379.00	382.00	379.00	378.00	376.00	378.00	376.00	379.00	383.00	381.00	379.00	375.00	379.00	378.00	378.00	377.00	378.00	381.00	381.00	380.00	376.00	380.00	378.00	378.00	378.00	382.00	382.00	382.00	381.00	382.00	382.00	378.00	379.00	383.00	386.00
655.00	655.00	657.00	654.00	645.00	641.00	638.00	635.00	635.00	631.00	628.00	623.00	621.00	612.00	608.00	606.00	605.00	606.00	600.00	599.00	596.00	586.00	564.00	554.00	550.00	548.00	560.00	563.00	540.00	551.00	540.00	547.00	535.00	529.00	536.00	543.00	516.00	505.00	526.00	538.00	506.00	489.00	505.00	516.00	522.00	504.00	513.00	515.00	514.00	484.00	485.00	491.00	499.00	502.00	484.00	486.00	484.00	482.00	475.00	475.00	476.00	473.00	471.00	468.00	467.00	461.00	462.00	455.00	457.00	455.00	457.00	452.00	451.00	452.00	445.00	435.00	432.00	429.00	430.00	430.00	432.00	433.00	438.00	440.00	438.00	436.00	433.00	433.00	434.00	433.00	432.00	434.00	432.00	430.00	428.00	430.00	431.00	432.00	429.00	430.00	432.00	430.00	430.00	428.00	428.00	430.00	430.00	430.00	428.00	427.00	424.00	423.00	415.00	416.00	416.00	414.00	410.00	406.00	403.00	409.00	402.00	397.00	396.00	397.00	396.00	391.00	390.00	393.00	398.00	394.00	388.00	390.00	394.00	391.00	388.00	386.00	391.00	391.00	392.00	389.00	389.00	390.00	391.00	388.00	387.00	387.00	387.00	389.00	387.00	383.00	382.00	385.00	384.00	382.00	375.00	371.00	368.00	379.00	381.00	382.00	377.00	379.00	383.00	382.00	379.00	377.00	375.00	380.00	380.00	379.00	376.00	378.00	377.00	374.00	377.00	377.00	376.00	377.00	376.00	377.00	376.00	380.00	380.00	375.00	376.00	376.00	377.00	375.00	375.00	375.00	376.00	377.00	376.00	373.00	374.00	373.00	379.00	384.00	382.00	378.00	381.00	371.00	384.00	375.00	379.00	381.00	377.00	376.00	375.00	371.00	376.00	382.00	377.00	379.00	372.00	372.00	378.00	376.00	374.00	378.00	382.00	382.00	381.00	377.00	374.00	377.00	376.00	378.00	378.00	376.00	376.00	370.00	374.00	377.00	377.00	375.00	377.00	378.00	377.00	377.00	377.00	379.00	376.00	380.00	379.00	380.00	381.00	382.00	383.00	383.00	383.00	377.00	376.00	379.00	381.00	385.00
661.00	651.00	653.00	650.00	644.00	640.00	636.00	636.00	635.00	631.00	627.00	623.00	619.00	610.00	608.00	606.00	603.00	603.00	596.00	597.00	598.00	591.00	562.00	570.00	553.00	553.00	557.00	565.00	543.00	532.00	535.00	536.00	536.00	538.00	537.00	553.00	527.00	511.00	518.00	526.00	520.00	503.00	490.00	509.00	527.00	486.00	499.00	517.00	522.00	499.00	496.00	488.00	485.00	492.00	484.00	486.00	484.00	485.00	475.00	478.00	476.00	469.00	472.00	466.00	463.00	459.00	460.00	459.00	455.00	454.00	455.00	449.00	447.00	442.00	435.00	432.00	433.00	430.00	430.00	426.00	427.00	425.00	428.00	431.00	434.00	434.00	435.00	433.00	432.00	432.00	433.00	433.00	431.00	430.00	429.00	429.00	428.00	429.00	429.00	429.00	429.00	430.00	427.00	429.00	428.00	431.00	432.00	428.00	428.00	422.00	421.00	420.00	417.00	415.00	413.00	414.00	408.00	403.00	399.00	404.00	403.00	394.00	396.00	396.00	393.00	390.00	390.00	390.00	392.00	388.00	389.00	388.00	390.00	393.00	387.00	387.00	389.00	390.00	389.00	388.00	388.00	389.00	390.00	387.00	386.00	385.00	388.00	386.00	386.00	382.00	382.00	380.00	382.00	383.00	376.00	370.00	367.00	376.00	379.00	382.00	379.00	377.00	380.00	382.00	383.00	377.00	372.00	380.00	381.00	378.00	377.00	376.00	377.00	375.00	376.00	378.00	376.00	376.00	377.00	375.00	376.00	378.00	378.00	377.00	379.00	377.00	378.00	375.00	376.00	375.00	374.00	375.00	375.00	378.00	375.00	374.00	374.00	383.00	380.00	381.00	379.00	373.00	378.00	376.00	379.00	376.00	378.00	375.00	376.00	379.00	372.00	376.00	377.00	381.00	380.00	376.00	377.00	376.00	375.00	377.00	378.00	379.00	378.00	376.00	374.00	375.00	376.00	374.00	377.00	377.00	371.00	374.00	374.00	375.00	376.00	378.00	377.00	377.00	378.00	378.00	377.00	375.00	377.00	376.00	380.00	380.00	382.00	386.00	387.00	382.00	378.00	376.00	376.00	377.00	381.00	385.00
657.00	647.00	642.00	640.00	636.00	639.00	637.00	637.00	636.00	632.00	625.00	622.00	619.00	610.00	606.00	605.00	600.00	598.00	593.00	594.00	593.00	581.00	565.00	581.00	560.00	552.00	563.00	550.00	537.00	529.00	539.00	543.00	541.00	537.00	534.00	541.00	534.00	520.00	513.00	511.00	522.00	522.00	502.00	492.00	521.00	496.00	497.00	507.00	512.00	511.00	505.00	507.00	486.00	482.00	492.00	480.00	483.00	486.00	476.00	479.00	472.00	467.00	467.00	466.00	458.00	457.00	460.00	456.00	456.00	453.00	452.00	438.00	435.00	434.00	434.00	440.00	449.00	447.00	440.00	430.00	428.00	427.00	424.00	421.00	423.00	427.00	434.00	434.00	432.00	433.00	432.00	429.00	430.00	430.00	426.00	427.00	428.00	429.00	425.00	429.00	429.00	428.00	428.00	425.00	427.00	430.00	431.00	425.00	422.00	418.00	417.00	417.00	417.00	414.00	413.00	414.00	408.00	402.00	401.00	398.00	402.00	398.00	395.00	394.00	397.00	389.00	389.00	389.00	390.00	392.00	386.00	385.00	385.00	390.00	386.00	387.00	387.00	389.00	388.00	387.00	387.00	389.00	389.00	386.00	385.00	386.00	385.00	386.00	387.00	384.00	382.00	379.00	379.00	384.00	378.00	373.00	363.00	369.00	376.00	381.00	380.00	375.00	375.00	380.00	383.00	377.00	371.00	374.00	376.00	376.00	373.00	377.00	376.00	375.00	374.00	377.00	374.00	373.00	375.00	373.00	379.00	375.00	376.00	376.00	378.00	377.00	378.00	374.00	374.00	375.00	372.00	376.00	373.00	372.00	373.00	377.00	377.00	379.00	378.00	375.00	377.00	384.00	379.00	378.00	377.00	379.00	377.00	377.00	376.00	377.00	376.00	376.00	376.00	379.00	376.00	379.00	378.00	377.00	376.00	377.00	373.00	376.00	378.00	376.00	376.00	377.00	373.00	375.00	375.00	372.00	374.00	375.00	374.00	376.00	376.00	374.00	375.00	374.00	375.00	374.00	375.00	373.00	374.00	376.00	379.00	381.00	382.00	382.00	377.00	375.00	374.00	375.00	376.00	381.00	386.00	387.00
650.00	650.00	642.00	638.00	634.00	631.00	632.00	636.00	637.00	631.00	626.00	623.00	620.00	611.00	608.00	603.00	603.00	599.00	598.00	593.00	581.00	577.00	582.00	574.00	557.00	547.00	553.00	538.00	539.00	537.00	547.00	549.00	540.00	533.00	524.00	526.00	538.00	522.00	533.00	520.00	530.00	526.00	500.00	493.00	507.00	505.00	503.00	512.00	508.00	516.00	515.00	501.00	496.00	499.00	493.00	471.00	484.00	485.00	478.00	475.00	470.00	469.00	463.00	460.00	459.00	460.00	461.00	450.00	448.00	444.00	437.00	436.00	438.00	444.00	452.00	451.00	447.00	450.00	446.00	443.00	441.00	436.00	432.00	428.00	426.00	421.00	429.00	431.00	431.00	432.00	430.00	431.00	430.00	428.00	425.00	424.00	425.00	426.00	425.00	425.00	427.00	426.00	425.00	425.00	426.00	427.00	429.00	421.00	420.00	417.00	418.00	416.00	413.00	413.00	409.00	410.00	402.00	405.00	402.00	399.00	398.00	400.00	395.00	395.00	394.00	394.00	388.00	383.00	389.00	390.00	386.00	386.00	387.00	389.00	387.00	385.00	384.00	387.00	387.00	387.00	386.00	387.00	388.00	387.00	385.00	386.00	386.00	383.00	385.00	386.00	383.00	379.00	377.00	383.00	377.00	371.00	362.00	362.00	371.00	375.00	379.00	372.00	373.00	376.00	379.00	377.00	373.00	373.00	376.00	376.00	374.00	377.00	375.00	377.00	376.00	377.00	375.00	374.00	375.00	373.00	377.00	378.00	377.00	376.00	376.00	375.00	378.00	372.00	376.00	373.00	371.00	373.00	369.00	369.00	377.00	381.00	372.00	377.00	374.00	375.00	372.00	388.00	378.00	376.00	383.00	381.00	375.00	370.00	371.00	377.00	379.00	376.00	383.00	380.00	375.00	378.00	376.00	377.00	378.00	373.00	376.00	374.00	373.00	376.00	376.00	375.00	375.00	374.00	376.00	372.00	372.00	374.00	376.00	377.00	372.00	376.00	376.00	375.00	373.00	374.00	378.00	376.00	375.00	377.00	377.00	380.00	377.00	376.00	374.00	375.00	373.00	375.00	379.00	387.00	386.00	391.00
679.00	674.00	660.00	650.00	634.00	631.00	627.00	626.00	631.00	632.00	630.00	628.00	625.00	613.00	611.00	609.00	607.00	604.00	608.00	604.00	597.00	592.00	585.00	578.00	572.00	565.00	550.00	556.00	564.00	564.00	562.00	549.00	528.00	534.00	548.00	517.00	527.00	510.00	530.00	517.00	521.00	508.00	511.00	507.00	507.00	518.00	516.00	515.00	518.00	510.00	508.00	505.00	513.00	504.00	490.00	477.00	482.00	475.00	471.00	477.00	464.00	464.00	455.00	448.00	445.00	446.00	445.00	444.00	444.00	443.00	455.00	452.00	457.00	451.00	453.00	454.00	445.00	445.00	447.00	446.00	441.00	441.00	440.00	437.00	436.00	430.00	419.00	419.00	422.00	431.00	428.00	429.00	427.00	424.00	427.00	425.00	424.00	424.00	422.00	421.00	422.00	421.00	425.00	425.00	422.00	423.00	422.00	419.00	416.00	416.00	413.00	412.00	410.00	408.00	407.00	403.00	404.00	396.00	398.00	397.00	396.00	397.00	398.00	390.00	387.00	390.00	388.00	386.00	387.00	385.00	384.00	382.00	383.00	382.00	383.00	383.00	383.00	384.00	387.00	386.00	384.00	385.00	387.00	384.00	381.00	386.00	386.00	384.00	377.00	382.00	385.00	381.00	379.00	376.00	381.00	375.00	373.00	356.00	356.00	359.00	378.00	378.00	366.00	366.00	370.00	374.00	366.00	374.00	377.00	380.00	378.00	376.00	374.00	373.00	373.00	373.00	374.00	374.00	374.00	371.00	373.00	374.00	373.00	377.00	377.00	377.00	376.00	371.00	374.00	378.00	375.00	373.00	375.00	379.00	371.00	379.00	378.00	374.00	372.00	365.00	375.00	375.00	378.00	377.00	379.00	381.00	371.00	373.00	369.00	375.00	378.00	380.00	381.00	377.00	375.00	373.00	372.00	375.00	375.00	372.00	372.00	373.00	372.00	371.00	372.00	373.00	374.00	374.00	373.00	371.00	368.00	370.00	373.00	376.00	372.00	372.00	376.00	375.00	372.00	374.00	374.00	373.00	372.00	382.00	381.00	379.00	374.00	375.00	369.00	373.00	375.00	381.00	387.00	392.00	390.00	391.00
679.00	674.00	660.00	650.00	634.00	631.00	627.00	626.00	631.00	632.00	630.00	628.00	625.00	613.00	611.00	609.00	607.00	604.00	608.00	604.00	597.00	592.00	585.00	578.00	572.00	565.00	550.00	556.00	564.00	564.00	562.00	549.00	528.00	534.00	548.00	517.00	527.00	510.00	530.00	517.00	521.00	508.00	511.00	507.00	507.00	518.00	516.00	515.00	518.00	510.00	508.00	505.00	513.00	504.00	490.00	477.00	482.00	475.00	471.00	477.00	464.00	464.00	455.00	448.00	445.00	446.00	445.00	444.00	444.00	443.00	455.00	452.00	457.00	451.00	453.00	454.00	445.00	445.00	447.00	446.00	441.00	441.00	440.00	437.00	436.00	430.00	419.00	419.00	422.00	431.00	428.00	429.00	427.00	424.00	427.00	425.00	424.00	424.00	422.00	421.00	422.00	421.00	425.00	425.00	422.00	423.00	422.00	419.00	416.00	416.00	413.00	412.00	410.00	408.00	407.00	403.00	404.00	396.00	398.00	397.00	396.00	397.00	398.00	390.00	387.00	390.00	388.00	386.00	387.00	385.00	384.00	382.00	383.00	382.00	383.00	383.00	383.00	384.00	387.00	386.00	384.00	385.00	387.00	384.00	381.00	386.00	386.00	384.00	377.00	382.00	385.00	381.00	379.00	376.00	381.00	375.00	373.00	356.00	356.00	359.00	378.00	378.00	366.00	366.00	370.00	374.00	366.00	374.00	377.00	380.00	378.00	376.00	374.00	373.00	373.00	373.00	374.00	374.00	374.00	371.00	373.00	374.00	373.00	377.00	377.00	377.00	376.00	371.00	374.00	378.00	375.00	373.00	375.00	379.00	371.00	379.00	378.00	374.00	372.00	365.00	375.00	375.00	378.00	377.00	379.00	381.00	371.00	373.00	369.00	375.00	378.00	380.00	381.00	377.00	375.00	373.00	372.00	375.00	375.00	372.00	372.00	373.00	372.00	371.00	372.00	373.00	374.00	374.00	373.00	371.00	368.00	370.00	373.00	376.00	372.00	372.00	376.00	375.00	372.00	374.00	374.00	373.00	372.00	382.00	381.00	379.00	374.00	375.00	369.00	373.00	375.00	381.00	387.00	392.00	390.00	391.00
667.00	680.00	684.00	674.00	632.00	635.00	635.00	623.00	623.00	631.00	627.00	626.00	623.00	613.00	612.00	612.00	607.00	604.00	601.00	596.00	593.00	590.00	583.00	578.00	574.00	571.00	565.00	565.00	568.00	567.00	570.00	547.00	533.00	540.00	561.00	543.00	521.00	516.00	521.00	515.00	509.00	509.00	515.00	516.00	515.00	521.00	520.00	518.00	520.00	513.00	512.00	506.00	500.00	498.00	478.00	489.00	481.00	483.00	468.00	483.00	473.00	460.00	450.00	445.00	449.00	443.00	447.00	454.00	459.00	461.00	462.00	452.00	453.00	454.00	453.00	455.00	446.00	445.00	447.00	447.00	441.00	440.00	440.00	441.00	438.00	436.00	422.00	419.00	415.00	425.00	427.00	426.00	426.00	427.00	427.00	424.00	424.00	423.00	423.00	421.00	419.00	422.00	423.00	423.00	421.00	419.00	420.00	417.00	415.00	412.00	411.00	414.00	408.00	408.00	406.00	403.00	401.00	403.00	395.00	396.00	394.00	394.00	397.00	394.00	388.00	388.00	387.00	384.00	384.00	385.00	383.00	380.00	379.00	381.00	380.00	380.00	382.00	386.00	385.00	386.00	384.00	386.00	385.00	385.00	380.00	382.00	385.00	386.00	376.00	382.00	385.00	383.00	376.00	379.00	374.00	377.00	378.00	358.00	352.00	353.00	373.00	380.00	368.00	363.00	364.00	362.00	371.00	376.00	382.00	389.00	377.00	372.00	373.00	372.00	372.00	371.00	374.00	374.00	376.00	371.00	374.00	376.00	376.00	374.00	376.00	375.00	376.00	374.00	376.00	373.00	373.00	373.00	372.00	376.00	370.00	373.00	373.00	381.00	376.00	369.00	368.00	371.00	375.00	376.00	376.00	379.00	375.00	374.00	371.00	374.00	377.00	377.00	377.00	378.00	376.00	377.00	375.00	373.00	373.00	373.00	372.00	371.00	372.00	370.00	373.00	373.00	372.00	370.00	373.00	368.00	367.00	372.00	373.00	374.00	371.00	376.00	372.00	373.00	375.00	374.00	370.00	373.00	378.00	378.00	378.00	379.00	374.00	367.00	369.00	372.00	374.00	381.00	387.00	392.00	394.00	395.00
623.00	641.00	674.00	676.00	643.00	624.00	626.00	623.00	617.00	628.00	626.00	623.00	621.00	614.00	611.00	608.00	605.00	605.00	596.00	592.00	592.00	587.00	582.00	576.00	574.00	572.00	569.00	567.00	573.00	569.00	570.00	548.00	548.00	543.00	552.00	547.00	518.00	515.00	509.00	508.00	507.00	515.00	527.00	533.00	535.00	528.00	526.00	523.00	523.00	521.00	523.00	518.00	507.00	493.00	476.00	495.00	483.00	480.00	478.00	485.00	463.00	465.00	448.00	460.00	457.00	450.00	460.00	459.00	453.00	462.00	461.00	455.00	452.00	451.00	455.00	454.00	447.00	444.00	449.00	446.00	442.00	440.00	443.00	442.00	438.00	434.00	430.00	423.00	419.00	417.00	422.00	426.00	423.00	426.00	424.00	425.00	421.00	424.00	424.00	421.00	422.00	422.00	423.00	418.00	419.00	418.00	420.00	414.00	413.00	411.00	412.00	410.00	409.00	403.00	405.00	403.00	400.00	399.00	393.00	393.00	393.00	393.00	391.00	388.00	386.00	387.00	389.00	383.00	383.00	389.00	378.00	382.00	379.00	378.00	378.00	381.00	382.00	385.00	387.00	385.00	385.00	383.00	385.00	383.00	377.00	379.00	384.00	389.00	375.00	377.00	386.00	388.00	376.00	378.00	375.00	373.00	375.00	360.00	350.00	350.00	371.00	369.00	374.00	359.00	356.00	369.00	373.00	374.00	378.00	379.00	377.00	376.00	374.00	373.00	373.00	371.00	374.00	374.00	374.00	372.00	374.00	372.00	373.00	373.00	375.00	372.00	374.00	370.00	371.00	371.00	374.00	372.00	375.00	373.00	373.00	372.00	375.00	371.00	374.00	375.00	370.00	368.00	372.00	373.00	372.00	372.00	377.00	375.00	377.00	373.00	376.00	375.00	378.00	380.00	375.00	374.00	377.00	376.00	374.00	372.00	371.00	370.00	369.00	372.00	372.00	372.00	373.00	371.00	371.00	367.00	368.00	370.00	373.00	372.00	371.00	372.00	373.00	376.00	374.00	374.00	371.00	374.00	375.00	377.00	378.00	376.00	367.00	368.00	368.00	368.00	371.00	379.00	388.00	394.00	398.00	400.00
612.00	614.00	622.00	626.00	656.00	659.00	622.00	617.00	615.00	616.00	618.00	617.00	613.00	611.00	608.00	606.00	604.00	603.00	592.00	589.00	586.00	583.00	579.00	573.00	570.00	568.00	566.00	572.00	571.00	566.00	570.00	559.00	557.00	549.00	528.00	529.00	529.00	530.00	523.00	527.00	534.00	537.00	538.00	539.00	540.00	540.00	537.00	533.00	530.00	528.00	524.00	516.00	513.00	516.00	474.00	481.00	484.00	468.00	483.00	465.00	460.00	452.00	473.00	463.00	470.00	475.00	457.00	469.00	456.00	464.00	457.00	464.00	450.00	459.00	454.00	449.00	448.00	445.00	452.00	449.00	448.00	444.00	442.00	441.00	440.00	436.00	435.00	430.00	432.00	419.00	416.00	411.00	412.00	419.00	420.00	424.00	422.00	417.00	421.00	420.00	422.00	421.00	421.00	417.00	415.00	415.00	413.00	412.00	410.00	409.00	409.00	410.00	407.00	403.00	399.00	400.00	397.00	395.00	394.00	393.00	391.00	390.00	390.00	390.00	386.00	384.00	387.00	385.00	382.00	381.00	377.00	381.00	379.00	377.00	377.00	381.00	382.00	383.00	386.00	386.00	381.00	379.00	383.00	383.00	377.00	372.00	374.00	383.00	379.00	366.00	377.00	384.00	374.00	372.00	375.00	374.00	392.00	366.00	354.00	339.00	354.00	350.00	349.00	356.00	368.00	370.00	373.00	371.00	371.00	372.00	375.00	374.00	371.00	373.00	370.00	373.00	373.00	372.00	374.00	371.00	371.00	373.00	376.00	373.00	374.00	371.00	370.00	368.00	370.00	373.00	370.00	375.00	374.00	372.00	368.00	371.00	366.00	374.00	377.00	373.00	369.00	374.00	372.00	371.00	368.00	379.00	371.00	374.00	369.00	375.00	378.00	374.00	373.00	375.00	375.00	373.00	369.00	371.00	371.00	369.00	370.00	371.00	372.00	371.00	372.00	368.00	369.00	367.00	369.00	362.00	367.00	368.00	374.00	375.00	375.00	373.00	373.00	371.00	368.00	371.00	374.00	375.00	375.00	373.00	374.00	372.00	367.00	367.00	368.00	369.00	373.00	382.00	385.00	389.00	399.00	399.00
607.00	609.00	618.00	623.00	641.00	679.00	643.00	619.00	618.00	611.00	611.00	610.00	605.00	610.00	609.00	604.00	602.00	600.00	593.00	588.00	585.00	585.00	581.00	575.00	570.00	568.00	566.00	567.00	564.00	562.00	561.00	550.00	552.00	546.00	528.00	528.00	535.00	535.00	533.00	533.00	535.00	537.00	537.00	535.00	536.00	538.00	537.00	534.00	530.00	529.00	518.00	515.00	513.00	508.00	473.00	483.00	486.00	477.00	466.00	458.00	451.00	457.00	481.00	461.00	475.00	477.00	474.00	477.00	460.00	463.00	463.00	460.00	455.00	459.00	456.00	446.00	452.00	449.00	450.00	448.00	449.00	448.00	448.00	444.00	448.00	439.00	434.00	431.00	431.00	428.00	421.00	416.00	412.00	410.00	420.00	420.00	420.00	418.00	418.00	419.00	420.00	419.00	419.00	414.00	413.00	413.00	413.00	412.00	409.00	406.00	407.00	406.00	403.00	402.00	398.00	400.00	396.00	394.00	391.00	391.00	391.00	390.00	389.00	385.00	386.00	384.00	384.00	381.00	379.00	383.00	379.00	381.00	379.00	372.00	378.00	380.00	383.00	384.00	385.00	383.00	379.00	380.00	384.00	387.00	377.00	367.00	371.00	384.00	384.00	362.00	370.00	381.00	378.00	374.00	370.00	372.00	382.00	367.00	349.00	341.00	341.00	359.00	358.00	369.00	370.00	374.00	371.00	370.00	370.00	372.00	373.00	371.00	371.00	371.00	370.00	372.00	372.00	374.00	374.00	373.00	370.00	375.00	372.00	372.00	371.00	368.00	366.00	363.00	370.00	370.00	374.00	374.00	372.00	376.00	371.00	371.00	368.00	373.00	371.00	369.00	368.00	372.00	370.00	373.00	370.00	378.00	372.00	369.00	371.00	377.00	375.00	374.00	376.00	375.00	372.00	371.00	369.00	371.00	369.00	369.00	367.00	370.00	372.00	370.00	368.00	367.00	368.00	369.00	363.00	365.00	371.00	373.00	375.00	374.00	370.00	372.00	372.00	370.00	370.00	371.00	375.00	377.00	370.00	372.00	368.00	366.00	366.00	365.00	367.00	371.00	378.00	384.00	385.00	388.00	396.00	398.00
607.00	610.00	616.00	622.00	638.00	680.00	670.00	632.00	615.00	612.00	609.00	604.00	602.00	602.00	606.00	603.00	598.00	597.00	591.00	586.00	584.00	585.00	591.00	578.00	570.00	568.00	565.00	564.00	562.00	559.00	553.00	541.00	545.00	545.00	531.00	534.00	537.00	538.00	537.00	536.00	537.00	537.00	537.00	536.00	535.00	536.00	535.00	533.00	530.00	523.00	517.00	512.00	505.00	505.00	469.00	485.00	479.00	478.00	462.00	456.00	454.00	460.00	466.00	469.00	475.00	486.00	474.00	475.00	463.00	456.00	469.00	454.00	461.00	457.00	458.00	451.00	450.00	450.00	454.00	453.00	453.00	454.00	452.00	450.00	449.00	443.00	439.00	436.00	433.00	426.00	426.00	420.00	416.00	410.00	415.00	420.00	419.00	415.00	418.00	419.00	418.00	417.00	415.00	413.00	416.00	414.00	410.00	409.00	410.00	405.00	402.00	402.00	401.00	399.00	397.00	396.00	397.00	390.00	389.00	390.00	390.00	388.00	385.00	384.00	384.00	385.00	383.00	378.00	379.00	386.00	374.00	378.00	380.00	377.00	375.00	380.00	381.00	382.00	387.00	380.00	377.00	376.00	381.00	389.00	375.00	365.00	369.00	379.00	384.00	365.00	369.00	378.00	376.00	375.00	376.00	370.00	369.00	361.00	349.00	343.00	345.00	371.00	370.00	370.00	371.00	371.00	372.00	369.00	370.00	371.00	370.00	368.00	368.00	371.00	371.00	370.00	370.00	374.00	375.00	372.00	369.00	371.00	369.00	372.00	371.00	369.00	364.00	367.00	373.00	369.00	371.00	370.00	374.00	374.00	375.00	369.00	369.00	370.00	367.00	362.00	365.00	369.00	374.00	372.00	369.00	364.00	377.00	372.00	371.00	374.00	372.00	376.00	375.00	372.00	370.00	372.00	368.00	368.00	368.00	369.00	370.00	371.00	371.00	370.00	370.00	369.00	368.00	369.00	363.00	365.00	366.00	369.00	372.00	371.00	372.00	371.00	369.00	372.00	369.00	370.00	374.00	371.00	370.00	370.00	366.00	363.00	365.00	366.00	365.00	370.00	378.00	391.00	395.00	395.00	394.00	398.00
605.00	610.00	615.00	622.00	628.00	648.00	684.00	654.00	623.00	615.00	610.00	605.00	604.00	596.00	598.00	597.00	594.00	592.00	589.00	585.00	583.00	583.00	585.00	574.00	572.00	569.00	566.00	561.00	558.00	557.00	548.00	542.00	544.00	543.00	535.00	539.00	541.00	541.00	540.00	539.00	537.00	537.00	537.00	537.00	533.00	533.00	532.00	531.00	529.00	521.00	518.00	506.00	497.00	502.00	476.00	475.00	488.00	477.00	461.00	465.00	467.00	469.00	466.00	479.00	481.00	493.00	486.00	471.00	463.00	457.00	469.00	453.00	459.00	459.00	451.00	449.00	452.00	457.00	462.00	463.00	461.00	461.00	460.00	453.00	451.00	446.00	444.00	441.00	438.00	431.00	427.00	427.00	422.00	415.00	408.00	411.00	416.00	414.00	419.00	419.00	417.00	414.00	414.00	412.00	412.00	411.00	410.00	408.00	406.00	403.00	404.00	403.00	403.00	398.00	398.00	395.00	395.00	391.00	389.00	387.00	390.00	387.00	383.00	384.00	385.00	382.00	381.00	380.00	377.00	384.00	377.00	375.00	378.00	378.00	373.00	378.00	380.00	383.00	388.00	376.00	373.00	373.00	378.00	392.00	377.00	363.00	363.00	375.00	387.00	367.00	369.00	376.00	373.00	376.00	376.00	372.00	372.00	367.00	349.00	343.00	341.00	358.00	364.00	368.00	369.00	371.00	371.00	367.00	369.00	373.00	370.00	367.00	365.00	370.00	372.00	370.00	368.00	372.00	375.00	371.00	370.00	371.00	374.00	370.00	373.00	365.00	369.00	369.00	370.00	370.00	371.00	373.00	376.00	368.00	372.00	369.00	367.00	369.00	371.00	367.00	368.00	372.00	372.00	368.00	371.00	367.00	371.00	373.00	373.00	373.00	371.00	373.00	371.00	369.00	372.00	370.00	369.00	369.00	368.00	368.00	367.00	368.00	369.00	372.00	369.00	367.00	367.00	368.00	360.00	364.00	367.00	370.00	371.00	371.00	372.00	369.00	368.00	367.00	371.00	373.00	369.00	365.00	369.00	365.00	363.00	366.00	364.00	364.00	364.00	368.00	380.00	394.00	398.00	399.00	397.00	399.00
602.00	605.00	607.00	606.00	607.00	610.00	613.00	635.00	651.00	647.00	636.00	623.00	621.00	593.00	594.00	591.00	590.00	588.00	583.00	582.00	579.00	576.00	574.00	574.00	571.00	569.00	566.00	558.00	556.00	551.00	546.00	544.00	544.00	543.00	543.00	544.00	546.00	545.00	544.00	543.00	537.00	536.00	535.00	533.00	531.00	533.00	533.00	530.00	527.00	524.00	517.00	508.00	507.00	497.00	480.00	473.00	471.00	472.00	492.00	496.00	493.00	491.00	491.00	496.00	497.00	498.00	490.00	481.00	470.00	465.00	469.00	460.00	453.00	450.00	446.00	445.00	475.00	473.00	470.00	467.00	462.00	460.00	458.00	455.00	451.00	446.00	444.00	444.00	442.00	437.00	436.00	429.00	425.00	423.00	415.00	409.00	408.00	406.00	408.00	409.00	413.00	415.00	412.00	411.00	413.00	409.00	408.00	408.00	404.00	401.00	399.00	401.00	397.00	398.00	396.00	391.00	393.00	388.00	387.00	389.00	390.00	386.00	382.00	378.00	377.00	381.00	379.00	376.00	374.00	380.00	380.00	373.00	371.00	372.00	374.00	376.00	375.00	376.00	386.00	377.00	370.00	372.00	375.00	391.00	390.00	375.00	363.00	367.00	379.00	368.00	369.00	375.00	369.00	371.00	367.00	372.00	377.00	367.00	351.00	347.00	338.00	344.00	355.00	364.00	367.00	371.00	369.00	367.00	367.00	368.00	366.00	368.00	370.00	370.00	371.00	369.00	369.00	369.00	371.00	369.00	367.00	370.00	368.00	371.00	366.00	369.00	371.00	371.00	373.00	370.00	371.00	374.00	372.00	370.00	370.00	368.00	369.00	371.00	369.00	365.00	365.00	370.00	371.00	364.00	360.00	368.00	366.00	371.00	369.00	369.00	367.00	369.00	370.00	366.00	367.00	369.00	368.00	365.00	363.00	368.00	368.00	366.00	367.00	366.00	366.00	368.00	368.00	368.00	360.00	364.00	366.00	371.00	375.00	367.00	367.00	367.00	369.00	368.00	365.00	367.00	365.00	363.00	361.00	363.00	361.00	366.00	372.00	370.00	373.00	381.00	386.00	391.00	394.00	398.00	398.00	401.00
601.00	603.00	598.00	593.00	597.00	600.00	601.00	614.00	609.00	606.00	616.00	628.00	632.00	608.00	605.00	598.00	598.00	595.00	586.00	581.00	579.00	577.00	570.00	569.00	568.00	567.00	564.00	556.00	551.00	549.00	547.00	546.00	547.00	547.00	545.00	546.00	548.00	548.00	546.00	544.00	539.00	536.00	534.00	532.00	530.00	532.00	530.00	530.00	527.00	530.00	517.00	498.00	491.00	489.00	476.00	484.00	486.00	493.00	503.00	504.00	504.00	508.00	503.00	502.00	501.00	497.00	489.00	467.00	468.00	473.00	474.00	471.00	466.00	461.00	459.00	461.00	474.00	471.00	469.00	466.00	461.00	458.00	456.00	454.00	452.00	447.00	443.00	442.00	441.00	437.00	434.00	432.00	426.00	425.00	420.00	414.00	408.00	408.00	404.00	403.00	408.00	411.00	412.00	411.00	411.00	410.00	405.00	407.00	405.00	400.00	399.00	401.00	393.00	394.00	393.00	393.00	391.00	389.00	385.00	385.00	388.00	381.00	382.00	381.00	377.00	382.00	381.00	376.00	371.00	374.00	375.00	372.00	368.00	375.00	375.00	370.00	369.00	370.00	385.00	379.00	371.00	368.00	373.00	382.00	386.00	378.00	371.00	365.00	378.00	367.00	363.00	372.00	372.00	369.00	367.00	367.00	376.00	374.00	353.00	346.00	339.00	344.00	357.00	367.00	366.00	370.00	369.00	368.00	368.00	369.00	366.00	364.00	367.00	373.00	370.00	367.00	367.00	367.00	369.00	368.00	367.00	367.00	369.00	369.00	365.00	369.00	370.00	371.00	368.00	369.00	371.00	369.00	367.00	368.00	370.00	368.00	374.00	371.00	373.00	366.00	365.00	367.00	373.00	369.00	361.00	370.00	365.00	365.00	367.00	370.00	372.00	371.00	370.00	366.00	369.00	366.00	365.00	364.00	365.00	367.00	367.00	366.00	367.00	365.00	366.00	367.00	366.00	367.00	358.00	364.00	367.00	369.00	373.00	370.00	370.00	371.00	368.00	362.00	364.00	367.00	367.00	364.00	360.00	358.00	365.00	370.00	374.00	372.00	376.00	381.00	384.00	389.00	392.00	397.00	395.00	404.00
590.00	592.00	588.00	580.00	585.00	584.00	594.00	603.00	600.00	583.00	582.00	580.00	580.00	576.00	592.00	608.00	604.00	599.00	590.00	587.00	580.00	577.00	572.00	565.00	565.00	562.00	560.00	554.00	552.00	552.00	551.00	552.00	552.00	550.00	547.00	548.00	552.00	551.00	551.00	548.00	541.00	538.00	535.00	533.00	531.00	526.00	527.00	528.00	523.00	524.00	514.00	501.00	485.00	479.00	493.00	502.00	502.00	503.00	503.00	503.00	505.00	510.00	504.00	503.00	500.00	493.00	486.00	470.00	471.00	477.00	481.00	480.00	478.00	478.00	477.00	476.00	473.00	470.00	467.00	465.00	460.00	458.00	454.00	451.00	450.00	444.00	442.00	438.00	438.00	435.00	433.00	427.00	424.00	424.00	419.00	419.00	419.00	410.00	401.00	400.00	405.00	410.00	408.00	408.00	408.00	411.00	409.00	405.00	403.00	399.00	396.00	397.00	395.00	393.00	393.00	392.00	390.00	387.00	387.00	385.00	382.00	383.00	384.00	381.00	378.00	380.00	381.00	374.00	373.00	375.00	374.00	367.00	366.00	377.00	378.00	368.00	363.00	366.00	379.00	389.00	376.00	367.00	372.00	380.00	381.00	377.00	373.00	366.00	376.00	368.00	364.00	368.00	373.00	371.00	367.00	364.00	371.00	372.00	355.00	347.00	340.00	348.00	358.00	363.00	364.00	368.00	368.00	369.00	368.00	368.00	365.00	365.00	369.00	368.00	370.00	369.00	367.00	369.00	369.00	370.00	366.00	367.00	368.00	367.00	368.00	366.00	366.00	370.00	368.00	367.00	370.00	369.00	366.00	368.00	371.00	369.00	373.00	369.00	375.00	364.00	365.00	365.00	370.00	370.00	368.00	368.00	366.00	365.00	368.00	366.00	369.00	367.00	368.00	370.00	368.00	363.00	364.00	365.00	363.00	366.00	366.00	366.00	365.00	367.00	368.00	366.00	365.00	366.00	356.00	366.00	369.00	369.00	372.00	368.00	366.00	366.00	364.00	364.00	362.00	362.00	363.00	361.00	359.00	361.00	366.00	368.00	369.00	371.00	375.00	381.00	383.00	385.00	389.00	394.00	396.00	404.00
578.00	576.00	574.00	567.00	573.00	579.00	593.00	599.00	592.00	573.00	574.00	571.00	566.00	561.00	562.00	577.00	605.00	601.00	594.00	588.00	586.00	584.00	575.00	569.00	565.00	562.00	561.00	557.00	555.00	556.00	558.00	557.00	557.00	556.00	552.00	555.00	557.00	556.00	553.00	549.00	542.00	538.00	535.00	533.00	532.00	530.00	526.00	524.00	520.00	518.00	504.00	492.00	492.00	486.00	504.00	505.00	504.00	504.00	503.00	503.00	503.00	502.00	504.00	504.00	501.00	492.00	489.00	477.00	478.00	482.00	484.00	484.00	485.00	485.00	484.00	483.00	470.00	468.00	465.00	463.00	460.00	458.00	457.00	453.00	450.00	444.00	440.00	438.00	437.00	436.00	432.00	429.00	425.00	422.00	420.00	417.00	417.00	411.00	400.00	402.00	403.00	407.00	409.00	405.00	408.00	409.00	409.00	401.00	405.00	400.00	394.00	393.00	397.00	392.00	393.00	390.00	389.00	384.00	384.00	386.00	383.00	379.00	382.00	381.00	374.00	379.00	383.00	375.00	370.00	380.00	374.00	365.00	363.00	378.00	382.00	370.00	362.00	362.00	369.00	395.00	384.00	371.00	368.00	374.00	375.00	380.00	375.00	368.00	372.00	370.00	365.00	365.00	372.00	370.00	366.00	368.00	364.00	361.00	360.00	348.00	341.00	344.00	355.00	362.00	363.00	366.00	368.00	370.00	368.00	369.00	365.00	370.00	366.00	368.00	369.00	368.00	367.00	368.00	367.00	367.00	370.00	367.00	367.00	371.00	369.00	370.00	372.00	372.00	372.00	369.00	368.00	370.00	366.00	372.00	368.00	370.00	369.00	372.00	370.00	364.00	363.00	367.00	365.00	372.00	373.00	369.00	370.00	369.00	367.00	365.00	366.00	366.00	368.00	366.00	367.00	363.00	366.00	363.00	364.00	364.00	363.00	366.00	364.00	364.00	369.00	367.00	366.00	363.00	361.00	364.00	365.00	366.00	367.00	365.00	364.00	364.00	362.00	361.00	363.00	361.00	360.00	358.00	365.00	360.00	362.00	364.00	370.00	374.00	375.00	379.00	383.00	386.00	388.00	390.00	399.00	401.00
570.00	568.00	560.00	554.00	566.00	573.00	587.00	588.00	584.00	567.00	561.00	558.00	555.00	546.00	546.00	546.00	560.00	557.00	570.00	588.00	590.00	589.00	581.00	574.00	570.00	567.00	566.00	561.00	560.00	563.00	569.00	566.00	568.00	566.00	560.00	557.00	558.00	557.00	553.00	550.00	542.00	537.00	535.00	533.00	532.00	524.00	521.00	524.00	520.00	513.00	513.00	514.00	513.00	510.00	507.00	507.00	508.00	506.00	505.00	503.00	502.00	502.00	501.00	499.00	498.00	493.00	489.00	488.00	487.00	486.00	484.00	482.00	483.00	482.00	480.00	479.00	470.00	467.00	464.00	463.00	458.00	453.00	451.00	449.00	446.00	442.00	435.00	436.00	436.00	436.00	434.00	432.00	419.00	412.00	422.00	411.00	416.00	414.00	402.00	398.00	399.00	401.00	408.00	401.00	401.00	403.00	402.00	397.00	397.00	395.00	397.00	392.00	392.00	392.00	387.00	386.00	385.00	382.00	388.00	385.00	376.00	377.00	385.00	379.00	368.00	375.00	384.00	375.00	365.00	383.00	376.00	364.00	357.00	360.00	396.00	389.00	370.00	359.00	360.00	397.00	397.00	384.00	371.00	368.00	367.00	369.00	374.00	375.00	365.00	370.00	368.00	365.00	369.00	371.00	366.00	364.00	365.00	364.00	360.00	354.00	343.00	337.00	349.00	361.00	362.00	366.00	366.00	360.00	368.00	365.00	362.00	365.00	367.00	364.00	368.00	371.00	364.00	363.00	369.00	368.00	363.00	360.00	363.00	365.00	364.00	366.00	368.00	369.00	377.00	371.00	358.00	364.00	362.00	370.00	373.00	370.00	366.00	364.00	362.00	364.00	366.00	368.00	367.00	367.00	366.00	368.00	369.00	369.00	367.00	364.00	363.00	364.00	363.00	363.00	366.00	364.00	366.00	363.00	363.00	361.00	363.00	362.00	364.00	365.00	364.00	360.00	366.00	368.00	357.00	356.00	357.00	361.00	364.00	358.00	359.00	357.00	359.00	360.00	357.00	355.00	359.00	366.00	369.00	372.00	370.00	376.00	376.00	377.00	378.00	378.00	380.00	382.00	384.00	389.00	400.00	404.00
565.00	564.00	555.00	551.00	563.00	569.00	583.00	586.00	580.00	566.00	561.00	555.00	551.00	541.00	541.00	542.00	541.00	543.00	546.00	562.00	585.00	586.00	578.00	574.00	570.00	568.00	564.00	562.00	563.00	563.00	567.00	570.00	569.00	567.00	562.00	559.00	555.00	555.00	551.00	547.00	541.00	535.00	533.00	530.00	528.00	522.00	520.00	518.00	518.00	514.00	513.00	512.00	511.00	509.00	507.00	507.00	503.00	503.00	502.00	503.00	501.00	501.00	499.00	498.00	497.00	493.00	491.00	489.00	488.00	487.00	485.00	481.00	481.00	479.00	478.00	477.00	469.00	467.00	464.00	463.00	457.00	454.00	449.00	447.00	445.00	439.00	432.00	433.00	433.00	430.00	433.00	433.00	418.00	409.00	422.00	412.00	414.00	409.00	406.00	400.00	398.00	394.00	401.00	400.00	401.00	404.00	400.00	397.00	394.00	395.00	394.00	393.00	389.00	393.00	386.00	385.00	385.00	382.00	386.00	382.00	372.00	380.00	385.00	380.00	365.00	373.00	386.00	373.00	363.00	379.00	383.00	371.00	360.00	356.00	392.00	394.00	385.00	367.00	360.00	390.00	395.00	389.00	377.00	365.00	365.00	368.00	374.00	373.00	366.00	371.00	369.00	367.00	367.00	367.00	366.00	363.00	363.00	358.00	361.00	355.00	343.00	343.00	358.00	369.00	359.00	366.00	363.00	363.00	363.00	368.00	365.00	365.00	365.00	367.00	363.00	368.00	367.00	361.00	364.00	365.00	363.00	365.00	366.00	364.00	366.00	369.00	372.00	368.00	370.00	370.00	364.00	371.00	367.00	364.00	368.00	368.00	365.00	360.00	362.00	369.00	367.00	365.00	365.00	364.00	366.00	366.00	365.00	366.00	364.00	364.00	362.00	365.00	364.00	363.00	361.00	363.00	363.00	363.00	360.00	362.00	363.00	360.00	365.00	363.00	364.00	362.00	361.00	363.00	358.00	354.00	360.00	361.00	360.00	361.00	360.00	356.00	354.00	357.00	357.00	354.00	354.00	363.00	367.00	369.00	370.00	375.00	377.00	379.00	379.00	380.00	379.00	382.00	383.00	389.00	401.00	399.00
560.00	559.00	550.00	548.00	558.00	565.00	578.00	587.00	577.00	564.00	559.00	554.00	549.00	538.00	534.00	534.00	535.00	536.00	541.00	547.00	562.00	574.00	569.00	570.00	567.00	568.00	566.00	566.00	569.00	568.00	571.00	570.00	566.00	564.00	557.00	554.00	550.00	549.00	547.00	544.00	536.00	533.00	530.00	526.00	525.00	519.00	518.00	516.00	515.00	514.00	512.00	513.00	511.00	509.00	506.00	503.00	502.00	501.00	500.00	500.00	499.00	499.00	498.00	496.00	495.00	492.00	491.00	488.00	487.00	486.00	485.00	481.00	480.00	478.00	476.00	474.00	468.00	466.00	465.00	461.00	454.00	452.00	450.00	447.00	446.00	441.00	437.00	437.00	434.00	424.00	423.00	429.00	419.00	406.00	422.00	411.00	411.00	411.00	407.00	398.00	396.00	395.00	398.00	401.00	401.00	406.00	400.00	398.00	393.00	392.00	394.00	393.00	390.00	389.00	383.00	385.00	382.00	382.00	383.00	380.00	368.00	382.00	380.00	376.00	366.00	368.00	383.00	375.00	360.00	372.00	385.00	372.00	367.00	356.00	373.00	393.00	392.00	380.00	364.00	374.00	387.00	390.00	384.00	369.00	362.00	364.00	368.00	371.00	367.00	370.00	367.00	367.00	366.00	365.00	367.00	362.00	359.00	360.00	362.00	348.00	341.00	342.00	359.00	368.00	364.00	362.00	365.00	362.00	365.00	365.00	365.00	367.00	365.00	365.00	360.00	364.00	373.00	363.00	360.00	368.00	367.00	369.00	368.00	364.00	365.00	366.00	365.00	369.00	364.00	362.00	366.00	364.00	362.00	364.00	368.00	372.00	367.00	361.00	358.00	357.00	361.00	367.00	367.00	367.00	363.00	363.00	362.00	362.00	362.00	362.00	363.00	363.00	363.00	361.00	362.00	361.00	360.00	362.00	362.00	362.00	361.00	359.00	364.00	365.00	362.00	359.00	358.00	361.00	359.00	355.00	357.00	359.00	359.00	358.00	357.00	355.00	354.00	353.00	356.00	358.00	358.00	357.00	359.00	369.00	368.00	375.00	381.00	381.00	380.00	382.00	383.00	381.00	384.00	389.00	400.00	399.00
556.00	554.00	545.00	544.00	553.00	559.00	571.00	581.00	572.00	560.00	555.00	550.00	545.00	532.00	529.00	528.00	530.00	532.00	538.00	544.00	558.00	562.00	558.00	560.00	563.00	565.00	566.00	568.00	574.00	570.00	573.00	570.00	562.00	559.00	552.00	548.00	546.00	544.00	543.00	540.00	534.00	531.00	527.00	524.00	522.00	521.00	518.00	518.00	516.00	515.00	514.00	514.00	513.00	511.00	504.00	504.00	504.00	502.00	499.00	499.00	499.00	497.00	496.00	495.00	493.00	491.00	490.00	487.00	486.00	485.00	483.00	481.00	480.00	479.00	479.00	477.00	471.00	469.00	467.00	462.00	455.00	453.00	449.00	449.00	449.00	440.00	442.00	443.00	431.00	416.00	414.00	424.00	419.00	403.00	421.00	412.00	410.00	404.00	407.00	400.00	399.00	398.00	395.00	400.00	400.00	402.00	399.00	396.00	393.00	392.00	393.00	393.00	388.00	386.00	382.00	386.00	381.00	384.00	385.00	374.00	368.00	378.00	373.00	375.00	368.00	369.00	377.00	374.00	360.00	368.00	389.00	376.00	368.00	360.00	355.00	377.00	392.00	390.00	374.00	364.00	375.00	381.00	379.00	371.00	367.00	363.00	363.00	368.00	370.00	368.00	364.00	363.00	366.00	365.00	366.00	366.00	358.00	362.00	354.00	343.00	342.00	338.00	354.00	365.00	367.00	363.00	365.00	364.00	363.00	364.00	360.00	363.00	363.00	364.00	360.00	366.00	367.00	366.00	362.00	371.00	367.00	367.00	365.00	362.00	362.00	363.00	363.00	363.00	365.00	359.00	365.00	367.00	365.00	365.00	373.00	369.00	364.00	361.00	357.00	360.00	362.00	367.00	367.00	367.00	365.00	364.00	359.00	361.00	360.00	361.00	362.00	362.00	359.00	360.00	360.00	360.00	363.00	360.00	360.00	358.00	360.00	362.00	363.00	362.00	358.00	361.00	360.00	356.00	359.00	354.00	358.00	358.00	357.00	358.00	355.00	353.00	350.00	353.00	354.00	357.00	355.00	352.00	358.00	367.00	372.00	374.00	378.00	383.00	384.00	385.00	383.00	387.00	388.00	388.00	398.00	396.00
551.00	545.00	536.00	536.00	544.00	550.00	556.00	564.00	565.00	555.00	548.00	542.00	537.00	528.00	526.00	522.00	522.00	522.00	530.00	534.00	539.00	544.00	538.00	559.00	570.00	573.00	572.00	571.00	570.00	570.00	570.00	562.00	556.00	551.00	545.00	542.00	539.00	538.00	537.00	534.00	529.00	526.00	526.00	529.00	530.00	527.00	525.00	525.00	524.00	520.00	518.00	515.00	514.00	511.00	504.00	504.00	504.00	503.00	502.00	500.00	499.00	497.00	494.00	494.00	493.00	493.00	491.00	490.00	487.00	486.00	485.00	485.00	484.00	483.00	481.00	479.00	475.00	470.00	465.00	461.00	455.00	453.00	451.00	449.00	445.00	442.00	445.00	451.00	430.00	418.00	410.00	410.00	408.00	407.00	409.00	417.00	415.00	396.00	414.00	409.00	403.00	398.00	394.00	397.00	402.00	397.00	394.00	394.00	391.00	389.00	389.00	390.00	389.00	381.00	378.00	385.00	379.00	378.00	377.00	371.00	365.00	374.00	369.00	373.00	373.00	368.00	378.00	379.00	361.00	355.00	373.00	382.00	379.00	377.00	355.00	356.00	367.00	382.00	386.00	367.00	365.00	363.00	364.00	376.00	378.00	370.00	355.00	353.00	375.00	368.00	367.00	363.00	365.00	367.00	367.00	365.00	364.00	359.00	348.00	342.00	338.00	351.00	365.00	367.00	362.00	360.00	362.00	361.00	360.00	364.00	359.00	361.00	364.00	363.00	361.00	361.00	366.00	359.00	361.00	361.00	364.00	365.00	362.00	363.00	364.00	363.00	365.00	365.00	363.00	363.00	366.00	363.00	364.00	366.00	368.00	367.00	363.00	362.00	364.00	358.00	358.00	360.00	361.00	364.00	363.00	363.00	359.00	358.00	357.00	360.00	359.00	360.00	358.00	356.00	358.00	357.00	360.00	360.00	360.00	358.00	361.00	359.00	358.00	355.00	357.00	358.00	358.00	359.00	352.00	350.00	352.00	354.00	352.00	356.00	354.00	353.00	354.00	354.00	358.00	360.00	363.00	364.00	364.00	369.00	370.00	368.00	380.00	386.00	387.00	387.00	389.00	389.00	390.00	392.00	396.00	396.00
549.00	544.00	529.00	530.00	540.00	546.00	549.00	552.00	565.00	559.00	549.00	542.00	538.00	528.00	525.00	523.00	518.00	518.00	524.00	527.00	530.00	535.00	535.00	551.00	564.00	572.00	573.00	571.00	569.00	568.00	566.00	561.00	555.00	549.00	546.00	545.00	542.00	539.00	536.00	532.00	529.00	530.00	531.00	534.00	534.00	530.00	528.00	526.00	526.00	523.00	520.00	517.00	515.00	512.00	504.00	505.00	504.00	504.00	501.00	501.00	500.00	498.00	497.00	496.00	494.00	492.00	491.00	491.00	489.00	488.00	487.00	489.00	487.00	483.00	481.00	479.00	473.00	470.00	465.00	459.00	454.00	452.00	451.00	448.00	445.00	441.00	434.00	447.00	432.00	420.00	420.00	409.00	405.00	410.00	400.00	413.00	417.00	398.00	408.00	413.00	406.00	400.00	395.00	392.00	401.00	400.00	394.00	395.00	389.00	390.00	387.00	386.00	391.00	379.00	373.00	380.00	384.00	374.00	372.00	370.00	366.00	369.00	369.00	369.00	377.00	361.00	363.00	373.00	378.00	365.00	358.00	368.00	375.00	380.00	366.00	357.00	356.00	367.00	380.00	373.00	369.00	362.00	358.00	370.00	382.00	376.00	354.00	350.00	371.00	373.00	368.00	363.00	359.00	362.00	369.00	368.00	370.00	363.00	352.00	343.00	337.00	357.00	360.00	366.00	360.00	357.00	363.00	362.00	360.00	364.00	360.00	364.00	363.00	363.00	361.00	363.00	362.00	363.00	363.00	361.00	364.00	366.00	367.00	363.00	365.00	366.00	365.00	366.00	359.00	360.00	365.00	365.00	361.00	364.00	364.00	364.00	361.00	361.00	362.00	366.00	359.00	356.00	360.00	361.00	362.00	363.00	360.00	358.00	359.00	359.00	358.00	359.00	358.00	356.00	359.00	361.00	359.00	359.00	359.00	360.00	360.00	358.00	358.00	356.00	357.00	357.00	357.00	356.00	350.00	349.00	351.00	353.00	353.00	356.00	350.00	355.00	353.00	351.00	361.00	365.00	368.00	374.00	374.00	373.00	377.00	376.00	382.00	384.00	386.00	390.00	392.00	394.00	394.00	393.00	394.00	398.00
547.00	542.00	528.00	524.00	536.00	541.00	544.00	553.00	565.00	564.00	555.00	549.00	542.00	526.00	525.00	522.00	518.00	514.00	519.00	520.00	522.00	528.00	535.00	551.00	573.00	576.00	576.00	571.00	568.00	567.00	565.00	560.00	557.00	554.00	552.00	551.00	542.00	537.00	534.00	533.00	534.00	532.00	531.00	535.00	535.00	528.00	528.00	528.00	528.00	527.00	523.00	519.00	515.00	512.00	505.00	505.00	505.00	505.00	502.00	501.00	499.00	499.00	498.00	496.00	495.00	491.00	491.00	489.00	488.00	488.00	488.00	488.00	487.00	482.00	481.00	479.00	470.00	464.00	462.00	459.00	451.00	448.00	448.00	445.00	442.00	434.00	422.00	439.00	434.00	414.00	420.00	412.00	407.00	404.00	399.00	404.00	414.00	402.00	399.00	403.00	408.00	403.00	397.00	390.00	396.00	400.00	394.00	393.00	389.00	388.00	385.00	383.00	388.00	380.00	369.00	376.00	384.00	371.00	367.00	368.00	368.00	362.00	371.00	362.00	377.00	370.00	360.00	359.00	376.00	379.00	361.00	355.00	361.00	375.00	378.00	370.00	357.00	358.00	366.00	378.00	376.00	366.00	355.00	363.00	381.00	380.00	360.00	348.00	364.00	372.00	372.00	368.00	356.00	358.00	363.00	364.00	365.00	365.00	353.00	343.00	344.00	349.00	354.00	361.00	357.00	356.00	360.00	360.00	365.00	357.00	362.00	364.00	364.00	368.00	358.00	359.00	357.00	362.00	366.00	362.00	361.00	362.00	365.00	366.00	363.00	363.00	362.00	364.00	357.00	360.00	365.00	363.00	362.00	361.00	361.00	365.00	363.00	361.00	362.00	362.00	362.00	355.00	359.00	360.00	360.00	358.00	359.00	359.00	359.00	359.00	360.00	357.00	357.00	356.00	359.00	359.00	357.00	358.00	359.00	355.00	356.00	358.00	355.00	356.00	356.00	353.00	355.00	348.00	349.00	345.00	348.00	351.00	350.00	350.00	350.00	353.00	355.00	360.00	363.00	368.00	372.00	374.00	376.00	378.00	380.00	382.00	385.00	387.00	389.00	390.00	396.00	394.00	397.00	397.00	396.00	396.00
540.00	537.00	523.00	523.00	532.00	535.00	537.00	537.00	543.00	557.00	556.00	557.00	554.00	527.00	522.00	519.00	517.00	513.00	509.00	509.00	514.00	519.00	524.00	543.00	547.00	554.00	564.00	567.00	563.00	562.00	562.00	560.00	560.00	560.00	555.00	550.00	541.00	540.00	541.00	539.00	521.00	515.00	515.00	514.00	517.00	515.00	515.00	516.00	519.00	526.00	524.00	521.00	518.00	515.00	508.00	508.00	508.00	507.00	503.00	503.00	501.00	501.00	498.00	496.00	494.00	488.00	486.00	485.00	485.00	485.00	487.00	484.00	482.00	479.00	476.00	472.00	461.00	457.00	453.00	451.00	443.00	441.00	440.00	437.00	436.00	448.00	415.00	424.00	431.00	414.00	414.00	414.00	414.00	405.00	414.00	408.00	400.00	412.00	396.00	393.00	400.00	404.00	398.00	390.00	387.00	390.00	393.00	388.00	386.00	387.00	385.00	379.00	387.00	386.00	374.00	363.00	389.00	370.00	359.00	356.00	362.00	372.00	364.00	363.00	359.00	368.00	383.00	379.00	351.00	371.00	366.00	357.00	367.00	376.00	355.00	358.00	389.00	389.00	368.00	377.00	384.00	374.00	361.00	347.00	365.00	376.00	378.00	365.00	357.00	362.00	369.00	369.00	361.00	358.00	357.00	359.00	365.00	359.00	371.00	350.00	333.00	344.00	342.00	344.00	354.00	352.00	356.00	359.00	360.00	359.00	366.00	355.00	360.00	360.00	364.00	360.00	359.00	360.00	363.00	361.00	359.00	357.00	361.00	361.00	361.00	360.00	359.00	360.00	361.00	362.00	364.00	359.00	358.00	358.00	358.00	361.00	359.00	358.00	359.00	359.00	359.00	358.00	360.00	358.00	355.00	357.00	356.00	356.00	357.00	360.00	355.00	355.00	356.00	355.00	357.00	356.00	355.00	356.00	352.00	354.00	356.00	356.00	354.00	350.00	353.00	349.00	348.00	350.00	345.00	348.00	346.00	347.00	350.00	351.00	350.00	351.00	355.00	365.00	368.00	370.00	373.00	375.00	377.00	384.00	383.00	380.00	385.00	387.00	389.00	392.00	395.00	397.00	397.00	399.00	397.00	398.00
534.00	529.00	521.00	520.00	526.00	527.00	527.00	527.00	528.00	542.00	540.00	537.00	543.00	541.00	536.00	525.00	513.00	509.00	500.00	500.00	504.00	508.00	519.00	535.00	537.00	541.00	540.00	544.00	545.00	548.00	552.00	547.00	548.00	551.00	549.00	549.00	537.00	533.00	531.00	529.00	516.00	510.00	507.00	504.00	504.00	506.00	507.00	511.00	519.00	522.00	519.00	518.00	516.00	513.00	507.00	507.00	505.00	503.00	501.00	501.00	500.00	499.00	496.00	495.00	492.00	487.00	484.00	482.00	482.00	480.00	480.00	478.00	474.00	472.00	467.00	465.00	453.00	455.00	453.00	447.00	446.00	451.00	466.00	448.00	433.00	443.00	423.00	419.00	431.00	412.00	412.00	411.00	421.00	421.00	397.00	409.00	408.00	394.00	392.00	394.00	395.00	404.00	395.00	390.00	389.00	383.00	378.00	383.00	376.00	384.00	389.00	383.00	369.00	380.00	391.00	373.00	365.00	379.00	375.00	379.00	365.00	349.00	374.00	384.00	373.00	366.00	375.00	360.00	363.00	381.00	360.00	351.00	387.00	384.00	344.00	345.00	378.00	401.00	383.00	349.00	377.00	386.00	377.00	342.00	348.00	367.00	373.00	374.00	365.00	362.00	362.00	364.00	362.00	359.00	357.00	360.00	363.00	373.00	350.00	343.00	325.00	321.00	323.00	337.00	351.00	350.00	357.00	357.00	359.00	357.00	357.00	364.00	353.00	356.00	358.00	361.00	360.00	358.00	359.00	360.00	359.00	361.00	361.00	358.00	361.00	358.00	362.00	361.00	359.00	361.00	361.00	358.00	358.00	360.00	360.00	357.00	358.00	356.00	359.00	357.00	360.00	354.00	357.00	355.00	355.00	354.00	355.00	355.00	357.00	356.00	353.00	352.00	354.00	354.00	353.00	351.00	352.00	353.00	355.00	352.00	354.00	353.00	349.00	348.00	345.00	347.00	346.00	346.00	345.00	344.00	345.00	343.00	342.00	353.00	353.00	356.00	359.00	364.00	369.00	371.00	373.00	374.00	379.00	380.00	385.00	386.00	388.00	387.00	389.00	392.00	392.00	395.00	395.00	398.00	402.00	399.00
535.00	528.00	519.00	519.00	524.00	522.00	520.00	522.00	525.00	533.00	532.00	532.00	538.00	541.00	536.00	527.00	514.00	507.00	499.00	494.00	498.00	503.00	515.00	531.00	534.00	536.00	534.00	537.00	536.00	538.00	541.00	538.00	544.00	548.00	547.00	541.00	530.00	523.00	519.00	520.00	513.00	508.00	505.00	503.00	499.00	502.00	505.00	512.00	521.00	511.00	512.00	513.00	512.00	511.00	507.00	506.00	504.00	502.00	498.00	498.00	497.00	496.00	493.00	492.00	490.00	486.00	484.00	480.00	480.00	478.00	474.00	472.00	470.00	466.00	461.00	460.00	456.00	463.00	453.00	449.00	449.00	452.00	467.00	457.00	437.00	441.00	423.00	412.00	422.00	415.00	413.00	410.00	415.00	422.00	397.00	398.00	396.00	392.00	392.00	392.00	393.00	403.00	399.00	389.00	389.00	385.00	377.00	380.00	372.00	373.00	376.00	374.00	366.00	374.00	391.00	390.00	355.00	364.00	388.00	388.00	369.00	344.00	367.00	384.00	373.00	371.00	380.00	363.00	362.00	380.00	353.00	355.00	392.00	385.00	343.00	342.00	358.00	394.00	390.00	341.00	363.00	380.00	381.00	349.00	346.00	362.00	371.00	375.00	365.00	363.00	361.00	362.00	360.00	357.00	354.00	359.00	363.00	369.00	363.00	355.00	329.00	325.00	321.00	329.00	348.00	352.00	361.00	359.00	358.00	359.00	355.00	362.00	359.00	356.00	358.00	359.00	360.00	359.00	358.00	363.00	359.00	359.00	362.00	357.00	359.00	360.00	358.00	358.00	358.00	361.00	361.00	356.00	356.00	360.00	357.00	358.00	356.00	356.00	356.00	354.00	359.00	350.00	354.00	354.00	354.00	352.00	354.00	355.00	355.00	356.00	351.00	350.00	354.00	352.00	352.00	353.00	353.00	352.00	352.00	352.00	351.00	353.00	350.00	348.00	343.00	346.00	341.00	343.00	346.00	344.00	341.00	337.00	342.00	351.00	355.00	358.00	363.00	366.00	368.00	372.00	374.00	376.00	382.00	385.00	383.00	387.00	388.00	390.00	392.00	395.00	393.00	398.00	398.00	401.00	400.00	401.00
536.00	528.00	518.00	516.00	521.00	519.00	515.00	518.00	519.00	525.00	523.00	521.00	532.00	533.00	530.00	524.00	516.00	507.00	495.00	490.00	494.00	499.00	511.00	527.00	532.00	535.00	531.00	532.00	532.00	533.00	533.00	532.00	542.00	546.00	543.00	535.00	524.00	519.00	515.00	512.00	508.00	505.00	502.00	500.00	497.00	498.00	503.00	508.00	509.00	505.00	506.00	509.00	508.00	510.00	504.00	505.00	505.00	500.00	495.00	495.00	494.00	493.00	489.00	489.00	486.00	484.00	483.00	479.00	477.00	476.00	471.00	466.00	465.00	462.00	466.00	470.00	469.00	460.00	453.00	452.00	452.00	451.00	455.00	454.00	439.00	439.00	420.00	420.00	419.00	412.00	408.00	410.00	415.00	417.00	399.00	398.00	395.00	393.00	392.00	390.00	392.00	391.00	399.00	387.00	389.00	389.00	382.00	362.00	360.00	354.00	356.00	358.00	363.00	364.00	382.00	402.00	361.00	351.00	384.00	393.00	374.00	342.00	357.00	385.00	370.00	369.00	378.00	357.00	358.00	390.00	345.00	351.00	395.00	393.00	341.00	337.00	341.00	388.00	389.00	339.00	350.00	370.00	371.00	353.00	349.00	351.00	363.00	369.00	366.00	365.00	360.00	362.00	356.00	358.00	349.00	354.00	360.00	358.00	357.00	346.00	337.00	324.00	323.00	322.00	340.00	350.00	354.00	357.00	361.00	356.00	359.00	353.00	353.00	353.00	357.00	358.00	356.00	358.00	361.00	360.00	357.00	360.00	360.00	358.00	356.00	357.00	355.00	357.00	359.00	360.00	359.00	357.00	357.00	357.00	356.00	356.00	354.00	355.00	354.00	357.00	353.00	351.00	351.00	352.00	351.00	353.00	354.00	357.00	354.00	355.00	349.00	350.00	349.00	350.00	351.00	350.00	350.00	354.00	353.00	352.00	351.00	347.00	346.00	346.00	344.00	344.00	344.00	343.00	344.00	345.00	341.00	339.00	339.00	354.00	355.00	360.00	365.00	369.00	370.00	372.00	374.00	376.00	384.00	382.00	384.00	386.00	386.00	389.00	390.00	392.00	394.00	397.00	396.00	402.00	402.00	401.00
533.00	527.00	519.00	515.00	515.00	513.00	513.00	512.00	513.00	512.00	511.00	517.00	527.00	524.00	523.00	520.00	516.00	507.00	491.00	486.00	488.00	493.00	507.00	525.00	531.00	534.00	529.00	527.00	528.00	528.00	528.00	529.00	537.00	544.00	536.00	532.00	521.00	517.00	512.00	507.00	503.00	501.00	499.00	497.00	495.00	495.00	499.00	501.00	501.00	501.00	502.00	503.00	504.00	506.00	503.00	504.00	504.00	499.00	493.00	492.00	490.00	489.00	487.00	485.00	484.00	484.00	482.00	481.00	478.00	475.00	472.00	468.00	466.00	465.00	476.00	474.00	475.00	467.00	458.00	456.00	456.00	454.00	453.00	445.00	436.00	441.00	409.00	415.00	421.00	412.00	408.00	408.00	416.00	418.00	399.00	399.00	397.00	392.00	391.00	390.00	390.00	387.00	400.00	392.00	389.00	388.00	385.00	364.00	362.00	355.00	350.00	350.00	358.00	360.00	367.00	394.00	374.00	349.00	382.00	385.00	370.00	352.00	363.00	371.00	359.00	378.00	378.00	355.00	350.00	392.00	346.00	340.00	384.00	408.00	354.00	335.00	329.00	374.00	389.00	346.00	347.00	360.00	366.00	357.00	348.00	345.00	354.00	359.00	366.00	367.00	362.00	358.00	361.00	364.00	359.00	349.00	351.00	350.00	337.00	342.00	345.00	326.00	323.00	322.00	340.00	347.00	357.00	359.00	356.00	358.00	353.00	355.00	358.00	358.00	358.00	357.00	357.00	359.00	359.00	358.00	360.00	359.00	358.00	356.00	355.00	356.00	355.00	356.00	357.00	357.00	356.00	354.00	356.00	356.00	356.00	356.00	353.00	353.00	354.00	352.00	355.00	357.00	351.00	349.00	352.00	352.00	353.00	356.00	352.00	350.00	348.00	349.00	354.00	354.00	352.00	351.00	350.00	351.00	352.00	349.00	347.00	344.00	347.00	343.00	345.00	344.00	340.00	341.00	342.00	342.00	339.00	340.00	343.00	355.00	358.00	364.00	365.00	368.00	373.00	373.00	375.00	377.00	380.00	382.00	384.00	389.00	387.00	391.00	391.00	392.00	392.00	395.00	397.00	400.00	404.00	401.00
523.00	521.00	518.00	514.00	508.00	507.00	507.00	506.00	503.00	502.00	506.00	513.00	514.00	504.00	509.00	510.00	503.00	498.00	485.00	480.00	482.00	486.00	506.00	520.00	527.00	529.00	527.00	521.00	522.00	521.00	520.00	515.00	519.00	520.00	522.00	518.00	510.00	508.00	504.00	502.00	497.00	495.00	492.00	492.00	491.00	488.00	489.00	493.00	493.00	493.00	496.00	496.00	497.00	499.00	500.00	499.00	498.00	496.00	492.00	491.00	490.00	490.00	490.00	492.00	493.00	492.00	488.00	490.00	486.00	483.00	481.00	475.00	473.00	477.00	475.00	475.00	475.00	475.00	469.00	464.00	459.00	453.00	448.00	440.00	431.00	438.00	413.00	409.00	421.00	413.00	408.00	407.00	416.00	409.00	401.00	399.00	395.00	399.00	400.00	392.00	389.00	388.00	392.00	407.00	395.00	385.00	383.00	380.00	389.00	387.00	376.00	360.00	346.00	347.00	350.00	360.00	379.00	355.00	370.00	369.00	362.00	365.00	376.00	364.00	348.00	346.00	387.00	372.00	360.00	387.00	350.00	337.00	341.00	377.00	390.00	369.00	342.00	332.00	370.00	356.00	349.00	352.00	361.00	369.00	356.00	346.00	349.00	354.00	352.00	363.00	364.00	366.00	364.00	366.00	365.00	361.00	360.00	362.00	358.00	357.00	332.00	325.00	326.00	328.00	333.00	347.00	352.00	353.00	354.00	358.00	353.00	352.00	355.00	358.00	359.00	358.00	357.00	356.00	353.00	354.00	357.00	359.00	360.00	357.00	356.00	358.00	354.00	354.00	357.00	355.00	355.00	353.00	354.00	354.00	354.00	353.00	351.00	351.00	350.00	351.00	352.00	353.00	352.00	347.00	350.00	350.00	350.00	349.00	347.00	344.00	350.00	350.00	348.00	356.00	357.00	351.00	347.00	348.00	348.00	348.00	342.00	344.00	345.00	343.00	341.00	342.00	340.00	342.00	340.00	338.00	339.00	340.00	344.00	352.00	357.00	360.00	361.00	368.00	369.00	371.00	373.00	377.00	377.00	383.00	385.00	386.00	387.00	393.00	387.00	387.00	391.00	397.00	398.00	402.00	399.00	401.00
522.00	522.00	517.00	515.00	506.00	503.00	504.00	503.00	500.00	499.00	499.00	503.00	507.00	496.00	499.00	499.00	493.00	489.00	482.00	476.00	478.00	484.00	506.00	522.00	527.00	526.00	524.00	518.00	516.00	517.00	516.00	511.00	512.00	514.00	529.00	516.00	509.00	504.00	499.00	499.00	494.00	493.00	488.00	489.00	488.00	487.00	486.00	488.00	490.00	488.00	490.00	492.00	494.00	498.00	497.00	496.00	495.00	495.00	493.00	493.00	494.00	494.00	495.00	495.00	496.00	492.00	491.00	496.00	489.00	485.00	484.00	480.00	478.00	478.00	479.00	476.00	475.00	470.00	464.00	462.00	455.00	449.00	442.00	431.00	423.00	429.00	417.00	413.00	415.00	406.00	407.00	407.00	413.00	406.00	398.00	397.00	404.00	413.00	400.00	392.00	389.00	388.00	395.00	407.00	395.00	386.00	383.00	376.00	391.00	387.00	380.00	377.00	354.00	347.00	349.00	347.00	367.00	366.00	369.00	361.00	354.00	361.00	372.00	359.00	361.00	346.00	347.00	365.00	372.00	393.00	364.00	345.00	337.00	340.00	401.00	389.00	356.00	334.00	348.00	360.00	351.00	349.00	357.00	372.00	361.00	346.00	351.00	354.00	350.00	355.00	359.00	366.00	369.00	368.00	364.00	361.00	359.00	360.00	363.00	356.00	328.00	324.00	330.00	337.00	331.00	345.00	353.00	352.00	355.00	356.00	353.00	350.00	350.00	355.00	357.00	357.00	354.00	355.00	354.00	355.00	358.00	358.00	358.00	357.00	356.00	356.00	353.00	354.00	354.00	355.00	354.00	352.00	354.00	353.00	352.00	352.00	350.00	348.00	351.00	350.00	351.00	351.00	352.00	347.00	345.00	345.00	349.00	348.00	344.00	344.00	351.00	350.00	354.00	352.00	353.00	345.00	347.00	346.00	343.00	341.00	344.00	345.00	345.00	341.00	339.00	341.00	339.00	340.00	336.00	338.00	340.00	344.00	348.00	358.00	359.00	361.00	364.00	368.00	370.00	369.00	369.00	374.00	378.00	380.00	383.00	384.00	386.00	387.00	387.00	386.00	391.00	395.00	398.00	398.00	400.00	402.00
524.00	523.00	518.00	516.00	507.00	503.00	500.00	498.00	497.00	494.00	494.00	494.00	496.00	492.00	492.00	493.00	486.00	483.00	478.00	474.00	476.00	484.00	505.00	521.00	524.00	524.00	523.00	517.00	514.00	511.00	509.00	506.00	506.00	511.00	552.00	536.00	504.00	500.00	495.00	493.00	492.00	490.00	489.00	488.00	485.00	485.00	484.00	485.00	486.00	485.00	486.00	487.00	491.00	495.00	493.00	493.00	493.00	493.00	492.00	490.00	495.00	499.00	494.00	493.00	492.00	493.00	495.00	497.00	490.00	489.00	487.00	483.00	481.00	482.00	478.00	475.00	471.00	466.00	462.00	458.00	448.00	445.00	442.00	439.00	430.00	419.00	416.00	422.00	412.00	406.00	404.00	411.00	409.00	402.00	398.00	402.00	416.00	417.00	394.00	390.00	390.00	387.00	402.00	412.00	391.00	384.00	381.00	371.00	367.00	392.00	381.00	377.00	382.00	359.00	346.00	345.00	350.00	361.00	364.00	360.00	357.00	354.00	361.00	351.00	373.00	361.00	343.00	342.00	356.00	395.00	391.00	371.00	344.00	333.00	393.00	398.00	368.00	343.00	343.00	364.00	348.00	349.00	349.00	372.00	367.00	350.00	353.00	359.00	347.00	347.00	355.00	362.00	369.00	366.00	365.00	362.00	359.00	360.00	365.00	358.00	327.00	325.00	333.00	335.00	330.00	347.00	353.00	353.00	353.00	353.00	352.00	350.00	352.00	354.00	356.00	353.00	358.00	355.00	357.00	355.00	356.00	358.00	355.00	354.00	355.00	354.00	355.00	354.00	355.00	353.00	354.00	353.00	351.00	351.00	351.00	350.00	350.00	349.00	347.00	351.00	348.00	350.00	352.00	347.00	345.00	345.00	345.00	343.00	342.00	346.00	352.00	355.00	352.00	349.00	349.00	347.00	344.00	345.00	344.00	343.00	345.00	345.00	342.00	341.00	339.00	341.00	341.00	341.00	337.00	338.00	340.00	346.00	352.00	358.00	360.00	362.00	363.00	365.00	367.00	369.00	373.00	373.00	376.00	379.00	381.00	384.00	385.00	384.00	387.00	388.00	391.00	395.00	396.00	399.00	398.00	400.00
524.00	523.00	517.00	514.00	507.00	505.00	502.00	498.00	493.00	490.00	491.00	490.00	489.00	486.00	485.00	485.00	483.00	478.00	471.00	471.00	478.00	485.00	508.00	520.00	521.00	521.00	518.00	512.00	511.00	508.00	506.00	505.00	503.00	506.00	521.00	573.00	507.00	500.00	496.00	492.00	490.00	490.00	489.00	486.00	486.00	482.00	481.00	482.00	482.00	482.00	485.00	484.00	485.00	493.00	489.00	488.00	490.00	488.00	482.00	484.00	490.00	493.00	490.00	488.00	487.00	496.00	499.00	497.00	493.00	491.00	490.00	483.00	479.00	478.00	480.00	479.00	465.00	460.00	456.00	454.00	438.00	433.00	437.00	437.00	430.00	422.00	410.00	416.00	412.00	405.00	406.00	407.00	402.00	401.00	400.00	408.00	409.00	423.00	391.00	392.00	387.00	385.00	412.00	401.00	389.00	382.00	381.00	374.00	362.00	388.00	391.00	375.00	388.00	381.00	358.00	346.00	340.00	354.00	355.00	357.00	357.00	355.00	354.00	350.00	369.00	385.00	360.00	343.00	336.00	367.00	399.00	388.00	357.00	333.00	368.00	394.00	378.00	348.00	335.00	372.00	356.00	346.00	347.00	362.00	363.00	356.00	353.00	356.00	347.00	345.00	350.00	358.00	369.00	366.00	364.00	359.00	359.00	358.00	359.00	354.00	324.00	324.00	331.00	334.00	335.00	348.00	354.00	352.00	353.00	351.00	354.00	354.00	351.00	353.00	356.00	354.00	357.00	358.00	357.00	353.00	353.00	354.00	355.00	355.00	354.00	355.00	354.00	353.00	353.00	352.00	353.00	353.00	350.00	350.00	349.00	349.00	347.00	349.00	349.00	348.00	347.00	348.00	349.00	346.00	342.00	345.00	340.00	342.00	345.00	350.00	353.00	349.00	348.00	348.00	347.00	343.00	342.00	342.00	344.00	346.00	342.00	340.00	339.00	341.00	341.00	338.00	338.00	340.00	335.00	337.00	342.00	350.00	355.00	359.00	358.00	361.00	361.00	364.00	365.00	371.00	371.00	373.00	376.00	376.00	378.00	381.00	383.00	382.00	385.00	384.00	388.00	394.00	398.00	401.00	402.00	399.00
517.00	518.00	516.00	515.00	510.00	506.00	504.00	501.00	498.00	491.00	488.00	484.00	478.00	474.00	474.00	476.00	474.00	468.00	467.00	473.00	478.00	484.00	506.00	510.00	512.00	512.00	511.00	504.00	503.00	502.00	502.00	499.00	499.00	500.00	497.00	499.00	546.00	509.00	498.00	491.00	484.00	482.00	485.00	484.00	483.00	479.00	479.00	476.00	476.00	480.00	478.00	477.00	479.00	482.00	482.00	481.00	481.00	481.00	475.00	477.00	480.00	478.00	478.00	480.00	487.00	497.00	503.00	498.00	495.00	491.00	490.00	484.00	483.00	480.00	475.00	469.00	444.00	434.00	430.00	426.00	426.00	430.00	429.00	422.00	418.00	418.00	412.00	411.00	409.00	407.00	405.00	402.00	402.00	403.00	407.00	409.00	424.00	403.00	395.00	392.00	388.00	390.00	416.00	386.00	414.00	392.00	379.00	377.00	373.00	388.00	381.00	370.00	373.00	374.00	372.00	377.00	358.00	341.00	341.00	344.00	364.00	363.00	355.00	349.00	347.00	397.00	396.00	380.00	341.00	336.00	379.00	404.00	386.00	344.00	352.00	387.00	379.00	356.00	337.00	365.00	363.00	358.00	348.00	359.00	358.00	356.00	353.00	355.00	354.00	349.00	349.00	350.00	356.00	359.00	360.00	356.00	355.00	354.00	359.00	354.00	332.00	324.00	326.00	331.00	331.00	348.00	354.00	351.00	351.00	350.00	352.00	353.00	354.00	352.00	353.00	350.00	350.00	353.00	352.00	355.00	354.00	355.00	354.00	352.00	352.00	353.00	351.00	350.00	351.00	352.00	352.00	350.00	348.00	348.00	346.00	346.00	348.00	345.00	346.00	344.00	346.00	347.00	345.00	340.00	341.00	337.00	342.00	348.00	344.00	346.00	344.00	344.00	344.00	347.00	345.00	343.00	341.00	341.00	341.00	342.00	340.00	339.00	336.00	344.00	338.00	337.00	338.00	338.00	334.00	336.00	342.00	350.00	354.00	357.00	356.00	356.00	359.00	360.00	361.00	363.00	372.00	371.00	373.00	372.00	375.00	378.00	380.00	381.00	385.00	386.00	388.00	399.00	396.00	397.00	399.00	399.00
509.00	513.00	516.00	517.00	516.00	510.00	508.00	506.00	503.00	492.00	489.00	486.00	481.00	468.00	471.00	472.00	469.00	464.00	465.00	469.00	475.00	484.00	505.00	505.00	504.00	505.00	503.00	500.00	497.00	500.00	501.00	496.00	497.00	498.00	496.00	493.00	552.00	553.00	527.00	498.00	486.00	482.00	480.00	481.00	481.00	478.00	479.00	476.00	474.00	478.00	476.00	475.00	475.00	478.00	476.00	476.00	477.00	477.00	474.00	471.00	473.00	473.00	475.00	482.00	484.00	496.00	500.00	493.00	488.00	493.00	491.00	482.00	475.00	468.00	460.00	454.00	434.00	429.00	427.00	432.00	438.00	440.00	434.00	424.00	418.00	414.00	411.00	412.00	413.00	407.00	405.00	402.00	402.00	404.00	412.00	414.00	439.00	403.00	397.00	395.00	394.00	389.00	408.00	405.00	410.00	401.00	380.00	375.00	372.00	374.00	372.00	368.00	367.00	367.00	367.00	367.00	367.00	345.00	338.00	336.00	343.00	366.00	357.00	351.00	345.00	370.00	397.00	394.00	360.00	343.00	350.00	393.00	384.00	354.00	339.00	384.00	385.00	367.00	349.00	360.00	360.00	356.00	349.00	355.00	357.00	353.00	351.00	353.00	356.00	352.00	348.00	348.00	353.00	353.00	355.00	354.00	355.00	351.00	351.00	356.00	331.00	324.00	326.00	329.00	335.00	348.00	352.00	351.00	352.00	351.00	349.00	351.00	352.00	353.00	353.00	350.00	352.00	351.00	348.00	353.00	353.00	355.00	354.00	353.00	354.00	351.00	349.00	349.00	350.00	351.00	349.00	350.00	346.00	347.00	346.00	348.00	345.00	346.00	346.00	343.00	345.00	344.00	345.00	339.00	339.00	338.00	345.00	347.00	348.00	345.00	341.00	340.00	344.00	342.00	343.00	340.00	340.00	343.00	343.00	340.00	341.00	337.00	336.00	342.00	335.00	336.00	336.00	335.00	334.00	339.00	342.00	348.00	355.00	355.00	353.00	349.00	351.00	355.00	360.00	361.00	366.00	372.00	370.00	369.00	374.00	374.00	373.00	383.00	385.00	385.00	393.00	394.00	396.00	395.00	396.00	399.00
483.00	497.00	516.00	519.00	523.00	519.00	517.00	514.00	509.00	498.00	492.00	488.00	485.00	465.00	467.00	469.00	465.00	462.00	462.00	467.00	477.00	484.00	503.00	502.00	501.00	500.00	497.00	495.00	493.00	495.00	498.00	493.00	494.00	496.00	495.00	492.00	486.00	505.00	551.00	549.00	491.00	485.00	480.00	478.00	478.00	476.00	476.00	475.00	471.00	478.00	477.00	474.00	473.00	476.00	473.00	472.00	470.00	471.00	470.00	466.00	467.00	470.00	475.00	476.00	481.00	495.00	497.00	489.00	488.00	491.00	488.00	465.00	455.00	449.00	442.00	439.00	430.00	434.00	440.00	446.00	437.00	431.00	431.00	425.00	418.00	413.00	409.00	417.00	416.00	407.00	403.00	400.00	403.00	407.00	415.00	425.00	432.00	404.00	399.00	396.00	396.00	392.00	391.00	410.00	417.00	409.00	390.00	376.00	379.00	377.00	374.00	372.00	366.00	364.00	364.00	364.00	366.00	367.00	348.00	336.00	337.00	371.00	363.00	354.00	348.00	345.00	376.00	398.00	364.00	356.00	344.00	387.00	391.00	366.00	331.00	364.00	376.00	371.00	354.00	356.00	359.00	359.00	348.00	353.00	354.00	352.00	348.00	352.00	356.00	354.00	354.00	352.00	351.00	353.00	352.00	354.00	354.00	350.00	353.00	349.00	337.00	324.00	325.00	330.00	334.00	349.00	354.00	355.00	352.00	349.00	350.00	351.00	353.00	352.00	350.00	351.00	351.00	351.00	348.00	350.00	350.00	351.00	352.00	351.00	351.00	350.00	348.00	346.00	348.00	349.00	348.00	346.00	348.00	346.00	344.00	344.00	345.00	343.00	344.00	342.00	340.00	340.00	342.00	333.00	340.00	344.00	346.00	345.00	341.00	342.00	342.00	342.00	340.00	343.00	342.00	341.00	341.00	340.00	342.00	339.00	338.00	336.00	336.00	338.00	334.00	335.00	334.00	334.00	337.00	342.00	348.00	352.00	352.00	353.00	352.00	344.00	348.00	349.00	352.00	359.00	361.00	368.00	369.00	367.00	371.00	375.00	379.00	383.00	384.00	390.00	395.00	393.00	395.00	397.00	395.00	397.00
457.00	494.00	514.00	517.00	525.00	526.00	523.00	520.00	517.00	508.00	500.00	494.00	486.00	463.00	463.00	466.00	462.00	459.00	464.00	469.00	478.00	486.00	500.00	499.00	498.00	494.00	492.00	484.00	487.00	491.00	495.00	492.00	489.00	492.00	492.00	488.00	482.00	480.00	484.00	526.00	519.00	492.00	484.00	479.00	478.00	472.00	472.00	472.00	470.00	475.00	475.00	474.00	471.00	473.00	470.00	469.00	466.00	467.00	469.00	466.00	462.00	467.00	472.00	475.00	478.00	489.00	494.00	490.00	494.00	492.00	478.00	451.00	443.00	437.00	434.00	432.00	441.00	444.00	447.00	450.00	442.00	431.00	426.00	422.00	418.00	412.00	411.00	422.00	419.00	405.00	400.00	402.00	406.00	414.00	427.00	436.00	416.00	406.00	398.00	397.00	397.00	392.00	391.00	387.00	394.00	406.00	403.00	375.00	380.00	389.00	377.00	373.00	368.00	368.00	366.00	364.00	360.00	364.00	352.00	336.00	335.00	372.00	375.00	355.00	352.00	345.00	354.00	388.00	355.00	363.00	343.00	381.00	391.00	384.00	340.00	343.00	362.00	364.00	358.00	357.00	356.00	357.00	354.00	349.00	353.00	354.00	353.00	351.00	352.00	355.00	358.00	358.00	352.00	349.00	349.00	354.00	353.00	351.00	349.00	354.00	332.00	325.00	325.00	328.00	343.00	349.00	351.00	350.00	351.00	347.00	349.00	352.00	351.00	349.00	348.00	351.00	352.00	354.00	352.00	349.00	347.00	350.00	351.00	348.00	353.00	351.00	350.00	348.00	349.00	349.00	348.00	346.00	345.00	343.00	342.00	343.00	344.00	342.00	341.00	344.00	339.00	335.00	335.00	334.00	340.00	341.00	342.00	342.00	341.00	338.00	342.00	340.00	340.00	338.00	338.00	338.00	341.00	340.00	338.00	340.00	340.00	338.00	339.00	336.00	334.00	333.00	334.00	334.00	335.00	340.00	345.00	347.00	349.00	349.00	346.00	344.00	343.00	341.00	346.00	353.00	357.00	362.00	366.00	368.00	370.00	375.00	380.00	382.00	383.00	390.00	391.00	393.00	395.00	394.00	393.00	394.00
