194.00	205.00	237.00	319.00	308.00	307.00	331.00	270.00	280.00	282.00	292.00	297.00	315.00	313.00	303.00	302.00	314.00	357.00	398.00	347.00	293.00	322.00	262.00	220.00	184.00	121.00	162.00	207.00	284.00	326.00	208.00	167.00	181.00	224.00	298.00	377.00	417.00	330.00	297.00	332.00	353.00	360.00	360.00	369.00	361.00	339.00	338.00	335.00	343.00	349.00	345.00	340.00	328.00	339.00	342.00	336.00	322.00	295.00	264.00	249.00	259.00	244.00	255.00	279.00	276.00	270.00	298.00	322.00	332.00	345.00	412.00	435.00	458.00	465.00	495.00	505.00	481.00	464.00	462.00	494.00	540.00	583.00	609.00	609.00	631.00	563.00	519.00	482.00	430.00	463.00	480.00	502.00	446.00	559.00	644.00	640.00	671.00	776.00	837.00	861.00	822.00	799.00	661.00	610.00	566.00	546.00	562.00	509.00	471.00	487.00	507.00	526.00	469.00	418.00	439.00	420.00	407.00	388.00	373.00	344.00	342.00	332.00	330.00	274.00	244.00	303.00	311.00	297.00	291.00	278.00	295.00	315.00	325.00	343.00	345.00	330.00	310.00	302.00	291.00	321.00	327.00	321.00	316.00	324.00	339.00	314.00	295.00	263.00	219.00	245.00	230.00	310.00	301.00	300.00	316.00	333.00	314.00	328.00	343.00	337.00	351.00	354.00	359.00	351.00	367.00	376.00	369.00	372.00	369.00	362.00	366.00	355.00	354.00	366.00	369.00	376.00	380.00	385.00	288.00	293.00	298.00	297.00	257.00	245.00	261.00	240.00	219.00	161.00	165.00	152.00	161.00	156.00	150.00	143.00	132.00	135.00	161.00	168.00	175.00	193.00	190.00	187.00	184.00	189.00	195.00	203.00	209.00	212.00	220.00	215.00	223.00	221.00	222.00	213.00	223.00	236.00	234.00	229.00	239.00	243.00	234.00	230.00	227.00	228.00	237.00	242.00	228.00	220.00	215.00	208.00	221.00	240.00	259.00	260.00	262.00	259.00	268.00	275.00	276.00	279.00	288.00	319.00	330.00	341.00	356.00	340.00	332.00	328.00	322.00	326.00	321.00	281.00	250.00	230.00	215.00	216.00
249.00	232.00	249.00	272.00	273.00	275.00	282.00	272.00	278.00	284.00	285.00	287.00	303.00	293.00	306.00	328.00	293.00	335.00	363.00	314.00	297.00	288.00	302.00	312.00	288.00	187.00	121.00	123.00	213.00	258.00	246.00	171.00	219.00	298.00	268.00	322.00	407.00	369.00	377.00	370.00	364.00	362.00	353.00	347.00	343.00	322.00	303.00	317.00	319.00	318.00	319.00	311.00	330.00	331.00	325.00	321.00	300.00	244.00	259.00	256.00	234.00	228.00	257.00	278.00	288.00	319.00	356.00	363.00	354.00	364.00	449.00	499.00	510.00	469.00	459.00	468.00	469.00	441.00	446.00	515.00	530.00	532.00	556.00	588.00	605.00	548.00	504.00	467.00	394.00	418.00	448.00	443.00	432.00	520.00	593.00	634.00	682.00	753.00	858.00	842.00	727.00	669.00	661.00	604.00	559.00	557.00	570.00	555.00	505.00	454.00	429.00	469.00	425.00	457.00	446.00	425.00	392.00	376.00	361.00	336.00	304.00	275.00	249.00	214.00	251.00	284.00	308.00	316.00	314.00	301.00	299.00	300.00	310.00	330.00	339.00	329.00	308.00	283.00	305.00	322.00	320.00	311.00	314.00	331.00	323.00	314.00	299.00	253.00	216.00	232.00	238.00	315.00	330.00	336.00	333.00	343.00	337.00	322.00	326.00	335.00	357.00	367.00	373.00	365.00	367.00	379.00	381.00	382.00	364.00	346.00	347.00	336.00	324.00	349.00	335.00	343.00	347.00	367.00	235.00	249.00	273.00	268.00	265.00	216.00	208.00	193.00	183.00	156.00	159.00	149.00	143.00	140.00	135.00	132.00	141.00	160.00	169.00	175.00	179.00	190.00	185.00	177.00	178.00	189.00	194.00	198.00	206.00	216.00	218.00	205.00	208.00	206.00	205.00	213.00	226.00	233.00	231.00	223.00	232.00	246.00	237.00	232.00	232.00	217.00	222.00	236.00	233.00	201.00	200.00	218.00	235.00	254.00	240.00	245.00	259.00	268.00	279.00	293.00	306.00	297.00	305.00	337.00	344.00	358.00	363.00	341.00	323.00	311.00	322.00	335.00	325.00	278.00	254.00	231.00	214.00	214.00
248.00	256.00	286.00	318.00	321.00	324.00	323.00	317.00	300.00	300.00	283.00	281.00	294.00	283.00	298.00	312.00	274.00	310.00	333.00	338.00	301.00	225.00	217.00	230.00	274.00	182.00	141.00	116.00	160.00	216.00	260.00	200.00	267.00	304.00	244.00	255.00	319.00	418.00	416.00	349.00	337.00	341.00	336.00	330.00	322.00	297.00	269.00	280.00	311.00	293.00	294.00	288.00	311.00	308.00	309.00	310.00	301.00	238.00	252.00	233.00	242.00	233.00	250.00	269.00	303.00	317.00	340.00	360.00	384.00	384.00	447.00	469.00	483.00	464.00	429.00	437.00	436.00	432.00	425.00	463.00	479.00	501.00	534.00	583.00	525.00	498.00	468.00	437.00	428.00	428.00	419.00	443.00	476.00	558.00	600.00	667.00	734.00	840.00	879.00	793.00	685.00	616.00	602.00	588.00	534.00	546.00	517.00	542.00	520.00	483.00	460.00	390.00	436.00	467.00	452.00	427.00	404.00	392.00	384.00	355.00	351.00	315.00	279.00	212.00	266.00	281.00	280.00	293.00	305.00	318.00	323.00	319.00	310.00	336.00	335.00	329.00	307.00	295.00	314.00	309.00	310.00	305.00	316.00	331.00	311.00	301.00	292.00	256.00	207.00	223.00	258.00	296.00	326.00	341.00	341.00	350.00	343.00	342.00	336.00	350.00	358.00	360.00	380.00	381.00	373.00	367.00	365.00	369.00	356.00	332.00	324.00	329.00	308.00	330.00	312.00	312.00	317.00	321.00	232.00	215.00	226.00	246.00	252.00	233.00	189.00	157.00	148.00	149.00	136.00	132.00	127.00	134.00	138.00	149.00	162.00	168.00	178.00	176.00	168.00	173.00	169.00	178.00	193.00	193.00	191.00	201.00	210.00	217.00	209.00	195.00	196.00	209.00	218.00	228.00	233.00	230.00	226.00	218.00	222.00	231.00	239.00	244.00	236.00	223.00	211.00	215.00	223.00	207.00	200.00	222.00	242.00	236.00	250.00	262.00	270.00	285.00	296.00	301.00	320.00	320.00	315.00	342.00	358.00	348.00	333.00	326.00	322.00	303.00	300.00	309.00	297.00	263.00	253.00	231.00	215.00	231.00
253.00	283.00	296.00	322.00	317.00	338.00	346.00	336.00	327.00	316.00	287.00	287.00	273.00	293.00	306.00	317.00	257.00	287.00	331.00	376.00	367.00	307.00	256.00	201.00	197.00	243.00	243.00	144.00	144.00	173.00	273.00	242.00	282.00	250.00	225.00	214.00	265.00	382.00	381.00	306.00	321.00	317.00	322.00	317.00	319.00	298.00	258.00	248.00	287.00	290.00	265.00	263.00	270.00	284.00	278.00	290.00	261.00	254.00	235.00	226.00	240.00	266.00	275.00	278.00	289.00	292.00	336.00	361.00	386.00	410.00	426.00	428.00	446.00	433.00	411.00	405.00	406.00	406.00	423.00	506.00	548.00	577.00	586.00	583.00	466.00	431.00	393.00	385.00	468.00	508.00	503.00	514.00	540.00	535.00	627.00	635.00	705.00	811.00	813.00	747.00	697.00	663.00	567.00	537.00	499.00	494.00	461.00	472.00	457.00	433.00	404.00	393.00	437.00	467.00	452.00	396.00	406.00	400.00	391.00	378.00	340.00	302.00	275.00	208.00	264.00	294.00	309.00	305.00	288.00	306.00	317.00	338.00	334.00	340.00	319.00	312.00	298.00	282.00	311.00	306.00	294.00	286.00	317.00	313.00	284.00	271.00	226.00	214.00	210.00	262.00	288.00	312.00	335.00	348.00	345.00	356.00	348.00	366.00	358.00	360.00	381.00	378.00	381.00	371.00	363.00	340.00	351.00	365.00	338.00	342.00	313.00	307.00	301.00	306.00	295.00	290.00	301.00	307.00	246.00	197.00	237.00	262.00	216.00	209.00	186.00	162.00	147.00	129.00	142.00	152.00	149.00	142.00	149.00	153.00	155.00	163.00	168.00	166.00	153.00	158.00	166.00	172.00	176.00	178.00	186.00	198.00	204.00	207.00	209.00	191.00	205.00	216.00	224.00	232.00	232.00	223.00	217.00	223.00	216.00	224.00	216.00	236.00	239.00	227.00	213.00	209.00	218.00	212.00	202.00	214.00	236.00	240.00	259.00	266.00	282.00	290.00	310.00	311.00	334.00	340.00	334.00	361.00	351.00	327.00	309.00	289.00	276.00	280.00	289.00	283.00	271.00	244.00	232.00	221.00	228.00	245.00
261.00	275.00	280.00	320.00	339.00	334.00	315.00	347.00	307.00	283.00	279.00	278.00	296.00	330.00	324.00	308.00	247.00	265.00	293.00	339.00	379.00	350.00	325.00	296.00	270.00	332.00	325.00	231.00	129.00	179.00	326.00	296.00	260.00	245.00	216.00	210.00	231.00	297.00	379.00	285.00	328.00	307.00	317.00	305.00	300.00	271.00	222.00	228.00	261.00	279.00	252.00	236.00	228.00	221.00	235.00	256.00	238.00	305.00	297.00	282.00	295.00	335.00	349.00	341.00	330.00	324.00	316.00	342.00	364.00	381.00	392.00	404.00	403.00	393.00	380.00	381.00	413.00	452.00	486.00	532.00	568.00	560.00	537.00	504.00	457.00	424.00	377.00	410.00	464.00	504.00	551.00	593.00	616.00	612.00	708.00	708.00	721.00	779.00	742.00	694.00	640.00	645.00	589.00	571.00	531.00	459.00	438.00	401.00	387.00	375.00	359.00	418.00	441.00	456.00	462.00	386.00	402.00	435.00	467.00	431.00	346.00	289.00	258.00	200.00	280.00	288.00	293.00	313.00	324.00	306.00	319.00	341.00	370.00	337.00	315.00	299.00	292.00	245.00	306.00	300.00	292.00	270.00	304.00	295.00	271.00	223.00	275.00	266.00	243.00	232.00	280.00	331.00	349.00	358.00	354.00	358.00	368.00	375.00	377.00	375.00	380.00	381.00	370.00	348.00	361.00	338.00	349.00	355.00	328.00	330.00	335.00	324.00	289.00	297.00	269.00	253.00	282.00	281.00	236.00	201.00	212.00	211.00	205.00	164.00	151.00	143.00	125.00	135.00	138.00	137.00	139.00	141.00	143.00	144.00	143.00	148.00	151.00	152.00	159.00	173.00	170.00	165.00	167.00	171.00	180.00	179.00	194.00	190.00	188.00	198.00	214.00	215.00	223.00	221.00	230.00	221.00	219.00	208.00	209.00	211.00	202.00	214.00	212.00	213.00	212.00	209.00	219.00	227.00	196.00	223.00	215.00	249.00	263.00	275.00	283.00	293.00	321.00	325.00	333.00	347.00	350.00	352.00	337.00	309.00	294.00	273.00	269.00	253.00	250.00	248.00	244.00	232.00	232.00	228.00	245.00	261.00
260.00	253.00	293.00	345.00	330.00	297.00	317.00	309.00	309.00	257.00	276.00	258.00	257.00	278.00	280.00	258.00	242.00	256.00	276.00	327.00	391.00	362.00	350.00	336.00	318.00	263.00	259.00	206.00	138.00	217.00	355.00	295.00	223.00	275.00	186.00	208.00	252.00	225.00	285.00	274.00	365.00	339.00	302.00	306.00	278.00	250.00	206.00	187.00	216.00	200.00	234.00	232.00	226.00	280.00	288.00	252.00	250.00	308.00	329.00	345.00	355.00	374.00	396.00	398.00	396.00	404.00	375.00	352.00	349.00	354.00	364.00	369.00	377.00	375.00	374.00	411.00	442.00	458.00	480.00	502.00	499.00	503.00	485.00	476.00	413.00	404.00	369.00	433.00	491.00	528.00	539.00	570.00	635.00	693.00	724.00	737.00	719.00	689.00	686.00	665.00	635.00	589.00	569.00	548.00	558.00	509.00	477.00	444.00	391.00	357.00	344.00	407.00	430.00	448.00	450.00	375.00	387.00	424.00	518.00	524.00	340.00	292.00	260.00	203.00	284.00	304.00	293.00	302.00	315.00	338.00	336.00	337.00	363.00	349.00	318.00	280.00	237.00	278.00	303.00	296.00	275.00	265.00	252.00	286.00	229.00	207.00	298.00	313.00	280.00	229.00	264.00	315.00	341.00	364.00	361.00	372.00	381.00	384.00	375.00	368.00	365.00	371.00	376.00	362.00	332.00	323.00	344.00	350.00	323.00	310.00	319.00	326.00	297.00	294.00	247.00	230.00	258.00	256.00	192.00	180.00	180.00	186.00	158.00	147.00	136.00	126.00	136.00	158.00	150.00	149.00	164.00	151.00	162.00	158.00	153.00	153.00	165.00	175.00	170.00	180.00	181.00	174.00	176.00	174.00	178.00	178.00	183.00	186.00	195.00	197.00	199.00	204.00	212.00	227.00	226.00	221.00	213.00	206.00	197.00	201.00	199.00	206.00	209.00	215.00	211.00	210.00	208.00	219.00	196.00	196.00	218.00	233.00	265.00	279.00	291.00	305.00	325.00	336.00	346.00	352.00	344.00	345.00	324.00	317.00	308.00	271.00	256.00	246.00	240.00	238.00	238.00	243.00	251.00	237.00	255.00	270.00
240.00	266.00	289.00	341.00	319.00	282.00	302.00	296.00	265.00	241.00	247.00	245.00	244.00	255.00	257.00	245.00	239.00	249.00	277.00	332.00	381.00	347.00	334.00	315.00	295.00	210.00	172.00	134.00	160.00	203.00	332.00	234.00	162.00	195.00	132.00	189.00	199.00	198.00	248.00	195.00	280.00	344.00	286.00	286.00	253.00	221.00	171.00	219.00	220.00	239.00	284.00	285.00	263.00	305.00	309.00	293.00	292.00	305.00	327.00	338.00	359.00	384.00	363.00	379.00	386.00	378.00	360.00	351.00	345.00	341.00	341.00	350.00	366.00	358.00	386.00	445.00	458.00	453.00	459.00	452.00	450.00	457.00	434.00	439.00	367.00	370.00	409.00	451.00	564.00	602.00	618.00	674.00	687.00	676.00	637.00	654.00	632.00	617.00	629.00	608.00	601.00	566.00	545.00	510.00	500.00	483.00	427.00	401.00	389.00	385.00	358.00	414.00	430.00	435.00	432.00	366.00	365.00	379.00	438.00	537.00	363.00	304.00	261.00	212.00	264.00	299.00	309.00	312.00	313.00	338.00	355.00	349.00	336.00	353.00	343.00	325.00	233.00	263.00	296.00	286.00	287.00	263.00	242.00	228.00	201.00	226.00	286.00	327.00	302.00	264.00	260.00	331.00	345.00	361.00	371.00	383.00	385.00	382.00	369.00	361.00	348.00	357.00	360.00	365.00	345.00	312.00	337.00	335.00	331.00	293.00	305.00	314.00	295.00	288.00	266.00	205.00	230.00	224.00	208.00	160.00	154.00	159.00	136.00	124.00	132.00	142.00	161.00	174.00	157.00	150.00	164.00	153.00	172.00	163.00	172.00	164.00	179.00	187.00	179.00	182.00	189.00	185.00	186.00	182.00	193.00	191.00	185.00	194.00	204.00	214.00	212.00	220.00	220.00	225.00	237.00	237.00	231.00	220.00	208.00	192.00	195.00	202.00	210.00	221.00	220.00	214.00	212.00	189.00	207.00	217.00	219.00	248.00	267.00	281.00	294.00	307.00	330.00	341.00	346.00	329.00	313.00	331.00	311.00	307.00	311.00	298.00	262.00	249.00	249.00	254.00	251.00	260.00	249.00	237.00	262.00	279.00
231.00	261.00	272.00	298.00	283.00	271.00	263.00	240.00	250.00	266.00	222.00	227.00	232.00	247.00	258.00	234.00	246.00	246.00	278.00	332.00	330.00	268.00	272.00	300.00	323.00	295.00	283.00	264.00	212.00	129.00	120.00	142.00	117.00	135.00	146.00	113.00	142.00	243.00	287.00	155.00	138.00	139.00	175.00	237.00	181.00	180.00	182.00	217.00	311.00	307.00	315.00	323.00	346.00	348.00	343.00	332.00	345.00	359.00	368.00	362.00	344.00	328.00	308.00	315.00	328.00	309.00	334.00	364.00	408.00	457.00	469.00	467.00	466.00	458.00	443.00	399.00	396.00	384.00	368.00	366.00	373.00	367.00	362.00	357.00	373.00	386.00	415.00	471.00	504.00	526.00	561.00	585.00	584.00	546.00	526.00	530.00	506.00	499.00	529.00	523.00	509.00	505.00	505.00	486.00	451.00	429.00	395.00	393.00	377.00	352.00	345.00	363.00	384.00	389.00	396.00	381.00	327.00	356.00	372.00	434.00	543.00	396.00	303.00	248.00	232.00	308.00	313.00	297.00	276.00	335.00	356.00	342.00	324.00	310.00	313.00	343.00	264.00	219.00	267.00	260.00	261.00	233.00	235.00	287.00	273.00	285.00	321.00	338.00	333.00	349.00	311.00	343.00	353.00	369.00	388.00	410.00	423.00	385.00	373.00	356.00	342.00	337.00	331.00	341.00	340.00	307.00	289.00	283.00	302.00	286.00	246.00	231.00	220.00	286.00	257.00	224.00	184.00	173.00	159.00	146.00	133.00	119.00	146.00	161.00	160.00	171.00	171.00	184.00	176.00	158.00	160.00	166.00	168.00	187.00	190.00	192.00	201.00	210.00	206.00	207.00	210.00	210.00	210.00	206.00	206.00	221.00	211.00	215.00	215.00	221.00	222.00	237.00	242.00	236.00	220.00	219.00	217.00	217.00	215.00	206.00	195.00	182.00	191.00	208.00	211.00	206.00	212.00	187.00	199.00	211.00	221.00	243.00	257.00	265.00	282.00	301.00	323.00	313.00	294.00	295.00	297.00	305.00	307.00	293.00	302.00	276.00	283.00	277.00	274.00	276.00	280.00	278.00	267.00	250.00	270.00	279.00
231.00	261.00	272.00	298.00	283.00	271.00	263.00	240.00	250.00	266.00	222.00	227.00	232.00	247.00	258.00	234.00	246.00	246.00	278.00	332.00	330.00	268.00	272.00	300.00	323.00	295.00	283.00	264.00	212.00	129.00	120.00	142.00	117.00	135.00	146.00	113.00	142.00	243.00	287.00	155.00	138.00	139.00	175.00	237.00	181.00	180.00	182.00	217.00	311.00	307.00	315.00	323.00	346.00	348.00	343.00	332.00	345.00	359.00	368.00	362.00	344.00	328.00	308.00	315.00	328.00	309.00	334.00	364.00	408.00	457.00	469.00	467.00	466.00	458.00	443.00	399.00	396.00	384.00	368.00	366.00	373.00	367.00	362.00	357.00	373.00	386.00	415.00	471.00	504.00	526.00	561.00	585.00	584.00	546.00	526.00	530.00	506.00	499.00	529.00	523.00	509.00	505.00	505.00	486.00	451.00	429.00	395.00	393.00	377.00	352.00	345.00	363.00	384.00	389.00	396.00	381.00	327.00	356.00	372.00	434.00	543.00	396.00	303.00	248.00	232.00	308.00	313.00	297.00	276.00	335.00	356.00	342.00	324.00	310.00	313.00	343.00	264.00	219.00	267.00	260.00	261.00	233.00	235.00	287.00	273.00	285.00	321.00	338.00	333.00	349.00	311.00	343.00	353.00	369.00	388.00	410.00	423.00	385.00	373.00	356.00	342.00	337.00	331.00	341.00	340.00	307.00	289.00	283.00	302.00	286.00	246.00	231.00	220.00	286.00	257.00	224.00	184.00	173.00	159.00	146.00	133.00	119.00	146.00	161.00	160.00	171.00	171.00	184.00	176.00	158.00	160.00	166.00	168.00	187.00	190.00	192.00	201.00	210.00	206.00	207.00	210.00	210.00	210.00	206.00	206.00	221.00	211.00	215.00	215.00	221.00	222.00	237.00	242.00	236.00	220.00	219.00	217.00	217.00	215.00	206.00	195.00	182.00	191.00	208.00	211.00	206.00	212.00	187.00	199.00	211.00	221.00	243.00	257.00	265.00	282.00	301.00	323.00	313.00	294.00	295.00	297.00	305.00	307.00	293.00	302.00	276.00	283.00	277.00	274.00	276.00	280.00	278.00	267.00	250.00	270.00	279.00
227.00	251.00	274.00	253.00	260.00	245.00	267.00	220.00	225.00	225.00	239.00	224.00	219.00	219.00	228.00	243.00	299.00	273.00	269.00	299.00	343.00	298.00	303.00	315.00	299.00	288.00	272.00	224.00	202.00	160.00	157.00	182.00	196.00	195.00	188.00	127.00	114.00	159.00	247.00	157.00	171.00	255.00	260.00	172.00	205.00	256.00	261.00	285.00	310.00	310.00	308.00	303.00	332.00	333.00	338.00	343.00	347.00	354.00	361.00	364.00	334.00	285.00	286.00	286.00	299.00	308.00	347.00	365.00	402.00	454.00	500.00	499.00	505.00	444.00	413.00	402.00	369.00	332.00	334.00	340.00	345.00	353.00	340.00	342.00	441.00	444.00	421.00	413.00	447.00	458.00	494.00	522.00	512.00	506.00	501.00	485.00	481.00	454.00	514.00	515.00	470.00	482.00	474.00	461.00	431.00	392.00	425.00	414.00	395.00	362.00	331.00	308.00	353.00	342.00	363.00	379.00	318.00	344.00	347.00	386.00	537.00	401.00	290.00	259.00	197.00	297.00	298.00	252.00	284.00	341.00	354.00	337.00	311.00	291.00	318.00	317.00	256.00	212.00	267.00	250.00	240.00	206.00	305.00	301.00	308.00	296.00	346.00	336.00	364.00	377.00	350.00	364.00	379.00	396.00	411.00	458.00	435.00	384.00	374.00	357.00	350.00	333.00	304.00	337.00	314.00	302.00	276.00	260.00	273.00	277.00	236.00	192.00	242.00	245.00	232.00	235.00	216.00	190.00	143.00	129.00	128.00	152.00	159.00	165.00	170.00	175.00	186.00	191.00	176.00	180.00	171.00	185.00	176.00	177.00	197.00	206.00	199.00	223.00	236.00	229.00	224.00	227.00	222.00	226.00	219.00	237.00	233.00	223.00	227.00	223.00	233.00	245.00	234.00	227.00	214.00	212.00	208.00	204.00	194.00	193.00	188.00	184.00	177.00	195.00	216.00	206.00	193.00	208.00	212.00	214.00	217.00	229.00	263.00	272.00	278.00	287.00	307.00	307.00	296.00	287.00	289.00	295.00	288.00	290.00	303.00	298.00	298.00	292.00	288.00	290.00	297.00	292.00	266.00	268.00	296.00	301.00
253.00	262.00	244.00	209.00	251.00	221.00	247.00	226.00	255.00	250.00	228.00	212.00	210.00	226.00	259.00	307.00	341.00	288.00	268.00	294.00	325.00	330.00	309.00	304.00	287.00	260.00	256.00	260.00	248.00	213.00	221.00	316.00	318.00	244.00	260.00	186.00	125.00	127.00	231.00	150.00	171.00	219.00	260.00	262.00	253.00	265.00	268.00	270.00	272.00	277.00	277.00	285.00	307.00	308.00	309.00	316.00	320.00	324.00	333.00	340.00	327.00	268.00	277.00	290.00	314.00	339.00	380.00	404.00	422.00	434.00	440.00	436.00	439.00	406.00	379.00	337.00	327.00	322.00	355.00	414.00	438.00	455.00	432.00	439.00	502.00	482.00	476.00	496.00	462.00	484.00	486.00	490.00	473.00	458.00	450.00	452.00	453.00	432.00	459.00	462.00	450.00	470.00	464.00	438.00	394.00	371.00	412.00	412.00	406.00	387.00	369.00	306.00	289.00	294.00	325.00	343.00	301.00	334.00	325.00	343.00	499.00	398.00	329.00	267.00	202.00	266.00	281.00	231.00	283.00	349.00	334.00	336.00	307.00	284.00	307.00	287.00	258.00	212.00	247.00	237.00	200.00	243.00	317.00	316.00	329.00	343.00	366.00	352.00	372.00	388.00	383.00	392.00	398.00	391.00	401.00	434.00	445.00	379.00	376.00	350.00	320.00	320.00	292.00	285.00	298.00	272.00	255.00	238.00	252.00	266.00	263.00	190.00	221.00	246.00	210.00	200.00	208.00	181.00	141.00	149.00	147.00	182.00	181.00	174.00	179.00	186.00	194.00	184.00	199.00	190.00	182.00	197.00	188.00	183.00	194.00	208.00	230.00	292.00	315.00	282.00	249.00	245.00	240.00	241.00	245.00	240.00	248.00	247.00	239.00	226.00	237.00	253.00	250.00	239.00	227.00	234.00	225.00	226.00	204.00	195.00	219.00	211.00	189.00	193.00	210.00	205.00	196.00	231.00	241.00	241.00	235.00	234.00	279.00	273.00	285.00	293.00	299.00	306.00	295.00	287.00	283.00	281.00	294.00	306.00	299.00	320.00	323.00	319.00	312.00	315.00	296.00	280.00	266.00	278.00	304.00	323.00
212.00	202.00	169.00	183.00	182.00	214.00	216.00	235.00	228.00	206.00	208.00	204.00	231.00	243.00	257.00	309.00	387.00	348.00	296.00	281.00	281.00	353.00	333.00	319.00	298.00	300.00	274.00	243.00	234.00	192.00	267.00	401.00	360.00	257.00	254.00	282.00	194.00	128.00	138.00	190.00	206.00	224.00	244.00	232.00	206.00	162.00	188.00	187.00	177.00	173.00	179.00	207.00	238.00	254.00	253.00	254.00	286.00	308.00	302.00	289.00	260.00	264.00	319.00	342.00	351.00	356.00	381.00	396.00	408.00	419.00	359.00	337.00	361.00	330.00	301.00	302.00	340.00	411.00	446.00	501.00	556.00	613.00	590.00	564.00	573.00	508.00	481.00	486.00	516.00	543.00	539.00	520.00	499.00	496.00	457.00	436.00	425.00	397.00	384.00	367.00	365.00	373.00	392.00	386.00	380.00	352.00	352.00	354.00	366.00	383.00	387.00	381.00	372.00	345.00	295.00	271.00	299.00	310.00	316.00	269.00	347.00	401.00	445.00	428.00	274.00	216.00	220.00	223.00	264.00	279.00	306.00	265.00	226.00	285.00	277.00	276.00	208.00	198.00	221.00	194.00	245.00	265.00	277.00	314.00	322.00	337.00	375.00	361.00	358.00	372.00	372.00	366.00	368.00	368.00	376.00	399.00	420.00	378.00	360.00	340.00	316.00	286.00	313.00	280.00	226.00	213.00	211.00	238.00	246.00	186.00	164.00	188.00	180.00	177.00	170.00	151.00	146.00	141.00	178.00	184.00	181.00	163.00	204.00	196.00	200.00	202.00	206.00	211.00	211.00	203.00	200.00	219.00	220.00	215.00	213.00	210.00	226.00	245.00	261.00	337.00	301.00	298.00	325.00	298.00	278.00	265.00	263.00	276.00	275.00	261.00	260.00	259.00	258.00	263.00	256.00	241.00	227.00	221.00	221.00	226.00	239.00	240.00	230.00	201.00	179.00	210.00	222.00	225.00	217.00	229.00	239.00	258.00	263.00	277.00	274.00	281.00	293.00	286.00	266.00	270.00	282.00	288.00	298.00	316.00	332.00	349.00	350.00	343.00	318.00	307.00	290.00	300.00	315.00	320.00	333.00	339.00
192.00	181.00	146.00	189.00	196.00	190.00	199.00	244.00	254.00	204.00	206.00	215.00	238.00	242.00	254.00	291.00	405.00	357.00	290.00	270.00	264.00	342.00	342.00	325.00	312.00	306.00	290.00	257.00	243.00	225.00	218.00	292.00	252.00	215.00	180.00	197.00	235.00	169.00	143.00	218.00	224.00	222.00	216.00	204.00	163.00	175.00	247.00	259.00	193.00	225.00	186.00	185.00	212.00	223.00	227.00	252.00	271.00	272.00	259.00	258.00	226.00	272.00	326.00	327.00	332.00	334.00	360.00	378.00	391.00	398.00	371.00	324.00	305.00	309.00	284.00	331.00	370.00	407.00	447.00	575.00	615.00	608.00	573.00	544.00	511.00	457.00	436.00	446.00	503.00	526.00	562.00	525.00	498.00	465.00	478.00	463.00	458.00	452.00	420.00	387.00	348.00	369.00	362.00	374.00	372.00	359.00	329.00	329.00	329.00	341.00	345.00	308.00	293.00	296.00	288.00	271.00	256.00	266.00	294.00	271.00	258.00	371.00	417.00	442.00	383.00	190.00	190.00	242.00	276.00	249.00	253.00	219.00	239.00	271.00	254.00	253.00	216.00	186.00	200.00	213.00	216.00	267.00	290.00	312.00	334.00	350.00	366.00	360.00	353.00	359.00	351.00	357.00	361.00	367.00	372.00	395.00	405.00	392.00	378.00	355.00	301.00	329.00	287.00	247.00	259.00	211.00	224.00	214.00	227.00	165.00	160.00	191.00	171.00	147.00	148.00	167.00	181.00	183.00	199.00	204.00	202.00	200.00	176.00	191.00	201.00	214.00	220.00	217.00	220.00	219.00	215.00	233.00	239.00	240.00	241.00	241.00	230.00	246.00	258.00	282.00	353.00	347.00	329.00	339.00	322.00	290.00	283.00	276.00	269.00	254.00	257.00	251.00	247.00	256.00	259.00	251.00	244.00	244.00	236.00	240.00	254.00	247.00	234.00	197.00	178.00	205.00	217.00	240.00	231.00	237.00	253.00	270.00	258.00	264.00	275.00	287.00	273.00	263.00	265.00	274.00	299.00	302.00	304.00	319.00	341.00	345.00	339.00	343.00	333.00	322.00	321.00	324.00	333.00	342.00	353.00	337.00
192.00	181.00	146.00	189.00	196.00	190.00	199.00	244.00	254.00	204.00	206.00	215.00	238.00	242.00	254.00	291.00	405.00	357.00	290.00	270.00	264.00	342.00	342.00	325.00	312.00	306.00	290.00	257.00	243.00	225.00	218.00	292.00	252.00	215.00	180.00	197.00	235.00	169.00	143.00	218.00	224.00	222.00	216.00	204.00	163.00	175.00	247.00	259.00	193.00	225.00	186.00	185.00	212.00	223.00	227.00	252.00	271.00	272.00	259.00	258.00	226.00	272.00	326.00	327.00	332.00	334.00	360.00	378.00	391.00	398.00	371.00	324.00	305.00	309.00	284.00	331.00	370.00	407.00	447.00	575.00	615.00	608.00	573.00	544.00	511.00	457.00	436.00	446.00	503.00	526.00	562.00	525.00	498.00	465.00	478.00	463.00	458.00	452.00	420.00	387.00	348.00	369.00	362.00	374.00	372.00	359.00	329.00	329.00	329.00	341.00	345.00	308.00	293.00	296.00	288.00	271.00	256.00	266.00	294.00	271.00	258.00	371.00	417.00	442.00	383.00	190.00	190.00	242.00	276.00	249.00	253.00	219.00	239.00	271.00	254.00	253.00	216.00	186.00	200.00	213.00	216.00	267.00	290.00	312.00	334.00	350.00	366.00	360.00	353.00	359.00	351.00	357.00	361.00	367.00	372.00	395.00	405.00	392.00	378.00	355.00	301.00	329.00	287.00	247.00	259.00	211.00	224.00	214.00	227.00	165.00	160.00	191.00	171.00	147.00	148.00	167.00	181.00	183.00	199.00	204.00	202.00	200.00	176.00	191.00	201.00	214.00	220.00	217.00	220.00	219.00	215.00	233.00	239.00	240.00	241.00	241.00	230.00	246.00	258.00	282.00	353.00	347.00	329.00	339.00	322.00	290.00	283.00	276.00	269.00	254.00	257.00	251.00	247.00	256.00	259.00	251.00	244.00	244.00	236.00	240.00	254.00	247.00	234.00	197.00	178.00	205.00	217.00	240.00	231.00	237.00	253.00	270.00	258.00	264.00	275.00	287.00	273.00	263.00	265.00	274.00	299.00	302.00	304.00	319.00	341.00	345.00	339.00	343.00	333.00	322.00	321.00	324.00	333.00	342.00	353.00	337.00
173.00	153.00	142.00	207.00	206.00	219.00	244.00	206.00	207.00	205.00	202.00	206.00	264.00	272.00	259.00	274.00	381.00	348.00	281.00	273.00	255.00	320.00	356.00	351.00	337.00	308.00	286.00	269.00	256.00	237.00	260.00	253.00	208.00	191.00	149.00	137.00	183.00	160.00	138.00	230.00	220.00	203.00	185.00	165.00	209.00	233.00	263.00	268.00	213.00	228.00	227.00	246.00	177.00	207.00	220.00	222.00	236.00	213.00	220.00	211.00	233.00	278.00	309.00	307.00	329.00	342.00	359.00	365.00	367.00	372.00	344.00	314.00	278.00	283.00	280.00	330.00	368.00	403.00	428.00	554.00	559.00	536.00	506.00	507.00	502.00	452.00	412.00	410.00	480.00	539.00	582.00	534.00	495.00	458.00	454.00	439.00	425.00	409.00	397.00	365.00	344.00	353.00	322.00	326.00	333.00	318.00	316.00	306.00	328.00	341.00	345.00	317.00	289.00	265.00	250.00	232.00	219.00	212.00	228.00	238.00	204.00	244.00	354.00	403.00	475.00	211.00	184.00	252.00	275.00	218.00	217.00	238.00	249.00	245.00	242.00	244.00	185.00	221.00	286.00	279.00	248.00	254.00	307.00	335.00	346.00	358.00	355.00	352.00	345.00	360.00	347.00	367.00	367.00	371.00	383.00	395.00	392.00	373.00	358.00	347.00	336.00	323.00	287.00	275.00	266.00	223.00	197.00	206.00	191.00	161.00	148.00	183.00	141.00	170.00	169.00	182.00	190.00	187.00	202.00	210.00	215.00	212.00	219.00	216.00	216.00	224.00	237.00	235.00	231.00	232.00	235.00	248.00	245.00	244.00	243.00	247.00	262.00	263.00	253.00	281.00	343.00	388.00	386.00	361.00	354.00	333.00	288.00	277.00	271.00	254.00	249.00	251.00	242.00	247.00	251.00	248.00	247.00	240.00	223.00	220.00	239.00	227.00	212.00	189.00	207.00	221.00	231.00	240.00	250.00	256.00	255.00	266.00	247.00	264.00	277.00	269.00	262.00	268.00	276.00	278.00	286.00	321.00	332.00	334.00	341.00	329.00	336.00	340.00	341.00	342.00	320.00	334.00	338.00	345.00	358.00	344.00
162.00	187.00	222.00	229.00	203.00	199.00	219.00	204.00	212.00	225.00	219.00	214.00	216.00	263.00	245.00	240.00	306.00	326.00	266.00	262.00	259.00	285.00	327.00	353.00	344.00	319.00	309.00	313.00	296.00	256.00	348.00	325.00	296.00	246.00	170.00	167.00	116.00	112.00	133.00	167.00	174.00	135.00	166.00	216.00	224.00	241.00	262.00	251.00	233.00	258.00	278.00	288.00	244.00	262.00	234.00	251.00	195.00	232.00	244.00	272.00	281.00	257.00	281.00	289.00	286.00	288.00	290.00	283.00	258.00	280.00	259.00	259.00	286.00	337.00	349.00	376.00	387.00	423.00	455.00	514.00	492.00	469.00	443.00	477.00	483.00	430.00	386.00	377.00	459.00	491.00	494.00	493.00	478.00	440.00	437.00	451.00	450.00	407.00	397.00	357.00	359.00	377.00	373.00	346.00	339.00	328.00	273.00	291.00	302.00	301.00	304.00	309.00	313.00	303.00	296.00	291.00	262.00	249.00	244.00	259.00	209.00	160.00	209.00	252.00	281.00	210.00	207.00	252.00	240.00	248.00	195.00	201.00	219.00	213.00	182.00	198.00	230.00	260.00	288.00	306.00	305.00	314.00	316.00	318.00	327.00	339.00	348.00	331.00	337.00	346.00	337.00	362.00	370.00	371.00	377.00	367.00	371.00	352.00	341.00	348.00	313.00	256.00	233.00	225.00	208.00	188.00	205.00	213.00	198.00	158.00	140.00	139.00	158.00	180.00	178.00	181.00	187.00	201.00	211.00	213.00	215.00	218.00	217.00	222.00	224.00	230.00	239.00	237.00	218.00	220.00	225.00	239.00	250.00	252.00	249.00	253.00	270.00	281.00	290.00	303.00	332.00	362.00	412.00	391.00	370.00	335.00	318.00	310.00	297.00	270.00	259.00	249.00	241.00	238.00	234.00	246.00	242.00	227.00	240.00	223.00	220.00	201.00	170.00	224.00	235.00	245.00	244.00	242.00	234.00	226.00	217.00	230.00	274.00	283.00	300.00	297.00	292.00	323.00	313.00	311.00	321.00	350.00	344.00	327.00	322.00	344.00	357.00	355.00	369.00	369.00	365.00	373.00	356.00	362.00	366.00	337.00
202.00	208.00	204.00	196.00	207.00	197.00	196.00	206.00	212.00	231.00	215.00	202.00	205.00	246.00	235.00	234.00	269.00	319.00	263.00	265.00	274.00	272.00	328.00	357.00	356.00	341.00	335.00	334.00	308.00	276.00	337.00	279.00	300.00	270.00	163.00	129.00	115.00	144.00	154.00	145.00	121.00	122.00	159.00	251.00	242.00	247.00	262.00	276.00	251.00	263.00	288.00	295.00	289.00	282.00	257.00	268.00	224.00	193.00	202.00	233.00	269.00	249.00	229.00	225.00	239.00	243.00	251.00	240.00	254.00	242.00	274.00	300.00	332.00	346.00	361.00	443.00	463.00	476.00	484.00	480.00	464.00	451.00	433.00	453.00	471.00	422.00	384.00	371.00	448.00	458.00	457.00	473.00	462.00	421.00	431.00	447.00	438.00	403.00	378.00	366.00	395.00	407.00	392.00	372.00	366.00	347.00	276.00	267.00	258.00	249.00	259.00	282.00	300.00	297.00	290.00	270.00	281.00	264.00	269.00	269.00	197.00	157.00	159.00	155.00	195.00	170.00	176.00	178.00	190.00	210.00	162.00	166.00	196.00	192.00	225.00	242.00	264.00	257.00	291.00	301.00	300.00	314.00	298.00	301.00	317.00	321.00	344.00	328.00	325.00	328.00	338.00	357.00	356.00	365.00	367.00	357.00	362.00	336.00	294.00	313.00	267.00	223.00	210.00	208.00	196.00	175.00	186.00	193.00	186.00	170.00	154.00	134.00	173.00	212.00	216.00	210.00	211.00	203.00	236.00	231.00	234.00	229.00	239.00	239.00	239.00	240.00	236.00	215.00	223.00	221.00	234.00	255.00	266.00	268.00	268.00	263.00	267.00	276.00	279.00	300.00	324.00	357.00	396.00	366.00	350.00	359.00	365.00	350.00	334.00	286.00	271.00	254.00	241.00	251.00	227.00	242.00	239.00	222.00	241.00	230.00	210.00	183.00	200.00	248.00	251.00	241.00	218.00	209.00	202.00	210.00	225.00	254.00	264.00	287.00	306.00	327.00	294.00	313.00	340.00	336.00	346.00	343.00	328.00	317.00	319.00	344.00	356.00	364.00	371.00	384.00	384.00	381.00	383.00	385.00	369.00	347.00
183.00	192.00	195.00	203.00	213.00	205.00	200.00	219.00	210.00	213.00	210.00	196.00	199.00	242.00	265.00	228.00	233.00	275.00	272.00	255.00	263.00	258.00	315.00	355.00	349.00	357.00	343.00	344.00	331.00	301.00	360.00	248.00	254.00	320.00	154.00	112.00	112.00	123.00	116.00	126.00	191.00	191.00	207.00	268.00	272.00	282.00	301.00	304.00	267.00	257.00	286.00	297.00	297.00	298.00	278.00	284.00	266.00	269.00	229.00	199.00	221.00	208.00	239.00	253.00	260.00	256.00	242.00	255.00	281.00	305.00	297.00	322.00	346.00	389.00	411.00	439.00	432.00	432.00	434.00	455.00	466.00	443.00	424.00	431.00	460.00	427.00	379.00	359.00	418.00	441.00	429.00	437.00	444.00	400.00	413.00	422.00	422.00	390.00	374.00	392.00	398.00	397.00	399.00	388.00	381.00	374.00	322.00	312.00	308.00	255.00	239.00	273.00	286.00	295.00	289.00	243.00	245.00	235.00	258.00	249.00	168.00	137.00	140.00	165.00	324.00	296.00	246.00	202.00	174.00	173.00	170.00	167.00	178.00	213.00	222.00	261.00	289.00	281.00	306.00	292.00	288.00	298.00	283.00	307.00	310.00	309.00	334.00	317.00	328.00	323.00	333.00	344.00	329.00	350.00	353.00	349.00	359.00	346.00	293.00	261.00	230.00	227.00	230.00	249.00	181.00	155.00	164.00	169.00	165.00	148.00	157.00	136.00	160.00	209.00	217.00	227.00	228.00	227.00	235.00	234.00	231.00	239.00	244.00	244.00	241.00	226.00	213.00	229.00	244.00	242.00	230.00	247.00	251.00	248.00	256.00	263.00	267.00	268.00	275.00	295.00	307.00	306.00	309.00	304.00	300.00	327.00	360.00	389.00	365.00	346.00	306.00	279.00	262.00	246.00	225.00	230.00	239.00	225.00	231.00	225.00	182.00	182.00	215.00	230.00	215.00	209.00	198.00	209.00	220.00	246.00	254.00	265.00	268.00	274.00	290.00	321.00	310.00	305.00	324.00	340.00	363.00	334.00	317.00	307.00	310.00	330.00	338.00	351.00	370.00	381.00	386.00	385.00	385.00	375.00	348.00	342.00
183.00	192.00	195.00	203.00	213.00	205.00	200.00	219.00	210.00	213.00	210.00	196.00	199.00	242.00	265.00	228.00	233.00	275.00	272.00	255.00	263.00	258.00	315.00	355.00	349.00	357.00	343.00	344.00	331.00	301.00	360.00	248.00	254.00	320.00	154.00	112.00	112.00	123.00	116.00	126.00	191.00	191.00	207.00	268.00	272.00	282.00	301.00	304.00	267.00	257.00	286.00	297.00	297.00	298.00	278.00	284.00	266.00	269.00	229.00	199.00	221.00	208.00	239.00	253.00	260.00	256.00	242.00	255.00	281.00	305.00	297.00	322.00	346.00	389.00	411.00	439.00	432.00	432.00	434.00	455.00	466.00	443.00	424.00	431.00	460.00	427.00	379.00	359.00	418.00	441.00	429.00	437.00	444.00	400.00	413.00	422.00	422.00	390.00	374.00	392.00	398.00	397.00	399.00	388.00	381.00	374.00	322.00	312.00	308.00	255.00	239.00	273.00	286.00	295.00	289.00	243.00	245.00	235.00	258.00	249.00	168.00	137.00	140.00	165.00	324.00	296.00	246.00	202.00	174.00	173.00	170.00	167.00	178.00	213.00	222.00	261.00	289.00	281.00	306.00	292.00	288.00	298.00	283.00	307.00	310.00	309.00	334.00	317.00	328.00	323.00	333.00	344.00	329.00	350.00	353.00	349.00	359.00	346.00	293.00	261.00	230.00	227.00	230.00	249.00	181.00	155.00	164.00	169.00	165.00	148.00	157.00	136.00	160.00	209.00	217.00	227.00	228.00	227.00	235.00	234.00	231.00	239.00	244.00	244.00	241.00	226.00	213.00	229.00	244.00	242.00	230.00	247.00	251.00	248.00	256.00	263.00	267.00	268.00	275.00	295.00	307.00	306.00	309.00	304.00	300.00	327.00	360.00	389.00	365.00	346.00	306.00	279.00	262.00	246.00	225.00	230.00	239.00	225.00	231.00	225.00	182.00	182.00	215.00	230.00	215.00	209.00	198.00	209.00	220.00	246.00	254.00	265.00	268.00	274.00	290.00	321.00	310.00	305.00	324.00	340.00	363.00	334.00	317.00	307.00	310.00	330.00	338.00	351.00	370.00	381.00	386.00	385.00	385.00	375.00	348.00	342.00
163.00	179.00	210.00	205.00	187.00	189.00	196.00	207.00	210.00	190.00	202.00	191.00	195.00	218.00	270.00	229.00	210.00	213.00	231.00	271.00	298.00	245.00	274.00	343.00	345.00	330.00	327.00	298.00	288.00	304.00	373.00	318.00	222.00	174.00	265.00	203.00	119.00	151.00	199.00	185.00	209.00	302.00	334.00	358.00	360.00	331.00	312.00	305.00	269.00	309.00	328.00	313.00	316.00	311.00	313.00	306.00	307.00	286.00	266.00	230.00	213.00	260.00	289.00	285.00	304.00	316.00	344.00	355.00	364.00	370.00	382.00	394.00	395.00	377.00	363.00	381.00	399.00	423.00	430.00	401.00	410.00	404.00	401.00	405.00	440.00	408.00	392.00	356.00	392.00	421.00	415.00	390.00	397.00	383.00	375.00	377.00	368.00	365.00	388.00	404.00	394.00	385.00	366.00	352.00	356.00	371.00	318.00	283.00	278.00	260.00	252.00	217.00	212.00	205.00	202.00	191.00	187.00	198.00	217.00	206.00	179.00	140.00	180.00	335.00	313.00	381.00	451.00	343.00	273.00	218.00	210.00	236.00	227.00	248.00	246.00	244.00	284.00	277.00	286.00	269.00	256.00	251.00	262.00	273.00	293.00	309.00	312.00	323.00	319.00	283.00	288.00	324.00	291.00	303.00	328.00	334.00	308.00	293.00	230.00	202.00	193.00	197.00	198.00	195.00	163.00	153.00	152.00	157.00	203.00	201.00	186.00	166.00	135.00	216.00	205.00	195.00	196.00	186.00	195.00	213.00	207.00	215.00	209.00	230.00	238.00	237.00	233.00	245.00	265.00	271.00	257.00	259.00	275.00	278.00	274.00	269.00	278.00	281.00	280.00	296.00	264.00	268.00	279.00	265.00	265.00	277.00	285.00	297.00	325.00	356.00	330.00	318.00	324.00	297.00	226.00	220.00	239.00	230.00	211.00	202.00	176.00	180.00	175.00	228.00	237.00	256.00	264.00	257.00	257.00	248.00	252.00	287.00	302.00	337.00	312.00	300.00	335.00	351.00	349.00	339.00	375.00	324.00	306.00	295.00	292.00	309.00	317.00	319.00	321.00	322.00	322.00	325.00	340.00	336.00	308.00	312.00
160.00	198.00	239.00	231.00	196.00	184.00	181.00	190.00	206.00	188.00	192.00	196.00	192.00	205.00	261.00	240.00	209.00	209.00	211.00	255.00	307.00	251.00	267.00	315.00	342.00	334.00	325.00	306.00	286.00	280.00	341.00	296.00	297.00	179.00	157.00	204.00	129.00	157.00	157.00	227.00	283.00	355.00	378.00	397.00	379.00	333.00	296.00	284.00	271.00	301.00	333.00	350.00	347.00	338.00	325.00	315.00	305.00	257.00	235.00	250.00	259.00	227.00	266.00	300.00	327.00	338.00	347.00	371.00	388.00	384.00	393.00	394.00	393.00	348.00	341.00	384.00	413.00	404.00	406.00	388.00	382.00	389.00	406.00	429.00	443.00	408.00	366.00	338.00	381.00	409.00	409.00	393.00	378.00	367.00	342.00	347.00	343.00	367.00	380.00	394.00	385.00	369.00	356.00	342.00	358.00	365.00	332.00	321.00	288.00	294.00	300.00	269.00	264.00	241.00	254.00	204.00	202.00	172.00	178.00	186.00	203.00	144.00	206.00	374.00	373.00	307.00	385.00	412.00	336.00	225.00	238.00	257.00	234.00	233.00	255.00	271.00	278.00	255.00	245.00	248.00	261.00	254.00	271.00	271.00	283.00	285.00	304.00	319.00	303.00	260.00	276.00	298.00	267.00	285.00	306.00	284.00	259.00	217.00	193.00	189.00	175.00	175.00	168.00	166.00	154.00	157.00	165.00	175.00	215.00	231.00	216.00	185.00	141.00	201.00	171.00	209.00	214.00	225.00	222.00	234.00	249.00	240.00	228.00	228.00	233.00	250.00	252.00	270.00	257.00	278.00	271.00	277.00	280.00	294.00	282.00	272.00	279.00	292.00	303.00	285.00	259.00	260.00	274.00	264.00	252.00	264.00	275.00	280.00	287.00	325.00	338.00	324.00	287.00	273.00	237.00	212.00	232.00	223.00	197.00	165.00	172.00	217.00	242.00	251.00	255.00	261.00	279.00	295.00	296.00	282.00	275.00	284.00	302.00	328.00	352.00	321.00	359.00	366.00	374.00	371.00	370.00	335.00	318.00	299.00	286.00	295.00	297.00	300.00	305.00	308.00	312.00	319.00	326.00	333.00	306.00	292.00
159.00	186.00	220.00	221.00	200.00	192.00	170.00	183.00	215.00	203.00	174.00	193.00	192.00	200.00	256.00	272.00	200.00	196.00	208.00	239.00	303.00	257.00	264.00	310.00	337.00	328.00	324.00	309.00	313.00	264.00	267.00	232.00	230.00	234.00	169.00	133.00	128.00	130.00	165.00	199.00	245.00	351.00	398.00	403.00	347.00	319.00	303.00	291.00	264.00	276.00	300.00	326.00	403.00	362.00	324.00	303.00	283.00	275.00	269.00	277.00	262.00	230.00	239.00	260.00	295.00	329.00	351.00	359.00	352.00	348.00	371.00	356.00	355.00	328.00	322.00	378.00	371.00	361.00	367.00	364.00	376.00	420.00	450.00	472.00	467.00	414.00	391.00	341.00	370.00	384.00	407.00	421.00	409.00	378.00	345.00	327.00	335.00	344.00	359.00	358.00	358.00	361.00	350.00	332.00	346.00	350.00	350.00	341.00	315.00	321.00	307.00	298.00	292.00	293.00	282.00	246.00	254.00	224.00	185.00	158.00	148.00	144.00	205.00	288.00	441.00	341.00	308.00	344.00	418.00	283.00	259.00	264.00	250.00	243.00	254.00	283.00	267.00	253.00	258.00	271.00	271.00	278.00	292.00	296.00	297.00	304.00	299.00	306.00	295.00	245.00	268.00	275.00	224.00	249.00	216.00	201.00	191.00	177.00	188.00	197.00	180.00	172.00	169.00	165.00	169.00	173.00	183.00	191.00	219.00	226.00	208.00	167.00	137.00	183.00	225.00	220.00	232.00	251.00	247.00	251.00	261.00	264.00	249.00	258.00	245.00	263.00	274.00	282.00	260.00	266.00	284.00	287.00	296.00	309.00	294.00	279.00	301.00	304.00	312.00	272.00	259.00	247.00	257.00	260.00	247.00	255.00	262.00	274.00	282.00	282.00	277.00	280.00	271.00	260.00	238.00	215.00	202.00	237.00	210.00	191.00	202.00	205.00	210.00	247.00	270.00	297.00	291.00	290.00	303.00	316.00	304.00	297.00	322.00	329.00	357.00	344.00	346.00	363.00	388.00	400.00	389.00	325.00	305.00	297.00	284.00	281.00	286.00	294.00	301.00	297.00	306.00	317.00	318.00	324.00	318.00	300.00
161.00	183.00	192.00	193.00	175.00	175.00	160.00	188.00	215.00	227.00	182.00	178.00	197.00	200.00	245.00	283.00	190.00	200.00	206.00	228.00	287.00	259.00	273.00	314.00	327.00	325.00	302.00	284.00	294.00	271.00	300.00	301.00	261.00	312.00	169.00	114.00	125.00	182.00	205.00	231.00	277.00	280.00	409.00	402.00	363.00	338.00	345.00	314.00	288.00	289.00	283.00	307.00	378.00	404.00	379.00	361.00	338.00	299.00	298.00	287.00	276.00	261.00	238.00	257.00	287.00	297.00	319.00	334.00	323.00	334.00	345.00	325.00	317.00	314.00	325.00	332.00	330.00	344.00	352.00	391.00	399.00	405.00	417.00	424.00	453.00	426.00	382.00	341.00	399.00	423.00	439.00	441.00	434.00	357.00	337.00	334.00	318.00	321.00	313.00	322.00	340.00	354.00	329.00	322.00	327.00	340.00	339.00	329.00	325.00	320.00	317.00	318.00	320.00	313.00	301.00	283.00	282.00	265.00	243.00	220.00	145.00	132.00	161.00	200.00	348.00	402.00	352.00	321.00	351.00	404.00	344.00	301.00	273.00	254.00	276.00	268.00	244.00	254.00	252.00	262.00	244.00	267.00	276.00	291.00	303.00	316.00	285.00	288.00	274.00	230.00	261.00	249.00	194.00	198.00	164.00	164.00	169.00	163.00	179.00	198.00	193.00	189.00	180.00	180.00	185.00	186.00	196.00	212.00	227.00	195.00	178.00	153.00	150.00	230.00	245.00	256.00	255.00	260.00	248.00	262.00	271.00	279.00	265.00	266.00	275.00	273.00	269.00	294.00	280.00	265.00	279.00	286.00	305.00	319.00	308.00	291.00	320.00	302.00	289.00	262.00	266.00	260.00	244.00	243.00	242.00	265.00	269.00	266.00	274.00	265.00	262.00	261.00	260.00	242.00	229.00	214.00	190.00	220.00	234.00	185.00	176.00	191.00	232.00	268.00	288.00	309.00	327.00	322.00	335.00	329.00	336.00	328.00	348.00	362.00	369.00	374.00	367.00	388.00	392.00	407.00	391.00	318.00	303.00	290.00	282.00	272.00	279.00	288.00	290.00	290.00	298.00	304.00	310.00	320.00	310.00	304.00
183.00	201.00	196.00	181.00	161.00	158.00	167.00	186.00	227.00	242.00	170.00	177.00	208.00	212.00	234.00	259.00	189.00	201.00	220.00	223.00	267.00	268.00	300.00	329.00	316.00	305.00	295.00	288.00	282.00	296.00	320.00	328.00	322.00	288.00	256.00	126.00	128.00	122.00	119.00	221.00	301.00	287.00	324.00	413.00	396.00	402.00	401.00	373.00	327.00	313.00	320.00	293.00	397.00	390.00	386.00	383.00	383.00	360.00	326.00	294.00	294.00	282.00	266.00	238.00	251.00	267.00	302.00	317.00	312.00	312.00	316.00	295.00	282.00	304.00	313.00	322.00	356.00	363.00	375.00	431.00	450.00	466.00	456.00	466.00	422.00	382.00	354.00	329.00	367.00	387.00	430.00	408.00	396.00	375.00	372.00	356.00	343.00	328.00	300.00	299.00	319.00	326.00	311.00	300.00	318.00	328.00	335.00	321.00	307.00	301.00	295.00	310.00	312.00	307.00	306.00	282.00	270.00	251.00	235.00	228.00	191.00	135.00	154.00	208.00	260.00	442.00	392.00	358.00	358.00	433.00	465.00	377.00	312.00	270.00	282.00	261.00	229.00	207.00	234.00	243.00	226.00	238.00	267.00	283.00	288.00	285.00	271.00	252.00	251.00	227.00	256.00	203.00	169.00	160.00	148.00	146.00	149.00	164.00	183.00	199.00	188.00	196.00	189.00	192.00	197.00	205.00	212.00	218.00	235.00	244.00	234.00	197.00	137.00	232.00	239.00	252.00	262.00	279.00	264.00	263.00	275.00	291.00	279.00	289.00	276.00	286.00	290.00	304.00	300.00	279.00	273.00	281.00	298.00	314.00	326.00	321.00	328.00	315.00	283.00	250.00	258.00	271.00	262.00	236.00	249.00	251.00	258.00	272.00	278.00	277.00	276.00	283.00	278.00	265.00	236.00	203.00	184.00	222.00	218.00	194.00	186.00	183.00	195.00	244.00	253.00	285.00	322.00	348.00	344.00	339.00	337.00	357.00	349.00	362.00	378.00	381.00	371.00	365.00	348.00	348.00	348.00	320.00	300.00	284.00	280.00	262.00	275.00	278.00	278.00	286.00	290.00	302.00	313.00	318.00	298.00	292.00
183.00	201.00	196.00	181.00	161.00	158.00	167.00	186.00	227.00	242.00	170.00	177.00	208.00	212.00	234.00	259.00	189.00	201.00	220.00	223.00	267.00	268.00	300.00	329.00	316.00	305.00	295.00	288.00	282.00	296.00	320.00	328.00	322.00	288.00	256.00	126.00	128.00	122.00	119.00	221.00	301.00	287.00	324.00	413.00	396.00	402.00	401.00	373.00	327.00	313.00	320.00	293.00	397.00	390.00	386.00	383.00	383.00	360.00	326.00	294.00	294.00	282.00	266.00	238.00	251.00	267.00	302.00	317.00	312.00	312.00	316.00	295.00	282.00	304.00	313.00	322.00	356.00	363.00	375.00	431.00	450.00	466.00	456.00	466.00	422.00	382.00	354.00	329.00	367.00	387.00	430.00	408.00	396.00	375.00	372.00	356.00	343.00	328.00	300.00	299.00	319.00	326.00	311.00	300.00	318.00	328.00	335.00	321.00	307.00	301.00	295.00	310.00	312.00	307.00	306.00	282.00	270.00	251.00	235.00	228.00	191.00	135.00	154.00	208.00	260.00	442.00	392.00	358.00	358.00	433.00	465.00	377.00	312.00	270.00	282.00	261.00	229.00	207.00	234.00	243.00	226.00	238.00	267.00	283.00	288.00	285.00	271.00	252.00	251.00	227.00	256.00	203.00	169.00	160.00	148.00	146.00	149.00	164.00	183.00	199.00	188.00	196.00	189.00	192.00	197.00	205.00	212.00	218.00	235.00	244.00	234.00	197.00	137.00	232.00	239.00	252.00	262.00	279.00	264.00	263.00	275.00	291.00	279.00	289.00	276.00	286.00	290.00	304.00	300.00	279.00	273.00	281.00	298.00	314.00	326.00	321.00	328.00	315.00	283.00	250.00	258.00	271.00	262.00	236.00	249.00	251.00	258.00	272.00	278.00	277.00	276.00	283.00	278.00	265.00	236.00	203.00	184.00	222.00	218.00	194.00	186.00	183.00	195.00	244.00	253.00	285.00	322.00	348.00	344.00	339.00	337.00	357.00	349.00	362.00	378.00	381.00	371.00	365.00	348.00	348.00	348.00	320.00	300.00	284.00	280.00	262.00	275.00	278.00	278.00	286.00	290.00	302.00	313.00	318.00	298.00	292.00
189.00	191.00	173.00	156.00	160.00	180.00	192.00	193.00	204.00	245.00	184.00	175.00	205.00	201.00	220.00	233.00	203.00	216.00	233.00	250.00	295.00	296.00	327.00	328.00	328.00	330.00	329.00	302.00	294.00	303.00	313.00	327.00	297.00	297.00	354.00	203.00	141.00	159.00	120.00	211.00	268.00	223.00	277.00	400.00	449.00	426.00	450.00	419.00	370.00	373.00	352.00	324.00	347.00	346.00	370.00	402.00	433.00	410.00	341.00	314.00	307.00	299.00	281.00	258.00	284.00	262.00	265.00	279.00	282.00	286.00	277.00	294.00	317.00	355.00	365.00	353.00	367.00	380.00	397.00	421.00	447.00	481.00	490.00	495.00	421.00	403.00	377.00	343.00	386.00	413.00	418.00	411.00	360.00	378.00	379.00	382.00	371.00	317.00	317.00	293.00	298.00	297.00	293.00	284.00	288.00	303.00	320.00	313.00	300.00	285.00	278.00	303.00	300.00	288.00	294.00	289.00	271.00	252.00	234.00	220.00	165.00	130.00	191.00	177.00	209.00	341.00	444.00	422.00	414.00	384.00	447.00	468.00	387.00	286.00	283.00	262.00	253.00	214.00	212.00	223.00	195.00	224.00	233.00	221.00	245.00	256.00	255.00	223.00	205.00	224.00	214.00	178.00	163.00	138.00	133.00	130.00	143.00	176.00	190.00	197.00	186.00	189.00	186.00	193.00	199.00	208.00	213.00	220.00	249.00	226.00	192.00	183.00	145.00	205.00	234.00	254.00	271.00	267.00	255.00	270.00	291.00	284.00	298.00	301.00	289.00	292.00	299.00	315.00	301.00	301.00	288.00	291.00	304.00	328.00	334.00	342.00	317.00	293.00	275.00	260.00	247.00	264.00	260.00	239.00	237.00	243.00	256.00	271.00	281.00	283.00	274.00	276.00	277.00	266.00	229.00	224.00	201.00	191.00	190.00	164.00	216.00	217.00	209.00	217.00	229.00	252.00	282.00	304.00	293.00	301.00	304.00	325.00	369.00	373.00	384.00	360.00	314.00	313.00	309.00	314.00	311.00	307.00	293.00	278.00	269.00	258.00	262.00	269.00	275.00	281.00	286.00	305.00	316.00	316.00	293.00	279.00
198.00	195.00	153.00	189.00	201.00	218.00	216.00	205.00	185.00	209.00	169.00	162.00	204.00	179.00	194.00	207.00	220.00	227.00	285.00	321.00	350.00	355.00	359.00	347.00	353.00	345.00	338.00	331.00	317.00	307.00	340.00	326.00	287.00	284.00	372.00	303.00	208.00	151.00	147.00	205.00	201.00	228.00	285.00	374.00	429.00	428.00	466.00	426.00	417.00	446.00	431.00	418.00	411.00	413.00	441.00	503.00	530.00	455.00	381.00	353.00	335.00	302.00	271.00	262.00	289.00	292.00	279.00	264.00	270.00	276.00	315.00	333.00	352.00	360.00	383.00	396.00	397.00	402.00	415.00	440.00	440.00	435.00	436.00	449.00	392.00	382.00	367.00	341.00	373.00	379.00	381.00	354.00	348.00	360.00	358.00	362.00	374.00	324.00	307.00	297.00	292.00	281.00	275.00	284.00	268.00	301.00	317.00	306.00	297.00	288.00	273.00	289.00	284.00	269.00	282.00	290.00	274.00	259.00	243.00	222.00	156.00	132.00	169.00	202.00	206.00	251.00	342.00	463.00	435.00	378.00	365.00	415.00	449.00	286.00	275.00	280.00	258.00	225.00	202.00	174.00	175.00	184.00	193.00	236.00	269.00	266.00	230.00	226.00	176.00	160.00	172.00	158.00	152.00	137.00	127.00	131.00	143.00	172.00	193.00	196.00	182.00	183.00	192.00	198.00	205.00	206.00	214.00	230.00	228.00	233.00	214.00	139.00	139.00	219.00	255.00	263.00	254.00	251.00	280.00	280.00	292.00	297.00	313.00	313.00	302.00	308.00	314.00	323.00	326.00	317.00	307.00	314.00	326.00	331.00	350.00	353.00	300.00	265.00	257.00	269.00	234.00	255.00	259.00	236.00	243.00	265.00	264.00	266.00	278.00	282.00	279.00	275.00	275.00	281.00	274.00	236.00	164.00	180.00	151.00	165.00	202.00	226.00	254.00	282.00	276.00	247.00	269.00	292.00	310.00	314.00	331.00	354.00	370.00	383.00	374.00	352.00	289.00	289.00	289.00	296.00	293.00	294.00	279.00	263.00	262.00	252.00	263.00	282.00	287.00	291.00	305.00	304.00	315.00	319.00	296.00	283.00
184.00	162.00	150.00	168.00	179.00	177.00	163.00	206.00	189.00	206.00	160.00	151.00	175.00	182.00	217.00	222.00	294.00	306.00	321.00	342.00	362.00	373.00	347.00	330.00	326.00	338.00	346.00	345.00	333.00	338.00	266.00	346.00	352.00	324.00	234.00	176.00	145.00	126.00	146.00	259.00	230.00	207.00	218.00	229.00	258.00	296.00	331.00	312.00	416.00	419.00	446.00	480.00	494.00	477.00	465.00	478.00	519.00	408.00	368.00	343.00	319.00	292.00	300.00	291.00	307.00	309.00	279.00	299.00	306.00	310.00	321.00	338.00	346.00	363.00	371.00	381.00	375.00	363.00	369.00	363.00	366.00	363.00	366.00	371.00	382.00	377.00	372.00	345.00	316.00	307.00	311.00	336.00	335.00	349.00	338.00	321.00	311.00	356.00	339.00	322.00	319.00	315.00	278.00	257.00	254.00	279.00	297.00	289.00	284.00	279.00	273.00	273.00	256.00	244.00	256.00	263.00	264.00	247.00	236.00	226.00	149.00	212.00	255.00	268.00	278.00	258.00	250.00	293.00	378.00	439.00	425.00	387.00	466.00	341.00	300.00	281.00	259.00	243.00	208.00	198.00	181.00	169.00	154.00	183.00	201.00	210.00	202.00	212.00	161.00	124.00	133.00	142.00	132.00	120.00	117.00	158.00	158.00	176.00	185.00	192.00	178.00	187.00	196.00	201.00	226.00	240.00	245.00	246.00	246.00	197.00	161.00	141.00	193.00	249.00	220.00	240.00	264.00	250.00	282.00	294.00	311.00	309.00	310.00	323.00	328.00	323.00	325.00	326.00	344.00	355.00	363.00	349.00	345.00	351.00	333.00	312.00	263.00	247.00	244.00	262.00	260.00	230.00	235.00	245.00	251.00	284.00	265.00	266.00	270.00	256.00	250.00	255.00	258.00	268.00	230.00	203.00	162.00	175.00	224.00	276.00	275.00	287.00	297.00	305.00	334.00	344.00	346.00	331.00	358.00	344.00	338.00	329.00	304.00	299.00	290.00	269.00	252.00	267.00	286.00	285.00	273.00	280.00	273.00	253.00	236.00	251.00	264.00	277.00	290.00	292.00	259.00	291.00	300.00	309.00	298.00	286.00
184.00	162.00	150.00	168.00	179.00	177.00	163.00	206.00	189.00	206.00	160.00	151.00	175.00	182.00	217.00	222.00	294.00	306.00	321.00	342.00	362.00	373.00	347.00	330.00	326.00	338.00	346.00	345.00	333.00	338.00	266.00	346.00	352.00	324.00	234.00	176.00	145.00	126.00	146.00	259.00	230.00	207.00	218.00	229.00	258.00	296.00	331.00	312.00	416.00	419.00	446.00	480.00	494.00	477.00	465.00	478.00	519.00	408.00	368.00	343.00	319.00	292.00	300.00	291.00	307.00	309.00	279.00	299.00	306.00	310.00	321.00	338.00	346.00	363.00	371.00	381.00	375.00	363.00	369.00	363.00	366.00	363.00	366.00	371.00	382.00	377.00	372.00	345.00	316.00	307.00	311.00	336.00	335.00	349.00	338.00	321.00	311.00	356.00	339.00	322.00	319.00	315.00	278.00	257.00	254.00	279.00	297.00	289.00	284.00	279.00	273.00	273.00	256.00	244.00	256.00	263.00	264.00	247.00	236.00	226.00	149.00	212.00	255.00	268.00	278.00	258.00	250.00	293.00	378.00	439.00	425.00	387.00	466.00	341.00	300.00	281.00	259.00	243.00	208.00	198.00	181.00	169.00	154.00	183.00	201.00	210.00	202.00	212.00	161.00	124.00	133.00	142.00	132.00	120.00	117.00	158.00	158.00	176.00	185.00	192.00	178.00	187.00	196.00	201.00	226.00	240.00	245.00	246.00	246.00	197.00	161.00	141.00	193.00	249.00	220.00	240.00	264.00	250.00	282.00	294.00	311.00	309.00	310.00	323.00	328.00	323.00	325.00	326.00	344.00	355.00	363.00	349.00	345.00	351.00	333.00	312.00	263.00	247.00	244.00	262.00	260.00	230.00	235.00	245.00	251.00	284.00	265.00	266.00	270.00	256.00	250.00	255.00	258.00	268.00	230.00	203.00	162.00	175.00	224.00	276.00	275.00	287.00	297.00	305.00	334.00	344.00	346.00	331.00	358.00	344.00	338.00	329.00	304.00	299.00	290.00	269.00	252.00	267.00	286.00	285.00	273.00	280.00	273.00	253.00	236.00	251.00	264.00	277.00	290.00	292.00	259.00	291.00	300.00	309.00	298.00	286.00
163.00	145.00	167.00	187.00	203.00	183.00	148.00	194.00	182.00	170.00	165.00	157.00	191.00	189.00	217.00	221.00	288.00	290.00	316.00	327.00	335.00	346.00	338.00	321.00	319.00	324.00	337.00	331.00	323.00	318.00	275.00	328.00	338.00	326.00	272.00	221.00	145.00	114.00	178.00	227.00	167.00	143.00	204.00	203.00	227.00	238.00	244.00	273.00	384.00	413.00	438.00	456.00	454.00	445.00	444.00	463.00	474.00	488.00	401.00	356.00	337.00	312.00	304.00	316.00	314.00	298.00	310.00	299.00	317.00	319.00	322.00	332.00	338.00	339.00	334.00	355.00	355.00	331.00	342.00	339.00	342.00	327.00	337.00	330.00	337.00	341.00	331.00	318.00	300.00	332.00	326.00	317.00	319.00	332.00	336.00	313.00	300.00	329.00	329.00	328.00	315.00	297.00	296.00	257.00	261.00	302.00	307.00	298.00	285.00	276.00	265.00	256.00	258.00	236.00	239.00	263.00	247.00	231.00	219.00	195.00	167.00	214.00	242.00	268.00	292.00	285.00	261.00	264.00	280.00	391.00	379.00	334.00	401.00	409.00	327.00	277.00	248.00	240.00	215.00	223.00	159.00	108.00	141.00	188.00	174.00	175.00	167.00	169.00	140.00	126.00	125.00	125.00	116.00	114.00	130.00	159.00	151.00	166.00	174.00	187.00	191.00	192.00	200.00	209.00	235.00	247.00	250.00	237.00	257.00	204.00	170.00	152.00	214.00	221.00	191.00	206.00	223.00	227.00	288.00	310.00	301.00	293.00	318.00	322.00	308.00	298.00	302.00	342.00	352.00	361.00	352.00	315.00	306.00	313.00	307.00	287.00	264.00	258.00	231.00	244.00	236.00	223.00	248.00	257.00	276.00	291.00	271.00	252.00	272.00	268.00	247.00	231.00	234.00	236.00	170.00	157.00	180.00	217.00	276.00	256.00	304.00	311.00	308.00	335.00	350.00	362.00	344.00	327.00	322.00	309.00	298.00	301.00	284.00	271.00	260.00	247.00	243.00	236.00	250.00	260.00	254.00	266.00	262.00	242.00	229.00	265.00	275.00	283.00	295.00	299.00	233.00	272.00	293.00	304.00	296.00	281.00
146.00	148.00	165.00	177.00	190.00	197.00	167.00	184.00	151.00	180.00	177.00	195.00	197.00	191.00	203.00	235.00	274.00	274.00	308.00	308.00	322.00	342.00	324.00	312.00	313.00	287.00	277.00	308.00	304.00	299.00	261.00	274.00	337.00	324.00	315.00	284.00	176.00	113.00	129.00	147.00	189.00	192.00	291.00	221.00	219.00	231.00	230.00	269.00	337.00	402.00	405.00	435.00	425.00	429.00	437.00	444.00	438.00	439.00	398.00	364.00	353.00	341.00	324.00	327.00	332.00	313.00	337.00	331.00	340.00	340.00	363.00	363.00	359.00	334.00	318.00	325.00	326.00	315.00	314.00	303.00	304.00	299.00	304.00	294.00	308.00	311.00	303.00	290.00	291.00	316.00	324.00	302.00	291.00	316.00	301.00	299.00	285.00	310.00	307.00	314.00	318.00	308.00	284.00	260.00	251.00	282.00	301.00	293.00	278.00	260.00	245.00	234.00	234.00	216.00	208.00	241.00	235.00	224.00	207.00	152.00	207.00	249.00	253.00	276.00	286.00	308.00	284.00	278.00	262.00	298.00	296.00	343.00	381.00	500.00	396.00	279.00	225.00	194.00	162.00	178.00	113.00	90.00	120.00	158.00	176.00	154.00	169.00	140.00	128.00	133.00	113.00	115.00	110.00	122.00	145.00	149.00	149.00	165.00	170.00	178.00	193.00	203.00	205.00	216.00	246.00	248.00	254.00	230.00	232.00	177.00	165.00	151.00	202.00	184.00	225.00	248.00	258.00	257.00	282.00	290.00	279.00	284.00	313.00	296.00	282.00	304.00	332.00	348.00	354.00	340.00	306.00	279.00	270.00	294.00	292.00	277.00	258.00	258.00	228.00	236.00	222.00	235.00	264.00	282.00	295.00	283.00	267.00	246.00	249.00	276.00	263.00	223.00	205.00	219.00	147.00	224.00	249.00	265.00	300.00	303.00	315.00	317.00	293.00	292.00	305.00	308.00	297.00	290.00	288.00	278.00	273.00	285.00	283.00	280.00	251.00	222.00	238.00	229.00	222.00	233.00	239.00	247.00	243.00	223.00	236.00	273.00	285.00	289.00	292.00	281.00	220.00	260.00	284.00	288.00	271.00	263.00
110.00	121.00	140.00	153.00	150.00	159.00	154.00	135.00	131.00	176.00	209.00	193.00	188.00	205.00	212.00	227.00	260.00	251.00	271.00	286.00	312.00	306.00	299.00	285.00	283.00	295.00	273.00	254.00	241.00	229.00	199.00	193.00	274.00	318.00	232.00	204.00	206.00	136.00	127.00	231.00	260.00	272.00	315.00	313.00	315.00	318.00	325.00	309.00	310.00	312.00	366.00	395.00	427.00	423.00	409.00	404.00	403.00	411.00	415.00	422.00	422.00	421.00	388.00	365.00	366.00	396.00	388.00	391.00	393.00	387.00	360.00	334.00	344.00	341.00	354.00	334.00	317.00	311.00	309.00	303.00	311.00	291.00	279.00	270.00	264.00	277.00	281.00	265.00	289.00	292.00	290.00	306.00	293.00	258.00	270.00	253.00	274.00	278.00	283.00	288.00	273.00	265.00	245.00	224.00	231.00	249.00	266.00	272.00	273.00	272.00	273.00	263.00	248.00	235.00	234.00	180.00	162.00	189.00	180.00	140.00	224.00	223.00	249.00	264.00	288.00	348.00	324.00	292.00	289.00	226.00	271.00	329.00	363.00	388.00	425.00	337.00	189.00	154.00	120.00	112.00	106.00	84.00	101.00	118.00	116.00	106.00	123.00	112.00	112.00	104.00	103.00	121.00	144.00	143.00	137.00	149.00	156.00	183.00	178.00	166.00	190.00	205.00	219.00	236.00	246.00	221.00	224.00	215.00	162.00	223.00	235.00	235.00	243.00	269.00	281.00	314.00	318.00	312.00	312.00	295.00	310.00	310.00	262.00	280.00	301.00	309.00	310.00	300.00	291.00	286.00	286.00	248.00	258.00	278.00	269.00	277.00	255.00	268.00	247.00	208.00	249.00	287.00	309.00	332.00	352.00	339.00	330.00	307.00	290.00	238.00	238.00	233.00	203.00	153.00	245.00	251.00	251.00	255.00	255.00	269.00	256.00	259.00	269.00	241.00	269.00	263.00	262.00	264.00	248.00	247.00	243.00	257.00	249.00	233.00	184.00	212.00	252.00	236.00	218.00	199.00	189.00	233.00	223.00	214.00	215.00	258.00	274.00	260.00	255.00	255.00	219.00	221.00	257.00	242.00	231.00	235.00
103.00	134.00	144.00	140.00	141.00	137.00	133.00	130.00	161.00	188.00	179.00	187.00	203.00	207.00	206.00	208.00	241.00	243.00	257.00	261.00	293.00	295.00	288.00	267.00	285.00	297.00	293.00	283.00	271.00	261.00	236.00	164.00	206.00	285.00	229.00	183.00	163.00	125.00	116.00	158.00	193.00	239.00	285.00	302.00	295.00	302.00	309.00	342.00	288.00	291.00	352.00	386.00	416.00	399.00	415.00	401.00	402.00	420.00	429.00	464.00	453.00	402.00	408.00	422.00	421.00	426.00	441.00	449.00	389.00	361.00	336.00	344.00	357.00	377.00	372.00	345.00	337.00	315.00	308.00	305.00	317.00	313.00	301.00	291.00	268.00	255.00	263.00	257.00	280.00	274.00	273.00	277.00	275.00	242.00	238.00	248.00	283.00	266.00	270.00	282.00	269.00	254.00	233.00	216.00	244.00	256.00	267.00	264.00	261.00	271.00	286.00	271.00	253.00	249.00	244.00	214.00	189.00	152.00	134.00	149.00	189.00	215.00	252.00	274.00	299.00	322.00	297.00	274.00	272.00	227.00	212.00	240.00	317.00	344.00	387.00	420.00	206.00	143.00	107.00	107.00	101.00	83.00	99.00	122.00	107.00	100.00	112.00	97.00	106.00	117.00	129.00	129.00	138.00	146.00	133.00	169.00	177.00	191.00	191.00	159.00	206.00	221.00	228.00	209.00	161.00	158.00	167.00	176.00	165.00	176.00	213.00	195.00	214.00	250.00	268.00	283.00	273.00	254.00	299.00	301.00	300.00	262.00	260.00	277.00	273.00	271.00	272.00	282.00	283.00	273.00	283.00	239.00	266.00	287.00	264.00	253.00	253.00	277.00	260.00	207.00	283.00	329.00	329.00	325.00	339.00	334.00	336.00	294.00	277.00	257.00	259.00	244.00	238.00	216.00	173.00	174.00	165.00	180.00	219.00	245.00	223.00	225.00	254.00	215.00	248.00	240.00	240.00	254.00	242.00	228.00	240.00	263.00	236.00	207.00	174.00	220.00	244.00	245.00	239.00	210.00	157.00	236.00	217.00	186.00	205.00	264.00	259.00	226.00	221.00	224.00	231.00	217.00	244.00	245.00	182.00	161.00
103.00	134.00	144.00	140.00	141.00	137.00	133.00	130.00	161.00	188.00	179.00	187.00	203.00	207.00	206.00	208.00	241.00	243.00	257.00	261.00	293.00	295.00	288.00	267.00	285.00	297.00	293.00	283.00	271.00	261.00	236.00	164.00	206.00	285.00	229.00	183.00	163.00	125.00	116.00	158.00	193.00	239.00	285.00	302.00	295.00	302.00	309.00	342.00	288.00	291.00	352.00	386.00	416.00	399.00	415.00	401.00	402.00	420.00	429.00	464.00	453.00	402.00	408.00	422.00	421.00	426.00	441.00	449.00	389.00	361.00	336.00	344.00	357.00	377.00	372.00	345.00	337.00	315.00	308.00	305.00	317.00	313.00	301.00	291.00	268.00	255.00	263.00	257.00	280.00	274.00	273.00	277.00	275.00	242.00	238.00	248.00	283.00	266.00	270.00	282.00	269.00	254.00	233.00	216.00	244.00	256.00	267.00	264.00	261.00	271.00	286.00	271.00	253.00	249.00	244.00	214.00	189.00	152.00	134.00	149.00	189.00	215.00	252.00	274.00	299.00	322.00	297.00	274.00	272.00	227.00	212.00	240.00	317.00	344.00	387.00	420.00	206.00	143.00	107.00	107.00	101.00	83.00	99.00	122.00	107.00	100.00	112.00	97.00	106.00	117.00	129.00	129.00	138.00	146.00	133.00	169.00	177.00	191.00	191.00	159.00	206.00	221.00	228.00	209.00	161.00	158.00	167.00	176.00	165.00	176.00	213.00	195.00	214.00	250.00	268.00	283.00	273.00	254.00	299.00	301.00	300.00	262.00	260.00	277.00	273.00	271.00	272.00	282.00	283.00	273.00	283.00	239.00	266.00	287.00	264.00	253.00	253.00	277.00	260.00	207.00	283.00	329.00	329.00	325.00	339.00	334.00	336.00	294.00	277.00	257.00	259.00	244.00	238.00	216.00	173.00	174.00	165.00	180.00	219.00	245.00	223.00	225.00	254.00	215.00	248.00	240.00	240.00	254.00	242.00	228.00	240.00	263.00	236.00	207.00	174.00	220.00	244.00	245.00	239.00	210.00	157.00	236.00	217.00	186.00	205.00	264.00	259.00	226.00	221.00	224.00	231.00	217.00	244.00	245.00	182.00	161.00
102.00	146.00	150.00	134.00	125.00	146.00	102.00	142.00	135.00	157.00	194.00	204.00	205.00	205.00	200.00	191.00	239.00	230.00	241.00	269.00	284.00	266.00	272.00	257.00	276.00	291.00	282.00	266.00	254.00	239.00	215.00	156.00	175.00	243.00	264.00	255.00	200.00	126.00	119.00	191.00	242.00	284.00	282.00	283.00	281.00	318.00	318.00	325.00	253.00	268.00	310.00	349.00	394.00	395.00	430.00	415.00	427.00	438.00	454.00	472.00	436.00	388.00	358.00	375.00	383.00	362.00	381.00	403.00	360.00	350.00	350.00	351.00	366.00	381.00	374.00	348.00	335.00	344.00	341.00	318.00	343.00	331.00	321.00	310.00	280.00	267.00	248.00	251.00	259.00	256.00	249.00	252.00	246.00	259.00	239.00	223.00	245.00	261.00	256.00	255.00	257.00	238.00	236.00	207.00	235.00	245.00	251.00	251.00	255.00	266.00	277.00	272.00	255.00	244.00	240.00	205.00	191.00	174.00	164.00	200.00	207.00	214.00	238.00	249.00	283.00	312.00	289.00	266.00	251.00	242.00	210.00	205.00	227.00	285.00	329.00	355.00	267.00	170.00	109.00	96.00	92.00	83.00	95.00	119.00	98.00	102.00	95.00	105.00	130.00	161.00	191.00	139.00	133.00	131.00	132.00	186.00	184.00	178.00	152.00	173.00	205.00	216.00	175.00	116.00	168.00	183.00	151.00	159.00	148.00	133.00	129.00	137.00	144.00	133.00	156.00	166.00	176.00	162.00	204.00	218.00	238.00	235.00	250.00	245.00	236.00	245.00	252.00	272.00	271.00	273.00	261.00	237.00	286.00	300.00	262.00	233.00	280.00	286.00	248.00	211.00	269.00	307.00	296.00	325.00	345.00	314.00	318.00	288.00	231.00	187.00	175.00	163.00	140.00	128.00	139.00	150.00	160.00	153.00	140.00	155.00	183.00	203.00	217.00	162.00	166.00	181.00	220.00	248.00	243.00	203.00	243.00	272.00	252.00	212.00	167.00	221.00	221.00	195.00	175.00	159.00	147.00	146.00	142.00	147.00	158.00	200.00	225.00	208.00	173.00	217.00	232.00	184.00	171.00	155.00	196.00	177.00
116.00	93.00	110.00	141.00	87.00	101.00	104.00	143.00	163.00	167.00	163.00	183.00	195.00	200.00	187.00	182.00	237.00	230.00	207.00	218.00	241.00	222.00	249.00	241.00	236.00	266.00	278.00	284.00	283.00	279.00	238.00	186.00	169.00	151.00	215.00	228.00	129.00	121.00	194.00	199.00	177.00	201.00	249.00	291.00	296.00	244.00	206.00	213.00	307.00	249.00	298.00	314.00	359.00	371.00	369.00	384.00	387.00	364.00	392.00	342.00	324.00	343.00	321.00	306.00	319.00	332.00	368.00	407.00	431.00	440.00	441.00	440.00	439.00	400.00	375.00	360.00	352.00	342.00	338.00	324.00	365.00	440.00	430.00	413.00	331.00	294.00	289.00	288.00	289.00	276.00	260.00	257.00	266.00	289.00	260.00	253.00	244.00	212.00	219.00	235.00	251.00	235.00	193.00	218.00	211.00	219.00	239.00	248.00	257.00	263.00	271.00	243.00	235.00	226.00	210.00	182.00	151.00	141.00	179.00	196.00	234.00	240.00	267.00	273.00	282.00	349.00	316.00	280.00	251.00	207.00	222.00	178.00	209.00	272.00	325.00	310.00	279.00	293.00	127.00	96.00	107.00	96.00	93.00	91.00	91.00	100.00	117.00	123.00	138.00	158.00	191.00	157.00	140.00	121.00	118.00	112.00	143.00	162.00	158.00	141.00	122.00	155.00	187.00	213.00	186.00	150.00	210.00	241.00	235.00	246.00	251.00	256.00	252.00	246.00	173.00	170.00	183.00	239.00	259.00	258.00	206.00	197.00	170.00	219.00	243.00	251.00	261.00	240.00	196.00	192.00	208.00	233.00	222.00	228.00	205.00	201.00	213.00	248.00	205.00	199.00	243.00	256.00	267.00	257.00	256.00	233.00	200.00	182.00	138.00	195.00	220.00	226.00	220.00	228.00	216.00	233.00	248.00	257.00	186.00	231.00	212.00	213.00	217.00	203.00	199.00	206.00	163.00	203.00	181.00	150.00	145.00	138.00	166.00	162.00	146.00	175.00	145.00	199.00	211.00	232.00	214.00	239.00	227.00	219.00	214.00	251.00	258.00	218.00	166.00	165.00	143.00	179.00	238.00	253.00	283.00	292.00
123.00	111.00	122.00	100.00	100.00	104.00	89.00	144.00	143.00	155.00	149.00	166.00	186.00	177.00	185.00	172.00	210.00	231.00	201.00	204.00	217.00	211.00	221.00	226.00	236.00	277.00	295.00	291.00	279.00	267.00	235.00	212.00	201.00	196.00	125.00	151.00	126.00	126.00	218.00	157.00	200.00	229.00	249.00	284.00	252.00	233.00	175.00	218.00	222.00	240.00	272.00	249.00	335.00	327.00	351.00	367.00	341.00	384.00	385.00	354.00	299.00	322.00	293.00	321.00	364.00	356.00	341.00	341.00	347.00	360.00	390.00	406.00	420.00	454.00	440.00	386.00	371.00	368.00	360.00	344.00	341.00	362.00	372.00	405.00	387.00	363.00	340.00	338.00	353.00	328.00	301.00	284.00	281.00	270.00	268.00	268.00	260.00	233.00	220.00	215.00	238.00	244.00	205.00	193.00	198.00	240.00	241.00	245.00	249.00	260.00	263.00	250.00	255.00	243.00	232.00	160.00	129.00	140.00	159.00	177.00	202.00	226.00	242.00	258.00	295.00	343.00	302.00	279.00	262.00	180.00	176.00	173.00	218.00	214.00	237.00	266.00	192.00	293.00	107.00	91.00	112.00	105.00	100.00	114.00	120.00	109.00	149.00	155.00	180.00	195.00	186.00	158.00	150.00	113.00	112.00	151.00	199.00	224.00	218.00	223.00	166.00	186.00	215.00	234.00	231.00	150.00	216.00	241.00	256.00	255.00	265.00	268.00	271.00	260.00	257.00	226.00	169.00	184.00	282.00	278.00	260.00	251.00	173.00	139.00	148.00	178.00	218.00	170.00	215.00	191.00	178.00	137.00	145.00	137.00	168.00	211.00	179.00	162.00	175.00	227.00	242.00	232.00	232.00	188.00	164.00	127.00	136.00	130.00	157.00	217.00	229.00	248.00	254.00	261.00	204.00	206.00	256.00	270.00	216.00	217.00	246.00	256.00	235.00	249.00	238.00	224.00	222.00	257.00	239.00	220.00	242.00	197.00	168.00	135.00	142.00	173.00	226.00	262.00	250.00	249.00	258.00	263.00	276.00	258.00	263.00	287.00	281.00	230.00	223.00	239.00	183.00	156.00	215.00	207.00	286.00	295.00
123.00	111.00	122.00	100.00	100.00	104.00	89.00	144.00	143.00	155.00	149.00	166.00	186.00	177.00	185.00	172.00	210.00	231.00	201.00	204.00	217.00	211.00	221.00	226.00	236.00	277.00	295.00	291.00	279.00	267.00	235.00	212.00	201.00	196.00	125.00	151.00	126.00	126.00	218.00	157.00	200.00	229.00	249.00	284.00	252.00	233.00	175.00	218.00	222.00	240.00	272.00	249.00	335.00	327.00	351.00	367.00	341.00	384.00	385.00	354.00	299.00	322.00	293.00	321.00	364.00	356.00	341.00	341.00	347.00	360.00	390.00	406.00	420.00	454.00	440.00	386.00	371.00	368.00	360.00	344.00	341.00	362.00	372.00	405.00	387.00	363.00	340.00	338.00	353.00	328.00	301.00	284.00	281.00	270.00	268.00	268.00	260.00	233.00	220.00	215.00	238.00	244.00	205.00	193.00	198.00	240.00	241.00	245.00	249.00	260.00	263.00	250.00	255.00	243.00	232.00	160.00	129.00	140.00	159.00	177.00	202.00	226.00	242.00	258.00	295.00	343.00	302.00	279.00	262.00	180.00	176.00	173.00	218.00	214.00	237.00	266.00	192.00	293.00	107.00	91.00	112.00	105.00	100.00	114.00	120.00	109.00	149.00	155.00	180.00	195.00	186.00	158.00	150.00	113.00	112.00	151.00	199.00	224.00	218.00	223.00	166.00	186.00	215.00	234.00	231.00	150.00	216.00	241.00	256.00	255.00	265.00	268.00	271.00	260.00	257.00	226.00	169.00	184.00	282.00	278.00	260.00	251.00	173.00	139.00	148.00	178.00	218.00	170.00	215.00	191.00	178.00	137.00	145.00	137.00	168.00	211.00	179.00	162.00	175.00	227.00	242.00	232.00	232.00	188.00	164.00	127.00	136.00	130.00	157.00	217.00	229.00	248.00	254.00	261.00	204.00	206.00	256.00	270.00	216.00	217.00	246.00	256.00	235.00	249.00	238.00	224.00	222.00	257.00	239.00	220.00	242.00	197.00	168.00	135.00	142.00	173.00	226.00	262.00	250.00	249.00	258.00	263.00	276.00	258.00	263.00	287.00	281.00	230.00	223.00	239.00	183.00	156.00	215.00	207.00	286.00	295.00
153.00	147.00	137.00	114.00	86.00	80.00	105.00	133.00	142.00	149.00	142.00	148.00	147.00	157.00	176.00	160.00	177.00	186.00	186.00	174.00	183.00	219.00	226.00	240.00	270.00	286.00	293.00	284.00	274.00	261.00	237.00	201.00	170.00	174.00	130.00	115.00	111.00	128.00	162.00	198.00	193.00	199.00	256.00	265.00	232.00	185.00	168.00	240.00	194.00	249.00	231.00	219.00	265.00	294.00	311.00	319.00	364.00	374.00	349.00	319.00	307.00	305.00	314.00	302.00	331.00	346.00	338.00	328.00	327.00	325.00	348.00	355.00	368.00	391.00	411.00	455.00	447.00	419.00	391.00	374.00	375.00	383.00	407.00	404.00	384.00	403.00	409.00	415.00	425.00	421.00	389.00	338.00	324.00	315.00	249.00	236.00	228.00	233.00	205.00	215.00	231.00	219.00	233.00	201.00	192.00	225.00	245.00	246.00	257.00	265.00	251.00	230.00	236.00	238.00	239.00	208.00	160.00	140.00	174.00	193.00	210.00	239.00	258.00	262.00	309.00	315.00	286.00	275.00	263.00	196.00	162.00	145.00	191.00	198.00	195.00	200.00	132.00	131.00	87.00	79.00	84.00	90.00	116.00	126.00	142.00	129.00	140.00	158.00	189.00	195.00	190.00	179.00	128.00	120.00	163.00	172.00	199.00	215.00	226.00	228.00	209.00	198.00	220.00	239.00	225.00	142.00	213.00	254.00	270.00	254.00	262.00	270.00	283.00	276.00	280.00	260.00	249.00	235.00	253.00	281.00	278.00	275.00	250.00	230.00	210.00	163.00	132.00	125.00	138.00	137.00	164.00	163.00	182.00	184.00	161.00	144.00	127.00	163.00	193.00	206.00	225.00	212.00	160.00	133.00	151.00	204.00	194.00	173.00	207.00	249.00	241.00	249.00	256.00	263.00	236.00	223.00	242.00	263.00	260.00	242.00	258.00	267.00	253.00	262.00	256.00	252.00	246.00	248.00	273.00	267.00	270.00	244.00	209.00	147.00	160.00	241.00	225.00	249.00	259.00	268.00	275.00	270.00	285.00	273.00	281.00	289.00	286.00	235.00	257.00	286.00	247.00	145.00	154.00	179.00	245.00	256.00
135.00	134.00	146.00	156.00	141.00	112.00	92.00	112.00	113.00	124.00	145.00	150.00	124.00	137.00	129.00	137.00	165.00	176.00	188.00	193.00	192.00	258.00	278.00	280.00	285.00	287.00	277.00	256.00	240.00	218.00	219.00	199.00	172.00	157.00	150.00	133.00	121.00	164.00	200.00	120.00	146.00	139.00	166.00	166.00	148.00	201.00	204.00	178.00	185.00	195.00	210.00	222.00	292.00	269.00	297.00	325.00	325.00	332.00	272.00	330.00	342.00	284.00	319.00	318.00	327.00	312.00	299.00	315.00	365.00	351.00	346.00	356.00	368.00	374.00	385.00	383.00	384.00	391.00	398.00	424.00	455.00	455.00	427.00	405.00	398.00	391.00	365.00	357.00	339.00	334.00	340.00	341.00	334.00	338.00	367.00	347.00	312.00	249.00	240.00	231.00	229.00	217.00	180.00	184.00	174.00	212.00	240.00	252.00	263.00	278.00	273.00	241.00	217.00	185.00	187.00	142.00	153.00	197.00	207.00	205.00	264.00	289.00	315.00	296.00	292.00	288.00	283.00	271.00	244.00	257.00	251.00	209.00	195.00	92.00	83.00	79.00	179.00	216.00	221.00	186.00	86.00	109.00	140.00	152.00	177.00	176.00	180.00	181.00	183.00	166.00	154.00	117.00	103.00	110.00	152.00	197.00	209.00	242.00	245.00	252.00	257.00	241.00	235.00	256.00	215.00	149.00	156.00	195.00	260.00	276.00	281.00	274.00	274.00	288.00	299.00	299.00	303.00	286.00	239.00	229.00	242.00	241.00	277.00	286.00	267.00	246.00	213.00	253.00	256.00	255.00	242.00	196.00	224.00	247.00	267.00	253.00	244.00	224.00	193.00	150.00	145.00	178.00	165.00	154.00	205.00	274.00	265.00	245.00	244.00	253.00	271.00	282.00	277.00	276.00	258.00	249.00	249.00	259.00	292.00	287.00	276.00	287.00	283.00	287.00	276.00	261.00	256.00	273.00	271.00	280.00	283.00	235.00	176.00	157.00	204.00	240.00	216.00	219.00	202.00	234.00	266.00	280.00	289.00	294.00	305.00	305.00	286.00	269.00	283.00	289.00	251.00	231.00	235.00	198.00	194.00	228.00
147.00	138.00	122.00	130.00	134.00	103.00	87.00	114.00	105.00	123.00	139.00	142.00	120.00	142.00	129.00	124.00	150.00	153.00	169.00	185.00	213.00	265.00	285.00	284.00	277.00	278.00	255.00	246.00	244.00	231.00	212.00	208.00	182.00	151.00	152.00	206.00	204.00	218.00	187.00	127.00	132.00	150.00	128.00	122.00	163.00	193.00	168.00	197.00	253.00	197.00	217.00	247.00	270.00	255.00	293.00	295.00	310.00	281.00	266.00	291.00	273.00	257.00	308.00	322.00	355.00	366.00	375.00	384.00	385.00	360.00	355.00	350.00	359.00	371.00	356.00	353.00	362.00	371.00	392.00	454.00	519.00	550.00	503.00	453.00	412.00	383.00	380.00	398.00	391.00	363.00	361.00	365.00	370.00	336.00	326.00	346.00	398.00	333.00	256.00	228.00	214.00	202.00	206.00	211.00	182.00	205.00	239.00	242.00	252.00	265.00	265.00	238.00	221.00	212.00	182.00	162.00	131.00	182.00	218.00	229.00	292.00	314.00	305.00	278.00	276.00	279.00	257.00	237.00	202.00	243.00	233.00	211.00	158.00	107.00	95.00	105.00	159.00	255.00	174.00	247.00	148.00	88.00	140.00	145.00	171.00	179.00	180.00	179.00	181.00	152.00	105.00	109.00	147.00	160.00	184.00	196.00	193.00	249.00	259.00	264.00	281.00	256.00	241.00	267.00	228.00	152.00	195.00	185.00	216.00	245.00	272.00	291.00	289.00	285.00	290.00	298.00	302.00	301.00	262.00	250.00	251.00	247.00	276.00	293.00	276.00	263.00	262.00	266.00	274.00	272.00	260.00	213.00	219.00	222.00	253.00	269.00	268.00	253.00	233.00	202.00	214.00	234.00	216.00	180.00	167.00	258.00	275.00	268.00	272.00	252.00	284.00	293.00	288.00	283.00	278.00	270.00	266.00	263.00	299.00	303.00	282.00	296.00	296.00	286.00	279.00	275.00	274.00	288.00	288.00	285.00	282.00	190.00	180.00	228.00	229.00	275.00	274.00	265.00	251.00	221.00	243.00	266.00	266.00	282.00	291.00	309.00	300.00	303.00	305.00	302.00	265.00	245.00	237.00	199.00	170.00	188.00
142.00	130.00	128.00	108.00	90.00	96.00	91.00	109.00	91.00	112.00	132.00	131.00	121.00	137.00	131.00	117.00	142.00	191.00	215.00	245.00	252.00	289.00	293.00	291.00	258.00	266.00	258.00	245.00	228.00	213.00	189.00	187.00	162.00	128.00	145.00	232.00	282.00	247.00	214.00	200.00	184.00	163.00	163.00	130.00	130.00	127.00	133.00	187.00	238.00	179.00	206.00	229.00	268.00	274.00	282.00	260.00	297.00	249.00	262.00	214.00	251.00	280.00	311.00	298.00	312.00	337.00	380.00	390.00	380.00	367.00	403.00	413.00	422.00	420.00	384.00	319.00	320.00	323.00	358.00	507.00	568.00	573.00	556.00	485.00	446.00	431.00	413.00	409.00	378.00	371.00	386.00	382.00	368.00	326.00	336.00	353.00	350.00	396.00	319.00	273.00	249.00	254.00	210.00	203.00	194.00	186.00	238.00	226.00	238.00	259.00	258.00	240.00	238.00	226.00	205.00	158.00	134.00	160.00	201.00	206.00	276.00	283.00	284.00	271.00	268.00	280.00	255.00	241.00	237.00	172.00	186.00	162.00	108.00	166.00	117.00	98.00	140.00	204.00	214.00	225.00	250.00	138.00	111.00	152.00	172.00	167.00	172.00	153.00	124.00	104.00	144.00	169.00	159.00	154.00	187.00	206.00	219.00	219.00	253.00	273.00	295.00	276.00	250.00	266.00	266.00	211.00	157.00	228.00	235.00	244.00	267.00	284.00	296.00	298.00	294.00	301.00	307.00	303.00	291.00	278.00	263.00	250.00	284.00	286.00	289.00	290.00	285.00	285.00	281.00	264.00	251.00	241.00	253.00	238.00	239.00	257.00	272.00	267.00	261.00	232.00	237.00	234.00	213.00	152.00	195.00	254.00	277.00	287.00	289.00	263.00	283.00	300.00	301.00	289.00	286.00	288.00	283.00	283.00	302.00	316.00	293.00	294.00	301.00	303.00	297.00	289.00	294.00	301.00	297.00	290.00	256.00	211.00	234.00	256.00	257.00	286.00	294.00	285.00	275.00	252.00	276.00	264.00	273.00	279.00	288.00	306.00	316.00	324.00	319.00	313.00	291.00	266.00	271.00	236.00	145.00	194.00
142.00	130.00	128.00	108.00	90.00	96.00	91.00	109.00	91.00	112.00	132.00	131.00	121.00	137.00	131.00	117.00	142.00	191.00	215.00	245.00	252.00	289.00	293.00	291.00	258.00	266.00	258.00	245.00	228.00	213.00	189.00	187.00	162.00	128.00	145.00	232.00	282.00	247.00	214.00	200.00	184.00	163.00	163.00	130.00	130.00	127.00	133.00	187.00	238.00	179.00	206.00	229.00	268.00	274.00	282.00	260.00	297.00	249.00	262.00	214.00	251.00	280.00	311.00	298.00	312.00	337.00	380.00	390.00	380.00	367.00	403.00	413.00	422.00	420.00	384.00	319.00	320.00	323.00	358.00	507.00	568.00	573.00	556.00	485.00	446.00	431.00	413.00	409.00	378.00	371.00	386.00	382.00	368.00	326.00	336.00	353.00	350.00	396.00	319.00	273.00	249.00	254.00	210.00	203.00	194.00	186.00	238.00	226.00	238.00	259.00	258.00	240.00	238.00	226.00	205.00	158.00	134.00	160.00	201.00	206.00	276.00	283.00	284.00	271.00	268.00	280.00	255.00	241.00	237.00	172.00	186.00	162.00	108.00	166.00	117.00	98.00	140.00	204.00	214.00	225.00	250.00	138.00	111.00	152.00	172.00	167.00	172.00	153.00	124.00	104.00	144.00	169.00	159.00	154.00	187.00	206.00	219.00	219.00	253.00	273.00	295.00	276.00	250.00	266.00	266.00	211.00	157.00	228.00	235.00	244.00	267.00	284.00	296.00	298.00	294.00	301.00	307.00	303.00	291.00	278.00	263.00	250.00	284.00	286.00	289.00	290.00	285.00	285.00	281.00	264.00	251.00	241.00	253.00	238.00	239.00	257.00	272.00	267.00	261.00	232.00	237.00	234.00	213.00	152.00	195.00	254.00	277.00	287.00	289.00	263.00	283.00	300.00	301.00	289.00	286.00	288.00	283.00	283.00	302.00	316.00	293.00	294.00	301.00	303.00	297.00	289.00	294.00	301.00	297.00	290.00	256.00	211.00	234.00	256.00	257.00	286.00	294.00	285.00	275.00	252.00	276.00	264.00	273.00	279.00	288.00	306.00	316.00	324.00	319.00	313.00	291.00	266.00	271.00	236.00	145.00	194.00
159.00	133.00	121.00	105.00	76.00	74.00	67.00	106.00	122.00	115.00	112.00	109.00	106.00	113.00	113.00	114.00	224.00	247.00	251.00	242.00	254.00	280.00	287.00	279.00	262.00	210.00	216.00	195.00	190.00	220.00	179.00	125.00	112.00	119.00	221.00	253.00	285.00	296.00	293.00	267.00	236.00	227.00	281.00	193.00	225.00	201.00	170.00	174.00	217.00	215.00	161.00	180.00	253.00	265.00	255.00	232.00	235.00	276.00	236.00	231.00	288.00	285.00	282.00	312.00	315.00	308.00	268.00	275.00	295.00	301.00	340.00	368.00	414.00	555.00	570.00	387.00	319.00	303.00	344.00	440.00	500.00	542.00	536.00	492.00	407.00	416.00	409.00	422.00	412.00	411.00	401.00	408.00	398.00	300.00	326.00	338.00	369.00	352.00	344.00	355.00	323.00	363.00	272.00	220.00	195.00	184.00	156.00	168.00	187.00	205.00	222.00	225.00	211.00	197.00	206.00	205.00	171.00	129.00	179.00	201.00	237.00	238.00	242.00	255.00	285.00	318.00	317.00	278.00	244.00	174.00	111.00	106.00	178.00	142.00	98.00	106.00	128.00	148.00	253.00	269.00	263.00	228.00	122.00	90.00	85.00	91.00	136.00	161.00	158.00	179.00	212.00	187.00	223.00	208.00	193.00	214.00	238.00	278.00	257.00	273.00	322.00	327.00	299.00	283.00	282.00	266.00	250.00	213.00	188.00	266.00	272.00	265.00	272.00	292.00	297.00	308.00	316.00	327.00	306.00	292.00	269.00	275.00	295.00	295.00	291.00	296.00	306.00	304.00	294.00	279.00	269.00	272.00	260.00	243.00	236.00	264.00	273.00	266.00	268.00	242.00	233.00	228.00	211.00	188.00	158.00	190.00	190.00	238.00	248.00	299.00	298.00	298.00	302.00	306.00	288.00	290.00	303.00	309.00	320.00	323.00	311.00	315.00	323.00	323.00	322.00	314.00	312.00	318.00	296.00	267.00	255.00	222.00	265.00	276.00	288.00	298.00	311.00	300.00	287.00	299.00	287.00	305.00	294.00	292.00	295.00	306.00	309.00	317.00	329.00	333.00	307.00	260.00	243.00	256.00	194.00	187.00
153.00	138.00	130.00	90.00	71.00	76.00	89.00	109.00	120.00	113.00	106.00	103.00	101.00	100.00	107.00	133.00	226.00	232.00	228.00	226.00	236.00	265.00	276.00	263.00	247.00	198.00	166.00	182.00	146.00	188.00	186.00	142.00	115.00	117.00	194.00	217.00	259.00	286.00	280.00	289.00	286.00	262.00	275.00	242.00	254.00	196.00	193.00	232.00	239.00	212.00	218.00	232.00	221.00	213.00	215.00	233.00	257.00	281.00	217.00	274.00	274.00	263.00	289.00	287.00	281.00	252.00	299.00	294.00	287.00	294.00	351.00	375.00	393.00	499.00	546.00	419.00	348.00	296.00	313.00	422.00	453.00	464.00	498.00	551.00	406.00	382.00	371.00	365.00	405.00	405.00	408.00	381.00	363.00	301.00	324.00	312.00	323.00	356.00	340.00	361.00	325.00	300.00	342.00	278.00	241.00	188.00	158.00	197.00	219.00	220.00	207.00	194.00	195.00	175.00	187.00	169.00	144.00	133.00	165.00	193.00	225.00	255.00	264.00	272.00	313.00	292.00	286.00	252.00	225.00	174.00	137.00	94.00	185.00	121.00	107.00	113.00	126.00	138.00	215.00	293.00	277.00	279.00	148.00	115.00	111.00	114.00	162.00	178.00	179.00	191.00	188.00	202.00	208.00	216.00	229.00	203.00	227.00	278.00	279.00	290.00	287.00	299.00	296.00	292.00	295.00	291.00	277.00	246.00	140.00	255.00	277.00	279.00	279.00	293.00	292.00	306.00	314.00	321.00	303.00	287.00	276.00	278.00	298.00	305.00	307.00	300.00	305.00	318.00	307.00	295.00	287.00	276.00	269.00	266.00	253.00	276.00	283.00	279.00	273.00	242.00	220.00	220.00	236.00	185.00	219.00	158.00	170.00	209.00	238.00	307.00	310.00	313.00	310.00	312.00	299.00	299.00	311.00	314.00	322.00	332.00	324.00	327.00	331.00	331.00	329.00	325.00	318.00	298.00	290.00	272.00	255.00	221.00	264.00	273.00	288.00	299.00	321.00	312.00	301.00	308.00	300.00	313.00	309.00	308.00	308.00	304.00	310.00	315.00	323.00	328.00	313.00	273.00	288.00	281.00	252.00	236.00
150.00	132.00	116.00	80.00	60.00	74.00	89.00	102.00	106.00	115.00	105.00	97.00	100.00	104.00	115.00	142.00	206.00	200.00	219.00	223.00	245.00	283.00	272.00	258.00	229.00	197.00	176.00	130.00	124.00	143.00	137.00	114.00	123.00	145.00	156.00	207.00	227.00	248.00	239.00	265.00	285.00	287.00	288.00	277.00	233.00	252.00	243.00	246.00	240.00	256.00	269.00	227.00	168.00	184.00	222.00	213.00	197.00	217.00	201.00	216.00	215.00	226.00	235.00	242.00	250.00	332.00	379.00	376.00	317.00	297.00	329.00	351.00	399.00	461.00	492.00	439.00	380.00	321.00	286.00	365.00	420.00	451.00	482.00	533.00	501.00	440.00	392.00	343.00	401.00	389.00	388.00	371.00	342.00	305.00	307.00	304.00	304.00	331.00	332.00	350.00	356.00	333.00	287.00	336.00	320.00	190.00	158.00	189.00	208.00	218.00	223.00	177.00	178.00	166.00	153.00	141.00	123.00	180.00	207.00	217.00	224.00	244.00	273.00	294.00	301.00	269.00	250.00	236.00	221.00	211.00	163.00	88.00	168.00	125.00	118.00	129.00	138.00	142.00	200.00	282.00	304.00	307.00	187.00	165.00	115.00	162.00	168.00	192.00	199.00	208.00	200.00	216.00	226.00	229.00	232.00	235.00	210.00	243.00	238.00	246.00	266.00	277.00	285.00	295.00	308.00	300.00	269.00	226.00	173.00	230.00	263.00	291.00	301.00	301.00	298.00	302.00	307.00	312.00	302.00	290.00	281.00	294.00	286.00	299.00	307.00	316.00	312.00	316.00	320.00	309.00	302.00	290.00	288.00	288.00	272.00	286.00	284.00	282.00	282.00	254.00	261.00	260.00	254.00	214.00	237.00	181.00	173.00	186.00	222.00	300.00	316.00	321.00	321.00	322.00	309.00	311.00	311.00	320.00	328.00	341.00	349.00	352.00	352.00	344.00	339.00	326.00	319.00	296.00	288.00	277.00	271.00	237.00	255.00	259.00	274.00	285.00	319.00	321.00	310.00	310.00	305.00	320.00	319.00	324.00	324.00	317.00	314.00	318.00	325.00	331.00	326.00	300.00	301.00	293.00	275.00	270.00
143.00	136.00	116.00	82.00	55.00	70.00	83.00	93.00	103.00	111.00	113.00	102.00	98.00	102.00	111.00	145.00	182.00	199.00	210.00	209.00	234.00	297.00	284.00	257.00	244.00	195.00	172.00	177.00	127.00	112.00	111.00	114.00	129.00	136.00	175.00	190.00	194.00	205.00	212.00	261.00	277.00	271.00	287.00	281.00	264.00	282.00	286.00	288.00	249.00	268.00	310.00	307.00	197.00	228.00	241.00	225.00	251.00	255.00	245.00	258.00	238.00	265.00	312.00	309.00	297.00	317.00	413.00	386.00	354.00	332.00	333.00	367.00	367.00	436.00	525.00	447.00	379.00	322.00	279.00	323.00	360.00	413.00	454.00	469.00	582.00	514.00	410.00	356.00	364.00	371.00	368.00	347.00	360.00	311.00	284.00	292.00	299.00	303.00	318.00	342.00	357.00	355.00	290.00	260.00	290.00	269.00	159.00	182.00	178.00	197.00	212.00	203.00	192.00	190.00	164.00	116.00	139.00	174.00	200.00	214.00	226.00	249.00	283.00	288.00	275.00	245.00	223.00	224.00	213.00	201.00	164.00	91.00	106.00	129.00	136.00	145.00	162.00	162.00	206.00	264.00	318.00	338.00	223.00	192.00	154.00	128.00	185.00	201.00	216.00	223.00	220.00	232.00	238.00	249.00	250.00	265.00	232.00	222.00	266.00	279.00	286.00	288.00	295.00	292.00	311.00	299.00	279.00	237.00	198.00	225.00	250.00	276.00	291.00	311.00	306.00	306.00	315.00	322.00	300.00	295.00	290.00	301.00	290.00	290.00	301.00	313.00	323.00	322.00	323.00	322.00	313.00	307.00	307.00	310.00	303.00	303.00	295.00	294.00	290.00	258.00	272.00	268.00	247.00	231.00	244.00	214.00	201.00	176.00	210.00	275.00	296.00	309.00	319.00	322.00	324.00	324.00	327.00	330.00	384.00	412.00	433.00	418.00	399.00	369.00	345.00	329.00	320.00	315.00	303.00	287.00	275.00	244.00	245.00	259.00	268.00	287.00	320.00	325.00	324.00	320.00	309.00	328.00	331.00	329.00	332.00	320.00	316.00	320.00	323.00	328.00	334.00	317.00	318.00	308.00	300.00	287.00
128.00	124.00	104.00	62.00	58.00	68.00	77.00	75.00	78.00	90.00	111.00	109.00	91.00	92.00	105.00	134.00	166.00	181.00	202.00	210.00	221.00	285.00	314.00	296.00	265.00	220.00	208.00	184.00	163.00	130.00	112.00	134.00	144.00	126.00	141.00	172.00	195.00	229.00	271.00	244.00	257.00	271.00	264.00	280.00	280.00	278.00	287.00	297.00	261.00	299.00	322.00	289.00	216.00	219.00	257.00	298.00	289.00	317.00	275.00	300.00	281.00	339.00	331.00	384.00	386.00	409.00	408.00	391.00	345.00	318.00	336.00	330.00	319.00	389.00	468.00	424.00	370.00	341.00	283.00	288.00	333.00	364.00	390.00	396.00	432.00	431.00	397.00	363.00	323.00	295.00	315.00	311.00	348.00	353.00	302.00	279.00	290.00	314.00	331.00	348.00	350.00	340.00	313.00	311.00	266.00	315.00	184.00	172.00	153.00	192.00	215.00	220.00	197.00	154.00	131.00	165.00	183.00	198.00	184.00	188.00	199.00	223.00	256.00	257.00	242.00	237.00	210.00	210.00	203.00	178.00	136.00	85.00	137.00	142.00	145.00	156.00	175.00	188.00	208.00	230.00	289.00	332.00	214.00	212.00	208.00	143.00	199.00	205.00	218.00	220.00	230.00	237.00	241.00	253.00	266.00	301.00	285.00	241.00	229.00	242.00	288.00	296.00	304.00	300.00	309.00	295.00	264.00	261.00	193.00	201.00	215.00	234.00	265.00	314.00	318.00	314.00	316.00	324.00	312.00	306.00	296.00	306.00	299.00	294.00	308.00	313.00	318.00	332.00	332.00	327.00	329.00	328.00	333.00	326.00	319.00	311.00	302.00	301.00	305.00	273.00	272.00	261.00	249.00	262.00	271.00	243.00	228.00	175.00	218.00	278.00	282.00	296.00	308.00	315.00	327.00	336.00	341.00	344.00	417.00	500.00	545.00	545.00	511.00	454.00	370.00	339.00	323.00	308.00	297.00	288.00	290.00	275.00	256.00	261.00	278.00	291.00	321.00	329.00	334.00	326.00	313.00	327.00	334.00	335.00	339.00	324.00	326.00	325.00	321.00	325.00	335.00	332.00	324.00	319.00	302.00	288.00
128.00	135.00	123.00	64.00	55.00	61.00	65.00	67.00	68.00	77.00	101.00	97.00	88.00	90.00	97.00	131.00	150.00	161.00	189.00	213.00	221.00	281.00	279.00	310.00	302.00	279.00	238.00	199.00	153.00	133.00	132.00	111.00	112.00	113.00	121.00	145.00	169.00	212.00	276.00	272.00	266.00	258.00	247.00	263.00	260.00	279.00	288.00	298.00	301.00	351.00	321.00	278.00	263.00	263.00	239.00	258.00	289.00	348.00	305.00	315.00	344.00	365.00	305.00	353.00	391.00	443.00	436.00	398.00	337.00	309.00	312.00	328.00	354.00	358.00	428.00	424.00	343.00	300.00	279.00	266.00	278.00	291.00	325.00	368.00	367.00	349.00	344.00	352.00	376.00	355.00	271.00	344.00	371.00	352.00	319.00	310.00	302.00	304.00	334.00	334.00	327.00	332.00	321.00	294.00	327.00	281.00	277.00	191.00	139.00	157.00	183.00	206.00	214.00	184.00	154.00	190.00	181.00	161.00	180.00	206.00	227.00	229.00	234.00	243.00	217.00	216.00	205.00	170.00	174.00	168.00	100.00	146.00	165.00	147.00	146.00	157.00	177.00	201.00	222.00	245.00	267.00	297.00	280.00	224.00	214.00	188.00	180.00	164.00	172.00	176.00	218.00	219.00	237.00	255.00	274.00	283.00	305.00	285.00	269.00	237.00	271.00	284.00	294.00	298.00	297.00	290.00	276.00	280.00	233.00	149.00	178.00	193.00	209.00	291.00	316.00	319.00	319.00	322.00	311.00	304.00	305.00	308.00	310.00	298.00	301.00	303.00	307.00	322.00	337.00	337.00	337.00	345.00	340.00	327.00	319.00	311.00	312.00	307.00	312.00	291.00	283.00	264.00	252.00	271.00	276.00	258.00	213.00	177.00	199.00	258.00	279.00	288.00	293.00	307.00	315.00	326.00	329.00	329.00	372.00	430.00	519.00	566.00	562.00	456.00	404.00	360.00	335.00	314.00	313.00	307.00	296.00	279.00	273.00	263.00	281.00	288.00	312.00	319.00	326.00	324.00	321.00	331.00	338.00	343.00	336.00	334.00	335.00	327.00	327.00	333.00	338.00	331.00	327.00	320.00	303.00	292.00
135.00	137.00	130.00	78.00	54.00	51.00	55.00	69.00	72.00	82.00	87.00	84.00	81.00	92.00	80.00	114.00	133.00	175.00	193.00	202.00	224.00	262.00	261.00	288.00	301.00	297.00	292.00	253.00	228.00	207.00	210.00	164.00	140.00	132.00	111.00	119.00	187.00	251.00	260.00	255.00	240.00	236.00	262.00	240.00	255.00	267.00	283.00	295.00	307.00	321.00	342.00	317.00	297.00	294.00	275.00	267.00	267.00	337.00	341.00	321.00	368.00	415.00	358.00	359.00	386.00	409.00	400.00	359.00	345.00	322.00	324.00	351.00	356.00	364.00	378.00	365.00	330.00	313.00	329.00	264.00	295.00	284.00	295.00	329.00	310.00	343.00	364.00	370.00	296.00	311.00	252.00	310.00	357.00	319.00	290.00	285.00	277.00	305.00	323.00	328.00	319.00	326.00	327.00	324.00	345.00	298.00	330.00	257.00	162.00	141.00	173.00	186.00	194.00	201.00	189.00	183.00	148.00	162.00	184.00	211.00	268.00	268.00	228.00	230.00	188.00	191.00	194.00	141.00	162.00	119.00	93.00	137.00	121.00	123.00	126.00	146.00	192.00	207.00	224.00	241.00	249.00	271.00	348.00	286.00	243.00	209.00	172.00	194.00	207.00	187.00	177.00	212.00	224.00	221.00	236.00	274.00	300.00	306.00	309.00	257.00	258.00	265.00	277.00	293.00	312.00	308.00	298.00	295.00	255.00	166.00	175.00	242.00	265.00	279.00	301.00	303.00	302.00	313.00	313.00	311.00	310.00	316.00	315.00	308.00	309.00	315.00	310.00	317.00	327.00	339.00	345.00	344.00	337.00	330.00	323.00	319.00	314.00	315.00	317.00	299.00	291.00	278.00	265.00	263.00	278.00	275.00	235.00	258.00	252.00	253.00	260.00	268.00	271.00	286.00	304.00	305.00	314.00	328.00	353.00	377.00	491.00	554.00	533.00	542.00	486.00	388.00	374.00	352.00	335.00	318.00	307.00	288.00	280.00	277.00	274.00	277.00	301.00	314.00	320.00	330.00	328.00	332.00	337.00	341.00	339.00	341.00	333.00	327.00	328.00	335.00	339.00	334.00	327.00	322.00	306.00	297.00
135.00	130.00	122.00	98.00	73.00	55.00	48.00	65.00	71.00	83.00	77.00	79.00	67.00	71.00	87.00	116.00	124.00	163.00	202.00	206.00	222.00	247.00	242.00	266.00	269.00	281.00	290.00	274.00	260.00	248.00	243.00	231.00	187.00	161.00	115.00	114.00	181.00	227.00	235.00	230.00	207.00	208.00	257.00	228.00	233.00	254.00	270.00	286.00	289.00	297.00	324.00	340.00	336.00	302.00	291.00	302.00	297.00	343.00	356.00	350.00	344.00	422.00	369.00	344.00	371.00	406.00	414.00	374.00	345.00	307.00	320.00	330.00	354.00	357.00	357.00	359.00	354.00	347.00	317.00	264.00	291.00	322.00	316.00	314.00	306.00	305.00	288.00	298.00	296.00	254.00	240.00	276.00	318.00	299.00	276.00	270.00	277.00	330.00	328.00	320.00	314.00	328.00	334.00	341.00	343.00	291.00	276.00	321.00	228.00	154.00	148.00	163.00	193.00	206.00	210.00	126.00	143.00	182.00	203.00	215.00	259.00	268.00	223.00	193.00	149.00	164.00	123.00	87.00	95.00	84.00	116.00	138.00	130.00	153.00	166.00	138.00	188.00	189.00	212.00	234.00	221.00	232.00	386.00	388.00	284.00	225.00	215.00	193.00	229.00	229.00	204.00	181.00	194.00	208.00	198.00	240.00	248.00	301.00	314.00	289.00	269.00	268.00	278.00	291.00	314.00	314.00	313.00	309.00	284.00	196.00	162.00	238.00	246.00	260.00	272.00	273.00	283.00	289.00	318.00	317.00	318.00	318.00	319.00	321.00	316.00	320.00	311.00	324.00	332.00	339.00	339.00	346.00	346.00	338.00	331.00	324.00	317.00	326.00	322.00	305.00	285.00	280.00	268.00	270.00	279.00	279.00	267.00	292.00	271.00	220.00	244.00	251.00	265.00	286.00	295.00	306.00	320.00	335.00	351.00	358.00	405.00	486.00	526.00	540.00	515.00	482.00	484.00	435.00	373.00	330.00	315.00	303.00	287.00	288.00	280.00	283.00	315.00	322.00	328.00	336.00	336.00	345.00	349.00	346.00	352.00	342.00	335.00	329.00	332.00	339.00	343.00	335.00	326.00	322.00	287.00	266.00
138.00	121.00	113.00	94.00	79.00	61.00	49.00	57.00	63.00	65.00	72.00	72.00	62.00	64.00	75.00	93.00	136.00	182.00	218.00	216.00	224.00	220.00	227.00	247.00	242.00	237.00	267.00	252.00	251.00	239.00	198.00	218.00	179.00	123.00	124.00	134.00	183.00	189.00	185.00	197.00	175.00	210.00	202.00	263.00	266.00	273.00	284.00	292.00	281.00	262.00	306.00	342.00	312.00	290.00	284.00	297.00	312.00	330.00	340.00	358.00	360.00	381.00	372.00	332.00	375.00	395.00	371.00	363.00	348.00	328.00	293.00	308.00	345.00	360.00	343.00	344.00	319.00	286.00	269.00	244.00	251.00	285.00	318.00	317.00	283.00	256.00	232.00	234.00	250.00	256.00	230.00	282.00	285.00	270.00	274.00	275.00	282.00	323.00	301.00	294.00	305.00	314.00	332.00	331.00	331.00	308.00	263.00	244.00	290.00	214.00	163.00	137.00	171.00	197.00	214.00	117.00	159.00	177.00	194.00	221.00	251.00	232.00	217.00	154.00	99.00	97.00	133.00	147.00	168.00	158.00	188.00	206.00	181.00	184.00	144.00	152.00	169.00	172.00	202.00	208.00	218.00	239.00	296.00	394.00	358.00	292.00	239.00	224.00	215.00	232.00	234.00	192.00	217.00	244.00	250.00	237.00	241.00	266.00	280.00	286.00	295.00	283.00	273.00	276.00	290.00	299.00	310.00	313.00	271.00	208.00	148.00	188.00	196.00	214.00	240.00	246.00	256.00	275.00	300.00	311.00	318.00	322.00	329.00	326.00	322.00	319.00	314.00	323.00	328.00	331.00	336.00	340.00	349.00	343.00	336.00	334.00	322.00	326.00	327.00	301.00	294.00	283.00	276.00	285.00	288.00	279.00	281.00	291.00	271.00	225.00	232.00	237.00	257.00	260.00	287.00	314.00	322.00	329.00	356.00	395.00	418.00	425.00	506.00	489.00	500.00	493.00	503.00	528.00	414.00	350.00	328.00	316.00	299.00	297.00	287.00	283.00	302.00	308.00	319.00	328.00	339.00	338.00	347.00	351.00	352.00	341.00	337.00	330.00	334.00	342.00	339.00	325.00	325.00	322.00	298.00	271.00
128.00	117.00	100.00	86.00	72.00	62.00	54.00	48.00	68.00	70.00	77.00	71.00	60.00	64.00	67.00	72.00	167.00	211.00	234.00	234.00	227.00	197.00	213.00	212.00	219.00	215.00	246.00	232.00	202.00	226.00	176.00	189.00	117.00	120.00	148.00	132.00	137.00	147.00	150.00	152.00	168.00	171.00	231.00	263.00	270.00	283.00	279.00	284.00	271.00	249.00	261.00	288.00	293.00	274.00	269.00	283.00	303.00	305.00	334.00	333.00	329.00	355.00	344.00	326.00	352.00	360.00	408.00	390.00	319.00	292.00	277.00	305.00	327.00	303.00	292.00	316.00	297.00	283.00	306.00	279.00	254.00	236.00	270.00	291.00	277.00	293.00	259.00	216.00	222.00	222.00	244.00	317.00	271.00	329.00	307.00	315.00	305.00	296.00	316.00	315.00	325.00	329.00	345.00	335.00	335.00	317.00	332.00	285.00	223.00	221.00	287.00	135.00	124.00	159.00	205.00	118.00	143.00	183.00	205.00	213.00	222.00	213.00	181.00	125.00	123.00	164.00	189.00	204.00	215.00	210.00	222.00	242.00	221.00	211.00	197.00	159.00	143.00	137.00	184.00	205.00	233.00	242.00	232.00	304.00	326.00	360.00	250.00	252.00	254.00	235.00	241.00	229.00	236.00	252.00	252.00	243.00	267.00	263.00	262.00	284.00	296.00	294.00	286.00	296.00	297.00	300.00	303.00	296.00	249.00	189.00	204.00	165.00	169.00	199.00	238.00	267.00	266.00	273.00	290.00	308.00	303.00	310.00	323.00	331.00	330.00	325.00	316.00	325.00	329.00	327.00	327.00	334.00	344.00	350.00	346.00	335.00	327.00	331.00	325.00	309.00	304.00	291.00	286.00	295.00	292.00	294.00	293.00	284.00	268.00	271.00	253.00	243.00	250.00	245.00	288.00	295.00	311.00	329.00	353.00	405.00	509.00	438.00	488.00	452.00	468.00	521.00	515.00	535.00	448.00	368.00	342.00	327.00	307.00	305.00	289.00	295.00	312.00	319.00	321.00	327.00	336.00	344.00	351.00	355.00	353.00	340.00	337.00	333.00	337.00	339.00	335.00	320.00	312.00	310.00	292.00	279.00
