306.00	308.00	310.00	313.00	320.00	320.00	319.00	313.00	305.00	304.00	306.00	309.00	313.00	323.00	326.00	327.00	330.00	342.00	345.00	348.00	353.00	357.00	369.00	377.00	382.00	385.00	388.00	390.00	393.00	397.00	402.00	407.00	409.00	411.00	413.00	416.00	417.00	418.00	420.00	425.00	429.00	431.00	433.00	435.00	436.00	438.00	439.00	439.00	439.00	440.00	440.00	440.00	440.00	439.00	438.00	437.00	436.00	436.00	437.00	437.00	438.00	439.00	442.00	444.00	447.00	450.00	454.00	460.00	462.00	465.00	472.00	477.00	479.00	481.00	484.00	486.00	490.00	492.00	493.00	495.00	497.00	497.00	497.00	497.00	497.00	497.00	497.00	496.00	496.00	495.00	494.00	493.00	492.00	492.00	491.00	490.00	489.00	488.00	485.00	484.00	482.00	481.00	480.00	478.00	477.00	477.00	477.00	476.00	477.00	477.00	478.00	478.00	480.00	481.00	481.00	481.00	480.00	480.00	479.00	479.00	479.00	478.00	479.00	479.00	479.00	480.00	481.00	482.00	484.00	487.00	488.00	489.00	490.00	491.00	492.00	492.00	493.00	493.00	495.00	495.00	496.00	495.00	495.00	496.00	497.00	497.00	498.00	501.00	502.00	503.00	505.00	506.00	509.00	510.00	511.00	511.00	513.00	513.00	514.00	515.00	516.00	518.00	518.00	519.00	519.00	520.00	521.00	521.00	522.00	522.00	523.00	523.00	523.00	524.00	525.00	528.00	529.00	530.00	532.00	534.00	534.00	535.00	536.00	538.00	539.00	542.00	543.00	544.00	547.00	548.00	549.00	550.00	551.00	552.00	553.00	553.00	555.00	557.00	558.00	558.00	560.00	563.00	564.00	565.00	566.00	567.00	569.00	570.00	570.00	571.00	570.00	570.00	570.00	569.00	568.00	566.00	565.00	562.00	560.00	556.00	554.00	553.00	551.00	550.00	547.00	546.00	545.00	545.00	544.00	543.00	543.00	542.00	542.00	541.00	541.00	540.00	540.00	540.00	539.00	538.00	537.00	537.00	537.00	537.00	536.00	536.00	534.00	533.00	531.00	531.00	531.00	529.00	528.00	528.00	527.00	526.00
306.00	308.00	310.00	313.00	320.00	320.00	319.00	313.00	305.00	304.00	306.00	309.00	313.00	323.00	326.00	327.00	330.00	342.00	345.00	348.00	353.00	357.00	369.00	377.00	382.00	385.00	388.00	390.00	393.00	397.00	402.00	407.00	409.00	411.00	413.00	416.00	417.00	418.00	420.00	425.00	429.00	431.00	433.00	435.00	436.00	438.00	439.00	439.00	439.00	440.00	440.00	440.00	440.00	439.00	438.00	437.00	436.00	436.00	437.00	437.00	438.00	439.00	442.00	444.00	447.00	450.00	454.00	460.00	462.00	465.00	472.00	477.00	479.00	481.00	484.00	486.00	490.00	492.00	493.00	495.00	497.00	497.00	497.00	497.00	497.00	497.00	497.00	496.00	496.00	495.00	494.00	493.00	492.00	492.00	491.00	490.00	489.00	488.00	485.00	484.00	482.00	481.00	480.00	478.00	477.00	477.00	477.00	476.00	477.00	477.00	478.00	478.00	480.00	481.00	481.00	481.00	480.00	480.00	479.00	479.00	479.00	478.00	479.00	479.00	479.00	480.00	481.00	482.00	484.00	487.00	488.00	489.00	490.00	491.00	492.00	492.00	493.00	493.00	495.00	495.00	496.00	495.00	495.00	496.00	497.00	497.00	498.00	501.00	502.00	503.00	505.00	506.00	509.00	510.00	511.00	511.00	513.00	513.00	514.00	515.00	516.00	518.00	518.00	519.00	519.00	520.00	521.00	521.00	522.00	522.00	523.00	523.00	523.00	524.00	525.00	528.00	529.00	530.00	532.00	534.00	534.00	535.00	536.00	538.00	539.00	542.00	543.00	544.00	547.00	548.00	549.00	550.00	551.00	552.00	553.00	553.00	555.00	557.00	558.00	558.00	560.00	563.00	564.00	565.00	566.00	567.00	569.00	570.00	570.00	571.00	570.00	570.00	570.00	569.00	568.00	566.00	565.00	562.00	560.00	556.00	554.00	553.00	551.00	550.00	547.00	546.00	545.00	545.00	544.00	543.00	543.00	542.00	542.00	541.00	541.00	540.00	540.00	540.00	539.00	538.00	537.00	537.00	537.00	537.00	536.00	536.00	534.00	533.00	531.00	531.00	531.00	529.00	528.00	528.00	527.00	526.00
306.00	308.00	310.00	313.00	320.00	320.00	319.00	313.00	305.00	304.00	306.00	309.00	313.00	323.00	326.00	327.00	330.00	342.00	345.00	348.00	353.00	357.00	369.00	377.00	382.00	385.00	388.00	390.00	393.00	397.00	402.00	407.00	409.00	411.00	413.00	416.00	417.00	418.00	420.00	425.00	429.00	431.00	433.00	435.00	436.00	438.00	439.00	439.00	439.00	440.00	440.00	440.00	440.00	439.00	438.00	437.00	436.00	436.00	437.00	437.00	438.00	439.00	442.00	444.00	447.00	450.00	454.00	460.00	462.00	465.00	472.00	477.00	479.00	481.00	484.00	486.00	490.00	492.00	493.00	495.00	497.00	497.00	497.00	497.00	497.00	497.00	497.00	496.00	496.00	495.00	494.00	493.00	492.00	492.00	491.00	490.00	489.00	488.00	485.00	484.00	482.00	481.00	480.00	478.00	477.00	477.00	477.00	476.00	477.00	477.00	478.00	478.00	480.00	481.00	481.00	481.00	480.00	480.00	479.00	479.00	479.00	478.00	479.00	479.00	479.00	480.00	481.00	482.00	484.00	487.00	488.00	489.00	490.00	491.00	492.00	492.00	493.00	493.00	495.00	495.00	496.00	495.00	495.00	496.00	497.00	497.00	498.00	501.00	502.00	503.00	505.00	506.00	509.00	510.00	511.00	511.00	513.00	513.00	514.00	515.00	516.00	518.00	518.00	519.00	519.00	520.00	521.00	521.00	522.00	522.00	523.00	523.00	523.00	524.00	525.00	528.00	529.00	530.00	532.00	534.00	534.00	535.00	536.00	538.00	539.00	542.00	543.00	544.00	547.00	548.00	549.00	550.00	551.00	552.00	553.00	553.00	555.00	557.00	558.00	558.00	560.00	563.00	564.00	565.00	566.00	567.00	569.00	570.00	570.00	571.00	570.00	570.00	570.00	569.00	568.00	566.00	565.00	562.00	560.00	556.00	554.00	553.00	551.00	550.00	547.00	546.00	545.00	545.00	544.00	543.00	543.00	542.00	542.00	541.00	541.00	540.00	540.00	540.00	539.00	538.00	537.00	537.00	537.00	537.00	536.00	536.00	534.00	533.00	531.00	531.00	531.00	529.00	528.00	528.00	527.00	526.00
332.00	335.00	337.00	339.00	340.00	339.00	340.00	345.00	352.00	354.00	355.00	354.00	353.00	352.00	353.00	355.00	358.00	374.00	377.00	380.00	384.00	389.00	397.00	400.00	404.00	409.00	419.00	422.00	427.00	429.00	433.00	436.00	435.00	434.00	435.00	438.00	440.00	442.00	443.00	445.00	447.00	449.00	451.00	453.00	457.00	458.00	459.00	460.00	461.00	462.00	463.00	463.00	464.00	462.00	461.00	460.00	459.00	459.00	459.00	460.00	462.00	464.00	468.00	470.00	473.00	476.00	479.00	483.00	485.00	487.00	491.00	494.00	495.00	497.00	498.00	500.00	500.00	501.00	501.00	502.00	504.00	505.00	506.00	506.00	506.00	505.00	504.00	504.00	503.00	502.00	502.00	502.00	502.00	500.00	499.00	498.00	497.00	496.00	493.00	492.00	490.00	490.00	488.00	487.00	486.00	486.00	486.00	487.00	488.00	487.00	487.00	487.00	486.00	485.00	484.00	483.00	482.00	482.00	481.00	481.00	479.00	479.00	479.00	481.00	481.00	483.00	483.00	484.00	484.00	486.00	486.00	487.00	488.00	490.00	493.00	494.00	495.00	496.00	499.00	499.00	499.00	499.00	499.00	500.00	500.00	502.00	502.00	504.00	505.00	506.00	507.00	507.00	508.00	508.00	508.00	509.00	511.00	511.00	512.00	513.00	514.00	515.00	516.00	518.00	519.00	521.00	522.00	522.00	522.00	523.00	523.00	524.00	524.00	525.00	526.00	527.00	527.00	527.00	528.00	530.00	531.00	532.00	534.00	536.00	537.00	539.00	540.00	542.00	544.00	545.00	546.00	547.00	549.00	550.00	550.00	551.00	553.00	555.00	556.00	557.00	558.00	559.00	560.00	561.00	562.00	563.00	567.00	568.00	569.00	569.00	569.00	569.00	569.00	570.00	569.00	568.00	566.00	564.00	563.00	560.00	558.00	556.00	554.00	552.00	550.00	549.00	548.00	546.00	543.00	542.00	541.00	541.00	541.00	540.00	540.00	539.00	539.00	540.00	542.00	542.00	541.00	541.00	540.00	540.00	540.00	539.00	537.00	537.00	535.00	535.00	534.00	532.00	532.00	530.00	529.00	527.00
332.00	335.00	337.00	339.00	340.00	339.00	340.00	345.00	352.00	354.00	355.00	354.00	353.00	352.00	353.00	355.00	358.00	374.00	377.00	380.00	384.00	389.00	397.00	400.00	404.00	409.00	419.00	422.00	427.00	429.00	433.00	436.00	435.00	434.00	435.00	438.00	440.00	442.00	443.00	445.00	447.00	449.00	451.00	453.00	457.00	458.00	459.00	460.00	461.00	462.00	463.00	463.00	464.00	462.00	461.00	460.00	459.00	459.00	459.00	460.00	462.00	464.00	468.00	470.00	473.00	476.00	479.00	483.00	485.00	487.00	491.00	494.00	495.00	497.00	498.00	500.00	500.00	501.00	501.00	502.00	504.00	505.00	506.00	506.00	506.00	505.00	504.00	504.00	503.00	502.00	502.00	502.00	502.00	500.00	499.00	498.00	497.00	496.00	493.00	492.00	490.00	490.00	488.00	487.00	486.00	486.00	486.00	487.00	488.00	487.00	487.00	487.00	486.00	485.00	484.00	483.00	482.00	482.00	481.00	481.00	479.00	479.00	479.00	481.00	481.00	483.00	483.00	484.00	484.00	486.00	486.00	487.00	488.00	490.00	493.00	494.00	495.00	496.00	499.00	499.00	499.00	499.00	499.00	500.00	500.00	502.00	502.00	504.00	505.00	506.00	507.00	507.00	508.00	508.00	508.00	509.00	511.00	511.00	512.00	513.00	514.00	515.00	516.00	518.00	519.00	521.00	522.00	522.00	522.00	523.00	523.00	524.00	524.00	525.00	526.00	527.00	527.00	527.00	528.00	530.00	531.00	532.00	534.00	536.00	537.00	539.00	540.00	542.00	544.00	545.00	546.00	547.00	549.00	550.00	550.00	551.00	553.00	555.00	556.00	557.00	558.00	559.00	560.00	561.00	562.00	563.00	567.00	568.00	569.00	569.00	569.00	569.00	569.00	570.00	569.00	568.00	566.00	564.00	563.00	560.00	558.00	556.00	554.00	552.00	550.00	549.00	548.00	546.00	543.00	542.00	541.00	541.00	541.00	540.00	540.00	539.00	539.00	540.00	542.00	542.00	541.00	541.00	540.00	540.00	540.00	539.00	537.00	537.00	535.00	535.00	534.00	532.00	532.00	530.00	529.00	527.00
332.00	335.00	337.00	339.00	340.00	339.00	340.00	345.00	352.00	354.00	355.00	354.00	353.00	352.00	353.00	355.00	358.00	374.00	377.00	380.00	384.00	389.00	397.00	400.00	404.00	409.00	419.00	422.00	427.00	429.00	433.00	436.00	435.00	434.00	435.00	438.00	440.00	442.00	443.00	445.00	447.00	449.00	451.00	453.00	457.00	458.00	459.00	460.00	461.00	462.00	463.00	463.00	464.00	462.00	461.00	460.00	459.00	459.00	459.00	460.00	462.00	464.00	468.00	470.00	473.00	476.00	479.00	483.00	485.00	487.00	491.00	494.00	495.00	497.00	498.00	500.00	500.00	501.00	501.00	502.00	504.00	505.00	506.00	506.00	506.00	505.00	504.00	504.00	503.00	502.00	502.00	502.00	502.00	500.00	499.00	498.00	497.00	496.00	493.00	492.00	490.00	490.00	488.00	487.00	486.00	486.00	486.00	487.00	488.00	487.00	487.00	487.00	486.00	485.00	484.00	483.00	482.00	482.00	481.00	481.00	479.00	479.00	479.00	481.00	481.00	483.00	483.00	484.00	484.00	486.00	486.00	487.00	488.00	490.00	493.00	494.00	495.00	496.00	499.00	499.00	499.00	499.00	499.00	500.00	500.00	502.00	502.00	504.00	505.00	506.00	507.00	507.00	508.00	508.00	508.00	509.00	511.00	511.00	512.00	513.00	514.00	515.00	516.00	518.00	519.00	521.00	522.00	522.00	522.00	523.00	523.00	524.00	524.00	525.00	526.00	527.00	527.00	527.00	528.00	530.00	531.00	532.00	534.00	536.00	537.00	539.00	540.00	542.00	544.00	545.00	546.00	547.00	549.00	550.00	550.00	551.00	553.00	555.00	556.00	557.00	558.00	559.00	560.00	561.00	562.00	563.00	567.00	568.00	569.00	569.00	569.00	569.00	569.00	570.00	569.00	568.00	566.00	564.00	563.00	560.00	558.00	556.00	554.00	552.00	550.00	549.00	548.00	546.00	543.00	542.00	541.00	541.00	541.00	540.00	540.00	539.00	539.00	540.00	542.00	542.00	541.00	541.00	540.00	540.00	540.00	539.00	537.00	537.00	535.00	535.00	534.00	532.00	532.00	530.00	529.00	527.00
332.00	335.00	337.00	339.00	340.00	339.00	340.00	345.00	352.00	354.00	355.00	354.00	353.00	352.00	353.00	355.00	358.00	374.00	377.00	380.00	384.00	389.00	397.00	400.00	404.00	409.00	419.00	422.00	427.00	429.00	433.00	436.00	435.00	434.00	435.00	438.00	440.00	442.00	443.00	445.00	447.00	449.00	451.00	453.00	457.00	458.00	459.00	460.00	461.00	462.00	463.00	463.00	464.00	462.00	461.00	460.00	459.00	459.00	459.00	460.00	462.00	464.00	468.00	470.00	473.00	476.00	479.00	483.00	485.00	487.00	491.00	494.00	495.00	497.00	498.00	500.00	500.00	501.00	501.00	502.00	504.00	505.00	506.00	506.00	506.00	505.00	504.00	504.00	503.00	502.00	502.00	502.00	502.00	500.00	499.00	498.00	497.00	496.00	493.00	492.00	490.00	490.00	488.00	487.00	486.00	486.00	486.00	487.00	488.00	487.00	487.00	487.00	486.00	485.00	484.00	483.00	482.00	482.00	481.00	481.00	479.00	479.00	479.00	481.00	481.00	483.00	483.00	484.00	484.00	486.00	486.00	487.00	488.00	490.00	493.00	494.00	495.00	496.00	499.00	499.00	499.00	499.00	499.00	500.00	500.00	502.00	502.00	504.00	505.00	506.00	507.00	507.00	508.00	508.00	508.00	509.00	511.00	511.00	512.00	513.00	514.00	515.00	516.00	518.00	519.00	521.00	522.00	522.00	522.00	523.00	523.00	524.00	524.00	525.00	526.00	527.00	527.00	527.00	528.00	530.00	531.00	532.00	534.00	536.00	537.00	539.00	540.00	542.00	544.00	545.00	546.00	547.00	549.00	550.00	550.00	551.00	553.00	555.00	556.00	557.00	558.00	559.00	560.00	561.00	562.00	563.00	567.00	568.00	569.00	569.00	569.00	569.00	569.00	570.00	569.00	568.00	566.00	564.00	563.00	560.00	558.00	556.00	554.00	552.00	550.00	549.00	548.00	546.00	543.00	542.00	541.00	541.00	541.00	540.00	540.00	539.00	539.00	540.00	542.00	542.00	541.00	541.00	540.00	540.00	540.00	539.00	537.00	537.00	535.00	535.00	534.00	532.00	532.00	530.00	529.00	527.00
353.00	353.00	354.00	355.00	353.00	352.00	354.00	367.00	376.00	379.00	382.00	385.00	388.00	390.00	392.00	394.00	396.00	403.00	404.00	406.00	410.00	415.00	420.00	424.00	427.00	430.00	436.00	439.00	445.00	447.00	448.00	450.00	450.00	451.00	452.00	456.00	457.00	458.00	459.00	464.00	466.00	467.00	468.00	469.00	472.00	475.00	476.00	476.00	476.00	477.00	477.00	478.00	479.00	479.00	477.00	476.00	474.00	474.00	477.00	478.00	483.00	486.00	490.00	492.00	495.00	497.00	499.00	502.00	504.00	505.00	508.00	510.00	511.00	511.00	512.00	512.00	513.00	513.00	513.00	513.00	513.00	513.00	513.00	513.00	513.00	513.00	513.00	513.00	513.00	512.00	511.00	509.00	508.00	507.00	506.00	505.00	504.00	503.00	500.00	500.00	499.00	498.00	496.00	494.00	494.00	493.00	493.00	493.00	494.00	494.00	494.00	494.00	492.00	493.00	492.00	492.00	492.00	492.00	492.00	493.00	494.00	494.00	494.00	493.00	493.00	493.00	493.00	493.00	493.00	492.00	491.00	492.00	492.00	493.00	494.00	494.00	495.00	495.00	498.00	498.00	498.00	498.00	498.00	499.00	499.00	499.00	499.00	500.00	500.00	500.00	501.00	502.00	503.00	504.00	505.00	506.00	509.00	510.00	511.00	513.00	514.00	516.00	517.00	518.00	519.00	521.00	521.00	521.00	521.00	522.00	523.00	524.00	525.00	525.00	525.00	525.00	526.00	526.00	527.00	528.00	529.00	530.00	532.00	535.00	537.00	539.00	541.00	542.00	545.00	546.00	547.00	548.00	549.00	551.00	551.00	552.00	554.00	556.00	557.00	558.00	558.00	560.00	561.00	561.00	562.00	563.00	566.00	566.00	566.00	567.00	567.00	567.00	567.00	567.00	566.00	566.00	566.00	565.00	564.00	562.00	560.00	559.00	557.00	555.00	552.00	551.00	550.00	549.00	546.00	545.00	545.00	544.00	543.00	543.00	543.00	542.00	542.00	542.00	545.00	544.00	544.00	544.00	544.00	543.00	543.00	543.00	542.00	541.00	538.00	537.00	536.00	535.00	534.00	533.00	532.00	530.00
353.00	353.00	354.00	355.00	353.00	352.00	354.00	367.00	376.00	379.00	382.00	385.00	388.00	390.00	392.00	394.00	396.00	403.00	404.00	406.00	410.00	415.00	420.00	424.00	427.00	430.00	436.00	439.00	445.00	447.00	448.00	450.00	450.00	451.00	452.00	456.00	457.00	458.00	459.00	464.00	466.00	467.00	468.00	469.00	472.00	475.00	476.00	476.00	476.00	477.00	477.00	478.00	479.00	479.00	477.00	476.00	474.00	474.00	477.00	478.00	483.00	486.00	490.00	492.00	495.00	497.00	499.00	502.00	504.00	505.00	508.00	510.00	511.00	511.00	512.00	512.00	513.00	513.00	513.00	513.00	513.00	513.00	513.00	513.00	513.00	513.00	513.00	513.00	513.00	512.00	511.00	509.00	508.00	507.00	506.00	505.00	504.00	503.00	500.00	500.00	499.00	498.00	496.00	494.00	494.00	493.00	493.00	493.00	494.00	494.00	494.00	494.00	492.00	493.00	492.00	492.00	492.00	492.00	492.00	493.00	494.00	494.00	494.00	493.00	493.00	493.00	493.00	493.00	493.00	492.00	491.00	492.00	492.00	493.00	494.00	494.00	495.00	495.00	498.00	498.00	498.00	498.00	498.00	499.00	499.00	499.00	499.00	500.00	500.00	500.00	501.00	502.00	503.00	504.00	505.00	506.00	509.00	510.00	511.00	513.00	514.00	516.00	517.00	518.00	519.00	521.00	521.00	521.00	521.00	522.00	523.00	524.00	525.00	525.00	525.00	525.00	526.00	526.00	527.00	528.00	529.00	530.00	532.00	535.00	537.00	539.00	541.00	542.00	545.00	546.00	547.00	548.00	549.00	551.00	551.00	552.00	554.00	556.00	557.00	558.00	558.00	560.00	561.00	561.00	562.00	563.00	566.00	566.00	566.00	567.00	567.00	567.00	567.00	567.00	566.00	566.00	566.00	565.00	564.00	562.00	560.00	559.00	557.00	555.00	552.00	551.00	550.00	549.00	546.00	545.00	545.00	544.00	543.00	543.00	543.00	542.00	542.00	542.00	545.00	544.00	544.00	544.00	544.00	543.00	543.00	543.00	542.00	541.00	538.00	537.00	536.00	535.00	534.00	533.00	532.00	530.00
353.00	353.00	354.00	355.00	353.00	352.00	354.00	367.00	376.00	379.00	382.00	385.00	388.00	390.00	392.00	394.00	396.00	403.00	404.00	406.00	410.00	415.00	420.00	424.00	427.00	430.00	436.00	439.00	445.00	447.00	448.00	450.00	450.00	451.00	452.00	456.00	457.00	458.00	459.00	464.00	466.00	467.00	468.00	469.00	472.00	475.00	476.00	476.00	476.00	477.00	477.00	478.00	479.00	479.00	477.00	476.00	474.00	474.00	477.00	478.00	483.00	486.00	490.00	492.00	495.00	497.00	499.00	502.00	504.00	505.00	508.00	510.00	511.00	511.00	512.00	512.00	513.00	513.00	513.00	513.00	513.00	513.00	513.00	513.00	513.00	513.00	513.00	513.00	513.00	512.00	511.00	509.00	508.00	507.00	506.00	505.00	504.00	503.00	500.00	500.00	499.00	498.00	496.00	494.00	494.00	493.00	493.00	493.00	494.00	494.00	494.00	494.00	492.00	493.00	492.00	492.00	492.00	492.00	492.00	493.00	494.00	494.00	494.00	493.00	493.00	493.00	493.00	493.00	493.00	492.00	491.00	492.00	492.00	493.00	494.00	494.00	495.00	495.00	498.00	498.00	498.00	498.00	498.00	499.00	499.00	499.00	499.00	500.00	500.00	500.00	501.00	502.00	503.00	504.00	505.00	506.00	509.00	510.00	511.00	513.00	514.00	516.00	517.00	518.00	519.00	521.00	521.00	521.00	521.00	522.00	523.00	524.00	525.00	525.00	525.00	525.00	526.00	526.00	527.00	528.00	529.00	530.00	532.00	535.00	537.00	539.00	541.00	542.00	545.00	546.00	547.00	548.00	549.00	551.00	551.00	552.00	554.00	556.00	557.00	558.00	558.00	560.00	561.00	561.00	562.00	563.00	566.00	566.00	566.00	567.00	567.00	567.00	567.00	567.00	566.00	566.00	566.00	565.00	564.00	562.00	560.00	559.00	557.00	555.00	552.00	551.00	550.00	549.00	546.00	545.00	545.00	544.00	543.00	543.00	543.00	542.00	542.00	542.00	545.00	544.00	544.00	544.00	544.00	543.00	543.00	543.00	542.00	541.00	538.00	537.00	536.00	535.00	534.00	533.00	532.00	530.00
353.00	353.00	354.00	355.00	353.00	352.00	354.00	367.00	376.00	379.00	382.00	385.00	388.00	390.00	392.00	394.00	396.00	403.00	404.00	406.00	410.00	415.00	420.00	424.00	427.00	430.00	436.00	439.00	445.00	447.00	448.00	450.00	450.00	451.00	452.00	456.00	457.00	458.00	459.00	464.00	466.00	467.00	468.00	469.00	472.00	475.00	476.00	476.00	476.00	477.00	477.00	478.00	479.00	479.00	477.00	476.00	474.00	474.00	477.00	478.00	483.00	486.00	490.00	492.00	495.00	497.00	499.00	502.00	504.00	505.00	508.00	510.00	511.00	511.00	512.00	512.00	513.00	513.00	513.00	513.00	513.00	513.00	513.00	513.00	513.00	513.00	513.00	513.00	513.00	512.00	511.00	509.00	508.00	507.00	506.00	505.00	504.00	503.00	500.00	500.00	499.00	498.00	496.00	494.00	494.00	493.00	493.00	493.00	494.00	494.00	494.00	494.00	492.00	493.00	492.00	492.00	492.00	492.00	492.00	493.00	494.00	494.00	494.00	493.00	493.00	493.00	493.00	493.00	493.00	492.00	491.00	492.00	492.00	493.00	494.00	494.00	495.00	495.00	498.00	498.00	498.00	498.00	498.00	499.00	499.00	499.00	499.00	500.00	500.00	500.00	501.00	502.00	503.00	504.00	505.00	506.00	509.00	510.00	511.00	513.00	514.00	516.00	517.00	518.00	519.00	521.00	521.00	521.00	521.00	522.00	523.00	524.00	525.00	525.00	525.00	525.00	526.00	526.00	527.00	528.00	529.00	530.00	532.00	535.00	537.00	539.00	541.00	542.00	545.00	546.00	547.00	548.00	549.00	551.00	551.00	552.00	554.00	556.00	557.00	558.00	558.00	560.00	561.00	561.00	562.00	563.00	566.00	566.00	566.00	567.00	567.00	567.00	567.00	567.00	566.00	566.00	566.00	565.00	564.00	562.00	560.00	559.00	557.00	555.00	552.00	551.00	550.00	549.00	546.00	545.00	545.00	544.00	543.00	543.00	543.00	542.00	542.00	542.00	545.00	544.00	544.00	544.00	544.00	543.00	543.00	543.00	542.00	541.00	538.00	537.00	536.00	535.00	534.00	533.00	532.00	530.00
371.00	373.00	375.00	378.00	379.00	381.00	384.00	389.00	390.00	393.00	395.00	398.00	400.00	403.00	405.00	406.00	408.00	414.00	416.00	418.00	421.00	423.00	430.00	433.00	436.00	438.00	442.00	445.00	450.00	452.00	453.00	456.00	459.00	462.00	465.00	471.00	473.00	475.00	476.00	480.00	483.00	485.00	487.00	489.00	489.00	489.00	489.00	489.00	489.00	494.00	494.00	495.00	496.00	495.00	493.00	491.00	489.00	487.00	489.00	491.00	496.00	499.00	505.00	507.00	509.00	512.00	515.00	518.00	520.00	521.00	523.00	525.00	526.00	527.00	527.00	527.00	527.00	527.00	527.00	528.00	527.00	526.00	526.00	526.00	525.00	523.00	522.00	521.00	521.00	519.00	519.00	516.00	515.00	514.00	512.00	511.00	510.00	509.00	507.00	506.00	505.00	505.00	505.00	505.00	504.00	503.00	502.00	501.00	501.00	501.00	501.00	500.00	500.00	500.00	499.00	498.00	497.00	496.00	496.00	496.00	496.00	497.00	497.00	499.00	500.00	501.00	502.00	502.00	503.00	503.00	504.00	505.00	505.00	503.00	502.00	501.00	501.00	502.00	502.00	503.00	503.00	503.00	504.00	505.00	505.00	505.00	506.00	506.00	506.00	506.00	507.00	507.00	509.00	509.00	509.00	510.00	511.00	511.00	511.00	511.00	512.00	515.00	516.00	517.00	518.00	519.00	520.00	521.00	521.00	521.00	522.00	522.00	522.00	523.00	524.00	525.00	526.00	527.00	528.00	530.00	531.00	532.00	533.00	536.00	538.00	540.00	541.00	541.00	544.00	545.00	546.00	547.00	548.00	549.00	550.00	550.00	552.00	554.00	555.00	556.00	557.00	559.00	560.00	561.00	562.00	563.00	565.00	566.00	567.00	568.00	569.00	569.00	569.00	568.00	568.00	568.00	568.00	568.00	567.00	566.00	565.00	564.00	562.00	560.00	557.00	557.00	556.00	554.00	552.00	551.00	550.00	550.00	550.00	548.00	548.00	548.00	547.00	547.00	549.00	548.00	547.00	547.00	545.00	545.00	544.00	543.00	543.00	543.00	541.00	541.00	540.00	539.00	539.00	539.00	538.00	536.00
371.00	373.00	375.00	378.00	379.00	381.00	384.00	389.00	390.00	393.00	395.00	398.00	400.00	403.00	405.00	406.00	408.00	414.00	416.00	418.00	421.00	423.00	430.00	433.00	436.00	438.00	442.00	445.00	450.00	452.00	453.00	456.00	459.00	462.00	465.00	471.00	473.00	475.00	476.00	480.00	483.00	485.00	487.00	489.00	489.00	489.00	489.00	489.00	489.00	494.00	494.00	495.00	496.00	495.00	493.00	491.00	489.00	487.00	489.00	491.00	496.00	499.00	505.00	507.00	509.00	512.00	515.00	518.00	520.00	521.00	523.00	525.00	526.00	527.00	527.00	527.00	527.00	527.00	527.00	528.00	527.00	526.00	526.00	526.00	525.00	523.00	522.00	521.00	521.00	519.00	519.00	516.00	515.00	514.00	512.00	511.00	510.00	509.00	507.00	506.00	505.00	505.00	505.00	505.00	504.00	503.00	502.00	501.00	501.00	501.00	501.00	500.00	500.00	500.00	499.00	498.00	497.00	496.00	496.00	496.00	496.00	497.00	497.00	499.00	500.00	501.00	502.00	502.00	503.00	503.00	504.00	505.00	505.00	503.00	502.00	501.00	501.00	502.00	502.00	503.00	503.00	503.00	504.00	505.00	505.00	505.00	506.00	506.00	506.00	506.00	507.00	507.00	509.00	509.00	509.00	510.00	511.00	511.00	511.00	511.00	512.00	515.00	516.00	517.00	518.00	519.00	520.00	521.00	521.00	521.00	522.00	522.00	522.00	523.00	524.00	525.00	526.00	527.00	528.00	530.00	531.00	532.00	533.00	536.00	538.00	540.00	541.00	541.00	544.00	545.00	546.00	547.00	548.00	549.00	550.00	550.00	552.00	554.00	555.00	556.00	557.00	559.00	560.00	561.00	562.00	563.00	565.00	566.00	567.00	568.00	569.00	569.00	569.00	568.00	568.00	568.00	568.00	568.00	567.00	566.00	565.00	564.00	562.00	560.00	557.00	557.00	556.00	554.00	552.00	551.00	550.00	550.00	550.00	548.00	548.00	548.00	547.00	547.00	549.00	548.00	547.00	547.00	545.00	545.00	544.00	543.00	543.00	543.00	541.00	541.00	540.00	539.00	539.00	539.00	538.00	536.00
371.00	373.00	375.00	378.00	379.00	381.00	384.00	389.00	390.00	393.00	395.00	398.00	400.00	403.00	405.00	406.00	408.00	414.00	416.00	418.00	421.00	423.00	430.00	433.00	436.00	438.00	442.00	445.00	450.00	452.00	453.00	456.00	459.00	462.00	465.00	471.00	473.00	475.00	476.00	480.00	483.00	485.00	487.00	489.00	489.00	489.00	489.00	489.00	489.00	494.00	494.00	495.00	496.00	495.00	493.00	491.00	489.00	487.00	489.00	491.00	496.00	499.00	505.00	507.00	509.00	512.00	515.00	518.00	520.00	521.00	523.00	525.00	526.00	527.00	527.00	527.00	527.00	527.00	527.00	528.00	527.00	526.00	526.00	526.00	525.00	523.00	522.00	521.00	521.00	519.00	519.00	516.00	515.00	514.00	512.00	511.00	510.00	509.00	507.00	506.00	505.00	505.00	505.00	505.00	504.00	503.00	502.00	501.00	501.00	501.00	501.00	500.00	500.00	500.00	499.00	498.00	497.00	496.00	496.00	496.00	496.00	497.00	497.00	499.00	500.00	501.00	502.00	502.00	503.00	503.00	504.00	505.00	505.00	503.00	502.00	501.00	501.00	502.00	502.00	503.00	503.00	503.00	504.00	505.00	505.00	505.00	506.00	506.00	506.00	506.00	507.00	507.00	509.00	509.00	509.00	510.00	511.00	511.00	511.00	511.00	512.00	515.00	516.00	517.00	518.00	519.00	520.00	521.00	521.00	521.00	522.00	522.00	522.00	523.00	524.00	525.00	526.00	527.00	528.00	530.00	531.00	532.00	533.00	536.00	538.00	540.00	541.00	541.00	544.00	545.00	546.00	547.00	548.00	549.00	550.00	550.00	552.00	554.00	555.00	556.00	557.00	559.00	560.00	561.00	562.00	563.00	565.00	566.00	567.00	568.00	569.00	569.00	569.00	568.00	568.00	568.00	568.00	568.00	567.00	566.00	565.00	564.00	562.00	560.00	557.00	557.00	556.00	554.00	552.00	551.00	550.00	550.00	550.00	548.00	548.00	548.00	547.00	547.00	549.00	548.00	547.00	547.00	545.00	545.00	544.00	543.00	543.00	543.00	541.00	541.00	540.00	539.00	539.00	539.00	538.00	536.00
371.00	373.00	375.00	378.00	379.00	381.00	384.00	389.00	390.00	393.00	395.00	398.00	400.00	403.00	405.00	406.00	408.00	414.00	416.00	418.00	421.00	423.00	430.00	433.00	436.00	438.00	442.00	445.00	450.00	452.00	453.00	456.00	459.00	462.00	465.00	471.00	473.00	475.00	476.00	480.00	483.00	485.00	487.00	489.00	489.00	489.00	489.00	489.00	489.00	494.00	494.00	495.00	496.00	495.00	493.00	491.00	489.00	487.00	489.00	491.00	496.00	499.00	505.00	507.00	509.00	512.00	515.00	518.00	520.00	521.00	523.00	525.00	526.00	527.00	527.00	527.00	527.00	527.00	527.00	528.00	527.00	526.00	526.00	526.00	525.00	523.00	522.00	521.00	521.00	519.00	519.00	516.00	515.00	514.00	512.00	511.00	510.00	509.00	507.00	506.00	505.00	505.00	505.00	505.00	504.00	503.00	502.00	501.00	501.00	501.00	501.00	500.00	500.00	500.00	499.00	498.00	497.00	496.00	496.00	496.00	496.00	497.00	497.00	499.00	500.00	501.00	502.00	502.00	503.00	503.00	504.00	505.00	505.00	503.00	502.00	501.00	501.00	502.00	502.00	503.00	503.00	503.00	504.00	505.00	505.00	505.00	506.00	506.00	506.00	506.00	507.00	507.00	509.00	509.00	509.00	510.00	511.00	511.00	511.00	511.00	512.00	515.00	516.00	517.00	518.00	519.00	520.00	521.00	521.00	521.00	522.00	522.00	522.00	523.00	524.00	525.00	526.00	527.00	528.00	530.00	531.00	532.00	533.00	536.00	538.00	540.00	541.00	541.00	544.00	545.00	546.00	547.00	548.00	549.00	550.00	550.00	552.00	554.00	555.00	556.00	557.00	559.00	560.00	561.00	562.00	563.00	565.00	566.00	567.00	568.00	569.00	569.00	569.00	568.00	568.00	568.00	568.00	568.00	567.00	566.00	565.00	564.00	562.00	560.00	557.00	557.00	556.00	554.00	552.00	551.00	550.00	550.00	550.00	548.00	548.00	548.00	547.00	547.00	549.00	548.00	547.00	547.00	545.00	545.00	544.00	543.00	543.00	543.00	541.00	541.00	540.00	539.00	539.00	539.00	538.00	536.00
378.00	377.00	376.00	376.00	381.00	385.00	388.00	395.00	401.00	403.00	404.00	405.00	406.00	410.00	410.00	411.00	411.00	419.00	420.00	421.00	423.00	425.00	431.00	433.00	436.00	439.00	447.00	450.00	456.00	461.00	465.00	471.00	472.00	475.00	477.00	481.00	484.00	488.00	491.00	493.00	496.00	497.00	498.00	499.00	501.00	503.00	504.00	506.00	507.00	510.00	512.00	513.00	514.00	514.00	513.00	512.00	512.00	512.00	515.00	517.00	520.00	521.00	523.00	525.00	527.00	529.00	531.00	533.00	534.00	534.00	536.00	537.00	537.00	538.00	538.00	539.00	540.00	541.00	542.00	542.00	540.00	539.00	539.00	539.00	538.00	537.00	536.00	535.00	534.00	531.00	529.00	526.00	524.00	521.00	518.00	517.00	516.00	515.00	513.00	513.00	513.00	512.00	512.00	511.00	510.00	510.00	510.00	508.00	507.00	506.00	505.00	505.00	504.00	504.00	504.00	504.00	505.00	505.00	505.00	505.00	504.00	504.00	504.00	504.00	504.00	504.00	504.00	504.00	504.00	505.00	506.00	507.00	508.00	509.00	510.00	510.00	510.00	511.00	512.00	513.00	514.00	515.00	515.00	516.00	516.00	516.00	516.00	515.00	515.00	515.00	516.00	516.00	517.00	518.00	519.00	519.00	520.00	521.00	522.00	522.00	523.00	525.00	525.00	526.00	526.00	527.00	528.00	528.00	529.00	529.00	530.00	531.00	532.00	533.00	534.00	534.00	534.00	534.00	535.00	536.00	537.00	537.00	539.00	540.00	541.00	542.00	542.00	543.00	545.00	546.00	547.00	548.00	550.00	551.00	552.00	553.00	554.00	557.00	558.00	558.00	559.00	560.00	560.00	561.00	562.00	564.00	566.00	567.00	568.00	568.00	570.00	570.00	571.00	571.00	571.00	572.00	571.00	571.00	570.00	569.00	568.00	567.00	566.00	565.00	561.00	559.00	558.00	557.00	554.00	553.00	553.00	553.00	552.00	552.00	552.00	552.00	551.00	551.00	554.00	552.00	552.00	552.00	551.00	550.00	548.00	548.00	548.00	548.00	547.00	547.00	546.00	546.00	546.00	546.00	546.00	547.00
378.00	377.00	376.00	376.00	381.00	385.00	388.00	395.00	401.00	403.00	404.00	405.00	406.00	410.00	410.00	411.00	411.00	419.00	420.00	421.00	423.00	425.00	431.00	433.00	436.00	439.00	447.00	450.00	456.00	461.00	465.00	471.00	472.00	475.00	477.00	481.00	484.00	488.00	491.00	493.00	496.00	497.00	498.00	499.00	501.00	503.00	504.00	506.00	507.00	510.00	512.00	513.00	514.00	514.00	513.00	512.00	512.00	512.00	515.00	517.00	520.00	521.00	523.00	525.00	527.00	529.00	531.00	533.00	534.00	534.00	536.00	537.00	537.00	538.00	538.00	539.00	540.00	541.00	542.00	542.00	540.00	539.00	539.00	539.00	538.00	537.00	536.00	535.00	534.00	531.00	529.00	526.00	524.00	521.00	518.00	517.00	516.00	515.00	513.00	513.00	513.00	512.00	512.00	511.00	510.00	510.00	510.00	508.00	507.00	506.00	505.00	505.00	504.00	504.00	504.00	504.00	505.00	505.00	505.00	505.00	504.00	504.00	504.00	504.00	504.00	504.00	504.00	504.00	504.00	505.00	506.00	507.00	508.00	509.00	510.00	510.00	510.00	511.00	512.00	513.00	514.00	515.00	515.00	516.00	516.00	516.00	516.00	515.00	515.00	515.00	516.00	516.00	517.00	518.00	519.00	519.00	520.00	521.00	522.00	522.00	523.00	525.00	525.00	526.00	526.00	527.00	528.00	528.00	529.00	529.00	530.00	531.00	532.00	533.00	534.00	534.00	534.00	534.00	535.00	536.00	537.00	537.00	539.00	540.00	541.00	542.00	542.00	543.00	545.00	546.00	547.00	548.00	550.00	551.00	552.00	553.00	554.00	557.00	558.00	558.00	559.00	560.00	560.00	561.00	562.00	564.00	566.00	567.00	568.00	568.00	570.00	570.00	571.00	571.00	571.00	572.00	571.00	571.00	570.00	569.00	568.00	567.00	566.00	565.00	561.00	559.00	558.00	557.00	554.00	553.00	553.00	553.00	552.00	552.00	552.00	552.00	551.00	551.00	554.00	552.00	552.00	552.00	551.00	550.00	548.00	548.00	548.00	548.00	547.00	547.00	546.00	546.00	546.00	546.00	546.00	547.00
378.00	377.00	376.00	376.00	381.00	385.00	388.00	395.00	401.00	403.00	404.00	405.00	406.00	410.00	410.00	411.00	411.00	419.00	420.00	421.00	423.00	425.00	431.00	433.00	436.00	439.00	447.00	450.00	456.00	461.00	465.00	471.00	472.00	475.00	477.00	481.00	484.00	488.00	491.00	493.00	496.00	497.00	498.00	499.00	501.00	503.00	504.00	506.00	507.00	510.00	512.00	513.00	514.00	514.00	513.00	512.00	512.00	512.00	515.00	517.00	520.00	521.00	523.00	525.00	527.00	529.00	531.00	533.00	534.00	534.00	536.00	537.00	537.00	538.00	538.00	539.00	540.00	541.00	542.00	542.00	540.00	539.00	539.00	539.00	538.00	537.00	536.00	535.00	534.00	531.00	529.00	526.00	524.00	521.00	518.00	517.00	516.00	515.00	513.00	513.00	513.00	512.00	512.00	511.00	510.00	510.00	510.00	508.00	507.00	506.00	505.00	505.00	504.00	504.00	504.00	504.00	505.00	505.00	505.00	505.00	504.00	504.00	504.00	504.00	504.00	504.00	504.00	504.00	504.00	505.00	506.00	507.00	508.00	509.00	510.00	510.00	510.00	511.00	512.00	513.00	514.00	515.00	515.00	516.00	516.00	516.00	516.00	515.00	515.00	515.00	516.00	516.00	517.00	518.00	519.00	519.00	520.00	521.00	522.00	522.00	523.00	525.00	525.00	526.00	526.00	527.00	528.00	528.00	529.00	529.00	530.00	531.00	532.00	533.00	534.00	534.00	534.00	534.00	535.00	536.00	537.00	537.00	539.00	540.00	541.00	542.00	542.00	543.00	545.00	546.00	547.00	548.00	550.00	551.00	552.00	553.00	554.00	557.00	558.00	558.00	559.00	560.00	560.00	561.00	562.00	564.00	566.00	567.00	568.00	568.00	570.00	570.00	571.00	571.00	571.00	572.00	571.00	571.00	570.00	569.00	568.00	567.00	566.00	565.00	561.00	559.00	558.00	557.00	554.00	553.00	553.00	553.00	552.00	552.00	552.00	552.00	551.00	551.00	554.00	552.00	552.00	552.00	551.00	550.00	548.00	548.00	548.00	548.00	547.00	547.00	546.00	546.00	546.00	546.00	546.00	547.00
378.00	377.00	376.00	376.00	381.00	385.00	388.00	395.00	401.00	403.00	404.00	405.00	406.00	410.00	410.00	411.00	411.00	419.00	420.00	421.00	423.00	425.00	431.00	433.00	436.00	439.00	447.00	450.00	456.00	461.00	465.00	471.00	472.00	475.00	477.00	481.00	484.00	488.00	491.00	493.00	496.00	497.00	498.00	499.00	501.00	503.00	504.00	506.00	507.00	510.00	512.00	513.00	514.00	514.00	513.00	512.00	512.00	512.00	515.00	517.00	520.00	521.00	523.00	525.00	527.00	529.00	531.00	533.00	534.00	534.00	536.00	537.00	537.00	538.00	538.00	539.00	540.00	541.00	542.00	542.00	540.00	539.00	539.00	539.00	538.00	537.00	536.00	535.00	534.00	531.00	529.00	526.00	524.00	521.00	518.00	517.00	516.00	515.00	513.00	513.00	513.00	512.00	512.00	511.00	510.00	510.00	510.00	508.00	507.00	506.00	505.00	505.00	504.00	504.00	504.00	504.00	505.00	505.00	505.00	505.00	504.00	504.00	504.00	504.00	504.00	504.00	504.00	504.00	504.00	505.00	506.00	507.00	508.00	509.00	510.00	510.00	510.00	511.00	512.00	513.00	514.00	515.00	515.00	516.00	516.00	516.00	516.00	515.00	515.00	515.00	516.00	516.00	517.00	518.00	519.00	519.00	520.00	521.00	522.00	522.00	523.00	525.00	525.00	526.00	526.00	527.00	528.00	528.00	529.00	529.00	530.00	531.00	532.00	533.00	534.00	534.00	534.00	534.00	535.00	536.00	537.00	537.00	539.00	540.00	541.00	542.00	542.00	543.00	545.00	546.00	547.00	548.00	550.00	551.00	552.00	553.00	554.00	557.00	558.00	558.00	559.00	560.00	560.00	561.00	562.00	564.00	566.00	567.00	568.00	568.00	570.00	570.00	571.00	571.00	571.00	572.00	571.00	571.00	570.00	569.00	568.00	567.00	566.00	565.00	561.00	559.00	558.00	557.00	554.00	553.00	553.00	553.00	552.00	552.00	552.00	552.00	551.00	551.00	554.00	552.00	552.00	552.00	551.00	550.00	548.00	548.00	548.00	548.00	547.00	547.00	546.00	546.00	546.00	546.00	546.00	547.00
374.00	375.00	376.00	376.00	376.00	378.00	381.00	390.00	394.00	397.00	402.00	406.00	409.00	415.00	416.00	417.00	419.00	424.00	426.00	427.00	429.00	433.00	439.00	441.00	442.00	445.00	451.00	456.00	462.00	465.00	468.00	474.00	477.00	480.00	483.00	488.00	490.00	491.00	492.00	496.00	498.00	500.00	502.00	503.00	507.00	509.00	512.00	515.00	516.00	519.00	520.00	522.00	524.00	526.00	527.00	528.00	528.00	529.00	532.00	533.00	535.00	537.00	540.00	541.00	543.00	546.00	549.00	553.00	554.00	554.00	556.00	557.00	557.00	557.00	558.00	557.00	557.00	557.00	556.00	554.00	550.00	549.00	548.00	547.00	547.00	546.00	545.00	543.00	542.00	539.00	538.00	535.00	534.00	532.00	527.00	525.00	524.00	523.00	521.00	521.00	520.00	519.00	518.00	518.00	518.00	517.00	516.00	513.00	512.00	511.00	511.00	510.00	510.00	511.00	511.00	512.00	514.00	515.00	516.00	516.00	516.00	516.00	517.00	517.00	517.00	516.00	515.00	515.00	514.00	512.00	512.00	512.00	513.00	514.00	515.00	516.00	516.00	516.00	516.00	516.00	517.00	517.00	517.00	517.00	518.00	518.00	518.00	518.00	517.00	517.00	517.00	518.00	519.00	520.00	522.00	522.00	525.00	526.00	527.00	527.00	528.00	529.00	530.00	530.00	531.00	530.00	530.00	530.00	530.00	531.00	533.00	535.00	536.00	536.00	538.00	538.00	538.00	538.00	538.00	541.00	542.00	543.00	544.00	546.00	547.00	547.00	548.00	548.00	550.00	551.00	552.00	553.00	555.00	557.00	557.00	558.00	559.00	561.00	562.00	562.00	563.00	565.00	566.00	567.00	568.00	569.00	571.00	571.00	572.00	573.00	573.00	574.00	574.00	574.00	575.00	576.00	576.00	576.00	575.00	574.00	573.00	574.00	573.00	572.00	570.00	569.00	567.00	566.00	563.00	562.00	562.00	562.00	561.00	560.00	560.00	560.00	559.00	558.00	559.00	558.00	558.00	558.00	558.00	557.00	558.00	557.00	557.00	556.00	555.00	555.00	554.00	553.00	552.00	551.00	550.00	548.00
374.00	375.00	376.00	376.00	376.00	378.00	381.00	390.00	394.00	397.00	402.00	406.00	409.00	415.00	416.00	417.00	419.00	424.00	426.00	427.00	429.00	433.00	439.00	441.00	442.00	445.00	451.00	456.00	462.00	465.00	468.00	474.00	477.00	480.00	483.00	488.00	490.00	491.00	492.00	496.00	498.00	500.00	502.00	503.00	507.00	509.00	512.00	515.00	516.00	519.00	520.00	522.00	524.00	526.00	527.00	528.00	528.00	529.00	532.00	533.00	535.00	537.00	540.00	541.00	543.00	546.00	549.00	553.00	554.00	554.00	556.00	557.00	557.00	557.00	558.00	557.00	557.00	557.00	556.00	554.00	550.00	549.00	548.00	547.00	547.00	546.00	545.00	543.00	542.00	539.00	538.00	535.00	534.00	532.00	527.00	525.00	524.00	523.00	521.00	521.00	520.00	519.00	518.00	518.00	518.00	517.00	516.00	513.00	512.00	511.00	511.00	510.00	510.00	511.00	511.00	512.00	514.00	515.00	516.00	516.00	516.00	516.00	517.00	517.00	517.00	516.00	515.00	515.00	514.00	512.00	512.00	512.00	513.00	514.00	515.00	516.00	516.00	516.00	516.00	516.00	517.00	517.00	517.00	517.00	518.00	518.00	518.00	518.00	517.00	517.00	517.00	518.00	519.00	520.00	522.00	522.00	525.00	526.00	527.00	527.00	528.00	529.00	530.00	530.00	531.00	530.00	530.00	530.00	530.00	531.00	533.00	535.00	536.00	536.00	538.00	538.00	538.00	538.00	538.00	541.00	542.00	543.00	544.00	546.00	547.00	547.00	548.00	548.00	550.00	551.00	552.00	553.00	555.00	557.00	557.00	558.00	559.00	561.00	562.00	562.00	563.00	565.00	566.00	567.00	568.00	569.00	571.00	571.00	572.00	573.00	573.00	574.00	574.00	574.00	575.00	576.00	576.00	576.00	575.00	574.00	573.00	574.00	573.00	572.00	570.00	569.00	567.00	566.00	563.00	562.00	562.00	562.00	561.00	560.00	560.00	560.00	559.00	558.00	559.00	558.00	558.00	558.00	558.00	557.00	558.00	557.00	557.00	556.00	555.00	555.00	554.00	553.00	552.00	551.00	550.00	548.00
374.00	375.00	376.00	376.00	376.00	378.00	381.00	390.00	394.00	397.00	402.00	406.00	409.00	415.00	416.00	417.00	419.00	424.00	426.00	427.00	429.00	433.00	439.00	441.00	442.00	445.00	451.00	456.00	462.00	465.00	468.00	474.00	477.00	480.00	483.00	488.00	490.00	491.00	492.00	496.00	498.00	500.00	502.00	503.00	507.00	509.00	512.00	515.00	516.00	519.00	520.00	522.00	524.00	526.00	527.00	528.00	528.00	529.00	532.00	533.00	535.00	537.00	540.00	541.00	543.00	546.00	549.00	553.00	554.00	554.00	556.00	557.00	557.00	557.00	558.00	557.00	557.00	557.00	556.00	554.00	550.00	549.00	548.00	547.00	547.00	546.00	545.00	543.00	542.00	539.00	538.00	535.00	534.00	532.00	527.00	525.00	524.00	523.00	521.00	521.00	520.00	519.00	518.00	518.00	518.00	517.00	516.00	513.00	512.00	511.00	511.00	510.00	510.00	511.00	511.00	512.00	514.00	515.00	516.00	516.00	516.00	516.00	517.00	517.00	517.00	516.00	515.00	515.00	514.00	512.00	512.00	512.00	513.00	514.00	515.00	516.00	516.00	516.00	516.00	516.00	517.00	517.00	517.00	517.00	518.00	518.00	518.00	518.00	517.00	517.00	517.00	518.00	519.00	520.00	522.00	522.00	525.00	526.00	527.00	527.00	528.00	529.00	530.00	530.00	531.00	530.00	530.00	530.00	530.00	531.00	533.00	535.00	536.00	536.00	538.00	538.00	538.00	538.00	538.00	541.00	542.00	543.00	544.00	546.00	547.00	547.00	548.00	548.00	550.00	551.00	552.00	553.00	555.00	557.00	557.00	558.00	559.00	561.00	562.00	562.00	563.00	565.00	566.00	567.00	568.00	569.00	571.00	571.00	572.00	573.00	573.00	574.00	574.00	574.00	575.00	576.00	576.00	576.00	575.00	574.00	573.00	574.00	573.00	572.00	570.00	569.00	567.00	566.00	563.00	562.00	562.00	562.00	561.00	560.00	560.00	560.00	559.00	558.00	559.00	558.00	558.00	558.00	558.00	557.00	558.00	557.00	557.00	556.00	555.00	555.00	554.00	553.00	552.00	551.00	550.00	548.00
374.00	375.00	376.00	376.00	376.00	378.00	381.00	390.00	394.00	397.00	402.00	406.00	409.00	415.00	416.00	417.00	419.00	424.00	426.00	427.00	429.00	433.00	439.00	441.00	442.00	445.00	451.00	456.00	462.00	465.00	468.00	474.00	477.00	480.00	483.00	488.00	490.00	491.00	492.00	496.00	498.00	500.00	502.00	503.00	507.00	509.00	512.00	515.00	516.00	519.00	520.00	522.00	524.00	526.00	527.00	528.00	528.00	529.00	532.00	533.00	535.00	537.00	540.00	541.00	543.00	546.00	549.00	553.00	554.00	554.00	556.00	557.00	557.00	557.00	558.00	557.00	557.00	557.00	556.00	554.00	550.00	549.00	548.00	547.00	547.00	546.00	545.00	543.00	542.00	539.00	538.00	535.00	534.00	532.00	527.00	525.00	524.00	523.00	521.00	521.00	520.00	519.00	518.00	518.00	518.00	517.00	516.00	513.00	512.00	511.00	511.00	510.00	510.00	511.00	511.00	512.00	514.00	515.00	516.00	516.00	516.00	516.00	517.00	517.00	517.00	516.00	515.00	515.00	514.00	512.00	512.00	512.00	513.00	514.00	515.00	516.00	516.00	516.00	516.00	516.00	517.00	517.00	517.00	517.00	518.00	518.00	518.00	518.00	517.00	517.00	517.00	518.00	519.00	520.00	522.00	522.00	525.00	526.00	527.00	527.00	528.00	529.00	530.00	530.00	531.00	530.00	530.00	530.00	530.00	531.00	533.00	535.00	536.00	536.00	538.00	538.00	538.00	538.00	538.00	541.00	542.00	543.00	544.00	546.00	547.00	547.00	548.00	548.00	550.00	551.00	552.00	553.00	555.00	557.00	557.00	558.00	559.00	561.00	562.00	562.00	563.00	565.00	566.00	567.00	568.00	569.00	571.00	571.00	572.00	573.00	573.00	574.00	574.00	574.00	575.00	576.00	576.00	576.00	575.00	574.00	573.00	574.00	573.00	572.00	570.00	569.00	567.00	566.00	563.00	562.00	562.00	562.00	561.00	560.00	560.00	560.00	559.00	558.00	559.00	558.00	558.00	558.00	558.00	557.00	558.00	557.00	557.00	556.00	555.00	555.00	554.00	553.00	552.00	551.00	550.00	548.00
375.00	375.00	377.00	378.00	378.00	378.00	377.00	383.00	396.00	403.00	409.00	414.00	416.00	420.00	422.00	423.00	423.00	428.00	430.00	434.00	438.00	442.00	445.00	444.00	444.00	444.00	448.00	452.00	459.00	460.00	464.00	474.00	479.00	483.00	486.00	491.00	493.00	495.00	496.00	498.00	501.00	502.00	504.00	506.00	508.00	511.00	513.00	516.00	519.00	525.00	527.00	530.00	532.00	535.00	536.00	537.00	538.00	539.00	541.00	543.00	547.00	551.00	555.00	558.00	560.00	562.00	564.00	567.00	569.00	571.00	574.00	575.00	576.00	576.00	575.00	574.00	573.00	572.00	571.00	570.00	566.00	564.00	563.00	561.00	559.00	556.00	554.00	551.00	549.00	544.00	543.00	539.00	537.00	536.00	534.00	532.00	531.00	530.00	529.00	529.00	529.00	529.00	528.00	527.00	527.00	527.00	526.00	525.00	524.00	523.00	522.00	521.00	520.00	520.00	520.00	520.00	520.00	520.00	519.00	518.00	518.00	518.00	518.00	517.00	518.00	518.00	518.00	518.00	519.00	520.00	520.00	519.00	519.00	518.00	518.00	518.00	518.00	519.00	520.00	520.00	520.00	521.00	521.00	521.00	521.00	521.00	522.00	523.00	523.00	524.00	524.00	525.00	526.00	526.00	527.00	527.00	529.00	529.00	530.00	531.00	531.00	530.00	531.00	531.00	531.00	533.00	534.00	534.00	535.00	535.00	536.00	537.00	538.00	538.00	539.00	541.00	541.00	542.00	543.00	544.00	545.00	546.00	547.00	549.00	549.00	550.00	552.00	552.00	554.00	554.00	555.00	555.00	557.00	559.00	560.00	561.00	564.00	565.00	566.00	567.00	568.00	568.00	569.00	570.00	570.00	571.00	573.00	573.00	574.00	575.00	576.00	576.00	577.00	577.00	578.00	579.00	579.00	580.00	580.00	580.00	580.00	580.00	580.00	579.00	576.00	575.00	574.00	574.00	571.00	569.00	569.00	569.00	569.00	568.00	567.00	567.00	567.00	567.00	569.00	568.00	567.00	567.00	567.00	567.00	567.00	567.00	567.00	566.00	563.00	563.00	561.00	560.00	559.00	557.00	556.00	553.00
375.00	375.00	377.00	378.00	378.00	378.00	377.00	383.00	396.00	403.00	409.00	414.00	416.00	420.00	422.00	423.00	423.00	428.00	430.00	434.00	438.00	442.00	445.00	444.00	444.00	444.00	448.00	452.00	459.00	460.00	464.00	474.00	479.00	483.00	486.00	491.00	493.00	495.00	496.00	498.00	501.00	502.00	504.00	506.00	508.00	511.00	513.00	516.00	519.00	525.00	527.00	530.00	532.00	535.00	536.00	537.00	538.00	539.00	541.00	543.00	547.00	551.00	555.00	558.00	560.00	562.00	564.00	567.00	569.00	571.00	574.00	575.00	576.00	576.00	575.00	574.00	573.00	572.00	571.00	570.00	566.00	564.00	563.00	561.00	559.00	556.00	554.00	551.00	549.00	544.00	543.00	539.00	537.00	536.00	534.00	532.00	531.00	530.00	529.00	529.00	529.00	529.00	528.00	527.00	527.00	527.00	526.00	525.00	524.00	523.00	522.00	521.00	520.00	520.00	520.00	520.00	520.00	520.00	519.00	518.00	518.00	518.00	518.00	517.00	518.00	518.00	518.00	518.00	519.00	520.00	520.00	519.00	519.00	518.00	518.00	518.00	518.00	519.00	520.00	520.00	520.00	521.00	521.00	521.00	521.00	521.00	522.00	523.00	523.00	524.00	524.00	525.00	526.00	526.00	527.00	527.00	529.00	529.00	530.00	531.00	531.00	530.00	531.00	531.00	531.00	533.00	534.00	534.00	535.00	535.00	536.00	537.00	538.00	538.00	539.00	541.00	541.00	542.00	543.00	544.00	545.00	546.00	547.00	549.00	549.00	550.00	552.00	552.00	554.00	554.00	555.00	555.00	557.00	559.00	560.00	561.00	564.00	565.00	566.00	567.00	568.00	568.00	569.00	570.00	570.00	571.00	573.00	573.00	574.00	575.00	576.00	576.00	577.00	577.00	578.00	579.00	579.00	580.00	580.00	580.00	580.00	580.00	580.00	579.00	576.00	575.00	574.00	574.00	571.00	569.00	569.00	569.00	569.00	568.00	567.00	567.00	567.00	567.00	569.00	568.00	567.00	567.00	567.00	567.00	567.00	567.00	567.00	566.00	563.00	563.00	561.00	560.00	559.00	557.00	556.00	553.00
375.00	375.00	377.00	378.00	378.00	378.00	377.00	383.00	396.00	403.00	409.00	414.00	416.00	420.00	422.00	423.00	423.00	428.00	430.00	434.00	438.00	442.00	445.00	444.00	444.00	444.00	448.00	452.00	459.00	460.00	464.00	474.00	479.00	483.00	486.00	491.00	493.00	495.00	496.00	498.00	501.00	502.00	504.00	506.00	508.00	511.00	513.00	516.00	519.00	525.00	527.00	530.00	532.00	535.00	536.00	537.00	538.00	539.00	541.00	543.00	547.00	551.00	555.00	558.00	560.00	562.00	564.00	567.00	569.00	571.00	574.00	575.00	576.00	576.00	575.00	574.00	573.00	572.00	571.00	570.00	566.00	564.00	563.00	561.00	559.00	556.00	554.00	551.00	549.00	544.00	543.00	539.00	537.00	536.00	534.00	532.00	531.00	530.00	529.00	529.00	529.00	529.00	528.00	527.00	527.00	527.00	526.00	525.00	524.00	523.00	522.00	521.00	520.00	520.00	520.00	520.00	520.00	520.00	519.00	518.00	518.00	518.00	518.00	517.00	518.00	518.00	518.00	518.00	519.00	520.00	520.00	519.00	519.00	518.00	518.00	518.00	518.00	519.00	520.00	520.00	520.00	521.00	521.00	521.00	521.00	521.00	522.00	523.00	523.00	524.00	524.00	525.00	526.00	526.00	527.00	527.00	529.00	529.00	530.00	531.00	531.00	530.00	531.00	531.00	531.00	533.00	534.00	534.00	535.00	535.00	536.00	537.00	538.00	538.00	539.00	541.00	541.00	542.00	543.00	544.00	545.00	546.00	547.00	549.00	549.00	550.00	552.00	552.00	554.00	554.00	555.00	555.00	557.00	559.00	560.00	561.00	564.00	565.00	566.00	567.00	568.00	568.00	569.00	570.00	570.00	571.00	573.00	573.00	574.00	575.00	576.00	576.00	577.00	577.00	578.00	579.00	579.00	580.00	580.00	580.00	580.00	580.00	580.00	579.00	576.00	575.00	574.00	574.00	571.00	569.00	569.00	569.00	569.00	568.00	567.00	567.00	567.00	567.00	569.00	568.00	567.00	567.00	567.00	567.00	567.00	567.00	567.00	566.00	563.00	563.00	561.00	560.00	559.00	557.00	556.00	553.00
375.00	375.00	377.00	378.00	378.00	378.00	377.00	383.00	396.00	403.00	409.00	414.00	416.00	420.00	422.00	423.00	423.00	428.00	430.00	434.00	438.00	442.00	445.00	444.00	444.00	444.00	448.00	452.00	459.00	460.00	464.00	474.00	479.00	483.00	486.00	491.00	493.00	495.00	496.00	498.00	501.00	502.00	504.00	506.00	508.00	511.00	513.00	516.00	519.00	525.00	527.00	530.00	532.00	535.00	536.00	537.00	538.00	539.00	541.00	543.00	547.00	551.00	555.00	558.00	560.00	562.00	564.00	567.00	569.00	571.00	574.00	575.00	576.00	576.00	575.00	574.00	573.00	572.00	571.00	570.00	566.00	564.00	563.00	561.00	559.00	556.00	554.00	551.00	549.00	544.00	543.00	539.00	537.00	536.00	534.00	532.00	531.00	530.00	529.00	529.00	529.00	529.00	528.00	527.00	527.00	527.00	526.00	525.00	524.00	523.00	522.00	521.00	520.00	520.00	520.00	520.00	520.00	520.00	519.00	518.00	518.00	518.00	518.00	517.00	518.00	518.00	518.00	518.00	519.00	520.00	520.00	519.00	519.00	518.00	518.00	518.00	518.00	519.00	520.00	520.00	520.00	521.00	521.00	521.00	521.00	521.00	522.00	523.00	523.00	524.00	524.00	525.00	526.00	526.00	527.00	527.00	529.00	529.00	530.00	531.00	531.00	530.00	531.00	531.00	531.00	533.00	534.00	534.00	535.00	535.00	536.00	537.00	538.00	538.00	539.00	541.00	541.00	542.00	543.00	544.00	545.00	546.00	547.00	549.00	549.00	550.00	552.00	552.00	554.00	554.00	555.00	555.00	557.00	559.00	560.00	561.00	564.00	565.00	566.00	567.00	568.00	568.00	569.00	570.00	570.00	571.00	573.00	573.00	574.00	575.00	576.00	576.00	577.00	577.00	578.00	579.00	579.00	580.00	580.00	580.00	580.00	580.00	580.00	579.00	576.00	575.00	574.00	574.00	571.00	569.00	569.00	569.00	569.00	568.00	567.00	567.00	567.00	567.00	569.00	568.00	567.00	567.00	567.00	567.00	567.00	567.00	567.00	566.00	563.00	563.00	561.00	560.00	559.00	557.00	556.00	553.00
375.00	375.00	377.00	378.00	378.00	378.00	377.00	383.00	396.00	403.00	409.00	414.00	416.00	420.00	422.00	423.00	423.00	428.00	430.00	434.00	438.00	442.00	445.00	444.00	444.00	444.00	448.00	452.00	459.00	460.00	464.00	474.00	479.00	483.00	486.00	491.00	493.00	495.00	496.00	498.00	501.00	502.00	504.00	506.00	508.00	511.00	513.00	516.00	519.00	525.00	527.00	530.00	532.00	535.00	536.00	537.00	538.00	539.00	541.00	543.00	547.00	551.00	555.00	558.00	560.00	562.00	564.00	567.00	569.00	571.00	574.00	575.00	576.00	576.00	575.00	574.00	573.00	572.00	571.00	570.00	566.00	564.00	563.00	561.00	559.00	556.00	554.00	551.00	549.00	544.00	543.00	539.00	537.00	536.00	534.00	532.00	531.00	530.00	529.00	529.00	529.00	529.00	528.00	527.00	527.00	527.00	526.00	525.00	524.00	523.00	522.00	521.00	520.00	520.00	520.00	520.00	520.00	520.00	519.00	518.00	518.00	518.00	518.00	517.00	518.00	518.00	518.00	518.00	519.00	520.00	520.00	519.00	519.00	518.00	518.00	518.00	518.00	519.00	520.00	520.00	520.00	521.00	521.00	521.00	521.00	521.00	522.00	523.00	523.00	524.00	524.00	525.00	526.00	526.00	527.00	527.00	529.00	529.00	530.00	531.00	531.00	530.00	531.00	531.00	531.00	533.00	534.00	534.00	535.00	535.00	536.00	537.00	538.00	538.00	539.00	541.00	541.00	542.00	543.00	544.00	545.00	546.00	547.00	549.00	549.00	550.00	552.00	552.00	554.00	554.00	555.00	555.00	557.00	559.00	560.00	561.00	564.00	565.00	566.00	567.00	568.00	568.00	569.00	570.00	570.00	571.00	573.00	573.00	574.00	575.00	576.00	576.00	577.00	577.00	578.00	579.00	579.00	580.00	580.00	580.00	580.00	580.00	580.00	579.00	576.00	575.00	574.00	574.00	571.00	569.00	569.00	569.00	569.00	568.00	567.00	567.00	567.00	567.00	569.00	568.00	567.00	567.00	567.00	567.00	567.00	567.00	567.00	566.00	563.00	563.00	561.00	560.00	559.00	557.00	556.00	553.00
405.00	406.00	408.00	409.00	413.00	416.00	421.00	432.00	439.00	443.00	445.00	447.00	447.00	448.00	452.00	455.00	456.00	454.00	453.00	452.00	451.00	451.00	452.00	452.00	452.00	454.00	461.00	466.00	473.00	474.00	475.00	479.00	480.00	480.00	482.00	488.00	491.00	494.00	496.00	499.00	502.00	502.00	504.00	506.00	512.00	514.00	516.00	518.00	520.00	527.00	529.00	532.00	535.00	539.00	540.00	542.00	543.00	545.00	546.00	548.00	555.00	558.00	564.00	567.00	570.00	572.00	574.00	577.00	579.00	580.00	583.00	585.00	585.00	586.00	587.00	587.00	588.00	588.00	586.00	584.00	577.00	575.00	573.00	571.00	569.00	565.00	563.00	561.00	559.00	554.00	551.00	544.00	542.00	540.00	538.00	537.00	536.00	536.00	536.00	536.00	536.00	536.00	536.00	535.00	535.00	534.00	533.00	532.00	532.00	532.00	532.00	532.00	533.00	533.00	533.00	531.00	527.00	526.00	525.00	524.00	523.00	522.00	522.00	521.00	521.00	521.00	521.00	521.00	521.00	520.00	520.00	520.00	519.00	519.00	519.00	519.00	520.00	521.00	523.00	524.00	525.00	525.00	525.00	526.00	526.00	526.00	527.00	527.00	528.00	528.00	528.00	529.00	530.00	530.00	531.00	531.00	531.00	531.00	532.00	532.00	533.00	534.00	535.00	535.00	536.00	538.00	539.00	539.00	540.00	541.00	542.00	542.00	543.00	543.00	544.00	545.00	545.00	546.00	547.00	548.00	549.00	549.00	551.00	552.00	553.00	555.00	556.00	557.00	559.00	559.00	560.00	561.00	563.00	563.00	564.00	564.00	566.00	568.00	569.00	569.00	570.00	572.00	573.00	574.00	574.00	575.00	577.00	577.00	578.00	579.00	580.00	580.00	581.00	581.00	582.00	583.00	584.00	585.00	585.00	585.00	585.00	584.00	584.00	583.00	582.00	582.00	581.00	581.00	578.00	576.00	576.00	575.00	575.00	575.00	576.00	576.00	576.00	578.00	576.00	576.00	575.00	575.00	573.00	572.00	571.00	571.00	569.00	569.00	568.00	567.00	566.00	564.00	563.00	562.00	561.00	558.00
405.00	406.00	408.00	409.00	413.00	416.00	421.00	432.00	439.00	443.00	445.00	447.00	447.00	448.00	452.00	455.00	456.00	454.00	453.00	452.00	451.00	451.00	452.00	452.00	452.00	454.00	461.00	466.00	473.00	474.00	475.00	479.00	480.00	480.00	482.00	488.00	491.00	494.00	496.00	499.00	502.00	502.00	504.00	506.00	512.00	514.00	516.00	518.00	520.00	527.00	529.00	532.00	535.00	539.00	540.00	542.00	543.00	545.00	546.00	548.00	555.00	558.00	564.00	567.00	570.00	572.00	574.00	577.00	579.00	580.00	583.00	585.00	585.00	586.00	587.00	587.00	588.00	588.00	586.00	584.00	577.00	575.00	573.00	571.00	569.00	565.00	563.00	561.00	559.00	554.00	551.00	544.00	542.00	540.00	538.00	537.00	536.00	536.00	536.00	536.00	536.00	536.00	536.00	535.00	535.00	534.00	533.00	532.00	532.00	532.00	532.00	532.00	533.00	533.00	533.00	531.00	527.00	526.00	525.00	524.00	523.00	522.00	522.00	521.00	521.00	521.00	521.00	521.00	521.00	520.00	520.00	520.00	519.00	519.00	519.00	519.00	520.00	521.00	523.00	524.00	525.00	525.00	525.00	526.00	526.00	526.00	527.00	527.00	528.00	528.00	528.00	529.00	530.00	530.00	531.00	531.00	531.00	531.00	532.00	532.00	533.00	534.00	535.00	535.00	536.00	538.00	539.00	539.00	540.00	541.00	542.00	542.00	543.00	543.00	544.00	545.00	545.00	546.00	547.00	548.00	549.00	549.00	551.00	552.00	553.00	555.00	556.00	557.00	559.00	559.00	560.00	561.00	563.00	563.00	564.00	564.00	566.00	568.00	569.00	569.00	570.00	572.00	573.00	574.00	574.00	575.00	577.00	577.00	578.00	579.00	580.00	580.00	581.00	581.00	582.00	583.00	584.00	585.00	585.00	585.00	585.00	584.00	584.00	583.00	582.00	582.00	581.00	581.00	578.00	576.00	576.00	575.00	575.00	575.00	576.00	576.00	576.00	578.00	576.00	576.00	575.00	575.00	573.00	572.00	571.00	571.00	569.00	569.00	568.00	567.00	566.00	564.00	563.00	562.00	561.00	558.00
405.00	406.00	408.00	409.00	413.00	416.00	421.00	432.00	439.00	443.00	445.00	447.00	447.00	448.00	452.00	455.00	456.00	454.00	453.00	452.00	451.00	451.00	452.00	452.00	452.00	454.00	461.00	466.00	473.00	474.00	475.00	479.00	480.00	480.00	482.00	488.00	491.00	494.00	496.00	499.00	502.00	502.00	504.00	506.00	512.00	514.00	516.00	518.00	520.00	527.00	529.00	532.00	535.00	539.00	540.00	542.00	543.00	545.00	546.00	548.00	555.00	558.00	564.00	567.00	570.00	572.00	574.00	577.00	579.00	580.00	583.00	585.00	585.00	586.00	587.00	587.00	588.00	588.00	586.00	584.00	577.00	575.00	573.00	571.00	569.00	565.00	563.00	561.00	559.00	554.00	551.00	544.00	542.00	540.00	538.00	537.00	536.00	536.00	536.00	536.00	536.00	536.00	536.00	535.00	535.00	534.00	533.00	532.00	532.00	532.00	532.00	532.00	533.00	533.00	533.00	531.00	527.00	526.00	525.00	524.00	523.00	522.00	522.00	521.00	521.00	521.00	521.00	521.00	521.00	520.00	520.00	520.00	519.00	519.00	519.00	519.00	520.00	521.00	523.00	524.00	525.00	525.00	525.00	526.00	526.00	526.00	527.00	527.00	528.00	528.00	528.00	529.00	530.00	530.00	531.00	531.00	531.00	531.00	532.00	532.00	533.00	534.00	535.00	535.00	536.00	538.00	539.00	539.00	540.00	541.00	542.00	542.00	543.00	543.00	544.00	545.00	545.00	546.00	547.00	548.00	549.00	549.00	551.00	552.00	553.00	555.00	556.00	557.00	559.00	559.00	560.00	561.00	563.00	563.00	564.00	564.00	566.00	568.00	569.00	569.00	570.00	572.00	573.00	574.00	574.00	575.00	577.00	577.00	578.00	579.00	580.00	580.00	581.00	581.00	582.00	583.00	584.00	585.00	585.00	585.00	585.00	584.00	584.00	583.00	582.00	582.00	581.00	581.00	578.00	576.00	576.00	575.00	575.00	575.00	576.00	576.00	576.00	578.00	576.00	576.00	575.00	575.00	573.00	572.00	571.00	571.00	569.00	569.00	568.00	567.00	566.00	564.00	563.00	562.00	561.00	558.00
405.00	406.00	408.00	409.00	413.00	416.00	421.00	432.00	439.00	443.00	445.00	447.00	447.00	448.00	452.00	455.00	456.00	454.00	453.00	452.00	451.00	451.00	452.00	452.00	452.00	454.00	461.00	466.00	473.00	474.00	475.00	479.00	480.00	480.00	482.00	488.00	491.00	494.00	496.00	499.00	502.00	502.00	504.00	506.00	512.00	514.00	516.00	518.00	520.00	527.00	529.00	532.00	535.00	539.00	540.00	542.00	543.00	545.00	546.00	548.00	555.00	558.00	564.00	567.00	570.00	572.00	574.00	577.00	579.00	580.00	583.00	585.00	585.00	586.00	587.00	587.00	588.00	588.00	586.00	584.00	577.00	575.00	573.00	571.00	569.00	565.00	563.00	561.00	559.00	554.00	551.00	544.00	542.00	540.00	538.00	537.00	536.00	536.00	536.00	536.00	536.00	536.00	536.00	535.00	535.00	534.00	533.00	532.00	532.00	532.00	532.00	532.00	533.00	533.00	533.00	531.00	527.00	526.00	525.00	524.00	523.00	522.00	522.00	521.00	521.00	521.00	521.00	521.00	521.00	520.00	520.00	520.00	519.00	519.00	519.00	519.00	520.00	521.00	523.00	524.00	525.00	525.00	525.00	526.00	526.00	526.00	527.00	527.00	528.00	528.00	528.00	529.00	530.00	530.00	531.00	531.00	531.00	531.00	532.00	532.00	533.00	534.00	535.00	535.00	536.00	538.00	539.00	539.00	540.00	541.00	542.00	542.00	543.00	543.00	544.00	545.00	545.00	546.00	547.00	548.00	549.00	549.00	551.00	552.00	553.00	555.00	556.00	557.00	559.00	559.00	560.00	561.00	563.00	563.00	564.00	564.00	566.00	568.00	569.00	569.00	570.00	572.00	573.00	574.00	574.00	575.00	577.00	577.00	578.00	579.00	580.00	580.00	581.00	581.00	582.00	583.00	584.00	585.00	585.00	585.00	585.00	584.00	584.00	583.00	582.00	582.00	581.00	581.00	578.00	576.00	576.00	575.00	575.00	575.00	576.00	576.00	576.00	578.00	576.00	576.00	575.00	575.00	573.00	572.00	571.00	571.00	569.00	569.00	568.00	567.00	566.00	564.00	563.00	562.00	561.00	558.00
433.00	435.00	437.00	441.00	450.00	455.00	459.00	466.00	471.00	474.00	475.00	476.00	475.00	472.00	472.00	472.00	472.00	474.00	474.00	474.00	474.00	474.00	473.00	472.00	472.00	473.00	475.00	477.00	478.00	478.00	477.00	478.00	479.00	480.00	482.00	488.00	490.00	492.00	496.00	503.00	507.00	508.00	510.00	512.00	516.00	517.00	520.00	522.00	525.00	530.00	532.00	533.00	535.00	539.00	543.00	546.00	549.00	551.00	556.00	559.00	563.00	564.00	569.00	571.00	573.00	576.00	578.00	582.00	584.00	585.00	587.00	590.00	591.00	591.00	592.00	594.00	596.00	595.00	594.00	593.00	590.00	588.00	585.00	582.00	579.00	573.00	570.00	569.00	568.00	563.00	561.00	556.00	554.00	553.00	549.00	547.00	546.00	545.00	543.00	542.00	542.00	541.00	541.00	541.00	541.00	540.00	540.00	539.00	539.00	540.00	540.00	541.00	541.00	540.00	539.00	536.00	532.00	532.00	532.00	532.00	531.00	530.00	529.00	529.00	529.00	530.00	530.00	530.00	530.00	529.00	528.00	528.00	528.00	529.00	529.00	529.00	529.00	530.00	530.00	530.00	530.00	530.00	530.00	532.00	532.00	532.00	532.00	533.00	533.00	533.00	534.00	534.00	534.00	534.00	535.00	535.00	536.00	537.00	537.00	538.00	539.00	539.00	540.00	541.00	542.00	543.00	543.00	544.00	544.00	544.00	545.00	546.00	547.00	548.00	549.00	549.00	550.00	550.00	551.00	552.00	552.00	553.00	554.00	555.00	556.00	557.00	557.00	558.00	561.00	563.00	564.00	564.00	566.00	566.00	567.00	567.00	569.00	570.00	571.00	572.00	572.00	573.00	573.00	574.00	575.00	576.00	577.00	578.00	578.00	580.00	582.00	583.00	584.00	585.00	587.00	589.00	590.00	590.00	590.00	591.00	591.00	591.00	590.00	589.00	588.00	587.00	587.00	586.00	584.00	583.00	582.00	582.00	581.00	580.00	580.00	579.00	579.00	578.00	580.00	579.00	578.00	577.00	576.00	575.00	575.00	575.00	574.00	573.00	572.00	572.00	571.00	570.00	570.00	569.00	568.00	566.00
433.00	435.00	437.00	441.00	450.00	455.00	459.00	466.00	471.00	474.00	475.00	476.00	475.00	472.00	472.00	472.00	472.00	474.00	474.00	474.00	474.00	474.00	473.00	472.00	472.00	473.00	475.00	477.00	478.00	478.00	477.00	478.00	479.00	480.00	482.00	488.00	490.00	492.00	496.00	503.00	507.00	508.00	510.00	512.00	516.00	517.00	520.00	522.00	525.00	530.00	532.00	533.00	535.00	539.00	543.00	546.00	549.00	551.00	556.00	559.00	563.00	564.00	569.00	571.00	573.00	576.00	578.00	582.00	584.00	585.00	587.00	590.00	591.00	591.00	592.00	594.00	596.00	595.00	594.00	593.00	590.00	588.00	585.00	582.00	579.00	573.00	570.00	569.00	568.00	563.00	561.00	556.00	554.00	553.00	549.00	547.00	546.00	545.00	543.00	542.00	542.00	541.00	541.00	541.00	541.00	540.00	540.00	539.00	539.00	540.00	540.00	541.00	541.00	540.00	539.00	536.00	532.00	532.00	532.00	532.00	531.00	530.00	529.00	529.00	529.00	530.00	530.00	530.00	530.00	529.00	528.00	528.00	528.00	529.00	529.00	529.00	529.00	530.00	530.00	530.00	530.00	530.00	530.00	532.00	532.00	532.00	532.00	533.00	533.00	533.00	534.00	534.00	534.00	534.00	535.00	535.00	536.00	537.00	537.00	538.00	539.00	539.00	540.00	541.00	542.00	543.00	543.00	544.00	544.00	544.00	545.00	546.00	547.00	548.00	549.00	549.00	550.00	550.00	551.00	552.00	552.00	553.00	554.00	555.00	556.00	557.00	557.00	558.00	561.00	563.00	564.00	564.00	566.00	566.00	567.00	567.00	569.00	570.00	571.00	572.00	572.00	573.00	573.00	574.00	575.00	576.00	577.00	578.00	578.00	580.00	582.00	583.00	584.00	585.00	587.00	589.00	590.00	590.00	590.00	591.00	591.00	591.00	590.00	589.00	588.00	587.00	587.00	586.00	584.00	583.00	582.00	582.00	581.00	580.00	580.00	579.00	579.00	578.00	580.00	579.00	578.00	577.00	576.00	575.00	575.00	575.00	574.00	573.00	572.00	572.00	571.00	570.00	570.00	569.00	568.00	566.00
433.00	435.00	437.00	441.00	450.00	455.00	459.00	466.00	471.00	474.00	475.00	476.00	475.00	472.00	472.00	472.00	472.00	474.00	474.00	474.00	474.00	474.00	473.00	472.00	472.00	473.00	475.00	477.00	478.00	478.00	477.00	478.00	479.00	480.00	482.00	488.00	490.00	492.00	496.00	503.00	507.00	508.00	510.00	512.00	516.00	517.00	520.00	522.00	525.00	530.00	532.00	533.00	535.00	539.00	543.00	546.00	549.00	551.00	556.00	559.00	563.00	564.00	569.00	571.00	573.00	576.00	578.00	582.00	584.00	585.00	587.00	590.00	591.00	591.00	592.00	594.00	596.00	595.00	594.00	593.00	590.00	588.00	585.00	582.00	579.00	573.00	570.00	569.00	568.00	563.00	561.00	556.00	554.00	553.00	549.00	547.00	546.00	545.00	543.00	542.00	542.00	541.00	541.00	541.00	541.00	540.00	540.00	539.00	539.00	540.00	540.00	541.00	541.00	540.00	539.00	536.00	532.00	532.00	532.00	532.00	531.00	530.00	529.00	529.00	529.00	530.00	530.00	530.00	530.00	529.00	528.00	528.00	528.00	529.00	529.00	529.00	529.00	530.00	530.00	530.00	530.00	530.00	530.00	532.00	532.00	532.00	532.00	533.00	533.00	533.00	534.00	534.00	534.00	534.00	535.00	535.00	536.00	537.00	537.00	538.00	539.00	539.00	540.00	541.00	542.00	543.00	543.00	544.00	544.00	544.00	545.00	546.00	547.00	548.00	549.00	549.00	550.00	550.00	551.00	552.00	552.00	553.00	554.00	555.00	556.00	557.00	557.00	558.00	561.00	563.00	564.00	564.00	566.00	566.00	567.00	567.00	569.00	570.00	571.00	572.00	572.00	573.00	573.00	574.00	575.00	576.00	577.00	578.00	578.00	580.00	582.00	583.00	584.00	585.00	587.00	589.00	590.00	590.00	590.00	591.00	591.00	591.00	590.00	589.00	588.00	587.00	587.00	586.00	584.00	583.00	582.00	582.00	581.00	580.00	580.00	579.00	579.00	578.00	580.00	579.00	578.00	577.00	576.00	575.00	575.00	575.00	574.00	573.00	572.00	572.00	571.00	570.00	570.00	569.00	568.00	566.00
433.00	435.00	437.00	441.00	450.00	455.00	459.00	466.00	471.00	474.00	475.00	476.00	475.00	472.00	472.00	472.00	472.00	474.00	474.00	474.00	474.00	474.00	473.00	472.00	472.00	473.00	475.00	477.00	478.00	478.00	477.00	478.00	479.00	480.00	482.00	488.00	490.00	492.00	496.00	503.00	507.00	508.00	510.00	512.00	516.00	517.00	520.00	522.00	525.00	530.00	532.00	533.00	535.00	539.00	543.00	546.00	549.00	551.00	556.00	559.00	563.00	564.00	569.00	571.00	573.00	576.00	578.00	582.00	584.00	585.00	587.00	590.00	591.00	591.00	592.00	594.00	596.00	595.00	594.00	593.00	590.00	588.00	585.00	582.00	579.00	573.00	570.00	569.00	568.00	563.00	561.00	556.00	554.00	553.00	549.00	547.00	546.00	545.00	543.00	542.00	542.00	541.00	541.00	541.00	541.00	540.00	540.00	539.00	539.00	540.00	540.00	541.00	541.00	540.00	539.00	536.00	532.00	532.00	532.00	532.00	531.00	530.00	529.00	529.00	529.00	530.00	530.00	530.00	530.00	529.00	528.00	528.00	528.00	529.00	529.00	529.00	529.00	530.00	530.00	530.00	530.00	530.00	530.00	532.00	532.00	532.00	532.00	533.00	533.00	533.00	534.00	534.00	534.00	534.00	535.00	535.00	536.00	537.00	537.00	538.00	539.00	539.00	540.00	541.00	542.00	543.00	543.00	544.00	544.00	544.00	545.00	546.00	547.00	548.00	549.00	549.00	550.00	550.00	551.00	552.00	552.00	553.00	554.00	555.00	556.00	557.00	557.00	558.00	561.00	563.00	564.00	564.00	566.00	566.00	567.00	567.00	569.00	570.00	571.00	572.00	572.00	573.00	573.00	574.00	575.00	576.00	577.00	578.00	578.00	580.00	582.00	583.00	584.00	585.00	587.00	589.00	590.00	590.00	590.00	591.00	591.00	591.00	590.00	589.00	588.00	587.00	587.00	586.00	584.00	583.00	582.00	582.00	581.00	580.00	580.00	579.00	579.00	578.00	580.00	579.00	578.00	577.00	576.00	575.00	575.00	575.00	574.00	573.00	572.00	572.00	571.00	570.00	570.00	569.00	568.00	566.00
433.00	435.00	437.00	441.00	450.00	455.00	459.00	466.00	471.00	474.00	475.00	476.00	475.00	472.00	472.00	472.00	472.00	474.00	474.00	474.00	474.00	474.00	473.00	472.00	472.00	473.00	475.00	477.00	478.00	478.00	477.00	478.00	479.00	480.00	482.00	488.00	490.00	492.00	496.00	503.00	507.00	508.00	510.00	512.00	516.00	517.00	520.00	522.00	525.00	530.00	532.00	533.00	535.00	539.00	543.00	546.00	549.00	551.00	556.00	559.00	563.00	564.00	569.00	571.00	573.00	576.00	578.00	582.00	584.00	585.00	587.00	590.00	591.00	591.00	592.00	594.00	596.00	595.00	594.00	593.00	590.00	588.00	585.00	582.00	579.00	573.00	570.00	569.00	568.00	563.00	561.00	556.00	554.00	553.00	549.00	547.00	546.00	545.00	543.00	542.00	542.00	541.00	541.00	541.00	541.00	540.00	540.00	539.00	539.00	540.00	540.00	541.00	541.00	540.00	539.00	536.00	532.00	532.00	532.00	532.00	531.00	530.00	529.00	529.00	529.00	530.00	530.00	530.00	530.00	529.00	528.00	528.00	528.00	529.00	529.00	529.00	529.00	530.00	530.00	530.00	530.00	530.00	530.00	532.00	532.00	532.00	532.00	533.00	533.00	533.00	534.00	534.00	534.00	534.00	535.00	535.00	536.00	537.00	537.00	538.00	539.00	539.00	540.00	541.00	542.00	543.00	543.00	544.00	544.00	544.00	545.00	546.00	547.00	548.00	549.00	549.00	550.00	550.00	551.00	552.00	552.00	553.00	554.00	555.00	556.00	557.00	557.00	558.00	561.00	563.00	564.00	564.00	566.00	566.00	567.00	567.00	569.00	570.00	571.00	572.00	572.00	573.00	573.00	574.00	575.00	576.00	577.00	578.00	578.00	580.00	582.00	583.00	584.00	585.00	587.00	589.00	590.00	590.00	590.00	591.00	591.00	591.00	590.00	589.00	588.00	587.00	587.00	586.00	584.00	583.00	582.00	582.00	581.00	580.00	580.00	579.00	579.00	578.00	580.00	579.00	578.00	577.00	576.00	575.00	575.00	575.00	574.00	573.00	572.00	572.00	571.00	570.00	570.00	569.00	568.00	566.00
437.00	440.00	443.00	445.00	453.00	455.00	458.00	467.00	472.00	473.00	477.00	480.00	479.00	475.00	474.00	475.00	476.00	480.00	480.00	479.00	480.00	481.00	481.00	481.00	480.00	480.00	480.00	482.00	481.00	482.00	481.00	480.00	482.00	483.00	485.00	488.00	490.00	491.00	493.00	497.00	500.00	501.00	502.00	504.00	508.00	509.00	510.00	512.00	515.00	519.00	521.00	523.00	524.00	528.00	504.00	523.00	529.00	534.00	539.00	541.00	543.00	544.00	545.00	547.00	548.00	549.00	551.00	552.00	554.00	556.00	558.00	560.00	561.00	562.00	562.00	563.00	567.00	566.00	565.00	565.00	565.00	563.00	559.00	556.00	554.00	551.00	549.00	548.00	548.00	547.00	545.00	542.00	541.00	540.00	538.00	537.00	536.00	536.00	534.00	534.00	534.00	534.00	535.00	535.00	535.00	536.00	538.00	541.00	541.00	542.00	543.00	543.00	544.00	544.00	543.00	539.00	533.00	533.00	533.00	533.00	534.00	535.00	535.00	536.00	538.00	539.00	539.00	540.00	540.00	537.00	535.00	537.00	537.00	537.00	536.00	536.00	537.00	538.00	538.00	538.00	538.00	538.00	538.00	538.00	539.00	542.00	543.00	542.00	543.00	543.00	543.00	543.00	541.00	541.00	540.00	540.00	542.00	542.00	542.00	542.00	542.00	544.00	544.00	545.00	546.00	546.00	546.00	546.00	547.00	548.00	550.00	552.00	554.00	555.00	556.00	555.00	555.00	555.00	555.00	553.00	554.00	555.00	556.00	556.00	557.00	557.00	557.00	557.00	558.00	559.00	561.00	561.00	562.00	564.00	565.00	566.00	567.00	568.00	568.00	568.00	568.00	567.00	566.00	566.00	567.00	568.00	570.00	570.00	571.00	573.00	574.00	575.00	576.00	577.00	577.00	578.00	579.00	580.00	580.00	581.00	582.00	581.00	581.00	581.00	580.00	580.00	580.00	580.00	579.00	577.00	576.00	576.00	574.00	571.00	571.00	572.00	572.00	571.00	571.00	570.00	570.00	570.00	570.00	570.00	570.00	570.00	568.00	568.00	568.00	567.00	567.00	569.00	569.00	569.00	569.00	567.00
437.00	440.00	443.00	445.00	453.00	455.00	458.00	467.00	472.00	473.00	477.00	480.00	479.00	475.00	474.00	475.00	476.00	480.00	480.00	479.00	480.00	481.00	481.00	481.00	480.00	480.00	480.00	482.00	481.00	482.00	481.00	480.00	482.00	483.00	485.00	488.00	490.00	491.00	493.00	497.00	500.00	501.00	502.00	504.00	508.00	509.00	510.00	512.00	515.00	519.00	521.00	523.00	524.00	528.00	504.00	523.00	529.00	534.00	539.00	541.00	543.00	544.00	545.00	547.00	548.00	549.00	551.00	552.00	554.00	556.00	558.00	560.00	561.00	562.00	562.00	563.00	567.00	566.00	565.00	565.00	565.00	563.00	559.00	556.00	554.00	551.00	549.00	548.00	548.00	547.00	545.00	542.00	541.00	540.00	538.00	537.00	536.00	536.00	534.00	534.00	534.00	534.00	535.00	535.00	535.00	536.00	538.00	541.00	541.00	542.00	543.00	543.00	544.00	544.00	543.00	539.00	533.00	533.00	533.00	533.00	534.00	535.00	535.00	536.00	538.00	539.00	539.00	540.00	540.00	537.00	535.00	537.00	537.00	537.00	536.00	536.00	537.00	538.00	538.00	538.00	538.00	538.00	538.00	538.00	539.00	542.00	543.00	542.00	543.00	543.00	543.00	543.00	541.00	541.00	540.00	540.00	542.00	542.00	542.00	542.00	542.00	544.00	544.00	545.00	546.00	546.00	546.00	546.00	547.00	548.00	550.00	552.00	554.00	555.00	556.00	555.00	555.00	555.00	555.00	553.00	554.00	555.00	556.00	556.00	557.00	557.00	557.00	557.00	558.00	559.00	561.00	561.00	562.00	564.00	565.00	566.00	567.00	568.00	568.00	568.00	568.00	567.00	566.00	566.00	567.00	568.00	570.00	570.00	571.00	573.00	574.00	575.00	576.00	577.00	577.00	578.00	579.00	580.00	580.00	581.00	582.00	581.00	581.00	581.00	580.00	580.00	580.00	580.00	579.00	577.00	576.00	576.00	574.00	571.00	571.00	572.00	572.00	571.00	571.00	570.00	570.00	570.00	570.00	570.00	570.00	570.00	568.00	568.00	568.00	567.00	567.00	569.00	569.00	569.00	569.00	567.00
437.00	440.00	443.00	445.00	453.00	455.00	458.00	467.00	472.00	473.00	477.00	480.00	479.00	475.00	474.00	475.00	476.00	480.00	480.00	479.00	480.00	481.00	481.00	481.00	480.00	480.00	480.00	482.00	481.00	482.00	481.00	480.00	482.00	483.00	485.00	488.00	490.00	491.00	493.00	497.00	500.00	501.00	502.00	504.00	508.00	509.00	510.00	512.00	515.00	519.00	521.00	523.00	524.00	528.00	504.00	523.00	529.00	534.00	539.00	541.00	543.00	544.00	545.00	547.00	548.00	549.00	551.00	552.00	554.00	556.00	558.00	560.00	561.00	562.00	562.00	563.00	567.00	566.00	565.00	565.00	565.00	563.00	559.00	556.00	554.00	551.00	549.00	548.00	548.00	547.00	545.00	542.00	541.00	540.00	538.00	537.00	536.00	536.00	534.00	534.00	534.00	534.00	535.00	535.00	535.00	536.00	538.00	541.00	541.00	542.00	543.00	543.00	544.00	544.00	543.00	539.00	533.00	533.00	533.00	533.00	534.00	535.00	535.00	536.00	538.00	539.00	539.00	540.00	540.00	537.00	535.00	537.00	537.00	537.00	536.00	536.00	537.00	538.00	538.00	538.00	538.00	538.00	538.00	538.00	539.00	542.00	543.00	542.00	543.00	543.00	543.00	543.00	541.00	541.00	540.00	540.00	542.00	542.00	542.00	542.00	542.00	544.00	544.00	545.00	546.00	546.00	546.00	546.00	547.00	548.00	550.00	552.00	554.00	555.00	556.00	555.00	555.00	555.00	555.00	553.00	554.00	555.00	556.00	556.00	557.00	557.00	557.00	557.00	558.00	559.00	561.00	561.00	562.00	564.00	565.00	566.00	567.00	568.00	568.00	568.00	568.00	567.00	566.00	566.00	567.00	568.00	570.00	570.00	571.00	573.00	574.00	575.00	576.00	577.00	577.00	578.00	579.00	580.00	580.00	581.00	582.00	581.00	581.00	581.00	580.00	580.00	580.00	580.00	579.00	577.00	576.00	576.00	574.00	571.00	571.00	572.00	572.00	571.00	571.00	570.00	570.00	570.00	570.00	570.00	570.00	570.00	568.00	568.00	568.00	567.00	567.00	569.00	569.00	569.00	569.00	567.00
437.00	440.00	443.00	445.00	453.00	455.00	458.00	467.00	472.00	473.00	477.00	480.00	479.00	475.00	474.00	475.00	476.00	480.00	480.00	479.00	480.00	481.00	481.00	481.00	480.00	480.00	480.00	482.00	481.00	482.00	481.00	480.00	482.00	483.00	485.00	488.00	490.00	491.00	493.00	497.00	500.00	501.00	502.00	504.00	508.00	509.00	510.00	512.00	515.00	519.00	521.00	523.00	524.00	528.00	504.00	523.00	529.00	534.00	539.00	541.00	543.00	544.00	545.00	547.00	548.00	549.00	551.00	552.00	554.00	556.00	558.00	560.00	561.00	562.00	562.00	563.00	567.00	566.00	565.00	565.00	565.00	563.00	559.00	556.00	554.00	551.00	549.00	548.00	548.00	547.00	545.00	542.00	541.00	540.00	538.00	537.00	536.00	536.00	534.00	534.00	534.00	534.00	535.00	535.00	535.00	536.00	538.00	541.00	541.00	542.00	543.00	543.00	544.00	544.00	543.00	539.00	533.00	533.00	533.00	533.00	534.00	535.00	535.00	536.00	538.00	539.00	539.00	540.00	540.00	537.00	535.00	537.00	537.00	537.00	536.00	536.00	537.00	538.00	538.00	538.00	538.00	538.00	538.00	538.00	539.00	542.00	543.00	542.00	543.00	543.00	543.00	543.00	541.00	541.00	540.00	540.00	542.00	542.00	542.00	542.00	542.00	544.00	544.00	545.00	546.00	546.00	546.00	546.00	547.00	548.00	550.00	552.00	554.00	555.00	556.00	555.00	555.00	555.00	555.00	553.00	554.00	555.00	556.00	556.00	557.00	557.00	557.00	557.00	558.00	559.00	561.00	561.00	562.00	564.00	565.00	566.00	567.00	568.00	568.00	568.00	568.00	567.00	566.00	566.00	567.00	568.00	570.00	570.00	571.00	573.00	574.00	575.00	576.00	577.00	577.00	578.00	579.00	580.00	580.00	581.00	582.00	581.00	581.00	581.00	580.00	580.00	580.00	580.00	579.00	577.00	576.00	576.00	574.00	571.00	571.00	572.00	572.00	571.00	571.00	570.00	570.00	570.00	570.00	570.00	570.00	570.00	568.00	568.00	568.00	567.00	567.00	569.00	569.00	569.00	569.00	567.00
437.00	440.00	443.00	445.00	453.00	455.00	458.00	467.00	472.00	473.00	477.00	480.00	479.00	475.00	474.00	475.00	476.00	480.00	480.00	479.00	480.00	481.00	481.00	481.00	480.00	480.00	480.00	482.00	481.00	482.00	481.00	480.00	482.00	483.00	485.00	488.00	490.00	491.00	493.00	497.00	500.00	501.00	502.00	504.00	508.00	509.00	510.00	512.00	515.00	519.00	521.00	523.00	524.00	528.00	504.00	523.00	529.00	534.00	539.00	541.00	543.00	544.00	545.00	547.00	548.00	549.00	551.00	552.00	554.00	556.00	558.00	560.00	561.00	562.00	562.00	563.00	567.00	566.00	565.00	565.00	565.00	563.00	559.00	556.00	554.00	551.00	549.00	548.00	548.00	547.00	545.00	542.00	541.00	540.00	538.00	537.00	536.00	536.00	534.00	534.00	534.00	534.00	535.00	535.00	535.00	536.00	538.00	541.00	541.00	542.00	543.00	543.00	544.00	544.00	543.00	539.00	533.00	533.00	533.00	533.00	534.00	535.00	535.00	536.00	538.00	539.00	539.00	540.00	540.00	537.00	535.00	537.00	537.00	537.00	536.00	536.00	537.00	538.00	538.00	538.00	538.00	538.00	538.00	538.00	539.00	542.00	543.00	542.00	543.00	543.00	543.00	543.00	541.00	541.00	540.00	540.00	542.00	542.00	542.00	542.00	542.00	544.00	544.00	545.00	546.00	546.00	546.00	546.00	547.00	548.00	550.00	552.00	554.00	555.00	556.00	555.00	555.00	555.00	555.00	553.00	554.00	555.00	556.00	556.00	557.00	557.00	557.00	557.00	558.00	559.00	561.00	561.00	562.00	564.00	565.00	566.00	567.00	568.00	568.00	568.00	568.00	567.00	566.00	566.00	567.00	568.00	570.00	570.00	571.00	573.00	574.00	575.00	576.00	577.00	577.00	578.00	579.00	580.00	580.00	581.00	582.00	581.00	581.00	581.00	580.00	580.00	580.00	580.00	579.00	577.00	576.00	576.00	574.00	571.00	571.00	572.00	572.00	571.00	571.00	570.00	570.00	570.00	570.00	570.00	570.00	570.00	568.00	568.00	568.00	567.00	567.00	569.00	569.00	569.00	569.00	567.00
438.00	440.00	442.00	444.00	448.00	450.00	452.00	455.00	458.00	460.00	460.00	462.00	463.00	463.00	463.00	464.00	466.00	469.00	469.00	470.00	471.00	472.00	474.00	475.00	474.00	473.00	474.00	477.00	476.00	477.00	477.00	476.00	478.00	479.00	480.00	481.00	482.00	483.00	484.00	486.00	487.00	489.00	489.00	490.00	492.00	493.00	494.00	495.00	496.00	497.00	498.00	500.00	501.00	504.00	494.00	498.00	502.00	506.00	509.00	509.00	510.00	510.00	510.00	510.00	511.00	511.00	512.00	512.00	513.00	513.00	514.00	514.00	515.00	515.00	515.00	515.00	516.00	516.00	516.00	516.00	516.00	515.00	515.00	514.00	513.00	512.00	512.00	511.00	511.00	511.00	511.00	510.00	510.00	510.00	510.00	510.00	510.00	510.00	511.00	512.00	512.00	513.00	516.00	518.00	520.00	523.00	525.00	528.00	529.00	531.00	532.00	533.00	536.00	537.00	538.00	538.00	538.00	539.00	540.00	541.00	543.00	544.00	545.00	550.00	555.00	554.00	554.00	553.00	553.00	551.00	549.00	549.00	548.00	546.00	546.00	546.00	546.00	546.00	546.00	546.00	546.00	546.00	546.00	547.00	550.00	555.00	557.00	555.00	556.00	555.00	555.00	554.00	552.00	550.00	548.00	547.00	547.00	547.00	547.00	547.00	547.00	548.00	548.00	548.00	548.00	548.00	548.00	549.00	549.00	549.00	551.00	554.00	556.00	558.00	558.00	557.00	556.00	556.00	555.00	553.00	552.00	551.00	551.00	551.00	552.00	552.00	552.00	552.00	552.00	552.00	553.00	553.00	554.00	557.00	560.00	562.00	564.00	563.00	563.00	563.00	562.00	560.00	558.00	556.00	555.00	555.00	555.00	555.00	556.00	556.00	557.00	557.00	557.00	557.00	557.00	558.00	558.00	558.00	558.00	559.00	559.00	560.00	561.00	562.00	563.00	563.00	563.00	563.00	564.00	564.00	563.00	563.00	561.00	558.00	556.00	556.00	556.00	556.00	556.00	555.00	555.00	555.00	555.00	555.00	555.00	555.00	555.00	555.00	555.00	555.00	555.00	558.00	559.00	560.00	560.00	561.00
438.00	440.00	442.00	444.00	448.00	450.00	452.00	455.00	458.00	460.00	460.00	462.00	463.00	463.00	463.00	464.00	466.00	469.00	469.00	470.00	471.00	472.00	474.00	475.00	474.00	473.00	474.00	477.00	476.00	477.00	477.00	476.00	478.00	479.00	480.00	481.00	482.00	483.00	484.00	486.00	487.00	489.00	489.00	490.00	492.00	493.00	494.00	495.00	496.00	497.00	498.00	500.00	501.00	504.00	494.00	498.00	502.00	506.00	509.00	509.00	510.00	510.00	510.00	510.00	511.00	511.00	512.00	512.00	513.00	513.00	514.00	514.00	515.00	515.00	515.00	515.00	516.00	516.00	516.00	516.00	516.00	515.00	515.00	514.00	513.00	512.00	512.00	511.00	511.00	511.00	511.00	510.00	510.00	510.00	510.00	510.00	510.00	510.00	511.00	512.00	512.00	513.00	516.00	518.00	520.00	523.00	525.00	528.00	529.00	531.00	532.00	533.00	536.00	537.00	538.00	538.00	538.00	539.00	540.00	541.00	543.00	544.00	545.00	550.00	555.00	554.00	554.00	553.00	553.00	551.00	549.00	549.00	548.00	546.00	546.00	546.00	546.00	546.00	546.00	546.00	546.00	546.00	546.00	547.00	550.00	555.00	557.00	555.00	556.00	555.00	555.00	554.00	552.00	550.00	548.00	547.00	547.00	547.00	547.00	547.00	547.00	548.00	548.00	548.00	548.00	548.00	548.00	549.00	549.00	549.00	551.00	554.00	556.00	558.00	558.00	557.00	556.00	556.00	555.00	553.00	552.00	551.00	551.00	551.00	552.00	552.00	552.00	552.00	552.00	552.00	553.00	553.00	554.00	557.00	560.00	562.00	564.00	563.00	563.00	563.00	562.00	560.00	558.00	556.00	555.00	555.00	555.00	555.00	556.00	556.00	557.00	557.00	557.00	557.00	557.00	558.00	558.00	558.00	558.00	559.00	559.00	560.00	561.00	562.00	563.00	563.00	563.00	563.00	564.00	564.00	563.00	563.00	561.00	558.00	556.00	556.00	556.00	556.00	556.00	555.00	555.00	555.00	555.00	555.00	555.00	555.00	555.00	555.00	555.00	555.00	555.00	558.00	559.00	560.00	560.00	561.00
438.00	440.00	442.00	444.00	448.00	450.00	452.00	455.00	458.00	460.00	460.00	462.00	463.00	463.00	463.00	464.00	466.00	469.00	469.00	470.00	471.00	472.00	474.00	475.00	474.00	473.00	474.00	477.00	476.00	477.00	477.00	476.00	478.00	479.00	480.00	481.00	482.00	483.00	484.00	486.00	487.00	489.00	489.00	490.00	492.00	493.00	494.00	495.00	496.00	497.00	498.00	500.00	501.00	504.00	494.00	498.00	502.00	506.00	509.00	509.00	510.00	510.00	510.00	510.00	511.00	511.00	512.00	512.00	513.00	513.00	514.00	514.00	515.00	515.00	515.00	515.00	516.00	516.00	516.00	516.00	516.00	515.00	515.00	514.00	513.00	512.00	512.00	511.00	511.00	511.00	511.00	510.00	510.00	510.00	510.00	510.00	510.00	510.00	511.00	512.00	512.00	513.00	516.00	518.00	520.00	523.00	525.00	528.00	529.00	531.00	532.00	533.00	536.00	537.00	538.00	538.00	538.00	539.00	540.00	541.00	543.00	544.00	545.00	550.00	555.00	554.00	554.00	553.00	553.00	551.00	549.00	549.00	548.00	546.00	546.00	546.00	546.00	546.00	546.00	546.00	546.00	546.00	546.00	547.00	550.00	555.00	557.00	555.00	556.00	555.00	555.00	554.00	552.00	550.00	548.00	547.00	547.00	547.00	547.00	547.00	547.00	548.00	548.00	548.00	548.00	548.00	548.00	549.00	549.00	549.00	551.00	554.00	556.00	558.00	558.00	557.00	556.00	556.00	555.00	553.00	552.00	551.00	551.00	551.00	552.00	552.00	552.00	552.00	552.00	552.00	553.00	553.00	554.00	557.00	560.00	562.00	564.00	563.00	563.00	563.00	562.00	560.00	558.00	556.00	555.00	555.00	555.00	555.00	556.00	556.00	557.00	557.00	557.00	557.00	557.00	558.00	558.00	558.00	558.00	559.00	559.00	560.00	561.00	562.00	563.00	563.00	563.00	563.00	564.00	564.00	563.00	563.00	561.00	558.00	556.00	556.00	556.00	556.00	556.00	555.00	555.00	555.00	555.00	555.00	555.00	555.00	555.00	555.00	555.00	555.00	555.00	558.00	559.00	560.00	560.00	561.00
438.00	440.00	442.00	444.00	448.00	450.00	452.00	455.00	458.00	460.00	460.00	462.00	463.00	463.00	463.00	464.00	466.00	469.00	469.00	470.00	471.00	472.00	474.00	475.00	474.00	473.00	474.00	477.00	476.00	477.00	477.00	476.00	478.00	479.00	480.00	481.00	482.00	483.00	484.00	486.00	487.00	489.00	489.00	490.00	492.00	493.00	494.00	495.00	496.00	497.00	498.00	500.00	501.00	504.00	494.00	498.00	502.00	506.00	509.00	509.00	510.00	510.00	510.00	510.00	511.00	511.00	512.00	512.00	513.00	513.00	514.00	514.00	515.00	515.00	515.00	515.00	516.00	516.00	516.00	516.00	516.00	515.00	515.00	514.00	513.00	512.00	512.00	511.00	511.00	511.00	511.00	510.00	510.00	510.00	510.00	510.00	510.00	510.00	511.00	512.00	512.00	513.00	516.00	518.00	520.00	523.00	525.00	528.00	529.00	531.00	532.00	533.00	536.00	537.00	538.00	538.00	538.00	539.00	540.00	541.00	543.00	544.00	545.00	550.00	555.00	554.00	554.00	553.00	553.00	551.00	549.00	549.00	548.00	546.00	546.00	546.00	546.00	546.00	546.00	546.00	546.00	546.00	546.00	547.00	550.00	555.00	557.00	555.00	556.00	555.00	555.00	554.00	552.00	550.00	548.00	547.00	547.00	547.00	547.00	547.00	547.00	548.00	548.00	548.00	548.00	548.00	548.00	549.00	549.00	549.00	551.00	554.00	556.00	558.00	558.00	557.00	556.00	556.00	555.00	553.00	552.00	551.00	551.00	551.00	552.00	552.00	552.00	552.00	552.00	552.00	553.00	553.00	554.00	557.00	560.00	562.00	564.00	563.00	563.00	563.00	562.00	560.00	558.00	556.00	555.00	555.00	555.00	555.00	556.00	556.00	557.00	557.00	557.00	557.00	557.00	558.00	558.00	558.00	558.00	559.00	559.00	560.00	561.00	562.00	563.00	563.00	563.00	563.00	564.00	564.00	563.00	563.00	561.00	558.00	556.00	556.00	556.00	556.00	556.00	555.00	555.00	555.00	555.00	555.00	555.00	555.00	555.00	555.00	555.00	555.00	555.00	558.00	559.00	560.00	560.00	561.00
449.00	450.00	451.00	452.00	455.00	456.00	457.00	459.00	462.00	464.00	464.00	465.00	467.00	469.00	470.00	471.00	472.00	475.00	476.00	478.00	479.00	480.00	481.00	483.00	482.00	482.00	484.00	486.00	486.00	487.00	487.00	487.00	489.00	490.00	490.00	491.00	491.00	491.00	491.00	492.00	493.00	495.00	495.00	495.00	495.00	496.00	496.00	497.00	497.00	497.00	497.00	497.00	497.00	499.00	499.00	500.00	500.00	500.00	500.00	500.00	500.00	500.00	500.00	500.00	500.00	499.00	499.00	499.00	499.00	499.00	499.00	499.00	499.00	499.00	499.00	499.00	499.00	499.00	499.00	499.00	499.00	499.00	499.00	499.00	499.00	500.00	500.00	500.00	500.00	501.00	501.00	502.00	503.00	504.00	506.00	507.00	508.00	510.00	512.00	514.00	515.00	516.00	520.00	522.00	523.00	525.00	526.00	530.00	531.00	533.00	534.00	535.00	537.00	538.00	539.00	540.00	543.00	544.00	545.00	546.00	548.00	549.00	550.00	557.00	564.00	563.00	563.00	562.00	561.00	560.00	559.00	559.00	558.00	555.00	552.00	551.00	550.00	550.00	550.00	550.00	550.00	550.00	550.00	554.00	559.00	562.00	564.00	563.00	563.00	563.00	562.00	560.00	559.00	558.00	555.00	553.00	551.00	550.00	550.00	550.00	550.00	550.00	550.00	550.00	550.00	550.00	550.00	550.00	550.00	550.00	554.00	557.00	559.00	561.00	561.00	560.00	559.00	558.00	557.00	555.00	554.00	552.00	551.00	550.00	550.00	550.00	550.00	550.00	550.00	550.00	550.00	550.00	554.00	558.00	560.00	562.00	564.00	563.00	563.00	562.00	561.00	559.00	558.00	556.00	553.00	551.00	550.00	550.00	550.00	550.00	550.00	550.00	550.00	550.00	550.00	550.00	550.00	550.00	550.00	552.00	553.00	554.00	555.00	556.00	557.00	558.00	558.00	559.00	560.00	560.00	559.00	558.00	557.00	554.00	552.00	550.00	550.00	550.00	550.00	550.00	550.00	550.00	550.00	550.00	550.00	550.00	550.00	550.00	551.00	552.00	553.00	556.00	557.00	557.00	558.00	560.00
449.00	450.00	451.00	452.00	455.00	456.00	457.00	459.00	462.00	464.00	464.00	465.00	467.00	469.00	470.00	471.00	472.00	475.00	476.00	478.00	479.00	480.00	481.00	483.00	482.00	482.00	484.00	486.00	486.00	487.00	487.00	487.00	489.00	490.00	490.00	491.00	491.00	491.00	491.00	492.00	493.00	495.00	495.00	495.00	495.00	496.00	496.00	497.00	497.00	497.00	497.00	497.00	497.00	499.00	499.00	500.00	500.00	500.00	500.00	500.00	500.00	500.00	500.00	500.00	500.00	499.00	499.00	499.00	499.00	499.00	499.00	499.00	499.00	499.00	499.00	499.00	499.00	499.00	499.00	499.00	499.00	499.00	499.00	499.00	499.00	500.00	500.00	500.00	500.00	501.00	501.00	502.00	503.00	504.00	506.00	507.00	508.00	510.00	512.00	514.00	515.00	516.00	520.00	522.00	523.00	525.00	526.00	530.00	531.00	533.00	534.00	535.00	537.00	538.00	539.00	540.00	543.00	544.00	545.00	546.00	548.00	549.00	550.00	557.00	564.00	563.00	563.00	562.00	561.00	560.00	559.00	559.00	558.00	555.00	552.00	551.00	550.00	550.00	550.00	550.00	550.00	550.00	550.00	554.00	559.00	562.00	564.00	563.00	563.00	563.00	562.00	560.00	559.00	558.00	555.00	553.00	551.00	550.00	550.00	550.00	550.00	550.00	550.00	550.00	550.00	550.00	550.00	550.00	550.00	550.00	554.00	557.00	559.00	561.00	561.00	560.00	559.00	558.00	557.00	555.00	554.00	552.00	551.00	550.00	550.00	550.00	550.00	550.00	550.00	550.00	550.00	550.00	554.00	558.00	560.00	562.00	564.00	563.00	563.00	562.00	561.00	559.00	558.00	556.00	553.00	551.00	550.00	550.00	550.00	550.00	550.00	550.00	550.00	550.00	550.00	550.00	550.00	550.00	550.00	552.00	553.00	554.00	555.00	556.00	557.00	558.00	558.00	559.00	560.00	560.00	559.00	558.00	557.00	554.00	552.00	550.00	550.00	550.00	550.00	550.00	550.00	550.00	550.00	550.00	550.00	550.00	550.00	550.00	551.00	552.00	553.00	556.00	557.00	557.00	558.00	560.00
449.00	450.00	451.00	452.00	455.00	456.00	457.00	459.00	462.00	464.00	464.00	465.00	467.00	469.00	470.00	471.00	472.00	475.00	476.00	478.00	479.00	480.00	481.00	483.00	482.00	482.00	484.00	486.00	486.00	487.00	487.00	487.00	489.00	490.00	490.00	491.00	491.00	491.00	491.00	492.00	493.00	495.00	495.00	495.00	495.00	496.00	496.00	497.00	497.00	497.00	497.00	497.00	497.00	499.00	499.00	500.00	500.00	500.00	500.00	500.00	500.00	500.00	500.00	500.00	500.00	499.00	499.00	499.00	499.00	499.00	499.00	499.00	499.00	499.00	499.00	499.00	499.00	499.00	499.00	499.00	499.00	499.00	499.00	499.00	499.00	500.00	500.00	500.00	500.00	501.00	501.00	502.00	503.00	504.00	506.00	507.00	508.00	510.00	512.00	514.00	515.00	516.00	520.00	522.00	523.00	525.00	526.00	530.00	531.00	533.00	534.00	535.00	537.00	538.00	539.00	540.00	543.00	544.00	545.00	546.00	548.00	549.00	550.00	557.00	564.00	563.00	563.00	562.00	561.00	560.00	559.00	559.00	558.00	555.00	552.00	551.00	550.00	550.00	550.00	550.00	550.00	550.00	550.00	554.00	559.00	562.00	564.00	563.00	563.00	563.00	562.00	560.00	559.00	558.00	555.00	553.00	551.00	550.00	550.00	550.00	550.00	550.00	550.00	550.00	550.00	550.00	550.00	550.00	550.00	550.00	554.00	557.00	559.00	561.00	561.00	560.00	559.00	558.00	557.00	555.00	554.00	552.00	551.00	550.00	550.00	550.00	550.00	550.00	550.00	550.00	550.00	550.00	554.00	558.00	560.00	562.00	564.00	563.00	563.00	562.00	561.00	559.00	558.00	556.00	553.00	551.00	550.00	550.00	550.00	550.00	550.00	550.00	550.00	550.00	550.00	550.00	550.00	550.00	550.00	552.00	553.00	554.00	555.00	556.00	557.00	558.00	558.00	559.00	560.00	560.00	559.00	558.00	557.00	554.00	552.00	550.00	550.00	550.00	550.00	550.00	550.00	550.00	550.00	550.00	550.00	550.00	550.00	550.00	551.00	552.00	553.00	556.00	557.00	557.00	558.00	560.00
449.00	450.00	451.00	452.00	455.00	456.00	457.00	459.00	462.00	464.00	464.00	465.00	467.00	469.00	470.00	471.00	472.00	475.00	476.00	478.00	479.00	480.00	481.00	483.00	482.00	482.00	484.00	486.00	486.00	487.00	487.00	487.00	489.00	490.00	490.00	491.00	491.00	491.00	491.00	492.00	493.00	495.00	495.00	495.00	495.00	496.00	496.00	497.00	497.00	497.00	497.00	497.00	497.00	499.00	499.00	500.00	500.00	500.00	500.00	500.00	500.00	500.00	500.00	500.00	500.00	499.00	499.00	499.00	499.00	499.00	499.00	499.00	499.00	499.00	499.00	499.00	499.00	499.00	499.00	499.00	499.00	499.00	499.00	499.00	499.00	500.00	500.00	500.00	500.00	501.00	501.00	502.00	503.00	504.00	506.00	507.00	508.00	510.00	512.00	514.00	515.00	516.00	520.00	522.00	523.00	525.00	526.00	530.00	531.00	533.00	534.00	535.00	537.00	538.00	539.00	540.00	543.00	544.00	545.00	546.00	548.00	549.00	550.00	557.00	564.00	563.00	563.00	562.00	561.00	560.00	559.00	559.00	558.00	555.00	552.00	551.00	550.00	550.00	550.00	550.00	550.00	550.00	550.00	554.00	559.00	562.00	564.00	563.00	563.00	563.00	562.00	560.00	559.00	558.00	555.00	553.00	551.00	550.00	550.00	550.00	550.00	550.00	550.00	550.00	550.00	550.00	550.00	550.00	550.00	550.00	554.00	557.00	559.00	561.00	561.00	560.00	559.00	558.00	557.00	555.00	554.00	552.00	551.00	550.00	550.00	550.00	550.00	550.00	550.00	550.00	550.00	550.00	554.00	558.00	560.00	562.00	564.00	563.00	563.00	562.00	561.00	559.00	558.00	556.00	553.00	551.00	550.00	550.00	550.00	550.00	550.00	550.00	550.00	550.00	550.00	550.00	550.00	550.00	550.00	552.00	553.00	554.00	555.00	556.00	557.00	558.00	558.00	559.00	560.00	560.00	559.00	558.00	557.00	554.00	552.00	550.00	550.00	550.00	550.00	550.00	550.00	550.00	550.00	550.00	550.00	550.00	550.00	550.00	551.00	552.00	553.00	556.00	557.00	557.00	558.00	560.00
449.00	450.00	451.00	452.00	455.00	456.00	457.00	459.00	462.00	464.00	464.00	465.00	467.00	469.00	470.00	471.00	472.00	475.00	476.00	478.00	479.00	480.00	481.00	483.00	482.00	482.00	484.00	486.00	486.00	487.00	487.00	487.00	489.00	490.00	490.00	491.00	491.00	491.00	491.00	492.00	493.00	495.00	495.00	495.00	495.00	496.00	496.00	497.00	497.00	497.00	497.00	497.00	497.00	499.00	499.00	500.00	500.00	500.00	500.00	500.00	500.00	500.00	500.00	500.00	500.00	499.00	499.00	499.00	499.00	499.00	499.00	499.00	499.00	499.00	499.00	499.00	499.00	499.00	499.00	499.00	499.00	499.00	499.00	499.00	499.00	500.00	500.00	500.00	500.00	501.00	501.00	502.00	503.00	504.00	506.00	507.00	508.00	510.00	512.00	514.00	515.00	516.00	520.00	522.00	523.00	525.00	526.00	530.00	531.00	533.00	534.00	535.00	537.00	538.00	539.00	540.00	543.00	544.00	545.00	546.00	548.00	549.00	550.00	557.00	564.00	563.00	563.00	562.00	561.00	560.00	559.00	559.00	558.00	555.00	552.00	551.00	550.00	550.00	550.00	550.00	550.00	550.00	550.00	554.00	559.00	562.00	564.00	563.00	563.00	563.00	562.00	560.00	559.00	558.00	555.00	553.00	551.00	550.00	550.00	550.00	550.00	550.00	550.00	550.00	550.00	550.00	550.00	550.00	550.00	550.00	554.00	557.00	559.00	561.00	561.00	560.00	559.00	558.00	557.00	555.00	554.00	552.00	551.00	550.00	550.00	550.00	550.00	550.00	550.00	550.00	550.00	550.00	554.00	558.00	560.00	562.00	564.00	563.00	563.00	562.00	561.00	559.00	558.00	556.00	553.00	551.00	550.00	550.00	550.00	550.00	550.00	550.00	550.00	550.00	550.00	550.00	550.00	550.00	550.00	552.00	553.00	554.00	555.00	556.00	557.00	558.00	558.00	559.00	560.00	560.00	559.00	558.00	557.00	554.00	552.00	550.00	550.00	550.00	550.00	550.00	550.00	550.00	550.00	550.00	550.00	550.00	550.00	550.00	551.00	552.00	553.00	556.00	557.00	557.00	558.00	560.00
465.00	466.00	468.00	469.00	473.00	474.00	475.00	478.00	481.00	483.00	483.00	485.00	487.00	489.00	491.00	491.00	492.00	496.00	496.00	498.00	499.00	499.00	500.00	502.00	503.00	503.00	504.00	505.00	506.00	507.00	507.00	508.00	508.00	510.00	510.00	511.00	511.00	511.00	511.00	512.00	512.00	514.00	515.00	515.00	516.00	516.00	516.00	516.00	516.00	518.00	516.00	516.00	519.00	519.00	519.00	519.00	519.00	519.00	517.00	517.00	517.00	517.00	517.00	517.00	517.00	514.00	514.00	514.00	512.00	512.00	513.00	513.00	513.00	513.00	513.00	513.00	513.00	513.00	513.00	513.00	513.00	513.00	513.00	513.00	513.00	515.00	515.00	515.00	515.00	516.00	518.00	521.00	521.00	523.00	524.00	525.00	525.00	527.00	530.00	530.00	533.00	533.00	536.00	537.00	538.00	541.00	541.00	545.00	545.00	546.00	548.00	548.00	551.00	552.00	552.00	552.00	553.00	554.00	555.00	555.00	556.00	556.00	557.00	562.00	567.00	567.00	566.00	566.00	565.00	564.00	564.00	564.00	564.00	561.00	559.00	556.00	555.00	553.00	550.00	550.00	550.00	550.00	550.00	561.00	564.00	565.00	567.00	565.00	566.00	566.00	565.00	564.00	563.00	562.00	560.00	557.00	555.00	553.00	551.00	550.00	550.00	550.00	550.00	550.00	550.00	550.00	550.00	550.00	550.00	550.00	557.00	559.00	561.00	564.00	563.00	562.00	561.00	561.00	560.00	558.00	558.00	556.00	555.00	551.00	550.00	550.00	550.00	550.00	550.00	550.00	550.00	550.00	558.00	561.00	563.00	564.00	566.00	566.00	565.00	565.00	564.00	563.00	561.00	560.00	558.00	556.00	550.00	550.00	550.00	550.00	550.00	550.00	550.00	550.00	550.00	550.00	550.00	551.00	553.00	555.00	557.00	557.00	558.00	558.00	560.00	560.00	560.00	561.00	561.00	562.00	561.00	560.00	559.00	557.00	554.00	552.00	551.00	550.00	550.00	550.00	550.00	550.00	550.00	550.00	550.00	550.00	550.00	550.00	553.00	554.00	556.00	558.00	559.00	559.00	560.00	561.00
465.00	466.00	468.00	469.00	473.00	474.00	475.00	478.00	481.00	483.00	483.00	485.00	487.00	489.00	491.00	491.00	492.00	496.00	496.00	498.00	499.00	499.00	500.00	502.00	503.00	503.00	504.00	505.00	506.00	507.00	507.00	508.00	508.00	510.00	510.00	511.00	511.00	511.00	511.00	512.00	512.00	514.00	515.00	515.00	516.00	516.00	516.00	516.00	516.00	518.00	516.00	516.00	519.00	519.00	519.00	519.00	519.00	519.00	517.00	517.00	517.00	517.00	517.00	517.00	517.00	514.00	514.00	514.00	512.00	512.00	513.00	513.00	513.00	513.00	513.00	513.00	513.00	513.00	513.00	513.00	513.00	513.00	513.00	513.00	513.00	515.00	515.00	515.00	515.00	516.00	518.00	521.00	521.00	523.00	524.00	525.00	525.00	527.00	530.00	530.00	533.00	533.00	536.00	537.00	538.00	541.00	541.00	545.00	545.00	546.00	548.00	548.00	551.00	552.00	552.00	552.00	553.00	554.00	555.00	555.00	556.00	556.00	557.00	562.00	567.00	567.00	566.00	566.00	565.00	564.00	564.00	564.00	564.00	561.00	559.00	556.00	555.00	553.00	550.00	550.00	550.00	550.00	550.00	561.00	564.00	565.00	567.00	565.00	566.00	566.00	565.00	564.00	563.00	562.00	560.00	557.00	555.00	553.00	551.00	550.00	550.00	550.00	550.00	550.00	550.00	550.00	550.00	550.00	550.00	550.00	557.00	559.00	561.00	564.00	563.00	562.00	561.00	561.00	560.00	558.00	558.00	556.00	555.00	551.00	550.00	550.00	550.00	550.00	550.00	550.00	550.00	550.00	558.00	561.00	563.00	564.00	566.00	566.00	565.00	565.00	564.00	563.00	561.00	560.00	558.00	556.00	550.00	550.00	550.00	550.00	550.00	550.00	550.00	550.00	550.00	550.00	550.00	551.00	553.00	555.00	557.00	557.00	558.00	558.00	560.00	560.00	560.00	561.00	561.00	562.00	561.00	560.00	559.00	557.00	554.00	552.00	551.00	550.00	550.00	550.00	550.00	550.00	550.00	550.00	550.00	550.00	550.00	550.00	553.00	554.00	556.00	558.00	559.00	559.00	560.00	561.00
