329.00	328.00	330.00	332.00	331.00	333.00	332.00	333.00	333.00	334.00	335.00	334.00	336.00	349.00	348.00	349.00	356.00	351.00	353.00	354.00	349.00	349.00	335.00	332.00	335.00	352.00	356.00	349.00	369.00	370.00	363.00	345.00	342.00	341.00	342.00	342.00	345.00	347.00	351.00	353.00	357.00	358.00	362.00	364.00	367.00	379.00	378.00	379.00	383.00	396.00	400.00	401.00	411.00	436.00	521.00	500.00	473.00	553.00	407.00	403.00	409.00	429.00	447.00	464.00	457.00	543.00	580.00	482.00	430.00	398.00	559.00	582.00	492.00	440.00	443.00	534.00	526.00	446.00	395.00	425.00	443.00	437.00	447.00	464.00	500.00	758.00	742.00	729.00	722.00	696.00	699.00	699.00	704.00	712.00	595.00	589.00	569.00	552.00	561.00	576.00	554.00	535.00	565.00	606.00	557.00	496.00	490.00	558.00	631.00	650.00	648.00	663.00	629.00	580.00	513.00	495.00	483.00	479.00	476.00	474.00	472.00	472.00	469.00	468.00	466.00	461.00	456.00	454.00	451.00	445.00	440.00	443.00	444.00	443.00	450.00	453.00	447.00	447.00	452.00	453.00	453.00	452.00	450.00	453.00	457.00	460.00	464.00	464.00	464.00	464.00	470.00	475.00	474.00	477.00	483.00	493.00	494.00	501.00	498.00	500.00	501.00	524.00	644.00	662.00	712.00	713.00	716.00	721.00	726.00	742.00	753.00	767.00	767.00	771.00	793.00	757.00	765.00	779.00	801.00	821.00	828.00	855.00	873.00	813.00	792.00	822.00	815.00	811.00	862.00	904.00	904.00	912.00	879.00	959.00	914.00	913.00	847.00	913.00	818.00	750.00	711.00	701.00	693.00	692.00	691.00	694.00	704.00	716.00	739.00	769.00	794.00	811.00	809.00	800.00	811.00	813.00	806.00	831.00	832.00	825.00	828.00	838.00	863.00	887.00	830.00	801.00	795.00	781.00	767.00	777.00	822.00	825.00	813.00	796.00	808.00	805.00	799.00	797.00	755.00	742.00	752.00	774.00	728.00	772.00	775.00	776.00	740.00	743.00	785.00	797.00	820.00	853.00	869.00	866.00	914.00	898.00
329.00	328.00	331.00	332.00	331.00	332.00	333.00	334.00	334.00	334.00	335.00	335.00	335.00	345.00	348.00	343.00	348.00	353.00	351.00	351.00	351.00	349.00	351.00	333.00	332.00	335.00	350.00	372.00	370.00	364.00	354.00	340.00	340.00	341.00	342.00	343.00	345.00	347.00	350.00	351.00	357.00	359.00	360.00	364.00	367.00	388.00	383.00	379.00	382.00	397.00	400.00	402.00	401.00	417.00	487.00	512.00	526.00	511.00	413.00	417.00	461.00	459.00	428.00	460.00	455.00	513.00	538.00	437.00	410.00	403.00	521.00	509.00	439.00	457.00	456.00	502.00	498.00	443.00	417.00	430.00	435.00	437.00	458.00	505.00	565.00	752.00	743.00	729.00	697.00	652.00	681.00	719.00	722.00	724.00	594.00	551.00	537.00	529.00	517.00	518.00	520.00	531.00	617.00	602.00	530.00	502.00	491.00	537.00	643.00	670.00	648.00	662.00	582.00	524.00	496.00	489.00	481.00	478.00	476.00	474.00	472.00	467.00	464.00	463.00	462.00	459.00	459.00	456.00	455.00	444.00	442.00	446.00	454.00	450.00	462.00	456.00	459.00	446.00	446.00	448.00	448.00	449.00	449.00	452.00	453.00	455.00	460.00	461.00	462.00	465.00	469.00	471.00	471.00	480.00	481.00	495.00	493.00	492.00	500.00	505.00	497.00	508.00	541.00	573.00	713.00	721.00	718.00	733.00	741.00	741.00	751.00	764.00	780.00	793.00	792.00	772.00	791.00	799.00	809.00	851.00	832.00	842.00	862.00	849.00	806.00	832.00	864.00	866.00	828.00	853.00	881.00	919.00	911.00	964.00	957.00	894.00	767.00	820.00	767.00	725.00	707.00	698.00	691.00	691.00	690.00	694.00	704.00	711.00	727.00	762.00	773.00	805.00	813.00	800.00	798.00	801.00	804.00	833.00	831.00	827.00	837.00	850.00	860.00	888.00	821.00	805.00	812.00	802.00	810.00	778.00	807.00	828.00	821.00	814.00	811.00	799.00	799.00	771.00	763.00	748.00	767.00	737.00	786.00	799.00	800.00	789.00	793.00	762.00	791.00	805.00	829.00	871.00	867.00	868.00	929.00	945.00
331.00	332.00	335.00	336.00	334.00	333.00	332.00	335.00	336.00	334.00	336.00	337.00	336.00	339.00	341.00	342.00	344.00	346.00	354.00	358.00	359.00	356.00	353.00	353.00	351.00	334.00	334.00	337.00	343.00	343.00	339.00	340.00	341.00	341.00	341.00	342.00	344.00	346.00	355.00	360.00	373.00	362.00	357.00	358.00	373.00	458.00	410.00	384.00	389.00	416.00	403.00	403.00	403.00	404.00	414.00	431.00	474.00	561.00	433.00	425.00	491.00	447.00	422.00	485.00	497.00	561.00	552.00	590.00	551.00	484.00	551.00	503.00	533.00	581.00	609.00	521.00	469.00	452.00	431.00	435.00	440.00	443.00	452.00	524.00	491.00	730.00	711.00	676.00	713.00	613.00	630.00	714.00	718.00	638.00	582.00	529.00	536.00	520.00	509.00	506.00	503.00	500.00	506.00	510.00	548.00	569.00	494.00	489.00	498.00	549.00	566.00	604.00	530.00	496.00	489.00	484.00	476.00	477.00	478.00	476.00	473.00	470.00	466.00	463.00	458.00	454.00	457.00	456.00	448.00	452.00	446.00	444.00	448.00	457.00	477.00	462.00	458.00	460.00	455.00	451.00	449.00	453.00	457.00	457.00	454.00	455.00	459.00	458.00	460.00	461.00	463.00	463.00	469.00	471.00	485.00	489.00	487.00	497.00	494.00	490.00	491.00	500.00	524.00	613.00	740.00	724.00	741.00	731.00	741.00	749.00	786.00	776.00	784.00	784.00	802.00	793.00	808.00	814.00	812.00	789.00	798.00	816.00	856.00	880.00	824.00	908.00	859.00	832.00	866.00	893.00	872.00	887.00	907.00	927.00	952.00	874.00	720.00	701.00	699.00	697.00	696.00	692.00	686.00	687.00	689.00	690.00	707.00	711.00	727.00	744.00	773.00	803.00	820.00	816.00	797.00	802.00	806.00	824.00	829.00	839.00	839.00	863.00	872.00	859.00	849.00	850.00	863.00	848.00	818.00	799.00	788.00	815.00	834.00	806.00	799.00	796.00	794.00	827.00	835.00	806.00	805.00	772.00	674.00	675.00	800.00	821.00	825.00	827.00	797.00	827.00	838.00	864.00	873.00	881.00	915.00	998.00
330.00	331.00	334.00	337.00	335.00	334.00	332.00	336.00	336.00	338.00	336.00	336.00	337.00	338.00	338.00	338.00	343.00	343.00	359.00	355.00	357.00	357.00	356.00	357.00	355.00	351.00	335.00	335.00	337.00	337.00	337.00	337.00	338.00	340.00	341.00	345.00	350.00	353.00	360.00	362.00	374.00	377.00	367.00	372.00	443.00	466.00	427.00	381.00	386.00	435.00	403.00	404.00	407.00	414.00	408.00	415.00	447.00	543.00	475.00	430.00	433.00	420.00	422.00	449.00	459.00	515.00	590.00	584.00	542.00	471.00	520.00	560.00	503.00	518.00	621.00	551.00	523.00	436.00	430.00	438.00	463.00	464.00	454.00	475.00	491.00	694.00	647.00	624.00	602.00	550.00	611.00	692.00	679.00	564.00	534.00	524.00	517.00	513.00	506.00	503.00	502.00	496.00	496.00	495.00	504.00	541.00	498.00	490.00	487.00	492.00	502.00	518.00	514.00	490.00	485.00	482.00	475.00	473.00	473.00	475.00	474.00	470.00	463.00	461.00	462.00	462.00	459.00	453.00	447.00	452.00	451.00	448.00	445.00	458.00	473.00	463.00	461.00	472.00	462.00	451.00	451.00	454.00	458.00	461.00	461.00	453.00	458.00	462.00	460.00	460.00	462.00	463.00	467.00	468.00	473.00	479.00	487.00	494.00	495.00	488.00	492.00	503.00	525.00	666.00	755.00	725.00	739.00	751.00	752.00	756.00	762.00	791.00	797.00	804.00	797.00	802.00	820.00	824.00	802.00	802.00	819.00	838.00	856.00	901.00	848.00	916.00	861.00	837.00	853.00	860.00	872.00	905.00	926.00	831.00	922.00	881.00	719.00	700.00	697.00	693.00	690.00	688.00	685.00	683.00	688.00	690.00	711.00	720.00	729.00	743.00	758.00	798.00	814.00	820.00	801.00	811.00	820.00	824.00	826.00	839.00	846.00	856.00	886.00	877.00	865.00	872.00	891.00	871.00	835.00	803.00	789.00	829.00	848.00	809.00	801.00	797.00	797.00	822.00	841.00	814.00	810.00	818.00	754.00	662.00	708.00	819.00	840.00	846.00	816.00	824.00	842.00	871.00	879.00	879.00	908.00	1007.00
330.00	331.00	332.00	332.00	334.00	334.00	335.00	336.00	337.00	337.00	337.00	338.00	337.00	338.00	339.00	340.00	341.00	343.00	359.00	357.00	354.00	353.00	357.00	357.00	358.00	357.00	350.00	337.00	335.00	336.00	336.00	338.00	341.00	346.00	343.00	346.00	348.00	351.00	356.00	360.00	370.00	383.00	406.00	387.00	446.00	459.00	422.00	393.00	394.00	466.00	415.00	414.00	434.00	445.00	424.00	410.00	439.00	519.00	463.00	467.00	424.00	438.00	443.00	455.00	450.00	471.00	539.00	542.00	494.00	448.00	434.00	507.00	485.00	513.00	588.00	516.00	517.00	440.00	425.00	437.00	464.00	451.00	450.00	455.00	483.00	625.00	613.00	595.00	569.00	538.00	630.00	706.00	683.00	623.00	539.00	526.00	517.00	512.00	505.00	501.00	498.00	496.00	493.00	493.00	494.00	494.00	493.00	481.00	482.00	484.00	489.00	493.00	489.00	483.00	480.00	478.00	473.00	471.00	471.00	471.00	472.00	471.00	466.00	467.00	465.00	459.00	454.00	448.00	450.00	453.00	454.00	447.00	444.00	457.00	470.00	465.00	463.00	477.00	471.00	454.00	454.00	455.00	459.00	462.00	467.00	459.00	455.00	458.00	465.00	463.00	465.00	466.00	471.00	474.00	471.00	475.00	480.00	491.00	487.00	487.00	493.00	510.00	523.00	586.00	740.00	740.00	736.00	749.00	772.00	777.00	766.00	769.00	776.00	778.00	788.00	835.00	834.00	837.00	826.00	843.00	875.00	874.00	875.00	919.00	873.00	913.00	854.00	860.00	822.00	867.00	864.00	846.00	815.00	746.00	796.00	786.00	707.00	694.00	693.00	690.00	687.00	685.00	686.00	686.00	687.00	691.00	714.00	724.00	731.00	738.00	747.00	785.00	796.00	795.00	803.00	814.00	816.00	821.00	826.00	841.00	852.00	870.00	893.00	902.00	894.00	886.00	889.00	870.00	829.00	811.00	801.00	817.00	839.00	827.00	809.00	809.00	808.00	835.00	854.00	829.00	821.00	847.00	789.00	634.00	639.00	681.00	763.00	833.00	846.00	841.00	832.00	865.00	881.00	890.00	914.00	994.00
331.00	331.00	332.00	335.00	334.00	334.00	334.00	336.00	338.00	337.00	337.00	338.00	337.00	338.00	341.00	338.00	339.00	343.00	357.00	357.00	356.00	359.00	373.00	368.00	361.00	360.00	359.00	335.00	338.00	336.00	337.00	343.00	348.00	346.00	343.00	343.00	346.00	347.00	352.00	356.00	367.00	374.00	393.00	390.00	405.00	438.00	422.00	399.00	401.00	458.00	430.00	431.00	451.00	461.00	466.00	440.00	470.00	501.00	493.00	472.00	430.00	474.00	464.00	448.00	439.00	467.00	550.00	503.00	451.00	445.00	477.00	504.00	476.00	520.00	551.00	504.00	530.00	460.00	429.00	436.00	443.00	444.00	449.00	454.00	478.00	522.00	516.00	590.00	541.00	586.00	709.00	726.00	724.00	696.00	570.00	528.00	516.00	510.00	503.00	501.00	498.00	493.00	492.00	489.00	489.00	488.00	487.00	481.00	480.00	480.00	482.00	483.00	482.00	479.00	476.00	474.00	470.00	468.00	468.00	468.00	469.00	467.00	467.00	465.00	464.00	457.00	451.00	449.00	453.00	455.00	457.00	453.00	446.00	454.00	474.00	469.00	465.00	470.00	468.00	455.00	454.00	455.00	459.00	467.00	470.00	472.00	459.00	455.00	460.00	460.00	463.00	466.00	475.00	492.00	498.00	482.00	483.00	484.00	485.00	488.00	493.00	507.00	581.00	571.00	753.00	756.00	750.00	741.00	765.00	791.00	782.00	763.00	800.00	802.00	794.00	826.00	850.00	854.00	857.00	822.00	827.00	842.00	885.00	916.00	910.00	902.00	886.00	884.00	747.00	791.00	759.00	729.00	725.00	716.00	720.00	731.00	698.00	690.00	689.00	687.00	684.00	683.00	683.00	684.00	684.00	693.00	717.00	727.00	738.00	745.00	747.00	783.00	800.00	807.00	802.00	817.00	823.00	820.00	826.00	853.00	861.00	872.00	882.00	891.00	897.00	908.00	913.00	866.00	864.00	852.00	810.00	837.00	843.00	845.00	824.00	825.00	820.00	846.00	872.00	853.00	855.00	847.00	851.00	672.00	659.00	825.00	701.00	682.00	833.00	864.00	868.00	859.00	898.00	906.00	919.00	961.00
330.00	333.00	332.00	334.00	335.00	334.00	333.00	336.00	336.00	339.00	339.00	340.00	338.00	339.00	341.00	341.00	340.00	341.00	360.00	362.00	361.00	363.00	376.00	381.00	374.00	367.00	363.00	359.00	338.00	338.00	339.00	340.00	341.00	342.00	344.00	345.00	344.00	345.00	348.00	351.00	401.00	432.00	401.00	372.00	383.00	408.00	401.00	404.00	405.00	459.00	440.00	446.00	457.00	437.00	467.00	450.00	455.00	495.00	504.00	458.00	433.00	488.00	499.00	483.00	516.00	487.00	457.00	478.00	420.00	475.00	557.00	553.00	488.00	553.00	613.00	551.00	595.00	584.00	482.00	485.00	453.00	453.00	455.00	488.00	624.00	518.00	514.00	497.00	504.00	622.00	701.00	724.00	669.00	575.00	535.00	525.00	518.00	512.00	503.00	500.00	498.00	496.00	495.00	495.00	493.00	492.00	493.00	486.00	479.00	478.00	476.00	475.00	477.00	477.00	478.00	474.00	475.00	473.00	471.00	468.00	462.00	459.00	458.00	457.00	455.00	452.00	457.00	457.00	459.00	459.00	453.00	454.00	449.00	457.00	467.00	467.00	469.00	472.00	473.00	457.00	454.00	458.00	462.00	467.00	476.00	475.00	467.00	465.00	462.00	458.00	459.00	463.00	474.00	485.00	573.00	555.00	511.00	487.00	490.00	487.00	490.00	494.00	556.00	740.00	800.00	792.00	781.00	778.00	760.00	755.00	823.00	827.00	811.00	770.00	785.00	851.00	849.00	878.00	882.00	864.00	894.00	867.00	846.00	865.00	953.00	944.00	935.00	951.00	743.00	709.00	701.00	698.00	698.00	699.00	696.00	691.00	685.00	683.00	683.00	681.00	680.00	679.00	681.00	690.00	687.00	691.00	721.00	732.00	741.00	756.00	756.00	773.00	786.00	812.00	824.00	828.00	828.00	850.00	844.00	862.00	874.00	886.00	891.00	896.00	932.00	926.00	936.00	920.00	913.00	892.00	831.00	835.00	874.00	847.00	845.00	849.00	847.00	857.00	889.00	911.00	917.00	901.00	831.00	769.00	668.00	655.00	860.00	867.00	856.00	763.00	726.00	881.00	879.00	891.00	932.00	988.00
330.00	333.00	332.00	334.00	335.00	334.00	333.00	336.00	336.00	339.00	339.00	340.00	338.00	339.00	341.00	341.00	340.00	341.00	360.00	362.00	361.00	363.00	376.00	381.00	374.00	367.00	363.00	359.00	338.00	338.00	339.00	340.00	341.00	342.00	344.00	345.00	344.00	345.00	348.00	351.00	401.00	432.00	401.00	372.00	383.00	408.00	401.00	404.00	405.00	459.00	440.00	446.00	457.00	437.00	467.00	450.00	455.00	495.00	504.00	458.00	433.00	488.00	499.00	483.00	516.00	487.00	457.00	478.00	420.00	475.00	557.00	553.00	488.00	553.00	613.00	551.00	595.00	584.00	482.00	485.00	453.00	453.00	455.00	488.00	624.00	518.00	514.00	497.00	504.00	622.00	701.00	724.00	669.00	575.00	535.00	525.00	518.00	512.00	503.00	500.00	498.00	496.00	495.00	495.00	493.00	492.00	493.00	486.00	479.00	478.00	476.00	475.00	477.00	477.00	478.00	474.00	475.00	473.00	471.00	468.00	462.00	459.00	458.00	457.00	455.00	452.00	457.00	457.00	459.00	459.00	453.00	454.00	449.00	457.00	467.00	467.00	469.00	472.00	473.00	457.00	454.00	458.00	462.00	467.00	476.00	475.00	467.00	465.00	462.00	458.00	459.00	463.00	474.00	485.00	573.00	555.00	511.00	487.00	490.00	487.00	490.00	494.00	556.00	740.00	800.00	792.00	781.00	778.00	760.00	755.00	823.00	827.00	811.00	770.00	785.00	851.00	849.00	878.00	882.00	864.00	894.00	867.00	846.00	865.00	953.00	944.00	935.00	951.00	743.00	709.00	701.00	698.00	698.00	699.00	696.00	691.00	685.00	683.00	683.00	681.00	680.00	679.00	681.00	690.00	687.00	691.00	721.00	732.00	741.00	756.00	756.00	773.00	786.00	812.00	824.00	828.00	828.00	850.00	844.00	862.00	874.00	886.00	891.00	896.00	932.00	926.00	936.00	920.00	913.00	892.00	831.00	835.00	874.00	847.00	845.00	849.00	847.00	857.00	889.00	911.00	917.00	901.00	831.00	769.00	668.00	655.00	860.00	867.00	856.00	763.00	726.00	881.00	879.00	891.00	932.00	988.00
332.00	334.00	334.00	333.00	335.00	334.00	336.00	337.00	336.00	338.00	339.00	340.00	340.00	340.00	342.00	341.00	341.00	342.00	357.00	368.00	371.00	373.00	384.00	388.00	384.00	375.00	365.00	363.00	343.00	340.00	340.00	341.00	341.00	342.00	344.00	345.00	345.00	346.00	350.00	353.00	401.00	428.00	388.00	377.00	382.00	441.00	412.00	405.00	407.00	430.00	425.00	475.00	494.00	481.00	412.00	429.00	448.00	481.00	471.00	435.00	421.00	452.00	484.00	528.00	528.00	477.00	428.00	465.00	423.00	460.00	519.00	497.00	465.00	533.00	600.00	547.00	492.00	488.00	468.00	466.00	453.00	456.00	457.00	495.00	561.00	475.00	535.00	562.00	596.00	655.00	697.00	729.00	704.00	623.00	531.00	523.00	516.00	510.00	502.00	499.00	497.00	495.00	492.00	494.00	492.00	491.00	488.00	488.00	482.00	479.00	476.00	474.00	474.00	475.00	478.00	478.00	475.00	473.00	469.00	466.00	466.00	463.00	458.00	455.00	453.00	454.00	459.00	460.00	462.00	462.00	451.00	451.00	449.00	454.00	466.00	467.00	468.00	471.00	467.00	457.00	456.00	462.00	465.00	468.00	475.00	479.00	475.00	469.00	468.00	463.00	461.00	459.00	466.00	474.00	511.00	552.00	503.00	491.00	495.00	492.00	503.00	497.00	515.00	693.00	863.00	812.00	801.00	803.00	777.00	780.00	777.00	814.00	832.00	808.00	773.00	812.00	840.00	885.00	873.00	866.00	902.00	920.00	865.00	869.00	939.00	957.00	956.00	921.00	760.00	715.00	700.00	694.00	692.00	689.00	690.00	688.00	683.00	680.00	679.00	678.00	678.00	679.00	680.00	684.00	690.00	697.00	719.00	728.00	738.00	753.00	759.00	771.00	785.00	812.00	825.00	850.00	832.00	867.00	861.00	870.00	878.00	892.00	895.00	901.00	950.00	957.00	971.00	977.00	912.00	863.00	827.00	872.00	893.00	886.00	883.00	854.00	860.00	872.00	918.00	916.00	924.00	892.00	841.00	839.00	834.00	702.00	754.00	874.00	881.00	892.00	811.00	902.00	888.00	879.00	929.00	996.00
330.00	331.00	334.00	334.00	334.00	334.00	335.00	337.00	337.00	339.00	339.00	340.00	341.00	342.00	341.00	345.00	341.00	342.00	357.00	364.00	372.00	377.00	383.00	384.00	385.00	375.00	371.00	365.00	365.00	348.00	343.00	341.00	342.00	343.00	344.00	346.00	347.00	348.00	351.00	354.00	373.00	385.00	376.00	382.00	393.00	479.00	423.00	408.00	413.00	437.00	427.00	482.00	524.00	493.00	419.00	410.00	419.00	459.00	445.00	424.00	429.00	449.00	475.00	503.00	510.00	475.00	427.00	477.00	453.00	464.00	527.00	466.00	452.00	503.00	523.00	484.00	452.00	436.00	439.00	428.00	453.00	458.00	480.00	470.00	465.00	479.00	547.00	518.00	521.00	552.00	654.00	599.00	557.00	608.00	526.00	519.00	513.00	509.00	501.00	499.00	497.00	491.00	491.00	492.00	491.00	491.00	489.00	485.00	481.00	479.00	477.00	474.00	472.00	475.00	478.00	479.00	472.00	469.00	466.00	464.00	463.00	461.00	457.00	453.00	452.00	457.00	458.00	463.00	466.00	462.00	452.00	451.00	452.00	458.00	478.00	476.00	469.00	471.00	465.00	459.00	457.00	461.00	462.00	468.00	472.00	479.00	481.00	473.00	469.00	467.00	465.00	465.00	464.00	472.00	503.00	554.00	498.00	494.00	510.00	492.00	490.00	493.00	504.00	576.00	905.00	853.00	818.00	825.00	811.00	782.00	769.00	795.00	837.00	829.00	792.00	810.00	844.00	882.00	866.00	891.00	914.00	933.00	923.00	870.00	845.00	812.00	848.00	839.00	762.00	706.00	694.00	689.00	689.00	692.00	691.00	690.00	683.00	677.00	677.00	677.00	680.00	678.00	681.00	687.00	693.00	700.00	727.00	736.00	743.00	750.00	756.00	771.00	789.00	811.00	821.00	878.00	840.00	875.00	875.00	881.00	884.00	894.00	903.00	907.00	968.00	979.00	993.00	986.00	925.00	877.00	844.00	875.00	897.00	891.00	900.00	883.00	885.00	904.00	931.00	939.00	918.00	904.00	854.00	833.00	840.00	810.00	683.00	866.00	909.00	917.00	917.00	928.00	923.00	888.00	898.00	986.00
330.00	331.00	333.00	333.00	337.00	334.00	337.00	336.00	337.00	339.00	340.00	341.00	341.00	343.00	346.00	346.00	347.00	346.00	357.00	360.00	367.00	372.00	375.00	379.00	379.00	383.00	382.00	376.00	368.00	366.00	369.00	364.00	356.00	348.00	346.00	344.00	347.00	350.00	355.00	358.00	378.00	424.00	440.00	414.00	400.00	436.00	410.00	398.00	405.00	434.00	416.00	428.00	454.00	460.00	430.00	427.00	412.00	445.00	462.00	502.00	451.00	462.00	477.00	438.00	433.00	433.00	428.00	477.00	457.00	465.00	464.00	440.00	521.00	530.00	455.00	427.00	443.00	446.00	449.00	453.00	487.00	553.00	538.00	492.00	483.00	468.00	482.00	506.00	582.00	636.00	684.00	543.00	565.00	509.00	507.00	508.00	510.00	506.00	502.00	500.00	498.00	492.00	490.00	484.00	486.00	487.00	487.00	486.00	488.00	482.00	478.00	476.00	468.00	470.00	475.00	473.00	465.00	463.00	461.00	459.00	459.00	455.00	456.00	456.00	459.00	464.00	469.00	470.00	470.00	465.00	453.00	451.00	455.00	462.00	472.00	477.00	474.00	476.00	469.00	461.00	462.00	465.00	469.00	469.00	470.00	471.00	475.00	476.00	474.00	469.00	476.00	491.00	471.00	461.00	474.00	472.00	471.00	514.00	520.00	516.00	529.00	528.00	498.00	519.00	812.00	794.00	876.00	865.00	850.00	850.00	802.00	807.00	800.00	833.00	864.00	847.00	836.00	827.00	773.00	639.00	675.00	699.00	677.00	690.00	657.00	678.00	680.00	682.00	683.00	681.00	681.00	684.00	689.00	689.00	682.00	690.00	680.00	674.00	674.00	677.00	677.00	679.00	681.00	684.00	690.00	704.00	729.00	733.00	734.00	751.00	762.00	769.00	787.00	810.00	822.00	867.00	860.00	871.00	881.00	908.00	907.00	905.00	911.00	926.00	978.00	1001.00	997.00	1000.00	957.00	899.00	852.00	873.00	880.00	913.00	936.00	937.00	895.00	879.00	926.00	953.00	954.00	951.00	900.00	798.00	717.00	656.00	734.00	867.00	932.00	944.00	944.00	953.00	951.00	895.00	912.00	972.00
332.00	333.00	333.00	333.00	335.00	336.00	336.00	338.00	338.00	339.00	340.00	340.00	342.00	346.00	346.00	343.00	345.00	352.00	356.00	360.00	366.00	370.00	371.00	374.00	378.00	380.00	379.00	378.00	372.00	371.00	369.00	372.00	372.00	361.00	353.00	348.00	347.00	349.00	352.00	356.00	395.00	404.00	423.00	436.00	416.00	433.00	431.00	412.00	439.00	436.00	406.00	409.00	431.00	438.00	429.00	434.00	443.00	471.00	452.00	499.00	445.00	439.00	441.00	434.00	432.00	473.00	513.00	467.00	453.00	521.00	510.00	452.00	495.00	490.00	444.00	436.00	451.00	467.00	471.00	448.00	540.00	630.00	569.00	486.00	470.00	465.00	475.00	480.00	549.00	574.00	542.00	586.00	558.00	503.00	504.00	505.00	504.00	503.00	500.00	497.00	495.00	491.00	489.00	484.00	483.00	484.00	484.00	486.00	483.00	481.00	479.00	477.00	468.00	468.00	473.00	470.00	464.00	463.00	459.00	457.00	457.00	457.00	459.00	459.00	460.00	467.00	471.00	468.00	467.00	464.00	454.00	453.00	456.00	463.00	472.00	490.00	480.00	481.00	473.00	461.00	463.00	469.00	466.00	474.00	475.00	474.00	472.00	474.00	474.00	473.00	475.00	493.00	474.00	466.00	465.00	465.00	474.00	491.00	507.00	542.00	545.00	497.00	490.00	498.00	829.00	680.00	757.00	723.00	720.00	730.00	712.00	742.00	732.00	743.00	776.00	864.00	792.00	687.00	671.00	604.00	604.00	626.00	609.00	634.00	643.00	662.00	669.00	675.00	687.00	679.00	677.00	684.00	687.00	681.00	677.00	677.00	680.00	673.00	676.00	675.00	678.00	680.00	685.00	688.00	690.00	697.00	724.00	731.00	731.00	742.00	754.00	770.00	796.00	811.00	821.00	858.00	866.00	858.00	877.00	907.00	910.00	909.00	918.00	931.00	976.00	987.00	1011.00	1001.00	952.00	913.00	867.00	867.00	904.00	929.00	912.00	926.00	892.00	865.00	887.00	927.00	946.00	932.00	868.00	701.00	646.00	669.00	808.00	901.00	934.00	949.00	953.00	966.00	957.00	949.00	907.00	921.00
333.00	334.00	334.00	335.00	334.00	336.00	337.00	338.00	339.00	340.00	340.00	342.00	342.00	344.00	343.00	344.00	345.00	347.00	355.00	359.00	364.00	367.00	368.00	371.00	374.00	377.00	375.00	377.00	376.00	374.00	372.00	370.00	374.00	374.00	373.00	361.00	347.00	349.00	358.00	408.00	421.00	380.00	383.00	409.00	423.00	462.00	471.00	464.00	482.00	461.00	414.00	411.00	426.00	427.00	419.00	432.00	464.00	476.00	438.00	482.00	455.00	444.00	440.00	431.00	454.00	527.00	616.00	474.00	453.00	539.00	545.00	474.00	437.00	446.00	416.00	434.00	573.00	578.00	483.00	451.00	492.00	544.00	549.00	483.00	470.00	468.00	472.00	474.00	479.00	485.00	487.00	497.00	495.00	497.00	500.00	503.00	501.00	500.00	500.00	498.00	496.00	493.00	491.00	486.00	482.00	481.00	480.00	483.00	485.00	482.00	479.00	477.00	468.00	466.00	471.00	468.00	462.00	460.00	458.00	457.00	457.00	461.00	463.00	464.00	465.00	469.00	468.00	465.00	467.00	467.00	456.00	454.00	454.00	462.00	474.00	480.00	477.00	480.00	474.00	462.00	466.00	471.00	470.00	477.00	478.00	478.00	474.00	476.00	477.00	476.00	476.00	479.00	476.00	473.00	465.00	464.00	481.00	486.00	513.00	499.00	487.00	483.00	485.00	493.00	812.00	620.00	651.00	585.00	583.00	599.00	596.00	604.00	592.00	619.00	617.00	722.00	693.00	643.00	597.00	587.00	570.00	574.00	578.00	597.00	635.00	650.00	663.00	659.00	684.00	680.00	672.00	670.00	681.00	668.00	667.00	672.00	675.00	677.00	678.00	681.00	681.00	682.00	692.00	699.00	699.00	706.00	720.00	731.00	736.00	739.00	742.00	775.00	799.00	820.00	829.00	864.00	869.00	853.00	868.00	900.00	906.00	926.00	940.00	946.00	967.00	983.00	991.00	1002.00	978.00	943.00	885.00	890.00	889.00	930.00	909.00	883.00	866.00	848.00	862.00	896.00	924.00	912.00	682.00	661.00	683.00	796.00	689.00	815.00	934.00	950.00	957.00	978.00	964.00	982.00	970.00	999.00
333.00	334.00	335.00	335.00	336.00	337.00	338.00	340.00	338.00	341.00	340.00	342.00	344.00	343.00	344.00	344.00	346.00	347.00	358.00	357.00	362.00	364.00	366.00	370.00	369.00	369.00	370.00	374.00	377.00	376.00	373.00	369.00	371.00	375.00	377.00	374.00	349.00	349.00	357.00	399.00	426.00	383.00	369.00	397.00	438.00	475.00	471.00	469.00	450.00	455.00	414.00	413.00	452.00	486.00	452.00	464.00	463.00	463.00	430.00	464.00	477.00	478.00	448.00	435.00	458.00	501.00	563.00	505.00	486.00	536.00	523.00	449.00	411.00	419.00	424.00	437.00	570.00	524.00	474.00	458.00	465.00	476.00	537.00	489.00	470.00	470.00	476.00	532.00	565.00	552.00	493.00	488.00	490.00	492.00	500.00	500.00	502.00	500.00	496.00	494.00	493.00	490.00	487.00	483.00	484.00	482.00	479.00	479.00	482.00	482.00	480.00	477.00	468.00	465.00	467.00	466.00	461.00	459.00	459.00	458.00	459.00	463.00	466.00	467.00	468.00	472.00	465.00	472.00	476.00	467.00	457.00	455.00	454.00	460.00	469.00	475.00	483.00	480.00	476.00	463.00	467.00	471.00	471.00	481.00	482.00	480.00	477.00	477.00	477.00	479.00	479.00	476.00	476.00	475.00	470.00	467.00	466.00	474.00	476.00	475.00	476.00	480.00	482.00	495.00	731.00	572.00	595.00	552.00	531.00	533.00	545.00	543.00	542.00	563.00	562.00	613.00	611.00	603.00	580.00	555.00	557.00	560.00	565.00	587.00	617.00	621.00	636.00	646.00	660.00	676.00	646.00	627.00	638.00	648.00	650.00	646.00	678.00	681.00	682.00	687.00	687.00	688.00	700.00	707.00	711.00	712.00	701.00	708.00	725.00	736.00	744.00	776.00	798.00	826.00	843.00	866.00	879.00	859.00	859.00	896.00	907.00	928.00	949.00	952.00	953.00	968.00	979.00	986.00	959.00	941.00	935.00	913.00	898.00	943.00	908.00	879.00	861.00	827.00	841.00	875.00	927.00	905.00	673.00	793.00	835.00	872.00	836.00	751.00	937.00	951.00	963.00	994.00	994.00	1007.00	1018.00	951.00
333.00	333.00	334.00	336.00	337.00	338.00	337.00	339.00	339.00	341.00	340.00	342.00	343.00	344.00	346.00	347.00	346.00	347.00	355.00	358.00	360.00	363.00	367.00	369.00	370.00	373.00	377.00	378.00	379.00	377.00	376.00	371.00	369.00	373.00	369.00	356.00	348.00	350.00	353.00	356.00	380.00	369.00	370.00	373.00	379.00	407.00	409.00	414.00	421.00	450.00	475.00	441.00	442.00	441.00	449.00	429.00	439.00	445.00	442.00	511.00	565.00	509.00	457.00	449.00	468.00	478.00	454.00	456.00	445.00	453.00	471.00	457.00	456.00	510.00	528.00	549.00	472.00	473.00	480.00	519.00	465.00	464.00	469.00	472.00	473.00	506.00	609.00	727.00	719.00	731.00	713.00	501.00	499.00	506.00	504.00	501.00	499.00	500.00	499.00	495.00	496.00	493.00	491.00	486.00	484.00	483.00	481.00	475.00	475.00	479.00	479.00	479.00	469.00	466.00	463.00	461.00	462.00	463.00	464.00	463.00	463.00	466.00	468.00	470.00	472.00	476.00	475.00	478.00	474.00	469.00	464.00	460.00	456.00	460.00	480.00	482.00	492.00	479.00	474.00	470.00	469.00	476.00	475.00	476.00	482.00	482.00	483.00	481.00	479.00	481.00	480.00	477.00	483.00	482.00	473.00	476.00	476.00	471.00	468.00	468.00	469.00	472.00	474.00	483.00	587.00	518.00	505.00	508.00	507.00	506.00	504.00	506.00	509.00	516.00	522.00	535.00	542.00	549.00	539.00	536.00	539.00	545.00	552.00	569.00	590.00	612.00	621.00	627.00	664.00	681.00	677.00	660.00	678.00	681.00	690.00	691.00	684.00	690.00	697.00	700.00	703.00	707.00	714.00	718.00	724.00	723.00	726.00	712.00	726.00	748.00	728.00	782.00	803.00	828.00	848.00	894.00	897.00	874.00	873.00	899.00	935.00	954.00	949.00	949.00	951.00	958.00	966.00	981.00	975.00	963.00	959.00	973.00	952.00	942.00	936.00	914.00	870.00	736.00	727.00	817.00	784.00	682.00	917.00	920.00	940.00	930.00	966.00	982.00	934.00	973.00	1010.00	1028.00	1035.00	1043.00	1049.00	1063.00
334.00	334.00	335.00	336.00	336.00	337.00	338.00	337.00	339.00	344.00	345.00	342.00	343.00	352.00	351.00	351.00	348.00	348.00	361.00	363.00	367.00	366.00	368.00	371.00	375.00	377.00	378.00	382.00	378.00	379.00	375.00	370.00	370.00	372.00	362.00	352.00	351.00	351.00	357.00	362.00	388.00	389.00	380.00	379.00	385.00	409.00	401.00	405.00	414.00	498.00	500.00	474.00	462.00	449.00	466.00	489.00	481.00	497.00	445.00	499.00	565.00	521.00	455.00	472.00	499.00	494.00	431.00	432.00	445.00	472.00	497.00	486.00	436.00	458.00	475.00	502.00	566.00	488.00	529.00	542.00	479.00	522.00	501.00	532.00	521.00	507.00	568.00	626.00	690.00	740.00	720.00	504.00	500.00	501.00	500.00	498.00	498.00	498.00	496.00	493.00	492.00	494.00	492.00	486.00	483.00	481.00	480.00	476.00	473.00	474.00	476.00	476.00	469.00	465.00	463.00	463.00	465.00	464.00	467.00	465.00	465.00	467.00	471.00	472.00	473.00	477.00	475.00	474.00	478.00	471.00	463.00	461.00	459.00	461.00	481.00	493.00	497.00	480.00	474.00	470.00	469.00	470.00	473.00	481.00	481.00	481.00	483.00	485.00	480.00	481.00	482.00	482.00	484.00	481.00	473.00	481.00	479.00	475.00	473.00	471.00	472.00	472.00	471.00	475.00	556.00	503.00	498.00	496.00	497.00	499.00	496.00	499.00	504.00	512.00	518.00	525.00	531.00	533.00	534.00	533.00	541.00	546.00	555.00	571.00	585.00	603.00	610.00	628.00	660.00	677.00	693.00	688.00	677.00	693.00	692.00	697.00	694.00	696.00	697.00	705.00	709.00	711.00	720.00	723.00	727.00	733.00	731.00	726.00	722.00	750.00	747.00	784.00	810.00	827.00	845.00	899.00	913.00	888.00	892.00	902.00	934.00	967.00	969.00	966.00	958.00	960.00	969.00	972.00	973.00	965.00	939.00	920.00	907.00	890.00	907.00	907.00	874.00	767.00	719.00	688.00	700.00	746.00	928.00	936.00	953.00	965.00	967.00	988.00	1011.00	980.00	972.00	1033.00	1045.00	1058.00	1066.00	1080.00
333.00	335.00	335.00	335.00	337.00	336.00	338.00	339.00	340.00	347.00	349.00	352.00	350.00	352.00	350.00	349.00	349.00	350.00	360.00	364.00	367.00	369.00	372.00	375.00	378.00	381.00	383.00	382.00	379.00	377.00	374.00	369.00	372.00	362.00	352.00	351.00	351.00	353.00	363.00	371.00	383.00	388.00	386.00	390.00	396.00	415.00	414.00	424.00	417.00	493.00	496.00	487.00	458.00	456.00	457.00	471.00	500.00	493.00	433.00	465.00	520.00	487.00	449.00	508.00	555.00	491.00	431.00	522.00	526.00	492.00	530.00	456.00	424.00	448.00	440.00	443.00	503.00	482.00	541.00	508.00	613.00	622.00	617.00	654.00	653.00	654.00	698.00	712.00	743.00	754.00	725.00	506.00	505.00	504.00	500.00	499.00	497.00	495.00	492.00	491.00	489.00	488.00	486.00	485.00	483.00	482.00	479.00	474.00	473.00	471.00	473.00	473.00	467.00	465.00	463.00	465.00	469.00	466.00	469.00	469.00	467.00	471.00	472.00	475.00	476.00	479.00	478.00	476.00	472.00	472.00	465.00	463.00	459.00	459.00	478.00	481.00	482.00	479.00	476.00	471.00	472.00	474.00	472.00	479.00	480.00	483.00	482.00	485.00	484.00	483.00	485.00	488.00	481.00	476.00	478.00	477.00	482.00	479.00	479.00	478.00	476.00	478.00	472.00	472.00	533.00	490.00	491.00	489.00	491.00	492.00	493.00	494.00	496.00	507.00	511.00	528.00	526.00	528.00	530.00	527.00	534.00	534.00	532.00	547.00	568.00	581.00	606.00	619.00	663.00	667.00	691.00	691.00	680.00	697.00	683.00	698.00	708.00	696.00	699.00	704.00	711.00	714.00	725.00	729.00	731.00	730.00	737.00	741.00	741.00	755.00	770.00	774.00	794.00	825.00	846.00	886.00	901.00	903.00	896.00	922.00	933.00	950.00	978.00	976.00	972.00	960.00	963.00	980.00	964.00	957.00	940.00	922.00	911.00	860.00	861.00	871.00	871.00	842.00	801.00	700.00	862.00	898.00	920.00	949.00	969.00	978.00	965.00	987.00	1020.00	1001.00	959.00	995.00	1046.00	1065.00	1079.00	1092.00
334.00	333.00	335.00	336.00	338.00	341.00	344.00	343.00	342.00	345.00	351.00	353.00	353.00	347.00	349.00	351.00	357.00	357.00	349.00	356.00	365.00	370.00	376.00	377.00	378.00	381.00	383.00	377.00	376.00	372.00	371.00	370.00	363.00	353.00	352.00	353.00	354.00	357.00	373.00	373.00	385.00	391.00	394.00	403.00	405.00	411.00	419.00	425.00	410.00	463.00	481.00	494.00	489.00	460.00	480.00	465.00	467.00	468.00	466.00	434.00	457.00	449.00	463.00	551.00	589.00	496.00	429.00	523.00	538.00	473.00	500.00	437.00	455.00	469.00	427.00	416.00	424.00	458.00	496.00	541.00	586.00	588.00	600.00	616.00	637.00	706.00	738.00	755.00	761.00	771.00	671.00	511.00	507.00	505.00	500.00	500.00	498.00	497.00	493.00	491.00	489.00	484.00	484.00	482.00	481.00	479.00	477.00	478.00	474.00	471.00	470.00	469.00	467.00	466.00	464.00	465.00	471.00	469.00	470.00	472.00	471.00	473.00	475.00	477.00	479.00	480.00	477.00	474.00	472.00	472.00	465.00	462.00	460.00	459.00	470.00	478.00	475.00	477.00	479.00	473.00	476.00	484.00	475.00	479.00	488.00	488.00	488.00	488.00	488.00	486.00	488.00	487.00	478.00	481.00	484.00	478.00	482.00	495.00	492.00	502.00	484.00	480.00	474.00	473.00	509.00	481.00	485.00	485.00	485.00	485.00	488.00	490.00	490.00	491.00	498.00	538.00	536.00	533.00	531.00	537.00	543.00	545.00	550.00	564.00	599.00	610.00	610.00	614.00	658.00	659.00	678.00	681.00	694.00	681.00	711.00	721.00	723.00	697.00	706.00	711.00	716.00	722.00	738.00	741.00	739.00	738.00	747.00	754.00	755.00	769.00	774.00	803.00	808.00	800.00	817.00	866.00	883.00	926.00	905.00	953.00	954.00	958.00	965.00	967.00	992.00	971.00	967.00	976.00	973.00	981.00	967.00	930.00	918.00	874.00	859.00	838.00	855.00	864.00	812.00	704.00	886.00	934.00	943.00	962.00	974.00	983.00	987.00	1005.00	1018.00	1016.00	983.00	987.00	1005.00	1071.00	1080.00	1108.00
333.00	334.00	335.00	336.00	337.00	340.00	343.00	341.00	345.00	353.00	351.00	351.00	352.00	359.00	361.00	363.00	367.00	367.00	352.00	351.00	352.00	357.00	364.00	367.00	367.00	363.00	365.00	366.00	365.00	366.00	367.00	354.00	354.00	355.00	355.00	356.00	362.00	367.00	374.00	379.00	390.00	396.00	397.00	410.00	423.00	414.00	414.00	423.00	422.00	415.00	417.00	435.00	457.00	436.00	440.00	437.00	431.00	447.00	552.00	436.00	422.00	451.00	465.00	474.00	438.00	427.00	431.00	445.00	436.00	424.00	445.00	503.00	489.00	444.00	428.00	430.00	442.00	452.00	469.00	532.00	620.00	633.00	623.00	624.00	618.00	642.00	648.00	708.00	777.00	793.00	676.00	518.00	514.00	507.00	501.00	499.00	497.00	498.00	493.00	492.00	493.00	490.00	489.00	488.00	484.00	482.00	479.00	475.00	473.00	474.00	476.00	475.00	471.00	468.00	466.00	466.00	474.00	476.00	476.00	474.00	475.00	476.00	482.00	482.00	484.00	479.00	477.00	476.00	477.00	474.00	465.00	465.00	462.00	461.00	470.00	477.00	481.00	480.00	475.00	480.00	491.00	530.00	519.00	482.00	505.00	540.00	499.00	493.00	493.00	488.00	488.00	484.00	485.00	486.00	496.00	497.00	482.00	496.00	510.00	516.00	505.00	482.00	477.00	477.00	527.00	488.00	481.00	480.00	482.00	482.00	485.00	485.00	486.00	487.00	490.00	528.00	548.00	549.00	541.00	559.00	559.00	549.00	565.00	575.00	599.00	623.00	648.00	649.00	650.00	654.00	661.00	666.00	702.00	712.00	721.00	727.00	719.00	707.00	716.00	725.00	735.00	742.00	754.00	757.00	757.00	756.00	770.00	779.00	783.00	786.00	792.00	816.00	828.00	839.00	849.00	869.00	874.00	909.00	930.00	928.00	944.00	953.00	957.00	984.00	985.00	988.00	972.00	982.00	992.00	972.00	941.00	925.00	913.00	866.00	879.00	851.00	842.00	849.00	851.00	752.00	739.00	874.00	997.00	997.00	1005.00	1010.00	1029.00	1030.00	1024.00	1016.00	1015.00	1043.00	1068.00	1081.00	1106.00	1136.00
333.00	335.00	336.00	335.00	339.00	341.00	342.00	343.00	352.00	349.00	351.00	356.00	358.00	366.00	364.00	367.00	371.00	367.00	359.00	355.00	351.00	357.00	360.00	360.00	360.00	359.00	360.00	361.00	366.00	367.00	360.00	356.00	357.00	355.00	356.00	357.00	363.00	369.00	376.00	383.00	393.00	397.00	395.00	394.00	400.00	410.00	413.00	418.00	438.00	432.00	418.00	437.00	456.00	473.00	453.00	430.00	419.00	427.00	483.00	438.00	426.00	466.00	504.00	472.00	458.00	416.00	416.00	423.00	425.00	433.00	454.00	525.00	459.00	425.00	414.00	413.00	423.00	430.00	482.00	536.00	635.00	643.00	646.00	659.00	646.00	645.00	660.00	694.00	732.00	799.00	683.00	522.00	515.00	510.00	505.00	502.00	502.00	499.00	496.00	495.00	493.00	488.00	486.00	485.00	482.00	480.00	479.00	476.00	476.00	477.00	478.00	477.00	469.00	469.00	467.00	467.00	475.00	477.00	480.00	476.00	477.00	479.00	485.00	485.00	484.00	481.00	479.00	476.00	474.00	476.00	472.00	467.00	466.00	460.00	469.00	475.00	474.00	476.00	473.00	479.00	488.00	504.00	506.00	481.00	486.00	512.00	511.00	492.00	496.00	492.00	489.00	489.00	487.00	488.00	501.00	494.00	486.00	492.00	498.00	512.00	506.00	482.00	480.00	483.00	571.00	576.00	495.00	489.00	489.00	489.00	488.00	489.00	489.00	492.00	493.00	508.00	542.00	558.00	559.00	576.00	581.00	569.00	582.00	591.00	610.00	637.00	646.00	663.00	666.00	683.00	688.00	694.00	685.00	709.00	720.00	724.00	717.00	705.00	721.00	731.00	741.00	751.00	759.00	764.00	765.00	767.00	782.00	786.00	786.00	797.00	805.00	817.00	830.00	842.00	853.00	874.00	885.00	910.00	933.00	935.00	948.00	953.00	961.00	965.00	986.00	986.00	972.00	973.00	970.00	950.00	933.00	921.00	902.00	885.00	897.00	897.00	881.00	876.00	915.00	940.00	787.00	723.00	1016.00	1021.00	1025.00	1029.00	1040.00	1019.00	1041.00	1033.00	1020.00	1090.00	1101.00	1096.00	1118.00	1151.00
334.00	334.00	337.00	337.00	338.00	339.00	339.00	351.00	357.00	352.00	360.00	364.00	365.00	364.00	369.00	368.00	373.00	369.00	359.00	357.00	350.00	351.00	355.00	355.00	356.00	358.00	359.00	363.00	363.00	358.00	356.00	358.00	357.00	356.00	357.00	359.00	365.00	368.00	376.00	382.00	388.00	390.00	394.00	396.00	399.00	420.00	415.00	422.00	442.00	453.00	433.00	427.00	463.00	500.00	481.00	432.00	416.00	416.00	430.00	447.00	447.00	456.00	534.00	511.00	473.00	416.00	400.00	416.00	421.00	427.00	508.00	615.00	446.00	425.00	410.00	413.00	418.00	426.00	475.00	506.00	655.00	675.00	670.00	693.00	693.00	663.00	677.00	698.00	707.00	778.00	725.00	527.00	516.00	509.00	504.00	501.00	499.00	497.00	494.00	493.00	490.00	488.00	486.00	482.00	480.00	478.00	482.00	481.00	479.00	479.00	477.00	474.00	474.00	471.00	468.00	468.00	474.00	478.00	480.00	479.00	479.00	483.00	486.00	485.00	485.00	481.00	480.00	477.00	473.00	503.00	471.00	468.00	470.00	463.00	464.00	469.00	470.00	471.00	472.00	477.00	482.00	491.00	494.00	479.00	483.00	491.00	518.00	498.00	496.00	496.00	492.00	491.00	489.00	491.00	498.00	494.00	490.00	493.00	494.00	498.00	505.00	483.00	484.00	486.00	626.00	783.00	513.00	502.00	502.00	502.00	495.00	497.00	500.00	500.00	503.00	508.00	529.00	562.00	571.00	575.00	586.00	587.00	594.00	607.00	626.00	638.00	647.00	662.00	687.00	684.00	680.00	706.00	711.00	713.00	721.00	719.00	720.00	720.00	723.00	743.00	751.00	757.00	768.00	772.00	774.00	775.00	788.00	795.00	801.00	808.00	817.00	831.00	836.00	844.00	856.00	873.00	890.00	913.00	930.00	947.00	949.00	960.00	981.00	981.00	971.00	991.00	996.00	963.00	971.00	962.00	939.00	926.00	902.00	896.00	899.00	894.00	886.00	922.00	963.00	931.00	783.00	747.00	1031.00	1040.00	1040.00	1043.00	1042.00	1035.00	1055.00	1053.00	1040.00	1097.00	1117.00	1128.00	1127.00	1161.00
336.00	338.00	338.00	338.00	338.00	339.00	340.00	350.00	348.00	361.00	367.00	368.00	364.00	364.00	368.00	371.00	375.00	369.00	363.00	361.00	354.00	351.00	353.00	355.00	359.00	362.00	363.00	364.00	357.00	358.00	357.00	358.00	357.00	356.00	359.00	361.00	368.00	370.00	377.00	382.00	385.00	387.00	390.00	395.00	400.00	417.00	415.00	420.00	448.00	465.00	428.00	417.00	439.00	471.00	514.00	446.00	417.00	415.00	419.00	476.00	449.00	460.00	513.00	519.00	464.00	441.00	419.00	417.00	417.00	423.00	593.00	626.00	448.00	434.00	414.00	406.00	417.00	418.00	446.00	468.00	647.00	666.00	685.00	698.00	703.00	680.00	693.00	707.00	704.00	702.00	743.00	557.00	522.00	511.00	501.00	500.00	499.00	495.00	493.00	490.00	489.00	487.00	484.00	484.00	481.00	481.00	486.00	481.00	480.00	478.00	475.00	475.00	475.00	472.00	469.00	468.00	473.00	475.00	477.00	479.00	480.00	484.00	486.00	484.00	483.00	480.00	477.00	476.00	470.00	499.00	484.00	463.00	468.00	464.00	466.00	467.00	472.00	473.00	477.00	480.00	483.00	494.00	490.00	483.00	481.00	485.00	495.00	532.00	496.00	501.00	499.00	498.00	495.00	494.00	499.00	494.00	494.00	495.00	496.00	494.00	494.00	486.00	486.00	491.00	650.00	880.00	557.00	513.00	509.00	508.00	500.00	508.00	512.00	510.00	508.00	522.00	528.00	575.00	582.00	590.00	596.00	600.00	607.00	605.00	621.00	632.00	644.00	654.00	656.00	663.00	688.00	713.00	740.00	726.00	739.00	724.00	732.00	725.00	729.00	749.00	758.00	764.00	771.00	778.00	781.00	781.00	798.00	805.00	811.00	816.00	827.00	841.00	849.00	850.00	865.00	881.00	896.00	916.00	934.00	961.00	960.00	965.00	969.00	974.00	975.00	974.00	997.00	975.00	970.00	955.00	944.00	928.00	917.00	908.00	908.00	900.00	915.00	961.00	977.00	914.00	739.00	794.00	1048.00	1049.00	1000.00	1014.00	1053.00	1053.00	1064.00	1075.00	1075.00	1092.00	1116.00	1140.00	1151.00	1157.00
337.00	338.00	341.00	342.00	340.00	343.00	355.00	345.00	356.00	358.00	354.00	356.00	355.00	372.00	369.00	372.00	380.00	378.00	374.00	367.00	357.00	354.00	355.00	358.00	359.00	358.00	357.00	357.00	358.00	360.00	358.00	360.00	358.00	359.00	362.00	366.00	371.00	374.00	382.00	386.00	384.00	385.00	389.00	399.00	401.00	410.00	416.00	416.00	408.00	414.00	417.00	419.00	455.00	470.00	574.00	507.00	443.00	415.00	443.00	423.00	421.00	417.00	422.00	421.00	422.00	418.00	417.00	415.00	421.00	477.00	438.00	434.00	430.00	432.00	433.00	426.00	428.00	421.00	425.00	439.00	560.00	590.00	625.00	655.00	645.00	668.00	692.00	695.00	681.00	671.00	670.00	733.00	642.00	525.00	502.00	498.00	498.00	496.00	491.00	488.00	487.00	487.00	488.00	484.00	481.00	485.00	485.00	481.00	478.00	478.00	481.00	482.00	476.00	474.00	472.00	472.00	476.00	479.00	482.00	484.00	481.00	483.00	485.00	484.00	483.00	479.00	478.00	480.00	482.00	480.00	492.00	472.00	470.00	465.00	470.00	473.00	471.00	473.00	475.00	477.00	480.00	488.00	494.00	487.00	485.00	485.00	488.00	511.00	502.00	507.00	508.00	512.00	501.00	499.00	517.00	518.00	505.00	503.00	501.00	499.00	515.00	508.00	493.00	490.00	517.00	695.00	617.00	547.00	530.00	525.00	497.00	504.00	526.00	532.00	537.00	551.00	551.00	554.00	605.00	614.00	617.00	625.00	635.00	641.00	646.00	656.00	665.00	665.00	667.00	670.00	690.00	710.00	731.00	778.00	778.00	785.00	759.00	753.00	755.00	766.00	773.00	775.00	771.00	774.00	773.00	777.00	810.00	819.00	825.00	830.00	842.00	864.00	872.00	879.00	886.00	883.00	893.00	908.00	921.00	942.00	958.00	968.00	965.00	968.00	978.00	975.00	975.00	988.00	988.00	990.00	968.00	947.00	943.00	932.00	929.00	932.00	945.00	1032.00	993.00	995.00	939.00	754.00	1054.00	1018.00	987.00	1049.00	1094.00	1097.00	1105.00	1126.00	1118.00	1116.00	1138.00	1153.00	1163.00	1187.00
337.00	338.00	341.00	342.00	340.00	343.00	355.00	345.00	356.00	358.00	354.00	356.00	355.00	372.00	369.00	372.00	380.00	378.00	374.00	367.00	357.00	354.00	355.00	358.00	359.00	358.00	357.00	357.00	358.00	360.00	358.00	360.00	358.00	359.00	362.00	366.00	371.00	374.00	382.00	386.00	384.00	385.00	389.00	399.00	401.00	410.00	416.00	416.00	408.00	414.00	417.00	419.00	455.00	470.00	574.00	507.00	443.00	415.00	443.00	423.00	421.00	417.00	422.00	421.00	422.00	418.00	417.00	415.00	421.00	477.00	438.00	434.00	430.00	432.00	433.00	426.00	428.00	421.00	425.00	439.00	560.00	590.00	625.00	655.00	645.00	668.00	692.00	695.00	681.00	671.00	670.00	733.00	642.00	525.00	502.00	498.00	498.00	496.00	491.00	488.00	487.00	487.00	488.00	484.00	481.00	485.00	485.00	481.00	478.00	478.00	481.00	482.00	476.00	474.00	472.00	472.00	476.00	479.00	482.00	484.00	481.00	483.00	485.00	484.00	483.00	479.00	478.00	480.00	482.00	480.00	492.00	472.00	470.00	465.00	470.00	473.00	471.00	473.00	475.00	477.00	480.00	488.00	494.00	487.00	485.00	485.00	488.00	511.00	502.00	507.00	508.00	512.00	501.00	499.00	517.00	518.00	505.00	503.00	501.00	499.00	515.00	508.00	493.00	490.00	517.00	695.00	617.00	547.00	530.00	525.00	497.00	504.00	526.00	532.00	537.00	551.00	551.00	554.00	605.00	614.00	617.00	625.00	635.00	641.00	646.00	656.00	665.00	665.00	667.00	670.00	690.00	710.00	731.00	778.00	778.00	785.00	759.00	753.00	755.00	766.00	773.00	775.00	771.00	774.00	773.00	777.00	810.00	819.00	825.00	830.00	842.00	864.00	872.00	879.00	886.00	883.00	893.00	908.00	921.00	942.00	958.00	968.00	965.00	968.00	978.00	975.00	975.00	988.00	988.00	990.00	968.00	947.00	943.00	932.00	929.00	932.00	945.00	1032.00	993.00	995.00	939.00	754.00	1054.00	1018.00	987.00	1049.00	1094.00	1097.00	1105.00	1126.00	1118.00	1116.00	1138.00	1153.00	1163.00	1187.00
339.00	339.00	340.00	343.00	346.00	356.00	358.00	362.00	369.00	347.00	349.00	352.00	358.00	374.00	374.00	375.00	383.00	386.00	378.00	367.00	358.00	355.00	355.00	357.00	356.00	356.00	357.00	357.00	359.00	359.00	359.00	360.00	360.00	361.00	363.00	367.00	372.00	374.00	380.00	387.00	383.00	385.00	395.00	399.00	400.00	408.00	419.00	416.00	404.00	413.00	417.00	435.00	450.00	452.00	553.00	527.00	447.00	417.00	422.00	415.00	414.00	415.00	415.00	423.00	421.00	418.00	419.00	418.00	433.00	501.00	430.00	428.00	433.00	433.00	431.00	425.00	425.00	426.00	425.00	424.00	560.00	576.00	590.00	608.00	619.00	660.00	657.00	651.00	653.00	647.00	658.00	678.00	687.00	570.00	504.00	500.00	497.00	495.00	491.00	492.00	492.00	490.00	488.00	483.00	485.00	488.00	485.00	480.00	481.00	481.00	485.00	486.00	475.00	475.00	472.00	471.00	477.00	480.00	484.00	487.00	484.00	486.00	485.00	483.00	481.00	480.00	481.00	483.00	480.00	479.00	483.00	473.00	469.00	468.00	469.00	473.00	473.00	472.00	472.00	478.00	479.00	486.00	505.00	490.00	488.00	488.00	488.00	491.00	498.00	504.00	506.00	511.00	506.00	506.00	531.00	528.00	514.00	508.00	507.00	504.00	519.00	520.00	496.00	494.00	507.00	670.00	620.00	564.00	539.00	538.00	507.00	513.00	502.00	515.00	546.00	576.00	574.00	572.00	577.00	619.00	616.00	623.00	639.00	651.00	658.00	661.00	674.00	669.00	678.00	676.00	688.00	701.00	728.00	807.00	816.00	791.00	791.00	765.00	763.00	768.00	780.00	780.00	788.00	793.00	799.00	801.00	811.00	828.00	838.00	845.00	853.00	877.00	884.00	890.00	895.00	894.00	911.00	926.00	933.00	935.00	935.00	946.00	949.00	955.00	955.00	965.00	974.00	969.00	1001.00	970.00	964.00	952.00	963.00	939.00	946.00	951.00	953.00	1059.00	1039.00	1071.00	1078.00	909.00	922.00	1018.00	990.00	1036.00	1088.00	1099.00	1105.00	1129.00	1121.00	1143.00	1152.00	1162.00	1166.00	1185.00
344.00	343.00	342.00	345.00	357.00	360.00	350.00	369.00	354.00	349.00	349.00	351.00	359.00	363.00	374.00	382.00	386.00	385.00	367.00	361.00	360.00	355.00	356.00	355.00	357.00	356.00	357.00	358.00	358.00	360.00	360.00	361.00	361.00	362.00	365.00	367.00	373.00	376.00	384.00	386.00	382.00	388.00	401.00	400.00	401.00	408.00	417.00	410.00	400.00	417.00	418.00	429.00	422.00	423.00	462.00	448.00	423.00	416.00	417.00	414.00	414.00	414.00	417.00	423.00	417.00	419.00	419.00	407.00	441.00	459.00	430.00	434.00	434.00	437.00	440.00	440.00	427.00	426.00	429.00	435.00	569.00	576.00	589.00	612.00	630.00	651.00	628.00	627.00	620.00	607.00	635.00	671.00	710.00	700.00	529.00	506.00	501.00	497.00	493.00	494.00	491.00	491.00	489.00	484.00	487.00	488.00	485.00	482.00	483.00	483.00	485.00	489.00	478.00	478.00	474.00	472.00	477.00	480.00	484.00	488.00	487.00	485.00	484.00	482.00	481.00	482.00	485.00	484.00	482.00	480.00	476.00	472.00	471.00	467.00	470.00	473.00	476.00	476.00	476.00	475.00	477.00	482.00	487.00	489.00	490.00	490.00	489.00	490.00	497.00	505.00	504.00	506.00	511.00	516.00	527.00	538.00	537.00	514.00	510.00	509.00	515.00	514.00	496.00	499.00	518.00	690.00	711.00	581.00	550.00	550.00	511.00	531.00	538.00	510.00	517.00	548.00	553.00	566.00	574.00	620.00	628.00	626.00	637.00	648.00	668.00	671.00	683.00	682.00	702.00	704.00	694.00	695.00	727.00	781.00	825.00	807.00	803.00	798.00	779.00	765.00	774.00	785.00	797.00	806.00	812.00	810.00	811.00	822.00	838.00	852.00	866.00	887.00	893.00	900.00	902.00	906.00	923.00	941.00	944.00	958.00	949.00	934.00	951.00	957.00	1014.00	1033.00	1033.00	1018.00	1005.00	1000.00	977.00	988.00	978.00	962.00	979.00	987.00	1005.00	1088.00	1096.00	1106.00	1112.00	1107.00	778.00	805.00	820.00	944.00	1050.00	1085.00	1113.00	1136.00	1124.00	1153.00	1167.00	1175.00	1179.00	1191.00
363.00	362.00	360.00	362.00	357.00	363.00	369.00	356.00	353.00	351.00	359.00	358.00	355.00	366.00	367.00	369.00	373.00	383.00	374.00	364.00	361.00	355.00	358.00	357.00	357.00	357.00	359.00	360.00	360.00	360.00	361.00	362.00	363.00	365.00	366.00	368.00	375.00	379.00	383.00	378.00	381.00	390.00	399.00	398.00	398.00	410.00	409.00	392.00	404.00	415.00	415.00	414.00	415.00	416.00	417.00	417.00	418.00	418.00	416.00	414.00	415.00	415.00	417.00	417.00	421.00	422.00	425.00	423.00	432.00	434.00	489.00	488.00	508.00	498.00	511.00	516.00	511.00	488.00	467.00	450.00	449.00	454.00	480.00	528.00	523.00	524.00	504.00	458.00	452.00	463.00	473.00	652.00	683.00	688.00	714.00	639.00	523.00	508.00	498.00	496.00	495.00	491.00	489.00	489.00	490.00	490.00	486.00	485.00	487.00	488.00	490.00	489.00	480.00	477.00	477.00	474.00	480.00	483.00	485.00	487.00	490.00	488.00	487.00	487.00	487.00	488.00	490.00	488.00	486.00	485.00	479.00	477.00	473.00	473.00	470.00	474.00	475.00	479.00	482.00	480.00	478.00	482.00	486.00	488.00	491.00	493.00	492.00	494.00	497.00	500.00	504.00	507.00	516.00	518.00	536.00	548.00	558.00	538.00	526.00	529.00	520.00	530.00	505.00	505.00	517.00	587.00	691.00	632.00	600.00	591.00	569.00	540.00	548.00	541.00	568.00	519.00	532.00	551.00	568.00	599.00	622.00	635.00	652.00	674.00	685.00	667.00	676.00	686.00	709.00	729.00	748.00	756.00	743.00	740.00	773.00	805.00	808.00	808.00	796.00	778.00	789.00	800.00	816.00	827.00	836.00	839.00	850.00	845.00	864.00	870.00	876.00	886.00	896.00	905.00	912.00	915.00	935.00	961.00	977.00	1000.00	1000.00	981.00	975.00	980.00	1036.00	1052.00	1062.00	1061.00	1026.00	1002.00	1028.00	1023.00	994.00	1031.00	1042.00	1032.00	1016.00	1084.00	1098.00	1107.00	1126.00	1138.00	1109.00	1105.00	1089.00	1012.00	849.00	861.00	1073.00	1141.00	1118.00	1165.00	1195.00	1201.00	1205.00	1210.00
370.00	370.00	373.00	365.00	366.00	368.00	361.00	351.00	350.00	350.00	356.00	361.00	359.00	361.00	369.00	369.00	372.00	378.00	369.00	364.00	358.00	356.00	359.00	359.00	357.00	358.00	359.00	360.00	361.00	361.00	361.00	363.00	364.00	365.00	368.00	370.00	374.00	377.00	378.00	377.00	380.00	390.00	402.00	400.00	404.00	413.00	396.00	393.00	404.00	410.00	412.00	413.00	414.00	414.00	418.00	418.00	418.00	418.00	415.00	414.00	414.00	415.00	417.00	418.00	419.00	419.00	421.00	424.00	431.00	445.00	518.00	538.00	554.00	534.00	552.00	564.00	555.00	521.00	514.00	483.00	437.00	449.00	452.00	456.00	470.00	484.00	466.00	447.00	448.00	458.00	491.00	662.00	686.00	689.00	702.00	680.00	633.00	543.00	501.00	499.00	497.00	491.00	490.00	492.00	491.00	489.00	487.00	487.00	489.00	492.00	491.00	489.00	481.00	480.00	478.00	475.00	480.00	483.00	487.00	490.00	492.00	490.00	488.00	489.00	490.00	490.00	488.00	488.00	486.00	484.00	479.00	476.00	478.00	477.00	471.00	472.00	476.00	481.00	485.00	483.00	481.00	484.00	489.00	488.00	491.00	494.00	495.00	497.00	499.00	501.00	503.00	507.00	515.00	519.00	532.00	562.00	579.00	570.00	540.00	527.00	521.00	507.00	509.00	510.00	515.00	530.00	712.00	651.00	620.00	607.00	584.00	550.00	572.00	565.00	574.00	545.00	537.00	564.00	571.00	585.00	637.00	650.00	657.00	683.00	701.00	677.00	678.00	676.00	692.00	707.00	736.00	759.00	758.00	772.00	776.00	782.00	792.00	803.00	804.00	788.00	798.00	810.00	827.00	833.00	840.00	850.00	858.00	867.00	863.00	871.00	862.00	898.00	891.00	905.00	918.00	925.00	941.00	980.00	992.00	1006.00	1015.00	1001.00	1005.00	975.00	1044.00	1065.00	1066.00	1065.00	1063.00	1027.00	1034.00	1052.00	1029.00	1046.00	1057.00	1057.00	1025.00	1072.00	1101.00	1121.00	1129.00	1144.00	1153.00	1147.00	1133.00	1137.00	1072.00	873.00	929.00	1059.00	992.00	1167.00	1197.00	1201.00	1209.00	1225.00
381.00	376.00	366.00	361.00	367.00	359.00	355.00	350.00	349.00	352.00	352.00	359.00	363.00	359.00	366.00	372.00	371.00	372.00	365.00	360.00	358.00	357.00	361.00	362.00	359.00	358.00	360.00	360.00	361.00	362.00	361.00	364.00	364.00	366.00	368.00	372.00	377.00	378.00	376.00	376.00	378.00	386.00	400.00	402.00	405.00	401.00	387.00	397.00	399.00	410.00	414.00	415.00	414.00	414.00	418.00	419.00	418.00	418.00	417.00	414.00	414.00	415.00	417.00	418.00	419.00	420.00	419.00	425.00	435.00	453.00	558.00	580.00	584.00	582.00	594.00	604.00	595.00	581.00	561.00	544.00	452.00	450.00	457.00	464.00	469.00	469.00	458.00	451.00	452.00	469.00	556.00	637.00	656.00	657.00	678.00	699.00	704.00	677.00	509.00	503.00	500.00	493.00	493.00	494.00	493.00	491.00	491.00	490.00	493.00	492.00	489.00	490.00	482.00	483.00	480.00	476.00	480.00	482.00	485.00	490.00	493.00	492.00	490.00	490.00	490.00	488.00	487.00	486.00	485.00	484.00	477.00	483.00	482.00	476.00	471.00	475.00	477.00	480.00	484.00	484.00	481.00	482.00	486.00	489.00	491.00	494.00	495.00	496.00	500.00	503.00	506.00	507.00	514.00	519.00	534.00	551.00	581.00	600.00	561.00	534.00	514.00	511.00	516.00	515.00	517.00	521.00	746.00	669.00	632.00	616.00	594.00	555.00	591.00	586.00	599.00	550.00	534.00	544.00	560.00	580.00	617.00	648.00	676.00	695.00	712.00	677.00	680.00	684.00	695.00	692.00	701.00	730.00	736.00	782.00	800.00	785.00	772.00	823.00	821.00	796.00	800.00	814.00	833.00	839.00	847.00	855.00	879.00	896.00	905.00	911.00	913.00	918.00	925.00	911.00	927.00	942.00	963.00	994.00	1004.00	1019.00	1032.00	1029.00	1010.00	992.00	1052.00	1070.00	1073.00	1068.00	1065.00	1064.00	1024.00	1054.00	1059.00	1024.00	1054.00	1064.00	1061.00	1063.00	1086.00	1103.00	1121.00	1135.00	1161.00	1166.00	1172.00	1179.00	1159.00	1092.00	823.00	850.00	859.00	969.00	1053.00	1122.00	1193.00	1227.00
372.00	366.00	366.00	368.00	357.00	353.00	355.00	354.00	352.00	352.00	354.00	355.00	362.00	363.00	362.00	366.00	373.00	372.00	361.00	359.00	357.00	358.00	363.00	363.00	364.00	362.00	359.00	361.00	362.00	363.00	363.00	364.00	366.00	367.00	370.00	372.00	380.00	385.00	376.00	374.00	377.00	382.00	397.00	403.00	405.00	386.00	390.00	395.00	404.00	412.00	414.00	414.00	411.00	413.00	416.00	419.00	418.00	412.00	418.00	419.00	416.00	416.00	416.00	418.00	418.00	420.00	420.00	427.00	451.00	505.00	602.00	619.00	616.00	618.00	637.00	617.00	640.00	619.00	604.00	589.00	456.00	456.00	452.00	460.00	466.00	458.00	458.00	455.00	452.00	510.00	558.00	588.00	597.00	612.00	654.00	694.00	703.00	706.00	518.00	511.00	502.00	496.00	494.00	497.00	495.00	492.00	491.00	495.00	495.00	493.00	491.00	491.00	485.00	483.00	481.00	477.00	481.00	482.00	484.00	487.00	491.00	495.00	492.00	491.00	489.00	487.00	486.00	485.00	484.00	481.00	485.00	484.00	482.00	483.00	474.00	473.00	477.00	477.00	482.00	483.00	480.00	480.00	485.00	489.00	490.00	491.00	493.00	496.00	502.00	504.00	504.00	507.00	513.00	519.00	530.00	554.00	600.00	592.00	577.00	528.00	516.00	521.00	525.00	520.00	523.00	532.00	697.00	667.00	640.00	625.00	585.00	572.00	608.00	609.00	611.00	574.00	566.00	579.00	549.00	560.00	601.00	665.00	675.00	688.00	722.00	689.00	685.00	692.00	702.00	707.00	702.00	712.00	723.00	762.00	799.00	774.00	772.00	822.00	822.00	800.00	801.00	808.00	827.00	839.00	847.00	860.00	890.00	899.00	909.00	916.00	922.00	941.00	940.00	948.00	926.00	948.00	971.00	1007.00	1016.00	1025.00	1038.00	1042.00	1018.00	1010.00	1059.00	1074.00	1070.00	1047.00	1042.00	1050.00	1031.00	1013.00	1017.00	997.00	1011.00	1071.00	1090.00	1086.00	1105.00	1119.00	1145.00	1150.00	1151.00	1165.00	1183.00	1197.00	1197.00	1184.00	897.00	888.00	1052.00	870.00	887.00	928.00	1006.00	1145.00
370.00	363.00	359.00	357.00	356.00	357.00	358.00	358.00	361.00	356.00	354.00	354.00	356.00	364.00	369.00	370.00	369.00	366.00	362.00	362.00	361.00	361.00	364.00	364.00	366.00	368.00	367.00	363.00	362.00	364.00	364.00	365.00	366.00	368.00	371.00	374.00	381.00	386.00	383.00	373.00	375.00	375.00	381.00	382.00	380.00	390.00	400.00	398.00	393.00	406.00	407.00	407.00	412.00	410.00	408.00	411.00	409.00	412.00	418.00	421.00	421.00	420.00	419.00	417.00	418.00	419.00	421.00	443.00	567.00	645.00	676.00	682.00	676.00	670.00	672.00	690.00	687.00	670.00	645.00	602.00	489.00	490.00	469.00	454.00	456.00	456.00	456.00	455.00	456.00	483.00	524.00	569.00	588.00	607.00	647.00	664.00	680.00	698.00	711.00	708.00	659.00	503.00	505.00	499.00	502.00	497.00	494.00	496.00	497.00	494.00	492.00	490.00	485.00	483.00	482.00	480.00	484.00	487.00	489.00	490.00	492.00	498.00	493.00	490.00	491.00	488.00	485.00	486.00	484.00	486.00	486.00	485.00	487.00	490.00	478.00	473.00	474.00	475.00	475.00	478.00	480.00	481.00	482.00	486.00	488.00	492.00	494.00	495.00	499.00	501.00	504.00	507.00	515.00	519.00	526.00	533.00	553.00	594.00	558.00	525.00	536.00	618.00	610.00	574.00	537.00	574.00	631.00	676.00	639.00	626.00	616.00	619.00	596.00	629.00	633.00	612.00	594.00	603.00	609.00	560.00	614.00	643.00	680.00	705.00	738.00	719.00	715.00	707.00	717.00	714.00	720.00	741.00	739.00	733.00	752.00	763.00	802.00	836.00	825.00	811.00	793.00	810.00	836.00	841.00	843.00	854.00	876.00	886.00	895.00	899.00	901.00	911.00	935.00	960.00	963.00	932.00	957.00	969.00	974.00	999.00	1013.00	1035.00	1062.00	1040.00	1038.00	1092.00	1098.00	1047.00	1041.00	1032.00	1020.00	999.00	991.00	996.00	988.00	1015.00	1049.00	1129.00	1122.00	1113.00	1113.00	1127.00	1174.00	1196.00	1204.00	1198.00	1218.00	1218.00	1057.00	952.00	1015.00	961.00	993.00	965.00	914.00	890.00
359.00	357.00	358.00	356.00	356.00	357.00	356.00	357.00	358.00	365.00	358.00	355.00	355.00	360.00	363.00	367.00	371.00	370.00	364.00	364.00	367.00	366.00	365.00	366.00	367.00	367.00	368.00	367.00	363.00	363.00	366.00	365.00	366.00	369.00	371.00	375.00	382.00	384.00	377.00	373.00	374.00	375.00	376.00	378.00	377.00	399.00	402.00	395.00	391.00	402.00	403.00	406.00	407.00	402.00	407.00	409.00	411.00	412.00	419.00	421.00	421.00	422.00	419.00	419.00	420.00	420.00	422.00	471.00	597.00	670.00	702.00	707.00	696.00	698.00	708.00	711.00	707.00	687.00	663.00	635.00	539.00	510.00	490.00	460.00	463.00	454.00	457.00	459.00	459.00	480.00	506.00	574.00	589.00	605.00	645.00	666.00	682.00	696.00	706.00	706.00	699.00	512.00	506.00	502.00	500.00	496.00	498.00	500.00	505.00	499.00	493.00	491.00	488.00	486.00	483.00	480.00	486.00	488.00	491.00	491.00	495.00	498.00	493.00	493.00	493.00	488.00	484.00	484.00	488.00	488.00	491.00	489.00	488.00	486.00	480.00	474.00	475.00	476.00	479.00	479.00	481.00	482.00	482.00	488.00	489.00	492.00	493.00	496.00	500.00	502.00	507.00	508.00	515.00	518.00	528.00	533.00	548.00	582.00	566.00	532.00	545.00	716.00	769.00	705.00	561.00	555.00	616.00	711.00	649.00	635.00	621.00	630.00	608.00	620.00	648.00	639.00	609.00	616.00	637.00	572.00	608.00	626.00	637.00	695.00	731.00	719.00	716.00	711.00	720.00	713.00	720.00	741.00	723.00	744.00	747.00	777.00	802.00	834.00	839.00	824.00	797.00	816.00	841.00	850.00	855.00	859.00	876.00	884.00	894.00	899.00	904.00	905.00	908.00	937.00	956.00	925.00	979.00	975.00	982.00	1000.00	1019.00	1067.00	1092.00	1035.00	1036.00	1090.00	1112.00	1071.00	1047.00	1034.00	1025.00	1007.00	1013.00	1013.00	1025.00	1019.00	1026.00	1137.00	1139.00	1123.00	1128.00	1143.00	1172.00	1188.00	1202.00	1214.00	1221.00	1222.00	1147.00	1070.00	1135.00	1075.00	1021.00	1146.00	1078.00	923.00
358.00	358.00	356.00	356.00	360.00	362.00	361.00	358.00	358.00	362.00	365.00	359.00	356.00	358.00	360.00	362.00	368.00	372.00	366.00	367.00	371.00	378.00	375.00	374.00	367.00	367.00	367.00	369.00	366.00	364.00	364.00	367.00	366.00	368.00	371.00	374.00	378.00	379.00	372.00	372.00	374.00	374.00	376.00	377.00	378.00	405.00	400.00	393.00	391.00	398.00	400.00	406.00	403.00	406.00	409.00	412.00	414.00	414.00	418.00	422.00	422.00	421.00	421.00	421.00	422.00	423.00	425.00	516.00	640.00	712.00	730.00	732.00	732.00	716.00	731.00	737.00	712.00	689.00	669.00	639.00	556.00	525.00	511.00	472.00	473.00	457.00	458.00	460.00	460.00	473.00	528.00	581.00	602.00	613.00	650.00	666.00	675.00	693.00	705.00	701.00	682.00	518.00	510.00	506.00	505.00	499.00	502.00	514.00	515.00	507.00	499.00	494.00	487.00	485.00	482.00	482.00	484.00	488.00	491.00	492.00	495.00	498.00	492.00	491.00	490.00	486.00	487.00	490.00	491.00	495.00	495.00	496.00	492.00	496.00	487.00	477.00	475.00	477.00	482.00	479.00	480.00	482.00	484.00	490.00	490.00	493.00	496.00	496.00	500.00	501.00	506.00	508.00	514.00	518.00	526.00	536.00	570.00	570.00	558.00	535.00	551.00	718.00	910.00	830.00	586.00	597.00	600.00	732.00	668.00	642.00	627.00	640.00	614.00	626.00	654.00	661.00	635.00	630.00	628.00	590.00	648.00	691.00	667.00	646.00	679.00	706.00	690.00	693.00	714.00	715.00	723.00	741.00	725.00	752.00	750.00	773.00	804.00	829.00	844.00	851.00	834.00	820.00	847.00	860.00	865.00	866.00	880.00	882.00	891.00	897.00	902.00	907.00	911.00	925.00	960.00	912.00	997.00	989.00	1021.00	1023.00	1027.00	1090.00	1104.00	1063.00	1055.00	1089.00	1107.00	1081.00	1049.00	1038.00	1031.00	1012.00	1014.00	1049.00	1063.00	1071.00	1033.00	1136.00	1156.00	1146.00	1156.00	1167.00	1201.00	1198.00	1207.00	1225.00	1204.00	1213.00	1224.00	1186.00	1212.00	1159.00	1138.00	1221.00	1222.00	1134.00
358.00	357.00	359.00	364.00	375.00	373.00	370.00	361.00	360.00	360.00	362.00	365.00	362.00	358.00	359.00	360.00	363.00	366.00	370.00	368.00	376.00	384.00	384.00	382.00	370.00	367.00	368.00	368.00	372.00	366.00	365.00	366.00	366.00	367.00	367.00	371.00	374.00	374.00	371.00	372.00	374.00	376.00	376.00	376.00	377.00	407.00	400.00	393.00	390.00	398.00	397.00	406.00	400.00	412.00	411.00	413.00	418.00	416.00	418.00	423.00	423.00	422.00	422.00	423.00	424.00	426.00	430.00	532.00	587.00	718.00	761.00	762.00	752.00	741.00	755.00	744.00	696.00	670.00	678.00	656.00	565.00	532.00	535.00	496.00	477.00	462.00	457.00	459.00	460.00	470.00	535.00	597.00	614.00	624.00	651.00	667.00	684.00	695.00	693.00	688.00	692.00	532.00	515.00	508.00	505.00	503.00	510.00	563.00	549.00	526.00	508.00	494.00	489.00	487.00	483.00	484.00	487.00	490.00	492.00	492.00	496.00	498.00	492.00	490.00	488.00	489.00	493.00	508.00	503.00	506.00	509.00	524.00	507.00	508.00	494.00	479.00	475.00	477.00	484.00	483.00	482.00	482.00	485.00	490.00	492.00	495.00	497.00	498.00	502.00	504.00	505.00	508.00	513.00	515.00	523.00	530.00	550.00	563.00	554.00	539.00	556.00	675.00	844.00	891.00	661.00	653.00	613.00	684.00	682.00	663.00	628.00	651.00	634.00	621.00	641.00	660.00	647.00	647.00	638.00	604.00	654.00	690.00	693.00	642.00	702.00	683.00	702.00	691.00	697.00	710.00	724.00	735.00	738.00	729.00	750.00	773.00	812.00	843.00	848.00	856.00	856.00	827.00	859.00	871.00	874.00	874.00	890.00	888.00	894.00	897.00	902.00	912.00	916.00	952.00	966.00	899.00	983.00	1028.00	1059.00	1086.00	1071.00	1083.00	1109.00	1070.00	1038.00	1076.00	1099.00	1106.00	1062.00	1049.00	1037.00	1026.00	1019.00	1052.00	1067.00	1092.00	1087.00	1070.00	1125.00	1164.00	1181.00	1199.00	1202.00	1205.00	1216.00	1230.00	1210.00	1217.00	1255.00	1209.00	1267.00	1232.00	1210.00	1248.00	1244.00	1232.00
366.00	366.00	366.00	367.00	370.00	374.00	377.00	381.00	371.00	363.00	361.00	362.00	365.00	367.00	362.00	361.00	362.00	363.00	376.00	372.00	372.00	384.00	386.00	385.00	383.00	379.00	373.00	371.00	374.00	372.00	367.00	366.00	367.00	367.00	372.00	374.00	373.00	371.00	372.00	380.00	396.00	396.00	392.00	381.00	377.00	403.00	402.00	396.00	388.00	397.00	407.00	412.00	417.00	411.00	414.00	413.00	419.00	420.00	421.00	423.00	424.00	423.00	425.00	426.00	428.00	430.00	433.00	457.00	477.00	583.00	676.00	786.00	719.00	719.00	692.00	677.00	668.00	676.00	718.00	682.00	569.00	550.00	558.00	570.00	573.00	514.00	473.00	462.00	462.00	464.00	468.00	589.00	639.00	650.00	672.00	678.00	680.00	680.00	687.00	669.00	639.00	535.00	525.00	515.00	512.00	508.00	523.00	767.00	638.00	565.00	539.00	500.00	491.00	488.00	486.00	485.00	491.00	493.00	496.00	496.00	498.00	500.00	492.00	491.00	491.00	495.00	496.00	500.00	506.00	536.00	520.00	512.00	507.00	508.00	502.00	478.00	476.00	478.00	481.00	493.00	488.00	486.00	485.00	490.00	492.00	493.00	496.00	498.00	501.00	503.00	505.00	506.00	512.00	517.00	520.00	526.00	537.00	579.00	551.00	547.00	554.00	719.00	881.00	869.00	714.00	735.00	786.00	763.00	749.00	707.00	660.00	671.00	689.00	679.00	679.00	655.00	647.00	645.00	642.00	648.00	658.00	692.00	699.00	691.00	660.00	720.00	715.00	735.00	714.00	718.00	699.00	691.00	696.00	738.00	778.00	781.00	818.00	862.00	868.00	870.00	865.00	864.00	870.00	875.00	879.00	885.00	900.00	900.00	905.00	911.00	909.00	933.00	964.00	1009.00	1026.00	911.00	1003.00	1044.00	1020.00	1064.00	1108.00	1099.00	1103.00	1105.00	1035.00	1093.00	1132.00	1098.00	1114.00	1068.00	1053.00	1040.00	1021.00	1047.00	1070.00	1081.00	1083.00	1066.00	1151.00	1147.00	1141.00	1182.00	1220.00	1210.00	1217.00	1222.00	1218.00	1221.00	1278.00	1230.00	1279.00	1287.00	1279.00	1265.00	1283.00	1275.00
364.00	366.00	368.00	370.00	369.00	371.00	373.00	383.00	383.00	368.00	364.00	362.00	363.00	369.00	370.00	366.00	363.00	364.00	375.00	375.00	373.00	384.00	385.00	386.00	387.00	383.00	375.00	371.00	376.00	377.00	369.00	367.00	367.00	367.00	372.00	375.00	374.00	371.00	382.00	387.00	396.00	403.00	400.00	390.00	378.00	394.00	404.00	397.00	389.00	401.00	411.00	415.00	416.00	421.00	418.00	414.00	417.00	418.00	421.00	424.00	424.00	423.00	425.00	427.00	430.00	432.00	434.00	449.00	455.00	475.00	529.00	669.00	662.00	668.00	671.00	665.00	696.00	727.00	733.00	718.00	586.00	572.00	588.00	611.00	598.00	548.00	528.00	483.00	469.00	467.00	473.00	553.00	651.00	666.00	679.00	678.00	676.00	678.00	680.00	591.00	594.00	532.00	526.00	522.00	519.00	511.00	518.00	598.00	554.00	518.00	507.00	500.00	490.00	489.00	487.00	486.00	491.00	493.00	496.00	498.00	499.00	499.00	493.00	492.00	493.00	499.00	502.00	535.00	644.00	709.00	511.00	507.00	509.00	497.00	508.00	482.00	478.00	479.00	484.00	492.00	490.00	487.00	487.00	488.00	491.00	491.00	493.00	496.00	498.00	500.00	504.00	506.00	510.00	514.00	533.00	539.00	593.00	564.00	548.00	550.00	558.00	682.00	880.00	914.00	809.00	817.00	848.00	845.00	787.00	756.00	701.00	702.00	705.00	699.00	700.00	666.00	659.00	651.00	646.00	664.00	674.00	679.00	694.00	702.00	683.00	736.00	732.00	738.00	723.00	749.00	727.00	712.00	708.00	735.00	808.00	809.00	824.00	862.00	867.00	871.00	873.00	878.00	871.00	883.00	889.00	890.00	903.00	905.00	901.00	906.00	910.00	947.00	1001.00	1030.00	1039.00	921.00	1004.00	1008.00	1012.00	1052.00	1082.00	1093.00	1097.00	1122.00	1054.00	1108.00	1141.00	1133.00	1107.00	1079.00	1069.00	1055.00	1026.00	1037.00	1061.00	1076.00	1107.00	1090.00	1101.00	1151.00	1142.00	1152.00	1231.00	1213.00	1214.00	1214.00	1232.00	1237.00	1257.00	1243.00	1262.00	1288.00	1288.00	1281.00	1299.00	1299.00
361.00	365.00	369.00	372.00	374.00	372.00	372.00	378.00	380.00	375.00	369.00	365.00	364.00	368.00	371.00	372.00	367.00	366.00	371.00	378.00	374.00	383.00	387.00	387.00	387.00	385.00	378.00	373.00	377.00	378.00	373.00	367.00	367.00	366.00	371.00	377.00	373.00	378.00	378.00	384.00	384.00	389.00	403.00	398.00	383.00	384.00	401.00	398.00	390.00	399.00	418.00	414.00	412.00	417.00	420.00	416.00	417.00	418.00	423.00	425.00	424.00	425.00	425.00	429.00	431.00	432.00	435.00	445.00	449.00	455.00	471.00	525.00	583.00	623.00	657.00	646.00	763.00	763.00	736.00	675.00	615.00	617.00	628.00	653.00	624.00	583.00	561.00	530.00	500.00	487.00	500.00	639.00	656.00	681.00	673.00	671.00	676.00	676.00	652.00	599.00	553.00	535.00	529.00	529.00	526.00	515.00	516.00	527.00	511.00	505.00	502.00	497.00	493.00	490.00	488.00	488.00	490.00	492.00	495.00	499.00	504.00	500.00	495.00	495.00	496.00	502.00	505.00	566.00	741.00	705.00	509.00	504.00	500.00	491.00	494.00	482.00	478.00	479.00	484.00	498.00	499.00	492.00	486.00	488.00	489.00	490.00	492.00	494.00	497.00	500.00	502.00	503.00	505.00	510.00	540.00	541.00	588.00	556.00	548.00	552.00	560.00	690.00	882.00	926.00	904.00	922.00	856.00	878.00	795.00	791.00	719.00	720.00	725.00	708.00	704.00	684.00	679.00	673.00	669.00	685.00	687.00	685.00	707.00	719.00	697.00	711.00	713.00	722.00	728.00	733.00	729.00	730.00	731.00	727.00	792.00	849.00	828.00	855.00	866.00	869.00	864.00	876.00	875.00	879.00	885.00	888.00	906.00	912.00	908.00	936.00	952.00	1011.00	1017.00	1017.00	1029.00	938.00	944.00	1011.00	1026.00	1050.00	1064.00	1066.00	1088.00	1139.00	1065.00	1106.00	1152.00	1158.00	1106.00	1091.00	1081.00	1057.00	1037.00	1038.00	1064.00	1073.00	1087.00	1096.00	1107.00	1095.00	1169.00	1193.00	1190.00	1193.00	1202.00	1209.00	1236.00	1264.00	1282.00	1262.00	1261.00	1295.00	1292.00	1294.00	1310.00	1328.00
359.00	363.00	368.00	373.00	377.00	378.00	374.00	374.00	377.00	386.00	378.00	370.00	368.00	367.00	368.00	371.00	372.00	369.00	369.00	377.00	378.00	380.00	388.00	389.00	388.00	386.00	379.00	373.00	378.00	380.00	377.00	368.00	368.00	368.00	372.00	379.00	381.00	383.00	395.00	398.00	396.00	388.00	395.00	401.00	389.00	380.00	396.00	399.00	391.00	399.00	418.00	418.00	417.00	418.00	423.00	420.00	418.00	420.00	423.00	425.00	425.00	426.00	426.00	429.00	432.00	433.00	435.00	443.00	450.00	451.00	461.00	472.00	511.00	568.00	596.00	584.00	710.00	724.00	694.00	612.00	622.00	623.00	635.00	679.00	650.00	571.00	557.00	535.00	516.00	497.00	537.00	689.00	674.00	668.00	667.00	671.00	681.00	690.00	683.00	613.00	545.00	534.00	530.00	520.00	518.00	522.00	535.00	523.00	532.00	507.00	503.00	501.00	493.00	492.00	489.00	489.00	491.00	492.00	496.00	498.00	502.00	501.00	496.00	497.00	499.00	505.00	514.00	560.00	577.00	558.00	580.00	518.00	499.00	491.00	497.00	484.00	478.00	479.00	483.00	494.00	505.00	499.00	487.00	488.00	487.00	489.00	491.00	493.00	496.00	498.00	499.00	502.00	504.00	507.00	553.00	540.00	606.00	550.00	547.00	553.00	560.00	757.00	922.00	930.00	924.00	933.00	823.00	827.00	825.00	841.00	735.00	744.00	731.00	713.00	706.00	697.00	696.00	697.00	701.00	697.00	699.00	699.00	720.00	748.00	713.00	705.00	710.00	721.00	745.00	736.00	740.00	744.00	747.00	743.00	807.00	836.00	831.00	843.00	855.00	866.00	857.00	865.00	887.00	885.00	882.00	886.00	922.00	949.00	922.00	956.00	998.00	1009.00	1017.00	1020.00	1022.00	1017.00	931.00	1009.00	1035.00	1049.00	1048.00	1045.00	1103.00	1161.00	1091.00	1094.00	1152.00	1157.00	1112.00	1099.00	1086.00	1062.00	1050.00	1044.00	1074.00	1082.00	1084.00	1102.00	1108.00	1110.00	1136.00	1211.00	1241.00	1200.00	1168.00	1179.00	1215.00	1241.00	1278.00	1254.00	1252.00	1293.00	1295.00	1290.00	1312.00	1333.00
357.00	358.00	361.00	363.00	370.00	374.00	377.00	378.00	380.00	381.00	381.00	380.00	379.00	374.00	371.00	369.00	372.00	375.00	371.00	372.00	379.00	376.00	381.00	385.00	385.00	381.00	378.00	378.00	380.00	381.00	379.00	369.00	372.00	374.00	376.00	378.00	393.00	395.00	402.00	401.00	408.00	402.00	391.00	397.00	401.00	380.00	383.00	401.00	398.00	398.00	413.00	420.00	414.00	415.00	425.00	425.00	423.00	422.00	422.00	426.00	426.00	426.00	427.00	431.00	431.00	432.00	436.00	440.00	443.00	453.00	457.00	462.00	477.00	474.00	470.00	470.00	469.00	519.00	566.00	547.00	581.00	599.00	619.00	698.00	710.00	552.00	548.00	540.00	534.00	552.00	566.00	678.00	692.00	704.00	684.00	683.00	699.00	741.00	639.00	552.00	536.00	530.00	526.00	522.00	527.00	559.00	615.00	552.00	570.00	565.00	509.00	507.00	495.00	493.00	490.00	492.00	496.00	494.00	495.00	498.00	502.00	506.00	501.00	509.00	503.00	513.00	518.00	523.00	614.00	638.00	584.00	516.00	499.00	491.00	485.00	483.00	482.00	482.00	485.00	492.00	498.00	502.00	490.00	491.00	490.00	491.00	492.00	493.00	499.00	498.00	501.00	504.00	508.00	512.00	543.00	546.00	562.00	545.00	547.00	554.00	586.00	782.00	905.00	927.00	925.00	922.00	858.00	822.00	852.00	894.00	781.00	752.00	752.00	745.00	734.00	728.00	724.00	729.00	737.00	748.00	743.00	725.00	748.00	751.00	729.00	730.00	729.00	730.00	748.00	750.00	754.00	752.00	759.00	772.00	778.00	798.00	813.00	837.00	841.00	846.00	845.00	856.00	891.00	890.00	889.00	897.00	920.00	946.00	994.00	1008.00	1003.00	1011.00	1014.00	1026.00	1059.00	1071.00	995.00	989.00	949.00	957.00	923.00	917.00	951.00	1097.00	1103.00	1082.00	1109.00	1140.00	1126.00	1110.00	1096.00	1083.00	1083.00	1093.00	1082.00	1125.00	1121.00	1120.00	1129.00	1137.00	1143.00	1139.00	1230.00	1267.00	1215.00	1121.00	1156.00	1138.00	1203.00	1255.00	1214.00	1259.00	1240.00	1297.00	1317.00	1302.00
358.00	359.00	359.00	361.00	369.00	375.00	376.00	372.00	374.00	382.00	385.00	384.00	382.00	377.00	374.00	370.00	370.00	372.00	373.00	373.00	376.00	376.00	378.00	379.00	379.00	378.00	378.00	381.00	384.00	384.00	382.00	370.00	370.00	372.00	376.00	383.00	398.00	410.00	411.00	408.00	414.00	408.00	396.00	395.00	405.00	382.00	382.00	401.00	400.00	398.00	412.00	417.00	411.00	411.00	419.00	423.00	424.00	422.00	422.00	425.00	426.00	428.00	429.00	431.00	432.00	432.00	436.00	441.00	443.00	448.00	457.00	461.00	466.00	466.00	465.00	467.00	463.00	536.00	545.00	534.00	596.00	601.00	608.00	636.00	685.00	565.00	541.00	535.00	536.00	572.00	597.00	723.00	710.00	709.00	700.00	693.00	710.00	745.00	572.00	546.00	535.00	529.00	525.00	525.00	531.00	568.00	691.00	599.00	546.00	554.00	508.00	504.00	498.00	494.00	491.00	494.00	498.00	496.00	495.00	497.00	500.00	509.00	503.00	512.00	506.00	511.00	517.00	530.00	595.00	557.00	611.00	511.00	505.00	490.00	497.00	492.00	481.00	482.00	488.00	491.00	498.00	502.00	495.00	492.00	492.00	492.00	494.00	494.00	502.00	501.00	501.00	504.00	512.00	521.00	550.00	566.00	586.00	543.00	545.00	580.00	648.00	925.00	936.00	915.00	829.00	876.00	853.00	826.00	865.00	882.00	812.00	769.00	760.00	755.00	752.00	750.00	753.00	741.00	741.00	765.00	763.00	740.00	744.00	767.00	748.00	741.00	738.00	743.00	757.00	763.00	769.00	765.00	774.00	782.00	787.00	821.00	809.00	833.00	837.00	840.00	841.00	847.00	870.00	882.00	893.00	910.00	922.00	977.00	1013.00	1018.00	1016.00	1022.00	1015.00	1024.00	1001.00	1023.00	1005.00	1014.00	1024.00	1029.00	963.00	989.00	920.00	993.00	1107.00	1093.00	1109.00	1126.00	1130.00	1121.00	1107.00	1095.00	1091.00	1100.00	1098.00	1120.00	1132.00	1127.00	1131.00	1141.00	1150.00	1174.00	1075.00	1218.00	1205.00	1086.00	1126.00	1088.00	1182.00	1241.00	1192.00	1150.00	1228.00	1277.00	1281.00	1243.00
358.00	359.00	360.00	361.00	365.00	369.00	370.00	375.00	375.00	377.00	378.00	383.00	386.00	380.00	379.00	374.00	371.00	372.00	377.00	375.00	374.00	377.00	376.00	379.00	380.00	380.00	382.00	384.00	386.00	384.00	380.00	371.00	371.00	374.00	379.00	392.00	411.00	411.00	409.00	414.00	414.00	414.00	403.00	394.00	404.00	383.00	382.00	400.00	402.00	398.00	411.00	416.00	410.00	408.00	415.00	418.00	423.00	423.00	420.00	425.00	426.00	428.00	429.00	430.00	432.00	433.00	435.00	439.00	442.00	445.00	454.00	460.00	461.00	471.00	460.00	464.00	460.00	537.00	519.00	524.00	605.00	618.00	626.00	633.00	649.00	622.00	546.00	541.00	541.00	580.00	601.00	740.00	736.00	712.00	714.00	739.00	755.00	760.00	565.00	542.00	532.00	525.00	521.00	522.00	542.00	632.00	628.00	592.00	530.00	525.00	509.00	504.00	498.00	494.00	492.00	494.00	499.00	499.00	498.00	498.00	500.00	506.00	509.00	520.00	510.00	511.00	514.00	528.00	536.00	529.00	593.00	535.00	506.00	489.00	498.00	497.00	482.00	483.00	488.00	491.00	495.00	499.00	496.00	492.00	494.00	496.00	496.00	496.00	502.00	504.00	502.00	505.00	515.00	530.00	564.00	578.00	609.00	541.00	542.00	584.00	685.00	964.00	962.00	955.00	728.00	695.00	814.00	812.00	869.00	879.00	813.00	779.00	765.00	758.00	754.00	772.00	783.00	778.00	763.00	775.00	782.00	766.00	752.00	744.00	784.00	765.00	752.00	756.00	763.00	770.00	784.00	784.00	785.00	813.00	805.00	847.00	828.00	830.00	840.00	844.00	847.00	846.00	868.00	881.00	893.00	909.00	951.00	1005.00	1019.00	1028.00	1031.00	1036.00	1010.00	999.00	998.00	979.00	989.00	1016.00	1020.00	1049.00	992.00	1060.00	959.00	930.00	1125.00	1111.00	1106.00	1119.00	1111.00	1128.00	1123.00	1109.00	1106.00	1107.00	1111.00	1106.00	1141.00	1131.00	1123.00	1136.00	1143.00	1089.00	988.00	1026.00	1102.00	1036.00	1032.00	1050.00	1162.00	1200.00	1160.00	1176.00	1268.00	1221.00	1194.00	1143.00
360.00	359.00	360.00	360.00	364.00	364.00	368.00	376.00	378.00	381.00	380.00	379.00	381.00	386.00	382.00	379.00	373.00	371.00	377.00	379.00	377.00	378.00	379.00	381.00	383.00	384.00	385.00	387.00	384.00	381.00	374.00	373.00	372.00	377.00	386.00	403.00	406.00	404.00	409.00	410.00	412.00	418.00	412.00	399.00	401.00	387.00	383.00	396.00	404.00	399.00	409.00	414.00	408.00	407.00	410.00	415.00	418.00	423.00	419.00	424.00	426.00	427.00	430.00	431.00	431.00	433.00	434.00	439.00	441.00	443.00	457.00	496.00	455.00	455.00	455.00	456.00	456.00	499.00	510.00	524.00	595.00	627.00	652.00	657.00	666.00	668.00	568.00	543.00	544.00	576.00	601.00	733.00	756.00	744.00	758.00	772.00	776.00	750.00	546.00	533.00	526.00	520.00	519.00	520.00	582.00	615.00	568.00	575.00	565.00	522.00	509.00	504.00	496.00	494.00	495.00	496.00	499.00	501.00	501.00	501.00	500.00	504.00	546.00	553.00	517.00	511.00	514.00	520.00	518.00	517.00	560.00	541.00	498.00	494.00	502.00	500.00	487.00	483.00	489.00	492.00	495.00	498.00	497.00	494.00	494.00	497.00	498.00	498.00	502.00	505.00	506.00	506.00	517.00	534.00	566.00	552.00	566.00	536.00	540.00	568.00	698.00	973.00	967.00	959.00	792.00	695.00	775.00	788.00	835.00	824.00	787.00	785.00	767.00	762.00	755.00	780.00	796.00	794.00	783.00	802.00	788.00	778.00	809.00	792.00	805.00	785.00	777.00	786.00	785.00	777.00	787.00	791.00	791.00	817.00	817.00	858.00	836.00	835.00	835.00	841.00	845.00	856.00	867.00	895.00	911.00	915.00	1012.00	1020.00	1025.00	1034.00	1042.00	1051.00	1036.00	1013.00	970.00	978.00	994.00	1012.00	1037.00	1059.00	1014.00	1086.00	1060.00	930.00	1109.00	1125.00	1115.00	1123.00	1106.00	1125.00	1130.00	1123.00	1119.00	1120.00	1121.00	1114.00	1135.00	1125.00	1051.00	1028.00	1050.00	1011.00	1062.00	988.00	987.00	996.00	1051.00	1083.00	1186.00	1098.00	1077.00	1176.00	1231.00	1166.00	1105.00	1086.00
367.00	366.00	361.00	361.00	362.00	363.00	368.00	372.00	375.00	381.00	382.00	382.00	382.00	383.00	385.00	382.00	379.00	374.00	379.00	382.00	381.00	380.00	378.00	377.00	378.00	377.00	377.00	375.00	374.00	375.00	374.00	374.00	380.00	386.00	404.00	410.00	396.00	396.00	400.00	401.00	419.00	420.00	426.00	414.00	402.00	395.00	384.00	391.00	405.00	401.00	409.00	409.00	403.00	404.00	407.00	408.00	411.00	415.00	417.00	423.00	424.00	426.00	428.00	430.00	433.00	434.00	434.00	435.00	436.00	436.00	451.00	444.00	447.00	447.00	448.00	449.00	453.00	456.00	465.00	475.00	573.00	610.00	646.00	668.00	702.00	739.00	609.00	557.00	553.00	563.00	590.00	769.00	810.00	821.00	791.00	786.00	763.00	604.00	529.00	524.00	520.00	515.00	514.00	511.00	514.00	517.00	524.00	550.00	540.00	514.00	507.00	504.00	502.00	498.00	496.00	501.00	501.00	500.00	501.00	505.00	508.00	507.00	521.00	613.00	556.00	516.00	514.00	511.00	512.00	509.00	504.00	502.00	501.00	499.00	498.00	500.00	488.00	486.00	488.00	492.00	495.00	499.00	500.00	498.00	496.00	497.00	499.00	500.00	504.00	508.00	510.00	508.00	514.00	528.00	549.00	530.00	534.00	534.00	542.00	588.00	701.00	987.00	981.00	937.00	746.00	664.00	729.00	763.00	780.00	793.00	744.00	754.00	763.00	763.00	771.00	790.00	813.00	818.00	826.00	828.00	838.00	818.00	826.00	832.00	847.00	831.00	818.00	811.00	840.00	845.00	818.00	802.00	834.00	827.00	820.00	838.00	839.00	844.00	852.00	858.00	852.00	853.00	897.00	909.00	917.00	932.00	1033.00	1039.00	1045.00	1055.00	1057.00	958.00	950.00	947.00	962.00	995.00	1006.00	1021.00	1015.00	1065.00	1029.00	1073.00	1111.00	1001.00	928.00	932.00	937.00	1135.00	1020.00	1018.00	1120.00	1142.00	1142.00	1134.00	1121.00	1117.00	1144.00	1125.00	999.00	967.00	967.00	972.00	1024.00	1115.00	1008.00	983.00	999.00	1052.00	1029.00	1029.00	1093.00	1199.00	1206.00	1174.00	1104.00	1070.00
368.00	369.00	369.00	362.00	361.00	362.00	366.00	375.00	374.00	379.00	381.00	383.00	383.00	383.00	384.00	383.00	381.00	375.00	379.00	382.00	382.00	383.00	378.00	377.00	376.00	374.00	375.00	375.00	375.00	376.00	375.00	379.00	383.00	393.00	411.00	397.00	393.00	394.00	396.00	400.00	422.00	420.00	427.00	420.00	405.00	396.00	384.00	393.00	407.00	403.00	411.00	405.00	402.00	406.00	410.00	409.00	407.00	413.00	420.00	424.00	425.00	427.00	429.00	429.00	432.00	433.00	433.00	433.00	435.00	437.00	441.00	457.00	444.00	446.00	447.00	451.00	455.00	456.00	465.00	469.00	571.00	605.00	639.00	676.00	706.00	739.00	678.00	594.00	566.00	576.00	630.00	792.00	803.00	812.00	784.00	782.00	663.00	557.00	525.00	521.00	518.00	514.00	513.00	511.00	510.00	512.00	513.00	519.00	516.00	509.00	507.00	503.00	501.00	500.00	498.00	500.00	505.00	502.00	500.00	502.00	505.00	511.00	513.00	582.00	556.00	515.00	512.00	512.00	509.00	506.00	502.00	506.00	506.00	499.00	495.00	498.00	490.00	486.00	491.00	497.00	496.00	500.00	500.00	497.00	497.00	498.00	499.00	500.00	505.00	507.00	508.00	511.00	514.00	519.00	530.00	524.00	527.00	535.00	544.00	602.00	737.00	978.00	968.00	905.00	720.00	639.00	664.00	743.00	789.00	788.00	737.00	741.00	746.00	763.00	775.00	831.00	805.00	820.00	848.00	849.00	848.00	836.00	827.00	836.00	863.00	847.00	853.00	838.00	867.00	893.00	887.00	881.00	843.00	831.00	823.00	831.00	836.00	851.00	860.00	868.00	869.00	871.00	894.00	921.00	923.00	929.00	1000.00	1027.00	1048.00	1060.00	1039.00	940.00	933.00	937.00	960.00	998.00	1021.00	1030.00	1003.00	1061.00	1060.00	1065.00	1122.00	1119.00	958.00	937.00	926.00	1094.00	1069.00	973.00	1004.00	1121.00	1142.00	1134.00	1115.00	1076.00	1001.00	970.00	963.00	964.00	970.00	974.00	1000.00	1148.00	1061.00	987.00	999.00	1068.00	1018.00	1042.00	1063.00	1216.00	1188.00	1120.00	1102.00	1067.00
365.00	371.00	371.00	367.00	362.00	363.00	365.00	372.00	373.00	378.00	382.00	383.00	384.00	383.00	382.00	383.00	380.00	377.00	381.00	382.00	382.00	382.00	381.00	378.00	377.00	376.00	375.00	375.00	376.00	376.00	377.00	381.00	385.00	402.00	401.00	391.00	392.00	392.00	395.00	396.00	413.00	421.00	423.00	427.00	410.00	398.00	385.00	393.00	408.00	405.00	412.00	402.00	401.00	403.00	404.00	405.00	406.00	412.00	423.00	419.00	421.00	423.00	427.00	428.00	430.00	430.00	431.00	434.00	435.00	437.00	439.00	473.00	447.00	448.00	452.00	455.00	458.00	459.00	464.00	477.00	564.00	591.00	625.00	663.00	685.00	731.00	738.00	700.00	611.00	597.00	699.00	773.00	774.00	788.00	776.00	713.00	619.00	579.00	525.00	522.00	521.00	515.00	513.00	511.00	508.00	509.00	508.00	510.00	511.00	508.00	504.00	503.00	506.00	505.00	501.00	500.00	506.00	505.00	503.00	507.00	507.00	513.00	514.00	566.00	603.00	516.00	510.00	509.00	508.00	506.00	508.00	519.00	508.00	497.00	496.00	506.00	496.00	487.00	489.00	498.00	501.00	501.00	500.00	497.00	498.00	499.00	499.00	499.00	503.00	505.00	507.00	510.00	512.00	519.00	522.00	522.00	526.00	537.00	561.00	612.00	788.00	1010.00	964.00	787.00	644.00	623.00	636.00	733.00	774.00	778.00	755.00	725.00	745.00	754.00	766.00	832.00	858.00	834.00	833.00	863.00	865.00	859.00	863.00	851.00	870.00	855.00	864.00	869.00	887.00	904.00	890.00	896.00	874.00	814.00	820.00	829.00	837.00	853.00	867.00	876.00	880.00	885.00	897.00	903.00	914.00	929.00	1001.00	1028.00	1053.00	1062.00	1033.00	935.00	931.00	938.00	949.00	993.00	1010.00	1033.00	1011.00	1031.00	1069.00	1066.00	1126.00	1148.00	1085.00	994.00	930.00	965.00	1034.00	981.00	955.00	1019.00	1099.00	1082.00	1026.00	981.00	954.00	1096.00	1028.00	1076.00	1013.00	983.00	995.00	1100.00	1125.00	1000.00	993.00	1026.00	1013.00	1037.00	1047.00	1195.00	1156.00	1117.00	1103.00	1068.00
365.00	371.00	371.00	368.00	363.00	364.00	363.00	370.00	371.00	378.00	382.00	383.00	384.00	384.00	383.00	383.00	381.00	379.00	382.00	384.00	386.00	384.00	382.00	381.00	378.00	376.00	375.00	375.00	377.00	379.00	380.00	382.00	394.00	406.00	392.00	390.00	390.00	391.00	393.00	395.00	404.00	418.00	417.00	428.00	416.00	399.00	385.00	394.00	407.00	407.00	412.00	400.00	400.00	401.00	402.00	404.00	406.00	409.00	421.00	426.00	424.00	424.00	423.00	427.00	427.00	428.00	431.00	433.00	436.00	437.00	437.00	460.00	459.00	456.00	457.00	461.00	466.00	469.00	468.00	479.00	551.00	585.00	621.00	649.00	676.00	726.00	726.00	734.00	660.00	608.00	637.00	747.00	748.00	770.00	770.00	758.00	769.00	733.00	533.00	523.00	521.00	515.00	516.00	510.00	509.00	506.00	504.00	506.00	508.00	506.00	506.00	505.00	508.00	506.00	503.00	505.00	507.00	507.00	504.00	507.00	510.00	514.00	516.00	586.00	611.00	518.00	512.00	509.00	506.00	505.00	511.00	528.00	506.00	498.00	500.00	498.00	490.00	488.00	488.00	496.00	498.00	503.00	505.00	498.00	499.00	500.00	500.00	501.00	503.00	505.00	507.00	510.00	513.00	516.00	523.00	524.00	527.00	540.00	589.00	630.00	773.00	991.00	955.00	839.00	693.00	655.00	651.00	736.00	743.00	738.00	740.00	707.00	749.00	768.00	776.00	818.00	861.00	878.00	861.00	885.00	871.00	876.00	882.00	878.00	875.00	837.00	853.00	868.00	864.00	865.00	848.00	837.00	841.00	823.00	823.00	827.00	845.00	863.00	870.00	885.00	884.00	891.00	909.00	926.00	926.00	931.00	1014.00	1023.00	1014.00	1017.00	972.00	930.00	928.00	940.00	959.00	956.00	971.00	1018.00	1030.00	1002.00	1067.00	1063.00	1120.00	1149.00	1150.00	1044.00	935.00	935.00	954.00	947.00	948.00	955.00	963.00	969.00	957.00	955.00	960.00	1177.00	1152.00	1102.00	1017.00	993.00	998.00	1046.00	1137.00	1054.00	993.00	1007.00	1013.00	1022.00	1037.00	1165.00	1159.00	1129.00	1088.00	1063.00
365.00	365.00	367.00	370.00	368.00	368.00	365.00	365.00	370.00	373.00	375.00	376.00	376.00	380.00	382.00	384.00	385.00	385.00	386.00	386.00	387.00	387.00	386.00	385.00	381.00	380.00	379.00	381.00	383.00	380.00	381.00	395.00	391.00	388.00	390.00	390.00	390.00	389.00	392.00	394.00	400.00	403.00	405.00	414.00	419.00	399.00	387.00	391.00	405.00	407.00	402.00	397.00	399.00	399.00	401.00	404.00	406.00	405.00	413.00	422.00	428.00	430.00	432.00	433.00	431.00	431.00	431.00	433.00	434.00	436.00	436.00	436.00	451.00	529.00	597.00	513.00	589.00	634.00	600.00	527.00	557.00	598.00	620.00	642.00	678.00	714.00	739.00	759.00	642.00	726.00	737.00	747.00	761.00	772.00	763.00	764.00	773.00	779.00	540.00	529.00	521.00	513.00	507.00	509.00	506.00	504.00	502.00	501.00	501.00	502.00	503.00	504.00	503.00	504.00	504.00	506.00	505.00	505.00	505.00	507.00	507.00	507.00	518.00	558.00	603.00	521.00	515.00	512.00	509.00	511.00	516.00	506.00	501.00	522.00	503.00	501.00	498.00	489.00	488.00	493.00	496.00	500.00	502.00	501.00	502.00	501.00	502.00	503.00	504.00	505.00	506.00	508.00	512.00	514.00	520.00	524.00	527.00	538.00	555.00	598.00	687.00	1014.00	946.00	762.00	662.00	655.00	605.00	691.00	703.00	702.00	672.00	699.00	739.00	757.00	787.00	830.00	860.00	888.00	907.00	919.00	913.00	925.00	912.00	901.00	875.00	824.00	831.00	833.00	852.00	863.00	873.00	859.00	849.00	837.00	850.00	842.00	835.00	891.00	913.00	905.00	914.00	917.00	931.00	939.00	953.00	973.00	966.00	961.00	954.00	950.00	946.00	924.00	929.00	950.00	967.00	991.00	998.00	990.00	1006.00	976.00	1000.00	1004.00	1017.00	1060.00	1070.00	1076.00	957.00	936.00	962.00	941.00	953.00	941.00	943.00	950.00	955.00	965.00	1019.00	1187.00	1196.00	1184.00	1181.00	1112.00	1085.00	1091.00	1154.00	1131.00	992.00	997.00	1006.00	1011.00	1023.00	1036.00	1047.00	1072.00	1113.00	1069.00
365.00	365.00	367.00	370.00	368.00	368.00	365.00	365.00	370.00	373.00	375.00	376.00	376.00	380.00	382.00	384.00	385.00	385.00	386.00	386.00	387.00	387.00	386.00	385.00	381.00	380.00	379.00	381.00	383.00	380.00	381.00	395.00	391.00	388.00	390.00	390.00	390.00	389.00	392.00	394.00	400.00	403.00	405.00	414.00	419.00	399.00	387.00	391.00	405.00	407.00	402.00	397.00	399.00	399.00	401.00	404.00	406.00	405.00	413.00	422.00	428.00	430.00	432.00	433.00	431.00	431.00	431.00	433.00	434.00	436.00	436.00	436.00	451.00	529.00	597.00	513.00	589.00	634.00	600.00	527.00	557.00	598.00	620.00	642.00	678.00	714.00	739.00	759.00	642.00	726.00	737.00	747.00	761.00	772.00	763.00	764.00	773.00	779.00	540.00	529.00	521.00	513.00	507.00	509.00	506.00	504.00	502.00	501.00	501.00	502.00	503.00	504.00	503.00	504.00	504.00	506.00	505.00	505.00	505.00	507.00	507.00	507.00	518.00	558.00	603.00	521.00	515.00	512.00	509.00	511.00	516.00	506.00	501.00	522.00	503.00	501.00	498.00	489.00	488.00	493.00	496.00	500.00	502.00	501.00	502.00	501.00	502.00	503.00	504.00	505.00	506.00	508.00	512.00	514.00	520.00	524.00	527.00	538.00	555.00	598.00	687.00	1014.00	946.00	762.00	662.00	655.00	605.00	691.00	703.00	702.00	672.00	699.00	739.00	757.00	787.00	830.00	860.00	888.00	907.00	919.00	913.00	925.00	912.00	901.00	875.00	824.00	831.00	833.00	852.00	863.00	873.00	859.00	849.00	837.00	850.00	842.00	835.00	891.00	913.00	905.00	914.00	917.00	931.00	939.00	953.00	973.00	966.00	961.00	954.00	950.00	946.00	924.00	929.00	950.00	967.00	991.00	998.00	990.00	1006.00	976.00	1000.00	1004.00	1017.00	1060.00	1070.00	1076.00	957.00	936.00	962.00	941.00	953.00	941.00	943.00	950.00	955.00	965.00	1019.00	1187.00	1196.00	1184.00	1181.00	1112.00	1085.00	1091.00	1154.00	1131.00	992.00	997.00	1006.00	1011.00	1023.00	1036.00	1047.00	1072.00	1113.00	1069.00
367.00	365.00	368.00	371.00	370.00	369.00	368.00	365.00	366.00	373.00	375.00	375.00	375.00	378.00	382.00	384.00	383.00	384.00	386.00	385.00	385.00	387.00	388.00	386.00	383.00	384.00	385.00	386.00	382.00	382.00	388.00	388.00	389.00	389.00	390.00	392.00	391.00	391.00	392.00	393.00	400.00	402.00	406.00	419.00	419.00	399.00	387.00	389.00	402.00	407.00	398.00	396.00	397.00	398.00	400.00	401.00	402.00	403.00	409.00	416.00	420.00	431.00	435.00	437.00	437.00	435.00	435.00	431.00	432.00	434.00	436.00	436.00	453.00	477.00	552.00	514.00	682.00	735.00	747.00	652.00	568.00	619.00	631.00	660.00	691.00	723.00	748.00	739.00	631.00	734.00	739.00	748.00	765.00	773.00	764.00	766.00	774.00	758.00	536.00	526.00	521.00	513.00	511.00	505.00	506.00	506.00	503.00	498.00	500.00	500.00	501.00	502.00	504.00	500.00	501.00	502.00	502.00	502.00	502.00	505.00	503.00	506.00	513.00	575.00	619.00	520.00	513.00	511.00	512.00	515.00	514.00	503.00	511.00	513.00	506.00	512.00	505.00	492.00	490.00	493.00	497.00	500.00	504.00	509.00	503.00	503.00	504.00	506.00	504.00	506.00	506.00	508.00	516.00	513.00	520.00	524.00	528.00	539.00	550.00	578.00	644.00	927.00	983.00	847.00	627.00	608.00	596.00	681.00	702.00	736.00	664.00	701.00	721.00	755.00	780.00	840.00	846.00	860.00	904.00	926.00	930.00	928.00	921.00	914.00	867.00	835.00	839.00	858.00	874.00	876.00	901.00	916.00	917.00	900.00	837.00	852.00	845.00	855.00	890.00	903.00	917.00	925.00	936.00	941.00	949.00	962.00	974.00	961.00	956.00	948.00	941.00	931.00	936.00	959.00	963.00	973.00	972.00	1016.00	1008.00	971.00	979.00	986.00	1001.00	1046.00	1020.00	1053.00	984.00	936.00	977.00	947.00	985.00	949.00	950.00	955.00	960.00	968.00	975.00	1101.00	1155.00	1194.00	1195.00	1165.00	1123.00	1120.00	1149.00	1117.00	992.00	995.00	1016.00	1011.00	1013.00	1038.00	1045.00	1077.00	1094.00	1072.00
375.00	367.00	367.00	369.00	370.00	370.00	370.00	367.00	367.00	369.00	372.00	371.00	372.00	375.00	377.00	380.00	382.00	383.00	387.00	388.00	388.00	388.00	389.00	387.00	388.00	388.00	388.00	388.00	383.00	386.00	387.00	389.00	391.00	393.00	393.00	392.00	394.00	393.00	395.00	394.00	399.00	401.00	404.00	417.00	419.00	399.00	390.00	388.00	394.00	402.00	395.00	395.00	396.00	398.00	397.00	398.00	400.00	402.00	405.00	409.00	413.00	418.00	426.00	435.00	434.00	431.00	432.00	434.00	432.00	432.00	436.00	435.00	457.00	463.00	491.00	520.00	664.00	683.00	730.00	751.00	611.00	612.00	626.00	657.00	702.00	707.00	627.00	622.00	727.00	717.00	743.00	757.00	776.00	772.00	768.00	768.00	773.00	659.00	537.00	524.00	519.00	510.00	508.00	504.00	503.00	503.00	502.00	496.00	498.00	498.00	500.00	499.00	501.00	498.00	499.00	499.00	500.00	498.00	502.00	505.00	501.00	505.00	510.00	525.00	563.00	518.00	514.00	513.00	515.00	514.00	508.00	505.00	512.00	511.00	505.00	509.00	500.00	491.00	490.00	496.00	496.00	500.00	504.00	511.00	504.00	506.00	506.00	508.00	506.00	507.00	507.00	510.00	518.00	516.00	521.00	525.00	528.00	540.00	547.00	563.00	598.00	791.00	931.00	808.00	679.00	607.00	591.00	681.00	686.00	692.00	706.00	712.00	727.00	745.00	765.00	832.00	865.00	859.00	874.00	939.00	940.00	937.00	931.00	918.00	868.00	826.00	840.00	868.00	869.00	890.00	909.00	953.00	973.00	944.00	870.00	842.00	869.00	867.00	879.00	902.00	908.00	918.00	944.00	952.00	958.00	979.00	969.00	961.00	950.00	931.00	926.00	941.00	936.00	968.00	963.00	970.00	945.00	1029.00	1010.00	969.00	975.00	981.00	984.00	1009.00	1000.00	1057.00	976.00	937.00	995.00	956.00	1007.00	975.00	1006.00	958.00	967.00	998.00	981.00	1027.00	1080.00	1160.00	1221.00	1202.00	1152.00	1130.00	1157.00	1110.00	1001.00	995.00	1017.00	1019.00	1027.00	1038.00	1049.00	1081.00	1068.00	1062.00
379.00	372.00	367.00	367.00	369.00	370.00	374.00	371.00	373.00	368.00	369.00	369.00	369.00	374.00	375.00	379.00	381.00	382.00	385.00	386.00	386.00	386.00	388.00	389.00	389.00	390.00	390.00	388.00	392.00	389.00	391.00	394.00	394.00	395.00	396.00	396.00	397.00	397.00	397.00	397.00	397.00	399.00	400.00	409.00	418.00	401.00	392.00	390.00	391.00	397.00	393.00	394.00	394.00	394.00	395.00	397.00	397.00	397.00	400.00	403.00	404.00	406.00	409.00	412.00	413.00	415.00	417.00	436.00	431.00	430.00	434.00	437.00	494.00	461.00	461.00	489.00	585.00	639.00	671.00	714.00	611.00	647.00	648.00	675.00	657.00	528.00	551.00	675.00	784.00	762.00	766.00	773.00	772.00	772.00	776.00	772.00	643.00	554.00	525.00	517.00	512.00	508.00	508.00	504.00	500.00	498.00	499.00	497.00	495.00	493.00	496.00	500.00	501.00	500.00	494.00	493.00	495.00	496.00	497.00	497.00	499.00	504.00	511.00	513.00	542.00	517.00	515.00	514.00	512.00	510.00	509.00	515.00	512.00	505.00	508.00	513.00	499.00	493.00	495.00	496.00	499.00	501.00	504.00	506.00	508.00	513.00	508.00	507.00	509.00	508.00	509.00	511.00	513.00	520.00	521.00	525.00	528.00	539.00	546.00	560.00	606.00	863.00	874.00	729.00	593.00	599.00	580.00	612.00	637.00	674.00	725.00	726.00	738.00	762.00	767.00	797.00	808.00	832.00	868.00	852.00	897.00	913.00	895.00	863.00	819.00	829.00	853.00	884.00	909.00	935.00	935.00	980.00	998.00	903.00	834.00	869.00	859.00	856.00	875.00	889.00	893.00	907.00	945.00	954.00	977.00	999.00	983.00	974.00	954.00	925.00	915.00	917.00	930.00	925.00	937.00	939.00	935.00	942.00	957.00	985.00	985.00	971.00	971.00	972.00	965.00	959.00	959.00	943.00	962.00	968.00	1031.00	1036.00	1029.00	976.00	987.00	1070.00	1157.00	1174.00	1145.00	1159.00	1171.00	1204.00	1138.00	1101.00	1083.00	1066.00	1040.00	1000.00	1006.00	1024.00	1033.00	1042.00	1090.00	1064.00	1057.00	1050.00
377.00	377.00	369.00	368.00	368.00	370.00	374.00	372.00	375.00	372.00	369.00	369.00	370.00	374.00	375.00	377.00	378.00	382.00	383.00	383.00	384.00	386.00	388.00	389.00	388.00	388.00	389.00	390.00	394.00	388.00	392.00	394.00	394.00	396.00	397.00	397.00	397.00	398.00	396.00	396.00	397.00	398.00	399.00	404.00	413.00	401.00	394.00	393.00	391.00	394.00	393.00	394.00	395.00	396.00	397.00	400.00	398.00	398.00	399.00	400.00	402.00	404.00	405.00	408.00	410.00	411.00	415.00	437.00	432.00	431.00	434.00	439.00	487.00	487.00	457.00	459.00	501.00	570.00	625.00	675.00	610.00	646.00	652.00	670.00	659.00	521.00	548.00	711.00	790.00	762.00	762.00	773.00	773.00	772.00	775.00	754.00	579.00	535.00	521.00	515.00	508.00	509.00	508.00	502.00	501.00	498.00	498.00	494.00	493.00	492.00	505.00	507.00	505.00	500.00	494.00	491.00	493.00	494.00	495.00	499.00	502.00	505.00	513.00	511.00	519.00	516.00	514.00	514.00	512.00	509.00	513.00	516.00	510.00	503.00	504.00	500.00	493.00	489.00	495.00	498.00	500.00	504.00	505.00	507.00	508.00	510.00	514.00	509.00	508.00	509.00	510.00	512.00	513.00	517.00	520.00	523.00	527.00	535.00	544.00	564.00	614.00	880.00	826.00	752.00	581.00	574.00	577.00	571.00	617.00	707.00	732.00	734.00	747.00	758.00	766.00	747.00	796.00	823.00	829.00	883.00	817.00	838.00	866.00	852.00	822.00	842.00	864.00	895.00	913.00	943.00	970.00	1016.00	1004.00	897.00	862.00	847.00	856.00	847.00	883.00	869.00	875.00	895.00	945.00	966.00	992.00	998.00	984.00	976.00	948.00	912.00	916.00	930.00	942.00	929.00	926.00	926.00	929.00	937.00	948.00	980.00	978.00	966.00	973.00	975.00	964.00	979.00	974.00	944.00	948.00	962.00	981.00	1034.00	1059.00	986.00	991.00	1037.00	1163.00	1192.00	1154.00	1166.00	1177.00	1204.00	1067.00	1054.00	1045.00	1034.00	1016.00	1004.00	1001.00	1009.00	1012.00	1020.00	1070.00	1098.00	1053.00	1043.00
