732.00	757.00	681.00	649.00	638.00	652.00	673.00	708.00	706.00	708.00	690.00	637.00	606.00	606.00	618.00	614.00	616.00	622.00	626.00	629.00	643.00	656.00	676.00	697.00	691.00	710.00	757.00	774.00	749.00	764.00	767.00	756.00	743.00	710.00	684.00	661.00	668.00	686.00	726.00	756.00	784.00	801.00	777.00	751.00	678.00	687.00	711.00	782.00	833.00	867.00	833.00	744.00	739.00	746.00	715.00	660.00	705.00	727.00	747.00	769.00	827.00	862.00	871.00	850.00	830.00	770.00	810.00	822.00	842.00	934.00	987.00	1039.00	1069.00	1093.00	1125.00	1146.00	1176.00	1190.00	1200.00	1202.00	1167.00	1127.00	1126.00	1065.00	1044.00	1087.00	1089.00	1084.00	1119.00	1112.00	1068.00	1009.00	943.00	926.00	913.00	930.00	925.00	958.00	1006.00	1055.00	1070.00	1059.00	1036.00	983.00	930.00	970.00	974.00	971.00	922.00	891.00	984.00	981.00	926.00	864.00	772.00	799.00	867.00	917.00	826.00	750.00	792.00	796.00	829.00	952.00	962.00	950.00	965.00	937.00	830.00	835.00	848.00	829.00	788.00	790.00	738.00	726.00	725.00	692.00	637.00	625.00	617.00	589.00	580.00	576.00	569.00	563.00	563.00	563.00	561.00	548.00	551.00	553.00	550.00	553.00	532.00	525.00	521.00	519.00	514.00	511.00	511.00	509.00	502.00	497.00	511.00	534.00	573.00	620.00	656.00	659.00	723.00	780.00	750.00	755.00	737.00	685.00	639.00	643.00	689.00	722.00	739.00	747.00	710.00	674.00	658.00	633.00	602.00	629.00	635.00	604.00	516.00	531.00	555.00	569.00	580.00	656.00	713.00	751.00	729.00	782.00	780.00	832.00	837.00	830.00	811.00	799.00	804.00	843.00	852.00	826.00	780.00	738.00	807.00	702.00	704.00	740.00	708.00	714.00	768.00	783.00	789.00	812.00	732.00	706.00	694.00	697.00	759.00	755.00	723.00	698.00	693.00	671.00	661.00	733.00	757.00	729.00	698.00	658.00	642.00	651.00	626.00	649.00	675.00	704.00	770.00	758.00	724.00	689.00	649.00	658.00	683.00	720.00	764.00	687.00	658.00	663.00
732.00	757.00	681.00	649.00	638.00	652.00	673.00	708.00	706.00	708.00	690.00	637.00	606.00	606.00	618.00	614.00	616.00	622.00	626.00	629.00	643.00	656.00	676.00	697.00	691.00	710.00	757.00	774.00	749.00	764.00	767.00	756.00	743.00	710.00	684.00	661.00	668.00	686.00	726.00	756.00	784.00	801.00	777.00	751.00	678.00	687.00	711.00	782.00	833.00	867.00	833.00	744.00	739.00	746.00	715.00	660.00	705.00	727.00	747.00	769.00	827.00	862.00	871.00	850.00	830.00	770.00	810.00	822.00	842.00	934.00	987.00	1039.00	1069.00	1093.00	1125.00	1146.00	1176.00	1190.00	1200.00	1202.00	1167.00	1127.00	1126.00	1065.00	1044.00	1087.00	1089.00	1084.00	1119.00	1112.00	1068.00	1009.00	943.00	926.00	913.00	930.00	925.00	958.00	1006.00	1055.00	1070.00	1059.00	1036.00	983.00	930.00	970.00	974.00	971.00	922.00	891.00	984.00	981.00	926.00	864.00	772.00	799.00	867.00	917.00	826.00	750.00	792.00	796.00	829.00	952.00	962.00	950.00	965.00	937.00	830.00	835.00	848.00	829.00	788.00	790.00	738.00	726.00	725.00	692.00	637.00	625.00	617.00	589.00	580.00	576.00	569.00	563.00	563.00	563.00	561.00	548.00	551.00	553.00	550.00	553.00	532.00	525.00	521.00	519.00	514.00	511.00	511.00	509.00	502.00	497.00	511.00	534.00	573.00	620.00	656.00	659.00	723.00	780.00	750.00	755.00	737.00	685.00	639.00	643.00	689.00	722.00	739.00	747.00	710.00	674.00	658.00	633.00	602.00	629.00	635.00	604.00	516.00	531.00	555.00	569.00	580.00	656.00	713.00	751.00	729.00	782.00	780.00	832.00	837.00	830.00	811.00	799.00	804.00	843.00	852.00	826.00	780.00	738.00	807.00	702.00	704.00	740.00	708.00	714.00	768.00	783.00	789.00	812.00	732.00	706.00	694.00	697.00	759.00	755.00	723.00	698.00	693.00	671.00	661.00	733.00	757.00	729.00	698.00	658.00	642.00	651.00	626.00	649.00	675.00	704.00	770.00	758.00	724.00	689.00	649.00	658.00	683.00	720.00	764.00	687.00	658.00	663.00
782.00	772.00	703.00	669.00	661.00	676.00	693.00	716.00	705.00	691.00	678.00	656.00	621.00	618.00	626.00	693.00	710.00	710.00	713.00	692.00	638.00	636.00	643.00	645.00	669.00	690.00	705.00	706.00	694.00	747.00	786.00	824.00	801.00	705.00	699.00	684.00	690.00	712.00	748.00	767.00	805.00	821.00	769.00	741.00	706.00	706.00	722.00	779.00	826.00	873.00	904.00	860.00	833.00	806.00	767.00	679.00	681.00	699.00	718.00	740.00	798.00	854.00	919.00	959.00	947.00	842.00	927.00	972.00	948.00	860.00	922.00	1001.00	1097.00	1147.00	1041.00	1046.00	1062.00	1096.00	1207.00	1274.00	1311.00	1292.00	1260.00	1101.00	1135.00	1205.00	1253.00	1207.00	1166.00	1106.00	1037.00	1002.00	995.00	968.00	1008.00	1083.00	1017.00	1045.00	1043.00	1037.00	1062.00	1100.00	1090.00	1062.00	1028.00	996.00	941.00	861.00	850.00	833.00	872.00	949.00	969.00	932.00	818.00	757.00	738.00	771.00	798.00	728.00	692.00	720.00	761.00	821.00	808.00	803.00	823.00	803.00	863.00	873.00	842.00	816.00	866.00	854.00	816.00	818.00	835.00	804.00	715.00	673.00	662.00	640.00	619.00	602.00	587.00	583.00	583.00	577.00	576.00	563.00	583.00	582.00	575.00	570.00	549.00	544.00	550.00	551.00	546.00	536.00	522.00	504.00	495.00	496.00	510.00	567.00	644.00	712.00	693.00	697.00	787.00	811.00	727.00	694.00	677.00	661.00	612.00	629.00	669.00	707.00	744.00	809.00	772.00	737.00	703.00	668.00	583.00	576.00	573.00	555.00	508.00	524.00	548.00	573.00	605.00	687.00	722.00	753.00	788.00	817.00	811.00	857.00	862.00	816.00	734.00	755.00	812.00	864.00	830.00	787.00	749.00	704.00	760.00	729.00	680.00	636.00	679.00	712.00	718.00	743.00	772.00	788.00	734.00	725.00	727.00	701.00	704.00	718.00	725.00	729.00	734.00	701.00	689.00	763.00	785.00	722.00	685.00	684.00	723.00	748.00	683.00	643.00	662.00	693.00	798.00	810.00	778.00	731.00	683.00	719.00	754.00	791.00	823.00	748.00	746.00	750.00
759.00	752.00	683.00	680.00	691.00	708.00	730.00	767.00	754.00	743.00	738.00	711.00	646.00	640.00	649.00	706.00	722.00	743.00	766.00	753.00	708.00	718.00	700.00	681.00	683.00	667.00	679.00	685.00	698.00	769.00	805.00	839.00	821.00	767.00	752.00	717.00	719.00	759.00	786.00	812.00	867.00	899.00	801.00	818.00	780.00	823.00	825.00	779.00	839.00	900.00	954.00	897.00	818.00	769.00	755.00	717.00	684.00	700.00	716.00	741.00	798.00	844.00	904.00	984.00	996.00	844.00	918.00	1001.00	1048.00	967.00	1001.00	1052.00	1142.00	1171.00	1039.00	982.00	1057.00	1146.00	1268.00	1279.00	1336.00	1374.00	1357.00	1220.00	1221.00	1283.00	1297.00	1149.00	1092.00	1040.00	1057.00	1131.00	1118.00	1044.00	1039.00	1107.00	1036.00	1051.00	1096.00	1119.00	1124.00	1049.00	1024.00	1054.00	1074.00	1030.00	1007.00	948.00	898.00	841.00	781.00	807.00	827.00	818.00	756.00	734.00	721.00	727.00	722.00	731.00	727.00	706.00	685.00	664.00	677.00	686.00	694.00	705.00	817.00	857.00	824.00	755.00	771.00	823.00	869.00	878.00	861.00	832.00	794.00	791.00	785.00	690.00	652.00	640.00	632.00	625.00	607.00	602.00	611.00	629.00	601.00	606.00	611.00	612.00	613.00	608.00	615.00	629.00	635.00	659.00	631.00	584.00	537.00	500.00	498.00	531.00	572.00	596.00	667.00	721.00	823.00	836.00	742.00	719.00	676.00	633.00	593.00	608.00	660.00	708.00	741.00	782.00	741.00	715.00	689.00	668.00	653.00	635.00	595.00	556.00	508.00	523.00	558.00	612.00	676.00	742.00	713.00	704.00	737.00	712.00	700.00	727.00	714.00	691.00	750.00	815.00	835.00	783.00	807.00	796.00	769.00	743.00	686.00	650.00	628.00	652.00	687.00	746.00	742.00	756.00	765.00	735.00	779.00	758.00	766.00	740.00	641.00	666.00	674.00	686.00	696.00	701.00	726.00	766.00	775.00	727.00	726.00	756.00	773.00	757.00	699.00	668.00	673.00	709.00	781.00	806.00	806.00	787.00	774.00	750.00	819.00	880.00	881.00	793.00	763.00	742.00
759.00	752.00	683.00	680.00	691.00	708.00	730.00	767.00	754.00	743.00	738.00	711.00	646.00	640.00	649.00	706.00	722.00	743.00	766.00	753.00	708.00	718.00	700.00	681.00	683.00	667.00	679.00	685.00	698.00	769.00	805.00	839.00	821.00	767.00	752.00	717.00	719.00	759.00	786.00	812.00	867.00	899.00	801.00	818.00	780.00	823.00	825.00	779.00	839.00	900.00	954.00	897.00	818.00	769.00	755.00	717.00	684.00	700.00	716.00	741.00	798.00	844.00	904.00	984.00	996.00	844.00	918.00	1001.00	1048.00	967.00	1001.00	1052.00	1142.00	1171.00	1039.00	982.00	1057.00	1146.00	1268.00	1279.00	1336.00	1374.00	1357.00	1220.00	1221.00	1283.00	1297.00	1149.00	1092.00	1040.00	1057.00	1131.00	1118.00	1044.00	1039.00	1107.00	1036.00	1051.00	1096.00	1119.00	1124.00	1049.00	1024.00	1054.00	1074.00	1030.00	1007.00	948.00	898.00	841.00	781.00	807.00	827.00	818.00	756.00	734.00	721.00	727.00	722.00	731.00	727.00	706.00	685.00	664.00	677.00	686.00	694.00	705.00	817.00	857.00	824.00	755.00	771.00	823.00	869.00	878.00	861.00	832.00	794.00	791.00	785.00	690.00	652.00	640.00	632.00	625.00	607.00	602.00	611.00	629.00	601.00	606.00	611.00	612.00	613.00	608.00	615.00	629.00	635.00	659.00	631.00	584.00	537.00	500.00	498.00	531.00	572.00	596.00	667.00	721.00	823.00	836.00	742.00	719.00	676.00	633.00	593.00	608.00	660.00	708.00	741.00	782.00	741.00	715.00	689.00	668.00	653.00	635.00	595.00	556.00	508.00	523.00	558.00	612.00	676.00	742.00	713.00	704.00	737.00	712.00	700.00	727.00	714.00	691.00	750.00	815.00	835.00	783.00	807.00	796.00	769.00	743.00	686.00	650.00	628.00	652.00	687.00	746.00	742.00	756.00	765.00	735.00	779.00	758.00	766.00	740.00	641.00	666.00	674.00	686.00	696.00	701.00	726.00	766.00	775.00	727.00	726.00	756.00	773.00	757.00	699.00	668.00	673.00	709.00	781.00	806.00	806.00	787.00	774.00	750.00	819.00	880.00	881.00	793.00	763.00	742.00
759.00	752.00	683.00	680.00	691.00	708.00	730.00	767.00	754.00	743.00	738.00	711.00	646.00	640.00	649.00	706.00	722.00	743.00	766.00	753.00	708.00	718.00	700.00	681.00	683.00	667.00	679.00	685.00	698.00	769.00	805.00	839.00	821.00	767.00	752.00	717.00	719.00	759.00	786.00	812.00	867.00	899.00	801.00	818.00	780.00	823.00	825.00	779.00	839.00	900.00	954.00	897.00	818.00	769.00	755.00	717.00	684.00	700.00	716.00	741.00	798.00	844.00	904.00	984.00	996.00	844.00	918.00	1001.00	1048.00	967.00	1001.00	1052.00	1142.00	1171.00	1039.00	982.00	1057.00	1146.00	1268.00	1279.00	1336.00	1374.00	1357.00	1220.00	1221.00	1283.00	1297.00	1149.00	1092.00	1040.00	1057.00	1131.00	1118.00	1044.00	1039.00	1107.00	1036.00	1051.00	1096.00	1119.00	1124.00	1049.00	1024.00	1054.00	1074.00	1030.00	1007.00	948.00	898.00	841.00	781.00	807.00	827.00	818.00	756.00	734.00	721.00	727.00	722.00	731.00	727.00	706.00	685.00	664.00	677.00	686.00	694.00	705.00	817.00	857.00	824.00	755.00	771.00	823.00	869.00	878.00	861.00	832.00	794.00	791.00	785.00	690.00	652.00	640.00	632.00	625.00	607.00	602.00	611.00	629.00	601.00	606.00	611.00	612.00	613.00	608.00	615.00	629.00	635.00	659.00	631.00	584.00	537.00	500.00	498.00	531.00	572.00	596.00	667.00	721.00	823.00	836.00	742.00	719.00	676.00	633.00	593.00	608.00	660.00	708.00	741.00	782.00	741.00	715.00	689.00	668.00	653.00	635.00	595.00	556.00	508.00	523.00	558.00	612.00	676.00	742.00	713.00	704.00	737.00	712.00	700.00	727.00	714.00	691.00	750.00	815.00	835.00	783.00	807.00	796.00	769.00	743.00	686.00	650.00	628.00	652.00	687.00	746.00	742.00	756.00	765.00	735.00	779.00	758.00	766.00	740.00	641.00	666.00	674.00	686.00	696.00	701.00	726.00	766.00	775.00	727.00	726.00	756.00	773.00	757.00	699.00	668.00	673.00	709.00	781.00	806.00	806.00	787.00	774.00	750.00	819.00	880.00	881.00	793.00	763.00	742.00
741.00	712.00	730.00	742.00	757.00	759.00	759.00	768.00	739.00	705.00	682.00	661.00	641.00	646.00	657.00	680.00	692.00	716.00	736.00	758.00	784.00	784.00	752.00	741.00	746.00	716.00	739.00	752.00	724.00	761.00	789.00	790.00	800.00	822.00	836.00	798.00	755.00	762.00	869.00	941.00	988.00	967.00	870.00	898.00	808.00	876.00	928.00	830.00	848.00	915.00	998.00	927.00	870.00	856.00	880.00	766.00	701.00	717.00	746.00	772.00	819.00	838.00	889.00	966.00	1012.00	902.00	968.00	1029.00	1072.00	1077.00	1061.00	1056.00	1089.00	1135.00	1063.00	927.00	992.00	1049.00	1061.00	1120.00	1225.00	1289.00	1287.00	1309.00	1351.00	1418.00	1345.00	1192.00	1156.00	1173.00	1182.00	1240.00	1183.00	1159.00	1166.00	1165.00	937.00	916.00	960.00	1033.00	1071.00	957.00	885.00	895.00	988.00	965.00	949.00	1041.00	987.00	924.00	791.00	812.00	848.00	815.00	843.00	856.00	865.00	896.00	917.00	955.00	935.00	903.00	860.00	729.00	666.00	632.00	639.00	684.00	785.00	796.00	765.00	717.00	705.00	771.00	854.00	915.00	902.00	865.00	843.00	843.00	830.00	734.00	687.00	657.00	639.00	625.00	662.00	726.00	787.00	698.00	649.00	709.00	741.00	748.00	750.00	742.00	728.00	749.00	731.00	706.00	671.00	619.00	573.00	509.00	497.00	503.00	535.00	588.00	675.00	682.00	770.00	798.00	700.00	687.00	652.00	613.00	583.00	661.00	715.00	774.00	830.00	837.00	815.00	780.00	733.00	687.00	619.00	590.00	574.00	548.00	511.00	533.00	579.00	640.00	683.00	681.00	651.00	626.00	658.00	653.00	638.00	663.00	722.00	772.00	787.00	821.00	810.00	764.00	688.00	687.00	701.00	713.00	685.00	611.00	611.00	642.00	667.00	704.00	718.00	745.00	737.00	706.00	706.00	693.00	678.00	656.00	673.00	717.00	747.00	739.00	739.00	692.00	699.00	713.00	719.00	781.00	803.00	787.00	780.00	757.00	722.00	755.00	745.00	710.00	754.00	789.00	818.00	833.00	837.00	808.00	827.00	840.00	826.00	744.00	722.00	704.00
764.00	752.00	803.00	788.00	765.00	743.00	721.00	715.00	709.00	689.00	669.00	664.00	684.00	677.00	712.00	704.00	695.00	695.00	713.00	723.00	776.00	813.00	824.00	801.00	798.00	780.00	792.00	794.00	786.00	794.00	790.00	754.00	747.00	842.00	862.00	878.00	858.00	828.00	843.00	885.00	949.00	1018.00	953.00	921.00	843.00	884.00	948.00	962.00	947.00	973.00	974.00	892.00	884.00	871.00	856.00	752.00	774.00	797.00	797.00	824.00	931.00	994.00	1038.00	1075.00	1080.00	997.00	1061.00	1117.00	1122.00	1014.00	983.00	961.00	969.00	1025.00	1003.00	874.00	882.00	921.00	1022.00	1132.00	1199.00	1135.00	1063.00	1191.00	1275.00	1271.00	1347.00	1379.00	1376.00	1370.00	1347.00	1342.00	1245.00	1193.00	1149.00	1115.00	939.00	877.00	848.00	889.00	959.00	980.00	900.00	832.00	855.00	861.00	853.00	908.00	886.00	873.00	843.00	906.00	940.00	945.00	1001.00	1015.00	1020.00	1007.00	995.00	1006.00	987.00	941.00	890.00	814.00	774.00	708.00	649.00	619.00	717.00	728.00	711.00	679.00	664.00	719.00	771.00	798.00	797.00	729.00	744.00	793.00	820.00	729.00	699.00	685.00	671.00	679.00	733.00	796.00	848.00	742.00	662.00	721.00	784.00	822.00	734.00	702.00	675.00	649.00	641.00	623.00	642.00	662.00	659.00	564.00	509.00	489.00	498.00	534.00	648.00	698.00	766.00	793.00	717.00	678.00	636.00	600.00	569.00	644.00	697.00	743.00	781.00	812.00	768.00	720.00	664.00	622.00	593.00	590.00	569.00	537.00	522.00	541.00	565.00	584.00	586.00	586.00	594.00	603.00	624.00	645.00	636.00	688.00	739.00	788.00	795.00	737.00	709.00	731.00	701.00	664.00	637.00	625.00	615.00	598.00	636.00	685.00	746.00	823.00	806.00	755.00	735.00	759.00	669.00	638.00	620.00	640.00	676.00	688.00	712.00	736.00	761.00	760.00	758.00	752.00	744.00	786.00	829.00	826.00	780.00	751.00	803.00	820.00	808.00	776.00	795.00	798.00	779.00	755.00	777.00	789.00	808.00	812.00	800.00	763.00	735.00	728.00
764.00	752.00	803.00	788.00	765.00	743.00	721.00	715.00	709.00	689.00	669.00	664.00	684.00	677.00	712.00	704.00	695.00	695.00	713.00	723.00	776.00	813.00	824.00	801.00	798.00	780.00	792.00	794.00	786.00	794.00	790.00	754.00	747.00	842.00	862.00	878.00	858.00	828.00	843.00	885.00	949.00	1018.00	953.00	921.00	843.00	884.00	948.00	962.00	947.00	973.00	974.00	892.00	884.00	871.00	856.00	752.00	774.00	797.00	797.00	824.00	931.00	994.00	1038.00	1075.00	1080.00	997.00	1061.00	1117.00	1122.00	1014.00	983.00	961.00	969.00	1025.00	1003.00	874.00	882.00	921.00	1022.00	1132.00	1199.00	1135.00	1063.00	1191.00	1275.00	1271.00	1347.00	1379.00	1376.00	1370.00	1347.00	1342.00	1245.00	1193.00	1149.00	1115.00	939.00	877.00	848.00	889.00	959.00	980.00	900.00	832.00	855.00	861.00	853.00	908.00	886.00	873.00	843.00	906.00	940.00	945.00	1001.00	1015.00	1020.00	1007.00	995.00	1006.00	987.00	941.00	890.00	814.00	774.00	708.00	649.00	619.00	717.00	728.00	711.00	679.00	664.00	719.00	771.00	798.00	797.00	729.00	744.00	793.00	820.00	729.00	699.00	685.00	671.00	679.00	733.00	796.00	848.00	742.00	662.00	721.00	784.00	822.00	734.00	702.00	675.00	649.00	641.00	623.00	642.00	662.00	659.00	564.00	509.00	489.00	498.00	534.00	648.00	698.00	766.00	793.00	717.00	678.00	636.00	600.00	569.00	644.00	697.00	743.00	781.00	812.00	768.00	720.00	664.00	622.00	593.00	590.00	569.00	537.00	522.00	541.00	565.00	584.00	586.00	586.00	594.00	603.00	624.00	645.00	636.00	688.00	739.00	788.00	795.00	737.00	709.00	731.00	701.00	664.00	637.00	625.00	615.00	598.00	636.00	685.00	746.00	823.00	806.00	755.00	735.00	759.00	669.00	638.00	620.00	640.00	676.00	688.00	712.00	736.00	761.00	760.00	758.00	752.00	744.00	786.00	829.00	826.00	780.00	751.00	803.00	820.00	808.00	776.00	795.00	798.00	779.00	755.00	777.00	789.00	808.00	812.00	800.00	763.00	735.00	728.00
759.00	789.00	782.00	747.00	720.00	703.00	690.00	677.00	668.00	670.00	673.00	718.00	751.00	709.00	730.00	776.00	777.00	755.00	744.00	746.00	788.00	800.00	796.00	773.00	813.00	801.00	762.00	755.00	778.00	822.00	792.00	741.00	719.00	810.00	862.00	920.00	923.00	901.00	911.00	889.00	847.00	864.00	919.00	898.00	928.00	929.00	932.00	920.00	968.00	1007.00	1002.00	865.00	802.00	762.00	742.00	765.00	886.00	960.00	964.00	936.00	1041.00	1057.00	1035.00	1010.00	964.00	1103.00	1174.00	1216.00	1167.00	1042.00	985.00	944.00	898.00	893.00	898.00	880.00	963.00	1037.00	1108.00	1142.00	1083.00	1002.00	978.00	1128.00	1123.00	1073.00	1168.00	1379.00	1400.00	1300.00	1228.00	1178.00	1080.00	1037.00	985.00	953.00	976.00	913.00	866.00	819.00	824.00	941.00	952.00	871.00	790.00	790.00	813.00	835.00	876.00	926.00	898.00	870.00	854.00	866.00	899.00	946.00	956.00	912.00	852.00	835.00	816.00	806.00	788.00	736.00	723.00	690.00	664.00	635.00	602.00	609.00	619.00	612.00	640.00	659.00	658.00	660.00	692.00	682.00	746.00	790.00	784.00	785.00	812.00	804.00	761.00	754.00	809.00	806.00	857.00	788.00	711.00	757.00	811.00	797.00	683.00	660.00	684.00	717.00	725.00	752.00	756.00	728.00	679.00	582.00	525.00	494.00	486.00	499.00	598.00	617.00	683.00	754.00	754.00	682.00	618.00	566.00	566.00	614.00	632.00	655.00	680.00	760.00	731.00	680.00	682.00	718.00	722.00	712.00	677.00	602.00	534.00	571.00	628.00	670.00	688.00	703.00	715.00	736.00	752.00	769.00	750.00	708.00	744.00	775.00	686.00	636.00	664.00	717.00	712.00	701.00	666.00	632.00	573.00	616.00	655.00	689.00	724.00	820.00	795.00	753.00	712.00	684.00	607.00	626.00	670.00	716.00	775.00	751.00	703.00	702.00	728.00	757.00	777.00	808.00	820.00	769.00	742.00	746.00	770.00	815.00	832.00	828.00	831.00	825.00	773.00	756.00	727.00	682.00	682.00	752.00	780.00	799.00	814.00	810.00	781.00	787.00
759.00	789.00	782.00	747.00	720.00	703.00	690.00	677.00	668.00	670.00	673.00	718.00	751.00	709.00	730.00	776.00	777.00	755.00	744.00	746.00	788.00	800.00	796.00	773.00	813.00	801.00	762.00	755.00	778.00	822.00	792.00	741.00	719.00	810.00	862.00	920.00	923.00	901.00	911.00	889.00	847.00	864.00	919.00	898.00	928.00	929.00	932.00	920.00	968.00	1007.00	1002.00	865.00	802.00	762.00	742.00	765.00	886.00	960.00	964.00	936.00	1041.00	1057.00	1035.00	1010.00	964.00	1103.00	1174.00	1216.00	1167.00	1042.00	985.00	944.00	898.00	893.00	898.00	880.00	963.00	1037.00	1108.00	1142.00	1083.00	1002.00	978.00	1128.00	1123.00	1073.00	1168.00	1379.00	1400.00	1300.00	1228.00	1178.00	1080.00	1037.00	985.00	953.00	976.00	913.00	866.00	819.00	824.00	941.00	952.00	871.00	790.00	790.00	813.00	835.00	876.00	926.00	898.00	870.00	854.00	866.00	899.00	946.00	956.00	912.00	852.00	835.00	816.00	806.00	788.00	736.00	723.00	690.00	664.00	635.00	602.00	609.00	619.00	612.00	640.00	659.00	658.00	660.00	692.00	682.00	746.00	790.00	784.00	785.00	812.00	804.00	761.00	754.00	809.00	806.00	857.00	788.00	711.00	757.00	811.00	797.00	683.00	660.00	684.00	717.00	725.00	752.00	756.00	728.00	679.00	582.00	525.00	494.00	486.00	499.00	598.00	617.00	683.00	754.00	754.00	682.00	618.00	566.00	566.00	614.00	632.00	655.00	680.00	760.00	731.00	680.00	682.00	718.00	722.00	712.00	677.00	602.00	534.00	571.00	628.00	670.00	688.00	703.00	715.00	736.00	752.00	769.00	750.00	708.00	744.00	775.00	686.00	636.00	664.00	717.00	712.00	701.00	666.00	632.00	573.00	616.00	655.00	689.00	724.00	820.00	795.00	753.00	712.00	684.00	607.00	626.00	670.00	716.00	775.00	751.00	703.00	702.00	728.00	757.00	777.00	808.00	820.00	769.00	742.00	746.00	770.00	815.00	832.00	828.00	831.00	825.00	773.00	756.00	727.00	682.00	682.00	752.00	780.00	799.00	814.00	810.00	781.00	787.00
710.00	737.00	815.00	765.00	746.00	746.00	747.00	702.00	693.00	729.00	756.00	721.00	804.00	765.00	764.00	772.00	816.00	832.00	823.00	803.00	786.00	780.00	762.00	728.00	740.00	733.00	710.00	724.00	773.00	808.00	780.00	746.00	714.00	799.00	809.00	819.00	799.00	794.00	841.00	819.00	785.00	790.00	828.00	847.00	918.00	916.00	886.00	864.00	911.00	937.00	964.00	929.00	864.00	811.00	780.00	780.00	879.00	907.00	920.00	957.00	1074.00	1047.00	997.00	930.00	890.00	1109.00	1147.00	1163.00	1115.00	998.00	983.00	990.00	983.00	940.00	821.00	869.00	904.00	916.00	1008.00	1029.00	972.00	928.00	976.00	1029.00	987.00	1004.00	1158.00	1278.00	1295.00	1240.00	1176.00	1119.00	1026.00	987.00	936.00	884.00	965.00	984.00	972.00	904.00	837.00	794.00	816.00	794.00	753.00	781.00	805.00	892.00	896.00	895.00	935.00	921.00	892.00	835.00	757.00	776.00	795.00	785.00	726.00	724.00	708.00	692.00	675.00	636.00	652.00	686.00	721.00	729.00	660.00	620.00	590.00	578.00	588.00	593.00	596.00	613.00	630.00	636.00	719.00	726.00	713.00	796.00	837.00	808.00	805.00	834.00	828.00	835.00	878.00	848.00	810.00	850.00	875.00	861.00	795.00	781.00	791.00	794.00	732.00	633.00	623.00	611.00	613.00	595.00	566.00	523.00	490.00	487.00	583.00	645.00	763.00	753.00	660.00	591.00	546.00	577.00	618.00	639.00	666.00	695.00	718.00	810.00	804.00	777.00	777.00	791.00	822.00	785.00	703.00	616.00	521.00	549.00	586.00	624.00	665.00	757.00	783.00	828.00	840.00	758.00	718.00	673.00	657.00	678.00	653.00	622.00	593.00	612.00	695.00	696.00	664.00	621.00	579.00	648.00	695.00	741.00	774.00	798.00	782.00	746.00	708.00	672.00	592.00	644.00	689.00	718.00	741.00	783.00	810.00	792.00	820.00	831.00	778.00	789.00	765.00	778.00	724.00	736.00	791.00	809.00	756.00	778.00	828.00	831.00	711.00	688.00	663.00	664.00	702.00	779.00	787.00	777.00	756.00	795.00	830.00	849.00
710.00	737.00	815.00	765.00	746.00	746.00	747.00	702.00	693.00	729.00	756.00	721.00	804.00	765.00	764.00	772.00	816.00	832.00	823.00	803.00	786.00	780.00	762.00	728.00	740.00	733.00	710.00	724.00	773.00	808.00	780.00	746.00	714.00	799.00	809.00	819.00	799.00	794.00	841.00	819.00	785.00	790.00	828.00	847.00	918.00	916.00	886.00	864.00	911.00	937.00	964.00	929.00	864.00	811.00	780.00	780.00	879.00	907.00	920.00	957.00	1074.00	1047.00	997.00	930.00	890.00	1109.00	1147.00	1163.00	1115.00	998.00	983.00	990.00	983.00	940.00	821.00	869.00	904.00	916.00	1008.00	1029.00	972.00	928.00	976.00	1029.00	987.00	1004.00	1158.00	1278.00	1295.00	1240.00	1176.00	1119.00	1026.00	987.00	936.00	884.00	965.00	984.00	972.00	904.00	837.00	794.00	816.00	794.00	753.00	781.00	805.00	892.00	896.00	895.00	935.00	921.00	892.00	835.00	757.00	776.00	795.00	785.00	726.00	724.00	708.00	692.00	675.00	636.00	652.00	686.00	721.00	729.00	660.00	620.00	590.00	578.00	588.00	593.00	596.00	613.00	630.00	636.00	719.00	726.00	713.00	796.00	837.00	808.00	805.00	834.00	828.00	835.00	878.00	848.00	810.00	850.00	875.00	861.00	795.00	781.00	791.00	794.00	732.00	633.00	623.00	611.00	613.00	595.00	566.00	523.00	490.00	487.00	583.00	645.00	763.00	753.00	660.00	591.00	546.00	577.00	618.00	639.00	666.00	695.00	718.00	810.00	804.00	777.00	777.00	791.00	822.00	785.00	703.00	616.00	521.00	549.00	586.00	624.00	665.00	757.00	783.00	828.00	840.00	758.00	718.00	673.00	657.00	678.00	653.00	622.00	593.00	612.00	695.00	696.00	664.00	621.00	579.00	648.00	695.00	741.00	774.00	798.00	782.00	746.00	708.00	672.00	592.00	644.00	689.00	718.00	741.00	783.00	810.00	792.00	820.00	831.00	778.00	789.00	765.00	778.00	724.00	736.00	791.00	809.00	756.00	778.00	828.00	831.00	711.00	688.00	663.00	664.00	702.00	779.00	787.00	777.00	756.00	795.00	830.00	849.00
732.00	766.00	832.00	820.00	796.00	765.00	740.00	735.00	749.00	774.00	799.00	785.00	787.00	771.00	741.00	708.00	740.00	790.00	817.00	807.00	756.00	756.00	754.00	706.00	693.00	688.00	694.00	725.00	749.00	747.00	745.00	746.00	703.00	720.00	719.00	727.00	728.00	748.00	797.00	791.00	756.00	764.00	852.00	887.00	878.00	882.00	848.00	795.00	816.00	866.00	927.00	1055.00	1025.00	954.00	886.00	808.00	884.00	944.00	998.00	1052.00	1170.00	1174.00	1120.00	1037.00	935.00	962.00	1017.00	1102.00	1143.00	1016.00	930.00	868.00	877.00	907.00	828.00	813.00	877.00	927.00	932.00	892.00	886.00	944.00	1005.00	937.00	977.00	1059.00	1077.00	1140.00	1154.00	1099.00	1036.00	1005.00	968.00	976.00	984.00	959.00	838.00	912.00	980.00	1016.00	971.00	818.00	746.00	706.00	701.00	801.00	859.00	989.00	921.00	844.00	801.00	811.00	826.00	822.00	770.00	733.00	696.00	683.00	685.00	674.00	679.00	695.00	699.00	673.00	701.00	750.00	801.00	839.00	700.00	713.00	712.00	653.00	553.00	548.00	554.00	562.00	570.00	630.00	644.00	692.00	755.00	795.00	757.00	704.00	696.00	728.00	746.00	790.00	842.00	934.00	920.00	906.00	858.00	855.00	839.00	769.00	727.00	705.00	682.00	715.00	732.00	750.00	743.00	685.00	620.00	545.00	497.00	490.00	605.00	683.00	663.00	613.00	551.00	553.00	612.00	670.00	719.00	704.00	671.00	690.00	744.00	850.00	828.00	787.00	742.00	686.00	699.00	739.00	728.00	648.00	508.00	530.00	567.00	622.00	678.00	756.00	754.00	767.00	756.00	682.00	648.00	589.00	591.00	635.00	611.00	593.00	579.00	622.00	696.00	699.00	657.00	599.00	606.00	679.00	702.00	728.00	715.00	746.00	754.00	707.00	667.00	623.00	643.00	676.00	686.00	700.00	759.00	792.00	831.00	846.00	812.00	787.00	798.00	714.00	694.00	723.00	699.00	678.00	698.00	705.00	759.00	813.00	839.00	826.00	707.00	678.00	647.00	665.00	702.00	776.00	769.00	731.00	698.00	782.00	770.00	770.00
748.00	757.00	775.00	759.00	748.00	735.00	713.00	735.00	753.00	771.00	778.00	750.00	724.00	732.00	718.00	675.00	697.00	722.00	755.00	771.00	719.00	712.00	712.00	683.00	656.00	689.00	730.00	742.00	739.00	704.00	718.00	721.00	688.00	684.00	696.00	715.00	721.00	725.00	744.00	737.00	721.00	765.00	869.00	892.00	824.00	770.00	746.00	782.00	810.00	863.00	946.00	1089.00	1102.00	1063.00	1004.00	891.00	945.00	1002.00	1004.00	975.00	1045.00	1063.00	1041.00	1020.00	971.00	947.00	1032.00	1096.00	1090.00	974.00	975.00	961.00	900.00	844.00	778.00	784.00	821.00	825.00	839.00	911.00	964.00	976.00	949.00	887.00	937.00	951.00	961.00	1122.00	1175.00	1117.00	1059.00	1012.00	915.00	867.00	850.00	891.00	842.00	794.00	818.00	871.00	897.00	765.00	703.00	699.00	746.00	867.00	911.00	1001.00	935.00	866.00	796.00	776.00	754.00	727.00	695.00	707.00	759.00	792.00	772.00	826.00	798.00	769.00	735.00	752.00	785.00	816.00	867.00	892.00	809.00	811.00	750.00	686.00	603.00	569.00	542.00	529.00	531.00	557.00	654.00	711.00	732.00	668.00	638.00	606.00	637.00	712.00	785.00	745.00	727.00	802.00	788.00	752.00	757.00	826.00	865.00	828.00	821.00	807.00	777.00	736.00	689.00	669.00	646.00	611.00	578.00	530.00	486.00	483.00	543.00	560.00	557.00	576.00	654.00	615.00	607.00	656.00	719.00	796.00	773.00	760.00	776.00	804.00	747.00	704.00	670.00	640.00	593.00	608.00	631.00	612.00	500.00	521.00	545.00	569.00	591.00	619.00	612.00	601.00	591.00	565.00	552.00	536.00	535.00	538.00	536.00	539.00	539.00	549.00	562.00	568.00	581.00	574.00	600.00	632.00	621.00	619.00	599.00	614.00	623.00	607.00	587.00	586.00	674.00	699.00	721.00	742.00	799.00	809.00	786.00	769.00	764.00	697.00	696.00	678.00	661.00	701.00	716.00	709.00	716.00	757.00	715.00	714.00	744.00	763.00	687.00	655.00	624.00	645.00	675.00	703.00	697.00	679.00	653.00	712.00	742.00	780.00
748.00	757.00	775.00	759.00	748.00	735.00	713.00	735.00	753.00	771.00	778.00	750.00	724.00	732.00	718.00	675.00	697.00	722.00	755.00	771.00	719.00	712.00	712.00	683.00	656.00	689.00	730.00	742.00	739.00	704.00	718.00	721.00	688.00	684.00	696.00	715.00	721.00	725.00	744.00	737.00	721.00	765.00	869.00	892.00	824.00	770.00	746.00	782.00	810.00	863.00	946.00	1089.00	1102.00	1063.00	1004.00	891.00	945.00	1002.00	1004.00	975.00	1045.00	1063.00	1041.00	1020.00	971.00	947.00	1032.00	1096.00	1090.00	974.00	975.00	961.00	900.00	844.00	778.00	784.00	821.00	825.00	839.00	911.00	964.00	976.00	949.00	887.00	937.00	951.00	961.00	1122.00	1175.00	1117.00	1059.00	1012.00	915.00	867.00	850.00	891.00	842.00	794.00	818.00	871.00	897.00	765.00	703.00	699.00	746.00	867.00	911.00	1001.00	935.00	866.00	796.00	776.00	754.00	727.00	695.00	707.00	759.00	792.00	772.00	826.00	798.00	769.00	735.00	752.00	785.00	816.00	867.00	892.00	809.00	811.00	750.00	686.00	603.00	569.00	542.00	529.00	531.00	557.00	654.00	711.00	732.00	668.00	638.00	606.00	637.00	712.00	785.00	745.00	727.00	802.00	788.00	752.00	757.00	826.00	865.00	828.00	821.00	807.00	777.00	736.00	689.00	669.00	646.00	611.00	578.00	530.00	486.00	483.00	543.00	560.00	557.00	576.00	654.00	615.00	607.00	656.00	719.00	796.00	773.00	760.00	776.00	804.00	747.00	704.00	670.00	640.00	593.00	608.00	631.00	612.00	500.00	521.00	545.00	569.00	591.00	619.00	612.00	601.00	591.00	565.00	552.00	536.00	535.00	538.00	536.00	539.00	539.00	549.00	562.00	568.00	581.00	574.00	600.00	632.00	621.00	619.00	599.00	614.00	623.00	607.00	587.00	586.00	674.00	699.00	721.00	742.00	799.00	809.00	786.00	769.00	764.00	697.00	696.00	678.00	661.00	701.00	716.00	709.00	716.00	757.00	715.00	714.00	744.00	763.00	687.00	655.00	624.00	645.00	675.00	703.00	697.00	679.00	653.00	712.00	742.00	780.00
686.00	715.00	728.00	712.00	704.00	710.00	712.00	683.00	676.00	685.00	701.00	705.00	694.00	683.00	664.00	646.00	663.00	678.00	715.00	741.00	706.00	688.00	669.00	657.00	648.00	670.00	681.00	683.00	679.00	680.00	714.00	728.00	694.00	669.00	683.00	685.00	680.00	676.00	708.00	714.00	710.00	736.00	834.00	882.00	828.00	756.00	757.00	859.00	901.00	941.00	961.00	942.00	967.00	1034.00	1109.00	1082.00	1010.00	994.00	959.00	909.00	880.00	877.00	862.00	868.00	907.00	836.00	885.00	898.00	891.00	862.00	852.00	911.00	951.00	914.00	781.00	755.00	769.00	768.00	843.00	870.00	861.00	835.00	830.00	878.00	920.00	968.00	1096.00	1155.00	1121.00	1053.00	987.00	1001.00	1036.00	946.00	847.00	794.00	947.00	874.00	808.00	764.00	737.00	711.00	679.00	740.00	831.00	883.00	855.00	926.00	960.00	923.00	891.00	877.00	820.00	753.00	772.00	770.00	838.00	922.00	869.00	795.00	771.00	782.00	820.00	886.00	883.00	846.00	810.00	768.00	692.00	720.00	708.00	683.00	606.00	585.00	563.00	545.00	528.00	522.00	545.00	559.00	565.00	556.00	567.00	603.00	656.00	701.00	628.00	607.00	628.00	677.00	625.00	653.00	726.00	789.00	726.00	727.00	801.00	846.00	805.00	714.00	739.00	769.00	779.00	676.00	609.00	539.00	487.00	472.00	539.00	599.00	695.00	714.00	790.00	744.00	667.00	620.00	632.00	729.00	775.00	811.00	833.00	858.00	862.00	827.00	765.00	717.00	674.00	626.00	567.00	533.00	492.00	498.00	505.00	506.00	504.00	510.00	516.00	519.00	524.00	538.00	537.00	540.00	534.00	546.00	556.00	558.00	558.00	557.00	567.00	575.00	586.00	596.00	579.00	581.00	584.00	581.00	593.00	600.00	590.00	582.00	592.00	597.00	665.00	696.00	699.00	684.00	737.00	732.00	705.00	679.00	655.00	643.00	652.00	651.00	680.00	755.00	783.00	796.00	779.00	771.00	748.00	702.00	685.00	678.00	637.00	620.00	604.00	616.00	646.00	654.00	638.00	633.00	658.00	733.00	767.00	804.00
686.00	715.00	728.00	712.00	704.00	710.00	712.00	683.00	676.00	685.00	701.00	705.00	694.00	683.00	664.00	646.00	663.00	678.00	715.00	741.00	706.00	688.00	669.00	657.00	648.00	670.00	681.00	683.00	679.00	680.00	714.00	728.00	694.00	669.00	683.00	685.00	680.00	676.00	708.00	714.00	710.00	736.00	834.00	882.00	828.00	756.00	757.00	859.00	901.00	941.00	961.00	942.00	967.00	1034.00	1109.00	1082.00	1010.00	994.00	959.00	909.00	880.00	877.00	862.00	868.00	907.00	836.00	885.00	898.00	891.00	862.00	852.00	911.00	951.00	914.00	781.00	755.00	769.00	768.00	843.00	870.00	861.00	835.00	830.00	878.00	920.00	968.00	1096.00	1155.00	1121.00	1053.00	987.00	1001.00	1036.00	946.00	847.00	794.00	947.00	874.00	808.00	764.00	737.00	711.00	679.00	740.00	831.00	883.00	855.00	926.00	960.00	923.00	891.00	877.00	820.00	753.00	772.00	770.00	838.00	922.00	869.00	795.00	771.00	782.00	820.00	886.00	883.00	846.00	810.00	768.00	692.00	720.00	708.00	683.00	606.00	585.00	563.00	545.00	528.00	522.00	545.00	559.00	565.00	556.00	567.00	603.00	656.00	701.00	628.00	607.00	628.00	677.00	625.00	653.00	726.00	789.00	726.00	727.00	801.00	846.00	805.00	714.00	739.00	769.00	779.00	676.00	609.00	539.00	487.00	472.00	539.00	599.00	695.00	714.00	790.00	744.00	667.00	620.00	632.00	729.00	775.00	811.00	833.00	858.00	862.00	827.00	765.00	717.00	674.00	626.00	567.00	533.00	492.00	498.00	505.00	506.00	504.00	510.00	516.00	519.00	524.00	538.00	537.00	540.00	534.00	546.00	556.00	558.00	558.00	557.00	567.00	575.00	586.00	596.00	579.00	581.00	584.00	581.00	593.00	600.00	590.00	582.00	592.00	597.00	665.00	696.00	699.00	684.00	737.00	732.00	705.00	679.00	655.00	643.00	652.00	651.00	680.00	755.00	783.00	796.00	779.00	771.00	748.00	702.00	685.00	678.00	637.00	620.00	604.00	616.00	646.00	654.00	638.00	633.00	658.00	733.00	767.00	804.00
667.00	699.00	698.00	680.00	701.00	740.00	797.00	782.00	727.00	687.00	660.00	664.00	695.00	712.00	718.00	658.00	635.00	638.00	656.00	668.00	660.00	645.00	634.00	619.00	657.00	693.00	695.00	683.00	692.00	689.00	685.00	668.00	658.00	647.00	650.00	659.00	686.00	724.00	769.00	740.00	705.00	700.00	762.00	759.00	724.00	717.00	757.00	873.00	918.00	920.00	871.00	892.00	982.00	1064.00	1121.00	1113.00	1157.00	1103.00	1046.00	974.00	867.00	886.00	908.00	922.00	899.00	797.00	805.00	810.00	798.00	770.00	763.00	762.00	768.00	770.00	736.00	728.00	738.00	750.00	774.00	785.00	817.00	859.00	920.00	1022.00	1052.00	1091.00	1198.00	1083.00	1028.00	966.00	908.00	880.00	961.00	899.00	829.00	766.00	900.00	931.00	917.00	864.00	801.00	684.00	661.00	696.00	742.00	787.00	817.00	900.00	929.00	911.00	830.00	823.00	799.00	796.00	897.00	910.00	910.00	940.00	862.00	862.00	871.00	875.00	838.00	847.00	856.00	820.00	789.00	759.00	622.00	603.00	619.00	628.00	579.00	564.00	548.00	546.00	557.00	547.00	517.00	511.00	506.00	514.00	526.00	546.00	570.00	594.00	553.00	578.00	637.00	588.00	595.00	668.00	741.00	735.00	607.00	690.00	773.00	747.00	708.00	816.00	801.00	775.00	784.00	709.00	639.00	565.00	496.00	468.00	576.00	652.00	725.00	724.00	806.00	805.00	747.00	678.00	678.00	798.00	847.00	838.00	776.00	758.00	828.00	793.00	715.00	656.00	561.00	528.00	507.00	493.00	507.00	517.00	531.00	546.00	557.00	550.00	548.00	543.00	548.00	573.00	567.00	564.00	550.00	562.00	604.00	613.00	616.00	596.00	601.00	626.00	655.00	692.00	672.00	715.00	680.00	633.00	661.00	726.00	674.00	614.00	631.00	655.00	629.00	623.00	618.00	616.00	621.00	631.00	632.00	635.00	647.00	694.00	724.00	696.00	702.00	753.00	755.00	751.00	767.00	788.00	790.00	767.00	783.00	773.00	669.00	634.00	613.00	601.00	602.00	626.00	654.00	675.00	700.00	796.00	841.00	886.00
667.00	699.00	698.00	680.00	701.00	740.00	797.00	782.00	727.00	687.00	660.00	664.00	695.00	712.00	718.00	658.00	635.00	638.00	656.00	668.00	660.00	645.00	634.00	619.00	657.00	693.00	695.00	683.00	692.00	689.00	685.00	668.00	658.00	647.00	650.00	659.00	686.00	724.00	769.00	740.00	705.00	700.00	762.00	759.00	724.00	717.00	757.00	873.00	918.00	920.00	871.00	892.00	982.00	1064.00	1121.00	1113.00	1157.00	1103.00	1046.00	974.00	867.00	886.00	908.00	922.00	899.00	797.00	805.00	810.00	798.00	770.00	763.00	762.00	768.00	770.00	736.00	728.00	738.00	750.00	774.00	785.00	817.00	859.00	920.00	1022.00	1052.00	1091.00	1198.00	1083.00	1028.00	966.00	908.00	880.00	961.00	899.00	829.00	766.00	900.00	931.00	917.00	864.00	801.00	684.00	661.00	696.00	742.00	787.00	817.00	900.00	929.00	911.00	830.00	823.00	799.00	796.00	897.00	910.00	910.00	940.00	862.00	862.00	871.00	875.00	838.00	847.00	856.00	820.00	789.00	759.00	622.00	603.00	619.00	628.00	579.00	564.00	548.00	546.00	557.00	547.00	517.00	511.00	506.00	514.00	526.00	546.00	570.00	594.00	553.00	578.00	637.00	588.00	595.00	668.00	741.00	735.00	607.00	690.00	773.00	747.00	708.00	816.00	801.00	775.00	784.00	709.00	639.00	565.00	496.00	468.00	576.00	652.00	725.00	724.00	806.00	805.00	747.00	678.00	678.00	798.00	847.00	838.00	776.00	758.00	828.00	793.00	715.00	656.00	561.00	528.00	507.00	493.00	507.00	517.00	531.00	546.00	557.00	550.00	548.00	543.00	548.00	573.00	567.00	564.00	550.00	562.00	604.00	613.00	616.00	596.00	601.00	626.00	655.00	692.00	672.00	715.00	680.00	633.00	661.00	726.00	674.00	614.00	631.00	655.00	629.00	623.00	618.00	616.00	621.00	631.00	632.00	635.00	647.00	694.00	724.00	696.00	702.00	753.00	755.00	751.00	767.00	788.00	790.00	767.00	783.00	773.00	669.00	634.00	613.00	601.00	602.00	626.00	654.00	675.00	700.00	796.00	841.00	886.00
658.00	672.00	688.00	719.00	763.00	787.00	777.00	794.00	788.00	744.00	687.00	636.00	669.00	683.00	697.00	706.00	691.00	660.00	626.00	622.00	623.00	620.00	609.00	613.00	676.00	702.00	727.00	763.00	767.00	704.00	684.00	664.00	648.00	648.00	661.00	688.00	719.00	737.00	699.00	677.00	670.00	673.00	694.00	710.00	732.00	739.00	737.00	760.00	789.00	788.00	790.00	920.00	986.00	1011.00	980.00	926.00	977.00	989.00	1010.00	967.00	953.00	1032.00	1091.00	1075.00	989.00	889.00	968.00	1005.00	955.00	933.00	916.00	869.00	820.00	783.00	732.00	701.00	709.00	718.00	765.00	803.00	842.00	872.00	904.00	976.00	1037.00	1109.00	1136.00	972.00	905.00	855.00	830.00	801.00	822.00	803.00	772.00	736.00	742.00	769.00	790.00	791.00	751.00	662.00	667.00	749.00	825.00	833.00	878.00	878.00	833.00	861.00	920.00	935.00	930.00	915.00	918.00	935.00	889.00	844.00	818.00	860.00	832.00	803.00	779.00	715.00	727.00	739.00	750.00	730.00	620.00	594.00	570.00	566.00	578.00	592.00	623.00	680.00	713.00	684.00	613.00	588.00	571.00	512.00	499.00	492.00	491.00	493.00	493.00	506.00	531.00	524.00	608.00	671.00	726.00	683.00	579.00	668.00	713.00	639.00	639.00	806.00	737.00	667.00	619.00	598.00	564.00	521.00	486.00	465.00	490.00	531.00	586.00	617.00	741.00	824.00	832.00	784.00	798.00	801.00	774.00	741.00	704.00	650.00	696.00	667.00	586.00	527.00	503.00	516.00	517.00	521.00	583.00	580.00	595.00	624.00	654.00	620.00	588.00	575.00	619.00	640.00	614.00	604.00	575.00	565.00	669.00	703.00	687.00	647.00	608.00	652.00	691.00	738.00	785.00	799.00	740.00	676.00	715.00	769.00	707.00	648.00	640.00	705.00	722.00	734.00	725.00	701.00	633.00	661.00	695.00	726.00	736.00	789.00	836.00	827.00	778.00	789.00	834.00	846.00	850.00	866.00	780.00	747.00	783.00	794.00	721.00	699.00	677.00	631.00	596.00	641.00	680.00	716.00	750.00	849.00	905.00	942.00
658.00	672.00	688.00	719.00	763.00	787.00	777.00	794.00	788.00	744.00	687.00	636.00	669.00	683.00	697.00	706.00	691.00	660.00	626.00	622.00	623.00	620.00	609.00	613.00	676.00	702.00	727.00	763.00	767.00	704.00	684.00	664.00	648.00	648.00	661.00	688.00	719.00	737.00	699.00	677.00	670.00	673.00	694.00	710.00	732.00	739.00	737.00	760.00	789.00	788.00	790.00	920.00	986.00	1011.00	980.00	926.00	977.00	989.00	1010.00	967.00	953.00	1032.00	1091.00	1075.00	989.00	889.00	968.00	1005.00	955.00	933.00	916.00	869.00	820.00	783.00	732.00	701.00	709.00	718.00	765.00	803.00	842.00	872.00	904.00	976.00	1037.00	1109.00	1136.00	972.00	905.00	855.00	830.00	801.00	822.00	803.00	772.00	736.00	742.00	769.00	790.00	791.00	751.00	662.00	667.00	749.00	825.00	833.00	878.00	878.00	833.00	861.00	920.00	935.00	930.00	915.00	918.00	935.00	889.00	844.00	818.00	860.00	832.00	803.00	779.00	715.00	727.00	739.00	750.00	730.00	620.00	594.00	570.00	566.00	578.00	592.00	623.00	680.00	713.00	684.00	613.00	588.00	571.00	512.00	499.00	492.00	491.00	493.00	493.00	506.00	531.00	524.00	608.00	671.00	726.00	683.00	579.00	668.00	713.00	639.00	639.00	806.00	737.00	667.00	619.00	598.00	564.00	521.00	486.00	465.00	490.00	531.00	586.00	617.00	741.00	824.00	832.00	784.00	798.00	801.00	774.00	741.00	704.00	650.00	696.00	667.00	586.00	527.00	503.00	516.00	517.00	521.00	583.00	580.00	595.00	624.00	654.00	620.00	588.00	575.00	619.00	640.00	614.00	604.00	575.00	565.00	669.00	703.00	687.00	647.00	608.00	652.00	691.00	738.00	785.00	799.00	740.00	676.00	715.00	769.00	707.00	648.00	640.00	705.00	722.00	734.00	725.00	701.00	633.00	661.00	695.00	726.00	736.00	789.00	836.00	827.00	778.00	789.00	834.00	846.00	850.00	866.00	780.00	747.00	783.00	794.00	721.00	699.00	677.00	631.00	596.00	641.00	680.00	716.00	750.00	849.00	905.00	942.00
704.00	715.00	767.00	773.00	762.00	750.00	723.00	709.00	743.00	756.00	725.00	659.00	634.00	644.00	656.00	684.00	697.00	702.00	694.00	665.00	601.00	591.00	603.00	660.00	713.00	752.00	771.00	775.00	746.00	693.00	706.00	702.00	667.00	650.00	674.00	706.00	703.00	679.00	651.00	660.00	671.00	684.00	749.00	785.00	882.00	899.00	848.00	868.00	859.00	836.00	813.00	801.00	822.00	842.00	845.00	859.00	880.00	904.00	951.00	968.00	1013.00	1094.00	1139.00	1082.00	993.00	987.00	1088.00	1143.00	1122.00	989.00	941.00	906.00	890.00	889.00	748.00	688.00	689.00	700.00	789.00	871.00	946.00	1014.00	1055.00	1085.00	1068.00	1038.00	928.00	846.00	808.00	786.00	770.00	757.00	742.00	733.00	727.00	720.00	688.00	687.00	683.00	677.00	670.00	647.00	673.00	722.00	730.00	832.00	906.00	839.00	764.00	784.00	860.00	821.00	836.00	819.00	814.00	842.00	827.00	781.00	745.00	748.00	739.00	713.00	687.00	661.00	655.00	661.00	652.00	630.00	596.00	602.00	627.00	611.00	702.00	712.00	714.00	761.00	779.00	713.00	645.00	624.00	601.00	523.00	535.00	556.00	534.00	508.00	482.00	475.00	473.00	485.00	539.00	570.00	617.00	599.00	549.00	624.00	648.00	587.00	611.00	715.00	760.00	752.00	714.00	654.00	595.00	523.00	473.00	447.00	485.00	561.00	669.00	674.00	737.00	759.00	772.00	781.00	814.00	729.00	670.00	635.00	618.00	534.00	517.00	503.00	489.00	496.00	525.00	540.00	546.00	541.00	638.00	663.00	694.00	679.00	686.00	696.00	643.00	605.00	635.00	689.00	662.00	667.00	642.00	593.00	671.00	728.00	746.00	704.00	610.00	636.00	680.00	720.00	819.00	873.00	826.00	756.00	744.00	820.00	763.00	709.00	660.00	651.00	766.00	798.00	816.00	777.00	684.00	651.00	695.00	750.00	807.00	860.00	923.00	952.00	887.00	848.00	887.00	888.00	859.00	809.00	724.00	694.00	706.00	738.00	731.00	705.00	669.00	636.00	597.00	621.00	648.00	670.00	697.00	810.00	856.00	889.00
704.00	715.00	767.00	773.00	762.00	750.00	723.00	709.00	743.00	756.00	725.00	659.00	634.00	644.00	656.00	684.00	697.00	702.00	694.00	665.00	601.00	591.00	603.00	660.00	713.00	752.00	771.00	775.00	746.00	693.00	706.00	702.00	667.00	650.00	674.00	706.00	703.00	679.00	651.00	660.00	671.00	684.00	749.00	785.00	882.00	899.00	848.00	868.00	859.00	836.00	813.00	801.00	822.00	842.00	845.00	859.00	880.00	904.00	951.00	968.00	1013.00	1094.00	1139.00	1082.00	993.00	987.00	1088.00	1143.00	1122.00	989.00	941.00	906.00	890.00	889.00	748.00	688.00	689.00	700.00	789.00	871.00	946.00	1014.00	1055.00	1085.00	1068.00	1038.00	928.00	846.00	808.00	786.00	770.00	757.00	742.00	733.00	727.00	720.00	688.00	687.00	683.00	677.00	670.00	647.00	673.00	722.00	730.00	832.00	906.00	839.00	764.00	784.00	860.00	821.00	836.00	819.00	814.00	842.00	827.00	781.00	745.00	748.00	739.00	713.00	687.00	661.00	655.00	661.00	652.00	630.00	596.00	602.00	627.00	611.00	702.00	712.00	714.00	761.00	779.00	713.00	645.00	624.00	601.00	523.00	535.00	556.00	534.00	508.00	482.00	475.00	473.00	485.00	539.00	570.00	617.00	599.00	549.00	624.00	648.00	587.00	611.00	715.00	760.00	752.00	714.00	654.00	595.00	523.00	473.00	447.00	485.00	561.00	669.00	674.00	737.00	759.00	772.00	781.00	814.00	729.00	670.00	635.00	618.00	534.00	517.00	503.00	489.00	496.00	525.00	540.00	546.00	541.00	638.00	663.00	694.00	679.00	686.00	696.00	643.00	605.00	635.00	689.00	662.00	667.00	642.00	593.00	671.00	728.00	746.00	704.00	610.00	636.00	680.00	720.00	819.00	873.00	826.00	756.00	744.00	820.00	763.00	709.00	660.00	651.00	766.00	798.00	816.00	777.00	684.00	651.00	695.00	750.00	807.00	860.00	923.00	952.00	887.00	848.00	887.00	888.00	859.00	809.00	724.00	694.00	706.00	738.00	731.00	705.00	669.00	636.00	597.00	621.00	648.00	670.00	697.00	810.00	856.00	889.00
724.00	720.00	772.00	739.00	705.00	683.00	673.00	660.00	698.00	722.00	739.00	740.00	671.00	638.00	615.00	634.00	646.00	654.00	651.00	642.00	600.00	579.00	595.00	635.00	673.00	704.00	739.00	755.00	724.00	666.00	714.00	730.00	691.00	638.00	642.00	644.00	643.00	644.00	654.00	665.00	675.00	689.00	752.00	781.00	872.00	913.00	927.00	912.00	927.00	958.00	948.00	855.00	867.00	850.00	865.00	948.00	1015.00	967.00	931.00	943.00	1014.00	1030.00	1009.00	957.00	907.00	1054.00	1148.00	1207.00	1142.00	993.00	1059.00	1069.00	1008.00	926.00	768.00	686.00	674.00	674.00	728.00	810.00	874.00	914.00	960.00	921.00	866.00	820.00	782.00	743.00	740.00	745.00	750.00	759.00	780.00	785.00	794.00	800.00	764.00	739.00	711.00	688.00	666.00	637.00	661.00	719.00	758.00	832.00	849.00	790.00	729.00	721.00	751.00	726.00	744.00	749.00	713.00	763.00	803.00	779.00	706.00	680.00	658.00	650.00	661.00	654.00	633.00	611.00	610.00	621.00	699.00	742.00	764.00	704.00	667.00	722.00	778.00	797.00	751.00	676.00	625.00	584.00	546.00	578.00	625.00	654.00	619.00	578.00	528.00	508.00	492.00	471.00	465.00	472.00	487.00	500.00	532.00	566.00	553.00	529.00	586.00	633.00	724.00	772.00	725.00	623.00	561.00	510.00	467.00	441.00	447.00	495.00	552.00	560.00	604.00	610.00	626.00	670.00	708.00	712.00	648.00	598.00	566.00	476.00	484.00	487.00	491.00	503.00	557.00	597.00	640.00	656.00	592.00	625.00	684.00	750.00	791.00	782.00	722.00	672.00	636.00	727.00	772.00	758.00	748.00	672.00	640.00	700.00	757.00	793.00	688.00	640.00	633.00	664.00	743.00	842.00	890.00	872.00	826.00	870.00	806.00	739.00	692.00	688.00	723.00	725.00	763.00	794.00	751.00	724.00	682.00	678.00	714.00	761.00	795.00	844.00	829.00	841.00	809.00	777.00	745.00	712.00	686.00	663.00	652.00	658.00	705.00	698.00	668.00	632.00	596.00	597.00	626.00	654.00	693.00	769.00	769.00	796.00
724.00	720.00	772.00	739.00	705.00	683.00	673.00	660.00	698.00	722.00	739.00	740.00	671.00	638.00	615.00	634.00	646.00	654.00	651.00	642.00	600.00	579.00	595.00	635.00	673.00	704.00	739.00	755.00	724.00	666.00	714.00	730.00	691.00	638.00	642.00	644.00	643.00	644.00	654.00	665.00	675.00	689.00	752.00	781.00	872.00	913.00	927.00	912.00	927.00	958.00	948.00	855.00	867.00	850.00	865.00	948.00	1015.00	967.00	931.00	943.00	1014.00	1030.00	1009.00	957.00	907.00	1054.00	1148.00	1207.00	1142.00	993.00	1059.00	1069.00	1008.00	926.00	768.00	686.00	674.00	674.00	728.00	810.00	874.00	914.00	960.00	921.00	866.00	820.00	782.00	743.00	740.00	745.00	750.00	759.00	780.00	785.00	794.00	800.00	764.00	739.00	711.00	688.00	666.00	637.00	661.00	719.00	758.00	832.00	849.00	790.00	729.00	721.00	751.00	726.00	744.00	749.00	713.00	763.00	803.00	779.00	706.00	680.00	658.00	650.00	661.00	654.00	633.00	611.00	610.00	621.00	699.00	742.00	764.00	704.00	667.00	722.00	778.00	797.00	751.00	676.00	625.00	584.00	546.00	578.00	625.00	654.00	619.00	578.00	528.00	508.00	492.00	471.00	465.00	472.00	487.00	500.00	532.00	566.00	553.00	529.00	586.00	633.00	724.00	772.00	725.00	623.00	561.00	510.00	467.00	441.00	447.00	495.00	552.00	560.00	604.00	610.00	626.00	670.00	708.00	712.00	648.00	598.00	566.00	476.00	484.00	487.00	491.00	503.00	557.00	597.00	640.00	656.00	592.00	625.00	684.00	750.00	791.00	782.00	722.00	672.00	636.00	727.00	772.00	758.00	748.00	672.00	640.00	700.00	757.00	793.00	688.00	640.00	633.00	664.00	743.00	842.00	890.00	872.00	826.00	870.00	806.00	739.00	692.00	688.00	723.00	725.00	763.00	794.00	751.00	724.00	682.00	678.00	714.00	761.00	795.00	844.00	829.00	841.00	809.00	777.00	745.00	712.00	686.00	663.00	652.00	658.00	705.00	698.00	668.00	632.00	596.00	597.00	626.00	654.00	693.00	769.00	769.00	796.00
677.00	670.00	772.00	754.00	731.00	712.00	684.00	630.00	652.00	674.00	708.00	747.00	709.00	683.00	663.00	598.00	597.00	605.00	606.00	601.00	576.00	582.00	607.00	635.00	665.00	694.00	719.00	729.00	711.00	643.00	653.00	634.00	612.00	621.00	627.00	636.00	642.00	656.00	687.00	710.00	735.00	740.00	706.00	718.00	756.00	779.00	791.00	846.00	882.00	959.00	1012.00	963.00	993.00	941.00	914.00	1041.00	1172.00	1147.00	1087.00	1029.00	977.00	980.00	1003.00	985.00	956.00	1062.00	1146.00	1217.00	1196.00	1121.00	1149.00	1099.00	1017.00	932.00	796.00	715.00	692.00	678.00	659.00	669.00	692.00	705.00	716.00	708.00	704.00	716.00	729.00	710.00	734.00	749.00	771.00	794.00	841.00	861.00	878.00	887.00	869.00	838.00	802.00	750.00	713.00	627.00	619.00	655.00	698.00	782.00	809.00	753.00	717.00	680.00	668.00	682.00	697.00	696.00	721.00	777.00	846.00	875.00	777.00	719.00	703.00	725.00	763.00	723.00	680.00	649.00	627.00	670.00	741.00	760.00	785.00	739.00	749.00	800.00	795.00	775.00	747.00	673.00	574.00	553.00	566.00	702.00	760.00	768.00	743.00	686.00	569.00	538.00	522.00	522.00	493.00	476.00	464.00	461.00	463.00	469.00	478.00	508.00	554.00	614.00	661.00	642.00	582.00	652.00	595.00	517.00	454.00	430.00	445.00	510.00	595.00	571.00	588.00	637.00	668.00	650.00	602.00	578.00	507.00	462.00	457.00	484.00	498.00	512.00	522.00	534.00	629.00	693.00	751.00	808.00	700.00	632.00	626.00	688.00	752.00	833.00	775.00	730.00	684.00	713.00	765.00	787.00	741.00	682.00	612.00	650.00	693.00	728.00	751.00	724.00	684.00	661.00	683.00	757.00	799.00	828.00	862.00	866.00	849.00	803.00	743.00	745.00	874.00	833.00	822.00	856.00	834.00	780.00	729.00	710.00	741.00	704.00	743.00	750.00	778.00	808.00	804.00	778.00	755.00	740.00	724.00	724.00	693.00	637.00	633.00	624.00	616.00	609.00	583.00	583.00	602.00	626.00	652.00	712.00	768.00	820.00
677.00	670.00	772.00	754.00	731.00	712.00	684.00	630.00	652.00	674.00	708.00	747.00	709.00	683.00	663.00	598.00	597.00	605.00	606.00	601.00	576.00	582.00	607.00	635.00	665.00	694.00	719.00	729.00	711.00	643.00	653.00	634.00	612.00	621.00	627.00	636.00	642.00	656.00	687.00	710.00	735.00	740.00	706.00	718.00	756.00	779.00	791.00	846.00	882.00	959.00	1012.00	963.00	993.00	941.00	914.00	1041.00	1172.00	1147.00	1087.00	1029.00	977.00	980.00	1003.00	985.00	956.00	1062.00	1146.00	1217.00	1196.00	1121.00	1149.00	1099.00	1017.00	932.00	796.00	715.00	692.00	678.00	659.00	669.00	692.00	705.00	716.00	708.00	704.00	716.00	729.00	710.00	734.00	749.00	771.00	794.00	841.00	861.00	878.00	887.00	869.00	838.00	802.00	750.00	713.00	627.00	619.00	655.00	698.00	782.00	809.00	753.00	717.00	680.00	668.00	682.00	697.00	696.00	721.00	777.00	846.00	875.00	777.00	719.00	703.00	725.00	763.00	723.00	680.00	649.00	627.00	670.00	741.00	760.00	785.00	739.00	749.00	800.00	795.00	775.00	747.00	673.00	574.00	553.00	566.00	702.00	760.00	768.00	743.00	686.00	569.00	538.00	522.00	522.00	493.00	476.00	464.00	461.00	463.00	469.00	478.00	508.00	554.00	614.00	661.00	642.00	582.00	652.00	595.00	517.00	454.00	430.00	445.00	510.00	595.00	571.00	588.00	637.00	668.00	650.00	602.00	578.00	507.00	462.00	457.00	484.00	498.00	512.00	522.00	534.00	629.00	693.00	751.00	808.00	700.00	632.00	626.00	688.00	752.00	833.00	775.00	730.00	684.00	713.00	765.00	787.00	741.00	682.00	612.00	650.00	693.00	728.00	751.00	724.00	684.00	661.00	683.00	757.00	799.00	828.00	862.00	866.00	849.00	803.00	743.00	745.00	874.00	833.00	822.00	856.00	834.00	780.00	729.00	710.00	741.00	704.00	743.00	750.00	778.00	808.00	804.00	778.00	755.00	740.00	724.00	724.00	693.00	637.00	633.00	624.00	616.00	609.00	583.00	583.00	602.00	626.00	652.00	712.00	768.00	820.00
634.00	654.00	748.00	708.00	673.00	673.00	668.00	611.00	630.00	658.00	684.00	705.00	678.00	666.00	643.00	612.00	592.00	581.00	575.00	575.00	566.00	587.00	609.00	642.00	682.00	696.00	691.00	681.00	668.00	609.00	594.00	598.00	607.00	649.00	656.00	649.00	646.00	675.00	757.00	774.00	786.00	815.00	828.00	817.00	767.00	805.00	860.00	860.00	863.00	915.00	976.00	1092.00	1144.00	1092.00	1026.00	1084.00	1244.00	1222.00	1170.00	1141.00	1100.00	1110.00	1153.00	1150.00	1115.00	1078.00	1156.00	1214.00	1191.00	1081.00	1013.00	982.00	986.00	995.00	858.00	773.00	820.00	820.00	701.00	666.00	661.00	650.00	642.00	637.00	646.00	660.00	676.00	720.00	765.00	794.00	835.00	873.00	927.00	926.00	892.00	866.00	826.00	821.00	789.00	742.00	706.00	640.00	609.00	631.00	684.00	785.00	816.00	777.00	749.00	710.00	646.00	668.00	690.00	708.00	762.00	808.00	841.00	868.00	842.00	809.00	790.00	808.00	805.00	711.00	695.00	702.00	688.00	676.00	790.00	819.00	860.00	856.00	804.00	820.00	809.00	771.00	719.00	612.00	583.00	620.00	645.00	739.00	756.00	723.00	686.00	652.00	615.00	633.00	654.00	617.00	522.00	499.00	511.00	538.00	496.00	475.00	461.00	453.00	450.00	481.00	495.00	498.00	487.00	539.00	531.00	486.00	448.00	431.00	446.00	506.00	647.00	661.00	659.00	691.00	676.00	619.00	551.00	449.00	439.00	449.00	467.00	504.00	542.00	592.00	659.00	665.00	601.00	641.00	708.00	786.00	850.00	775.00	694.00	658.00	693.00	818.00	819.00	789.00	736.00	790.00	743.00	748.00	712.00	681.00	626.00	633.00	702.00	769.00	784.00	799.00	781.00	773.00	723.00	715.00	737.00	785.00	854.00	963.00	931.00	871.00	842.00	860.00	977.00	939.00	933.00	953.00	927.00	878.00	838.00	813.00	814.00	788.00	796.00	838.00	849.00	781.00	730.00	700.00	684.00	681.00	658.00	650.00	645.00	641.00	598.00	585.00	584.00	582.00	569.00	584.00	605.00	630.00	646.00	751.00	803.00	848.00
634.00	654.00	748.00	708.00	673.00	673.00	668.00	611.00	630.00	658.00	684.00	705.00	678.00	666.00	643.00	612.00	592.00	581.00	575.00	575.00	566.00	587.00	609.00	642.00	682.00	696.00	691.00	681.00	668.00	609.00	594.00	598.00	607.00	649.00	656.00	649.00	646.00	675.00	757.00	774.00	786.00	815.00	828.00	817.00	767.00	805.00	860.00	860.00	863.00	915.00	976.00	1092.00	1144.00	1092.00	1026.00	1084.00	1244.00	1222.00	1170.00	1141.00	1100.00	1110.00	1153.00	1150.00	1115.00	1078.00	1156.00	1214.00	1191.00	1081.00	1013.00	982.00	986.00	995.00	858.00	773.00	820.00	820.00	701.00	666.00	661.00	650.00	642.00	637.00	646.00	660.00	676.00	720.00	765.00	794.00	835.00	873.00	927.00	926.00	892.00	866.00	826.00	821.00	789.00	742.00	706.00	640.00	609.00	631.00	684.00	785.00	816.00	777.00	749.00	710.00	646.00	668.00	690.00	708.00	762.00	808.00	841.00	868.00	842.00	809.00	790.00	808.00	805.00	711.00	695.00	702.00	688.00	676.00	790.00	819.00	860.00	856.00	804.00	820.00	809.00	771.00	719.00	612.00	583.00	620.00	645.00	739.00	756.00	723.00	686.00	652.00	615.00	633.00	654.00	617.00	522.00	499.00	511.00	538.00	496.00	475.00	461.00	453.00	450.00	481.00	495.00	498.00	487.00	539.00	531.00	486.00	448.00	431.00	446.00	506.00	647.00	661.00	659.00	691.00	676.00	619.00	551.00	449.00	439.00	449.00	467.00	504.00	542.00	592.00	659.00	665.00	601.00	641.00	708.00	786.00	850.00	775.00	694.00	658.00	693.00	818.00	819.00	789.00	736.00	790.00	743.00	748.00	712.00	681.00	626.00	633.00	702.00	769.00	784.00	799.00	781.00	773.00	723.00	715.00	737.00	785.00	854.00	963.00	931.00	871.00	842.00	860.00	977.00	939.00	933.00	953.00	927.00	878.00	838.00	813.00	814.00	788.00	796.00	838.00	849.00	781.00	730.00	700.00	684.00	681.00	658.00	650.00	645.00	641.00	598.00	585.00	584.00	582.00	569.00	584.00	605.00	630.00	646.00	751.00	803.00	848.00
684.00	709.00	768.00	732.00	693.00	662.00	639.00	594.00	598.00	620.00	640.00	647.00	635.00	625.00	611.00	593.00	596.00	587.00	571.00	561.00	569.00	595.00	624.00	677.00	698.00	694.00	664.00	627.00	594.00	591.00	597.00	611.00	628.00	683.00	691.00	679.00	668.00	672.00	705.00	724.00	762.00	794.00	863.00	913.00	854.00	821.00	881.00	986.00	966.00	961.00	1013.00	1113.00	1127.00	1118.00	1134.00	1214.00	1254.00	1169.00	1082.00	1025.00	1024.00	1089.00	1119.00	1078.00	1071.00	1066.00	1127.00	1164.00	1095.00	969.00	941.00	898.00	857.00	859.00	813.00	766.00	774.00	774.00	744.00	746.00	773.00	749.00	684.00	628.00	627.00	629.00	661.00	747.00	784.00	824.00	873.00	920.00	923.00	889.00	851.00	819.00	738.00	729.00	719.00	699.00	677.00	629.00	604.00	617.00	651.00	738.00	783.00	734.00	707.00	681.00	631.00	660.00	691.00	701.00	737.00	771.00	806.00	848.00	941.00	917.00	857.00	819.00	793.00	742.00	803.00	818.00	797.00	771.00	826.00	863.00	899.00	881.00	783.00	741.00	712.00	691.00	664.00	616.00	622.00	647.00	678.00	767.00	748.00	695.00	661.00	684.00	777.00	762.00	719.00	586.00	533.00	575.00	641.00	686.00	579.00	557.00	575.00	542.00	499.00	446.00	439.00	437.00	438.00	439.00	438.00	436.00	432.00	429.00	429.00	453.00	524.00	557.00	653.00	664.00	605.00	534.00	473.00	438.00	445.00	458.00	483.00	576.00	579.00	586.00	643.00	708.00	743.00	710.00	678.00	693.00	913.00	904.00	846.00	799.00	750.00	714.00	747.00	794.00	822.00	807.00	756.00	720.00	696.00	668.00	647.00	625.00	645.00	701.00	768.00	847.00	905.00	901.00	859.00	836.00	776.00	811.00	882.00	947.00	903.00	902.00	943.00	959.00	972.00	906.00	870.00	919.00	950.00	876.00	812.00	820.00	876.00	871.00	865.00	838.00	818.00	848.00	811.00	777.00	777.00	775.00	763.00	765.00	770.00	788.00	683.00	660.00	660.00	674.00	654.00	559.00	589.00	631.00	644.00	695.00	732.00	746.00
684.00	709.00	768.00	732.00	693.00	662.00	639.00	594.00	598.00	620.00	640.00	647.00	635.00	625.00	611.00	593.00	596.00	587.00	571.00	561.00	569.00	595.00	624.00	677.00	698.00	694.00	664.00	627.00	594.00	591.00	597.00	611.00	628.00	683.00	691.00	679.00	668.00	672.00	705.00	724.00	762.00	794.00	863.00	913.00	854.00	821.00	881.00	986.00	966.00	961.00	1013.00	1113.00	1127.00	1118.00	1134.00	1214.00	1254.00	1169.00	1082.00	1025.00	1024.00	1089.00	1119.00	1078.00	1071.00	1066.00	1127.00	1164.00	1095.00	969.00	941.00	898.00	857.00	859.00	813.00	766.00	774.00	774.00	744.00	746.00	773.00	749.00	684.00	628.00	627.00	629.00	661.00	747.00	784.00	824.00	873.00	920.00	923.00	889.00	851.00	819.00	738.00	729.00	719.00	699.00	677.00	629.00	604.00	617.00	651.00	738.00	783.00	734.00	707.00	681.00	631.00	660.00	691.00	701.00	737.00	771.00	806.00	848.00	941.00	917.00	857.00	819.00	793.00	742.00	803.00	818.00	797.00	771.00	826.00	863.00	899.00	881.00	783.00	741.00	712.00	691.00	664.00	616.00	622.00	647.00	678.00	767.00	748.00	695.00	661.00	684.00	777.00	762.00	719.00	586.00	533.00	575.00	641.00	686.00	579.00	557.00	575.00	542.00	499.00	446.00	439.00	437.00	438.00	439.00	438.00	436.00	432.00	429.00	429.00	453.00	524.00	557.00	653.00	664.00	605.00	534.00	473.00	438.00	445.00	458.00	483.00	576.00	579.00	586.00	643.00	708.00	743.00	710.00	678.00	693.00	913.00	904.00	846.00	799.00	750.00	714.00	747.00	794.00	822.00	807.00	756.00	720.00	696.00	668.00	647.00	625.00	645.00	701.00	768.00	847.00	905.00	901.00	859.00	836.00	776.00	811.00	882.00	947.00	903.00	902.00	943.00	959.00	972.00	906.00	870.00	919.00	950.00	876.00	812.00	820.00	876.00	871.00	865.00	838.00	818.00	848.00	811.00	777.00	777.00	775.00	763.00	765.00	770.00	788.00	683.00	660.00	660.00	674.00	654.00	559.00	589.00	631.00	644.00	695.00	732.00	746.00
676.00	708.00	765.00	757.00	741.00	700.00	666.00	621.00	596.00	581.00	591.00	595.00	620.00	626.00	616.00	580.00	569.00	564.00	564.00	558.00	580.00	605.00	631.00	669.00	660.00	637.00	609.00	586.00	585.00	605.00	608.00	611.00	621.00	661.00	684.00	702.00	721.00	735.00	721.00	730.00	756.00	758.00	805.00	858.00	908.00	861.00	890.00	990.00	1029.00	996.00	973.00	979.00	949.00	953.00	1016.00	1203.00	1154.00	1196.00	1197.00	1113.00	942.00	961.00	1033.00	1021.00	959.00	980.00	1034.00	1075.00	1130.00	1067.00	1000.00	945.00	905.00	876.00	893.00	888.00	898.00	906.00	894.00	838.00	806.00	769.00	729.00	651.00	631.00	619.00	628.00	713.00	764.00	829.00	888.00	924.00	913.00	874.00	829.00	794.00	773.00	740.00	711.00	699.00	671.00	628.00	610.00	595.00	600.00	672.00	705.00	694.00	667.00	636.00	653.00	715.00	750.00	751.00	767.00	825.00	888.00	923.00	904.00	879.00	938.00	964.00	920.00	816.00	861.00	922.00	891.00	817.00	850.00	875.00	867.00	830.00	782.00	754.00	697.00	642.00	654.00	748.00	665.00	654.00	685.00	753.00	741.00	736.00	718.00	706.00	679.00	643.00	602.00	579.00	614.00	678.00	742.00	779.00	701.00	691.00	691.00	643.00	610.00	524.00	499.00	479.00	463.00	436.00	431.00	428.00	427.00	427.00	427.00	434.00	533.00	553.00	559.00	551.00	488.00	441.00	440.00	459.00	467.00	489.00	526.00	688.00	732.00	714.00	699.00	702.00	750.00	819.00	869.00	825.00	802.00	900.00	954.00	903.00	828.00	750.00	735.00	737.00	771.00	788.00	806.00	747.00	693.00	684.00	758.00	718.00	655.00	648.00	774.00	849.00	906.00	886.00	908.00	948.00	875.00	867.00	924.00	873.00	798.00	755.00	772.00	793.00	845.00	794.00	751.00	789.00	781.00	768.00	804.00	848.00	888.00	881.00	869.00	811.00	759.00	837.00	809.00	786.00	830.00	860.00	829.00	790.00	806.00	824.00	756.00	729.00	708.00	687.00	654.00	583.00	555.00	565.00	612.00	670.00	666.00	645.00
676.00	708.00	765.00	757.00	741.00	700.00	666.00	621.00	596.00	581.00	591.00	595.00	620.00	626.00	616.00	580.00	569.00	564.00	564.00	558.00	580.00	605.00	631.00	669.00	660.00	637.00	609.00	586.00	585.00	605.00	608.00	611.00	621.00	661.00	684.00	702.00	721.00	735.00	721.00	730.00	756.00	758.00	805.00	858.00	908.00	861.00	890.00	990.00	1029.00	996.00	973.00	979.00	949.00	953.00	1016.00	1203.00	1154.00	1196.00	1197.00	1113.00	942.00	961.00	1033.00	1021.00	959.00	980.00	1034.00	1075.00	1130.00	1067.00	1000.00	945.00	905.00	876.00	893.00	888.00	898.00	906.00	894.00	838.00	806.00	769.00	729.00	651.00	631.00	619.00	628.00	713.00	764.00	829.00	888.00	924.00	913.00	874.00	829.00	794.00	773.00	740.00	711.00	699.00	671.00	628.00	610.00	595.00	600.00	672.00	705.00	694.00	667.00	636.00	653.00	715.00	750.00	751.00	767.00	825.00	888.00	923.00	904.00	879.00	938.00	964.00	920.00	816.00	861.00	922.00	891.00	817.00	850.00	875.00	867.00	830.00	782.00	754.00	697.00	642.00	654.00	748.00	665.00	654.00	685.00	753.00	741.00	736.00	718.00	706.00	679.00	643.00	602.00	579.00	614.00	678.00	742.00	779.00	701.00	691.00	691.00	643.00	610.00	524.00	499.00	479.00	463.00	436.00	431.00	428.00	427.00	427.00	427.00	434.00	533.00	553.00	559.00	551.00	488.00	441.00	440.00	459.00	467.00	489.00	526.00	688.00	732.00	714.00	699.00	702.00	750.00	819.00	869.00	825.00	802.00	900.00	954.00	903.00	828.00	750.00	735.00	737.00	771.00	788.00	806.00	747.00	693.00	684.00	758.00	718.00	655.00	648.00	774.00	849.00	906.00	886.00	908.00	948.00	875.00	867.00	924.00	873.00	798.00	755.00	772.00	793.00	845.00	794.00	751.00	789.00	781.00	768.00	804.00	848.00	888.00	881.00	869.00	811.00	759.00	837.00	809.00	786.00	830.00	860.00	829.00	790.00	806.00	824.00	756.00	729.00	708.00	687.00	654.00	583.00	555.00	565.00	612.00	670.00	666.00	645.00
700.00	746.00	696.00	688.00	713.00	723.00	708.00	639.00	610.00	579.00	562.00	579.00	624.00	638.00	629.00	579.00	558.00	546.00	547.00	559.00	618.00	636.00	643.00	630.00	590.00	575.00	570.00	576.00	587.00	630.00	642.00	647.00	658.00	655.00	668.00	681.00	703.00	735.00	797.00	780.00	821.00	861.00	864.00	901.00	904.00	882.00	905.00	882.00	916.00	897.00	850.00	863.00	893.00	948.00	983.00	1075.00	997.00	1050.00	1109.00	1124.00	968.00	882.00	905.00	978.00	975.00	869.00	939.00	1023.00	1109.00	1056.00	999.00	972.00	936.00	888.00	944.00	982.00	983.00	955.00	858.00	825.00	838.00	831.00	788.00	681.00	649.00	626.00	608.00	669.00	707.00	751.00	799.00	834.00	901.00	898.00	874.00	839.00	773.00	737.00	711.00	695.00	677.00	630.00	611.00	603.00	587.00	608.00	630.00	636.00	615.00	613.00	670.00	708.00	745.00	806.00	894.00	874.00	845.00	835.00	785.00	841.00	916.00	996.00	1048.00	964.00	970.00	992.00	923.00	882.00	842.00	797.00	745.00	728.00	700.00	664.00	660.00	697.00	750.00	778.00	711.00	751.00	770.00	736.00	699.00	690.00	675.00	659.00	618.00	643.00	662.00	689.00	671.00	710.00	751.00	737.00	652.00	655.00	648.00	612.00	573.00	539.00	533.00	515.00	492.00	463.00	451.00	442.00	436.00	432.00	424.00	424.00	471.00	545.00	518.00	445.00	432.00	438.00	454.00	487.00	508.00	518.00	531.00	622.00	664.00	701.00	721.00	721.00	800.00	842.00	868.00	898.00	917.00	964.00	978.00	927.00	904.00	846.00	822.00	823.00	845.00	836.00	785.00	800.00	769.00	750.00	765.00	742.00	699.00	652.00	731.00	785.00	806.00	791.00	817.00	928.00	962.00	962.00	924.00	856.00	801.00	721.00	682.00	681.00	683.00	678.00	657.00	645.00	733.00	794.00	804.00	778.00	789.00	824.00	780.00	730.00	707.00	814.00	779.00	735.00	774.00	820.00	789.00	727.00	719.00	748.00	804.00	783.00	741.00	701.00	662.00	584.00	545.00	539.00	563.00	558.00	553.00	550.00
735.00	745.00	660.00	635.00	655.00	683.00	690.00	642.00	613.00	584.00	559.00	568.00	616.00	614.00	592.00	549.00	537.00	541.00	566.00	592.00	607.00	599.00	589.00	567.00	559.00	565.00	576.00	593.00	608.00	655.00	669.00	675.00	686.00	720.00	725.00	751.00	770.00	787.00	783.00	794.00	838.00	843.00	852.00	883.00	850.00	796.00	800.00	807.00	808.00	810.00	806.00	837.00	860.00	876.00	889.00	942.00	975.00	939.00	926.00	942.00	947.00	887.00	834.00	825.00	855.00	799.00	860.00	927.00	955.00	895.00	842.00	813.00	798.00	755.00	784.00	793.00	780.00	772.00	742.00	710.00	705.00	707.00	696.00	652.00	641.00	630.00	600.00	623.00	654.00	687.00	716.00	778.00	896.00	917.00	903.00	872.00	751.00	722.00	691.00	678.00	670.00	647.00	626.00	605.00	586.00	566.00	579.00	594.00	631.00	691.00	744.00	776.00	776.00	788.00	860.00	831.00	765.00	721.00	765.00	925.00	950.00	979.00	964.00	928.00	970.00	1054.00	1049.00	1034.00	834.00	787.00	799.00	838.00	773.00	699.00	702.00	766.00	817.00	824.00	808.00	826.00	865.00	813.00	774.00	747.00	723.00	763.00	708.00	730.00	758.00	741.00	707.00	712.00	723.00	714.00	620.00	593.00	590.00	586.00	567.00	502.00	495.00	486.00	471.00	466.00	463.00	454.00	446.00	440.00	430.00	422.00	428.00	466.00	487.00	444.00	430.00	446.00	479.00	566.00	613.00	642.00	632.00	615.00	600.00	589.00	591.00	608.00	662.00	718.00	774.00	848.00	929.00	947.00	905.00	839.00	808.00	762.00	758.00	766.00	807.00	809.00	737.00	739.00	763.00	787.00	759.00	731.00	712.00	715.00	734.00	748.00	760.00	769.00	797.00	872.00	928.00	937.00	890.00	751.00	720.00	691.00	669.00	648.00	620.00	607.00	600.00	612.00	757.00	763.00	697.00	673.00	727.00	788.00	778.00	717.00	658.00	717.00	756.00	729.00	685.00	694.00	691.00	644.00	661.00	693.00	766.00	724.00	677.00	635.00	595.00	527.00	521.00	528.00	533.00	535.00	538.00	546.00
735.00	745.00	660.00	635.00	655.00	683.00	690.00	642.00	613.00	584.00	559.00	568.00	616.00	614.00	592.00	549.00	537.00	541.00	566.00	592.00	607.00	599.00	589.00	567.00	559.00	565.00	576.00	593.00	608.00	655.00	669.00	675.00	686.00	720.00	725.00	751.00	770.00	787.00	783.00	794.00	838.00	843.00	852.00	883.00	850.00	796.00	800.00	807.00	808.00	810.00	806.00	837.00	860.00	876.00	889.00	942.00	975.00	939.00	926.00	942.00	947.00	887.00	834.00	825.00	855.00	799.00	860.00	927.00	955.00	895.00	842.00	813.00	798.00	755.00	784.00	793.00	780.00	772.00	742.00	710.00	705.00	707.00	696.00	652.00	641.00	630.00	600.00	623.00	654.00	687.00	716.00	778.00	896.00	917.00	903.00	872.00	751.00	722.00	691.00	678.00	670.00	647.00	626.00	605.00	586.00	566.00	579.00	594.00	631.00	691.00	744.00	776.00	776.00	788.00	860.00	831.00	765.00	721.00	765.00	925.00	950.00	979.00	964.00	928.00	970.00	1054.00	1049.00	1034.00	834.00	787.00	799.00	838.00	773.00	699.00	702.00	766.00	817.00	824.00	808.00	826.00	865.00	813.00	774.00	747.00	723.00	763.00	708.00	730.00	758.00	741.00	707.00	712.00	723.00	714.00	620.00	593.00	590.00	586.00	567.00	502.00	495.00	486.00	471.00	466.00	463.00	454.00	446.00	440.00	430.00	422.00	428.00	466.00	487.00	444.00	430.00	446.00	479.00	566.00	613.00	642.00	632.00	615.00	600.00	589.00	591.00	608.00	662.00	718.00	774.00	848.00	929.00	947.00	905.00	839.00	808.00	762.00	758.00	766.00	807.00	809.00	737.00	739.00	763.00	787.00	759.00	731.00	712.00	715.00	734.00	748.00	760.00	769.00	797.00	872.00	928.00	937.00	890.00	751.00	720.00	691.00	669.00	648.00	620.00	607.00	600.00	612.00	757.00	763.00	697.00	673.00	727.00	788.00	778.00	717.00	658.00	717.00	756.00	729.00	685.00	694.00	691.00	644.00	661.00	693.00	766.00	724.00	677.00	635.00	595.00	527.00	521.00	528.00	533.00	535.00	538.00	546.00
735.00	745.00	660.00	635.00	655.00	683.00	690.00	642.00	613.00	584.00	559.00	568.00	616.00	614.00	592.00	549.00	537.00	541.00	566.00	592.00	607.00	599.00	589.00	567.00	559.00	565.00	576.00	593.00	608.00	655.00	669.00	675.00	686.00	720.00	725.00	751.00	770.00	787.00	783.00	794.00	838.00	843.00	852.00	883.00	850.00	796.00	800.00	807.00	808.00	810.00	806.00	837.00	860.00	876.00	889.00	942.00	975.00	939.00	926.00	942.00	947.00	887.00	834.00	825.00	855.00	799.00	860.00	927.00	955.00	895.00	842.00	813.00	798.00	755.00	784.00	793.00	780.00	772.00	742.00	710.00	705.00	707.00	696.00	652.00	641.00	630.00	600.00	623.00	654.00	687.00	716.00	778.00	896.00	917.00	903.00	872.00	751.00	722.00	691.00	678.00	670.00	647.00	626.00	605.00	586.00	566.00	579.00	594.00	631.00	691.00	744.00	776.00	776.00	788.00	860.00	831.00	765.00	721.00	765.00	925.00	950.00	979.00	964.00	928.00	970.00	1054.00	1049.00	1034.00	834.00	787.00	799.00	838.00	773.00	699.00	702.00	766.00	817.00	824.00	808.00	826.00	865.00	813.00	774.00	747.00	723.00	763.00	708.00	730.00	758.00	741.00	707.00	712.00	723.00	714.00	620.00	593.00	590.00	586.00	567.00	502.00	495.00	486.00	471.00	466.00	463.00	454.00	446.00	440.00	430.00	422.00	428.00	466.00	487.00	444.00	430.00	446.00	479.00	566.00	613.00	642.00	632.00	615.00	600.00	589.00	591.00	608.00	662.00	718.00	774.00	848.00	929.00	947.00	905.00	839.00	808.00	762.00	758.00	766.00	807.00	809.00	737.00	739.00	763.00	787.00	759.00	731.00	712.00	715.00	734.00	748.00	760.00	769.00	797.00	872.00	928.00	937.00	890.00	751.00	720.00	691.00	669.00	648.00	620.00	607.00	600.00	612.00	757.00	763.00	697.00	673.00	727.00	788.00	778.00	717.00	658.00	717.00	756.00	729.00	685.00	694.00	691.00	644.00	661.00	693.00	766.00	724.00	677.00	635.00	595.00	527.00	521.00	528.00	533.00	535.00	538.00	546.00
722.00	715.00	656.00	628.00	622.00	647.00	661.00	642.00	619.00	594.00	569.00	538.00	568.00	560.00	545.00	531.00	537.00	548.00	556.00	557.00	550.00	548.00	548.00	557.00	573.00	580.00	584.00	596.00	604.00	622.00	633.00	638.00	647.00	673.00	698.00	726.00	757.00	787.00	777.00	768.00	779.00	762.00	796.00	795.00	805.00	801.00	751.00	768.00	765.00	762.00	794.00	885.00	920.00	932.00	952.00	978.00	1039.00	1021.00	965.00	922.00	897.00	854.00	815.00	793.00	779.00	750.00	749.00	762.00	766.00	749.00	743.00	733.00	727.00	740.00	720.00	736.00	736.00	732.00	692.00	678.00	686.00	674.00	653.00	630.00	621.00	616.00	606.00	601.00	633.00	660.00	706.00	756.00	839.00	838.00	833.00	852.00	789.00	766.00	752.00	735.00	728.00	677.00	649.00	617.00	597.00	566.00	563.00	579.00	633.00	719.00	771.00	763.00	729.00	706.00	847.00	818.00	729.00	687.00	808.00	851.00	819.00	787.00	783.00	899.00	985.00	1019.00	965.00	948.00	945.00	920.00	895.00	850.00	772.00	795.00	800.00	778.00	814.00	877.00	874.00	829.00	815.00	776.00	815.00	852.00	844.00	850.00	803.00	764.00	719.00	666.00	636.00	629.00	618.00	622.00	591.00	563.00	536.00	522.00	517.00	498.00	509.00	520.00	524.00	522.00	514.00	489.00	464.00	451.00	443.00	433.00	429.00	429.00	435.00	436.00	439.00	441.00	452.00	480.00	513.00	545.00	570.00	742.00	771.00	759.00	718.00	724.00	815.00	837.00	883.00	896.00	757.00	798.00	820.00	781.00	730.00	655.00	656.00	670.00	713.00	784.00	737.00	681.00	729.00	758.00	739.00	718.00	741.00	763.00	778.00	798.00	800.00	774.00	760.00	814.00	865.00	867.00	865.00	755.00	709.00	718.00	718.00	716.00	651.00	623.00	608.00	606.00	614.00	614.00	601.00	621.00	663.00	692.00	687.00	677.00	627.00	632.00	673.00	691.00	673.00	664.00	589.00	590.00	619.00	642.00	649.00	612.00	570.00	541.00	517.00	518.00	521.00	525.00	532.00	552.00	569.00	588.00
690.00	670.00	654.00	635.00	601.00	620.00	671.00	693.00	658.00	651.00	646.00	571.00	524.00	525.00	526.00	532.00	533.00	533.00	534.00	534.00	541.00	548.00	560.00	587.00	602.00	614.00	633.00	647.00	635.00	640.00	682.00	703.00	679.00	704.00	737.00	768.00	793.00	803.00	745.00	699.00	699.00	744.00	792.00	762.00	714.00	715.00	708.00	739.00	754.00	765.00	769.00	796.00	820.00	843.00	868.00	929.00	1075.00	1109.00	1029.00	979.00	934.00	883.00	846.00	823.00	803.00	795.00	804.00	863.00	900.00	927.00	883.00	817.00	830.00	907.00	827.00	892.00	947.00	933.00	776.00	753.00	826.00	820.00	771.00	678.00	656.00	634.00	608.00	592.00	593.00	612.00	667.00	727.00	770.00	753.00	753.00	777.00	813.00	797.00	772.00	743.00	713.00	661.00	635.00	615.00	602.00	570.00	560.00	567.00	578.00	625.00	668.00	658.00	644.00	682.00	806.00	777.00	693.00	674.00	754.00	719.00	761.00	813.00	826.00	906.00	944.00	900.00	841.00	864.00	998.00	924.00	869.00	854.00	915.00	918.00	859.00	799.00	795.00	770.00	781.00	775.00	737.00	668.00	703.00	761.00	788.00	787.00	752.00	741.00	737.00	698.00	640.00	619.00	598.00	572.00	597.00	588.00	559.00	524.00	516.00	592.00	579.00	562.00	542.00	509.00	492.00	475.00	456.00	446.00	433.00	429.00	430.00	432.00	441.00	453.00	458.00	463.00	466.00	465.00	466.00	473.00	484.00	578.00	624.00	684.00	737.00	776.00	814.00	789.00	813.00	767.00	752.00	813.00	803.00	736.00	682.00	617.00	646.00	686.00	733.00	794.00	751.00	643.00	646.00	696.00	709.00	714.00	754.00	798.00	763.00	734.00	719.00	689.00	695.00	748.00	776.00	729.00	760.00	777.00	754.00	813.00	822.00	783.00	702.00	668.00	639.00	650.00	640.00	597.00	585.00	569.00	565.00	569.00	590.00	605.00	573.00	600.00	622.00	621.00	605.00	634.00	640.00	584.00	548.00	572.00	553.00	519.00	496.00	495.00	503.00	524.00	529.00	539.00	562.00	650.00	685.00	709.00
690.00	670.00	654.00	635.00	601.00	620.00	671.00	693.00	658.00	651.00	646.00	571.00	524.00	525.00	526.00	532.00	533.00	533.00	534.00	534.00	541.00	548.00	560.00	587.00	602.00	614.00	633.00	647.00	635.00	640.00	682.00	703.00	679.00	704.00	737.00	768.00	793.00	803.00	745.00	699.00	699.00	744.00	792.00	762.00	714.00	715.00	708.00	739.00	754.00	765.00	769.00	796.00	820.00	843.00	868.00	929.00	1075.00	1109.00	1029.00	979.00	934.00	883.00	846.00	823.00	803.00	795.00	804.00	863.00	900.00	927.00	883.00	817.00	830.00	907.00	827.00	892.00	947.00	933.00	776.00	753.00	826.00	820.00	771.00	678.00	656.00	634.00	608.00	592.00	593.00	612.00	667.00	727.00	770.00	753.00	753.00	777.00	813.00	797.00	772.00	743.00	713.00	661.00	635.00	615.00	602.00	570.00	560.00	567.00	578.00	625.00	668.00	658.00	644.00	682.00	806.00	777.00	693.00	674.00	754.00	719.00	761.00	813.00	826.00	906.00	944.00	900.00	841.00	864.00	998.00	924.00	869.00	854.00	915.00	918.00	859.00	799.00	795.00	770.00	781.00	775.00	737.00	668.00	703.00	761.00	788.00	787.00	752.00	741.00	737.00	698.00	640.00	619.00	598.00	572.00	597.00	588.00	559.00	524.00	516.00	592.00	579.00	562.00	542.00	509.00	492.00	475.00	456.00	446.00	433.00	429.00	430.00	432.00	441.00	453.00	458.00	463.00	466.00	465.00	466.00	473.00	484.00	578.00	624.00	684.00	737.00	776.00	814.00	789.00	813.00	767.00	752.00	813.00	803.00	736.00	682.00	617.00	646.00	686.00	733.00	794.00	751.00	643.00	646.00	696.00	709.00	714.00	754.00	798.00	763.00	734.00	719.00	689.00	695.00	748.00	776.00	729.00	760.00	777.00	754.00	813.00	822.00	783.00	702.00	668.00	639.00	650.00	640.00	597.00	585.00	569.00	565.00	569.00	590.00	605.00	573.00	600.00	622.00	621.00	605.00	634.00	640.00	584.00	548.00	572.00	553.00	519.00	496.00	495.00	503.00	524.00	529.00	539.00	562.00	650.00	685.00	709.00
677.00	668.00	595.00	589.00	595.00	637.00	678.00	650.00	602.00	583.00	573.00	524.00	514.00	518.00	522.00	534.00	546.00	560.00	566.00	573.00	568.00	573.00	591.00	625.00	673.00	695.00	709.00	721.00	718.00	653.00	701.00	748.00	757.00	759.00	750.00	777.00	811.00	802.00	721.00	674.00	665.00	701.00	706.00	687.00	686.00	713.00	734.00	785.00	828.00	852.00	830.00	846.00	852.00	857.00	875.00	932.00	1082.00	1150.00	1139.00	1157.00	1068.00	993.00	946.00	904.00	867.00	965.00	926.00	915.00	974.00	1039.00	948.00	863.00	886.00	975.00	892.00	931.00	1003.00	992.00	855.00	813.00	871.00	869.00	804.00	715.00	692.00	669.00	614.00	581.00	578.00	581.00	609.00	652.00	736.00	731.00	703.00	699.00	796.00	789.00	766.00	743.00	719.00	654.00	633.00	617.00	600.00	574.00	559.00	563.00	593.00	620.00	619.00	617.00	635.00	658.00	663.00	654.00	630.00	663.00	686.00	767.00	810.00	837.00	828.00	791.00	791.00	771.00	808.00	889.00	971.00	901.00	863.00	888.00	978.00	936.00	864.00	795.00	741.00	676.00	651.00	677.00	696.00	615.00	601.00	637.00	664.00	669.00	641.00	631.00	645.00	727.00	706.00	704.00	677.00	657.00	681.00	645.00	605.00	556.00	550.00	599.00	559.00	520.00	500.00	491.00	479.00	465.00	444.00	434.00	424.00	424.00	422.00	422.00	431.00	453.00	481.00	523.00	558.00	558.00	556.00	561.00	572.00	503.00	505.00	522.00	561.00	607.00	645.00	655.00	697.00	647.00	764.00	789.00	733.00	670.00	616.00	648.00	721.00	747.00	754.00	736.00	701.00	638.00	614.00	642.00	684.00	725.00	771.00	796.00	754.00	738.00	711.00	687.00	631.00	639.00	653.00	639.00	653.00	704.00	687.00	746.00	774.00	753.00	690.00	661.00	702.00	724.00	669.00	670.00	685.00	655.00	619.00	543.00	520.00	532.00	524.00	548.00	562.00	563.00	550.00	585.00	636.00	610.00	570.00	533.00	494.00	481.00	483.00	491.00	504.00	548.00	579.00	605.00	599.00	603.00	636.00	684.00
677.00	668.00	595.00	589.00	595.00	637.00	678.00	650.00	602.00	583.00	573.00	524.00	514.00	518.00	522.00	534.00	546.00	560.00	566.00	573.00	568.00	573.00	591.00	625.00	673.00	695.00	709.00	721.00	718.00	653.00	701.00	748.00	757.00	759.00	750.00	777.00	811.00	802.00	721.00	674.00	665.00	701.00	706.00	687.00	686.00	713.00	734.00	785.00	828.00	852.00	830.00	846.00	852.00	857.00	875.00	932.00	1082.00	1150.00	1139.00	1157.00	1068.00	993.00	946.00	904.00	867.00	965.00	926.00	915.00	974.00	1039.00	948.00	863.00	886.00	975.00	892.00	931.00	1003.00	992.00	855.00	813.00	871.00	869.00	804.00	715.00	692.00	669.00	614.00	581.00	578.00	581.00	609.00	652.00	736.00	731.00	703.00	699.00	796.00	789.00	766.00	743.00	719.00	654.00	633.00	617.00	600.00	574.00	559.00	563.00	593.00	620.00	619.00	617.00	635.00	658.00	663.00	654.00	630.00	663.00	686.00	767.00	810.00	837.00	828.00	791.00	791.00	771.00	808.00	889.00	971.00	901.00	863.00	888.00	978.00	936.00	864.00	795.00	741.00	676.00	651.00	677.00	696.00	615.00	601.00	637.00	664.00	669.00	641.00	631.00	645.00	727.00	706.00	704.00	677.00	657.00	681.00	645.00	605.00	556.00	550.00	599.00	559.00	520.00	500.00	491.00	479.00	465.00	444.00	434.00	424.00	424.00	422.00	422.00	431.00	453.00	481.00	523.00	558.00	558.00	556.00	561.00	572.00	503.00	505.00	522.00	561.00	607.00	645.00	655.00	697.00	647.00	764.00	789.00	733.00	670.00	616.00	648.00	721.00	747.00	754.00	736.00	701.00	638.00	614.00	642.00	684.00	725.00	771.00	796.00	754.00	738.00	711.00	687.00	631.00	639.00	653.00	639.00	653.00	704.00	687.00	746.00	774.00	753.00	690.00	661.00	702.00	724.00	669.00	670.00	685.00	655.00	619.00	543.00	520.00	532.00	524.00	548.00	562.00	563.00	550.00	585.00	636.00	610.00	570.00	533.00	494.00	481.00	483.00	491.00	504.00	548.00	579.00	605.00	599.00	603.00	636.00	684.00
642.00	640.00	591.00	566.00	578.00	617.00	633.00	634.00	664.00	649.00	584.00	505.00	519.00	536.00	566.00	593.00	599.00	632.00	669.00	673.00	675.00	629.00	608.00	629.00	680.00	698.00	716.00	724.00	734.00	728.00	759.00	755.00	721.00	688.00	708.00	759.00	812.00	834.00	746.00	682.00	643.00	636.00	654.00	679.00	747.00	767.00	777.00	796.00	810.00	816.00	804.00	773.00	785.00	825.00	888.00	927.00	1086.00	1185.00	1233.00	1171.00	1092.00	1026.00	992.00	998.00	1030.00	1115.00	1105.00	1061.00	1069.00	1085.00	1010.00	955.00	982.00	1051.00	993.00	943.00	976.00	1010.00	1001.00	937.00	911.00	900.00	852.00	755.00	740.00	716.00	618.00	579.00	571.00	572.00	578.00	609.00	698.00	734.00	721.00	679.00	759.00	783.00	786.00	765.00	737.00	678.00	660.00	638.00	605.00	561.00	554.00	564.00	604.00	609.00	599.00	644.00	668.00	642.00	588.00	588.00	596.00	614.00	664.00	688.00	703.00	699.00	710.00	772.00	802.00	850.00	877.00	918.00	981.00	895.00	804.00	756.00	862.00	880.00	848.00	832.00	796.00	764.00	703.00	687.00	638.00	567.00	559.00	560.00	573.00	585.00	570.00	575.00	603.00	663.00	649.00	668.00	650.00	648.00	726.00	706.00	647.00	594.00	579.00	568.00	548.00	559.00	568.00	534.00	510.00	478.00	449.00	427.00	420.00	421.00	420.00	418.00	426.00	448.00	489.00	536.00	574.00	648.00	674.00	694.00	690.00	645.00	609.00	586.00	553.00	522.00	529.00	551.00	569.00	563.00	659.00	648.00	628.00	600.00	575.00	633.00	690.00	689.00	646.00	639.00	623.00	616.00	638.00	661.00	721.00	755.00	773.00	753.00	758.00	806.00	802.00	747.00	709.00	644.00	604.00	585.00	611.00	670.00	645.00	628.00	673.00	694.00	748.00	723.00	749.00	752.00	666.00	646.00	626.00	611.00	591.00	559.00	563.00	505.00	500.00	514.00	515.00	511.00	522.00	551.00	598.00	599.00	585.00	545.00	473.00	479.00	487.00	502.00	514.00	566.00	602.00	620.00	644.00	679.00	646.00	621.00
642.00	640.00	591.00	566.00	578.00	617.00	633.00	634.00	664.00	649.00	584.00	505.00	519.00	536.00	566.00	593.00	599.00	632.00	669.00	673.00	675.00	629.00	608.00	629.00	680.00	698.00	716.00	724.00	734.00	728.00	759.00	755.00	721.00	688.00	708.00	759.00	812.00	834.00	746.00	682.00	643.00	636.00	654.00	679.00	747.00	767.00	777.00	796.00	810.00	816.00	804.00	773.00	785.00	825.00	888.00	927.00	1086.00	1185.00	1233.00	1171.00	1092.00	1026.00	992.00	998.00	1030.00	1115.00	1105.00	1061.00	1069.00	1085.00	1010.00	955.00	982.00	1051.00	993.00	943.00	976.00	1010.00	1001.00	937.00	911.00	900.00	852.00	755.00	740.00	716.00	618.00	579.00	571.00	572.00	578.00	609.00	698.00	734.00	721.00	679.00	759.00	783.00	786.00	765.00	737.00	678.00	660.00	638.00	605.00	561.00	554.00	564.00	604.00	609.00	599.00	644.00	668.00	642.00	588.00	588.00	596.00	614.00	664.00	688.00	703.00	699.00	710.00	772.00	802.00	850.00	877.00	918.00	981.00	895.00	804.00	756.00	862.00	880.00	848.00	832.00	796.00	764.00	703.00	687.00	638.00	567.00	559.00	560.00	573.00	585.00	570.00	575.00	603.00	663.00	649.00	668.00	650.00	648.00	726.00	706.00	647.00	594.00	579.00	568.00	548.00	559.00	568.00	534.00	510.00	478.00	449.00	427.00	420.00	421.00	420.00	418.00	426.00	448.00	489.00	536.00	574.00	648.00	674.00	694.00	690.00	645.00	609.00	586.00	553.00	522.00	529.00	551.00	569.00	563.00	659.00	648.00	628.00	600.00	575.00	633.00	690.00	689.00	646.00	639.00	623.00	616.00	638.00	661.00	721.00	755.00	773.00	753.00	758.00	806.00	802.00	747.00	709.00	644.00	604.00	585.00	611.00	670.00	645.00	628.00	673.00	694.00	748.00	723.00	749.00	752.00	666.00	646.00	626.00	611.00	591.00	559.00	563.00	505.00	500.00	514.00	515.00	511.00	522.00	551.00	598.00	599.00	585.00	545.00	473.00	479.00	487.00	502.00	514.00	566.00	602.00	620.00	644.00	679.00	646.00	621.00
608.00	624.00	633.00	582.00	551.00	550.00	560.00	615.00	657.00	627.00	555.00	507.00	530.00	551.00	589.00	641.00	632.00	646.00	661.00	637.00	694.00	695.00	688.00	685.00	709.00	692.00	669.00	660.00	687.00	728.00	735.00	729.00	694.00	691.00	716.00	712.00	727.00	761.00	712.00	659.00	625.00	631.00	682.00	692.00	712.00	730.00	739.00	758.00	771.00	757.00	734.00	779.00	815.00	836.00	867.00	933.00	1008.00	1056.00	1112.00	1104.00	974.00	941.00	989.00	1075.00	1151.00	1043.00	1011.00	972.00	942.00	1042.00	1045.00	1023.00	1014.00	1008.00	972.00	822.00	820.00	866.00	988.00	962.00	883.00	823.00	787.00	732.00	683.00	663.00	635.00	590.00	572.00	564.00	567.00	575.00	663.00	704.00	717.00	688.00	697.00	735.00	775.00	783.00	752.00	683.00	652.00	616.00	590.00	552.00	542.00	552.00	566.00	563.00	570.00	573.00	568.00	569.00	599.00	614.00	624.00	635.00	723.00	812.00	866.00	869.00	832.00	867.00	835.00	887.00	897.00	876.00	973.00	907.00	841.00	782.00	713.00	709.00	735.00	766.00	805.00	821.00	804.00	743.00	672.00	589.00	578.00	585.00	566.00	542.00	526.00	538.00	581.00	640.00	569.00	555.00	599.00	646.00	716.00	713.00	682.00	678.00	687.00	572.00	549.00	551.00	565.00	591.00	557.00	499.00	444.00	425.00	420.00	419.00	419.00	419.00	419.00	438.00	473.00	507.00	543.00	609.00	635.00	664.00	683.00	738.00	701.00	679.00	625.00	573.00	610.00	574.00	533.00	524.00	578.00	572.00	565.00	563.00	567.00	578.00	590.00	600.00	592.00	598.00	633.00	689.00	692.00	696.00	687.00	681.00	675.00	690.00	790.00	799.00	759.00	700.00	646.00	660.00	636.00	601.00	575.00	643.00	651.00	618.00	602.00	641.00	729.00	749.00	760.00	738.00	662.00	639.00	630.00	616.00	595.00	621.00	626.00	550.00	522.00	493.00	482.00	488.00	505.00	520.00	520.00	508.00	491.00	475.00	468.00	481.00	492.00	509.00	528.00	563.00	563.00	569.00	595.00	709.00	733.00	693.00
579.00	591.00	642.00	634.00	621.00	564.00	535.00	561.00	575.00	555.00	516.00	512.00	521.00	528.00	538.00	553.00	554.00	560.00	561.00	571.00	635.00	636.00	627.00	687.00	718.00	671.00	621.00	630.00	666.00	658.00	650.00	674.00	667.00	675.00	675.00	653.00	643.00	640.00	621.00	616.00	630.00	643.00	651.00	645.00	667.00	688.00	685.00	682.00	684.00	673.00	681.00	718.00	723.00	737.00	785.00	854.00	859.00	912.00	972.00	1006.00	999.00	929.00	887.00	944.00	1021.00	979.00	950.00	900.00	869.00	959.00	984.00	928.00	864.00	890.00	1016.00	876.00	809.00	775.00	822.00	867.00	881.00	842.00	839.00	850.00	803.00	760.00	689.00	605.00	574.00	559.00	557.00	559.00	632.00	683.00	692.00	663.00	697.00	740.00	772.00	784.00	779.00	727.00	692.00	643.00	594.00	534.00	535.00	578.00	617.00	649.00	643.00	611.00	603.00	601.00	585.00	586.00	593.00	609.00	672.00	774.00	842.00	923.00	966.00	827.00	748.00	744.00	804.00	886.00	972.00	908.00	846.00	794.00	732.00	682.00	644.00	638.00	662.00	716.00	752.00	734.00	713.00	680.00	653.00	633.00	607.00	584.00	550.00	544.00	524.00	541.00	511.00	521.00	566.00	624.00	746.00	782.00	788.00	800.00	809.00	622.00	572.00	525.00	494.00	497.00	482.00	453.00	431.00	422.00	419.00	419.00	418.00	417.00	419.00	432.00	449.00	466.00	484.00	520.00	530.00	539.00	570.00	715.00	678.00	616.00	602.00	649.00	697.00	645.00	605.00	559.00	638.00	678.00	676.00	664.00	683.00	630.00	668.00	684.00	649.00	622.00	621.00	609.00	611.00	631.00	654.00	647.00	664.00	716.00	746.00	703.00	686.00	685.00	664.00	640.00	616.00	596.00	566.00	588.00	599.00	590.00	575.00	609.00	645.00	657.00	672.00	684.00	655.00	648.00	686.00	719.00	712.00	653.00	646.00	632.00	634.00	570.00	518.00	487.00	478.00	483.00	473.00	463.00	459.00	460.00	477.00	492.00	505.00	529.00	557.00	612.00	630.00	641.00	631.00	685.00	747.00	778.00
579.00	591.00	642.00	634.00	621.00	564.00	535.00	561.00	575.00	555.00	516.00	512.00	521.00	528.00	538.00	553.00	554.00	560.00	561.00	571.00	635.00	636.00	627.00	687.00	718.00	671.00	621.00	630.00	666.00	658.00	650.00	674.00	667.00	675.00	675.00	653.00	643.00	640.00	621.00	616.00	630.00	643.00	651.00	645.00	667.00	688.00	685.00	682.00	684.00	673.00	681.00	718.00	723.00	737.00	785.00	854.00	859.00	912.00	972.00	1006.00	999.00	929.00	887.00	944.00	1021.00	979.00	950.00	900.00	869.00	959.00	984.00	928.00	864.00	890.00	1016.00	876.00	809.00	775.00	822.00	867.00	881.00	842.00	839.00	850.00	803.00	760.00	689.00	605.00	574.00	559.00	557.00	559.00	632.00	683.00	692.00	663.00	697.00	740.00	772.00	784.00	779.00	727.00	692.00	643.00	594.00	534.00	535.00	578.00	617.00	649.00	643.00	611.00	603.00	601.00	585.00	586.00	593.00	609.00	672.00	774.00	842.00	923.00	966.00	827.00	748.00	744.00	804.00	886.00	972.00	908.00	846.00	794.00	732.00	682.00	644.00	638.00	662.00	716.00	752.00	734.00	713.00	680.00	653.00	633.00	607.00	584.00	550.00	544.00	524.00	541.00	511.00	521.00	566.00	624.00	746.00	782.00	788.00	800.00	809.00	622.00	572.00	525.00	494.00	497.00	482.00	453.00	431.00	422.00	419.00	419.00	418.00	417.00	419.00	432.00	449.00	466.00	484.00	520.00	530.00	539.00	570.00	715.00	678.00	616.00	602.00	649.00	697.00	645.00	605.00	559.00	638.00	678.00	676.00	664.00	683.00	630.00	668.00	684.00	649.00	622.00	621.00	609.00	611.00	631.00	654.00	647.00	664.00	716.00	746.00	703.00	686.00	685.00	664.00	640.00	616.00	596.00	566.00	588.00	599.00	590.00	575.00	609.00	645.00	657.00	672.00	684.00	655.00	648.00	686.00	719.00	712.00	653.00	646.00	632.00	634.00	570.00	518.00	487.00	478.00	483.00	473.00	463.00	459.00	460.00	477.00	492.00	505.00	529.00	557.00	612.00	630.00	641.00	631.00	685.00	747.00	778.00
579.00	591.00	642.00	634.00	621.00	564.00	535.00	561.00	575.00	555.00	516.00	512.00	521.00	528.00	538.00	553.00	554.00	560.00	561.00	571.00	635.00	636.00	627.00	687.00	718.00	671.00	621.00	630.00	666.00	658.00	650.00	674.00	667.00	675.00	675.00	653.00	643.00	640.00	621.00	616.00	630.00	643.00	651.00	645.00	667.00	688.00	685.00	682.00	684.00	673.00	681.00	718.00	723.00	737.00	785.00	854.00	859.00	912.00	972.00	1006.00	999.00	929.00	887.00	944.00	1021.00	979.00	950.00	900.00	869.00	959.00	984.00	928.00	864.00	890.00	1016.00	876.00	809.00	775.00	822.00	867.00	881.00	842.00	839.00	850.00	803.00	760.00	689.00	605.00	574.00	559.00	557.00	559.00	632.00	683.00	692.00	663.00	697.00	740.00	772.00	784.00	779.00	727.00	692.00	643.00	594.00	534.00	535.00	578.00	617.00	649.00	643.00	611.00	603.00	601.00	585.00	586.00	593.00	609.00	672.00	774.00	842.00	923.00	966.00	827.00	748.00	744.00	804.00	886.00	972.00	908.00	846.00	794.00	732.00	682.00	644.00	638.00	662.00	716.00	752.00	734.00	713.00	680.00	653.00	633.00	607.00	584.00	550.00	544.00	524.00	541.00	511.00	521.00	566.00	624.00	746.00	782.00	788.00	800.00	809.00	622.00	572.00	525.00	494.00	497.00	482.00	453.00	431.00	422.00	419.00	419.00	418.00	417.00	419.00	432.00	449.00	466.00	484.00	520.00	530.00	539.00	570.00	715.00	678.00	616.00	602.00	649.00	697.00	645.00	605.00	559.00	638.00	678.00	676.00	664.00	683.00	630.00	668.00	684.00	649.00	622.00	621.00	609.00	611.00	631.00	654.00	647.00	664.00	716.00	746.00	703.00	686.00	685.00	664.00	640.00	616.00	596.00	566.00	588.00	599.00	590.00	575.00	609.00	645.00	657.00	672.00	684.00	655.00	648.00	686.00	719.00	712.00	653.00	646.00	632.00	634.00	570.00	518.00	487.00	478.00	483.00	473.00	463.00	459.00	460.00	477.00	492.00	505.00	529.00	557.00	612.00	630.00	641.00	631.00	685.00	747.00	778.00
584.00	543.00	629.00	643.00	629.00	607.00	568.00	511.00	513.00	502.00	491.00	499.00	502.00	502.00	505.00	508.00	514.00	517.00	520.00	529.00	546.00	553.00	561.00	590.00	626.00	613.00	584.00	591.00	610.00	605.00	597.00	622.00	617.00	627.00	620.00	609.00	604.00	603.00	601.00	617.00	617.00	611.00	616.00	630.00	633.00	641.00	660.00	687.00	675.00	701.00	721.00	686.00	692.00	719.00	753.00	834.00	788.00	800.00	819.00	837.00	903.00	885.00	824.00	826.00	869.00	877.00	912.00	891.00	821.00	887.00	928.00	868.00	801.00	851.00	1001.00	995.00	944.00	892.00	773.00	737.00	737.00	731.00	765.00	856.00	817.00	760.00	672.00	618.00	584.00	569.00	555.00	553.00	587.00	644.00	686.00	675.00	666.00	715.00	763.00	762.00	708.00	634.00	610.00	577.00	548.00	528.00	556.00	609.00	627.00	646.00	686.00	693.00	704.00	688.00	656.00	635.00	602.00	588.00	622.00	703.00	776.00	863.00	925.00	807.00	741.00	705.00	781.00	835.00	924.00	941.00	880.00	835.00	803.00	752.00	691.00	647.00	617.00	624.00	663.00	663.00	651.00	611.00	590.00	568.00	547.00	534.00	518.00	514.00	503.00	485.00	495.00	526.00	563.00	597.00	671.00	660.00	666.00	696.00	743.00	727.00	675.00	603.00	538.00	484.00	488.00	466.00	433.00	415.00	415.00	415.00	417.00	416.00	416.00	441.00	466.00	486.00	506.00	546.00	559.00	573.00	613.00	749.00	760.00	749.00	710.00	737.00	722.00	730.00	721.00	671.00	560.00	589.00	630.00	652.00	709.00	728.00	743.00	741.00	713.00	705.00	696.00	694.00	661.00	677.00	728.00	707.00	683.00	696.00	691.00	654.00	635.00	627.00	645.00	695.00	697.00	672.00	629.00	552.00	564.00	566.00	608.00	661.00	590.00	621.00	651.00	676.00	631.00	591.00	627.00	680.00	680.00	613.00	636.00	700.00	689.00	627.00	586.00	537.00	480.00	456.00	453.00	455.00	462.00	470.00	517.00	552.00	587.00	624.00	650.00	705.00	726.00	753.00	738.00	780.00	763.00	765.00
594.00	553.00	573.00	575.00	565.00	545.00	523.00	492.00	490.00	488.00	489.00	512.00	571.00	592.00	581.00	548.00	544.00	552.00	549.00	538.00	523.00	523.00	525.00	536.00	551.00	553.00	550.00	554.00	555.00	560.00	562.00	569.00	568.00	580.00	581.00	581.00	582.00	585.00	617.00	636.00	641.00	639.00	703.00	757.00	700.00	665.00	689.00	771.00	785.00	784.00	821.00	783.00	738.00	722.00	743.00	828.00	803.00	762.00	744.00	751.00	786.00	805.00	789.00	764.00	781.00	773.00	803.00	814.00	770.00	823.00	827.00	769.00	775.00	858.00	938.00	905.00	953.00	953.00	844.00	836.00	791.00	729.00	679.00	747.00	787.00	807.00	735.00	668.00	628.00	589.00	559.00	547.00	551.00	587.00	640.00	680.00	602.00	643.00	691.00	712.00	698.00	606.00	565.00	537.00	520.00	567.00	573.00	608.00	694.00	754.00	730.00	721.00	753.00	791.00	753.00	707.00	655.00	607.00	592.00	657.00	739.00	827.00	865.00	846.00	767.00	677.00	701.00	770.00	934.00	955.00	892.00	830.00	737.00	700.00	667.00	648.00	619.00	561.00	568.00	574.00	574.00	543.00	539.00	534.00	530.00	558.00	528.00	536.00	541.00	491.00	471.00	469.00	484.00	502.00	535.00	533.00	576.00	622.00	656.00	713.00	680.00	620.00	579.00	573.00	531.00	476.00	432.00	413.00	413.00	415.00	414.00	413.00	415.00	433.00	479.00	516.00	538.00	528.00	513.00	536.00	573.00	633.00	707.00	727.00	686.00	698.00	745.00	703.00	658.00	623.00	668.00	617.00	591.00	586.00	612.00	731.00	788.00	837.00	836.00	826.00	828.00	811.00	729.00	703.00	808.00	811.00	770.00	738.00	695.00	662.00	642.00	629.00	587.00	604.00	616.00	614.00	603.00	539.00	540.00	593.00	646.00	666.00	601.00	654.00	697.00	732.00	651.00	599.00	568.00	580.00	586.00	570.00	605.00	631.00	610.00	529.00	490.00	459.00	450.00	451.00	461.00	468.00	478.00	494.00	543.00	588.00	627.00	634.00	627.00	671.00	718.00	690.00	641.00	765.00	744.00	678.00
594.00	553.00	573.00	575.00	565.00	545.00	523.00	492.00	490.00	488.00	489.00	512.00	571.00	592.00	581.00	548.00	544.00	552.00	549.00	538.00	523.00	523.00	525.00	536.00	551.00	553.00	550.00	554.00	555.00	560.00	562.00	569.00	568.00	580.00	581.00	581.00	582.00	585.00	617.00	636.00	641.00	639.00	703.00	757.00	700.00	665.00	689.00	771.00	785.00	784.00	821.00	783.00	738.00	722.00	743.00	828.00	803.00	762.00	744.00	751.00	786.00	805.00	789.00	764.00	781.00	773.00	803.00	814.00	770.00	823.00	827.00	769.00	775.00	858.00	938.00	905.00	953.00	953.00	844.00	836.00	791.00	729.00	679.00	747.00	787.00	807.00	735.00	668.00	628.00	589.00	559.00	547.00	551.00	587.00	640.00	680.00	602.00	643.00	691.00	712.00	698.00	606.00	565.00	537.00	520.00	567.00	573.00	608.00	694.00	754.00	730.00	721.00	753.00	791.00	753.00	707.00	655.00	607.00	592.00	657.00	739.00	827.00	865.00	846.00	767.00	677.00	701.00	770.00	934.00	955.00	892.00	830.00	737.00	700.00	667.00	648.00	619.00	561.00	568.00	574.00	574.00	543.00	539.00	534.00	530.00	558.00	528.00	536.00	541.00	491.00	471.00	469.00	484.00	502.00	535.00	533.00	576.00	622.00	656.00	713.00	680.00	620.00	579.00	573.00	531.00	476.00	432.00	413.00	413.00	415.00	414.00	413.00	415.00	433.00	479.00	516.00	538.00	528.00	513.00	536.00	573.00	633.00	707.00	727.00	686.00	698.00	745.00	703.00	658.00	623.00	668.00	617.00	591.00	586.00	612.00	731.00	788.00	837.00	836.00	826.00	828.00	811.00	729.00	703.00	808.00	811.00	770.00	738.00	695.00	662.00	642.00	629.00	587.00	604.00	616.00	614.00	603.00	539.00	540.00	593.00	646.00	666.00	601.00	654.00	697.00	732.00	651.00	599.00	568.00	580.00	586.00	570.00	605.00	631.00	610.00	529.00	490.00	459.00	450.00	451.00	461.00	468.00	478.00	494.00	543.00	588.00	627.00	634.00	627.00	671.00	718.00	690.00	641.00	765.00	744.00	678.00
