803.00	820.00	858.00	769.00	740.00	733.00	728.00	728.00	726.00	727.00	728.00	735.00	758.00	769.00	820.00	822.00	814.00	845.00	856.00	868.00	886.00	885.00	876.00	849.00	925.00	796.00	775.00	829.00	910.00	1002.00	844.00	843.00	845.00	840.00	830.00	863.00	858.00	858.00	865.00	935.00	978.00	969.00	1025.00	1027.00	948.00	877.00	879.00	860.00	752.00	742.00	727.00	718.00	710.00	703.00	697.00	692.00	684.00	670.00	662.00	658.00	660.00	662.00	664.00	658.00	653.00	648.00	625.00	625.00	622.00	613.00	596.00	587.00	576.00	570.00	568.00	561.00	560.00	560.00	563.00	609.00	656.00	594.00	564.00	550.00	531.00	530.00	520.00	502.00	483.00	475.00	471.00	468.00	470.00	461.00	447.00	437.00	446.00	480.00	509.00	536.00	561.00	537.00	569.00	630.00	643.00	644.00	639.00	629.00	569.00	602.00	551.00	556.00	537.00	502.00	489.00	476.00	471.00	467.00	461.00	457.00	450.00	444.00	439.00	437.00	430.00	428.00	427.00	425.00	423.00	419.00	418.00	416.00	416.00	413.00	412.00	410.00	409.00	407.00	402.00	400.00	400.00	399.00	398.00	395.00	391.00	389.00	388.00	384.00	383.00	383.00	398.00	426.00	396.00	391.00	387.00	388.00	400.00	407.00	406.00	407.00	397.00	399.00	402.00	398.00	394.00	388.00	365.00	352.00	345.00	335.00	331.00	328.00	326.00	327.00	326.00	324.00	321.00	315.00	308.00	305.00	300.00	298.00	291.00	289.00	287.00	285.00	284.00	284.00	281.00	276.00	274.00	273.00	271.00	271.00	272.00	269.00	269.00	269.00	267.00	266.00	265.00	264.00	259.00	255.00	252.00	251.00	249.00	245.00	242.00	244.00	242.00	241.00	241.00	243.00	237.00	236.00	231.00	228.00	225.00	226.00	228.00	227.00	227.00	224.00	224.00	222.00	220.00	216.00	215.00	213.00	210.00	207.00	199.00	200.00	200.00	200.00	199.00	197.00	198.00	196.00	195.00	196.00	200.00	202.00	202.00	205.00	204.00	203.00	201.00	200.00	199.00	197.00	197.00	197.00	190.00	187.00
804.00	833.00	839.00	774.00	747.00	730.00	724.00	723.00	723.00	725.00	728.00	735.00	750.00	763.00	801.00	801.00	811.00	866.00	882.00	889.00	898.00	900.00	882.00	848.00	818.00	768.00	797.00	886.00	1003.00	1095.00	896.00	888.00	875.00	865.00	847.00	847.00	845.00	850.00	870.00	938.00	1039.00	1018.00	1065.00	1074.00	1005.00	921.00	873.00	793.00	744.00	730.00	720.00	711.00	707.00	701.00	696.00	690.00	683.00	671.00	666.00	658.00	653.00	656.00	658.00	654.00	643.00	643.00	618.00	617.00	617.00	606.00	589.00	591.00	583.00	572.00	565.00	564.00	542.00	553.00	567.00	591.00	602.00	581.00	558.00	553.00	527.00	531.00	524.00	505.00	489.00	489.00	483.00	477.00	467.00	451.00	443.00	435.00	431.00	460.00	468.00	470.00	467.00	476.00	518.00	620.00	637.00	642.00	642.00	636.00	589.00	611.00	586.00	519.00	512.00	501.00	492.00	486.00	480.00	475.00	469.00	464.00	458.00	451.00	444.00	437.00	432.00	428.00	428.00	426.00	423.00	420.00	418.00	417.00	415.00	414.00	412.00	412.00	411.00	406.00	403.00	398.00	398.00	398.00	400.00	398.00	394.00	389.00	389.00	385.00	384.00	384.00	408.00	429.00	398.00	392.00	389.00	395.00	408.00	411.00	412.00	410.00	402.00	399.00	400.00	396.00	386.00	385.00	361.00	352.00	346.00	336.00	332.00	331.00	331.00	331.00	329.00	326.00	320.00	314.00	308.00	305.00	301.00	296.00	292.00	289.00	286.00	286.00	283.00	282.00	279.00	275.00	274.00	276.00	273.00	271.00	271.00	271.00	269.00	269.00	267.00	267.00	265.00	262.00	257.00	252.00	249.00	246.00	246.00	244.00	243.00	244.00	241.00	243.00	244.00	242.00	236.00	234.00	230.00	228.00	228.00	229.00	231.00	230.00	228.00	221.00	222.00	222.00	221.00	218.00	215.00	213.00	210.00	207.00	201.00	198.00	199.00	198.00	199.00	196.00	196.00	194.00	192.00	196.00	198.00	199.00	200.00	204.00	201.00	199.00	199.00	197.00	196.00	196.00	195.00	194.00	187.00	185.00
806.00	834.00	840.00	823.00	784.00	743.00	734.00	728.00	715.00	715.00	720.00	725.00	742.00	752.00	770.00	783.00	812.00	997.00	1004.00	948.00	967.00	929.00	908.00	891.00	799.00	778.00	821.00	882.00	808.00	858.00	992.00	1118.00	967.00	900.00	865.00	831.00	840.00	854.00	871.00	953.00	985.00	1001.00	1103.00	1140.00	962.00	827.00	797.00	773.00	735.00	717.00	707.00	704.00	695.00	693.00	692.00	688.00	677.00	667.00	664.00	655.00	648.00	644.00	646.00	649.00	637.00	625.00	620.00	611.00	600.00	596.00	577.00	574.00	578.00	572.00	576.00	548.00	534.00	533.00	555.00	563.00	582.00	568.00	566.00	536.00	518.00	510.00	518.00	509.00	495.00	483.00	475.00	466.00	465.00	465.00	458.00	448.00	446.00	424.00	436.00	433.00	442.00	454.00	592.00	614.00	625.00	585.00	634.00	633.00	624.00	615.00	611.00	583.00	509.00	519.00	504.00	508.00	505.00	494.00	482.00	482.00	491.00	466.00	456.00	447.00	439.00	433.00	430.00	427.00	425.00	420.00	418.00	417.00	417.00	414.00	413.00	411.00	412.00	411.00	407.00	402.00	400.00	398.00	399.00	397.00	394.00	394.00	389.00	387.00	387.00	390.00	442.00	408.00	401.00	397.00	393.00	395.00	408.00	410.00	411.00	407.00	402.00	396.00	391.00	386.00	378.00	382.00	361.00	357.00	361.00	344.00	338.00	338.00	342.00	339.00	331.00	324.00	316.00	309.00	300.00	296.00	291.00	287.00	289.00	288.00	285.00	281.00	281.00	276.00	274.00	276.00	277.00	274.00	269.00	269.00	267.00	266.00	269.00	270.00	269.00	267.00	264.00	262.00	256.00	249.00	246.00	243.00	246.00	244.00	240.00	242.00	237.00	238.00	240.00	236.00	234.00	232.00	232.00	232.00	233.00	233.00	234.00	234.00	232.00	222.00	219.00	217.00	218.00	218.00	217.00	213.00	211.00	206.00	199.00	196.00	197.00	195.00	193.00	192.00	193.00	191.00	189.00	191.00	193.00	195.00	197.00	200.00	198.00	194.00	191.00	191.00	191.00	190.00	190.00	191.00	192.00	187.00
781.00	792.00	801.00	837.00	818.00	762.00	756.00	747.00	709.00	710.00	714.00	719.00	745.00	752.00	764.00	791.00	826.00	1057.00	1070.00	992.00	1060.00	951.00	932.00	919.00	812.00	775.00	738.00	741.00	747.00	773.00	1012.00	1236.00	1103.00	932.00	888.00	844.00	836.00	844.00	858.00	927.00	936.00	956.00	994.00	997.00	849.00	802.00	784.00	764.00	730.00	715.00	708.00	701.00	691.00	688.00	690.00	688.00	679.00	667.00	661.00	658.00	652.00	637.00	639.00	644.00	634.00	621.00	621.00	613.00	599.00	592.00	574.00	564.00	570.00	563.00	568.00	560.00	544.00	530.00	535.00	554.00	547.00	551.00	556.00	534.00	519.00	505.00	503.00	494.00	503.00	491.00	477.00	468.00	456.00	462.00	467.00	458.00	451.00	411.00	412.00	420.00	427.00	434.00	450.00	484.00	533.00	475.00	627.00	628.00	627.00	620.00	614.00	589.00	513.00	534.00	536.00	514.00	508.00	496.00	492.00	487.00	497.00	472.00	459.00	453.00	441.00	435.00	431.00	428.00	426.00	420.00	418.00	417.00	417.00	414.00	413.00	414.00	415.00	414.00	408.00	403.00	400.00	397.00	397.00	395.00	395.00	394.00	392.00	390.00	389.00	392.00	425.00	408.00	403.00	398.00	394.00	396.00	412.00	413.00	411.00	406.00	398.00	390.00	384.00	387.00	384.00	360.00	359.00	366.00	370.00	343.00	337.00	341.00	341.00	338.00	329.00	318.00	309.00	303.00	298.00	294.00	290.00	284.00	283.00	288.00	285.00	278.00	277.00	273.00	270.00	272.00	274.00	272.00	266.00	264.00	262.00	262.00	267.00	267.00	268.00	267.00	264.00	261.00	253.00	248.00	243.00	240.00	241.00	242.00	237.00	238.00	236.00	233.00	235.00	233.00	234.00	233.00	234.00	235.00	236.00	234.00	233.00	232.00	232.00	222.00	219.00	216.00	214.00	216.00	214.00	210.00	208.00	207.00	200.00	197.00	196.00	194.00	192.00	190.00	190.00	189.00	188.00	191.00	193.00	193.00	194.00	196.00	196.00	193.00	189.00	188.00	189.00	187.00	187.00	189.00	192.00	189.00
766.00	772.00	783.00	860.00	874.00	787.00	766.00	752.00	706.00	707.00	710.00	718.00	746.00	746.00	760.00	790.00	825.00	1055.00	1085.00	1100.00	1192.00	1011.00	963.00	910.00	797.00	771.00	736.00	724.00	736.00	739.00	1057.00	1316.00	1224.00	1021.00	916.00	856.00	842.00	846.00	861.00	889.00	903.00	925.00	938.00	867.00	816.00	785.00	770.00	752.00	722.00	712.00	706.00	700.00	690.00	684.00	685.00	687.00	677.00	667.00	664.00	657.00	648.00	631.00	632.00	634.00	626.00	619.00	612.00	619.00	599.00	584.00	568.00	556.00	566.00	559.00	557.00	553.00	555.00	536.00	521.00	544.00	534.00	541.00	544.00	535.00	515.00	510.00	495.00	494.00	495.00	492.00	478.00	463.00	458.00	451.00	457.00	451.00	454.00	439.00	418.00	413.00	411.00	421.00	413.00	416.00	434.00	432.00	585.00	623.00	623.00	619.00	613.00	495.00	506.00	543.00	544.00	519.00	507.00	521.00	534.00	489.00	482.00	470.00	463.00	457.00	443.00	436.00	431.00	429.00	427.00	421.00	419.00	418.00	416.00	414.00	415.00	416.00	417.00	416.00	408.00	402.00	401.00	400.00	398.00	398.00	397.00	399.00	396.00	393.00	395.00	396.00	441.00	423.00	408.00	398.00	395.00	401.00	416.00	415.00	411.00	407.00	396.00	388.00	374.00	379.00	385.00	349.00	354.00	378.00	371.00	337.00	333.00	340.00	335.00	330.00	330.00	322.00	312.00	298.00	301.00	299.00	291.00	284.00	276.00	285.00	283.00	275.00	272.00	270.00	267.00	269.00	272.00	270.00	262.00	259.00	258.00	258.00	262.00	264.00	265.00	266.00	262.00	261.00	251.00	244.00	240.00	236.00	237.00	236.00	234.00	233.00	234.00	231.00	231.00	233.00	234.00	235.00	237.00	237.00	236.00	235.00	232.00	229.00	228.00	221.00	218.00	215.00	212.00	211.00	210.00	209.00	206.00	204.00	200.00	196.00	193.00	192.00	189.00	188.00	188.00	186.00	185.00	190.00	191.00	192.00	193.00	193.00	192.00	191.00	187.00	185.00	185.00	183.00	184.00	188.00	192.00	188.00
754.00	771.00	779.00	843.00	836.00	780.00	769.00	751.00	706.00	700.00	714.00	729.00	740.00	739.00	751.00	782.00	823.00	1020.00	966.00	1062.00	1179.00	1090.00	964.00	917.00	822.00	778.00	756.00	734.00	718.00	723.00	1032.00	1240.00	1312.00	1182.00	1025.00	866.00	852.00	846.00	851.00	868.00	886.00	903.00	912.00	839.00	796.00	770.00	756.00	741.00	717.00	709.00	702.00	696.00	688.00	682.00	679.00	681.00	675.00	663.00	659.00	649.00	642.00	632.00	626.00	631.00	617.00	613.00	600.00	609.00	608.00	586.00	570.00	553.00	558.00	563.00	548.00	543.00	559.00	537.00	522.00	535.00	525.00	532.00	536.00	532.00	506.00	504.00	494.00	494.00	480.00	486.00	478.00	466.00	459.00	439.00	443.00	449.00	444.00	441.00	422.00	407.00	405.00	404.00	400.00	399.00	408.00	411.00	509.00	616.00	560.00	569.00	598.00	437.00	462.00	528.00	549.00	528.00	526.00	543.00	532.00	498.00	490.00	477.00	474.00	473.00	444.00	438.00	432.00	431.00	429.00	421.00	420.00	419.00	418.00	415.00	415.00	417.00	416.00	414.00	408.00	404.00	403.00	402.00	403.00	401.00	401.00	403.00	399.00	398.00	404.00	411.00	425.00	435.00	416.00	399.00	396.00	402.00	416.00	419.00	412.00	408.00	393.00	388.00	373.00	373.00	373.00	367.00	341.00	351.00	343.00	329.00	325.00	332.00	325.00	326.00	331.00	321.00	308.00	296.00	296.00	294.00	291.00	288.00	272.00	272.00	273.00	271.00	266.00	266.00	263.00	265.00	268.00	267.00	258.00	256.00	254.00	254.00	257.00	259.00	263.00	262.00	259.00	257.00	248.00	242.00	237.00	233.00	234.00	232.00	230.00	229.00	229.00	227.00	226.00	231.00	233.00	235.00	237.00	237.00	237.00	234.00	232.00	229.00	226.00	218.00	216.00	214.00	212.00	208.00	206.00	206.00	204.00	202.00	197.00	196.00	191.00	190.00	187.00	187.00	186.00	185.00	184.00	187.00	188.00	189.00	189.00	189.00	190.00	191.00	188.00	183.00	181.00	181.00	185.00	190.00	189.00	187.00
747.00	746.00	742.00	761.00	730.00	725.00	729.00	721.00	699.00	689.00	692.00	696.00	696.00	700.00	707.00	729.00	756.00	856.00	841.00	868.00	904.00	883.00	859.00	815.00	745.00	723.00	727.00	745.00	710.00	705.00	961.00	1161.00	1324.00	1406.00	1261.00	912.00	898.00	883.00	881.00	877.00	878.00	891.00	915.00	950.00	801.00	745.00	732.00	720.00	705.00	699.00	694.00	690.00	681.00	672.00	664.00	664.00	669.00	670.00	669.00	658.00	647.00	631.00	622.00	610.00	604.00	589.00	586.00	570.00	566.00	563.00	548.00	550.00	535.00	541.00	554.00	523.00	532.00	545.00	532.00	499.00	503.00	515.00	516.00	507.00	514.00	512.00	500.00	477.00	463.00	454.00	452.00	449.00	445.00	453.00	444.00	436.00	441.00	427.00	428.00	429.00	446.00	451.00	436.00	434.00	428.00	412.00	402.00	399.00	395.00	393.00	393.00	393.00	440.00	522.00	495.00	450.00	498.00	453.00	523.00	532.00	489.00	513.00	523.00	524.00	500.00	455.00	444.00	440.00	436.00	430.00	429.00	426.00	425.00	427.00	446.00	452.00	426.00	422.00	416.00	411.00	410.00	410.00	415.00	415.00	415.00	412.00	408.00	405.00	406.00	408.00	405.00	401.00	402.00	401.00	405.00	423.00	423.00	423.00	413.00	374.00	350.00	356.00	363.00	359.00	355.00	329.00	319.00	311.00	311.00	309.00	310.00	308.00	303.00	306.00	311.00	304.00	294.00	287.00	272.00	267.00	269.00	268.00	263.00	258.00	252.00	250.00	249.00	263.00	258.00	250.00	254.00	257.00	253.00	245.00	242.00	244.00	244.00	245.00	249.00	253.00	253.00	248.00	241.00	236.00	232.00	225.00	222.00	220.00	218.00	215.00	218.00	223.00	224.00	227.00	228.00	229.00	230.00	232.00	236.00	235.00	233.00	234.00	230.00	221.00	219.00	217.00	215.00	209.00	205.00	201.00	200.00	201.00	205.00	205.00	207.00	207.00	202.00	197.00	192.00	188.00	185.00	179.00	179.00	180.00	181.00	183.00	185.00	185.00	182.00	181.00	174.00	178.00	182.00	184.00	184.00	183.00
731.00	736.00	730.00	741.00	728.00	711.00	712.00	713.00	698.00	687.00	688.00	691.00	692.00	696.00	696.00	715.00	743.00	817.00	821.00	837.00	866.00	831.00	804.00	781.00	740.00	724.00	710.00	708.00	690.00	721.00	966.00	1168.00	1392.00	1525.00	1349.00	954.00	916.00	899.00	898.00	891.00	889.00	889.00	912.00	943.00	800.00	736.00	724.00	713.00	701.00	696.00	692.00	686.00	676.00	670.00	665.00	658.00	662.00	667.00	669.00	659.00	649.00	638.00	631.00	616.00	599.00	598.00	585.00	572.00	563.00	555.00	540.00	540.00	537.00	530.00	544.00	520.00	521.00	525.00	534.00	493.00	498.00	505.00	507.00	497.00	508.00	521.00	520.00	469.00	456.00	460.00	464.00	463.00	454.00	461.00	462.00	447.00	453.00	443.00	441.00	443.00	450.00	456.00	449.00	440.00	423.00	422.00	411.00	407.00	403.00	401.00	401.00	391.00	395.00	412.00	420.00	401.00	400.00	426.00	515.00	530.00	484.00	523.00	526.00	523.00	518.00	475.00	452.00	444.00	439.00	444.00	437.00	432.00	429.00	432.00	461.00	483.00	433.00	426.00	420.00	415.00	414.00	414.00	418.00	420.00	420.00	416.00	410.00	407.00	413.00	418.00	425.00	403.00	403.00	407.00	413.00	422.00	427.00	423.00	409.00	362.00	342.00	349.00	354.00	355.00	359.00	337.00	322.00	311.00	307.00	307.00	301.00	301.00	296.00	297.00	304.00	300.00	290.00	282.00	273.00	262.00	262.00	261.00	259.00	255.00	253.00	248.00	245.00	251.00	251.00	246.00	244.00	251.00	249.00	244.00	239.00	240.00	237.00	242.00	244.00	245.00	251.00	247.00	245.00	238.00	231.00	224.00	220.00	217.00	214.00	214.00	218.00	221.00	220.00	223.00	227.00	227.00	228.00	231.00	234.00	232.00	232.00	231.00	227.00	220.00	218.00	216.00	213.00	208.00	204.00	203.00	203.00	204.00	210.00	212.00	217.00	215.00	217.00	209.00	201.00	194.00	189.00	182.00	178.00	178.00	181.00	181.00	182.00	182.00	180.00	177.00	173.00	176.00	180.00	183.00	179.00	180.00
721.00	718.00	721.00	730.00	724.00	712.00	698.00	697.00	697.00	691.00	684.00	684.00	685.00	691.00	687.00	702.00	726.00	775.00	804.00	820.00	837.00	824.00	785.00	767.00	733.00	717.00	690.00	687.00	689.00	722.00	1035.00	1194.00	1461.00	1579.00	1403.00	1039.00	993.00	931.00	919.00	904.00	903.00	898.00	904.00	921.00	788.00	727.00	713.00	704.00	689.00	689.00	689.00	685.00	674.00	666.00	661.00	655.00	655.00	663.00	665.00	655.00	643.00	629.00	630.00	619.00	608.00	602.00	573.00	587.00	599.00	579.00	540.00	529.00	530.00	522.00	531.00	519.00	516.00	509.00	521.00	492.00	490.00	500.00	497.00	490.00	501.00	500.00	492.00	463.00	461.00	471.00	474.00	470.00	460.00	470.00	459.00	454.00	458.00	456.00	451.00	461.00	458.00	461.00	446.00	438.00	428.00	432.00	417.00	418.00	416.00	415.00	405.00	397.00	389.00	390.00	393.00	377.00	374.00	444.00	536.00	521.00	504.00	528.00	526.00	525.00	520.00	506.00	466.00	450.00	442.00	459.00	470.00	446.00	435.00	445.00	447.00	465.00	447.00	431.00	423.00	420.00	417.00	418.00	419.00	423.00	423.00	418.00	413.00	412.00	423.00	430.00	461.00	409.00	406.00	408.00	412.00	421.00	423.00	418.00	418.00	359.00	337.00	344.00	348.00	350.00	355.00	346.00	325.00	314.00	302.00	301.00	296.00	290.00	291.00	293.00	296.00	294.00	286.00	276.00	272.00	262.00	254.00	257.00	256.00	249.00	252.00	245.00	240.00	243.00	245.00	248.00	239.00	247.00	246.00	244.00	238.00	234.00	232.00	240.00	241.00	237.00	246.00	245.00	244.00	235.00	229.00	223.00	218.00	214.00	212.00	211.00	215.00	216.00	215.00	218.00	225.00	224.00	227.00	229.00	233.00	235.00	234.00	233.00	229.00	220.00	216.00	214.00	212.00	207.00	205.00	206.00	208.00	209.00	217.00	221.00	227.00	225.00	252.00	235.00	223.00	206.00	199.00	187.00	180.00	176.00	177.00	178.00	180.00	178.00	177.00	178.00	171.00	174.00	178.00	181.00	176.00	177.00
715.00	712.00	711.00	725.00	712.00	698.00	696.00	689.00	701.00	693.00	683.00	680.00	684.00	685.00	678.00	691.00	720.00	763.00	787.00	807.00	823.00	827.00	769.00	750.00	724.00	706.00	685.00	678.00	693.00	727.00	1075.00	1322.00	1544.00	1647.00	1536.00	1186.00	1086.00	998.00	981.00	924.00	916.00	914.00	922.00	917.00	808.00	719.00	704.00	695.00	681.00	679.00	683.00	682.00	673.00	666.00	658.00	652.00	648.00	658.00	664.00	660.00	654.00	624.00	617.00	613.00	598.00	587.00	567.00	592.00	603.00	572.00	536.00	522.00	524.00	518.00	515.00	522.00	503.00	496.00	502.00	487.00	483.00	488.00	494.00	484.00	482.00	496.00	480.00	475.00	469.00	476.00	484.00	474.00	471.00	469.00	468.00	464.00	461.00	464.00	458.00	466.00	468.00	458.00	455.00	447.00	443.00	438.00	432.00	418.00	425.00	417.00	407.00	403.00	393.00	387.00	384.00	380.00	371.00	409.00	518.00	489.00	484.00	527.00	522.00	525.00	520.00	516.00	506.00	462.00	444.00	438.00	452.00	492.00	472.00	451.00	480.00	494.00	485.00	467.00	433.00	427.00	423.00	427.00	426.00	423.00	422.00	418.00	415.00	415.00	425.00	447.00	459.00	422.00	411.00	409.00	410.00	415.00	417.00	414.00	422.00	361.00	332.00	337.00	342.00	347.00	353.00	356.00	340.00	320.00	307.00	292.00	293.00	279.00	279.00	286.00	290.00	287.00	284.00	271.00	271.00	262.00	252.00	248.00	250.00	245.00	246.00	245.00	239.00	234.00	237.00	244.00	234.00	242.00	241.00	240.00	234.00	230.00	226.00	233.00	231.00	231.00	242.00	239.00	238.00	231.00	226.00	219.00	216.00	213.00	209.00	206.00	210.00	212.00	210.00	219.00	222.00	226.00	229.00	228.00	235.00	236.00	235.00	233.00	231.00	221.00	218.00	215.00	212.00	208.00	208.00	210.00	212.00	215.00	223.00	229.00	244.00	239.00	268.00	238.00	226.00	216.00	205.00	190.00	181.00	176.00	175.00	175.00	175.00	174.00	174.00	174.00	170.00	171.00	176.00	177.00	172.00	173.00
710.00	707.00	703.00	694.00	695.00	690.00	685.00	683.00	681.00	678.00	670.00	670.00	675.00	671.00	659.00	667.00	684.00	781.00	812.00	850.00	882.00	844.00	774.00	741.00	699.00	687.00	677.00	668.00	685.00	708.00	916.00	1076.00	1254.00	1524.00	1659.00	1340.00	1171.00	1168.00	1107.00	978.00	959.00	957.00	979.00	933.00	784.00	702.00	684.00	674.00	670.00	663.00	666.00	668.00	669.00	663.00	657.00	652.00	640.00	647.00	662.00	657.00	644.00	618.00	613.00	617.00	608.00	595.00	550.00	552.00	537.00	523.00	514.00	515.00	505.00	498.00	496.00	505.00	492.00	490.00	491.00	508.00	495.00	488.00	496.00	492.00	474.00	474.00	471.00	510.00	480.00	480.00	495.00	491.00	488.00	481.00	481.00	486.00	472.00	464.00	477.00	477.00	470.00	473.00	463.00	455.00	456.00	455.00	437.00	440.00	425.00	420.00	411.00	412.00	411.00	401.00	403.00	383.00	369.00	366.00	362.00	364.00	363.00	365.00	396.00	444.00	522.00	520.00	516.00	481.00	475.00	464.00	457.00	486.00	505.00	506.00	492.00	440.00	449.00	490.00	495.00	489.00	481.00	489.00	476.00	459.00	439.00	440.00	435.00	422.00	422.00	429.00	440.00	438.00	442.00	428.00	413.00	402.00	412.00	410.00	407.00	374.00	344.00	351.00	405.00	398.00	408.00	380.00	317.00	296.00	287.00	290.00	293.00	274.00	263.00	265.00	280.00	271.00	276.00	264.00	266.00	262.00	255.00	249.00	239.00	234.00	228.00	233.00	235.00	233.00	228.00	221.00	223.00	232.00	224.00	224.00	222.00	220.00	213.00	217.00	220.00	224.00	233.00	235.00	224.00	223.00	218.00	210.00	207.00	207.00	207.00	198.00	201.00	201.00	204.00	216.00	217.00	220.00	221.00	221.00	232.00	235.00	236.00	234.00	233.00	222.00	215.00	210.00	207.00	208.00	212.00	217.00	222.00	229.00	231.00	240.00	288.00	284.00	309.00	272.00	249.00	228.00	210.00	192.00	184.00	180.00	177.00	171.00	169.00	169.00	169.00	167.00	166.00	167.00	168.00	169.00	165.00	167.00
713.00	706.00	701.00	694.00	693.00	692.00	690.00	684.00	679.00	682.00	664.00	660.00	663.00	661.00	649.00	652.00	664.00	789.00	826.00	909.00	970.00	822.00	750.00	721.00	694.00	679.00	661.00	664.00	678.00	700.00	816.00	947.00	1102.00	1258.00	1443.00	1284.00	1225.00	1237.00	1118.00	1073.00	1050.00	1008.00	1006.00	955.00	797.00	703.00	685.00	671.00	660.00	655.00	662.00	661.00	666.00	661.00	653.00	647.00	639.00	642.00	656.00	652.00	638.00	614.00	605.00	602.00	609.00	595.00	555.00	538.00	529.00	529.00	514.00	506.00	499.00	500.00	505.00	505.00	492.00	499.00	499.00	508.00	506.00	499.00	505.00	505.00	477.00	475.00	481.00	508.00	485.00	482.00	495.00	503.00	495.00	487.00	487.00	491.00	479.00	465.00	484.00	482.00	473.00	478.00	462.00	461.00	462.00	462.00	445.00	440.00	434.00	423.00	418.00	419.00	411.00	407.00	413.00	394.00	386.00	381.00	366.00	360.00	356.00	352.00	353.00	390.00	492.00	518.00	515.00	470.00	416.00	517.00	502.00	510.00	514.00	470.00	391.00	372.00	439.00	489.00	492.00	475.00	466.00	491.00	496.00	488.00	478.00	499.00	465.00	426.00	426.00	428.00	437.00	461.00	448.00	433.00	421.00	393.00	398.00	404.00	384.00	352.00	351.00	347.00	392.00	404.00	412.00	341.00	310.00	298.00	282.00	289.00	288.00	273.00	262.00	258.00	266.00	263.00	270.00	262.00	260.00	262.00	260.00	255.00	246.00	230.00	225.00	221.00	225.00	231.00	232.00	223.00	218.00	225.00	218.00	220.00	217.00	212.00	209.00	214.00	217.00	221.00	228.00	232.00	222.00	216.00	215.00	206.00	201.00	201.00	201.00	195.00	197.00	197.00	204.00	213.00	214.00	214.00	216.00	218.00	232.00	236.00	234.00	234.00	232.00	219.00	212.00	206.00	203.00	204.00	212.00	219.00	228.00	233.00	232.00	236.00	280.00	320.00	350.00	267.00	242.00	230.00	215.00	193.00	186.00	182.00	181.00	173.00	172.00	173.00	172.00	170.00	165.00	163.00	163.00	164.00	162.00	162.00
718.00	715.00	705.00	692.00	693.00	695.00	700.00	690.00	678.00	672.00	665.00	659.00	652.00	648.00	642.00	642.00	646.00	728.00	808.00	903.00	1015.00	798.00	731.00	703.00	688.00	677.00	654.00	670.00	686.00	702.00	768.00	845.00	951.00	1064.00	1186.00	1071.00	1057.00	1114.00	1025.00	1132.00	1206.00	1144.00	1040.00	970.00	860.00	710.00	692.00	676.00	651.00	647.00	654.00	651.00	664.00	659.00	651.00	643.00	629.00	638.00	648.00	641.00	638.00	615.00	601.00	590.00	599.00	593.00	558.00	546.00	547.00	543.00	517.00	501.00	503.00	515.00	515.00	520.00	502.00	510.00	510.00	516.00	514.00	501.00	493.00	489.00	485.00	488.00	491.00	508.00	498.00	488.00	493.00	509.00	507.00	495.00	497.00	496.00	486.00	467.00	480.00	485.00	481.00	483.00	467.00	468.00	471.00	467.00	450.00	445.00	439.00	423.00	427.00	420.00	414.00	415.00	411.00	396.00	392.00	384.00	383.00	372.00	369.00	364.00	354.00	354.00	402.00	440.00	447.00	480.00	392.00	478.00	512.00	497.00	502.00	393.00	350.00	363.00	416.00	453.00	428.00	386.00	381.00	415.00	499.00	493.00	504.00	508.00	489.00	430.00	430.00	443.00	463.00	461.00	450.00	437.00	414.00	393.00	383.00	398.00	376.00	327.00	341.00	330.00	335.00	373.00	397.00	345.00	298.00	300.00	288.00	281.00	281.00	276.00	263.00	254.00	255.00	256.00	264.00	257.00	254.00	258.00	256.00	254.00	243.00	236.00	232.00	225.00	217.00	224.00	228.00	225.00	218.00	216.00	213.00	212.00	210.00	206.00	205.00	208.00	215.00	219.00	224.00	228.00	222.00	215.00	210.00	204.00	199.00	195.00	194.00	191.00	191.00	193.00	202.00	213.00	211.00	211.00	211.00	214.00	232.00	236.00	231.00	230.00	229.00	218.00	210.00	204.00	199.00	203.00	214.00	224.00	232.00	234.00	222.00	225.00	250.00	286.00	306.00	257.00	234.00	227.00	217.00	195.00	189.00	187.00	184.00	177.00	176.00	176.00	174.00	171.00	166.00	164.00	162.00	160.00	158.00	158.00
728.00	725.00	713.00	705.00	706.00	705.00	711.00	692.00	678.00	672.00	665.00	664.00	648.00	644.00	641.00	640.00	638.00	669.00	690.00	714.00	769.00	722.00	715.00	684.00	678.00	666.00	652.00	664.00	680.00	696.00	742.00	784.00	827.00	906.00	978.00	825.00	834.00	873.00	857.00	964.00	1209.00	1201.00	1036.00	984.00	858.00	713.00	696.00	679.00	647.00	640.00	646.00	643.00	659.00	657.00	651.00	646.00	621.00	636.00	639.00	631.00	628.00	614.00	604.00	590.00	580.00	587.00	566.00	556.00	548.00	571.00	513.00	502.00	509.00	528.00	524.00	530.00	512.00	520.00	519.00	519.00	508.00	501.00	500.00	496.00	489.00	502.00	503.00	512.00	512.00	503.00	491.00	505.00	517.00	500.00	508.00	502.00	492.00	472.00	474.00	487.00	489.00	488.00	475.00	473.00	474.00	467.00	452.00	446.00	432.00	427.00	437.00	424.00	422.00	417.00	410.00	399.00	395.00	393.00	388.00	381.00	374.00	377.00	362.00	352.00	362.00	371.00	378.00	387.00	376.00	394.00	413.00	403.00	402.00	343.00	340.00	351.00	367.00	371.00	354.00	353.00	347.00	343.00	492.00	493.00	503.00	513.00	509.00	459.00	466.00	466.00	471.00	459.00	445.00	437.00	409.00	385.00	386.00	350.00	334.00	318.00	326.00	321.00	315.00	324.00	364.00	301.00	289.00	286.00	285.00	267.00	273.00	269.00	259.00	255.00	244.00	248.00	252.00	248.00	246.00	250.00	248.00	252.00	242.00	234.00	227.00	225.00	217.00	216.00	219.00	216.00	215.00	208.00	205.00	207.00	205.00	203.00	204.00	213.00	216.00	216.00	219.00	221.00	222.00	216.00	208.00	199.00	196.00	191.00	189.00	186.00	186.00	185.00	199.00	209.00	208.00	208.00	209.00	211.00	223.00	227.00	225.00	224.00	224.00	220.00	212.00	205.00	197.00	202.00	214.00	228.00	224.00	222.00	214.00	217.00	235.00	258.00	247.00	246.00	232.00	220.00	210.00	196.00	188.00	188.00	185.00	180.00	179.00	178.00	176.00	174.00	169.00	168.00	166.00	163.00	158.00	156.00
742.00	726.00	713.00	726.00	727.00	720.00	699.00	689.00	694.00	687.00	680.00	665.00	658.00	658.00	667.00	644.00	639.00	638.00	638.00	649.00	670.00	663.00	647.00	646.00	662.00	651.00	641.00	657.00	678.00	685.00	694.00	704.00	716.00	721.00	723.00	715.00	699.00	700.00	706.00	772.00	883.00	1092.00	1212.00	1054.00	889.00	717.00	694.00	672.00	647.00	631.00	626.00	629.00	645.00	645.00	648.00	644.00	622.00	619.00	620.00	611.00	607.00	597.00	599.00	591.00	583.00	569.00	536.00	540.00	535.00	527.00	504.00	508.00	515.00	529.00	542.00	536.00	535.00	535.00	539.00	533.00	518.00	515.00	518.00	506.00	514.00	607.00	621.00	525.00	528.00	520.00	506.00	503.00	518.00	516.00	519.00	509.00	499.00	489.00	482.00	486.00	497.00	497.00	487.00	480.00	472.00	468.00	455.00	455.00	441.00	450.00	447.00	435.00	427.00	419.00	412.00	409.00	412.00	415.00	401.00	398.00	393.00	383.00	381.00	371.00	355.00	348.00	351.00	361.00	357.00	351.00	350.00	345.00	340.00	325.00	318.00	323.00	332.00	331.00	326.00	334.00	331.00	327.00	358.00	481.00	416.00	394.00	467.00	498.00	496.00	489.00	457.00	430.00	395.00	442.00	377.00	318.00	315.00	321.00	312.00	305.00	297.00	299.00	305.00	298.00	287.00	278.00	268.00	272.00	268.00	268.00	258.00	249.00	243.00	246.00	235.00	233.00	233.00	233.00	232.00	233.00	233.00	241.00	235.00	224.00	216.00	210.00	213.00	214.00	213.00	213.00	210.00	219.00	216.00	209.00	209.00	205.00	207.00	207.00	211.00	210.00	209.00	210.00	219.00	213.00	208.00	198.00	191.00	189.00	191.00	192.00	191.00	185.00	186.00	204.00	199.00	198.00	204.00	210.00	217.00	219.00	216.00	213.00	216.00	228.00	225.00	214.00	198.00	196.00	207.00	214.00	211.00	208.00	202.00	204.00	212.00	214.00	213.00	223.00	255.00	231.00	215.00	195.00	186.00	181.00	183.00	182.00	181.00	180.00	179.00	178.00	177.00	175.00	173.00	172.00	167.00	163.00
742.00	726.00	721.00	736.00	732.00	726.00	704.00	695.00	707.00	699.00	686.00	670.00	662.00	675.00	669.00	645.00	637.00	631.00	630.00	633.00	633.00	629.00	630.00	639.00	654.00	654.00	634.00	654.00	667.00	664.00	672.00	680.00	691.00	692.00	692.00	687.00	675.00	673.00	686.00	727.00	814.00	1018.00	1274.00	1169.00	1010.00	758.00	718.00	677.00	632.00	626.00	617.00	630.00	639.00	637.00	638.00	637.00	619.00	610.00	611.00	604.00	599.00	595.00	587.00	585.00	576.00	566.00	533.00	520.00	517.00	516.00	514.00	518.00	527.00	532.00	547.00	542.00	546.00	540.00	552.00	534.00	520.00	522.00	527.00	514.00	525.00	565.00	666.00	535.00	532.00	530.00	515.00	508.00	519.00	522.00	522.00	508.00	502.00	496.00	490.00	488.00	498.00	495.00	481.00	475.00	467.00	463.00	465.00	458.00	445.00	454.00	452.00	436.00	427.00	419.00	417.00	420.00	419.00	418.00	410.00	398.00	383.00	375.00	369.00	365.00	365.00	356.00	349.00	352.00	349.00	340.00	340.00	336.00	325.00	313.00	311.00	312.00	317.00	317.00	319.00	323.00	324.00	320.00	320.00	388.00	395.00	331.00	374.00	482.00	487.00	484.00	390.00	382.00	377.00	435.00	344.00	306.00	301.00	310.00	305.00	305.00	286.00	295.00	295.00	294.00	285.00	269.00	264.00	261.00	262.00	262.00	262.00	247.00	237.00	238.00	229.00	225.00	223.00	224.00	233.00	226.00	225.00	232.00	227.00	218.00	213.00	217.00	224.00	224.00	224.00	220.00	216.00	223.00	223.00	216.00	218.00	215.00	202.00	201.00	204.00	206.00	204.00	205.00	217.00	212.00	205.00	195.00	189.00	193.00	198.00	195.00	191.00	185.00	184.00	203.00	193.00	193.00	204.00	213.00	216.00	213.00	210.00	209.00	211.00	227.00	228.00	217.00	197.00	189.00	195.00	199.00	203.00	204.00	196.00	200.00	203.00	204.00	219.00	201.00	217.00	238.00	224.00	195.00	186.00	178.00	178.00	179.00	179.00	179.00	178.00	176.00	176.00	174.00	172.00	172.00	165.00	164.00
747.00	742.00	734.00	754.00	746.00	727.00	732.00	716.00	709.00	718.00	708.00	685.00	678.00	696.00	680.00	663.00	645.00	644.00	630.00	628.00	628.00	628.00	625.00	621.00	640.00	634.00	628.00	629.00	632.00	633.00	645.00	654.00	658.00	657.00	659.00	650.00	645.00	642.00	651.00	663.00	700.00	773.00	899.00	1076.00	1277.00	877.00	745.00	679.00	624.00	605.00	607.00	619.00	621.00	625.00	616.00	609.00	609.00	592.00	592.00	590.00	588.00	571.00	564.00	560.00	545.00	537.00	520.00	516.00	529.00	530.00	536.00	563.00	541.00	551.00	562.00	565.00	568.00	557.00	563.00	541.00	530.00	539.00	541.00	536.00	512.00	551.00	607.00	570.00	564.00	544.00	535.00	525.00	523.00	540.00	533.00	522.00	515.00	509.00	508.00	503.00	502.00	501.00	481.00	479.00	479.00	475.00	466.00	464.00	460.00	451.00	448.00	438.00	439.00	435.00	433.00	432.00	426.00	418.00	416.00	405.00	386.00	385.00	386.00	384.00	366.00	357.00	350.00	348.00	349.00	349.00	346.00	340.00	345.00	340.00	335.00	331.00	322.00	318.00	306.00	306.00	307.00	306.00	302.00	300.00	298.00	295.00	292.00	347.00	420.00	348.00	309.00	302.00	329.00	356.00	327.00	295.00	295.00	282.00	287.00	291.00	280.00	278.00	286.00	275.00	270.00	262.00	255.00	250.00	256.00	237.00	232.00	233.00	226.00	225.00	226.00	230.00	230.00	232.00	225.00	224.00	222.00	218.00	214.00	219.00	223.00	224.00	232.00	232.00	225.00	226.00	235.00	232.00	237.00	232.00	230.00	224.00	210.00	207.00	202.00	198.00	198.00	198.00	203.00	197.00	192.00	195.00	198.00	206.00	206.00	197.00	191.00	184.00	182.00	186.00	182.00	189.00	196.00	203.00	202.00	204.00	203.00	201.00	200.00	202.00	202.00	203.00	196.00	181.00	180.00	183.00	189.00	196.00	189.00	192.00	189.00	190.00	209.00	190.00	192.00	212.00	225.00	201.00	191.00	178.00	168.00	173.00	172.00	172.00	170.00	163.00	170.00	169.00	167.00	167.00	158.00	158.00
754.00	745.00	742.00	762.00	744.00	738.00	746.00	730.00	719.00	715.00	695.00	697.00	696.00	711.00	675.00	659.00	654.00	654.00	642.00	635.00	632.00	634.00	637.00	627.00	630.00	619.00	626.00	623.00	620.00	628.00	631.00	644.00	647.00	642.00	654.00	628.00	629.00	630.00	637.00	638.00	649.00	690.00	737.00	852.00	1247.00	991.00	806.00	691.00	622.00	602.00	593.00	599.00	611.00	618.00	616.00	605.00	600.00	592.00	583.00	579.00	571.00	571.00	558.00	552.00	542.00	520.00	538.00	527.00	536.00	544.00	538.00	549.00	554.00	565.00	568.00	577.00	576.00	572.00	567.00	544.00	535.00	555.00	548.00	547.00	520.00	532.00	648.00	594.00	573.00	554.00	545.00	533.00	529.00	542.00	534.00	524.00	521.00	519.00	513.00	506.00	501.00	495.00	488.00	487.00	486.00	482.00	472.00	472.00	463.00	458.00	456.00	451.00	448.00	444.00	444.00	431.00	424.00	418.00	414.00	404.00	392.00	388.00	393.00	386.00	375.00	367.00	354.00	352.00	358.00	364.00	355.00	346.00	349.00	336.00	332.00	327.00	320.00	318.00	312.00	307.00	305.00	302.00	296.00	295.00	292.00	289.00	289.00	298.00	304.00	293.00	291.00	295.00	305.00	314.00	304.00	294.00	284.00	278.00	279.00	281.00	281.00	273.00	272.00	271.00	263.00	253.00	256.00	264.00	267.00	252.00	244.00	229.00	229.00	234.00	233.00	235.00	237.00	239.00	232.00	236.00	226.00	224.00	221.00	227.00	234.00	229.00	240.00	235.00	227.00	237.00	242.00	236.00	247.00	240.00	233.00	229.00	220.00	215.00	208.00	203.00	201.00	199.00	198.00	192.00	196.00	203.00	202.00	213.00	211.00	198.00	191.00	188.00	186.00	182.00	179.00	181.00	191.00	197.00	195.00	201.00	202.00	199.00	196.00	192.00	193.00	196.00	194.00	182.00	177.00	178.00	185.00	193.00	189.00	187.00	183.00	184.00	194.00	183.00	190.00	197.00	202.00	199.00	186.00	175.00	173.00	169.00	167.00	166.00	166.00	156.00	168.00	166.00	163.00	164.00	156.00	154.00
773.00	760.00	754.00	765.00	752.00	761.00	759.00	740.00	727.00	714.00	712.00	719.00	729.00	712.00	682.00	673.00	674.00	664.00	653.00	648.00	652.00	656.00	654.00	638.00	631.00	630.00	626.00	627.00	620.00	612.00	611.00	626.00	617.00	623.00	639.00	617.00	607.00	611.00	618.00	615.00	604.00	600.00	610.00	632.00	757.00	1014.00	869.00	711.00	628.00	605.00	589.00	572.00	591.00	582.00	594.00	573.00	557.00	566.00	555.00	558.00	568.00	532.00	532.00	525.00	525.00	542.00	553.00	541.00	555.00	559.00	548.00	556.00	566.00	583.00	590.00	589.00	584.00	574.00	570.00	562.00	551.00	546.00	559.00	564.00	541.00	527.00	545.00	564.00	571.00	564.00	554.00	546.00	545.00	545.00	541.00	533.00	532.00	529.00	523.00	516.00	507.00	501.00	503.00	505.00	497.00	489.00	483.00	482.00	472.00	468.00	460.00	452.00	444.00	436.00	432.00	426.00	418.00	413.00	413.00	405.00	402.00	402.00	397.00	388.00	376.00	371.00	366.00	360.00	371.00	369.00	366.00	360.00	354.00	336.00	332.00	331.00	328.00	333.00	320.00	323.00	318.00	312.00	310.00	310.00	306.00	298.00	298.00	293.00	292.00	288.00	287.00	281.00	277.00	292.00	287.00	289.00	280.00	272.00	263.00	261.00	268.00	264.00	258.00	254.00	256.00	268.00	277.00	272.00	270.00	270.00	255.00	257.00	247.00	247.00	253.00	254.00	253.00	250.00	236.00	230.00	234.00	243.00	241.00	235.00	246.00	244.00	246.00	244.00	243.00	236.00	245.00	250.00	254.00	238.00	229.00	223.00	214.00	211.00	209.00	208.00	199.00	199.00	195.00	200.00	212.00	217.00	211.00	216.00	221.00	202.00	194.00	191.00	188.00	194.00	190.00	181.00	177.00	181.00	184.00	183.00	185.00	185.00	186.00	188.00	182.00	182.00	184.00	177.00	177.00	171.00	176.00	183.00	191.00	183.00	176.00	173.00	169.00	168.00	164.00	168.00	188.00	184.00	181.00	170.00	163.00	161.00	160.00	155.00	144.00	144.00	160.00	155.00	157.00	158.00	149.00	147.00
779.00	767.00	765.00	770.00	764.00	769.00	764.00	745.00	737.00	725.00	720.00	736.00	732.00	724.00	693.00	678.00	679.00	674.00	663.00	655.00	661.00	662.00	658.00	651.00	642.00	639.00	644.00	643.00	630.00	621.00	604.00	607.00	605.00	609.00	623.00	608.00	597.00	601.00	607.00	595.00	593.00	586.00	588.00	603.00	640.00	821.00	901.00	712.00	622.00	614.00	609.00	574.00	573.00	564.00	568.00	562.00	544.00	549.00	540.00	548.00	547.00	538.00	535.00	535.00	533.00	553.00	567.00	548.00	551.00	569.00	554.00	569.00	575.00	581.00	595.00	594.00	587.00	584.00	577.00	567.00	556.00	553.00	563.00	563.00	548.00	533.00	532.00	554.00	568.00	565.00	559.00	553.00	552.00	545.00	541.00	535.00	538.00	535.00	528.00	519.00	512.00	509.00	509.00	508.00	500.00	494.00	484.00	480.00	470.00	464.00	458.00	444.00	442.00	440.00	428.00	430.00	422.00	421.00	414.00	406.00	410.00	403.00	396.00	394.00	380.00	381.00	375.00	368.00	375.00	370.00	372.00	360.00	348.00	340.00	338.00	336.00	334.00	341.00	326.00	331.00	324.00	317.00	323.00	317.00	312.00	303.00	302.00	305.00	301.00	299.00	289.00	277.00	278.00	287.00	283.00	277.00	271.00	265.00	268.00	265.00	259.00	257.00	258.00	265.00	264.00	275.00	281.00	276.00	276.00	268.00	260.00	262.00	254.00	252.00	261.00	263.00	258.00	249.00	242.00	236.00	238.00	246.00	243.00	246.00	247.00	255.00	254.00	248.00	246.00	243.00	245.00	257.00	256.00	240.00	228.00	221.00	215.00	212.00	209.00	204.00	205.00	206.00	199.00	208.00	213.00	224.00	219.00	218.00	218.00	205.00	199.00	197.00	198.00	201.00	190.00	184.00	179.00	179.00	174.00	173.00	175.00	179.00	177.00	181.00	180.00	175.00	173.00	173.00	175.00	170.00	170.00	176.00	190.00	184.00	178.00	174.00	167.00	162.00	157.00	160.00	183.00	177.00	169.00	165.00	159.00	150.00	149.00	154.00	145.00	138.00	151.00	149.00	152.00	158.00	151.00	147.00
784.00	772.00	778.00	777.00	777.00	777.00	767.00	754.00	743.00	732.00	731.00	750.00	740.00	724.00	704.00	686.00	683.00	680.00	668.00	670.00	679.00	668.00	676.00	670.00	647.00	650.00	663.00	652.00	638.00	620.00	611.00	607.00	603.00	602.00	605.00	599.00	598.00	597.00	594.00	587.00	588.00	587.00	585.00	585.00	591.00	650.00	779.00	729.00	612.00	594.00	593.00	566.00	555.00	560.00	551.00	558.00	549.00	539.00	539.00	560.00	559.00	563.00	555.00	543.00	542.00	549.00	571.00	564.00	557.00	576.00	565.00	571.00	585.00	592.00	596.00	603.00	593.00	592.00	586.00	571.00	563.00	558.00	568.00	567.00	557.00	539.00	532.00	547.00	565.00	570.00	569.00	563.00	559.00	546.00	542.00	541.00	544.00	538.00	531.00	523.00	519.00	514.00	509.00	505.00	502.00	494.00	483.00	478.00	469.00	462.00	457.00	445.00	448.00	442.00	435.00	437.00	432.00	424.00	423.00	406.00	411.00	400.00	401.00	403.00	386.00	389.00	376.00	373.00	382.00	375.00	374.00	368.00	350.00	351.00	346.00	341.00	344.00	349.00	331.00	333.00	325.00	326.00	327.00	317.00	311.00	309.00	308.00	312.00	303.00	306.00	278.00	282.00	283.00	281.00	276.00	269.00	270.00	268.00	277.00	272.00	263.00	267.00	272.00	270.00	271.00	281.00	282.00	287.00	287.00	283.00	269.00	265.00	261.00	260.00	268.00	262.00	253.00	247.00	250.00	239.00	248.00	249.00	241.00	255.00	251.00	262.00	262.00	254.00	249.00	250.00	253.00	263.00	258.00	243.00	228.00	220.00	220.00	218.00	212.00	210.00	211.00	213.00	206.00	211.00	220.00	231.00	229.00	224.00	222.00	209.00	206.00	206.00	206.00	201.00	196.00	188.00	181.00	177.00	174.00	177.00	172.00	173.00	172.00	171.00	173.00	171.00	169.00	171.00	174.00	169.00	164.00	170.00	182.00	184.00	183.00	180.00	170.00	164.00	158.00	151.00	172.00	173.00	162.00	155.00	154.00	137.00	139.00	151.00	144.00	133.00	141.00	139.00	145.00	159.00	157.00	150.00
784.00	784.00	788.00	784.00	790.00	783.00	776.00	763.00	748.00	742.00	739.00	800.00	738.00	747.00	728.00	698.00	689.00	693.00	677.00	691.00	694.00	676.00	686.00	677.00	658.00	662.00	665.00	650.00	633.00	620.00	625.00	618.00	618.00	614.00	602.00	600.00	618.00	613.00	603.00	597.00	599.00	600.00	599.00	591.00	583.00	580.00	617.00	691.00	620.00	594.00	575.00	561.00	553.00	556.00	560.00	555.00	565.00	564.00	551.00	570.00	579.00	580.00	569.00	554.00	552.00	556.00	590.00	584.00	563.00	587.00	572.00	584.00	590.00	603.00	609.00	610.00	602.00	600.00	592.00	579.00	567.00	567.00	570.00	572.00	559.00	547.00	536.00	557.00	576.00	582.00	581.00	575.00	567.00	549.00	548.00	545.00	544.00	534.00	530.00	525.00	520.00	513.00	509.00	503.00	501.00	492.00	481.00	477.00	468.00	462.00	457.00	449.00	455.00	447.00	447.00	439.00	433.00	422.00	420.00	413.00	408.00	409.00	409.00	405.00	394.00	390.00	380.00	385.00	389.00	372.00	366.00	365.00	352.00	353.00	350.00	347.00	347.00	351.00	336.00	339.00	331.00	332.00	331.00	323.00	318.00	320.00	313.00	317.00	308.00	303.00	280.00	275.00	274.00	270.00	265.00	275.00	276.00	281.00	282.00	277.00	273.00	275.00	278.00	272.00	275.00	286.00	290.00	287.00	297.00	288.00	276.00	276.00	267.00	267.00	268.00	262.00	254.00	248.00	254.00	244.00	253.00	252.00	250.00	259.00	260.00	267.00	268.00	258.00	256.00	256.00	259.00	267.00	256.00	245.00	233.00	226.00	224.00	218.00	214.00	215.00	216.00	215.00	211.00	215.00	227.00	240.00	238.00	231.00	228.00	218.00	213.00	212.00	211.00	210.00	208.00	191.00	180.00	176.00	178.00	183.00	179.00	178.00	178.00	170.00	170.00	169.00	169.00	171.00	171.00	167.00	161.00	160.00	171.00	175.00	181.00	178.00	165.00	156.00	151.00	147.00	156.00	160.00	155.00	146.00	146.00	135.00	133.00	137.00	131.00	129.00	130.00	133.00	141.00	154.00	155.00	146.00
811.00	810.00	810.00	810.00	812.00	843.00	839.00	789.00	770.00	767.00	756.00	758.00	772.00	769.00	763.00	721.00	705.00	702.00	700.00	715.00	700.00	707.00	708.00	698.00	686.00	682.00	652.00	646.00	642.00	647.00	649.00	644.00	640.00	625.00	624.00	627.00	636.00	621.00	632.00	616.00	624.00	622.00	625.00	615.00	607.00	595.00	575.00	570.00	567.00	568.00	573.00	569.00	583.00	593.00	613.00	605.00	598.00	602.00	590.00	591.00	602.00	581.00	587.00	587.00	574.00	565.00	607.00	601.00	576.00	588.00	589.00	600.00	604.00	619.00	630.00	624.00	611.00	603.00	595.00	583.00	577.00	578.00	579.00	572.00	553.00	558.00	553.00	560.00	610.00	726.00	631.00	620.00	601.00	558.00	551.00	546.00	540.00	528.00	523.00	519.00	514.00	510.00	502.00	498.00	495.00	490.00	478.00	475.00	465.00	462.00	463.00	467.00	460.00	450.00	444.00	438.00	434.00	425.00	425.00	429.00	418.00	417.00	416.00	415.00	403.00	402.00	394.00	401.00	393.00	374.00	364.00	358.00	360.00	360.00	358.00	364.00	363.00	361.00	348.00	349.00	342.00	345.00	338.00	333.00	319.00	311.00	309.00	302.00	294.00	295.00	285.00	288.00	285.00	292.00	297.00	287.00	291.00	284.00	295.00	293.00	291.00	290.00	282.00	284.00	291.00	299.00	303.00	298.00	296.00	302.00	301.00	286.00	278.00	271.00	265.00	266.00	264.00	254.00	258.00	251.00	257.00	265.00	258.00	260.00	270.00	280.00	279.00	268.00	267.00	268.00	267.00	261.00	251.00	246.00	238.00	235.00	242.00	233.00	226.00	218.00	220.00	222.00	222.00	221.00	232.00	250.00	253.00	244.00	238.00	228.00	224.00	222.00	220.00	224.00	214.00	200.00	191.00	191.00	194.00	196.00	193.00	187.00	183.00	186.00	187.00	188.00	183.00	164.00	160.00	158.00	159.00	162.00	156.00	152.00	171.00	167.00	151.00	146.00	155.00	158.00	149.00	139.00	143.00	150.00	143.00	148.00	144.00	142.00	133.00	129.00	129.00	129.00	138.00	141.00	142.00	140.00
811.00	810.00	810.00	810.00	812.00	843.00	839.00	789.00	770.00	767.00	756.00	758.00	772.00	769.00	763.00	721.00	705.00	702.00	700.00	715.00	700.00	707.00	708.00	698.00	686.00	682.00	652.00	646.00	642.00	647.00	649.00	644.00	640.00	625.00	624.00	627.00	636.00	621.00	632.00	616.00	624.00	622.00	625.00	615.00	607.00	595.00	575.00	570.00	567.00	568.00	573.00	569.00	583.00	593.00	613.00	605.00	598.00	602.00	590.00	591.00	602.00	581.00	587.00	587.00	574.00	565.00	607.00	601.00	576.00	588.00	589.00	600.00	604.00	619.00	630.00	624.00	611.00	603.00	595.00	583.00	577.00	578.00	579.00	572.00	553.00	558.00	553.00	560.00	610.00	726.00	631.00	620.00	601.00	558.00	551.00	546.00	540.00	528.00	523.00	519.00	514.00	510.00	502.00	498.00	495.00	490.00	478.00	475.00	465.00	462.00	463.00	467.00	460.00	450.00	444.00	438.00	434.00	425.00	425.00	429.00	418.00	417.00	416.00	415.00	403.00	402.00	394.00	401.00	393.00	374.00	364.00	358.00	360.00	360.00	358.00	364.00	363.00	361.00	348.00	349.00	342.00	345.00	338.00	333.00	319.00	311.00	309.00	302.00	294.00	295.00	285.00	288.00	285.00	292.00	297.00	287.00	291.00	284.00	295.00	293.00	291.00	290.00	282.00	284.00	291.00	299.00	303.00	298.00	296.00	302.00	301.00	286.00	278.00	271.00	265.00	266.00	264.00	254.00	258.00	251.00	257.00	265.00	258.00	260.00	270.00	280.00	279.00	268.00	267.00	268.00	267.00	261.00	251.00	246.00	238.00	235.00	242.00	233.00	226.00	218.00	220.00	222.00	222.00	221.00	232.00	250.00	253.00	244.00	238.00	228.00	224.00	222.00	220.00	224.00	214.00	200.00	191.00	191.00	194.00	196.00	193.00	187.00	183.00	186.00	187.00	188.00	183.00	164.00	160.00	158.00	159.00	162.00	156.00	152.00	171.00	167.00	151.00	146.00	155.00	158.00	149.00	139.00	143.00	150.00	143.00	148.00	144.00	142.00	133.00	129.00	129.00	129.00	138.00	141.00	142.00	140.00
822.00	819.00	820.00	822.00	815.00	827.00	835.00	813.00	780.00	778.00	768.00	777.00	766.00	775.00	789.00	733.00	718.00	713.00	713.00	727.00	714.00	726.00	720.00	706.00	696.00	684.00	661.00	663.00	649.00	659.00	658.00	659.00	641.00	639.00	638.00	632.00	639.00	628.00	640.00	631.00	634.00	630.00	631.00	627.00	613.00	608.00	587.00	584.00	583.00	573.00	566.00	568.00	586.00	610.00	624.00	606.00	607.00	608.00	612.00	611.00	606.00	591.00	586.00	595.00	586.00	571.00	602.00	590.00	579.00	589.00	603.00	607.00	611.00	627.00	636.00	626.00	613.00	607.00	601.00	586.00	589.00	586.00	584.00	578.00	558.00	568.00	558.00	562.00	607.00	672.00	656.00	596.00	598.00	558.00	551.00	546.00	542.00	526.00	523.00	519.00	514.00	511.00	504.00	499.00	495.00	491.00	483.00	477.00	467.00	468.00	469.00	469.00	461.00	452.00	450.00	443.00	433.00	433.00	439.00	435.00	420.00	424.00	422.00	416.00	412.00	409.00	402.00	406.00	399.00	378.00	371.00	363.00	361.00	369.00	363.00	368.00	367.00	365.00	357.00	352.00	349.00	345.00	334.00	330.00	321.00	313.00	316.00	303.00	299.00	297.00	297.00	296.00	297.00	303.00	304.00	289.00	291.00	283.00	294.00	302.00	298.00	295.00	290.00	285.00	292.00	305.00	310.00	304.00	302.00	317.00	309.00	287.00	279.00	274.00	270.00	270.00	266.00	257.00	266.00	257.00	257.00	268.00	265.00	269.00	271.00	282.00	283.00	273.00	270.00	271.00	266.00	259.00	246.00	240.00	239.00	248.00	247.00	239.00	231.00	230.00	223.00	226.00	227.00	224.00	236.00	254.00	256.00	249.00	240.00	231.00	228.00	226.00	226.00	229.00	212.00	201.00	196.00	198.00	198.00	195.00	191.00	188.00	185.00	195.00	197.00	193.00	189.00	172.00	170.00	172.00	171.00	172.00	167.00	155.00	159.00	163.00	147.00	153.00	161.00	165.00	161.00	158.00	162.00	161.00	151.00	153.00	149.00	143.00	141.00	136.00	129.00	127.00	131.00	130.00	135.00	140.00
833.00	831.00	830.00	833.00	825.00	838.00	834.00	821.00	791.00	786.00	785.00	799.00	777.00	781.00	779.00	747.00	739.00	719.00	715.00	742.00	734.00	738.00	730.00	715.00	688.00	678.00	677.00	666.00	664.00	671.00	669.00	658.00	648.00	653.00	653.00	638.00	642.00	638.00	644.00	640.00	644.00	639.00	637.00	632.00	622.00	614.00	606.00	598.00	605.00	588.00	573.00	580.00	597.00	623.00	624.00	607.00	614.00	608.00	628.00	625.00	613.00	589.00	599.00	605.00	599.00	582.00	597.00	590.00	585.00	590.00	615.00	616.00	617.00	631.00	640.00	627.00	620.00	614.00	607.00	592.00	595.00	593.00	586.00	577.00	569.00	568.00	558.00	569.00	590.00	604.00	615.00	586.00	577.00	556.00	548.00	543.00	540.00	528.00	523.00	520.00	515.00	511.00	507.00	504.00	500.00	497.00	484.00	479.00	473.00	475.00	475.00	468.00	461.00	461.00	455.00	441.00	434.00	436.00	445.00	438.00	425.00	429.00	423.00	416.00	419.00	416.00	410.00	409.00	401.00	385.00	379.00	368.00	363.00	377.00	368.00	371.00	375.00	368.00	367.00	359.00	355.00	348.00	338.00	334.00	323.00	320.00	318.00	306.00	306.00	300.00	305.00	310.00	307.00	308.00	300.00	291.00	288.00	290.00	299.00	305.00	305.00	300.00	293.00	288.00	294.00	314.00	313.00	309.00	307.00	312.00	307.00	288.00	281.00	279.00	273.00	269.00	262.00	259.00	268.00	259.00	260.00	270.00	273.00	276.00	275.00	283.00	286.00	275.00	271.00	268.00	265.00	250.00	242.00	242.00	248.00	257.00	248.00	237.00	231.00	239.00	228.00	230.00	231.00	226.00	235.00	256.00	261.00	252.00	245.00	236.00	234.00	233.00	235.00	228.00	213.00	205.00	201.00	204.00	199.00	194.00	192.00	194.00	195.00	205.00	200.00	194.00	187.00	182.00	178.00	182.00	180.00	176.00	165.00	158.00	151.00	152.00	148.00	161.00	169.00	170.00	174.00	176.00	175.00	168.00	159.00	154.00	152.00	147.00	143.00	138.00	126.00	126.00	125.00	126.00	126.00	133.00
850.00	858.00	847.00	846.00	858.00	881.00	911.00	855.00	822.00	816.00	835.00	828.00	790.00	775.00	768.00	762.00	779.00	732.00	745.00	748.00	771.00	733.00	717.00	715.00	698.00	692.00	684.00	686.00	690.00	695.00	683.00	675.00	679.00	682.00	683.00	662.00	664.00	660.00	655.00	655.00	659.00	653.00	644.00	634.00	638.00	635.00	625.00	609.00	617.00	602.00	594.00	607.00	606.00	625.00	624.00	621.00	622.00	635.00	636.00	627.00	611.00	596.00	611.00	623.00	619.00	604.00	604.00	618.00	621.00	610.00	622.00	633.00	634.00	639.00	644.00	636.00	627.00	622.00	615.00	607.00	599.00	592.00	587.00	579.00	583.00	571.00	570.00	584.00	574.00	575.00	571.00	566.00	559.00	549.00	545.00	542.00	540.00	530.00	526.00	524.00	523.00	521.00	516.00	511.00	503.00	500.00	491.00	490.00	485.00	482.00	479.00	467.00	461.00	457.00	451.00	441.00	450.00	455.00	456.00	442.00	436.00	433.00	431.00	428.00	420.00	411.00	405.00	399.00	394.00	373.00	372.00	371.00	370.00	388.00	384.00	384.00	380.00	375.00	369.00	357.00	352.00	347.00	341.00	335.00	331.00	328.00	316.00	325.00	320.00	310.00	327.00	322.00	308.00	304.00	311.00	314.00	301.00	295.00	304.00	312.00	316.00	308.00	301.00	295.00	306.00	322.00	325.00	324.00	320.00	311.00	305.00	291.00	285.00	280.00	272.00	267.00	268.00	275.00	277.00	269.00	268.00	268.00	285.00	285.00	288.00	285.00	278.00	266.00	268.00	264.00	260.00	254.00	257.00	262.00	264.00	260.00	245.00	248.00	239.00	246.00	246.00	242.00	244.00	243.00	238.00	250.00	260.00	263.00	255.00	250.00	249.00	246.00	241.00	224.00	214.00	211.00	214.00	211.00	203.00	202.00	205.00	211.00	226.00	212.00	204.00	197.00	198.00	192.00	189.00	186.00	182.00	179.00	167.00	165.00	161.00	158.00	172.00	166.00	179.00	194.00	192.00	193.00	188.00	175.00	165.00	156.00	153.00	148.00	143.00	138.00	129.00	126.00	136.00	134.00	132.00	125.00
852.00	861.00	868.00	876.00	871.00	903.00	970.00	930.00	852.00	840.00	834.00	845.00	824.00	807.00	804.00	782.00	791.00	756.00	763.00	778.00	770.00	773.00	752.00	738.00	713.00	709.00	720.00	716.00	721.00	721.00	709.00	707.00	709.00	721.00	724.00	694.00	686.00	677.00	677.00	673.00	669.00	661.00	657.00	651.00	651.00	638.00	633.00	633.00	622.00	606.00	608.00	625.00	627.00	638.00	631.00	644.00	634.00	644.00	628.00	612.00	613.00	618.00	625.00	638.00	629.00	617.00	611.00	638.00	635.00	632.00	637.00	646.00	652.00	650.00	645.00	638.00	631.00	626.00	622.00	609.00	600.00	602.00	601.00	599.00	591.00	582.00	580.00	584.00	574.00	569.00	565.00	564.00	562.00	572.00	555.00	547.00	544.00	536.00	534.00	534.00	533.00	528.00	519.00	513.00	516.00	515.00	505.00	499.00	485.00	485.00	479.00	465.00	464.00	460.00	456.00	455.00	462.00	468.00	462.00	454.00	441.00	436.00	432.00	426.00	416.00	411.00	406.00	403.00	397.00	382.00	380.00	385.00	384.00	392.00	394.00	385.00	381.00	376.00	365.00	357.00	353.00	352.00	345.00	345.00	343.00	331.00	328.00	327.00	332.00	331.00	336.00	320.00	319.00	315.00	320.00	330.00	311.00	302.00	308.00	315.00	328.00	319.00	309.00	304.00	305.00	320.00	329.00	328.00	321.00	308.00	303.00	292.00	287.00	283.00	278.00	270.00	272.00	278.00	281.00	276.00	278.00	282.00	288.00	288.00	282.00	280.00	282.00	278.00	284.00	277.00	277.00	264.00	267.00	274.00	269.00	258.00	262.00	261.00	252.00	246.00	260.00	255.00	258.00	258.00	250.00	249.00	255.00	264.00	269.00	255.00	252.00	246.00	239.00	232.00	223.00	223.00	218.00	214.00	212.00	213.00	216.00	222.00	233.00	214.00	210.00	209.00	208.00	198.00	196.00	193.00	191.00	186.00	177.00	170.00	168.00	174.00	195.00	181.00	182.00	194.00	216.00	205.00	191.00	177.00	170.00	160.00	156.00	155.00	154.00	153.00	140.00	143.00	152.00	149.00	137.00	133.00
858.00	865.00	873.00	885.00	880.00	892.00	925.00	906.00	865.00	871.00	851.00	847.00	909.00	847.00	801.00	792.00	802.00	767.00	775.00	784.00	765.00	796.00	775.00	756.00	722.00	718.00	733.00	730.00	735.00	736.00	726.00	724.00	730.00	739.00	743.00	718.00	706.00	693.00	687.00	683.00	674.00	671.00	667.00	660.00	655.00	642.00	643.00	642.00	623.00	617.00	621.00	626.00	639.00	646.00	638.00	654.00	647.00	642.00	627.00	616.00	622.00	626.00	631.00	641.00	639.00	630.00	623.00	627.00	639.00	643.00	639.00	652.00	661.00	655.00	645.00	642.00	634.00	630.00	626.00	607.00	607.00	610.00	609.00	602.00	588.00	585.00	584.00	583.00	574.00	570.00	571.00	572.00	568.00	577.00	558.00	551.00	546.00	539.00	536.00	537.00	535.00	528.00	520.00	519.00	523.00	518.00	508.00	499.00	488.00	483.00	477.00	468.00	469.00	464.00	460.00	465.00	467.00	472.00	465.00	451.00	433.00	426.00	424.00	421.00	420.00	411.00	401.00	396.00	392.00	388.00	384.00	394.00	393.00	393.00	391.00	387.00	381.00	376.00	367.00	360.00	359.00	355.00	350.00	354.00	347.00	338.00	333.00	339.00	341.00	332.00	337.00	327.00	322.00	322.00	327.00	336.00	319.00	314.00	307.00	311.00	332.00	324.00	316.00	306.00	308.00	324.00	333.00	329.00	320.00	309.00	306.00	296.00	291.00	287.00	278.00	272.00	273.00	280.00	284.00	280.00	286.00	287.00	289.00	286.00	286.00	288.00	288.00	282.00	290.00	284.00	284.00	267.00	272.00	276.00	271.00	258.00	269.00	267.00	256.00	251.00	266.00	261.00	267.00	264.00	257.00	257.00	259.00	266.00	271.00	253.00	244.00	240.00	237.00	237.00	228.00	226.00	221.00	219.00	214.00	217.00	221.00	230.00	234.00	219.00	216.00	213.00	209.00	201.00	198.00	193.00	189.00	185.00	175.00	171.00	180.00	183.00	196.00	189.00	191.00	193.00	209.00	207.00	193.00	184.00	176.00	159.00	155.00	153.00	151.00	148.00	143.00	155.00	158.00	154.00	138.00	132.00
864.00	871.00	879.00	907.00	904.00	889.00	903.00	916.00	885.00	891.00	865.00	861.00	872.00	900.00	807.00	808.00	809.00	778.00	786.00	785.00	783.00	796.00	795.00	761.00	736.00	727.00	748.00	746.00	751.00	753.00	745.00	750.00	753.00	753.00	761.00	747.00	723.00	707.00	698.00	690.00	680.00	681.00	674.00	666.00	660.00	649.00	651.00	648.00	631.00	620.00	629.00	641.00	652.00	655.00	645.00	660.00	656.00	629.00	624.00	621.00	631.00	629.00	642.00	643.00	646.00	645.00	631.00	640.00	647.00	654.00	647.00	656.00	666.00	655.00	648.00	644.00	639.00	633.00	627.00	612.00	618.00	616.00	610.00	599.00	597.00	595.00	592.00	586.00	578.00	575.00	578.00	577.00	574.00	568.00	559.00	552.00	551.00	542.00	541.00	542.00	537.00	533.00	524.00	524.00	521.00	518.00	507.00	501.00	491.00	490.00	482.00	474.00	471.00	473.00	468.00	474.00	472.00	468.00	463.00	447.00	438.00	436.00	431.00	422.00	410.00	405.00	404.00	397.00	392.00	392.00	388.00	399.00	403.00	396.00	394.00	394.00	386.00	379.00	367.00	365.00	365.00	358.00	356.00	361.00	355.00	345.00	336.00	347.00	346.00	337.00	341.00	334.00	325.00	329.00	335.00	334.00	330.00	328.00	313.00	313.00	330.00	335.00	322.00	311.00	317.00	322.00	329.00	331.00	324.00	315.00	311.00	298.00	292.00	288.00	281.00	276.00	274.00	281.00	287.00	284.00	289.00	292.00	291.00	289.00	291.00	295.00	290.00	286.00	293.00	291.00	290.00	271.00	279.00	279.00	270.00	263.00	276.00	270.00	258.00	256.00	270.00	265.00	274.00	272.00	264.00	262.00	265.00	271.00	274.00	254.00	246.00	243.00	244.00	240.00	233.00	231.00	225.00	222.00	219.00	222.00	225.00	234.00	233.00	219.00	215.00	213.00	212.00	203.00	197.00	191.00	187.00	183.00	176.00	176.00	192.00	193.00	201.00	200.00	201.00	203.00	211.00	212.00	203.00	192.00	182.00	159.00	154.00	153.00	153.00	151.00	154.00	166.00	163.00	157.00	136.00	140.00
880.00	887.00	899.00	997.00	928.00	932.00	971.00	945.00	912.00	905.00	893.00	883.00	857.00	850.00	826.00	827.00	822.00	819.00	806.00	807.00	798.00	805.00	787.00	760.00	764.00	746.00	775.00	777.00	785.00	791.00	810.00	801.00	798.00	792.00	791.00	777.00	758.00	741.00	730.00	701.00	698.00	694.00	689.00	682.00	670.00	663.00	664.00	658.00	635.00	644.00	641.00	651.00	672.00	676.00	662.00	666.00	648.00	649.00	644.00	649.00	655.00	645.00	657.00	664.00	664.00	654.00	646.00	660.00	665.00	670.00	668.00	671.00	665.00	660.00	656.00	651.00	646.00	639.00	628.00	628.00	621.00	611.00	608.00	610.00	611.00	608.00	605.00	597.00	585.00	584.00	592.00	605.00	584.00	569.00	566.00	564.00	561.00	551.00	551.00	550.00	545.00	539.00	534.00	529.00	525.00	519.00	513.00	511.00	498.00	488.00	483.00	481.00	480.00	486.00	483.00	474.00	470.00	464.00	463.00	459.00	448.00	440.00	439.00	436.00	422.00	414.00	410.00	403.00	398.00	403.00	403.00	410.00	412.00	400.00	394.00	396.00	391.00	382.00	373.00	375.00	370.00	371.00	369.00	360.00	355.00	347.00	355.00	355.00	358.00	355.00	343.00	344.00	335.00	349.00	349.00	342.00	331.00	324.00	332.00	338.00	324.00	332.00	323.00	323.00	327.00	323.00	333.00	339.00	334.00	322.00	316.00	305.00	299.00	293.00	284.00	279.00	278.00	282.00	292.00	296.00	299.00	302.00	303.00	297.00	298.00	304.00	300.00	289.00	301.00	303.00	296.00	279.00	294.00	287.00	271.00	277.00	278.00	268.00	268.00	263.00	279.00	281.00	283.00	290.00	282.00	268.00	268.00	272.00	270.00	259.00	255.00	254.00	249.00	240.00	235.00	232.00	229.00	227.00	227.00	230.00	232.00	230.00	227.00	218.00	213.00	210.00	206.00	198.00	194.00	192.00	191.00	190.00	188.00	185.00	192.00	195.00	210.00	221.00	224.00	218.00	211.00	204.00	200.00	191.00	181.00	159.00	161.00	166.00	167.00	166.00	163.00	174.00	165.00	152.00	154.00	164.00
888.00	895.00	907.00	1018.00	947.00	929.00	950.00	955.00	922.00	902.00	888.00	884.00	872.00	867.00	847.00	843.00	836.00	830.00	823.00	815.00	804.00	815.00	798.00	769.00	776.00	756.00	773.00	790.00	802.00	814.00	858.00	833.00	817.00	811.00	811.00	795.00	776.00	760.00	744.00	714.00	707.00	700.00	694.00	689.00	674.00	669.00	668.00	662.00	643.00	654.00	653.00	656.00	679.00	685.00	675.00	673.00	653.00	648.00	651.00	660.00	664.00	651.00	661.00	671.00	666.00	654.00	658.00	669.00	678.00	678.00	674.00	673.00	668.00	666.00	660.00	654.00	645.00	638.00	634.00	631.00	622.00	614.00	615.00	616.00	620.00	617.00	617.00	609.00	592.00	589.00	591.00	599.00	592.00	577.00	573.00	570.00	566.00	556.00	556.00	556.00	549.00	544.00	536.00	531.00	527.00	523.00	517.00	515.00	499.00	490.00	492.00	489.00	488.00	488.00	486.00	481.00	476.00	471.00	469.00	460.00	448.00	449.00	441.00	442.00	425.00	422.00	413.00	404.00	400.00	412.00	408.00	415.00	411.00	399.00	394.00	388.00	384.00	380.00	378.00	380.00	375.00	376.00	372.00	360.00	353.00	355.00	362.00	364.00	362.00	358.00	341.00	352.00	342.00	353.00	357.00	349.00	336.00	337.00	337.00	344.00	327.00	335.00	328.00	328.00	335.00	328.00	335.00	346.00	343.00	325.00	318.00	307.00	300.00	294.00	287.00	283.00	283.00	281.00	293.00	299.00	303.00	307.00	306.00	302.00	300.00	307.00	306.00	292.00	304.00	308.00	305.00	281.00	294.00	285.00	274.00	283.00	279.00	276.00	277.00	269.00	278.00	288.00	292.00	298.00	289.00	269.00	267.00	267.00	265.00	259.00	255.00	251.00	247.00	240.00	236.00	234.00	231.00	231.00	237.00	243.00	237.00	231.00	230.00	222.00	218.00	213.00	211.00	200.00	197.00	197.00	195.00	197.00	194.00	190.00	196.00	198.00	209.00	220.00	223.00	216.00	207.00	197.00	193.00	185.00	179.00	162.00	166.00	172.00	176.00	176.00	171.00	174.00	160.00	151.00	158.00	168.00
895.00	902.00	912.00	993.00	958.00	935.00	934.00	933.00	910.00	897.00	894.00	896.00	888.00	881.00	862.00	860.00	851.00	843.00	836.00	815.00	819.00	801.00	781.00	771.00	781.00	767.00	785.00	800.00	821.00	837.00	896.00	873.00	845.00	834.00	847.00	822.00	795.00	777.00	759.00	724.00	715.00	707.00	703.00	694.00	681.00	675.00	672.00	662.00	651.00	659.00	666.00	666.00	685.00	695.00	687.00	682.00	666.00	652.00	662.00	664.00	668.00	660.00	673.00	679.00	666.00	665.00	673.00	676.00	687.00	690.00	679.00	678.00	673.00	670.00	667.00	658.00	645.00	640.00	640.00	634.00	625.00	617.00	620.00	625.00	630.00	631.00	632.00	620.00	601.00	593.00	593.00	600.00	608.00	586.00	581.00	583.00	572.00	563.00	560.00	556.00	551.00	549.00	539.00	534.00	531.00	527.00	521.00	518.00	507.00	494.00	499.00	496.00	494.00	492.00	489.00	481.00	475.00	469.00	467.00	457.00	442.00	443.00	438.00	435.00	423.00	415.00	408.00	404.00	403.00	422.00	417.00	415.00	408.00	404.00	398.00	389.00	388.00	389.00	384.00	385.00	380.00	380.00	370.00	362.00	360.00	368.00	371.00	374.00	365.00	358.00	345.00	357.00	346.00	360.00	357.00	348.00	348.00	345.00	342.00	353.00	330.00	337.00	334.00	328.00	340.00	333.00	337.00	347.00	350.00	329.00	322.00	310.00	303.00	298.00	294.00	287.00	285.00	283.00	295.00	302.00	307.00	310.00	310.00	308.00	303.00	308.00	309.00	294.00	304.00	314.00	311.00	286.00	293.00	285.00	278.00	290.00	285.00	289.00	286.00	276.00	282.00	288.00	301.00	299.00	286.00	270.00	267.00	264.00	260.00	255.00	252.00	250.00	247.00	245.00	238.00	237.00	235.00	235.00	242.00	245.00	238.00	234.00	234.00	227.00	222.00	218.00	213.00	201.00	202.00	204.00	201.00	201.00	199.00	194.00	200.00	203.00	210.00	219.00	224.00	218.00	212.00	199.00	192.00	186.00	181.00	164.00	170.00	179.00	188.00	190.00	176.00	168.00	156.00	148.00	165.00	177.00
899.00	906.00	916.00	967.00	959.00	942.00	929.00	921.00	905.00	903.00	906.00	906.00	899.00	893.00	872.00	876.00	866.00	848.00	834.00	831.00	835.00	800.00	791.00	787.00	788.00	781.00	793.00	809.00	834.00	860.00	954.00	949.00	879.00	868.00	939.00	898.00	822.00	796.00	770.00	734.00	725.00	716.00	708.00	700.00	692.00	681.00	676.00	663.00	657.00	664.00	673.00	676.00	689.00	702.00	692.00	693.00	673.00	658.00	672.00	672.00	677.00	659.00	674.00	682.00	677.00	674.00	678.00	686.00	691.00	696.00	686.00	681.00	677.00	673.00	671.00	660.00	651.00	645.00	645.00	638.00	627.00	623.00	629.00	635.00	643.00	645.00	646.00	632.00	610.00	600.00	597.00	607.00	643.00	597.00	592.00	587.00	577.00	566.00	560.00	552.00	549.00	547.00	544.00	538.00	534.00	532.00	525.00	524.00	511.00	502.00	503.00	502.00	497.00	488.00	484.00	476.00	471.00	465.00	462.00	453.00	439.00	432.00	429.00	425.00	420.00	413.00	410.00	406.00	409.00	428.00	421.00	416.00	412.00	407.00	397.00	391.00	391.00	399.00	388.00	390.00	386.00	383.00	373.00	367.00	365.00	377.00	379.00	380.00	366.00	358.00	351.00	361.00	350.00	362.00	359.00	349.00	357.00	350.00	350.00	351.00	335.00	344.00	341.00	333.00	339.00	340.00	342.00	352.00	350.00	334.00	326.00	313.00	306.00	305.00	300.00	292.00	287.00	285.00	293.00	302.00	309.00	314.00	314.00	312.00	308.00	309.00	309.00	297.00	308.00	317.00	312.00	290.00	301.00	292.00	281.00	294.00	293.00	294.00	288.00	279.00	286.00	295.00	304.00	299.00	285.00	272.00	268.00	265.00	261.00	255.00	252.00	250.00	249.00	249.00	241.00	239.00	238.00	239.00	244.00	243.00	239.00	240.00	240.00	231.00	227.00	222.00	216.00	204.00	207.00	210.00	207.00	206.00	204.00	198.00	205.00	209.00	215.00	224.00	229.00	227.00	223.00	208.00	200.00	190.00	184.00	168.00	175.00	184.00	195.00	189.00	170.00	163.00	154.00	154.00	166.00	175.00
900.00	910.00	922.00	946.00	949.00	939.00	927.00	924.00	935.00	955.00	966.00	969.00	936.00	919.00	897.00	886.00	869.00	863.00	854.00	838.00	823.00	808.00	818.00	818.00	796.00	802.00	818.00	826.00	851.00	886.00	979.00	1081.00	1216.00	1215.00	1283.00	990.00	970.00	873.00	803.00	753.00	737.00	726.00	720.00	713.00	706.00	680.00	679.00	683.00	671.00	672.00	680.00	690.00	707.00	712.00	709.00	706.00	681.00	669.00	687.00	692.00	691.00	672.00	684.00	694.00	690.00	692.00	692.00	702.00	710.00	705.00	694.00	690.00	687.00	683.00	679.00	667.00	653.00	656.00	656.00	641.00	635.00	636.00	647.00	660.00	676.00	680.00	678.00	664.00	625.00	611.00	603.00	609.00	625.00	601.00	587.00	575.00	569.00	557.00	554.00	549.00	546.00	543.00	536.00	532.00	530.00	531.00	532.00	530.00	520.00	517.00	517.00	502.00	489.00	479.00	473.00	464.00	459.00	456.00	452.00	444.00	440.00	433.00	431.00	435.00	429.00	421.00	419.00	419.00	424.00	432.00	430.00	425.00	422.00	406.00	407.00	401.00	395.00	404.00	403.00	402.00	396.00	391.00	378.00	381.00	377.00	383.00	391.00	384.00	376.00	361.00	367.00	373.00	370.00	367.00	359.00	355.00	366.00	366.00	354.00	358.00	349.00	349.00	349.00	343.00	349.00	352.00	350.00	349.00	347.00	340.00	336.00	321.00	317.00	317.00	306.00	298.00	295.00	292.00	293.00	302.00	311.00	318.00	325.00	320.00	319.00	318.00	320.00	303.00	312.00	324.00	316.00	298.00	302.00	294.00	289.00	299.00	309.00	297.00	288.00	286.00	304.00	309.00	310.00	302.00	292.00	279.00	274.00	270.00	271.00	263.00	260.00	261.00	265.00	255.00	245.00	245.00	244.00	249.00	254.00	249.00	250.00	252.00	251.00	235.00	229.00	224.00	217.00	209.00	214.00	219.00	221.00	217.00	213.00	210.00	210.00	215.00	232.00	232.00	230.00	225.00	218.00	207.00	205.00	195.00	183.00	173.00	180.00	194.00	190.00	177.00	165.00	164.00	163.00	172.00	168.00	178.00
900.00	908.00	917.00	939.00	944.00	942.00	934.00	932.00	965.00	989.00	1005.00	1025.00	966.00	936.00	905.00	887.00	875.00	873.00	859.00	844.00	839.00	833.00	824.00	830.00	803.00	814.00	825.00	838.00	854.00	885.00	975.00	1062.00	1261.00	1272.00	1302.00	951.00	935.00	881.00	816.00	765.00	743.00	732.00	723.00	715.00	701.00	685.00	693.00	699.00	680.00	676.00	682.00	695.00	719.00	721.00	713.00	703.00	680.00	682.00	695.00	704.00	697.00	679.00	688.00	701.00	700.00	701.00	698.00	707.00	712.00	705.00	698.00	694.00	690.00	684.00	676.00	664.00	659.00	663.00	660.00	646.00	640.00	644.00	656.00	679.00	700.00	695.00	711.00	682.00	632.00	615.00	607.00	602.00	607.00	595.00	585.00	575.00	567.00	556.00	551.00	547.00	545.00	540.00	532.00	529.00	527.00	526.00	524.00	527.00	520.00	518.00	520.00	502.00	490.00	483.00	480.00	468.00	467.00	458.00	451.00	441.00	436.00	436.00	440.00	446.00	431.00	424.00	421.00	428.00	431.00	439.00	434.00	430.00	425.00	409.00	414.00	406.00	398.00	404.00	416.00	405.00	400.00	391.00	384.00	387.00	388.00	390.00	385.00	377.00	373.00	368.00	371.00	374.00	378.00	372.00	363.00	362.00	367.00	361.00	357.00	365.00	358.00	358.00	353.00	348.00	356.00	357.00	354.00	350.00	345.00	335.00	333.00	323.00	320.00	317.00	309.00	302.00	298.00	294.00	293.00	300.00	309.00	315.00	329.00	325.00	324.00	326.00	326.00	308.00	316.00	325.00	320.00	301.00	304.00	297.00	294.00	307.00	311.00	300.00	300.00	297.00	312.00	319.00	309.00	302.00	294.00	282.00	276.00	273.00	275.00	269.00	264.00	266.00	269.00	255.00	247.00	247.00	249.00	254.00	257.00	253.00	257.00	260.00	253.00	232.00	227.00	222.00	217.00	212.00	217.00	224.00	227.00	223.00	219.00	218.00	218.00	221.00	236.00	234.00	228.00	221.00	216.00	205.00	198.00	190.00	183.00	175.00	180.00	189.00	189.00	183.00	169.00	169.00	170.00	183.00	175.00	183.00
904.00	908.00	915.00	939.00	944.00	947.00	944.00	946.00	1006.00	1045.00	1090.00	1123.00	988.00	950.00	906.00	887.00	887.00	883.00	870.00	856.00	853.00	848.00	838.00	838.00	809.00	822.00	833.00	847.00	863.00	889.00	968.00	1020.00	1187.00	1287.00	1270.00	915.00	872.00	849.00	818.00	771.00	750.00	737.00	729.00	720.00	698.00	697.00	708.00	709.00	689.00	684.00	690.00	702.00	732.00	724.00	707.00	695.00	689.00	677.00	693.00	710.00	708.00	692.00	689.00	701.00	711.00	714.00	705.00	712.00	713.00	708.00	701.00	697.00	691.00	683.00	675.00	671.00	665.00	665.00	663.00	650.00	646.00	650.00	667.00	709.00	735.00	715.00	740.00	734.00	635.00	621.00	608.00	598.00	596.00	587.00	580.00	573.00	567.00	556.00	553.00	548.00	545.00	540.00	533.00	530.00	527.00	523.00	521.00	522.00	516.00	514.00	516.00	504.00	495.00	488.00	484.00	472.00	464.00	459.00	457.00	444.00	440.00	446.00	447.00	443.00	430.00	430.00	427.00	430.00	438.00	441.00	437.00	428.00	421.00	420.00	421.00	412.00	403.00	403.00	425.00	409.00	401.00	396.00	386.00	393.00	395.00	395.00	388.00	376.00	380.00	382.00	373.00	382.00	384.00	382.00	370.00	365.00	363.00	363.00	366.00	371.00	369.00	368.00	359.00	353.00	358.00	358.00	353.00	352.00	346.00	333.00	329.00	321.00	318.00	316.00	309.00	304.00	299.00	296.00	294.00	299.00	306.00	310.00	327.00	331.00	329.00	333.00	328.00	312.00	322.00	331.00	324.00	307.00	308.00	299.00	299.00	313.00	314.00	310.00	312.00	306.00	314.00	322.00	309.00	303.00	304.00	287.00	280.00	276.00	276.00	271.00	269.00	271.00	270.00	257.00	250.00	251.00	262.00	261.00	260.00	258.00	262.00	263.00	255.00	234.00	228.00	222.00	218.00	216.00	220.00	224.00	230.00	230.00	227.00	225.00	231.00	231.00	241.00	238.00	231.00	223.00	221.00	208.00	196.00	187.00	181.00	176.00	180.00	185.00	187.00	186.00	176.00	173.00	179.00	190.00	189.00	195.00
909.00	913.00	919.00	942.00	949.00	954.00	955.00	959.00	1074.00	1198.00	1214.00	1196.00	1000.00	957.00	905.00	908.00	906.00	896.00	884.00	871.00	862.00	853.00	851.00	841.00	821.00	832.00	835.00	855.00	871.00	893.00	957.00	997.00	1121.00	1211.00	1220.00	884.00	859.00	838.00	815.00	773.00	754.00	742.00	732.00	723.00	701.00	714.00	718.00	710.00	694.00	690.00	696.00	707.00	735.00	721.00	708.00	710.00	699.00	681.00	694.00	709.00	715.00	708.00	697.00	704.00	719.00	723.00	712.00	718.00	719.00	713.00	701.00	695.00	689.00	681.00	684.00	683.00	672.00	671.00	667.00	658.00	652.00	658.00	676.00	720.00	817.00	743.00	739.00	762.00	642.00	623.00	611.00	600.00	592.00	584.00	577.00	573.00	568.00	559.00	556.00	552.00	548.00	543.00	538.00	535.00	529.00	524.00	516.00	517.00	513.00	510.00	506.00	501.00	495.00	488.00	483.00	471.00	466.00	465.00	461.00	446.00	451.00	453.00	450.00	440.00	436.00	443.00	438.00	431.00	438.00	436.00	431.00	424.00	420.00	426.00	420.00	413.00	404.00	406.00	427.00	411.00	405.00	403.00	392.00	396.00	400.00	394.00	389.00	386.00	381.00	390.00	380.00	391.00	387.00	382.00	377.00	375.00	369.00	371.00	373.00	377.00	378.00	378.00	367.00	360.00	361.00	359.00	352.00	347.00	344.00	336.00	331.00	324.00	320.00	315.00	307.00	305.00	303.00	301.00	296.00	299.00	304.00	312.00	330.00	337.00	335.00	340.00	334.00	317.00	330.00	337.00	328.00	315.00	311.00	301.00	305.00	317.00	321.00	321.00	319.00	310.00	322.00	328.00	313.00	311.00	312.00	301.00	287.00	281.00	280.00	276.00	275.00	279.00	272.00	259.00	253.00	255.00	268.00	270.00	262.00	261.00	259.00	256.00	252.00	233.00	227.00	223.00	219.00	220.00	224.00	228.00	234.00	237.00	235.00	234.00	240.00	242.00	242.00	236.00	228.00	220.00	215.00	205.00	195.00	187.00	182.00	179.00	181.00	182.00	182.00	183.00	185.00	181.00	187.00	190.00	194.00	199.00
925.00	927.00	932.00	958.00	963.00	973.00	982.00	993.00	1019.00	1044.00	1057.00	1048.00	992.00	959.00	928.00	943.00	942.00	949.00	931.00	920.00	909.00	891.00	869.00	854.00	866.00	854.00	892.00	890.00	880.00	895.00	935.00	951.00	960.00	990.00	1078.00	872.00	837.00	813.00	800.00	783.00	767.00	746.00	731.00	729.00	733.00	746.00	731.00	721.00	718.00	732.00	741.00	731.00	747.00	734.00	731.00	733.00	714.00	711.00	700.00	698.00	714.00	733.00	721.00	727.00	730.00	741.00	733.00	725.00	719.00	712.00	703.00	703.00	701.00	702.00	697.00	693.00	688.00	684.00	679.00	670.00	666.00	678.00	691.00	708.00	748.00	758.00	774.00	802.00	664.00	647.00	633.00	618.00	604.00	588.00	582.00	579.00	575.00	560.00	558.00	554.00	549.00	545.00	535.00	531.00	528.00	525.00	514.00	509.00	502.00	498.00	496.00	488.00	487.00	479.00	473.00	467.00	463.00	463.00	460.00	457.00	454.00	447.00	442.00	449.00	452.00	452.00	455.00	450.00	452.00	443.00	439.00	434.00	430.00	424.00	416.00	413.00	414.00	417.00	435.00	437.00	430.00	421.00	414.00	410.00	402.00	397.00	397.00	410.00	402.00	397.00	406.00	401.00	394.00	388.00	383.00	389.00	394.00	394.00	398.00	399.00	400.00	391.00	380.00	370.00	364.00	354.00	350.00	344.00	341.00	340.00	342.00	338.00	334.00	332.00	322.00	321.00	314.00	310.00	305.00	302.00	305.00	312.00	323.00	334.00	340.00	343.00	341.00	333.00	340.00	344.00	339.00	334.00	321.00	323.00	331.00	332.00	328.00	328.00	326.00	326.00	332.00	332.00	330.00	328.00	327.00	320.00	315.00	305.00	294.00	280.00	273.00	270.00	268.00	263.00	267.00	268.00	272.00	269.00	261.00	260.00	258.00	255.00	250.00	239.00	235.00	231.00	228.00	237.00	242.00	248.00	250.00	249.00	252.00	254.00	242.00	237.00	245.00	236.00	227.00	220.00	212.00	203.00	199.00	194.00	191.00	180.00	178.00	176.00	175.00	174.00	179.00	180.00	180.00	182.00	184.00	185.00
932.00	933.00	935.00	962.00	969.00	976.00	986.00	995.00	1019.00	1026.00	1012.00	1000.00	960.00	947.00	949.00	959.00	974.00	968.00	951.00	940.00	926.00	901.00	874.00	862.00	879.00	863.00	900.00	913.00	900.00	907.00	924.00	935.00	938.00	943.00	945.00	858.00	833.00	817.00	809.00	777.00	763.00	746.00	738.00	744.00	743.00	753.00	736.00	731.00	731.00	739.00	748.00	741.00	749.00	735.00	742.00	737.00	724.00	723.00	716.00	703.00	716.00	739.00	732.00	733.00	744.00	746.00	730.00	726.00	723.00	713.00	713.00	709.00	708.00	707.00	700.00	698.00	693.00	688.00	683.00	672.00	670.00	682.00	698.00	712.00	737.00	757.00	789.00	726.00	672.00	654.00	638.00	624.00	610.00	589.00	585.00	580.00	575.00	561.00	558.00	555.00	550.00	546.00	537.00	533.00	527.00	523.00	514.00	511.00	504.00	500.00	496.00	489.00	485.00	480.00	475.00	467.00	468.00	472.00	463.00	462.00	450.00	449.00	445.00	455.00	457.00	456.00	457.00	457.00	455.00	443.00	438.00	433.00	427.00	420.00	417.00	421.00	420.00	417.00	434.00	443.00	439.00	428.00	415.00	410.00	404.00	405.00	403.00	413.00	413.00	405.00	408.00	404.00	399.00	392.00	388.00	394.00	395.00	401.00	403.00	405.00	401.00	392.00	382.00	372.00	365.00	355.00	350.00	347.00	347.00	346.00	348.00	341.00	336.00	334.00	325.00	321.00	316.00	313.00	306.00	304.00	307.00	312.00	321.00	332.00	339.00	343.00	342.00	341.00	346.00	346.00	344.00	338.00	328.00	330.00	332.00	332.00	329.00	329.00	327.00	328.00	331.00	332.00	330.00	329.00	326.00	323.00	318.00	310.00	302.00	285.00	280.00	275.00	274.00	270.00	273.00	274.00	280.00	273.00	266.00	266.00	262.00	258.00	253.00	240.00	235.00	233.00	232.00	242.00	248.00	252.00	251.00	249.00	248.00	249.00	239.00	235.00	241.00	238.00	229.00	221.00	213.00	203.00	199.00	194.00	190.00	179.00	177.00	174.00	172.00	171.00	174.00	175.00	176.00	178.00	182.00	182.00
938.00	940.00	939.00	957.00	965.00	974.00	983.00	992.00	1014.00	1017.00	1002.00	983.00	977.00	975.00	991.00	983.00	1027.00	1052.00	980.00	959.00	939.00	897.00	874.00	874.00	891.00	877.00	899.00	913.00	910.00	914.00	913.00	921.00	920.00	913.00	905.00	842.00	829.00	821.00	811.00	784.00	764.00	745.00	753.00	757.00	754.00	756.00	738.00	743.00	741.00	753.00	751.00	753.00	747.00	750.00	750.00	741.00	733.00	733.00	718.00	710.00	725.00	749.00	741.00	742.00	750.00	747.00	735.00	731.00	722.00	718.00	720.00	715.00	716.00	711.00	705.00	702.00	696.00	691.00	683.00	675.00	672.00	687.00	705.00	723.00	759.00	837.00	870.00	713.00	674.00	658.00	642.00	628.00	612.00	592.00	589.00	582.00	575.00	566.00	563.00	562.00	556.00	549.00	541.00	536.00	531.00	526.00	517.00	515.00	507.00	503.00	498.00	492.00	489.00	483.00	477.00	474.00	471.00	466.00	462.00	464.00	460.00	456.00	448.00	455.00	464.00	462.00	460.00	459.00	453.00	439.00	435.00	430.00	428.00	422.00	423.00	426.00	422.00	421.00	434.00	447.00	446.00	436.00	417.00	411.00	407.00	412.00	410.00	416.00	421.00	412.00	409.00	410.00	401.00	394.00	393.00	400.00	398.00	405.00	412.00	411.00	405.00	396.00	385.00	374.00	367.00	358.00	356.00	355.00	351.00	351.00	346.00	340.00	334.00	330.00	323.00	320.00	319.00	315.00	308.00	307.00	307.00	312.00	321.00	332.00	339.00	345.00	347.00	347.00	348.00	347.00	345.00	342.00	335.00	336.00	335.00	333.00	329.00	329.00	328.00	328.00	329.00	330.00	328.00	328.00	326.00	323.00	320.00	316.00	312.00	300.00	292.00	286.00	282.00	287.00	280.00	281.00	281.00	274.00	273.00	272.00	265.00	259.00	253.00	242.00	239.00	236.00	237.00	248.00	254.00	255.00	254.00	249.00	242.00	244.00	236.00	233.00	236.00	238.00	228.00	219.00	211.00	201.00	196.00	192.00	188.00	180.00	177.00	174.00	172.00	169.00	170.00	170.00	172.00	175.00	180.00	182.00
937.00	944.00	945.00	959.00	966.00	973.00	980.00	990.00	1006.00	1010.00	999.00	986.00	1030.00	1029.00	1029.00	986.00	1087.00	1117.00	1005.00	971.00	944.00	900.00	883.00	895.00	908.00	899.00	913.00	913.00	907.00	906.00	902.00	903.00	902.00	895.00	884.00	832.00	819.00	807.00	792.00	778.00	761.00	754.00	768.00	770.00	768.00	754.00	744.00	750.00	751.00	762.00	757.00	768.00	754.00	758.00	758.00	750.00	745.00	734.00	718.00	718.00	731.00	757.00	754.00	754.00	755.00	754.00	738.00	730.00	726.00	727.00	724.00	723.00	720.00	714.00	710.00	706.00	697.00	690.00	684.00	681.00	676.00	689.00	709.00	738.00	799.00	923.00	895.00	723.00	673.00	656.00	641.00	627.00	613.00	597.00	593.00	584.00	577.00	578.00	576.00	570.00	563.00	552.00	541.00	537.00	532.00	527.00	520.00	517.00	510.00	507.00	501.00	493.00	490.00	483.00	488.00	476.00	469.00	469.00	473.00	463.00	469.00	459.00	455.00	453.00	467.00	465.00	463.00	456.00	450.00	442.00	436.00	434.00	436.00	426.00	431.00	429.00	425.00	424.00	435.00	444.00	443.00	436.00	419.00	412.00	412.00	419.00	417.00	416.00	425.00	422.00	413.00	413.00	404.00	396.00	397.00	404.00	404.00	408.00	414.00	418.00	402.00	392.00	387.00	378.00	372.00	365.00	362.00	360.00	358.00	351.00	346.00	338.00	335.00	331.00	324.00	325.00	326.00	322.00	312.00	309.00	309.00	313.00	321.00	333.00	340.00	345.00	348.00	349.00	348.00	347.00	345.00	342.00	338.00	337.00	336.00	334.00	330.00	327.00	328.00	327.00	329.00	331.00	329.00	328.00	326.00	324.00	321.00	320.00	318.00	312.00	301.00	290.00	289.00	304.00	295.00	288.00	281.00	275.00	274.00	270.00	264.00	258.00	253.00	246.00	243.00	240.00	241.00	254.00	258.00	256.00	254.00	248.00	238.00	237.00	232.00	231.00	230.00	234.00	227.00	218.00	210.00	199.00	195.00	192.00	187.00	180.00	177.00	176.00	173.00	171.00	167.00	167.00	168.00	171.00	176.00	179.00
942.00	948.00	953.00	963.00	968.00	974.00	981.00	990.00	1000.00	1009.00	1015.00	1016.00	1027.00	1029.00	1009.00	1030.00	1116.00	1232.00	1139.00	989.00	943.00	912.00	913.00	963.00	954.00	939.00	916.00	912.00	908.00	916.00	886.00	877.00	869.00	865.00	855.00	827.00	813.00	809.00	806.00	789.00	789.00	783.00	794.00	792.00	770.00	768.00	760.00	762.00	772.00	777.00	780.00	791.00	764.00	773.00	767.00	760.00	755.00	734.00	728.00	743.00	755.00	765.00	770.00	768.00	769.00	767.00	743.00	741.00	735.00	740.00	739.00	732.00	726.00	722.00	722.00	712.00	699.00	698.00	695.00	686.00	686.00	699.00	721.00	748.00	926.00	986.00	1007.00	731.00	692.00	654.00	637.00	621.00	608.00	598.00	591.00	585.00	581.00	626.00	661.00	596.00	577.00	565.00	546.00	541.00	536.00	532.00	527.00	525.00	509.00	505.00	502.00	495.00	496.00	500.00	497.00	479.00	479.00	485.00	486.00	469.00	472.00	471.00	468.00	460.00	469.00	466.00	462.00	458.00	453.00	442.00	444.00	443.00	438.00	438.00	437.00	437.00	434.00	431.00	436.00	439.00	435.00	428.00	427.00	423.00	422.00	425.00	429.00	425.00	431.00	434.00	426.00	416.00	413.00	412.00	410.00	409.00	419.00	420.00	422.00	418.00	404.00	402.00	397.00	391.00	387.00	376.00	373.00	371.00	367.00	359.00	350.00	343.00	337.00	335.00	333.00	340.00	342.00	334.00	319.00	316.00	316.00	320.00	326.00	334.00	343.00	347.00	347.00	347.00	347.00	345.00	342.00	342.00	340.00	339.00	336.00	335.00	332.00	330.00	329.00	329.00	328.00	328.00	328.00	327.00	326.00	323.00	322.00	322.00	322.00	319.00	311.00	310.00	311.00	318.00	305.00	293.00	284.00	278.00	269.00	264.00	261.00	263.00	262.00	257.00	255.00	251.00	251.00	265.00	261.00	256.00	250.00	247.00	243.00	238.00	229.00	225.00	221.00	220.00	221.00	216.00	210.00	198.00	195.00	192.00	190.00	184.00	183.00	183.00	181.00	178.00	170.00	168.00	167.00	166.00	166.00	168.00
945.00	951.00	956.00	969.00	973.00	978.00	982.00	988.00	1001.00	1009.00	1019.00	1027.00	1032.00	1032.00	1020.00	1035.00	1052.00	1058.00	1028.00	978.00	942.00	931.00	922.00	999.00	969.00	942.00	915.00	914.00	909.00	909.00	879.00	870.00	859.00	852.00	843.00	822.00	819.00	825.00	819.00	806.00	805.00	798.00	800.00	792.00	776.00	781.00	765.00	769.00	780.00	789.00	792.00	792.00	778.00	782.00	774.00	769.00	749.00	729.00	733.00	748.00	764.00	775.00	775.00	772.00	777.00	772.00	749.00	745.00	741.00	747.00	741.00	734.00	730.00	728.00	724.00	712.00	705.00	701.00	695.00	691.00	694.00	706.00	724.00	764.00	910.00	952.00	1008.00	725.00	676.00	654.00	636.00	622.00	607.00	597.00	592.00	588.00	585.00	648.00	760.00	610.00	580.00	566.00	546.00	542.00	537.00	534.00	524.00	520.00	508.00	507.00	503.00	502.00	503.00	502.00	496.00	482.00	486.00	492.00	486.00	472.00	480.00	477.00	470.00	465.00	471.00	467.00	462.00	457.00	453.00	447.00	446.00	442.00	438.00	441.00	439.00	440.00	438.00	436.00	437.00	440.00	437.00	433.00	436.00	432.00	431.00	429.00	431.00	432.00	435.00	440.00	430.00	424.00	421.00	420.00	417.00	414.00	424.00	431.00	430.00	423.00	409.00	406.00	400.00	400.00	398.00	382.00	379.00	374.00	371.00	360.00	354.00	344.00	339.00	338.00	339.00	346.00	347.00	339.00	323.00	319.00	318.00	323.00	330.00	336.00	342.00	347.00	347.00	347.00	346.00	344.00	342.00	341.00	340.00	339.00	337.00	335.00	333.00	332.00	330.00	330.00	330.00	329.00	328.00	327.00	325.00	323.00	322.00	323.00	322.00	321.00	319.00	320.00	320.00	320.00	308.00	299.00	288.00	279.00	269.00	266.00	269.00	270.00	269.00	264.00	263.00	258.00	257.00	270.00	264.00	257.00	254.00	252.00	247.00	241.00	232.00	226.00	219.00	216.00	214.00	213.00	211.00	199.00	196.00	194.00	192.00	186.00	186.00	186.00	184.00	180.00	174.00	171.00	170.00	168.00	164.00	164.00
946.00	956.00	961.00	979.00	983.00	989.00	988.00	990.00	1002.00	1012.00	1021.00	1024.00	1031.00	1033.00	1027.00	1025.00	1026.00	1000.00	979.00	963.00	960.00	938.00	935.00	955.00	961.00	938.00	911.00	905.00	901.00	894.00	879.00	869.00	857.00	847.00	844.00	836.00	833.00	841.00	839.00	823.00	819.00	811.00	802.00	793.00	787.00	787.00	771.00	782.00	786.00	801.00	805.00	798.00	787.00	789.00	781.00	771.00	742.00	741.00	748.00	753.00	760.00	785.00	781.00	778.00	782.00	778.00	755.00	749.00	747.00	753.00	742.00	737.00	735.00	729.00	725.00	714.00	710.00	705.00	700.00	695.00	704.00	716.00	734.00	787.00	861.00	921.00	990.00	725.00	668.00	651.00	635.00	622.00	609.00	596.00	590.00	589.00	585.00	649.00	729.00	610.00	582.00	564.00	543.00	539.00	534.00	531.00	524.00	520.00	512.00	507.00	508.00	508.00	504.00	500.00	497.00	489.00	493.00	493.00	489.00	475.00	483.00	478.00	471.00	469.00	472.00	467.00	461.00	458.00	455.00	452.00	447.00	445.00	443.00	445.00	444.00	444.00	442.00	440.00	441.00	440.00	440.00	440.00	444.00	440.00	439.00	435.00	432.00	435.00	437.00	439.00	437.00	430.00	429.00	430.00	425.00	420.00	426.00	435.00	437.00	430.00	417.00	412.00	408.00	408.00	407.00	388.00	383.00	378.00	374.00	365.00	358.00	346.00	342.00	343.00	345.00	352.00	352.00	346.00	326.00	323.00	320.00	323.00	334.00	337.00	342.00	346.00	348.00	346.00	345.00	344.00	343.00	340.00	340.00	340.00	338.00	336.00	335.00	334.00	332.00	329.00	329.00	330.00	328.00	326.00	325.00	323.00	322.00	322.00	321.00	322.00	323.00	324.00	324.00	321.00	310.00	304.00	294.00	281.00	269.00	271.00	278.00	278.00	276.00	268.00	271.00	264.00	261.00	272.00	267.00	261.00	259.00	256.00	251.00	246.00	231.00	227.00	225.00	219.00	216.00	211.00	208.00	200.00	198.00	196.00	194.00	189.00	189.00	190.00	188.00	184.00	177.00	174.00	172.00	170.00	165.00	163.00
950.00	957.00	965.00	978.00	982.00	991.00	996.00	998.00	1002.00	1011.00	1016.00	1016.00	1031.00	1030.00	1024.00	1015.00	1010.00	984.00	973.00	979.00	961.00	952.00	961.00	953.00	952.00	933.00	918.00	914.00	905.00	896.00	879.00	868.00	860.00	854.00	859.00	843.00	845.00	855.00	855.00	841.00	830.00	815.00	809.00	807.00	797.00	789.00	779.00	789.00	794.00	813.00	813.00	799.00	798.00	795.00	782.00	767.00	745.00	751.00	756.00	767.00	766.00	785.00	784.00	785.00	788.00	780.00	758.00	752.00	754.00	759.00	747.00	743.00	737.00	734.00	730.00	718.00	714.00	709.00	703.00	697.00	712.00	727.00	741.00	767.00	822.00	856.00	900.00	712.00	658.00	641.00	627.00	615.00	605.00	595.00	589.00	585.00	583.00	644.00	708.00	605.00	580.00	562.00	540.00	537.00	534.00	531.00	522.00	520.00	512.00	513.00	518.00	514.00	506.00	502.00	503.00	493.00	499.00	497.00	490.00	482.00	485.00	480.00	476.00	474.00	474.00	470.00	466.00	463.00	461.00	456.00	451.00	450.00	447.00	448.00	448.00	447.00	444.00	443.00	441.00	440.00	441.00	443.00	446.00	445.00	442.00	437.00	434.00	435.00	435.00	437.00	440.00	437.00	435.00	437.00	430.00	422.00	427.00	434.00	440.00	435.00	423.00	417.00	416.00	410.00	403.00	384.00	380.00	376.00	372.00	363.00	357.00	347.00	348.00	347.00	346.00	357.00	358.00	349.00	330.00	326.00	324.00	327.00	338.00	340.00	343.00	347.00	349.00	348.00	346.00	345.00	343.00	341.00	340.00	339.00	338.00	338.00	336.00	334.00	332.00	330.00	330.00	329.00	328.00	326.00	325.00	323.00	321.00	321.00	322.00	323.00	323.00	324.00	325.00	322.00	307.00	298.00	294.00	282.00	272.00	277.00	284.00	283.00	281.00	271.00	273.00	267.00	267.00	273.00	269.00	262.00	260.00	255.00	252.00	250.00	234.00	234.00	231.00	226.00	219.00	213.00	208.00	202.00	200.00	198.00	195.00	191.00	193.00	194.00	193.00	188.00	179.00	176.00	172.00	172.00	168.00	165.00
944.00	950.00	954.00	967.00	972.00	980.00	984.00	987.00	994.00	999.00	1005.00	1010.00	1020.00	1028.00	1026.00	1012.00	1002.00	988.00	983.00	976.00	973.00	966.00	962.00	958.00	950.00	942.00	976.00	951.00	932.00	914.00	882.00	882.00	885.00	884.00	881.00	864.00	866.00	864.00	857.00	840.00	835.00	837.00	834.00	823.00	811.00	797.00	796.00	805.00	807.00	825.00	821.00	810.00	805.00	789.00	774.00	760.00	772.00	766.00	772.00	782.00	792.00	794.00	796.00	799.00	796.00	787.00	769.00	765.00	770.00	768.00	753.00	750.00	745.00	743.00	740.00	729.00	719.00	714.00	708.00	702.00	712.00	726.00	743.00	764.00	804.00	813.00	757.00	701.00	653.00	630.00	616.00	607.00	603.00	593.00	586.00	580.00	577.00	586.00	585.00	581.00	566.00	554.00	543.00	540.00	538.00	536.00	529.00	525.00	523.00	527.00	524.00	513.00	508.00	504.00	499.00	501.00	504.00	503.00	498.00	490.00	488.00	487.00	483.00	481.00	476.00	472.00	469.00	466.00	463.00	457.00	456.00	454.00	452.00	448.00	448.00	447.00	445.00	445.00	442.00	439.00	438.00	438.00	441.00	445.00	442.00	437.00	434.00	431.00	431.00	433.00	435.00	437.00	437.00	435.00	433.00	429.00	430.00	434.00	439.00	443.00	425.00	418.00	410.00	406.00	401.00	393.00	384.00	380.00	373.00	363.00	357.00	358.00	360.00	358.00	358.00	364.00	360.00	351.00	338.00	333.00	332.00	331.00	339.00	348.00	349.00	351.00	352.00	351.00	350.00	348.00	345.00	342.00	338.00	338.00	337.00	336.00	338.00	337.00	335.00	333.00	331.00	329.00	328.00	327.00	324.00	322.00	320.00	320.00	321.00	322.00	323.00	324.00	325.00	322.00	304.00	296.00	290.00	284.00	281.00	286.00	285.00	283.00	280.00	271.00	268.00	268.00	269.00	267.00	264.00	257.00	253.00	248.00	242.00	240.00	241.00	240.00	239.00	236.00	229.00	222.00	214.00	207.00	204.00	200.00	197.00	194.00	196.00	198.00	201.00	195.00	183.00	179.00	177.00	180.00	176.00	173.00
942.00	948.00	954.00	969.00	970.00	973.00	978.00	983.00	996.00	1002.00	1008.00	1014.00	1023.00	1027.00	1024.00	1015.00	1003.00	983.00	979.00	977.00	971.00	962.00	960.00	954.00	947.00	948.00	972.00	965.00	936.00	914.00	890.00	897.00	897.00	893.00	883.00	875.00	871.00	866.00	861.00	852.00	849.00	845.00	837.00	823.00	814.00	811.00	809.00	816.00	810.00	826.00	824.00	817.00	811.00	792.00	779.00	765.00	778.00	777.00	786.00	788.00	802.00	800.00	802.00	803.00	796.00	786.00	775.00	774.00	775.00	768.00	760.00	754.00	752.00	749.00	743.00	732.00	720.00	715.00	712.00	706.00	706.00	722.00	743.00	767.00	829.00	821.00	743.00	691.00	646.00	625.00	613.00	608.00	603.00	593.00	588.00	584.00	580.00	571.00	569.00	566.00	558.00	551.00	545.00	542.00	540.00	536.00	528.00	526.00	527.00	526.00	522.00	511.00	506.00	503.00	501.00	503.00	507.00	507.00	503.00	493.00	488.00	485.00	484.00	481.00	476.00	471.00	468.00	466.00	464.00	457.00	455.00	453.00	451.00	450.00	449.00	448.00	446.00	445.00	441.00	438.00	438.00	436.00	437.00	441.00	441.00	437.00	434.00	429.00	430.00	431.00	434.00	437.00	436.00	435.00	432.00	430.00	432.00	433.00	437.00	441.00	432.00	421.00	414.00	409.00	409.00	403.00	393.00	386.00	380.00	367.00	362.00	369.00	367.00	364.00	362.00	364.00	359.00	354.00	341.00	338.00	335.00	336.00	341.00	349.00	350.00	352.00	354.00	351.00	352.00	349.00	347.00	343.00	339.00	338.00	336.00	336.00	338.00	335.00	335.00	333.00	330.00	329.00	327.00	327.00	325.00	321.00	320.00	319.00	319.00	322.00	322.00	323.00	324.00	319.00	306.00	299.00	294.00	289.00	289.00	291.00	289.00	286.00	284.00	273.00	269.00	266.00	265.00	263.00	263.00	258.00	253.00	247.00	238.00	236.00	236.00	235.00	231.00	232.00	229.00	225.00	216.00	206.00	203.00	201.00	198.00	194.00	196.00	197.00	200.00	195.00	185.00	182.00	181.00	184.00	179.00	175.00
952.00	962.00	969.00	982.00	982.00	984.00	988.00	987.00	992.00	998.00	1004.00	1009.00	1019.00	1019.00	1018.00	1013.00	1006.00	983.00	973.00	965.00	964.00	964.00	960.00	959.00	944.00	937.00	930.00	925.00	918.00	908.00	911.00	923.00	918.00	908.00	898.00	886.00	882.00	877.00	873.00	864.00	856.00	846.00	840.00	838.00	821.00	835.00	836.00	835.00	821.00	834.00	837.00	835.00	810.00	809.00	792.00	776.00	780.00	797.00	799.00	809.00	820.00	811.00	813.00	813.00	804.00	797.00	787.00	791.00	784.00	778.00	768.00	763.00	758.00	751.00	744.00	734.00	727.00	723.00	721.00	714.00	708.00	717.00	738.00	764.00	978.00	860.00	729.00	669.00	631.00	615.00	607.00	606.00	601.00	595.00	594.00	628.00	639.00	568.00	563.00	561.00	557.00	553.00	546.00	542.00	548.00	549.00	541.00	538.00	530.00	524.00	519.00	514.00	511.00	509.00	507.00	511.00	512.00	509.00	506.00	497.00	491.00	487.00	484.00	482.00	476.00	475.00	472.00	468.00	466.00	462.00	459.00	458.00	455.00	452.00	450.00	450.00	449.00	445.00	443.00	439.00	436.00	434.00	432.00	433.00	432.00	432.00	433.00	431.00	429.00	427.00	429.00	432.00	432.00	432.00	430.00	428.00	431.00	432.00	436.00	439.00	436.00	428.00	423.00	421.00	426.00	415.00	403.00	394.00	384.00	375.00	372.00	371.00	376.00	377.00	375.00	373.00	368.00	362.00	351.00	346.00	346.00	348.00	347.00	348.00	348.00	351.00	351.00	352.00	352.00	352.00	351.00	347.00	340.00	338.00	337.00	334.00	335.00	334.00	334.00	334.00	330.00	330.00	328.00	327.00	324.00	321.00	319.00	318.00	317.00	317.00	319.00	319.00	319.00	318.00	310.00	310.00	309.00	308.00	309.00	299.00	292.00	289.00	290.00	275.00	270.00	267.00	265.00	259.00	257.00	258.00	257.00	251.00	242.00	239.00	232.00	227.00	223.00	220.00	222.00	223.00	216.00	206.00	203.00	201.00	198.00	192.00	192.00	193.00	195.00	197.00	193.00	194.00	190.00	188.00	180.00	176.00
949.00	958.00	966.00	987.00	989.00	990.00	997.00	995.00	995.00	1001.00	1006.00	1011.00	1016.00	1018.00	1018.00	1013.00	1006.00	987.00	975.00	966.00	958.00	959.00	957.00	959.00	945.00	939.00	936.00	931.00	924.00	920.00	925.00	959.00	946.00	923.00	910.00	893.00	888.00	883.00	875.00	862.00	856.00	854.00	850.00	846.00	835.00	836.00	845.00	844.00	829.00	835.00	844.00	842.00	818.00	814.00	803.00	782.00	787.00	807.00	810.00	816.00	825.00	814.00	818.00	816.00	810.00	803.00	796.00	796.00	787.00	781.00	769.00	763.00	757.00	751.00	749.00	739.00	728.00	723.00	721.00	714.00	709.00	715.00	734.00	755.00	980.00	828.00	722.00	663.00	624.00	612.00	605.00	601.00	597.00	591.00	588.00	613.00	683.00	568.00	566.00	561.00	557.00	553.00	551.00	548.00	554.00	549.00	540.00	535.00	526.00	522.00	521.00	518.00	516.00	513.00	513.00	515.00	512.00	508.00	507.00	498.00	491.00	487.00	485.00	482.00	479.00	477.00	474.00	471.00	467.00	463.00	461.00	459.00	457.00	453.00	451.00	450.00	450.00	447.00	444.00	440.00	438.00	436.00	433.00	430.00	430.00	431.00	432.00	430.00	428.00	426.00	428.00	430.00	430.00	429.00	428.00	426.00	430.00	434.00	436.00	438.00	435.00	436.00	429.00	426.00	430.00	415.00	406.00	394.00	389.00	382.00	379.00	372.00	373.00	377.00	377.00	377.00	370.00	365.00	353.00	352.00	352.00	353.00	350.00	349.00	347.00	347.00	349.00	349.00	351.00	350.00	349.00	347.00	342.00	339.00	336.00	335.00	333.00	332.00	333.00	332.00	330.00	329.00	327.00	326.00	324.00	319.00	318.00	317.00	317.00	316.00	316.00	317.00	318.00	317.00	314.00	315.00	312.00	312.00	312.00	301.00	292.00	287.00	284.00	273.00	271.00	269.00	265.00	260.00	257.00	255.00	255.00	253.00	248.00	245.00	237.00	233.00	229.00	222.00	216.00	216.00	212.00	206.00	204.00	202.00	199.00	192.00	191.00	191.00	193.00	197.00	200.00	197.00	191.00	186.00	177.00	172.00
952.00	957.00	964.00	984.00	995.00	1006.00	1010.00	1007.00	1003.00	1005.00	1012.00	1019.00	1027.00	1029.00	1023.00	1017.00	1011.00	996.00	986.00	975.00	962.00	949.00	947.00	948.00	950.00	948.00	963.00	964.00	947.00	937.00	941.00	972.00	1064.00	974.00	936.00	904.00	895.00	889.00	885.00	872.00	873.00	869.00	866.00	863.00	848.00	846.00	851.00	858.00	849.00	850.00	854.00	851.00	826.00	809.00	794.00	785.00	814.00	812.00	815.00	828.00	832.00	832.00	831.00	825.00	818.00	819.00	803.00	800.00	795.00	789.00	774.00	768.00	766.00	758.00	750.00	740.00	727.00	715.00	703.00	703.00	698.00	700.00	710.00	726.00	891.00	756.00	699.00	656.00	620.00	610.00	605.00	602.00	599.00	592.00	587.00	581.00	579.00	570.00	569.00	564.00	565.00	566.00	558.00	554.00	550.00	544.00	538.00	536.00	533.00	531.00	530.00	527.00	524.00	522.00	519.00	516.00	513.00	512.00	510.00	504.00	495.00	491.00	490.00	488.00	482.00	479.00	477.00	475.00	473.00	466.00	464.00	461.00	460.00	455.00	452.00	451.00	449.00	447.00	444.00	439.00	438.00	435.00	432.00	430.00	430.00	427.00	426.00	426.00	429.00	428.00	423.00	424.00	426.00	426.00	423.00	422.00	428.00	431.00	434.00	434.00	433.00	433.00	434.00	433.00	429.00	418.00	416.00	411.00	403.00	395.00	390.00	382.00	381.00	378.00	371.00	369.00	367.00	365.00	365.00	365.00	362.00	358.00	354.00	349.00	348.00	347.00	348.00	346.00	346.00	345.00	344.00	344.00	344.00	342.00	340.00	338.00	334.00	332.00	330.00	330.00	327.00	326.00	324.00	322.00	322.00	319.00	319.00	317.00	315.00	314.00	314.00	315.00	314.00	315.00	315.00	317.00	319.00	320.00	315.00	307.00	299.00	293.00	287.00	281.00	283.00	279.00	275.00	266.00	262.00	258.00	252.00	249.00	254.00	256.00	248.00	244.00	232.00	225.00	222.00	220.00	214.00	206.00	205.00	203.00	200.00	192.00	189.00	188.00	190.00	194.00	207.00	206.00	197.00	192.00	180.00	176.00
956.00	960.00	966.00	987.00	993.00	1001.00	1010.00	1012.00	1011.00	1011.00	1014.00	1019.00	1028.00	1029.00	1024.00	1021.00	1015.00	999.00	990.00	979.00	969.00	952.00	949.00	950.00	953.00	951.00	979.00	991.00	954.00	948.00	946.00	966.00	992.00	967.00	941.00	905.00	897.00	892.00	888.00	877.00	878.00	878.00	875.00	870.00	849.00	856.00	858.00	866.00	859.00	859.00	859.00	852.00	828.00	809.00	803.00	805.00	827.00	822.00	822.00	831.00	838.00	839.00	833.00	826.00	827.00	823.00	806.00	802.00	794.00	787.00	775.00	771.00	763.00	757.00	746.00	733.00	724.00	714.00	702.00	695.00	691.00	689.00	697.00	705.00	813.00	725.00	689.00	650.00	619.00	611.00	607.00	603.00	600.00	590.00	587.00	583.00	581.00	571.00	569.00	568.00	569.00	571.00	562.00	556.00	552.00	547.00	542.00	542.00	538.00	535.00	533.00	528.00	526.00	523.00	520.00	516.00	513.00	512.00	511.00	505.00	496.00	493.00	491.00	487.00	482.00	481.00	478.00	476.00	474.00	466.00	465.00	464.00	461.00	456.00	454.00	451.00	450.00	448.00	444.00	439.00	438.00	436.00	432.00	431.00	428.00	427.00	426.00	423.00	426.00	425.00	422.00	422.00	423.00	424.00	422.00	420.00	426.00	430.00	433.00	431.00	430.00	429.00	430.00	433.00	434.00	423.00	425.00	418.00	409.00	398.00	393.00	385.00	382.00	379.00	372.00	370.00	369.00	368.00	369.00	369.00	365.00	361.00	356.00	351.00	350.00	349.00	349.00	348.00	345.00	344.00	344.00	343.00	344.00	344.00	343.00	340.00	335.00	333.00	331.00	330.00	328.00	326.00	324.00	323.00	321.00	320.00	317.00	317.00	315.00	314.00	314.00	313.00	313.00	314.00	317.00	319.00	321.00	323.00	320.00	311.00	302.00	296.00	291.00	289.00	295.00	288.00	282.00	270.00	266.00	260.00	253.00	248.00	250.00	252.00	246.00	242.00	235.00	231.00	230.00	228.00	219.00	208.00	206.00	204.00	200.00	191.00	188.00	187.00	188.00	193.00	208.00	206.00	200.00	196.00	181.00	181.00
