201.00	203.00	204.00	206.00	208.00	211.00	213.00	212.00	209.00	208.00	207.00	209.00	215.00	219.00	221.00	222.00	223.00	224.00	226.00	226.00	225.00	223.00	222.00	222.00	221.00	219.00	216.00	211.00	199.00	192.00	173.00	161.00	149.00	139.00	130.00	135.00	142.00	148.00	152.00	159.00	156.00	148.00	135.00	150.00	161.00	169.00	175.00	180.00	177.00	164.00	154.00	139.00	135.00	154.00	172.00	187.00	200.00	196.00	188.00	177.00	149.00	142.00	161.00	179.00	194.00	212.00	215.00	215.00	212.00	210.00	218.00	218.00	212.00	199.00	200.00	214.00	223.00	227.00	228.00	226.00	222.00	197.00	185.00	194.00	199.00	199.00	203.00	210.00	226.00	240.00	247.00	248.00	260.00	250.00	231.00	218.00	213.00	200.00	197.00	202.00	213.00	183.00	171.00	165.00	159.00	162.00	197.00	208.00	221.00	232.00	213.00	189.00	156.00	142.00	130.00	100.00	88.00	80.00	76.00	70.00	67.00	67.00	76.00	96.00	100.00	101.00	101.00	99.00	89.00	93.00	96.00	94.00	91.00	87.00	82.00	79.00	78.00	68.00	62.00	59.00	55.00	50.00	45.00	46.00	46.00	40.00	40.00	35.00	28.00	25.00	25.00	51.00	75.00	95.00	130.00	148.00	150.00	149.00	144.00	138.00	131.00	129.00	130.00	132.00	128.00	125.00	121.00	116.00	111.00	108.00	109.00	110.00	108.00	95.00	88.00	77.00	76.00	78.00	86.00	88.00	87.00	87.00	83.00	77.00	71.00	67.00	73.00	73.00	67.00	57.00	47.00	41.00	39.00	34.00	31.00	33.00	32.00	31.00	32.00	33.00	36.00	41.00	45.00	46.00	43.00	44.00	58.00	67.00	72.00	62.00	49.00	40.00	39.00	45.00	40.00	32.00	28.00	36.00	44.00	43.00	40.00	40.00	45.00	47.00	46.00	44.00	45.00	37.00	32.00	35.00	44.00	59.00	65.00	75.00	89.00	104.00	119.00	121.00	134.00	142.00	163.00	173.00	178.00	176.00	169.00	149.00	139.00	128.00	115.00	107.00	120.00	132.00	145.00	161.00	188.00	193.00
201.00	203.00	204.00	206.00	208.00	211.00	213.00	212.00	209.00	208.00	207.00	209.00	215.00	219.00	221.00	222.00	223.00	224.00	226.00	226.00	225.00	223.00	222.00	222.00	221.00	219.00	216.00	211.00	199.00	192.00	173.00	161.00	149.00	139.00	130.00	135.00	142.00	148.00	152.00	159.00	156.00	148.00	135.00	150.00	161.00	169.00	175.00	180.00	177.00	164.00	154.00	139.00	135.00	154.00	172.00	187.00	200.00	196.00	188.00	177.00	149.00	142.00	161.00	179.00	194.00	212.00	215.00	215.00	212.00	210.00	218.00	218.00	212.00	199.00	200.00	214.00	223.00	227.00	228.00	226.00	222.00	197.00	185.00	194.00	199.00	199.00	203.00	210.00	226.00	240.00	247.00	248.00	260.00	250.00	231.00	218.00	213.00	200.00	197.00	202.00	213.00	183.00	171.00	165.00	159.00	162.00	197.00	208.00	221.00	232.00	213.00	189.00	156.00	142.00	130.00	100.00	88.00	80.00	76.00	70.00	67.00	67.00	76.00	96.00	100.00	101.00	101.00	99.00	89.00	93.00	96.00	94.00	91.00	87.00	82.00	79.00	78.00	68.00	62.00	59.00	55.00	50.00	45.00	46.00	46.00	40.00	40.00	35.00	28.00	25.00	25.00	51.00	75.00	95.00	130.00	148.00	150.00	149.00	144.00	138.00	131.00	129.00	130.00	132.00	128.00	125.00	121.00	116.00	111.00	108.00	109.00	110.00	108.00	95.00	88.00	77.00	76.00	78.00	86.00	88.00	87.00	87.00	83.00	77.00	71.00	67.00	73.00	73.00	67.00	57.00	47.00	41.00	39.00	34.00	31.00	33.00	32.00	31.00	32.00	33.00	36.00	41.00	45.00	46.00	43.00	44.00	58.00	67.00	72.00	62.00	49.00	40.00	39.00	45.00	40.00	32.00	28.00	36.00	44.00	43.00	40.00	40.00	45.00	47.00	46.00	44.00	45.00	37.00	32.00	35.00	44.00	59.00	65.00	75.00	89.00	104.00	119.00	121.00	134.00	142.00	163.00	173.00	178.00	176.00	169.00	149.00	139.00	128.00	115.00	107.00	120.00	132.00	145.00	161.00	188.00	193.00
203.00	206.00	208.00	209.00	210.00	210.00	209.00	204.00	204.00	201.00	196.00	192.00	195.00	201.00	205.00	207.00	209.00	210.00	215.00	217.00	218.00	219.00	220.00	221.00	222.00	221.00	220.00	219.00	218.00	215.00	209.00	204.00	195.00	185.00	156.00	144.00	132.00	124.00	124.00	128.00	127.00	121.00	117.00	131.00	137.00	141.00	142.00	145.00	144.00	136.00	129.00	120.00	132.00	148.00	160.00	169.00	177.00	174.00	166.00	155.00	129.00	143.00	163.00	181.00	194.00	206.00	206.00	199.00	190.00	190.00	203.00	199.00	187.00	174.00	197.00	210.00	217.00	220.00	221.00	218.00	206.00	170.00	154.00	173.00	186.00	196.00	205.00	216.00	235.00	243.00	247.00	249.00	251.00	248.00	241.00	233.00	225.00	220.00	226.00	232.00	237.00	222.00	208.00	197.00	188.00	187.00	208.00	219.00	227.00	232.00	227.00	210.00	165.00	148.00	138.00	125.00	119.00	112.00	107.00	98.00	92.00	83.00	75.00	66.00	61.00	61.00	64.00	67.00	55.00	55.00	59.00	63.00	69.00	65.00	60.00	58.00	57.00	56.00	52.00	52.00	55.00	56.00	59.00	61.00	55.00	51.00	50.00	52.00	50.00	41.00	30.00	25.00	25.00	30.00	53.00	95.00	120.00	136.00	142.00	142.00	143.00	148.00	148.00	144.00	135.00	134.00	132.00	129.00	127.00	127.00	130.00	133.00	130.00	104.00	93.00	96.00	104.00	110.00	111.00	108.00	103.00	97.00	86.00	80.00	77.00	78.00	91.00	88.00	78.00	65.00	57.00	61.00	66.00	69.00	69.00	62.00	54.00	60.00	68.00	74.00	79.00	79.00	77.00	72.00	57.00	54.00	74.00	87.00	97.00	95.00	81.00	65.00	55.00	42.00	37.00	34.00	37.00	50.00	52.00	53.00	54.00	55.00	60.00	59.00	51.00	42.00	33.00	30.00	32.00	34.00	37.00	46.00	54.00	64.00	76.00	91.00	126.00	137.00	153.00	161.00	172.00	175.00	176.00	176.00	173.00	162.00	153.00	141.00	125.00	101.00	112.00	123.00	132.00	141.00	163.00	174.00
201.00	200.00	200.00	203.00	203.00	201.00	198.00	193.00	198.00	200.00	197.00	191.00	178.00	181.00	187.00	191.00	191.00	190.00	192.00	193.00	198.00	209.00	213.00	215.00	216.00	215.00	213.00	210.00	201.00	198.00	192.00	189.00	185.00	177.00	156.00	147.00	146.00	152.00	163.00	168.00	160.00	149.00	139.00	129.00	125.00	122.00	120.00	113.00	112.00	112.00	108.00	103.00	114.00	119.00	124.00	128.00	137.00	139.00	139.00	134.00	116.00	144.00	160.00	172.00	179.00	182.00	175.00	166.00	170.00	180.00	183.00	170.00	161.00	167.00	196.00	205.00	208.00	210.00	210.00	200.00	186.00	155.00	164.00	183.00	192.00	198.00	206.00	216.00	231.00	235.00	237.00	240.00	248.00	249.00	249.00	244.00	238.00	241.00	245.00	247.00	247.00	237.00	230.00	224.00	223.00	227.00	236.00	236.00	236.00	238.00	241.00	240.00	198.00	183.00	178.00	172.00	166.00	159.00	153.00	140.00	129.00	119.00	110.00	95.00	86.00	82.00	79.00	75.00	68.00	66.00	64.00	64.00	69.00	72.00	71.00	75.00	80.00	77.00	78.00	78.00	76.00	73.00	71.00	70.00	62.00	60.00	58.00	55.00	50.00	45.00	42.00	33.00	30.00	26.00	25.00	43.00	58.00	82.00	106.00	126.00	155.00	160.00	155.00	148.00	147.00	150.00	151.00	149.00	147.00	144.00	143.00	141.00	133.00	104.00	99.00	119.00	130.00	137.00	140.00	134.00	122.00	110.00	105.00	109.00	113.00	113.00	108.00	90.00	77.00	66.00	63.00	78.00	89.00	98.00	101.00	88.00	76.00	83.00	94.00	104.00	110.00	108.00	102.00	92.00	67.00	66.00	95.00	109.00	118.00	128.00	122.00	109.00	97.00	78.00	65.00	58.00	55.00	56.00	60.00	60.00	61.00	62.00	72.00	72.00	65.00	53.00	45.00	53.00	53.00	51.00	46.00	39.00	45.00	55.00	68.00	83.00	111.00	123.00	144.00	155.00	171.00	176.00	179.00	179.00	178.00	169.00	161.00	150.00	136.00	101.00	113.00	131.00	145.00	153.00	160.00	169.00
201.00	200.00	200.00	203.00	203.00	201.00	198.00	193.00	198.00	200.00	197.00	191.00	178.00	181.00	187.00	191.00	191.00	190.00	192.00	193.00	198.00	209.00	213.00	215.00	216.00	215.00	213.00	210.00	201.00	198.00	192.00	189.00	185.00	177.00	156.00	147.00	146.00	152.00	163.00	168.00	160.00	149.00	139.00	129.00	125.00	122.00	120.00	113.00	112.00	112.00	108.00	103.00	114.00	119.00	124.00	128.00	137.00	139.00	139.00	134.00	116.00	144.00	160.00	172.00	179.00	182.00	175.00	166.00	170.00	180.00	183.00	170.00	161.00	167.00	196.00	205.00	208.00	210.00	210.00	200.00	186.00	155.00	164.00	183.00	192.00	198.00	206.00	216.00	231.00	235.00	237.00	240.00	248.00	249.00	249.00	244.00	238.00	241.00	245.00	247.00	247.00	237.00	230.00	224.00	223.00	227.00	236.00	236.00	236.00	238.00	241.00	240.00	198.00	183.00	178.00	172.00	166.00	159.00	153.00	140.00	129.00	119.00	110.00	95.00	86.00	82.00	79.00	75.00	68.00	66.00	64.00	64.00	69.00	72.00	71.00	75.00	80.00	77.00	78.00	78.00	76.00	73.00	71.00	70.00	62.00	60.00	58.00	55.00	50.00	45.00	42.00	33.00	30.00	26.00	25.00	43.00	58.00	82.00	106.00	126.00	155.00	160.00	155.00	148.00	147.00	150.00	151.00	149.00	147.00	144.00	143.00	141.00	133.00	104.00	99.00	119.00	130.00	137.00	140.00	134.00	122.00	110.00	105.00	109.00	113.00	113.00	108.00	90.00	77.00	66.00	63.00	78.00	89.00	98.00	101.00	88.00	76.00	83.00	94.00	104.00	110.00	108.00	102.00	92.00	67.00	66.00	95.00	109.00	118.00	128.00	122.00	109.00	97.00	78.00	65.00	58.00	55.00	56.00	60.00	60.00	61.00	62.00	72.00	72.00	65.00	53.00	45.00	53.00	53.00	51.00	46.00	39.00	45.00	55.00	68.00	83.00	111.00	123.00	144.00	155.00	171.00	176.00	179.00	179.00	178.00	169.00	161.00	150.00	136.00	101.00	113.00	131.00	145.00	153.00	160.00	169.00
201.00	200.00	200.00	203.00	203.00	201.00	198.00	193.00	198.00	200.00	197.00	191.00	178.00	181.00	187.00	191.00	191.00	190.00	192.00	193.00	198.00	209.00	213.00	215.00	216.00	215.00	213.00	210.00	201.00	198.00	192.00	189.00	185.00	177.00	156.00	147.00	146.00	152.00	163.00	168.00	160.00	149.00	139.00	129.00	125.00	122.00	120.00	113.00	112.00	112.00	108.00	103.00	114.00	119.00	124.00	128.00	137.00	139.00	139.00	134.00	116.00	144.00	160.00	172.00	179.00	182.00	175.00	166.00	170.00	180.00	183.00	170.00	161.00	167.00	196.00	205.00	208.00	210.00	210.00	200.00	186.00	155.00	164.00	183.00	192.00	198.00	206.00	216.00	231.00	235.00	237.00	240.00	248.00	249.00	249.00	244.00	238.00	241.00	245.00	247.00	247.00	237.00	230.00	224.00	223.00	227.00	236.00	236.00	236.00	238.00	241.00	240.00	198.00	183.00	178.00	172.00	166.00	159.00	153.00	140.00	129.00	119.00	110.00	95.00	86.00	82.00	79.00	75.00	68.00	66.00	64.00	64.00	69.00	72.00	71.00	75.00	80.00	77.00	78.00	78.00	76.00	73.00	71.00	70.00	62.00	60.00	58.00	55.00	50.00	45.00	42.00	33.00	30.00	26.00	25.00	43.00	58.00	82.00	106.00	126.00	155.00	160.00	155.00	148.00	147.00	150.00	151.00	149.00	147.00	144.00	143.00	141.00	133.00	104.00	99.00	119.00	130.00	137.00	140.00	134.00	122.00	110.00	105.00	109.00	113.00	113.00	108.00	90.00	77.00	66.00	63.00	78.00	89.00	98.00	101.00	88.00	76.00	83.00	94.00	104.00	110.00	108.00	102.00	92.00	67.00	66.00	95.00	109.00	118.00	128.00	122.00	109.00	97.00	78.00	65.00	58.00	55.00	56.00	60.00	60.00	61.00	62.00	72.00	72.00	65.00	53.00	45.00	53.00	53.00	51.00	46.00	39.00	45.00	55.00	68.00	83.00	111.00	123.00	144.00	155.00	171.00	176.00	179.00	179.00	178.00	169.00	161.00	150.00	136.00	101.00	113.00	131.00	145.00	153.00	160.00	169.00
199.00	201.00	202.00	203.00	201.00	196.00	190.00	188.00	196.00	199.00	200.00	197.00	181.00	172.00	168.00	170.00	172.00	171.00	176.00	182.00	190.00	205.00	211.00	216.00	219.00	220.00	219.00	217.00	209.00	204.00	190.00	179.00	162.00	153.00	163.00	172.00	182.00	190.00	196.00	203.00	202.00	199.00	194.00	178.00	169.00	159.00	146.00	122.00	130.00	149.00	148.00	141.00	126.00	120.00	115.00	110.00	107.00	106.00	104.00	102.00	113.00	139.00	148.00	154.00	156.00	145.00	141.00	148.00	159.00	166.00	146.00	145.00	157.00	172.00	190.00	194.00	196.00	196.00	195.00	184.00	173.00	176.00	190.00	210.00	217.00	221.00	225.00	230.00	234.00	230.00	225.00	215.00	233.00	240.00	241.00	239.00	237.00	241.00	245.00	252.00	256.00	257.00	250.00	248.00	245.00	240.00	240.00	239.00	236.00	234.00	233.00	234.00	230.00	221.00	214.00	198.00	185.00	171.00	163.00	155.00	148.00	141.00	137.00	132.00	131.00	121.00	113.00	109.00	109.00	109.00	104.00	102.00	106.00	101.00	97.00	93.00	91.00	80.00	76.00	72.00	70.00	65.00	62.00	63.00	60.00	57.00	57.00	57.00	56.00	53.00	48.00	43.00	45.00	43.00	33.00	25.00	25.00	27.00	34.00	33.00	115.00	143.00	156.00	158.00	164.00	167.00	164.00	162.00	160.00	155.00	148.00	141.00	132.00	112.00	113.00	138.00	144.00	145.00	145.00	143.00	133.00	123.00	124.00	132.00	137.00	136.00	126.00	97.00	82.00	77.00	82.00	101.00	108.00	112.00	112.00	98.00	91.00	95.00	103.00	114.00	124.00	122.00	113.00	100.00	73.00	77.00	110.00	124.00	135.00	147.00	147.00	146.00	140.00	109.00	94.00	91.00	93.00	97.00	96.00	91.00	86.00	83.00	81.00	79.00	71.00	58.00	47.00	42.00	45.00	49.00	51.00	59.00	72.00	88.00	99.00	106.00	120.00	131.00	154.00	164.00	175.00	179.00	181.00	182.00	182.00	174.00	167.00	156.00	142.00	105.00	111.00	125.00	141.00	156.00	177.00	183.00
199.00	201.00	202.00	203.00	201.00	196.00	190.00	188.00	196.00	199.00	200.00	197.00	181.00	172.00	168.00	170.00	172.00	171.00	176.00	182.00	190.00	205.00	211.00	216.00	219.00	220.00	219.00	217.00	209.00	204.00	190.00	179.00	162.00	153.00	163.00	172.00	182.00	190.00	196.00	203.00	202.00	199.00	194.00	178.00	169.00	159.00	146.00	122.00	130.00	149.00	148.00	141.00	126.00	120.00	115.00	110.00	107.00	106.00	104.00	102.00	113.00	139.00	148.00	154.00	156.00	145.00	141.00	148.00	159.00	166.00	146.00	145.00	157.00	172.00	190.00	194.00	196.00	196.00	195.00	184.00	173.00	176.00	190.00	210.00	217.00	221.00	225.00	230.00	234.00	230.00	225.00	215.00	233.00	240.00	241.00	239.00	237.00	241.00	245.00	252.00	256.00	257.00	250.00	248.00	245.00	240.00	240.00	239.00	236.00	234.00	233.00	234.00	230.00	221.00	214.00	198.00	185.00	171.00	163.00	155.00	148.00	141.00	137.00	132.00	131.00	121.00	113.00	109.00	109.00	109.00	104.00	102.00	106.00	101.00	97.00	93.00	91.00	80.00	76.00	72.00	70.00	65.00	62.00	63.00	60.00	57.00	57.00	57.00	56.00	53.00	48.00	43.00	45.00	43.00	33.00	25.00	25.00	27.00	34.00	33.00	115.00	143.00	156.00	158.00	164.00	167.00	164.00	162.00	160.00	155.00	148.00	141.00	132.00	112.00	113.00	138.00	144.00	145.00	145.00	143.00	133.00	123.00	124.00	132.00	137.00	136.00	126.00	97.00	82.00	77.00	82.00	101.00	108.00	112.00	112.00	98.00	91.00	95.00	103.00	114.00	124.00	122.00	113.00	100.00	73.00	77.00	110.00	124.00	135.00	147.00	147.00	146.00	140.00	109.00	94.00	91.00	93.00	97.00	96.00	91.00	86.00	83.00	81.00	79.00	71.00	58.00	47.00	42.00	45.00	49.00	51.00	59.00	72.00	88.00	99.00	106.00	120.00	131.00	154.00	164.00	175.00	179.00	181.00	182.00	182.00	174.00	167.00	156.00	142.00	105.00	111.00	125.00	141.00	156.00	177.00	183.00
190.00	194.00	197.00	200.00	197.00	191.00	184.00	184.00	190.00	192.00	193.00	191.00	181.00	173.00	163.00	153.00	155.00	161.00	171.00	175.00	181.00	196.00	203.00	208.00	211.00	213.00	214.00	215.00	214.00	210.00	193.00	178.00	171.00	177.00	195.00	202.00	208.00	212.00	214.00	212.00	207.00	201.00	193.00	176.00	163.00	146.00	135.00	152.00	166.00	186.00	190.00	192.00	184.00	174.00	162.00	151.00	142.00	135.00	124.00	111.00	102.00	113.00	120.00	123.00	122.00	121.00	132.00	142.00	148.00	148.00	141.00	154.00	167.00	175.00	176.00	174.00	175.00	174.00	175.00	174.00	173.00	209.00	222.00	239.00	239.00	236.00	230.00	225.00	212.00	205.00	203.00	212.00	231.00	236.00	240.00	245.00	247.00	234.00	227.00	223.00	221.00	230.00	232.00	237.00	241.00	243.00	247.00	243.00	240.00	236.00	223.00	218.00	217.00	213.00	209.00	201.00	191.00	182.00	173.00	156.00	149.00	145.00	140.00	136.00	131.00	122.00	115.00	112.00	109.00	109.00	109.00	108.00	108.00	99.00	93.00	86.00	82.00	87.00	89.00	84.00	76.00	69.00	66.00	67.00	67.00	66.00	60.00	59.00	60.00	60.00	54.00	54.00	55.00	54.00	51.00	42.00	31.00	26.00	25.00	24.00	34.00	62.00	94.00	123.00	180.00	181.00	177.00	175.00	172.00	164.00	154.00	141.00	129.00	116.00	121.00	144.00	151.00	155.00	156.00	154.00	149.00	144.00	144.00	146.00	147.00	145.00	133.00	101.00	88.00	87.00	100.00	135.00	145.00	147.00	143.00	131.00	122.00	122.00	125.00	128.00	129.00	124.00	114.00	101.00	76.00	76.00	107.00	123.00	137.00	155.00	157.00	155.00	149.00	126.00	119.00	120.00	123.00	101.00	70.00	64.00	65.00	62.00	52.00	53.00	55.00	54.00	53.00	40.00	35.00	40.00	47.00	74.00	96.00	113.00	123.00	126.00	138.00	150.00	175.00	183.00	191.00	193.00	193.00	194.00	193.00	180.00	170.00	156.00	141.00	120.00	123.00	127.00	133.00	138.00	150.00	161.00
190.00	194.00	197.00	200.00	197.00	191.00	184.00	184.00	190.00	192.00	193.00	191.00	181.00	173.00	163.00	153.00	155.00	161.00	171.00	175.00	181.00	196.00	203.00	208.00	211.00	213.00	214.00	215.00	214.00	210.00	193.00	178.00	171.00	177.00	195.00	202.00	208.00	212.00	214.00	212.00	207.00	201.00	193.00	176.00	163.00	146.00	135.00	152.00	166.00	186.00	190.00	192.00	184.00	174.00	162.00	151.00	142.00	135.00	124.00	111.00	102.00	113.00	120.00	123.00	122.00	121.00	132.00	142.00	148.00	148.00	141.00	154.00	167.00	175.00	176.00	174.00	175.00	174.00	175.00	174.00	173.00	209.00	222.00	239.00	239.00	236.00	230.00	225.00	212.00	205.00	203.00	212.00	231.00	236.00	240.00	245.00	247.00	234.00	227.00	223.00	221.00	230.00	232.00	237.00	241.00	243.00	247.00	243.00	240.00	236.00	223.00	218.00	217.00	213.00	209.00	201.00	191.00	182.00	173.00	156.00	149.00	145.00	140.00	136.00	131.00	122.00	115.00	112.00	109.00	109.00	109.00	108.00	108.00	99.00	93.00	86.00	82.00	87.00	89.00	84.00	76.00	69.00	66.00	67.00	67.00	66.00	60.00	59.00	60.00	60.00	54.00	54.00	55.00	54.00	51.00	42.00	31.00	26.00	25.00	24.00	34.00	62.00	94.00	123.00	180.00	181.00	177.00	175.00	172.00	164.00	154.00	141.00	129.00	116.00	121.00	144.00	151.00	155.00	156.00	154.00	149.00	144.00	144.00	146.00	147.00	145.00	133.00	101.00	88.00	87.00	100.00	135.00	145.00	147.00	143.00	131.00	122.00	122.00	125.00	128.00	129.00	124.00	114.00	101.00	76.00	76.00	107.00	123.00	137.00	155.00	157.00	155.00	149.00	126.00	119.00	120.00	123.00	101.00	70.00	64.00	65.00	62.00	52.00	53.00	55.00	54.00	53.00	40.00	35.00	40.00	47.00	74.00	96.00	113.00	123.00	126.00	138.00	150.00	175.00	183.00	191.00	193.00	193.00	194.00	193.00	180.00	170.00	156.00	141.00	120.00	123.00	127.00	133.00	138.00	150.00	161.00
190.00	194.00	197.00	200.00	197.00	191.00	184.00	184.00	190.00	192.00	193.00	191.00	181.00	173.00	163.00	153.00	155.00	161.00	171.00	175.00	181.00	196.00	203.00	208.00	211.00	213.00	214.00	215.00	214.00	210.00	193.00	178.00	171.00	177.00	195.00	202.00	208.00	212.00	214.00	212.00	207.00	201.00	193.00	176.00	163.00	146.00	135.00	152.00	166.00	186.00	190.00	192.00	184.00	174.00	162.00	151.00	142.00	135.00	124.00	111.00	102.00	113.00	120.00	123.00	122.00	121.00	132.00	142.00	148.00	148.00	141.00	154.00	167.00	175.00	176.00	174.00	175.00	174.00	175.00	174.00	173.00	209.00	222.00	239.00	239.00	236.00	230.00	225.00	212.00	205.00	203.00	212.00	231.00	236.00	240.00	245.00	247.00	234.00	227.00	223.00	221.00	230.00	232.00	237.00	241.00	243.00	247.00	243.00	240.00	236.00	223.00	218.00	217.00	213.00	209.00	201.00	191.00	182.00	173.00	156.00	149.00	145.00	140.00	136.00	131.00	122.00	115.00	112.00	109.00	109.00	109.00	108.00	108.00	99.00	93.00	86.00	82.00	87.00	89.00	84.00	76.00	69.00	66.00	67.00	67.00	66.00	60.00	59.00	60.00	60.00	54.00	54.00	55.00	54.00	51.00	42.00	31.00	26.00	25.00	24.00	34.00	62.00	94.00	123.00	180.00	181.00	177.00	175.00	172.00	164.00	154.00	141.00	129.00	116.00	121.00	144.00	151.00	155.00	156.00	154.00	149.00	144.00	144.00	146.00	147.00	145.00	133.00	101.00	88.00	87.00	100.00	135.00	145.00	147.00	143.00	131.00	122.00	122.00	125.00	128.00	129.00	124.00	114.00	101.00	76.00	76.00	107.00	123.00	137.00	155.00	157.00	155.00	149.00	126.00	119.00	120.00	123.00	101.00	70.00	64.00	65.00	62.00	52.00	53.00	55.00	54.00	53.00	40.00	35.00	40.00	47.00	74.00	96.00	113.00	123.00	126.00	138.00	150.00	175.00	183.00	191.00	193.00	193.00	194.00	193.00	180.00	170.00	156.00	141.00	120.00	123.00	127.00	133.00	138.00	150.00	161.00
193.00	195.00	197.00	196.00	191.00	184.00	175.00	174.00	181.00	184.00	184.00	178.00	156.00	145.00	140.00	147.00	166.00	170.00	175.00	177.00	179.00	187.00	194.00	201.00	206.00	213.00	214.00	215.00	214.00	210.00	197.00	193.00	197.00	203.00	216.00	221.00	223.00	222.00	219.00	203.00	196.00	186.00	173.00	152.00	150.00	146.00	140.00	162.00	177.00	199.00	205.00	208.00	203.00	195.00	185.00	178.00	178.00	177.00	170.00	157.00	124.00	102.00	97.00	94.00	93.00	108.00	114.00	114.00	112.00	114.00	144.00	150.00	153.00	150.00	139.00	141.00	142.00	148.00	158.00	178.00	192.00	214.00	223.00	240.00	234.00	227.00	219.00	211.00	195.00	195.00	204.00	224.00	239.00	243.00	245.00	246.00	244.00	232.00	226.00	218.00	212.00	215.00	222.00	234.00	246.00	253.00	237.00	217.00	202.00	199.00	196.00	194.00	194.00	194.00	197.00	196.00	195.00	195.00	187.00	157.00	150.00	144.00	137.00	125.00	108.00	103.00	101.00	99.00	97.00	100.00	101.00	98.00	95.00	97.00	96.00	96.00	97.00	103.00	105.00	99.00	92.00	84.00	77.00	75.00	79.00	78.00	71.00	66.00	62.00	59.00	56.00	53.00	54.00	54.00	52.00	45.00	40.00	33.00	28.00	24.00	24.00	24.00	32.00	56.00	158.00	180.00	184.00	180.00	174.00	158.00	148.00	136.00	127.00	128.00	133.00	139.00	146.00	155.00	160.00	160.00	156.00	154.00	159.00	159.00	158.00	156.00	142.00	107.00	94.00	93.00	108.00	146.00	156.00	159.00	159.00	156.00	146.00	144.00	149.00	154.00	150.00	142.00	130.00	117.00	93.00	88.00	103.00	115.00	126.00	144.00	148.00	150.00	147.00	124.00	114.00	108.00	96.00	59.00	48.00	51.00	55.00	56.00	46.00	44.00	44.00	45.00	45.00	43.00	40.00	38.00	41.00	79.00	104.00	124.00	136.00	143.00	145.00	149.00	162.00	171.00	185.00	190.00	196.00	203.00	206.00	189.00	173.00	155.00	138.00	128.00	136.00	142.00	145.00	146.00	150.00	153.00
203.00	204.00	203.00	197.00	192.00	184.00	174.00	153.00	155.00	158.00	156.00	147.00	136.00	145.00	159.00	172.00	191.00	195.00	199.00	201.00	202.00	202.00	201.00	202.00	203.00	205.00	206.00	208.00	217.00	219.00	217.00	216.00	216.00	217.00	222.00	222.00	220.00	216.00	210.00	175.00	167.00	167.00	172.00	186.00	190.00	189.00	177.00	164.00	175.00	204.00	213.00	219.00	221.00	219.00	215.00	211.00	204.00	201.00	198.00	193.00	178.00	153.00	137.00	117.00	103.00	90.00	87.00	91.00	102.00	112.00	120.00	115.00	114.00	118.00	122.00	124.00	130.00	145.00	164.00	202.00	215.00	223.00	224.00	220.00	218.00	218.00	211.00	197.00	200.00	213.00	225.00	232.00	242.00	248.00	248.00	245.00	244.00	234.00	225.00	217.00	207.00	202.00	208.00	212.00	223.00	243.00	265.00	256.00	245.00	231.00	194.00	191.00	182.00	178.00	174.00	165.00	161.00	160.00	160.00	149.00	142.00	135.00	130.00	122.00	112.00	111.00	112.00	113.00	116.00	114.00	110.00	107.00	106.00	109.00	111.00	112.00	111.00	112.00	111.00	104.00	98.00	93.00	88.00	86.00	84.00	81.00	71.00	69.00	66.00	64.00	67.00	67.00	65.00	62.00	57.00	45.00	37.00	29.00	24.00	27.00	26.00	24.00	24.00	24.00	95.00	135.00	170.00	188.00	190.00	164.00	148.00	134.00	124.00	132.00	141.00	153.00	157.00	163.00	175.00	178.00	177.00	173.00	172.00	169.00	163.00	155.00	131.00	103.00	98.00	103.00	113.00	138.00	146.00	153.00	159.00	168.00	170.00	172.00	174.00	176.00	165.00	153.00	139.00	122.00	91.00	85.00	112.00	132.00	145.00	154.00	148.00	136.00	120.00	92.00	79.00	65.00	52.00	41.00	43.00	43.00	47.00	54.00	55.00	51.00	49.00	52.00	56.00	58.00	58.00	59.00	64.00	78.00	86.00	94.00	102.00	110.00	132.00	135.00	136.00	141.00	162.00	172.00	182.00	191.00	195.00	182.00	165.00	147.00	136.00	154.00	162.00	168.00	171.00	170.00	166.00	165.00
203.00	204.00	203.00	197.00	192.00	184.00	174.00	153.00	155.00	158.00	156.00	147.00	136.00	145.00	159.00	172.00	191.00	195.00	199.00	201.00	202.00	202.00	201.00	202.00	203.00	205.00	206.00	208.00	217.00	219.00	217.00	216.00	216.00	217.00	222.00	222.00	220.00	216.00	210.00	175.00	167.00	167.00	172.00	186.00	190.00	189.00	177.00	164.00	175.00	204.00	213.00	219.00	221.00	219.00	215.00	211.00	204.00	201.00	198.00	193.00	178.00	153.00	137.00	117.00	103.00	90.00	87.00	91.00	102.00	112.00	120.00	115.00	114.00	118.00	122.00	124.00	130.00	145.00	164.00	202.00	215.00	223.00	224.00	220.00	218.00	218.00	211.00	197.00	200.00	213.00	225.00	232.00	242.00	248.00	248.00	245.00	244.00	234.00	225.00	217.00	207.00	202.00	208.00	212.00	223.00	243.00	265.00	256.00	245.00	231.00	194.00	191.00	182.00	178.00	174.00	165.00	161.00	160.00	160.00	149.00	142.00	135.00	130.00	122.00	112.00	111.00	112.00	113.00	116.00	114.00	110.00	107.00	106.00	109.00	111.00	112.00	111.00	112.00	111.00	104.00	98.00	93.00	88.00	86.00	84.00	81.00	71.00	69.00	66.00	64.00	67.00	67.00	65.00	62.00	57.00	45.00	37.00	29.00	24.00	27.00	26.00	24.00	24.00	24.00	95.00	135.00	170.00	188.00	190.00	164.00	148.00	134.00	124.00	132.00	141.00	153.00	157.00	163.00	175.00	178.00	177.00	173.00	172.00	169.00	163.00	155.00	131.00	103.00	98.00	103.00	113.00	138.00	146.00	153.00	159.00	168.00	170.00	172.00	174.00	176.00	165.00	153.00	139.00	122.00	91.00	85.00	112.00	132.00	145.00	154.00	148.00	136.00	120.00	92.00	79.00	65.00	52.00	41.00	43.00	43.00	47.00	54.00	55.00	51.00	49.00	52.00	56.00	58.00	58.00	59.00	64.00	78.00	86.00	94.00	102.00	110.00	132.00	135.00	136.00	141.00	162.00	172.00	182.00	191.00	195.00	182.00	165.00	147.00	136.00	154.00	162.00	168.00	171.00	170.00	166.00	165.00
203.00	204.00	203.00	197.00	192.00	184.00	174.00	153.00	155.00	158.00	156.00	147.00	136.00	145.00	159.00	172.00	191.00	195.00	199.00	201.00	202.00	202.00	201.00	202.00	203.00	205.00	206.00	208.00	217.00	219.00	217.00	216.00	216.00	217.00	222.00	222.00	220.00	216.00	210.00	175.00	167.00	167.00	172.00	186.00	190.00	189.00	177.00	164.00	175.00	204.00	213.00	219.00	221.00	219.00	215.00	211.00	204.00	201.00	198.00	193.00	178.00	153.00	137.00	117.00	103.00	90.00	87.00	91.00	102.00	112.00	120.00	115.00	114.00	118.00	122.00	124.00	130.00	145.00	164.00	202.00	215.00	223.00	224.00	220.00	218.00	218.00	211.00	197.00	200.00	213.00	225.00	232.00	242.00	248.00	248.00	245.00	244.00	234.00	225.00	217.00	207.00	202.00	208.00	212.00	223.00	243.00	265.00	256.00	245.00	231.00	194.00	191.00	182.00	178.00	174.00	165.00	161.00	160.00	160.00	149.00	142.00	135.00	130.00	122.00	112.00	111.00	112.00	113.00	116.00	114.00	110.00	107.00	106.00	109.00	111.00	112.00	111.00	112.00	111.00	104.00	98.00	93.00	88.00	86.00	84.00	81.00	71.00	69.00	66.00	64.00	67.00	67.00	65.00	62.00	57.00	45.00	37.00	29.00	24.00	27.00	26.00	24.00	24.00	24.00	95.00	135.00	170.00	188.00	190.00	164.00	148.00	134.00	124.00	132.00	141.00	153.00	157.00	163.00	175.00	178.00	177.00	173.00	172.00	169.00	163.00	155.00	131.00	103.00	98.00	103.00	113.00	138.00	146.00	153.00	159.00	168.00	170.00	172.00	174.00	176.00	165.00	153.00	139.00	122.00	91.00	85.00	112.00	132.00	145.00	154.00	148.00	136.00	120.00	92.00	79.00	65.00	52.00	41.00	43.00	43.00	47.00	54.00	55.00	51.00	49.00	52.00	56.00	58.00	58.00	59.00	64.00	78.00	86.00	94.00	102.00	110.00	132.00	135.00	136.00	141.00	162.00	172.00	182.00	191.00	195.00	182.00	165.00	147.00	136.00	154.00	162.00	168.00	171.00	170.00	166.00	165.00
192.00	191.00	192.00	193.00	193.00	189.00	183.00	151.00	137.00	127.00	125.00	128.00	150.00	163.00	174.00	184.00	198.00	202.00	206.00	207.00	208.00	210.00	210.00	209.00	204.00	190.00	187.00	190.00	200.00	203.00	211.00	216.00	221.00	223.00	225.00	225.00	221.00	215.00	205.00	183.00	189.00	197.00	203.00	211.00	210.00	205.00	197.00	189.00	191.00	206.00	213.00	219.00	225.00	225.00	225.00	225.00	215.00	204.00	192.00	181.00	166.00	160.00	156.00	147.00	136.00	109.00	96.00	89.00	91.00	98.00	97.00	105.00	117.00	128.00	130.00	133.00	145.00	161.00	178.00	223.00	233.00	225.00	218.00	193.00	182.00	179.00	182.00	188.00	203.00	210.00	218.00	237.00	253.00	257.00	256.00	251.00	250.00	244.00	232.00	222.00	213.00	197.00	200.00	201.00	202.00	208.00	217.00	217.00	219.00	219.00	213.00	209.00	184.00	175.00	167.00	156.00	150.00	144.00	143.00	134.00	126.00	117.00	114.00	115.00	126.00	127.00	126.00	125.00	126.00	125.00	123.00	121.00	117.00	117.00	116.00	116.00	118.00	116.00	112.00	107.00	100.00	93.00	80.00	77.00	78.00	77.00	73.00	73.00	74.00	73.00	75.00	71.00	65.00	61.00	53.00	40.00	35.00	25.00	26.00	32.00	43.00	31.00	24.00	24.00	37.00	86.00	133.00	173.00	196.00	181.00	158.00	144.00	139.00	149.00	155.00	168.00	172.00	176.00	180.00	182.00	181.00	179.00	171.00	161.00	149.00	136.00	117.00	120.00	129.00	139.00	142.00	135.00	134.00	140.00	148.00	167.00	189.00	191.00	187.00	182.00	170.00	163.00	150.00	132.00	99.00	92.00	109.00	127.00	140.00	130.00	111.00	93.00	78.00	57.00	58.00	60.00	56.00	43.00	38.00	39.00	41.00	43.00	40.00	35.00	33.00	34.00	37.00	42.00	46.00	50.00	57.00	65.00	67.00	73.00	81.00	85.00	97.00	109.00	129.00	133.00	144.00	151.00	159.00	173.00	186.00	186.00	172.00	155.00	143.00	162.00	173.00	182.00	188.00	189.00	184.00	183.00
192.00	191.00	192.00	193.00	193.00	189.00	183.00	151.00	137.00	127.00	125.00	128.00	150.00	163.00	174.00	184.00	198.00	202.00	206.00	207.00	208.00	210.00	210.00	209.00	204.00	190.00	187.00	190.00	200.00	203.00	211.00	216.00	221.00	223.00	225.00	225.00	221.00	215.00	205.00	183.00	189.00	197.00	203.00	211.00	210.00	205.00	197.00	189.00	191.00	206.00	213.00	219.00	225.00	225.00	225.00	225.00	215.00	204.00	192.00	181.00	166.00	160.00	156.00	147.00	136.00	109.00	96.00	89.00	91.00	98.00	97.00	105.00	117.00	128.00	130.00	133.00	145.00	161.00	178.00	223.00	233.00	225.00	218.00	193.00	182.00	179.00	182.00	188.00	203.00	210.00	218.00	237.00	253.00	257.00	256.00	251.00	250.00	244.00	232.00	222.00	213.00	197.00	200.00	201.00	202.00	208.00	217.00	217.00	219.00	219.00	213.00	209.00	184.00	175.00	167.00	156.00	150.00	144.00	143.00	134.00	126.00	117.00	114.00	115.00	126.00	127.00	126.00	125.00	126.00	125.00	123.00	121.00	117.00	117.00	116.00	116.00	118.00	116.00	112.00	107.00	100.00	93.00	80.00	77.00	78.00	77.00	73.00	73.00	74.00	73.00	75.00	71.00	65.00	61.00	53.00	40.00	35.00	25.00	26.00	32.00	43.00	31.00	24.00	24.00	37.00	86.00	133.00	173.00	196.00	181.00	158.00	144.00	139.00	149.00	155.00	168.00	172.00	176.00	180.00	182.00	181.00	179.00	171.00	161.00	149.00	136.00	117.00	120.00	129.00	139.00	142.00	135.00	134.00	140.00	148.00	167.00	189.00	191.00	187.00	182.00	170.00	163.00	150.00	132.00	99.00	92.00	109.00	127.00	140.00	130.00	111.00	93.00	78.00	57.00	58.00	60.00	56.00	43.00	38.00	39.00	41.00	43.00	40.00	35.00	33.00	34.00	37.00	42.00	46.00	50.00	57.00	65.00	67.00	73.00	81.00	85.00	97.00	109.00	129.00	133.00	144.00	151.00	159.00	173.00	186.00	186.00	172.00	155.00	143.00	162.00	173.00	182.00	188.00	189.00	184.00	183.00
185.00	179.00	175.00	176.00	177.00	176.00	171.00	132.00	120.00	125.00	138.00	152.00	172.00	180.00	184.00	188.00	196.00	199.00	204.00	206.00	206.00	203.00	198.00	191.00	184.00	174.00	179.00	186.00	190.00	185.00	182.00	187.00	195.00	202.00	215.00	219.00	220.00	219.00	215.00	206.00	212.00	218.00	222.00	225.00	225.00	222.00	218.00	215.00	218.00	222.00	222.00	222.00	221.00	223.00	226.00	228.00	224.00	218.00	210.00	199.00	170.00	140.00	130.00	124.00	123.00	118.00	109.00	97.00	85.00	79.00	96.00	107.00	117.00	120.00	122.00	133.00	151.00	172.00	192.00	225.00	235.00	239.00	224.00	173.00	156.00	145.00	142.00	159.00	195.00	206.00	213.00	230.00	245.00	246.00	248.00	250.00	250.00	251.00	244.00	240.00	238.00	227.00	218.00	203.00	190.00	183.00	176.00	171.00	171.00	178.00	193.00	198.00	203.00	199.00	190.00	166.00	156.00	150.00	146.00	140.00	138.00	136.00	135.00	138.00	147.00	144.00	141.00	137.00	129.00	126.00	125.00	124.00	125.00	123.00	122.00	123.00	124.00	116.00	109.00	100.00	90.00	82.00	74.00	72.00	77.00	80.00	80.00	80.00	79.00	80.00	82.00	78.00	73.00	64.00	46.00	40.00	38.00	25.00	27.00	36.00	41.00	40.00	31.00	24.00	24.00	27.00	91.00	146.00	170.00	164.00	149.00	141.00	141.00	154.00	163.00	178.00	185.00	188.00	185.00	185.00	186.00	184.00	165.00	149.00	134.00	122.00	120.00	141.00	151.00	156.00	159.00	150.00	143.00	141.00	149.00	174.00	190.00	193.00	193.00	189.00	168.00	154.00	138.00	124.00	113.00	117.00	121.00	116.00	111.00	97.00	88.00	78.00	68.00	58.00	62.00	64.00	63.00	54.00	45.00	46.00	50.00	55.00	53.00	50.00	47.00	45.00	44.00	43.00	42.00	40.00	38.00	44.00	46.00	47.00	48.00	51.00	69.00	85.00	115.00	124.00	135.00	135.00	137.00	146.00	164.00	187.00	178.00	164.00	155.00	158.00	168.00	185.00	201.00	207.00	204.00	202.00
185.00	179.00	175.00	176.00	177.00	176.00	171.00	132.00	120.00	125.00	138.00	152.00	172.00	180.00	184.00	188.00	196.00	199.00	204.00	206.00	206.00	203.00	198.00	191.00	184.00	174.00	179.00	186.00	190.00	185.00	182.00	187.00	195.00	202.00	215.00	219.00	220.00	219.00	215.00	206.00	212.00	218.00	222.00	225.00	225.00	222.00	218.00	215.00	218.00	222.00	222.00	222.00	221.00	223.00	226.00	228.00	224.00	218.00	210.00	199.00	170.00	140.00	130.00	124.00	123.00	118.00	109.00	97.00	85.00	79.00	96.00	107.00	117.00	120.00	122.00	133.00	151.00	172.00	192.00	225.00	235.00	239.00	224.00	173.00	156.00	145.00	142.00	159.00	195.00	206.00	213.00	230.00	245.00	246.00	248.00	250.00	250.00	251.00	244.00	240.00	238.00	227.00	218.00	203.00	190.00	183.00	176.00	171.00	171.00	178.00	193.00	198.00	203.00	199.00	190.00	166.00	156.00	150.00	146.00	140.00	138.00	136.00	135.00	138.00	147.00	144.00	141.00	137.00	129.00	126.00	125.00	124.00	125.00	123.00	122.00	123.00	124.00	116.00	109.00	100.00	90.00	82.00	74.00	72.00	77.00	80.00	80.00	80.00	79.00	80.00	82.00	78.00	73.00	64.00	46.00	40.00	38.00	25.00	27.00	36.00	41.00	40.00	31.00	24.00	24.00	27.00	91.00	146.00	170.00	164.00	149.00	141.00	141.00	154.00	163.00	178.00	185.00	188.00	185.00	185.00	186.00	184.00	165.00	149.00	134.00	122.00	120.00	141.00	151.00	156.00	159.00	150.00	143.00	141.00	149.00	174.00	190.00	193.00	193.00	189.00	168.00	154.00	138.00	124.00	113.00	117.00	121.00	116.00	111.00	97.00	88.00	78.00	68.00	58.00	62.00	64.00	63.00	54.00	45.00	46.00	50.00	55.00	53.00	50.00	47.00	45.00	44.00	43.00	42.00	40.00	38.00	44.00	46.00	47.00	48.00	51.00	69.00	85.00	115.00	124.00	135.00	135.00	137.00	146.00	164.00	187.00	178.00	164.00	155.00	158.00	168.00	185.00	201.00	207.00	204.00	202.00
189.00	183.00	174.00	155.00	150.00	150.00	148.00	116.00	124.00	138.00	152.00	165.00	187.00	194.00	198.00	201.00	204.00	204.00	204.00	204.00	204.00	201.00	195.00	185.00	172.00	153.00	156.00	162.00	166.00	165.00	173.00	180.00	186.00	191.00	203.00	210.00	215.00	220.00	223.00	226.00	227.00	227.00	228.00	228.00	228.00	228.00	228.00	227.00	226.00	220.00	215.00	209.00	199.00	202.00	210.00	218.00	225.00	225.00	225.00	223.00	208.00	186.00	180.00	178.00	177.00	173.00	166.00	152.00	129.00	103.00	85.00	89.00	93.00	94.00	106.00	126.00	146.00	165.00	181.00	207.00	213.00	214.00	201.00	162.00	139.00	123.00	125.00	146.00	184.00	194.00	201.00	206.00	224.00	236.00	246.00	250.00	245.00	241.00	244.00	239.00	230.00	227.00	230.00	226.00	218.00	209.00	187.00	173.00	160.00	155.00	154.00	156.00	174.00	183.00	180.00	163.00	156.00	153.00	150.00	150.00	148.00	145.00	141.00	135.00	138.00	135.00	135.00	135.00	132.00	132.00	131.00	128.00	127.00	116.00	110.00	108.00	104.00	100.00	96.00	90.00	85.00	79.00	68.00	65.00	74.00	81.00	82.00	77.00	74.00	73.00	71.00	73.00	72.00	65.00	41.00	29.00	24.00	24.00	28.00	46.00	52.00	47.00	37.00	26.00	24.00	24.00	46.00	122.00	156.00	170.00	161.00	155.00	159.00	178.00	184.00	187.00	187.00	186.00	183.00	184.00	184.00	180.00	159.00	144.00	132.00	128.00	142.00	161.00	171.00	176.00	174.00	160.00	151.00	144.00	144.00	174.00	194.00	196.00	195.00	188.00	159.00	143.00	129.00	122.00	133.00	143.00	139.00	129.00	118.00	97.00	87.00	79.00	76.00	74.00	75.00	74.00	74.00	69.00	60.00	61.00	62.00	62.00	58.00	57.00	56.00	54.00	51.00	48.00	48.00	49.00	50.00	46.00	46.00	46.00	46.00	45.00	43.00	44.00	55.00	66.00	91.00	99.00	113.00	138.00	170.00	205.00	196.00	181.00	168.00	160.00	162.00	170.00	185.00	200.00	214.00	215.00
189.00	183.00	174.00	155.00	150.00	150.00	148.00	116.00	124.00	138.00	152.00	165.00	187.00	194.00	198.00	201.00	204.00	204.00	204.00	204.00	204.00	201.00	195.00	185.00	172.00	153.00	156.00	162.00	166.00	165.00	173.00	180.00	186.00	191.00	203.00	210.00	215.00	220.00	223.00	226.00	227.00	227.00	228.00	228.00	228.00	228.00	228.00	227.00	226.00	220.00	215.00	209.00	199.00	202.00	210.00	218.00	225.00	225.00	225.00	223.00	208.00	186.00	180.00	178.00	177.00	173.00	166.00	152.00	129.00	103.00	85.00	89.00	93.00	94.00	106.00	126.00	146.00	165.00	181.00	207.00	213.00	214.00	201.00	162.00	139.00	123.00	125.00	146.00	184.00	194.00	201.00	206.00	224.00	236.00	246.00	250.00	245.00	241.00	244.00	239.00	230.00	227.00	230.00	226.00	218.00	209.00	187.00	173.00	160.00	155.00	154.00	156.00	174.00	183.00	180.00	163.00	156.00	153.00	150.00	150.00	148.00	145.00	141.00	135.00	138.00	135.00	135.00	135.00	132.00	132.00	131.00	128.00	127.00	116.00	110.00	108.00	104.00	100.00	96.00	90.00	85.00	79.00	68.00	65.00	74.00	81.00	82.00	77.00	74.00	73.00	71.00	73.00	72.00	65.00	41.00	29.00	24.00	24.00	28.00	46.00	52.00	47.00	37.00	26.00	24.00	24.00	46.00	122.00	156.00	170.00	161.00	155.00	159.00	178.00	184.00	187.00	187.00	186.00	183.00	184.00	184.00	180.00	159.00	144.00	132.00	128.00	142.00	161.00	171.00	176.00	174.00	160.00	151.00	144.00	144.00	174.00	194.00	196.00	195.00	188.00	159.00	143.00	129.00	122.00	133.00	143.00	139.00	129.00	118.00	97.00	87.00	79.00	76.00	74.00	75.00	74.00	74.00	69.00	60.00	61.00	62.00	62.00	58.00	57.00	56.00	54.00	51.00	48.00	48.00	49.00	50.00	46.00	46.00	46.00	46.00	45.00	43.00	44.00	55.00	66.00	91.00	99.00	113.00	138.00	170.00	205.00	196.00	181.00	168.00	160.00	162.00	170.00	185.00	200.00	214.00	215.00
195.00	190.00	184.00	167.00	156.00	146.00	135.00	107.00	124.00	142.00	159.00	173.00	193.00	199.00	202.00	203.00	202.00	203.00	205.00	204.00	201.00	194.00	189.00	182.00	171.00	141.00	136.00	141.00	159.00	169.00	192.00	202.00	207.00	210.00	211.00	212.00	214.00	216.00	218.00	225.00	226.00	227.00	228.00	225.00	222.00	220.00	219.00	215.00	212.00	203.00	197.00	188.00	177.00	183.00	194.00	204.00	219.00	224.00	226.00	227.00	225.00	219.00	216.00	213.00	210.00	201.00	196.00	188.00	177.00	159.00	83.00	80.00	82.00	83.00	105.00	121.00	139.00	174.00	184.00	196.00	202.00	201.00	193.00	167.00	147.00	138.00	152.00	176.00	194.00	205.00	216.00	219.00	230.00	247.00	261.00	261.00	252.00	247.00	244.00	238.00	231.00	209.00	198.00	189.00	187.00	189.00	191.00	190.00	188.00	188.00	161.00	156.00	153.00	148.00	146.00	138.00	129.00	127.00	131.00	140.00	136.00	131.00	126.00	119.00	105.00	98.00	96.00	99.00	110.00	115.00	119.00	122.00	124.00	117.00	111.00	103.00	95.00	85.00	82.00	79.00	78.00	74.00	64.00	57.00	60.00	68.00	70.00	70.00	71.00	65.00	55.00	40.00	44.00	48.00	28.00	25.00	29.00	30.00	33.00	38.00	40.00	39.00	37.00	30.00	24.00	24.00	41.00	105.00	142.00	183.00	183.00	180.00	180.00	192.00	195.00	198.00	200.00	201.00	198.00	197.00	193.00	184.00	158.00	145.00	136.00	132.00	147.00	177.00	186.00	191.00	192.00	181.00	170.00	161.00	158.00	180.00	195.00	194.00	189.00	180.00	149.00	133.00	126.00	131.00	153.00	158.00	156.00	149.00	136.00	107.00	97.00	90.00	87.00	91.00	94.00	92.00	85.00	77.00	72.00	70.00	69.00	68.00	69.00	71.00	73.00	71.00	71.00	68.00	67.00	71.00	70.00	47.00	46.00	47.00	45.00	39.00	35.00	35.00	45.00	53.00	73.00	90.00	111.00	134.00	157.00	194.00	198.00	191.00	181.00	174.00	172.00	168.00	170.00	179.00	198.00	204.00
195.00	190.00	184.00	167.00	156.00	146.00	135.00	107.00	124.00	142.00	159.00	173.00	193.00	199.00	202.00	203.00	202.00	203.00	205.00	204.00	201.00	194.00	189.00	182.00	171.00	141.00	136.00	141.00	159.00	169.00	192.00	202.00	207.00	210.00	211.00	212.00	214.00	216.00	218.00	225.00	226.00	227.00	228.00	225.00	222.00	220.00	219.00	215.00	212.00	203.00	197.00	188.00	177.00	183.00	194.00	204.00	219.00	224.00	226.00	227.00	225.00	219.00	216.00	213.00	210.00	201.00	196.00	188.00	177.00	159.00	83.00	80.00	82.00	83.00	105.00	121.00	139.00	174.00	184.00	196.00	202.00	201.00	193.00	167.00	147.00	138.00	152.00	176.00	194.00	205.00	216.00	219.00	230.00	247.00	261.00	261.00	252.00	247.00	244.00	238.00	231.00	209.00	198.00	189.00	187.00	189.00	191.00	190.00	188.00	188.00	161.00	156.00	153.00	148.00	146.00	138.00	129.00	127.00	131.00	140.00	136.00	131.00	126.00	119.00	105.00	98.00	96.00	99.00	110.00	115.00	119.00	122.00	124.00	117.00	111.00	103.00	95.00	85.00	82.00	79.00	78.00	74.00	64.00	57.00	60.00	68.00	70.00	70.00	71.00	65.00	55.00	40.00	44.00	48.00	28.00	25.00	29.00	30.00	33.00	38.00	40.00	39.00	37.00	30.00	24.00	24.00	41.00	105.00	142.00	183.00	183.00	180.00	180.00	192.00	195.00	198.00	200.00	201.00	198.00	197.00	193.00	184.00	158.00	145.00	136.00	132.00	147.00	177.00	186.00	191.00	192.00	181.00	170.00	161.00	158.00	180.00	195.00	194.00	189.00	180.00	149.00	133.00	126.00	131.00	153.00	158.00	156.00	149.00	136.00	107.00	97.00	90.00	87.00	91.00	94.00	92.00	85.00	77.00	72.00	70.00	69.00	68.00	69.00	71.00	73.00	71.00	71.00	68.00	67.00	71.00	70.00	47.00	46.00	47.00	45.00	39.00	35.00	35.00	45.00	53.00	73.00	90.00	111.00	134.00	157.00	194.00	198.00	191.00	181.00	174.00	172.00	168.00	170.00	179.00	198.00	204.00
197.00	194.00	190.00	175.00	162.00	146.00	128.00	112.00	130.00	148.00	163.00	176.00	190.00	193.00	193.00	193.00	188.00	189.00	194.00	194.00	192.00	176.00	165.00	157.00	147.00	126.00	136.00	154.00	181.00	189.00	202.00	206.00	209.00	210.00	208.00	207.00	207.00	209.00	212.00	216.00	215.00	213.00	210.00	202.00	199.00	194.00	189.00	183.00	180.00	174.00	171.00	166.00	161.00	167.00	175.00	180.00	193.00	203.00	212.00	218.00	220.00	212.00	206.00	200.00	195.00	189.00	186.00	184.00	180.00	171.00	121.00	116.00	115.00	112.00	110.00	111.00	142.00	165.00	177.00	195.00	205.00	199.00	184.00	146.00	131.00	130.00	145.00	162.00	175.00	186.00	203.00	224.00	234.00	238.00	239.00	243.00	245.00	237.00	236.00	233.00	225.00	212.00	202.00	195.00	191.00	186.00	163.00	163.00	170.00	177.00	171.00	169.00	157.00	152.00	146.00	139.00	136.00	138.00	145.00	148.00	142.00	138.00	135.00	148.00	134.00	112.00	99.00	93.00	94.00	101.00	102.00	102.00	106.00	99.00	97.00	91.00	84.00	70.00	66.00	67.00	71.00	72.00	65.00	57.00	47.00	52.00	56.00	52.00	43.00	33.00	30.00	26.00	28.00	40.00	36.00	33.00	24.00	31.00	44.00	44.00	44.00	44.00	40.00	33.00	24.00	24.00	29.00	75.00	120.00	189.00	198.00	197.00	197.00	204.00	206.00	210.00	212.00	213.00	213.00	209.00	202.00	193.00	174.00	163.00	154.00	150.00	164.00	189.00	196.00	199.00	202.00	195.00	189.00	185.00	184.00	194.00	202.00	199.00	190.00	176.00	148.00	141.00	142.00	149.00	166.00	170.00	163.00	151.00	139.00	127.00	123.00	114.00	106.00	121.00	134.00	136.00	124.00	96.00	85.00	82.00	81.00	80.00	86.00	91.00	95.00	97.00	98.00	96.00	96.00	96.00	90.00	53.00	44.00	44.00	49.00	52.00	45.00	41.00	47.00	54.00	74.00	92.00	115.00	140.00	166.00	204.00	209.00	207.00	204.00	195.00	191.00	185.00	182.00	183.00	197.00	203.00
197.00	194.00	190.00	175.00	162.00	146.00	128.00	112.00	130.00	148.00	163.00	176.00	190.00	193.00	193.00	193.00	188.00	189.00	194.00	194.00	192.00	176.00	165.00	157.00	147.00	126.00	136.00	154.00	181.00	189.00	202.00	206.00	209.00	210.00	208.00	207.00	207.00	209.00	212.00	216.00	215.00	213.00	210.00	202.00	199.00	194.00	189.00	183.00	180.00	174.00	171.00	166.00	161.00	167.00	175.00	180.00	193.00	203.00	212.00	218.00	220.00	212.00	206.00	200.00	195.00	189.00	186.00	184.00	180.00	171.00	121.00	116.00	115.00	112.00	110.00	111.00	142.00	165.00	177.00	195.00	205.00	199.00	184.00	146.00	131.00	130.00	145.00	162.00	175.00	186.00	203.00	224.00	234.00	238.00	239.00	243.00	245.00	237.00	236.00	233.00	225.00	212.00	202.00	195.00	191.00	186.00	163.00	163.00	170.00	177.00	171.00	169.00	157.00	152.00	146.00	139.00	136.00	138.00	145.00	148.00	142.00	138.00	135.00	148.00	134.00	112.00	99.00	93.00	94.00	101.00	102.00	102.00	106.00	99.00	97.00	91.00	84.00	70.00	66.00	67.00	71.00	72.00	65.00	57.00	47.00	52.00	56.00	52.00	43.00	33.00	30.00	26.00	28.00	40.00	36.00	33.00	24.00	31.00	44.00	44.00	44.00	44.00	40.00	33.00	24.00	24.00	29.00	75.00	120.00	189.00	198.00	197.00	197.00	204.00	206.00	210.00	212.00	213.00	213.00	209.00	202.00	193.00	174.00	163.00	154.00	150.00	164.00	189.00	196.00	199.00	202.00	195.00	189.00	185.00	184.00	194.00	202.00	199.00	190.00	176.00	148.00	141.00	142.00	149.00	166.00	170.00	163.00	151.00	139.00	127.00	123.00	114.00	106.00	121.00	134.00	136.00	124.00	96.00	85.00	82.00	81.00	80.00	86.00	91.00	95.00	97.00	98.00	96.00	96.00	96.00	90.00	53.00	44.00	44.00	49.00	52.00	45.00	41.00	47.00	54.00	74.00	92.00	115.00	140.00	166.00	204.00	209.00	207.00	204.00	195.00	191.00	185.00	182.00	183.00	197.00	203.00
197.00	194.00	190.00	175.00	162.00	146.00	128.00	112.00	130.00	148.00	163.00	176.00	190.00	193.00	193.00	193.00	188.00	189.00	194.00	194.00	192.00	176.00	165.00	157.00	147.00	126.00	136.00	154.00	181.00	189.00	202.00	206.00	209.00	210.00	208.00	207.00	207.00	209.00	212.00	216.00	215.00	213.00	210.00	202.00	199.00	194.00	189.00	183.00	180.00	174.00	171.00	166.00	161.00	167.00	175.00	180.00	193.00	203.00	212.00	218.00	220.00	212.00	206.00	200.00	195.00	189.00	186.00	184.00	180.00	171.00	121.00	116.00	115.00	112.00	110.00	111.00	142.00	165.00	177.00	195.00	205.00	199.00	184.00	146.00	131.00	130.00	145.00	162.00	175.00	186.00	203.00	224.00	234.00	238.00	239.00	243.00	245.00	237.00	236.00	233.00	225.00	212.00	202.00	195.00	191.00	186.00	163.00	163.00	170.00	177.00	171.00	169.00	157.00	152.00	146.00	139.00	136.00	138.00	145.00	148.00	142.00	138.00	135.00	148.00	134.00	112.00	99.00	93.00	94.00	101.00	102.00	102.00	106.00	99.00	97.00	91.00	84.00	70.00	66.00	67.00	71.00	72.00	65.00	57.00	47.00	52.00	56.00	52.00	43.00	33.00	30.00	26.00	28.00	40.00	36.00	33.00	24.00	31.00	44.00	44.00	44.00	44.00	40.00	33.00	24.00	24.00	29.00	75.00	120.00	189.00	198.00	197.00	197.00	204.00	206.00	210.00	212.00	213.00	213.00	209.00	202.00	193.00	174.00	163.00	154.00	150.00	164.00	189.00	196.00	199.00	202.00	195.00	189.00	185.00	184.00	194.00	202.00	199.00	190.00	176.00	148.00	141.00	142.00	149.00	166.00	170.00	163.00	151.00	139.00	127.00	123.00	114.00	106.00	121.00	134.00	136.00	124.00	96.00	85.00	82.00	81.00	80.00	86.00	91.00	95.00	97.00	98.00	96.00	96.00	96.00	90.00	53.00	44.00	44.00	49.00	52.00	45.00	41.00	47.00	54.00	74.00	92.00	115.00	140.00	166.00	204.00	209.00	207.00	204.00	195.00	191.00	185.00	182.00	183.00	197.00	203.00
180.00	182.00	182.00	171.00	160.00	145.00	123.00	117.00	135.00	151.00	163.00	171.00	173.00	168.00	165.00	166.00	177.00	184.00	190.00	188.00	182.00	162.00	149.00	132.00	117.00	131.00	152.00	170.00	198.00	206.00	210.00	207.00	203.00	197.00	187.00	190.00	197.00	204.00	210.00	216.00	214.00	210.00	206.00	197.00	194.00	192.00	189.00	184.00	180.00	166.00	158.00	150.00	138.00	139.00	143.00	150.00	172.00	186.00	199.00	208.00	218.00	212.00	203.00	189.00	174.00	150.00	144.00	142.00	141.00	139.00	129.00	128.00	122.00	113.00	95.00	101.00	128.00	146.00	164.00	197.00	212.00	217.00	203.00	143.00	109.00	97.00	110.00	135.00	175.00	195.00	208.00	222.00	229.00	228.00	221.00	212.00	209.00	231.00	233.00	225.00	216.00	188.00	182.00	180.00	181.00	172.00	147.00	137.00	128.00	126.00	146.00	151.00	152.00	153.00	154.00	160.00	162.00	157.00	151.00	143.00	142.00	140.00	136.00	129.00	114.00	102.00	92.00	86.00	92.00	91.00	84.00	75.00	70.00	65.00	66.00	67.00	64.00	59.00	54.00	51.00	51.00	52.00	56.00	55.00	45.00	44.00	44.00	40.00	29.00	26.00	29.00	24.00	28.00	38.00	38.00	37.00	53.00	62.00	61.00	57.00	60.00	58.00	50.00	37.00	24.00	24.00	24.00	35.00	74.00	130.00	154.00	178.00	199.00	215.00	219.00	220.00	216.00	213.00	212.00	211.00	206.00	202.00	197.00	192.00	186.00	182.00	192.00	212.00	217.00	215.00	211.00	212.00	212.00	211.00	209.00	210.00	199.00	189.00	176.00	162.00	144.00	144.00	150.00	161.00	181.00	182.00	158.00	152.00	154.00	155.00	146.00	131.00	118.00	126.00	145.00	154.00	153.00	128.00	106.00	100.00	96.00	91.00	90.00	95.00	99.00	102.00	103.00	108.00	109.00	106.00	93.00	58.00	51.00	52.00	57.00	59.00	49.00	47.00	46.00	53.00	80.00	101.00	128.00	154.00	173.00	198.00	208.00	217.00	223.00	223.00	220.00	216.00	213.00	213.00	217.00	220.00
180.00	182.00	182.00	171.00	160.00	145.00	123.00	117.00	135.00	151.00	163.00	171.00	173.00	168.00	165.00	166.00	177.00	184.00	190.00	188.00	182.00	162.00	149.00	132.00	117.00	131.00	152.00	170.00	198.00	206.00	210.00	207.00	203.00	197.00	187.00	190.00	197.00	204.00	210.00	216.00	214.00	210.00	206.00	197.00	194.00	192.00	189.00	184.00	180.00	166.00	158.00	150.00	138.00	139.00	143.00	150.00	172.00	186.00	199.00	208.00	218.00	212.00	203.00	189.00	174.00	150.00	144.00	142.00	141.00	139.00	129.00	128.00	122.00	113.00	95.00	101.00	128.00	146.00	164.00	197.00	212.00	217.00	203.00	143.00	109.00	97.00	110.00	135.00	175.00	195.00	208.00	222.00	229.00	228.00	221.00	212.00	209.00	231.00	233.00	225.00	216.00	188.00	182.00	180.00	181.00	172.00	147.00	137.00	128.00	126.00	146.00	151.00	152.00	153.00	154.00	160.00	162.00	157.00	151.00	143.00	142.00	140.00	136.00	129.00	114.00	102.00	92.00	86.00	92.00	91.00	84.00	75.00	70.00	65.00	66.00	67.00	64.00	59.00	54.00	51.00	51.00	52.00	56.00	55.00	45.00	44.00	44.00	40.00	29.00	26.00	29.00	24.00	28.00	38.00	38.00	37.00	53.00	62.00	61.00	57.00	60.00	58.00	50.00	37.00	24.00	24.00	24.00	35.00	74.00	130.00	154.00	178.00	199.00	215.00	219.00	220.00	216.00	213.00	212.00	211.00	206.00	202.00	197.00	192.00	186.00	182.00	192.00	212.00	217.00	215.00	211.00	212.00	212.00	211.00	209.00	210.00	199.00	189.00	176.00	162.00	144.00	144.00	150.00	161.00	181.00	182.00	158.00	152.00	154.00	155.00	146.00	131.00	118.00	126.00	145.00	154.00	153.00	128.00	106.00	100.00	96.00	91.00	90.00	95.00	99.00	102.00	103.00	108.00	109.00	106.00	93.00	58.00	51.00	52.00	57.00	59.00	49.00	47.00	46.00	53.00	80.00	101.00	128.00	154.00	173.00	198.00	208.00	217.00	223.00	223.00	220.00	216.00	213.00	213.00	217.00	220.00
180.00	182.00	182.00	171.00	160.00	145.00	123.00	117.00	135.00	151.00	163.00	171.00	173.00	168.00	165.00	166.00	177.00	184.00	190.00	188.00	182.00	162.00	149.00	132.00	117.00	131.00	152.00	170.00	198.00	206.00	210.00	207.00	203.00	197.00	187.00	190.00	197.00	204.00	210.00	216.00	214.00	210.00	206.00	197.00	194.00	192.00	189.00	184.00	180.00	166.00	158.00	150.00	138.00	139.00	143.00	150.00	172.00	186.00	199.00	208.00	218.00	212.00	203.00	189.00	174.00	150.00	144.00	142.00	141.00	139.00	129.00	128.00	122.00	113.00	95.00	101.00	128.00	146.00	164.00	197.00	212.00	217.00	203.00	143.00	109.00	97.00	110.00	135.00	175.00	195.00	208.00	222.00	229.00	228.00	221.00	212.00	209.00	231.00	233.00	225.00	216.00	188.00	182.00	180.00	181.00	172.00	147.00	137.00	128.00	126.00	146.00	151.00	152.00	153.00	154.00	160.00	162.00	157.00	151.00	143.00	142.00	140.00	136.00	129.00	114.00	102.00	92.00	86.00	92.00	91.00	84.00	75.00	70.00	65.00	66.00	67.00	64.00	59.00	54.00	51.00	51.00	52.00	56.00	55.00	45.00	44.00	44.00	40.00	29.00	26.00	29.00	24.00	28.00	38.00	38.00	37.00	53.00	62.00	61.00	57.00	60.00	58.00	50.00	37.00	24.00	24.00	24.00	35.00	74.00	130.00	154.00	178.00	199.00	215.00	219.00	220.00	216.00	213.00	212.00	211.00	206.00	202.00	197.00	192.00	186.00	182.00	192.00	212.00	217.00	215.00	211.00	212.00	212.00	211.00	209.00	210.00	199.00	189.00	176.00	162.00	144.00	144.00	150.00	161.00	181.00	182.00	158.00	152.00	154.00	155.00	146.00	131.00	118.00	126.00	145.00	154.00	153.00	128.00	106.00	100.00	96.00	91.00	90.00	95.00	99.00	102.00	103.00	108.00	109.00	106.00	93.00	58.00	51.00	52.00	57.00	59.00	49.00	47.00	46.00	53.00	80.00	101.00	128.00	154.00	173.00	198.00	208.00	217.00	223.00	223.00	220.00	216.00	213.00	213.00	217.00	220.00
154.00	160.00	164.00	161.00	151.00	137.00	116.00	113.00	132.00	147.00	155.00	156.00	144.00	141.00	148.00	160.00	176.00	178.00	173.00	168.00	158.00	131.00	116.00	106.00	111.00	145.00	162.00	177.00	196.00	202.00	205.00	202.00	195.00	183.00	169.00	177.00	184.00	191.00	199.00	216.00	219.00	221.00	220.00	215.00	210.00	205.00	199.00	190.00	186.00	180.00	177.00	171.00	146.00	129.00	120.00	128.00	159.00	173.00	186.00	198.00	213.00	216.00	213.00	207.00	199.00	174.00	159.00	146.00	134.00	124.00	123.00	122.00	113.00	99.00	71.00	83.00	99.00	116.00	140.00	189.00	202.00	218.00	219.00	173.00	140.00	120.00	121.00	135.00	172.00	193.00	211.00	216.00	206.00	202.00	200.00	198.00	199.00	213.00	221.00	223.00	220.00	185.00	167.00	151.00	137.00	130.00	133.00	130.00	125.00	118.00	114.00	124.00	140.00	144.00	143.00	134.00	144.00	151.00	148.00	140.00	133.00	129.00	126.00	110.00	87.00	77.00	70.00	69.00	79.00	81.00	80.00	78.00	77.00	73.00	71.00	69.00	68.00	69.00	65.00	56.00	47.00	40.00	43.00	43.00	40.00	43.00	48.00	38.00	27.00	25.00	30.00	42.00	41.00	46.00	76.00	104.00	99.00	90.00	79.00	68.00	57.00	52.00	46.00	38.00	24.00	24.00	24.00	24.00	27.00	74.00	99.00	124.00	150.00	182.00	176.00	186.00	204.00	213.00	218.00	220.00	217.00	206.00	192.00	193.00	196.00	195.00	195.00	206.00	208.00	200.00	186.00	175.00	176.00	181.00	191.00	212.00	200.00	188.00	176.00	166.00	157.00	155.00	160.00	171.00	191.00	191.00	180.00	180.00	181.00	173.00	160.00	140.00	125.00	144.00	159.00	162.00	156.00	136.00	115.00	108.00	102.00	95.00	92.00	97.00	101.00	104.00	107.00	111.00	108.00	103.00	92.00	65.00	57.00	52.00	51.00	53.00	45.00	44.00	51.00	59.00	73.00	85.00	103.00	125.00	142.00	170.00	183.00	200.00	217.00	241.00	246.00	243.00	236.00	234.00	241.00	246.00
154.00	160.00	164.00	161.00	151.00	137.00	116.00	113.00	132.00	147.00	155.00	156.00	144.00	141.00	148.00	160.00	176.00	178.00	173.00	168.00	158.00	131.00	116.00	106.00	111.00	145.00	162.00	177.00	196.00	202.00	205.00	202.00	195.00	183.00	169.00	177.00	184.00	191.00	199.00	216.00	219.00	221.00	220.00	215.00	210.00	205.00	199.00	190.00	186.00	180.00	177.00	171.00	146.00	129.00	120.00	128.00	159.00	173.00	186.00	198.00	213.00	216.00	213.00	207.00	199.00	174.00	159.00	146.00	134.00	124.00	123.00	122.00	113.00	99.00	71.00	83.00	99.00	116.00	140.00	189.00	202.00	218.00	219.00	173.00	140.00	120.00	121.00	135.00	172.00	193.00	211.00	216.00	206.00	202.00	200.00	198.00	199.00	213.00	221.00	223.00	220.00	185.00	167.00	151.00	137.00	130.00	133.00	130.00	125.00	118.00	114.00	124.00	140.00	144.00	143.00	134.00	144.00	151.00	148.00	140.00	133.00	129.00	126.00	110.00	87.00	77.00	70.00	69.00	79.00	81.00	80.00	78.00	77.00	73.00	71.00	69.00	68.00	69.00	65.00	56.00	47.00	40.00	43.00	43.00	40.00	43.00	48.00	38.00	27.00	25.00	30.00	42.00	41.00	46.00	76.00	104.00	99.00	90.00	79.00	68.00	57.00	52.00	46.00	38.00	24.00	24.00	24.00	24.00	27.00	74.00	99.00	124.00	150.00	182.00	176.00	186.00	204.00	213.00	218.00	220.00	217.00	206.00	192.00	193.00	196.00	195.00	195.00	206.00	208.00	200.00	186.00	175.00	176.00	181.00	191.00	212.00	200.00	188.00	176.00	166.00	157.00	155.00	160.00	171.00	191.00	191.00	180.00	180.00	181.00	173.00	160.00	140.00	125.00	144.00	159.00	162.00	156.00	136.00	115.00	108.00	102.00	95.00	92.00	97.00	101.00	104.00	107.00	111.00	108.00	103.00	92.00	65.00	57.00	52.00	51.00	53.00	45.00	44.00	51.00	59.00	73.00	85.00	103.00	125.00	142.00	170.00	183.00	200.00	217.00	241.00	246.00	243.00	236.00	234.00	241.00	246.00
129.00	138.00	146.00	150.00	143.00	131.00	113.00	102.00	118.00	131.00	136.00	134.00	131.00	142.00	155.00	166.00	173.00	169.00	154.00	144.00	131.00	100.00	97.00	108.00	125.00	160.00	175.00	188.00	204.00	207.00	199.00	189.00	177.00	159.00	154.00	167.00	180.00	192.00	202.00	216.00	216.00	215.00	213.00	213.00	215.00	216.00	213.00	200.00	191.00	170.00	163.00	157.00	147.00	136.00	122.00	116.00	140.00	155.00	169.00	182.00	203.00	214.00	215.00	215.00	213.00	203.00	197.00	191.00	183.00	174.00	149.00	141.00	131.00	114.00	80.00	69.00	76.00	101.00	129.00	178.00	190.00	197.00	198.00	177.00	151.00	122.00	104.00	108.00	137.00	156.00	172.00	199.00	198.00	195.00	185.00	179.00	181.00	197.00	200.00	201.00	205.00	191.00	178.00	167.00	154.00	141.00	116.00	109.00	109.00	112.00	103.00	106.00	131.00	137.00	134.00	122.00	118.00	112.00	108.00	109.00	104.00	100.00	98.00	84.00	67.00	64.00	65.00	67.00	59.00	55.00	53.00	56.00	58.00	70.00	70.00	69.00	65.00	61.00	59.00	53.00	48.00	42.00	37.00	36.00	40.00	42.00	39.00	38.00	36.00	34.00	49.00	74.00	81.00	92.00	115.00	113.00	103.00	88.00	73.00	66.00	70.00	70.00	68.00	62.00	29.00	25.00	24.00	24.00	24.00	25.00	34.00	49.00	74.00	117.00	126.00	160.00	179.00	176.00	154.00	161.00	171.00	170.00	135.00	118.00	110.00	111.00	118.00	125.00	131.00	139.00	143.00	149.00	154.00	162.00	173.00	203.00	200.00	191.00	183.00	180.00	178.00	180.00	187.00	195.00	209.00	210.00	201.00	196.00	186.00	155.00	139.00	126.00	123.00	148.00	163.00	169.00	168.00	151.00	129.00	119.00	110.00	104.00	100.00	102.00	104.00	106.00	106.00	104.00	104.00	101.00	92.00	75.00	73.00	68.00	62.00	56.00	39.00	42.00	54.00	55.00	63.00	74.00	88.00	107.00	130.00	175.00	194.00	205.00	205.00	203.00	222.00	235.00	238.00	234.00	217.00	215.00
129.00	138.00	146.00	150.00	143.00	131.00	113.00	102.00	118.00	131.00	136.00	134.00	131.00	142.00	155.00	166.00	173.00	169.00	154.00	144.00	131.00	100.00	97.00	108.00	125.00	160.00	175.00	188.00	204.00	207.00	199.00	189.00	177.00	159.00	154.00	167.00	180.00	192.00	202.00	216.00	216.00	215.00	213.00	213.00	215.00	216.00	213.00	200.00	191.00	170.00	163.00	157.00	147.00	136.00	122.00	116.00	140.00	155.00	169.00	182.00	203.00	214.00	215.00	215.00	213.00	203.00	197.00	191.00	183.00	174.00	149.00	141.00	131.00	114.00	80.00	69.00	76.00	101.00	129.00	178.00	190.00	197.00	198.00	177.00	151.00	122.00	104.00	108.00	137.00	156.00	172.00	199.00	198.00	195.00	185.00	179.00	181.00	197.00	200.00	201.00	205.00	191.00	178.00	167.00	154.00	141.00	116.00	109.00	109.00	112.00	103.00	106.00	131.00	137.00	134.00	122.00	118.00	112.00	108.00	109.00	104.00	100.00	98.00	84.00	67.00	64.00	65.00	67.00	59.00	55.00	53.00	56.00	58.00	70.00	70.00	69.00	65.00	61.00	59.00	53.00	48.00	42.00	37.00	36.00	40.00	42.00	39.00	38.00	36.00	34.00	49.00	74.00	81.00	92.00	115.00	113.00	103.00	88.00	73.00	66.00	70.00	70.00	68.00	62.00	29.00	25.00	24.00	24.00	24.00	25.00	34.00	49.00	74.00	117.00	126.00	160.00	179.00	176.00	154.00	161.00	171.00	170.00	135.00	118.00	110.00	111.00	118.00	125.00	131.00	139.00	143.00	149.00	154.00	162.00	173.00	203.00	200.00	191.00	183.00	180.00	178.00	180.00	187.00	195.00	209.00	210.00	201.00	196.00	186.00	155.00	139.00	126.00	123.00	148.00	163.00	169.00	168.00	151.00	129.00	119.00	110.00	104.00	100.00	102.00	104.00	106.00	106.00	104.00	104.00	101.00	92.00	75.00	73.00	68.00	62.00	56.00	39.00	42.00	54.00	55.00	63.00	74.00	88.00	107.00	130.00	175.00	194.00	205.00	205.00	203.00	222.00	235.00	238.00	234.00	217.00	215.00
116.00	113.00	110.00	113.00	115.00	111.00	103.00	91.00	104.00	112.00	112.00	108.00	114.00	125.00	137.00	146.00	150.00	145.00	126.00	113.00	100.00	82.00	88.00	97.00	109.00	144.00	163.00	181.00	202.00	203.00	190.00	177.00	159.00	143.00	158.00	174.00	187.00	198.00	205.00	211.00	206.00	198.00	188.00	183.00	193.00	204.00	211.00	215.00	212.00	196.00	186.00	175.00	155.00	148.00	141.00	128.00	113.00	123.00	137.00	153.00	181.00	200.00	206.00	209.00	212.00	212.00	209.00	205.00	197.00	187.00	170.00	157.00	144.00	138.00	115.00	102.00	97.00	103.00	123.00	153.00	163.00	189.00	198.00	207.00	188.00	152.00	119.00	107.00	126.00	135.00	144.00	178.00	179.00	171.00	153.00	139.00	143.00	171.00	175.00	180.00	189.00	198.00	187.00	172.00	156.00	143.00	122.00	113.00	105.00	97.00	85.00	97.00	120.00	121.00	127.00	123.00	108.00	91.00	78.00	88.00	95.00	97.00	91.00	64.00	47.00	39.00	42.00	46.00	38.00	35.00	31.00	32.00	39.00	47.00	48.00	47.00	45.00	46.00	48.00	41.00	34.00	34.00	36.00	34.00	40.00	43.00	74.00	74.00	77.00	87.00	101.00	121.00	127.00	130.00	118.00	97.00	84.00	76.00	77.00	84.00	100.00	97.00	90.00	80.00	53.00	43.00	32.00	25.00	24.00	24.00	24.00	24.00	24.00	40.00	59.00	105.00	119.00	125.00	126.00	130.00	129.00	124.00	104.00	96.00	97.00	105.00	122.00	127.00	130.00	139.00	149.00	167.00	177.00	187.00	197.00	213.00	214.00	211.00	208.00	206.00	207.00	206.00	206.00	204.00	187.00	175.00	163.00	157.00	150.00	140.00	143.00	145.00	144.00	155.00	169.00	178.00	177.00	158.00	135.00	126.00	120.00	117.00	113.00	112.00	111.00	109.00	106.00	94.00	88.00	83.00	79.00	77.00	77.00	74.00	70.00	64.00	48.00	48.00	53.00	56.00	59.00	61.00	70.00	89.00	117.00	162.00	178.00	190.00	193.00	156.00	156.00	169.00	185.00	190.00	161.00	153.00
116.00	113.00	110.00	113.00	115.00	111.00	103.00	91.00	104.00	112.00	112.00	108.00	114.00	125.00	137.00	146.00	150.00	145.00	126.00	113.00	100.00	82.00	88.00	97.00	109.00	144.00	163.00	181.00	202.00	203.00	190.00	177.00	159.00	143.00	158.00	174.00	187.00	198.00	205.00	211.00	206.00	198.00	188.00	183.00	193.00	204.00	211.00	215.00	212.00	196.00	186.00	175.00	155.00	148.00	141.00	128.00	113.00	123.00	137.00	153.00	181.00	200.00	206.00	209.00	212.00	212.00	209.00	205.00	197.00	187.00	170.00	157.00	144.00	138.00	115.00	102.00	97.00	103.00	123.00	153.00	163.00	189.00	198.00	207.00	188.00	152.00	119.00	107.00	126.00	135.00	144.00	178.00	179.00	171.00	153.00	139.00	143.00	171.00	175.00	180.00	189.00	198.00	187.00	172.00	156.00	143.00	122.00	113.00	105.00	97.00	85.00	97.00	120.00	121.00	127.00	123.00	108.00	91.00	78.00	88.00	95.00	97.00	91.00	64.00	47.00	39.00	42.00	46.00	38.00	35.00	31.00	32.00	39.00	47.00	48.00	47.00	45.00	46.00	48.00	41.00	34.00	34.00	36.00	34.00	40.00	43.00	74.00	74.00	77.00	87.00	101.00	121.00	127.00	130.00	118.00	97.00	84.00	76.00	77.00	84.00	100.00	97.00	90.00	80.00	53.00	43.00	32.00	25.00	24.00	24.00	24.00	24.00	24.00	40.00	59.00	105.00	119.00	125.00	126.00	130.00	129.00	124.00	104.00	96.00	97.00	105.00	122.00	127.00	130.00	139.00	149.00	167.00	177.00	187.00	197.00	213.00	214.00	211.00	208.00	206.00	207.00	206.00	206.00	204.00	187.00	175.00	163.00	157.00	150.00	140.00	143.00	145.00	144.00	155.00	169.00	178.00	177.00	158.00	135.00	126.00	120.00	117.00	113.00	112.00	111.00	109.00	106.00	94.00	88.00	83.00	79.00	77.00	77.00	74.00	70.00	64.00	48.00	48.00	53.00	56.00	59.00	61.00	70.00	89.00	117.00	162.00	178.00	190.00	193.00	156.00	156.00	169.00	185.00	190.00	161.00	153.00
95.00	86.00	80.00	77.00	78.00	77.00	75.00	70.00	72.00	73.00	74.00	74.00	74.00	75.00	77.00	79.00	81.00	83.00	85.00	82.00	74.00	68.00	70.00	70.00	70.00	86.00	107.00	135.00	182.00	190.00	178.00	163.00	143.00	132.00	153.00	170.00	185.00	196.00	204.00	203.00	194.00	182.00	167.00	162.00	175.00	189.00	200.00	212.00	214.00	214.00	211.00	205.00	189.00	179.00	168.00	157.00	123.00	105.00	103.00	114.00	145.00	173.00	184.00	192.00	199.00	204.00	204.00	202.00	199.00	195.00	176.00	164.00	152.00	126.00	108.00	105.00	95.00	86.00	90.00	126.00	143.00	171.00	171.00	174.00	176.00	165.00	144.00	118.00	108.00	124.00	132.00	159.00	175.00	176.00	168.00	154.00	142.00	145.00	152.00	160.00	175.00	219.00	207.00	183.00	163.00	147.00	128.00	121.00	113.00	102.00	84.00	80.00	94.00	99.00	103.00	107.00	92.00	85.00	82.00	69.00	66.00	61.00	55.00	43.00	36.00	35.00	35.00	37.00	36.00	36.00	36.00	37.00	37.00	35.00	36.00	36.00	38.00	44.00	36.00	34.00	36.00	41.00	83.00	95.00	75.00	100.00	88.00	83.00	91.00	101.00	115.00	137.00	138.00	135.00	112.00	87.00	86.00	94.00	103.00	108.00	113.00	114.00	109.00	98.00	66.00	62.00	55.00	44.00	34.00	26.00	25.00	24.00	24.00	24.00	24.00	31.00	41.00	55.00	75.00	76.00	76.00	78.00	96.00	110.00	124.00	134.00	153.00	154.00	148.00	146.00	155.00	193.00	207.00	217.00	223.00	233.00	238.00	234.00	228.00	221.00	202.00	194.00	187.00	176.00	159.00	159.00	163.00	164.00	161.00	157.00	161.00	164.00	166.00	175.00	187.00	195.00	195.00	175.00	152.00	143.00	137.00	132.00	120.00	116.00	114.00	110.00	106.00	89.00	85.00	85.00	86.00	84.00	83.00	83.00	83.00	80.00	57.00	45.00	47.00	51.00	52.00	48.00	49.00	61.00	76.00	94.00	112.00	139.00	156.00	114.00	113.00	125.00	130.00	123.00	117.00	120.00
95.00	86.00	80.00	77.00	78.00	77.00	75.00	70.00	72.00	73.00	74.00	74.00	74.00	75.00	77.00	79.00	81.00	83.00	85.00	82.00	74.00	68.00	70.00	70.00	70.00	86.00	107.00	135.00	182.00	190.00	178.00	163.00	143.00	132.00	153.00	170.00	185.00	196.00	204.00	203.00	194.00	182.00	167.00	162.00	175.00	189.00	200.00	212.00	214.00	214.00	211.00	205.00	189.00	179.00	168.00	157.00	123.00	105.00	103.00	114.00	145.00	173.00	184.00	192.00	199.00	204.00	204.00	202.00	199.00	195.00	176.00	164.00	152.00	126.00	108.00	105.00	95.00	86.00	90.00	126.00	143.00	171.00	171.00	174.00	176.00	165.00	144.00	118.00	108.00	124.00	132.00	159.00	175.00	176.00	168.00	154.00	142.00	145.00	152.00	160.00	175.00	219.00	207.00	183.00	163.00	147.00	128.00	121.00	113.00	102.00	84.00	80.00	94.00	99.00	103.00	107.00	92.00	85.00	82.00	69.00	66.00	61.00	55.00	43.00	36.00	35.00	35.00	37.00	36.00	36.00	36.00	37.00	37.00	35.00	36.00	36.00	38.00	44.00	36.00	34.00	36.00	41.00	83.00	95.00	75.00	100.00	88.00	83.00	91.00	101.00	115.00	137.00	138.00	135.00	112.00	87.00	86.00	94.00	103.00	108.00	113.00	114.00	109.00	98.00	66.00	62.00	55.00	44.00	34.00	26.00	25.00	24.00	24.00	24.00	24.00	31.00	41.00	55.00	75.00	76.00	76.00	78.00	96.00	110.00	124.00	134.00	153.00	154.00	148.00	146.00	155.00	193.00	207.00	217.00	223.00	233.00	238.00	234.00	228.00	221.00	202.00	194.00	187.00	176.00	159.00	159.00	163.00	164.00	161.00	157.00	161.00	164.00	166.00	175.00	187.00	195.00	195.00	175.00	152.00	143.00	137.00	132.00	120.00	116.00	114.00	110.00	106.00	89.00	85.00	85.00	86.00	84.00	83.00	83.00	83.00	80.00	57.00	45.00	47.00	51.00	52.00	48.00	49.00	61.00	76.00	94.00	112.00	139.00	156.00	114.00	113.00	125.00	130.00	123.00	117.00	120.00
77.00	77.00	76.00	75.00	75.00	75.00	74.00	73.00	75.00	78.00	79.00	80.00	79.00	77.00	75.00	73.00	70.00	69.00	65.00	65.00	64.00	67.00	68.00	67.00	65.00	70.00	84.00	105.00	155.00	168.00	162.00	148.00	126.00	122.00	151.00	166.00	179.00	189.00	196.00	201.00	193.00	181.00	165.00	140.00	146.00	160.00	174.00	197.00	206.00	216.00	216.00	215.00	206.00	199.00	188.00	175.00	145.00	124.00	103.00	92.00	108.00	141.00	156.00	168.00	175.00	175.00	169.00	161.00	155.00	150.00	140.00	140.00	125.00	98.00	62.00	53.00	49.00	45.00	39.00	71.00	110.00	134.00	133.00	134.00	129.00	117.00	104.00	87.00	63.00	69.00	76.00	98.00	122.00	120.00	116.00	111.00	104.00	117.00	125.00	127.00	132.00	144.00	141.00	138.00	134.00	127.00	115.00	112.00	106.00	97.00	80.00	74.00	66.00	70.00	74.00	67.00	59.00	51.00	48.00	38.00	37.00	36.00	34.00	36.00	42.00	46.00	47.00	43.00	34.00	34.00	34.00	35.00	35.00	36.00	39.00	44.00	51.00	46.00	38.00	34.00	47.00	90.00	136.00	143.00	132.00	116.00	91.00	97.00	112.00	124.00	133.00	139.00	134.00	127.00	103.00	92.00	99.00	110.00	120.00	122.00	121.00	117.00	108.00	98.00	92.00	92.00	84.00	69.00	56.00	48.00	44.00	35.00	27.00	24.00	24.00	24.00	24.00	24.00	32.00	40.00	52.00	77.00	121.00	132.00	142.00	158.00	192.00	190.00	180.00	174.00	177.00	208.00	226.00	237.00	243.00	243.00	239.00	229.00	215.00	203.00	190.00	189.00	188.00	187.00	189.00	195.00	198.00	194.00	189.00	184.00	189.00	194.00	197.00	207.00	211.00	213.00	210.00	195.00	178.00	172.00	165.00	157.00	144.00	140.00	133.00	125.00	115.00	86.00	85.00	89.00	93.00	96.00	96.00	95.00	92.00	90.00	74.00	59.00	40.00	40.00	52.00	53.00	52.00	56.00	61.00	63.00	67.00	74.00	81.00	96.00	102.00	106.00	108.00	110.00	127.00	137.00
77.00	77.00	76.00	75.00	75.00	75.00	74.00	73.00	75.00	78.00	79.00	80.00	79.00	77.00	75.00	73.00	70.00	69.00	65.00	65.00	64.00	67.00	68.00	67.00	65.00	70.00	84.00	105.00	155.00	168.00	162.00	148.00	126.00	122.00	151.00	166.00	179.00	189.00	196.00	201.00	193.00	181.00	165.00	140.00	146.00	160.00	174.00	197.00	206.00	216.00	216.00	215.00	206.00	199.00	188.00	175.00	145.00	124.00	103.00	92.00	108.00	141.00	156.00	168.00	175.00	175.00	169.00	161.00	155.00	150.00	140.00	140.00	125.00	98.00	62.00	53.00	49.00	45.00	39.00	71.00	110.00	134.00	133.00	134.00	129.00	117.00	104.00	87.00	63.00	69.00	76.00	98.00	122.00	120.00	116.00	111.00	104.00	117.00	125.00	127.00	132.00	144.00	141.00	138.00	134.00	127.00	115.00	112.00	106.00	97.00	80.00	74.00	66.00	70.00	74.00	67.00	59.00	51.00	48.00	38.00	37.00	36.00	34.00	36.00	42.00	46.00	47.00	43.00	34.00	34.00	34.00	35.00	35.00	36.00	39.00	44.00	51.00	46.00	38.00	34.00	47.00	90.00	136.00	143.00	132.00	116.00	91.00	97.00	112.00	124.00	133.00	139.00	134.00	127.00	103.00	92.00	99.00	110.00	120.00	122.00	121.00	117.00	108.00	98.00	92.00	92.00	84.00	69.00	56.00	48.00	44.00	35.00	27.00	24.00	24.00	24.00	24.00	24.00	32.00	40.00	52.00	77.00	121.00	132.00	142.00	158.00	192.00	190.00	180.00	174.00	177.00	208.00	226.00	237.00	243.00	243.00	239.00	229.00	215.00	203.00	190.00	189.00	188.00	187.00	189.00	195.00	198.00	194.00	189.00	184.00	189.00	194.00	197.00	207.00	211.00	213.00	210.00	195.00	178.00	172.00	165.00	157.00	144.00	140.00	133.00	125.00	115.00	86.00	85.00	89.00	93.00	96.00	96.00	95.00	92.00	90.00	74.00	59.00	40.00	40.00	52.00	53.00	52.00	56.00	61.00	63.00	67.00	74.00	81.00	96.00	102.00	106.00	108.00	110.00	127.00	137.00
77.00	78.00	78.00	80.00	81.00	81.00	81.00	84.00	88.00	93.00	96.00	99.00	102.00	101.00	99.00	95.00	88.00	86.00	83.00	83.00	84.00	86.00	79.00	70.00	66.00	71.00	83.00	103.00	143.00	157.00	160.00	146.00	121.00	118.00	148.00	162.00	174.00	184.00	193.00	200.00	194.00	184.00	169.00	126.00	125.00	139.00	157.00	187.00	198.00	213.00	216.00	217.00	213.00	208.00	201.00	192.00	167.00	152.00	135.00	115.00	87.00	105.00	118.00	130.00	137.00	137.00	132.00	125.00	116.00	109.00	91.00	83.00	78.00	68.00	58.00	57.00	58.00	55.00	51.00	42.00	44.00	51.00	49.00	46.00	47.00	50.00	52.00	55.00	61.00	62.00	58.00	62.00	102.00	101.00	93.00	84.00	79.00	85.00	81.00	71.00	66.00	76.00	81.00	87.00	95.00	98.00	88.00	79.00	69.00	62.00	52.00	51.00	50.00	50.00	51.00	44.00	44.00	39.00	37.00	36.00	36.00	37.00	34.00	41.00	42.00	39.00	36.00	34.00	35.00	36.00	39.00	38.00	38.00	37.00	37.00	39.00	43.00	39.00	35.00	53.00	112.00	149.00	149.00	143.00	121.00	113.00	118.00	127.00	135.00	142.00	147.00	141.00	130.00	116.00	96.00	105.00	112.00	120.00	129.00	133.00	123.00	115.00	107.00	105.00	106.00	98.00	85.00	70.00	60.00	78.00	91.00	88.00	70.00	42.00	33.00	24.00	24.00	24.00	24.00	24.00	24.00	26.00	78.00	109.00	128.00	142.00	182.00	218.00	222.00	219.00	213.00	221.00	235.00	248.00	254.00	247.00	229.00	220.00	214.00	215.00	222.00	222.00	220.00	219.00	221.00	225.00	226.00	227.00	233.00	233.00	232.00	233.00	234.00	232.00	231.00	228.00	222.00	205.00	185.00	175.00	173.00	170.00	149.00	138.00	129.00	121.00	111.00	98.00	103.00	109.00	113.00	117.00	116.00	113.00	107.00	101.00	83.00	68.00	42.00	40.00	48.00	51.00	54.00	57.00	59.00	61.00	60.00	59.00	62.00	107.00	120.00	128.00	131.00	126.00	130.00	151.00
77.00	78.00	78.00	80.00	81.00	81.00	81.00	84.00	88.00	93.00	96.00	99.00	102.00	101.00	99.00	95.00	88.00	86.00	83.00	83.00	84.00	86.00	79.00	70.00	66.00	71.00	83.00	103.00	143.00	157.00	160.00	146.00	121.00	118.00	148.00	162.00	174.00	184.00	193.00	200.00	194.00	184.00	169.00	126.00	125.00	139.00	157.00	187.00	198.00	213.00	216.00	217.00	213.00	208.00	201.00	192.00	167.00	152.00	135.00	115.00	87.00	105.00	118.00	130.00	137.00	137.00	132.00	125.00	116.00	109.00	91.00	83.00	78.00	68.00	58.00	57.00	58.00	55.00	51.00	42.00	44.00	51.00	49.00	46.00	47.00	50.00	52.00	55.00	61.00	62.00	58.00	62.00	102.00	101.00	93.00	84.00	79.00	85.00	81.00	71.00	66.00	76.00	81.00	87.00	95.00	98.00	88.00	79.00	69.00	62.00	52.00	51.00	50.00	50.00	51.00	44.00	44.00	39.00	37.00	36.00	36.00	37.00	34.00	41.00	42.00	39.00	36.00	34.00	35.00	36.00	39.00	38.00	38.00	37.00	37.00	39.00	43.00	39.00	35.00	53.00	112.00	149.00	149.00	143.00	121.00	113.00	118.00	127.00	135.00	142.00	147.00	141.00	130.00	116.00	96.00	105.00	112.00	120.00	129.00	133.00	123.00	115.00	107.00	105.00	106.00	98.00	85.00	70.00	60.00	78.00	91.00	88.00	70.00	42.00	33.00	24.00	24.00	24.00	24.00	24.00	24.00	26.00	78.00	109.00	128.00	142.00	182.00	218.00	222.00	219.00	213.00	221.00	235.00	248.00	254.00	247.00	229.00	220.00	214.00	215.00	222.00	222.00	220.00	219.00	221.00	225.00	226.00	227.00	233.00	233.00	232.00	233.00	234.00	232.00	231.00	228.00	222.00	205.00	185.00	175.00	173.00	170.00	149.00	138.00	129.00	121.00	111.00	98.00	103.00	109.00	113.00	117.00	116.00	113.00	107.00	101.00	83.00	68.00	42.00	40.00	48.00	51.00	54.00	57.00	59.00	61.00	60.00	59.00	62.00	107.00	120.00	128.00	131.00	126.00	130.00	151.00
77.00	78.00	78.00	80.00	81.00	81.00	81.00	84.00	88.00	93.00	96.00	99.00	102.00	101.00	99.00	95.00	88.00	86.00	83.00	83.00	84.00	86.00	79.00	70.00	66.00	71.00	83.00	103.00	143.00	157.00	160.00	146.00	121.00	118.00	148.00	162.00	174.00	184.00	193.00	200.00	194.00	184.00	169.00	126.00	125.00	139.00	157.00	187.00	198.00	213.00	216.00	217.00	213.00	208.00	201.00	192.00	167.00	152.00	135.00	115.00	87.00	105.00	118.00	130.00	137.00	137.00	132.00	125.00	116.00	109.00	91.00	83.00	78.00	68.00	58.00	57.00	58.00	55.00	51.00	42.00	44.00	51.00	49.00	46.00	47.00	50.00	52.00	55.00	61.00	62.00	58.00	62.00	102.00	101.00	93.00	84.00	79.00	85.00	81.00	71.00	66.00	76.00	81.00	87.00	95.00	98.00	88.00	79.00	69.00	62.00	52.00	51.00	50.00	50.00	51.00	44.00	44.00	39.00	37.00	36.00	36.00	37.00	34.00	41.00	42.00	39.00	36.00	34.00	35.00	36.00	39.00	38.00	38.00	37.00	37.00	39.00	43.00	39.00	35.00	53.00	112.00	149.00	149.00	143.00	121.00	113.00	118.00	127.00	135.00	142.00	147.00	141.00	130.00	116.00	96.00	105.00	112.00	120.00	129.00	133.00	123.00	115.00	107.00	105.00	106.00	98.00	85.00	70.00	60.00	78.00	91.00	88.00	70.00	42.00	33.00	24.00	24.00	24.00	24.00	24.00	24.00	26.00	78.00	109.00	128.00	142.00	182.00	218.00	222.00	219.00	213.00	221.00	235.00	248.00	254.00	247.00	229.00	220.00	214.00	215.00	222.00	222.00	220.00	219.00	221.00	225.00	226.00	227.00	233.00	233.00	232.00	233.00	234.00	232.00	231.00	228.00	222.00	205.00	185.00	175.00	173.00	170.00	149.00	138.00	129.00	121.00	111.00	98.00	103.00	109.00	113.00	117.00	116.00	113.00	107.00	101.00	83.00	68.00	42.00	40.00	48.00	51.00	54.00	57.00	59.00	61.00	60.00	59.00	62.00	107.00	120.00	128.00	131.00	126.00	130.00	151.00
101.00	102.00	102.00	102.00	100.00	99.00	97.00	92.00	93.00	96.00	99.00	103.00	109.00	109.00	108.00	108.00	108.00	108.00	105.00	105.00	105.00	101.00	87.00	73.00	67.00	66.00	75.00	101.00	151.00	165.00	167.00	152.00	122.00	111.00	143.00	159.00	173.00	184.00	193.00	201.00	195.00	185.00	170.00	124.00	117.00	130.00	149.00	181.00	191.00	204.00	208.00	209.00	204.00	198.00	192.00	185.00	172.00	163.00	151.00	135.00	100.00	75.00	79.00	85.00	86.00	76.00	70.00	70.00	72.00	71.00	61.00	52.00	52.00	56.00	46.00	40.00	40.00	42.00	46.00	49.00	49.00	43.00	40.00	40.00	42.00	44.00	40.00	37.00	43.00	41.00	37.00	37.00	54.00	55.00	57.00	61.00	65.00	73.00	71.00	67.00	65.00	47.00	50.00	56.00	59.00	57.00	41.00	39.00	40.00	37.00	39.00	40.00	41.00	41.00	42.00	44.00	42.00	40.00	40.00	43.00	45.00	46.00	47.00	50.00	43.00	44.00	42.00	39.00	34.00	34.00	36.00	38.00	37.00	34.00	35.00	39.00	43.00	42.00	105.00	148.00	156.00	156.00	148.00	138.00	127.00	131.00	146.00	150.00	148.00	143.00	141.00	129.00	118.00	109.00	108.00	121.00	125.00	127.00	134.00	140.00	136.00	128.00	123.00	123.00	100.00	80.00	65.00	60.00	65.00	96.00	107.00	106.00	98.00	76.00	60.00	32.00	29.00	27.00	24.00	24.00	24.00	24.00	29.00	41.00	62.00	87.00	130.00	163.00	180.00	197.00	211.00	236.00	247.00	254.00	255.00	247.00	241.00	240.00	238.00	239.00	246.00	247.00	245.00	243.00	242.00	245.00	236.00	231.00	231.00	223.00	220.00	221.00	221.00	194.00	184.00	177.00	166.00	138.00	127.00	125.00	124.00	121.00	111.00	108.00	107.00	107.00	107.00	116.00	121.00	126.00	131.00	135.00	134.00	132.00	128.00	121.00	101.00	89.00	79.00	74.00	52.00	46.00	45.00	45.00	45.00	43.00	43.00	46.00	54.00	95.00	115.00	136.00	150.00	158.00	159.00	161.00
101.00	102.00	102.00	102.00	100.00	99.00	97.00	92.00	93.00	96.00	99.00	103.00	109.00	109.00	108.00	108.00	108.00	108.00	105.00	105.00	105.00	101.00	87.00	73.00	67.00	66.00	75.00	101.00	151.00	165.00	167.00	152.00	122.00	111.00	143.00	159.00	173.00	184.00	193.00	201.00	195.00	185.00	170.00	124.00	117.00	130.00	149.00	181.00	191.00	204.00	208.00	209.00	204.00	198.00	192.00	185.00	172.00	163.00	151.00	135.00	100.00	75.00	79.00	85.00	86.00	76.00	70.00	70.00	72.00	71.00	61.00	52.00	52.00	56.00	46.00	40.00	40.00	42.00	46.00	49.00	49.00	43.00	40.00	40.00	42.00	44.00	40.00	37.00	43.00	41.00	37.00	37.00	54.00	55.00	57.00	61.00	65.00	73.00	71.00	67.00	65.00	47.00	50.00	56.00	59.00	57.00	41.00	39.00	40.00	37.00	39.00	40.00	41.00	41.00	42.00	44.00	42.00	40.00	40.00	43.00	45.00	46.00	47.00	50.00	43.00	44.00	42.00	39.00	34.00	34.00	36.00	38.00	37.00	34.00	35.00	39.00	43.00	42.00	105.00	148.00	156.00	156.00	148.00	138.00	127.00	131.00	146.00	150.00	148.00	143.00	141.00	129.00	118.00	109.00	108.00	121.00	125.00	127.00	134.00	140.00	136.00	128.00	123.00	123.00	100.00	80.00	65.00	60.00	65.00	96.00	107.00	106.00	98.00	76.00	60.00	32.00	29.00	27.00	24.00	24.00	24.00	24.00	29.00	41.00	62.00	87.00	130.00	163.00	180.00	197.00	211.00	236.00	247.00	254.00	255.00	247.00	241.00	240.00	238.00	239.00	246.00	247.00	245.00	243.00	242.00	245.00	236.00	231.00	231.00	223.00	220.00	221.00	221.00	194.00	184.00	177.00	166.00	138.00	127.00	125.00	124.00	121.00	111.00	108.00	107.00	107.00	107.00	116.00	121.00	126.00	131.00	135.00	134.00	132.00	128.00	121.00	101.00	89.00	79.00	74.00	52.00	46.00	45.00	45.00	45.00	43.00	43.00	46.00	54.00	95.00	115.00	136.00	150.00	158.00	159.00	161.00
132.00	131.00	128.00	119.00	113.00	108.00	105.00	100.00	99.00	101.00	104.00	109.00	119.00	123.00	125.00	127.00	127.00	126.00	121.00	118.00	116.00	110.00	96.00	80.00	71.00	69.00	78.00	90.00	127.00	140.00	154.00	152.00	133.00	107.00	123.00	141.00	156.00	169.00	180.00	198.00	198.00	193.00	179.00	128.00	110.00	121.00	140.00	166.00	172.00	174.00	167.00	159.00	134.00	116.00	104.00	90.00	83.00	77.00	73.00	69.00	59.00	45.00	40.00	42.00	38.00	43.00	43.00	41.00	38.00	39.00	43.00	44.00	39.00	38.00	45.00	50.00	56.00	57.00	57.00	63.00	65.00	70.00	67.00	63.00	61.00	60.00	58.00	56.00	50.00	47.00	37.00	34.00	38.00	39.00	41.00	41.00	41.00	38.00	38.00	39.00	43.00	44.00	50.00	61.00	61.00	51.00	39.00	51.00	51.00	46.00	38.00	37.00	40.00	40.00	42.00	54.00	57.00	57.00	57.00	65.00	75.00	79.00	66.00	43.00	46.00	50.00	52.00	56.00	53.00	52.00	54.00	52.00	57.00	64.00	71.00	86.00	97.00	144.00	155.00	157.00	157.00	155.00	150.00	138.00	144.00	154.00	162.00	162.00	155.00	143.00	131.00	121.00	121.00	124.00	132.00	137.00	139.00	145.00	151.00	153.00	149.00	141.00	131.00	121.00	79.00	67.00	66.00	76.00	89.00	110.00	114.00	112.00	107.00	92.00	79.00	50.00	45.00	41.00	30.00	27.00	28.00	29.00	29.00	30.00	35.00	46.00	71.00	100.00	112.00	125.00	136.00	167.00	190.00	210.00	226.00	251.00	258.00	257.00	258.00	257.00	251.00	248.00	242.00	232.00	209.00	205.00	198.00	190.00	182.00	163.00	161.00	162.00	164.00	151.00	144.00	141.00	139.00	137.00	134.00	129.00	126.00	127.00	124.00	121.00	121.00	126.00	132.00	144.00	147.00	148.00	147.00	146.00	144.00	142.00	140.00	137.00	124.00	117.00	107.00	100.00	83.00	80.00	77.00	68.00	57.00	47.00	46.00	45.00	43.00	53.00	57.00	68.00	97.00	142.00	197.00	202.00
132.00	131.00	128.00	119.00	113.00	108.00	105.00	100.00	99.00	101.00	104.00	109.00	119.00	123.00	125.00	127.00	127.00	126.00	121.00	118.00	116.00	110.00	96.00	80.00	71.00	69.00	78.00	90.00	127.00	140.00	154.00	152.00	133.00	107.00	123.00	141.00	156.00	169.00	180.00	198.00	198.00	193.00	179.00	128.00	110.00	121.00	140.00	166.00	172.00	174.00	167.00	159.00	134.00	116.00	104.00	90.00	83.00	77.00	73.00	69.00	59.00	45.00	40.00	42.00	38.00	43.00	43.00	41.00	38.00	39.00	43.00	44.00	39.00	38.00	45.00	50.00	56.00	57.00	57.00	63.00	65.00	70.00	67.00	63.00	61.00	60.00	58.00	56.00	50.00	47.00	37.00	34.00	38.00	39.00	41.00	41.00	41.00	38.00	38.00	39.00	43.00	44.00	50.00	61.00	61.00	51.00	39.00	51.00	51.00	46.00	38.00	37.00	40.00	40.00	42.00	54.00	57.00	57.00	57.00	65.00	75.00	79.00	66.00	43.00	46.00	50.00	52.00	56.00	53.00	52.00	54.00	52.00	57.00	64.00	71.00	86.00	97.00	144.00	155.00	157.00	157.00	155.00	150.00	138.00	144.00	154.00	162.00	162.00	155.00	143.00	131.00	121.00	121.00	124.00	132.00	137.00	139.00	145.00	151.00	153.00	149.00	141.00	131.00	121.00	79.00	67.00	66.00	76.00	89.00	110.00	114.00	112.00	107.00	92.00	79.00	50.00	45.00	41.00	30.00	27.00	28.00	29.00	29.00	30.00	35.00	46.00	71.00	100.00	112.00	125.00	136.00	167.00	190.00	210.00	226.00	251.00	258.00	257.00	258.00	257.00	251.00	248.00	242.00	232.00	209.00	205.00	198.00	190.00	182.00	163.00	161.00	162.00	164.00	151.00	144.00	141.00	139.00	137.00	134.00	129.00	126.00	127.00	124.00	121.00	121.00	126.00	132.00	144.00	147.00	148.00	147.00	146.00	144.00	142.00	140.00	137.00	124.00	117.00	107.00	100.00	83.00	80.00	77.00	68.00	57.00	47.00	46.00	45.00	43.00	53.00	57.00	68.00	97.00	142.00	197.00	202.00
152.00	150.00	148.00	140.00	134.00	128.00	122.00	112.00	110.00	108.00	109.00	112.00	124.00	133.00	141.00	145.00	146.00	143.00	131.00	126.00	122.00	113.00	106.00	92.00	75.00	70.00	75.00	82.00	91.00	95.00	107.00	118.00	123.00	115.00	94.00	108.00	127.00	144.00	160.00	185.00	187.00	184.00	176.00	137.00	111.00	106.00	120.00	143.00	147.00	134.00	115.00	73.00	45.00	50.00	55.00	58.00	56.00	54.00	51.00	46.00	52.00	58.00	62.00	63.00	63.00	66.00	67.00	67.00	66.00	64.00	69.00	67.00	63.00	69.00	64.00	59.00	60.00	62.00	61.00	73.00	76.00	77.00	74.00	63.00	66.00	70.00	69.00	66.00	61.00	59.00	42.00	39.00	41.00	40.00	40.00	39.00	39.00	41.00	49.00	53.00	58.00	45.00	42.00	40.00	36.00	36.00	47.00	59.00	64.00	63.00	63.00	63.00	56.00	52.00	54.00	83.00	104.00	116.00	121.00	136.00	134.00	119.00	90.00	48.00	43.00	50.00	60.00	67.00	71.00	71.00	70.00	71.00	84.00	139.00	146.00	152.00	158.00	170.00	174.00	176.00	173.00	166.00	159.00	156.00	157.00	159.00	156.00	154.00	148.00	139.00	132.00	137.00	144.00	148.00	148.00	148.00	153.00	159.00	161.00	158.00	150.00	140.00	125.00	107.00	72.00	75.00	83.00	95.00	107.00	122.00	125.00	123.00	117.00	94.00	80.00	61.00	68.00	78.00	65.00	49.00	37.00	30.00	28.00	29.00	29.00	29.00	38.00	74.00	97.00	112.00	120.00	133.00	148.00	167.00	190.00	227.00	239.00	247.00	255.00	255.00	237.00	229.00	218.00	206.00	193.00	192.00	190.00	187.00	181.00	162.00	158.00	161.00	164.00	158.00	153.00	152.00	153.00	159.00	156.00	154.00	154.00	158.00	145.00	137.00	137.00	146.00	154.00	159.00	161.00	163.00	161.00	156.00	153.00	150.00	145.00	142.00	141.00	137.00	124.00	118.00	107.00	105.00	97.00	80.00	64.00	64.00	69.00	64.00	57.00	53.00	56.00	68.00	89.00	111.00	158.00	190.00
152.00	150.00	148.00	140.00	134.00	128.00	122.00	112.00	110.00	108.00	109.00	112.00	124.00	133.00	141.00	145.00	146.00	143.00	131.00	126.00	122.00	113.00	106.00	92.00	75.00	70.00	75.00	82.00	91.00	95.00	107.00	118.00	123.00	115.00	94.00	108.00	127.00	144.00	160.00	185.00	187.00	184.00	176.00	137.00	111.00	106.00	120.00	143.00	147.00	134.00	115.00	73.00	45.00	50.00	55.00	58.00	56.00	54.00	51.00	46.00	52.00	58.00	62.00	63.00	63.00	66.00	67.00	67.00	66.00	64.00	69.00	67.00	63.00	69.00	64.00	59.00	60.00	62.00	61.00	73.00	76.00	77.00	74.00	63.00	66.00	70.00	69.00	66.00	61.00	59.00	42.00	39.00	41.00	40.00	40.00	39.00	39.00	41.00	49.00	53.00	58.00	45.00	42.00	40.00	36.00	36.00	47.00	59.00	64.00	63.00	63.00	63.00	56.00	52.00	54.00	83.00	104.00	116.00	121.00	136.00	134.00	119.00	90.00	48.00	43.00	50.00	60.00	67.00	71.00	71.00	70.00	71.00	84.00	139.00	146.00	152.00	158.00	170.00	174.00	176.00	173.00	166.00	159.00	156.00	157.00	159.00	156.00	154.00	148.00	139.00	132.00	137.00	144.00	148.00	148.00	148.00	153.00	159.00	161.00	158.00	150.00	140.00	125.00	107.00	72.00	75.00	83.00	95.00	107.00	122.00	125.00	123.00	117.00	94.00	80.00	61.00	68.00	78.00	65.00	49.00	37.00	30.00	28.00	29.00	29.00	29.00	38.00	74.00	97.00	112.00	120.00	133.00	148.00	167.00	190.00	227.00	239.00	247.00	255.00	255.00	237.00	229.00	218.00	206.00	193.00	192.00	190.00	187.00	181.00	162.00	158.00	161.00	164.00	158.00	153.00	152.00	153.00	159.00	156.00	154.00	154.00	158.00	145.00	137.00	137.00	146.00	154.00	159.00	161.00	163.00	161.00	156.00	153.00	150.00	145.00	142.00	141.00	137.00	124.00	118.00	107.00	105.00	97.00	80.00	64.00	64.00	69.00	64.00	57.00	53.00	56.00	68.00	89.00	111.00	158.00	190.00
157.00	156.00	155.00	155.00	154.00	153.00	152.00	150.00	149.00	147.00	146.00	147.00	153.00	157.00	160.00	162.00	156.00	148.00	132.00	124.00	116.00	100.00	94.00	86.00	74.00	64.00	63.00	65.00	71.00	72.00	69.00	67.00	68.00	71.00	71.00	82.00	102.00	119.00	132.00	155.00	158.00	158.00	154.00	132.00	111.00	92.00	92.00	110.00	111.00	96.00	86.00	64.00	52.00	58.00	60.00	62.00	64.00	68.00	72.00	74.00	75.00	78.00	79.00	79.00	80.00	83.00	86.00	89.00	91.00	95.00	97.00	97.00	95.00	95.00	87.00	84.00	87.00	95.00	98.00	92.00	89.00	91.00	89.00	75.00	75.00	75.00	70.00	63.00	68.00	73.00	75.00	57.00	53.00	59.00	64.00	72.00	71.00	70.00	69.00	66.00	67.00	71.00	67.00	70.00	68.00	61.00	59.00	58.00	57.00	58.00	63.00	68.00	81.00	98.00	119.00	159.00	170.00	174.00	169.00	133.00	110.00	90.00	73.00	41.00	34.00	45.00	65.00	78.00	91.00	92.00	87.00	80.00	80.00	134.00	147.00	152.00	160.00	172.00	178.00	182.00	180.00	176.00	174.00	177.00	173.00	168.00	162.00	157.00	149.00	142.00	142.00	149.00	153.00	155.00	155.00	159.00	158.00	153.00	144.00	133.00	115.00	104.00	92.00	83.00	92.00	98.00	105.00	114.00	123.00	133.00	131.00	124.00	112.00	78.00	70.00	80.00	90.00	97.00	90.00	79.00	72.00	62.00	36.00	32.00	30.00	29.00	29.00	34.00	45.00	65.00	83.00	108.00	117.00	128.00	142.00	180.00	203.00	220.00	243.00	259.00	241.00	223.00	215.00	215.00	217.00	212.00	201.00	191.00	179.00	167.00	171.00	181.00	188.00	173.00	164.00	162.00	169.00	183.00	175.00	170.00	166.00	159.00	147.00	149.00	156.00	162.00	167.00	166.00	166.00	165.00	164.00	160.00	157.00	152.00	147.00	144.00	137.00	134.00	131.00	130.00	115.00	108.00	99.00	83.00	65.00	43.00	36.00	33.00	36.00	57.00	60.00	68.00	83.00	102.00	149.00	176.00
157.00	156.00	155.00	155.00	154.00	153.00	152.00	150.00	149.00	147.00	146.00	147.00	153.00	157.00	160.00	162.00	156.00	148.00	132.00	124.00	116.00	100.00	94.00	86.00	74.00	64.00	63.00	65.00	71.00	72.00	69.00	67.00	68.00	71.00	71.00	82.00	102.00	119.00	132.00	155.00	158.00	158.00	154.00	132.00	111.00	92.00	92.00	110.00	111.00	96.00	86.00	64.00	52.00	58.00	60.00	62.00	64.00	68.00	72.00	74.00	75.00	78.00	79.00	79.00	80.00	83.00	86.00	89.00	91.00	95.00	97.00	97.00	95.00	95.00	87.00	84.00	87.00	95.00	98.00	92.00	89.00	91.00	89.00	75.00	75.00	75.00	70.00	63.00	68.00	73.00	75.00	57.00	53.00	59.00	64.00	72.00	71.00	70.00	69.00	66.00	67.00	71.00	67.00	70.00	68.00	61.00	59.00	58.00	57.00	58.00	63.00	68.00	81.00	98.00	119.00	159.00	170.00	174.00	169.00	133.00	110.00	90.00	73.00	41.00	34.00	45.00	65.00	78.00	91.00	92.00	87.00	80.00	80.00	134.00	147.00	152.00	160.00	172.00	178.00	182.00	180.00	176.00	174.00	177.00	173.00	168.00	162.00	157.00	149.00	142.00	142.00	149.00	153.00	155.00	155.00	159.00	158.00	153.00	144.00	133.00	115.00	104.00	92.00	83.00	92.00	98.00	105.00	114.00	123.00	133.00	131.00	124.00	112.00	78.00	70.00	80.00	90.00	97.00	90.00	79.00	72.00	62.00	36.00	32.00	30.00	29.00	29.00	34.00	45.00	65.00	83.00	108.00	117.00	128.00	142.00	180.00	203.00	220.00	243.00	259.00	241.00	223.00	215.00	215.00	217.00	212.00	201.00	191.00	179.00	167.00	171.00	181.00	188.00	173.00	164.00	162.00	169.00	183.00	175.00	170.00	166.00	159.00	147.00	149.00	156.00	162.00	167.00	166.00	166.00	165.00	164.00	160.00	157.00	152.00	147.00	144.00	137.00	134.00	131.00	130.00	115.00	108.00	99.00	83.00	65.00	43.00	36.00	33.00	36.00	57.00	60.00	68.00	83.00	102.00	149.00	176.00
157.00	156.00	155.00	155.00	154.00	153.00	152.00	150.00	149.00	147.00	146.00	147.00	153.00	157.00	160.00	162.00	156.00	148.00	132.00	124.00	116.00	100.00	94.00	86.00	74.00	64.00	63.00	65.00	71.00	72.00	69.00	67.00	68.00	71.00	71.00	82.00	102.00	119.00	132.00	155.00	158.00	158.00	154.00	132.00	111.00	92.00	92.00	110.00	111.00	96.00	86.00	64.00	52.00	58.00	60.00	62.00	64.00	68.00	72.00	74.00	75.00	78.00	79.00	79.00	80.00	83.00	86.00	89.00	91.00	95.00	97.00	97.00	95.00	95.00	87.00	84.00	87.00	95.00	98.00	92.00	89.00	91.00	89.00	75.00	75.00	75.00	70.00	63.00	68.00	73.00	75.00	57.00	53.00	59.00	64.00	72.00	71.00	70.00	69.00	66.00	67.00	71.00	67.00	70.00	68.00	61.00	59.00	58.00	57.00	58.00	63.00	68.00	81.00	98.00	119.00	159.00	170.00	174.00	169.00	133.00	110.00	90.00	73.00	41.00	34.00	45.00	65.00	78.00	91.00	92.00	87.00	80.00	80.00	134.00	147.00	152.00	160.00	172.00	178.00	182.00	180.00	176.00	174.00	177.00	173.00	168.00	162.00	157.00	149.00	142.00	142.00	149.00	153.00	155.00	155.00	159.00	158.00	153.00	144.00	133.00	115.00	104.00	92.00	83.00	92.00	98.00	105.00	114.00	123.00	133.00	131.00	124.00	112.00	78.00	70.00	80.00	90.00	97.00	90.00	79.00	72.00	62.00	36.00	32.00	30.00	29.00	29.00	34.00	45.00	65.00	83.00	108.00	117.00	128.00	142.00	180.00	203.00	220.00	243.00	259.00	241.00	223.00	215.00	215.00	217.00	212.00	201.00	191.00	179.00	167.00	171.00	181.00	188.00	173.00	164.00	162.00	169.00	183.00	175.00	170.00	166.00	159.00	147.00	149.00	156.00	162.00	167.00	166.00	166.00	165.00	164.00	160.00	157.00	152.00	147.00	144.00	137.00	134.00	131.00	130.00	115.00	108.00	99.00	83.00	65.00	43.00	36.00	33.00	36.00	57.00	60.00	68.00	83.00	102.00	149.00	176.00
155.00	152.00	150.00	148.00	149.00	150.00	153.00	161.00	163.00	163.00	162.00	160.00	159.00	156.00	154.00	152.00	142.00	135.00	118.00	110.00	102.00	89.00	84.00	80.00	74.00	58.00	56.00	55.00	53.00	55.00	58.00	58.00	57.00	58.00	59.00	64.00	72.00	81.00	90.00	108.00	111.00	111.00	106.00	83.00	73.00	66.00	66.00	76.00	78.00	77.00	76.00	75.00	55.00	46.00	56.00	66.00	65.00	65.00	69.00	77.00	87.00	90.00	92.00	94.00	96.00	97.00	97.00	99.00	100.00	115.00	126.00	125.00	121.00	114.00	94.00	95.00	98.00	106.00	116.00	128.00	129.00	129.00	131.00	132.00	127.00	123.00	123.00	125.00	126.00	128.00	129.00	123.00	109.00	99.00	85.00	75.00	77.00	95.00	95.00	88.00	88.00	96.00	96.00	92.00	86.00	87.00	102.00	107.00	115.00	126.00	139.00	144.00	136.00	138.00	142.00	139.00	132.00	123.00	112.00	82.00	73.00	68.00	67.00	60.00	67.00	84.00	100.00	109.00	118.00	115.00	104.00	92.00	79.00	109.00	142.00	157.00	165.00	175.00	178.00	182.00	183.00	183.00	184.00	185.00	177.00	173.00	166.00	162.00	159.00	160.00	164.00	169.00	170.00	170.00	166.00	145.00	128.00	112.00	103.00	97.00	92.00	91.00	90.00	88.00	117.00	127.00	134.00	139.00	141.00	138.00	131.00	118.00	102.00	71.00	70.00	94.00	105.00	110.00	102.00	94.00	86.00	80.00	64.00	53.00	41.00	31.00	29.00	29.00	29.00	30.00	38.00	77.00	91.00	102.00	111.00	132.00	157.00	175.00	196.00	210.00	203.00	195.00	200.00	219.00	258.00	263.00	233.00	209.00	197.00	197.00	199.00	204.00	208.00	193.00	183.00	183.00	192.00	208.00	210.00	203.00	190.00	181.00	182.00	186.00	187.00	188.00	187.00	172.00	166.00	157.00	143.00	135.00	137.00	133.00	125.00	116.00	108.00	106.00	97.00	91.00	83.00	82.00	80.00	75.00	69.00	56.00	48.00	42.00	40.00	47.00	54.00	62.00	73.00	88.00	128.00	150.00
155.00	152.00	150.00	148.00	149.00	150.00	153.00	161.00	163.00	163.00	162.00	160.00	159.00	156.00	154.00	152.00	142.00	135.00	118.00	110.00	102.00	89.00	84.00	80.00	74.00	58.00	56.00	55.00	53.00	55.00	58.00	58.00	57.00	58.00	59.00	64.00	72.00	81.00	90.00	108.00	111.00	111.00	106.00	83.00	73.00	66.00	66.00	76.00	78.00	77.00	76.00	75.00	55.00	46.00	56.00	66.00	65.00	65.00	69.00	77.00	87.00	90.00	92.00	94.00	96.00	97.00	97.00	99.00	100.00	115.00	126.00	125.00	121.00	114.00	94.00	95.00	98.00	106.00	116.00	128.00	129.00	129.00	131.00	132.00	127.00	123.00	123.00	125.00	126.00	128.00	129.00	123.00	109.00	99.00	85.00	75.00	77.00	95.00	95.00	88.00	88.00	96.00	96.00	92.00	86.00	87.00	102.00	107.00	115.00	126.00	139.00	144.00	136.00	138.00	142.00	139.00	132.00	123.00	112.00	82.00	73.00	68.00	67.00	60.00	67.00	84.00	100.00	109.00	118.00	115.00	104.00	92.00	79.00	109.00	142.00	157.00	165.00	175.00	178.00	182.00	183.00	183.00	184.00	185.00	177.00	173.00	166.00	162.00	159.00	160.00	164.00	169.00	170.00	170.00	166.00	145.00	128.00	112.00	103.00	97.00	92.00	91.00	90.00	88.00	117.00	127.00	134.00	139.00	141.00	138.00	131.00	118.00	102.00	71.00	70.00	94.00	105.00	110.00	102.00	94.00	86.00	80.00	64.00	53.00	41.00	31.00	29.00	29.00	29.00	30.00	38.00	77.00	91.00	102.00	111.00	132.00	157.00	175.00	196.00	210.00	203.00	195.00	200.00	219.00	258.00	263.00	233.00	209.00	197.00	197.00	199.00	204.00	208.00	193.00	183.00	183.00	192.00	208.00	210.00	203.00	190.00	181.00	182.00	186.00	187.00	188.00	187.00	172.00	166.00	157.00	143.00	135.00	137.00	133.00	125.00	116.00	108.00	106.00	97.00	91.00	83.00	82.00	80.00	75.00	69.00	56.00	48.00	42.00	40.00	47.00	54.00	62.00	73.00	88.00	128.00	150.00
147.00	144.00	140.00	136.00	136.00	137.00	140.00	150.00	152.00	153.00	153.00	151.00	143.00	136.00	128.00	121.00	108.00	102.00	93.00	89.00	85.00	78.00	72.00	65.00	57.00	52.00	52.00	52.00	53.00	54.00	54.00	54.00	54.00	54.00	52.00	54.00	55.00	54.00	55.00	61.00	63.00	62.00	62.00	62.00	62.00	63.00	63.00	61.00	61.00	70.00	72.00	73.00	62.00	47.00	49.00	74.00	75.00	69.00	68.00	78.00	89.00	93.00	99.00	107.00	112.00	117.00	116.00	115.00	109.00	113.00	138.00	147.00	152.00	145.00	115.00	114.00	117.00	125.00	137.00	162.00	167.00	172.00	179.00	190.00	189.00	188.00	192.00	201.00	193.00	184.00	173.00	145.00	107.00	92.00	84.00	87.00	98.00	117.00	118.00	114.00	111.00	122.00	127.00	122.00	121.00	126.00	138.00	145.00	152.00	159.00	165.00	162.00	145.00	138.00	131.00	118.00	110.00	103.00	96.00	72.00	63.00	54.00	46.00	46.00	71.00	100.00	120.00	132.00	138.00	135.00	130.00	126.00	116.00	90.00	116.00	142.00	155.00	167.00	172.00	176.00	178.00	180.00	176.00	179.00	190.00	184.00	173.00	168.00	167.00	171.00	175.00	178.00	177.00	175.00	160.00	125.00	106.00	99.00	103.00	109.00	121.00	122.00	117.00	113.00	132.00	140.00	144.00	144.00	142.00	138.00	130.00	114.00	96.00	87.00	97.00	112.00	118.00	123.00	120.00	111.00	102.00	97.00	86.00	74.00	60.00	48.00	30.00	29.00	29.00	29.00	29.00	46.00	61.00	71.00	81.00	105.00	134.00	152.00	163.00	161.00	139.00	146.00	167.00	188.00	227.00	237.00	219.00	215.00	218.00	217.00	212.00	217.00	226.00	229.00	232.00	239.00	243.00	243.00	236.00	225.00	214.00	211.00	216.00	217.00	212.00	200.00	183.00	143.00	136.00	128.00	120.00	112.00	109.00	107.00	105.00	103.00	103.00	101.00	93.00	89.00	89.00	89.00	90.00	89.00	87.00	70.00	64.00	63.00	64.00	47.00	45.00	49.00	59.00	73.00	107.00	127.00
