780.00	780.00	780.00	780.00	779.00	779.00	779.00	779.00	779.00	779.00	779.00	779.00	779.00	778.00	778.00	778.00	777.00	776.00	776.00	775.00	775.00	775.00	774.00	774.00	773.00	773.00	772.00	772.00	771.00	771.00	771.00	771.00	771.00	771.00	771.00	771.00	771.00	771.00	771.00	771.00	772.00	772.00	772.00	772.00	772.00	772.00	772.00	772.00	771.00	770.00	770.00	769.00	769.00	766.00	764.00	761.00	761.00	758.00	754.00	754.00	751.00	751.00	747.00	746.00	746.00	745.00	745.00	744.00	744.00	745.00	745.00	745.00	745.00	745.00	747.00	748.00	749.00	749.00	751.00	751.00	752.00	753.00	753.00	753.00	755.00	755.00	756.00	758.00	758.00	760.00	762.00	762.00	763.00	765.00	765.00	766.00	766.00	767.00	767.00	768.00	768.00	767.00	767.00	767.00	767.00	767.00	766.00	766.00	765.00	765.00	764.00	763.00	763.00	762.00	762.00	760.00	759.00	759.00	757.00	755.00	754.00	754.00	753.00	753.00	751.00	750.00	750.00	749.00	749.00	746.00	746.00	745.00	745.00	744.00	743.00	743.00	743.00	743.00	742.00	742.00	742.00	742.00	743.00	743.00	743.00	743.00	743.00	742.00	742.00	742.00	742.00	741.00	740.00	740.00	739.00	739.00	738.00	737.00	737.00	736.00	735.00	734.00	734.00	734.00	734.00	733.00	733.00	733.00	733.00	733.00	733.00	733.00	734.00	734.00	734.00	734.00	734.00	735.00	735.00	735.00	735.00	736.00	736.00	736.00	735.00	735.00	735.00	735.00	735.00	735.00	735.00	734.00	733.00	733.00	733.00	733.00	733.00	733.00	733.00	733.00	733.00	733.00	734.00	734.00	734.00	734.00	734.00	734.00	734.00	733.00	733.00	733.00	733.00	732.00	732.00	732.00	731.00	731.00	730.00	729.00	729.00	728.00	728.00	727.00	727.00	727.00	727.00	727.00	726.00	726.00	726.00	726.00	726.00	726.00	725.00	725.00	724.00	723.00	723.00	723.00	723.00	722.00	721.00	721.00	721.00	720.00	719.00	719.00	719.00	719.00	718.00	718.00	718.00	718.00	718.00	718.00
780.00	780.00	780.00	780.00	779.00	779.00	779.00	779.00	779.00	779.00	779.00	779.00	779.00	778.00	778.00	778.00	777.00	776.00	776.00	775.00	775.00	775.00	774.00	774.00	773.00	773.00	772.00	772.00	771.00	771.00	771.00	771.00	771.00	771.00	771.00	771.00	771.00	771.00	771.00	771.00	772.00	772.00	772.00	772.00	772.00	772.00	772.00	772.00	771.00	770.00	770.00	769.00	769.00	766.00	764.00	761.00	761.00	758.00	754.00	754.00	751.00	751.00	747.00	746.00	746.00	745.00	745.00	744.00	744.00	745.00	745.00	745.00	745.00	745.00	747.00	748.00	749.00	749.00	751.00	751.00	752.00	753.00	753.00	753.00	755.00	755.00	756.00	758.00	758.00	760.00	762.00	762.00	763.00	765.00	765.00	766.00	766.00	767.00	767.00	768.00	768.00	767.00	767.00	767.00	767.00	767.00	766.00	766.00	765.00	765.00	764.00	763.00	763.00	762.00	762.00	760.00	759.00	759.00	757.00	755.00	754.00	754.00	753.00	753.00	751.00	750.00	750.00	749.00	749.00	746.00	746.00	745.00	745.00	744.00	743.00	743.00	743.00	743.00	742.00	742.00	742.00	742.00	743.00	743.00	743.00	743.00	743.00	742.00	742.00	742.00	742.00	741.00	740.00	740.00	739.00	739.00	738.00	737.00	737.00	736.00	735.00	734.00	734.00	734.00	734.00	733.00	733.00	733.00	733.00	733.00	733.00	733.00	734.00	734.00	734.00	734.00	734.00	735.00	735.00	735.00	735.00	736.00	736.00	736.00	735.00	735.00	735.00	735.00	735.00	735.00	735.00	734.00	733.00	733.00	733.00	733.00	733.00	733.00	733.00	733.00	733.00	733.00	734.00	734.00	734.00	734.00	734.00	734.00	734.00	733.00	733.00	733.00	733.00	732.00	732.00	732.00	731.00	731.00	730.00	729.00	729.00	728.00	728.00	727.00	727.00	727.00	727.00	727.00	726.00	726.00	726.00	726.00	726.00	726.00	725.00	725.00	724.00	723.00	723.00	723.00	723.00	722.00	721.00	721.00	721.00	720.00	719.00	719.00	719.00	719.00	718.00	718.00	718.00	718.00	718.00	718.00
780.00	780.00	780.00	780.00	779.00	779.00	779.00	779.00	779.00	779.00	779.00	779.00	779.00	778.00	778.00	778.00	777.00	776.00	776.00	775.00	775.00	775.00	774.00	774.00	773.00	773.00	772.00	772.00	771.00	771.00	771.00	771.00	771.00	771.00	771.00	771.00	771.00	771.00	771.00	771.00	772.00	772.00	772.00	772.00	772.00	772.00	772.00	772.00	771.00	770.00	770.00	769.00	769.00	766.00	764.00	761.00	761.00	758.00	754.00	754.00	751.00	751.00	747.00	746.00	746.00	745.00	745.00	744.00	744.00	745.00	745.00	745.00	745.00	745.00	747.00	748.00	749.00	749.00	751.00	751.00	752.00	753.00	753.00	753.00	755.00	755.00	756.00	758.00	758.00	760.00	762.00	762.00	763.00	765.00	765.00	766.00	766.00	767.00	767.00	768.00	768.00	767.00	767.00	767.00	767.00	767.00	766.00	766.00	765.00	765.00	764.00	763.00	763.00	762.00	762.00	760.00	759.00	759.00	757.00	755.00	754.00	754.00	753.00	753.00	751.00	750.00	750.00	749.00	749.00	746.00	746.00	745.00	745.00	744.00	743.00	743.00	743.00	743.00	742.00	742.00	742.00	742.00	743.00	743.00	743.00	743.00	743.00	742.00	742.00	742.00	742.00	741.00	740.00	740.00	739.00	739.00	738.00	737.00	737.00	736.00	735.00	734.00	734.00	734.00	734.00	733.00	733.00	733.00	733.00	733.00	733.00	733.00	734.00	734.00	734.00	734.00	734.00	735.00	735.00	735.00	735.00	736.00	736.00	736.00	735.00	735.00	735.00	735.00	735.00	735.00	735.00	734.00	733.00	733.00	733.00	733.00	733.00	733.00	733.00	733.00	733.00	733.00	734.00	734.00	734.00	734.00	734.00	734.00	734.00	733.00	733.00	733.00	733.00	732.00	732.00	732.00	731.00	731.00	730.00	729.00	729.00	728.00	728.00	727.00	727.00	727.00	727.00	727.00	726.00	726.00	726.00	726.00	726.00	726.00	725.00	725.00	724.00	723.00	723.00	723.00	723.00	722.00	721.00	721.00	721.00	720.00	719.00	719.00	719.00	719.00	718.00	718.00	718.00	718.00	718.00	718.00
780.00	780.00	780.00	780.00	779.00	779.00	779.00	779.00	779.00	779.00	779.00	779.00	779.00	778.00	778.00	778.00	777.00	776.00	776.00	775.00	775.00	775.00	774.00	774.00	773.00	773.00	772.00	772.00	771.00	771.00	771.00	771.00	771.00	771.00	771.00	771.00	771.00	771.00	771.00	771.00	772.00	772.00	772.00	772.00	772.00	772.00	772.00	772.00	771.00	770.00	770.00	769.00	769.00	766.00	764.00	761.00	761.00	758.00	754.00	754.00	751.00	751.00	747.00	746.00	746.00	745.00	745.00	744.00	744.00	745.00	745.00	745.00	745.00	745.00	747.00	748.00	749.00	749.00	751.00	751.00	752.00	753.00	753.00	753.00	755.00	755.00	756.00	758.00	758.00	760.00	762.00	762.00	763.00	765.00	765.00	766.00	766.00	767.00	767.00	768.00	768.00	767.00	767.00	767.00	767.00	767.00	766.00	766.00	765.00	765.00	764.00	763.00	763.00	762.00	762.00	760.00	759.00	759.00	757.00	755.00	754.00	754.00	753.00	753.00	751.00	750.00	750.00	749.00	749.00	746.00	746.00	745.00	745.00	744.00	743.00	743.00	743.00	743.00	742.00	742.00	742.00	742.00	743.00	743.00	743.00	743.00	743.00	742.00	742.00	742.00	742.00	741.00	740.00	740.00	739.00	739.00	738.00	737.00	737.00	736.00	735.00	734.00	734.00	734.00	734.00	733.00	733.00	733.00	733.00	733.00	733.00	733.00	734.00	734.00	734.00	734.00	734.00	735.00	735.00	735.00	735.00	736.00	736.00	736.00	735.00	735.00	735.00	735.00	735.00	735.00	735.00	734.00	733.00	733.00	733.00	733.00	733.00	733.00	733.00	733.00	733.00	733.00	734.00	734.00	734.00	734.00	734.00	734.00	734.00	733.00	733.00	733.00	733.00	732.00	732.00	732.00	731.00	731.00	730.00	729.00	729.00	728.00	728.00	727.00	727.00	727.00	727.00	727.00	726.00	726.00	726.00	726.00	726.00	726.00	725.00	725.00	724.00	723.00	723.00	723.00	723.00	722.00	721.00	721.00	721.00	720.00	719.00	719.00	719.00	719.00	718.00	718.00	718.00	718.00	718.00	718.00
784.00	786.00	786.00	787.00	787.00	788.00	788.00	788.00	789.00	789.00	789.00	789.00	789.00	789.00	789.00	789.00	788.00	788.00	788.00	788.00	788.00	787.00	787.00	787.00	786.00	786.00	786.00	786.00	786.00	786.00	786.00	786.00	786.00	786.00	786.00	787.00	787.00	788.00	788.00	788.00	788.00	788.00	788.00	788.00	788.00	787.00	787.00	787.00	785.00	783.00	783.00	781.00	781.00	778.00	776.00	773.00	773.00	771.00	767.00	767.00	763.00	763.00	760.00	757.00	757.00	756.00	755.00	754.00	754.00	753.00	753.00	754.00	755.00	755.00	755.00	756.00	757.00	757.00	757.00	757.00	758.00	759.00	759.00	759.00	760.00	760.00	761.00	763.00	763.00	765.00	767.00	767.00	768.00	769.00	769.00	769.00	769.00	770.00	770.00	770.00	770.00	770.00	769.00	769.00	769.00	769.00	768.00	767.00	766.00	766.00	765.00	764.00	764.00	762.00	762.00	761.00	759.00	759.00	757.00	755.00	754.00	754.00	752.00	752.00	751.00	749.00	749.00	748.00	748.00	745.00	745.00	745.00	745.00	744.00	743.00	743.00	743.00	743.00	743.00	743.00	743.00	743.00	744.00	744.00	744.00	744.00	744.00	744.00	744.00	744.00	744.00	744.00	743.00	743.00	742.00	742.00	740.00	739.00	739.00	738.00	738.00	737.00	737.00	736.00	736.00	736.00	736.00	736.00	735.00	736.00	737.00	737.00	737.00	737.00	738.00	738.00	738.00	739.00	739.00	739.00	740.00	740.00	740.00	741.00	742.00	742.00	741.00	741.00	741.00	741.00	741.00	741.00	741.00	742.00	742.00	742.00	742.00	742.00	742.00	742.00	742.00	742.00	743.00	743.00	743.00	743.00	743.00	743.00	743.00	742.00	742.00	742.00	741.00	740.00	739.00	739.00	738.00	738.00	737.00	736.00	736.00	736.00	736.00	735.00	735.00	734.00	734.00	734.00	734.00	734.00	733.00	733.00	733.00	733.00	733.00	733.00	732.00	731.00	731.00	730.00	730.00	729.00	729.00	729.00	728.00	728.00	727.00	727.00	727.00	727.00	726.00	726.00	726.00	725.00	725.00	725.00
784.00	786.00	786.00	787.00	787.00	788.00	788.00	788.00	789.00	789.00	789.00	789.00	789.00	789.00	789.00	789.00	788.00	788.00	788.00	788.00	788.00	787.00	787.00	787.00	786.00	786.00	786.00	786.00	786.00	786.00	786.00	786.00	786.00	786.00	786.00	787.00	787.00	788.00	788.00	788.00	788.00	788.00	788.00	788.00	788.00	787.00	787.00	787.00	785.00	783.00	783.00	781.00	781.00	778.00	776.00	773.00	773.00	771.00	767.00	767.00	763.00	763.00	760.00	757.00	757.00	756.00	755.00	754.00	754.00	753.00	753.00	754.00	755.00	755.00	755.00	756.00	757.00	757.00	757.00	757.00	758.00	759.00	759.00	759.00	760.00	760.00	761.00	763.00	763.00	765.00	767.00	767.00	768.00	769.00	769.00	769.00	769.00	770.00	770.00	770.00	770.00	770.00	769.00	769.00	769.00	769.00	768.00	767.00	766.00	766.00	765.00	764.00	764.00	762.00	762.00	761.00	759.00	759.00	757.00	755.00	754.00	754.00	752.00	752.00	751.00	749.00	749.00	748.00	748.00	745.00	745.00	745.00	745.00	744.00	743.00	743.00	743.00	743.00	743.00	743.00	743.00	743.00	744.00	744.00	744.00	744.00	744.00	744.00	744.00	744.00	744.00	744.00	743.00	743.00	742.00	742.00	740.00	739.00	739.00	738.00	738.00	737.00	737.00	736.00	736.00	736.00	736.00	736.00	735.00	736.00	737.00	737.00	737.00	737.00	738.00	738.00	738.00	739.00	739.00	739.00	740.00	740.00	740.00	741.00	742.00	742.00	741.00	741.00	741.00	741.00	741.00	741.00	741.00	742.00	742.00	742.00	742.00	742.00	742.00	742.00	742.00	742.00	743.00	743.00	743.00	743.00	743.00	743.00	743.00	742.00	742.00	742.00	741.00	740.00	739.00	739.00	738.00	738.00	737.00	736.00	736.00	736.00	736.00	735.00	735.00	734.00	734.00	734.00	734.00	734.00	733.00	733.00	733.00	733.00	733.00	733.00	732.00	731.00	731.00	730.00	730.00	729.00	729.00	729.00	728.00	728.00	727.00	727.00	727.00	727.00	726.00	726.00	726.00	725.00	725.00	725.00
784.00	786.00	786.00	787.00	787.00	788.00	788.00	788.00	789.00	789.00	789.00	789.00	789.00	789.00	789.00	789.00	788.00	788.00	788.00	788.00	788.00	787.00	787.00	787.00	786.00	786.00	786.00	786.00	786.00	786.00	786.00	786.00	786.00	786.00	786.00	787.00	787.00	788.00	788.00	788.00	788.00	788.00	788.00	788.00	788.00	787.00	787.00	787.00	785.00	783.00	783.00	781.00	781.00	778.00	776.00	773.00	773.00	771.00	767.00	767.00	763.00	763.00	760.00	757.00	757.00	756.00	755.00	754.00	754.00	753.00	753.00	754.00	755.00	755.00	755.00	756.00	757.00	757.00	757.00	757.00	758.00	759.00	759.00	759.00	760.00	760.00	761.00	763.00	763.00	765.00	767.00	767.00	768.00	769.00	769.00	769.00	769.00	770.00	770.00	770.00	770.00	770.00	769.00	769.00	769.00	769.00	768.00	767.00	766.00	766.00	765.00	764.00	764.00	762.00	762.00	761.00	759.00	759.00	757.00	755.00	754.00	754.00	752.00	752.00	751.00	749.00	749.00	748.00	748.00	745.00	745.00	745.00	745.00	744.00	743.00	743.00	743.00	743.00	743.00	743.00	743.00	743.00	744.00	744.00	744.00	744.00	744.00	744.00	744.00	744.00	744.00	744.00	743.00	743.00	742.00	742.00	740.00	739.00	739.00	738.00	738.00	737.00	737.00	736.00	736.00	736.00	736.00	736.00	735.00	736.00	737.00	737.00	737.00	737.00	738.00	738.00	738.00	739.00	739.00	739.00	740.00	740.00	740.00	741.00	742.00	742.00	741.00	741.00	741.00	741.00	741.00	741.00	741.00	742.00	742.00	742.00	742.00	742.00	742.00	742.00	742.00	742.00	743.00	743.00	743.00	743.00	743.00	743.00	743.00	742.00	742.00	742.00	741.00	740.00	739.00	739.00	738.00	738.00	737.00	736.00	736.00	736.00	736.00	735.00	735.00	734.00	734.00	734.00	734.00	734.00	733.00	733.00	733.00	733.00	733.00	733.00	732.00	731.00	731.00	730.00	730.00	729.00	729.00	729.00	728.00	728.00	727.00	727.00	727.00	727.00	726.00	726.00	726.00	725.00	725.00	725.00
784.00	786.00	786.00	787.00	787.00	788.00	788.00	788.00	789.00	789.00	789.00	789.00	789.00	789.00	789.00	789.00	788.00	788.00	788.00	788.00	788.00	787.00	787.00	787.00	786.00	786.00	786.00	786.00	786.00	786.00	786.00	786.00	786.00	786.00	786.00	787.00	787.00	788.00	788.00	788.00	788.00	788.00	788.00	788.00	788.00	787.00	787.00	787.00	785.00	783.00	783.00	781.00	781.00	778.00	776.00	773.00	773.00	771.00	767.00	767.00	763.00	763.00	760.00	757.00	757.00	756.00	755.00	754.00	754.00	753.00	753.00	754.00	755.00	755.00	755.00	756.00	757.00	757.00	757.00	757.00	758.00	759.00	759.00	759.00	760.00	760.00	761.00	763.00	763.00	765.00	767.00	767.00	768.00	769.00	769.00	769.00	769.00	770.00	770.00	770.00	770.00	770.00	769.00	769.00	769.00	769.00	768.00	767.00	766.00	766.00	765.00	764.00	764.00	762.00	762.00	761.00	759.00	759.00	757.00	755.00	754.00	754.00	752.00	752.00	751.00	749.00	749.00	748.00	748.00	745.00	745.00	745.00	745.00	744.00	743.00	743.00	743.00	743.00	743.00	743.00	743.00	743.00	744.00	744.00	744.00	744.00	744.00	744.00	744.00	744.00	744.00	744.00	743.00	743.00	742.00	742.00	740.00	739.00	739.00	738.00	738.00	737.00	737.00	736.00	736.00	736.00	736.00	736.00	735.00	736.00	737.00	737.00	737.00	737.00	738.00	738.00	738.00	739.00	739.00	739.00	740.00	740.00	740.00	741.00	742.00	742.00	741.00	741.00	741.00	741.00	741.00	741.00	741.00	742.00	742.00	742.00	742.00	742.00	742.00	742.00	742.00	742.00	743.00	743.00	743.00	743.00	743.00	743.00	743.00	742.00	742.00	742.00	741.00	740.00	739.00	739.00	738.00	738.00	737.00	736.00	736.00	736.00	736.00	735.00	735.00	734.00	734.00	734.00	734.00	734.00	733.00	733.00	733.00	733.00	733.00	733.00	732.00	731.00	731.00	730.00	730.00	729.00	729.00	729.00	728.00	728.00	727.00	727.00	727.00	727.00	726.00	726.00	726.00	725.00	725.00	725.00
784.00	786.00	786.00	787.00	787.00	788.00	788.00	788.00	789.00	789.00	789.00	789.00	789.00	789.00	789.00	789.00	788.00	788.00	788.00	788.00	788.00	787.00	787.00	787.00	786.00	786.00	786.00	786.00	786.00	786.00	786.00	786.00	786.00	786.00	786.00	787.00	787.00	788.00	788.00	788.00	788.00	788.00	788.00	788.00	788.00	787.00	787.00	787.00	785.00	783.00	783.00	781.00	781.00	778.00	776.00	773.00	773.00	771.00	767.00	767.00	763.00	763.00	760.00	757.00	757.00	756.00	755.00	754.00	754.00	753.00	753.00	754.00	755.00	755.00	755.00	756.00	757.00	757.00	757.00	757.00	758.00	759.00	759.00	759.00	760.00	760.00	761.00	763.00	763.00	765.00	767.00	767.00	768.00	769.00	769.00	769.00	769.00	770.00	770.00	770.00	770.00	770.00	769.00	769.00	769.00	769.00	768.00	767.00	766.00	766.00	765.00	764.00	764.00	762.00	762.00	761.00	759.00	759.00	757.00	755.00	754.00	754.00	752.00	752.00	751.00	749.00	749.00	748.00	748.00	745.00	745.00	745.00	745.00	744.00	743.00	743.00	743.00	743.00	743.00	743.00	743.00	743.00	744.00	744.00	744.00	744.00	744.00	744.00	744.00	744.00	744.00	744.00	743.00	743.00	742.00	742.00	740.00	739.00	739.00	738.00	738.00	737.00	737.00	736.00	736.00	736.00	736.00	736.00	735.00	736.00	737.00	737.00	737.00	737.00	738.00	738.00	738.00	739.00	739.00	739.00	740.00	740.00	740.00	741.00	742.00	742.00	741.00	741.00	741.00	741.00	741.00	741.00	741.00	742.00	742.00	742.00	742.00	742.00	742.00	742.00	742.00	742.00	743.00	743.00	743.00	743.00	743.00	743.00	743.00	742.00	742.00	742.00	741.00	740.00	739.00	739.00	738.00	738.00	737.00	736.00	736.00	736.00	736.00	735.00	735.00	734.00	734.00	734.00	734.00	734.00	733.00	733.00	733.00	733.00	733.00	733.00	732.00	731.00	731.00	730.00	730.00	729.00	729.00	729.00	728.00	728.00	727.00	727.00	727.00	727.00	726.00	726.00	726.00	725.00	725.00	725.00
794.00	795.00	795.00	796.00	798.00	799.00	799.00	801.00	802.00	802.00	803.00	803.00	803.00	803.00	802.00	802.00	802.00	802.00	802.00	802.00	802.00	802.00	802.00	802.00	802.00	802.00	802.00	802.00	802.00	802.00	802.00	801.00	801.00	802.00	802.00	802.00	802.00	802.00	802.00	802.00	803.00	803.00	803.00	803.00	804.00	802.00	800.00	800.00	798.00	796.00	796.00	792.00	792.00	789.00	786.00	783.00	783.00	780.00	777.00	777.00	775.00	775.00	773.00	770.00	770.00	768.00	767.00	766.00	766.00	766.00	766.00	765.00	765.00	765.00	765.00	765.00	766.00	766.00	766.00	766.00	767.00	767.00	767.00	768.00	769.00	769.00	769.00	770.00	770.00	771.00	772.00	772.00	773.00	773.00	773.00	773.00	773.00	774.00	774.00	773.00	773.00	773.00	772.00	772.00	771.00	771.00	770.00	768.00	767.00	767.00	765.00	764.00	764.00	762.00	762.00	761.00	759.00	759.00	757.00	755.00	754.00	754.00	752.00	752.00	750.00	749.00	749.00	747.00	747.00	746.00	746.00	745.00	745.00	745.00	744.00	744.00	744.00	744.00	744.00	744.00	744.00	744.00	744.00	745.00	745.00	745.00	745.00	746.00	746.00	746.00	746.00	745.00	745.00	745.00	744.00	744.00	743.00	742.00	742.00	742.00	741.00	740.00	740.00	740.00	740.00	740.00	740.00	740.00	740.00	740.00	741.00	741.00	742.00	742.00	742.00	743.00	743.00	743.00	744.00	744.00	744.00	745.00	745.00	745.00	746.00	746.00	746.00	747.00	747.00	747.00	747.00	748.00	748.00	748.00	748.00	749.00	749.00	749.00	749.00	749.00	749.00	749.00	749.00	749.00	749.00	749.00	749.00	749.00	749.00	749.00	747.00	747.00	746.00	745.00	744.00	744.00	743.00	743.00	741.00	740.00	740.00	740.00	740.00	740.00	740.00	739.00	739.00	739.00	739.00	739.00	739.00	739.00	739.00	739.00	739.00	739.00	739.00	738.00	738.00	737.00	737.00	737.00	736.00	736.00	736.00	735.00	735.00	735.00	734.00	734.00	734.00	733.00	733.00	732.00	732.00	731.00
794.00	795.00	795.00	796.00	798.00	799.00	799.00	801.00	802.00	802.00	803.00	803.00	803.00	803.00	802.00	802.00	802.00	802.00	802.00	802.00	802.00	802.00	802.00	802.00	802.00	802.00	802.00	802.00	802.00	802.00	802.00	801.00	801.00	802.00	802.00	802.00	802.00	802.00	802.00	802.00	803.00	803.00	803.00	803.00	804.00	802.00	800.00	800.00	798.00	796.00	796.00	792.00	792.00	789.00	786.00	783.00	783.00	780.00	777.00	777.00	775.00	775.00	773.00	770.00	770.00	768.00	767.00	766.00	766.00	766.00	766.00	765.00	765.00	765.00	765.00	765.00	766.00	766.00	766.00	766.00	767.00	767.00	767.00	768.00	769.00	769.00	769.00	770.00	770.00	771.00	772.00	772.00	773.00	773.00	773.00	773.00	773.00	774.00	774.00	773.00	773.00	773.00	772.00	772.00	771.00	771.00	770.00	768.00	767.00	767.00	765.00	764.00	764.00	762.00	762.00	761.00	759.00	759.00	757.00	755.00	754.00	754.00	752.00	752.00	750.00	749.00	749.00	747.00	747.00	746.00	746.00	745.00	745.00	745.00	744.00	744.00	744.00	744.00	744.00	744.00	744.00	744.00	744.00	745.00	745.00	745.00	745.00	746.00	746.00	746.00	746.00	745.00	745.00	745.00	744.00	744.00	743.00	742.00	742.00	742.00	741.00	740.00	740.00	740.00	740.00	740.00	740.00	740.00	740.00	740.00	741.00	741.00	742.00	742.00	742.00	743.00	743.00	743.00	744.00	744.00	744.00	745.00	745.00	745.00	746.00	746.00	746.00	747.00	747.00	747.00	747.00	748.00	748.00	748.00	748.00	749.00	749.00	749.00	749.00	749.00	749.00	749.00	749.00	749.00	749.00	749.00	749.00	749.00	749.00	749.00	747.00	747.00	746.00	745.00	744.00	744.00	743.00	743.00	741.00	740.00	740.00	740.00	740.00	740.00	740.00	739.00	739.00	739.00	739.00	739.00	739.00	739.00	739.00	739.00	739.00	739.00	739.00	738.00	738.00	737.00	737.00	737.00	736.00	736.00	736.00	735.00	735.00	735.00	734.00	734.00	734.00	733.00	733.00	732.00	732.00	731.00
794.00	795.00	795.00	796.00	798.00	799.00	799.00	801.00	802.00	802.00	803.00	803.00	803.00	803.00	802.00	802.00	802.00	802.00	802.00	802.00	802.00	802.00	802.00	802.00	802.00	802.00	802.00	802.00	802.00	802.00	802.00	801.00	801.00	802.00	802.00	802.00	802.00	802.00	802.00	802.00	803.00	803.00	803.00	803.00	804.00	802.00	800.00	800.00	798.00	796.00	796.00	792.00	792.00	789.00	786.00	783.00	783.00	780.00	777.00	777.00	775.00	775.00	773.00	770.00	770.00	768.00	767.00	766.00	766.00	766.00	766.00	765.00	765.00	765.00	765.00	765.00	766.00	766.00	766.00	766.00	767.00	767.00	767.00	768.00	769.00	769.00	769.00	770.00	770.00	771.00	772.00	772.00	773.00	773.00	773.00	773.00	773.00	774.00	774.00	773.00	773.00	773.00	772.00	772.00	771.00	771.00	770.00	768.00	767.00	767.00	765.00	764.00	764.00	762.00	762.00	761.00	759.00	759.00	757.00	755.00	754.00	754.00	752.00	752.00	750.00	749.00	749.00	747.00	747.00	746.00	746.00	745.00	745.00	745.00	744.00	744.00	744.00	744.00	744.00	744.00	744.00	744.00	744.00	745.00	745.00	745.00	745.00	746.00	746.00	746.00	746.00	745.00	745.00	745.00	744.00	744.00	743.00	742.00	742.00	742.00	741.00	740.00	740.00	740.00	740.00	740.00	740.00	740.00	740.00	740.00	741.00	741.00	742.00	742.00	742.00	743.00	743.00	743.00	744.00	744.00	744.00	745.00	745.00	745.00	746.00	746.00	746.00	747.00	747.00	747.00	747.00	748.00	748.00	748.00	748.00	749.00	749.00	749.00	749.00	749.00	749.00	749.00	749.00	749.00	749.00	749.00	749.00	749.00	749.00	749.00	747.00	747.00	746.00	745.00	744.00	744.00	743.00	743.00	741.00	740.00	740.00	740.00	740.00	740.00	740.00	739.00	739.00	739.00	739.00	739.00	739.00	739.00	739.00	739.00	739.00	739.00	739.00	738.00	738.00	737.00	737.00	737.00	736.00	736.00	736.00	735.00	735.00	735.00	734.00	734.00	734.00	733.00	733.00	732.00	732.00	731.00
794.00	795.00	795.00	796.00	798.00	799.00	799.00	801.00	802.00	802.00	803.00	803.00	803.00	803.00	802.00	802.00	802.00	802.00	802.00	802.00	802.00	802.00	802.00	802.00	802.00	802.00	802.00	802.00	802.00	802.00	802.00	801.00	801.00	802.00	802.00	802.00	802.00	802.00	802.00	802.00	803.00	803.00	803.00	803.00	804.00	802.00	800.00	800.00	798.00	796.00	796.00	792.00	792.00	789.00	786.00	783.00	783.00	780.00	777.00	777.00	775.00	775.00	773.00	770.00	770.00	768.00	767.00	766.00	766.00	766.00	766.00	765.00	765.00	765.00	765.00	765.00	766.00	766.00	766.00	766.00	767.00	767.00	767.00	768.00	769.00	769.00	769.00	770.00	770.00	771.00	772.00	772.00	773.00	773.00	773.00	773.00	773.00	774.00	774.00	773.00	773.00	773.00	772.00	772.00	771.00	771.00	770.00	768.00	767.00	767.00	765.00	764.00	764.00	762.00	762.00	761.00	759.00	759.00	757.00	755.00	754.00	754.00	752.00	752.00	750.00	749.00	749.00	747.00	747.00	746.00	746.00	745.00	745.00	745.00	744.00	744.00	744.00	744.00	744.00	744.00	744.00	744.00	744.00	745.00	745.00	745.00	745.00	746.00	746.00	746.00	746.00	745.00	745.00	745.00	744.00	744.00	743.00	742.00	742.00	742.00	741.00	740.00	740.00	740.00	740.00	740.00	740.00	740.00	740.00	740.00	741.00	741.00	742.00	742.00	742.00	743.00	743.00	743.00	744.00	744.00	744.00	745.00	745.00	745.00	746.00	746.00	746.00	747.00	747.00	747.00	747.00	748.00	748.00	748.00	748.00	749.00	749.00	749.00	749.00	749.00	749.00	749.00	749.00	749.00	749.00	749.00	749.00	749.00	749.00	749.00	747.00	747.00	746.00	745.00	744.00	744.00	743.00	743.00	741.00	740.00	740.00	740.00	740.00	740.00	740.00	739.00	739.00	739.00	739.00	739.00	739.00	739.00	739.00	739.00	739.00	739.00	739.00	738.00	738.00	737.00	737.00	737.00	736.00	736.00	736.00	735.00	735.00	735.00	734.00	734.00	734.00	733.00	733.00	732.00	732.00	731.00
809.00	811.00	811.00	813.00	814.00	815.00	815.00	816.00	816.00	816.00	817.00	817.00	817.00	817.00	817.00	817.00	817.00	817.00	817.00	817.00	817.00	817.00	817.00	817.00	817.00	817.00	816.00	816.00	816.00	816.00	816.00	816.00	816.00	815.00	815.00	815.00	815.00	815.00	815.00	815.00	815.00	815.00	815.00	815.00	815.00	815.00	813.00	813.00	810.00	807.00	807.00	805.00	805.00	801.00	798.00	795.00	795.00	793.00	791.00	791.00	789.00	789.00	787.00	785.00	785.00	783.00	782.00	780.00	780.00	780.00	780.00	779.00	778.00	778.00	778.00	778.00	777.00	777.00	777.00	777.00	778.00	778.00	778.00	778.00	779.00	779.00	779.00	780.00	780.00	780.00	780.00	780.00	780.00	780.00	780.00	779.00	779.00	779.00	779.00	779.00	779.00	778.00	776.00	776.00	775.00	775.00	774.00	772.00	770.00	770.00	768.00	767.00	767.00	765.00	765.00	763.00	761.00	761.00	760.00	758.00	756.00	756.00	754.00	754.00	753.00	751.00	751.00	750.00	750.00	748.00	748.00	748.00	748.00	747.00	747.00	747.00	747.00	747.00	748.00	748.00	748.00	748.00	748.00	748.00	748.00	748.00	748.00	748.00	748.00	748.00	747.00	746.00	746.00	746.00	745.00	745.00	745.00	744.00	744.00	744.00	744.00	745.00	745.00	745.00	745.00	745.00	745.00	745.00	746.00	746.00	746.00	746.00	747.00	747.00	748.00	748.00	748.00	748.00	749.00	749.00	750.00	750.00	750.00	751.00	751.00	751.00	751.00	752.00	752.00	752.00	752.00	753.00	753.00	753.00	753.00	753.00	754.00	754.00	754.00	754.00	755.00	754.00	754.00	754.00	754.00	753.00	753.00	753.00	753.00	752.00	751.00	751.00	750.00	749.00	748.00	748.00	747.00	747.00	746.00	745.00	745.00	744.00	744.00	743.00	743.00	743.00	743.00	743.00	743.00	743.00	743.00	743.00	743.00	743.00	743.00	743.00	743.00	743.00	743.00	743.00	743.00	742.00	742.00	742.00	742.00	741.00	740.00	740.00	740.00	740.00	739.00	738.00	738.00	737.00	737.00	735.00
809.00	811.00	811.00	813.00	814.00	815.00	815.00	816.00	816.00	816.00	817.00	817.00	817.00	817.00	817.00	817.00	817.00	817.00	817.00	817.00	817.00	817.00	817.00	817.00	817.00	817.00	816.00	816.00	816.00	816.00	816.00	816.00	816.00	815.00	815.00	815.00	815.00	815.00	815.00	815.00	815.00	815.00	815.00	815.00	815.00	815.00	813.00	813.00	810.00	807.00	807.00	805.00	805.00	801.00	798.00	795.00	795.00	793.00	791.00	791.00	789.00	789.00	787.00	785.00	785.00	783.00	782.00	780.00	780.00	780.00	780.00	779.00	778.00	778.00	778.00	778.00	777.00	777.00	777.00	777.00	778.00	778.00	778.00	778.00	779.00	779.00	779.00	780.00	780.00	780.00	780.00	780.00	780.00	780.00	780.00	779.00	779.00	779.00	779.00	779.00	779.00	778.00	776.00	776.00	775.00	775.00	774.00	772.00	770.00	770.00	768.00	767.00	767.00	765.00	765.00	763.00	761.00	761.00	760.00	758.00	756.00	756.00	754.00	754.00	753.00	751.00	751.00	750.00	750.00	748.00	748.00	748.00	748.00	747.00	747.00	747.00	747.00	747.00	748.00	748.00	748.00	748.00	748.00	748.00	748.00	748.00	748.00	748.00	748.00	748.00	747.00	746.00	746.00	746.00	745.00	745.00	745.00	744.00	744.00	744.00	744.00	745.00	745.00	745.00	745.00	745.00	745.00	745.00	746.00	746.00	746.00	746.00	747.00	747.00	748.00	748.00	748.00	748.00	749.00	749.00	750.00	750.00	750.00	751.00	751.00	751.00	751.00	752.00	752.00	752.00	752.00	753.00	753.00	753.00	753.00	753.00	754.00	754.00	754.00	754.00	755.00	754.00	754.00	754.00	754.00	753.00	753.00	753.00	753.00	752.00	751.00	751.00	750.00	749.00	748.00	748.00	747.00	747.00	746.00	745.00	745.00	744.00	744.00	743.00	743.00	743.00	743.00	743.00	743.00	743.00	743.00	743.00	743.00	743.00	743.00	743.00	743.00	743.00	743.00	743.00	743.00	742.00	742.00	742.00	742.00	741.00	740.00	740.00	740.00	740.00	739.00	738.00	738.00	737.00	737.00	735.00
809.00	811.00	811.00	813.00	814.00	815.00	815.00	816.00	816.00	816.00	817.00	817.00	817.00	817.00	817.00	817.00	817.00	817.00	817.00	817.00	817.00	817.00	817.00	817.00	817.00	817.00	816.00	816.00	816.00	816.00	816.00	816.00	816.00	815.00	815.00	815.00	815.00	815.00	815.00	815.00	815.00	815.00	815.00	815.00	815.00	815.00	813.00	813.00	810.00	807.00	807.00	805.00	805.00	801.00	798.00	795.00	795.00	793.00	791.00	791.00	789.00	789.00	787.00	785.00	785.00	783.00	782.00	780.00	780.00	780.00	780.00	779.00	778.00	778.00	778.00	778.00	777.00	777.00	777.00	777.00	778.00	778.00	778.00	778.00	779.00	779.00	779.00	780.00	780.00	780.00	780.00	780.00	780.00	780.00	780.00	779.00	779.00	779.00	779.00	779.00	779.00	778.00	776.00	776.00	775.00	775.00	774.00	772.00	770.00	770.00	768.00	767.00	767.00	765.00	765.00	763.00	761.00	761.00	760.00	758.00	756.00	756.00	754.00	754.00	753.00	751.00	751.00	750.00	750.00	748.00	748.00	748.00	748.00	747.00	747.00	747.00	747.00	747.00	748.00	748.00	748.00	748.00	748.00	748.00	748.00	748.00	748.00	748.00	748.00	748.00	747.00	746.00	746.00	746.00	745.00	745.00	745.00	744.00	744.00	744.00	744.00	745.00	745.00	745.00	745.00	745.00	745.00	745.00	746.00	746.00	746.00	746.00	747.00	747.00	748.00	748.00	748.00	748.00	749.00	749.00	750.00	750.00	750.00	751.00	751.00	751.00	751.00	752.00	752.00	752.00	752.00	753.00	753.00	753.00	753.00	753.00	754.00	754.00	754.00	754.00	755.00	754.00	754.00	754.00	754.00	753.00	753.00	753.00	753.00	752.00	751.00	751.00	750.00	749.00	748.00	748.00	747.00	747.00	746.00	745.00	745.00	744.00	744.00	743.00	743.00	743.00	743.00	743.00	743.00	743.00	743.00	743.00	743.00	743.00	743.00	743.00	743.00	743.00	743.00	743.00	743.00	742.00	742.00	742.00	742.00	741.00	740.00	740.00	740.00	740.00	739.00	738.00	738.00	737.00	737.00	735.00
809.00	811.00	811.00	813.00	814.00	815.00	815.00	816.00	816.00	816.00	817.00	817.00	817.00	817.00	817.00	817.00	817.00	817.00	817.00	817.00	817.00	817.00	817.00	817.00	817.00	817.00	816.00	816.00	816.00	816.00	816.00	816.00	816.00	815.00	815.00	815.00	815.00	815.00	815.00	815.00	815.00	815.00	815.00	815.00	815.00	815.00	813.00	813.00	810.00	807.00	807.00	805.00	805.00	801.00	798.00	795.00	795.00	793.00	791.00	791.00	789.00	789.00	787.00	785.00	785.00	783.00	782.00	780.00	780.00	780.00	780.00	779.00	778.00	778.00	778.00	778.00	777.00	777.00	777.00	777.00	778.00	778.00	778.00	778.00	779.00	779.00	779.00	780.00	780.00	780.00	780.00	780.00	780.00	780.00	780.00	779.00	779.00	779.00	779.00	779.00	779.00	778.00	776.00	776.00	775.00	775.00	774.00	772.00	770.00	770.00	768.00	767.00	767.00	765.00	765.00	763.00	761.00	761.00	760.00	758.00	756.00	756.00	754.00	754.00	753.00	751.00	751.00	750.00	750.00	748.00	748.00	748.00	748.00	747.00	747.00	747.00	747.00	747.00	748.00	748.00	748.00	748.00	748.00	748.00	748.00	748.00	748.00	748.00	748.00	748.00	747.00	746.00	746.00	746.00	745.00	745.00	745.00	744.00	744.00	744.00	744.00	745.00	745.00	745.00	745.00	745.00	745.00	745.00	746.00	746.00	746.00	746.00	747.00	747.00	748.00	748.00	748.00	748.00	749.00	749.00	750.00	750.00	750.00	751.00	751.00	751.00	751.00	752.00	752.00	752.00	752.00	753.00	753.00	753.00	753.00	753.00	754.00	754.00	754.00	754.00	755.00	754.00	754.00	754.00	754.00	753.00	753.00	753.00	753.00	752.00	751.00	751.00	750.00	749.00	748.00	748.00	747.00	747.00	746.00	745.00	745.00	744.00	744.00	743.00	743.00	743.00	743.00	743.00	743.00	743.00	743.00	743.00	743.00	743.00	743.00	743.00	743.00	743.00	743.00	743.00	743.00	742.00	742.00	742.00	742.00	741.00	740.00	740.00	740.00	740.00	739.00	738.00	738.00	737.00	737.00	735.00
809.00	811.00	811.00	813.00	814.00	815.00	815.00	816.00	816.00	816.00	817.00	817.00	817.00	817.00	817.00	817.00	817.00	817.00	817.00	817.00	817.00	817.00	817.00	817.00	817.00	817.00	816.00	816.00	816.00	816.00	816.00	816.00	816.00	815.00	815.00	815.00	815.00	815.00	815.00	815.00	815.00	815.00	815.00	815.00	815.00	815.00	813.00	813.00	810.00	807.00	807.00	805.00	805.00	801.00	798.00	795.00	795.00	793.00	791.00	791.00	789.00	789.00	787.00	785.00	785.00	783.00	782.00	780.00	780.00	780.00	780.00	779.00	778.00	778.00	778.00	778.00	777.00	777.00	777.00	777.00	778.00	778.00	778.00	778.00	779.00	779.00	779.00	780.00	780.00	780.00	780.00	780.00	780.00	780.00	780.00	779.00	779.00	779.00	779.00	779.00	779.00	778.00	776.00	776.00	775.00	775.00	774.00	772.00	770.00	770.00	768.00	767.00	767.00	765.00	765.00	763.00	761.00	761.00	760.00	758.00	756.00	756.00	754.00	754.00	753.00	751.00	751.00	750.00	750.00	748.00	748.00	748.00	748.00	747.00	747.00	747.00	747.00	747.00	748.00	748.00	748.00	748.00	748.00	748.00	748.00	748.00	748.00	748.00	748.00	748.00	747.00	746.00	746.00	746.00	745.00	745.00	745.00	744.00	744.00	744.00	744.00	745.00	745.00	745.00	745.00	745.00	745.00	745.00	746.00	746.00	746.00	746.00	747.00	747.00	748.00	748.00	748.00	748.00	749.00	749.00	750.00	750.00	750.00	751.00	751.00	751.00	751.00	752.00	752.00	752.00	752.00	753.00	753.00	753.00	753.00	753.00	754.00	754.00	754.00	754.00	755.00	754.00	754.00	754.00	754.00	753.00	753.00	753.00	753.00	752.00	751.00	751.00	750.00	749.00	748.00	748.00	747.00	747.00	746.00	745.00	745.00	744.00	744.00	743.00	743.00	743.00	743.00	743.00	743.00	743.00	743.00	743.00	743.00	743.00	743.00	743.00	743.00	743.00	743.00	743.00	743.00	742.00	742.00	742.00	742.00	741.00	740.00	740.00	740.00	740.00	739.00	738.00	738.00	737.00	737.00	735.00
824.00	826.00	826.00	828.00	829.00	830.00	830.00	831.00	831.00	831.00	831.00	831.00	831.00	832.00	833.00	833.00	833.00	834.00	834.00	834.00	834.00	833.00	832.00	832.00	831.00	831.00	830.00	830.00	829.00	829.00	829.00	829.00	829.00	829.00	829.00	828.00	828.00	827.00	827.00	827.00	827.00	827.00	827.00	827.00	826.00	825.00	824.00	824.00	821.00	819.00	819.00	817.00	817.00	814.00	812.00	810.00	810.00	808.00	806.00	806.00	805.00	805.00	803.00	802.00	802.00	800.00	799.00	797.00	797.00	796.00	796.00	795.00	794.00	794.00	793.00	792.00	792.00	792.00	792.00	792.00	792.00	792.00	792.00	792.00	792.00	792.00	792.00	791.00	791.00	790.00	789.00	789.00	789.00	789.00	789.00	788.00	788.00	788.00	787.00	786.00	786.00	785.00	784.00	784.00	782.00	782.00	781.00	780.00	778.00	778.00	776.00	774.00	774.00	772.00	772.00	770.00	768.00	768.00	765.00	764.00	762.00	762.00	760.00	760.00	758.00	757.00	757.00	756.00	756.00	754.00	754.00	753.00	753.00	753.00	754.00	754.00	754.00	754.00	755.00	756.00	756.00	756.00	756.00	755.00	755.00	754.00	754.00	753.00	753.00	753.00	752.00	751.00	751.00	751.00	751.00	751.00	751.00	750.00	750.00	750.00	750.00	750.00	750.00	751.00	751.00	752.00	752.00	752.00	752.00	753.00	754.00	754.00	754.00	754.00	755.00	756.00	756.00	756.00	757.00	757.00	757.00	758.00	758.00	758.00	758.00	758.00	758.00	759.00	759.00	759.00	759.00	759.00	759.00	759.00	759.00	759.00	759.00	759.00	760.00	760.00	760.00	760.00	760.00	760.00	760.00	760.00	760.00	759.00	759.00	758.00	757.00	757.00	756.00	755.00	754.00	754.00	754.00	754.00	753.00	752.00	752.00	751.00	751.00	749.00	749.00	749.00	749.00	749.00	748.00	748.00	748.00	748.00	748.00	748.00	748.00	748.00	748.00	748.00	748.00	748.00	748.00	748.00	747.00	747.00	746.00	746.00	745.00	745.00	745.00	745.00	744.00	743.00	743.00	742.00	742.00	741.00
824.00	826.00	826.00	828.00	829.00	830.00	830.00	831.00	831.00	831.00	831.00	831.00	831.00	832.00	833.00	833.00	833.00	834.00	834.00	834.00	834.00	833.00	832.00	832.00	831.00	831.00	830.00	830.00	829.00	829.00	829.00	829.00	829.00	829.00	829.00	828.00	828.00	827.00	827.00	827.00	827.00	827.00	827.00	827.00	826.00	825.00	824.00	824.00	821.00	819.00	819.00	817.00	817.00	814.00	812.00	810.00	810.00	808.00	806.00	806.00	805.00	805.00	803.00	802.00	802.00	800.00	799.00	797.00	797.00	796.00	796.00	795.00	794.00	794.00	793.00	792.00	792.00	792.00	792.00	792.00	792.00	792.00	792.00	792.00	792.00	792.00	792.00	791.00	791.00	790.00	789.00	789.00	789.00	789.00	789.00	788.00	788.00	788.00	787.00	786.00	786.00	785.00	784.00	784.00	782.00	782.00	781.00	780.00	778.00	778.00	776.00	774.00	774.00	772.00	772.00	770.00	768.00	768.00	765.00	764.00	762.00	762.00	760.00	760.00	758.00	757.00	757.00	756.00	756.00	754.00	754.00	753.00	753.00	753.00	754.00	754.00	754.00	754.00	755.00	756.00	756.00	756.00	756.00	755.00	755.00	754.00	754.00	753.00	753.00	753.00	752.00	751.00	751.00	751.00	751.00	751.00	751.00	750.00	750.00	750.00	750.00	750.00	750.00	751.00	751.00	752.00	752.00	752.00	752.00	753.00	754.00	754.00	754.00	754.00	755.00	756.00	756.00	756.00	757.00	757.00	757.00	758.00	758.00	758.00	758.00	758.00	758.00	759.00	759.00	759.00	759.00	759.00	759.00	759.00	759.00	759.00	759.00	759.00	760.00	760.00	760.00	760.00	760.00	760.00	760.00	760.00	760.00	759.00	759.00	758.00	757.00	757.00	756.00	755.00	754.00	754.00	754.00	754.00	753.00	752.00	752.00	751.00	751.00	749.00	749.00	749.00	749.00	749.00	748.00	748.00	748.00	748.00	748.00	748.00	748.00	748.00	748.00	748.00	748.00	748.00	748.00	748.00	747.00	747.00	746.00	746.00	745.00	745.00	745.00	745.00	744.00	743.00	743.00	742.00	742.00	741.00
824.00	826.00	826.00	828.00	829.00	830.00	830.00	831.00	831.00	831.00	831.00	831.00	831.00	832.00	833.00	833.00	833.00	834.00	834.00	834.00	834.00	833.00	832.00	832.00	831.00	831.00	830.00	830.00	829.00	829.00	829.00	829.00	829.00	829.00	829.00	828.00	828.00	827.00	827.00	827.00	827.00	827.00	827.00	827.00	826.00	825.00	824.00	824.00	821.00	819.00	819.00	817.00	817.00	814.00	812.00	810.00	810.00	808.00	806.00	806.00	805.00	805.00	803.00	802.00	802.00	800.00	799.00	797.00	797.00	796.00	796.00	795.00	794.00	794.00	793.00	792.00	792.00	792.00	792.00	792.00	792.00	792.00	792.00	792.00	792.00	792.00	792.00	791.00	791.00	790.00	789.00	789.00	789.00	789.00	789.00	788.00	788.00	788.00	787.00	786.00	786.00	785.00	784.00	784.00	782.00	782.00	781.00	780.00	778.00	778.00	776.00	774.00	774.00	772.00	772.00	770.00	768.00	768.00	765.00	764.00	762.00	762.00	760.00	760.00	758.00	757.00	757.00	756.00	756.00	754.00	754.00	753.00	753.00	753.00	754.00	754.00	754.00	754.00	755.00	756.00	756.00	756.00	756.00	755.00	755.00	754.00	754.00	753.00	753.00	753.00	752.00	751.00	751.00	751.00	751.00	751.00	751.00	750.00	750.00	750.00	750.00	750.00	750.00	751.00	751.00	752.00	752.00	752.00	752.00	753.00	754.00	754.00	754.00	754.00	755.00	756.00	756.00	756.00	757.00	757.00	757.00	758.00	758.00	758.00	758.00	758.00	758.00	759.00	759.00	759.00	759.00	759.00	759.00	759.00	759.00	759.00	759.00	759.00	760.00	760.00	760.00	760.00	760.00	760.00	760.00	760.00	760.00	759.00	759.00	758.00	757.00	757.00	756.00	755.00	754.00	754.00	754.00	754.00	753.00	752.00	752.00	751.00	751.00	749.00	749.00	749.00	749.00	749.00	748.00	748.00	748.00	748.00	748.00	748.00	748.00	748.00	748.00	748.00	748.00	748.00	748.00	748.00	747.00	747.00	746.00	746.00	745.00	745.00	745.00	745.00	744.00	743.00	743.00	742.00	742.00	741.00
824.00	826.00	826.00	828.00	829.00	830.00	830.00	831.00	831.00	831.00	831.00	831.00	831.00	832.00	833.00	833.00	833.00	834.00	834.00	834.00	834.00	833.00	832.00	832.00	831.00	831.00	830.00	830.00	829.00	829.00	829.00	829.00	829.00	829.00	829.00	828.00	828.00	827.00	827.00	827.00	827.00	827.00	827.00	827.00	826.00	825.00	824.00	824.00	821.00	819.00	819.00	817.00	817.00	814.00	812.00	810.00	810.00	808.00	806.00	806.00	805.00	805.00	803.00	802.00	802.00	800.00	799.00	797.00	797.00	796.00	796.00	795.00	794.00	794.00	793.00	792.00	792.00	792.00	792.00	792.00	792.00	792.00	792.00	792.00	792.00	792.00	792.00	791.00	791.00	790.00	789.00	789.00	789.00	789.00	789.00	788.00	788.00	788.00	787.00	786.00	786.00	785.00	784.00	784.00	782.00	782.00	781.00	780.00	778.00	778.00	776.00	774.00	774.00	772.00	772.00	770.00	768.00	768.00	765.00	764.00	762.00	762.00	760.00	760.00	758.00	757.00	757.00	756.00	756.00	754.00	754.00	753.00	753.00	753.00	754.00	754.00	754.00	754.00	755.00	756.00	756.00	756.00	756.00	755.00	755.00	754.00	754.00	753.00	753.00	753.00	752.00	751.00	751.00	751.00	751.00	751.00	751.00	750.00	750.00	750.00	750.00	750.00	750.00	751.00	751.00	752.00	752.00	752.00	752.00	753.00	754.00	754.00	754.00	754.00	755.00	756.00	756.00	756.00	757.00	757.00	757.00	758.00	758.00	758.00	758.00	758.00	758.00	759.00	759.00	759.00	759.00	759.00	759.00	759.00	759.00	759.00	759.00	759.00	760.00	760.00	760.00	760.00	760.00	760.00	760.00	760.00	760.00	759.00	759.00	758.00	757.00	757.00	756.00	755.00	754.00	754.00	754.00	754.00	753.00	752.00	752.00	751.00	751.00	749.00	749.00	749.00	749.00	749.00	748.00	748.00	748.00	748.00	748.00	748.00	748.00	748.00	748.00	748.00	748.00	748.00	748.00	748.00	747.00	747.00	746.00	746.00	745.00	745.00	745.00	745.00	744.00	743.00	743.00	742.00	742.00	741.00
824.00	826.00	826.00	828.00	829.00	830.00	830.00	831.00	831.00	831.00	831.00	831.00	831.00	832.00	833.00	833.00	833.00	834.00	834.00	834.00	834.00	833.00	832.00	832.00	831.00	831.00	830.00	830.00	829.00	829.00	829.00	829.00	829.00	829.00	829.00	828.00	828.00	827.00	827.00	827.00	827.00	827.00	827.00	827.00	826.00	825.00	824.00	824.00	821.00	819.00	819.00	817.00	817.00	814.00	812.00	810.00	810.00	808.00	806.00	806.00	805.00	805.00	803.00	802.00	802.00	800.00	799.00	797.00	797.00	796.00	796.00	795.00	794.00	794.00	793.00	792.00	792.00	792.00	792.00	792.00	792.00	792.00	792.00	792.00	792.00	792.00	792.00	791.00	791.00	790.00	789.00	789.00	789.00	789.00	789.00	788.00	788.00	788.00	787.00	786.00	786.00	785.00	784.00	784.00	782.00	782.00	781.00	780.00	778.00	778.00	776.00	774.00	774.00	772.00	772.00	770.00	768.00	768.00	765.00	764.00	762.00	762.00	760.00	760.00	758.00	757.00	757.00	756.00	756.00	754.00	754.00	753.00	753.00	753.00	754.00	754.00	754.00	754.00	755.00	756.00	756.00	756.00	756.00	755.00	755.00	754.00	754.00	753.00	753.00	753.00	752.00	751.00	751.00	751.00	751.00	751.00	751.00	750.00	750.00	750.00	750.00	750.00	750.00	751.00	751.00	752.00	752.00	752.00	752.00	753.00	754.00	754.00	754.00	754.00	755.00	756.00	756.00	756.00	757.00	757.00	757.00	758.00	758.00	758.00	758.00	758.00	758.00	759.00	759.00	759.00	759.00	759.00	759.00	759.00	759.00	759.00	759.00	759.00	760.00	760.00	760.00	760.00	760.00	760.00	760.00	760.00	760.00	759.00	759.00	758.00	757.00	757.00	756.00	755.00	754.00	754.00	754.00	754.00	753.00	752.00	752.00	751.00	751.00	749.00	749.00	749.00	749.00	749.00	748.00	748.00	748.00	748.00	748.00	748.00	748.00	748.00	748.00	748.00	748.00	748.00	748.00	748.00	747.00	747.00	746.00	746.00	745.00	745.00	745.00	745.00	744.00	743.00	743.00	742.00	742.00	741.00
840.00	842.00	842.00	843.00	845.00	845.00	845.00	845.00	844.00	844.00	844.00	844.00	845.00	845.00	846.00	846.00	846.00	845.00	845.00	844.00	844.00	843.00	842.00	842.00	841.00	840.00	840.00	840.00	839.00	839.00	839.00	839.00	839.00	839.00	839.00	838.00	838.00	837.00	837.00	837.00	836.00	836.00	836.00	836.00	835.00	834.00	832.00	832.00	831.00	829.00	829.00	828.00	828.00	826.00	824.00	823.00	823.00	822.00	821.00	821.00	820.00	820.00	819.00	818.00	818.00	817.00	816.00	814.00	814.00	813.00	813.00	812.00	811.00	811.00	810.00	810.00	809.00	809.00	809.00	809.00	808.00	807.00	807.00	806.00	806.00	806.00	805.00	804.00	804.00	804.00	803.00	803.00	802.00	802.00	802.00	801.00	801.00	800.00	798.00	797.00	797.00	796.00	795.00	795.00	793.00	793.00	792.00	791.00	789.00	789.00	787.00	785.00	785.00	782.00	782.00	779.00	777.00	777.00	775.00	773.00	772.00	772.00	770.00	770.00	769.00	768.00	768.00	767.00	767.00	766.00	766.00	765.00	765.00	765.00	766.00	766.00	766.00	766.00	767.00	767.00	766.00	766.00	766.00	765.00	765.00	764.00	764.00	763.00	762.00	762.00	761.00	760.00	759.00	759.00	759.00	759.00	758.00	758.00	758.00	757.00	758.00	759.00	759.00	760.00	760.00	761.00	762.00	762.00	763.00	764.00	764.00	764.00	765.00	765.00	766.00	766.00	766.00	767.00	767.00	767.00	767.00	768.00	768.00	768.00	768.00	768.00	768.00	768.00	768.00	768.00	768.00	768.00	767.00	767.00	767.00	768.00	768.00	768.00	768.00	768.00	768.00	768.00	768.00	768.00	768.00	768.00	768.00	768.00	768.00	767.00	767.00	767.00	766.00	765.00	764.00	764.00	763.00	763.00	762.00	761.00	761.00	760.00	760.00	758.00	758.00	757.00	757.00	757.00	756.00	756.00	756.00	756.00	755.00	755.00	754.00	754.00	754.00	753.00	753.00	753.00	753.00	752.00	751.00	751.00	751.00	751.00	751.00	751.00	751.00	751.00	751.00	750.00	750.00	750.00	750.00	748.00
840.00	842.00	842.00	843.00	845.00	845.00	845.00	845.00	844.00	844.00	844.00	844.00	845.00	845.00	846.00	846.00	846.00	845.00	845.00	844.00	844.00	843.00	842.00	842.00	841.00	840.00	840.00	840.00	839.00	839.00	839.00	839.00	839.00	839.00	839.00	838.00	838.00	837.00	837.00	837.00	836.00	836.00	836.00	836.00	835.00	834.00	832.00	832.00	831.00	829.00	829.00	828.00	828.00	826.00	824.00	823.00	823.00	822.00	821.00	821.00	820.00	820.00	819.00	818.00	818.00	817.00	816.00	814.00	814.00	813.00	813.00	812.00	811.00	811.00	810.00	810.00	809.00	809.00	809.00	809.00	808.00	807.00	807.00	806.00	806.00	806.00	805.00	804.00	804.00	804.00	803.00	803.00	802.00	802.00	802.00	801.00	801.00	800.00	798.00	797.00	797.00	796.00	795.00	795.00	793.00	793.00	792.00	791.00	789.00	789.00	787.00	785.00	785.00	782.00	782.00	779.00	777.00	777.00	775.00	773.00	772.00	772.00	770.00	770.00	769.00	768.00	768.00	767.00	767.00	766.00	766.00	765.00	765.00	765.00	766.00	766.00	766.00	766.00	767.00	767.00	766.00	766.00	766.00	765.00	765.00	764.00	764.00	763.00	762.00	762.00	761.00	760.00	759.00	759.00	759.00	759.00	758.00	758.00	758.00	757.00	758.00	759.00	759.00	760.00	760.00	761.00	762.00	762.00	763.00	764.00	764.00	764.00	765.00	765.00	766.00	766.00	766.00	767.00	767.00	767.00	767.00	768.00	768.00	768.00	768.00	768.00	768.00	768.00	768.00	768.00	768.00	768.00	767.00	767.00	767.00	768.00	768.00	768.00	768.00	768.00	768.00	768.00	768.00	768.00	768.00	768.00	768.00	768.00	768.00	767.00	767.00	767.00	766.00	765.00	764.00	764.00	763.00	763.00	762.00	761.00	761.00	760.00	760.00	758.00	758.00	757.00	757.00	757.00	756.00	756.00	756.00	756.00	755.00	755.00	754.00	754.00	754.00	753.00	753.00	753.00	753.00	752.00	751.00	751.00	751.00	751.00	751.00	751.00	751.00	751.00	751.00	750.00	750.00	750.00	750.00	748.00
840.00	842.00	842.00	843.00	845.00	845.00	845.00	845.00	844.00	844.00	844.00	844.00	845.00	845.00	846.00	846.00	846.00	845.00	845.00	844.00	844.00	843.00	842.00	842.00	841.00	840.00	840.00	840.00	839.00	839.00	839.00	839.00	839.00	839.00	839.00	838.00	838.00	837.00	837.00	837.00	836.00	836.00	836.00	836.00	835.00	834.00	832.00	832.00	831.00	829.00	829.00	828.00	828.00	826.00	824.00	823.00	823.00	822.00	821.00	821.00	820.00	820.00	819.00	818.00	818.00	817.00	816.00	814.00	814.00	813.00	813.00	812.00	811.00	811.00	810.00	810.00	809.00	809.00	809.00	809.00	808.00	807.00	807.00	806.00	806.00	806.00	805.00	804.00	804.00	804.00	803.00	803.00	802.00	802.00	802.00	801.00	801.00	800.00	798.00	797.00	797.00	796.00	795.00	795.00	793.00	793.00	792.00	791.00	789.00	789.00	787.00	785.00	785.00	782.00	782.00	779.00	777.00	777.00	775.00	773.00	772.00	772.00	770.00	770.00	769.00	768.00	768.00	767.00	767.00	766.00	766.00	765.00	765.00	765.00	766.00	766.00	766.00	766.00	767.00	767.00	766.00	766.00	766.00	765.00	765.00	764.00	764.00	763.00	762.00	762.00	761.00	760.00	759.00	759.00	759.00	759.00	758.00	758.00	758.00	757.00	758.00	759.00	759.00	760.00	760.00	761.00	762.00	762.00	763.00	764.00	764.00	764.00	765.00	765.00	766.00	766.00	766.00	767.00	767.00	767.00	767.00	768.00	768.00	768.00	768.00	768.00	768.00	768.00	768.00	768.00	768.00	768.00	767.00	767.00	767.00	768.00	768.00	768.00	768.00	768.00	768.00	768.00	768.00	768.00	768.00	768.00	768.00	768.00	768.00	767.00	767.00	767.00	766.00	765.00	764.00	764.00	763.00	763.00	762.00	761.00	761.00	760.00	760.00	758.00	758.00	757.00	757.00	757.00	756.00	756.00	756.00	756.00	755.00	755.00	754.00	754.00	754.00	753.00	753.00	753.00	753.00	752.00	751.00	751.00	751.00	751.00	751.00	751.00	751.00	751.00	751.00	750.00	750.00	750.00	750.00	748.00
840.00	842.00	842.00	843.00	845.00	845.00	845.00	845.00	844.00	844.00	844.00	844.00	845.00	845.00	846.00	846.00	846.00	845.00	845.00	844.00	844.00	843.00	842.00	842.00	841.00	840.00	840.00	840.00	839.00	839.00	839.00	839.00	839.00	839.00	839.00	838.00	838.00	837.00	837.00	837.00	836.00	836.00	836.00	836.00	835.00	834.00	832.00	832.00	831.00	829.00	829.00	828.00	828.00	826.00	824.00	823.00	823.00	822.00	821.00	821.00	820.00	820.00	819.00	818.00	818.00	817.00	816.00	814.00	814.00	813.00	813.00	812.00	811.00	811.00	810.00	810.00	809.00	809.00	809.00	809.00	808.00	807.00	807.00	806.00	806.00	806.00	805.00	804.00	804.00	804.00	803.00	803.00	802.00	802.00	802.00	801.00	801.00	800.00	798.00	797.00	797.00	796.00	795.00	795.00	793.00	793.00	792.00	791.00	789.00	789.00	787.00	785.00	785.00	782.00	782.00	779.00	777.00	777.00	775.00	773.00	772.00	772.00	770.00	770.00	769.00	768.00	768.00	767.00	767.00	766.00	766.00	765.00	765.00	765.00	766.00	766.00	766.00	766.00	767.00	767.00	766.00	766.00	766.00	765.00	765.00	764.00	764.00	763.00	762.00	762.00	761.00	760.00	759.00	759.00	759.00	759.00	758.00	758.00	758.00	757.00	758.00	759.00	759.00	760.00	760.00	761.00	762.00	762.00	763.00	764.00	764.00	764.00	765.00	765.00	766.00	766.00	766.00	767.00	767.00	767.00	767.00	768.00	768.00	768.00	768.00	768.00	768.00	768.00	768.00	768.00	768.00	768.00	767.00	767.00	767.00	768.00	768.00	768.00	768.00	768.00	768.00	768.00	768.00	768.00	768.00	768.00	768.00	768.00	768.00	767.00	767.00	767.00	766.00	765.00	764.00	764.00	763.00	763.00	762.00	761.00	761.00	760.00	760.00	758.00	758.00	757.00	757.00	757.00	756.00	756.00	756.00	756.00	755.00	755.00	754.00	754.00	754.00	753.00	753.00	753.00	753.00	752.00	751.00	751.00	751.00	751.00	751.00	751.00	751.00	751.00	751.00	750.00	750.00	750.00	750.00	748.00
857.00	858.00	858.00	859.00	859.00	859.00	859.00	859.00	858.00	858.00	858.00	858.00	857.00	857.00	856.00	856.00	855.00	854.00	854.00	853.00	853.00	851.00	850.00	850.00	849.00	848.00	847.00	847.00	847.00	847.00	846.00	846.00	846.00	846.00	846.00	845.00	845.00	845.00	845.00	844.00	844.00	844.00	843.00	843.00	842.00	842.00	841.00	841.00	839.00	838.00	838.00	837.00	837.00	836.00	835.00	834.00	834.00	834.00	833.00	833.00	833.00	833.00	833.00	832.00	832.00	831.00	831.00	829.00	829.00	828.00	828.00	826.00	825.00	825.00	824.00	824.00	823.00	823.00	823.00	823.00	822.00	821.00	821.00	820.00	819.00	819.00	818.00	817.00	817.00	816.00	816.00	816.00	815.00	814.00	814.00	814.00	814.00	812.00	811.00	810.00	810.00	809.00	808.00	808.00	806.00	806.00	805.00	803.00	801.00	801.00	799.00	797.00	797.00	795.00	795.00	793.00	791.00	791.00	789.00	787.00	785.00	785.00	784.00	784.00	784.00	783.00	783.00	782.00	782.00	781.00	781.00	780.00	780.00	779.00	779.00	779.00	780.00	780.00	780.00	780.00	780.00	780.00	779.00	778.00	778.00	777.00	777.00	776.00	775.00	775.00	773.00	772.00	771.00	771.00	770.00	770.00	769.00	769.00	769.00	769.00	770.00	770.00	770.00	771.00	771.00	772.00	773.00	773.00	775.00	776.00	777.00	777.00	778.00	778.00	778.00	779.00	779.00	779.00	780.00	780.00	780.00	779.00	779.00	779.00	779.00	779.00	779.00	779.00	779.00	779.00	779.00	779.00	778.00	778.00	778.00	778.00	779.00	779.00	779.00	779.00	779.00	779.00	779.00	779.00	779.00	778.00	778.00	778.00	778.00	778.00	778.00	778.00	778.00	777.00	777.00	777.00	776.00	776.00	775.00	774.00	774.00	773.00	773.00	770.00	770.00	769.00	769.00	769.00	767.00	767.00	766.00	766.00	765.00	763.00	763.00	763.00	762.00	761.00	761.00	760.00	760.00	759.00	759.00	759.00	758.00	759.00	759.00	759.00	758.00	758.00	758.00	758.00	758.00	757.00	757.00	756.00
857.00	858.00	858.00	859.00	859.00	859.00	859.00	859.00	858.00	858.00	858.00	858.00	857.00	857.00	856.00	856.00	855.00	854.00	854.00	853.00	853.00	851.00	850.00	850.00	849.00	848.00	847.00	847.00	847.00	847.00	846.00	846.00	846.00	846.00	846.00	845.00	845.00	845.00	845.00	844.00	844.00	844.00	843.00	843.00	842.00	842.00	841.00	841.00	839.00	838.00	838.00	837.00	837.00	836.00	835.00	834.00	834.00	834.00	833.00	833.00	833.00	833.00	833.00	832.00	832.00	831.00	831.00	829.00	829.00	828.00	828.00	826.00	825.00	825.00	824.00	824.00	823.00	823.00	823.00	823.00	822.00	821.00	821.00	820.00	819.00	819.00	818.00	817.00	817.00	816.00	816.00	816.00	815.00	814.00	814.00	814.00	814.00	812.00	811.00	810.00	810.00	809.00	808.00	808.00	806.00	806.00	805.00	803.00	801.00	801.00	799.00	797.00	797.00	795.00	795.00	793.00	791.00	791.00	789.00	787.00	785.00	785.00	784.00	784.00	784.00	783.00	783.00	782.00	782.00	781.00	781.00	780.00	780.00	779.00	779.00	779.00	780.00	780.00	780.00	780.00	780.00	780.00	779.00	778.00	778.00	777.00	777.00	776.00	775.00	775.00	773.00	772.00	771.00	771.00	770.00	770.00	769.00	769.00	769.00	769.00	770.00	770.00	770.00	771.00	771.00	772.00	773.00	773.00	775.00	776.00	777.00	777.00	778.00	778.00	778.00	779.00	779.00	779.00	780.00	780.00	780.00	779.00	779.00	779.00	779.00	779.00	779.00	779.00	779.00	779.00	779.00	779.00	778.00	778.00	778.00	778.00	779.00	779.00	779.00	779.00	779.00	779.00	779.00	779.00	779.00	778.00	778.00	778.00	778.00	778.00	778.00	778.00	778.00	777.00	777.00	777.00	776.00	776.00	775.00	774.00	774.00	773.00	773.00	770.00	770.00	769.00	769.00	769.00	767.00	767.00	766.00	766.00	765.00	763.00	763.00	763.00	762.00	761.00	761.00	760.00	760.00	759.00	759.00	759.00	758.00	759.00	759.00	759.00	758.00	758.00	758.00	758.00	758.00	757.00	757.00	756.00
857.00	858.00	858.00	859.00	859.00	859.00	859.00	859.00	858.00	858.00	858.00	858.00	857.00	857.00	856.00	856.00	855.00	854.00	854.00	853.00	853.00	851.00	850.00	850.00	849.00	848.00	847.00	847.00	847.00	847.00	846.00	846.00	846.00	846.00	846.00	845.00	845.00	845.00	845.00	844.00	844.00	844.00	843.00	843.00	842.00	842.00	841.00	841.00	839.00	838.00	838.00	837.00	837.00	836.00	835.00	834.00	834.00	834.00	833.00	833.00	833.00	833.00	833.00	832.00	832.00	831.00	831.00	829.00	829.00	828.00	828.00	826.00	825.00	825.00	824.00	824.00	823.00	823.00	823.00	823.00	822.00	821.00	821.00	820.00	819.00	819.00	818.00	817.00	817.00	816.00	816.00	816.00	815.00	814.00	814.00	814.00	814.00	812.00	811.00	810.00	810.00	809.00	808.00	808.00	806.00	806.00	805.00	803.00	801.00	801.00	799.00	797.00	797.00	795.00	795.00	793.00	791.00	791.00	789.00	787.00	785.00	785.00	784.00	784.00	784.00	783.00	783.00	782.00	782.00	781.00	781.00	780.00	780.00	779.00	779.00	779.00	780.00	780.00	780.00	780.00	780.00	780.00	779.00	778.00	778.00	777.00	777.00	776.00	775.00	775.00	773.00	772.00	771.00	771.00	770.00	770.00	769.00	769.00	769.00	769.00	770.00	770.00	770.00	771.00	771.00	772.00	773.00	773.00	775.00	776.00	777.00	777.00	778.00	778.00	778.00	779.00	779.00	779.00	780.00	780.00	780.00	779.00	779.00	779.00	779.00	779.00	779.00	779.00	779.00	779.00	779.00	779.00	778.00	778.00	778.00	778.00	779.00	779.00	779.00	779.00	779.00	779.00	779.00	779.00	779.00	778.00	778.00	778.00	778.00	778.00	778.00	778.00	778.00	777.00	777.00	777.00	776.00	776.00	775.00	774.00	774.00	773.00	773.00	770.00	770.00	769.00	769.00	769.00	767.00	767.00	766.00	766.00	765.00	763.00	763.00	763.00	762.00	761.00	761.00	760.00	760.00	759.00	759.00	759.00	758.00	759.00	759.00	759.00	758.00	758.00	758.00	758.00	758.00	757.00	757.00	756.00
857.00	858.00	858.00	859.00	859.00	859.00	859.00	859.00	858.00	858.00	858.00	858.00	857.00	857.00	856.00	856.00	855.00	854.00	854.00	853.00	853.00	851.00	850.00	850.00	849.00	848.00	847.00	847.00	847.00	847.00	846.00	846.00	846.00	846.00	846.00	845.00	845.00	845.00	845.00	844.00	844.00	844.00	843.00	843.00	842.00	842.00	841.00	841.00	839.00	838.00	838.00	837.00	837.00	836.00	835.00	834.00	834.00	834.00	833.00	833.00	833.00	833.00	833.00	832.00	832.00	831.00	831.00	829.00	829.00	828.00	828.00	826.00	825.00	825.00	824.00	824.00	823.00	823.00	823.00	823.00	822.00	821.00	821.00	820.00	819.00	819.00	818.00	817.00	817.00	816.00	816.00	816.00	815.00	814.00	814.00	814.00	814.00	812.00	811.00	810.00	810.00	809.00	808.00	808.00	806.00	806.00	805.00	803.00	801.00	801.00	799.00	797.00	797.00	795.00	795.00	793.00	791.00	791.00	789.00	787.00	785.00	785.00	784.00	784.00	784.00	783.00	783.00	782.00	782.00	781.00	781.00	780.00	780.00	779.00	779.00	779.00	780.00	780.00	780.00	780.00	780.00	780.00	779.00	778.00	778.00	777.00	777.00	776.00	775.00	775.00	773.00	772.00	771.00	771.00	770.00	770.00	769.00	769.00	769.00	769.00	770.00	770.00	770.00	771.00	771.00	772.00	773.00	773.00	775.00	776.00	777.00	777.00	778.00	778.00	778.00	779.00	779.00	779.00	780.00	780.00	780.00	779.00	779.00	779.00	779.00	779.00	779.00	779.00	779.00	779.00	779.00	779.00	778.00	778.00	778.00	778.00	779.00	779.00	779.00	779.00	779.00	779.00	779.00	779.00	779.00	778.00	778.00	778.00	778.00	778.00	778.00	778.00	778.00	777.00	777.00	777.00	776.00	776.00	775.00	774.00	774.00	773.00	773.00	770.00	770.00	769.00	769.00	769.00	767.00	767.00	766.00	766.00	765.00	763.00	763.00	763.00	762.00	761.00	761.00	760.00	760.00	759.00	759.00	759.00	758.00	759.00	759.00	759.00	758.00	758.00	758.00	758.00	758.00	757.00	757.00	756.00
872.00	872.00	872.00	873.00	872.00	872.00	872.00	872.00	872.00	872.00	870.00	870.00	869.00	868.00	866.00	866.00	865.00	863.00	863.00	862.00	862.00	861.00	860.00	860.00	859.00	858.00	857.00	857.00	856.00	856.00	855.00	855.00	855.00	854.00	854.00	853.00	853.00	853.00	853.00	852.00	852.00	852.00	851.00	851.00	850.00	849.00	848.00	848.00	847.00	846.00	846.00	845.00	845.00	844.00	843.00	842.00	842.00	842.00	841.00	841.00	841.00	841.00	841.00	842.00	842.00	841.00	840.00	839.00	839.00	839.00	839.00	838.00	837.00	837.00	836.00	835.00	835.00	835.00	834.00	834.00	834.00	833.00	833.00	832.00	830.00	830.00	829.00	829.00	829.00	828.00	827.00	827.00	826.00	826.00	826.00	825.00	825.00	825.00	824.00	823.00	823.00	822.00	821.00	821.00	820.00	820.00	819.00	818.00	816.00	816.00	814.00	812.00	812.00	810.00	810.00	808.00	807.00	807.00	805.00	804.00	803.00	803.00	802.00	802.00	801.00	801.00	801.00	800.00	800.00	800.00	800.00	799.00	799.00	799.00	799.00	799.00	798.00	798.00	798.00	797.00	797.00	797.00	795.00	794.00	794.00	793.00	793.00	791.00	790.00	790.00	788.00	787.00	786.00	786.00	785.00	785.00	784.00	783.00	783.00	784.00	784.00	784.00	784.00	785.00	785.00	786.00	787.00	787.00	788.00	789.00	790.00	790.00	791.00	791.00	792.00	792.00	792.00	793.00	793.00	793.00	793.00	793.00	793.00	792.00	792.00	792.00	791.00	791.00	791.00	791.00	791.00	790.00	790.00	790.00	790.00	790.00	790.00	790.00	790.00	790.00	790.00	790.00	790.00	790.00	790.00	790.00	790.00	789.00	789.00	789.00	789.00	789.00	788.00	788.00	787.00	787.00	786.00	786.00	786.00	785.00	785.00	784.00	784.00	783.00	783.00	783.00	783.00	782.00	781.00	781.00	781.00	781.00	779.00	778.00	777.00	777.00	775.00	774.00	774.00	772.00	772.00	771.00	772.00	772.00	771.00	771.00	771.00	771.00	769.00	769.00	768.00	768.00	768.00	768.00	768.00	768.00
872.00	872.00	872.00	873.00	872.00	872.00	872.00	872.00	872.00	872.00	870.00	870.00	869.00	868.00	866.00	866.00	865.00	863.00	863.00	862.00	862.00	861.00	860.00	860.00	859.00	858.00	857.00	857.00	856.00	856.00	855.00	855.00	855.00	854.00	854.00	853.00	853.00	853.00	853.00	852.00	852.00	852.00	851.00	851.00	850.00	849.00	848.00	848.00	847.00	846.00	846.00	845.00	845.00	844.00	843.00	842.00	842.00	842.00	841.00	841.00	841.00	841.00	841.00	842.00	842.00	841.00	840.00	839.00	839.00	839.00	839.00	838.00	837.00	837.00	836.00	835.00	835.00	835.00	834.00	834.00	834.00	833.00	833.00	832.00	830.00	830.00	829.00	829.00	829.00	828.00	827.00	827.00	826.00	826.00	826.00	825.00	825.00	825.00	824.00	823.00	823.00	822.00	821.00	821.00	820.00	820.00	819.00	818.00	816.00	816.00	814.00	812.00	812.00	810.00	810.00	808.00	807.00	807.00	805.00	804.00	803.00	803.00	802.00	802.00	801.00	801.00	801.00	800.00	800.00	800.00	800.00	799.00	799.00	799.00	799.00	799.00	798.00	798.00	798.00	797.00	797.00	797.00	795.00	794.00	794.00	793.00	793.00	791.00	790.00	790.00	788.00	787.00	786.00	786.00	785.00	785.00	784.00	783.00	783.00	784.00	784.00	784.00	784.00	785.00	785.00	786.00	787.00	787.00	788.00	789.00	790.00	790.00	791.00	791.00	792.00	792.00	792.00	793.00	793.00	793.00	793.00	793.00	793.00	792.00	792.00	792.00	791.00	791.00	791.00	791.00	791.00	790.00	790.00	790.00	790.00	790.00	790.00	790.00	790.00	790.00	790.00	790.00	790.00	790.00	790.00	790.00	790.00	789.00	789.00	789.00	789.00	789.00	788.00	788.00	787.00	787.00	786.00	786.00	786.00	785.00	785.00	784.00	784.00	783.00	783.00	783.00	783.00	782.00	781.00	781.00	781.00	781.00	779.00	778.00	777.00	777.00	775.00	774.00	774.00	772.00	772.00	771.00	772.00	772.00	771.00	771.00	771.00	771.00	769.00	769.00	768.00	768.00	768.00	768.00	768.00	768.00
872.00	872.00	872.00	873.00	872.00	872.00	872.00	872.00	872.00	872.00	870.00	870.00	869.00	868.00	866.00	866.00	865.00	863.00	863.00	862.00	862.00	861.00	860.00	860.00	859.00	858.00	857.00	857.00	856.00	856.00	855.00	855.00	855.00	854.00	854.00	853.00	853.00	853.00	853.00	852.00	852.00	852.00	851.00	851.00	850.00	849.00	848.00	848.00	847.00	846.00	846.00	845.00	845.00	844.00	843.00	842.00	842.00	842.00	841.00	841.00	841.00	841.00	841.00	842.00	842.00	841.00	840.00	839.00	839.00	839.00	839.00	838.00	837.00	837.00	836.00	835.00	835.00	835.00	834.00	834.00	834.00	833.00	833.00	832.00	830.00	830.00	829.00	829.00	829.00	828.00	827.00	827.00	826.00	826.00	826.00	825.00	825.00	825.00	824.00	823.00	823.00	822.00	821.00	821.00	820.00	820.00	819.00	818.00	816.00	816.00	814.00	812.00	812.00	810.00	810.00	808.00	807.00	807.00	805.00	804.00	803.00	803.00	802.00	802.00	801.00	801.00	801.00	800.00	800.00	800.00	800.00	799.00	799.00	799.00	799.00	799.00	798.00	798.00	798.00	797.00	797.00	797.00	795.00	794.00	794.00	793.00	793.00	791.00	790.00	790.00	788.00	787.00	786.00	786.00	785.00	785.00	784.00	783.00	783.00	784.00	784.00	784.00	784.00	785.00	785.00	786.00	787.00	787.00	788.00	789.00	790.00	790.00	791.00	791.00	792.00	792.00	792.00	793.00	793.00	793.00	793.00	793.00	793.00	792.00	792.00	792.00	791.00	791.00	791.00	791.00	791.00	790.00	790.00	790.00	790.00	790.00	790.00	790.00	790.00	790.00	790.00	790.00	790.00	790.00	790.00	790.00	790.00	789.00	789.00	789.00	789.00	789.00	788.00	788.00	787.00	787.00	786.00	786.00	786.00	785.00	785.00	784.00	784.00	783.00	783.00	783.00	783.00	782.00	781.00	781.00	781.00	781.00	779.00	778.00	777.00	777.00	775.00	774.00	774.00	772.00	772.00	771.00	772.00	772.00	771.00	771.00	771.00	771.00	769.00	769.00	768.00	768.00	768.00	768.00	768.00	768.00
872.00	872.00	872.00	873.00	872.00	872.00	872.00	872.00	872.00	872.00	870.00	870.00	869.00	868.00	866.00	866.00	865.00	863.00	863.00	862.00	862.00	861.00	860.00	860.00	859.00	858.00	857.00	857.00	856.00	856.00	855.00	855.00	855.00	854.00	854.00	853.00	853.00	853.00	853.00	852.00	852.00	852.00	851.00	851.00	850.00	849.00	848.00	848.00	847.00	846.00	846.00	845.00	845.00	844.00	843.00	842.00	842.00	842.00	841.00	841.00	841.00	841.00	841.00	842.00	842.00	841.00	840.00	839.00	839.00	839.00	839.00	838.00	837.00	837.00	836.00	835.00	835.00	835.00	834.00	834.00	834.00	833.00	833.00	832.00	830.00	830.00	829.00	829.00	829.00	828.00	827.00	827.00	826.00	826.00	826.00	825.00	825.00	825.00	824.00	823.00	823.00	822.00	821.00	821.00	820.00	820.00	819.00	818.00	816.00	816.00	814.00	812.00	812.00	810.00	810.00	808.00	807.00	807.00	805.00	804.00	803.00	803.00	802.00	802.00	801.00	801.00	801.00	800.00	800.00	800.00	800.00	799.00	799.00	799.00	799.00	799.00	798.00	798.00	798.00	797.00	797.00	797.00	795.00	794.00	794.00	793.00	793.00	791.00	790.00	790.00	788.00	787.00	786.00	786.00	785.00	785.00	784.00	783.00	783.00	784.00	784.00	784.00	784.00	785.00	785.00	786.00	787.00	787.00	788.00	789.00	790.00	790.00	791.00	791.00	792.00	792.00	792.00	793.00	793.00	793.00	793.00	793.00	793.00	792.00	792.00	792.00	791.00	791.00	791.00	791.00	791.00	790.00	790.00	790.00	790.00	790.00	790.00	790.00	790.00	790.00	790.00	790.00	790.00	790.00	790.00	790.00	790.00	789.00	789.00	789.00	789.00	789.00	788.00	788.00	787.00	787.00	786.00	786.00	786.00	785.00	785.00	784.00	784.00	783.00	783.00	783.00	783.00	782.00	781.00	781.00	781.00	781.00	779.00	778.00	777.00	777.00	775.00	774.00	774.00	772.00	772.00	771.00	772.00	772.00	771.00	771.00	771.00	771.00	769.00	769.00	768.00	768.00	768.00	768.00	768.00	768.00
885.00	885.00	885.00	885.00	885.00	884.00	884.00	884.00	883.00	883.00	882.00	882.00	881.00	879.00	878.00	878.00	877.00	875.00	875.00	874.00	874.00	872.00	872.00	872.00	871.00	870.00	869.00	869.00	868.00	868.00	868.00	867.00	867.00	866.00	866.00	864.00	864.00	864.00	864.00	863.00	862.00	862.00	860.00	860.00	859.00	857.00	856.00	856.00	854.00	853.00	853.00	851.00	851.00	850.00	849.00	848.00	848.00	847.00	846.00	846.00	846.00	846.00	847.00	847.00	847.00	848.00	848.00	847.00	847.00	846.00	846.00	846.00	845.00	845.00	844.00	844.00	843.00	843.00	843.00	843.00	842.00	841.00	841.00	841.00	840.00	840.00	839.00	838.00	838.00	837.00	837.00	837.00	836.00	836.00	836.00	836.00	836.00	835.00	835.00	834.00	834.00	833.00	832.00	832.00	832.00	832.00	831.00	830.00	829.00	829.00	828.00	826.00	826.00	825.00	825.00	824.00	823.00	823.00	822.00	821.00	820.00	820.00	820.00	820.00	820.00	819.00	819.00	819.00	819.00	819.00	819.00	819.00	819.00	818.00	817.00	817.00	817.00	817.00	816.00	815.00	814.00	814.00	813.00	811.00	811.00	810.00	810.00	808.00	807.00	807.00	806.00	805.00	804.00	804.00	803.00	803.00	801.00	800.00	800.00	799.00	799.00	799.00	799.00	800.00	800.00	800.00	801.00	801.00	802.00	803.00	804.00	804.00	805.00	805.00	805.00	806.00	806.00	806.00	806.00	806.00	806.00	805.00	805.00	805.00	804.00	804.00	804.00	803.00	803.00	802.00	802.00	801.00	800.00	799.00	799.00	799.00	799.00	799.00	799.00	799.00	799.00	799.00	799.00	799.00	799.00	799.00	799.00	799.00	799.00	799.00	798.00	798.00	798.00	797.00	797.00	797.00	796.00	796.00	796.00	795.00	795.00	795.00	795.00	794.00	794.00	794.00	794.00	793.00	793.00	793.00	793.00	793.00	792.00	791.00	790.00	790.00	789.00	788.00	788.00	787.00	787.00	786.00	784.00	784.00	783.00	783.00	782.00	782.00	781.00	781.00	781.00	781.00	781.00	781.00	781.00	781.00
885.00	885.00	885.00	885.00	885.00	884.00	884.00	884.00	883.00	883.00	882.00	882.00	881.00	879.00	878.00	878.00	877.00	875.00	875.00	874.00	874.00	872.00	872.00	872.00	871.00	870.00	869.00	869.00	868.00	868.00	868.00	867.00	867.00	866.00	866.00	864.00	864.00	864.00	864.00	863.00	862.00	862.00	860.00	860.00	859.00	857.00	856.00	856.00	854.00	853.00	853.00	851.00	851.00	850.00	849.00	848.00	848.00	847.00	846.00	846.00	846.00	846.00	847.00	847.00	847.00	848.00	848.00	847.00	847.00	846.00	846.00	846.00	845.00	845.00	844.00	844.00	843.00	843.00	843.00	843.00	842.00	841.00	841.00	841.00	840.00	840.00	839.00	838.00	838.00	837.00	837.00	837.00	836.00	836.00	836.00	836.00	836.00	835.00	835.00	834.00	834.00	833.00	832.00	832.00	832.00	832.00	831.00	830.00	829.00	829.00	828.00	826.00	826.00	825.00	825.00	824.00	823.00	823.00	822.00	821.00	820.00	820.00	820.00	820.00	820.00	819.00	819.00	819.00	819.00	819.00	819.00	819.00	819.00	818.00	817.00	817.00	817.00	817.00	816.00	815.00	814.00	814.00	813.00	811.00	811.00	810.00	810.00	808.00	807.00	807.00	806.00	805.00	804.00	804.00	803.00	803.00	801.00	800.00	800.00	799.00	799.00	799.00	799.00	800.00	800.00	800.00	801.00	801.00	802.00	803.00	804.00	804.00	805.00	805.00	805.00	806.00	806.00	806.00	806.00	806.00	806.00	805.00	805.00	805.00	804.00	804.00	804.00	803.00	803.00	802.00	802.00	801.00	800.00	799.00	799.00	799.00	799.00	799.00	799.00	799.00	799.00	799.00	799.00	799.00	799.00	799.00	799.00	799.00	799.00	799.00	798.00	798.00	798.00	797.00	797.00	797.00	796.00	796.00	796.00	795.00	795.00	795.00	795.00	794.00	794.00	794.00	794.00	793.00	793.00	793.00	793.00	793.00	792.00	791.00	790.00	790.00	789.00	788.00	788.00	787.00	787.00	786.00	784.00	784.00	783.00	783.00	782.00	782.00	781.00	781.00	781.00	781.00	781.00	781.00	781.00	781.00
885.00	885.00	885.00	885.00	885.00	884.00	884.00	884.00	883.00	883.00	882.00	882.00	881.00	879.00	878.00	878.00	877.00	875.00	875.00	874.00	874.00	872.00	872.00	872.00	871.00	870.00	869.00	869.00	868.00	868.00	868.00	867.00	867.00	866.00	866.00	864.00	864.00	864.00	864.00	863.00	862.00	862.00	860.00	860.00	859.00	857.00	856.00	856.00	854.00	853.00	853.00	851.00	851.00	850.00	849.00	848.00	848.00	847.00	846.00	846.00	846.00	846.00	847.00	847.00	847.00	848.00	848.00	847.00	847.00	846.00	846.00	846.00	845.00	845.00	844.00	844.00	843.00	843.00	843.00	843.00	842.00	841.00	841.00	841.00	840.00	840.00	839.00	838.00	838.00	837.00	837.00	837.00	836.00	836.00	836.00	836.00	836.00	835.00	835.00	834.00	834.00	833.00	832.00	832.00	832.00	832.00	831.00	830.00	829.00	829.00	828.00	826.00	826.00	825.00	825.00	824.00	823.00	823.00	822.00	821.00	820.00	820.00	820.00	820.00	820.00	819.00	819.00	819.00	819.00	819.00	819.00	819.00	819.00	818.00	817.00	817.00	817.00	817.00	816.00	815.00	814.00	814.00	813.00	811.00	811.00	810.00	810.00	808.00	807.00	807.00	806.00	805.00	804.00	804.00	803.00	803.00	801.00	800.00	800.00	799.00	799.00	799.00	799.00	800.00	800.00	800.00	801.00	801.00	802.00	803.00	804.00	804.00	805.00	805.00	805.00	806.00	806.00	806.00	806.00	806.00	806.00	805.00	805.00	805.00	804.00	804.00	804.00	803.00	803.00	802.00	802.00	801.00	800.00	799.00	799.00	799.00	799.00	799.00	799.00	799.00	799.00	799.00	799.00	799.00	799.00	799.00	799.00	799.00	799.00	799.00	798.00	798.00	798.00	797.00	797.00	797.00	796.00	796.00	796.00	795.00	795.00	795.00	795.00	794.00	794.00	794.00	794.00	793.00	793.00	793.00	793.00	793.00	792.00	791.00	790.00	790.00	789.00	788.00	788.00	787.00	787.00	786.00	784.00	784.00	783.00	783.00	782.00	782.00	781.00	781.00	781.00	781.00	781.00	781.00	781.00	781.00
885.00	885.00	885.00	885.00	885.00	884.00	884.00	884.00	883.00	883.00	882.00	882.00	881.00	879.00	878.00	878.00	877.00	875.00	875.00	874.00	874.00	872.00	872.00	872.00	871.00	870.00	869.00	869.00	868.00	868.00	868.00	867.00	867.00	866.00	866.00	864.00	864.00	864.00	864.00	863.00	862.00	862.00	860.00	860.00	859.00	857.00	856.00	856.00	854.00	853.00	853.00	851.00	851.00	850.00	849.00	848.00	848.00	847.00	846.00	846.00	846.00	846.00	847.00	847.00	847.00	848.00	848.00	847.00	847.00	846.00	846.00	846.00	845.00	845.00	844.00	844.00	843.00	843.00	843.00	843.00	842.00	841.00	841.00	841.00	840.00	840.00	839.00	838.00	838.00	837.00	837.00	837.00	836.00	836.00	836.00	836.00	836.00	835.00	835.00	834.00	834.00	833.00	832.00	832.00	832.00	832.00	831.00	830.00	829.00	829.00	828.00	826.00	826.00	825.00	825.00	824.00	823.00	823.00	822.00	821.00	820.00	820.00	820.00	820.00	820.00	819.00	819.00	819.00	819.00	819.00	819.00	819.00	819.00	818.00	817.00	817.00	817.00	817.00	816.00	815.00	814.00	814.00	813.00	811.00	811.00	810.00	810.00	808.00	807.00	807.00	806.00	805.00	804.00	804.00	803.00	803.00	801.00	800.00	800.00	799.00	799.00	799.00	799.00	800.00	800.00	800.00	801.00	801.00	802.00	803.00	804.00	804.00	805.00	805.00	805.00	806.00	806.00	806.00	806.00	806.00	806.00	805.00	805.00	805.00	804.00	804.00	804.00	803.00	803.00	802.00	802.00	801.00	800.00	799.00	799.00	799.00	799.00	799.00	799.00	799.00	799.00	799.00	799.00	799.00	799.00	799.00	799.00	799.00	799.00	799.00	798.00	798.00	798.00	797.00	797.00	797.00	796.00	796.00	796.00	795.00	795.00	795.00	795.00	794.00	794.00	794.00	794.00	793.00	793.00	793.00	793.00	793.00	792.00	791.00	790.00	790.00	789.00	788.00	788.00	787.00	787.00	786.00	784.00	784.00	783.00	783.00	782.00	782.00	781.00	781.00	781.00	781.00	781.00	781.00	781.00	781.00
885.00	885.00	885.00	885.00	885.00	884.00	884.00	884.00	883.00	883.00	882.00	882.00	881.00	879.00	878.00	878.00	877.00	875.00	875.00	874.00	874.00	872.00	872.00	872.00	871.00	870.00	869.00	869.00	868.00	868.00	868.00	867.00	867.00	866.00	866.00	864.00	864.00	864.00	864.00	863.00	862.00	862.00	860.00	860.00	859.00	857.00	856.00	856.00	854.00	853.00	853.00	851.00	851.00	850.00	849.00	848.00	848.00	847.00	846.00	846.00	846.00	846.00	847.00	847.00	847.00	848.00	848.00	847.00	847.00	846.00	846.00	846.00	845.00	845.00	844.00	844.00	843.00	843.00	843.00	843.00	842.00	841.00	841.00	841.00	840.00	840.00	839.00	838.00	838.00	837.00	837.00	837.00	836.00	836.00	836.00	836.00	836.00	835.00	835.00	834.00	834.00	833.00	832.00	832.00	832.00	832.00	831.00	830.00	829.00	829.00	828.00	826.00	826.00	825.00	825.00	824.00	823.00	823.00	822.00	821.00	820.00	820.00	820.00	820.00	820.00	819.00	819.00	819.00	819.00	819.00	819.00	819.00	819.00	818.00	817.00	817.00	817.00	817.00	816.00	815.00	814.00	814.00	813.00	811.00	811.00	810.00	810.00	808.00	807.00	807.00	806.00	805.00	804.00	804.00	803.00	803.00	801.00	800.00	800.00	799.00	799.00	799.00	799.00	800.00	800.00	800.00	801.00	801.00	802.00	803.00	804.00	804.00	805.00	805.00	805.00	806.00	806.00	806.00	806.00	806.00	806.00	805.00	805.00	805.00	804.00	804.00	804.00	803.00	803.00	802.00	802.00	801.00	800.00	799.00	799.00	799.00	799.00	799.00	799.00	799.00	799.00	799.00	799.00	799.00	799.00	799.00	799.00	799.00	799.00	799.00	798.00	798.00	798.00	797.00	797.00	797.00	796.00	796.00	796.00	795.00	795.00	795.00	795.00	794.00	794.00	794.00	794.00	793.00	793.00	793.00	793.00	793.00	792.00	791.00	790.00	790.00	789.00	788.00	788.00	787.00	787.00	786.00	784.00	784.00	783.00	783.00	782.00	782.00	781.00	781.00	781.00	781.00	781.00	781.00	781.00	781.00
895.00	895.00	895.00	895.00	895.00	895.00	895.00	894.00	893.00	893.00	892.00	892.00	892.00	890.00	889.00	889.00	888.00	887.00	887.00	886.00	886.00	885.00	885.00	885.00	884.00	883.00	882.00	882.00	882.00	882.00	881.00	880.00	880.00	879.00	879.00	877.00	877.00	876.00	876.00	874.00	873.00	873.00	871.00	871.00	869.00	867.00	865.00	865.00	863.00	861.00	861.00	859.00	859.00	858.00	857.00	855.00	855.00	854.00	853.00	853.00	852.00	852.00	852.00	852.00	852.00	852.00	853.00	853.00	853.00	852.00	852.00	851.00	851.00	851.00	850.00	850.00	849.00	849.00	849.00	849.00	848.00	847.00	847.00	847.00	846.00	846.00	845.00	844.00	844.00	844.00	843.00	843.00	843.00	843.00	843.00	843.00	843.00	843.00	843.00	843.00	843.00	842.00	842.00	842.00	842.00	842.00	841.00	841.00	840.00	840.00	840.00	839.00	839.00	839.00	839.00	838.00	838.00	838.00	837.00	837.00	836.00	836.00	836.00	836.00	836.00	836.00	836.00	836.00	836.00	835.00	835.00	835.00	835.00	834.00	833.00	833.00	832.00	832.00	831.00	830.00	829.00	829.00	828.00	827.00	827.00	826.00	826.00	825.00	824.00	824.00	823.00	822.00	820.00	820.00	819.00	819.00	817.00	816.00	816.00	815.00	814.00	813.00	813.00	814.00	814.00	816.00	817.00	817.00	818.00	819.00	819.00	819.00	820.00	820.00	820.00	820.00	820.00	820.00	820.00	820.00	819.00	818.00	818.00	817.00	816.00	816.00	815.00	814.00	814.00	812.00	812.00	811.00	811.00	810.00	810.00	809.00	808.00	808.00	808.00	808.00	807.00	807.00	808.00	808.00	808.00	808.00	808.00	807.00	807.00	807.00	807.00	807.00	806.00	806.00	806.00	806.00	805.00	805.00	804.00	803.00	803.00	802.00	802.00	802.00	802.00	801.00	801.00	801.00	801.00	801.00	801.00	801.00	801.00	801.00	801.00	801.00	801.00	801.00	801.00	801.00	801.00	799.00	797.00	797.00	795.00	795.00	794.00	794.00	794.00	794.00	794.00	794.00	794.00	794.00	794.00	793.00
895.00	895.00	895.00	895.00	895.00	895.00	895.00	894.00	893.00	893.00	892.00	892.00	892.00	890.00	889.00	889.00	888.00	887.00	887.00	886.00	886.00	885.00	885.00	885.00	884.00	883.00	882.00	882.00	882.00	882.00	881.00	880.00	880.00	879.00	879.00	877.00	877.00	876.00	876.00	874.00	873.00	873.00	871.00	871.00	869.00	867.00	865.00	865.00	863.00	861.00	861.00	859.00	859.00	858.00	857.00	855.00	855.00	854.00	853.00	853.00	852.00	852.00	852.00	852.00	852.00	852.00	853.00	853.00	853.00	852.00	852.00	851.00	851.00	851.00	850.00	850.00	849.00	849.00	849.00	849.00	848.00	847.00	847.00	847.00	846.00	846.00	845.00	844.00	844.00	844.00	843.00	843.00	843.00	843.00	843.00	843.00	843.00	843.00	843.00	843.00	843.00	842.00	842.00	842.00	842.00	842.00	841.00	841.00	840.00	840.00	840.00	839.00	839.00	839.00	839.00	838.00	838.00	838.00	837.00	837.00	836.00	836.00	836.00	836.00	836.00	836.00	836.00	836.00	836.00	835.00	835.00	835.00	835.00	834.00	833.00	833.00	832.00	832.00	831.00	830.00	829.00	829.00	828.00	827.00	827.00	826.00	826.00	825.00	824.00	824.00	823.00	822.00	820.00	820.00	819.00	819.00	817.00	816.00	816.00	815.00	814.00	813.00	813.00	814.00	814.00	816.00	817.00	817.00	818.00	819.00	819.00	819.00	820.00	820.00	820.00	820.00	820.00	820.00	820.00	820.00	819.00	818.00	818.00	817.00	816.00	816.00	815.00	814.00	814.00	812.00	812.00	811.00	811.00	810.00	810.00	809.00	808.00	808.00	808.00	808.00	807.00	807.00	808.00	808.00	808.00	808.00	808.00	807.00	807.00	807.00	807.00	807.00	806.00	806.00	806.00	806.00	805.00	805.00	804.00	803.00	803.00	802.00	802.00	802.00	802.00	801.00	801.00	801.00	801.00	801.00	801.00	801.00	801.00	801.00	801.00	801.00	801.00	801.00	801.00	801.00	801.00	799.00	797.00	797.00	795.00	795.00	794.00	794.00	794.00	794.00	794.00	794.00	794.00	794.00	794.00	793.00
895.00	895.00	895.00	895.00	895.00	895.00	895.00	894.00	893.00	893.00	892.00	892.00	892.00	890.00	889.00	889.00	888.00	887.00	887.00	886.00	886.00	885.00	885.00	885.00	884.00	883.00	882.00	882.00	882.00	882.00	881.00	880.00	880.00	879.00	879.00	877.00	877.00	876.00	876.00	874.00	873.00	873.00	871.00	871.00	869.00	867.00	865.00	865.00	863.00	861.00	861.00	859.00	859.00	858.00	857.00	855.00	855.00	854.00	853.00	853.00	852.00	852.00	852.00	852.00	852.00	852.00	853.00	853.00	853.00	852.00	852.00	851.00	851.00	851.00	850.00	850.00	849.00	849.00	849.00	849.00	848.00	847.00	847.00	847.00	846.00	846.00	845.00	844.00	844.00	844.00	843.00	843.00	843.00	843.00	843.00	843.00	843.00	843.00	843.00	843.00	843.00	842.00	842.00	842.00	842.00	842.00	841.00	841.00	840.00	840.00	840.00	839.00	839.00	839.00	839.00	838.00	838.00	838.00	837.00	837.00	836.00	836.00	836.00	836.00	836.00	836.00	836.00	836.00	836.00	835.00	835.00	835.00	835.00	834.00	833.00	833.00	832.00	832.00	831.00	830.00	829.00	829.00	828.00	827.00	827.00	826.00	826.00	825.00	824.00	824.00	823.00	822.00	820.00	820.00	819.00	819.00	817.00	816.00	816.00	815.00	814.00	813.00	813.00	814.00	814.00	816.00	817.00	817.00	818.00	819.00	819.00	819.00	820.00	820.00	820.00	820.00	820.00	820.00	820.00	820.00	819.00	818.00	818.00	817.00	816.00	816.00	815.00	814.00	814.00	812.00	812.00	811.00	811.00	810.00	810.00	809.00	808.00	808.00	808.00	808.00	807.00	807.00	808.00	808.00	808.00	808.00	808.00	807.00	807.00	807.00	807.00	807.00	806.00	806.00	806.00	806.00	805.00	805.00	804.00	803.00	803.00	802.00	802.00	802.00	802.00	801.00	801.00	801.00	801.00	801.00	801.00	801.00	801.00	801.00	801.00	801.00	801.00	801.00	801.00	801.00	801.00	799.00	797.00	797.00	795.00	795.00	794.00	794.00	794.00	794.00	794.00	794.00	794.00	794.00	794.00	793.00
895.00	895.00	895.00	895.00	895.00	895.00	895.00	894.00	893.00	893.00	892.00	892.00	892.00	890.00	889.00	889.00	888.00	887.00	887.00	886.00	886.00	885.00	885.00	885.00	884.00	883.00	882.00	882.00	882.00	882.00	881.00	880.00	880.00	879.00	879.00	877.00	877.00	876.00	876.00	874.00	873.00	873.00	871.00	871.00	869.00	867.00	865.00	865.00	863.00	861.00	861.00	859.00	859.00	858.00	857.00	855.00	855.00	854.00	853.00	853.00	852.00	852.00	852.00	852.00	852.00	852.00	853.00	853.00	853.00	852.00	852.00	851.00	851.00	851.00	850.00	850.00	849.00	849.00	849.00	849.00	848.00	847.00	847.00	847.00	846.00	846.00	845.00	844.00	844.00	844.00	843.00	843.00	843.00	843.00	843.00	843.00	843.00	843.00	843.00	843.00	843.00	842.00	842.00	842.00	842.00	842.00	841.00	841.00	840.00	840.00	840.00	839.00	839.00	839.00	839.00	838.00	838.00	838.00	837.00	837.00	836.00	836.00	836.00	836.00	836.00	836.00	836.00	836.00	836.00	835.00	835.00	835.00	835.00	834.00	833.00	833.00	832.00	832.00	831.00	830.00	829.00	829.00	828.00	827.00	827.00	826.00	826.00	825.00	824.00	824.00	823.00	822.00	820.00	820.00	819.00	819.00	817.00	816.00	816.00	815.00	814.00	813.00	813.00	814.00	814.00	816.00	817.00	817.00	818.00	819.00	819.00	819.00	820.00	820.00	820.00	820.00	820.00	820.00	820.00	820.00	819.00	818.00	818.00	817.00	816.00	816.00	815.00	814.00	814.00	812.00	812.00	811.00	811.00	810.00	810.00	809.00	808.00	808.00	808.00	808.00	807.00	807.00	808.00	808.00	808.00	808.00	808.00	807.00	807.00	807.00	807.00	807.00	806.00	806.00	806.00	806.00	805.00	805.00	804.00	803.00	803.00	802.00	802.00	802.00	802.00	801.00	801.00	801.00	801.00	801.00	801.00	801.00	801.00	801.00	801.00	801.00	801.00	801.00	801.00	801.00	801.00	799.00	797.00	797.00	795.00	795.00	794.00	794.00	794.00	794.00	794.00	794.00	794.00	794.00	794.00	793.00
902.00	902.00	902.00	902.00	902.00	902.00	902.00	902.00	902.00	902.00	902.00	902.00	901.00	901.00	900.00	900.00	900.00	899.00	899.00	899.00	899.00	898.00	897.00	897.00	896.00	895.00	895.00	895.00	894.00	894.00	894.00	893.00	893.00	891.00	891.00	889.00	889.00	887.00	887.00	885.00	883.00	883.00	880.00	880.00	878.00	876.00	873.00	873.00	871.00	870.00	870.00	868.00	868.00	866.00	864.00	862.00	862.00	861.00	859.00	859.00	858.00	858.00	858.00	857.00	857.00	857.00	858.00	858.00	858.00	857.00	857.00	857.00	856.00	856.00	855.00	855.00	854.00	854.00	854.00	854.00	854.00	853.00	853.00	852.00	852.00	852.00	851.00	850.00	850.00	850.00	849.00	849.00	848.00	848.00	848.00	848.00	848.00	848.00	849.00	849.00	849.00	849.00	849.00	849.00	849.00	849.00	849.00	849.00	849.00	849.00	849.00	849.00	849.00	849.00	849.00	849.00	849.00	849.00	849.00	849.00	849.00	849.00	848.00	848.00	848.00	848.00	848.00	849.00	849.00	849.00	849.00	848.00	848.00	847.00	846.00	846.00	845.00	845.00	844.00	843.00	843.00	843.00	842.00	840.00	840.00	839.00	839.00	838.00	837.00	837.00	837.00	837.00	836.00	836.00	835.00	835.00	834.00	833.00	833.00	832.00	830.00	829.00	829.00	829.00	829.00	830.00	832.00	832.00	833.00	835.00	835.00	835.00	835.00	835.00	835.00	834.00	834.00	833.00	832.00	832.00	831.00	830.00	830.00	829.00	828.00	828.00	826.00	825.00	825.00	824.00	824.00	823.00	823.00	822.00	822.00	821.00	820.00	820.00	819.00	819.00	819.00	818.00	818.00	818.00	818.00	817.00	817.00	817.00	817.00	817.00	816.00	816.00	816.00	816.00	815.00	815.00	814.00	814.00	813.00	812.00	812.00	811.00	811.00	810.00	810.00	810.00	810.00	809.00	809.00	809.00	809.00	809.00	808.00	808.00	807.00	807.00	807.00	807.00	807.00	807.00	807.00	807.00	806.00	806.00	806.00	805.00	804.00	804.00	804.00	804.00	804.00	804.00	804.00	804.00	804.00	804.00
902.00	902.00	902.00	902.00	902.00	902.00	902.00	902.00	902.00	902.00	902.00	902.00	901.00	901.00	900.00	900.00	900.00	899.00	899.00	899.00	899.00	898.00	897.00	897.00	896.00	895.00	895.00	895.00	894.00	894.00	894.00	893.00	893.00	891.00	891.00	889.00	889.00	887.00	887.00	885.00	883.00	883.00	880.00	880.00	878.00	876.00	873.00	873.00	871.00	870.00	870.00	868.00	868.00	866.00	864.00	862.00	862.00	861.00	859.00	859.00	858.00	858.00	858.00	857.00	857.00	857.00	858.00	858.00	858.00	857.00	857.00	857.00	856.00	856.00	855.00	855.00	854.00	854.00	854.00	854.00	854.00	853.00	853.00	852.00	852.00	852.00	851.00	850.00	850.00	850.00	849.00	849.00	848.00	848.00	848.00	848.00	848.00	848.00	849.00	849.00	849.00	849.00	849.00	849.00	849.00	849.00	849.00	849.00	849.00	849.00	849.00	849.00	849.00	849.00	849.00	849.00	849.00	849.00	849.00	849.00	849.00	849.00	848.00	848.00	848.00	848.00	848.00	849.00	849.00	849.00	849.00	848.00	848.00	847.00	846.00	846.00	845.00	845.00	844.00	843.00	843.00	843.00	842.00	840.00	840.00	839.00	839.00	838.00	837.00	837.00	837.00	837.00	836.00	836.00	835.00	835.00	834.00	833.00	833.00	832.00	830.00	829.00	829.00	829.00	829.00	830.00	832.00	832.00	833.00	835.00	835.00	835.00	835.00	835.00	835.00	834.00	834.00	833.00	832.00	832.00	831.00	830.00	830.00	829.00	828.00	828.00	826.00	825.00	825.00	824.00	824.00	823.00	823.00	822.00	822.00	821.00	820.00	820.00	819.00	819.00	819.00	818.00	818.00	818.00	818.00	817.00	817.00	817.00	817.00	817.00	816.00	816.00	816.00	816.00	815.00	815.00	814.00	814.00	813.00	812.00	812.00	811.00	811.00	810.00	810.00	810.00	810.00	809.00	809.00	809.00	809.00	809.00	808.00	808.00	807.00	807.00	807.00	807.00	807.00	807.00	807.00	807.00	806.00	806.00	806.00	805.00	804.00	804.00	804.00	804.00	804.00	804.00	804.00	804.00	804.00	804.00
902.00	902.00	902.00	902.00	902.00	902.00	902.00	902.00	902.00	902.00	902.00	902.00	901.00	901.00	900.00	900.00	900.00	899.00	899.00	899.00	899.00	898.00	897.00	897.00	896.00	895.00	895.00	895.00	894.00	894.00	894.00	893.00	893.00	891.00	891.00	889.00	889.00	887.00	887.00	885.00	883.00	883.00	880.00	880.00	878.00	876.00	873.00	873.00	871.00	870.00	870.00	868.00	868.00	866.00	864.00	862.00	862.00	861.00	859.00	859.00	858.00	858.00	858.00	857.00	857.00	857.00	858.00	858.00	858.00	857.00	857.00	857.00	856.00	856.00	855.00	855.00	854.00	854.00	854.00	854.00	854.00	853.00	853.00	852.00	852.00	852.00	851.00	850.00	850.00	850.00	849.00	849.00	848.00	848.00	848.00	848.00	848.00	848.00	849.00	849.00	849.00	849.00	849.00	849.00	849.00	849.00	849.00	849.00	849.00	849.00	849.00	849.00	849.00	849.00	849.00	849.00	849.00	849.00	849.00	849.00	849.00	849.00	848.00	848.00	848.00	848.00	848.00	849.00	849.00	849.00	849.00	848.00	848.00	847.00	846.00	846.00	845.00	845.00	844.00	843.00	843.00	843.00	842.00	840.00	840.00	839.00	839.00	838.00	837.00	837.00	837.00	837.00	836.00	836.00	835.00	835.00	834.00	833.00	833.00	832.00	830.00	829.00	829.00	829.00	829.00	830.00	832.00	832.00	833.00	835.00	835.00	835.00	835.00	835.00	835.00	834.00	834.00	833.00	832.00	832.00	831.00	830.00	830.00	829.00	828.00	828.00	826.00	825.00	825.00	824.00	824.00	823.00	823.00	822.00	822.00	821.00	820.00	820.00	819.00	819.00	819.00	818.00	818.00	818.00	818.00	817.00	817.00	817.00	817.00	817.00	816.00	816.00	816.00	816.00	815.00	815.00	814.00	814.00	813.00	812.00	812.00	811.00	811.00	810.00	810.00	810.00	810.00	809.00	809.00	809.00	809.00	809.00	808.00	808.00	807.00	807.00	807.00	807.00	807.00	807.00	807.00	807.00	806.00	806.00	806.00	805.00	804.00	804.00	804.00	804.00	804.00	804.00	804.00	804.00	804.00	804.00
902.00	902.00	902.00	902.00	902.00	902.00	902.00	902.00	902.00	902.00	902.00	902.00	901.00	901.00	900.00	900.00	900.00	899.00	899.00	899.00	899.00	898.00	897.00	897.00	896.00	895.00	895.00	895.00	894.00	894.00	894.00	893.00	893.00	891.00	891.00	889.00	889.00	887.00	887.00	885.00	883.00	883.00	880.00	880.00	878.00	876.00	873.00	873.00	871.00	870.00	870.00	868.00	868.00	866.00	864.00	862.00	862.00	861.00	859.00	859.00	858.00	858.00	858.00	857.00	857.00	857.00	858.00	858.00	858.00	857.00	857.00	857.00	856.00	856.00	855.00	855.00	854.00	854.00	854.00	854.00	854.00	853.00	853.00	852.00	852.00	852.00	851.00	850.00	850.00	850.00	849.00	849.00	848.00	848.00	848.00	848.00	848.00	848.00	849.00	849.00	849.00	849.00	849.00	849.00	849.00	849.00	849.00	849.00	849.00	849.00	849.00	849.00	849.00	849.00	849.00	849.00	849.00	849.00	849.00	849.00	849.00	849.00	848.00	848.00	848.00	848.00	848.00	849.00	849.00	849.00	849.00	848.00	848.00	847.00	846.00	846.00	845.00	845.00	844.00	843.00	843.00	843.00	842.00	840.00	840.00	839.00	839.00	838.00	837.00	837.00	837.00	837.00	836.00	836.00	835.00	835.00	834.00	833.00	833.00	832.00	830.00	829.00	829.00	829.00	829.00	830.00	832.00	832.00	833.00	835.00	835.00	835.00	835.00	835.00	835.00	834.00	834.00	833.00	832.00	832.00	831.00	830.00	830.00	829.00	828.00	828.00	826.00	825.00	825.00	824.00	824.00	823.00	823.00	822.00	822.00	821.00	820.00	820.00	819.00	819.00	819.00	818.00	818.00	818.00	818.00	817.00	817.00	817.00	817.00	817.00	816.00	816.00	816.00	816.00	815.00	815.00	814.00	814.00	813.00	812.00	812.00	811.00	811.00	810.00	810.00	810.00	810.00	809.00	809.00	809.00	809.00	809.00	808.00	808.00	807.00	807.00	807.00	807.00	807.00	807.00	807.00	807.00	806.00	806.00	806.00	805.00	804.00	804.00	804.00	804.00	804.00	804.00	804.00	804.00	804.00	804.00
902.00	902.00	902.00	902.00	902.00	902.00	902.00	902.00	902.00	902.00	902.00	902.00	901.00	901.00	900.00	900.00	900.00	899.00	899.00	899.00	899.00	898.00	897.00	897.00	896.00	895.00	895.00	895.00	894.00	894.00	894.00	893.00	893.00	891.00	891.00	889.00	889.00	887.00	887.00	885.00	883.00	883.00	880.00	880.00	878.00	876.00	873.00	873.00	871.00	870.00	870.00	868.00	868.00	866.00	864.00	862.00	862.00	861.00	859.00	859.00	858.00	858.00	858.00	857.00	857.00	857.00	858.00	858.00	858.00	857.00	857.00	857.00	856.00	856.00	855.00	855.00	854.00	854.00	854.00	854.00	854.00	853.00	853.00	852.00	852.00	852.00	851.00	850.00	850.00	850.00	849.00	849.00	848.00	848.00	848.00	848.00	848.00	848.00	849.00	849.00	849.00	849.00	849.00	849.00	849.00	849.00	849.00	849.00	849.00	849.00	849.00	849.00	849.00	849.00	849.00	849.00	849.00	849.00	849.00	849.00	849.00	849.00	848.00	848.00	848.00	848.00	848.00	849.00	849.00	849.00	849.00	848.00	848.00	847.00	846.00	846.00	845.00	845.00	844.00	843.00	843.00	843.00	842.00	840.00	840.00	839.00	839.00	838.00	837.00	837.00	837.00	837.00	836.00	836.00	835.00	835.00	834.00	833.00	833.00	832.00	830.00	829.00	829.00	829.00	829.00	830.00	832.00	832.00	833.00	835.00	835.00	835.00	835.00	835.00	835.00	834.00	834.00	833.00	832.00	832.00	831.00	830.00	830.00	829.00	828.00	828.00	826.00	825.00	825.00	824.00	824.00	823.00	823.00	822.00	822.00	821.00	820.00	820.00	819.00	819.00	819.00	818.00	818.00	818.00	818.00	817.00	817.00	817.00	817.00	817.00	816.00	816.00	816.00	816.00	815.00	815.00	814.00	814.00	813.00	812.00	812.00	811.00	811.00	810.00	810.00	810.00	810.00	809.00	809.00	809.00	809.00	809.00	808.00	808.00	807.00	807.00	807.00	807.00	807.00	807.00	807.00	807.00	806.00	806.00	806.00	805.00	804.00	804.00	804.00	804.00	804.00	804.00	804.00	804.00	804.00	804.00
910.00	909.00	909.00	909.00	909.00	909.00	909.00	909.00	910.00	910.00	910.00	910.00	909.00	909.00	909.00	909.00	908.00	908.00	908.00	908.00	908.00	907.00	907.00	907.00	906.00	905.00	904.00	904.00	903.00	903.00	902.00	901.00	901.00	900.00	900.00	897.00	897.00	895.00	895.00	893.00	891.00	891.00	889.00	889.00	886.00	884.00	882.00	882.00	880.00	878.00	878.00	875.00	875.00	873.00	870.00	869.00	869.00	867.00	866.00	866.00	865.00	865.00	864.00	864.00	864.00	864.00	864.00	864.00	864.00	863.00	863.00	863.00	863.00	863.00	862.00	861.00	861.00	861.00	860.00	860.00	860.00	859.00	859.00	858.00	858.00	858.00	857.00	856.00	856.00	856.00	855.00	855.00	854.00	854.00	854.00	854.00	854.00	854.00	854.00	854.00	854.00	855.00	855.00	855.00	856.00	856.00	856.00	856.00	857.00	857.00	857.00	857.00	857.00	857.00	857.00	857.00	857.00	857.00	858.00	858.00	858.00	858.00	857.00	857.00	857.00	857.00	857.00	857.00	857.00	857.00	857.00	857.00	857.00	856.00	855.00	855.00	855.00	855.00	854.00	853.00	853.00	853.00	852.00	851.00	851.00	850.00	850.00	849.00	848.00	848.00	848.00	848.00	848.00	848.00	848.00	848.00	847.00	847.00	847.00	846.00	846.00	846.00	846.00	845.00	845.00	845.00	845.00	845.00	845.00	844.00	843.00	843.00	843.00	843.00	844.00	844.00	844.00	843.00	842.00	842.00	841.00	840.00	840.00	839.00	838.00	838.00	838.00	837.00	837.00	837.00	837.00	837.00	836.00	836.00	836.00	835.00	834.00	834.00	833.00	833.00	832.00	832.00	831.00	831.00	831.00	830.00	830.00	829.00	829.00	828.00	828.00	828.00	827.00	826.00	825.00	825.00	824.00	824.00	823.00	822.00	822.00	821.00	821.00	820.00	820.00	819.00	819.00	818.00	818.00	818.00	817.00	817.00	817.00	816.00	816.00	816.00	815.00	815.00	815.00	815.00	815.00	815.00	815.00	815.00	815.00	815.00	814.00	814.00	814.00	814.00	814.00	814.00	814.00	814.00	814.00	814.00
910.00	909.00	909.00	909.00	909.00	909.00	909.00	909.00	910.00	910.00	910.00	910.00	909.00	909.00	909.00	909.00	908.00	908.00	908.00	908.00	908.00	907.00	907.00	907.00	906.00	905.00	904.00	904.00	903.00	903.00	902.00	901.00	901.00	900.00	900.00	897.00	897.00	895.00	895.00	893.00	891.00	891.00	889.00	889.00	886.00	884.00	882.00	882.00	880.00	878.00	878.00	875.00	875.00	873.00	870.00	869.00	869.00	867.00	866.00	866.00	865.00	865.00	864.00	864.00	864.00	864.00	864.00	864.00	864.00	863.00	863.00	863.00	863.00	863.00	862.00	861.00	861.00	861.00	860.00	860.00	860.00	859.00	859.00	858.00	858.00	858.00	857.00	856.00	856.00	856.00	855.00	855.00	854.00	854.00	854.00	854.00	854.00	854.00	854.00	854.00	854.00	855.00	855.00	855.00	856.00	856.00	856.00	856.00	857.00	857.00	857.00	857.00	857.00	857.00	857.00	857.00	857.00	857.00	858.00	858.00	858.00	858.00	857.00	857.00	857.00	857.00	857.00	857.00	857.00	857.00	857.00	857.00	857.00	856.00	855.00	855.00	855.00	855.00	854.00	853.00	853.00	853.00	852.00	851.00	851.00	850.00	850.00	849.00	848.00	848.00	848.00	848.00	848.00	848.00	848.00	848.00	847.00	847.00	847.00	846.00	846.00	846.00	846.00	845.00	845.00	845.00	845.00	845.00	845.00	844.00	843.00	843.00	843.00	843.00	844.00	844.00	844.00	843.00	842.00	842.00	841.00	840.00	840.00	839.00	838.00	838.00	838.00	837.00	837.00	837.00	837.00	837.00	836.00	836.00	836.00	835.00	834.00	834.00	833.00	833.00	832.00	832.00	831.00	831.00	831.00	830.00	830.00	829.00	829.00	828.00	828.00	828.00	827.00	826.00	825.00	825.00	824.00	824.00	823.00	822.00	822.00	821.00	821.00	820.00	820.00	819.00	819.00	818.00	818.00	818.00	817.00	817.00	817.00	816.00	816.00	816.00	815.00	815.00	815.00	815.00	815.00	815.00	815.00	815.00	815.00	815.00	814.00	814.00	814.00	814.00	814.00	814.00	814.00	814.00	814.00	814.00
910.00	909.00	909.00	909.00	909.00	909.00	909.00	909.00	910.00	910.00	910.00	910.00	909.00	909.00	909.00	909.00	908.00	908.00	908.00	908.00	908.00	907.00	907.00	907.00	906.00	905.00	904.00	904.00	903.00	903.00	902.00	901.00	901.00	900.00	900.00	897.00	897.00	895.00	895.00	893.00	891.00	891.00	889.00	889.00	886.00	884.00	882.00	882.00	880.00	878.00	878.00	875.00	875.00	873.00	870.00	869.00	869.00	867.00	866.00	866.00	865.00	865.00	864.00	864.00	864.00	864.00	864.00	864.00	864.00	863.00	863.00	863.00	863.00	863.00	862.00	861.00	861.00	861.00	860.00	860.00	860.00	859.00	859.00	858.00	858.00	858.00	857.00	856.00	856.00	856.00	855.00	855.00	854.00	854.00	854.00	854.00	854.00	854.00	854.00	854.00	854.00	855.00	855.00	855.00	856.00	856.00	856.00	856.00	857.00	857.00	857.00	857.00	857.00	857.00	857.00	857.00	857.00	857.00	858.00	858.00	858.00	858.00	857.00	857.00	857.00	857.00	857.00	857.00	857.00	857.00	857.00	857.00	857.00	856.00	855.00	855.00	855.00	855.00	854.00	853.00	853.00	853.00	852.00	851.00	851.00	850.00	850.00	849.00	848.00	848.00	848.00	848.00	848.00	848.00	848.00	848.00	847.00	847.00	847.00	846.00	846.00	846.00	846.00	845.00	845.00	845.00	845.00	845.00	845.00	844.00	843.00	843.00	843.00	843.00	844.00	844.00	844.00	843.00	842.00	842.00	841.00	840.00	840.00	839.00	838.00	838.00	838.00	837.00	837.00	837.00	837.00	837.00	836.00	836.00	836.00	835.00	834.00	834.00	833.00	833.00	832.00	832.00	831.00	831.00	831.00	830.00	830.00	829.00	829.00	828.00	828.00	828.00	827.00	826.00	825.00	825.00	824.00	824.00	823.00	822.00	822.00	821.00	821.00	820.00	820.00	819.00	819.00	818.00	818.00	818.00	817.00	817.00	817.00	816.00	816.00	816.00	815.00	815.00	815.00	815.00	815.00	815.00	815.00	815.00	815.00	815.00	814.00	814.00	814.00	814.00	814.00	814.00	814.00	814.00	814.00	814.00
910.00	909.00	909.00	909.00	909.00	909.00	909.00	909.00	910.00	910.00	910.00	910.00	909.00	909.00	909.00	909.00	908.00	908.00	908.00	908.00	908.00	907.00	907.00	907.00	906.00	905.00	904.00	904.00	903.00	903.00	902.00	901.00	901.00	900.00	900.00	897.00	897.00	895.00	895.00	893.00	891.00	891.00	889.00	889.00	886.00	884.00	882.00	882.00	880.00	878.00	878.00	875.00	875.00	873.00	870.00	869.00	869.00	867.00	866.00	866.00	865.00	865.00	864.00	864.00	864.00	864.00	864.00	864.00	864.00	863.00	863.00	863.00	863.00	863.00	862.00	861.00	861.00	861.00	860.00	860.00	860.00	859.00	859.00	858.00	858.00	858.00	857.00	856.00	856.00	856.00	855.00	855.00	854.00	854.00	854.00	854.00	854.00	854.00	854.00	854.00	854.00	855.00	855.00	855.00	856.00	856.00	856.00	856.00	857.00	857.00	857.00	857.00	857.00	857.00	857.00	857.00	857.00	857.00	858.00	858.00	858.00	858.00	857.00	857.00	857.00	857.00	857.00	857.00	857.00	857.00	857.00	857.00	857.00	856.00	855.00	855.00	855.00	855.00	854.00	853.00	853.00	853.00	852.00	851.00	851.00	850.00	850.00	849.00	848.00	848.00	848.00	848.00	848.00	848.00	848.00	848.00	847.00	847.00	847.00	846.00	846.00	846.00	846.00	845.00	845.00	845.00	845.00	845.00	845.00	844.00	843.00	843.00	843.00	843.00	844.00	844.00	844.00	843.00	842.00	842.00	841.00	840.00	840.00	839.00	838.00	838.00	838.00	837.00	837.00	837.00	837.00	837.00	836.00	836.00	836.00	835.00	834.00	834.00	833.00	833.00	832.00	832.00	831.00	831.00	831.00	830.00	830.00	829.00	829.00	828.00	828.00	828.00	827.00	826.00	825.00	825.00	824.00	824.00	823.00	822.00	822.00	821.00	821.00	820.00	820.00	819.00	819.00	818.00	818.00	818.00	817.00	817.00	817.00	816.00	816.00	816.00	815.00	815.00	815.00	815.00	815.00	815.00	815.00	815.00	815.00	815.00	814.00	814.00	814.00	814.00	814.00	814.00	814.00	814.00	814.00	814.00
