180.00	184.00	190.00	193.00	197.00	197.00	197.00	200.00	204.00	209.00	213.00	216.00	220.00	223.00	234.00	240.00	263.00	277.00	326.00	362.00	380.00	372.00	347.00	344.00	368.00	403.00	442.00	675.00	732.00	700.00	632.00	560.00	458.00	450.00	454.00	442.00	396.00	341.00	329.00	318.00	307.00	284.00	279.00	274.00	268.00	260.00	257.00	251.00	242.00	237.00	227.00	226.00	226.00	224.00	219.00	214.00	212.00	209.00	206.00	203.00	201.00	200.00	199.00	198.00	196.00	196.00	196.00	195.00	188.00	191.00	191.00	190.00	194.00	194.00	196.00	197.00	197.00	196.00	195.00	197.00	198.00	201.00	203.00	206.00	206.00	206.00	207.00	210.00	215.00	219.00	231.00	235.00	239.00	244.00	250.00	263.00	272.00	281.00	290.00	312.00	338.00	358.00	378.00	395.00	398.00	379.00	363.00	396.00	514.00	547.00	553.00	561.00	574.00	589.00	538.00	461.00	383.00	326.00	358.00	411.00	461.00	545.00	560.00	562.00	520.00	481.00	559.00	600.00	659.00	708.00	578.00	401.00	351.00	314.00	281.00	233.00	216.00	205.00	196.00	181.00	177.00	175.00	175.00	173.00	162.00	160.00	155.00	151.00	148.00	146.00	146.00	150.00	162.00	181.00	201.00	219.00	254.00	278.00	206.00	144.00	116.00	112.00	109.00	111.00	111.00	111.00	150.00	199.00	172.00	191.00	189.00	160.00	157.00	163.00	191.00	205.00	215.00	226.00	249.00	278.00	338.00	350.00	360.00	371.00	401.00	436.00	443.00	423.00	381.00	375.00	416.00	458.00	484.00	567.00	566.00	600.00	663.00	696.00	658.00	668.00	723.00	731.00	693.00	720.00	757.00	758.00	732.00	735.00	809.00	839.00	791.00	672.00	731.00	794.00	786.00	713.00	625.00	650.00	667.00	673.00	642.00	610.00	554.00	574.00	608.00	580.00	451.00	391.00	371.00	402.00	368.00	333.00	317.00	329.00	337.00	360.00	442.00	503.00	442.00	405.00	353.00	314.00	291.00	289.00	244.00	217.00	208.00	210.00	222.00	235.00	241.00	237.00	236.00	247.00	259.00	276.00
180.00	184.00	190.00	193.00	197.00	197.00	197.00	200.00	204.00	209.00	213.00	216.00	220.00	223.00	234.00	240.00	263.00	277.00	326.00	362.00	380.00	372.00	347.00	344.00	368.00	403.00	442.00	675.00	732.00	700.00	632.00	560.00	458.00	450.00	454.00	442.00	396.00	341.00	329.00	318.00	307.00	284.00	279.00	274.00	268.00	260.00	257.00	251.00	242.00	237.00	227.00	226.00	226.00	224.00	219.00	214.00	212.00	209.00	206.00	203.00	201.00	200.00	199.00	198.00	196.00	196.00	196.00	195.00	188.00	191.00	191.00	190.00	194.00	194.00	196.00	197.00	197.00	196.00	195.00	197.00	198.00	201.00	203.00	206.00	206.00	206.00	207.00	210.00	215.00	219.00	231.00	235.00	239.00	244.00	250.00	263.00	272.00	281.00	290.00	312.00	338.00	358.00	378.00	395.00	398.00	379.00	363.00	396.00	514.00	547.00	553.00	561.00	574.00	589.00	538.00	461.00	383.00	326.00	358.00	411.00	461.00	545.00	560.00	562.00	520.00	481.00	559.00	600.00	659.00	708.00	578.00	401.00	351.00	314.00	281.00	233.00	216.00	205.00	196.00	181.00	177.00	175.00	175.00	173.00	162.00	160.00	155.00	151.00	148.00	146.00	146.00	150.00	162.00	181.00	201.00	219.00	254.00	278.00	206.00	144.00	116.00	112.00	109.00	111.00	111.00	111.00	150.00	199.00	172.00	191.00	189.00	160.00	157.00	163.00	191.00	205.00	215.00	226.00	249.00	278.00	338.00	350.00	360.00	371.00	401.00	436.00	443.00	423.00	381.00	375.00	416.00	458.00	484.00	567.00	566.00	600.00	663.00	696.00	658.00	668.00	723.00	731.00	693.00	720.00	757.00	758.00	732.00	735.00	809.00	839.00	791.00	672.00	731.00	794.00	786.00	713.00	625.00	650.00	667.00	673.00	642.00	610.00	554.00	574.00	608.00	580.00	451.00	391.00	371.00	402.00	368.00	333.00	317.00	329.00	337.00	360.00	442.00	503.00	442.00	405.00	353.00	314.00	291.00	289.00	244.00	217.00	208.00	210.00	222.00	235.00	241.00	237.00	236.00	247.00	259.00	276.00
178.00	184.00	192.00	196.00	196.00	194.00	195.00	197.00	199.00	204.00	205.00	206.00	209.00	215.00	229.00	238.00	258.00	274.00	307.00	316.00	310.00	302.00	299.00	326.00	353.00	390.00	421.00	610.00	674.00	652.00	585.00	540.00	455.00	429.00	414.00	403.00	390.00	393.00	376.00	353.00	329.00	286.00	277.00	272.00	266.00	255.00	249.00	243.00	236.00	234.00	232.00	227.00	224.00	220.00	215.00	212.00	210.00	207.00	206.00	199.00	197.00	196.00	197.00	197.00	198.00	198.00	196.00	192.00	183.00	189.00	191.00	194.00	195.00	194.00	193.00	192.00	192.00	191.00	191.00	192.00	194.00	200.00	199.00	198.00	198.00	199.00	210.00	214.00	218.00	222.00	227.00	230.00	233.00	238.00	241.00	251.00	260.00	271.00	278.00	297.00	318.00	326.00	335.00	341.00	334.00	331.00	362.00	417.00	485.00	489.00	467.00	462.00	514.00	588.00	566.00	496.00	410.00	316.00	342.00	392.00	433.00	491.00	516.00	507.00	467.00	447.00	538.00	586.00	634.00	663.00	540.00	382.00	332.00	293.00	262.00	210.00	195.00	185.00	178.00	168.00	168.00	167.00	164.00	163.00	153.00	150.00	148.00	148.00	150.00	157.00	165.00	177.00	200.00	202.00	220.00	242.00	277.00	216.00	147.00	123.00	114.00	108.00	112.00	114.00	114.00	138.00	224.00	251.00	219.00	203.00	225.00	225.00	185.00	173.00	213.00	247.00	256.00	270.00	286.00	313.00	383.00	433.00	461.00	477.00	501.00	541.00	534.00	494.00	457.00	407.00	434.00	486.00	540.00	654.00	744.00	762.00	782.00	818.00	848.00	850.00	863.00	893.00	833.00	835.00	855.00	900.00	903.00	865.00	836.00	783.00	683.00	591.00	588.00	649.00	677.00	653.00	610.00	579.00	539.00	537.00	523.00	527.00	512.00	533.00	524.00	472.00	450.00	457.00	475.00	403.00	322.00	281.00	312.00	376.00	470.00	465.00	451.00	479.00	529.00	476.00	434.00	404.00	373.00	301.00	253.00	219.00	198.00	195.00	203.00	212.00	227.00	254.00	334.00	379.00	412.00	434.00
179.00	186.00	188.00	189.00	187.00	190.00	192.00	194.00	195.00	199.00	200.00	204.00	209.00	215.00	227.00	236.00	254.00	267.00	289.00	291.00	285.00	283.00	288.00	309.00	339.00	371.00	390.00	522.00	604.00	640.00	582.00	530.00	472.00	459.00	453.00	432.00	391.00	369.00	355.00	340.00	323.00	291.00	279.00	272.00	267.00	254.00	249.00	242.00	236.00	232.00	223.00	222.00	218.00	215.00	211.00	211.00	211.00	210.00	204.00	198.00	197.00	196.00	195.00	196.00	195.00	193.00	191.00	188.00	191.00	194.00	194.00	193.00	190.00	189.00	189.00	188.00	189.00	192.00	193.00	194.00	194.00	193.00	195.00	198.00	198.00	199.00	205.00	210.00	214.00	216.00	223.00	227.00	229.00	233.00	237.00	244.00	248.00	257.00	267.00	284.00	302.00	306.00	304.00	298.00	313.00	330.00	349.00	371.00	396.00	393.00	395.00	491.00	539.00	526.00	509.00	491.00	427.00	304.00	322.00	352.00	378.00	465.00	473.00	442.00	413.00	451.00	516.00	519.00	550.00	543.00	398.00	336.00	292.00	261.00	232.00	190.00	175.00	167.00	161.00	155.00	157.00	159.00	156.00	153.00	152.00	153.00	154.00	157.00	171.00	184.00	205.00	232.00	251.00	232.00	249.00	264.00	282.00	163.00	128.00	112.00	108.00	111.00	113.00	127.00	157.00	218.00	267.00	255.00	246.00	258.00	268.00	249.00	213.00	187.00	221.00	265.00	290.00	313.00	337.00	367.00	438.00	483.00	555.00	608.00	664.00	710.00	699.00	611.00	568.00	522.00	483.00	479.00	507.00	610.00	635.00	651.00	693.00	728.00	701.00	697.00	743.00	810.00	792.00	722.00	694.00	762.00	777.00	720.00	670.00	636.00	598.00	514.00	523.00	539.00	545.00	529.00	539.00	543.00	500.00	461.00	480.00	531.00	582.00	624.00	637.00	544.00	427.00	378.00	399.00	374.00	288.00	259.00	318.00	405.00	514.00	498.00	430.00	436.00	456.00	419.00	390.00	348.00	324.00	279.00	256.00	230.00	205.00	207.00	255.00	289.00	315.00	367.00	421.00	395.00	416.00	437.00
179.00	186.00	188.00	189.00	187.00	190.00	192.00	194.00	195.00	199.00	200.00	204.00	209.00	215.00	227.00	236.00	254.00	267.00	289.00	291.00	285.00	283.00	288.00	309.00	339.00	371.00	390.00	522.00	604.00	640.00	582.00	530.00	472.00	459.00	453.00	432.00	391.00	369.00	355.00	340.00	323.00	291.00	279.00	272.00	267.00	254.00	249.00	242.00	236.00	232.00	223.00	222.00	218.00	215.00	211.00	211.00	211.00	210.00	204.00	198.00	197.00	196.00	195.00	196.00	195.00	193.00	191.00	188.00	191.00	194.00	194.00	193.00	190.00	189.00	189.00	188.00	189.00	192.00	193.00	194.00	194.00	193.00	195.00	198.00	198.00	199.00	205.00	210.00	214.00	216.00	223.00	227.00	229.00	233.00	237.00	244.00	248.00	257.00	267.00	284.00	302.00	306.00	304.00	298.00	313.00	330.00	349.00	371.00	396.00	393.00	395.00	491.00	539.00	526.00	509.00	491.00	427.00	304.00	322.00	352.00	378.00	465.00	473.00	442.00	413.00	451.00	516.00	519.00	550.00	543.00	398.00	336.00	292.00	261.00	232.00	190.00	175.00	167.00	161.00	155.00	157.00	159.00	156.00	153.00	152.00	153.00	154.00	157.00	171.00	184.00	205.00	232.00	251.00	232.00	249.00	264.00	282.00	163.00	128.00	112.00	108.00	111.00	113.00	127.00	157.00	218.00	267.00	255.00	246.00	258.00	268.00	249.00	213.00	187.00	221.00	265.00	290.00	313.00	337.00	367.00	438.00	483.00	555.00	608.00	664.00	710.00	699.00	611.00	568.00	522.00	483.00	479.00	507.00	610.00	635.00	651.00	693.00	728.00	701.00	697.00	743.00	810.00	792.00	722.00	694.00	762.00	777.00	720.00	670.00	636.00	598.00	514.00	523.00	539.00	545.00	529.00	539.00	543.00	500.00	461.00	480.00	531.00	582.00	624.00	637.00	544.00	427.00	378.00	399.00	374.00	288.00	259.00	318.00	405.00	514.00	498.00	430.00	436.00	456.00	419.00	390.00	348.00	324.00	279.00	256.00	230.00	205.00	207.00	255.00	289.00	315.00	367.00	421.00	395.00	416.00	437.00
179.00	186.00	188.00	189.00	187.00	190.00	192.00	194.00	195.00	199.00	200.00	204.00	209.00	215.00	227.00	236.00	254.00	267.00	289.00	291.00	285.00	283.00	288.00	309.00	339.00	371.00	390.00	522.00	604.00	640.00	582.00	530.00	472.00	459.00	453.00	432.00	391.00	369.00	355.00	340.00	323.00	291.00	279.00	272.00	267.00	254.00	249.00	242.00	236.00	232.00	223.00	222.00	218.00	215.00	211.00	211.00	211.00	210.00	204.00	198.00	197.00	196.00	195.00	196.00	195.00	193.00	191.00	188.00	191.00	194.00	194.00	193.00	190.00	189.00	189.00	188.00	189.00	192.00	193.00	194.00	194.00	193.00	195.00	198.00	198.00	199.00	205.00	210.00	214.00	216.00	223.00	227.00	229.00	233.00	237.00	244.00	248.00	257.00	267.00	284.00	302.00	306.00	304.00	298.00	313.00	330.00	349.00	371.00	396.00	393.00	395.00	491.00	539.00	526.00	509.00	491.00	427.00	304.00	322.00	352.00	378.00	465.00	473.00	442.00	413.00	451.00	516.00	519.00	550.00	543.00	398.00	336.00	292.00	261.00	232.00	190.00	175.00	167.00	161.00	155.00	157.00	159.00	156.00	153.00	152.00	153.00	154.00	157.00	171.00	184.00	205.00	232.00	251.00	232.00	249.00	264.00	282.00	163.00	128.00	112.00	108.00	111.00	113.00	127.00	157.00	218.00	267.00	255.00	246.00	258.00	268.00	249.00	213.00	187.00	221.00	265.00	290.00	313.00	337.00	367.00	438.00	483.00	555.00	608.00	664.00	710.00	699.00	611.00	568.00	522.00	483.00	479.00	507.00	610.00	635.00	651.00	693.00	728.00	701.00	697.00	743.00	810.00	792.00	722.00	694.00	762.00	777.00	720.00	670.00	636.00	598.00	514.00	523.00	539.00	545.00	529.00	539.00	543.00	500.00	461.00	480.00	531.00	582.00	624.00	637.00	544.00	427.00	378.00	399.00	374.00	288.00	259.00	318.00	405.00	514.00	498.00	430.00	436.00	456.00	419.00	390.00	348.00	324.00	279.00	256.00	230.00	205.00	207.00	255.00	289.00	315.00	367.00	421.00	395.00	416.00	437.00
180.00	181.00	184.00	186.00	187.00	190.00	190.00	191.00	192.00	197.00	199.00	201.00	204.00	208.00	222.00	230.00	255.00	265.00	268.00	265.00	263.00	267.00	278.00	305.00	327.00	347.00	368.00	461.00	548.00	650.00	647.00	579.00	531.00	509.00	469.00	425.00	392.00	388.00	361.00	336.00	316.00	292.00	281.00	275.00	270.00	256.00	252.00	248.00	235.00	228.00	222.00	218.00	217.00	216.00	210.00	207.00	204.00	202.00	200.00	198.00	197.00	196.00	195.00	193.00	192.00	192.00	190.00	190.00	191.00	192.00	191.00	190.00	192.00	193.00	193.00	193.00	193.00	189.00	187.00	189.00	190.00	194.00	194.00	195.00	196.00	196.00	201.00	203.00	208.00	212.00	221.00	223.00	227.00	230.00	232.00	240.00	248.00	257.00	265.00	283.00	279.00	290.00	297.00	307.00	328.00	342.00	352.00	358.00	375.00	395.00	436.00	526.00	533.00	452.00	398.00	397.00	345.00	302.00	326.00	349.00	383.00	475.00	442.00	397.00	389.00	421.00	441.00	490.00	567.00	581.00	384.00	275.00	256.00	232.00	205.00	180.00	171.00	160.00	158.00	152.00	150.00	150.00	161.00	166.00	175.00	182.00	189.00	193.00	228.00	251.00	270.00	290.00	277.00	285.00	292.00	275.00	228.00	120.00	112.00	115.00	116.00	115.00	155.00	260.00	283.00	280.00	281.00	275.00	271.00	266.00	261.00	218.00	206.00	208.00	240.00	308.00	356.00	411.00	455.00	488.00	550.00	588.00	621.00	673.00	767.00	708.00	649.00	620.00	617.00	634.00	593.00	557.00	554.00	588.00	666.00	695.00	682.00	645.00	562.00	552.00	590.00	650.00	697.00	628.00	559.00	577.00	579.00	577.00	541.00	516.00	496.00	466.00	458.00	461.00	461.00	459.00	537.00	563.00	545.00	506.00	425.00	430.00	481.00	561.00	616.00	492.00	398.00	356.00	320.00	285.00	252.00	298.00	384.00	422.00	433.00	405.00	317.00	365.00	370.00	352.00	324.00	287.00	264.00	231.00	228.00	232.00	219.00	199.00	240.00	287.00	334.00	402.00	342.00	311.00	334.00	338.00
175.00	176.00	178.00	182.00	183.00	186.00	187.00	190.00	193.00	196.00	201.00	205.00	208.00	211.00	223.00	237.00	257.00	253.00	241.00	242.00	248.00	274.00	290.00	306.00	322.00	337.00	347.00	416.00	486.00	577.00	666.00	656.00	589.00	519.00	464.00	423.00	443.00	399.00	371.00	348.00	338.00	316.00	296.00	279.00	269.00	256.00	251.00	245.00	238.00	232.00	225.00	221.00	218.00	212.00	205.00	204.00	203.00	201.00	199.00	198.00	196.00	193.00	189.00	188.00	189.00	189.00	189.00	189.00	188.00	187.00	188.00	189.00	190.00	191.00	191.00	191.00	190.00	190.00	191.00	193.00	194.00	193.00	194.00	193.00	194.00	195.00	200.00	204.00	208.00	211.00	215.00	215.00	217.00	223.00	230.00	241.00	247.00	254.00	259.00	252.00	292.00	312.00	329.00	348.00	378.00	385.00	396.00	415.00	446.00	455.00	462.00	456.00	444.00	382.00	342.00	313.00	297.00	318.00	350.00	387.00	417.00	411.00	385.00	365.00	385.00	408.00	464.00	524.00	578.00	520.00	343.00	252.00	223.00	210.00	194.00	176.00	169.00	161.00	155.00	145.00	145.00	146.00	165.00	180.00	202.00	216.00	230.00	243.00	266.00	270.00	270.00	256.00	249.00	270.00	254.00	204.00	142.00	119.00	120.00	117.00	114.00	113.00	176.00	243.00	283.00	292.00	254.00	230.00	216.00	213.00	214.00	225.00	236.00	245.00	293.00	416.00	478.00	530.00	565.00	596.00	643.00	656.00	653.00	663.00	708.00	658.00	603.00	553.00	570.00	631.00	593.00	580.00	600.00	704.00	821.00	854.00	816.00	758.00	598.00	517.00	484.00	530.00	621.00	590.00	543.00	465.00	448.00	485.00	472.00	449.00	434.00	416.00	410.00	409.00	421.00	444.00	623.00	702.00	698.00	624.00	476.00	425.00	378.00	381.00	456.00	500.00	363.00	309.00	286.00	237.00	304.00	363.00	402.00	428.00	343.00	328.00	275.00	284.00	313.00	317.00	294.00	275.00	261.00	259.00	251.00	216.00	196.00	188.00	235.00	274.00	309.00	350.00	296.00	262.00	267.00	303.00
175.00	176.00	178.00	182.00	183.00	186.00	187.00	190.00	193.00	196.00	201.00	205.00	208.00	211.00	223.00	237.00	257.00	253.00	241.00	242.00	248.00	274.00	290.00	306.00	322.00	337.00	347.00	416.00	486.00	577.00	666.00	656.00	589.00	519.00	464.00	423.00	443.00	399.00	371.00	348.00	338.00	316.00	296.00	279.00	269.00	256.00	251.00	245.00	238.00	232.00	225.00	221.00	218.00	212.00	205.00	204.00	203.00	201.00	199.00	198.00	196.00	193.00	189.00	188.00	189.00	189.00	189.00	189.00	188.00	187.00	188.00	189.00	190.00	191.00	191.00	191.00	190.00	190.00	191.00	193.00	194.00	193.00	194.00	193.00	194.00	195.00	200.00	204.00	208.00	211.00	215.00	215.00	217.00	223.00	230.00	241.00	247.00	254.00	259.00	252.00	292.00	312.00	329.00	348.00	378.00	385.00	396.00	415.00	446.00	455.00	462.00	456.00	444.00	382.00	342.00	313.00	297.00	318.00	350.00	387.00	417.00	411.00	385.00	365.00	385.00	408.00	464.00	524.00	578.00	520.00	343.00	252.00	223.00	210.00	194.00	176.00	169.00	161.00	155.00	145.00	145.00	146.00	165.00	180.00	202.00	216.00	230.00	243.00	266.00	270.00	270.00	256.00	249.00	270.00	254.00	204.00	142.00	119.00	120.00	117.00	114.00	113.00	176.00	243.00	283.00	292.00	254.00	230.00	216.00	213.00	214.00	225.00	236.00	245.00	293.00	416.00	478.00	530.00	565.00	596.00	643.00	656.00	653.00	663.00	708.00	658.00	603.00	553.00	570.00	631.00	593.00	580.00	600.00	704.00	821.00	854.00	816.00	758.00	598.00	517.00	484.00	530.00	621.00	590.00	543.00	465.00	448.00	485.00	472.00	449.00	434.00	416.00	410.00	409.00	421.00	444.00	623.00	702.00	698.00	624.00	476.00	425.00	378.00	381.00	456.00	500.00	363.00	309.00	286.00	237.00	304.00	363.00	402.00	428.00	343.00	328.00	275.00	284.00	313.00	317.00	294.00	275.00	261.00	259.00	251.00	216.00	196.00	188.00	235.00	274.00	309.00	350.00	296.00	262.00	267.00	303.00
175.00	176.00	176.00	176.00	176.00	184.00	187.00	186.00	190.00	197.00	200.00	202.00	207.00	213.00	224.00	231.00	231.00	227.00	234.00	243.00	252.00	262.00	280.00	302.00	305.00	313.00	320.00	402.00	440.00	493.00	571.00	616.00	548.00	517.00	497.00	484.00	452.00	437.00	417.00	385.00	357.00	306.00	291.00	279.00	267.00	251.00	246.00	240.00	232.00	227.00	219.00	216.00	213.00	210.00	208.00	205.00	203.00	202.00	200.00	194.00	193.00	192.00	192.00	188.00	189.00	188.00	184.00	182.00	187.00	187.00	187.00	188.00	187.00	186.00	186.00	186.00	186.00	187.00	189.00	194.00	196.00	196.00	196.00	197.00	199.00	199.00	203.00	203.00	204.00	207.00	213.00	215.00	219.00	222.00	224.00	231.00	234.00	239.00	241.00	251.00	273.00	291.00	310.00	331.00	358.00	361.00	368.00	378.00	396.00	397.00	381.00	344.00	325.00	294.00	281.00	278.00	286.00	322.00	349.00	372.00	381.00	356.00	352.00	385.00	454.00	523.00	573.00	584.00	557.00	462.00	312.00	231.00	205.00	194.00	184.00	172.00	164.00	158.00	153.00	145.00	143.00	143.00	154.00	163.00	183.00	188.00	197.00	203.00	221.00	222.00	211.00	202.00	214.00	169.00	145.00	122.00	116.00	116.00	113.00	113.00	115.00	162.00	196.00	248.00	252.00	239.00	205.00	201.00	198.00	203.00	215.00	247.00	277.00	312.00	309.00	375.00	415.00	437.00	450.00	468.00	500.00	528.00	576.00	645.00	665.00	607.00	561.00	501.00	491.00	526.00	549.00	584.00	604.00	706.00	854.00	811.00	714.00	641.00	625.00	552.00	465.00	442.00	545.00	589.00	574.00	473.00	414.00	389.00	397.00	399.00	390.00	374.00	383.00	415.00	469.00	530.00	688.00	744.00	701.00	618.00	513.00	461.00	395.00	336.00	367.00	451.00	400.00	318.00	250.00	225.00	249.00	285.00	341.00	382.00	313.00	274.00	254.00	250.00	296.00	284.00	264.00	253.00	243.00	239.00	243.00	231.00	215.00	162.00	177.00	201.00	250.00	292.00	256.00	240.00	239.00	269.00
175.00	176.00	176.00	176.00	176.00	184.00	187.00	186.00	190.00	197.00	200.00	202.00	207.00	213.00	224.00	231.00	231.00	227.00	234.00	243.00	252.00	262.00	280.00	302.00	305.00	313.00	320.00	402.00	440.00	493.00	571.00	616.00	548.00	517.00	497.00	484.00	452.00	437.00	417.00	385.00	357.00	306.00	291.00	279.00	267.00	251.00	246.00	240.00	232.00	227.00	219.00	216.00	213.00	210.00	208.00	205.00	203.00	202.00	200.00	194.00	193.00	192.00	192.00	188.00	189.00	188.00	184.00	182.00	187.00	187.00	187.00	188.00	187.00	186.00	186.00	186.00	186.00	187.00	189.00	194.00	196.00	196.00	196.00	197.00	199.00	199.00	203.00	203.00	204.00	207.00	213.00	215.00	219.00	222.00	224.00	231.00	234.00	239.00	241.00	251.00	273.00	291.00	310.00	331.00	358.00	361.00	368.00	378.00	396.00	397.00	381.00	344.00	325.00	294.00	281.00	278.00	286.00	322.00	349.00	372.00	381.00	356.00	352.00	385.00	454.00	523.00	573.00	584.00	557.00	462.00	312.00	231.00	205.00	194.00	184.00	172.00	164.00	158.00	153.00	145.00	143.00	143.00	154.00	163.00	183.00	188.00	197.00	203.00	221.00	222.00	211.00	202.00	214.00	169.00	145.00	122.00	116.00	116.00	113.00	113.00	115.00	162.00	196.00	248.00	252.00	239.00	205.00	201.00	198.00	203.00	215.00	247.00	277.00	312.00	309.00	375.00	415.00	437.00	450.00	468.00	500.00	528.00	576.00	645.00	665.00	607.00	561.00	501.00	491.00	526.00	549.00	584.00	604.00	706.00	854.00	811.00	714.00	641.00	625.00	552.00	465.00	442.00	545.00	589.00	574.00	473.00	414.00	389.00	397.00	399.00	390.00	374.00	383.00	415.00	469.00	530.00	688.00	744.00	701.00	618.00	513.00	461.00	395.00	336.00	367.00	451.00	400.00	318.00	250.00	225.00	249.00	285.00	341.00	382.00	313.00	274.00	254.00	250.00	296.00	284.00	264.00	253.00	243.00	239.00	243.00	231.00	215.00	162.00	177.00	201.00	250.00	292.00	256.00	240.00	239.00	269.00
173.00	174.00	175.00	176.00	176.00	179.00	185.00	188.00	190.00	192.00	195.00	198.00	199.00	200.00	211.00	216.00	232.00	242.00	247.00	249.00	251.00	262.00	273.00	311.00	313.00	322.00	341.00	400.00	428.00	460.00	499.00	549.00	652.00	643.00	600.00	579.00	531.00	428.00	374.00	341.00	342.00	356.00	324.00	292.00	287.00	269.00	256.00	241.00	226.00	223.00	214.00	209.00	205.00	205.00	200.00	200.00	198.00	197.00	195.00	193.00	190.00	189.00	191.00	189.00	186.00	183.00	178.00	184.00	186.00	187.00	187.00	187.00	186.00	186.00	185.00	185.00	186.00	188.00	191.00	192.00	194.00	196.00	197.00	198.00	199.00	201.00	203.00	204.00	205.00	208.00	216.00	219.00	221.00	222.00	222.00	228.00	234.00	237.00	242.00	247.00	256.00	264.00	273.00	282.00	297.00	302.00	306.00	306.00	308.00	302.00	298.00	278.00	271.00	271.00	282.00	299.00	318.00	338.00	337.00	339.00	339.00	343.00	360.00	392.00	427.00	460.00	550.00	579.00	536.00	443.00	287.00	216.00	194.00	182.00	174.00	166.00	160.00	155.00	149.00	140.00	138.00	140.00	143.00	150.00	162.00	168.00	176.00	188.00	191.00	170.00	144.00	129.00	127.00	115.00	115.00	115.00	116.00	114.00	114.00	115.00	161.00	218.00	218.00	210.00	202.00	196.00	191.00	194.00	199.00	208.00	222.00	285.00	317.00	360.00	356.00	352.00	375.00	412.00	462.00	492.00	579.00	616.00	668.00	729.00	617.00	564.00	508.00	458.00	451.00	566.00	643.00	701.00	748.00	769.00	781.00	710.00	607.00	542.00	497.00	497.00	448.00	394.00	472.00	532.00	538.00	447.00	402.00	342.00	348.00	359.00	353.00	405.00	461.00	526.00	583.00	608.00	574.00	622.00	668.00	681.00	555.00	474.00	387.00	319.00	301.00	334.00	366.00	316.00	247.00	218.00	252.00	284.00	313.00	320.00	269.00	242.00	219.00	236.00	293.00	307.00	296.00	287.00	273.00	242.00	264.00	249.00	255.00	158.00	153.00	168.00	206.00	209.00	231.00	217.00	220.00	280.00
174.00	171.00	170.00	172.00	175.00	177.00	180.00	183.00	186.00	187.00	190.00	191.00	194.00	201.00	223.00	239.00	272.00	309.00	304.00	292.00	287.00	285.00	289.00	333.00	362.00	364.00	355.00	391.00	412.00	438.00	466.00	496.00	612.00	624.00	597.00	560.00	480.00	384.00	356.00	401.00	433.00	354.00	328.00	344.00	351.00	307.00	274.00	249.00	222.00	216.00	208.00	205.00	201.00	200.00	196.00	195.00	194.00	191.00	187.00	188.00	189.00	191.00	189.00	185.00	184.00	184.00	180.00	182.00	185.00	185.00	185.00	185.00	185.00	184.00	187.00	190.00	191.00	192.00	191.00	195.00	195.00	200.00	200.00	199.00	199.00	198.00	200.00	203.00	208.00	212.00	214.00	215.00	218.00	217.00	222.00	230.00	231.00	233.00	233.00	237.00	240.00	244.00	250.00	260.00	272.00	270.00	266.00	264.00	259.00	259.00	257.00	260.00	269.00	295.00	316.00	339.00	356.00	406.00	418.00	407.00	401.00	420.00	402.00	399.00	412.00	441.00	520.00	552.00	478.00	379.00	273.00	209.00	194.00	184.00	175.00	166.00	156.00	149.00	144.00	140.00	138.00	134.00	136.00	135.00	144.00	147.00	151.00	150.00	124.00	119.00	119.00	119.00	116.00	117.00	117.00	117.00	116.00	116.00	119.00	149.00	178.00	189.00	190.00	184.00	182.00	179.00	190.00	204.00	224.00	234.00	251.00	302.00	338.00	379.00	385.00	396.00	422.00	449.00	461.00	471.00	520.00	583.00	650.00	668.00	486.00	444.00	430.00	460.00	506.00	606.00	690.00	764.00	783.00	641.00	596.00	597.00	567.00	518.00	420.00	390.00	376.00	360.00	406.00	447.00	442.00	384.00	367.00	313.00	319.00	349.00	381.00	471.00	520.00	562.00	589.00	598.00	448.00	443.00	483.00	512.00	488.00	456.00	413.00	335.00	283.00	244.00	242.00	237.00	223.00	198.00	233.00	256.00	265.00	301.00	251.00	222.00	223.00	250.00	317.00	359.00	363.00	325.00	298.00	321.00	365.00	384.00	365.00	203.00	154.00	147.00	158.00	174.00	254.00	227.00	195.00	206.00
174.00	171.00	170.00	172.00	175.00	177.00	180.00	183.00	186.00	187.00	190.00	191.00	194.00	201.00	223.00	239.00	272.00	309.00	304.00	292.00	287.00	285.00	289.00	333.00	362.00	364.00	355.00	391.00	412.00	438.00	466.00	496.00	612.00	624.00	597.00	560.00	480.00	384.00	356.00	401.00	433.00	354.00	328.00	344.00	351.00	307.00	274.00	249.00	222.00	216.00	208.00	205.00	201.00	200.00	196.00	195.00	194.00	191.00	187.00	188.00	189.00	191.00	189.00	185.00	184.00	184.00	180.00	182.00	185.00	185.00	185.00	185.00	185.00	184.00	187.00	190.00	191.00	192.00	191.00	195.00	195.00	200.00	200.00	199.00	199.00	198.00	200.00	203.00	208.00	212.00	214.00	215.00	218.00	217.00	222.00	230.00	231.00	233.00	233.00	237.00	240.00	244.00	250.00	260.00	272.00	270.00	266.00	264.00	259.00	259.00	257.00	260.00	269.00	295.00	316.00	339.00	356.00	406.00	418.00	407.00	401.00	420.00	402.00	399.00	412.00	441.00	520.00	552.00	478.00	379.00	273.00	209.00	194.00	184.00	175.00	166.00	156.00	149.00	144.00	140.00	138.00	134.00	136.00	135.00	144.00	147.00	151.00	150.00	124.00	119.00	119.00	119.00	116.00	117.00	117.00	117.00	116.00	116.00	119.00	149.00	178.00	189.00	190.00	184.00	182.00	179.00	190.00	204.00	224.00	234.00	251.00	302.00	338.00	379.00	385.00	396.00	422.00	449.00	461.00	471.00	520.00	583.00	650.00	668.00	486.00	444.00	430.00	460.00	506.00	606.00	690.00	764.00	783.00	641.00	596.00	597.00	567.00	518.00	420.00	390.00	376.00	360.00	406.00	447.00	442.00	384.00	367.00	313.00	319.00	349.00	381.00	471.00	520.00	562.00	589.00	598.00	448.00	443.00	483.00	512.00	488.00	456.00	413.00	335.00	283.00	244.00	242.00	237.00	223.00	198.00	233.00	256.00	265.00	301.00	251.00	222.00	223.00	250.00	317.00	359.00	363.00	325.00	298.00	321.00	365.00	384.00	365.00	203.00	154.00	147.00	158.00	174.00	254.00	227.00	195.00	206.00
172.00	172.00	173.00	171.00	176.00	175.00	175.00	181.00	186.00	190.00	192.00	195.00	197.00	202.00	223.00	242.00	316.00	364.00	343.00	310.00	298.00	297.00	299.00	314.00	328.00	364.00	392.00	387.00	401.00	422.00	445.00	483.00	577.00	579.00	538.00	500.00	429.00	434.00	472.00	471.00	438.00	413.00	408.00	388.00	363.00	303.00	272.00	251.00	222.00	214.00	201.00	198.00	199.00	197.00	193.00	189.00	184.00	182.00	184.00	186.00	187.00	187.00	185.00	179.00	179.00	176.00	181.00	183.00	183.00	184.00	185.00	185.00	184.00	188.00	189.00	190.00	192.00	191.00	193.00	195.00	198.00	197.00	199.00	199.00	200.00	200.00	202.00	205.00	206.00	208.00	214.00	216.00	218.00	221.00	221.00	225.00	227.00	228.00	231.00	238.00	245.00	248.00	250.00	254.00	253.00	258.00	261.00	271.00	284.00	284.00	279.00	297.00	324.00	344.00	338.00	344.00	363.00	410.00	433.00	453.00	472.00	510.00	495.00	468.00	446.00	430.00	469.00	453.00	394.00	330.00	240.00	201.00	192.00	185.00	176.00	163.00	153.00	148.00	141.00	137.00	139.00	135.00	130.00	131.00	128.00	126.00	122.00	121.00	119.00	119.00	118.00	113.00	118.00	119.00	118.00	117.00	117.00	160.00	184.00	185.00	176.00	170.00	162.00	173.00	182.00	195.00	215.00	235.00	260.00	280.00	302.00	345.00	363.00	382.00	386.00	397.00	409.00	406.00	423.00	471.00	596.00	621.00	639.00	568.00	407.00	468.00	539.00	609.00	659.00	645.00	651.00	665.00	618.00	553.00	448.00	429.00	416.00	409.00	349.00	338.00	324.00	321.00	363.00	384.00	373.00	329.00	329.00	287.00	289.00	327.00	366.00	462.00	494.00	452.00	435.00	441.00	404.00	354.00	361.00	369.00	404.00	392.00	362.00	335.00	303.00	290.00	274.00	253.00	222.00	182.00	189.00	218.00	265.00	287.00	223.00	205.00	270.00	276.00	291.00	317.00	358.00	381.00	373.00	346.00	353.00	346.00	313.00	189.00	151.00	139.00	142.00	162.00	221.00	222.00	193.00	149.00
172.00	172.00	173.00	171.00	176.00	175.00	175.00	181.00	186.00	190.00	192.00	195.00	197.00	202.00	223.00	242.00	316.00	364.00	343.00	310.00	298.00	297.00	299.00	314.00	328.00	364.00	392.00	387.00	401.00	422.00	445.00	483.00	577.00	579.00	538.00	500.00	429.00	434.00	472.00	471.00	438.00	413.00	408.00	388.00	363.00	303.00	272.00	251.00	222.00	214.00	201.00	198.00	199.00	197.00	193.00	189.00	184.00	182.00	184.00	186.00	187.00	187.00	185.00	179.00	179.00	176.00	181.00	183.00	183.00	184.00	185.00	185.00	184.00	188.00	189.00	190.00	192.00	191.00	193.00	195.00	198.00	197.00	199.00	199.00	200.00	200.00	202.00	205.00	206.00	208.00	214.00	216.00	218.00	221.00	221.00	225.00	227.00	228.00	231.00	238.00	245.00	248.00	250.00	254.00	253.00	258.00	261.00	271.00	284.00	284.00	279.00	297.00	324.00	344.00	338.00	344.00	363.00	410.00	433.00	453.00	472.00	510.00	495.00	468.00	446.00	430.00	469.00	453.00	394.00	330.00	240.00	201.00	192.00	185.00	176.00	163.00	153.00	148.00	141.00	137.00	139.00	135.00	130.00	131.00	128.00	126.00	122.00	121.00	119.00	119.00	118.00	113.00	118.00	119.00	118.00	117.00	117.00	160.00	184.00	185.00	176.00	170.00	162.00	173.00	182.00	195.00	215.00	235.00	260.00	280.00	302.00	345.00	363.00	382.00	386.00	397.00	409.00	406.00	423.00	471.00	596.00	621.00	639.00	568.00	407.00	468.00	539.00	609.00	659.00	645.00	651.00	665.00	618.00	553.00	448.00	429.00	416.00	409.00	349.00	338.00	324.00	321.00	363.00	384.00	373.00	329.00	329.00	287.00	289.00	327.00	366.00	462.00	494.00	452.00	435.00	441.00	404.00	354.00	361.00	369.00	404.00	392.00	362.00	335.00	303.00	290.00	274.00	253.00	222.00	182.00	189.00	218.00	265.00	287.00	223.00	205.00	270.00	276.00	291.00	317.00	358.00	381.00	373.00	346.00	353.00	346.00	313.00	189.00	151.00	139.00	142.00	162.00	221.00	222.00	193.00	149.00
173.00	171.00	174.00	175.00	174.00	173.00	173.00	173.00	174.00	182.00	185.00	188.00	192.00	198.00	214.00	248.00	372.00	413.00	360.00	309.00	289.00	284.00	285.00	295.00	303.00	311.00	338.00	367.00	372.00	395.00	429.00	478.00	574.00	580.00	559.00	531.00	512.00	514.00	514.00	506.00	488.00	420.00	387.00	358.00	331.00	288.00	263.00	244.00	219.00	212.00	199.00	197.00	196.00	194.00	188.00	189.00	189.00	187.00	185.00	184.00	182.00	182.00	182.00	182.00	175.00	174.00	176.00	176.00	179.00	180.00	183.00	183.00	185.00	185.00	187.00	189.00	190.00	193.00	195.00	199.00	197.00	196.00	196.00	198.00	200.00	202.00	206.00	206.00	207.00	208.00	214.00	217.00	219.00	220.00	221.00	222.00	224.00	225.00	225.00	232.00	248.00	251.00	256.00	248.00	299.00	320.00	343.00	359.00	371.00	359.00	340.00	306.00	329.00	406.00	398.00	370.00	369.00	418.00	447.00	469.00	482.00	491.00	475.00	443.00	399.00	352.00	348.00	320.00	280.00	248.00	214.00	194.00	186.00	180.00	173.00	151.00	147.00	144.00	142.00	155.00	159.00	157.00	144.00	136.00	126.00	125.00	126.00	125.00	123.00	120.00	120.00	122.00	119.00	116.00	116.00	116.00	119.00	181.00	176.00	172.00	164.00	158.00	181.00	189.00	200.00	217.00	232.00	247.00	272.00	298.00	330.00	349.00	351.00	369.00	382.00	361.00	381.00	422.00	482.00	553.00	570.00	499.00	468.00	436.00	412.00	484.00	558.00	620.00	648.00	513.00	467.00	460.00	443.00	456.00	418.00	373.00	346.00	324.00	284.00	302.00	337.00	375.00	441.00	450.00	429.00	411.00	411.00	333.00	276.00	278.00	335.00	437.00	406.00	344.00	327.00	365.00	370.00	330.00	310.00	329.00	400.00	420.00	406.00	408.00	411.00	355.00	314.00	280.00	238.00	170.00	169.00	207.00	261.00	308.00	207.00	187.00	225.00	233.00	331.00	351.00	368.00	360.00	322.00	233.00	201.00	192.00	178.00	139.00	134.00	133.00	132.00	131.00	131.00	127.00	125.00	124.00
173.00	171.00	174.00	175.00	174.00	173.00	173.00	173.00	174.00	182.00	185.00	188.00	192.00	198.00	214.00	248.00	372.00	413.00	360.00	309.00	289.00	284.00	285.00	295.00	303.00	311.00	338.00	367.00	372.00	395.00	429.00	478.00	574.00	580.00	559.00	531.00	512.00	514.00	514.00	506.00	488.00	420.00	387.00	358.00	331.00	288.00	263.00	244.00	219.00	212.00	199.00	197.00	196.00	194.00	188.00	189.00	189.00	187.00	185.00	184.00	182.00	182.00	182.00	182.00	175.00	174.00	176.00	176.00	179.00	180.00	183.00	183.00	185.00	185.00	187.00	189.00	190.00	193.00	195.00	199.00	197.00	196.00	196.00	198.00	200.00	202.00	206.00	206.00	207.00	208.00	214.00	217.00	219.00	220.00	221.00	222.00	224.00	225.00	225.00	232.00	248.00	251.00	256.00	248.00	299.00	320.00	343.00	359.00	371.00	359.00	340.00	306.00	329.00	406.00	398.00	370.00	369.00	418.00	447.00	469.00	482.00	491.00	475.00	443.00	399.00	352.00	348.00	320.00	280.00	248.00	214.00	194.00	186.00	180.00	173.00	151.00	147.00	144.00	142.00	155.00	159.00	157.00	144.00	136.00	126.00	125.00	126.00	125.00	123.00	120.00	120.00	122.00	119.00	116.00	116.00	116.00	119.00	181.00	176.00	172.00	164.00	158.00	181.00	189.00	200.00	217.00	232.00	247.00	272.00	298.00	330.00	349.00	351.00	369.00	382.00	361.00	381.00	422.00	482.00	553.00	570.00	499.00	468.00	436.00	412.00	484.00	558.00	620.00	648.00	513.00	467.00	460.00	443.00	456.00	418.00	373.00	346.00	324.00	284.00	302.00	337.00	375.00	441.00	450.00	429.00	411.00	411.00	333.00	276.00	278.00	335.00	437.00	406.00	344.00	327.00	365.00	370.00	330.00	310.00	329.00	400.00	420.00	406.00	408.00	411.00	355.00	314.00	280.00	238.00	170.00	169.00	207.00	261.00	308.00	207.00	187.00	225.00	233.00	331.00	351.00	368.00	360.00	322.00	233.00	201.00	192.00	178.00	139.00	134.00	133.00	132.00	131.00	131.00	127.00	125.00	124.00
170.00	173.00	169.00	175.00	174.00	172.00	173.00	174.00	173.00	176.00	177.00	180.00	184.00	190.00	215.00	261.00	361.00	364.00	316.00	285.00	262.00	261.00	263.00	275.00	282.00	290.00	302.00	346.00	347.00	381.00	428.00	470.00	515.00	514.00	489.00	455.00	432.00	466.00	472.00	470.00	460.00	402.00	367.00	344.00	323.00	275.00	256.00	240.00	220.00	212.00	202.00	197.00	194.00	192.00	187.00	184.00	182.00	180.00	181.00	181.00	180.00	181.00	183.00	181.00	175.00	173.00	176.00	175.00	177.00	178.00	178.00	179.00	183.00	185.00	185.00	187.00	189.00	193.00	193.00	195.00	196.00	198.00	199.00	198.00	201.00	201.00	202.00	203.00	204.00	207.00	213.00	214.00	213.00	215.00	216.00	222.00	222.00	228.00	234.00	235.00	234.00	235.00	244.00	261.00	323.00	353.00	374.00	395.00	435.00	437.00	417.00	342.00	332.00	385.00	412.00	417.00	413.00	429.00	448.00	467.00	466.00	399.00	372.00	335.00	303.00	278.00	250.00	233.00	215.00	210.00	192.00	173.00	166.00	163.00	159.00	150.00	148.00	147.00	152.00	151.00	148.00	139.00	127.00	127.00	126.00	127.00	128.00	127.00	126.00	128.00	125.00	123.00	123.00	120.00	116.00	113.00	117.00	155.00	149.00	148.00	167.00	196.00	233.00	225.00	206.00	208.00	245.00	261.00	284.00	306.00	317.00	299.00	315.00	347.00	393.00	337.00	354.00	420.00	504.00	553.00	436.00	378.00	346.00	348.00	463.00	453.00	472.00	509.00	534.00	479.00	432.00	383.00	358.00	352.00	339.00	330.00	308.00	284.00	265.00	289.00	313.00	354.00	477.00	504.00	483.00	466.00	427.00	317.00	266.00	250.00	297.00	359.00	323.00	288.00	288.00	317.00	399.00	340.00	286.00	289.00	379.00	430.00	425.00	373.00	355.00	296.00	307.00	284.00	244.00	186.00	169.00	180.00	231.00	290.00	196.00	165.00	247.00	296.00	302.00	261.00	226.00	213.00	198.00	163.00	147.00	141.00	133.00	129.00	128.00	128.00	127.00	125.00	122.00	119.00	117.00	115.00
171.00	165.00	174.00	169.00	174.00	175.00	174.00	173.00	173.00	173.00	175.00	178.00	183.00	185.00	197.00	215.00	266.00	257.00	231.00	232.00	235.00	243.00	248.00	260.00	267.00	272.00	277.00	307.00	326.00	352.00	390.00	428.00	457.00	457.00	445.00	419.00	350.00	387.00	405.00	415.00	415.00	382.00	358.00	343.00	329.00	288.00	267.00	252.00	224.00	215.00	199.00	196.00	191.00	188.00	185.00	180.00	176.00	172.00	173.00	179.00	180.00	180.00	179.00	173.00	177.00	181.00	183.00	184.00	176.00	176.00	178.00	179.00	176.00	177.00	179.00	181.00	181.00	183.00	184.00	187.00	189.00	194.00	195.00	197.00	199.00	201.00	209.00	212.00	214.00	218.00	224.00	224.00	225.00	226.00	231.00	236.00	237.00	239.00	241.00	249.00	264.00	269.00	263.00	265.00	308.00	333.00	359.00	387.00	433.00	438.00	423.00	377.00	359.00	391.00	424.00	455.00	469.00	458.00	437.00	413.00	381.00	296.00	274.00	265.00	249.00	238.00	226.00	221.00	213.00	202.00	183.00	170.00	161.00	153.00	150.00	146.00	143.00	138.00	132.00	128.00	127.00	126.00	126.00	126.00	125.00	127.00	122.00	121.00	126.00	125.00	125.00	124.00	125.00	118.00	121.00	121.00	125.00	158.00	186.00	210.00	230.00	245.00	254.00	247.00	224.00	215.00	241.00	265.00	285.00	294.00	275.00	290.00	323.00	368.00	419.00	364.00	322.00	342.00	402.00	406.00	318.00	309.00	338.00	401.00	568.00	562.00	558.00	549.00	507.00	407.00	405.00	421.00	394.00	297.00	276.00	268.00	261.00	254.00	244.00	266.00	291.00	313.00	383.00	384.00	367.00	325.00	312.00	258.00	231.00	231.00	284.00	358.00	319.00	272.00	270.00	302.00	372.00	336.00	278.00	261.00	362.00	429.00	454.00	404.00	344.00	288.00	248.00	231.00	218.00	181.00	165.00	160.00	188.00	231.00	194.00	171.00	223.00	232.00	192.00	160.00	147.00	143.00	136.00	130.00	125.00	124.00	125.00	124.00	124.00	123.00	122.00	121.00	119.00	118.00	115.00	113.00
171.00	165.00	174.00	169.00	174.00	175.00	174.00	173.00	173.00	173.00	175.00	178.00	183.00	185.00	197.00	215.00	266.00	257.00	231.00	232.00	235.00	243.00	248.00	260.00	267.00	272.00	277.00	307.00	326.00	352.00	390.00	428.00	457.00	457.00	445.00	419.00	350.00	387.00	405.00	415.00	415.00	382.00	358.00	343.00	329.00	288.00	267.00	252.00	224.00	215.00	199.00	196.00	191.00	188.00	185.00	180.00	176.00	172.00	173.00	179.00	180.00	180.00	179.00	173.00	177.00	181.00	183.00	184.00	176.00	176.00	178.00	179.00	176.00	177.00	179.00	181.00	181.00	183.00	184.00	187.00	189.00	194.00	195.00	197.00	199.00	201.00	209.00	212.00	214.00	218.00	224.00	224.00	225.00	226.00	231.00	236.00	237.00	239.00	241.00	249.00	264.00	269.00	263.00	265.00	308.00	333.00	359.00	387.00	433.00	438.00	423.00	377.00	359.00	391.00	424.00	455.00	469.00	458.00	437.00	413.00	381.00	296.00	274.00	265.00	249.00	238.00	226.00	221.00	213.00	202.00	183.00	170.00	161.00	153.00	150.00	146.00	143.00	138.00	132.00	128.00	127.00	126.00	126.00	126.00	125.00	127.00	122.00	121.00	126.00	125.00	125.00	124.00	125.00	118.00	121.00	121.00	125.00	158.00	186.00	210.00	230.00	245.00	254.00	247.00	224.00	215.00	241.00	265.00	285.00	294.00	275.00	290.00	323.00	368.00	419.00	364.00	322.00	342.00	402.00	406.00	318.00	309.00	338.00	401.00	568.00	562.00	558.00	549.00	507.00	407.00	405.00	421.00	394.00	297.00	276.00	268.00	261.00	254.00	244.00	266.00	291.00	313.00	383.00	384.00	367.00	325.00	312.00	258.00	231.00	231.00	284.00	358.00	319.00	272.00	270.00	302.00	372.00	336.00	278.00	261.00	362.00	429.00	454.00	404.00	344.00	288.00	248.00	231.00	218.00	181.00	165.00	160.00	188.00	231.00	194.00	171.00	223.00	232.00	192.00	160.00	147.00	143.00	136.00	130.00	125.00	124.00	125.00	124.00	124.00	123.00	122.00	121.00	119.00	118.00	115.00	113.00
176.00	173.00	169.00	175.00	168.00	174.00	174.00	173.00	172.00	173.00	174.00	174.00	178.00	180.00	184.00	186.00	217.00	228.00	227.00	231.00	235.00	235.00	234.00	243.00	248.00	255.00	261.00	278.00	291.00	305.00	329.00	356.00	380.00	384.00	381.00	376.00	338.00	324.00	336.00	343.00	338.00	317.00	307.00	297.00	287.00	262.00	248.00	237.00	219.00	212.00	199.00	195.00	191.00	186.00	176.00	174.00	171.00	169.00	171.00	171.00	171.00	171.00	168.00	175.00	182.00	183.00	182.00	183.00	178.00	176.00	177.00	179.00	179.00	180.00	180.00	182.00	182.00	180.00	181.00	185.00	187.00	192.00	197.00	200.00	208.00	214.00	237.00	245.00	251.00	253.00	246.00	251.00	263.00	274.00	279.00	265.00	253.00	248.00	253.00	257.00	273.00	290.00	304.00	303.00	296.00	315.00	342.00	367.00	416.00	424.00	419.00	389.00	374.00	399.00	420.00	440.00	449.00	426.00	391.00	358.00	318.00	238.00	231.00	237.00	232.00	217.00	200.00	195.00	188.00	182.00	170.00	158.00	148.00	144.00	140.00	132.00	129.00	128.00	128.00	125.00	125.00	124.00	126.00	126.00	121.00	120.00	122.00	124.00	124.00	125.00	124.00	124.00	124.00	120.00	126.00	141.00	174.00	187.00	188.00	211.00	225.00	219.00	216.00	229.00	226.00	224.00	267.00	280.00	278.00	252.00	243.00	306.00	344.00	396.00	517.00	438.00	351.00	286.00	275.00	285.00	330.00	370.00	433.00	506.00	612.00	621.00	632.00	625.00	550.00	376.00	323.00	307.00	322.00	294.00	244.00	240.00	233.00	230.00	252.00	287.00	337.00	379.00	340.00	326.00	332.00	331.00	286.00	224.00	216.00	226.00	262.00	354.00	340.00	281.00	245.00	242.00	325.00	294.00	259.00	255.00	320.00	359.00	387.00	406.00	381.00	317.00	258.00	228.00	204.00	174.00	161.00	151.00	150.00	161.00	160.00	148.00	144.00	140.00	131.00	129.00	127.00	124.00	123.00	120.00	119.00	120.00	121.00	128.00	131.00	133.00	131.00	126.00	116.00	115.00	113.00	112.00
176.00	173.00	169.00	175.00	168.00	174.00	174.00	173.00	172.00	173.00	174.00	174.00	178.00	180.00	184.00	186.00	217.00	228.00	227.00	231.00	235.00	235.00	234.00	243.00	248.00	255.00	261.00	278.00	291.00	305.00	329.00	356.00	380.00	384.00	381.00	376.00	338.00	324.00	336.00	343.00	338.00	317.00	307.00	297.00	287.00	262.00	248.00	237.00	219.00	212.00	199.00	195.00	191.00	186.00	176.00	174.00	171.00	169.00	171.00	171.00	171.00	171.00	168.00	175.00	182.00	183.00	182.00	183.00	178.00	176.00	177.00	179.00	179.00	180.00	180.00	182.00	182.00	180.00	181.00	185.00	187.00	192.00	197.00	200.00	208.00	214.00	237.00	245.00	251.00	253.00	246.00	251.00	263.00	274.00	279.00	265.00	253.00	248.00	253.00	257.00	273.00	290.00	304.00	303.00	296.00	315.00	342.00	367.00	416.00	424.00	419.00	389.00	374.00	399.00	420.00	440.00	449.00	426.00	391.00	358.00	318.00	238.00	231.00	237.00	232.00	217.00	200.00	195.00	188.00	182.00	170.00	158.00	148.00	144.00	140.00	132.00	129.00	128.00	128.00	125.00	125.00	124.00	126.00	126.00	121.00	120.00	122.00	124.00	124.00	125.00	124.00	124.00	124.00	120.00	126.00	141.00	174.00	187.00	188.00	211.00	225.00	219.00	216.00	229.00	226.00	224.00	267.00	280.00	278.00	252.00	243.00	306.00	344.00	396.00	517.00	438.00	351.00	286.00	275.00	285.00	330.00	370.00	433.00	506.00	612.00	621.00	632.00	625.00	550.00	376.00	323.00	307.00	322.00	294.00	244.00	240.00	233.00	230.00	252.00	287.00	337.00	379.00	340.00	326.00	332.00	331.00	286.00	224.00	216.00	226.00	262.00	354.00	340.00	281.00	245.00	242.00	325.00	294.00	259.00	255.00	320.00	359.00	387.00	406.00	381.00	317.00	258.00	228.00	204.00	174.00	161.00	151.00	150.00	161.00	160.00	148.00	144.00	140.00	131.00	129.00	127.00	124.00	123.00	120.00	119.00	120.00	121.00	128.00	131.00	133.00	131.00	126.00	116.00	115.00	113.00	112.00
175.00	175.00	169.00	169.00	174.00	173.00	172.00	172.00	172.00	172.00	172.00	171.00	173.00	174.00	175.00	187.00	267.00	312.00	315.00	299.00	277.00	261.00	250.00	242.00	244.00	244.00	245.00	261.00	267.00	276.00	284.00	297.00	339.00	346.00	339.00	331.00	299.00	283.00	285.00	287.00	286.00	273.00	264.00	258.00	253.00	259.00	252.00	240.00	215.00	209.00	196.00	189.00	182.00	175.00	169.00	167.00	168.00	171.00	173.00	173.00	172.00	172.00	170.00	176.00	178.00	180.00	181.00	183.00	177.00	177.00	178.00	179.00	177.00	178.00	180.00	179.00	179.00	182.00	184.00	194.00	199.00	219.00	223.00	237.00	251.00	264.00	283.00	292.00	301.00	318.00	302.00	273.00	284.00	317.00	338.00	309.00	280.00	277.00	296.00	307.00	295.00	297.00	305.00	328.00	330.00	317.00	322.00	343.00	384.00	398.00	398.00	375.00	372.00	384.00	388.00	385.00	374.00	316.00	286.00	265.00	253.00	220.00	210.00	201.00	201.00	200.00	188.00	181.00	173.00	166.00	151.00	137.00	134.00	133.00	131.00	132.00	130.00	129.00	128.00	126.00	125.00	125.00	121.00	121.00	123.00	125.00	130.00	131.00	124.00	124.00	124.00	122.00	119.00	156.00	170.00	182.00	190.00	181.00	173.00	169.00	170.00	177.00	193.00	235.00	261.00	274.00	268.00	275.00	255.00	228.00	254.00	320.00	370.00	426.00	480.00	378.00	313.00	258.00	257.00	296.00	396.00	414.00	394.00	392.00	423.00	429.00	443.00	460.00	454.00	347.00	297.00	257.00	252.00	284.00	250.00	224.00	216.00	225.00	264.00	290.00	325.00	381.00	360.00	315.00	289.00	302.00	278.00	204.00	240.00	274.00	274.00	320.00	346.00	336.00	282.00	230.00	226.00	243.00	270.00	315.00	409.00	410.00	424.00	446.00	424.00	356.00	302.00	260.00	223.00	178.00	162.00	151.00	143.00	140.00	139.00	138.00	135.00	133.00	129.00	127.00	125.00	123.00	122.00	118.00	118.00	119.00	119.00	122.00	119.00	118.00	117.00	115.00	113.00	113.00	112.00	112.00
177.00	175.00	175.00	173.00	167.00	167.00	173.00	172.00	170.00	170.00	169.00	170.00	170.00	171.00	172.00	175.00	246.00	313.00	354.00	330.00	307.00	281.00	264.00	243.00	238.00	238.00	241.00	249.00	256.00	263.00	273.00	279.00	302.00	314.00	326.00	335.00	324.00	286.00	271.00	258.00	254.00	250.00	244.00	237.00	232.00	255.00	260.00	250.00	221.00	207.00	191.00	184.00	179.00	172.00	169.00	170.00	170.00	171.00	172.00	171.00	172.00	173.00	171.00	180.00	182.00	187.00	192.00	191.00	178.00	178.00	179.00	179.00	177.00	178.00	179.00	181.00	185.00	189.00	192.00	204.00	215.00	245.00	259.00	272.00	288.00	308.00	346.00	355.00	364.00	384.00	363.00	316.00	285.00	300.00	337.00	369.00	324.00	296.00	318.00	372.00	341.00	344.00	340.00	349.00	377.00	377.00	371.00	366.00	340.00	306.00	293.00	286.00	286.00	284.00	279.00	273.00	263.00	247.00	240.00	237.00	233.00	211.00	206.00	198.00	189.00	181.00	172.00	166.00	159.00	149.00	139.00	136.00	135.00	134.00	133.00	130.00	129.00	128.00	127.00	127.00	128.00	125.00	127.00	127.00	127.00	126.00	127.00	126.00	126.00	127.00	123.00	119.00	121.00	171.00	160.00	160.00	163.00	152.00	151.00	154.00	163.00	174.00	216.00	285.00	310.00	319.00	267.00	238.00	224.00	215.00	240.00	319.00	362.00	393.00	375.00	303.00	276.00	241.00	279.00	356.00	444.00	401.00	363.00	326.00	322.00	300.00	307.00	329.00	347.00	318.00	286.00	262.00	237.00	229.00	218.00	212.00	219.00	236.00	291.00	306.00	315.00	323.00	333.00	319.00	292.00	235.00	211.00	196.00	236.00	269.00	303.00	394.00	366.00	308.00	238.00	203.00	327.00	373.00	398.00	411.00	350.00	321.00	339.00	333.00	309.00	264.00	202.00	187.00	175.00	142.00	136.00	129.00	124.00	123.00	123.00	126.00	129.00	127.00	127.00	126.00	124.00	121.00	119.00	118.00	117.00	117.00	117.00	117.00	116.00	115.00	115.00	115.00	115.00	114.00	114.00	113.00
177.00	175.00	175.00	173.00	167.00	167.00	173.00	172.00	170.00	170.00	169.00	170.00	170.00	171.00	172.00	175.00	246.00	313.00	354.00	330.00	307.00	281.00	264.00	243.00	238.00	238.00	241.00	249.00	256.00	263.00	273.00	279.00	302.00	314.00	326.00	335.00	324.00	286.00	271.00	258.00	254.00	250.00	244.00	237.00	232.00	255.00	260.00	250.00	221.00	207.00	191.00	184.00	179.00	172.00	169.00	170.00	170.00	171.00	172.00	171.00	172.00	173.00	171.00	180.00	182.00	187.00	192.00	191.00	178.00	178.00	179.00	179.00	177.00	178.00	179.00	181.00	185.00	189.00	192.00	204.00	215.00	245.00	259.00	272.00	288.00	308.00	346.00	355.00	364.00	384.00	363.00	316.00	285.00	300.00	337.00	369.00	324.00	296.00	318.00	372.00	341.00	344.00	340.00	349.00	377.00	377.00	371.00	366.00	340.00	306.00	293.00	286.00	286.00	284.00	279.00	273.00	263.00	247.00	240.00	237.00	233.00	211.00	206.00	198.00	189.00	181.00	172.00	166.00	159.00	149.00	139.00	136.00	135.00	134.00	133.00	130.00	129.00	128.00	127.00	127.00	128.00	125.00	127.00	127.00	127.00	126.00	127.00	126.00	126.00	127.00	123.00	119.00	121.00	171.00	160.00	160.00	163.00	152.00	151.00	154.00	163.00	174.00	216.00	285.00	310.00	319.00	267.00	238.00	224.00	215.00	240.00	319.00	362.00	393.00	375.00	303.00	276.00	241.00	279.00	356.00	444.00	401.00	363.00	326.00	322.00	300.00	307.00	329.00	347.00	318.00	286.00	262.00	237.00	229.00	218.00	212.00	219.00	236.00	291.00	306.00	315.00	323.00	333.00	319.00	292.00	235.00	211.00	196.00	236.00	269.00	303.00	394.00	366.00	308.00	238.00	203.00	327.00	373.00	398.00	411.00	350.00	321.00	339.00	333.00	309.00	264.00	202.00	187.00	175.00	142.00	136.00	129.00	124.00	123.00	123.00	126.00	129.00	127.00	127.00	126.00	124.00	121.00	119.00	118.00	117.00	117.00	117.00	117.00	116.00	115.00	115.00	115.00	115.00	114.00	114.00	113.00
176.00	177.00	176.00	174.00	174.00	169.00	166.00	171.00	171.00	169.00	169.00	168.00	168.00	169.00	169.00	170.00	193.00	248.00	352.00	339.00	314.00	298.00	285.00	258.00	252.00	249.00	246.00	246.00	247.00	252.00	257.00	272.00	303.00	317.00	327.00	339.00	353.00	320.00	304.00	288.00	280.00	272.00	274.00	272.00	261.00	231.00	221.00	224.00	211.00	199.00	188.00	184.00	177.00	173.00	168.00	168.00	168.00	168.00	171.00	171.00	171.00	171.00	171.00	180.00	182.00	188.00	194.00	198.00	182.00	183.00	181.00	179.00	179.00	180.00	183.00	184.00	189.00	199.00	204.00	205.00	208.00	223.00	237.00	254.00	272.00	286.00	319.00	340.00	358.00	380.00	384.00	351.00	331.00	318.00	333.00	420.00	411.00	359.00	328.00	383.00	384.00	389.00	389.00	389.00	412.00	422.00	424.00	419.00	382.00	334.00	284.00	227.00	237.00	242.00	241.00	237.00	232.00	220.00	215.00	211.00	206.00	191.00	186.00	180.00	174.00	171.00	155.00	150.00	145.00	141.00	136.00	136.00	135.00	134.00	133.00	132.00	133.00	135.00	134.00	130.00	124.00	122.00	126.00	128.00	129.00	133.00	132.00	129.00	124.00	122.00	120.00	117.00	132.00	168.00	157.00	148.00	145.00	147.00	152.00	156.00	168.00	179.00	226.00	268.00	290.00	303.00	249.00	211.00	197.00	223.00	264.00	315.00	324.00	325.00	353.00	336.00	263.00	226.00	268.00	329.00	411.00	338.00	285.00	292.00	262.00	243.00	238.00	252.00	272.00	291.00	277.00	268.00	252.00	219.00	201.00	206.00	223.00	242.00	254.00	257.00	270.00	286.00	318.00	299.00	270.00	211.00	185.00	227.00	274.00	316.00	346.00	301.00	251.00	213.00	187.00	179.00	284.00	289.00	276.00	267.00	246.00	220.00	212.00	210.00	208.00	222.00	155.00	147.00	140.00	128.00	123.00	122.00	121.00	121.00	121.00	123.00	125.00	124.00	124.00	122.00	119.00	119.00	118.00	117.00	118.00	118.00	118.00	118.00	117.00	117.00	117.00	117.00	116.00	117.00	116.00	115.00
169.00	167.00	172.00	173.00	171.00	166.00	168.00	164.00	166.00	169.00	168.00	168.00	167.00	165.00	165.00	164.00	168.00	187.00	264.00	298.00	314.00	313.00	306.00	292.00	286.00	280.00	276.00	266.00	265.00	269.00	277.00	285.00	320.00	337.00	353.00	385.00	431.00	410.00	388.00	367.00	353.00	332.00	340.00	356.00	363.00	329.00	286.00	241.00	196.00	192.00	179.00	176.00	175.00	173.00	171.00	173.00	173.00	173.00	171.00	174.00	174.00	176.00	179.00	183.00	188.00	194.00	199.00	199.00	183.00	182.00	181.00	181.00	182.00	187.00	192.00	201.00	208.00	224.00	231.00	234.00	234.00	235.00	237.00	240.00	250.00	260.00	285.00	302.00	319.00	339.00	387.00	395.00	400.00	403.00	408.00	416.00	434.00	415.00	388.00	422.00	410.00	408.00	407.00	404.00	373.00	357.00	341.00	329.00	294.00	271.00	241.00	204.00	204.00	221.00	223.00	216.00	209.00	197.00	190.00	186.00	188.00	177.00	169.00	164.00	158.00	153.00	143.00	138.00	135.00	136.00	137.00	134.00	133.00	133.00	134.00	133.00	135.00	131.00	128.00	128.00	130.00	130.00	132.00	132.00	130.00	128.00	124.00	121.00	122.00	116.00	120.00	128.00	130.00	148.00	149.00	144.00	140.00	143.00	147.00	155.00	161.00	170.00	198.00	257.00	298.00	316.00	242.00	191.00	182.00	222.00	257.00	276.00	279.00	278.00	325.00	289.00	225.00	216.00	265.00	319.00	366.00	324.00	276.00	241.00	221.00	212.00	213.00	238.00	273.00	333.00	314.00	272.00	237.00	208.00	190.00	201.00	219.00	230.00	272.00	300.00	334.00	354.00	311.00	281.00	254.00	196.00	183.00	220.00	256.00	260.00	244.00	260.00	236.00	198.00	173.00	171.00	229.00	212.00	187.00	180.00	178.00	166.00	156.00	146.00	142.00	136.00	134.00	131.00	130.00	127.00	125.00	124.00	123.00	123.00	122.00	121.00	122.00	121.00	119.00	118.00	118.00	117.00	117.00	117.00	117.00	119.00	119.00	118.00	118.00	118.00	118.00	117.00	117.00	117.00	117.00	116.00
169.00	167.00	172.00	173.00	171.00	166.00	168.00	164.00	166.00	169.00	168.00	168.00	167.00	165.00	165.00	164.00	168.00	187.00	264.00	298.00	314.00	313.00	306.00	292.00	286.00	280.00	276.00	266.00	265.00	269.00	277.00	285.00	320.00	337.00	353.00	385.00	431.00	410.00	388.00	367.00	353.00	332.00	340.00	356.00	363.00	329.00	286.00	241.00	196.00	192.00	179.00	176.00	175.00	173.00	171.00	173.00	173.00	173.00	171.00	174.00	174.00	176.00	179.00	183.00	188.00	194.00	199.00	199.00	183.00	182.00	181.00	181.00	182.00	187.00	192.00	201.00	208.00	224.00	231.00	234.00	234.00	235.00	237.00	240.00	250.00	260.00	285.00	302.00	319.00	339.00	387.00	395.00	400.00	403.00	408.00	416.00	434.00	415.00	388.00	422.00	410.00	408.00	407.00	404.00	373.00	357.00	341.00	329.00	294.00	271.00	241.00	204.00	204.00	221.00	223.00	216.00	209.00	197.00	190.00	186.00	188.00	177.00	169.00	164.00	158.00	153.00	143.00	138.00	135.00	136.00	137.00	134.00	133.00	133.00	134.00	133.00	135.00	131.00	128.00	128.00	130.00	130.00	132.00	132.00	130.00	128.00	124.00	121.00	122.00	116.00	120.00	128.00	130.00	148.00	149.00	144.00	140.00	143.00	147.00	155.00	161.00	170.00	198.00	257.00	298.00	316.00	242.00	191.00	182.00	222.00	257.00	276.00	279.00	278.00	325.00	289.00	225.00	216.00	265.00	319.00	366.00	324.00	276.00	241.00	221.00	212.00	213.00	238.00	273.00	333.00	314.00	272.00	237.00	208.00	190.00	201.00	219.00	230.00	272.00	300.00	334.00	354.00	311.00	281.00	254.00	196.00	183.00	220.00	256.00	260.00	244.00	260.00	236.00	198.00	173.00	171.00	229.00	212.00	187.00	180.00	178.00	166.00	156.00	146.00	142.00	136.00	134.00	131.00	130.00	127.00	125.00	124.00	123.00	123.00	122.00	121.00	122.00	121.00	119.00	118.00	118.00	117.00	117.00	117.00	117.00	119.00	119.00	118.00	118.00	118.00	118.00	117.00	117.00	117.00	117.00	116.00
176.00	175.00	166.00	166.00	168.00	166.00	168.00	169.00	166.00	166.00	166.00	166.00	167.00	167.00	167.00	165.00	164.00	170.00	191.00	215.00	241.00	280.00	313.00	333.00	324.00	318.00	318.00	319.00	315.00	310.00	308.00	316.00	341.00	362.00	384.00	410.00	456.00	401.00	351.00	312.00	277.00	258.00	244.00	251.00	251.00	254.00	237.00	213.00	182.00	179.00	177.00	177.00	174.00	168.00	171.00	176.00	176.00	178.00	178.00	175.00	176.00	180.00	182.00	188.00	191.00	198.00	203.00	203.00	199.00	197.00	194.00	190.00	185.00	184.00	191.00	203.00	216.00	241.00	255.00	268.00	269.00	277.00	277.00	281.00	280.00	280.00	301.00	327.00	345.00	368.00	426.00	441.00	462.00	487.00	501.00	496.00	488.00	481.00	446.00	355.00	327.00	309.00	297.00	287.00	263.00	253.00	243.00	235.00	223.00	216.00	211.00	203.00	183.00	201.00	199.00	194.00	185.00	169.00	167.00	174.00	188.00	181.00	167.00	158.00	148.00	142.00	138.00	136.00	136.00	136.00	133.00	134.00	133.00	128.00	130.00	130.00	127.00	129.00	129.00	130.00	131.00	133.00	132.00	131.00	127.00	126.00	120.00	123.00	130.00	129.00	127.00	125.00	124.00	124.00	126.00	128.00	132.00	138.00	143.00	146.00	153.00	162.00	203.00	246.00	256.00	247.00	194.00	171.00	178.00	202.00	228.00	262.00	258.00	247.00	281.00	282.00	215.00	206.00	258.00	313.00	276.00	260.00	245.00	219.00	197.00	192.00	206.00	230.00	248.00	241.00	234.00	227.00	217.00	193.00	182.00	187.00	201.00	214.00	247.00	258.00	276.00	299.00	255.00	227.00	223.00	184.00	170.00	229.00	266.00	255.00	227.00	243.00	254.00	212.00	173.00	175.00	221.00	188.00	165.00	153.00	138.00	133.00	130.00	131.00	130.00	130.00	127.00	126.00	127.00	127.00	127.00	126.00	125.00	123.00	122.00	122.00	121.00	121.00	119.00	118.00	118.00	118.00	117.00	118.00	119.00	119.00	120.00	118.00	118.00	117.00	117.00	119.00	118.00	118.00	118.00	117.00
176.00	175.00	166.00	166.00	168.00	166.00	168.00	169.00	166.00	166.00	166.00	166.00	167.00	167.00	167.00	165.00	164.00	170.00	191.00	215.00	241.00	280.00	313.00	333.00	324.00	318.00	318.00	319.00	315.00	310.00	308.00	316.00	341.00	362.00	384.00	410.00	456.00	401.00	351.00	312.00	277.00	258.00	244.00	251.00	251.00	254.00	237.00	213.00	182.00	179.00	177.00	177.00	174.00	168.00	171.00	176.00	176.00	178.00	178.00	175.00	176.00	180.00	182.00	188.00	191.00	198.00	203.00	203.00	199.00	197.00	194.00	190.00	185.00	184.00	191.00	203.00	216.00	241.00	255.00	268.00	269.00	277.00	277.00	281.00	280.00	280.00	301.00	327.00	345.00	368.00	426.00	441.00	462.00	487.00	501.00	496.00	488.00	481.00	446.00	355.00	327.00	309.00	297.00	287.00	263.00	253.00	243.00	235.00	223.00	216.00	211.00	203.00	183.00	201.00	199.00	194.00	185.00	169.00	167.00	174.00	188.00	181.00	167.00	158.00	148.00	142.00	138.00	136.00	136.00	136.00	133.00	134.00	133.00	128.00	130.00	130.00	127.00	129.00	129.00	130.00	131.00	133.00	132.00	131.00	127.00	126.00	120.00	123.00	130.00	129.00	127.00	125.00	124.00	124.00	126.00	128.00	132.00	138.00	143.00	146.00	153.00	162.00	203.00	246.00	256.00	247.00	194.00	171.00	178.00	202.00	228.00	262.00	258.00	247.00	281.00	282.00	215.00	206.00	258.00	313.00	276.00	260.00	245.00	219.00	197.00	192.00	206.00	230.00	248.00	241.00	234.00	227.00	217.00	193.00	182.00	187.00	201.00	214.00	247.00	258.00	276.00	299.00	255.00	227.00	223.00	184.00	170.00	229.00	266.00	255.00	227.00	243.00	254.00	212.00	173.00	175.00	221.00	188.00	165.00	153.00	138.00	133.00	130.00	131.00	130.00	130.00	127.00	126.00	127.00	127.00	127.00	126.00	125.00	123.00	122.00	122.00	121.00	121.00	119.00	118.00	118.00	118.00	117.00	118.00	119.00	119.00	120.00	118.00	118.00	117.00	117.00	119.00	118.00	118.00	118.00	117.00
187.00	180.00	176.00	174.00	170.00	161.00	168.00	168.00	167.00	166.00	164.00	162.00	165.00	168.00	167.00	165.00	163.00	165.00	174.00	184.00	200.00	224.00	256.00	341.00	353.00	348.00	350.00	382.00	381.00	374.00	368.00	365.00	399.00	391.00	382.00	359.00	327.00	285.00	257.00	226.00	201.00	170.00	171.00	169.00	169.00	172.00	174.00	171.00	171.00	170.00	170.00	165.00	174.00	178.00	176.00	175.00	175.00	176.00	178.00	182.00	182.00	185.00	190.00	198.00	203.00	208.00	214.00	223.00	239.00	241.00	234.00	220.00	195.00	196.00	198.00	200.00	205.00	234.00	250.00	282.00	293.00	314.00	323.00	326.00	325.00	319.00	332.00	365.00	398.00	423.00	504.00	502.00	491.00	468.00	449.00	442.00	450.00	447.00	415.00	312.00	258.00	247.00	240.00	229.00	222.00	218.00	213.00	204.00	194.00	192.00	193.00	190.00	172.00	176.00	171.00	166.00	160.00	154.00	159.00	177.00	205.00	203.00	181.00	162.00	145.00	139.00	137.00	136.00	134.00	134.00	136.00	137.00	131.00	129.00	135.00	130.00	128.00	127.00	129.00	134.00	133.00	131.00	125.00	127.00	129.00	126.00	123.00	132.00	133.00	131.00	131.00	131.00	131.00	134.00	134.00	134.00	132.00	126.00	130.00	136.00	139.00	145.00	180.00	192.00	186.00	174.00	158.00	168.00	189.00	215.00	241.00	255.00	246.00	226.00	242.00	234.00	204.00	182.00	202.00	220.00	211.00	203.00	203.00	194.00	178.00	180.00	185.00	190.00	194.00	200.00	197.00	193.00	195.00	183.00	179.00	183.00	180.00	180.00	183.00	188.00	198.00	213.00	207.00	192.00	177.00	163.00	164.00	244.00	295.00	303.00	268.00	196.00	210.00	186.00	164.00	161.00	156.00	154.00	150.00	144.00	134.00	129.00	126.00	124.00	124.00	123.00	124.00	124.00	124.00	122.00	122.00	122.00	122.00	122.00	123.00	122.00	120.00	119.00	118.00	118.00	119.00	118.00	119.00	119.00	120.00	119.00	121.00	119.00	119.00	118.00	118.00	118.00	118.00	118.00	118.00	118.00
189.00	188.00	184.00	179.00	177.00	172.00	166.00	166.00	169.00	168.00	167.00	166.00	165.00	162.00	162.00	163.00	167.00	167.00	171.00	176.00	185.00	198.00	221.00	300.00	348.00	355.00	356.00	376.00	384.00	392.00	395.00	386.00	371.00	338.00	310.00	282.00	228.00	202.00	185.00	171.00	167.00	184.00	206.00	226.00	230.00	201.00	195.00	197.00	207.00	223.00	230.00	220.00	213.00	202.00	188.00	182.00	181.00	180.00	181.00	184.00	187.00	191.00	193.00	200.00	202.00	208.00	220.00	232.00	280.00	268.00	258.00	247.00	208.00	207.00	222.00	225.00	215.00	225.00	243.00	295.00	323.00	349.00	364.00	373.00	374.00	364.00	388.00	422.00	469.00	508.00	524.00	508.00	461.00	412.00	363.00	344.00	346.00	331.00	301.00	256.00	228.00	220.00	214.00	212.00	204.00	201.00	201.00	195.00	179.00	172.00	168.00	169.00	168.00	141.00	150.00	146.00	137.00	133.00	133.00	143.00	171.00	224.00	183.00	155.00	140.00	135.00	136.00	136.00	135.00	133.00	133.00	130.00	132.00	134.00	131.00	129.00	131.00	131.00	130.00	130.00	127.00	125.00	125.00	127.00	125.00	131.00	132.00	132.00	132.00	133.00	133.00	132.00	135.00	136.00	133.00	133.00	134.00	136.00	134.00	129.00	132.00	130.00	138.00	159.00	163.00	160.00	162.00	170.00	182.00	197.00	204.00	211.00	205.00	198.00	220.00	194.00	182.00	175.00	175.00	180.00	184.00	183.00	180.00	177.00	169.00	176.00	190.00	206.00	212.00	202.00	195.00	184.00	175.00	169.00	178.00	179.00	178.00	173.00	163.00	161.00	160.00	159.00	161.00	161.00	160.00	150.00	150.00	172.00	181.00	185.00	184.00	163.00	161.00	157.00	150.00	145.00	141.00	138.00	137.00	137.00	131.00	128.00	127.00	127.00	126.00	124.00	122.00	122.00	121.00	121.00	121.00	121.00	121.00	122.00	123.00	123.00	121.00	120.00	119.00	120.00	120.00	120.00	120.00	120.00	120.00	120.00	121.00	120.00	120.00	120.00	119.00	119.00	118.00	119.00	119.00	119.00
189.00	188.00	184.00	179.00	177.00	172.00	166.00	166.00	169.00	168.00	167.00	166.00	165.00	162.00	162.00	163.00	167.00	167.00	171.00	176.00	185.00	198.00	221.00	300.00	348.00	355.00	356.00	376.00	384.00	392.00	395.00	386.00	371.00	338.00	310.00	282.00	228.00	202.00	185.00	171.00	167.00	184.00	206.00	226.00	230.00	201.00	195.00	197.00	207.00	223.00	230.00	220.00	213.00	202.00	188.00	182.00	181.00	180.00	181.00	184.00	187.00	191.00	193.00	200.00	202.00	208.00	220.00	232.00	280.00	268.00	258.00	247.00	208.00	207.00	222.00	225.00	215.00	225.00	243.00	295.00	323.00	349.00	364.00	373.00	374.00	364.00	388.00	422.00	469.00	508.00	524.00	508.00	461.00	412.00	363.00	344.00	346.00	331.00	301.00	256.00	228.00	220.00	214.00	212.00	204.00	201.00	201.00	195.00	179.00	172.00	168.00	169.00	168.00	141.00	150.00	146.00	137.00	133.00	133.00	143.00	171.00	224.00	183.00	155.00	140.00	135.00	136.00	136.00	135.00	133.00	133.00	130.00	132.00	134.00	131.00	129.00	131.00	131.00	130.00	130.00	127.00	125.00	125.00	127.00	125.00	131.00	132.00	132.00	132.00	133.00	133.00	132.00	135.00	136.00	133.00	133.00	134.00	136.00	134.00	129.00	132.00	130.00	138.00	159.00	163.00	160.00	162.00	170.00	182.00	197.00	204.00	211.00	205.00	198.00	220.00	194.00	182.00	175.00	175.00	180.00	184.00	183.00	180.00	177.00	169.00	176.00	190.00	206.00	212.00	202.00	195.00	184.00	175.00	169.00	178.00	179.00	178.00	173.00	163.00	161.00	160.00	159.00	161.00	161.00	160.00	150.00	150.00	172.00	181.00	185.00	184.00	163.00	161.00	157.00	150.00	145.00	141.00	138.00	137.00	137.00	131.00	128.00	127.00	127.00	126.00	124.00	122.00	122.00	121.00	121.00	121.00	121.00	121.00	122.00	123.00	123.00	121.00	120.00	119.00	120.00	120.00	120.00	120.00	120.00	120.00	120.00	121.00	120.00	120.00	120.00	119.00	119.00	118.00	119.00	119.00	119.00
189.00	188.00	185.00	184.00	182.00	173.00	172.00	170.00	168.00	167.00	166.00	170.00	168.00	167.00	166.00	165.00	165.00	164.00	169.00	174.00	178.00	187.00	206.00	278.00	315.00	321.00	315.00	329.00	337.00	336.00	322.00	305.00	271.00	254.00	232.00	207.00	177.00	170.00	164.00	161.00	176.00	212.00	239.00	267.00	298.00	305.00	294.00	284.00	275.00	272.00	260.00	238.00	220.00	210.00	191.00	185.00	185.00	186.00	187.00	194.00	196.00	199.00	203.00	208.00	211.00	214.00	222.00	235.00	294.00	300.00	294.00	282.00	223.00	229.00	259.00	274.00	253.00	231.00	244.00	303.00	338.00	405.00	429.00	432.00	431.00	417.00	383.00	383.00	417.00	456.00	421.00	381.00	343.00	308.00	286.00	259.00	254.00	244.00	238.00	220.00	207.00	206.00	201.00	195.00	198.00	193.00	186.00	180.00	167.00	161.00	155.00	140.00	135.00	130.00	133.00	134.00	135.00	134.00	134.00	134.00	134.00	131.00	131.00	131.00	129.00	130.00	129.00	128.00	129.00	133.00	133.00	130.00	129.00	129.00	129.00	131.00	131.00	129.00	129.00	125.00	124.00	129.00	132.00	133.00	135.00	133.00	135.00	139.00	136.00	134.00	135.00	134.00	135.00	141.00	141.00	141.00	137.00	137.00	137.00	138.00	136.00	136.00	127.00	143.00	148.00	152.00	151.00	154.00	157.00	160.00	169.00	182.00	181.00	180.00	211.00	194.00	174.00	165.00	163.00	165.00	176.00	174.00	170.00	164.00	165.00	165.00	170.00	174.00	172.00	172.00	170.00	164.00	162.00	177.00	165.00	159.00	156.00	154.00	153.00	154.00	156.00	153.00	152.00	151.00	149.00	144.00	144.00	145.00	143.00	140.00	137.00	135.00	135.00	135.00	136.00	135.00	132.00	132.00	131.00	130.00	129.00	129.00	127.00	125.00	125.00	125.00	124.00	124.00	124.00	123.00	123.00	122.00	121.00	120.00	118.00	118.00	120.00	119.00	120.00	120.00	120.00	120.00	120.00	120.00	121.00	121.00	121.00	120.00	120.00	120.00	120.00	119.00	119.00	119.00	119.00	120.00
192.00	189.00	186.00	182.00	182.00	179.00	178.00	171.00	168.00	163.00	163.00	161.00	164.00	166.00	169.00	170.00	169.00	168.00	165.00	177.00	183.00	193.00	205.00	251.00	273.00	281.00	274.00	271.00	269.00	268.00	261.00	249.00	220.00	203.00	187.00	173.00	161.00	170.00	180.00	191.00	205.00	238.00	262.00	286.00	326.00	367.00	360.00	344.00	294.00	275.00	263.00	256.00	241.00	227.00	202.00	196.00	193.00	194.00	203.00	223.00	228.00	226.00	225.00	222.00	218.00	216.00	227.00	247.00	306.00	321.00	319.00	300.00	247.00	268.00	297.00	287.00	275.00	265.00	257.00	277.00	310.00	393.00	434.00	450.00	444.00	404.00	316.00	293.00	290.00	288.00	269.00	258.00	247.00	236.00	224.00	210.00	209.00	212.00	208.00	204.00	195.00	192.00	185.00	178.00	191.00	186.00	179.00	170.00	148.00	137.00	135.00	132.00	130.00	136.00	137.00	138.00	137.00	136.00	134.00	134.00	135.00	134.00	133.00	131.00	131.00	130.00	129.00	129.00	128.00	128.00	129.00	130.00	130.00	129.00	129.00	127.00	129.00	130.00	131.00	135.00	134.00	134.00	135.00	136.00	139.00	144.00	146.00	148.00	137.00	135.00	134.00	134.00	136.00	140.00	140.00	140.00	141.00	137.00	137.00	136.00	138.00	138.00	134.00	139.00	140.00	141.00	144.00	144.00	149.00	148.00	146.00	154.00	159.00	162.00	172.00	164.00	161.00	160.00	158.00	155.00	154.00	154.00	154.00	155.00	153.00	153.00	152.00	152.00	152.00	151.00	153.00	153.00	156.00	158.00	156.00	154.00	153.00	149.00	148.00	148.00	149.00	150.00	149.00	150.00	151.00	142.00	138.00	136.00	135.00	135.00	132.00	131.00	130.00	130.00	129.00	129.00	128.00	128.00	126.00	125.00	124.00	124.00	125.00	124.00	123.00	124.00	124.00	124.00	124.00	122.00	121.00	120.00	120.00	121.00	122.00	122.00	121.00	121.00	122.00	122.00	122.00	121.00	121.00	121.00	121.00	121.00	121.00	121.00	121.00	120.00	121.00	121.00	121.00	121.00	121.00	121.00
192.00	189.00	186.00	182.00	182.00	179.00	178.00	171.00	168.00	163.00	163.00	161.00	164.00	166.00	169.00	170.00	169.00	168.00	165.00	177.00	183.00	193.00	205.00	251.00	273.00	281.00	274.00	271.00	269.00	268.00	261.00	249.00	220.00	203.00	187.00	173.00	161.00	170.00	180.00	191.00	205.00	238.00	262.00	286.00	326.00	367.00	360.00	344.00	294.00	275.00	263.00	256.00	241.00	227.00	202.00	196.00	193.00	194.00	203.00	223.00	228.00	226.00	225.00	222.00	218.00	216.00	227.00	247.00	306.00	321.00	319.00	300.00	247.00	268.00	297.00	287.00	275.00	265.00	257.00	277.00	310.00	393.00	434.00	450.00	444.00	404.00	316.00	293.00	290.00	288.00	269.00	258.00	247.00	236.00	224.00	210.00	209.00	212.00	208.00	204.00	195.00	192.00	185.00	178.00	191.00	186.00	179.00	170.00	148.00	137.00	135.00	132.00	130.00	136.00	137.00	138.00	137.00	136.00	134.00	134.00	135.00	134.00	133.00	131.00	131.00	130.00	129.00	129.00	128.00	128.00	129.00	130.00	130.00	129.00	129.00	127.00	129.00	130.00	131.00	135.00	134.00	134.00	135.00	136.00	139.00	144.00	146.00	148.00	137.00	135.00	134.00	134.00	136.00	140.00	140.00	140.00	141.00	137.00	137.00	136.00	138.00	138.00	134.00	139.00	140.00	141.00	144.00	144.00	149.00	148.00	146.00	154.00	159.00	162.00	172.00	164.00	161.00	160.00	158.00	155.00	154.00	154.00	154.00	155.00	153.00	153.00	152.00	152.00	152.00	151.00	153.00	153.00	156.00	158.00	156.00	154.00	153.00	149.00	148.00	148.00	149.00	150.00	149.00	150.00	151.00	142.00	138.00	136.00	135.00	135.00	132.00	131.00	130.00	130.00	129.00	129.00	128.00	128.00	126.00	125.00	124.00	124.00	125.00	124.00	123.00	124.00	124.00	124.00	124.00	122.00	121.00	120.00	120.00	121.00	122.00	122.00	121.00	121.00	122.00	122.00	122.00	121.00	121.00	121.00	121.00	121.00	121.00	121.00	121.00	120.00	121.00	121.00	121.00	121.00	121.00	121.00
189.00	189.00	187.00	186.00	184.00	180.00	178.00	177.00	175.00	169.00	166.00	165.00	164.00	159.00	162.00	161.00	164.00	166.00	164.00	189.00	216.00	235.00	246.00	271.00	275.00	261.00	239.00	217.00	219.00	214.00	209.00	202.00	189.00	183.00	180.00	172.00	165.00	177.00	192.00	205.00	224.00	261.00	288.00	320.00	361.00	385.00	364.00	339.00	304.00	281.00	276.00	279.00	267.00	246.00	205.00	201.00	200.00	207.00	243.00	266.00	267.00	253.00	242.00	241.00	231.00	226.00	231.00	249.00	343.00	355.00	344.00	315.00	282.00	309.00	323.00	313.00	317.00	319.00	301.00	306.00	303.00	333.00	358.00	371.00	342.00	295.00	232.00	221.00	216.00	214.00	207.00	206.00	205.00	202.00	198.00	181.00	183.00	185.00	185.00	184.00	172.00	169.00	155.00	143.00	144.00	145.00	138.00	138.00	135.00	133.00	132.00	131.00	133.00	135.00	133.00	132.00	133.00	132.00	133.00	132.00	131.00	130.00	131.00	132.00	132.00	133.00	134.00	133.00	132.00	129.00	127.00	125.00	124.00	126.00	124.00	130.00	131.00	132.00	132.00	134.00	135.00	131.00	136.00	138.00	150.00	152.00	150.00	142.00	138.00	136.00	136.00	136.00	137.00	140.00	141.00	141.00	141.00	140.00	141.00	142.00	140.00	139.00	130.00	139.00	137.00	140.00	141.00	142.00	141.00	141.00	141.00	143.00	146.00	148.00	155.00	156.00	157.00	158.00	157.00	151.00	152.00	152.00	153.00	152.00	152.00	150.00	149.00	149.00	150.00	151.00	153.00	153.00	151.00	147.00	145.00	144.00	142.00	142.00	139.00	139.00	139.00	139.00	138.00	138.00	137.00	134.00	134.00	133.00	132.00	131.00	132.00	129.00	129.00	129.00	129.00	128.00	128.00	127.00	127.00	126.00	126.00	124.00	124.00	125.00	125.00	125.00	126.00	126.00	125.00	125.00	125.00	125.00	125.00	125.00	124.00	123.00	123.00	123.00	124.00	123.00	123.00	123.00	123.00	123.00	123.00	123.00	123.00	123.00	122.00	122.00	122.00	122.00	122.00	122.00	121.00	121.00
189.00	189.00	187.00	186.00	184.00	180.00	178.00	177.00	175.00	169.00	166.00	165.00	164.00	159.00	162.00	161.00	164.00	166.00	164.00	189.00	216.00	235.00	246.00	271.00	275.00	261.00	239.00	217.00	219.00	214.00	209.00	202.00	189.00	183.00	180.00	172.00	165.00	177.00	192.00	205.00	224.00	261.00	288.00	320.00	361.00	385.00	364.00	339.00	304.00	281.00	276.00	279.00	267.00	246.00	205.00	201.00	200.00	207.00	243.00	266.00	267.00	253.00	242.00	241.00	231.00	226.00	231.00	249.00	343.00	355.00	344.00	315.00	282.00	309.00	323.00	313.00	317.00	319.00	301.00	306.00	303.00	333.00	358.00	371.00	342.00	295.00	232.00	221.00	216.00	214.00	207.00	206.00	205.00	202.00	198.00	181.00	183.00	185.00	185.00	184.00	172.00	169.00	155.00	143.00	144.00	145.00	138.00	138.00	135.00	133.00	132.00	131.00	133.00	135.00	133.00	132.00	133.00	132.00	133.00	132.00	131.00	130.00	131.00	132.00	132.00	133.00	134.00	133.00	132.00	129.00	127.00	125.00	124.00	126.00	124.00	130.00	131.00	132.00	132.00	134.00	135.00	131.00	136.00	138.00	150.00	152.00	150.00	142.00	138.00	136.00	136.00	136.00	137.00	140.00	141.00	141.00	141.00	140.00	141.00	142.00	140.00	139.00	130.00	139.00	137.00	140.00	141.00	142.00	141.00	141.00	141.00	143.00	146.00	148.00	155.00	156.00	157.00	158.00	157.00	151.00	152.00	152.00	153.00	152.00	152.00	150.00	149.00	149.00	150.00	151.00	153.00	153.00	151.00	147.00	145.00	144.00	142.00	142.00	139.00	139.00	139.00	139.00	138.00	138.00	137.00	134.00	134.00	133.00	132.00	131.00	132.00	129.00	129.00	129.00	129.00	128.00	128.00	127.00	127.00	126.00	126.00	124.00	124.00	125.00	125.00	125.00	126.00	126.00	125.00	125.00	125.00	125.00	125.00	125.00	124.00	123.00	123.00	123.00	124.00	123.00	123.00	123.00	123.00	123.00	123.00	123.00	123.00	123.00	122.00	122.00	122.00	122.00	122.00	122.00	121.00	121.00
192.00	191.00	190.00	185.00	183.00	178.00	178.00	177.00	177.00	173.00	174.00	173.00	171.00	168.00	159.00	160.00	160.00	162.00	163.00	179.00	218.00	232.00	227.00	218.00	214.00	211.00	208.00	192.00	186.00	185.00	184.00	178.00	172.00	168.00	165.00	160.00	159.00	172.00	189.00	220.00	257.00	283.00	301.00	336.00	382.00	410.00	386.00	359.00	320.00	303.00	268.00	259.00	257.00	261.00	217.00	206.00	207.00	215.00	251.00	299.00	305.00	285.00	269.00	275.00	260.00	244.00	243.00	253.00	312.00	343.00	355.00	345.00	343.00	354.00	354.00	352.00	357.00	349.00	332.00	286.00	269.00	233.00	219.00	207.00	201.00	192.00	176.00	174.00	173.00	174.00	168.00	167.00	166.00	166.00	163.00	149.00	143.00	142.00	143.00	140.00	138.00	138.00	139.00	140.00	140.00	138.00	138.00	137.00	137.00	137.00	138.00	136.00	135.00	133.00	132.00	131.00	130.00	131.00	132.00	131.00	131.00	128.00	129.00	130.00	129.00	128.00	128.00	127.00	127.00	127.00	129.00	137.00	135.00	134.00	126.00	132.00	133.00	132.00	133.00	133.00	133.00	127.00	136.00	138.00	149.00	148.00	143.00	140.00	138.00	139.00	139.00	140.00	140.00	140.00	139.00	142.00	143.00	143.00	144.00	145.00	145.00	143.00	135.00	141.00	143.00	143.00	143.00	142.00	142.00	141.00	140.00	142.00	143.00	146.00	148.00	150.00	151.00	152.00	152.00	152.00	151.00	150.00	149.00	148.00	150.00	150.00	149.00	149.00	149.00	147.00	146.00	146.00	148.00	147.00	145.00	142.00	141.00	140.00	139.00	136.00	136.00	135.00	136.00	136.00	136.00	135.00	134.00	132.00	133.00	132.00	131.00	130.00	130.00	129.00	128.00	129.00	129.00	128.00	128.00	128.00	127.00	129.00	128.00	128.00	128.00	128.00	128.00	128.00	128.00	127.00	126.00	126.00	126.00	125.00	125.00	126.00	126.00	126.00	126.00	125.00	125.00	125.00	124.00	125.00	125.00	125.00	125.00	125.00	124.00	124.00	124.00	124.00	124.00	123.00	123.00	123.00
192.00	191.00	190.00	185.00	183.00	178.00	178.00	177.00	177.00	173.00	174.00	173.00	171.00	168.00	159.00	160.00	160.00	162.00	163.00	179.00	218.00	232.00	227.00	218.00	214.00	211.00	208.00	192.00	186.00	185.00	184.00	178.00	172.00	168.00	165.00	160.00	159.00	172.00	189.00	220.00	257.00	283.00	301.00	336.00	382.00	410.00	386.00	359.00	320.00	303.00	268.00	259.00	257.00	261.00	217.00	206.00	207.00	215.00	251.00	299.00	305.00	285.00	269.00	275.00	260.00	244.00	243.00	253.00	312.00	343.00	355.00	345.00	343.00	354.00	354.00	352.00	357.00	349.00	332.00	286.00	269.00	233.00	219.00	207.00	201.00	192.00	176.00	174.00	173.00	174.00	168.00	167.00	166.00	166.00	163.00	149.00	143.00	142.00	143.00	140.00	138.00	138.00	139.00	140.00	140.00	138.00	138.00	137.00	137.00	137.00	138.00	136.00	135.00	133.00	132.00	131.00	130.00	131.00	132.00	131.00	131.00	128.00	129.00	130.00	129.00	128.00	128.00	127.00	127.00	127.00	129.00	137.00	135.00	134.00	126.00	132.00	133.00	132.00	133.00	133.00	133.00	127.00	136.00	138.00	149.00	148.00	143.00	140.00	138.00	139.00	139.00	140.00	140.00	140.00	139.00	142.00	143.00	143.00	144.00	145.00	145.00	143.00	135.00	141.00	143.00	143.00	143.00	142.00	142.00	141.00	140.00	142.00	143.00	146.00	148.00	150.00	151.00	152.00	152.00	152.00	151.00	150.00	149.00	148.00	150.00	150.00	149.00	149.00	149.00	147.00	146.00	146.00	148.00	147.00	145.00	142.00	141.00	140.00	139.00	136.00	136.00	135.00	136.00	136.00	136.00	135.00	134.00	132.00	133.00	132.00	131.00	130.00	130.00	129.00	128.00	129.00	129.00	128.00	128.00	128.00	127.00	129.00	128.00	128.00	128.00	128.00	128.00	128.00	128.00	127.00	126.00	126.00	126.00	125.00	125.00	126.00	126.00	126.00	126.00	125.00	125.00	125.00	124.00	125.00	125.00	125.00	125.00	125.00	124.00	124.00	124.00	124.00	124.00	123.00	123.00	123.00
194.00	192.00	189.00	188.00	184.00	179.00	179.00	178.00	177.00	177.00	174.00	174.00	174.00	173.00	168.00	162.00	159.00	160.00	160.00	159.00	167.00	179.00	187.00	184.00	175.00	173.00	174.00	177.00	177.00	175.00	173.00	172.00	169.00	161.00	157.00	160.00	161.00	182.00	207.00	240.00	286.00	340.00	353.00	373.00	397.00	439.00	434.00	405.00	344.00	319.00	279.00	263.00	251.00	238.00	223.00	221.00	225.00	229.00	264.00	323.00	345.00	338.00	317.00	305.00	285.00	270.00	267.00	270.00	300.00	330.00	358.00	355.00	363.00	368.00	366.00	349.00	319.00	248.00	218.00	188.00	175.00	172.00	164.00	160.00	153.00	149.00	147.00	147.00	148.00	148.00	145.00	145.00	145.00	146.00	146.00	145.00	143.00	142.00	141.00	141.00	142.00	142.00	141.00	140.00	139.00	139.00	137.00	136.00	137.00	138.00	137.00	136.00	136.00	134.00	133.00	133.00	134.00	133.00	131.00	129.00	130.00	130.00	131.00	131.00	130.00	130.00	132.00	133.00	133.00	135.00	134.00	134.00	134.00	129.00	129.00	141.00	144.00	140.00	134.00	132.00	128.00	130.00	136.00	142.00	145.00	140.00	136.00	135.00	136.00	138.00	140.00	140.00	140.00	141.00	143.00	143.00	145.00	146.00	146.00	145.00	145.00	146.00	139.00	143.00	144.00	145.00	145.00	145.00	143.00	143.00	144.00	143.00	142.00	142.00	143.00	148.00	148.00	148.00	149.00	148.00	148.00	147.00	148.00	147.00	150.00	149.00	148.00	147.00	148.00	147.00	147.00	148.00	148.00	145.00	143.00	142.00	142.00	141.00	140.00	141.00	140.00	140.00	137.00	135.00	134.00	133.00	133.00	133.00	133.00	132.00	132.00	131.00	130.00	130.00	130.00	130.00	130.00	130.00	130.00	130.00	130.00	129.00	129.00	130.00	131.00	131.00	130.00	129.00	129.00	130.00	130.00	130.00	129.00	130.00	129.00	129.00	128.00	127.00	126.00	126.00	127.00	127.00	127.00	126.00	126.00	126.00	126.00	126.00	126.00	126.00	127.00	127.00	126.00	126.00	125.00	124.00
194.00	192.00	189.00	188.00	184.00	179.00	179.00	178.00	177.00	177.00	174.00	174.00	174.00	173.00	168.00	162.00	159.00	160.00	160.00	159.00	167.00	179.00	187.00	184.00	175.00	173.00	174.00	177.00	177.00	175.00	173.00	172.00	169.00	161.00	157.00	160.00	161.00	182.00	207.00	240.00	286.00	340.00	353.00	373.00	397.00	439.00	434.00	405.00	344.00	319.00	279.00	263.00	251.00	238.00	223.00	221.00	225.00	229.00	264.00	323.00	345.00	338.00	317.00	305.00	285.00	270.00	267.00	270.00	300.00	330.00	358.00	355.00	363.00	368.00	366.00	349.00	319.00	248.00	218.00	188.00	175.00	172.00	164.00	160.00	153.00	149.00	147.00	147.00	148.00	148.00	145.00	145.00	145.00	146.00	146.00	145.00	143.00	142.00	141.00	141.00	142.00	142.00	141.00	140.00	139.00	139.00	137.00	136.00	137.00	138.00	137.00	136.00	136.00	134.00	133.00	133.00	134.00	133.00	131.00	129.00	130.00	130.00	131.00	131.00	130.00	130.00	132.00	133.00	133.00	135.00	134.00	134.00	134.00	129.00	129.00	141.00	144.00	140.00	134.00	132.00	128.00	130.00	136.00	142.00	145.00	140.00	136.00	135.00	136.00	138.00	140.00	140.00	140.00	141.00	143.00	143.00	145.00	146.00	146.00	145.00	145.00	146.00	139.00	143.00	144.00	145.00	145.00	145.00	143.00	143.00	144.00	143.00	142.00	142.00	143.00	148.00	148.00	148.00	149.00	148.00	148.00	147.00	148.00	147.00	150.00	149.00	148.00	147.00	148.00	147.00	147.00	148.00	148.00	145.00	143.00	142.00	142.00	141.00	140.00	141.00	140.00	140.00	137.00	135.00	134.00	133.00	133.00	133.00	133.00	132.00	132.00	131.00	130.00	130.00	130.00	130.00	130.00	130.00	130.00	130.00	130.00	129.00	129.00	130.00	131.00	131.00	130.00	129.00	129.00	130.00	130.00	130.00	129.00	130.00	129.00	129.00	128.00	127.00	126.00	126.00	127.00	127.00	127.00	126.00	126.00	126.00	126.00	126.00	126.00	126.00	127.00	127.00	126.00	126.00	125.00	124.00
191.00	189.00	186.00	182.00	184.00	182.00	183.00	182.00	181.00	178.00	178.00	178.00	177.00	178.00	174.00	171.00	163.00	161.00	155.00	157.00	158.00	157.00	156.00	157.00	159.00	160.00	162.00	162.00	162.00	160.00	161.00	162.00	162.00	155.00	160.00	162.00	161.00	171.00	191.00	228.00	272.00	363.00	405.00	432.00	453.00	478.00	475.00	448.00	381.00	351.00	281.00	263.00	258.00	259.00	258.00	260.00	267.00	279.00	298.00	329.00	349.00	358.00	358.00	336.00	321.00	316.00	307.00	298.00	334.00	340.00	342.00	345.00	315.00	293.00	255.00	219.00	192.00	176.00	173.00	168.00	164.00	156.00	154.00	151.00	150.00	150.00	149.00	149.00	148.00	146.00	144.00	144.00	145.00	145.00	146.00	145.00	146.00	146.00	146.00	146.00	144.00	144.00	142.00	142.00	140.00	140.00	140.00	138.00	137.00	137.00	136.00	133.00	133.00	133.00	135.00	135.00	135.00	132.00	133.00	135.00	136.00	138.00	138.00	138.00	137.00	137.00	135.00	135.00	134.00	133.00	133.00	133.00	134.00	140.00	148.00	154.00	150.00	140.00	134.00	128.00	131.00	135.00	140.00	141.00	137.00	137.00	137.00	138.00	136.00	137.00	136.00	137.00	137.00	142.00	143.00	145.00	144.00	144.00	144.00	144.00	145.00	144.00	142.00	142.00	145.00	145.00	146.00	146.00	148.00	146.00	145.00	145.00	145.00	145.00	145.00	144.00	144.00	144.00	143.00	143.00	144.00	147.00	147.00	147.00	146.00	145.00	146.00	148.00	148.00	151.00	151.00	149.00	148.00	146.00	145.00	144.00	145.00	145.00	143.00	141.00	141.00	141.00	139.00	138.00	138.00	137.00	136.00	134.00	134.00	132.00	131.00	131.00	130.00	131.00	132.00	133.00	131.00	131.00	132.00	132.00	132.00	132.00	131.00	132.00	132.00	133.00	132.00	132.00	131.00	133.00	132.00	132.00	132.00	131.00	131.00	131.00	130.00	130.00	129.00	128.00	128.00	127.00	128.00	128.00	129.00	129.00	129.00	129.00	128.00	129.00	129.00	128.00	128.00	128.00	128.00	127.00
191.00	189.00	186.00	182.00	184.00	182.00	183.00	182.00	181.00	178.00	178.00	178.00	177.00	178.00	174.00	171.00	163.00	161.00	155.00	157.00	158.00	157.00	156.00	157.00	159.00	160.00	162.00	162.00	162.00	160.00	161.00	162.00	162.00	155.00	160.00	162.00	161.00	171.00	191.00	228.00	272.00	363.00	405.00	432.00	453.00	478.00	475.00	448.00	381.00	351.00	281.00	263.00	258.00	259.00	258.00	260.00	267.00	279.00	298.00	329.00	349.00	358.00	358.00	336.00	321.00	316.00	307.00	298.00	334.00	340.00	342.00	345.00	315.00	293.00	255.00	219.00	192.00	176.00	173.00	168.00	164.00	156.00	154.00	151.00	150.00	150.00	149.00	149.00	148.00	146.00	144.00	144.00	145.00	145.00	146.00	145.00	146.00	146.00	146.00	146.00	144.00	144.00	142.00	142.00	140.00	140.00	140.00	138.00	137.00	137.00	136.00	133.00	133.00	133.00	135.00	135.00	135.00	132.00	133.00	135.00	136.00	138.00	138.00	138.00	137.00	137.00	135.00	135.00	134.00	133.00	133.00	133.00	134.00	140.00	148.00	154.00	150.00	140.00	134.00	128.00	131.00	135.00	140.00	141.00	137.00	137.00	137.00	138.00	136.00	137.00	136.00	137.00	137.00	142.00	143.00	145.00	144.00	144.00	144.00	144.00	145.00	144.00	142.00	142.00	145.00	145.00	146.00	146.00	148.00	146.00	145.00	145.00	145.00	145.00	145.00	144.00	144.00	144.00	143.00	143.00	144.00	147.00	147.00	147.00	146.00	145.00	146.00	148.00	148.00	151.00	151.00	149.00	148.00	146.00	145.00	144.00	145.00	145.00	143.00	141.00	141.00	141.00	139.00	138.00	138.00	137.00	136.00	134.00	134.00	132.00	131.00	131.00	130.00	131.00	132.00	133.00	131.00	131.00	132.00	132.00	132.00	132.00	131.00	132.00	132.00	133.00	132.00	132.00	131.00	133.00	132.00	132.00	132.00	131.00	131.00	131.00	130.00	130.00	129.00	128.00	128.00	127.00	128.00	128.00	129.00	129.00	129.00	129.00	128.00	129.00	129.00	128.00	128.00	128.00	128.00	127.00
189.00	187.00	187.00	187.00	186.00	185.00	183.00	182.00	181.00	180.00	178.00	180.00	182.00	180.00	176.00	172.00	166.00	165.00	158.00	160.00	160.00	160.00	160.00	157.00	157.00	161.00	160.00	162.00	162.00	162.00	161.00	161.00	160.00	156.00	155.00	158.00	156.00	158.00	165.00	188.00	223.00	328.00	382.00	437.00	479.00	507.00	504.00	483.00	415.00	368.00	310.00	294.00	303.00	316.00	323.00	323.00	327.00	329.00	340.00	357.00	358.00	355.00	350.00	337.00	332.00	323.00	314.00	303.00	305.00	287.00	253.00	218.00	185.00	175.00	170.00	168.00	164.00	162.00	158.00	154.00	153.00	154.00	154.00	154.00	154.00	153.00	151.00	148.00	147.00	150.00	145.00	144.00	143.00	142.00	141.00	144.00	146.00	145.00	144.00	144.00	144.00	144.00	145.00	145.00	143.00	139.00	139.00	141.00	140.00	139.00	138.00	140.00	140.00	138.00	135.00	135.00	136.00	138.00	139.00	139.00	139.00	138.00	138.00	138.00	139.00	139.00	142.00	141.00	137.00	133.00	137.00	150.00	152.00	154.00	152.00	144.00	140.00	137.00	136.00	132.00	133.00	136.00	136.00	136.00	136.00	137.00	138.00	138.00	139.00	139.00	141.00	141.00	141.00	142.00	143.00	141.00	143.00	144.00	146.00	145.00	144.00	146.00	144.00	139.00	147.00	148.00	149.00	150.00	150.00	149.00	147.00	146.00	146.00	147.00	147.00	148.00	147.00	147.00	149.00	147.00	147.00	146.00	145.00	144.00	146.00	147.00	148.00	147.00	148.00	145.00	145.00	146.00	147.00	148.00	150.00	149.00	148.00	146.00	144.00	143.00	142.00	143.00	143.00	142.00	141.00	139.00	139.00	137.00	135.00	135.00	135.00	132.00	132.00	131.00	133.00	133.00	134.00	134.00	135.00	136.00	134.00	133.00	134.00	133.00	133.00	134.00	135.00	134.00	134.00	134.00	134.00	133.00	133.00	132.00	132.00	133.00	140.00	144.00	135.00	132.00	130.00	130.00	130.00	130.00	130.00	130.00	130.00	130.00	130.00	130.00	131.00	132.00	131.00	131.00	130.00	130.00
189.00	187.00	187.00	187.00	186.00	185.00	183.00	182.00	181.00	180.00	178.00	180.00	182.00	180.00	176.00	172.00	166.00	165.00	158.00	160.00	160.00	160.00	160.00	157.00	157.00	161.00	160.00	162.00	162.00	162.00	161.00	161.00	160.00	156.00	155.00	158.00	156.00	158.00	165.00	188.00	223.00	328.00	382.00	437.00	479.00	507.00	504.00	483.00	415.00	368.00	310.00	294.00	303.00	316.00	323.00	323.00	327.00	329.00	340.00	357.00	358.00	355.00	350.00	337.00	332.00	323.00	314.00	303.00	305.00	287.00	253.00	218.00	185.00	175.00	170.00	168.00	164.00	162.00	158.00	154.00	153.00	154.00	154.00	154.00	154.00	153.00	151.00	148.00	147.00	150.00	145.00	144.00	143.00	142.00	141.00	144.00	146.00	145.00	144.00	144.00	144.00	144.00	145.00	145.00	143.00	139.00	139.00	141.00	140.00	139.00	138.00	140.00	140.00	138.00	135.00	135.00	136.00	138.00	139.00	139.00	139.00	138.00	138.00	138.00	139.00	139.00	142.00	141.00	137.00	133.00	137.00	150.00	152.00	154.00	152.00	144.00	140.00	137.00	136.00	132.00	133.00	136.00	136.00	136.00	136.00	137.00	138.00	138.00	139.00	139.00	141.00	141.00	141.00	142.00	143.00	141.00	143.00	144.00	146.00	145.00	144.00	146.00	144.00	139.00	147.00	148.00	149.00	150.00	150.00	149.00	147.00	146.00	146.00	147.00	147.00	148.00	147.00	147.00	149.00	147.00	147.00	146.00	145.00	144.00	146.00	147.00	148.00	147.00	148.00	145.00	145.00	146.00	147.00	148.00	150.00	149.00	148.00	146.00	144.00	143.00	142.00	143.00	143.00	142.00	141.00	139.00	139.00	137.00	135.00	135.00	135.00	132.00	132.00	131.00	133.00	133.00	134.00	134.00	135.00	136.00	134.00	133.00	134.00	133.00	133.00	134.00	135.00	134.00	134.00	134.00	134.00	133.00	133.00	132.00	132.00	133.00	140.00	144.00	135.00	132.00	130.00	130.00	130.00	130.00	130.00	130.00	130.00	130.00	130.00	130.00	131.00	132.00	131.00	131.00	130.00	130.00
202.00	200.00	196.00	193.00	190.00	186.00	185.00	184.00	185.00	184.00	184.00	181.00	178.00	175.00	173.00	171.00	170.00	173.00	170.00	163.00	162.00	160.00	164.00	161.00	159.00	155.00	154.00	158.00	160.00	162.00	163.00	163.00	163.00	161.00	155.00	156.00	154.00	154.00	156.00	158.00	171.00	261.00	310.00	368.00	421.00	460.00	468.00	477.00	438.00	421.00	379.00	362.00	362.00	391.00	390.00	389.00	379.00	371.00	339.00	310.00	298.00	288.00	288.00	278.00	282.00	277.00	273.00	265.00	207.00	182.00	175.00	166.00	158.00	157.00	154.00	155.00	155.00	154.00	154.00	153.00	154.00	155.00	150.00	147.00	148.00	148.00	147.00	149.00	151.00	151.00	152.00	150.00	150.00	150.00	148.00	145.00	144.00	144.00	144.00	142.00	140.00	140.00	141.00	142.00	144.00	147.00	148.00	147.00	146.00	145.00	146.00	148.00	148.00	144.00	142.00	142.00	142.00	142.00	140.00	139.00	138.00	139.00	140.00	141.00	141.00	141.00	135.00	135.00	139.00	145.00	155.00	152.00	149.00	146.00	144.00	142.00	141.00	139.00	139.00	133.00	137.00	138.00	139.00	139.00	141.00	140.00	139.00	139.00	140.00	141.00	140.00	141.00	142.00	144.00	143.00	143.00	143.00	145.00	144.00	145.00	145.00	144.00	146.00	140.00	142.00	146.00	148.00	148.00	149.00	149.00	149.00	149.00	151.00	150.00	149.00	150.00	152.00	152.00	152.00	151.00	148.00	147.00	146.00	145.00	146.00	146.00	146.00	146.00	146.00	146.00	146.00	146.00	147.00	147.00	147.00	147.00	147.00	148.00	149.00	149.00	148.00	147.00	144.00	143.00	143.00	142.00	141.00	141.00	140.00	139.00	137.00	136.00	136.00	135.00	135.00	138.00	139.00	138.00	136.00	136.00	137.00	137.00	136.00	136.00	135.00	135.00	135.00	135.00	135.00	135.00	135.00	135.00	135.00	135.00	134.00	135.00	151.00	154.00	143.00	142.00	135.00	133.00	132.00	133.00	133.00	132.00	132.00	131.00	131.00	132.00	132.00	132.00	132.00	131.00	131.00	131.00
208.00	206.00	204.00	202.00	201.00	196.00	194.00	191.00	188.00	180.00	174.00	171.00	170.00	168.00	168.00	170.00	172.00	173.00	172.00	173.00	178.00	183.00	182.00	167.00	164.00	162.00	160.00	158.00	159.00	160.00	159.00	157.00	155.00	156.00	157.00	157.00	157.00	156.00	156.00	155.00	155.00	167.00	207.00	250.00	285.00	341.00	376.00	417.00	456.00	461.00	453.00	438.00	419.00	427.00	432.00	424.00	402.00	365.00	304.00	252.00	232.00	221.00	218.00	240.00	248.00	251.00	237.00	209.00	158.00	155.00	154.00	155.00	155.00	155.00	153.00	150.00	148.00	148.00	149.00	149.00	148.00	149.00	151.00	152.00	151.00	151.00	151.00	151.00	152.00	148.00	153.00	153.00	152.00	151.00	152.00	152.00	151.00	150.00	150.00	150.00	151.00	152.00	152.00	151.00	148.00	148.00	149.00	150.00	149.00	149.00	149.00	148.00	147.00	147.00	146.00	146.00	145.00	144.00	144.00	144.00	143.00	144.00	142.00	140.00	138.00	138.00	144.00	149.00	153.00	153.00	151.00	146.00	145.00	144.00	144.00	145.00	145.00	145.00	145.00	140.00	140.00	141.00	141.00	142.00	140.00	140.00	140.00	140.00	140.00	141.00	141.00	141.00	140.00	143.00	144.00	144.00	146.00	147.00	146.00	144.00	142.00	142.00	144.00	145.00	143.00	140.00	146.00	146.00	147.00	149.00	149.00	149.00	148.00	149.00	149.00	150.00	150.00	152.00	155.00	155.00	145.00	143.00	144.00	145.00	146.00	146.00	146.00	145.00	145.00	146.00	147.00	147.00	148.00	148.00	149.00	149.00	149.00	149.00	148.00	146.00	145.00	145.00	146.00	147.00	147.00	147.00	147.00	144.00	143.00	142.00	142.00	141.00	141.00	140.00	139.00	138.00	138.00	137.00	138.00	139.00	138.00	137.00	136.00	135.00	135.00	135.00	136.00	136.00	136.00	138.00	138.00	137.00	137.00	137.00	135.00	138.00	177.00	202.00	178.00	157.00	150.00	147.00	140.00	133.00	133.00	133.00	133.00	133.00	133.00	134.00	134.00	134.00	134.00	133.00	134.00	133.00
208.00	206.00	204.00	202.00	201.00	196.00	194.00	191.00	188.00	180.00	174.00	171.00	170.00	168.00	168.00	170.00	172.00	173.00	172.00	173.00	178.00	183.00	182.00	167.00	164.00	162.00	160.00	158.00	159.00	160.00	159.00	157.00	155.00	156.00	157.00	157.00	157.00	156.00	156.00	155.00	155.00	167.00	207.00	250.00	285.00	341.00	376.00	417.00	456.00	461.00	453.00	438.00	419.00	427.00	432.00	424.00	402.00	365.00	304.00	252.00	232.00	221.00	218.00	240.00	248.00	251.00	237.00	209.00	158.00	155.00	154.00	155.00	155.00	155.00	153.00	150.00	148.00	148.00	149.00	149.00	148.00	149.00	151.00	152.00	151.00	151.00	151.00	151.00	152.00	148.00	153.00	153.00	152.00	151.00	152.00	152.00	151.00	150.00	150.00	150.00	151.00	152.00	152.00	151.00	148.00	148.00	149.00	150.00	149.00	149.00	149.00	148.00	147.00	147.00	146.00	146.00	145.00	144.00	144.00	144.00	143.00	144.00	142.00	140.00	138.00	138.00	144.00	149.00	153.00	153.00	151.00	146.00	145.00	144.00	144.00	145.00	145.00	145.00	145.00	140.00	140.00	141.00	141.00	142.00	140.00	140.00	140.00	140.00	140.00	141.00	141.00	141.00	140.00	143.00	144.00	144.00	146.00	147.00	146.00	144.00	142.00	142.00	144.00	145.00	143.00	140.00	146.00	146.00	147.00	149.00	149.00	149.00	148.00	149.00	149.00	150.00	150.00	152.00	155.00	155.00	145.00	143.00	144.00	145.00	146.00	146.00	146.00	145.00	145.00	146.00	147.00	147.00	148.00	148.00	149.00	149.00	149.00	149.00	148.00	146.00	145.00	145.00	146.00	147.00	147.00	147.00	147.00	144.00	143.00	142.00	142.00	141.00	141.00	140.00	139.00	138.00	138.00	137.00	138.00	139.00	138.00	137.00	136.00	135.00	135.00	135.00	136.00	136.00	136.00	138.00	138.00	137.00	137.00	137.00	135.00	138.00	177.00	202.00	178.00	157.00	150.00	147.00	140.00	133.00	133.00	133.00	133.00	133.00	133.00	134.00	134.00	134.00	134.00	133.00	134.00	133.00
210.00	208.00	206.00	205.00	206.00	197.00	193.00	191.00	189.00	173.00	177.00	179.00	177.00	178.00	179.00	179.00	178.00	178.00	181.00	187.00	196.00	205.00	209.00	183.00	170.00	164.00	164.00	162.00	159.00	159.00	164.00	171.00	184.00	180.00	173.00	165.00	153.00	153.00	155.00	156.00	155.00	156.00	155.00	163.00	186.00	284.00	345.00	401.00	466.00	485.00	481.00	468.00	457.00	443.00	400.00	365.00	338.00	314.00	261.00	210.00	194.00	207.00	239.00	271.00	268.00	240.00	208.00	177.00	154.00	154.00	154.00	154.00	148.00	149.00	149.00	151.00	153.00	153.00	154.00	153.00	153.00	153.00	152.00	152.00	152.00	151.00	143.00	144.00	146.00	147.00	151.00	151.00	150.00	150.00	151.00	151.00	151.00	153.00	156.00	160.00	158.00	158.00	157.00	156.00	154.00	154.00	153.00	153.00	151.00	150.00	150.00	149.00	149.00	146.00	146.00	146.00	146.00	149.00	151.00	152.00	151.00	145.00	142.00	140.00	143.00	144.00	151.00	153.00	153.00	151.00	148.00	147.00	147.00	148.00	149.00	147.00	146.00	144.00	144.00	139.00	144.00	145.00	146.00	145.00	144.00	142.00	143.00	142.00	143.00	142.00	141.00	141.00	140.00	142.00	144.00	145.00	145.00	145.00	145.00	145.00	145.00	144.00	144.00	144.00	143.00	143.00	145.00	147.00	147.00	147.00	148.00	146.00	148.00	148.00	147.00	148.00	148.00	148.00	147.00	147.00	148.00	147.00	148.00	148.00	145.00	145.00	147.00	148.00	147.00	148.00	148.00	148.00	148.00	149.00	150.00	150.00	149.00	149.00	147.00	147.00	145.00	145.00	147.00	147.00	146.00	145.00	145.00	146.00	147.00	147.00	147.00	146.00	145.00	143.00	142.00	142.00	144.00	142.00	141.00	141.00	141.00	141.00	140.00	139.00	139.00	140.00	139.00	139.00	138.00	140.00	140.00	139.00	139.00	139.00	138.00	149.00	233.00	241.00	204.00	177.00	179.00	179.00	162.00	137.00	136.00	136.00	135.00	134.00	134.00	137.00	136.00	135.00	136.00	136.00	136.00	136.00
214.00	213.00	213.00	211.00	208.00	197.00	194.00	190.00	186.00	179.00	184.00	185.00	187.00	188.00	188.00	189.00	189.00	189.00	186.00	185.00	187.00	188.00	191.00	192.00	191.00	187.00	180.00	174.00	183.00	200.00	216.00	230.00	243.00	234.00	226.00	209.00	178.00	158.00	152.00	154.00	158.00	156.00	155.00	154.00	154.00	168.00	184.00	213.00	276.00	305.00	366.00	394.00	414.00	415.00	347.00	316.00	284.00	256.00	219.00	187.00	178.00	192.00	213.00	214.00	197.00	182.00	167.00	163.00	159.00	156.00	152.00	148.00	152.00	152.00	152.00	153.00	153.00	149.00	150.00	150.00	154.00	153.00	153.00	151.00	149.00	147.00	148.00	151.00	155.00	157.00	157.00	156.00	156.00	155.00	155.00	157.00	158.00	159.00	160.00	158.00	157.00	158.00	158.00	158.00	159.00	157.00	156.00	154.00	153.00	154.00	155.00	153.00	152.00	152.00	152.00	151.00	152.00	153.00	161.00	164.00	162.00	146.00	143.00	149.00	150.00	150.00	150.00	151.00	151.00	152.00	153.00	153.00	152.00	151.00	149.00	147.00	148.00	148.00	148.00	143.00	148.00	147.00	144.00	144.00	145.00	146.00	146.00	147.00	146.00	145.00	144.00	143.00	143.00	144.00	143.00	143.00	145.00	145.00	147.00	147.00	148.00	148.00	146.00	144.00	145.00	143.00	146.00	150.00	150.00	150.00	147.00	148.00	149.00	149.00	148.00	146.00	145.00	145.00	145.00	146.00	147.00	146.00	145.00	144.00	144.00	148.00	152.00	151.00	151.00	153.00	150.00	148.00	148.00	151.00	152.00	152.00	151.00	149.00	149.00	147.00	146.00	147.00	147.00	146.00	147.00	146.00	146.00	147.00	147.00	147.00	146.00	144.00	145.00	147.00	147.00	147.00	148.00	147.00	146.00	146.00	145.00	146.00	146.00	145.00	143.00	142.00	141.00	141.00	141.00	144.00	144.00	143.00	143.00	142.00	141.00	167.00	257.00	255.00	203.00	184.00	195.00	193.00	169.00	139.00	138.00	137.00	136.00	139.00	138.00	139.00	139.00	139.00	138.00	138.00	137.00	137.00
214.00	213.00	213.00	211.00	208.00	197.00	194.00	190.00	186.00	179.00	184.00	185.00	187.00	188.00	188.00	189.00	189.00	189.00	186.00	185.00	187.00	188.00	191.00	192.00	191.00	187.00	180.00	174.00	183.00	200.00	216.00	230.00	243.00	234.00	226.00	209.00	178.00	158.00	152.00	154.00	158.00	156.00	155.00	154.00	154.00	168.00	184.00	213.00	276.00	305.00	366.00	394.00	414.00	415.00	347.00	316.00	284.00	256.00	219.00	187.00	178.00	192.00	213.00	214.00	197.00	182.00	167.00	163.00	159.00	156.00	152.00	148.00	152.00	152.00	152.00	153.00	153.00	149.00	150.00	150.00	154.00	153.00	153.00	151.00	149.00	147.00	148.00	151.00	155.00	157.00	157.00	156.00	156.00	155.00	155.00	157.00	158.00	159.00	160.00	158.00	157.00	158.00	158.00	158.00	159.00	157.00	156.00	154.00	153.00	154.00	155.00	153.00	152.00	152.00	152.00	151.00	152.00	153.00	161.00	164.00	162.00	146.00	143.00	149.00	150.00	150.00	150.00	151.00	151.00	152.00	153.00	153.00	152.00	151.00	149.00	147.00	148.00	148.00	148.00	143.00	148.00	147.00	144.00	144.00	145.00	146.00	146.00	147.00	146.00	145.00	144.00	143.00	143.00	144.00	143.00	143.00	145.00	145.00	147.00	147.00	148.00	148.00	146.00	144.00	145.00	143.00	146.00	150.00	150.00	150.00	147.00	148.00	149.00	149.00	148.00	146.00	145.00	145.00	145.00	146.00	147.00	146.00	145.00	144.00	144.00	148.00	152.00	151.00	151.00	153.00	150.00	148.00	148.00	151.00	152.00	152.00	151.00	149.00	149.00	147.00	146.00	147.00	147.00	146.00	147.00	146.00	146.00	147.00	147.00	147.00	146.00	144.00	145.00	147.00	147.00	147.00	148.00	147.00	146.00	146.00	145.00	146.00	146.00	145.00	143.00	142.00	141.00	141.00	141.00	144.00	144.00	143.00	143.00	142.00	141.00	167.00	257.00	255.00	203.00	184.00	195.00	193.00	169.00	139.00	138.00	137.00	136.00	139.00	138.00	139.00	139.00	139.00	138.00	138.00	137.00	137.00
