462.00	462.00	461.00	463.00	462.00	465.00	460.00	457.00	459.00	455.00	456.00	456.00	456.00	456.00	454.00	455.00	454.00	454.00	453.00	451.00	451.00	451.00	450.00	449.00	448.00	448.00	448.00	448.00	447.00	447.00	446.00	446.00	446.00	445.00	445.00	445.00	444.00	443.00	443.00	443.00	443.00	443.00	443.00	442.00	441.00	442.00	440.00	440.00	441.00	441.00	440.00	440.00	439.00	438.00	438.00	437.00	438.00	438.00	437.00	436.00	438.00	436.00	436.00	436.00	436.00	436.00	436.00	436.00	436.00	436.00	436.00	437.00	436.00	435.00	434.00	435.00	436.00	435.00	435.00	434.00	434.00	435.00	434.00	434.00	435.00	434.00	434.00	434.00	435.00	435.00	434.00	434.00	433.00	434.00	433.00	433.00	434.00	434.00	433.00	434.00	433.00	432.00	433.00	434.00	433.00	433.00	432.00	432.00	432.00	432.00	432.00	430.00	431.00	429.00	429.00	429.00	428.00	429.00	428.00	429.00	429.00	430.00	428.00	429.00	430.00	430.00	429.00	429.00	429.00	428.00	429.00	427.00	427.00	426.00	427.00	427.00	426.00	426.00	425.00	425.00	425.00	425.00	424.00	423.00	423.00	423.00	423.00	423.00	423.00	423.00	423.00	422.00	422.00	422.00	423.00	423.00	423.00	423.00	422.00	422.00	422.00	421.00	421.00	420.00	419.00	420.00	419.00	418.00	418.00	417.00	417.00	417.00	417.00	417.00	418.00	417.00	414.00	414.00	414.00	414.00	416.00	417.00	418.00	417.00	414.00	414.00	411.00	413.00	411.00	405.00	405.00	403.00	402.00	399.00	399.00	399.00	399.00	399.00	398.00	398.00	399.00	398.00	398.00	399.00	399.00	397.00	395.00	396.00	396.00	398.00	398.00	400.00	399.00	399.00	400.00	400.00	393.00	394.00	394.00	395.00	397.00	394.00	393.00	395.00	395.00	397.00	394.00	396.00	397.00	399.00	399.00	400.00	400.00	400.00	393.00	391.00	391.00	395.00	395.00	390.00	389.00	390.00	389.00	389.00	394.00	389.00	393.00	388.00	386.00	389.00	396.00	389.00	387.00	387.00	389.00	388.00
463.00	462.00	461.00	462.00	460.00	468.00	463.00	459.00	457.00	456.00	456.00	456.00	454.00	455.00	455.00	454.00	453.00	453.00	453.00	450.00	451.00	450.00	451.00	450.00	449.00	449.00	448.00	447.00	447.00	446.00	446.00	447.00	446.00	446.00	445.00	445.00	444.00	443.00	444.00	443.00	443.00	444.00	443.00	442.00	443.00	443.00	441.00	440.00	441.00	440.00	440.00	439.00	438.00	438.00	438.00	439.00	437.00	437.00	437.00	437.00	437.00	437.00	437.00	437.00	438.00	438.00	437.00	437.00	436.00	436.00	437.00	437.00	436.00	436.00	436.00	436.00	436.00	435.00	436.00	435.00	435.00	436.00	436.00	435.00	435.00	435.00	435.00	435.00	435.00	435.00	435.00	434.00	434.00	433.00	434.00	434.00	434.00	433.00	433.00	432.00	433.00	433.00	432.00	433.00	431.00	432.00	431.00	431.00	431.00	431.00	430.00	429.00	430.00	431.00	431.00	431.00	430.00	429.00	428.00	430.00	429.00	430.00	429.00	429.00	429.00	429.00	429.00	429.00	429.00	428.00	428.00	428.00	427.00	428.00	427.00	426.00	426.00	426.00	426.00	425.00	425.00	425.00	425.00	424.00	424.00	423.00	423.00	424.00	423.00	422.00	422.00	422.00	422.00	423.00	422.00	422.00	422.00	422.00	421.00	422.00	421.00	421.00	420.00	420.00	420.00	420.00	419.00	419.00	418.00	418.00	418.00	417.00	416.00	416.00	416.00	414.00	415.00	415.00	416.00	416.00	418.00	419.00	414.00	414.00	413.00	413.00	410.00	412.00	408.00	404.00	405.00	402.00	402.00	401.00	399.00	400.00	400.00	400.00	398.00	398.00	398.00	399.00	397.00	400.00	400.00	397.00	396.00	396.00	397.00	397.00	397.00	400.00	399.00	399.00	400.00	399.00	393.00	393.00	395.00	396.00	398.00	396.00	395.00	396.00	396.00	395.00	394.00	396.00	399.00	397.00	400.00	400.00	398.00	397.00	393.00	391.00	390.00	394.00	391.00	389.00	391.00	393.00	396.00	391.00	392.00	388.00	396.00	387.00	388.00	396.00	390.00	388.00	389.00	394.00	389.00	388.00
463.00	461.00	460.00	461.00	460.00	465.00	461.00	459.00	457.00	457.00	456.00	456.00	455.00	455.00	454.00	454.00	453.00	453.00	452.00	451.00	451.00	450.00	451.00	450.00	450.00	447.00	448.00	448.00	447.00	446.00	447.00	448.00	445.00	446.00	445.00	444.00	444.00	444.00	444.00	443.00	443.00	444.00	443.00	443.00	442.00	442.00	441.00	441.00	441.00	439.00	439.00	440.00	439.00	439.00	438.00	438.00	438.00	438.00	437.00	437.00	437.00	437.00	437.00	437.00	437.00	437.00	436.00	437.00	436.00	436.00	437.00	436.00	437.00	436.00	435.00	435.00	436.00	436.00	435.00	435.00	435.00	435.00	435.00	435.00	435.00	435.00	435.00	435.00	434.00	435.00	435.00	435.00	435.00	434.00	435.00	434.00	433.00	433.00	433.00	433.00	434.00	434.00	432.00	433.00	432.00	432.00	431.00	431.00	431.00	431.00	431.00	430.00	430.00	430.00	430.00	429.00	430.00	429.00	429.00	430.00	429.00	429.00	430.00	429.00	429.00	429.00	429.00	429.00	430.00	429.00	428.00	428.00	427.00	427.00	427.00	427.00	427.00	426.00	426.00	426.00	424.00	425.00	425.00	424.00	424.00	424.00	423.00	423.00	423.00	423.00	422.00	422.00	422.00	423.00	422.00	422.00	422.00	423.00	422.00	421.00	422.00	421.00	420.00	420.00	421.00	420.00	419.00	419.00	419.00	419.00	418.00	417.00	417.00	416.00	415.00	415.00	416.00	416.00	417.00	417.00	419.00	419.00	413.00	414.00	414.00	412.00	410.00	411.00	408.00	404.00	404.00	402.00	403.00	400.00	401.00	402.00	400.00	400.00	398.00	398.00	398.00	400.00	399.00	400.00	400.00	397.00	395.00	397.00	399.00	396.00	396.00	400.00	400.00	401.00	401.00	397.00	395.00	394.00	395.00	398.00	395.00	396.00	395.00	396.00	395.00	396.00	396.00	397.00	397.00	397.00	397.00	399.00	397.00	395.00	394.00	391.00	390.00	398.00	390.00	392.00	394.00	396.00	394.00	392.00	396.00	395.00	397.00	388.00	393.00	395.00	388.00	388.00	393.00	396.00	389.00	387.00
462.00	462.00	462.00	461.00	461.00	464.00	460.00	458.00	457.00	458.00	457.00	455.00	456.00	455.00	454.00	455.00	454.00	453.00	453.00	453.00	452.00	451.00	451.00	449.00	449.00	447.00	448.00	448.00	447.00	447.00	447.00	446.00	445.00	446.00	445.00	444.00	445.00	444.00	444.00	444.00	443.00	444.00	443.00	443.00	443.00	443.00	441.00	441.00	442.00	441.00	440.00	439.00	439.00	439.00	438.00	439.00	437.00	437.00	438.00	438.00	438.00	438.00	437.00	437.00	437.00	437.00	437.00	438.00	437.00	436.00	437.00	436.00	436.00	437.00	436.00	436.00	436.00	436.00	436.00	435.00	435.00	435.00	435.00	434.00	435.00	436.00	436.00	435.00	435.00	435.00	434.00	434.00	434.00	434.00	434.00	434.00	433.00	433.00	433.00	434.00	434.00	433.00	432.00	433.00	432.00	432.00	432.00	432.00	431.00	431.00	430.00	430.00	431.00	430.00	430.00	430.00	429.00	429.00	430.00	430.00	429.00	429.00	430.00	429.00	429.00	429.00	430.00	429.00	430.00	429.00	429.00	428.00	428.00	427.00	427.00	427.00	427.00	427.00	427.00	426.00	424.00	424.00	424.00	424.00	424.00	423.00	423.00	423.00	423.00	422.00	422.00	422.00	422.00	423.00	423.00	423.00	423.00	423.00	422.00	421.00	422.00	421.00	421.00	420.00	420.00	420.00	420.00	419.00	418.00	418.00	418.00	417.00	417.00	416.00	415.00	415.00	417.00	417.00	418.00	419.00	419.00	417.00	413.00	413.00	415.00	411.00	410.00	410.00	407.00	405.00	404.00	403.00	402.00	401.00	402.00	402.00	399.00	400.00	398.00	398.00	399.00	399.00	401.00	400.00	400.00	397.00	396.00	397.00	399.00	397.00	396.00	400.00	402.00	404.00	400.00	396.00	393.00	395.00	395.00	397.00	396.00	395.00	394.00	396.00	395.00	395.00	396.00	396.00	396.00	394.00	398.00	395.00	396.00	395.00	393.00	391.00	393.00	397.00	391.00	391.00	392.00	390.00	390.00	396.00	395.00	401.00	394.00	389.00	398.00	394.00	387.00	388.00	392.00	392.00	388.00	387.00
461.00	462.00	464.00	464.00	462.00	462.00	459.00	459.00	458.00	457.00	455.00	456.00	456.00	456.00	455.00	455.00	454.00	454.00	453.00	453.00	452.00	451.00	451.00	450.00	449.00	448.00	447.00	447.00	446.00	447.00	447.00	446.00	445.00	445.00	444.00	443.00	445.00	445.00	444.00	444.00	443.00	444.00	443.00	443.00	443.00	443.00	441.00	442.00	441.00	440.00	440.00	439.00	439.00	439.00	439.00	437.00	438.00	438.00	439.00	438.00	437.00	438.00	438.00	438.00	438.00	438.00	438.00	437.00	436.00	437.00	437.00	436.00	436.00	437.00	436.00	437.00	436.00	437.00	435.00	436.00	435.00	435.00	435.00	435.00	435.00	435.00	435.00	436.00	434.00	435.00	434.00	434.00	434.00	434.00	434.00	433.00	433.00	433.00	434.00	433.00	434.00	432.00	432.00	432.00	432.00	433.00	433.00	432.00	432.00	431.00	431.00	431.00	431.00	431.00	430.00	431.00	430.00	429.00	430.00	430.00	430.00	430.00	430.00	429.00	429.00	429.00	430.00	430.00	429.00	429.00	429.00	428.00	427.00	427.00	428.00	428.00	427.00	427.00	427.00	426.00	425.00	425.00	424.00	424.00	423.00	423.00	423.00	423.00	423.00	422.00	423.00	423.00	423.00	424.00	423.00	423.00	423.00	422.00	421.00	421.00	422.00	422.00	421.00	420.00	420.00	420.00	420.00	419.00	418.00	418.00	418.00	417.00	416.00	415.00	415.00	415.00	418.00	418.00	419.00	419.00	418.00	416.00	413.00	414.00	414.00	410.00	410.00	409.00	407.00	405.00	403.00	403.00	402.00	402.00	403.00	402.00	400.00	400.00	397.00	398.00	400.00	400.00	402.00	400.00	399.00	398.00	395.00	399.00	398.00	397.00	395.00	400.00	403.00	403.00	401.00	396.00	395.00	394.00	395.00	399.00	395.00	395.00	394.00	396.00	396.00	397.00	396.00	396.00	397.00	394.00	397.00	394.00	394.00	395.00	394.00	391.00	394.00	395.00	392.00	391.00	391.00	391.00	391.00	396.00	393.00	399.00	392.00	393.00	400.00	391.00	387.00	388.00	391.00	390.00	388.00	388.00
463.00	463.00	463.00	463.00	464.00	461.00	459.00	459.00	458.00	459.00	456.00	456.00	457.00	456.00	454.00	455.00	455.00	455.00	453.00	453.00	452.00	451.00	451.00	450.00	448.00	447.00	448.00	448.00	447.00	446.00	445.00	445.00	446.00	445.00	445.00	444.00	444.00	444.00	445.00	444.00	445.00	443.00	443.00	443.00	444.00	442.00	443.00	442.00	442.00	441.00	441.00	441.00	440.00	439.00	439.00	438.00	438.00	439.00	438.00	437.00	438.00	437.00	437.00	437.00	438.00	438.00	437.00	437.00	437.00	437.00	438.00	437.00	436.00	437.00	436.00	436.00	436.00	436.00	435.00	435.00	435.00	436.00	436.00	436.00	436.00	436.00	436.00	435.00	436.00	436.00	435.00	436.00	435.00	435.00	434.00	434.00	434.00	433.00	433.00	433.00	433.00	432.00	433.00	432.00	433.00	432.00	431.00	431.00	432.00	432.00	432.00	431.00	431.00	431.00	432.00	431.00	430.00	431.00	430.00	431.00	430.00	431.00	430.00	431.00	431.00	430.00	430.00	429.00	429.00	429.00	428.00	429.00	428.00	428.00	427.00	428.00	427.00	426.00	426.00	427.00	425.00	425.00	425.00	425.00	424.00	423.00	423.00	423.00	424.00	423.00	423.00	423.00	423.00	423.00	423.00	423.00	423.00	422.00	422.00	421.00	421.00	422.00	421.00	421.00	420.00	420.00	419.00	419.00	418.00	418.00	418.00	416.00	416.00	415.00	416.00	417.00	420.00	420.00	419.00	418.00	416.00	415.00	412.00	412.00	411.00	409.00	409.00	408.00	406.00	405.00	403.00	404.00	402.00	402.00	402.00	402.00	400.00	399.00	398.00	399.00	402.00	403.00	401.00	400.00	400.00	399.00	396.00	398.00	398.00	399.00	398.00	400.00	401.00	402.00	400.00	395.00	395.00	395.00	397.00	400.00	396.00	396.00	396.00	396.00	394.00	395.00	396.00	394.00	397.00	395.00	393.00	393.00	397.00	394.00	394.00	392.00	395.00	392.00	392.00	390.00	389.00	390.00	390.00	396.00	393.00	392.00	397.00	396.00	393.00	388.00	389.00	388.00	396.00	389.00	389.00	389.00
463.00	462.00	463.00	462.00	463.00	460.00	461.00	460.00	459.00	459.00	457.00	456.00	456.00	455.00	455.00	455.00	455.00	455.00	453.00	453.00	452.00	451.00	450.00	449.00	449.00	447.00	447.00	448.00	446.00	447.00	445.00	445.00	445.00	446.00	445.00	444.00	444.00	443.00	445.00	444.00	444.00	444.00	443.00	444.00	443.00	442.00	442.00	442.00	442.00	442.00	441.00	441.00	440.00	439.00	440.00	439.00	439.00	439.00	438.00	438.00	438.00	437.00	438.00	438.00	437.00	437.00	438.00	437.00	438.00	437.00	438.00	437.00	436.00	437.00	437.00	436.00	436.00	437.00	436.00	435.00	435.00	436.00	436.00	436.00	435.00	436.00	436.00	435.00	435.00	435.00	435.00	435.00	435.00	435.00	434.00	434.00	434.00	434.00	433.00	434.00	432.00	432.00	433.00	433.00	433.00	432.00	432.00	431.00	432.00	431.00	431.00	431.00	431.00	431.00	430.00	431.00	431.00	431.00	431.00	430.00	430.00	431.00	432.00	431.00	431.00	431.00	429.00	429.00	428.00	428.00	428.00	428.00	428.00	427.00	427.00	427.00	427.00	426.00	426.00	426.00	426.00	425.00	425.00	425.00	424.00	424.00	424.00	423.00	424.00	423.00	423.00	422.00	423.00	423.00	423.00	424.00	423.00	422.00	422.00	422.00	421.00	421.00	421.00	421.00	421.00	419.00	420.00	419.00	419.00	418.00	418.00	416.00	417.00	416.00	417.00	418.00	419.00	419.00	419.00	417.00	415.00	414.00	412.00	411.00	410.00	410.00	409.00	409.00	407.00	405.00	404.00	404.00	403.00	403.00	402.00	401.00	401.00	401.00	400.00	400.00	402.00	403.00	400.00	400.00	400.00	400.00	397.00	398.00	397.00	399.00	399.00	400.00	400.00	401.00	400.00	396.00	395.00	396.00	398.00	401.00	398.00	395.00	395.00	396.00	395.00	395.00	395.00	396.00	397.00	395.00	393.00	393.00	397.00	392.00	391.00	391.00	393.00	393.00	394.00	391.00	390.00	391.00	390.00	397.00	395.00	392.00	396.00	391.00	392.00	389.00	389.00	390.00	392.00	388.00	388.00	391.00
463.00	462.00	463.00	462.00	463.00	460.00	461.00	460.00	460.00	460.00	456.00	456.00	456.00	456.00	454.00	455.00	455.00	454.00	454.00	452.00	452.00	451.00	450.00	449.00	448.00	448.00	447.00	447.00	446.00	446.00	446.00	445.00	445.00	446.00	446.00	444.00	444.00	444.00	445.00	444.00	443.00	444.00	444.00	444.00	443.00	443.00	442.00	442.00	442.00	441.00	441.00	441.00	440.00	440.00	439.00	439.00	439.00	438.00	439.00	438.00	438.00	438.00	438.00	438.00	438.00	438.00	438.00	437.00	437.00	438.00	437.00	438.00	435.00	437.00	436.00	436.00	436.00	436.00	436.00	436.00	435.00	436.00	437.00	436.00	436.00	435.00	437.00	435.00	434.00	434.00	436.00	434.00	435.00	434.00	434.00	434.00	434.00	434.00	434.00	433.00	434.00	432.00	433.00	434.00	433.00	433.00	431.00	431.00	431.00	432.00	431.00	432.00	432.00	432.00	430.00	431.00	431.00	431.00	431.00	431.00	430.00	431.00	430.00	431.00	431.00	430.00	429.00	428.00	428.00	428.00	427.00	427.00	427.00	427.00	426.00	428.00	425.00	425.00	426.00	425.00	425.00	425.00	426.00	425.00	425.00	424.00	424.00	424.00	423.00	423.00	423.00	423.00	423.00	423.00	423.00	423.00	423.00	422.00	422.00	422.00	422.00	422.00	421.00	421.00	420.00	421.00	420.00	420.00	418.00	418.00	418.00	417.00	417.00	417.00	417.00	418.00	419.00	417.00	417.00	416.00	414.00	413.00	411.00	410.00	410.00	410.00	410.00	407.00	407.00	405.00	404.00	405.00	403.00	404.00	402.00	401.00	401.00	400.00	399.00	401.00	403.00	403.00	400.00	400.00	401.00	400.00	398.00	397.00	398.00	399.00	400.00	400.00	400.00	400.00	398.00	395.00	396.00	398.00	400.00	402.00	398.00	396.00	395.00	395.00	393.00	396.00	396.00	395.00	396.00	395.00	393.00	394.00	397.00	394.00	391.00	393.00	394.00	394.00	394.00	391.00	391.00	391.00	390.00	397.00	400.00	392.00	396.00	392.00	390.00	389.00	390.00	393.00	389.00	388.00	388.00	389.00
462.00	463.00	465.00	462.00	462.00	461.00	462.00	460.00	461.00	462.00	459.00	458.00	457.00	456.00	455.00	455.00	454.00	454.00	454.00	452.00	451.00	450.00	449.00	449.00	448.00	448.00	447.00	446.00	446.00	447.00	446.00	446.00	445.00	445.00	445.00	445.00	443.00	445.00	445.00	445.00	445.00	444.00	444.00	443.00	443.00	443.00	443.00	442.00	443.00	441.00	440.00	441.00	440.00	440.00	440.00	440.00	439.00	439.00	439.00	439.00	439.00	438.00	440.00	438.00	437.00	438.00	438.00	439.00	438.00	438.00	439.00	438.00	437.00	437.00	437.00	437.00	436.00	437.00	436.00	437.00	437.00	436.00	435.00	436.00	435.00	435.00	436.00	435.00	434.00	433.00	434.00	433.00	433.00	434.00	434.00	434.00	433.00	434.00	434.00	433.00	434.00	432.00	433.00	434.00	432.00	432.00	433.00	433.00	432.00	431.00	431.00	431.00	432.00	432.00	431.00	433.00	431.00	431.00	430.00	431.00	431.00	431.00	429.00	431.00	429.00	429.00	430.00	429.00	429.00	429.00	427.00	427.00	427.00	426.00	425.00	426.00	426.00	426.00	425.00	425.00	426.00	426.00	425.00	425.00	425.00	425.00	424.00	424.00	424.00	423.00	423.00	423.00	423.00	423.00	422.00	423.00	423.00	423.00	423.00	423.00	423.00	422.00	421.00	421.00	421.00	421.00	420.00	418.00	418.00	418.00	417.00	417.00	417.00	418.00	418.00	419.00	417.00	417.00	415.00	414.00	412.00	411.00	410.00	410.00	411.00	411.00	410.00	408.00	407.00	404.00	405.00	406.00	404.00	403.00	402.00	402.00	400.00	400.00	401.00	402.00	402.00	401.00	400.00	400.00	400.00	399.00	400.00	397.00	399.00	399.00	400.00	400.00	399.00	402.00	397.00	396.00	396.00	399.00	401.00	400.00	398.00	397.00	395.00	396.00	394.00	396.00	394.00	395.00	396.00	396.00	394.00	396.00	395.00	399.00	392.00	396.00	394.00	397.00	396.00	393.00	394.00	393.00	394.00	398.00	393.00	396.00	393.00	390.00	390.00	390.00	390.00	391.00	389.00	390.00	391.00	389.00
464.00	463.00	462.00	462.00	464.00	461.00	463.00	461.00	461.00	462.00	461.00	459.00	458.00	457.00	456.00	457.00	455.00	455.00	454.00	452.00	451.00	451.00	450.00	448.00	448.00	448.00	448.00	448.00	446.00	446.00	447.00	446.00	445.00	445.00	445.00	445.00	444.00	445.00	445.00	446.00	444.00	444.00	444.00	443.00	444.00	444.00	443.00	442.00	442.00	441.00	441.00	440.00	441.00	440.00	439.00	440.00	440.00	440.00	439.00	439.00	440.00	439.00	439.00	439.00	439.00	439.00	439.00	439.00	438.00	438.00	439.00	438.00	437.00	438.00	436.00	437.00	436.00	437.00	436.00	436.00	436.00	435.00	437.00	437.00	435.00	436.00	435.00	435.00	434.00	435.00	434.00	433.00	434.00	434.00	434.00	434.00	434.00	434.00	433.00	435.00	435.00	433.00	432.00	434.00	432.00	433.00	434.00	433.00	432.00	433.00	432.00	433.00	433.00	433.00	433.00	432.00	432.00	432.00	432.00	431.00	431.00	431.00	430.00	429.00	430.00	430.00	429.00	429.00	429.00	429.00	428.00	428.00	428.00	428.00	427.00	427.00	427.00	427.00	427.00	427.00	426.00	426.00	425.00	425.00	425.00	425.00	425.00	425.00	424.00	424.00	423.00	424.00	424.00	423.00	422.00	423.00	423.00	423.00	422.00	422.00	422.00	422.00	421.00	420.00	420.00	420.00	420.00	419.00	418.00	418.00	417.00	418.00	418.00	419.00	419.00	416.00	416.00	417.00	415.00	413.00	412.00	411.00	412.00	414.00	413.00	411.00	410.00	409.00	407.00	405.00	405.00	405.00	403.00	402.00	403.00	402.00	401.00	401.00	401.00	401.00	400.00	401.00	399.00	399.00	398.00	400.00	398.00	399.00	399.00	401.00	400.00	399.00	401.00	403.00	400.00	398.00	399.00	398.00	401.00	397.00	397.00	396.00	397.00	397.00	394.00	398.00	396.00	396.00	397.00	395.00	395.00	396.00	398.00	399.00	391.00	391.00	394.00	397.00	393.00	398.00	393.00	393.00	396.00	394.00	391.00	393.00	395.00	390.00	394.00	390.00	390.00	398.00	390.00	391.00	391.00	389.00
465.00	464.00	462.00	463.00	463.00	460.00	464.00	462.00	460.00	460.00	460.00	460.00	459.00	458.00	456.00	456.00	455.00	455.00	454.00	453.00	451.00	451.00	450.00	450.00	448.00	448.00	447.00	448.00	447.00	447.00	447.00	446.00	445.00	445.00	445.00	446.00	445.00	445.00	444.00	445.00	445.00	445.00	444.00	443.00	444.00	444.00	442.00	443.00	442.00	442.00	441.00	440.00	441.00	441.00	439.00	440.00	439.00	440.00	440.00	440.00	440.00	440.00	439.00	439.00	438.00	438.00	437.00	439.00	438.00	439.00	438.00	438.00	437.00	437.00	438.00	436.00	436.00	437.00	436.00	436.00	435.00	435.00	436.00	436.00	435.00	436.00	435.00	435.00	435.00	436.00	434.00	434.00	435.00	435.00	434.00	435.00	434.00	433.00	434.00	434.00	433.00	433.00	434.00	434.00	434.00	433.00	433.00	433.00	432.00	433.00	433.00	432.00	432.00	433.00	433.00	432.00	432.00	432.00	432.00	431.00	430.00	430.00	429.00	428.00	430.00	430.00	428.00	429.00	429.00	429.00	428.00	428.00	428.00	427.00	427.00	426.00	427.00	427.00	427.00	427.00	426.00	426.00	425.00	425.00	425.00	425.00	425.00	425.00	424.00	424.00	424.00	423.00	423.00	423.00	423.00	423.00	424.00	424.00	422.00	422.00	422.00	422.00	421.00	420.00	419.00	420.00	420.00	419.00	418.00	418.00	418.00	418.00	418.00	417.00	418.00	417.00	416.00	416.00	413.00	413.00	413.00	413.00	414.00	415.00	413.00	411.00	412.00	409.00	406.00	405.00	406.00	404.00	403.00	403.00	403.00	402.00	400.00	401.00	401.00	400.00	401.00	400.00	400.00	398.00	398.00	401.00	399.00	399.00	400.00	400.00	401.00	399.00	402.00	402.00	400.00	398.00	399.00	398.00	399.00	397.00	396.00	398.00	399.00	396.00	396.00	399.00	397.00	399.00	397.00	395.00	396.00	397.00	397.00	398.00	392.00	393.00	396.00	397.00	392.00	396.00	392.00	394.00	395.00	393.00	390.00	392.00	397.00	391.00	395.00	392.00	390.00	400.00	390.00	390.00	393.00	391.00
466.00	463.00	461.00	463.00	462.00	461.00	464.00	463.00	460.00	459.00	460.00	459.00	460.00	459.00	455.00	455.00	454.00	455.00	454.00	453.00	451.00	452.00	451.00	449.00	448.00	448.00	449.00	447.00	447.00	447.00	446.00	445.00	446.00	446.00	446.00	446.00	445.00	445.00	445.00	445.00	445.00	444.00	444.00	443.00	443.00	443.00	442.00	442.00	442.00	441.00	441.00	441.00	441.00	441.00	441.00	441.00	440.00	441.00	440.00	440.00	440.00	439.00	439.00	439.00	438.00	438.00	438.00	438.00	439.00	438.00	438.00	439.00	438.00	438.00	438.00	437.00	437.00	437.00	436.00	436.00	435.00	436.00	435.00	436.00	435.00	436.00	435.00	435.00	434.00	436.00	434.00	434.00	434.00	434.00	434.00	435.00	434.00	433.00	434.00	434.00	434.00	434.00	434.00	434.00	435.00	434.00	433.00	433.00	433.00	434.00	433.00	432.00	432.00	433.00	432.00	432.00	432.00	431.00	432.00	431.00	431.00	430.00	430.00	429.00	430.00	430.00	429.00	429.00	428.00	428.00	428.00	428.00	428.00	427.00	428.00	427.00	427.00	427.00	427.00	427.00	426.00	426.00	426.00	425.00	425.00	426.00	425.00	425.00	424.00	424.00	424.00	423.00	423.00	423.00	423.00	423.00	423.00	424.00	422.00	421.00	421.00	422.00	420.00	420.00	420.00	419.00	419.00	419.00	418.00	418.00	417.00	418.00	419.00	418.00	418.00	417.00	416.00	415.00	413.00	412.00	414.00	415.00	416.00	415.00	413.00	412.00	410.00	409.00	406.00	405.00	407.00	404.00	404.00	402.00	403.00	401.00	399.00	402.00	401.00	401.00	401.00	400.00	399.00	399.00	400.00	402.00	400.00	400.00	400.00	401.00	399.00	401.00	403.00	402.00	399.00	398.00	398.00	399.00	398.00	396.00	396.00	397.00	398.00	396.00	396.00	398.00	398.00	399.00	398.00	396.00	394.00	397.00	396.00	398.00	392.00	393.00	395.00	391.00	392.00	395.00	391.00	395.00	393.00	394.00	391.00	394.00	398.00	395.00	395.00	392.00	396.00	399.00	389.00	390.00	397.00	395.00
467.00	463.00	462.00	463.00	462.00	461.00	464.00	464.00	460.00	460.00	459.00	460.00	459.00	457.00	455.00	456.00	454.00	455.00	455.00	453.00	453.00	452.00	451.00	451.00	448.00	448.00	449.00	448.00	447.00	448.00	447.00	445.00	447.00	445.00	446.00	447.00	445.00	445.00	445.00	445.00	444.00	444.00	444.00	443.00	444.00	443.00	442.00	442.00	442.00	442.00	441.00	441.00	441.00	441.00	441.00	441.00	440.00	441.00	441.00	440.00	439.00	439.00	439.00	439.00	439.00	439.00	438.00	438.00	438.00	438.00	439.00	438.00	438.00	438.00	438.00	437.00	436.00	437.00	436.00	436.00	436.00	437.00	435.00	435.00	435.00	434.00	434.00	434.00	435.00	436.00	435.00	434.00	434.00	435.00	435.00	434.00	434.00	434.00	435.00	435.00	435.00	434.00	435.00	433.00	435.00	435.00	434.00	434.00	433.00	433.00	433.00	433.00	432.00	433.00	432.00	432.00	433.00	432.00	431.00	431.00	430.00	430.00	431.00	430.00	430.00	429.00	429.00	429.00	429.00	429.00	428.00	428.00	428.00	428.00	428.00	427.00	427.00	426.00	427.00	426.00	426.00	426.00	425.00	425.00	425.00	425.00	425.00	425.00	425.00	425.00	424.00	424.00	424.00	424.00	424.00	423.00	423.00	423.00	422.00	422.00	422.00	422.00	421.00	421.00	420.00	419.00	420.00	419.00	419.00	418.00	418.00	418.00	419.00	418.00	417.00	416.00	415.00	415.00	413.00	413.00	415.00	417.00	416.00	415.00	412.00	411.00	410.00	408.00	407.00	407.00	407.00	403.00	403.00	402.00	402.00	401.00	401.00	402.00	401.00	402.00	402.00	400.00	401.00	399.00	399.00	403.00	399.00	399.00	400.00	400.00	400.00	401.00	404.00	401.00	397.00	397.00	398.00	400.00	398.00	397.00	396.00	398.00	398.00	395.00	396.00	396.00	398.00	399.00	398.00	396.00	396.00	397.00	396.00	399.00	391.00	392.00	392.00	392.00	394.00	394.00	391.00	396.00	391.00	396.00	393.00	397.00	395.00	398.00	392.00	395.00	397.00	391.00	390.00	395.00	399.00	390.00
467.00	465.00	463.00	463.00	462.00	463.00	465.00	463.00	462.00	461.00	459.00	460.00	458.00	457.00	456.00	454.00	456.00	455.00	456.00	454.00	453.00	452.00	451.00	451.00	451.00	450.00	449.00	449.00	449.00	447.00	447.00	447.00	447.00	447.00	446.00	447.00	445.00	443.00	443.00	445.00	445.00	443.00	443.00	444.00	444.00	443.00	443.00	442.00	443.00	443.00	442.00	442.00	442.00	442.00	442.00	441.00	440.00	440.00	440.00	440.00	440.00	440.00	439.00	439.00	440.00	440.00	439.00	440.00	439.00	439.00	439.00	438.00	439.00	438.00	437.00	437.00	438.00	436.00	436.00	436.00	436.00	436.00	436.00	435.00	435.00	435.00	435.00	435.00	436.00	434.00	436.00	434.00	434.00	434.00	434.00	435.00	435.00	436.00	434.00	435.00	435.00	434.00	434.00	435.00	434.00	434.00	434.00	433.00	434.00	434.00	433.00	433.00	434.00	432.00	433.00	433.00	432.00	433.00	431.00	431.00	430.00	431.00	430.00	430.00	430.00	429.00	429.00	428.00	429.00	428.00	429.00	427.00	428.00	428.00	428.00	428.00	426.00	426.00	426.00	426.00	426.00	426.00	426.00	426.00	425.00	425.00	425.00	424.00	424.00	424.00	424.00	424.00	424.00	424.00	424.00	424.00	423.00	423.00	424.00	422.00	422.00	423.00	422.00	421.00	420.00	420.00	419.00	420.00	419.00	419.00	418.00	418.00	418.00	417.00	417.00	416.00	415.00	415.00	416.00	417.00	418.00	419.00	413.00	414.00	411.00	411.00	410.00	408.00	407.00	406.00	405.00	404.00	403.00	403.00	402.00	401.00	401.00	401.00	400.00	401.00	401.00	401.00	400.00	399.00	402.00	400.00	400.00	400.00	401.00	401.00	401.00	402.00	401.00	398.00	397.00	397.00	398.00	400.00	396.00	397.00	397.00	397.00	398.00	395.00	397.00	399.00	397.00	398.00	398.00	396.00	394.00	395.00	397.00	399.00	392.00	393.00	394.00	394.00	395.00	393.00	397.00	393.00	391.00	398.00	390.00	395.00	390.00	391.00	391.00	395.00	392.00	389.00	389.00	395.00	392.00	389.00
466.00	465.00	463.00	464.00	462.00	463.00	463.00	463.00	462.00	460.00	459.00	460.00	458.00	458.00	455.00	455.00	455.00	457.00	456.00	454.00	453.00	452.00	451.00	451.00	450.00	450.00	450.00	448.00	447.00	447.00	446.00	448.00	447.00	447.00	446.00	447.00	444.00	445.00	445.00	445.00	444.00	444.00	443.00	443.00	443.00	442.00	443.00	443.00	443.00	443.00	442.00	442.00	442.00	442.00	442.00	441.00	440.00	441.00	440.00	439.00	439.00	440.00	439.00	440.00	440.00	439.00	439.00	440.00	438.00	439.00	438.00	439.00	438.00	438.00	436.00	436.00	437.00	437.00	436.00	435.00	436.00	435.00	436.00	435.00	435.00	436.00	435.00	435.00	434.00	434.00	435.00	435.00	435.00	435.00	434.00	435.00	434.00	434.00	435.00	435.00	435.00	434.00	434.00	434.00	433.00	433.00	434.00	434.00	434.00	434.00	434.00	433.00	434.00	433.00	432.00	433.00	432.00	432.00	432.00	431.00	431.00	430.00	430.00	429.00	429.00	429.00	428.00	428.00	429.00	428.00	429.00	427.00	428.00	428.00	429.00	427.00	427.00	427.00	426.00	426.00	426.00	425.00	425.00	426.00	425.00	425.00	425.00	424.00	424.00	424.00	424.00	424.00	424.00	424.00	425.00	425.00	424.00	423.00	424.00	423.00	422.00	422.00	421.00	421.00	421.00	420.00	420.00	419.00	419.00	419.00	419.00	418.00	418.00	417.00	416.00	415.00	416.00	417.00	416.00	419.00	418.00	417.00	412.00	413.00	410.00	410.00	409.00	408.00	407.00	407.00	405.00	403.00	404.00	403.00	401.00	401.00	401.00	400.00	402.00	401.00	401.00	401.00	400.00	399.00	402.00	399.00	399.00	401.00	400.00	399.00	400.00	400.00	401.00	399.00	398.00	397.00	399.00	400.00	397.00	399.00	396.00	398.00	399.00	397.00	396.00	399.00	397.00	398.00	398.00	395.00	395.00	394.00	397.00	398.00	394.00	393.00	394.00	394.00	391.00	391.00	398.00	391.00	393.00	397.00	391.00	390.00	391.00	390.00	389.00	394.00	391.00	389.00	390.00	395.00	389.00	389.00
467.00	465.00	463.00	463.00	463.00	463.00	462.00	462.00	463.00	461.00	460.00	460.00	459.00	460.00	457.00	457.00	456.00	456.00	455.00	454.00	453.00	451.00	451.00	451.00	450.00	449.00	449.00	448.00	447.00	447.00	446.00	448.00	447.00	446.00	446.00	446.00	445.00	445.00	445.00	444.00	444.00	443.00	444.00	443.00	443.00	443.00	442.00	442.00	443.00	443.00	441.00	441.00	441.00	442.00	441.00	441.00	439.00	440.00	439.00	440.00	440.00	440.00	440.00	439.00	440.00	440.00	439.00	440.00	438.00	439.00	439.00	438.00	439.00	437.00	437.00	437.00	437.00	436.00	435.00	436.00	435.00	434.00	436.00	435.00	435.00	436.00	436.00	436.00	435.00	435.00	436.00	436.00	435.00	435.00	435.00	435.00	435.00	434.00	434.00	435.00	435.00	435.00	435.00	435.00	434.00	434.00	434.00	435.00	434.00	433.00	433.00	433.00	433.00	433.00	432.00	432.00	431.00	431.00	431.00	431.00	431.00	431.00	430.00	429.00	429.00	429.00	428.00	428.00	428.00	429.00	429.00	428.00	428.00	428.00	428.00	429.00	427.00	427.00	426.00	427.00	425.00	425.00	426.00	426.00	426.00	425.00	425.00	425.00	425.00	425.00	424.00	425.00	424.00	424.00	424.00	424.00	424.00	423.00	424.00	423.00	422.00	421.00	421.00	421.00	421.00	421.00	420.00	420.00	419.00	419.00	418.00	418.00	418.00	416.00	417.00	416.00	417.00	418.00	417.00	419.00	416.00	415.00	412.00	412.00	410.00	410.00	409.00	408.00	408.00	406.00	403.00	403.00	402.00	402.00	401.00	401.00	400.00	400.00	401.00	400.00	403.00	399.00	401.00	400.00	402.00	399.00	399.00	400.00	400.00	399.00	399.00	399.00	401.00	399.00	398.00	398.00	400.00	399.00	398.00	399.00	397.00	399.00	399.00	397.00	397.00	399.00	397.00	399.00	398.00	395.00	397.00	394.00	397.00	398.00	395.00	392.00	393.00	394.00	391.00	394.00	395.00	391.00	392.00	396.00	390.00	392.00	391.00	391.00	392.00	392.00	390.00	390.00	391.00	393.00	389.00	389.00
467.00	464.00	464.00	463.00	463.00	462.00	462.00	462.00	462.00	461.00	460.00	458.00	459.00	460.00	457.00	457.00	456.00	455.00	455.00	454.00	453.00	453.00	452.00	450.00	451.00	450.00	450.00	449.00	449.00	446.00	447.00	448.00	448.00	447.00	447.00	447.00	445.00	445.00	445.00	444.00	444.00	444.00	444.00	444.00	443.00	443.00	442.00	444.00	444.00	443.00	443.00	441.00	441.00	440.00	442.00	441.00	439.00	441.00	439.00	439.00	440.00	440.00	440.00	440.00	440.00	439.00	439.00	439.00	439.00	438.00	439.00	438.00	438.00	437.00	438.00	437.00	436.00	436.00	435.00	436.00	435.00	435.00	435.00	435.00	436.00	435.00	435.00	436.00	435.00	435.00	436.00	435.00	436.00	435.00	434.00	434.00	435.00	434.00	434.00	434.00	435.00	435.00	435.00	435.00	433.00	434.00	433.00	434.00	434.00	433.00	433.00	433.00	434.00	433.00	432.00	432.00	432.00	432.00	432.00	431.00	431.00	431.00	430.00	429.00	429.00	429.00	428.00	428.00	428.00	428.00	428.00	428.00	428.00	429.00	428.00	427.00	427.00	427.00	426.00	426.00	427.00	426.00	426.00	426.00	425.00	425.00	425.00	425.00	425.00	425.00	425.00	425.00	425.00	424.00	424.00	423.00	424.00	423.00	423.00	423.00	422.00	422.00	421.00	421.00	421.00	421.00	420.00	419.00	419.00	419.00	420.00	418.00	417.00	417.00	417.00	416.00	418.00	419.00	417.00	418.00	415.00	414.00	411.00	411.00	411.00	409.00	408.00	408.00	408.00	405.00	402.00	403.00	403.00	403.00	400.00	400.00	400.00	400.00	401.00	401.00	402.00	401.00	401.00	401.00	400.00	399.00	399.00	400.00	399.00	398.00	400.00	400.00	400.00	398.00	399.00	399.00	401.00	398.00	399.00	399.00	399.00	399.00	399.00	397.00	397.00	398.00	396.00	398.00	398.00	395.00	398.00	394.00	396.00	397.00	393.00	391.00	392.00	395.00	392.00	398.00	393.00	391.00	395.00	393.00	389.00	390.00	390.00	395.00	391.00	390.00	389.00	389.00	391.00	393.00	389.00	392.00
469.00	466.00	465.00	463.00	464.00	463.00	462.00	462.00	463.00	462.00	459.00	459.00	460.00	460.00	457.00	458.00	456.00	455.00	455.00	455.00	455.00	454.00	452.00	452.00	452.00	449.00	450.00	448.00	449.00	448.00	447.00	448.00	448.00	446.00	446.00	447.00	446.00	445.00	446.00	444.00	444.00	443.00	443.00	444.00	444.00	443.00	443.00	443.00	443.00	442.00	441.00	442.00	441.00	442.00	441.00	441.00	441.00	439.00	440.00	440.00	440.00	440.00	440.00	439.00	440.00	441.00	440.00	441.00	439.00	440.00	439.00	439.00	439.00	438.00	437.00	437.00	437.00	435.00	435.00	434.00	436.00	436.00	435.00	435.00	435.00	435.00	435.00	434.00	436.00	435.00	435.00	435.00	436.00	436.00	435.00	436.00	435.00	435.00	436.00	434.00	435.00	434.00	434.00	435.00	435.00	435.00	434.00	434.00	433.00	432.00	433.00	432.00	432.00	434.00	433.00	433.00	432.00	431.00	431.00	430.00	430.00	431.00	430.00	430.00	430.00	429.00	429.00	429.00	429.00	429.00	428.00	428.00	428.00	428.00	428.00	427.00	427.00	427.00	427.00	427.00	427.00	427.00	425.00	426.00	425.00	425.00	425.00	425.00	425.00	426.00	425.00	424.00	424.00	423.00	423.00	423.00	424.00	424.00	423.00	424.00	423.00	422.00	421.00	421.00	421.00	421.00	420.00	419.00	419.00	419.00	419.00	418.00	418.00	418.00	418.00	418.00	421.00	421.00	417.00	417.00	413.00	413.00	412.00	410.00	411.00	408.00	408.00	408.00	408.00	405.00	402.00	403.00	403.00	402.00	401.00	402.00	401.00	402.00	403.00	404.00	401.00	402.00	400.00	402.00	400.00	398.00	398.00	399.00	400.00	399.00	400.00	400.00	400.00	397.00	398.00	399.00	400.00	399.00	399.00	400.00	399.00	399.00	399.00	399.00	397.00	397.00	398.00	398.00	398.00	397.00	393.00	393.00	396.00	394.00	391.00	392.00	395.00	396.00	391.00	391.00	392.00	395.00	393.00	391.00	390.00	390.00	395.00	393.00	390.00	393.00	390.00	390.00	393.00	390.00	389.00	393.00
470.00	467.00	465.00	464.00	464.00	463.00	461.00	462.00	463.00	462.00	461.00	459.00	461.00	461.00	457.00	457.00	457.00	456.00	456.00	456.00	454.00	453.00	454.00	451.00	452.00	450.00	450.00	449.00	450.00	449.00	447.00	448.00	446.00	446.00	445.00	445.00	445.00	444.00	445.00	445.00	445.00	444.00	444.00	444.00	444.00	444.00	444.00	444.00	443.00	441.00	442.00	441.00	441.00	441.00	441.00	441.00	441.00	439.00	440.00	440.00	440.00	440.00	441.00	440.00	440.00	439.00	441.00	440.00	439.00	440.00	439.00	439.00	438.00	438.00	438.00	437.00	437.00	436.00	435.00	434.00	436.00	436.00	436.00	436.00	436.00	435.00	436.00	436.00	436.00	435.00	436.00	435.00	435.00	436.00	436.00	435.00	437.00	436.00	436.00	434.00	435.00	435.00	435.00	434.00	435.00	434.00	434.00	435.00	433.00	433.00	433.00	433.00	432.00	433.00	434.00	433.00	432.00	432.00	432.00	430.00	430.00	430.00	431.00	431.00	430.00	429.00	429.00	430.00	429.00	429.00	428.00	428.00	428.00	428.00	427.00	427.00	427.00	427.00	427.00	427.00	427.00	426.00	426.00	426.00	425.00	425.00	425.00	425.00	426.00	426.00	425.00	424.00	425.00	424.00	423.00	424.00	424.00	424.00	423.00	423.00	423.00	422.00	421.00	421.00	421.00	421.00	421.00	420.00	420.00	420.00	419.00	418.00	418.00	418.00	418.00	419.00	421.00	420.00	417.00	416.00	413.00	413.00	412.00	410.00	411.00	410.00	409.00	409.00	409.00	405.00	402.00	403.00	404.00	402.00	401.00	401.00	402.00	402.00	403.00	404.00	400.00	401.00	401.00	403.00	399.00	399.00	400.00	401.00	400.00	399.00	400.00	401.00	400.00	398.00	398.00	400.00	399.00	398.00	399.00	399.00	400.00	398.00	398.00	398.00	397.00	397.00	398.00	397.00	398.00	394.00	393.00	394.00	396.00	393.00	392.00	393.00	397.00	395.00	392.00	390.00	391.00	396.00	392.00	390.00	389.00	392.00	394.00	390.00	392.00	392.00	389.00	391.00	396.00	390.00	390.00	394.00
470.00	465.00	465.00	464.00	465.00	462.00	462.00	462.00	463.00	462.00	461.00	460.00	460.00	460.00	457.00	457.00	456.00	455.00	456.00	455.00	455.00	454.00	453.00	452.00	450.00	451.00	450.00	449.00	449.00	449.00	448.00	447.00	447.00	447.00	445.00	447.00	445.00	444.00	445.00	445.00	445.00	444.00	444.00	444.00	444.00	444.00	443.00	443.00	443.00	442.00	442.00	441.00	440.00	441.00	440.00	441.00	441.00	439.00	440.00	439.00	440.00	440.00	440.00	440.00	440.00	440.00	441.00	441.00	440.00	439.00	438.00	438.00	438.00	438.00	439.00	437.00	437.00	436.00	435.00	436.00	435.00	436.00	436.00	437.00	436.00	436.00	436.00	436.00	436.00	436.00	436.00	435.00	435.00	436.00	436.00	436.00	436.00	437.00	436.00	436.00	436.00	435.00	435.00	435.00	435.00	435.00	435.00	434.00	434.00	433.00	433.00	435.00	434.00	433.00	433.00	433.00	432.00	432.00	431.00	430.00	430.00	430.00	430.00	431.00	430.00	430.00	429.00	429.00	428.00	429.00	428.00	428.00	428.00	427.00	427.00	427.00	427.00	427.00	426.00	426.00	427.00	427.00	426.00	426.00	425.00	426.00	426.00	426.00	426.00	425.00	426.00	425.00	425.00	425.00	425.00	424.00	425.00	424.00	423.00	422.00	423.00	422.00	422.00	421.00	421.00	421.00	421.00	420.00	420.00	420.00	419.00	418.00	418.00	418.00	418.00	420.00	419.00	419.00	416.00	415.00	413.00	413.00	412.00	412.00	412.00	410.00	410.00	408.00	408.00	403.00	403.00	404.00	404.00	403.00	401.00	401.00	402.00	403.00	405.00	403.00	402.00	401.00	401.00	402.00	399.00	399.00	400.00	400.00	399.00	399.00	400.00	399.00	399.00	398.00	399.00	400.00	399.00	398.00	399.00	400.00	397.00	398.00	398.00	398.00	398.00	398.00	397.00	396.00	397.00	395.00	393.00	396.00	395.00	394.00	392.00	395.00	398.00	395.00	391.00	391.00	391.00	397.00	393.00	391.00	392.00	396.00	391.00	388.00	392.00	392.00	389.00	390.00	395.00	390.00	391.00	394.00
467.00	465.00	465.00	465.00	465.00	462.00	463.00	462.00	463.00	462.00	462.00	460.00	461.00	460.00	457.00	456.00	456.00	456.00	455.00	455.00	455.00	455.00	455.00	453.00	451.00	450.00	451.00	449.00	449.00	449.00	448.00	447.00	448.00	446.00	446.00	447.00	447.00	446.00	446.00	445.00	445.00	445.00	444.00	444.00	444.00	444.00	443.00	443.00	443.00	442.00	441.00	441.00	441.00	442.00	440.00	441.00	441.00	440.00	439.00	440.00	440.00	440.00	440.00	440.00	440.00	439.00	441.00	440.00	440.00	439.00	439.00	438.00	438.00	438.00	438.00	437.00	437.00	437.00	437.00	437.00	436.00	435.00	436.00	436.00	436.00	435.00	436.00	436.00	436.00	436.00	436.00	436.00	437.00	437.00	437.00	436.00	436.00	436.00	435.00	436.00	435.00	435.00	435.00	436.00	435.00	435.00	434.00	434.00	435.00	434.00	434.00	434.00	434.00	433.00	433.00	433.00	433.00	431.00	431.00	431.00	431.00	431.00	430.00	430.00	430.00	430.00	429.00	429.00	427.00	428.00	429.00	428.00	428.00	427.00	428.00	428.00	427.00	427.00	427.00	427.00	427.00	427.00	427.00	427.00	426.00	427.00	426.00	426.00	426.00	425.00	425.00	426.00	425.00	425.00	425.00	425.00	424.00	424.00	423.00	423.00	423.00	423.00	421.00	420.00	421.00	420.00	420.00	420.00	419.00	420.00	420.00	418.00	419.00	419.00	419.00	420.00	417.00	416.00	416.00	414.00	414.00	413.00	414.00	411.00	411.00	410.00	409.00	409.00	408.00	404.00	404.00	404.00	404.00	402.00	402.00	402.00	402.00	403.00	406.00	402.00	402.00	402.00	400.00	402.00	400.00	400.00	401.00	401.00	400.00	401.00	401.00	400.00	401.00	399.00	401.00	402.00	398.00	399.00	399.00	400.00	398.00	399.00	399.00	398.00	398.00	398.00	397.00	396.00	397.00	395.00	393.00	396.00	395.00	395.00	391.00	396.00	398.00	393.00	391.00	391.00	393.00	398.00	394.00	391.00	392.00	391.00	389.00	390.00	392.00	391.00	390.00	391.00	391.00	390.00	392.00	391.00
469.00	467.00	465.00	465.00	465.00	463.00	463.00	463.00	463.00	462.00	461.00	461.00	461.00	460.00	459.00	456.00	457.00	457.00	456.00	455.00	455.00	455.00	454.00	452.00	451.00	450.00	451.00	449.00	449.00	449.00	449.00	449.00	448.00	447.00	448.00	448.00	446.00	446.00	446.00	447.00	446.00	444.00	444.00	443.00	444.00	444.00	443.00	444.00	443.00	442.00	442.00	441.00	441.00	441.00	441.00	441.00	441.00	440.00	441.00	440.00	439.00	440.00	441.00	441.00	440.00	439.00	439.00	438.00	439.00	439.00	438.00	439.00	438.00	437.00	437.00	436.00	437.00	437.00	437.00	436.00	438.00	436.00	435.00	436.00	436.00	435.00	436.00	437.00	436.00	436.00	438.00	438.00	437.00	437.00	436.00	437.00	436.00	437.00	436.00	435.00	436.00	436.00	435.00	435.00	435.00	434.00	434.00	434.00	435.00	434.00	435.00	433.00	434.00	433.00	433.00	432.00	432.00	432.00	431.00	431.00	432.00	431.00	429.00	430.00	430.00	429.00	430.00	431.00	430.00	428.00	428.00	428.00	428.00	428.00	428.00	428.00	428.00	426.00	427.00	427.00	426.00	427.00	427.00	427.00	427.00	427.00	426.00	425.00	425.00	426.00	426.00	425.00	425.00	424.00	424.00	424.00	423.00	424.00	423.00	423.00	423.00	422.00	422.00	421.00	421.00	420.00	420.00	420.00	420.00	420.00	419.00	420.00	420.00	420.00	420.00	418.00	416.00	415.00	414.00	414.00	414.00	414.00	413.00	413.00	412.00	411.00	411.00	409.00	408.00	405.00	405.00	404.00	404.00	403.00	402.00	403.00	404.00	404.00	405.00	403.00	402.00	401.00	401.00	401.00	399.00	401.00	401.00	402.00	402.00	403.00	401.00	402.00	403.00	401.00	402.00	403.00	399.00	401.00	398.00	400.00	398.00	398.00	399.00	396.00	398.00	397.00	396.00	398.00	398.00	394.00	396.00	395.00	396.00	393.00	396.00	398.00	397.00	394.00	392.00	394.00	398.00	396.00	398.00	391.00	395.00	390.00	389.00	395.00	394.00	392.00	391.00	391.00	391.00	390.00	393.00	392.00
469.00	467.00	466.00	464.00	464.00	462.00	463.00	462.00	462.00	461.00	462.00	460.00	462.00	460.00	459.00	457.00	456.00	456.00	455.00	455.00	455.00	454.00	454.00	452.00	451.00	450.00	451.00	449.00	449.00	449.00	449.00	448.00	447.00	446.00	448.00	448.00	447.00	447.00	446.00	446.00	445.00	445.00	443.00	444.00	444.00	444.00	443.00	443.00	443.00	442.00	442.00	441.00	441.00	440.00	441.00	441.00	441.00	440.00	442.00	441.00	440.00	441.00	441.00	440.00	439.00	439.00	439.00	438.00	438.00	439.00	439.00	440.00	437.00	437.00	437.00	437.00	438.00	437.00	435.00	436.00	438.00	435.00	436.00	436.00	437.00	437.00	437.00	436.00	436.00	437.00	438.00	437.00	437.00	437.00	436.00	437.00	436.00	437.00	437.00	436.00	437.00	436.00	434.00	435.00	434.00	435.00	435.00	434.00	434.00	434.00	434.00	433.00	433.00	434.00	432.00	433.00	432.00	432.00	431.00	432.00	432.00	431.00	431.00	430.00	431.00	430.00	431.00	430.00	430.00	429.00	429.00	428.00	427.00	428.00	428.00	428.00	428.00	428.00	427.00	427.00	426.00	427.00	427.00	427.00	426.00	426.00	427.00	426.00	426.00	426.00	425.00	425.00	424.00	425.00	424.00	424.00	423.00	424.00	423.00	423.00	423.00	422.00	422.00	421.00	421.00	420.00	420.00	420.00	419.00	419.00	419.00	419.00	421.00	421.00	419.00	417.00	417.00	414.00	414.00	415.00	414.00	413.00	413.00	413.00	412.00	411.00	411.00	408.00	408.00	405.00	406.00	405.00	405.00	405.00	403.00	403.00	404.00	406.00	403.00	404.00	402.00	402.00	402.00	401.00	400.00	401.00	403.00	403.00	404.00	404.00	401.00	403.00	402.00	402.00	401.00	402.00	401.00	401.00	399.00	399.00	398.00	398.00	399.00	398.00	397.00	396.00	395.00	397.00	398.00	397.00	395.00	394.00	396.00	393.00	399.00	397.00	394.00	393.00	395.00	398.00	397.00	400.00	396.00	392.00	397.00	394.00	391.00	397.00	395.00	395.00	391.00	392.00	390.00	392.00	394.00	394.00
469.00	468.00	467.00	464.00	464.00	462.00	462.00	462.00	461.00	461.00	460.00	460.00	463.00	461.00	459.00	457.00	456.00	456.00	455.00	455.00	455.00	455.00	454.00	451.00	451.00	450.00	451.00	449.00	448.00	448.00	449.00	448.00	448.00	447.00	447.00	448.00	447.00	448.00	446.00	446.00	446.00	445.00	443.00	444.00	444.00	444.00	444.00	443.00	443.00	442.00	442.00	441.00	441.00	440.00	441.00	440.00	441.00	441.00	442.00	440.00	442.00	440.00	440.00	440.00	440.00	438.00	438.00	438.00	438.00	439.00	438.00	439.00	437.00	437.00	437.00	438.00	437.00	437.00	436.00	436.00	437.00	436.00	436.00	436.00	437.00	437.00	437.00	437.00	437.00	436.00	438.00	437.00	436.00	436.00	435.00	437.00	437.00	436.00	437.00	436.00	437.00	436.00	434.00	435.00	435.00	434.00	433.00	434.00	434.00	434.00	434.00	434.00	434.00	434.00	433.00	433.00	432.00	432.00	433.00	432.00	431.00	431.00	431.00	431.00	431.00	431.00	431.00	430.00	430.00	430.00	429.00	429.00	428.00	428.00	428.00	428.00	428.00	428.00	428.00	427.00	426.00	427.00	427.00	427.00	427.00	427.00	426.00	426.00	426.00	425.00	425.00	425.00	426.00	425.00	425.00	424.00	424.00	424.00	424.00	423.00	423.00	422.00	422.00	422.00	421.00	421.00	421.00	420.00	420.00	419.00	419.00	420.00	420.00	420.00	418.00	417.00	416.00	416.00	415.00	415.00	415.00	413.00	412.00	414.00	412.00	411.00	412.00	409.00	407.00	405.00	405.00	404.00	405.00	404.00	403.00	404.00	404.00	405.00	404.00	403.00	403.00	402.00	402.00	401.00	402.00	403.00	406.00	404.00	405.00	402.00	401.00	402.00	403.00	403.00	402.00	401.00	402.00	401.00	400.00	400.00	399.00	398.00	399.00	396.00	398.00	395.00	395.00	398.00	397.00	397.00	394.00	395.00	397.00	393.00	397.00	396.00	395.00	394.00	398.00	393.00	396.00	393.00	392.00	392.00	396.00	394.00	392.00	397.00	395.00	395.00	392.00	391.00	392.00	396.00	392.00	395.00
469.00	467.00	468.00	466.00	463.00	462.00	462.00	462.00	461.00	462.00	461.00	460.00	460.00	461.00	459.00	458.00	457.00	456.00	456.00	455.00	455.00	453.00	453.00	452.00	451.00	451.00	451.00	451.00	449.00	448.00	449.00	450.00	448.00	448.00	447.00	448.00	447.00	447.00	445.00	446.00	446.00	446.00	444.00	443.00	444.00	444.00	443.00	443.00	443.00	441.00	441.00	440.00	440.00	441.00	441.00	440.00	440.00	440.00	440.00	440.00	440.00	441.00	439.00	439.00	440.00	438.00	440.00	438.00	439.00	438.00	437.00	437.00	438.00	438.00	437.00	439.00	437.00	437.00	438.00	437.00	436.00	437.00	436.00	437.00	437.00	437.00	438.00	438.00	438.00	437.00	437.00	437.00	437.00	438.00	436.00	437.00	437.00	437.00	437.00	435.00	435.00	436.00	436.00	435.00	435.00	434.00	435.00	435.00	434.00	434.00	434.00	435.00	433.00	435.00	434.00	434.00	432.00	432.00	432.00	432.00	432.00	432.00	431.00	432.00	431.00	430.00	430.00	429.00	430.00	429.00	428.00	428.00	428.00	429.00	428.00	428.00	428.00	429.00	429.00	428.00	428.00	427.00	427.00	427.00	427.00	427.00	426.00	426.00	425.00	425.00	425.00	425.00	425.00	424.00	424.00	423.00	424.00	423.00	423.00	423.00	424.00	423.00	422.00	423.00	422.00	422.00	422.00	421.00	420.00	420.00	420.00	421.00	420.00	420.00	419.00	418.00	418.00	418.00	418.00	417.00	415.00	414.00	413.00	416.00	413.00	412.00	411.00	408.00	408.00	407.00	405.00	406.00	407.00	405.00	403.00	404.00	405.00	407.00	404.00	404.00	403.00	403.00	404.00	404.00	405.00	409.00	408.00	406.00	404.00	402.00	402.00	402.00	402.00	401.00	402.00	400.00	402.00	399.00	400.00	400.00	399.00	398.00	398.00	397.00	396.00	396.00	397.00	398.00	398.00	397.00	396.00	397.00	397.00	393.00	393.00	395.00	395.00	396.00	393.00	393.00	395.00	392.00	392.00	394.00	397.00	400.00	400.00	396.00	399.00	393.00	392.00	397.00	393.00	393.00	390.00	397.00
470.00	467.00	467.00	466.00	465.00	463.00	463.00	463.00	462.00	462.00	461.00	461.00	461.00	461.00	458.00	458.00	458.00	457.00	457.00	456.00	455.00	455.00	454.00	453.00	453.00	452.00	450.00	451.00	450.00	448.00	449.00	450.00	450.00	449.00	449.00	448.00	449.00	447.00	446.00	446.00	445.00	446.00	444.00	444.00	444.00	444.00	443.00	443.00	442.00	442.00	442.00	441.00	441.00	441.00	442.00	441.00	441.00	441.00	440.00	440.00	440.00	439.00	439.00	441.00	441.00	440.00	439.00	440.00	440.00	439.00	438.00	439.00	439.00	438.00	439.00	438.00	437.00	438.00	437.00	437.00	437.00	438.00	437.00	438.00	438.00	437.00	438.00	437.00	438.00	437.00	437.00	438.00	438.00	437.00	437.00	438.00	438.00	436.00	437.00	434.00	435.00	436.00	437.00	435.00	435.00	435.00	436.00	434.00	434.00	433.00	433.00	434.00	434.00	434.00	434.00	433.00	433.00	432.00	432.00	432.00	432.00	432.00	431.00	431.00	432.00	431.00	429.00	430.00	430.00	430.00	429.00	429.00	429.00	429.00	428.00	429.00	428.00	429.00	428.00	427.00	427.00	427.00	427.00	427.00	426.00	425.00	426.00	426.00	427.00	425.00	426.00	426.00	425.00	425.00	425.00	424.00	425.00	424.00	424.00	424.00	422.00	422.00	422.00	422.00	421.00	422.00	421.00	421.00	421.00	420.00	422.00	420.00	418.00	419.00	419.00	419.00	420.00	420.00	418.00	417.00	414.00	414.00	414.00	415.00	413.00	411.00	408.00	407.00	408.00	408.00	407.00	406.00	406.00	405.00	404.00	405.00	406.00	407.00	404.00	402.00	402.00	401.00	405.00	408.00	408.00	407.00	406.00	405.00	404.00	403.00	405.00	402.00	401.00	401.00	402.00	400.00	401.00	399.00	399.00	398.00	398.00	399.00	397.00	398.00	397.00	398.00	397.00	397.00	398.00	396.00	396.00	398.00	397.00	393.00	395.00	397.00	394.00	397.00	394.00	396.00	397.00	393.00	396.00	397.00	395.00	399.00	397.00	398.00	393.00	394.00	395.00	395.00	397.00	396.00	400.00	397.00
470.00	467.00	468.00	467.00	465.00	464.00	463.00	463.00	462.00	463.00	461.00	460.00	460.00	460.00	457.00	458.00	458.00	457.00	456.00	456.00	455.00	454.00	455.00	454.00	453.00	452.00	451.00	451.00	451.00	450.00	449.00	450.00	450.00	450.00	449.00	448.00	448.00	447.00	448.00	446.00	446.00	445.00	445.00	444.00	444.00	444.00	442.00	442.00	442.00	442.00	441.00	442.00	443.00	442.00	442.00	441.00	441.00	441.00	439.00	441.00	440.00	440.00	440.00	441.00	440.00	440.00	438.00	440.00	439.00	438.00	438.00	439.00	439.00	438.00	438.00	438.00	437.00	438.00	438.00	438.00	438.00	438.00	438.00	438.00	437.00	438.00	437.00	438.00	438.00	437.00	437.00	438.00	438.00	437.00	438.00	437.00	437.00	436.00	436.00	435.00	435.00	436.00	435.00	435.00	435.00	435.00	435.00	434.00	434.00	434.00	434.00	434.00	434.00	435.00	433.00	434.00	433.00	433.00	433.00	433.00	432.00	432.00	432.00	431.00	431.00	430.00	431.00	430.00	430.00	429.00	429.00	429.00	429.00	429.00	428.00	428.00	428.00	429.00	428.00	427.00	427.00	427.00	427.00	427.00	426.00	426.00	426.00	426.00	426.00	426.00	426.00	426.00	425.00	425.00	425.00	425.00	425.00	425.00	423.00	424.00	423.00	422.00	422.00	421.00	421.00	422.00	421.00	421.00	421.00	421.00	421.00	420.00	419.00	420.00	419.00	419.00	421.00	420.00	418.00	416.00	415.00	415.00	413.00	413.00	413.00	410.00	409.00	408.00	408.00	409.00	407.00	407.00	407.00	404.00	404.00	406.00	408.00	406.00	404.00	403.00	401.00	402.00	406.00	409.00	407.00	405.00	406.00	404.00	403.00	403.00	403.00	402.00	400.00	401.00	401.00	400.00	400.00	399.00	399.00	398.00	398.00	398.00	398.00	398.00	399.00	400.00	398.00	397.00	398.00	396.00	396.00	398.00	398.00	394.00	397.00	397.00	397.00	398.00	396.00	396.00	399.00	397.00	395.00	395.00	396.00	397.00	393.00	394.00	392.00	394.00	398.00	394.00	398.00	392.00	399.00	391.00
470.00	467.00	468.00	467.00	466.00	463.00	463.00	463.00	463.00	461.00	461.00	461.00	459.00	460.00	458.00	458.00	457.00	458.00	455.00	455.00	455.00	454.00	453.00	452.00	453.00	452.00	451.00	450.00	451.00	450.00	450.00	449.00	449.00	450.00	449.00	448.00	447.00	447.00	448.00	448.00	446.00	446.00	445.00	444.00	444.00	444.00	443.00	442.00	442.00	442.00	443.00	442.00	443.00	442.00	441.00	441.00	442.00	441.00	440.00	440.00	441.00	440.00	440.00	441.00	440.00	440.00	439.00	440.00	439.00	439.00	439.00	438.00	438.00	438.00	439.00	438.00	437.00	438.00	437.00	439.00	439.00	438.00	439.00	438.00	438.00	438.00	438.00	438.00	438.00	438.00	437.00	437.00	438.00	437.00	437.00	437.00	436.00	436.00	436.00	436.00	435.00	436.00	436.00	436.00	435.00	435.00	435.00	434.00	434.00	434.00	435.00	434.00	434.00	435.00	434.00	434.00	434.00	434.00	433.00	434.00	433.00	433.00	431.00	432.00	431.00	430.00	430.00	430.00	430.00	430.00	430.00	429.00	429.00	429.00	427.00	428.00	428.00	428.00	429.00	428.00	427.00	427.00	427.00	426.00	427.00	427.00	426.00	426.00	426.00	425.00	426.00	426.00	425.00	425.00	424.00	425.00	425.00	425.00	423.00	423.00	423.00	422.00	422.00	422.00	422.00	422.00	422.00	421.00	421.00	420.00	420.00	419.00	419.00	419.00	419.00	419.00	420.00	418.00	417.00	416.00	415.00	415.00	412.00	413.00	413.00	410.00	408.00	407.00	408.00	409.00	406.00	407.00	406.00	405.00	405.00	407.00	408.00	405.00	404.00	403.00	403.00	404.00	406.00	408.00	405.00	403.00	405.00	404.00	402.00	403.00	403.00	401.00	400.00	401.00	400.00	400.00	399.00	399.00	400.00	399.00	399.00	399.00	398.00	399.00	398.00	400.00	398.00	397.00	397.00	396.00	397.00	398.00	398.00	395.00	399.00	398.00	397.00	398.00	398.00	398.00	398.00	395.00	394.00	395.00	394.00	393.00	394.00	392.00	392.00	394.00	397.00	397.00	390.00	390.00	395.00	391.00
470.00	467.00	468.00	467.00	465.00	463.00	463.00	463.00	463.00	462.00	462.00	461.00	460.00	459.00	458.00	458.00	458.00	458.00	456.00	455.00	454.00	454.00	454.00	452.00	454.00	452.00	451.00	450.00	451.00	450.00	451.00	450.00	450.00	450.00	449.00	448.00	447.00	448.00	448.00	448.00	447.00	446.00	446.00	445.00	444.00	445.00	443.00	443.00	443.00	443.00	443.00	443.00	442.00	442.00	441.00	442.00	441.00	441.00	441.00	440.00	441.00	441.00	441.00	440.00	439.00	439.00	438.00	440.00	438.00	439.00	438.00	438.00	438.00	438.00	439.00	438.00	437.00	438.00	437.00	438.00	438.00	438.00	440.00	439.00	438.00	439.00	439.00	438.00	439.00	438.00	437.00	437.00	438.00	438.00	438.00	437.00	436.00	436.00	437.00	436.00	435.00	436.00	436.00	436.00	434.00	434.00	436.00	435.00	434.00	435.00	434.00	433.00	434.00	434.00	434.00	434.00	435.00	434.00	433.00	433.00	433.00	433.00	432.00	432.00	432.00	431.00	430.00	431.00	430.00	429.00	430.00	429.00	429.00	429.00	428.00	428.00	428.00	428.00	428.00	428.00	427.00	427.00	426.00	426.00	426.00	427.00	426.00	425.00	426.00	424.00	425.00	426.00	425.00	424.00	424.00	424.00	424.00	424.00	425.00	423.00	423.00	422.00	422.00	422.00	422.00	422.00	422.00	421.00	421.00	421.00	421.00	419.00	420.00	419.00	420.00	419.00	419.00	417.00	416.00	416.00	415.00	414.00	412.00	412.00	412.00	409.00	408.00	408.00	409.00	409.00	406.00	407.00	408.00	404.00	405.00	407.00	408.00	403.00	403.00	403.00	403.00	404.00	405.00	405.00	403.00	403.00	403.00	402.00	402.00	402.00	403.00	400.00	401.00	401.00	401.00	400.00	400.00	400.00	400.00	399.00	398.00	399.00	398.00	398.00	400.00	400.00	398.00	398.00	398.00	396.00	398.00	399.00	399.00	398.00	398.00	398.00	397.00	397.00	398.00	396.00	394.00	394.00	393.00	396.00	393.00	392.00	393.00	392.00	393.00	396.00	393.00	396.00	390.00	390.00	393.00	390.00
469.00	466.00	466.00	466.00	465.00	462.00	463.00	461.00	462.00	461.00	462.00	462.00	462.00	460.00	458.00	458.00	458.00	460.00	457.00	455.00	454.00	454.00	455.00	453.00	451.00	452.00	452.00	452.00	451.00	451.00	450.00	449.00	448.00	448.00	449.00	450.00	448.00	448.00	447.00	448.00	447.00	448.00	447.00	444.00	445.00	446.00	445.00	444.00	443.00	444.00	443.00	442.00	442.00	443.00	442.00	442.00	441.00	442.00	441.00	442.00	441.00	441.00	440.00	439.00	440.00	441.00	440.00	441.00	440.00	439.00	439.00	439.00	439.00	438.00	438.00	439.00	438.00	439.00	439.00	438.00	440.00	437.00	439.00	439.00	438.00	438.00	438.00	438.00	438.00	439.00	438.00	437.00	438.00	438.00	439.00	438.00	436.00	435.00	436.00	437.00	436.00	435.00	435.00	435.00	436.00	434.00	435.00	434.00	434.00	435.00	434.00	433.00	434.00	434.00	433.00	435.00	434.00	434.00	433.00	433.00	433.00	433.00	432.00	432.00	431.00	431.00	431.00	430.00	431.00	431.00	430.00	429.00	429.00	429.00	429.00	429.00	429.00	428.00	428.00	429.00	428.00	427.00	427.00	426.00	427.00	426.00	426.00	426.00	426.00	425.00	425.00	425.00	425.00	425.00	425.00	425.00	425.00	424.00	423.00	424.00	423.00	423.00	423.00	422.00	422.00	422.00	422.00	421.00	421.00	420.00	420.00	421.00	421.00	420.00	419.00	418.00	418.00	417.00	418.00	417.00	415.00	414.00	412.00	411.00	411.00	411.00	411.00	411.00	411.00	408.00	407.00	408.00	408.00	405.00	408.00	406.00	406.00	402.00	403.00	405.00	403.00	403.00	402.00	402.00	403.00	402.00	402.00	400.00	402.00	402.00	403.00	401.00	401.00	400.00	400.00	401.00	400.00	401.00	400.00	400.00	400.00	399.00	400.00	400.00	401.00	401.00	397.00	396.00	397.00	401.00	402.00	399.00	399.00	397.00	395.00	395.00	395.00	394.00	396.00	394.00	394.00	396.00	392.00	393.00	393.00	393.00	394.00	392.00	391.00	392.00	395.00	392.00	391.00	392.00	394.00	397.00
469.00	466.00	467.00	466.00	465.00	463.00	463.00	463.00	463.00	462.00	463.00	460.00	461.00	461.00	458.00	458.00	458.00	460.00	458.00	455.00	454.00	455.00	455.00	453.00	453.00	452.00	453.00	452.00	451.00	452.00	450.00	450.00	449.00	450.00	449.00	450.00	448.00	448.00	446.00	447.00	448.00	447.00	447.00	445.00	445.00	446.00	444.00	443.00	444.00	444.00	442.00	442.00	442.00	444.00	443.00	442.00	441.00	442.00	441.00	441.00	440.00	441.00	440.00	440.00	440.00	441.00	440.00	440.00	440.00	439.00	439.00	439.00	439.00	439.00	438.00	439.00	439.00	439.00	439.00	439.00	441.00	437.00	439.00	439.00	438.00	438.00	439.00	439.00	439.00	439.00	438.00	437.00	438.00	437.00	438.00	437.00	438.00	436.00	435.00	436.00	436.00	436.00	436.00	436.00	435.00	434.00	436.00	435.00	434.00	435.00	434.00	433.00	434.00	434.00	434.00	434.00	434.00	434.00	433.00	433.00	433.00	433.00	433.00	431.00	432.00	431.00	431.00	430.00	430.00	431.00	429.00	430.00	429.00	430.00	430.00	429.00	428.00	428.00	427.00	429.00	427.00	427.00	427.00	426.00	426.00	427.00	426.00	427.00	427.00	425.00	425.00	425.00	425.00	426.00	426.00	424.00	424.00	425.00	423.00	423.00	423.00	423.00	422.00	422.00	422.00	421.00	421.00	421.00	421.00	420.00	420.00	421.00	421.00	420.00	419.00	418.00	418.00	417.00	417.00	417.00	416.00	415.00	412.00	411.00	409.00	412.00	412.00	412.00	411.00	408.00	408.00	407.00	408.00	404.00	407.00	406.00	405.00	403.00	404.00	406.00	403.00	403.00	403.00	403.00	403.00	401.00	402.00	401.00	402.00	402.00	402.00	401.00	401.00	400.00	400.00	401.00	400.00	401.00	400.00	402.00	399.00	400.00	401.00	400.00	401.00	399.00	398.00	397.00	399.00	403.00	400.00	397.00	396.00	396.00	396.00	393.00	393.00	393.00	395.00	393.00	395.00	394.00	393.00	394.00	394.00	394.00	396.00	393.00	392.00	393.00	397.00	392.00	390.00	394.00	393.00	398.00
469.00	467.00	468.00	466.00	466.00	462.00	463.00	463.00	462.00	463.00	461.00	460.00	460.00	460.00	458.00	458.00	459.00	459.00	458.00	456.00	455.00	454.00	454.00	454.00	453.00	454.00	454.00	452.00	451.00	452.00	451.00	450.00	449.00	449.00	449.00	450.00	448.00	447.00	447.00	447.00	448.00	447.00	447.00	445.00	446.00	446.00	444.00	443.00	443.00	443.00	442.00	443.00	442.00	443.00	442.00	443.00	441.00	441.00	441.00	440.00	441.00	440.00	440.00	440.00	440.00	441.00	440.00	441.00	440.00	440.00	440.00	440.00	440.00	440.00	439.00	439.00	440.00	439.00	439.00	439.00	439.00	438.00	438.00	439.00	440.00	438.00	439.00	438.00	438.00	438.00	438.00	437.00	439.00	438.00	437.00	438.00	437.00	437.00	436.00	437.00	437.00	437.00	437.00	436.00	436.00	435.00	435.00	435.00	435.00	436.00	434.00	433.00	434.00	433.00	434.00	433.00	433.00	434.00	433.00	434.00	433.00	433.00	432.00	431.00	432.00	431.00	430.00	430.00	431.00	431.00	430.00	430.00	430.00	430.00	429.00	429.00	427.00	428.00	428.00	428.00	428.00	427.00	427.00	427.00	427.00	427.00	427.00	427.00	427.00	426.00	426.00	426.00	426.00	426.00	425.00	424.00	424.00	423.00	423.00	424.00	423.00	423.00	423.00	423.00	422.00	421.00	421.00	421.00	421.00	420.00	419.00	421.00	421.00	420.00	418.00	419.00	418.00	417.00	418.00	417.00	415.00	414.00	412.00	410.00	410.00	413.00	413.00	412.00	411.00	409.00	409.00	408.00	408.00	405.00	408.00	407.00	404.00	402.00	405.00	405.00	404.00	403.00	403.00	403.00	402.00	402.00	402.00	402.00	402.00	402.00	403.00	403.00	401.00	401.00	400.00	401.00	402.00	401.00	401.00	401.00	400.00	401.00	401.00	400.00	401.00	399.00	398.00	398.00	400.00	399.00	396.00	395.00	394.00	396.00	396.00	393.00	392.00	392.00	394.00	393.00	395.00	393.00	393.00	394.00	396.00	394.00	397.00	391.00	392.00	396.00	396.00	390.00	392.00	394.00	394.00	398.00
468.00	467.00	466.00	467.00	464.00	463.00	464.00	463.00	463.00	461.00	461.00	461.00	461.00	461.00	459.00	458.00	458.00	459.00	458.00	456.00	455.00	455.00	455.00	454.00	455.00	454.00	453.00	452.00	451.00	451.00	451.00	451.00	450.00	449.00	449.00	449.00	448.00	448.00	447.00	447.00	448.00	446.00	447.00	446.00	446.00	445.00	445.00	443.00	445.00	444.00	443.00	441.00	443.00	441.00	443.00	441.00	441.00	441.00	441.00	441.00	440.00	441.00	441.00	441.00	440.00	440.00	440.00	441.00	441.00	441.00	440.00	440.00	440.00	441.00	439.00	439.00	440.00	440.00	440.00	438.00	439.00	438.00	438.00	439.00	440.00	439.00	438.00	439.00	439.00	438.00	438.00	438.00	439.00	437.00	438.00	438.00	439.00	438.00	437.00	437.00	436.00	437.00	436.00	436.00	435.00	435.00	435.00	435.00	434.00	434.00	435.00	434.00	433.00	434.00	434.00	434.00	433.00	434.00	434.00	434.00	434.00	432.00	432.00	431.00	432.00	432.00	431.00	431.00	430.00	431.00	429.00	429.00	429.00	430.00	429.00	429.00	428.00	428.00	428.00	428.00	428.00	427.00	427.00	427.00	426.00	427.00	427.00	426.00	427.00	426.00	426.00	426.00	426.00	425.00	424.00	424.00	423.00	423.00	424.00	424.00	424.00	424.00	423.00	423.00	422.00	422.00	421.00	421.00	422.00	422.00	419.00	420.00	419.00	420.00	419.00	418.00	417.00	417.00	417.00	416.00	414.00	414.00	412.00	411.00	410.00	413.00	413.00	412.00	411.00	410.00	408.00	408.00	408.00	406.00	408.00	407.00	404.00	403.00	406.00	404.00	403.00	402.00	404.00	403.00	402.00	402.00	403.00	402.00	403.00	403.00	403.00	403.00	401.00	399.00	400.00	403.00	402.00	401.00	401.00	400.00	399.00	401.00	400.00	400.00	400.00	398.00	398.00	398.00	400.00	396.00	395.00	395.00	395.00	396.00	394.00	392.00	392.00	392.00	393.00	394.00	394.00	393.00	393.00	396.00	398.00	394.00	395.00	393.00	396.00	396.00	391.00	390.00	391.00	393.00	394.00	396.00
468.00	467.00	469.00	468.00	467.00	466.00	463.00	464.00	462.00	462.00	461.00	461.00	459.00	461.00	458.00	458.00	459.00	459.00	457.00	456.00	457.00	456.00	456.00	454.00	455.00	453.00	453.00	452.00	451.00	451.00	451.00	450.00	449.00	449.00	449.00	450.00	449.00	448.00	448.00	447.00	448.00	447.00	447.00	447.00	447.00	445.00	446.00	445.00	445.00	444.00	444.00	443.00	444.00	442.00	443.00	442.00	443.00	441.00	441.00	442.00	442.00	441.00	442.00	442.00	441.00	441.00	440.00	440.00	441.00	440.00	440.00	440.00	439.00	441.00	439.00	438.00	438.00	440.00	439.00	438.00	439.00	437.00	438.00	439.00	439.00	439.00	439.00	439.00	438.00	440.00	439.00	438.00	438.00	438.00	437.00	438.00	437.00	438.00	437.00	437.00	436.00	436.00	437.00	435.00	436.00	434.00	435.00	435.00	434.00	434.00	435.00	434.00	435.00	435.00	435.00	434.00	433.00	434.00	434.00	433.00	433.00	432.00	432.00	432.00	433.00	432.00	432.00	431.00	430.00	430.00	431.00	429.00	429.00	430.00	429.00	429.00	428.00	427.00	427.00	428.00	428.00	428.00	427.00	427.00	426.00	427.00	427.00	426.00	426.00	426.00	426.00	424.00	425.00	424.00	425.00	425.00	424.00	423.00	424.00	423.00	423.00	424.00	423.00	422.00	422.00	422.00	421.00	421.00	421.00	421.00	421.00	420.00	419.00	419.00	419.00	419.00	417.00	417.00	416.00	414.00	413.00	414.00	414.00	414.00	415.00	416.00	414.00	412.00	412.00	409.00	406.00	407.00	406.00	405.00	409.00	406.00	404.00	405.00	405.00	405.00	404.00	404.00	404.00	402.00	401.00	403.00	402.00	402.00	403.00	403.00	403.00	402.00	401.00	400.00	403.00	402.00	400.00	400.00	399.00	401.00	399.00	400.00	398.00	398.00	399.00	398.00	399.00	398.00	398.00	396.00	397.00	394.00	395.00	397.00	393.00	393.00	393.00	393.00	394.00	395.00	395.00	393.00	393.00	395.00	394.00	397.00	392.00	395.00	391.00	392.00	395.00	391.00	392.00	398.00	396.00	392.00
469.00	468.00	470.00	467.00	468.00	465.00	463.00	462.00	463.00	463.00	462.00	462.00	460.00	461.00	458.00	458.00	460.00	459.00	458.00	457.00	457.00	456.00	457.00	454.00	454.00	454.00	454.00	453.00	451.00	451.00	451.00	450.00	448.00	449.00	449.00	450.00	449.00	449.00	448.00	447.00	447.00	447.00	447.00	446.00	446.00	446.00	445.00	445.00	445.00	444.00	443.00	443.00	443.00	442.00	444.00	443.00	443.00	441.00	442.00	442.00	442.00	441.00	442.00	441.00	441.00	440.00	440.00	439.00	441.00	440.00	440.00	440.00	439.00	440.00	440.00	439.00	439.00	440.00	440.00	438.00	439.00	437.00	438.00	440.00	440.00	438.00	439.00	439.00	439.00	439.00	439.00	438.00	438.00	438.00	439.00	439.00	439.00	437.00	437.00	435.00	436.00	436.00	437.00	435.00	434.00	435.00	435.00	435.00	434.00	435.00	435.00	434.00	434.00	434.00	434.00	435.00	433.00	435.00	434.00	434.00	432.00	432.00	433.00	433.00	433.00	431.00	432.00	431.00	431.00	430.00	430.00	430.00	429.00	429.00	430.00	429.00	429.00	428.00	427.00	428.00	428.00	428.00	428.00	427.00	427.00	427.00	426.00	426.00	426.00	426.00	425.00	425.00	425.00	426.00	426.00	426.00	425.00	424.00	424.00	423.00	424.00	424.00	423.00	422.00	422.00	422.00	422.00	421.00	421.00	421.00	422.00	422.00	419.00	419.00	418.00	418.00	417.00	416.00	415.00	414.00	413.00	415.00	415.00	415.00	416.00	415.00	413.00	410.00	411.00	407.00	407.00	407.00	406.00	406.00	409.00	406.00	403.00	406.00	406.00	405.00	404.00	404.00	406.00	403.00	402.00	403.00	403.00	403.00	403.00	404.00	402.00	401.00	400.00	400.00	403.00	402.00	401.00	399.00	400.00	401.00	401.00	399.00	398.00	399.00	398.00	398.00	398.00	397.00	399.00	396.00	397.00	394.00	396.00	397.00	395.00	394.00	394.00	393.00	395.00	396.00	396.00	393.00	395.00	395.00	395.00	397.00	393.00	395.00	391.00	394.00	395.00	394.00	395.00	399.00	391.00	392.00
470.00	471.00	470.00	468.00	467.00	463.00	464.00	463.00	462.00	462.00	462.00	462.00	462.00	462.00	458.00	458.00	459.00	459.00	457.00	457.00	455.00	455.00	456.00	454.00	454.00	454.00	454.00	452.00	453.00	451.00	451.00	450.00	450.00	450.00	450.00	450.00	450.00	449.00	449.00	448.00	448.00	448.00	446.00	446.00	446.00	445.00	445.00	444.00	444.00	445.00	444.00	444.00	445.00	444.00	444.00	443.00	444.00	443.00	442.00	443.00	442.00	441.00	441.00	441.00	441.00	440.00	440.00	440.00	440.00	441.00	440.00	440.00	439.00	440.00	439.00	439.00	439.00	440.00	440.00	439.00	438.00	439.00	438.00	438.00	440.00	439.00	438.00	438.00	439.00	439.00	439.00	438.00	437.00	438.00	438.00	438.00	438.00	438.00	438.00	437.00	436.00	436.00	437.00	435.00	436.00	436.00	436.00	435.00	434.00	434.00	435.00	435.00	434.00	432.00	434.00	434.00	433.00	434.00	433.00	434.00	432.00	432.00	432.00	432.00	432.00	431.00	432.00	432.00	431.00	431.00	431.00	431.00	429.00	430.00	429.00	429.00	430.00	429.00	429.00	429.00	428.00	428.00	428.00	428.00	427.00	427.00	426.00	426.00	425.00	425.00	426.00	426.00	426.00	426.00	426.00	426.00	424.00	425.00	424.00	424.00	424.00	424.00	424.00	422.00	422.00	422.00	422.00	421.00	421.00	421.00	421.00	420.00	420.00	418.00	419.00	417.00	416.00	416.00	415.00	415.00	414.00	415.00	415.00	415.00	416.00	412.00	412.00	410.00	410.00	408.00	407.00	407.00	407.00	409.00	409.00	406.00	404.00	405.00	406.00	406.00	405.00	405.00	405.00	404.00	403.00	404.00	403.00	404.00	404.00	404.00	402.00	401.00	401.00	402.00	403.00	401.00	401.00	400.00	400.00	400.00	400.00	399.00	399.00	399.00	398.00	397.00	398.00	398.00	399.00	396.00	397.00	396.00	397.00	397.00	394.00	394.00	394.00	394.00	396.00	395.00	395.00	393.00	395.00	397.00	395.00	396.00	392.00	396.00	392.00	396.00	395.00	392.00	398.00	393.00	394.00	391.00
469.00	470.00	470.00	467.00	466.00	462.00	463.00	464.00	464.00	463.00	463.00	463.00	463.00	461.00	459.00	458.00	459.00	460.00	458.00	457.00	455.00	454.00	455.00	455.00	453.00	452.00	453.00	453.00	453.00	453.00	453.00	452.00	451.00	451.00	450.00	450.00	450.00	449.00	448.00	447.00	448.00	447.00	448.00	447.00	446.00	446.00	445.00	444.00	445.00	444.00	444.00	446.00	445.00	444.00	444.00	444.00	444.00	443.00	443.00	442.00	442.00	442.00	441.00	441.00	441.00	441.00	441.00	440.00	441.00	440.00	440.00	440.00	440.00	440.00	439.00	439.00	440.00	440.00	441.00	439.00	439.00	440.00	440.00	439.00	440.00	441.00	438.00	439.00	439.00	439.00	438.00	439.00	438.00	439.00	438.00	438.00	438.00	438.00	437.00	436.00	436.00	437.00	436.00	435.00	437.00	436.00	436.00	434.00	435.00	434.00	434.00	436.00	435.00	434.00	434.00	435.00	434.00	435.00	435.00	434.00	433.00	432.00	432.00	432.00	432.00	431.00	432.00	432.00	432.00	431.00	430.00	430.00	430.00	430.00	430.00	430.00	430.00	430.00	429.00	429.00	428.00	428.00	428.00	427.00	427.00	427.00	427.00	426.00	427.00	427.00	428.00	427.00	426.00	425.00	426.00	425.00	426.00	425.00	425.00	425.00	425.00	424.00	424.00	422.00	422.00	422.00	421.00	421.00	422.00	421.00	422.00	420.00	418.00	418.00	419.00	416.00	418.00	416.00	415.00	415.00	414.00	415.00	416.00	415.00	414.00	412.00	410.00	409.00	409.00	407.00	408.00	406.00	408.00	410.00	408.00	405.00	405.00	407.00	407.00	407.00	405.00	406.00	405.00	405.00	404.00	402.00	402.00	405.00	405.00	405.00	401.00	402.00	400.00	404.00	402.00	401.00	400.00	399.00	400.00	401.00	400.00	400.00	398.00	399.00	398.00	397.00	399.00	399.00	398.00	397.00	397.00	397.00	399.00	397.00	394.00	394.00	394.00	394.00	396.00	394.00	396.00	394.00	395.00	394.00	395.00	398.00	392.00	396.00	394.00	398.00	393.00	391.00	397.00	392.00	393.00	390.00
467.00	470.00	469.00	466.00	463.00	466.00	466.00	464.00	465.00	463.00	464.00	463.00	463.00	459.00	461.00	459.00	459.00	460.00	459.00	457.00	457.00	456.00	456.00	455.00	455.00	454.00	453.00	454.00	453.00	452.00	454.00	453.00	451.00	451.00	450.00	451.00	450.00	449.00	449.00	448.00	449.00	447.00	447.00	447.00	447.00	446.00	445.00	445.00	445.00	445.00	445.00	443.00	444.00	444.00	446.00	445.00	444.00	443.00	443.00	443.00	443.00	443.00	442.00	442.00	443.00	442.00	441.00	441.00	441.00	440.00	441.00	440.00	441.00	441.00	441.00	440.00	440.00	439.00	440.00	439.00	439.00	440.00	440.00	439.00	440.00	440.00	438.00	440.00	439.00	440.00	439.00	440.00	439.00	438.00	438.00	439.00	438.00	439.00	437.00	437.00	436.00	437.00	436.00	437.00	436.00	437.00	436.00	434.00	436.00	435.00	434.00	434.00	435.00	434.00	434.00	434.00	434.00	435.00	435.00	433.00	433.00	430.00	432.00	433.00	433.00	432.00	432.00	432.00	431.00	431.00	431.00	430.00	431.00	429.00	430.00	429.00	430.00	429.00	429.00	429.00	428.00	428.00	428.00	428.00	428.00	428.00	427.00	427.00	427.00	426.00	426.00	426.00	425.00	425.00	426.00	426.00	425.00	424.00	425.00	424.00	425.00	424.00	422.00	422.00	423.00	422.00	421.00	421.00	421.00	421.00	421.00	419.00	418.00	420.00	418.00	420.00	419.00	417.00	417.00	417.00	416.00	416.00	416.00	414.00	413.00	410.00	409.00	408.00	408.00	410.00	410.00	410.00	411.00	412.00	407.00	405.00	406.00	407.00	409.00	406.00	404.00	405.00	406.00	405.00	404.00	403.00	406.00	407.00	404.00	401.00	402.00	402.00	403.00	404.00	401.00	400.00	400.00	401.00	402.00	400.00	400.00	398.00	398.00	400.00	398.00	398.00	399.00	398.00	399.00	398.00	397.00	398.00	399.00	397.00	394.00	394.00	394.00	395.00	396.00	395.00	396.00	395.00	395.00	396.00	396.00	398.00	394.00	399.00	395.00	400.00	392.00	394.00	397.00	393.00	391.00	392.00
467.00	470.00	469.00	466.00	463.00	466.00	466.00	464.00	465.00	463.00	464.00	463.00	463.00	459.00	461.00	459.00	459.00	460.00	459.00	457.00	457.00	456.00	456.00	455.00	455.00	454.00	453.00	454.00	453.00	452.00	454.00	453.00	451.00	451.00	450.00	451.00	450.00	449.00	449.00	448.00	449.00	447.00	447.00	447.00	447.00	446.00	445.00	445.00	445.00	445.00	445.00	443.00	444.00	444.00	446.00	445.00	444.00	443.00	443.00	443.00	443.00	443.00	442.00	442.00	443.00	442.00	441.00	441.00	441.00	440.00	441.00	440.00	441.00	441.00	441.00	440.00	440.00	439.00	440.00	439.00	439.00	440.00	440.00	439.00	440.00	440.00	438.00	440.00	439.00	440.00	439.00	440.00	439.00	438.00	438.00	439.00	438.00	439.00	437.00	437.00	436.00	437.00	436.00	437.00	436.00	437.00	436.00	434.00	436.00	435.00	434.00	434.00	435.00	434.00	434.00	434.00	434.00	435.00	435.00	433.00	433.00	430.00	432.00	433.00	433.00	432.00	432.00	432.00	431.00	431.00	431.00	430.00	431.00	429.00	430.00	429.00	430.00	429.00	429.00	429.00	428.00	428.00	428.00	428.00	428.00	428.00	427.00	427.00	427.00	426.00	426.00	426.00	425.00	425.00	426.00	426.00	425.00	424.00	425.00	424.00	425.00	424.00	422.00	422.00	423.00	422.00	421.00	421.00	421.00	421.00	421.00	419.00	418.00	420.00	418.00	420.00	419.00	417.00	417.00	417.00	416.00	416.00	416.00	414.00	413.00	410.00	409.00	408.00	408.00	410.00	410.00	410.00	411.00	412.00	407.00	405.00	406.00	407.00	409.00	406.00	404.00	405.00	406.00	405.00	404.00	403.00	406.00	407.00	404.00	401.00	402.00	402.00	403.00	404.00	401.00	400.00	400.00	401.00	402.00	400.00	400.00	398.00	398.00	400.00	398.00	398.00	399.00	398.00	399.00	398.00	397.00	398.00	399.00	397.00	394.00	394.00	394.00	395.00	396.00	395.00	396.00	395.00	395.00	396.00	396.00	398.00	394.00	399.00	395.00	400.00	392.00	394.00	397.00	393.00	391.00	392.00
468.00	469.00	469.00	466.00	465.00	467.00	467.00	465.00	464.00	463.00	464.00	463.00	461.00	460.00	460.00	459.00	460.00	459.00	459.00	457.00	457.00	456.00	456.00	456.00	456.00	454.00	452.00	453.00	452.00	452.00	453.00	452.00	451.00	451.00	451.00	450.00	450.00	449.00	449.00	449.00	449.00	447.00	446.00	446.00	447.00	446.00	446.00	446.00	446.00	446.00	445.00	445.00	444.00	446.00	445.00	444.00	445.00	443.00	444.00	443.00	444.00	443.00	443.00	442.00	442.00	443.00	441.00	441.00	441.00	441.00	441.00	440.00	440.00	441.00	440.00	439.00	440.00	440.00	441.00	440.00	439.00	440.00	439.00	439.00	440.00	439.00	439.00	439.00	440.00	439.00	439.00	440.00	439.00	438.00	438.00	439.00	438.00	437.00	437.00	439.00	437.00	436.00	438.00	437.00	435.00	437.00	436.00	436.00	436.00	435.00	434.00	434.00	435.00	434.00	435.00	433.00	432.00	434.00	433.00	433.00	432.00	432.00	432.00	433.00	433.00	432.00	432.00	431.00	432.00	431.00	431.00	430.00	431.00	430.00	430.00	430.00	429.00	429.00	428.00	428.00	428.00	428.00	428.00	428.00	428.00	427.00	427.00	427.00	427.00	426.00	426.00	426.00	426.00	425.00	425.00	425.00	425.00	425.00	425.00	425.00	424.00	424.00	422.00	423.00	422.00	422.00	421.00	422.00	422.00	421.00	421.00	419.00	420.00	419.00	420.00	421.00	419.00	418.00	417.00	416.00	416.00	416.00	416.00	413.00	412.00	411.00	409.00	408.00	409.00	411.00	412.00	412.00	413.00	411.00	406.00	405.00	406.00	408.00	407.00	405.00	406.00	404.00	404.00	405.00	405.00	406.00	407.00	407.00	403.00	403.00	402.00	403.00	403.00	403.00	402.00	400.00	401.00	402.00	401.00	400.00	399.00	398.00	398.00	399.00	399.00	398.00	398.00	398.00	398.00	398.00	398.00	399.00	399.00	397.00	394.00	394.00	394.00	395.00	396.00	398.00	396.00	395.00	395.00	397.00	396.00	394.00	395.00	399.00	398.00	399.00	393.00	395.00	395.00	390.00	395.00	391.00
469.00	471.00	470.00	467.00	469.00	468.00	466.00	464.00	463.00	465.00	465.00	461.00	461.00	461.00	461.00	458.00	459.00	460.00	459.00	458.00	456.00	458.00	457.00	455.00	456.00	455.00	454.00	453.00	453.00	452.00	452.00	452.00	451.00	450.00	451.00	450.00	450.00	449.00	449.00	448.00	449.00	447.00	446.00	446.00	447.00	446.00	445.00	447.00	446.00	445.00	445.00	445.00	445.00	445.00	444.00	444.00	445.00	444.00	443.00	443.00	443.00	444.00	442.00	442.00	442.00	442.00	443.00	441.00	441.00	441.00	441.00	441.00	440.00	441.00	440.00	439.00	441.00	439.00	439.00	439.00	440.00	440.00	440.00	440.00	439.00	440.00	439.00	440.00	439.00	439.00	439.00	439.00	440.00	437.00	439.00	438.00	438.00	438.00	437.00	438.00	437.00	438.00	438.00	437.00	436.00	437.00	438.00	437.00	435.00	434.00	435.00	434.00	434.00	434.00	434.00	434.00	433.00	434.00	433.00	433.00	433.00	433.00	433.00	432.00	433.00	432.00	431.00	432.00	431.00	431.00	430.00	431.00	430.00	430.00	430.00	430.00	430.00	429.00	429.00	428.00	429.00	429.00	427.00	427.00	427.00	427.00	427.00	426.00	426.00	425.00	426.00	426.00	427.00	426.00	425.00	426.00	424.00	424.00	424.00	424.00	424.00	424.00	423.00	422.00	422.00	422.00	422.00	420.00	420.00	420.00	420.00	420.00	420.00	420.00	420.00	420.00	420.00	419.00	418.00	417.00	417.00	417.00	415.00	413.00	410.00	410.00	410.00	410.00	411.00	413.00	413.00	413.00	413.00	410.00	407.00	405.00	407.00	409.00	406.00	405.00	404.00	404.00	405.00	404.00	406.00	408.00	408.00	405.00	404.00	402.00	403.00	404.00	403.00	404.00	400.00	401.00	402.00	402.00	400.00	400.00	398.00	398.00	399.00	399.00	399.00	399.00	398.00	398.00	398.00	398.00	399.00	399.00	400.00	399.00	395.00	394.00	394.00	396.00	397.00	397.00	396.00	395.00	396.00	396.00	396.00	394.00	396.00	399.00	399.00	399.00	394.00	394.00	392.00	392.00	396.00	392.00
469.00	469.00	469.00	470.00	465.00	464.00	465.00	465.00	463.00	463.00	461.00	462.00	463.00	462.00	460.00	461.00	460.00	459.00	459.00	458.00	457.00	456.00	456.00	454.00	455.00	454.00	454.00	453.00	453.00	452.00	453.00	452.00	452.00	452.00	452.00	451.00	450.00	450.00	450.00	448.00	450.00	447.00	448.00	446.00	446.00	446.00	445.00	447.00	446.00	445.00	446.00	445.00	445.00	446.00	446.00	445.00	445.00	445.00	445.00	445.00	445.00	445.00	444.00	444.00	443.00	442.00	443.00	442.00	441.00	442.00	441.00	441.00	442.00	442.00	440.00	440.00	440.00	440.00	440.00	440.00	441.00	439.00	440.00	439.00	439.00	440.00	439.00	440.00	439.00	439.00	440.00	440.00	438.00	439.00	439.00	439.00	438.00	438.00	438.00	437.00	438.00	437.00	437.00	436.00	435.00	437.00	437.00	435.00	435.00	436.00	438.00	435.00	435.00	434.00	435.00	436.00	435.00	434.00	433.00	433.00	434.00	432.00	433.00	432.00	433.00	433.00	432.00	431.00	432.00	430.00	431.00	429.00	430.00	430.00	430.00	429.00	430.00	430.00	430.00	429.00	428.00	428.00	427.00	428.00	427.00	428.00	428.00	428.00	428.00	428.00	427.00	426.00	425.00	425.00	424.00	425.00	425.00	424.00	424.00	424.00	423.00	423.00	422.00	423.00	422.00	423.00	421.00	421.00	420.00	420.00	421.00	421.00	421.00	421.00	419.00	419.00	418.00	419.00	420.00	418.00	416.00	416.00	414.00	414.00	415.00	416.00	416.00	415.00	413.00	412.00	411.00	411.00	409.00	407.00	406.00	409.00	407.00	407.00	405.00	406.00	405.00	404.00	404.00	407.00	407.00	406.00	406.00	402.00	402.00	404.00	405.00	406.00	403.00	403.00	403.00	403.00	402.00	402.00	402.00	401.00	400.00	401.00	403.00	403.00	401.00	397.00	397.00	398.00	399.00	399.00	399.00	397.00	398.00	398.00	398.00	395.00	398.00	397.00	398.00	399.00	397.00	396.00	395.00	396.00	398.00	396.00	397.00	397.00	396.00	395.00	393.00	394.00	392.00	390.00	390.00	391.00
470.00	469.00	469.00	471.00	466.00	466.00	466.00	465.00	463.00	463.00	461.00	461.00	463.00	461.00	460.00	460.00	461.00	458.00	459.00	458.00	457.00	458.00	456.00	455.00	454.00	455.00	454.00	454.00	454.00	453.00	453.00	451.00	452.00	452.00	452.00	451.00	451.00	450.00	450.00	449.00	449.00	448.00	447.00	447.00	446.00	447.00	445.00	445.00	446.00	445.00	446.00	444.00	445.00	445.00	445.00	446.00	446.00	445.00	445.00	444.00	445.00	445.00	444.00	442.00	443.00	443.00	443.00	442.00	442.00	442.00	441.00	441.00	440.00	441.00	440.00	439.00	439.00	440.00	439.00	440.00	440.00	439.00	439.00	439.00	439.00	440.00	440.00	440.00	441.00	440.00	440.00	439.00	439.00	438.00	440.00	440.00	439.00	437.00	439.00	437.00	437.00	437.00	436.00	437.00	437.00	436.00	437.00	437.00	436.00	436.00	436.00	436.00	437.00	435.00	434.00	435.00	436.00	434.00	433.00	434.00	433.00	433.00	433.00	432.00	433.00	433.00	433.00	432.00	431.00	431.00	432.00	430.00	430.00	429.00	429.00	429.00	429.00	430.00	430.00	430.00	429.00	428.00	429.00	428.00	429.00	428.00	429.00	428.00	428.00	427.00	426.00	426.00	425.00	424.00	425.00	426.00	426.00	425.00	424.00	423.00	423.00	423.00	423.00	423.00	423.00	421.00	421.00	421.00	421.00	422.00	422.00	422.00	421.00	421.00	420.00	420.00	418.00	420.00	419.00	417.00	416.00	415.00	415.00	417.00	418.00	417.00	416.00	414.00	413.00	412.00	409.00	410.00	408.00	407.00	408.00	409.00	407.00	407.00	406.00	405.00	405.00	405.00	404.00	407.00	406.00	406.00	405.00	404.00	403.00	405.00	406.00	405.00	404.00	402.00	403.00	404.00	403.00	402.00	402.00	402.00	402.00	402.00	403.00	403.00	401.00	398.00	397.00	398.00	399.00	399.00	399.00	398.00	397.00	397.00	399.00	397.00	398.00	396.00	397.00	399.00	397.00	397.00	397.00	397.00	395.00	396.00	395.00	396.00	397.00	393.00	393.00	394.00	390.00	390.00	391.00	394.00
470.00	469.00	469.00	466.00	465.00	467.00	466.00	465.00	464.00	465.00	461.00	462.00	463.00	462.00	459.00	460.00	462.00	459.00	457.00	457.00	458.00	457.00	457.00	456.00	455.00	455.00	454.00	453.00	453.00	453.00	452.00	452.00	451.00	452.00	451.00	450.00	450.00	450.00	450.00	449.00	449.00	448.00	447.00	447.00	447.00	447.00	447.00	446.00	446.00	446.00	445.00	445.00	446.00	445.00	445.00	446.00	446.00	445.00	444.00	444.00	445.00	444.00	444.00	443.00	443.00	443.00	443.00	443.00	441.00	442.00	442.00	442.00	441.00	441.00	440.00	440.00	439.00	440.00	440.00	439.00	439.00	438.00	439.00	438.00	440.00	439.00	439.00	440.00	440.00	440.00	439.00	440.00	439.00	438.00	439.00	440.00	439.00	439.00	438.00	437.00	437.00	438.00	437.00	436.00	437.00	436.00	437.00	437.00	435.00	435.00	436.00	436.00	435.00	434.00	434.00	435.00	435.00	435.00	434.00	434.00	434.00	433.00	433.00	433.00	433.00	433.00	433.00	433.00	432.00	432.00	431.00	431.00	430.00	429.00	429.00	430.00	429.00	430.00	430.00	429.00	430.00	429.00	429.00	429.00	428.00	428.00	428.00	427.00	427.00	426.00	426.00	425.00	425.00	425.00	425.00	426.00	426.00	425.00	423.00	423.00	424.00	423.00	422.00	423.00	421.00	421.00	421.00	422.00	421.00	422.00	422.00	422.00	421.00	421.00	420.00	420.00	420.00	419.00	419.00	418.00	415.00	416.00	418.00	419.00	419.00	417.00	415.00	413.00	413.00	411.00	409.00	408.00	409.00	407.00	410.00	407.00	406.00	405.00	405.00	405.00	405.00	404.00	405.00	407.00	406.00	404.00	405.00	403.00	404.00	406.00	405.00	404.00	403.00	402.00	403.00	404.00	403.00	401.00	403.00	402.00	402.00	402.00	403.00	402.00	400.00	399.00	398.00	400.00	400.00	399.00	398.00	398.00	397.00	397.00	398.00	397.00	396.00	396.00	399.00	397.00	397.00	396.00	397.00	395.00	395.00	396.00	396.00	396.00	396.00	393.00	394.00	398.00	391.00	391.00	398.00	399.00
470.00	469.00	468.00	467.00	467.00	467.00	466.00	465.00	464.00	463.00	461.00	463.00	463.00	461.00	460.00	461.00	463.00	461.00	458.00	457.00	457.00	458.00	457.00	456.00	456.00	455.00	455.00	454.00	453.00	454.00	453.00	453.00	452.00	451.00	452.00	451.00	450.00	451.00	451.00	450.00	449.00	449.00	448.00	447.00	448.00	447.00	446.00	445.00	446.00	447.00	446.00	445.00	445.00	445.00	445.00	446.00	447.00	445.00	445.00	445.00	444.00	443.00	444.00	443.00	444.00	443.00	443.00	442.00	441.00	442.00	441.00	441.00	441.00	441.00	441.00	441.00	438.00	439.00	439.00	439.00	440.00	440.00	438.00	440.00	440.00	440.00	440.00	439.00	440.00	439.00	440.00	439.00	440.00	440.00	439.00	440.00	440.00	440.00	439.00	437.00	437.00	438.00	437.00	437.00	438.00	436.00	436.00	436.00	436.00	436.00	436.00	435.00	435.00	435.00	435.00	434.00	434.00	433.00	433.00	433.00	433.00	433.00	433.00	434.00	433.00	433.00	433.00	433.00	433.00	432.00	431.00	432.00	430.00	429.00	429.00	429.00	430.00	430.00	430.00	429.00	430.00	429.00	429.00	428.00	428.00	427.00	427.00	427.00	427.00	426.00	426.00	425.00	425.00	426.00	425.00	425.00	425.00	424.00	424.00	424.00	423.00	424.00	423.00	422.00	421.00	421.00	422.00	422.00	422.00	421.00	422.00	421.00	420.00	420.00	419.00	420.00	419.00	419.00	419.00	418.00	415.00	415.00	419.00	420.00	418.00	414.00	414.00	413.00	412.00	411.00	409.00	408.00	409.00	407.00	409.00	407.00	406.00	405.00	404.00	405.00	406.00	405.00	405.00	406.00	405.00	405.00	404.00	402.00	404.00	405.00	405.00	403.00	403.00	402.00	403.00	403.00	403.00	403.00	402.00	403.00	402.00	402.00	401.00	400.00	401.00	400.00	400.00	399.00	399.00	398.00	398.00	398.00	398.00	397.00	398.00	396.00	396.00	396.00	398.00	396.00	397.00	397.00	397.00	394.00	395.00	394.00	394.00	396.00	395.00	397.00	392.00	392.00	393.00	400.00	397.00	392.00
468.00	469.00	468.00	467.00	467.00	465.00	467.00	465.00	465.00	462.00	462.00	462.00	461.00	461.00	461.00	461.00	462.00	461.00	459.00	458.00	457.00	457.00	456.00	456.00	456.00	455.00	455.00	455.00	454.00	454.00	453.00	454.00	452.00	451.00	452.00	452.00	452.00	451.00	450.00	450.00	450.00	449.00	449.00	447.00	447.00	448.00	448.00	447.00	447.00	447.00	447.00	447.00	446.00	447.00	446.00	447.00	446.00	446.00	446.00	444.00	445.00	444.00	444.00	443.00	443.00	442.00	444.00	442.00	442.00	442.00	441.00	441.00	441.00	442.00	441.00	442.00	440.00	440.00	440.00	440.00	440.00	440.00	439.00	441.00	440.00	439.00	440.00	440.00	439.00	439.00	439.00	440.00	441.00	440.00	439.00	439.00	440.00	439.00	438.00	438.00	438.00	437.00	438.00	438.00	437.00	437.00	435.00	436.00	436.00	436.00	436.00	435.00	435.00	435.00	435.00	434.00	434.00	433.00	434.00	434.00	434.00	434.00	435.00	435.00	435.00	434.00	433.00	434.00	433.00	433.00	431.00	431.00	431.00	430.00	430.00	430.00	429.00	428.00	429.00	430.00	429.00	428.00	428.00	428.00	428.00	428.00	427.00	428.00	427.00	427.00	426.00	427.00	426.00	426.00	426.00	425.00	425.00	425.00	423.00	423.00	423.00	423.00	422.00	422.00	422.00	422.00	422.00	422.00	423.00	422.00	421.00	421.00	420.00	420.00	419.00	420.00	417.00	418.00	418.00	418.00	417.00	419.00	417.00	416.00	415.00	412.00	413.00	413.00	410.00	409.00	409.00	408.00	408.00	409.00	407.00	406.00	407.00	405.00	404.00	406.00	406.00	406.00	408.00	404.00	405.00	404.00	405.00	404.00	404.00	404.00	403.00	402.00	403.00	403.00	402.00	402.00	404.00	402.00	403.00	403.00	402.00	401.00	400.00	400.00	400.00	399.00	400.00	399.00	399.00	398.00	399.00	398.00	398.00	397.00	397.00	396.00	396.00	397.00	397.00	397.00	397.00	396.00	396.00	395.00	395.00	394.00	393.00	397.00	395.00	393.00	391.00	392.00	400.00	400.00	391.00	393.00
470.00	470.00	469.00	468.00	467.00	466.00	466.00	465.00	463.00	463.00	461.00	461.00	463.00	462.00	462.00	460.00	461.00	461.00	460.00	457.00	456.00	457.00	457.00	457.00	456.00	455.00	455.00	455.00	455.00	454.00	454.00	454.00	453.00	452.00	452.00	452.00	452.00	451.00	450.00	450.00	450.00	449.00	448.00	449.00	448.00	448.00	447.00	448.00	448.00	447.00	447.00	446.00	446.00	446.00	447.00	446.00	445.00	445.00	445.00	445.00	445.00	446.00	444.00	443.00	444.00	444.00	445.00	442.00	443.00	443.00	442.00	442.00	441.00	441.00	441.00	441.00	441.00	441.00	440.00	440.00	440.00	440.00	440.00	440.00	441.00	440.00	440.00	441.00	439.00	440.00	440.00	439.00	440.00	438.00	439.00	438.00	438.00	439.00	439.00	439.00	438.00	439.00	438.00	438.00	437.00	437.00	437.00	436.00	436.00	436.00	437.00	436.00	435.00	434.00	434.00	433.00	434.00	434.00	434.00	433.00	434.00	434.00	435.00	435.00	435.00	435.00	433.00	433.00	433.00	433.00	432.00	431.00	431.00	431.00	430.00	430.00	429.00	428.00	429.00	430.00	430.00	428.00	429.00	428.00	428.00	429.00	428.00	428.00	427.00	427.00	426.00	427.00	427.00	426.00	426.00	426.00	426.00	424.00	424.00	424.00	424.00	423.00	421.00	422.00	422.00	423.00	423.00	423.00	422.00	422.00	422.00	420.00	420.00	420.00	419.00	418.00	417.00	417.00	418.00	418.00	418.00	419.00	417.00	416.00	414.00	413.00	413.00	412.00	410.00	409.00	409.00	408.00	408.00	408.00	406.00	407.00	406.00	405.00	405.00	405.00	404.00	407.00	408.00	405.00	404.00	404.00	404.00	404.00	404.00	403.00	403.00	403.00	403.00	403.00	401.00	402.00	403.00	403.00	403.00	402.00	401.00	400.00	401.00	401.00	401.00	400.00	399.00	399.00	399.00	398.00	397.00	398.00	398.00	397.00	396.00	397.00	398.00	397.00	397.00	396.00	397.00	396.00	396.00	395.00	394.00	394.00	393.00	398.00	392.00	392.00	392.00	394.00	400.00	398.00	391.00	394.00
472.00	470.00	469.00	468.00	467.00	465.00	466.00	464.00	464.00	464.00	463.00	463.00	464.00	462.00	462.00	461.00	460.00	459.00	460.00	457.00	457.00	456.00	456.00	457.00	456.00	454.00	454.00	454.00	455.00	454.00	454.00	454.00	454.00	453.00	452.00	452.00	452.00	451.00	450.00	451.00	449.00	450.00	449.00	448.00	447.00	448.00	447.00	447.00	448.00	447.00	447.00	446.00	447.00	447.00	447.00	447.00	445.00	446.00	445.00	444.00	445.00	445.00	445.00	444.00	444.00	444.00	443.00	442.00	442.00	443.00	443.00	442.00	440.00	442.00	441.00	441.00	442.00	440.00	441.00	441.00	440.00	441.00	441.00	439.00	441.00	440.00	440.00	440.00	440.00	440.00	440.00	439.00	439.00	439.00	439.00	439.00	439.00	438.00	439.00	438.00	438.00	438.00	438.00	438.00	437.00	437.00	437.00	438.00	436.00	436.00	436.00	435.00	435.00	434.00	434.00	434.00	434.00	434.00	434.00	434.00	435.00	435.00	435.00	437.00	436.00	435.00	433.00	432.00	433.00	432.00	433.00	431.00	431.00	430.00	430.00	430.00	430.00	429.00	429.00	429.00	429.00	429.00	429.00	429.00	428.00	428.00	428.00	427.00	427.00	427.00	427.00	427.00	426.00	427.00	426.00	426.00	425.00	424.00	424.00	424.00	423.00	423.00	422.00	422.00	422.00	424.00	424.00	422.00	422.00	422.00	421.00	421.00	421.00	420.00	418.00	418.00	418.00	418.00	417.00	419.00	420.00	418.00	416.00	416.00	416.00	414.00	414.00	411.00	410.00	409.00	409.00	410.00	408.00	408.00	406.00	408.00	406.00	406.00	405.00	406.00	406.00	408.00	406.00	404.00	405.00	405.00	404.00	405.00	404.00	403.00	403.00	403.00	402.00	403.00	401.00	403.00	403.00	402.00	402.00	402.00	401.00	401.00	400.00	400.00	400.00	400.00	400.00	399.00	399.00	398.00	398.00	398.00	398.00	398.00	398.00	397.00	398.00	397.00	397.00	397.00	396.00	396.00	396.00	395.00	396.00	394.00	394.00	395.00	392.00	392.00	392.00	397.00	399.00	398.00	391.00	391.00
472.00	468.00	468.00	467.00	466.00	466.00	465.00	464.00	466.00	464.00	466.00	465.00	464.00	463.00	462.00	461.00	460.00	461.00	460.00	456.00	457.00	456.00	456.00	457.00	455.00	455.00	454.00	455.00	454.00	455.00	454.00	454.00	454.00	453.00	452.00	450.00	452.00	451.00	451.00	450.00	450.00	450.00	449.00	448.00	448.00	448.00	448.00	447.00	448.00	448.00	448.00	446.00	447.00	448.00	446.00	447.00	446.00	445.00	446.00	445.00	445.00	445.00	444.00	444.00	443.00	443.00	442.00	443.00	443.00	443.00	443.00	442.00	441.00	442.00	442.00	441.00	443.00	441.00	441.00	440.00	440.00	440.00	439.00	439.00	441.00	442.00	440.00	439.00	441.00	441.00	439.00	440.00	439.00	440.00	439.00	439.00	439.00	439.00	439.00	438.00	439.00	437.00	438.00	437.00	437.00	436.00	437.00	438.00	435.00	436.00	436.00	435.00	435.00	434.00	435.00	434.00	435.00	434.00	433.00	434.00	435.00	435.00	436.00	437.00	438.00	436.00	433.00	433.00	432.00	433.00	431.00	430.00	430.00	430.00	430.00	430.00	430.00	430.00	429.00	429.00	430.00	430.00	430.00	428.00	428.00	427.00	426.00	427.00	427.00	427.00	427.00	428.00	427.00	426.00	426.00	426.00	425.00	425.00	424.00	424.00	423.00	423.00	422.00	423.00	422.00	424.00	424.00	421.00	422.00	422.00	421.00	422.00	421.00	420.00	419.00	420.00	419.00	418.00	419.00	420.00	420.00	418.00	416.00	416.00	415.00	415.00	413.00	410.00	411.00	410.00	409.00	410.00	410.00	406.00	406.00	408.00	408.00	407.00	406.00	406.00	407.00	409.00	405.00	405.00	404.00	404.00	404.00	404.00	404.00	402.00	403.00	401.00	401.00	403.00	402.00	403.00	402.00	402.00	402.00	401.00	400.00	401.00	400.00	399.00	401.00	400.00	400.00	399.00	399.00	398.00	398.00	398.00	398.00	398.00	397.00	397.00	397.00	397.00	397.00	396.00	396.00	396.00	396.00	395.00	395.00	393.00	393.00	396.00	392.00	392.00	396.00	398.00	399.00	398.00	392.00	392.00
470.00	468.00	467.00	468.00	467.00	466.00	465.00	466.00	466.00	465.00	462.00	462.00	461.00	462.00	460.00	462.00	460.00	459.00	460.00	456.00	456.00	456.00	456.00	457.00	456.00	456.00	454.00	455.00	453.00	453.00	453.00	453.00	453.00	453.00	454.00	452.00	452.00	450.00	450.00	450.00	451.00	451.00	449.00	449.00	450.00	448.00	447.00	447.00	448.00	447.00	447.00	447.00	447.00	448.00	446.00	446.00	446.00	445.00	445.00	445.00	445.00	445.00	444.00	444.00	443.00	443.00	443.00	443.00	442.00	442.00	444.00	443.00	442.00	442.00	442.00	442.00	443.00	442.00	443.00	442.00	440.00	439.00	441.00	441.00	441.00	441.00	440.00	441.00	441.00	439.00	440.00	439.00	439.00	439.00	439.00	439.00	439.00	440.00	439.00	438.00	437.00	437.00	439.00	438.00	437.00	437.00	436.00	437.00	436.00	436.00	436.00	436.00	435.00	434.00	434.00	434.00	434.00	434.00	434.00	434.00	433.00	434.00	437.00	443.00	444.00	437.00	433.00	433.00	433.00	433.00	431.00	431.00	430.00	431.00	430.00	431.00	430.00	430.00	430.00	429.00	429.00	428.00	428.00	427.00	427.00	428.00	428.00	428.00	428.00	427.00	427.00	427.00	426.00	425.00	425.00	425.00	424.00	425.00	423.00	424.00	422.00	423.00	423.00	424.00	423.00	422.00	422.00	421.00	420.00	420.00	420.00	421.00	420.00	421.00	420.00	421.00	419.00	419.00	421.00	420.00	417.00	416.00	416.00	414.00	413.00	412.00	411.00	410.00	411.00	411.00	409.00	409.00	408.00	408.00	408.00	407.00	408.00	407.00	408.00	408.00	408.00	408.00	406.00	405.00	404.00	404.00	404.00	404.00	403.00	402.00	403.00	401.00	403.00	403.00	403.00	402.00	402.00	402.00	402.00	402.00	400.00	401.00	400.00	399.00	400.00	400.00	400.00	400.00	399.00	399.00	400.00	398.00	398.00	398.00	398.00	398.00	397.00	398.00	397.00	396.00	395.00	395.00	396.00	395.00	396.00	394.00	398.00	399.00	398.00	401.00	398.00	395.00	397.00	395.00	392.00	398.00
470.00	469.00	467.00	467.00	468.00	466.00	466.00	466.00	466.00	464.00	461.00	461.00	463.00	462.00	462.00	462.00	461.00	459.00	459.00	458.00	457.00	457.00	457.00	456.00	456.00	456.00	455.00	455.00	453.00	454.00	453.00	453.00	454.00	453.00	454.00	453.00	453.00	451.00	451.00	451.00	451.00	451.00	451.00	449.00	449.00	449.00	448.00	448.00	448.00	448.00	447.00	447.00	447.00	446.00	448.00	446.00	445.00	445.00	446.00	445.00	445.00	445.00	444.00	444.00	444.00	444.00	445.00	443.00	444.00	443.00	444.00	443.00	442.00	443.00	442.00	442.00	443.00	441.00	441.00	441.00	440.00	440.00	442.00	441.00	441.00	440.00	441.00	441.00	441.00	440.00	440.00	440.00	439.00	439.00	439.00	439.00	440.00	439.00	438.00	438.00	438.00	437.00	437.00	438.00	438.00	437.00	436.00	437.00	435.00	436.00	436.00	436.00	434.00	434.00	434.00	434.00	434.00	434.00	434.00	433.00	433.00	434.00	438.00	452.00	449.00	438.00	433.00	433.00	434.00	433.00	432.00	431.00	431.00	431.00	430.00	431.00	430.00	429.00	430.00	429.00	427.00	428.00	427.00	429.00	428.00	428.00	428.00	427.00	427.00	426.00	427.00	426.00	426.00	425.00	425.00	424.00	424.00	424.00	423.00	423.00	423.00	423.00	423.00	424.00	423.00	422.00	420.00	420.00	420.00	421.00	421.00	421.00	421.00	421.00	421.00	421.00	420.00	420.00	422.00	420.00	415.00	415.00	413.00	413.00	413.00	412.00	410.00	411.00	411.00	411.00	411.00	410.00	410.00	408.00	409.00	408.00	407.00	408.00	408.00	408.00	407.00	406.00	405.00	405.00	404.00	404.00	404.00	405.00	404.00	404.00	403.00	402.00	402.00	404.00	403.00	403.00	402.00	402.00	402.00	401.00	401.00	401.00	400.00	401.00	399.00	400.00	399.00	400.00	400.00	399.00	398.00	399.00	398.00	398.00	398.00	399.00	398.00	398.00	397.00	396.00	396.00	397.00	396.00	395.00	395.00	395.00	397.00	400.00	400.00	402.00	395.00	394.00	397.00	395.00	393.00	395.00
471.00	470.00	469.00	468.00	468.00	466.00	466.00	467.00	465.00	464.00	462.00	462.00	463.00	462.00	462.00	462.00	460.00	459.00	460.00	459.00	458.00	457.00	457.00	455.00	455.00	455.00	455.00	455.00	454.00	454.00	455.00	455.00	454.00	453.00	453.00	454.00	453.00	452.00	453.00	451.00	450.00	451.00	450.00	449.00	451.00	449.00	449.00	448.00	447.00	448.00	447.00	447.00	447.00	447.00	447.00	446.00	446.00	445.00	447.00	445.00	445.00	445.00	445.00	444.00	443.00	445.00	444.00	444.00	443.00	443.00	444.00	442.00	441.00	441.00	442.00	442.00	442.00	442.00	441.00	441.00	441.00	442.00	442.00	442.00	441.00	441.00	442.00	441.00	441.00	439.00	440.00	440.00	440.00	439.00	439.00	440.00	438.00	438.00	438.00	440.00	438.00	438.00	437.00	438.00	438.00	437.00	436.00	437.00	436.00	435.00	435.00	435.00	435.00	434.00	433.00	433.00	433.00	433.00	433.00	432.00	433.00	432.00	441.00	474.00	461.00	437.00	433.00	433.00	433.00	433.00	433.00	432.00	431.00	431.00	430.00	430.00	430.00	429.00	430.00	429.00	427.00	428.00	428.00	428.00	428.00	428.00	428.00	427.00	426.00	426.00	426.00	425.00	426.00	426.00	425.00	424.00	425.00	425.00	424.00	424.00	423.00	424.00	423.00	423.00	422.00	421.00	421.00	421.00	421.00	420.00	421.00	421.00	421.00	422.00	421.00	420.00	420.00	421.00	420.00	418.00	415.00	414.00	413.00	412.00	413.00	411.00	411.00	412.00	412.00	411.00	410.00	411.00	411.00	409.00	409.00	409.00	410.00	410.00	409.00	408.00	407.00	405.00	405.00	404.00	404.00	405.00	404.00	406.00	405.00	405.00	403.00	403.00	403.00	404.00	405.00	404.00	403.00	402.00	401.00	402.00	401.00	401.00	401.00	401.00	400.00	400.00	400.00	400.00	400.00	399.00	399.00	400.00	399.00	398.00	398.00	398.00	397.00	398.00	396.00	396.00	397.00	397.00	396.00	395.00	396.00	397.00	398.00	400.00	400.00	399.00	395.00	395.00	399.00	395.00	395.00	394.00
471.00	469.00	468.00	469.00	469.00	467.00	465.00	465.00	466.00	464.00	464.00	462.00	464.00	462.00	463.00	460.00	459.00	459.00	460.00	459.00	458.00	457.00	457.00	456.00	456.00	455.00	455.00	454.00	456.00	454.00	455.00	455.00	453.00	453.00	453.00	455.00	453.00	453.00	453.00	451.00	451.00	451.00	450.00	449.00	449.00	449.00	448.00	449.00	447.00	447.00	447.00	448.00	448.00	446.00	447.00	446.00	446.00	447.00	447.00	445.00	445.00	445.00	445.00	445.00	444.00	444.00	443.00	443.00	444.00	443.00	443.00	442.00	442.00	443.00	442.00	442.00	444.00	441.00	442.00	442.00	442.00	442.00	442.00	441.00	441.00	441.00	441.00	441.00	441.00	440.00	440.00	439.00	440.00	439.00	440.00	439.00	439.00	438.00	439.00	440.00	439.00	437.00	437.00	438.00	438.00	437.00	437.00	436.00	436.00	435.00	435.00	435.00	435.00	434.00	434.00	433.00	433.00	433.00	433.00	432.00	432.00	432.00	441.00	501.00	464.00	435.00	432.00	433.00	432.00	433.00	433.00	432.00	431.00	431.00	431.00	430.00	430.00	429.00	430.00	430.00	427.00	428.00	428.00	429.00	427.00	428.00	426.00	426.00	427.00	425.00	425.00	425.00	425.00	424.00	424.00	425.00	424.00	424.00	425.00	423.00	424.00	423.00	423.00	422.00	421.00	421.00	421.00	423.00	422.00	422.00	421.00	421.00	421.00	421.00	421.00	420.00	419.00	419.00	418.00	417.00	415.00	415.00	414.00	413.00	412.00	412.00	410.00	413.00	413.00	411.00	411.00	413.00	411.00	409.00	409.00	410.00	411.00	410.00	409.00	407.00	405.00	406.00	404.00	404.00	404.00	403.00	404.00	406.00	406.00	403.00	402.00	405.00	404.00	405.00	404.00	403.00	403.00	402.00	401.00	401.00	401.00	400.00	400.00	401.00	400.00	400.00	400.00	400.00	399.00	400.00	399.00	399.00	398.00	398.00	398.00	397.00	398.00	398.00	397.00	396.00	396.00	396.00	396.00	397.00	397.00	398.00	397.00	399.00	399.00	397.00	395.00	395.00	400.00	396.00	396.00	396.00
